0.488979,0.273067,0.066945,0.170004,0.130031,0.976827
0.543786,-0.383158,0.877334,0.892742,0.430840,0.131865
0.070502,-0.111359,0.241839,-0.082223,0.960551,0.265671
-0.082994,0.870515,0.450989,-0.389563,-0.887386,-0.246549
0.681667,-0.141344,0.633570,-0.589587,0.767946,0.250290
-0.770463,0.529574,0.571459,-0.651246,0.319560,-0.688302
0.582616,0.926755,0.778770,-0.311064,-0.944457,0.106023
0.387120,-0.147162,0.855556,0.822109,-0.485449,-0.297449
-0.000859,-0.115537,-0.147539,0.050153,0.395781,0.916974
0.097671,-0.024614,0.195844,0.558183,0.820380,0.124128
-0.374679,0.706050,0.820258,-0.701953,0.686869,-0.188342
-0.205309,0.164466,0.557811,0.781141,0.604436,-0.156445
0.917189,-0.109943,0.290386,0.674916,0.160438,-0.720242
0.675838,-0.212724,0.309797,0.284604,0.838641,0.464416
-0.217333,-0.567241,0.843818,-0.525452,0.423603,-0.737876
0.708575,-0.572835,0.669809,-0.602400,0.151593,0.783667
-0.731582,0.208921,0.725131,-0.612065,-0.084591,0.786270
-0.044373,-0.500112,0.092374,0.520392,-0.059704,0.851838
0.719662,0.050794,0.507737,0.777277,-0.392057,-0.492068
-0.072373,0.582756,0.481838,0.163224,-0.986134,0.029963
-0.646947,0.493772,0.459789,0.771857,0.525711,0.357581
0.278230,0.213023,0.578690,0.077683,0.996869,0.014771
0.387170,-0.580965,0.807094,0.882946,-0.077562,0.463023
-0.200467,0.171105,0.302737,0.907997,0.394211,0.141910
-0.431516,-0.022078,0.787256,-0.145382,0.803581,0.577166
0.154873,-0.755575,0.591868,-0.455560,0.705181,0.543309
-0.035941,0.103230,0.917253,0.742137,0.633334,0.219364
0.356879,-0.025136,0.845858,0.574127,-0.021095,-0.818495
0.137540,0.271053,0.777443,0.192785,-0.527718,0.827253
-0.072739,-0.717462,0.142006,-0.524827,0.591245,0.612361
0.064568,-0.182890,0.309682,-0.564815,0.728250,0.388119
-0.354014,0.686656,0.501604,0.830573,0.083716,0.550582
-0.501261,0.166928,0.805340,-0.021983,-0.980579,0.194886
0.421731,-0.048930,0.883523,0.907400,0.090343,-0.410442
0.145975,-0.570374,0.796939,0.317223,0.762544,0.563823
0.440363,-0.858208,0.264030,-0.454921,0.310568,-0.834622
-0.819647,0.311852,0.409701,0.930671,0.057247,-0.361351
-0.306545,-0.234504,0.676997,-0.650114,-0.533952,-0.540600
-0.127079,0.059745,0.884949,-0.069258,0.918946,0.388254
0.183398,-0.335571,0.725830,0.916656,0.345733,-0.200525
0.547795,-0.499813,0.860890,0.998101,-0.060434,0.011893
-0.394404,-0.328783,0.425631,0.785900,0.508924,-0.351223
-0.700350,0.462445,0.484134,0.965416,-0.142489,0.218330
-0.592922,0.257552,0.357831,-0.008745,-0.352155,0.935901
0.183553,-0.692474,0.825748,0.627760,0.771079,0.106558
0.543109,-0.265533,0.717016,-0.200721,0.975920,0.085385
-0.162682,-0.741553,-0.051214,0.603178,-0.748165,0.276450
0.680365,0.089878,0.747693,0.465648,0.880485,-0.088986
0.445986,-0.031029,0.132436,0.526692,0.839363,-0.134410
-0.033025,0.800851,0.278349,0.879996,-0.185928,0.437080
-0.297021,0.739316,0.487171,-0.674916,0.146074,-0.723292
0.122396,0.730887,0.301639,0.746080,0.094076,-0.659178
0.556697,0.673977,0.383887,-0.250469,-0.110044,0.961850
-0.494653,0.134109,-0.102571,0.005254,0.137486,0.990490
-0.390083,0.184009,0.830269,0.989507,0.070394,0.126177
0.682344,0.378161,-0.286207,-0.702807,0.568139,-0.428113
-0.225088,0.114642,0.600225,0.815284,-0.578158,-0.032327
-0.090332,0.093235,-0.427386,-0.316292,0.948013,0.035073
-0.515575,0.376595,0.719897,-0.227648,-0.960649,0.159156
-0.339908,0.402924,0.729623,0.922368,0.384024,-0.041999
0.451244,-0.363616,0.701171,0.822768,0.568006,0.020547
0.401692,0.403148,0.750488,0.806558,-0.043426,-0.589557
-0.247624,0.104572,0.359456,0.271120,0.956439,-0.108255
0.086844,-0.675543,0.833179,-0.122539,-0.826899,0.548837
0.054523,0.853510,0.535904,0.782143,0.133799,-0.608564
-0.795236,0.489744,0.403654,0.394201,0.679488,-0.618791
-0.072218,0.222869,0.891681,0.816852,0.574994,-0.046204
0.905791,-0.026255,0.292226,0.710284,0.029728,-0.703287
-0.114015,0.044902,0.890426,0.564200,-0.780965,-0.267902
0.060819,-0.160065,0.505598,0.694374,0.586295,0.417255
-0.194952,0.680540,0.367258,-0.805020,0.539806,0.246073
0.092051,-0.429552,0.678024,-0.740206,-0.528086,0.416198
-0.419129,-0.361528,0.208109,0.453009,0.138639,-0.880660
-0.733663,0.015589,0.446939,0.735044,0.672239,-0.088351
-0.002368,-0.425897,0.788881,-0.422484,-0.887809,-0.182490
-0.010539,-0.278063,0.830555,-0.125007,-0.973716,0.190397
0.471335,0.149400,0.875380,0.909021,-0.415157,0.036418
-0.064047,-0.571119,0.860761,0.314139,0.892424,0.323876
-0.182616,0.128291,0.680748,0.875562,0.482784,0.017647
0.395602,0.312747,0.740420,0.969537,-0.078057,-0.232177
-0.582823,0.666667,0.425731,0.618965,-0.140036,0.772834
0.220872,0.913255,0.453742,-0.082653,-0.973358,0.213875
0.513911,0.726635,0.571730,-0.729875,0.676160,0.100449
0.557164,0.943314,0.710983,0.046178,0.913728,0.403695
0.135094,0.441486,0.708402,0.924533,0.378610,-0.043515
-0.687859,-0.197285,0.525493,0.404744,-0.727820,0.553588
-0.074718,-0.359141,0.621590,-0.558521,0.787879,-0.259424
0.256786,-0.102484,0.625341,0.579911,0.226358,-0.782602
0.237944,0.548520,0.323089,0.674827,0.536413,-0.506823
-0.371918,0.272992,0.818589,0.934138,-0.189615,0.302377
0.712791,0.246215,0.538714,0.123260,-0.655376,0.745178
0.127495,0.439920,0.710441,0.899683,0.414758,0.136184
0.617384,1.000000,0.742459,0.940010,-0.326191,0.099901
-0.053948,0.559409,-0.025115,0.938659,-0.115796,-0.324825
-0.101781,-0.662192,0.544604,-0.005519,0.717376,0.696664
0.255693,-0.437160,0.888230,-0.458482,-0.868294,0.189366
0.415692,0.368091,0.752257,0.938187,-0.027274,-0.345051
0.516929,0.889685,0.432934,0.361063,0.827866,-0.429268
-0.822252,0.205788,-0.961949,0.081624,0.223690,0.971237
0.642576,0.102558,0.215069,-0.143490,0.659672,-0.737728
-0.167260,0.217424,-0.881712,-0.462565,0.876842,0.131080
0.587093,0.382412,0.677838,0.826887,-0.161775,0.538597
-0.286299,0.311255,0.305161,0.679153,0.642341,0.355175
0.367547,-0.655105,0.057547,0.031043,0.047685,0.998380
-0.061029,0.562468,0.236676,0.487193,0.634835,-0.599690
-0.369783,0.741105,0.800676,0.763856,-0.627528,0.150774
-0.075080,-0.675766,-0.078697,0.786081,-0.158979,0.597329
-0.186937,0.148878,0.175293,0.324009,0.936913,-0.131191
-0.062433,-0.609234,0.021792,0.799940,0.548061,0.244387
-0.416839,-0.443948,0.402570,0.784721,0.559413,0.266965
-0.765777,0.144402,-0.959211,0.201597,0.299527,0.932546
-0.033962,0.173119,-0.112655,0.698662,-0.707912,-0.103594
-0.135354,0.167002,0.092859,-0.233995,0.954945,-0.182555
0.360002,0.666965,0.388094,0.789078,-0.523840,-0.320856
0.241433,-0.396733,0.908396,-0.624144,-0.338136,-0.704350
-0.458008,0.285373,0.832166,-0.657730,-0.753091,-0.015644
-0.781757,0.238159,-0.966271,0.215192,0.204233,0.954977
0.639403,-0.284329,0.626467,-0.576438,-0.664044,0.476198
-0.438229,0.485866,0.805910,-0.099171,0.980021,-0.172404
0.091997,0.147162,0.786942,0.074166,-0.764642,0.640173
0.479505,-0.303498,0.717073,0.443741,-0.658463,-0.607882
-0.629459,0.364810,0.797938,0.788638,-0.378099,0.484862
0.501835,-0.344372,0.805568,0.835350,-0.544405,0.076246
-0.077526,0.368465,0.067787,-0.642562,0.739432,0.200886
-0.239453,0.105393,0.856868,0.425823,0.743569,0.515539
-0.097359,-0.635563,0.119201,0.594219,-0.181657,-0.783521
-0.461912,0.098456,-0.972902,0.018032,0.200385,0.979551
-0.381080,-0.622958,0.014005,-0.223473,-0.218568,0.949888
-0.835004,0.214440,0.372820,0.718975,0.614274,0.325181
0.114120,-0.155888,0.767631,-0.738985,0.001771,-0.673720
0.462331,0.367121,0.777315,0.704710,-0.708610,-0.035440
0.289317,0.183635,0.693484,-0.530347,0.734411,-0.423523
0.318986,0.192288,0.597202,0.212174,0.903786,-0.371690
0.110372,0.342060,0.064164,-0.196805,0.279467,-0.939769
0.456918,0.978892,0.491364,0.059906,-0.997883,-0.025317
-0.151280,0.045573,-0.334869,-0.335966,0.940631,-0.048379
0.081640,0.828821,0.453314,0.406692,-0.908585,-0.095264
0.218896,0.143209,0.785658,0.860071,0.360910,-0.360586
0.151960,-0.119937,0.840937,0.217707,0.557281,0.801275
-0.159349,0.376370,0.699788,0.989361,-0.097285,-0.108171
0.011165,0.528157,0.707389,-0.462246,-0.869369,-0.174719
0.740585,0.227344,-0.350043,-0.691160,0.431805,-0.579519
0.437917,-0.049825,0.235949,-0.209438,0.790390,0.575690
-0.239609,0.346461,0.776859,-0.797355,0.430513,-0.422947
-0.406273,0.433580,0.343369,0.725476,-0.365671,0.583069
0.783892,-0.059596,0.654934,0.965684,-0.134023,-0.222470
-0.220246,-0.418737,0.504328,0.190388,-0.981275,0.029196
-0.557164,0.656224,0.615856,-0.282534,0.946989,-0.152923
-0.278541,0.181696,0.085286,-0.148184,-0.988545,-0.028637
0.284892,-0.229507,0.631031,0.178457,0.983862,-0.012992
0.497464,0.128142,0.496014,0.917012,-0.077615,-0.391236
-0.769472,0.486761,0.442945,0.486392,0.781489,-0.390766
-0.480493,0.265085,0.874524,0.721222,0.642899,0.257913
0.036408,-0.513165,0.776673,0.836080,0.269096,-0.478078
0.682706,-0.134855,0.784660,0.637763,-0.769878,0.023367
-0.139570,0.134482,-0.583824,-0.015933,0.999174,0.037376
0.760885,-0.012903,0.572572,-0.615489,0.775975,-0.137970
0.341211,-0.827180,0.297546,-0.480958,0.237484,-0.843967
0.463996,0.763035,0.520673,0.823415,-0.512359,-0.243875
-0.065346,-0.513762,0.714206,-0.709596,0.646816,0.279470
0.416423,0.628254,0.474307,-0.288749,0.956229,0.047441
-0.629097,-0.218841,0.742017,0.612392,-0.586264,0.530350
-0.797371,0.085925,-0.962520,0.003358,0.079409,0.996836
-0.124267,0.059446,0.912774,0.530968,0.353228,0.770262
0.398048,-0.384202,0.731805,0.498788,0.827720,0.257079
0.622695,-0.126576,0.549225,-0.635351,0.510626,0.579301
-0.143630,0.176102,-0.022990,0.839530,0.526922,0.132451
-0.469511,0.158052,-0.975056,-0.006111,0.210665,0.977539
-0.313779,0.862311,0.538600,0.161729,0.986270,-0.033398
0.554612,0.446185,0.385955,-0.627055,-0.545125,0.556454
0.659442,-0.139181,0.559978,0.126433,0.904009,0.408391
0.793937,0.440890,-0.343283,-0.637311,0.576147,-0.511751
0.551699,-0.665548,0.678380,0.773480,0.576761,0.262822
-0.099389,0.836877,0.402827,-0.499408,0.864874,-0.050844
0.499805,0.922279,0.745340,0.200898,0.971555,-0.125381
0.501991,-0.148057,0.672890,0.367000,0.304904,0.878831
-0.126453,-0.474379,0.806181,-0.138270,0.581324,0.801838
0.300195,0.019094,0.665274,0.215524,0.933767,-0.285706
0.741106,-0.282166,0.611678,-0.355739,0.661504,0.660199
0.282446,0.057582,0.832951,0.168146,-0.155540,-0.973414
-0.309929,0.134482,0.375173,-0.269850,0.955612,-0.118267
-0.123695,0.415753,0.843134,0.365022,-0.884333,0.291058
0.492572,-0.415380,0.706961,0.974299,-0.182200,-0.132457
0.267352,0.433654,0.295720,0.457820,0.820588,-0.342106
-0.146181,-0.060938,0.931785,0.335010,-0.789491,-0.514269
0.662511,-0.372194,0.655105,0.034495,0.803015,0.594960
0.186988,0.122324,0.718856,0.020795,-0.966855,0.254479
-0.148211,0.031327,0.850749,-0.690621,-0.605312,-0.395778
0.564086,-0.650258,0.642797,0.776016,0.612510,0.150431
-0.075290,0.559260,0.312421,-0.190286,-0.209044,-0.959214
-0.623734,-0.085477,0.291627,-0.435384,0.065694,0.897845
0.139259,-0.079958,0.384657,-0.368342,0.928660,0.043767
-0.170798,-0.100172,0.433005,0.712542,0.673366,0.197133
0.050618,0.676065,0.463753,0.341414,-0.875975,-0.340740
0.431049,0.179607,0.766604,0.971729,0.236096,-0.001568
-0.369682,0.186246,0.404267,-0.648617,-0.759800,-0.044720
-0.154247,0.504736,0.802858,0.924049,-0.106009,-0.367281
0.335486,-0.233759,0.499950,-0.158823,0.843102,0.513765
0.240861,0.430297,0.293424,0.506676,0.759263,-0.408410
0.010438,0.780861,0.452401,-0.277723,0.749084,0.601451
-0.416318,-0.106437,0.216723,-0.525650,-0.004754,0.850687
0.413195,0.076229,0.784332,0.961678,0.254704,0.101499
-0.062484,-0.308272,0.421838,0.715748,-0.327080,0.617028
-0.634040,0.372790,0.151575,-0.132552,-0.781958,0.609074
-0.164035,-0.172522,0.501505,0.942032,-0.221619,-0.251913
0.313938,0.202507,0.789038,0.255799,0.937342,0.236552
-0.230657,0.816962,0.579845,0.358195,-0.932105,0.053644
0.153624,-0.266950,0.555300,-0.232815,0.968763,-0.085410
0.607755,-0.093832,0.542308,-0.045440,0.808625,0.586566
-0.545609,0.247185,0.246930,0.047061,-0.650427,0.758109
0.540247,0.552547,0.494930,-0.269195,-0.952942,-0.139409
-0.437812,-0.134482,0.501576,0.279184,0.269425,0.921665
0.320650,-0.228239,0.855698,0.339115,0.384953,-0.858378
-0.483772,-0.010740,0.207510,0.002681,-0.073221,0.997312
-0.243253,0.360931,0.364049,0.978987,0.199124,-0.043967
0.565179,0.850824,0.646862,0.545910,0.730732,-0.409893
-0.021576,0.222496,0.633555,-0.355586,-0.582537,0.730896
-0.716695,0.543000,0.541937,0.952040,0.281608,0.119654
-0.711021,0.701052,0.468488,0.651784,-0.375091,0.659155
0.544567,0.552249,0.502489,0.485312,0.867922,-0.105749
0.170436,0.438428,0.260878,0.306242,0.828712,-0.468457
-0.236797,0.581861,0.849808,-0.612677,0.776583,-0.146788
0.800494,-0.363467,0.648031,0.830107,0.006383,-0.557567
0.244921,-0.780638,0.832337,0.726228,0.676715,0.121039
0.109746,-0.112777,0.827688,-0.503582,0.844436,0.182573
-0.352400,-0.414560,0.476104,0.150938,-0.868073,0.472934
0.366299,-0.563065,0.793545,0.787083,0.392401,0.475943
0.397787,0.509659,0.598115,-0.241478,-0.640244,0.729230
0.561951,0.931976,0.563273,0.877251,-0.392618,-0.276190
-0.088979,0.135078,-0.989632,0.259667,0.262012,0.929475
0.371245,0.252928,0.693740,0.994695,-0.102289,-0.010930
-0.339127,0.686134,0.012565,0.531219,-0.588623,0.609369
0.590682,-0.217648,0.732105,-0.358349,0.932572,0.043527
0.293066,-0.537555,0.803514,-0.129906,-0.428782,0.894019
0.461496,-0.619527,0.273058,0.801393,-0.038984,0.596867
0.558828,0.939286,0.779568,-0.052500,-0.991521,0.118872
0.695356,0.371523,-0.318239,0.861326,-0.344051,0.373828
0.460092,0.265160,0.853288,-0.563894,0.798860,0.209396
0.488407,-0.356605,0.842306,0.801649,0.364879,-0.473520
-0.964867,0.549639,0.273329,0.290557,0.539833,0.790036
-0.222692,0.189677,0.549339,0.003979,-0.999391,0.034678
-0.209994,0.258671,-0.982272,-0.224379,-0.434607,-0.872222
0.036564,0.035504,0.610109,0.843230,0.366756,0.393005
0.464203,0.942270,0.768387,-0.415471,0.909532,0.011625
0.895279,0.168792,0.290586,-0.014754,-0.803891,0.594594
0.369421,0.586858,0.424861,0.410519,0.906059,-0.102619
-0.425165,0.245841,0.904959,-0.132098,-0.988682,-0.071116
0.230501,0.230552,-0.479926,0.009539,0.057152,0.998320
0.129630,0.345267,0.752129,0.307675,0.902894,0.300196
0.221082,-0.800030,0.594735,-0.006107,0.862013,0.506849
-0.373272,-0.293728,0.094228,0.689272,0.722699,-0.051079
-0.203904,0.735437,0.637706,0.553482,0.829482,-0.074946
-0.524162,0.024763,0.540839,0.952643,-0.301939,0.036102
-0.506884,0.439845,0.392915,-0.622365,0.517503,-0.587241
-0.078047,0.702842,-0.011138,-0.727767,0.076059,-0.681593
0.982095,0.254195,0.324073,-0.004199,0.990151,0.139941
-0.433857,0.289401,0.435914,0.629637,0.720170,0.291396
0.188913,-0.065861,0.304791,0.952440,-0.105361,-0.285931
0.082943,-0.164839,0.375016,0.387022,-0.912671,-0.131320
0.501159,-0.404789,0.702982,-0.365408,0.795266,0.483765
-0.175796,-0.133065,0.958569,-0.331542,0.789575,0.516383
-0.088718,0.543075,0.650513,-0.359341,0.279960,-0.890223
-0.225815,0.009995,0.812428,-0.663412,0.646159,-0.377311
0.363697,0.595585,0.535719,-0.629300,0.167952,0.758797
-0.120572,-0.337510,0.564785,0.478641,0.851352,0.214714
0.432402,0.174760,0.819473,-0.774298,-0.434583,0.460001
-0.106883,-0.007907,0.508949,0.675390,-0.228226,0.701257
-0.781547,0.593720,0.469187,-0.387575,-0.416186,0.822542
0.526663,-0.834117,0.229745,-0.613173,0.057685,-0.787840
-0.458999,0.784515,0.439109,0.909663,-0.368781,-0.191087
0.197398,0.651898,0.735956,0.944389,0.087009,0.317111
-0.778269,0.158127,-0.962377,0.158788,0.266323,0.950715
0.119324,-0.119266,0.364534,0.206688,-0.978407,0.000683
0.048121,0.850377,0.534164,-0.734825,-0.058161,0.675759
0.155029,-0.180354,0.772024,0.980293,-0.191803,-0.047308
-0.316956,-0.071977,0.802102,-0.833573,0.222964,-0.505414
0.327522,0.082495,0.089222,0.625831,-0.048885,-0.778425
0.049525,0.602894,0.615585,0.600307,-0.784003,0.158023
0.078622,0.094130,0.373162,0.927510,-0.245841,-0.281581
-0.296239,0.081525,0.570332,-0.160543,0.828187,0.536966
0.318048,0.014246,0.827574,0.690561,0.656975,-0.302504
-0.132959,0.083986,-0.431550,-0.320686,0.946647,-0.031923
-0.650331,0.772507,0.528602,-0.408890,0.912388,-0.018895
-0.281353,-0.785933,0.178117,-0.004254,-0.999288,0.037488
-0.261628,0.563884,0.341315,0.989361,0.138492,-0.044553
0.202551,0.225927,0.504243,0.937728,0.195783,-0.286942
-0.462122,0.133960,-0.097722,-0.010163,0.174721,0.984565
0.187353,0.282539,0.451617,0.953556,0.194080,-0.230355
-0.135561,0.158201,0.843176,-0.251756,0.967527,0.022602
-0.251528,0.696576,0.720895,0.424111,-0.903281,0.064910
0.163149,-0.355411,0.172554,-0.760067,0.159773,-0.629897
0.273182,-0.109122,0.638305,0.720833,0.229316,-0.654075
-0.391281,0.229880,0.836887,0.919819,0.262314,0.291761
-0.320129,-0.752219,0.483606,-0.341381,-0.515169,0.786168
-0.161690,0.621765,0.682830,0.400268,-0.915084,-0.049062
0.332830,0.479526,0.674815,0.316403,-0.459246,-0.830050
0.405961,0.213620,0.628849,-0.129523,-0.923282,0.361627
0.160496,0.332737,0.707874,-0.690808,-0.522660,-0.499611
-0.816839,0.489073,0.587404,0.836393,0.463557,-0.292510
-0.117138,-0.345342,0.581243,-0.320503,0.919197,0.228810
-0.188030,0.154173,0.726414,0.924356,0.327095,-0.196405
-0.138477,0.708958,0.000314,0.358315,-0.064398,0.931377
-0.259023,0.261580,0.803628,-0.362054,-0.120517,0.924334
0.244451,0.511151,0.746053,0.714492,0.698847,-0.033391
-0.160235,0.536958,0.766162,0.657608,-0.642152,0.393945
0.366664,0.110838,0.590042,-0.583493,-0.442231,0.681152
-0.061912,0.339823,0.649472,0.457580,0.651053,-0.605599
0.208276,-0.302379,0.889927,0.712108,0.108330,-0.693662
0.040573,-0.235623,0.806238,-0.424351,0.879438,0.215673
0.168146,0.174461,-0.472168,-0.042728,0.969553,0.241124
0.439220,0.419632,0.691701,-0.172096,0.696716,-0.696398
0.544151,0.822928,0.651155,0.394527,0.862049,-0.318150
-0.212908,-0.315582,0.719940,-0.708203,0.200843,-0.676839
-0.146492,0.204819,-0.881427,-0.462565,0.876842,0.131080
0.516045,0.889685,0.433133,0.361063,0.827866,-0.429268
-0.130722,0.095621,-0.424348,-0.236732,0.970614,0.043203
-0.099389,0.278437,0.780995,0.985157,-0.160136,-0.061820
-0.130773,-0.142910,0.960338,-0.487872,0.739100,0.464449
-0.212803,-0.419557,0.084516,0.183255,0.659705,0.728839
-0.659753,-0.087044,0.290657,0.367879,-0.169457,-0.914303
-0.515941,0.464086,0.795385,0.043541,-0.825590,0.562588
0.910893,-0.060864,0.293196,0.695965,0.305487,-0.649855
0.080859,-0.475423,0.750389,0.978139,0.149326,0.144730
0.242786,0.458193,0.292055,0.514060,0.781072,-0.354499
-0.400443,0.870889,-0.088552,-0.116928,0.354139,-0.927854
-0.246166,-0.018796,0.773422,-0.573094,0.600692,0.557434
0.541082,-0.369807,0.653722,0.750194,0.655895,0.083731
-0.054523,0.097635,0.762454,-0.385201,0.742422,0.548115
0.030633,0.005445,0.606116,0.920830,0.235850,0.310558
-0.265217,0.885955,0.469201,0.330480,-0.855563,0.398492
-0.130878,0.332289,0.636393,0.424236,-0.200043,-0.883180
0.858113,-0.185053,0.636037,0.563758,-0.631647,-0.532164
-0.251478,0.805848,0.231071,-0.195706,-0.956111,0.218060
-0.170903,0.185202,-0.836430,0.439282,0.896874,-0.051461
-0.264906,0.142687,0.350186,0.278239,0.949683,-0.143825
-0.664801,-0.043634,0.753141,0.908254,-0.391397,-0.147928
0.654705,0.798911,0.772095,0.933427,0.358235,-0.019535
0.225348,0.299545,0.504157,0.932194,-0.034434,-0.360318
-0.658190,0.406206,0.424462,0.079587,0.992399,-0.093857
0.096266,-0.763929,0.582826,-0.424332,0.705711,0.567375
-0.132543,0.592899,0.788625,-0.665179,0.744472,-0.057425
0.209578,-0.139480,0.555243,-0.433644,0.877449,0.205025
0.523489,0.814202,0.613289,0.988288,0.066421,-0.137389
0.512713,0.632506,0.411883,0.286600,-0.930342,-0.228746
0.658921,0.467368,0.419841,0.739833,0.397108,-0.543095
-0.171840,0.576490,0.781180,0.931844,0.319014,-0.172909
-0.654705,-0.073544,-0.080394,-0.162721,-0.272936,-0.948171
0.488458,-0.019319,0.602479,0.343159,0.385821,-0.856379
0.645648,0.958455,0.711568,0.971221,-0.236217,0.030533
-0.451711,0.068621,0.515838,0.368254,0.918168,0.146138
0.336007,-0.302678,0.943937,-0.229751,0.968658,-0.094427
0.142331,-0.425972,0.877533,0.843531,-0.537068,0.003610
-0.387587,0.200940,-0.976211,-0.036815,0.284244,0.958045
-0.473050,0.600731,0.442703,-0.758730,0.421734,0.496457
0.448483,0.938540,0.770698,0.687125,-0.718929,0.104881
0.607027,-0.290893,0.693170,0.294975,0.948471,0.115726
0.303578,-0.174909,0.488213,0.838273,-0.530717,0.125049
-0.022147,-0.488775,0.511032,0.083563,0.760762,0.643629
-0.116462,0.132468,-0.530000,-0.106699,0.980750,0.163538
0.334339,-0.637354,0.297802,-0.602382,0.234541,-0.762972
0.609267,0.868054,0.719369,-0.688582,0.671615,0.273474
0.052077,-0.715448,0.044183,0.185307,0.980602,-0.063884
0.176110,0.510629,0.289716,0.563770,0.733374,-0.379902
-0.779778,0.079660,0.718656,0.903739,0.423790,-0.060481
-0.258451,-0.023421,0.695766,0.829956,-0.506002,-0.234808
0.589904,0.132543,0.651725,0.425108,0.789152,-0.443308
0.577152,-0.738420,0.226792,0.591981,-0.192144,0.782713
0.762394,-0.101440,0.567009,0.898572,-0.337004,0.281064
-0.353963,0.573656,0.375458,0.004387,-0.998001,0.063049
0.006740,0.113672,0.790179,0.241018,-0.954809,0.173926
0.209785,-0.045126,0.621675,0.335014,0.819626,-0.464735
-0.668185,0.409637,0.516708,0.865141,0.375138,0.332871
0.081170,-0.185426,0.575381,-0.380033,-0.874812,0.300464
-0.170798,-0.031401,0.924170,-0.464770,-0.549124,-0.694587
0.139154,0.141792,0.405665,-0.748793,0.614838,0.247555
0.471751,-0.440591,0.716460,0.509569,0.860179,0.020787
-0.089185,0.355188,0.820357,0.771817,-0.626356,0.109435
-0.119270,-0.411949,0.840424,0.741926,0.639396,0.201786
0.323201,-0.416574,0.830055,-0.374576,-0.718401,0.586168
-0.855720,0.414858,0.701741,0.815816,0.557116,0.155136
-0.339127,0.667189,0.011395,0.531219,-0.588623,0.609369
0.381236,0.405236,0.735528,0.808602,0.205384,-0.551344
0.667302,0.068695,0.717900,-0.740060,-0.656738,-0.144935
0.642576,-0.203476,0.637877,0.282199,0.857802,-0.429580
-0.151540,0.409339,0.844717,0.306082,0.887464,0.344559
-0.124423,-0.487357,0.023418,0.335170,-0.276805,0.900577
-0.149094,-0.526590,0.125633,-0.625488,-0.585915,0.515237
-0.799922,0.173939,-0.963119,0.187018,0.233679,0.954158
0.425947,0.462893,0.759060,0.916227,-0.323114,-0.236909
0.243148,0.543821,0.599527,0.127637,-0.207721,0.969825
0.878362,0.087268,0.301995,-0.628715,-0.583041,0.514569
-0.126558,-0.320131,0.767646,-0.612127,0.551520,-0.566680
0.009396,0.122548,0.329350,0.933206,-0.032036,-0.357910
-0.006428,-0.523607,0.444842,0.462844,0.070411,0.883639
-0.057229,0.080704,-0.100831,0.213146,0.942610,0.257011
-0.122603,-0.386216,0.573327,0.541247,-0.822484,-0.174847
-0.419908,-0.221675,0.512044,-0.051253,0.400312,0.914944
-0.328561,-0.084658,0.803029,0.840239,-0.047097,0.540168
0.683176,-0.145671,0.776302,-0.548547,0.832967,-0.072535
0.652415,-0.118073,0.529144,-0.222705,0.915710,0.334481
-0.368119,0.145819,0.570418,-0.185179,0.814978,0.549109
-0.202653,-0.666517,0.110130,-0.582558,0.481627,0.654722
-0.627743,-0.222421,0.512543,-0.356290,0.569585,-0.740696
0.287236,-0.200417,0.845002,0.883223,-0.343384,0.319380
0.176736,0.622436,0.755494,-0.622068,0.764376,0.169590
0.357813,-0.704334,0.714320,0.984265,-0.149049,-0.094900
-0.213533,0.106214,0.674230,-0.422404,0.810957,0.404876
0.584907,0.600433,0.416447,0.140513,-0.350268,0.926050
0.458478,-0.401208,0.726871,-0.200824,-0.895875,-0.396331
-0.067430,0.205863,0.140009,-0.588520,0.755181,0.288698
-0.244034,-0.125905,0.856440,0.947717,-0.257670,-0.188252
0.196305,0.135452,0.889356,-0.034041,0.842481,0.537649
-0.703057,0.130753,-0.964131,0.093327,0.179212,0.979374
0.330279,-0.523757,0.062381,-0.133770,0.041629,0.990138
0.056448,0.621392,0.593907,0.993480,-0.102479,0.049960
0.438492,-0.413515,0.067887,0.080719,-0.173532,0.981515
0.377176,0.526143,0.431465,0.430181,0.875679,-0.219386
0.183604,-0.274111,0.885805,0.641187,0.093110,-0.761715
0.166221,-0.358544,0.880600,0.966736,-0.255033,-0.019506
0.392533,-0.681212,0.564670,0.561938,-0.239930,-0.791618
-0.301027,-0.222869,0.871771,0.935372,0.170532,0.309835
-0.297698,-0.402476,0.739992,-0.362005,-0.583952,-0.726603
-0.057852,0.061535,-0.266825,0.481104,0.871684,-0.093299
-0.063059,0.404043,0.136814,0.865354,-0.120868,-0.486367
-0.753286,0.614008,0.576907,0.980168,0.080564,0.181053
-0.729031,0.098978,0.722521,0.890567,0.197838,-0.409574
-0.080598,0.180726,0.752599,0.625983,0.611191,-0.484346
0.858373,-0.052957,0.587518,0.687129,0.674267,-0.270587
0.239348,-0.380175,0.926837,0.395367,0.706981,-0.586398
0.479089,0.357276,0.766633,0.954907,-0.139723,-0.261973
-0.202653,0.102558,0.730451,-0.661292,0.664678,0.347702
-0.053064,-0.091967,0.936734,-0.445833,0.684560,-0.576724
-0.137019,0.484150,0.194846,0.350147,-0.709788,0.611227
-0.206973,0.295144,0.338962,0.965691,-0.006970,0.259600
0.329552,-0.572238,0.652253,0.413483,-0.143161,-0.899187
0.336785,-0.052808,0.537373,0.652128,0.742879,-0.151195
-0.055460,-0.253599,0.856797,-0.785388,0.547839,-0.288165
-0.109120,0.154397,0.879944,0.674657,-0.605408,0.422279
-0.655849,-0.001193,0.760400,0.778011,-0.625178,0.062062
0.287131,-0.434997,0.920019,-0.581721,-0.365446,0.726671
0.071125,-0.144701,0.510033,0.538614,-0.055867,0.840699
0.481431,0.882301,0.505170,0.549455,-0.550176,-0.628813
0.101940,-0.550161,0.671078,-0.524572,-0.410581,-0.745820
0.127288,-0.074737,0.831867,0.689299,-0.640912,-0.337785
0.435160,0.008205,0.408517,0.287349,-0.932918,-0.217014
0.491320,0.828896,0.524438,0.850977,-0.498115,-0.166494
0.309878,-0.489222,0.827160,-0.010439,-0.968531,0.248676
-0.035576,-0.662192,0.170486,-0.905234,0.424912,-0.001199
-0.592452,0.223838,-0.971462,0.361455,0.184769,0.913899
0.279377,0.054971,0.064478,-0.514336,0.808379,0.286325
0.473155,-0.279854,0.713821,-0.209136,0.711189,0.671173
0.154562,0.801596,0.583582,0.878113,0.296231,-0.375720
-0.134052,0.673454,0.479898,-0.579464,0.265314,0.770604
-0.177149,-0.136048,-0.144116,0.151301,-0.804467,-0.574404
-0.278179,0.414634,0.258425,0.930004,0.336285,0.148341
-0.493715,-0.470053,0.199267,-0.506969,-0.184782,0.841925
0.371922,0.959126,0.487428,-0.099750,0.991625,-0.082037
-0.434118,0.439174,0.487485,0.361929,-0.871484,-0.330943
-0.030734,-0.156336,0.429111,-0.125038,0.992127,0.007102
-0.333037,0.260386,-0.981217,-0.115873,0.320982,0.939970
0.724088,-0.210636,0.561918,-0.181305,0.635124,0.750830
-0.160131,0.608488,0.798038,0.090917,-0.968907,0.230116
0.070137,-0.121131,0.337465,0.965391,0.242836,0.095140
-0.159454,0.149996,0.215411,-0.714236,-0.696340,-0.070552
-0.556592,0.809652,0.555857,0.215787,0.953499,0.210416
0.335226,-0.529350,0.061725,-0.133770,0.041629,0.990138
-0.196305,-0.607892,0.843447,-0.420555,0.889688,0.177730
0.531869,-0.250018,0.705036,-0.125224,0.973587,0.190910
0.538687,-0.311479,0.743172,-0.618082,0.776854,0.120298
-0.136708,-0.687924,0.546629,0.076575,0.699733,0.710289
0.270526,-0.178862,0.811087,-0.766473,0.637848,0.075298
-0.484032,-0.077198,0.801061,0.898628,0.121729,-0.421485
-0.123330,0.816514,0.472296,-0.331542,-0.248127,-0.910227
-0.645648,-0.285373,0.689890,0.943164,0.183004,-0.277400
-0.788886,0.180055,-0.963304,0.187018,0.233679,0.954158
0.156487,0.021407,0.676270,0.528403,-0.735080,0.424791
0.131920,0.466175,0.714206,0.961343,0.223880,0.160306
0.665688,-0.181099,0.566525,0.078375,0.817700,0.570285
0.213950,-0.098456,0.748064,-0.791581,0.408334,0.454602
-0.059987,0.054599,-0.282998,0.404069,0.904124,-0.138883
-0.420063,0.416574,0.724175,-0.184976,0.967660,-0.171518
-0.123384,0.133065,-0.207753,0.900167,-0.416111,-0.128652
-0.370254,-0.369882,0.494944,0.958154,0.200555,-0.204251
-0.665894,-0.233833,0.696365,0.936145,-0.027663,-0.350525
0.431049,0.022377,0.643040,-0.676466,0.092861,0.730596
-0.221183,0.537555,0.796426,0.494554,-0.197142,-0.846494
-0.181781,0.290222,-0.986408,0.260841,0.229217,0.937775
-0.236956,0.204744,0.820372,0.420918,0.884779,0.199986
-0.173505,-0.456329,0.089265,0.008728,0.677372,0.735589
0.038594,-0.339002,0.811087,0.941848,-0.051888,0.332010
-0.286506,-0.243082,0.855470,0.688866,0.579566,0.435393
0.230085,-0.036697,0.536004,0.762402,-0.074385,-0.642815
0.793470,-0.031550,0.598143,-0.379798,-0.553236,0.741406
0.590425,0.463266,0.404581,-0.598004,-0.505715,0.621807
-0.090694,0.035280,0.869917,0.849436,-0.521686,0.079386
0.048693,-0.686880,0.068728,0.941908,0.304996,0.140666
0.463214,0.183710,0.872955,0.938817,-0.344406,-0.002745
0.157163,-0.303573,0.787141,-0.143839,0.849556,0.507509
0.286404,0.082569,0.496755,0.834081,0.408774,-0.370423
0.392323,0.226822,0.790094,0.715909,-0.224889,-0.660983
-0.002003,-0.095398,-0.141991,-0.351734,-0.256149,-0.900372
0.049004,-0.016409,0.104283,0.965016,-0.085371,-0.247901
-0.344906,0.137838,0.736840,-0.124278,0.895448,0.427468
0.586311,-0.499515,0.905429,-0.295894,0.935900,0.191148
-0.378895,-0.435146,0.497568,0.463867,0.714517,-0.523730
-0.049316,0.807936,0.503287,0.983350,0.161162,-0.083963
0.450358,0.374282,0.792561,0.927646,-0.342011,0.150002
0.532387,-0.284777,0.651169,0.554380,0.121469,-0.823352
-0.419336,0.389647,0.855527,0.813234,-0.538303,-0.221092
0.039010,0.666742,0.523511,-0.689555,-0.345763,0.636366
-0.423186,0.289923,0.690104,-0.431991,-0.770117,-0.469364
-0.539570,0.491907,0.392900,0.669192,-0.409858,0.619837
0.454313,-0.562617,0.272987,0.827880,-0.061272,0.557549
0.447391,0.939286,0.757463,0.195860,-0.958767,-0.205926
0.442603,0.962632,0.719882,-0.434726,0.834229,-0.339228
-0.133064,0.803461,0.307130,0.311167,0.546885,0.777234
0.246325,0.929067,-0.039035,0.031415,0.951498,0.306047
-0.402159,0.230924,0.907440,0.065964,-0.988836,-0.133614
0.308524,-0.089730,0.815266,-0.563678,0.696182,-0.444521
0.890332,-0.311778,0.299827,-0.217852,0.345234,0.912882
-0.265945,-0.141418,-0.132792,-0.173283,0.069971,0.982383
0.536708,0.568658,0.661152,0.919716,-0.255991,-0.297643
-0.123851,0.311628,0.536289,-0.621873,0.555589,0.551901
0.463059,0.902290,0.689676,0.345513,0.929822,-0.126698
-0.225348,-0.219959,0.859364,0.717083,0.054491,-0.694854
-0.202653,0.403744,0.814168,0.013933,0.837369,0.546461
0.260846,0.432386,0.724375,0.685925,0.480382,-0.546571
0.045310,-0.337958,0.692400,-0.502251,0.825024,-0.258997
0.174601,-0.677631,0.809804,-0.786052,-0.522531,-0.330278
0.429279,-0.524876,0.068357,0.006653,-0.015095,0.999864
-0.257358,-0.514582,0.744556,0.516886,0.683078,0.515977
-0.078984,0.579847,0.220817,-0.258065,-0.740799,0.620177
-0.698997,0.123666,-0.963219,0.060293,0.276227,0.959199
0.372909,-0.239502,0.746281,0.950446,0.309310,-0.031289
-0.244657,0.394645,0.210434,0.768552,-0.441413,0.463122
-0.279428,0.636011,0.401871,0.218227,-0.950186,0.222541
0.273182,-0.389274,0.808891,0.668232,0.649695,0.362440
0.502877,0.832103,0.703553,0.468151,0.873370,-0.134389
0.461756,0.935854,0.761798,-0.360126,0.930416,0.068088
0.309563,0.376967,0.570004,0.438238,0.711703,-0.549023
0.446453,-0.255911,0.628164,0.781995,-0.521540,-0.341292
0.124582,-0.249273,0.790778,-0.510546,0.770451,0.381770
-0.097931,0.876110,0.604290,-0.259005,-0.383484,-0.886486
0.353651,-0.159693,0.795285,0.654383,-0.490999,0.575067
-0.173143,0.641979,0.840153,0.130059,-0.482862,0.865984
0.038699,-0.740136,0.811757,0.765969,0.603603,-0.221259
-0.181314,0.424331,0.741304,0.907465,-0.210782,-0.363425
0.005335,0.492952,0.611506,-0.349744,-0.671361,0.653417
-0.711803,0.394197,0.361895,0.278791,0.815431,-0.507295
0.507300,0.241814,0.469729,0.951279,-0.105359,-0.289771
-0.197709,0.163497,0.377769,0.905598,0.424026,-0.009743
-0.099961,0.380995,0.482237,0.893602,-0.447654,-0.032898
-0.504072,0.155143,0.545346,0.986489,0.158648,-0.040871
-0.120728,0.159991,-0.070354,-0.621611,-0.781060,0.059541
0.612752,0.921981,0.731862,0.981572,-0.184669,0.049124
0.906261,0.083911,0.338135,0.936512,0.091892,-0.338380
-0.599530,0.497650,0.433561,0.682712,0.500892,0.531988
0.465454,-0.709704,0.595833,0.113568,0.520518,0.846265
-0.380610,0.519580,0.532481,0.962942,-0.243898,-0.115141
0.798048,0.482957,-0.290971,-0.539000,0.838613,-0.078786
-0.582095,0.788096,0.434545,-0.228125,0.970411,-0.079132
-0.097620,0.134333,-0.517934,0.092311,0.931523,0.351771
-0.201770,-0.349444,0.493632,-0.163684,0.863277,-0.477452
-0.459676,0.576415,0.825321,-0.173000,0.377474,-0.909717
-0.361927,0.190050,0.403654,-0.648617,-0.759800,-0.044720
-0.141705,0.534870,-0.078269,0.840197,0.540730,0.040998
-0.791697,0.254569,-0.966599,0.166178,0.255267,0.952483
0.391021,-0.067726,0.220389,-0.067412,0.961411,0.266729
0.179440,-0.519803,0.948258,0.860883,-0.432949,-0.267273
0.606560,0.910271,0.702340,-0.612315,0.754786,-0.235304
-0.250591,0.272992,0.903076,-0.145996,-0.937793,-0.315008
0.142331,0.369956,0.709300,0.869876,0.452978,0.195260
-0.696084,0.374581,0.147753,-0.544853,-0.485084,0.683980
-0.432974,0.461625,-0.118302,0.534155,-0.062714,0.843057
0.418297,0.599612,0.543648,-0.726077,0.410749,0.551451
0.233938,0.328336,0.748207,-0.629165,0.366808,0.685276
-0.020950,-0.597524,0.745953,0.612813,0.661523,0.432259
-0.033962,-0.211158,0.779640,0.569237,-0.573985,-0.588651
-0.171736,0.293802,0.553261,-0.500498,0.602756,-0.621439
-0.896994,0.388752,0.685825,0.271104,-0.602481,0.750679
0.401120,-0.834042,0.624984,0.812435,0.547417,0.200711
-0.143058,0.072350,-0.409558,-0.048502,0.995896,0.076407
0.173820,0.427464,0.251908,-0.206410,-0.896725,0.391509
0.596931,0.054748,0.201392,-0.220455,0.660457,-0.717772
-0.039426,-0.682181,-0.083033,0.837735,-0.249903,0.485539
-0.255068,-0.607892,0.474992,-0.103655,-0.021174,0.994388
-0.263759,0.275230,0.795513,0.155200,0.792463,0.589843
0.468628,-0.188260,0.901051,-0.742299,-0.423874,0.518963
-0.699934,0.091818,-0.963147,0.062428,0.355899,0.932437
0.307638,-0.113523,0.800762,0.393256,-0.526643,-0.753656
-0.315237,-0.061311,-0.130396,0.017798,-0.289960,0.956873
-0.015587,-0.127843,0.767859,0.752391,-0.394664,-0.527397
0.069930,-0.111509,0.317355,0.997409,0.027309,0.066559
0.068888,-0.674051,0.835118,-0.647873,-0.511219,0.564727
0.251583,0.263669,0.522256,0.912933,0.080594,-0.400071
-0.057071,0.094205,0.743757,0.601600,0.656111,-0.455627
-0.139881,0.211084,0.907169,-0.634693,0.199718,-0.746510
0.141238,0.000970,0.761670,-0.285462,-0.423845,-0.859574
-0.272296,0.282763,0.762497,-0.276395,0.793305,-0.542469
-0.217018,-0.110763,0.475277,-0.442871,-0.872559,-0.206168
-0.180847,0.271500,0.612077,0.801361,0.350114,-0.485016
-0.109225,0.677706,0.791220,0.814731,-0.547630,0.190565
0.161900,0.315357,0.042857,-0.180682,0.348119,-0.919874
-0.136708,0.767062,0.183208,0.527403,0.705972,0.472705
0.388524,-0.471098,0.819915,-0.114611,-0.797015,0.592986
-0.237423,0.112479,0.621347,-0.723068,0.683161,0.102297
0.167364,-0.443872,0.908339,0.697541,-0.686156,-0.206461
0.608069,-0.349967,0.777700,-0.357147,0.593993,-0.720846
0.733818,-0.313643,0.712495,0.617068,0.489961,-0.615765
-0.343864,-0.193407,0.513599,0.277159,0.100716,-0.955531
-0.269744,-0.205191,0.872114,-0.612951,0.754417,-0.234834
0.041666,-0.185649,0.433162,0.054808,0.994828,0.085518
0.373847,-0.225927,0.540711,0.633696,-0.739800,0.226108
0.132181,-0.236071,0.579346,-0.183523,-0.889174,0.419154
0.684374,0.108227,0.701157,0.499855,0.862459,0.079434
0.647106,0.006862,0.302922,0.170626,-0.245968,0.954142
0.195473,-0.424256,0.723862,0.931241,0.122034,0.343363
-0.228782,-0.232565,-0.134290,0.213658,-0.397404,-0.892424
0.332049,0.208399,0.635324,-0.242529,0.959686,-0.142068
0.715707,0.456627,-0.306388,-0.587062,0.776234,-0.229822
-0.474302,0.361006,0.842406,0.780014,-0.615292,0.113986
-0.049265,0.636533,0.247087,-0.377915,-0.695907,0.610650
0.468577,-0.608115,0.749733,-0.748976,-0.291835,-0.594868
0.653403,0.458790,0.422522,0.546889,0.738013,-0.395284
0.095850,0.884985,0.321976,0.161994,0.683435,-0.711811
-0.037866,0.316775,0.855356,-0.229591,-0.164767,0.959239
0.057595,0.225405,0.583154,-0.589809,0.228620,0.774505
-0.061705,0.615201,0.760058,-0.448172,0.585581,-0.675453
-0.186260,-0.424554,0.594578,-0.170922,0.826423,0.536480
0.393000,0.520922,0.488284,0.209290,-0.837150,-0.505349
0.415641,0.751250,0.400217,-0.766664,0.632526,-0.110167
-0.018920,0.866563,0.536617,0.686212,-0.047631,-0.725840
-0.132698,0.184232,-0.833050,-0.599339,-0.777758,-0.189436
0.157789,0.477661,0.723505,-0.397282,0.916706,-0.042633
-0.603850,-0.076527,0.534606,0.483339,-0.726002,0.489187
0.513390,-0.194302,0.659840,0.756003,-0.335841,0.561845
-0.155915,0.656970,0.845843,-0.641394,0.644338,0.416463
-0.074613,-0.050794,0.944536,0.085181,0.996142,0.021117
0.247573,0.555979,0.333058,0.769361,0.499239,-0.398554
0.431255,-0.908854,0.258896,-0.625007,0.231023,-0.745651
-0.337097,0.464832,0.456608,-0.156531,0.982087,-0.104900
-0.671517,0.211010,-0.969565,-0.023653,0.198411,0.979833
0.604216,0.122100,0.738138,0.465648,0.880485,-0.088986
-0.134833,0.194003,-0.037323,0.959335,-0.002161,0.282262
-0.184281,0.018572,0.891481,0.748105,0.508023,-0.426909
-0.381236,0.729172,0.839397,0.899383,-0.437112,-0.006544
-0.139986,0.076602,0.855199,-0.694605,0.459563,-0.553468
0.518857,-0.513389,0.769899,0.198521,-0.158635,0.967173
-0.062900,0.135973,0.877391,0.920099,-0.131084,-0.369100
-0.039842,0.571269,0.578362,0.932768,0.229178,-0.278247
0.375461,-0.105915,0.847583,0.585372,0.205041,-0.784409
-0.402991,0.195570,0.779511,-0.126639,0.889379,0.439280
0.406794,0.297680,0.781922,0.658347,-0.681505,-0.319578
-0.248771,0.655926,0.436428,-0.205759,0.978034,-0.033364
-0.857020,0.501231,0.362551,0.985055,-0.061607,0.160842
0.278544,0.322817,0.780823,-0.718894,-0.028974,-0.694516
-0.286299,-0.080928,0.272345,0.762260,-0.633532,-0.132657
-0.830579,0.402103,0.692557,0.271104,-0.602481,0.750679
0.269592,-0.042515,0.788211,-0.610465,0.352972,0.709044
-0.142588,-0.461475,0.604903,-0.471467,0.736171,0.485562
0.100066,-0.234281,0.444357,0.152256,0.984396,0.088221
-0.086116,0.119789,0.896259,0.803460,0.248227,0.541142
-0.353807,-0.557768,0.405094,0.946288,0.320225,-0.044673
-0.136136,0.094652,-0.802559,0.502285,0.862481,0.061942
-0.337827,0.148430,-0.972660,-0.071496,0.294946,0.952835
0.096994,-0.554860,0.675728,0.754569,-0.614823,-0.229387
0.010955,0.592079,0.579731,0.602680,-0.647542,-0.466334
0.347978,-0.015142,0.094913,-0.341001,0.587396,0.733951
-0.069927,0.062729,-0.375201,-0.119674,-0.980905,0.153310
-0.080233,0.070858,-0.354137,0.166087,0.979932,-0.110217
-0.202497,0.335124,0.691145,0.855866,0.113687,-0.504548
-0.135094,0.126054,0.905886,0.951213,-0.195407,-0.238767
-0.007156,0.172074,-0.995080,0.146694,0.138156,0.979486
-0.224201,0.589766,0.829984,-0.379291,0.887489,-0.261727
0.393521,-0.584769,0.293538,0.639810,-0.227408,0.734118
0.356981,0.209741,0.306802,-0.083603,-0.068570,0.994137
-0.823135,0.182442,0.331261,0.349571,0.929223,-0.119770
-0.787170,0.242038,0.300541,0.873345,0.442522,0.203575
0.021315,-0.210189,0.506810,-0.372643,0.891807,0.256550
-0.133013,0.203103,0.081179,-0.004566,-0.991134,0.132790
-0.406844,0.135153,0.462327,0.436701,0.862793,0.254715
-0.531765,0.270978,0.560135,0.795150,0.521482,0.309506
0.188236,0.068546,0.722992,-0.186522,-0.982126,-0.025240
0.411270,-0.340046,0.619536,-0.701243,-0.634482,0.325101
-0.248406,0.351085,0.744456,-0.328609,0.479362,0.813774
-0.397737,-0.605206,0.411341,0.813770,0.529015,0.240668
0.069670,-0.100023,0.255601,-0.036901,-0.983065,-0.179502
-0.496683,-0.282539,0.806481,-0.641926,0.766581,0.016849
0.408198,0.411875,0.582740,-0.423983,-0.833849,0.353461
0.281928,-0.115238,0.774719,0.534665,0.834944,-0.130392
-0.108704,0.602894,0.612220,0.280137,0.906481,-0.315934
0.091790,-0.502275,0.730037,-0.821488,0.506787,-0.261389
-0.049160,-0.257627,0.627950,-0.599218,0.790274,-0.128077
0.258295,0.179832,0.810574,-0.079102,-0.934068,0.348223
-0.516303,0.431566,0.745868,-0.065055,0.987822,0.141336
0.531555,-0.280077,0.565056,-0.668891,0.733426,0.121124
-0.178918,-0.004997,0.918779,0.568693,0.422122,0.705975
0.499494,0.442530,0.462384,0.878378,0.110959,-0.464909
0.460613,0.696726,0.563829,-0.729993,0.663772,0.162841
-0.186622,-0.509510,0.822169,0.551446,-0.828783,-0.095004
0.384514,-0.751697,0.273229,-0.598303,0.234514,-0.766183
-0.442864,-0.517267,0.015973,-0.238914,-0.215266,0.946880
-0.134833,0.194600,0.014932,0.995762,0.081787,-0.042056
0.213117,-0.707392,0.817134,0.702642,0.529277,0.475563
-0.297853,0.490192,0.658956,0.764123,-0.621266,0.173625
0.365206,0.392184,0.064592,-0.124196,0.431266,0.893636
-0.093350,-0.015887,0.816293,-0.294877,0.658623,0.692288
-0.671829,0.369135,0.513941,0.937247,-0.126027,0.325092
-0.366454,0.169911,0.130753,0.009697,-0.997466,0.070478
-0.140456,0.061460,-0.228775,-0.365847,0.924811,-0.104308
-0.732414,0.693668,0.615443,0.476060,0.863194,0.168117
-0.250124,0.661371,0.413038,0.336163,-0.935126,0.111955
0.570386,0.424927,0.390248,0.560734,0.535593,-0.631441
-0.121354,0.336018,0.832537,0.586650,0.806500,-0.073484
-0.113911,0.291042,-0.024516,0.989092,-0.091078,0.115766
0.519791,0.914374,0.450875,0.510656,-0.742924,0.432775
-0.149615,0.764377,0.861902,0.904185,0.131737,-0.406319
0.519375,-0.380398,0.650912,-0.507337,-0.572149,-0.644403
-0.156954,0.192138,-0.833635,0.522640,0.852512,-0.008405
0.181574,-0.022973,0.621689,0.928685,0.250101,-0.273848
0.070032,0.555307,0.591012,-0.593810,0.225544,0.772347
-0.027246,0.527709,0.572001,0.095730,-0.807490,0.582061
0.542381,-0.279928,0.524595,-0.244878,0.969156,-0.027795
0.092413,-0.053852,0.224981,0.310178,0.945917,0.095031
0.685102,0.582979,0.528046,-0.465287,0.458917,0.756904
0.596617,-0.775416,0.614273,0.390430,-0.455194,-0.800226
0.106518,-0.072276,0.839996,0.880096,-0.446032,-0.162749
-0.149720,0.081748,-0.364562,0.069729,-0.988707,0.132648
0.618531,0.095100,0.690075,0.324450,0.938201,0.120462
-0.547325,-0.135153,-0.213529,-0.580962,0.607018,0.542229
-0.411426,0.266950,0.843961,0.884237,0.453302,0.112435
-0.337983,-0.282614,0.695195,-0.569729,-0.545369,-0.614802
0.322474,0.917357,0.373490,0.871232,0.164215,-0.462589
0.275889,-0.671963,0.809347,-0.093654,0.918412,0.384381
-0.465035,0.312896,-0.982672,0.021118,0.155151,0.987665
-0.770254,0.706497,0.620449,0.267796,0.930939,0.248268
-0.061340,-0.270605,0.822040,0.009415,0.999489,-0.030556
-0.346154,0.652942,0.246060,0.868966,0.033745,0.493719
-0.201874,0.435743,0.553019,0.952318,0.208854,0.222418
-0.252987,0.204744,0.533993,0.931803,0.065557,0.356994
0.179389,0.789215,0.743015,0.902925,0.260531,-0.341833
0.625764,0.974342,0.742316,0.973667,-0.221507,-0.053914
-0.242109,0.636384,0.412268,0.052076,-0.969877,0.237963
0.367652,0.223466,0.747593,0.670462,-0.740914,-0.039080
-0.776449,0.280749,0.127487,0.441922,0.452543,-0.774538
0.378374,-0.061685,0.807336,0.747589,-0.663428,0.031222
0.267873,0.907139,0.496484,-0.395005,0.575090,0.716409
0.786338,0.480421,-0.301111,-0.567578,0.811843,-0.136991
-0.071176,0.122026,0.619336,-0.002717,-0.841040,0.540966
0.364062,-0.347878,0.786100,0.784385,0.413383,0.462445
-0.560077,-0.175356,0.507509,-0.400005,0.514984,-0.758147
0.465349,-0.686283,0.761798,-0.796525,0.182554,0.576388
0.188706,-0.122250,0.352226,-0.222828,0.958922,0.175544
-0.401431,0.440591,0.771225,0.960769,-0.273851,0.043912
0.131244,0.287387,0.599512,0.854206,-0.088692,-0.512314
-0.498814,0.023719,0.580829,0.878317,0.467421,0.100384
-0.318932,-0.076229,0.680891,0.899759,0.191595,-0.392077
0.527860,-0.550981,0.737710,-0.341173,0.688893,-0.639552
-0.260325,0.575968,-0.049189,-0.015718,0.994572,0.102857
0.560652,0.576714,0.682417,0.813284,-0.516041,-0.268831
0.447546,-0.596106,0.269920,0.820693,-0.036000,0.570234
-0.114949,-0.264265,0.656603,0.521838,0.243539,0.817542
0.525309,-0.175804,0.664718,-0.307719,-0.887771,-0.342303
0.467586,0.042068,0.122823,0.715626,-0.436081,-0.545631
0.317683,-0.151637,0.805710,-0.563568,0.825688,-0.025113
0.584335,-0.313643,0.263645,0.869636,-0.391120,-0.301260
0.450514,0.448423,0.064064,0.088968,0.444215,0.891492
0.785506,-0.143358,0.660753,-0.182236,0.158144,0.970454
-0.380092,-0.675692,0.464894,0.791296,0.473734,-0.386557
-0.255017,-0.048259,0.814125,-0.551939,-0.254455,-0.794113
0.240130,-0.298054,0.804441,-0.322848,-0.026407,0.946082
-0.468730,0.240322,0.149293,0.488651,0.830847,0.266297
-0.108081,0.335869,0.816164,0.846030,0.355877,0.396970
-0.141028,0.202805,-0.867450,-0.333891,0.916646,0.219719
0.584176,-0.077423,0.182538,0.577190,0.025932,-0.816198
-0.100428,0.176400,-0.630090,-0.099347,0.994937,0.015199
0.627223,-0.284553,0.687394,-0.012211,0.763402,0.645808
-0.826729,0.292534,0.683472,0.128628,-0.631393,0.764721
0.680574,-0.015142,0.493604,0.709592,-0.381232,-0.592572
-0.112919,-0.312673,0.593066,-0.245538,0.962026,0.119236
0.412935,-0.009995,0.660239,0.139608,-0.326905,0.934688
0.309878,-0.473410,0.925824,0.761333,0.414248,-0.498769
-0.579494,0.227344,0.352026,-0.040805,-0.284683,0.957753
0.203955,0.744537,0.719283,0.917230,0.245404,-0.313792
-0.220141,0.674647,-0.020951,0.279472,0.835454,-0.473194
-0.519584,-0.236369,0.361838,0.098105,0.536104,0.838432
-0.024905,0.698889,0.512087,0.743258,0.001074,-0.669004
0.003045,0.269561,-0.996149,0.099619,0.151595,0.983410
0.233519,-0.815470,0.855085,0.244911,0.910692,0.332655
-0.026258,0.098083,0.752143,-0.275837,-0.358866,-0.891700
-0.157735,-0.052510,-0.190139,0.775809,-0.547470,-0.313682
-0.187455,0.856493,0.143788,-0.043394,-0.432205,0.900731
-0.233154,0.284329,0.855128,0.274778,0.759655,-0.589425
0.223683,0.182517,0.786371,0.205402,-0.977718,-0.043331
-0.444477,-0.504885,0.021407,-0.238914,-0.215266,0.946880
-0.400287,0.350041,-0.982629,0.066423,0.079231,0.994641
-0.290410,0.232715,0.855071,0.128108,-0.921265,0.367231
-0.136552,-0.088909,0.935379,0.971663,-0.128762,-0.198221
0.618791,0.156262,0.715761,-0.689227,-0.720074,-0.080374
-0.831621,0.207652,-0.962448,0.123640,0.209004,0.970067
-0.537696,0.112553,0.361581,0.190922,-0.059602,-0.979794
-0.377541,0.215634,0.851833,0.978982,0.124807,0.161296
-0.424438,-0.150593,0.067373,-0.484901,-0.873896,0.034317
-0.220300,0.245320,0.583667,0.946833,0.299757,-0.116845
0.521821,-0.292385,0.852290,0.939937,0.341324,0.004007
-0.157529,0.584620,0.808320,0.866805,-0.477050,0.145164
0.281407,0.490341,0.323089,-0.636433,-0.671373,0.379752
-0.727156,0.005818,0.431108,0.696862,0.714342,0.064020
-0.293482,-0.391885,0.730607,0.195733,0.400478,0.895157
-0.359948,-0.683524,0.007459,-0.245450,-0.209196,0.946568
-0.435732,0.074066,0.552448,0.069722,0.730015,0.679865
0.161589,0.338331,0.780781,0.335704,-0.919911,0.202648
0.162005,-0.405012,0.720867,-0.466111,-0.446570,-0.763751
0.673547,-0.238159,0.746723,-0.361026,0.860650,-0.359086
-0.283592,-0.286417,0.031676,-0.616280,0.210149,0.758971
-0.044423,0.239353,-0.119999,-0.448672,0.459683,-0.766411
-0.570748,0.832551,0.427571,-0.493704,0.753685,-0.433838
0.038959,-0.397703,0.610965,-0.309785,0.778513,0.545849
-0.310135,-0.472514,0.754410,-0.443752,-0.808011,-0.387560
-0.178817,-0.234430,0.057932,-0.024581,0.638911,0.768888
-0.207288,0.349071,0.519147,-0.692010,0.075557,-0.717923
-0.203279,0.618558,0.843890,-0.612677,0.776583,-0.146788
0.282916,0.585664,0.027911,-0.164938,0.594734,0.786821
-0.008303,0.247781,-0.366972,0.683723,-0.681806,0.260122
-0.364214,0.125159,0.423164,0.810364,0.472497,0.346492
0.362289,0.579623,0.409016,-0.229072,0.909366,0.347246
-0.084607,-0.629820,0.128271,-0.624025,0.216490,0.750816
0.339858,0.702394,0.431750,0.808073,0.143571,-0.571319
0.049735,0.241217,-0.118502,-0.408783,0.798755,-0.441460
-0.861445,0.696652,0.608697,0.159929,0.971893,-0.172759
0.656942,-0.513239,0.671834,0.007814,0.633143,0.773995
0.538115,-0.500038,0.751572,0.543648,0.825150,-0.153540
-0.374781,-0.488178,0.446354,0.950050,-0.292264,-0.109485
-0.029797,0.836354,-0.016872,0.859053,-0.427518,-0.281524
0.456708,0.984486,0.496299,0.018384,0.999485,0.026289
0.114120,-0.196539,0.767317,0.921873,-0.311962,0.229848
0.486377,-0.723950,0.807351,0.692976,-0.011032,0.720876
0.563203,0.898262,0.671421,-0.196995,-0.866129,0.459362
0.238100,0.473260,0.291085,0.504885,0.749843,-0.427581
0.234771,0.564183,0.743657,0.863745,0.221604,-0.452588
0.630085,0.638846,0.413623,-0.154039,-0.351451,0.923447
0.848121,-0.058999,0.643795,-0.461045,-0.857477,-0.228411
0.580065,-0.247110,0.710455,-0.048279,-0.959206,0.278556
0.462277,0.439920,0.699830,0.566013,-0.664092,0.488479
0.467586,-0.528679,0.261805,0.765276,-0.038291,0.642562
0.039531,-0.440665,0.633070,0.431118,0.861170,0.269304
-0.502563,0.074961,0.556798,0.925490,0.142673,-0.350875
0.574912,0.857090,0.711397,-0.079303,0.968747,0.235033
-0.504437,-0.048855,0.514768,-0.455058,0.417126,-0.786720
0.522914,-0.553741,0.872000,0.302571,-0.918126,-0.255921
-0.423917,0.117625,0.861018,0.964595,-0.256627,0.060826
0.346729,0.664728,0.386982,0.838063,-0.484859,-0.250125
0.186883,0.953756,0.473922,0.372050,-0.923972,-0.088622
