0.080346,0.289679,0.767268,0.063107,0.758364,0.648770
0.142340,0.279310,0.768570,-0.134242,0.092587,0.986614
0.210397,-0.235220,-0.168908,-0.325136,0.914534,-0.240653
-0.339109,-0.253867,0.211782,-0.726807,0.413044,-0.548767
-0.047499,-0.115497,0.803684,0.109925,-0.436015,0.893201
-0.380858,0.295604,-0.021776,0.286865,-0.065528,-0.955727
-0.453170,-0.640570,0.771120,-0.512370,0.565970,0.645876
0.301063,0.075589,0.189620,0.957255,-0.053481,0.284257
-0.575108,-0.632728,0.807775,-0.517919,0.839488,0.164380
0.299567,0.261012,0.252252,0.102898,-0.250673,0.962588
-0.345883,-0.742953,0.795979,0.349957,0.935857,0.041256
0.578810,0.025313,0.546974,-0.023510,-0.998113,0.056718
-0.204017,0.018168,-0.038801,0.307219,-0.077724,0.948460
0.773689,-0.257178,-0.978866,-0.283385,-0.032646,0.958450
-0.316188,0.364179,0.839366,0.824446,-0.561800,0.068333
-0.067742,0.463861,0.617054,0.492398,-0.732531,-0.470046
-0.332256,-0.005533,0.819479,0.969278,0.232385,-0.080605
-0.040960,-0.236614,0.131831,-0.341870,0.924461,-0.168811
-0.011974,0.181545,0.942743,0.231070,0.949171,-0.213731
-0.333044,-0.298567,0.484526,-0.256594,0.958850,-0.121519
0.080740,-0.068531,-0.064228,0.708172,-0.426793,0.562441
0.153840,-0.289679,-0.147242,0.847880,-0.527269,0.055563
-0.285151,-0.253518,0.549029,0.015576,-0.969453,0.244784
0.788185,0.197229,0.667926,-0.308095,0.673630,-0.671789
0.220323,-0.271903,-0.247959,0.813076,0.577638,-0.072402
-0.398426,0.021653,-0.024785,0.191905,-0.088605,0.977406
-0.346907,-0.369494,0.822763,-0.167728,-0.141402,0.975640
0.127138,-0.265978,-0.114953,-0.705040,0.676433,-0.212972
-0.505947,-0.469438,0.904896,-0.385252,-0.861453,-0.330878
0.039227,0.218751,0.890110,-0.625722,0.508169,-0.591808
-0.645136,-0.078290,0.681851,-0.082277,0.849543,0.521063
-0.277432,-0.260663,0.310444,0.715353,-0.696903,0.050955
0.152972,0.380822,0.241722,0.845465,0.367555,-0.387417
-0.353605,-0.204287,0.820250,0.997522,0.068085,0.017752
0.373218,-0.224241,-1.000000,-0.049966,0.205871,0.977303
0.359511,-0.220320,-0.541268,0.838953,0.515594,0.174128
-0.049073,0.006753,0.802822,-0.401947,0.705120,-0.584161
-0.273100,-0.226071,0.673118,0.039991,0.902936,0.427911
0.213549,-0.126650,0.081124,0.552990,0.817725,-0.159775
-0.322962,-0.417070,0.818947,0.951783,0.306312,-0.016771
0.217724,-0.242975,-0.244840,-0.523066,-0.843480,-0.122241
-0.893894,-0.554132,0.661120,0.634656,-0.318060,-0.704308
-0.562742,0.294210,0.381937,-0.369907,-0.572899,0.731406
-0.411815,-0.830088,0.279789,0.319475,0.448643,-0.834659
0.664119,-0.279048,-0.983874,-0.396049,-0.276646,-0.875564
-0.723592,-0.584891,0.595406,0.906556,-0.361172,0.218428
0.116582,0.259356,0.916528,0.798870,-0.234279,-0.554004
-0.467901,-0.464645,0.257627,-0.531738,0.812401,-0.239291
-0.151557,0.317039,0.812618,0.393778,-0.650383,-0.649570
-0.193461,-0.163421,0.420811,0.326856,-0.936013,-0.130556
0.189129,-0.146430,-0.013282,0.990121,0.140101,-0.005750
-0.332179,0.483466,0.112844,-0.856495,0.035580,-0.514927
-0.316267,0.342831,0.422426,-0.400691,-0.684612,0.608894
0.041592,0.252124,0.918454,0.414187,-0.638442,0.648723
-0.068925,0.151832,0.032912,-0.561684,0.362534,-0.743694
-0.553602,-0.443036,0.912161,-0.453757,-0.775220,-0.439474
-0.248681,-0.643097,0.770643,0.860695,-0.465678,-0.205785
0.076487,-0.236265,-0.099231,0.997282,0.030060,0.067271
-0.242143,0.254477,0.785265,0.812534,0.579615,0.061920
-0.241198,-0.179454,0.411877,0.330309,-0.943684,0.018905
-0.327844,-0.296911,0.862243,-0.428392,-0.839463,0.334338
0.360615,0.084738,0.368416,0.896319,0.115285,-0.428160
0.124222,0.221627,0.767194,-0.599685,-0.027962,-0.799747
-0.034580,0.279223,0.684621,0.490936,0.827170,-0.273446
0.136196,0.305276,0.907465,0.150490,0.313008,0.937752
0.230328,-0.088747,0.097764,0.315053,0.946333,-0.072086
-0.112563,0.401734,0.816526,-0.535672,-0.401452,0.742894
-0.242931,-0.225896,0.869104,0.924269,0.368598,0.099309
-0.697125,-0.565634,0.656149,-0.107706,0.881049,-0.460599
0.184639,-0.202719,-0.007668,0.856699,0.514966,0.029612
-0.179204,-0.001263,-0.041314,0.238513,-0.108605,0.965047
-0.313431,0.447567,0.829459,0.920636,-0.290428,-0.260921
-0.474045,-0.057378,0.416665,0.212316,-0.261248,0.941632
0.172115,0.120986,0.293915,0.749749,0.608599,0.259777
-0.033400,0.093278,-0.050028,0.351001,-0.223072,0.909416
-0.500353,0.293339,-0.030986,-0.114986,0.327575,0.937802
-0.145806,-0.275040,0.920564,0.855567,0.517213,-0.022244
-0.325720,-0.384568,0.844136,0.643352,0.098619,-0.759192
-0.356045,0.209864,0.594636,0.401663,0.122629,0.907540
-0.236234,0.334640,0.156708,0.379687,-0.355732,-0.853986
-0.569672,-0.298392,0.916619,0.011603,0.834037,0.551587
-0.426073,-0.577223,0.738392,0.761159,0.189637,0.620222
-0.182750,-0.266937,0.264268,0.922894,-0.347700,0.165442
-0.068374,0.151919,0.570621,0.887660,0.442133,0.128754
0.607878,0.060776,0.729017,-0.578971,-0.691986,0.431218
0.804726,-0.206378,-0.973766,-0.090879,0.176185,0.980153
0.278221,0.400078,0.038618,-0.212926,-0.038925,0.976293
-0.538874,-0.643358,0.770900,0.919857,0.009768,-0.392132
0.905868,0.150612,0.669082,0.552445,-0.764559,-0.332047
-0.308625,-0.371498,0.773377,0.846018,-0.405669,-0.345958
-0.293738,-0.663051,0.904896,-0.028990,0.679084,0.733488
-0.075225,0.005620,0.303546,0.899333,0.422749,0.111725
-0.396928,-0.290725,0.513530,0.496606,-0.867674,0.022874
-0.400394,-0.394589,0.822910,-0.577472,0.323696,0.749498
0.821346,0.207424,0.673779,0.323792,-0.569252,-0.755718
-0.297281,-0.262929,0.300483,0.534060,-0.834212,0.137368
-0.161009,-0.129438,0.344457,-0.213523,-0.293276,0.931878
-0.300827,0.708361,-0.072337,-0.540495,0.357979,0.761391
0.605041,0.161330,0.762663,0.777440,0.225051,-0.587316
0.247814,-0.257701,0.280357,0.516407,0.405954,-0.754006
-0.679480,0.230079,-0.040379,-0.600502,-0.014070,0.799500
0.203546,-0.062083,-0.003761,0.996742,-0.061655,-0.051992
0.714375,-0.239141,-0.978792,-0.199509,0.057759,0.978192
-0.863569,-0.535137,0.658699,0.230330,0.900396,0.369099
-0.511382,-0.549601,0.759893,0.587836,-0.593894,0.549308
0.628121,0.099203,0.713350,0.848896,-0.527665,-0.030743
0.129816,0.269812,0.011631,-0.240761,-0.746490,0.620312
-0.286884,-0.368971,0.709589,0.075066,0.861567,0.502063
0.659549,-0.409402,-0.971105,-0.003919,0.103564,0.994615
-0.218590,0.111663,0.840613,-0.046768,-0.276026,0.960012
0.945804,-0.238357,-0.971839,-0.152274,0.313006,0.937464
0.193067,0.270248,0.035279,0.268848,-0.694756,0.667110
-0.389286,-0.203677,-0.032508,0.077412,-0.226260,0.970986
-0.501378,-0.524681,0.818287,0.828611,-0.361980,0.427053
0.142970,0.345968,0.912473,-0.768660,0.608553,0.197039
-0.229304,-0.161678,0.604396,0.983235,0.177973,0.039679
-0.176841,-0.417070,0.735897,0.987036,-0.160143,0.010653
-0.321229,-0.369494,0.751876,-0.582572,-0.391259,-0.712409
0.201497,-0.072975,-0.046946,0.966648,-0.188352,-0.173539
-0.444347,-0.417941,0.770093,-0.604784,0.728793,0.321088
0.510438,-0.445476,0.474491,-0.501952,-0.347608,0.791968
-0.325720,0.088921,0.834431,-0.565526,0.075182,0.821297
0.545727,-0.206640,-0.823497,0.988848,-0.006397,0.148793
-0.212130,0.476060,0.777284,-0.661857,-0.499648,-0.558836
0.204176,0.002832,0.327175,-0.694843,0.649429,-0.308926
-0.429380,-0.773102,0.827074,0.735696,-0.062825,-0.674392
0.196613,0.146604,-0.015722,-0.017726,-0.792116,0.610113
-0.209373,-0.481811,0.878534,0.826834,0.393400,-0.401973
0.240251,0.015728,0.261994,0.733733,-0.479796,-0.481074
-0.039306,-0.202457,0.153039,-0.016500,-0.999606,0.022699
-0.588026,-0.371324,0.554514,-0.537885,0.387446,-0.748709
-0.253169,0.500980,0.147187,0.129621,0.478916,0.868238
0.848523,0.237050,0.649544,0.399728,0.905744,0.140871
-0.527844,-0.442339,0.559504,0.261346,0.939017,0.223486
0.506498,-0.276783,-0.763874,0.961307,0.271709,0.045428
0.000236,0.372195,0.761636,-0.041488,-0.767813,0.639330
-0.499329,-0.657823,0.802711,-0.556401,0.796999,-0.234972
0.248443,0.316516,0.914528,0.244121,0.090595,-0.965504
-0.224654,-0.193831,0.178888,-0.158300,-0.976783,-0.144345
-0.128162,-0.439202,0.889303,0.681371,-0.600739,-0.418145
-0.340371,-0.495665,0.807353,0.204048,0.402978,-0.892173
0.472706,-0.115061,-0.992900,-0.132699,-0.058499,0.989429
0.307128,-0.058859,-0.040654,0.718345,0.674617,-0.169921
0.155415,0.309110,0.880350,-0.621427,0.395758,0.676169
-0.472076,-0.665055,0.506393,-0.452091,0.830778,0.324688
-0.415282,0.085348,0.408318,0.069983,0.684442,0.725700
0.374083,0.048752,0.361812,0.747789,0.559926,-0.356784
-0.400000,0.335947,0.835917,-0.385384,0.916759,-0.105033
0.819693,0.307541,0.651452,0.993305,0.088600,0.074132
-0.352028,-0.442774,0.698087,0.147726,0.256536,0.955179
-0.513981,-0.457239,0.800547,0.864021,-0.403398,-0.301226
-0.045371,-0.041171,-0.052432,0.399652,0.095464,0.911682
0.163213,0.355901,0.770038,0.935309,-0.309139,-0.172131
-0.225837,0.135712,0.589224,0.269968,0.539983,-0.797205
-0.178574,-0.197926,0.156433,-0.128922,-0.987604,-0.089544
0.282552,-0.153400,0.078831,-0.479037,-0.858609,0.182521
-0.799055,-0.783558,0.201086,0.063071,-0.494829,0.866698
-0.248917,-0.597613,0.329468,-0.677390,0.464152,0.570706
-0.405829,-0.344225,0.867967,0.858478,0.217673,0.464364
-0.408272,-0.593604,0.860060,0.063893,-0.230020,0.971086
-0.309808,0.403912,0.686602,0.004658,-0.957402,0.288722
0.320520,-0.041607,0.319874,-0.639141,-0.620890,0.453866
-0.438597,-0.132314,0.695995,0.262141,0.506863,0.821201
0.151398,0.094062,0.834431,0.779702,-0.452600,-0.432686
-0.472862,-0.338736,0.887211,0.962664,0.180827,-0.201446
-0.121464,0.749052,-0.076611,-0.348775,0.474937,0.807955
0.024025,0.344138,0.978737,0.233807,0.797214,0.556583
0.020876,-0.283579,0.095471,0.875647,-0.209236,0.435272
0.740607,-0.377946,-0.979141,-0.122960,0.211300,0.969656
-0.073336,0.015641,0.392834,0.808821,-0.582640,0.079618
-0.214099,0.099203,0.866958,-0.258900,0.620622,-0.740134
-0.237732,-0.153662,0.836669,0.509802,-0.500821,-0.699485
-0.133832,0.363308,0.925884,0.648551,-0.761081,-0.011724
-0.655297,-0.831220,0.195729,0.414522,-0.496323,0.762781
-0.016700,0.238270,0.909868,-0.445783,0.518657,-0.729570
-0.607483,-0.564501,0.624979,0.511622,-0.576830,-0.636797
-0.378653,-0.046922,0.408997,0.165403,-0.101628,0.980976
-0.506418,0.412452,0.413712,-0.663660,0.388105,0.639477
0.068610,-0.283231,-0.015062,0.989089,0.138252,0.050892
0.591413,-0.233826,-0.945348,-0.813916,0.534932,-0.226691
-0.178180,-0.569642,0.335064,0.404413,-0.707359,-0.579736
-0.153997,0.353810,0.807995,-0.631904,0.589172,0.503561
-0.005041,0.142596,0.828175,-0.468762,0.581561,-0.664868
-0.403781,-0.137019,0.357776,0.110125,-0.886070,0.450281
0.171641,0.376116,0.799409,0.755949,0.633403,-0.165355
0.467506,-0.206901,-0.743675,0.847562,0.512439,0.138004
0.463725,-0.213523,-0.662533,0.949683,0.243402,0.197123
-0.438597,-0.334902,0.735842,0.991213,-0.111952,0.070456
-0.064908,0.326624,0.709131,-0.713000,-0.622590,0.322511
0.928789,0.185989,0.680915,0.923443,-0.364910,0.118719
0.552028,-0.126389,-0.992148,-0.171385,0.218303,0.960714
0.564867,0.076809,0.609679,0.013170,-0.979041,0.203238
0.640489,-0.133882,0.683190,0.762321,-0.592811,-0.259697
0.255456,0.324010,0.772753,0.656317,0.699123,0.283681
-0.154391,-0.273123,0.341925,0.924741,0.314061,0.214986
-0.026702,0.042130,0.450458,0.982917,0.183973,-0.005328
-0.350059,0.251601,-0.017777,0.413475,0.014975,-0.910392
0.044112,-0.630114,0.351410,-0.252094,0.207090,0.945284
-0.234974,-0.687361,0.904144,-0.663521,0.746841,-0.044368
-0.584639,-0.524942,0.493808,0.751661,-0.522708,0.402222
-0.487829,-0.552303,0.774808,-0.220376,0.778541,0.587630
-0.198661,0.510826,0.142013,-0.270973,-0.514659,-0.813450
-0.025364,0.170653,0.705718,0.059242,0.993085,0.101357
0.861362,0.215789,0.671302,0.977758,-0.145406,0.151148
0.149744,0.150089,0.772716,-0.197660,-0.796394,-0.571566
-0.602678,-0.395896,0.552698,0.413900,-0.534068,0.737196
0.708940,0.064436,0.696270,0.241773,-0.588200,-0.771730
0.000158,0.405394,0.844374,-0.174584,-0.901853,0.395198
0.723748,-0.350935,-0.979691,-0.075877,0.172835,0.982024
0.227965,-0.220581,-0.024308,-0.325126,0.941803,-0.085439
-0.551477,-0.443994,0.547928,-0.201233,-0.665046,0.719180
0.940292,-0.206901,-0.971803,-0.094884,0.112713,0.989087
-0.164790,-0.206988,0.268268,0.800465,-0.483533,0.354192
-0.169358,-0.092842,0.659451,0.872306,0.243296,-0.424133
0.624024,-0.331242,-0.977838,-0.103620,-0.120178,0.987330
-0.227806,-0.103995,0.624649,0.809228,0.500924,-0.306962
-0.282788,-0.226506,0.522849,-0.833013,0.350838,-0.427787
0.107127,0.194615,0.914473,-0.192169,0.768594,0.610192
-0.409373,-0.229817,0.853951,0.853487,-0.249255,0.457637
0.987002,0.360171,0.670073,0.857235,-0.491129,0.154728
-0.365891,0.038034,0.668312,-0.541388,0.822578,0.173964
-0.000000,0.211171,0.804803,-0.649055,0.649428,0.396194
0.044741,0.230427,0.761195,0.998614,-0.041346,0.032566
0.407719,0.021653,0.417619,-0.737604,0.568142,0.364905
0.203151,0.190258,0.858904,-0.580947,-0.797780,-0.161391
-0.414414,0.460114,0.607845,-0.500010,-0.442599,-0.744376
0.744624,0.098070,0.692913,-0.645354,-0.070592,0.760615
-0.422135,-0.116891,0.890073,0.347366,-0.937703,-0.007126
-0.240330,-0.173964,0.350988,0.409024,0.745443,0.526321
-0.010870,0.317562,0.822213,-0.290053,-0.898461,0.329602
-0.373059,-0.518407,0.889303,0.897884,-0.363400,-0.248484
-0.233241,0.340827,0.592031,-0.338885,0.014211,0.940721
-0.252225,-0.371760,0.913409,0.802854,-0.471217,-0.365211
-0.480660,-0.188516,0.366398,-0.112042,0.969663,-0.217256
0.033241,0.376726,0.644389,0.311653,0.473924,-0.823571
-0.262071,0.302923,0.412776,-0.241521,-0.694125,0.678129
-0.354391,0.104779,0.825332,0.906499,0.047803,-0.419493
-0.489012,-0.045963,0.668752,-0.685468,-0.200442,-0.699969
0.166759,0.375681,0.779082,-0.204534,0.955264,0.213628
0.255456,0.324446,0.915739,0.176759,-0.159332,0.971272
-0.138873,0.261099,0.823442,0.198875,0.976716,0.080462
-0.763687,-0.847079,0.789026,0.573960,0.811785,-0.107586
-0.257424,-0.384133,0.847145,0.967335,-0.250215,0.040697
0.365891,-0.234610,-0.996844,-0.006714,0.273581,0.961826
-0.498070,-0.457064,0.895944,0.133233,0.828693,0.543615
-0.460182,-0.573563,0.748060,0.193404,0.146141,0.970174
0.283341,0.123252,0.207085,0.932311,-0.248857,0.262424
-0.435604,0.005794,0.414335,0.256356,0.039836,0.965761
-0.144150,0.559186,0.131244,0.286706,0.705860,0.647736
-0.158016,0.479545,0.750959,-0.567697,-0.579766,0.584459
0.024813,0.102514,0.870975,0.925394,-0.360514,0.116944
-0.241828,-0.609637,0.816764,0.935023,0.305766,0.179555
0.300118,-0.231909,-0.465996,0.939579,-0.333240,0.078371
0.331232,-0.247941,-0.478270,0.953089,0.302670,0.003400
0.096336,0.222324,0.909538,0.719270,-0.219022,-0.659303
0.120678,0.181719,0.031096,0.466701,-0.119437,0.876313
0.041119,0.304840,0.903374,0.746641,0.553414,-0.369134
0.151162,0.496362,0.029335,-0.490782,0.362736,-0.792184
-0.093108,0.025487,0.342439,0.713875,-0.574179,0.400876
0.021900,-0.316952,0.003761,0.963336,0.067733,0.259607
0.852384,0.260837,0.667027,-0.570095,-0.820507,0.041964
-0.192596,-0.384830,0.313911,-0.128354,0.499530,-0.856735
-0.510673,-0.523200,0.875947,-0.432688,0.664016,-0.609806
-0.199765,-0.183810,0.740336,0.251702,0.296639,0.921223
-0.062780,-0.224589,0.286980,0.895914,0.442765,-0.036003
-0.406930,-0.320699,0.861289,0.547490,0.378453,0.746343
0.174713,0.225112,0.890275,-0.127956,0.606172,0.784973
-0.242614,-0.053980,0.804253,0.540764,-0.794320,0.276822
-0.211344,0.113841,0.439414,0.018018,-0.762154,0.647145
0.286096,0.263800,0.925480,-0.150771,0.690070,0.707864
-0.021190,0.171960,0.834339,0.191295,0.914252,0.357141
-0.649547,-0.565896,0.623530,-0.810377,0.392337,-0.435157
-0.464593,0.296650,0.389459,0.385266,0.363905,-0.848023
-0.002993,-0.306322,0.009943,0.925526,0.063292,0.373358
0.512012,-0.235220,-0.736869,0.942596,0.264582,0.203737
-0.081449,0.367054,-0.035040,-0.317125,-0.295195,0.901272
-0.296495,-0.122468,0.741767,0.212318,0.047824,0.976030
-0.025207,-0.261709,0.045185,-0.418949,0.876776,-0.236105
-0.308152,-0.001438,0.813242,0.503103,-0.145011,0.851974
-0.527214,-0.624276,0.775505,0.829809,-0.438724,0.344873
0.410476,-0.223369,0.420334,-0.497990,0.536495,0.681307
-0.422844,0.008060,0.658552,-0.429160,0.422426,0.798360
-0.402128,-0.655470,0.866022,0.222601,0.413934,0.882670
-0.007325,0.419684,0.654608,0.008531,-0.086239,0.996238
0.008507,0.215179,0.765598,0.158842,-0.844484,0.511484
-0.560220,-0.280356,0.619035,0.198457,-0.588374,0.783856
-0.208192,0.403041,-0.041755,-0.523293,-0.202182,0.827821
-0.629619,-0.578879,0.229192,0.252943,-0.896404,0.363978
-0.077274,0.361565,0.766883,0.137202,-0.132985,0.981576
-0.012998,0.270596,0.742410,0.796276,-0.576615,-0.182919
-0.432926,-0.292729,0.613220,0.977523,0.201534,0.061917
-0.204176,0.297957,0.677943,-0.436657,0.699299,-0.565961
0.456321,-0.171873,-0.993817,-0.156221,0.122247,0.980128
-0.302796,-0.265020,0.428627,0.686234,-0.726980,-0.024124
0.443953,-0.105302,0.435561,-0.257615,-0.172235,0.950773
-0.451910,0.027927,0.644499,-0.724567,0.143741,-0.674049
-0.229539,-0.071145,0.644572,0.717335,0.376917,-0.585973
0.315243,-0.287413,-0.394467,0.959168,0.281353,0.028948
-0.290507,-0.281140,0.291255,-0.319753,0.920201,-0.225807
0.199370,0.130310,0.813921,-0.189785,0.928910,-0.317974
-0.433321,-0.010674,0.412794,0.311025,0.008482,0.950364
-0.407404,-0.511175,0.878827,-0.468676,-0.674004,0.571018
-0.498543,-0.006230,-0.026289,0.053026,-0.326827,0.943596
0.772744,0.135102,0.656075,0.343496,-0.509643,0.788844
-0.187081,-0.274692,0.578969,0.500112,0.822956,0.269504
-0.231272,-0.364963,0.892036,0.950876,0.248017,0.185263
-0.686649,-0.650416,0.558146,0.770211,-0.415745,0.483664
0.616462,-0.405742,-0.978536,-0.156884,0.326419,0.932115
-0.269554,-0.193569,0.408134,0.849435,-0.518179,-0.099752
0.399211,-0.234697,-0.534554,0.596645,0.799300,0.071651
0.243402,0.192088,0.713203,-0.630403,-0.127892,0.765660
0.402913,-0.248290,0.429709,0.942062,0.229469,0.244671
-0.795745,-0.427439,0.653177,0.930325,-0.156669,-0.331588
-0.182435,0.158541,0.876571,0.936505,0.219139,-0.273744
-0.210791,-0.267634,0.585463,-0.407127,0.852929,0.326741
0.006618,0.352154,0.873819,-0.030302,0.809326,0.586578
-0.174242,-0.030715,0.839990,-0.685816,-0.303624,-0.661414
-0.230013,0.475798,-0.021226,0.718452,0.408815,-0.562759
-0.184560,-0.157496,0.341045,-0.000318,-0.691643,0.722239
-0.056480,0.094149,0.885175,0.473296,0.880698,-0.019029
-0.539109,-0.581318,0.926709,-0.750593,0.648523,-0.126602
-0.651436,-0.860236,0.779303,-0.716538,0.531919,-0.451259
-0.033950,0.268418,0.820048,-0.139677,0.762084,-0.632233
0.375346,0.368623,0.263094,0.526002,0.181756,-0.830835
0.151633,0.482595,0.041186,-0.409941,-0.126801,-0.903255
-0.177629,0.473359,0.607258,-0.562994,0.683694,0.464327
0.136667,-0.189213,0.026931,-0.375560,0.884600,0.276473
0.050335,0.285584,0.340402,0.990211,-0.137803,-0.022211
0.818274,0.293164,0.646480,0.969965,0.223853,0.095172
-0.088933,-0.627587,0.349062,0.266207,-0.192259,-0.944548
0.834974,0.292206,0.690198,-0.072152,-0.661128,0.746795
-0.497755,-0.411842,0.238896,0.901044,-0.429571,0.059908
-0.373848,-0.256742,0.229797,0.561711,-0.743845,-0.362181
-0.422686,-0.283144,0.574437,0.979291,-0.054806,0.194898
-0.225917,0.035769,0.664386,0.000999,-0.995125,0.098617
-0.037417,-0.211955,0.128309,0.578184,-0.815712,-0.017807
0.631508,0.150438,0.701756,0.102662,-0.028319,0.994313
0.101062,0.312247,0.860995,0.760866,0.546976,-0.349142
0.381173,-0.193047,-0.557357,0.984222,-0.162789,0.069334
-0.293817,0.365486,0.745290,-0.367479,-0.044210,-0.928981
0.863331,0.348756,0.692106,-0.021861,0.154002,0.987829
0.610476,-0.209341,0.686749,0.706944,-0.667889,-0.232711
-0.117291,-0.402170,0.305913,-0.007255,0.848424,0.529267
-0.016147,0.047793,0.844851,0.320534,0.944406,0.073185
-0.370381,-0.345532,0.658093,0.090807,-0.994020,0.060650
-0.248129,0.538797,-0.023391,-0.647904,0.701147,0.297680
0.010397,0.161068,0.724468,-0.432876,-0.896518,0.094199
0.042773,-0.289679,0.005577,0.954692,0.094634,0.282147
0.815361,-0.034462,-0.986222,-0.135304,0.282480,0.949683
-0.592752,-0.507777,0.524390,0.460801,-0.851579,0.249952
-0.030013,-0.217531,0.103231,-0.465627,0.838221,-0.283862
-0.015046,0.181022,0.876057,-0.288489,0.930379,-0.226206
-0.298464,-0.428920,0.907722,-0.027346,-0.839256,0.543048
-0.211736,0.020956,0.408208,0.127368,-0.786186,0.604722
0.128869,0.280268,0.712726,-0.655287,-0.437258,-0.615958
-0.128554,-0.587766,0.352804,0.276832,-0.257570,-0.925755
-0.429066,-0.282795,0.576767,0.977059,0.011373,0.212665
-0.243953,0.363482,0.427728,-0.193856,-0.671071,0.715600
-0.112721,-0.268679,0.285146,-0.203527,-0.822443,0.531192
0.038126,0.142421,0.796492,0.022367,0.945744,0.324142
-0.491846,0.206291,0.393366,-0.068153,-0.089353,0.993666
-0.470028,-0.318782,0.899613,0.982708,-0.113602,-0.146218
-0.396849,0.430576,0.132473,-0.192901,0.517022,0.833953
-0.622921,-0.325143,0.661652,-0.318553,0.883830,-0.342591
0.299173,0.262841,0.009760,0.887527,0.440051,-0.136569
-0.361088,-0.195399,0.866701,-0.034003,0.994402,-0.100044
0.483261,-0.020956,0.464657,0.367768,0.918233,-0.146949
0.209611,-0.129351,-0.069952,0.860472,-0.293964,-0.416140
0.534147,0.011981,0.470528,0.276454,0.923087,-0.267362
0.183379,0.458720,0.238034,-0.268618,0.334237,0.903399
-0.239621,-0.447741,0.772093,0.940728,-0.048298,0.335707
0.267665,0.203067,0.035811,-0.210349,-0.414332,0.885484
-0.558016,0.368013,0.389661,0.629886,-0.166336,0.758668
-0.251121,0.157670,0.728595,0.560137,-0.587059,0.584473
0.128948,0.375681,0.877965,0.318701,0.284011,0.904305
0.544939,0.285932,0.692968,0.041526,-0.163159,0.985725
-0.125246,0.227726,0.778440,0.405367,0.607340,0.683239
-0.024892,0.311811,0.642756,0.072197,0.587822,-0.805762
-0.059078,0.018255,0.371829,0.987545,-0.015514,-0.156573
-0.302716,0.018516,0.369609,0.816104,0.553505,0.166151
0.508861,0.025574,0.484397,0.172620,0.979656,-0.102355
-0.805906,-0.745393,0.787503,0.557511,0.213523,-0.802240
-0.220873,-0.557966,0.870003,-0.215792,-0.451008,0.866040
0.026152,-0.246199,0.032985,0.487635,-0.835640,0.252821
0.071052,0.197491,0.657635,0.904213,-0.183796,-0.385509
0.060653,0.174226,0.777688,0.888037,0.435878,-0.146287
-0.653169,0.637520,-0.095470,0.752982,-0.353135,-0.555260
0.971011,-0.305537,-0.967950,-0.120821,0.252826,0.959938
-0.414493,0.197316,0.843677,0.587363,-0.101332,0.802955
0.014887,0.163072,0.906548,-0.150236,0.988091,0.033247
-0.390074,-0.478848,0.722615,0.934084,0.089786,-0.345579
0.373769,-0.178844,-0.996202,-0.224092,0.032376,0.974030
-0.404017,0.413933,0.133556,-0.265314,0.542890,0.796792
-0.444347,-0.736592,0.298006,-0.312133,-0.445751,0.838975
-0.225207,-0.745131,0.851492,0.667873,-0.664529,-0.335183
0.732414,-0.018342,0.747968,0.894551,0.342006,0.287767
-0.189995,0.152790,0.613568,0.625622,-0.625099,0.466742
0.159826,-0.084651,0.348383,-0.162022,0.978472,0.127833
-0.044662,-0.204984,0.159900,0.035639,0.999030,0.025866
0.247578,0.354071,0.033811,-0.178699,0.033640,0.983329
-0.067271,0.082734,0.388028,0.630910,0.736398,-0.244276
0.074439,0.279136,0.024400,0.219836,-0.535486,0.815431
-0.413390,-0.421688,0.780935,-0.003423,0.778165,0.628051
0.533280,-0.373328,-0.979618,-0.131790,0.057786,0.989592
-0.180937,0.164205,-0.046616,-0.030204,-0.067883,0.997236
0.372194,-0.278264,-0.995322,-0.078359,0.352309,0.932597
0.173689,0.320525,0.680750,-0.541773,-0.814518,-0.207464
0.185899,-0.170566,0.258618,0.720667,-0.095219,-0.686712
0.917132,0.199233,0.694106,-0.501922,-0.407141,-0.763093
-0.527135,-0.593691,0.566273,0.782267,-0.082161,0.617501
-0.216936,0.196096,0.718028,0.863607,-0.115985,0.490643
0.188656,-0.109920,0.372214,-0.519040,0.828750,0.209216
-0.450097,-0.401037,0.760095,0.895495,-0.441213,-0.058480
0.843561,0.341437,0.599516,-0.248669,0.951493,-0.181175
-0.205435,-0.316342,0.749950,-0.331625,0.890137,-0.312539
-0.792832,-0.729970,0.208057,0.094834,-0.632372,0.768838
-0.288697,0.375594,0.154250,0.293431,-0.416172,-0.860639
-0.359826,-0.628110,0.857932,0.181251,0.655873,0.732788
-0.259552,0.264846,0.434149,0.858973,0.134541,-0.494029
-0.121308,-0.141899,0.792181,0.323642,0.411835,-0.851849
-0.177709,0.495752,0.655763,0.623751,0.576351,0.527972
0.344388,0.100597,0.366582,0.954821,-0.065899,-0.289784
0.225758,-0.110704,-0.430571,-0.471269,-0.881168,-0.038057
-0.262624,-0.236178,0.343136,-0.443491,-0.786975,0.428936
-0.047893,0.297434,0.287732,0.791612,0.610626,0.022040
0.286019,0.319915,0.260361,0.288636,0.032744,-0.956879
-0.337770,-0.307019,0.332459,0.258879,-0.793367,0.550954
-0.482079,0.753148,-0.083014,-0.555562,0.428498,0.712559
-0.274439,-0.071407,0.406135,-0.201882,0.300214,0.932264
-0.028042,0.137281,0.455705,0.948197,0.317617,0.006507
-0.100748,0.491047,0.795025,-0.657008,0.668473,-0.348545
-0.227965,-0.380822,0.624521,-0.606902,0.781654,-0.143828
0.302640,-0.263974,-0.480948,0.978700,-0.179416,0.099781
-0.112248,0.394937,0.640004,-0.731625,0.517399,0.443873
-0.354944,-0.290027,0.480563,0.194878,-0.977520,0.080479
0.125246,0.423692,0.838394,0.358136,0.852542,-0.380670
0.218433,0.373938,0.036691,-0.023735,0.067471,0.997439
0.046789,0.243498,0.881066,-0.259692,-0.945512,0.196387
0.599447,0.060079,0.697573,0.913372,-0.393069,0.106057
-0.878692,-0.518320,0.664386,0.097029,0.683101,0.723850
-0.518551,-0.504988,0.925022,0.245683,0.932318,0.265373
-0.209373,-0.208992,0.179347,-0.165331,-0.975943,-0.142128
0.034895,0.113493,0.652461,0.044411,0.658817,0.750991
-0.380937,0.288285,0.384414,0.177924,0.576607,-0.797413
0.071523,0.174051,0.922031,0.118523,0.860719,0.495091
0.284836,-0.186512,0.277275,-0.552419,0.415590,0.722578
-0.339898,-0.260576,0.715772,0.275496,-0.188144,0.942711
-0.402757,-0.398161,0.245079,-0.435443,0.864100,0.252431
0.392202,-0.286978,-0.991891,-0.360001,0.167784,0.917741
-0.533674,0.331068,0.381350,-0.438734,-0.539398,0.718723
-0.166679,-0.335599,0.563577,0.871761,0.485691,-0.064315
-0.092319,0.142509,0.896182,0.704489,-0.632353,0.322220
0.825207,0.018429,0.706874,0.623288,0.672903,0.398389
-0.022765,0.322790,0.804785,-0.205987,-0.964784,-0.163587
0.119496,0.054416,0.144362,-0.388609,-0.710334,0.586864
-0.421267,0.352416,0.611477,0.464867,-0.209242,0.860300
-0.072232,-0.275215,0.116935,0.800877,-0.239350,0.548915
0.005750,-0.103995,-0.054963,-0.601596,0.393400,-0.695211
-0.740763,-0.650155,0.567906,0.779576,-0.510949,0.362206
-0.274045,-0.105476,0.803097,-0.199320,0.761239,-0.617080
-0.240725,-0.271903,0.873177,0.930207,-0.183889,-0.317648
0.751633,0.013549,0.737952,0.943528,-0.295677,0.149435
-0.095786,0.011023,0.334715,0.899858,0.435757,0.019259
-0.384089,-0.334989,0.312958,0.383456,-0.920447,-0.075758
0.295550,-0.271032,-0.341687,0.909973,-0.412814,0.039155
0.493894,-0.249510,-0.984589,-0.351163,0.009067,0.936270
-0.601495,-0.623666,0.784806,-0.526813,0.230563,0.818113
0.523513,0.083693,0.450641,0.393147,-0.805968,0.442551
0.106971,0.211868,0.737236,0.174445,0.984663,-0.002701
0.013154,0.695726,-0.062008,-0.190827,0.596995,0.779219
0.302401,0.252908,0.918857,-0.135086,0.614275,0.777443
-0.395589,0.085610,0.711974,0.555709,0.794836,-0.243769
0.117683,-0.002309,-0.078501,0.329402,-0.551654,0.766271
-0.184639,0.191130,0.882423,0.859692,-0.416511,0.295717
-0.205041,-0.199756,0.588875,0.767589,0.081459,-0.635745
-0.032376,0.188429,0.616944,0.418320,0.904846,-0.079129
0.353525,-0.018342,0.340513,0.075708,0.773368,-0.629420
-0.102639,0.307280,0.945459,0.814704,-0.478186,-0.328017
-0.036234,0.606239,-0.005008,0.027806,-0.907592,-0.418932
-0.362504,-0.435455,0.865435,0.298597,0.857508,0.418952
0.067586,-0.372892,-0.407547,0.026521,-0.067468,0.997369
0.455771,-0.335860,0.466015,0.870787,-0.457983,0.178834
0.248602,0.003877,0.251830,-0.582579,-0.811941,-0.036791
0.464119,0.004226,0.378084,-0.120376,0.896010,0.427406
0.316659,-0.357034,-0.242382,0.379990,0.512699,0.769901
-0.247734,-0.212129,0.735640,0.208622,-0.424263,0.881180
-0.086964,0.080120,0.839696,0.137233,0.987872,0.072635
-0.144388,-0.508212,0.906364,0.496517,-0.866128,0.057384
-0.206774,0.240186,0.808068,0.296256,-0.953176,0.060733
-0.596692,-0.708971,0.806601,0.974315,-0.224944,-0.010549
0.682158,-0.173529,-0.985947,0.220419,-0.268807,-0.937634
-0.096966,0.341611,0.926691,-0.851854,0.154033,-0.500619
0.170696,0.026358,0.200738,0.201498,-0.946251,0.252999
0.158725,0.043262,0.151039,0.605189,0.649920,-0.459728
0.354629,-0.388838,0.474069,0.712183,-0.591081,0.378707
-0.698858,-0.320176,0.652956,-0.171897,0.610768,0.772926
-0.356992,-0.354856,0.816159,0.300336,0.575384,-0.760744
-0.271447,0.022437,0.856482,0.873917,0.479206,0.081430
0.662780,0.185553,0.730797,0.518216,-0.739944,-0.428877
-0.263095,0.037686,0.694619,-0.802177,0.525478,-0.283521
-0.314219,-0.279746,0.289273,-0.599890,0.754647,-0.265780
-0.230878,0.066702,0.402723,0.568998,-0.734510,-0.369780
-0.249783,0.400078,-0.043571,0.111772,0.259895,0.959146
0.739977,-0.065917,-0.986608,-0.209431,0.233053,0.949645
0.033477,0.157931,0.809976,0.927377,0.283045,-0.244657
0.040960,0.233651,0.355134,0.852855,-0.515395,-0.083704
-0.477038,-0.485557,0.944505,0.774563,-0.448595,-0.445886
0.782826,0.005794,0.721936,-0.512039,-0.849042,-0.130166
0.224734,-0.107742,0.071713,-0.495329,-0.856914,0.142645
-0.454667,0.068183,-0.021574,0.210109,-0.301768,0.929941
-0.398817,-0.226419,0.870407,0.611380,-0.065266,-0.788641
0.297046,0.389012,0.037975,-0.203041,0.156931,0.966513
-0.547066,-0.459330,0.902915,-0.304769,-0.948519,-0.086188
0.789209,-0.112012,0.744262,0.956561,-0.237286,0.169369
-0.488144,-0.579140,0.860445,-0.028415,-0.418448,0.907796
0.663016,0.138326,0.694289,0.040976,-0.376721,0.925420
-0.240095,0.045354,0.703132,0.908753,-0.385616,0.159590
0.876487,0.219448,0.675100,0.994343,0.101722,-0.030570
-0.695627,-0.681785,0.608340,-0.784856,0.619379,0.019244
-0.189839,0.453666,0.719624,0.392148,0.249118,0.885528
-0.515794,-0.395199,0.552845,-0.529179,0.848351,0.016449
-0.213469,-0.248900,0.857014,0.984005,0.050302,-0.170892
-0.223395,-0.700693,0.869141,0.663449,0.074416,0.744512
0.127294,0.108875,0.700325,0.053381,0.995749,-0.075067
-0.267665,-0.483640,0.806509,-0.110082,0.981718,0.155281
-0.420796,-0.322964,0.721954,-0.491350,0.868608,0.063992
0.070893,0.094585,0.832945,0.355252,0.536924,0.765185
-0.361874,-0.752886,0.838871,-0.324501,-0.049261,-0.944602
0.533359,0.057552,0.495239,-0.547841,0.836579,-0.002316
-0.121544,0.009977,0.360344,0.946428,-0.023669,-0.322046
-0.328948,-0.745916,0.872865,0.559372,0.717037,-0.415887
0.183221,-0.088049,0.091985,0.402131,0.897149,-0.182797
-0.045609,-0.272775,0.071071,0.934423,0.332114,0.128662
-0.106656,0.226681,0.807812,0.982554,0.095205,-0.159761
-0.085466,0.161852,0.856097,0.406312,-0.869876,0.279691
0.152107,0.459156,0.931186,0.761126,-0.560493,-0.326397
0.151162,0.206378,0.886404,-0.608775,0.627691,0.485177
-0.206301,0.238618,0.701425,-0.653095,0.594215,0.469442
-0.252934,-0.255348,0.540846,-0.138134,0.986651,-0.086251
0.238361,-0.094846,0.099525,0.151982,0.977725,-0.144762
0.788815,0.074544,0.691335,0.155457,0.625340,0.764711
0.425837,0.004400,0.435928,0.254607,0.923497,-0.286930
-0.242614,-0.702610,0.896916,0.621948,-0.771596,0.133496
-0.719731,-0.576874,0.635235,0.796827,-0.561840,0.222266
0.887673,0.183810,0.699866,-0.498535,0.558154,-0.663270
-0.253879,-0.279048,0.536847,-0.220929,0.888131,-0.403007
-0.210476,0.251688,0.734686,0.835729,-0.439512,0.329220
-0.666247,-0.213436,0.623512,0.306932,0.544621,-0.780500
-0.038912,0.290027,0.635803,-0.688577,0.434897,-0.580281
-0.474360,-0.150525,0.397861,-0.178213,-0.898392,0.401413
0.567545,0.025835,0.655250,0.871865,-0.477820,-0.107418
-0.606695,-0.785388,0.828964,-0.707086,0.549682,0.444837
-0.214099,-0.403564,0.794749,0.838113,0.446733,-0.313044
0.252304,-0.239228,-0.281256,0.598788,-0.795690,0.091276
-0.069160,0.203067,0.511567,0.912791,-0.401032,-0.077365
-0.261600,0.258485,0.803629,0.773730,-0.487152,0.404999
-0.339503,-0.259095,0.457649,-0.592789,0.791545,-0.148515
-0.000394,0.290202,0.197087,-0.683902,-0.289741,0.669574
-0.042063,0.243410,0.049497,-0.522608,0.212908,-0.825561
-0.252934,-0.228162,0.355519,0.942536,0.226251,-0.245838
-0.086175,0.452969,0.753931,-0.322656,-0.602317,0.730143
0.240489,0.204548,0.911189,0.964995,-0.198122,-0.171848
0.066562,0.289766,0.170357,-0.189137,-0.544149,0.817392
-0.245924,-0.494794,0.835568,0.968378,0.242867,-0.057098
-0.180386,-0.590380,0.332991,0.583398,-0.591580,-0.556489
-0.002204,0.405306,0.864683,-0.591373,0.782718,0.193985
0.834816,0.358080,0.639271,-0.312453,0.946274,0.083301
-0.336431,-0.484425,0.589884,-0.668786,0.696073,0.261166
-0.376367,-0.692415,0.865490,-0.641063,0.534892,0.550390
0.170776,0.132662,0.811279,0.091654,0.950939,0.295490
0.051595,0.143554,0.934488,-0.121030,-0.899781,0.419221
0.148956,0.196271,0.765892,-0.039075,0.387463,0.921057
-0.441040,-0.750098,0.826029,-0.736603,0.024785,0.675871
0.038676,0.256393,0.803464,-0.616899,0.745930,0.251047
-0.496810,-0.488346,0.852208,0.448449,-0.887588,0.105261
-0.239542,-0.704091,0.879763,-0.924513,0.112112,-0.364289
-0.638676,-0.531913,0.540736,-0.614542,-0.656587,-0.437301
-0.325955,-0.173006,0.667449,0.336494,0.071533,0.938965
0.252540,-0.058685,0.115669,0.203150,-0.890136,0.407907
-0.333123,0.365050,0.684621,-0.041675,-0.948665,0.313523
-0.395589,-0.314251,0.225706,0.335912,-0.669395,-0.662626
-0.487120,0.620529,-0.063861,-0.273649,0.524863,0.805999
0.540369,-0.437198,-0.978150,-0.131473,0.130218,0.982730
0.189129,0.249423,0.025849,0.071045,-0.869919,0.488051
0.169516,0.135886,0.842320,0.254750,0.900572,-0.352238
-0.187632,0.197839,0.786659,0.298852,0.954244,-0.010315
-0.335487,0.223369,0.855418,0.371142,0.398294,-0.838818
-0.218039,0.097983,0.869453,0.256984,-0.614706,0.745718
0.879557,0.168910,0.662661,0.023718,0.238544,0.970842
-0.171249,0.178757,0.842760,0.053475,-0.842766,0.535617
0.178809,0.063390,0.848410,-0.606402,0.757177,-0.242816
-0.090507,0.177885,0.875837,-0.230323,-0.955293,-0.185380
0.199055,0.483640,0.029078,-0.410365,-0.024076,-0.911604
-0.293658,0.664270,0.751179,0.469630,0.422891,-0.774990
0.514375,-0.255086,-0.761324,0.942433,0.326579,0.071873
-0.802284,-0.453143,0.637840,-0.693956,0.719061,0.037109
-0.532650,0.092406,-0.021226,0.239375,-0.018853,-0.970744
-0.159196,0.324358,0.852905,-0.226314,0.171212,0.958889
0.042773,0.340653,0.031353,0.391661,-0.274227,0.878295
-0.151241,0.332723,0.768405,-0.157709,0.422190,0.892683
0.910358,0.255784,0.682603,-0.174171,-0.276217,0.945182
-0.369752,0.283754,0.151957,-0.522473,0.362633,0.771699
0.437811,0.033590,0.423416,0.174201,0.983820,-0.041871
0.205591,0.392672,0.028454,0.534055,0.274987,0.799480
-0.536590,0.341785,0.390853,-0.530605,-0.633154,0.563538
0.292163,-0.001525,0.268066,0.974576,-0.163801,-0.152877
0.129816,0.307454,0.036893,0.223949,0.380209,-0.897378
-0.358881,0.439638,0.752811,0.864702,0.223824,0.449658
-0.164317,0.186424,0.886111,0.787393,-0.420769,-0.450517
0.431114,-0.360781,0.478068,0.076520,0.550676,0.831204
-0.246395,0.656603,-0.060724,-0.039390,0.762886,0.645332
0.751004,-0.042740,-0.991946,-0.111459,0.295083,0.948948
-0.314060,0.277916,0.744519,0.519265,0.697060,-0.494440
-0.022921,0.028449,0.407382,-0.024929,-0.993980,0.106690
0.085704,0.204374,0.826836,0.805027,0.412149,-0.426691
0.442378,-0.214917,-0.714341,0.962288,0.151434,0.225984
-0.622212,-0.698514,0.780440,0.976372,-0.127631,-0.174380
0.747302,0.108352,0.676219,0.133308,0.913386,0.384649
0.334304,0.083170,-0.006586,0.017597,-0.794483,0.607031
-0.558802,0.433102,0.396045,0.895762,-0.065221,-0.439723
-0.416462,-0.538012,0.727476,0.712964,0.118028,0.691195
-0.085151,-0.233739,0.136510,0.251196,0.926954,-0.278669
-0.035210,0.140417,0.911483,0.459799,-0.758425,0.461927
0.348561,-0.284102,0.285696,0.007094,-0.262892,0.964799
0.098464,0.240186,0.296722,-0.365497,-0.818236,0.443736
0.045215,0.669063,-0.055422,0.210613,-0.504318,-0.837440
-0.454982,0.188951,0.381295,-0.104679,-0.201350,0.973910
0.742890,-0.037773,0.743070,0.986673,0.146788,0.070206
-0.310594,-0.117850,0.746886,0.808422,-0.382540,0.447344
-0.409767,0.065220,-0.020565,0.168792,0.057651,0.983964
0.213154,-0.079597,0.115852,-0.321774,-0.750718,0.576962
-0.017409,-0.272426,0.066338,0.862654,0.468838,0.189784
-0.070973,0.326014,0.849566,0.807753,-0.469228,-0.356875
0.678218,0.194354,0.693922,0.760431,-0.239061,-0.603816
-0.218748,0.009018,0.356675,0.053121,-0.625004,0.778812
0.935566,-0.288720,-0.969179,-0.222164,0.255652,0.940896
-0.195430,0.455932,0.606304,0.593800,-0.435606,-0.676497
-0.366206,0.186163,0.756426,-0.118778,-0.610007,0.783443
0.761639,0.158454,0.695445,-0.378670,0.289525,-0.879081
-0.220481,0.088311,0.797300,0.813658,0.288961,0.504443
-0.537140,-0.671590,0.529582,-0.717343,0.675298,-0.171443
-0.349979,0.217619,0.821718,-0.657979,0.652471,-0.375959
0.082709,0.373415,0.771799,0.149320,0.420451,-0.894944
0.803543,-0.029495,0.688107,0.012084,0.129983,0.991443
0.793226,0.054328,0.749032,0.964509,-0.223500,0.140604
0.316582,0.027404,0.327359,0.481035,0.854690,-0.195219
0.308940,-0.149654,-0.243886,0.328280,-0.932233,0.152230
0.863646,-0.219448,-0.973656,0.014206,0.180734,0.983429
-0.159747,-0.487300,0.329377,0.620462,-0.436706,-0.651395
0.750059,-0.188167,-0.984425,-0.442225,0.197631,0.874859
-0.046160,-0.285671,0.112624,0.930175,-0.366365,-0.023467
-0.748955,-0.673158,0.214900,0.069144,-0.769991,0.634297
-0.125325,-0.030366,-0.040287,0.172203,-0.129391,0.976527
-0.168018,-0.565634,0.325286,0.595452,-0.580494,-0.555394
-0.287593,0.256219,0.753619,-0.581076,-0.309825,0.752569
-0.416700,-0.338823,0.874883,-0.388730,-0.878935,-0.276337
-0.187870,0.232867,0.631364,-0.336977,0.456205,-0.823604
-0.226941,0.091361,0.427287,0.390904,0.835524,-0.386126
-0.357622,-0.332026,0.883047,0.752219,0.468778,0.463049
-0.016385,-0.252734,0.082537,-0.030014,-0.999425,-0.015781
0.355336,-0.445388,-0.234585,0.640596,0.587307,0.494678
0.049468,0.442861,0.804436,0.948546,-0.110839,-0.296607
-0.211580,-0.266501,0.602323,0.336279,0.765316,-0.548825
-0.222529,-0.639524,0.851181,0.095980,-0.995315,-0.011670
0.806854,0.300571,0.664129,0.425573,0.766369,0.481213
-0.284442,-0.318085,0.227449,-0.044250,0.826457,0.561258
0.448208,-0.217531,-0.648425,0.944183,0.222306,0.243101
-0.327215,0.579750,0.723128,-0.682440,0.470022,-0.559782
-0.197243,-0.500457,0.726889,0.869347,-0.490024,-0.064123
-0.105003,-0.261273,0.590049,0.659610,0.356245,-0.661819
-0.314060,-0.737376,0.850850,0.529369,0.583627,-0.615750
-0.489642,-0.593430,0.524262,0.852334,0.420548,-0.310913
-0.189286,-0.162811,0.336935,0.151255,-0.069355,0.986059
-0.383851,-0.391801,0.330955,-0.290667,0.771102,0.566493
-0.417565,-0.623230,0.830890,0.803523,-0.453319,-0.385814
0.284362,0.463600,0.016328,-0.075813,0.078752,0.994007
0.088932,0.261273,0.029702,0.423314,0.037844,0.905193
0.279007,-0.170914,-0.122787,-0.381988,-0.828353,0.409777
-0.264434,-0.294471,0.412831,0.549715,-0.835191,0.016426
0.303425,-0.143728,-0.055422,-0.270500,-0.946752,-0.174613
-0.409688,0.013462,0.839861,0.747898,0.649163,-0.138694
-0.568333,-0.007537,0.421710,-0.304888,-0.035959,0.951709
-0.372273,0.384307,0.771616,0.807332,-0.584499,-0.081089
-0.528554,0.130223,-0.024161,0.290031,-0.008659,-0.956978
-0.215281,-0.633163,0.336220,-0.455211,0.050828,0.888932
0.227176,0.153139,0.847915,0.849921,-0.334321,0.407265
0.066797,0.450094,0.792089,0.859572,0.304626,-0.410291
-0.134148,0.090141,0.614412,-0.580787,0.716920,-0.385633
0.122804,0.170914,0.265204,0.474342,0.732730,0.487961
0.193699,-0.060776,0.079767,-0.372516,-0.907510,0.194057
-0.524063,-0.832527,0.774789,0.553381,0.223225,0.802459
0.133279,0.290725,0.877837,0.974916,-0.190721,0.114736
-0.338638,0.323749,0.838834,-0.650398,0.145658,-0.745497
-0.110909,-0.269289,0.250803,-0.570503,0.816421,0.089350
0.183694,0.268854,0.840210,0.924701,0.135687,0.355692
0.281528,0.215702,0.234438,-0.051353,-0.508272,0.859664
0.172824,0.270161,0.016089,0.110045,-0.982420,0.150799
-0.220481,-0.456193,0.886899,-0.687262,-0.570292,-0.449932
-0.325010,-0.408356,0.890110,0.113864,-0.973871,0.196495
-0.569672,-0.514138,0.768937,0.919402,-0.393238,-0.008058
-0.257189,0.312595,0.775578,0.556571,0.374542,-0.741584
-0.461992,-0.301355,0.682860,0.222190,-0.890528,-0.396979
0.388894,-0.294297,0.281036,-0.050954,-0.328702,0.943058
-0.246475,-0.306932,0.635987,-0.232937,-0.601688,0.764010
0.604252,-0.048926,0.686162,0.919026,0.078449,-0.386312
0.048208,0.146604,0.928654,0.235194,0.965674,0.110261
-0.304450,0.315471,0.744648,0.526531,-0.212495,-0.823171
0.665143,-0.225896,-0.984039,-0.030292,0.403795,0.914348
-0.042379,0.202544,0.908877,0.329062,0.942043,-0.065376
0.055927,0.435107,0.795740,0.875923,-0.223583,-0.427515
0.927135,-0.305276,-0.968886,-0.139897,0.473512,0.869607
0.183694,-0.181109,-0.145297,-0.727051,0.640039,-0.248489
-0.488774,-0.330458,0.837586,0.960879,-0.162047,0.224615
-0.257189,-0.275040,0.384193,0.603014,-0.783171,-0.151718
0.154785,0.175620,0.858372,0.501810,0.860234,-0.090474
0.954076,-0.243498,-0.969931,-0.161557,0.310612,0.936707
0.047972,-0.468566,0.346622,0.349841,-0.412050,-0.841324
-0.178180,0.053544,0.826084,0.831627,-0.553052,0.050293
-0.037573,0.240186,0.873764,0.264884,0.040640,0.963424
-0.184404,-0.174051,0.737915,0.325927,0.361580,0.873517
-0.229854,0.675685,-0.074611,0.019848,0.756125,0.654126
0.565576,0.013114,0.515841,0.003237,0.999532,0.030422
-0.302245,-0.769965,0.845163,-0.647990,0.603697,0.464390
0.730681,0.177972,0.694472,-0.298327,0.144979,0.943389
-0.135328,0.139807,0.633987,0.219705,-0.960581,0.170333
-0.265694,0.246809,0.799006,0.723592,-0.688477,0.049133
0.330130,0.175881,0.923847,0.892658,0.406133,-0.195495
-0.243638,0.484773,0.846612,0.742013,-0.550653,-0.382358
-0.329816,-0.422646,0.867416,-0.262036,0.961601,-0.081614
0.404568,-0.229905,0.418628,-0.253989,0.631268,0.732796
-0.400865,-0.437895,0.845548,-0.255650,0.711836,-0.654166
0.041749,0.292729,0.775322,-0.093893,0.984993,-0.144823
-0.257581,-0.231124,0.320975,-0.317719,0.947977,-0.019883
-0.418984,-0.666187,0.848759,0.803919,-0.452201,-0.386301
-0.454824,-0.529038,0.781376,0.783445,-0.543219,0.301871
0.693738,0.137978,0.745180,0.445510,0.690446,0.569917
-0.195510,-0.004052,-0.040434,0.317267,-0.065238,0.946089
0.765497,0.128306,0.683869,-0.524444,0.441408,-0.728092
0.117842,0.154620,0.799666,-0.451384,-0.760150,0.467359
0.968492,-0.265717,-0.969436,0.164222,-0.257793,-0.952142
-0.207089,-0.567290,0.324827,-0.281638,0.625052,0.728004
0.124616,0.458371,0.031169,-0.383726,-0.249681,-0.889052
-0.074124,0.174226,0.880882,-0.138007,0.979263,-0.148318
-0.180463,0.598048,-0.050744,0.129067,0.436377,0.890459
-0.396534,-0.080469,0.808234,-0.663562,0.663578,-0.345469
0.635445,0.197839,0.692124,-0.528763,-0.038622,-0.847890
-0.280976,-0.515793,0.824359,0.006978,0.993152,0.116620
-0.813469,-0.711497,0.199105,0.099347,-0.629996,0.770218
-0.372509,-0.500283,0.764883,-0.740346,-0.415407,-0.528511
-0.168018,0.094410,0.592783,-0.614091,0.788522,0.033547
0.099488,0.186599,0.881010,0.214027,-0.958457,-0.188553
0.743126,-0.051017,-0.986553,-0.186661,0.259813,0.947446
-0.624734,-0.633338,0.894201,-0.814368,-0.570473,-0.106613
-0.369201,-0.314251,0.494469,-0.286416,0.945191,-0.156777
-0.101536,-0.019823,0.371535,-0.646413,0.756450,0.099671
0.405750,-0.344138,0.471280,0.289882,-0.902392,0.318837
-0.271997,-0.291334,0.402723,-0.145063,0.965668,0.215503
-0.213233,0.443559,0.741437,0.183430,-0.225478,0.956824
-0.230484,0.419771,0.156708,0.388099,-0.254985,-0.885642
-0.105947,-0.172657,0.301106,0.929548,-0.368701,0.000678
0.229065,-0.269115,-0.200811,-0.254074,0.967112,-0.011864
-0.300827,0.290115,0.752830,0.899951,-0.134080,0.414862
0.983536,0.364615,0.669082,0.857235,-0.491129,0.154728
-0.112327,0.291334,0.453118,-0.284627,-0.953373,-0.100337
-0.349114,-0.547162,0.897246,0.585293,0.689684,0.426341
0.453092,-0.344225,0.447467,-0.727079,0.658929,0.192792
-0.271523,0.462815,0.810270,0.983431,0.180896,0.011812
-0.139977,0.435542,0.071805,0.510505,-0.551112,0.660045
-0.588971,0.754890,-0.103873,-0.473253,0.531968,0.702169
0.439306,-0.029147,0.400062,-0.142743,-0.951376,0.272961
-0.655533,-0.360955,0.588508,-0.020378,0.986020,0.165376
-0.068925,0.164902,0.441303,0.321413,-0.623219,0.712946
0.102875,0.222585,0.863857,0.998698,0.049089,-0.013897
0.198188,-0.158280,-0.415197,0.154070,0.816918,0.555794
0.136590,-0.241493,-0.170852,-0.488822,0.871964,-0.027048
0.080661,-0.320176,-0.075235,0.897641,-0.341968,0.278026
-0.481055,-0.503071,0.902732,0.403529,0.913321,0.054862
0.035054,0.279658,0.898054,0.645308,0.666819,-0.372732
-0.220481,0.544373,0.142032,-0.225315,-0.609402,-0.760173
-0.390548,-0.295865,0.885615,-0.127826,-0.937106,0.324798
0.242852,-0.028014,0.138216,-0.484567,0.862885,-0.143611
0.132808,0.152355,0.823093,0.306080,0.382594,-0.871743
0.084680,0.280965,0.807169,-0.676195,0.380537,-0.630834
-0.090745,0.462902,0.618577,-0.433341,0.676423,0.595539
0.595589,-0.402954,-0.980297,-0.047474,0.204045,0.977810
-0.191178,-0.187993,0.171109,-0.184344,-0.981236,-0.056504
0.027965,0.120115,0.751436,0.168568,-0.960073,-0.223259
-0.627570,-0.437459,0.611917,0.146330,0.589501,0.794403
-0.171564,0.114277,0.714634,0.230350,0.681285,-0.694830
0.446475,-0.403912,-0.501825,0.561580,0.723466,0.401529
-1.000000,-0.645711,0.645215,0.944783,-0.301691,0.127933
0.153210,-0.018690,0.167312,0.689053,0.701165,-0.183232
-0.541078,-0.370888,0.622429,-0.596850,0.645258,-0.476877
-0.085230,0.192088,0.706947,0.894328,0.118032,-0.431561
-0.229224,-0.230950,0.499367,0.924150,-0.362725,-0.119907
-0.297281,0.343877,0.838320,0.777742,-0.590433,0.215651
-0.348641,0.368013,0.845200,-0.428984,0.889536,-0.157155
-0.611421,0.781031,-0.097342,-0.473253,0.531968,0.702169
-0.479007,-0.407398,0.726265,0.845817,-0.501933,-0.180715
-0.492084,-0.360258,0.917812,0.354182,0.332225,0.874175
-0.250177,-0.258136,0.585041,-0.001656,0.986003,0.166719
-0.162268,0.656254,-0.057330,0.039814,0.630601,0.775086
-0.541472,0.221627,-0.013062,-0.313404,-0.049460,0.948331
0.466326,-0.445301,-0.980443,-0.027047,0.356094,0.934059
-0.318630,0.205768,0.815553,-0.574292,0.386663,-0.721582
0.798661,-0.117414,-0.981214,-0.185821,0.379778,0.906223
0.140448,0.346926,0.900035,0.849540,-0.495021,0.182304
0.104293,0.277654,0.912363,0.146915,-0.336833,0.930032
-0.614729,0.498105,-0.059678,-0.512434,0.556784,0.653760
0.026231,0.403390,0.956319,0.975315,0.214236,-0.053510
-0.322962,-0.561974,0.503990,0.958443,0.094666,0.269121
-0.547222,-0.507690,0.787907,0.806442,-0.033180,-0.590382
0.090981,0.212826,0.879873,0.329183,-0.944211,0.010183
-0.241828,-0.146343,0.512631,0.857318,-0.501697,0.115352
0.083971,0.105128,0.819589,0.543080,-0.147689,-0.826591
-0.235369,0.098854,0.705572,-0.828991,0.490191,0.269235
-0.060732,0.372544,0.786127,-0.675167,0.559968,0.480193
-0.419063,-0.374635,0.474674,0.007970,0.349450,0.936921
-0.088618,-0.153139,0.350639,-0.600079,0.786088,-0.148222
-0.689327,-0.428223,0.590600,0.274872,0.841902,0.464378
0.015676,0.210125,0.634097,0.665490,-0.075220,-0.742607
0.004332,0.178147,0.671504,-0.494857,-0.788238,-0.365784
-0.405906,-0.306583,0.896659,0.280460,-0.849951,0.446011
-0.233006,-0.708709,0.325139,0.433876,0.258534,-0.863083
-0.286175,-0.344835,0.866022,0.754854,0.511615,-0.410420
-0.096966,0.186337,0.907630,0.834702,0.170032,-0.523795
-0.773769,-0.213872,0.695518,0.858427,-0.183467,-0.479002
0.120125,0.340653,0.806858,0.420813,0.308182,-0.853194
0.092163,0.265281,0.824359,-0.052733,0.436982,0.897923
-0.056557,0.093278,0.464254,0.954579,0.283115,-0.092872
0.894682,0.144687,0.670531,-0.323376,0.923959,-0.204275
-0.098070,0.047880,0.445229,0.358071,0.925235,0.125400
0.050886,0.122293,0.031151,-0.403520,-0.034910,-0.914305
-0.448364,-0.130571,0.768020,0.600917,-0.290403,0.744691
-0.400709,-0.036117,-0.029151,0.148921,-0.218616,0.964381
-0.283656,0.687710,-0.068649,-0.365228,0.306290,0.879088
-0.044427,-0.122119,0.345631,0.947387,-0.287376,0.140973
-0.043323,0.211868,0.924618,0.194084,0.756681,0.624311
-0.188026,-0.175010,0.425196,0.144828,-0.974630,-0.170652
0.342811,-0.257439,-0.482324,0.865964,0.498474,-0.040364
0.860574,-0.094672,-0.978646,-0.289431,0.291729,0.911660
-0.024813,0.210561,0.872351,-0.534371,0.834363,0.135226
0.517683,-0.109223,-0.992992,-0.088754,0.051708,0.994711
-0.134462,0.506383,0.141316,-0.206538,-0.693148,-0.690570
0.059552,-0.355117,-0.403640,0.094938,-0.039010,0.994719
-0.100277,-0.246547,0.205673,0.893081,-0.448419,-0.036424
-0.022606,-0.286455,0.089912,0.547634,-0.760055,0.349876
-0.154391,0.169433,0.441230,0.573880,-0.023421,0.818604
