0.221593,-0.084975,0.396929,0.848792,-0.522155,0.083099
0.237473,-0.229208,-0.119608,0.672649,0.012061,0.739863
0.043614,0.863361,0.405962,0.833788,0.166070,0.526515
-0.093807,0.661658,0.635752,0.932398,-0.354478,-0.070565
-0.324158,0.154322,0.765024,-0.263375,0.189741,-0.945850
-0.251536,-0.321445,0.775381,0.757521,-0.063090,-0.649755
-0.381868,0.085703,0.764724,0.692135,-0.721667,-0.012117
0.308884,0.042085,0.427608,-0.477571,0.875343,-0.075499
-0.507712,0.175709,0.247919,-0.583026,-0.706242,-0.401625
0.138849,-0.129557,0.038198,0.808085,-0.132599,0.573948
-0.683446,0.256077,0.258434,0.206903,0.968079,0.141475
0.478739,0.662802,0.434686,-0.603025,0.780048,0.166992
-0.370835,0.286321,0.464198,0.331019,-0.685623,0.648343
-0.066528,-0.599239,0.812398,-0.273003,0.438234,0.856400
0.097688,-0.548211,0.780474,-0.261407,-0.220225,0.939770
0.321431,0.369763,0.289507,-0.068715,-0.787237,0.612811
0.221349,-0.240471,0.025255,0.722489,0.048971,0.689646
0.059316,-0.171550,0.821872,0.813229,0.320485,-0.485745
-0.096475,-0.553091,0.689731,-0.141932,-0.586735,0.797244
0.416118,-0.077989,0.189778,0.750579,-0.621065,0.225632
0.254933,0.223905,0.778866,0.414988,-0.878701,-0.235942
-0.053193,-0.626409,0.500725,0.395788,0.502520,0.768652
0.462493,-0.163236,-0.096939,-0.098791,0.994467,-0.035721
-0.013186,-0.431212,0.557810,-0.729891,0.507678,0.457736
-0.203346,-0.495315,0.712574,-0.347955,0.797597,0.492713
-0.265540,-0.562489,0.725533,0.351483,-0.729045,0.587326
0.111448,-0.207457,0.883608,-0.457080,0.884668,-0.091872
0.569060,-0.286321,-0.972364,-0.259653,-0.043704,0.964712
0.619190,0.074856,0.526927,-0.348850,0.769117,0.535502
-0.028641,0.372414,0.858463,0.972580,-0.230080,-0.033938
0.308762,-0.082265,0.116597,-0.275517,0.866265,-0.416744
0.355318,-0.247461,-0.130833,-0.573210,0.162536,-0.803127
-0.060105,-0.540860,0.773206,-0.212800,0.787595,0.578282
0.099264,-0.089193,0.864406,-0.697266,0.471157,0.540213
0.389264,-0.222942,0.193388,0.762836,0.390760,0.515159
0.262814,0.187579,0.439699,0.975920,0.213062,0.046736
0.623130,-0.256801,-0.968738,-0.050153,0.219387,0.974348
0.241839,0.098775,0.085525,-0.760259,0.618610,-0.198312
-0.011910,0.634848,0.533201,0.154223,0.969686,0.189539
0.131756,-0.286862,0.435080,-0.785722,0.295240,-0.543575
0.459462,-0.091002,-0.358005,-0.481763,0.860584,-0.165224
-0.008517,-0.387534,0.755533,0.253450,-0.956763,-0.142713
0.101021,0.708950,0.663987,-0.628428,-0.410926,-0.660468
0.165884,0.532852,0.714923,-0.789986,-0.460903,-0.404340
0.016398,0.344280,0.766790,-0.277981,0.120359,0.953016
0.371261,-0.216676,-0.404875,-0.082112,0.240602,0.967144
0.309854,-0.008884,0.840033,0.494322,-0.175760,-0.851325
0.452125,-0.146851,-0.672894,0.904503,-0.250887,0.344863
-0.368534,0.066542,0.969132,0.756924,-0.309617,0.575503
-0.368290,-0.674790,0.718644,0.818834,0.093688,0.566333
0.545903,-0.112510,-0.878058,0.945931,0.180304,-0.269637
0.512137,0.207340,0.709074,0.947998,0.043729,-0.315259
0.119510,0.208843,0.706410,0.970728,0.018394,0.239477
0.331313,0.076966,0.453005,0.080827,-0.983500,0.161846
0.071441,0.178301,0.739138,0.562286,-0.807954,0.176195
0.152183,-0.144258,0.849477,0.582077,-0.731183,0.355749
0.380111,-0.092146,-0.986537,-0.074346,0.106090,0.991573
-0.237595,-0.367652,0.401264,-0.656314,0.081672,-0.750055
0.511715,0.098956,0.170970,0.946658,-0.255289,0.196638
0.287847,-0.120221,0.265150,0.880478,-0.442428,0.170342
0.301548,-0.062806,-0.989974,-0.124920,0.023641,0.991885
0.181342,-0.243184,0.855183,0.482090,0.663012,-0.572717
0.504623,0.155227,0.187287,0.975988,-0.115579,0.184630
-0.577485,0.531223,0.506464,-0.029490,-0.976976,0.211302
-0.271238,0.139923,0.739453,-0.378866,-0.918510,0.113135
0.044040,-0.079974,0.638652,0.865891,-0.295630,0.403529
-0.019487,0.286744,0.941622,-0.786219,0.579802,-0.213749
0.982844,-0.009186,-0.705764,0.503392,0.259549,-0.824155
0.434788,0.243486,0.776990,0.267440,-0.268478,0.925416
0.188435,-0.070697,0.804941,0.881108,-0.213969,0.421741
0.395084,-0.020394,0.316134,0.483970,-0.873634,0.050363
0.042404,0.259272,0.783217,0.158378,0.985542,0.060188
-0.025004,-0.076481,0.792045,0.022613,0.999593,0.017387
-0.347437,0.123416,0.784620,0.067118,-0.743198,0.665697
-0.528384,0.081122,0.783327,0.805068,0.572624,0.154817
0.511046,-0.110039,0.559796,0.825597,0.226002,0.517023
0.215348,0.402780,0.315251,-0.032908,-0.803213,0.594783
0.267664,0.013466,0.159383,0.675057,0.734753,0.066601
0.195646,-0.150042,0.049376,0.904145,0.204490,0.375107
0.313128,-0.038345,0.296128,-0.325770,0.944495,-0.042454
0.225593,-0.117628,0.387139,0.990321,-0.008771,0.138516
0.216014,0.162997,0.624228,-0.623519,-0.781766,-0.008091
0.260146,0.106126,0.533201,0.991351,-0.073770,0.108536
0.155880,-0.117330,-0.995665,0.176264,-0.094577,-0.979789
0.299365,0.277706,0.770762,0.116441,0.881814,0.456997
-0.118418,0.290300,0.569681,0.080884,-0.985345,0.150177
0.363317,-0.227159,-0.417439,0.191511,0.296834,0.935528
-0.306095,-0.717022,0.887659,0.388462,0.919465,-0.060671
0.049194,-0.373315,0.900681,0.986233,0.066510,0.151395
0.738367,-0.059132,-0.972632,0.156646,-0.153678,-0.975625
0.480799,-0.062203,0.075246,-0.570441,0.744728,-0.346376
0.257116,0.297106,0.718990,0.887404,0.460978,-0.003619
-0.466007,-0.594481,0.507520,0.952587,0.019097,0.303667
-0.254874,-0.658040,0.864942,0.603679,0.752164,0.264235
-0.168855,-0.128355,0.172184,0.655440,0.284410,0.699650
-0.111570,0.010211,0.194965,0.624664,-0.583076,0.519440
-0.178068,-0.660993,0.498029,0.866255,0.426498,-0.260195
-0.592821,0.088171,0.576460,0.953854,0.288823,0.082122
0.452914,-0.186373,-0.211581,0.480567,0.810364,-0.335208
-0.134180,-0.443802,0.845898,0.016138,-0.913125,0.407361
0.123025,0.105100,0.686988,0.967442,-0.142106,-0.209431
0.010578,-0.563030,0.481397,-0.437780,-0.295804,-0.849028
-0.643983,0.293311,0.478244,0.915592,-0.249585,0.315275
0.471402,-0.098290,-0.339403,0.931990,0.273285,-0.238137
-0.094354,-0.097385,0.141853,-0.115141,-0.992588,-0.038886
0.479708,-0.160283,-0.114832,-0.598144,0.801382,-0.003272
-0.636649,-0.058106,0.570753,-0.616498,-0.690148,0.378979
0.375383,0.631833,0.365462,-0.513268,0.553883,-0.655568
-0.554331,0.559360,0.543732,0.334671,0.918979,-0.208500
0.740246,-0.015150,-0.007236,-0.439366,0.710930,0.549123
-0.440367,0.064615,0.983321,-0.785467,0.381877,-0.487044
0.175644,-0.043225,0.444634,0.829522,-0.247732,0.500521
0.539779,0.199206,0.172374,0.927393,-0.192763,0.320600
-0.145453,-0.175889,0.277462,-0.118176,-0.990904,0.064366
-0.325797,-0.223482,0.455748,0.870399,0.444261,0.212221
0.017911,-0.328491,-0.767578,-0.324592,-0.102532,-0.940280
0.218985,0.465255,0.464765,0.923227,0.345257,0.168672
-0.006031,-0.098533,0.655694,-0.744849,-0.666729,0.025928
0.481769,-0.096422,0.059465,-0.127831,0.990045,-0.058910
-0.388658,0.274392,0.458428,0.363865,-0.623992,0.691546
0.232867,-0.152451,0.560553,0.920621,-0.028632,-0.389405
0.479830,-0.120761,-0.274373,0.982661,-0.163063,0.088251
0.439579,0.242401,0.780079,0.044050,0.045898,0.997974
0.439032,0.347895,0.637186,-0.678195,0.676298,0.287529
-0.687205,-0.022320,0.742275,0.493636,0.676772,0.546172
-0.483282,-0.029248,0.719621,0.332630,-0.932522,0.140571
0.468915,0.667020,0.635216,0.698150,-0.332997,0.633797
-0.030642,-0.421993,0.749243,0.621110,-0.777372,-0.099575
-0.395144,-0.193602,0.746075,-0.661904,0.363229,-0.655704
0.098173,-0.346748,0.809481,0.848468,0.525985,-0.058668
-0.366351,0.066001,0.734960,-0.700301,0.702003,-0.129500
0.540871,0.157275,0.718896,0.985709,-0.121266,-0.116930
0.235897,0.122872,0.580984,0.903218,0.396360,0.164608
-0.321978,-0.759677,0.883040,0.395828,0.913447,-0.094525
-0.413025,-0.204505,0.876041,0.246763,0.964581,0.093225
0.458552,-0.106244,-0.668038,0.776926,-0.623852,0.084823
0.101144,0.708288,0.579960,-0.714448,0.434726,-0.548250
-0.263724,-0.262162,0.444161,0.881442,0.230197,0.412395
0.398418,-0.153355,0.159446,0.994413,-0.048805,0.093602
0.297911,-0.240533,-0.672988,0.128216,0.270801,0.954058
-0.237536,0.390667,0.710714,-0.279970,-0.682474,0.675163
-0.660414,-0.075157,0.749905,0.275789,0.806086,0.523608
-0.346649,-0.408619,0.759995,-0.198326,0.482016,0.853421
-0.315611,0.152576,0.627506,-0.301852,0.142617,0.942627
0.289789,0.280838,0.857091,-0.217650,0.719583,0.659415
-0.198195,0.118658,0.950987,0.304122,0.360155,-0.881928
-0.434244,-0.710212,0.901863,-0.579021,-0.411311,-0.703958
0.206376,0.487483,0.779481,0.059977,0.977088,0.204213
-0.194858,-0.423622,0.143823,0.304511,0.420777,0.854529
-0.652592,-0.070759,0.730105,-0.562252,-0.540647,-0.625758
0.139090,-0.084372,-0.332435,0.443693,0.764582,0.467495
0.396779,-0.063468,0.312224,0.745352,-0.649602,0.149890
-0.341740,-0.060033,0.809166,0.480087,0.792429,0.376262
0.309550,0.046542,0.404102,-0.416076,0.856823,-0.304524
0.161822,-0.370844,0.736899,0.080968,0.450672,0.889010
0.646043,-0.003585,-0.111363,0.116890,-0.548225,0.828122
0.078715,0.718470,0.673067,0.483015,0.351666,0.801890
-0.092597,-0.217095,0.666036,0.940199,0.310215,0.140684
0.305366,-0.372653,-0.583065,0.935988,-0.333720,0.112063
-0.226625,-0.638581,0.804247,-0.637758,0.752585,0.163954
0.311611,0.178180,0.404102,-0.806359,0.206618,-0.554161
-0.175160,-0.165946,0.847537,0.446949,-0.846721,0.288617
0.135815,0.006538,-0.495539,0.146449,-0.482502,0.863565
-0.095564,-0.573153,0.494372,-0.424754,-0.421303,-0.801303
0.342831,0.465858,0.761698,-0.665349,-0.734738,0.132176
-0.188372,-0.033525,0.913971,-0.183416,-0.795591,0.577403
-0.129329,-0.523148,-0.345188,0.263947,0.531501,0.804885
0.172007,-0.208299,0.286133,-0.521003,-0.224692,-0.823450
0.141938,0.520199,0.514646,-0.287206,-0.533516,0.795533
0.300822,0.182820,0.830527,-0.055461,-0.918921,0.390522
0.160608,-0.306623,-0.991976,-0.220897,0.218093,0.950600
0.463584,-0.063648,-0.988507,0.304293,-0.241462,-0.921467
-0.088353,0.159445,0.391143,0.675245,0.037440,0.736643
-0.110601,-0.169561,0.351211,0.462258,0.717985,0.520399
0.374654,0.416635,0.309150,-0.345195,0.845063,-0.408301
0.160671,-0.008645,0.685853,0.995373,-0.040146,-0.087298
-0.242142,-0.664063,0.858510,0.331846,0.855095,0.398360
-0.041857,0.067266,-0.399325,0.891822,0.434339,0.126499
0.336648,-0.167031,0.107343,-0.247966,0.948841,-0.195485
-0.209347,-0.710575,0.669268,-0.211754,0.610711,0.763016
-0.150367,-0.667259,0.485307,0.762893,-0.352186,-0.542180
0.619434,0.243486,-0.717288,0.420854,0.484720,-0.766765
0.427695,0.178239,0.774767,0.369585,-0.186339,0.910321
0.521776,-0.033223,0.108053,0.975524,0.118498,-0.185232
0.150064,0.424104,0.170324,0.711372,0.060838,-0.700177
0.020520,0.397897,0.769328,-0.444585,0.454524,-0.771850
0.330888,-0.446152,-0.655379,-0.127284,0.482194,0.866769
-0.069380,-0.711598,0.805288,0.479183,0.219757,0.849759
0.166247,-0.177636,0.892499,0.904044,0.423237,-0.059793
-0.081383,0.547729,0.566134,0.870269,-0.306424,-0.385663
-0.068592,-0.209627,0.663466,0.156217,0.407054,0.899946
-0.137636,-0.367531,0.624149,-0.307613,0.919487,0.244780
-0.265844,-0.385424,0.838315,0.149807,0.740566,-0.655072
0.261359,0.087869,0.523600,0.985464,0.015924,0.169134
-0.736124,0.263188,0.471639,0.216774,0.951503,-0.218289
-0.369685,-0.000754,0.195406,0.741784,0.551464,0.381633
-0.426544,-0.106365,0.453241,0.809303,0.504716,0.300483
0.342161,-0.150524,0.240778,0.994694,-0.005541,0.102724
0.074046,-0.632436,-0.327059,-0.269157,-0.515111,-0.813766
0.175400,-0.251498,0.067300,0.854942,0.328519,0.401435
0.258629,-0.002019,0.409037,0.842764,-0.538014,0.017026
0.766678,-0.204505,-0.955322,-0.254761,0.130071,0.958216
0.385021,-0.014911,0.350438,-0.195507,-0.937602,0.287539
0.473041,-0.106784,-0.403093,0.942485,0.331999,-0.038718
0.214256,-0.029127,-0.997541,0.279489,-0.128570,-0.951502
0.027250,-0.385005,0.760200,-0.376560,0.918547,-0.120309
-0.471161,-0.061721,0.471670,0.911751,0.003033,0.410731
-0.588214,0.081787,0.552671,0.110814,-0.971447,0.209789
-0.460735,-0.152572,0.531120,0.592550,0.666048,0.453061
0.559725,-0.204265,-0.935048,-0.097670,-0.943060,0.317960
-0.390719,-0.669546,0.440882,-0.532660,0.556584,-0.637564
-0.447759,0.019912,0.986395,0.763488,-0.043254,0.644372
-0.287666,-0.231013,0.446320,-0.701887,-0.489689,-0.517261
-0.678599,-0.054492,0.743789,-0.602377,-0.537973,-0.589684
-0.125452,0.125825,0.726053,-0.097112,-0.568096,0.817212
0.238080,0.196316,-0.381574,-0.200027,-0.835142,0.512374
-0.185220,-0.524957,0.602283,0.973621,-0.215453,-0.075112
0.421209,0.711480,0.379666,-0.501227,0.369598,-0.782412
0.248506,-0.048469,0.361032,0.798670,-0.425237,-0.425794
0.306942,-0.092388,0.666225,0.034937,-0.990896,-0.130018
0.471343,-0.132451,-0.075057,0.508943,0.857764,-0.072231
-0.136300,0.366027,0.807432,0.015326,0.342073,0.939548
-0.442972,-0.209083,0.514283,-0.566567,-0.203199,-0.798569
0.218260,-0.463446,0.424329,0.868646,-0.370645,-0.328750
-0.606340,0.088472,0.588110,0.924990,0.367152,0.097943
-0.356043,0.280599,0.451334,0.238478,-0.679029,0.694296
-0.280151,-0.061239,0.914838,-0.550899,0.677843,-0.486866
0.149516,-0.220710,0.487514,-0.590734,0.222757,-0.775508
-0.350227,-0.019368,0.951728,0.811954,-0.563727,0.151465
-0.015003,-0.071601,0.904859,-0.052300,-0.993894,0.097160
0.505896,0.179084,0.784510,0.872123,-0.349606,-0.342312
0.215226,-0.854444,0.388463,0.412737,0.809668,0.417235
-0.242083,0.100221,0.643445,0.394149,-0.003241,-0.919041
0.270813,-0.279029,0.770841,0.912629,-0.165710,0.373695
0.180857,-0.147994,0.043338,0.883585,0.126390,0.450891
-0.337374,-0.463262,0.421065,0.865142,-0.419795,0.274411
-0.487829,-0.143173,0.862609,0.998025,0.022059,0.058818
0.263235,-0.033286,0.508765,-0.426254,0.027343,-0.904190
0.379142,-0.084916,0.279449,-0.202080,0.840881,-0.502078
0.265115,-0.157753,0.263227,0.725135,-0.680863,0.102983
-0.083928,-0.466277,-0.357722,0.329362,0.332666,0.883659
0.613555,-0.256198,0.138448,-0.535895,0.395416,0.745964
-0.089504,-0.441875,0.494356,-0.508781,-0.114224,-0.853285
0.484618,0.548031,0.374212,-0.303661,-0.472434,0.827403
-0.571787,0.376389,0.478796,0.061363,-0.135820,0.988831
-0.443153,-0.598154,0.862782,0.125146,0.544935,0.829086
0.174553,0.071362,0.866188,-0.757681,-0.012058,0.652514
-0.186859,-0.612554,0.153740,-0.546233,-0.335504,-0.767507
0.514261,0.000813,0.117890,0.987514,0.132831,-0.084691
-0.299061,0.261982,0.807511,-0.383607,0.470624,-0.794581
0.229108,-0.124078,0.364154,0.992252,0.124040,-0.007106
0.186859,-0.738529,0.374716,0.673584,0.576837,0.462107
0.165762,0.357231,0.805445,-0.315806,0.690796,0.650437
-0.520444,-0.317227,0.766821,-0.684066,0.068994,-0.726150
0.384292,-0.145402,0.260531,-0.630781,-0.135712,0.764001
-0.466673,-0.491940,0.798761,0.183656,0.860438,0.475307
0.216014,0.533815,0.402305,-0.738678,-0.108249,-0.665310
0.351315,-0.058467,0.840065,0.996476,0.083465,0.008282
0.027187,-0.076121,-0.167865,-0.561282,-0.140512,-0.815609
0.746976,-0.250351,-0.957277,0.341423,-0.102611,-0.934292
-0.224076,-0.261559,0.759412,0.127626,0.629323,0.766592
-0.180491,0.201074,0.471781,-0.609417,0.225088,0.760228
0.063801,0.062144,-0.348200,-0.674283,0.194692,0.712346
0.060467,-0.731601,0.815093,-0.217585,0.123780,-0.968161
-0.390659,0.118294,0.702358,0.755608,0.655022,-0.001566
0.028459,-0.091903,0.913939,0.600228,0.750692,0.276024
-0.430970,0.314458,0.479758,-0.071322,-0.975362,0.208764
0.175763,-0.274812,-0.986994,-0.143723,0.207039,0.967718
0.290333,-0.009910,0.419315,-0.666661,0.221023,0.711837
0.173883,-0.084074,0.488113,0.926393,-0.268153,0.264368
0.266450,0.271322,0.706694,0.904853,0.422087,-0.055537
0.211226,-0.204324,0.402557,0.979988,0.045876,0.193696
0.513288,-0.163416,-0.596702,0.964852,0.249623,-0.082150
-0.212377,-0.300901,0.532192,0.254508,-0.964727,-0.067283
0.583970,-0.270112,-0.959863,-0.025219,-0.323248,0.945978
-0.734548,-0.268005,0.333223,0.213880,0.755339,0.619450
0.289364,0.059676,0.492559,0.856308,0.366565,0.363823
0.362348,-0.153536,-0.192064,-0.300706,0.953231,0.030435
-0.603129,-0.030575,0.549455,0.766610,-0.616637,-0.179078
0.456610,-0.083291,-0.341200,0.998288,-0.036859,-0.045410
-0.279604,0.178121,0.607012,0.249761,0.588406,0.769024
0.389020,0.402236,0.610922,0.981983,0.126115,0.140725
0.313672,-0.165163,0.006574,0.347972,0.870064,0.349149
0.037979,0.174323,0.515544,-0.473850,-0.851266,0.225415
-0.344041,-0.279934,0.822456,0.460595,0.584168,0.668281
-0.796137,0.027505,0.280410,0.345204,0.744710,0.571176
-0.097747,-0.616411,0.874165,0.664052,-0.699793,-0.263297
0.261844,-0.201552,0.827753,0.890159,-0.255029,-0.377595
-0.027612,-0.315418,0.700419,0.685388,-0.605844,-0.403976
0.301307,0.522607,0.388337,0.749081,-0.184814,0.636177
0.312218,-0.039971,0.499054,-0.450678,-0.397897,-0.799104
-0.270876,0.404946,0.716121,-0.189928,-0.746101,0.638170
-0.271786,-0.197698,0.418574,-0.618226,-0.695723,-0.365740
0.491407,0.527851,0.348751,0.102871,-0.882184,0.459532
0.410117,-0.169623,-0.129446,-0.860908,0.342530,0.376180
0.129755,-0.003523,-0.495980,-0.127438,0.647747,-0.751122
-0.550690,-0.393620,0.789475,0.669024,-0.036417,0.742348
0.157641,-0.365725,0.729285,-0.189695,0.478845,0.857160
0.512504,-0.284512,-0.081032,0.870337,0.327364,-0.367895
-0.529050,-0.008645,0.518524,0.905829,-0.149709,0.396309
0.599429,-0.261559,-0.570390,0.831860,0.526640,0.175099
-0.434606,0.407538,0.498849,0.975753,-0.043763,0.214456
0.055557,-0.517485,0.736222,0.014032,-0.364960,0.930917
-0.383567,-0.451635,0.403629,-0.097070,0.677648,0.728951
-0.307915,0.235293,0.982990,0.591371,-0.222551,0.775081
0.031490,0.332892,0.828367,0.877225,-0.322780,0.355371
-0.076469,0.061000,0.914444,0.815713,0.576370,0.049084
-0.595248,-0.059732,0.618316,0.471925,0.856940,-0.207220
-0.018400,-0.070035,-0.796712,0.219541,0.045379,0.974547
0.951139,0.178301,-0.689841,-0.599419,-0.352837,0.718473
0.106475,-0.202096,0.871752,-0.254409,-0.966861,-0.021363
-0.048343,-0.101184,-0.149735,0.561120,0.239995,0.792178
0.504863,0.280721,0.763132,-0.181782,-0.856497,0.483083
0.294821,-0.443563,-0.337338,0.233450,0.372772,0.898077
0.134968,-0.229807,0.934039,-0.377456,0.176723,0.909008
-0.595914,0.125825,0.235181,0.141979,0.869458,-0.473165
-0.452488,0.218242,0.703226,-0.083175,0.013304,0.996446
-0.307005,0.032444,0.614422,-0.558656,-0.075570,0.825949
0.101325,0.708950,0.406814,-0.556304,-0.378151,-0.739951
0.252691,-0.085939,0.324253,0.918190,0.270125,0.289759
-0.302214,0.245957,0.819507,0.896092,-0.383403,-0.223652
0.943259,0.232642,0.311325,-0.456782,0.158252,0.875389
-0.615797,-0.020511,0.557416,0.946902,0.210224,0.243275
-0.000152,-0.215893,0.335194,0.617700,0.329886,0.713878
-0.593124,-0.017981,0.616392,0.274783,0.612127,0.741481
0.466067,-0.108112,-0.465459,0.943497,-0.081243,-0.321268
0.324280,0.575323,0.634049,-0.304137,-0.308579,-0.901266
-0.535902,-0.195286,0.256621,0.265383,0.847702,0.459319
0.687567,0.122453,0.199048,-0.507735,-0.649228,0.566312
0.438184,-0.191671,-0.237357,0.751489,-0.656095,-0.069314
0.417816,-0.089013,-0.457088,0.972684,0.224432,0.059298
-0.099020,-0.201493,0.257819,-0.252611,0.944131,-0.211669
-0.322582,-0.520136,-0.312681,0.332435,0.560331,0.758628
0.041735,-0.017864,-0.729569,-0.167235,0.979132,0.115472
0.523596,-0.173778,-0.770605,-0.042849,-0.986061,0.160770
0.269662,0.065578,0.690330,0.098025,0.523035,-0.846656
0.509836,0.223725,0.225470,0.772624,0.621513,-0.129514
-0.700846,0.104740,0.271235,0.160484,-0.423755,0.891447
-0.240141,-0.660029,0.457750,0.664813,0.409979,-0.624452
0.591367,-0.043769,-0.767531,-0.435381,0.020873,0.900004
0.030402,-0.231373,0.671112,0.958859,-0.271338,-0.083455
0.084231,0.184986,0.527793,-0.473850,-0.851266,0.225415
0.345195,0.724372,0.405521,0.681157,-0.640514,-0.354636
-0.279060,-0.241136,0.495633,0.843705,0.529133,-0.090443
-0.049615,-0.293429,0.480152,-0.517965,0.852770,-0.067051
-0.001424,-0.218963,0.880849,-0.179925,0.117657,0.976618
0.111022,-0.328009,0.868142,0.810799,0.183118,0.555943
0.777467,0.244813,0.284935,0.380885,-0.041335,-0.923698
-0.688359,0.403379,0.229348,-0.449119,0.107405,-0.886993
-0.033854,-0.102147,0.654433,-0.771184,-0.632440,-0.072762
0.325919,-0.139320,0.233005,0.932641,0.217313,0.288022
-0.030887,-0.176308,0.230672,-0.784227,0.279523,-0.553946
0.238505,-0.076179,0.869136,0.159689,-0.959658,0.231422
0.135149,-0.080276,0.500315,-0.590611,0.736699,-0.329322
0.100174,-0.083891,0.552450,0.790196,-0.605614,-0.093928
-0.106964,0.291083,0.660865,-0.909125,0.416451,0.007748
0.104536,0.119801,0.696588,0.876848,-0.142286,-0.459230
-0.088353,-0.079375,0.806691,-0.064765,0.970050,0.234111
0.826024,-0.231976,-0.954502,-0.057468,0.129683,0.989889
-0.969931,0.019732,0.330905,0.755554,-0.113074,0.645254
0.447156,-0.157334,-0.031987,0.154425,-0.977263,0.145294
-0.339616,-0.405850,0.748597,0.214334,-0.368651,-0.904521
-0.508682,-0.476698,0.786291,-0.199969,0.978170,0.056527
0.179947,-0.035694,0.554279,-0.471346,0.726214,-0.500445
0.269540,-0.175709,-0.107753,-0.231085,0.869343,-0.436854
-0.206376,-0.218242,0.542707,-0.130433,0.781288,-0.610390
0.137876,-0.122931,-0.696368,0.085592,-0.985432,-0.146960
0.103204,0.043409,-0.353418,0.772394,0.632264,-0.060417
0.083443,-0.379941,0.807069,0.926411,0.151970,-0.344481
0.077257,0.901438,0.398947,0.909070,0.129457,0.396022
0.629860,-0.380062,-0.628405,-0.289731,0.451029,0.844174
-0.174490,-0.309274,0.774546,0.854541,-0.449515,0.260184
-0.434969,-0.435551,0.494262,0.984702,-0.135854,-0.109115
-0.106779,0.052988,0.965223,-0.031141,0.451095,0.891932
-0.098779,-0.490134,0.831694,-0.507619,-0.522153,-0.685332
0.083443,-0.356327,0.822203,0.980380,0.063418,-0.186635
-0.365925,-0.229627,0.867843,0.387049,0.469928,0.793322
0.199527,0.000813,0.524499,-0.666498,0.641538,-0.379750
-0.545540,-0.100820,0.571856,-0.294250,0.203349,0.933845
-0.116054,-0.514293,-0.334705,-0.225482,-0.608704,-0.760682
-0.352591,-0.265895,0.551362,-0.246426,-0.946683,-0.207522
-0.011366,0.630631,0.658816,-0.533595,-0.062478,0.843430
-0.260146,0.255293,0.594258,0.120304,0.671164,0.731482
-0.224442,0.348980,0.549770,0.583016,0.794325,0.170706
0.300760,0.169866,0.422515,0.907701,0.418773,-0.026612
0.116905,-0.114859,0.911937,0.952182,0.171470,-0.252880
0.391384,-0.706839,-0.197850,0.436524,-0.528329,-0.728227
0.068348,-0.174683,0.081016,0.159735,-0.908137,0.387005
0.244384,0.140585,0.582861,0.931183,0.071397,0.357493
-0.071500,-0.615444,0.823417,-0.263082,0.944735,0.195610
0.082715,-0.196433,0.853118,0.864725,0.464547,-0.190911
0.467524,-0.087928,-0.703068,0.590767,0.801125,0.095878
0.492498,0.185891,0.198386,0.998080,0.061883,-0.002454
0.222318,0.078411,0.790232,0.980304,-0.190145,0.053381
-0.456976,0.076606,0.502333,0.903702,-0.209862,0.373203
0.382050,0.263607,0.780158,-0.694169,0.679692,0.236955
0.218441,-0.257643,0.928601,0.132963,0.091311,0.986906
-0.154910,0.041721,0.936562,0.293278,-0.781712,0.550376
-0.066043,-0.621471,0.808819,-0.306831,-0.921753,-0.237120
0.324461,-0.090759,-0.405615,0.181895,-0.438381,0.880191
0.486678,-0.128535,-0.378894,0.667488,0.733046,0.130778
0.353379,-0.345843,-0.395069,0.016149,0.511423,0.859177
0.178009,0.070520,0.353607,-0.121074,0.466466,-0.876214
0.363017,0.189145,0.511745,0.902873,-0.427429,0.046096
0.221956,0.138356,0.593880,-0.763310,-0.633547,-0.126399
0.453702,-0.137992,0.567253,0.566428,0.061981,0.821777
-0.789713,0.270656,0.242496,0.030433,-0.520841,0.853111
-0.010578,-0.101000,0.837385,0.331894,0.839033,-0.431127
-0.967145,-0.140342,0.335083,0.476944,-0.522199,0.706988
0.342102,-0.052385,-0.198386,0.060765,0.774279,0.629921
0.145697,0.319941,0.389646,-0.698461,-0.322649,0.638788
0.118237,-0.246016,0.922925,0.783721,-0.388007,-0.485007
-0.145394,-0.516580,0.706489,-0.103055,0.994026,0.035958
-0.017427,0.137636,0.376135,0.592874,0.028821,0.804779
-0.448429,-0.712021,0.538261,0.186099,0.212571,0.959261
0.282756,0.419106,0.312870,-0.022848,0.829019,-0.558754
0.003485,-0.253183,0.681864,0.913162,-0.360812,-0.189607
-0.260934,0.260897,0.592524,0.083782,0.566702,0.819652
0.227169,-0.544416,-0.354900,0.109748,0.411736,0.904671
-0.403328,-0.661897,0.895668,-0.734118,0.321766,-0.597944
0.010456,-0.134620,0.643413,0.967454,0.180349,0.177501
-0.247718,0.520860,0.610843,-0.072979,0.712257,0.698115
0.335131,0.504593,0.641648,0.073132,0.868726,0.489864
0.542872,-0.178478,-0.874101,-0.117881,-0.942429,0.312942
-0.008698,0.049314,0.871642,-0.712317,-0.194789,-0.674286
0.499591,-0.092506,-0.980657,-0.370125,0.504309,0.780179
-0.252143,-0.267163,0.652620,-0.551225,0.612123,-0.566971
-0.694904,0.281081,0.238807,0.445324,0.215170,0.869131
-0.338406,-0.070458,0.890150,0.099489,-0.920934,-0.376806
-0.292697,-0.594418,0.871358,0.767336,-0.083542,0.635780
-0.616038,-0.040092,0.849760,-0.733434,0.629574,0.256342
0.222563,0.372414,0.796112,0.696770,-0.602324,-0.389508
-0.707695,-0.187696,0.811467,-0.080783,-0.697410,0.712105
0.178009,-0.104435,0.787395,0.577240,-0.732558,0.360767
0.360468,0.024913,0.383828,0.761315,-0.455279,0.461651
-0.045797,-0.570803,0.862435,0.976575,-0.181656,0.115340
-0.174431,0.260055,0.913419,-0.410260,0.907640,0.088754
-0.712364,0.042986,0.533390,0.079934,0.200559,0.976415
0.168733,-0.162633,-0.993063,-0.150207,0.040759,0.987814
-0.197407,-0.032079,0.936593,0.509679,-0.858863,0.050805
0.497045,-0.281923,0.530505,0.880112,0.457902,-0.125414
-0.399328,-0.118956,0.761950,-0.058146,0.997476,-0.040760
-0.882703,0.107931,0.546775,0.575683,-0.408155,0.708519
-0.597549,0.249211,0.584957,0.137461,0.667901,0.731446
0.402177,-0.182938,0.084295,0.993629,-0.111097,0.018918
0.502621,-0.024310,-0.757457,-0.846762,0.531655,-0.018347
0.419574,-0.182092,-0.246311,-0.622144,0.780870,0.056383
0.376777,0.294396,0.785707,0.719738,0.059721,0.691673
-0.241295,-0.431874,0.681990,-0.647010,0.716176,0.261668
-0.649499,0.073532,0.214829,0.005026,0.332841,0.942970
0.317672,-0.175106,-0.140087,-0.689860,0.707924,-0.151453
0.274391,0.097088,-0.415500,-0.191326,0.086607,0.977698
0.070164,-0.185288,0.201791,-0.621055,-0.624659,-0.473383
0.178430,0.177036,0.642231,0.857556,0.507641,-0.083052
0.127028,-0.494109,0.732895,0.248508,-0.225144,0.942101
0.140606,-0.544236,0.345204,0.377578,0.476461,0.793989
-0.486135,-0.024791,0.253090,0.085728,0.956223,0.279800
0.335919,0.277886,0.760909,-0.667909,0.484244,-0.565160
0.059254,0.144501,0.877254,0.408663,0.764012,0.499280
-0.482254,-0.567612,0.409872,-0.144791,0.516108,0.844197
0.448004,-0.179985,-0.248534,0.841303,-0.538806,-0.043557
0.025673,-0.473808,0.797437,-0.784435,0.616864,-0.064354
-0.179219,-0.413260,0.638984,0.820332,-0.570155,0.044486
-0.594156,0.054374,0.568357,0.984599,0.044715,0.169014
-0.093748,-0.372171,0.869687,0.860638,0.339442,0.379580
0.365681,0.248729,0.659730,-0.316213,-0.623092,0.715378
-0.260024,0.434830,0.613492,0.106187,0.903436,-0.415364
0.177824,-0.715815,0.808440,-0.203037,0.113438,0.972578
-0.758069,0.193845,0.547531,-0.265365,0.688494,-0.674950
0.175763,-0.095459,-0.996831,-0.174244,0.116340,0.977806
0.463099,-0.195650,-0.416714,0.951198,-0.308574,-0.002142
-0.188553,-0.230954,0.814920,0.937717,-0.174880,0.300172
0.458430,0.123173,0.709453,0.848536,-0.336563,-0.408304
0.418786,-0.333190,-0.493726,-0.954047,0.292347,0.065787
-0.036888,0.237643,0.834484,-0.094286,0.923071,-0.372894
0.431698,-0.105159,-0.115746,-0.394169,0.905253,-0.158580
-0.115510,0.195893,0.819507,0.231723,0.152810,0.960705
0.517654,-0.185405,-0.554909,0.962995,0.170398,0.208821
0.223473,0.375065,0.756275,0.874302,0.255312,0.412810
-0.177035,-0.260173,0.850486,-0.717851,0.176597,0.673426
0.656773,0.397536,0.647402,-0.133856,0.038961,0.990235
-0.239534,-0.250895,0.912237,0.522878,0.627099,-0.577361
0.411330,-0.324093,0.585131,0.156515,0.263699,0.951822
0.407449,0.347715,0.503453,0.346610,0.928945,0.130089
0.467158,-0.201191,-0.297799,-0.675304,0.727777,0.119605
-0.836328,0.142331,0.548666,0.441983,-0.637879,0.630683
0.131634,-0.065817,0.476526,0.980259,-0.170432,-0.100228
-0.149579,-0.056900,-0.491755,0.090141,0.182501,0.979065
-0.164915,0.291083,0.826113,-0.080102,0.719877,0.689465
0.331554,0.202339,0.012896,0.292890,-0.955693,0.029429
0.121208,0.067626,-0.787489,0.171905,0.374868,-0.911001
0.183947,-0.221011,-0.249921,-0.261833,0.699590,-0.664844
-0.300823,-0.130222,0.865210,0.263543,-0.305028,0.915152
-0.245476,0.127513,0.955259,0.292893,-0.883745,0.364977
0.143393,0.020154,-0.355530,-0.562631,-0.824099,-0.065629
-0.710484,0.074617,0.615368,-0.565185,-0.356683,-0.743871
0.148546,0.588759,0.519485,0.751826,0.600939,-0.271348
0.450064,-0.093230,0.031167,-0.712965,0.695267,0.091020
0.544204,-0.101544,-0.965869,0.299142,-0.929420,-0.216083
-0.369503,-0.202637,0.748219,0.709300,-0.001571,0.704905
0.076654,-0.458684,0.464056,0.512900,0.109753,0.851404
0.144728,-0.751241,0.805492,0.058525,0.360131,0.931064
-0.329252,0.048531,0.951649,-0.644824,-0.632701,0.428826
0.561238,0.159081,0.245192,0.811260,0.581343,-0.062429
0.639742,-0.080941,-0.537710,-0.449218,0.891891,-0.052276
-0.137273,-0.151668,0.773237,0.875251,-0.359136,0.323969
-0.345314,-0.390245,0.865320,0.997085,-0.068489,0.033641
-0.176614,-0.478206,0.591610,0.940604,-0.285372,-0.183923
0.315248,0.227821,0.765292,0.124410,0.910427,0.394518
0.011307,0.082508,0.853639,0.067499,0.714537,0.696334
0.085563,-0.096304,0.571115,-0.832033,0.508630,-0.221397
0.499043,0.305060,0.614059,0.357137,0.597372,-0.718053
0.308215,-0.045998,0.753658,0.875300,0.483350,0.014911
0.459462,-0.064854,0.107580,-0.459170,0.799853,-0.386519
-0.373140,-0.283729,0.896771,0.570743,0.791898,0.217140
0.237473,-0.031656,-0.208113,0.825953,0.529180,0.194347
0.389930,0.212341,0.791509,-0.479297,-0.770401,-0.420424
0.368652,0.022986,0.366755,0.991630,-0.086895,0.095496
0.184431,-0.609664,0.510878,0.106209,0.149125,0.983098
0.566696,-0.208781,-0.957372,-0.131835,-0.816675,0.561838
0.446790,-0.129498,-0.205102,0.815988,0.417101,-0.400239
-0.220987,-0.498687,0.721024,-0.054716,0.611808,0.789112
0.852149,-0.044251,-0.731855,0.577213,0.185326,-0.795286
0.521050,-0.182574,-0.864721,-0.359512,0.917670,-0.169213
-0.544571,-0.029189,0.748424,0.138770,-0.780280,-0.609841
0.450549,0.237584,0.227709,-0.430874,-0.873001,0.228510
-0.267601,-0.343435,0.403613,-0.648984,0.131164,-0.749410
0.048284,0.133116,0.511808,-0.422145,-0.860762,0.284399
-0.053678,0.244148,0.848704,-0.016720,-0.985696,0.167700
-0.348651,-0.526281,0.420687,0.961572,0.152280,0.228450
0.079318,0.008946,0.830307,0.955916,0.129172,-0.263703
0.022218,-0.082747,0.912347,0.683747,0.303161,0.663765
-0.135697,-0.203118,0.366424,0.716928,0.197377,0.668623
0.424180,0.363979,0.628894,-0.735146,0.381269,0.560531
-0.135697,-0.322228,0.129903,-0.189809,0.468174,0.863010
-0.206923,0.405369,0.812287,0.572713,-0.637134,-0.515810
0.194495,-0.015514,0.087952,0.658883,-0.675763,-0.330481
-0.251840,0.164383,0.810837,-0.610771,0.778486,-0.144630
0.380777,-0.146369,0.059544,0.802824,-0.595886,-0.019835
-0.048284,-0.127270,0.679878,-0.914830,-0.136967,-0.379902
0.009427,0.072388,0.654102,-0.400412,-0.915326,-0.042983
0.333496,-0.156488,-0.029055,0.499742,-0.826895,0.257879
-0.155458,-0.308432,0.726022,0.620305,0.691588,-0.370038
-0.274875,-0.514231,0.691102,0.100528,0.250268,0.962943
-0.106901,0.274091,0.808771,0.879049,-0.254870,-0.402883
0.077442,-0.560140,0.821983,0.149347,0.505163,0.850004
0.291243,0.055459,0.408579,0.902195,-0.141463,0.407470
-0.557968,-0.108413,0.819602,-0.133366,-0.533485,0.835229
0.539661,-0.376691,-0.085067,-0.425310,0.382274,0.820353
-0.367927,-0.033889,0.876009,0.235074,-0.843734,0.482549
0.455522,-0.113896,-0.168117,-0.733698,-0.624137,-0.268589
-0.694542,-0.034190,0.310916,-0.611432,0.371401,-0.698722
-0.178915,-0.431815,0.633576,0.863320,0.174959,0.473358
-0.510199,-0.098169,0.222333,-0.280746,0.718464,-0.636389
-0.085867,-0.404401,0.866408,0.396177,-0.391371,0.830585
-0.206498,-0.089917,0.169552,0.569686,0.606589,0.554533
0.019913,-0.124677,-0.294678,0.238404,-0.746411,-0.621316
0.540205,-0.192153,-0.919347,0.981477,0.001191,0.191578
0.588640,0.078353,-0.753358,0.183744,0.404484,-0.895897
-0.490497,-0.128233,0.581631,0.293224,-0.168798,-0.941025
-0.657624,0.240717,0.569224,-0.403132,0.480578,0.778800
0.284576,-0.054551,-0.728654,0.574504,0.586852,0.570570
0.154729,0.019492,0.926788,-0.060753,0.993888,-0.092174
0.043555,0.175650,0.522213,-0.473850,-0.851266,0.225415
0.350105,0.347049,0.659226,0.939645,-0.129317,0.316772
0.521716,-0.104015,-0.759853,-0.035485,0.809690,0.585784
-0.119632,-0.096062,0.150145,-0.561885,-0.665240,-0.491672
0.162428,0.418985,0.794836,0.854340,0.245292,-0.458187
-0.462914,0.089134,0.489973,0.945849,-0.209980,0.247543
0.528931,0.111429,0.334011,0.304588,0.409083,0.860161
-0.420362,-0.459106,0.769312,-0.277428,-0.429177,-0.859558
-0.032644,-0.189204,0.877727,0.668597,-0.687563,-0.283259
0.020642,0.689612,0.440172,0.135528,0.010463,0.990718
0.025248,-0.191491,0.870160,0.046970,0.558602,0.828105
-0.533416,-0.079794,0.577705,0.252129,-0.350662,-0.901924
-0.299912,-0.392473,0.851132,-0.129634,-0.668794,0.732059
0.460310,0.187034,0.704755,0.904560,0.002454,-0.426339
-0.637378,0.192337,0.475706,0.730096,-0.297238,0.615313
0.312277,-0.582250,-0.094416,0.010923,0.517505,0.855610
-0.507834,0.341750,0.475959,0.136121,0.210367,-0.968100
0.288091,-0.186972,0.005518,0.749895,0.415443,0.514844
-0.617070,0.277466,0.245901,-0.327319,-0.942757,-0.063809
0.322522,0.597735,0.689305,0.839068,0.541987,0.047056
-0.147152,-0.683041,0.482643,0.769553,-0.307041,-0.559923
0.082108,-0.081783,0.553569,0.653858,-0.753258,-0.071217
-0.429453,-0.708947,0.900728,-0.579021,-0.411311,-0.703958
0.191706,0.130645,0.004146,0.961091,-0.213609,0.175143
-0.563059,0.117632,0.798020,0.519981,-0.852576,-0.052295
-0.200315,-0.314937,0.530805,-0.175240,0.984174,-0.026316
0.143030,-0.108715,0.044441,0.804671,-0.302945,0.510617
0.541840,-0.096485,-0.948260,0.954449,0.293071,-0.056010
0.090777,0.148899,0.854931,0.743907,0.510604,0.431144
0.467280,-0.242703,-0.974177,0.309630,0.137205,-0.940906
0.456795,-0.075639,-0.653519,-0.089966,0.958218,0.271523
0.026158,0.156974,0.376214,-0.401801,0.301469,-0.864681
0.377081,0.245597,0.782318,-0.128647,0.258000,-0.957542
0.003304,-0.233844,0.337842,-0.612932,-0.323131,-0.721041
-0.786743,-0.156610,0.833554,-0.101906,0.950600,-0.293215
-0.121449,-0.805766,0.524656,-0.184713,0.609489,0.770976
0.262569,0.367476,0.819886,-0.305750,0.745310,0.592478
0.314641,-0.005633,0.746406,-0.328387,0.103911,0.938810
-0.164974,0.186071,0.413876,0.429000,-0.544769,0.720546
0.276329,0.022504,-0.745996,0.970987,0.228851,0.069369
-0.726608,-0.005269,0.305272,0.301108,0.530945,0.792106
0.144181,0.725939,0.407854,0.633467,0.466416,0.617394
0.539539,0.020574,0.128531,0.940632,0.338916,-0.018637
-0.183100,-0.405306,0.617385,-0.845213,0.446091,-0.294310
0.163276,-0.041055,0.069287,-0.805627,0.592420,-0.001892
-0.232867,0.194929,0.777526,0.479598,-0.784312,0.393497
0.373562,-0.135161,0.095835,0.898491,-0.332105,0.287090
-0.095868,-0.117628,0.624228,-0.174237,-0.969577,0.171937
0.307793,-0.124560,0.570611,0.317249,-0.324940,-0.890936
0.036462,-0.593819,0.808803,-0.278138,-0.810121,0.516084
0.075622,-0.724975,0.855735,0.228619,-0.398376,0.888273
-0.327129,0.040033,0.891112,-0.270876,0.835386,-0.478286
0.281787,-0.011414,-0.238066,-0.494912,-0.026350,-0.868543
0.371320,-0.111245,0.109834,-0.454232,0.652635,-0.606416
-0.117812,-0.254087,0.350233,-0.529253,-0.320806,-0.785478
0.233958,0.312168,0.839907,0.138216,0.498379,0.855871
0.431454,-0.130340,0.115982,0.905386,-0.114103,0.408970
-0.300638,-0.454889,0.684639,0.865868,-0.489109,0.105092
0.499347,-0.167093,-0.963630,0.631596,-0.092842,-0.769718
-0.359562,-0.459106,0.773505,0.265731,0.619706,0.738479
0.297485,0.130947,0.826870,0.626700,-0.768746,0.127581
-0.024338,-0.227038,0.659021,-0.209338,0.622207,0.754345
0.253782,-0.167575,0.013432,-0.617888,-0.362299,-0.697821
0.257538,0.289516,0.462590,0.977547,0.210148,-0.015470
0.473281,0.433867,0.330559,-0.333519,0.749985,-0.571216
0.551360,-0.168660,-0.834011,0.956331,0.247811,0.154989
0.224198,-0.090638,0.382063,-0.724663,0.649279,-0.230868
0.658412,-0.362471,-0.560679,0.899638,0.333138,0.282259
0.369925,0.417841,0.748187,0.938596,-0.060966,0.339589
-0.425027,-0.000754,0.713678,-0.509423,0.795082,-0.329140
-0.521051,0.091123,0.536070,-0.250514,-0.892622,0.374792
0.193041,0.142754,0.825814,0.744244,0.140746,0.652909
-0.364531,0.061122,0.811641,0.898354,-0.386276,0.209166
0.293730,-0.058165,-0.801252,-0.308802,-0.386520,0.869047
0.483042,0.292407,0.608825,0.334099,0.615925,-0.713453
0.358348,-0.222820,-0.667565,-0.071698,0.244080,0.967101
-0.193345,0.320482,0.613003,-0.646696,0.687967,0.329373
0.231291,-0.137812,0.015923,-0.702997,-0.172774,-0.689887
0.405570,-0.082508,-0.987940,-0.146438,0.115071,0.982504
0.006638,-0.436334,0.494577,0.381405,0.002797,0.924404
-0.413998,0.044975,0.795040,-0.335187,0.881471,-0.332654
-0.057618,-0.567189,0.791367,-0.478077,-0.484915,-0.732325
-0.374776,-0.004004,0.700672,-0.448996,0.674639,-0.585888
0.176976,-0.398319,0.318845,-0.479412,-0.429719,-0.765183
-0.607006,0.011778,0.619151,0.309472,0.568265,0.762432
-0.171763,-0.475554,0.835414,-0.118276,-0.740604,0.661451
-0.018096,0.129380,0.896188,0.828311,0.176276,0.531815
0.074168,0.237220,0.833727,0.349824,-0.871046,-0.344821
0.439820,-0.135161,-0.471135,0.994111,-0.049073,-0.096621
0.644833,0.291565,0.310647,0.836302,-0.087939,0.541170
-0.566515,0.007744,0.260657,-0.477734,-0.226463,-0.848814
0.322581,-0.083710,0.234266,0.961331,-0.059413,0.268910
-0.047192,-0.328976,0.645952,-0.407555,0.699872,-0.586582
-0.431151,-0.027744,0.706457,0.372021,-0.895242,0.245238
-0.640893,0.230594,0.223751,-0.204841,-0.484874,0.850257
-0.067256,-0.763291,0.519296,-0.728036,0.583240,0.360272
0.257600,0.294334,0.712338,0.959679,0.004388,0.281063
0.417088,-0.124497,-0.096213,0.927006,-0.290963,0.236646
0.305669,-0.285236,0.230909,0.897755,-0.245033,0.366054
-0.220139,0.154201,0.729301,0.061942,-0.924074,0.377161
0.342346,0.508270,0.334421,0.745450,0.532689,-0.400684
0.004758,0.005273,0.920119,0.519030,0.851159,-0.078337
-0.063438,-0.320239,0.475880,-0.514605,0.182759,-0.837723
-0.047011,0.114742,0.642625,0.720529,0.581056,-0.378433
0.269662,-0.203600,-0.569192,-0.799631,0.532613,0.277334
0.276999,0.087932,0.502459,0.895002,-0.433399,0.105532
-0.194011,-0.020213,0.896630,0.988383,0.151704,-0.009188
-0.090048,0.283552,0.551252,-0.347442,-0.895308,0.278761
0.176917,-0.135404,0.045450,0.934899,0.006868,0.354848
0.258692,0.443685,0.340853,0.419666,0.629252,-0.654158
-0.475102,0.201916,0.474051,0.937598,-0.269309,-0.219961
0.355681,0.238728,0.297531,0.845049,-0.249576,-0.472868
0.175763,0.452120,0.515655,0.653311,0.278892,0.703849
0.230806,-0.902280,0.389236,-0.077710,0.927241,0.366312
0.186555,-0.113833,0.435017,0.944772,0.267159,0.189821
0.091139,0.359824,0.805571,0.149153,-0.447059,0.881982
0.474010,-0.128174,0.009459,0.284462,0.957531,-0.047082
0.533719,0.041302,0.126498,0.979532,0.200391,0.018981
-0.385990,-0.255532,0.916493,0.164258,0.516399,0.840447
-0.316702,-0.014789,0.820107,0.178893,0.221707,0.958563
0.244869,-0.079253,0.758623,-0.212316,0.897401,0.386774
-0.295791,0.153238,0.760689,-0.250113,0.948952,0.192180
-0.614280,0.119320,0.606587,0.126579,-0.148206,0.980823
-0.387385,0.056422,0.821336,0.961016,-0.208180,0.181957
-0.163701,-0.453083,0.624622,-0.399771,-0.511675,-0.760507
0.060526,-0.255896,0.841184,0.955447,-0.147251,-0.255810
0.376111,-0.093109,0.161070,0.899911,0.427673,0.085187
-0.091624,0.228847,0.727425,0.976720,-0.076784,-0.200304
0.669989,0.128174,0.628941,0.424074,0.051901,-0.904139
0.739458,0.005093,-0.752381,0.380755,0.692041,-0.613274
-0.334403,-0.440129,0.781656,-0.083037,0.642049,0.762153
-0.077501,0.083111,0.712416,0.772624,-0.255687,0.581099
0.208862,-0.006417,0.549581,-0.667391,0.737686,-0.102023
0.174005,-0.105100,0.471607,0.995121,-0.005946,-0.098478
-0.124967,-0.035154,0.877885,0.255416,-0.732416,0.631133
0.139090,0.534356,0.759727,-0.293176,-0.655044,0.696394
-0.349254,-0.714429,0.445012,-0.552195,-0.502441,-0.665307
-0.020945,-0.405247,0.476242,0.468956,0.513036,0.718940
0.008214,0.503629,0.844479,0.907900,-0.151799,0.390735
-0.218319,0.035095,0.830906,-0.449150,0.476420,0.755836
-0.254630,0.035095,0.092934,0.337285,0.605493,0.720844
-0.029429,0.270237,0.826743,-0.801392,0.548032,-0.239647
-0.587852,-0.051359,0.736222,0.060614,-0.995283,-0.075753
0.332101,0.490737,0.684528,0.826973,0.324801,0.458933
0.095564,-0.063468,0.676330,0.304363,-0.441385,-0.844122
0.355377,0.365005,0.282223,0.109326,-0.671764,0.732653
0.370473,0.456279,0.307794,0.902278,0.181270,0.391198
-0.457823,-0.352109,0.159951,-0.223901,-0.967814,0.114909
0.675143,-0.163960,-0.965238,-0.082812,0.052974,0.995156
-0.275423,0.131550,0.624417,-0.106357,0.056216,0.992738
0.748490,-0.051120,-0.969574,-0.217805,0.107753,0.970026
0.380474,0.794139,0.388637,0.788441,-0.419875,0.449518
-0.068955,-0.878239,0.821399,-0.406544,0.397861,0.822453
-0.217775,-0.298250,0.648553,-0.675969,0.074379,-0.733167
0.495588,-0.179563,-0.745822,0.016302,0.976932,0.212926
0.445880,-0.140463,0.528582,0.770156,0.631993,-0.086277
-0.316158,-0.671657,0.890670,-0.576675,-0.705940,-0.411212
-0.314764,0.460073,0.617149,0.168056,0.984872,0.042240
-0.288150,-0.167935,0.248770,-0.289168,-0.935682,0.202188
0.545237,-0.075940,-0.769438,0.786222,0.377099,-0.489542
0.141454,-0.321022,-0.229600,-0.340452,0.653971,-0.675584
0.520747,-0.138055,-0.542676,0.777724,0.077691,0.623786
0.231050,-0.711417,0.350801,0.515629,0.524677,0.677378
0.310094,-0.031899,0.836423,0.465791,-0.111082,-0.877895
-0.277180,0.162817,0.743663,0.422977,0.901877,-0.087798
0.240503,-0.259632,0.713552,0.405518,-0.590528,-0.697733
0.218622,-0.463563,0.221450,-0.595890,0.135906,0.791482
-0.107082,-0.569296,0.810900,-0.216817,0.499385,0.838811
-0.080106,0.025457,0.136430,-0.222140,-0.035063,0.974384
-0.043614,-0.212579,0.340885,0.549472,0.207075,0.809444
-0.099568,-0.018044,0.916809,0.055232,0.834972,0.547514
0.567362,-0.087626,-0.972758,0.014258,0.787971,0.615547
0.188797,-0.169984,0.430351,0.961852,-0.090046,0.258326
-0.209709,-0.236555,0.877097,0.232496,0.350936,0.907077
0.345498,-0.247582,-0.244403,-0.613777,0.744041,-0.263970
-0.562330,-0.020272,0.264315,-0.133641,-0.990356,0.036541
-0.309003,-0.162092,0.231981,0.078189,0.979694,0.184623
-0.136000,0.187336,0.825246,-0.377997,0.126158,0.917171
-0.524687,-0.033767,0.749338,-0.095116,0.821601,0.562071
0.223895,-0.108112,-0.249196,0.950588,-0.303545,-0.065140
0.131816,-0.015032,-0.496484,-0.127438,0.647747,-0.751122
-0.079684,-0.494352,0.733668,0.871043,-0.490433,0.027547
-0.029976,-0.082688,0.653992,-0.304177,-0.949877,0.072177
0.241354,0.241919,0.827217,-0.737186,-0.673527,0.054021
-0.245779,-0.314455,0.895053,0.487524,0.452092,-0.746949
0.292942,0.216194,0.511855,0.927696,0.337996,-0.158549
-0.069983,-0.483990,0.773174,-0.054477,0.843180,0.534865
-0.794560,-0.277643,0.322251,0.213736,0.834397,0.508034
0.201163,0.179985,0.607406,0.941780,0.253681,0.220674
0.609433,0.361327,0.647370,-0.050849,-0.076489,0.995773
0.064163,0.682081,0.575372,0.015555,-0.686537,0.726928
0.260993,-0.082445,0.386351,-0.746990,0.664584,-0.018298
0.168670,-0.169925,-0.994435,-0.150207,0.040759,0.987814
0.621735,-0.222942,-0.965900,0.140434,-0.017703,0.989932
-0.318826,-0.470495,0.517751,-0.227536,0.275756,0.933909
0.294333,0.109980,0.470882,-0.453901,0.881872,-0.127577
0.012698,-0.100217,0.655600,0.846412,0.528463,-0.065669
0.659078,0.228847,0.288451,-0.339942,0.220103,-0.914327
0.311186,0.036481,0.417817,-0.588582,0.807563,-0.037591
0.533293,-0.170105,-0.814037,-0.739040,0.667593,-0.090224
-0.257963,-0.429042,0.875095,0.438176,0.236247,0.867288
0.151939,-0.252462,-0.063265,-0.763642,0.643479,0.052787
-0.682476,0.274212,0.464955,0.281601,0.083021,0.955933
-0.214863,-0.563093,0.618332,0.972975,-0.130284,-0.190644
-0.101262,-0.372293,0.483006,0.475923,0.167461,0.863397
0.028459,-0.141669,0.590223,0.891287,-0.299541,0.340414
-0.178797,-0.253907,0.719290,0.059499,0.791290,0.608540
0.260146,0.108174,0.807763,-0.489617,0.847042,-0.206870
0.416421,0.109079,0.369908,0.898912,-0.231888,0.371734
-0.663988,0.247222,0.233463,0.098141,-0.691671,0.715513
0.177705,0.444949,0.760042,0.311086,0.213746,0.926034
0.042038,0.246016,0.787804,-0.507542,0.833738,0.217443
0.633982,-0.035212,-0.068167,-0.603612,0.704190,-0.373856
0.033613,-0.036477,0.930713,0.829174,0.156279,-0.536701
-0.384051,-0.687259,0.727992,0.818634,0.166391,0.549685
-0.030583,-0.258665,0.603150,-0.491531,0.758166,0.428465
0.819050,-0.007380,-0.964608,0.321144,-0.183722,-0.929039
-0.401145,-0.149502,0.233526,0.662186,0.478274,0.576857
-0.280573,-0.230774,0.869009,0.529811,0.646296,0.549182
0.129089,0.059915,0.352519,-0.121074,0.466466,-0.876214
0.218075,-0.484891,0.429909,0.725675,-0.354341,-0.589778
-0.017186,0.668042,0.532034,0.103053,-0.881163,0.461445
-0.083684,-0.743350,0.181927,-0.223822,0.266813,0.937398
0.401629,-0.148958,-0.143476,0.988705,-0.090866,0.119187
0.498255,-0.082508,-0.708727,0.693119,0.719549,-0.042852
0.395932,0.635569,0.367859,0.158317,-0.480138,0.862788
-0.635436,0.264210,0.453304,0.388834,-0.069650,0.918671
0.264752,-0.174323,-0.213993,0.730993,0.677749,0.079402
0.421576,-0.104015,-0.371216,0.645004,-0.764050,-0.014061
0.178552,-0.181129,-0.996153,-0.151446,0.031130,0.987975
0.374472,0.023346,0.376640,0.720938,-0.524323,0.453138
-0.295972,-0.169623,0.769296,0.482852,0.770640,0.415893
0.314157,-0.138114,0.279071,0.928444,-0.041542,0.369143
0.279241,-0.414223,0.435222,0.779891,-0.315513,-0.540576
0.491892,0.050517,0.197077,0.888426,0.151750,0.433210
0.474495,-0.116305,0.569224,-0.551442,-0.017309,-0.834034
-0.546084,0.505078,0.476022,0.012223,-0.459910,0.887882
0.338162,-0.733407,-0.066969,-0.046803,0.643419,0.764082
-0.135878,-0.520195,0.155395,0.382442,-0.050536,-0.922597
0.511471,0.220655,0.779212,0.841048,-0.448907,-0.301862
0.178127,-0.116665,-0.994955,-0.162007,0.104982,0.981189
0.144547,-0.006174,0.552229,-0.507375,0.741260,-0.439435
0.371986,0.715396,0.389992,-0.738864,0.380946,-0.555842
-0.326707,-0.728829,0.876009,0.297301,0.954783,0.001085
0.418541,0.344159,0.272607,0.390993,-0.678651,0.621737
0.007729,-0.639485,0.497446,0.292927,0.419977,0.858960
0.178009,-0.480673,0.733983,0.315135,-0.159697,0.935514
-0.484618,-0.567126,0.481271,0.915760,-0.187013,-0.355542
0.417269,-0.820827,-0.310175,-0.118214,0.503382,0.855940
0.271723,0.097268,0.809718,0.699188,-0.706194,0.111476
-0.184128,-0.001776,0.892735,0.983218,0.082937,-0.162490
0.667688,0.137636,-0.075703,-0.369595,0.868778,-0.329580
0.846995,-0.184986,-0.957104,-0.061946,0.192521,0.979336
0.524384,-0.053830,0.105089,0.955608,-0.256142,-0.145620
0.134361,0.627678,0.583097,-0.112593,0.748881,-0.653070
0.436061,0.307409,0.265040,0.890301,-0.303927,0.339105
0.844753,0.240052,0.296333,-0.339608,0.001215,0.940566
0.248325,-0.136308,0.324379,0.938061,0.334276,0.091114
0.787893,0.089678,0.298083,-0.395504,0.244690,0.885270
-0.299306,-0.009910,0.186925,0.508977,0.663007,0.548967
-0.324158,0.000393,0.690172,0.550873,-0.516542,0.655533
0.353864,-0.355845,-0.046191,0.924147,0.099620,0.368820
0.094536,-0.005450,-0.806296,-0.036264,-0.301487,0.952780
-0.301126,-0.298551,0.836407,0.388364,-0.244922,-0.888362
0.382900,-0.093532,-0.987766,-0.074346,0.106090,0.991573
0.125511,-0.593153,0.360575,0.245015,0.627752,0.738847
0.545780,-0.357831,-0.663955,0.850373,0.149969,-0.504356
0.000514,-0.093955,0.800479,-0.317217,-0.074238,0.945443
0.529416,-0.103593,-0.833349,0.933480,0.308513,0.182850
0.333374,-0.290053,-0.979379,-0.194742,0.108561,0.974828
0.688722,0.319698,0.637848,-0.082708,-0.435292,0.896482
-0.413573,-0.133657,0.268067,0.870943,-0.236373,0.430796
-0.027612,-0.616349,0.795529,0.264945,0.176327,0.948005
0.066528,-0.316562,0.022670,0.761284,-0.180198,0.622877
0.151699,-0.770579,0.391506,0.474268,0.577116,0.664836
-0.189101,-0.661475,0.851589,-0.213280,-0.851378,-0.479236
0.257782,-0.160103,0.592682,-0.468370,0.867797,-0.166004
0.488617,-0.324637,0.263369,-0.519815,-0.026106,0.853880
0.351559,0.324155,0.761430,-0.152701,0.418308,0.895377
0.016701,-0.222397,0.215270,-0.033239,0.999358,-0.013394
-0.499107,-0.311925,0.842335,0.225942,0.677797,0.699673
-0.274513,-0.020574,0.686247,-0.020124,-0.927048,0.374401
0.304944,0.687082,0.383828,-0.509917,0.739140,-0.440065
-0.362289,-0.375907,0.758292,-0.033870,0.403118,0.914521
0.260024,-0.183357,0.938391,-0.236508,-0.394764,0.887821
0.415511,-0.436937,0.003988,-0.473651,0.745899,-0.468283
0.201647,0.180287,0.600769,0.933385,0.243529,0.263604
