-0.474652,0.576943,0.193667,-0.187827,-0.633244,0.750815
0.890762,0.218553,0.071246,-0.183530,-0.101017,0.977810
-0.568808,-0.065033,-0.267232,0.908800,-0.381720,-0.168439
0.332071,-0.011283,-0.985644,-0.105886,0.112346,0.988011
0.131035,-0.089114,-0.796177,0.405395,-0.900046,0.159916
0.625455,0.258618,0.163415,0.492548,0.869102,0.045369
0.317540,0.523192,0.255414,0.406551,0.412379,-0.815267
0.089743,-0.169922,-0.973094,0.253446,0.573312,0.779153
-0.343314,-0.169557,-0.026491,-0.123957,0.431519,0.893547
-0.481615,-0.040430,0.578900,-0.000324,-0.426147,0.904654
0.215540,-0.021782,0.639622,0.289742,0.252904,-0.923087
-0.200242,-0.273193,0.092682,0.588611,-0.222693,-0.777139
0.053165,-0.112203,0.511439,-0.502347,0.387379,-0.773036
-0.552795,-0.460196,0.641673,0.132266,0.622688,0.771211
0.208960,0.476494,0.704397,0.605297,0.347149,-0.716312
0.248115,0.206017,0.101692,0.484209,0.813893,0.321123
-0.350881,-0.006894,-0.589082,-0.179303,0.291535,0.939605
0.009952,-0.256321,0.524159,0.246680,-0.100241,-0.963899
-0.147158,-0.245977,0.669117,-0.163117,0.680141,0.714704
0.100216,-0.572032,-0.103987,0.055844,-0.162511,0.985125
0.239341,-0.598987,0.403765,-0.030372,-0.578385,0.815199
-0.138988,0.170498,0.774373,-0.328042,0.422228,-0.845051
-0.455073,-0.563727,0.684987,0.364405,0.707072,0.606018
0.229196,0.257156,0.712332,0.851431,-0.424814,-0.307569
0.041649,-0.532752,0.522573,-0.293076,0.267619,0.917870
0.236489,0.019536,-0.597993,-0.125322,0.317315,0.940003
-0.406268,0.371186,0.356935,0.204533,-0.511078,0.834845
0.190809,-0.363089,0.699270,0.919970,-0.390884,0.029405
-0.565628,-0.438676,0.665625,-0.083397,0.505715,0.858660
0.378958,0.530558,0.274800,0.397938,0.595650,-0.697744
-0.481122,-0.274811,0.824597,0.879697,0.311940,0.358924
-0.036275,0.026641,0.783260,0.592132,-0.797523,-0.115482
-0.108060,-0.281707,-0.338452,0.373952,0.156280,0.914186
0.650955,-0.305579,-0.414581,0.338439,0.151189,0.928763
0.208577,-0.065869,0.516908,-0.514742,0.528960,-0.674716
0.170408,0.232397,0.393803,0.108170,-0.114359,0.987533
0.333278,-0.195675,-0.209024,0.065159,-0.002226,0.997872
-0.068466,0.107397,-0.366238,-0.412543,0.192176,-0.890436
0.356146,0.636544,-0.484874,-0.222172,0.016655,-0.974865
-0.363495,0.111785,0.507093,-0.141517,0.024272,0.989638
0.291821,0.706434,0.168323,-0.555528,-0.256966,0.790795
0.245264,0.181466,0.151207,-0.248648,-0.545490,0.800384
0.646075,0.456800,-0.581073,0.025385,-0.125706,0.991743
-0.546873,-0.322137,-0.308714,0.061428,0.332243,0.941191
-0.157907,-0.743732,0.420807,0.259603,-0.016273,-0.965578
-0.452387,-0.139417,-0.591376,-0.129193,-0.238476,0.962517
0.187848,0.182930,0.593745,0.041109,0.640923,-0.766504
0.404183,0.270163,0.206729,0.093814,-0.649303,0.754722
0.096542,0.236001,0.045999,0.186313,0.036656,-0.981806
0.154177,-0.292102,-0.966013,-0.097249,0.173151,0.980082
-0.105261,-0.010604,-0.995263,-0.208107,0.314643,0.926116
-0.232597,0.158379,-0.353737,0.651695,0.723908,-0.226387
-0.376162,-0.026327,0.589301,-0.422946,0.590379,0.687437
-0.304598,-0.223725,0.743365,0.048076,0.522517,0.851272
-0.039401,-0.458159,0.631443,-0.351310,-0.303785,0.885605
0.233582,0.379649,0.099348,0.730628,-0.498139,-0.466947
-0.143978,-0.574227,-0.032669,0.826774,-0.558652,0.065981
-0.788764,-0.148454,-0.628806,-0.145440,0.070152,0.986877
-0.113378,-0.366067,0.141978,0.175849,-0.059126,-0.982640
-0.290889,0.143962,0.561760,0.316103,0.371476,0.872975
-0.139646,-0.384768,0.718681,-0.280714,0.807758,0.518389
-0.225906,0.011753,0.623996,0.018746,0.550683,0.834504
-0.192181,0.043199,0.275509,-0.467846,0.207096,-0.859204
-0.197829,0.126567,0.574749,0.043892,0.229884,0.972228
-0.398152,-0.360270,0.014234,-0.311926,-0.161197,-0.936332
-0.765129,0.182042,-0.323535,0.144240,0.059240,0.987768
0.307176,-0.779460,0.026442,0.126119,0.741535,0.658953
-0.321543,0.092144,0.876480,0.919241,0.312754,-0.239124
-0.548682,-0.469965,-0.201626,-0.056377,-0.030978,0.997929
-0.546709,-0.377456,0.563738,-0.006728,0.888453,0.458918
0.268076,0.043774,0.775106,-0.729585,-0.064847,-0.680808
-0.690714,-0.081435,-0.341993,0.062486,0.277433,-0.958711
-0.312496,0.488978,0.165051,-0.123191,-0.574644,0.809078
-0.189712,-0.053018,0.682985,0.798524,0.601895,0.009059
-0.792657,-0.226441,0.021413,0.100665,0.909787,0.402684
0.429957,-0.365023,-0.294577,-0.038873,0.150366,0.987866
-0.043240,0.177236,0.537637,-0.512175,0.273495,-0.814173
0.019001,-0.054691,-0.027590,0.833134,-0.525193,-0.173376
0.365632,-0.617217,0.497326,-0.324347,0.469005,0.821482
-0.417237,-0.103740,0.729961,0.237238,-0.525951,0.816758
-0.508707,-0.269640,0.649535,0.998696,0.050879,0.004145
-0.688575,-0.484852,0.066607,0.190643,-0.261254,0.946256
-0.546105,-0.101441,0.494421,-0.241148,0.529960,-0.813013
-0.448987,-0.324592,-0.314574,0.879200,0.414794,0.234420
-0.584273,-0.142708,0.668652,-0.105282,0.130396,0.985856
-0.640975,0.463226,-0.750104,-0.517100,-0.139734,0.844442
0.386087,0.572764,-0.758967,0.285954,0.231007,0.929982
-0.212305,-0.412714,0.091364,0.781768,-0.044506,-0.621979
-0.172602,-0.188414,-0.984911,-0.091714,0.204952,0.974466
-0.033862,-0.099039,0.213223,0.969797,-0.228216,0.086085
0.196238,0.159162,0.056645,0.909168,-0.412393,-0.057845
-0.340628,-0.207741,0.455331,0.304821,0.379106,0.873706
-0.224974,-0.534736,-0.649926,0.434752,-0.259663,0.862302
-0.003208,0.182146,0.760652,-0.749004,-0.412083,-0.518826
0.089358,-0.312265,-0.098616,0.075191,0.053348,0.995741
0.300321,0.083681,-0.592206,0.052579,-0.403192,-0.913604
-0.087055,-0.838957,-0.466416,-0.224348,-0.018415,0.974335
0.061392,-0.050146,-0.985912,0.063579,-0.235904,-0.969694
0.137835,-0.203666,0.801768,-0.552332,0.714481,0.429473
0.273998,-0.290430,-0.955490,-0.040738,-0.089489,0.995154
-0.219709,0.298788,0.106746,-0.488621,0.244239,-0.837614
-0.234954,-0.366120,0.577044,-0.316715,0.526127,0.789229
-0.487483,-0.346688,0.021486,0.104794,-0.319906,0.941636
0.439719,0.298735,0.213077,-0.300036,0.393744,-0.868875
-0.411204,0.285834,0.106062,0.076381,-0.470657,0.879004
0.166241,-0.515201,-0.101081,-0.053376,-0.407402,0.911688
-0.549122,-0.008881,0.637132,0.224088,0.886489,0.404874
-0.543199,-0.321719,0.047733,-0.548780,0.011317,-0.835890
-0.188178,-0.334831,0.547477,0.669488,0.503894,0.545781
0.050862,-0.141037,-0.932222,0.635902,0.757968,-0.145300
-0.426009,-0.495925,0.664649,-0.458312,-0.323054,-0.828001
0.333003,-0.029566,0.312816,0.382627,0.101764,0.918281
0.138329,0.142551,-0.615524,-0.331229,0.403264,0.853033
0.003208,0.290848,0.055033,-0.128146,-0.030847,0.991276
-0.381646,0.356509,0.360915,-0.251350,0.479489,-0.840781
0.023498,-0.153155,0.108309,0.698739,0.072209,0.711724
-0.491541,0.154408,-0.603169,-0.004313,-0.186783,0.982392
0.532779,0.171594,0.200210,0.230460,0.171496,-0.957850
-0.546490,0.527266,0.099421,0.585010,-0.021738,-0.810735
-0.442570,0.225188,-0.145787,-0.341985,0.016155,-0.939566
0.877217,0.419608,0.122812,0.627391,0.350551,-0.695337
0.305639,-0.698599,0.491637,0.344483,-0.366859,-0.864145
-0.403472,-0.346688,-0.218986,-0.159432,-0.445571,0.880936
-0.088919,0.190974,0.776058,-0.367801,-0.781491,0.503979
-0.245976,-0.445309,-0.233855,0.965794,-0.185319,0.181379
-0.119958,0.081540,0.264155,0.126835,-0.100289,0.986841
-0.044392,0.324958,0.809825,0.826201,-0.555188,0.095698
0.330975,-0.007209,-0.390849,0.406435,0.024350,-0.913355
-0.357627,-0.311324,-0.005811,0.896583,-0.147999,0.417415
-0.025856,0.128082,-0.197207,0.006715,-0.205213,0.978694
0.396068,0.462547,0.258686,-0.247725,-0.462571,0.851270
-0.670588,0.042363,0.702859,0.294852,-0.335668,0.894645
-0.087440,0.040117,0.045877,-0.388391,0.396599,-0.831782
-0.372050,-0.344964,0.535196,-0.248083,-0.765789,-0.593314
0.609498,-0.090368,0.036746,0.105308,0.072160,0.991818
-0.308218,-0.331279,0.682814,0.137541,-0.916595,-0.375416
0.069013,-0.155140,0.718534,0.460598,0.417806,0.783127
0.324724,-0.162140,-0.470298,-0.361445,0.931438,-0.042212
-0.571659,0.489553,0.096003,-0.287919,0.465928,0.836668
-0.842670,0.061116,-0.617697,0.076446,0.417283,0.905555
0.324231,0.631999,-0.486608,-0.006547,-0.035090,0.999363
-0.309972,-0.291057,-0.038064,-0.675011,0.242491,-0.696820
-0.524280,-0.053594,-0.250678,-0.566395,0.589101,0.576330
-0.701242,-0.377924,0.763997,0.173398,0.175492,0.969090
0.205176,0.346531,0.424226,0.003692,-0.361672,0.932298
-0.275917,-0.276378,0.690456,-0.448170,0.836108,0.316335
0.017739,0.218241,0.415411,0.356925,-0.061939,0.932077
0.297578,-0.223830,0.620480,0.401116,0.358626,-0.842908
-0.215542,-0.203875,-0.982714,-0.048593,0.128900,0.990466
0.337008,0.533848,0.252631,0.415053,0.420603,-0.806737
0.485015,0.184601,-0.723076,0.034359,-0.289738,0.956489
0.224753,0.413184,0.139439,0.849353,-0.419597,-0.320214
-0.118258,0.626514,-0.691286,0.086557,-0.115964,0.989475
0.222505,0.314981,0.118344,-0.830351,0.425687,0.359593
-0.010667,0.059706,-0.390873,0.415867,-0.285158,0.863562
0.541938,0.150074,0.193764,-0.166469,-0.066969,0.983770
0.182090,0.201420,0.134287,0.956777,0.214905,0.195942
-0.749555,-0.327779,0.081305,-0.159978,0.610441,0.775738
-0.593430,-0.796020,-0.265181,0.130362,-0.106537,0.985726
0.498724,-0.548109,-0.319604,0.235124,0.329761,-0.914316
0.124236,-0.021887,-0.985986,-0.072999,0.109371,0.991317
-0.059308,-0.157072,0.757917,0.731410,0.681446,0.025906
0.168325,-0.354889,0.290475,0.170140,-0.201924,0.964510
-0.481890,0.254910,0.109725,0.120491,-0.285509,0.950771
0.260180,0.087964,0.697756,-0.080852,-0.298831,0.950875
-0.532944,0.319003,0.351662,-0.444207,-0.715535,0.539156
-0.402868,-0.078092,-0.119027,-0.711879,-0.574628,-0.403770
0.268405,0.438205,0.124008,-0.814474,0.147091,-0.561246
0.076033,-0.444630,0.449643,0.987874,-0.147760,-0.047665
0.108552,-0.238665,0.533364,-0.432518,0.608543,0.665285
-0.164377,0.024812,0.422980,0.000243,-0.108166,0.994133
-0.053934,-0.057354,0.106111,-0.468096,0.349696,0.811541
0.228592,-0.301869,-0.433455,0.882365,0.252909,-0.396823
-0.744509,-0.272514,0.056327,0.093355,0.616662,0.781673
0.398701,-0.060227,-0.552775,0.797587,-0.602236,0.034162
-0.153136,-0.093241,-0.409185,0.304301,-0.248216,0.919668
-0.527570,-0.371082,-0.202481,-0.228129,0.411125,0.882572
-0.368430,-0.535310,0.630491,-0.090302,-0.834958,0.542854
-0.159167,0.164230,0.774715,-0.277272,0.610952,-0.741524
-0.188944,0.219599,0.291476,0.011810,-0.022775,0.999671
0.300979,-0.403051,0.750153,0.862162,-0.045615,-0.504575
0.316059,-0.542154,-0.082672,-0.251497,0.247700,0.935625
-0.193826,-0.191183,0.683620,0.672258,0.099797,0.733560
-0.223767,-0.335771,0.130527,0.329399,0.557733,-0.761860
-0.033040,-0.413758,0.769734,0.080579,-0.131490,0.988037
0.818212,0.511961,0.144395,-0.202257,-0.066618,0.977064
-0.488581,-0.234434,0.859829,0.109963,0.977237,0.181425
-0.001563,-0.042467,0.755939,-0.490884,0.522484,-0.697168
-0.084752,0.133411,0.566326,-0.269905,-0.566788,0.778398
-0.553453,-0.322713,0.033230,-0.533439,0.051482,-0.844270
-0.689342,0.063571,-0.323461,-0.081110,-0.062307,0.994756
0.142387,-0.346584,-0.096028,0.704458,0.296560,-0.644819
-0.453539,-0.099562,0.599824,-0.023702,-0.156689,0.987364
0.007758,-0.646887,-0.711747,0.209758,-0.174866,0.961989
0.462752,0.190189,-0.705301,-0.113983,-0.030371,0.993018
0.291383,-0.630118,0.479918,-0.375943,0.378244,0.845931
0.138165,0.312579,0.078033,-0.144694,-0.554338,0.819618
-0.290121,-0.441078,0.034109,-0.294041,0.822196,0.487375
0.083820,-0.076160,0.884049,-0.118346,0.954868,-0.272437
0.088536,-0.259455,0.302732,0.214440,0.003506,0.976731
-0.760852,-0.163236,-0.616232,0.034061,0.070277,0.996946
0.388226,0.030766,-0.521498,0.990393,-0.037015,-0.133237
0.394257,-0.225344,-0.418244,-0.552301,0.161232,0.817905
-0.652272,-0.709674,-0.265962,0.140979,0.259747,0.955331
-0.544570,0.194160,-0.136558,0.534108,0.055366,-0.843601
-0.604946,0.430841,-0.103670,-0.167133,0.278069,-0.945909
-0.065284,-0.298318,-0.975853,0.057429,-0.191105,-0.979888
-0.193880,-0.391976,0.092829,0.912624,0.168685,-0.372375
0.667407,-0.059339,-0.693533,0.010126,0.023171,0.999680
-0.122316,-0.653939,0.581928,-0.470695,0.522810,0.710715
0.264896,-0.131791,0.624509,-0.668749,-0.282700,0.687645
-0.013189,-0.460301,0.068169,-0.011448,-0.031977,0.999423
-0.182803,-0.271782,0.646434,0.825345,0.053361,0.562102
-0.053494,0.324383,-0.684401,-0.385139,-0.019448,-0.922654
0.206108,0.286303,-0.115731,-0.072279,-0.281814,0.956743
-0.754874,-0.220121,-0.613668,0.068613,0.028861,0.997226
0.028982,-0.038915,-0.157555,-0.327850,0.092632,-0.940178
-0.091224,0.430370,-0.691457,-0.080532,0.054568,0.995257
0.027775,-0.124425,0.048221,0.381477,-0.765019,0.518865
0.017905,0.104524,0.555876,-0.009793,-0.120077,0.992716
-0.215431,-0.754909,0.412774,-0.637661,0.724470,-0.261787
0.187355,0.180005,0.128916,0.775326,0.423219,0.468780
-0.582408,0.201578,-0.166174,0.912592,0.240864,-0.330393
-0.481451,-0.768439,-0.274825,0.222805,-0.287778,0.931419
-0.050095,-0.779566,0.442684,0.309412,-0.950767,0.017494
-0.546434,0.476859,0.093366,-0.368428,0.359206,0.857457
0.314305,0.061534,0.690798,0.385342,0.409745,-0.826813
-0.041157,-0.411773,-0.492663,0.936411,-0.016052,-0.350538
-0.436758,0.194891,-0.147374,-0.265158,-0.213717,-0.940221
0.018124,0.244880,-0.719291,0.260897,0.904954,0.336141
-0.215267,-0.025439,0.805577,0.019597,-0.981302,0.191475
-0.410491,-0.383409,0.661206,0.338106,0.051461,-0.939700
-0.354610,-0.317801,0.572356,-0.241754,0.023647,0.970049
-0.426394,-0.364865,-0.290280,0.940109,0.215230,-0.264332
-0.897398,-0.309236,0.084308,-0.567514,0.667192,0.482475
-0.597433,-0.042834,-0.316845,-0.203355,-0.239898,0.949261
-0.482164,-0.393649,-0.615206,0.227650,0.592619,0.772643
-0.531629,0.497232,0.100886,0.498166,-0.186711,-0.846741
-0.119958,-0.606299,0.417829,0.615291,-0.118467,-0.779348
-0.288201,-0.365806,0.687892,0.197631,0.944882,0.261035
0.403032,0.354942,-0.101790,0.274402,-0.284542,0.918553
-0.262044,-0.082951,0.773372,-0.106772,-0.379595,0.918971
0.029365,-0.176034,0.110628,0.294472,0.248333,0.922831
0.165967,0.416736,0.084308,0.017059,0.318750,0.947685
0.054865,-0.068899,0.049589,0.842919,-0.517295,0.147964
0.110965,-0.619776,-0.368191,-0.338725,-0.477080,0.810963
0.386196,-0.153729,-0.462266,0.454165,0.866536,0.206999
-0.748183,-0.586972,0.068364,-0.439403,0.305349,-0.844800
0.121218,-0.037505,-0.492272,0.260373,-0.012392,0.965429
-0.787394,0.180265,-0.629172,-0.021939,0.291867,0.956207
-0.134491,-0.114500,0.777645,0.676391,0.223274,-0.701886
-0.051083,-0.405558,0.435823,0.037504,0.134724,0.990173
-0.338104,-0.446458,-0.571502,-0.304220,0.397484,0.865712
0.119739,-0.610947,0.503309,0.107154,0.984775,0.136879
0.338981,-0.138477,0.641722,-0.246374,-0.390194,0.887158
0.547914,-0.028208,0.054618,0.010550,-0.013482,0.999853
-0.062324,0.026536,-0.995215,-0.070362,0.127343,0.989360
-0.630720,-0.278103,0.735503,-0.732433,0.498571,-0.463648
-0.795893,-0.133567,0.033743,0.949348,-0.197985,-0.244011
0.062158,-0.633566,-0.380033,-0.411113,-0.456459,0.789070
0.281017,0.398244,0.220158,0.576834,0.315072,-0.753653
-0.090400,-0.151536,0.746612,0.917752,0.392298,0.061913
0.352033,0.493940,-0.498230,0.285143,-0.154624,0.945931
-0.457980,-0.494307,0.376444,-0.034311,0.317226,0.947729
0.436648,0.146470,-0.581952,-0.295270,0.173183,-0.939587
0.147048,0.480149,0.078277,0.270020,0.063408,0.960765
-0.721532,0.016872,-0.597627,-0.250882,-0.034208,0.967413
0.203750,0.271259,0.131455,-0.173717,0.129045,0.976304
-0.163555,-0.508933,0.420099,0.300305,0.439016,-0.846807
0.185435,0.097889,0.109652,-0.674354,0.731902,-0.097805
0.376436,-0.383095,-0.300364,0.098253,-0.103164,0.989800
0.666694,0.041370,-0.111190,-0.075734,-0.470054,0.879382
0.007814,-0.153364,-0.794712,-0.439806,0.893481,-0.090893
-0.138384,-0.518491,0.886174,0.096455,0.457444,0.883992
-0.102520,-0.305788,-0.328247,-0.397475,-0.123032,-0.909327
-0.405117,-0.553175,-0.637620,-0.401598,-0.819536,0.408754
-0.042802,-0.589897,0.080841,-0.237160,0.318936,0.917625
-0.578295,0.486575,0.089459,0.323359,-0.361014,-0.874704
0.771929,-0.313414,-0.417340,0.132627,-0.811888,0.568550
-0.106085,-0.295915,0.139048,0.560762,-0.132283,-0.817342
0.261550,0.569316,0.131723,0.512399,0.508726,-0.691841
-0.052781,-0.300199,-0.459458,0.806123,-0.580197,0.116346
-0.718791,-0.166788,0.007667,0.033003,0.253314,0.966821
0.312494,0.691861,-0.472667,0.156873,0.050645,0.986319
-0.385155,0.127455,0.488854,-0.038816,0.113048,0.992831
-0.459406,-0.377089,0.642894,0.926267,-0.092222,-0.365410
0.428531,-0.004440,-0.190419,-0.151955,-0.324601,0.933565
-0.631213,0.204189,-0.625730,-0.135801,0.493434,0.859116
0.197389,0.064407,0.030910,-0.710461,0.641407,-0.289556
-0.033315,0.597262,-0.483019,-0.021422,0.100095,0.994747
-0.340243,-0.382574,-0.037283,0.927031,-0.352970,0.126595
0.453922,0.314407,-0.577484,-0.149761,-0.440803,0.885022
0.124619,0.781080,-0.463730,0.010263,-0.103798,0.994545
-0.199857,-0.407543,0.421589,0.057342,-0.594671,0.801922
-0.024868,-0.237098,-0.144005,0.964045,0.236292,0.121586
0.118094,-0.372441,0.290940,0.134584,-0.225586,0.964882
-0.234844,-0.341934,0.658178,-0.603978,0.796559,-0.026555
-0.250856,-0.355254,-0.477281,0.430783,0.135147,0.892279
0.267473,0.713487,0.163537,-0.348099,-0.303508,0.886967
-0.063311,-0.506320,0.073126,0.037488,0.257624,0.965518
-0.045818,-0.131686,0.760505,0.808999,0.300666,0.505096
-0.231224,-0.467561,0.130527,-0.220480,-0.971617,-0.085721
-0.022566,0.083839,0.559953,-0.567587,-0.288495,0.771113
-0.566615,-0.234643,-0.322167,0.015686,0.017576,0.999722
-0.007924,-0.138372,0.124155,0.881062,0.349093,0.319160
0.101367,-0.674728,-0.054325,0.785432,-0.195798,0.587162
0.018672,-0.389625,-0.194570,0.295809,-0.209391,-0.932015
-0.389926,-0.354628,0.026125,0.190665,-0.251946,0.948773
-0.678594,-0.182251,0.005274,-0.073972,0.315257,0.946119
-0.011544,-0.295654,-0.438289,0.857767,-0.513175,-0.029773
0.333827,0.464009,0.243402,0.491442,0.389080,-0.779167
-0.314305,-0.443533,0.537271,-0.673148,0.427327,0.603543
-0.356091,0.165848,0.308104,-0.221306,0.034923,0.974579
-0.543308,0.394222,-0.714628,-0.341564,-0.005078,0.939845
0.325820,-0.191444,-0.182777,-0.278759,-0.053752,0.958856
0.479751,-0.287819,-0.487414,0.286268,0.514225,-0.808469
0.334429,-0.033170,0.316698,-0.357890,-0.061397,-0.931743
-0.374461,-0.180682,0.615621,0.269089,0.809249,0.522214
-0.401278,-0.237359,0.362502,-0.094542,0.116357,0.988698
-0.242467,-0.464374,0.109701,0.131724,-0.980999,0.142439
-0.064518,0.154984,-0.193251,0.462252,-0.127556,0.877526
0.032436,-0.085301,0.904607,0.058152,0.989750,0.130432
0.213622,0.341151,0.126474,-0.860299,0.431745,0.271075
-0.143100,-0.508984,0.070879,-0.216902,0.137480,0.966464
0.390146,0.557041,0.277755,0.308004,0.351531,-0.884058
0.116503,-0.294400,0.692800,0.014948,-0.196871,0.980315
-0.883194,-0.127455,-0.624045,-0.125718,-0.065214,0.989920
-0.427381,-0.352800,0.561223,-0.060658,0.917919,0.392103
-0.591183,0.369201,0.131431,0.118526,0.271353,0.955154
0.166022,0.419034,0.642674,0.775564,0.294413,-0.558409
-0.449700,-0.115493,-0.014332,0.140743,0.820896,0.553464
0.063530,0.036617,0.090705,0.217946,-0.452332,0.864809
-0.241535,-0.243104,0.530557,-0.589056,0.434189,-0.681538
-0.654685,-0.288393,0.746222,-0.530385,0.450364,-0.718237
-0.318857,-0.461972,-0.553532,-0.277676,0.347044,0.895800
0.071098,-0.543198,-0.056742,0.940219,0.199907,0.275727
0.277454,0.042520,0.318432,-0.290649,-0.000741,-0.956830
0.673823,0.372858,0.111849,-0.201599,0.209252,0.956855
0.670367,-0.019536,0.033694,-0.125928,0.042149,0.991144
-0.035618,0.002193,-0.160192,-0.564827,0.005125,0.825193
-0.036988,-0.217718,0.150231,0.896666,-0.296679,-0.328590
0.299717,0.286564,-0.123984,-0.006647,0.019172,0.999794
-0.175894,0.117686,0.764656,-0.166186,-0.724633,0.668797
0.220696,0.001305,-0.194448,-0.121032,-0.811595,0.571546
0.183186,0.125312,-0.150035,-0.174530,-0.458941,0.871156
-0.266924,0.546333,-0.687477,0.089931,0.108799,-0.989987
0.329275,-0.064407,0.672608,-0.460233,-0.333781,0.822664
0.147871,-0.294243,0.566887,0.977131,-0.212485,-0.008015
-0.526802,-0.366590,0.010157,-0.287522,0.531432,-0.796813
0.096598,-0.394379,0.768220,0.781918,0.543707,-0.304937
0.125715,-0.186899,0.800450,0.501589,-0.752432,-0.426914
0.013134,-0.415692,-0.123080,0.935618,0.329107,0.127698
0.636423,0.374634,0.116586,-0.203211,0.137247,0.969468
-0.017630,-0.417833,0.532974,0.282262,0.285510,0.915867
0.001070,-0.150960,-0.027981,0.934517,-0.342694,0.096119
0.532834,0.288184,-0.593818,0.072698,-0.278827,0.957586
0.031230,-0.515095,0.519789,-0.568429,0.058830,0.820626
0.061062,-0.143387,-0.969773,-0.027286,0.552910,0.832794
0.217570,-0.242269,0.608272,0.433616,-0.360251,-0.825952
0.027118,-0.381164,-0.064971,0.964704,-0.206400,-0.163540
-0.366455,0.569786,-0.694509,0.074306,0.022234,0.996988
0.379122,-0.154722,-0.474107,0.180005,-0.911672,-0.369394
0.879794,0.489918,-0.573138,-0.059127,-0.164652,0.984578
-0.271037,-0.021835,0.632395,-0.303624,0.177908,0.936035
0.205231,0.024707,-0.591230,-0.318832,0.118499,0.940375
-0.178910,-0.271416,-0.978685,-0.100162,0.183048,0.977988
-0.411752,0.148716,0.495447,-0.012933,0.191426,0.981422
0.242686,-0.219180,-0.961619,-0.142429,0.345430,0.927573
-0.209181,0.567801,-0.687697,-0.015970,-0.072710,0.997225
-0.317869,0.174623,-0.378617,-0.086260,-0.362211,0.928096
-0.010501,0.019744,-0.993896,-0.073200,0.174915,0.981859
0.045433,-0.520893,0.711746,0.123038,0.023165,0.992132
0.683583,0.470121,0.123715,-0.427869,0.070507,0.901086
-0.471087,0.269275,-0.137315,0.486138,-0.211056,0.848012
-0.484084,0.266297,-0.137095,-0.439201,0.285655,-0.851765
-0.167284,-0.473516,0.595185,0.176815,0.906354,-0.383744
-0.441804,0.673213,0.199722,0.067416,-0.238350,0.968837
-0.600066,0.276327,0.346754,0.325733,0.292775,0.898989
0.419757,0.269171,-0.122445,-0.038349,-0.037957,0.998543
0.267967,0.480516,-0.490759,0.006008,-0.078836,0.996869
0.388994,0.368001,0.229655,0.102900,0.437832,-0.893149
0.199802,0.217404,0.600361,-0.037107,-0.557054,0.829647
-0.715829,-0.284580,0.735357,-0.074260,0.505855,0.859416
0.158948,0.625366,0.117928,-0.277125,-0.148606,0.949272
0.012968,-0.172168,-0.949923,-0.372730,-0.706372,0.601757
-0.168435,0.123381,-0.639842,0.868443,0.445963,0.216618
-0.028214,0.512537,0.090607,0.629255,-0.502527,0.592879
0.103123,-0.513476,-0.487731,0.211472,0.064313,0.975266
-0.484193,-0.047012,0.628952,0.266734,-0.758296,-0.594845
0.511940,0.319212,0.114925,0.885912,-0.059756,0.459988
-0.155383,-0.173056,0.059550,-0.562142,0.410995,0.717690
0.619643,-0.473881,0.120517,0.691695,0.685478,-0.227330
-0.543747,0.488037,0.089020,-0.356791,0.473563,0.805256
-0.025309,-0.217457,-0.974925,0.256083,-0.075384,-0.963711
-0.020318,-0.191444,-0.036306,0.838436,0.052350,0.542480
-0.332456,0.084779,-0.144932,0.052652,0.346559,0.936549
-0.435168,-0.207584,0.372000,0.274754,-0.550271,-0.788487
0.236270,-0.151327,0.619723,-0.681601,-0.146871,0.716832
-0.072907,-0.078668,0.205362,0.703774,-0.710046,0.023165
0.731347,0.116851,-0.418659,0.086534,0.328101,0.940671
-0.412519,-0.540534,0.668042,0.791610,0.110891,0.600880
0.169806,-0.530192,-0.089167,0.502225,-0.261670,0.824196
-0.573415,0.446197,0.102034,-0.277973,0.442732,0.852478
-0.518796,-0.070048,-0.306248,0.341593,-0.162994,-0.925606
0.612075,-0.334413,-0.407916,0.164136,0.269076,0.949030
-0.395025,-0.455390,-0.575531,-0.361925,0.531312,0.765975
-0.001563,-0.148925,0.369900,-0.070448,-0.951665,0.298951
0.017520,0.280505,0.578680,0.598478,0.613932,-0.514696
-0.182968,0.284110,0.292014,0.020705,-0.219448,0.975404
-0.133559,-0.442854,0.621799,-0.459146,0.867404,-0.191820
0.666584,0.377768,-0.584930,0.136509,-0.102650,0.985306
0.084752,0.335092,-0.705350,0.001931,0.692313,0.721595
0.062105,-0.518752,0.506067,0.916012,-0.309686,-0.254983
0.451619,-0.001411,-0.677662,-0.084589,-0.073786,0.993680
0.218338,-0.085980,0.342286,0.305258,0.010830,0.952208
-0.116942,0.214375,0.790048,-0.074577,-0.672048,0.736743
-0.569082,0.268804,0.338282,0.242572,0.012993,0.970046
-0.199693,-0.070466,-0.294919,-0.106815,0.098579,0.989380
0.575827,0.108337,-0.122445,0.355029,0.164748,-0.920224
0.019933,-0.372493,-0.348683,0.322389,-0.154063,0.933986
0.671848,0.133358,0.063335,0.109665,-0.008468,0.993932
-0.685504,-0.504597,-0.186488,0.062518,0.474225,0.878181
-0.186641,-0.359852,0.118344,0.841881,-0.128208,-0.524212
-0.479861,-0.523350,-0.038186,0.004587,0.340843,0.940109
-0.393161,-0.830182,-0.017335,0.088813,0.137144,0.986562
0.347866,-0.583994,-0.063970,-0.126772,0.142902,0.981584
-0.059910,-0.361784,0.388139,0.178349,0.657482,0.732058
-0.153355,0.105829,0.259003,0.037643,-0.056128,0.997714
-0.196129,0.235896,0.286667,-0.059831,0.083957,-0.994672
-0.630392,0.284266,0.136851,0.433371,0.168804,0.885265
-0.210332,0.298735,0.879972,0.250535,-0.751984,0.609715
0.104110,-0.614396,0.396538,0.188362,-0.059302,-0.980308
-0.025253,0.186743,0.839857,0.853304,0.502356,-0.139681
-0.647939,0.372963,-0.728422,-0.431861,0.103941,0.895931
-0.454141,-0.662506,0.690041,-0.063864,0.138376,0.988318
-0.541554,-0.577935,0.661645,0.055568,0.703890,0.708133
-0.808231,-0.645476,-0.319335,-0.504853,0.124556,0.854172
0.002276,-0.151431,0.104500,0.139609,-0.222686,0.964842
-0.201338,-0.169087,0.553849,-0.516135,0.758107,-0.398595
-0.225412,0.303959,0.863027,0.249404,-0.758963,0.601475
0.248115,0.163289,0.140416,-0.333782,0.146778,0.931153
-0.118204,0.217404,0.284030,-0.113527,-0.374935,0.920074
0.214280,-0.403886,0.699197,-0.039740,0.062779,0.997236
0.115955,-0.610582,-0.061089,0.866722,0.114994,0.485355
0.204573,0.475448,-0.089606,0.024185,-0.418363,0.907958
0.430396,-0.372753,-0.296726,-0.053002,0.107931,0.992745
-0.033917,-0.498329,0.410308,-0.428952,-0.306072,-0.849894
-0.086782,-0.083681,0.713602,-0.633034,0.111338,0.766075
-0.521482,0.201264,-0.589863,0.210555,-0.219373,0.952650
0.163500,-0.009402,0.735162,0.835843,-0.547094,-0.045325
0.121659,-0.222995,0.803526,0.400590,-0.862294,-0.309801
-0.474816,0.613769,0.194936,-0.293968,0.449777,-0.843376
-0.181377,-0.610321,0.412628,0.454180,-0.006425,-0.890887
-0.250912,-0.022096,-0.584833,0.365519,0.723788,0.585257
-0.292753,0.172535,0.788315,-0.125119,-0.714423,0.688437
-0.008801,-0.206540,0.004834,0.961650,0.138431,-0.236783
-0.606537,-0.745664,-0.258686,0.016158,0.014496,0.999764
0.432809,-0.412767,-0.514857,-0.410275,-0.328093,0.850899
0.013408,0.413498,0.430696,-0.076328,-0.274630,0.958516
0.309423,0.704502,0.153209,0.151132,0.465982,-0.871791
0.409229,0.007993,0.679811,-0.153914,-0.326272,0.932661
-0.022731,0.023558,0.780355,0.259477,-0.962057,0.084374
0.095885,0.544870,0.085797,0.579312,0.320595,-0.749410
-0.354776,-0.125521,0.399370,-0.677866,0.702901,-0.215473
0.260837,-0.037454,0.334741,0.447095,0.001368,0.894485
-0.478709,0.289333,-0.687917,0.181364,0.618892,0.764251
0.366236,0.234225,0.189418,0.302549,0.319246,-0.898079
0.647720,0.412975,-0.589960,0.108119,-0.069933,0.991675
0.220530,0.115023,-0.593891,-0.072310,0.110185,0.991277
-0.877985,-0.146521,-0.010474,0.433448,-0.406613,-0.804232
-0.508760,-0.546699,-0.041995,0.023191,0.344870,0.938364
-0.359875,-0.182563,0.723613,-0.554465,-0.258949,0.790895
-0.280744,0.004648,0.749860,-0.103339,0.821660,0.560532
0.294837,-0.366485,-0.094318,0.217120,0.164052,0.962261
-0.513148,0.358964,0.364236,0.174082,-0.651959,0.738001
0.050862,-0.124686,0.727886,0.223851,0.176914,0.958432
-0.056565,0.272826,-0.679518,0.118175,0.053361,0.991558
-0.157741,0.060959,0.791391,0.853804,0.402004,0.330775
-0.280689,-0.402528,0.595478,0.132737,0.353850,0.925835
-0.073073,-0.429116,0.554313,-0.295596,-0.669459,-0.681504
-0.118643,0.008828,-0.620895,0.204271,-0.437141,0.875889
0.723724,-0.604679,0.117880,-0.027460,-0.632226,0.774297
-0.116613,0.533222,0.100569,0.957291,-0.284394,-0.052104
-0.184064,-0.503604,-0.660083,-0.227366,0.157718,-0.960953
-0.324341,-0.423162,-0.229582,-0.723741,0.688819,-0.041557
0.162568,0.222054,0.603804,-0.216053,-0.355943,0.909189
-0.051740,-0.569891,0.640452,-0.375744,0.372235,0.848680
-0.532231,-0.235792,0.706571,0.199442,-0.870639,-0.449679
0.405281,-0.319264,-0.313060,-0.574651,0.114955,-0.810285
-0.212251,-0.414386,0.106258,-0.691647,0.217487,0.688712
-0.436045,-0.457532,0.653271,0.614703,0.656535,0.437153
0.048834,0.029566,0.544669,-0.227906,0.389701,-0.892296
-0.113708,0.216256,0.278829,-0.265418,-0.427761,0.864045
-0.387458,-0.121917,0.351832,0.265873,0.398137,-0.877951
0.445971,-0.688204,-0.068828,-0.298535,0.481547,0.824008
0.128458,-0.599143,-0.071465,0.754119,0.175624,0.632820
0.039291,-0.168094,-0.931440,0.358377,0.882938,-0.303293
-0.742754,-0.403521,0.093317,-0.596832,0.056886,-0.800347
-0.026679,-0.104210,0.161560,0.924601,0.377633,-0.050065
0.255353,0.727800,0.166272,0.384069,0.358573,-0.850833
0.228264,-0.009611,-0.720561,-0.049849,-0.243071,0.968727
0.855831,-0.008202,-0.381156,-0.408316,0.316815,0.856100
0.147377,-0.158118,0.783407,-0.623116,0.692903,0.362784
0.043569,0.331070,0.552287,0.481514,-0.487040,-0.728654
-0.210168,-0.481665,0.097297,0.374930,0.724240,-0.578709
-0.068082,0.454972,0.096418,-0.460073,0.293719,-0.837891
0.314524,-0.029357,0.653026,0.851717,0.231804,-0.469943
0.170574,-0.156811,0.061796,0.039161,0.636714,0.770105
-0.037812,0.016089,-0.992895,-0.096239,0.153720,0.983417
0.381261,-0.199644,0.151012,-0.084136,-0.808720,0.582145
-0.641524,0.150125,-0.316625,0.010478,0.159208,0.987189
-0.188616,0.477329,0.095491,0.135847,0.796364,-0.589364
0.827205,0.416841,0.136924,0.348071,0.297309,-0.889075
0.190754,0.230203,0.097444,0.907710,0.143413,0.394330
0.060898,0.054325,0.513319,0.113524,-0.467848,0.876487
-0.507664,0.007626,-0.293478,-0.105941,0.220054,0.969718
0.642565,0.196615,0.060161,0.167030,-0.238800,0.956596
-0.031614,-0.693063,0.435701,-0.086420,-0.334329,0.938486
0.216857,-0.234276,0.644994,0.547543,-0.288269,-0.785556
0.002440,-0.108755,-0.043216,0.898067,-0.266451,0.349970
-0.115133,-0.416422,0.810045,-0.489080,-0.828772,-0.271914
-0.340792,-0.569056,-0.552946,0.036978,-0.348007,-0.936762
0.043898,0.238508,0.558879,0.722003,0.083310,-0.686856
-0.302789,-0.092457,0.418756,0.218164,-0.792527,0.569478
-0.545228,0.424415,0.108675,0.345767,-0.530789,-0.773762
-0.244221,-0.121605,0.689406,0.732290,-0.209921,0.647831
0.761235,0.575115,0.127866,-0.244043,-0.102410,0.964342
0.077130,-0.414646,0.519374,-0.613253,0.091915,-0.784520
0.237970,0.046855,0.535098,-0.260849,0.373696,-0.890117
0.609498,-0.448757,0.130893,0.571072,0.637409,-0.517287
-0.370569,0.134611,-0.155822,0.208901,-0.085145,0.974223
-0.197225,0.398244,-0.208755,0.013054,0.095305,0.995363
-0.135038,-0.080547,0.939669,-0.160534,-0.889642,0.427511
0.022347,0.008149,-0.990917,0.057895,0.205148,0.977017
-0.021689,-0.294714,0.770931,0.176854,0.125648,0.976184
-0.119465,-0.679481,0.415070,-0.014659,0.317048,0.948296
0.018891,-0.654148,0.434383,0.661337,0.741143,-0.115497
-0.386306,-0.306676,-0.597969,-0.060735,-0.840212,0.538847
-0.007102,0.085039,0.802158,-0.576317,-0.474980,0.665021
-0.302240,-0.313623,-0.738189,0.604499,-0.787628,0.119263
-0.723890,-0.492426,0.067559,-0.551241,0.371297,-0.747176
-0.183462,0.233546,0.835755,0.231705,-0.824840,0.515705
0.666584,-0.276589,-0.425251,0.352810,-0.464565,0.812222
-0.018782,0.403624,0.063066,0.806305,0.017181,0.591250
-0.124181,0.641977,-0.688356,0.019692,-0.130904,0.991199
-0.821667,0.243888,-0.317919,0.286324,-0.131212,0.949106
-0.136794,0.181258,0.081036,0.632498,-0.124084,0.764559
0.195469,0.578196,0.131186,0.427837,0.122399,-0.895530
0.011598,-0.234434,-0.975633,0.159212,0.009410,-0.987200
0.014669,-0.130589,-0.979906,-0.156765,0.185460,0.970067
0.241863,-0.211763,0.612667,0.535321,-0.060176,-0.842502
-0.433523,0.301452,0.111190,-0.040209,-0.412623,0.910014
0.212963,-0.212077,-0.484704,-0.337554,-0.109142,0.934957
-0.182858,-0.081226,0.649096,0.243052,-0.792530,0.559305
-0.532506,-0.374790,-0.208463,-0.228129,0.411125,0.882572
-0.068027,-0.424101,-0.345265,0.391415,-0.272418,0.878967
0.060349,-0.177131,-0.961448,-0.673708,0.665930,-0.320399
0.094459,-0.542207,0.536514,0.288563,-0.160328,-0.943942
-0.544789,-0.502194,-0.040164,-0.067093,0.336646,0.939238
-0.070549,0.262171,-0.676222,-0.244389,0.066221,0.967413
-0.306956,-0.524917,0.373221,-0.470613,0.052593,0.880771
-0.041815,-0.437318,-0.196401,0.069311,0.499607,0.863475
-0.303172,0.411826,0.128623,0.311608,-0.087293,0.946193
0.061885,-0.569212,0.530459,-0.294939,0.552024,0.779923
-0.244112,-0.423736,0.653442,0.773361,-0.039769,0.632718
-0.040278,-0.125418,0.183095,0.828786,0.541947,-0.139309
0.246743,-0.266036,-0.948532,0.052114,-0.041209,0.997791
0.574786,0.347890,-0.139659,-0.232383,0.144749,-0.961793
-0.114859,0.457114,0.097834,0.919743,-0.265447,0.289156
-0.123633,-0.481978,-0.492614,-0.616628,0.783732,-0.074395
-0.339530,-0.939145,-0.275533,-0.103724,-0.107000,0.988834
-0.178965,-0.049414,-0.589154,0.353533,0.670496,0.652265
0.538482,-0.224613,0.169251,-0.062020,-0.196806,0.978479
0.541991,0.101285,0.203775,-0.207412,0.024830,0.977938
0.005566,-0.334934,-0.141124,0.989588,0.050546,-0.134760
-0.351156,-0.278103,0.581488,-0.741493,0.525058,-0.417734
0.008856,-0.117374,-0.629563,-0.156949,-0.961705,0.224700
-0.236927,-0.591778,0.082868,0.008597,0.037481,0.999260
0.404074,0.388477,0.239129,-0.043207,-0.505858,0.861534
-0.081243,0.209516,0.581757,-0.441645,-0.283588,0.851192
-0.069123,0.210771,0.582245,-0.441645,-0.283588,0.851192
0.306024,-0.461398,0.460190,0.122664,0.084753,0.988823
-0.171836,0.298265,0.872623,0.225862,-0.733545,0.641014
-0.583888,0.364553,-0.113216,0.066636,-0.324398,0.943571
0.363768,0.600866,-0.096833,0.076821,-0.042577,0.996135
0.011653,-0.338644,0.725444,0.905679,0.423463,0.020585
0.110580,-0.721322,-0.086969,0.730432,-0.519056,0.443904
-0.289188,-0.218815,-0.985937,-0.006023,0.178379,0.983943
-0.378136,-0.316913,-0.641331,0.051425,-0.859558,0.508444
0.210605,-0.321249,0.639158,0.924751,-0.228257,-0.304524
-0.111130,-0.282439,0.373318,0.842219,-0.468522,-0.266748
-0.240986,-0.259664,0.538467,-0.222736,0.220385,0.949641
0.012147,-0.431937,-0.147179,0.912508,-0.362947,-0.188675
-0.537111,-0.023975,0.639720,-0.573250,-0.606757,-0.550664
0.801595,0.111836,0.055180,-0.026315,-0.224233,0.974180
0.205561,0.322451,0.624387,-0.003275,-0.816009,0.578029
-0.399797,-0.366590,0.573528,0.056270,-0.638782,-0.767327
-0.303556,0.424050,-0.698269,-0.009134,-0.144956,0.989396
0.799018,0.495037,0.110408,0.255567,0.228146,-0.939487
-0.808396,-0.168931,0.015821,0.230955,-0.958476,0.167281
-0.308601,-0.374530,0.583002,0.153342,0.203523,0.966987
-0.053549,-0.154147,0.981542,-0.529838,-0.810530,0.249626
0.095719,0.377820,0.098835,-0.670711,-0.203243,-0.713329
-0.235776,0.036669,0.771590,0.405029,0.680515,-0.610615
-0.799128,-0.133985,0.042093,0.920655,-0.322215,-0.220391
-0.056950,-0.163759,0.122519,0.858713,-0.512318,0.011912
0.124070,-0.377612,0.516713,0.840293,-0.483172,-0.245871
-0.165090,0.158588,0.774349,0.350252,-0.660450,0.664176
-0.562557,-0.058974,0.663379,0.627386,-0.038204,0.777771
0.187025,0.076734,0.025930,-0.710461,0.641407,-0.289556
-0.549231,-0.368940,-0.228679,-0.501164,0.585297,0.637387
-0.363823,-0.145685,0.384989,-0.629411,0.723214,-0.284259
-0.187299,-0.221845,0.665503,0.965937,-0.089411,0.242841
-0.559706,-0.028573,0.610909,-0.075460,-0.171340,0.982318
-0.151710,0.367896,0.093513,-0.692074,0.212674,0.689785
-0.454196,0.609486,0.191738,0.169782,-0.397524,0.901747
-0.095336,-0.214949,-0.981444,-0.114743,-0.012019,0.993322
-0.239396,0.083369,0.298581,0.262599,-0.292418,0.919529
-0.076308,-0.373537,0.525698,0.333191,0.357476,0.872465
-0.214390,0.128134,0.774886,-0.012428,0.991120,-0.132388
-0.071592,-0.169348,0.115145,-0.266418,0.847258,0.459539
-0.689178,-0.459047,-0.190737,-0.148255,-0.395900,-0.906247
0.061830,-0.123119,-0.978368,-0.053996,0.230750,0.971514
0.161470,-0.510603,-0.103621,0.036020,-0.641796,0.766029
0.024211,-0.311220,0.697830,0.797298,0.276888,-0.536330
-0.211703,-0.754962,0.410382,-0.637661,0.724470,-0.261787
-0.426394,-0.232083,0.808116,-0.415594,-0.568727,-0.709811
-0.097421,0.175513,-0.159167,-0.245042,-0.230391,-0.941740
-0.129116,0.489865,0.642503,0.182057,-0.528169,0.829393
0.185818,-0.198495,-0.972288,0.062190,0.223086,0.972813
0.136794,0.126515,0.400664,0.229394,-0.056087,0.971716
-0.050151,-0.271207,0.162976,0.604762,-0.234827,-0.760999
-0.101588,0.011230,0.660864,0.999159,-0.026717,0.031120
-0.682049,-0.342510,0.760847,0.366890,0.379832,0.849187
0.319843,0.844493,-0.484484,0.102814,0.044522,0.993704
0.017412,-0.466361,0.617062,-0.009885,-0.361832,0.932191
-0.072413,-0.152476,0.508118,-0.413333,0.694168,-0.589310
0.763154,-0.063989,-0.384452,-0.298002,0.240546,0.923760
0.677771,0.049572,0.028347,0.001590,-0.208594,0.978001
0.042636,-0.423004,0.424934,0.753382,0.074895,-0.653304
-0.124127,-0.276066,-0.977293,0.005940,0.208656,0.977971
0.223821,0.530244,0.722734,-0.475328,-0.563754,0.675459
0.395081,-0.016454,0.316967,0.285657,-0.086974,0.954377
0.020263,-0.208787,0.087457,-0.106554,-0.167486,0.980099
-0.311289,-0.075428,0.378617,-0.640340,0.533591,-0.552490
-0.366510,-0.251985,0.824841,0.862454,0.465962,0.197617
-0.250035,0.418199,-0.212198,0.044582,0.087441,0.995172
-0.005072,-0.367739,0.657494,0.873180,-0.293820,-0.388878
0.578734,0.251150,0.200210,-0.041381,0.748875,0.661418
0.107675,-0.393649,0.292819,0.160148,-0.175464,0.971373
0.252885,0.534945,0.126254,-0.169603,-0.641615,0.748041
-0.571770,0.014417,-0.321093,-0.071773,0.046412,0.996341
-0.689727,-0.718240,-0.621115,0.545853,-0.787661,-0.285718
-0.863947,-0.180944,0.008106,-0.471579,0.433007,0.768191
-0.053441,-0.509821,0.443001,-0.088129,0.098938,0.991183
0.018178,0.145580,-0.389408,-0.595293,0.249893,-0.763662
0.316169,0.236784,0.081158,0.339968,-0.645805,-0.683636
-0.085191,-0.374896,0.769539,0.018596,0.872473,0.488308
-0.487319,0.673266,0.197378,0.019143,-0.119659,0.992630
-0.110196,-0.031812,0.682741,-0.744055,-0.650037,-0.154385
0.097311,-0.424624,0.515126,0.914158,0.003340,0.405344
-0.096597,0.487149,0.091779,0.515218,0.563936,0.645389
0.332565,-0.044401,-0.978734,0.116824,-0.215907,-0.969400
0.025252,0.280088,-0.676954,-0.091355,0.015082,0.995704
-0.497902,-0.140305,0.472081,-0.185295,0.188197,-0.964493
0.201392,-0.203615,0.415875,0.110844,0.600793,0.791682
-0.010446,0.010081,0.709549,0.609753,-0.779239,0.144871
0.266594,-0.176974,-0.431306,0.872624,-0.275844,0.403035
0.257656,0.250104,0.690261,0.843425,-0.424551,-0.329229
0.523896,-0.801609,-0.051151,-0.269551,0.406913,0.872791
-0.458968,0.620821,-0.693093,0.193928,-0.211620,0.957919
-0.247896,0.131007,-0.265425,-0.009779,-0.817938,0.575224
-0.080860,-0.740284,-0.451864,-0.087247,-0.002595,0.996183
0.415754,0.017916,0.308201,-0.208703,0.138108,-0.968178
-0.004798,0.264000,0.569231,0.987679,0.066224,-0.141793
-0.000905,0.565817,-0.475694,-0.063687,-0.398020,0.915164
-0.486716,0.224509,-0.135728,0.329521,-0.194327,0.923933
-0.133832,-0.430579,0.128012,-0.594069,0.177275,0.784637
-0.850238,0.179952,-0.301438,-0.293718,-0.113194,-0.949166
-0.407256,0.234067,-0.151036,-0.238603,-0.244600,-0.939808
-0.253380,-0.525596,-0.678102,0.257947,0.133624,-0.956874
0.122591,-0.180893,0.760700,0.843260,0.050896,-0.535091
-0.743303,-0.293355,0.082697,-0.208228,0.592724,0.778022
-0.258479,-0.166423,0.036136,0.297005,-0.200805,-0.933523
0.173973,0.246291,0.118661,0.885691,0.080357,-0.457268
-0.516328,0.204868,-0.590180,0.210555,-0.219373,0.952650
-0.312604,-0.425250,0.124277,0.558600,0.673564,0.484022
0.195197,-0.156133,-0.974315,-0.078790,0.121463,0.989464
-0.438678,-0.710770,-0.277120,0.050505,-0.137252,0.989248
-0.039072,-0.183765,0.104134,0.002622,0.708224,0.705983
-0.040991,-0.170236,0.134312,0.975368,0.043440,-0.216263
0.429574,0.676503,-0.095588,0.018510,0.020027,-0.999628
0.221903,-0.338226,0.721049,-0.284770,-0.825114,0.487949
-0.323188,-0.087234,0.601558,0.529225,0.017929,0.848292
-0.519728,0.470591,0.107332,0.524099,-0.357692,-0.772901
-0.015547,-0.398141,-0.336719,0.438271,-0.192086,0.878078
0.184722,0.509768,-0.491027,0.146689,-0.137622,0.979562
-0.043679,-0.343189,-0.449105,0.968540,-0.243145,0.053013
-0.191357,-0.894588,0.407818,-0.447347,0.187475,0.874491
-0.011818,-0.122807,-0.155480,0.869532,-0.492396,-0.038225
-0.351760,0.533483,-0.705227,0.132460,-0.089320,0.987156
-0.352252,-0.411982,0.604976,0.685596,-0.720186,-0.106252
0.198212,0.661565,-0.734111,-0.332955,-0.019205,-0.942747
-0.237587,-0.387745,0.086359,0.296637,0.572780,0.764153
0.191466,0.121552,0.040921,0.924135,-0.379401,0.045047
-0.037756,0.295863,-0.691164,-0.525188,0.307456,-0.793503
0.671738,0.114187,-0.589912,0.061817,-0.117078,0.991197
-0.326039,-0.586867,-0.232292,0.736924,-0.566887,0.368216
-0.259192,-0.148714,0.752716,0.324639,-0.756057,0.568319
0.121878,0.295392,0.415460,-0.054946,-0.386694,0.920570
0.645636,0.556780,-0.574237,0.146716,-0.148990,0.977894
-0.313921,-0.285991,-0.204312,0.070440,-0.180379,0.981072
-0.167065,-0.367791,0.763948,0.104867,0.907518,0.406711
-0.298182,-0.242322,-0.214127,-0.058212,-0.061075,0.996434
-0.113761,0.077622,0.064995,-0.679304,-0.103674,-0.726497
-0.120890,-0.319735,-0.346363,-0.447799,-0.042056,-0.893145
0.043843,0.259506,0.589228,0.584070,0.245866,-0.773571
-0.490500,-0.335719,0.351271,0.087076,0.027842,0.995813
0.019385,0.223360,-0.364870,0.108942,-0.493876,0.862681
-0.639660,-0.182198,0.019728,-0.049714,0.338623,0.939608
-0.178525,0.744776,-0.682936,-0.118497,-0.092202,0.988664
-0.074827,0.227696,-0.680030,-0.098935,0.105095,0.989529
-0.048450,-0.877978,-0.461728,-0.224348,-0.018415,0.974335
0.484906,0.581592,-0.105525,-0.044733,-0.100557,0.993925
-0.195033,0.020894,0.706253,-0.619797,-0.700956,0.352864
0.005675,0.289490,0.571746,0.966722,-0.096971,-0.236739
0.069179,-0.459987,-0.118783,-0.299316,0.782168,0.546464
-0.074114,-0.780924,0.466782,-0.047319,0.732343,0.679290
-0.177978,-0.176557,0.040457,0.212501,-0.435290,-0.874852
0.323243,0.531759,-0.095173,-0.563968,0.155661,-0.810993
0.266924,-0.001881,0.326123,0.434705,0.121574,0.892329
-0.119465,-0.077727,0.673878,0.904460,-0.350067,0.243730
-0.266266,-0.281549,-0.981639,0.143599,-0.041224,-0.988777
-0.020538,-0.574801,0.438826,-0.704100,-0.021815,0.709766
0.525047,0.009351,-0.389408,0.181241,0.191391,0.964635
-0.403033,-0.274499,-0.607418,0.058500,-0.303513,0.951030
-0.418771,-0.032595,-0.039456,0.038003,0.495643,0.867694
-0.170465,0.245768,0.289670,-0.000877,-0.200518,0.979690
-0.272244,-0.173318,0.610738,0.014729,-0.969035,0.246483
-0.429246,0.339637,0.348951,-0.013179,-0.730434,0.682856
-0.264238,-0.380850,-0.556169,-0.525592,-0.179201,0.831649
0.115955,-0.474927,0.706961,-0.324554,-0.100090,-0.940557
0.734310,0.120194,-0.412017,0.086534,0.328101,0.940671
-0.051411,-0.142604,0.623190,0.845410,0.165813,-0.507729
0.008143,0.116172,-0.386918,0.533382,-0.124754,0.836624
-0.000686,-0.427026,0.480968,-0.755110,-0.655597,-0.000964
-0.137288,0.032752,0.422126,0.033712,-0.219620,0.975003
-0.464067,-0.195049,0.627170,0.823499,0.367522,0.432177
0.171725,0.576107,-0.479112,0.287517,-0.345594,0.893252
0.082888,-0.152947,0.427326,-0.592304,-0.795974,-0.124906
-0.549122,0.231926,-0.143004,-0.499860,0.477973,0.722276
-0.167339,-0.386126,-0.534976,0.634707,0.326864,-0.700219
0.098956,-0.121082,0.498816,-0.125691,-0.640029,0.758001
0.099669,-0.461189,0.715775,0.219823,0.057951,0.973817
-0.066931,-0.447190,-0.467369,0.945821,0.028817,-0.323407
0.233912,-0.534580,0.464927,-0.289492,0.658396,0.694773
0.521593,0.066861,-0.393925,0.146808,0.299268,0.942808
-0.580983,-0.214793,0.010474,-0.234018,0.305267,0.923064
0.401059,0.057563,-0.593183,0.556160,-0.151874,-0.817081
-0.721862,0.458994,-0.731304,0.575408,-0.141472,-0.805538
-0.142991,0.575376,-0.688649,-0.009500,-0.030867,0.999478
-0.456718,-0.520058,-0.566814,0.491196,-0.474342,-0.730566
-0.698391,-0.005536,-0.313329,-0.089223,-0.039038,0.995246
0.220915,-0.242269,0.788290,-0.595329,-0.726987,0.342160
-0.144691,-0.302915,-0.657836,0.407816,-0.275197,0.870605
0.450687,-0.173526,-0.408184,0.609756,0.227120,-0.759351
0.121548,0.055057,-0.162512,0.269978,-0.593326,0.758338
0.227990,-0.428489,-0.098274,0.306751,0.420985,0.853625
-0.567382,-0.477277,0.019411,0.916674,-0.066913,0.393994
-0.557622,-0.454868,-0.610006,0.003563,0.004440,0.999984
0.545611,-0.289019,-0.406207,-0.051199,-0.016394,0.998554
-0.421293,-0.519326,0.377909,-0.047175,0.333091,0.941714
-0.074278,-0.625835,-0.466319,0.440740,-0.035314,-0.896940
-0.436648,-0.373120,0.018556,-0.098204,-0.540703,0.835462
0.298565,-0.090211,-0.972801,-0.101102,0.289768,0.951742
-0.089140,-0.258880,0.338428,0.927049,-0.219231,0.304169
-0.110965,-0.212965,0.675269,0.463025,-0.176167,-0.868662
-0.297688,-0.301034,0.445174,0.245289,-0.286412,0.926176
-0.054811,-0.313205,0.116390,0.886773,0.327739,0.325917
0.166899,0.354419,0.626487,-0.555735,-0.602827,0.572502
0.260782,-0.310071,-0.497571,-0.210052,0.186744,-0.959690
0.285075,0.145320,0.328296,0.203627,0.025661,0.978712
-0.519124,-0.601912,0.683180,-0.158047,0.425401,0.891098
-0.292204,0.390565,0.133018,-0.301665,0.365223,-0.880687
-0.072688,-0.473987,-0.484264,0.906414,0.031129,-0.421241
-0.745058,-0.209257,0.039383,0.253174,0.800761,0.542848
-0.154781,-0.504388,0.432381,-0.257221,-0.349382,0.900983
0.838831,0.403886,0.161340,0.214718,0.375994,-0.901402
-0.361739,-0.637276,-0.669092,0.392714,0.890014,0.231626
0.302624,-0.090263,-0.491686,-0.237370,0.679829,0.693894
-0.514463,-0.566391,-0.232732,-0.559260,-0.605816,0.565875
-0.489622,-0.297795,-0.623776,-0.199924,-0.085044,0.976114
0.214061,0.177236,0.093806,0.951170,-0.308591,-0.006831
-0.744893,0.413498,0.100422,-0.155610,0.496537,0.853953
-0.075320,0.451526,0.077789,-0.271602,0.534797,0.800140
-0.219160,-0.377245,0.587031,0.012657,0.709457,0.704635
-0.522963,-0.183557,0.672901,0.094090,0.054707,-0.994059
0.300321,-0.020267,-0.976073,-0.029545,0.113891,0.993054
-0.374955,-0.247440,0.643236,-0.146259,0.179246,0.972872
-0.133832,0.151588,0.065630,0.611365,-0.050261,0.789751
-0.678703,-0.075951,-0.322558,-0.070061,-0.380186,0.922253
-0.103508,-0.024133,-0.995166,-0.208107,0.314643,0.926116
0.090236,0.021731,-0.163513,-0.355865,0.574187,-0.737340
-0.304215,0.065609,-0.628611,-0.530864,-0.364095,-0.765257
-0.551261,0.431832,0.109578,0.290853,-0.530381,-0.796304
0.253983,0.074802,-0.142393,0.083254,-0.306811,0.948122
-0.475309,0.182093,-0.593208,0.014621,-0.144541,0.989391
0.680184,-0.622230,0.095368,-0.179998,-0.560349,0.808461
0.370678,-0.210927,0.112728,0.818577,0.243589,-0.520188
-0.682817,-0.415222,0.087116,-0.442668,-0.042136,-0.895695
0.259301,-0.088696,0.329101,-0.450696,-0.103240,-0.886687
-0.747744,0.171385,0.362404,0.457336,-0.173793,0.872147
0.200351,0.183399,0.123324,-0.700875,-0.481015,0.526687
0.036001,-0.623485,0.515736,0.086219,0.768609,0.633882
-0.682653,-0.213749,0.744391,-0.451506,0.584367,0.674283
0.386581,-0.347314,-0.292697,-0.195821,0.344991,0.917952
0.269886,-0.089480,-0.982860,-0.120956,0.293441,0.948294
-0.043734,0.499478,-0.695559,-0.136946,-0.185015,-0.973147
0.584326,0.281968,0.205191,0.082757,0.945038,0.316314
-0.824628,0.121552,-0.304222,0.357877,0.051591,0.932342
0.255409,-0.027476,-0.979711,-0.106740,0.096821,0.989562
0.012202,-0.835979,0.466953,0.061870,0.603215,0.795175
-0.334430,-0.321354,0.530996,-0.075568,0.032768,-0.996602
-0.544240,-0.485112,-0.051053,-0.178327,0.260655,0.948819
-0.748074,-0.662506,-0.304783,-0.335641,0.268880,0.902801
-0.006443,-0.125679,-0.221354,0.819032,-0.565882,0.094677
0.047517,-0.110217,0.003662,0.912553,-0.394236,-0.108746
0.321543,0.069055,-0.593574,-0.147547,-0.031198,-0.988563
0.367771,0.579084,0.102107,0.266868,-0.256014,0.929106
-0.107675,-0.332115,0.699709,-0.037450,0.958552,0.282445
0.128567,0.176348,0.590864,-0.147460,-0.624001,0.767384
-0.318691,0.131530,0.570257,-0.544998,-0.318143,-0.775733
-0.589098,0.642968,0.203408,-0.137500,-0.408989,0.902120
-0.485180,-0.074226,0.606319,0.091004,-0.487593,0.868315
-0.147652,-0.077360,0.755964,-0.526935,0.849135,-0.036180
0.303666,0.401901,0.100398,-0.057109,0.369238,0.927579
0.028433,-0.182093,-0.968968,0.485383,0.377470,-0.788619
0.256943,-0.329293,0.746759,-0.058954,0.716853,-0.694728
-0.230677,-0.207950,-0.986742,-0.064779,0.123873,0.990181
0.044337,0.607605,-0.474864,-0.011861,0.096955,0.995218
-0.074169,0.472523,0.083966,0.311959,0.852628,0.419174
-0.205725,0.521574,-0.694655,-0.047374,0.012669,0.998797
-0.638672,-0.319003,-0.228337,0.206055,0.354529,0.912058
-0.379892,-0.256111,-0.012257,0.430671,-0.011226,0.902439
