0.653175,-0.003952,0.686488,0.958125,-0.105038,0.266390
-0.336281,0.251759,0.761187,0.816481,0.550581,-0.173837
-0.030531,0.712498,0.368415,-0.568996,0.478096,0.669080
0.078948,0.146497,0.032172,0.105301,-0.957865,-0.267220
0.035304,-0.421239,0.775022,0.643149,0.748486,0.161644
0.296907,0.253354,0.888629,0.771481,0.426580,0.472066
-0.483032,-0.262249,0.385702,0.205895,0.629662,0.749088
0.149956,-0.133277,-0.320339,0.843914,0.054032,-0.533750
-0.368547,0.519485,0.571681,0.323207,0.220610,0.920254
0.407888,0.708848,0.635006,0.955307,-0.079642,0.284684
-0.328405,-0.368219,0.837345,-0.515727,-0.758965,0.397490
0.055391,-0.305416,0.442247,0.890574,0.100147,-0.443675
0.492575,0.682480,0.482401,0.522860,0.522656,-0.673386
0.502686,-0.032304,0.310730,-0.274191,0.036421,0.960985
-0.489772,-0.101097,0.871615,0.412805,0.900479,-0.136857
0.173813,0.499991,0.419927,0.702580,0.212772,0.679051
-0.038940,0.587036,0.796187,-0.629591,-0.011851,-0.776836
-0.311556,0.143840,0.253197,0.570436,0.520982,0.634964
0.045981,0.643211,0.763178,0.364467,0.212052,0.906751
-0.413594,0.394234,0.844354,-0.874343,0.346067,0.340237
0.689747,-0.583738,0.514421,-0.308577,0.399597,-0.863193
0.345558,0.365350,0.800657,-0.563769,-0.190179,-0.803739
0.831326,0.638320,0.360417,0.900354,0.334272,0.278613
0.507058,0.352732,0.367396,0.333861,0.141266,0.931977
-0.083286,0.136929,-0.306153,0.093907,0.991394,0.091213
-0.174781,0.195620,0.453954,-0.807880,0.395793,0.436667
0.400648,-0.535149,-0.224901,-0.587709,0.514405,-0.624488
0.479195,0.001861,0.064132,0.533956,0.521654,0.665408
0.504688,0.121725,0.770431,-0.250001,-0.513196,0.821054
0.583003,0.015896,0.035107,0.099786,0.093242,0.990630
0.718176,-0.418440,0.493652,-0.003613,-0.255045,0.966923
0.007275,0.162907,0.339025,0.948248,-0.317430,-0.007996
-0.546932,0.255267,0.691931,-0.646591,0.149818,0.747980
-0.766326,-0.399549,0.678263,-0.062336,0.043227,0.997119
-0.119590,0.457037,0.358547,0.224831,0.583451,0.780408
-0.267309,0.169075,-0.051664,0.051027,-0.913020,0.404712
0.389570,0.541069,0.638686,0.316487,0.369856,0.873523
0.032367,0.334516,0.820133,-0.108705,0.985895,0.127259
0.017418,0.193989,0.643627,0.582182,0.528556,-0.617813
0.381261,0.091067,0.829134,0.765270,0.536742,0.355345
-0.465581,0.137956,-0.430326,-0.626777,-0.723122,-0.290251
-0.140411,-0.095851,-0.051527,-0.410294,0.646910,0.642781
-0.154392,-0.185518,0.845023,-0.622705,-0.667504,-0.408261
0.304248,0.433219,0.746408,-0.326556,-0.944784,0.027280
-0.353198,-0.475040,0.053093,0.463605,0.010366,0.885981
-0.421002,0.630983,0.554120,0.131088,-0.119595,-0.984131
-0.243352,0.338343,0.882517,0.349087,0.241105,0.905542
-0.327872,-0.361166,0.478342,-0.552015,0.340323,0.761223
0.294205,0.311585,0.878640,0.956719,-0.254123,0.141808
-0.126230,0.498964,0.684405,0.876546,0.436742,-0.202295
-0.000967,0.019759,0.882988,0.796524,0.338058,-0.501265
-0.569054,-0.360316,0.434204,0.908691,-0.398321,0.124983
0.657346,0.031632,0.657570,-0.809837,0.217805,-0.544725
0.213187,0.031915,0.192030,-0.747489,-0.532480,-0.397146
0.182422,-0.177190,0.879765,0.909451,0.216957,0.354724
-0.080149,-0.414186,0.008773,-0.225871,-0.185140,0.956402
0.251126,0.263030,-0.014581,-0.482663,-0.789753,-0.378585
0.171277,0.664618,0.613127,-0.623750,0.046775,0.780223
0.044079,-0.657138,0.776117,0.933673,-0.318899,0.162966
-0.389869,-0.235668,0.267899,0.412412,-0.423942,-0.806343
-0.465047,0.416456,0.817108,-0.243423,0.760222,0.602335
0.140712,0.584555,0.420748,0.156024,0.728333,0.667223
-0.358871,0.111766,0.933998,0.965216,0.001524,0.261448
0.729154,0.415322,0.464962,-0.388697,0.056573,0.919627
0.068271,-0.007708,-0.270621,0.528820,0.848587,0.015788
-0.363476,-0.140011,0.308479,0.939735,-0.335890,0.063847
-0.601821,0.004555,0.694272,-0.920965,0.389099,0.020641
0.052821,0.007709,-0.976905,-0.200691,-0.026855,-0.979286
-0.411525,0.090678,0.361542,0.478947,-0.290554,0.828365
0.183323,0.540501,0.408782,0.739241,0.366778,0.564798
-0.412026,-0.066364,0.317541,0.908051,0.408006,0.094738
-0.290967,-0.121299,0.799973,0.998665,-0.003077,0.051570
-0.518101,0.378852,0.823007,-0.527532,0.315931,0.788605
0.227935,-0.143272,0.574235,0.893361,0.449336,-0.001880
-0.269011,0.409119,0.332563,0.933859,-0.314736,-0.169847
0.569222,0.200759,-0.357255,0.252857,0.215417,0.943217
-0.370115,-0.254984,0.806875,-0.658312,0.263716,0.705038
-0.289432,0.313853,0.898512,0.185117,0.306590,0.933667
0.204445,-0.104747,0.591689,0.642195,0.765936,-0.030457
-0.458474,-0.244209,0.375302,0.159861,0.572589,0.804106
0.014048,0.783063,0.072874,-0.117673,-0.055591,0.991495
0.052621,0.188106,0.860090,0.883564,0.113008,0.454471
0.643098,-0.092023,0.638336,-0.234077,0.717850,-0.655667
-0.553439,-0.014797,0.607471,-0.576372,-0.240857,-0.780886
-0.008042,-0.353688,-0.333931,0.914892,0.217268,0.340246
-0.430212,-0.232230,0.883794,-0.498538,0.613306,-0.612630
-0.123828,0.354752,0.386097,0.747249,-0.231010,-0.623099
-0.123528,-0.388243,0.831567,0.494317,0.626068,-0.603067
0.678802,-0.396607,-0.306913,0.091979,-0.862617,0.497425
-0.092996,0.088551,0.293883,-0.037302,-0.999212,-0.013547
0.366779,0.597952,0.268006,-0.258224,0.380878,0.887836
-0.231906,0.325548,-0.092457,0.787284,-0.220397,-0.575855
0.410558,-0.313887,0.527466,0.389752,0.912356,-0.125297
-0.102973,0.048006,0.589591,-0.123550,-0.971666,0.201497
0.067036,-0.497899,0.442079,0.762989,-0.075319,0.642008
0.131035,-0.061473,0.948169,0.876347,-0.209436,0.433765
-0.032833,0.441371,0.795107,0.306976,0.627132,-0.715871
-0.144449,0.344900,0.708914,0.674115,-0.715248,0.184364
0.001835,-0.308819,0.246248,0.102187,0.327383,0.939350
-0.318662,0.212278,0.739536,0.484480,-0.590769,0.645191
0.522440,0.023374,-0.515850,0.736202,0.360485,0.572762
0.091194,0.589375,0.544784,-0.852491,-0.246322,0.461068
0.380693,0.564744,-0.012163,0.002100,0.709967,0.704232
-0.363242,0.254701,0.760092,0.720242,0.692878,-0.034229
-0.452534,0.096100,0.855240,0.879777,-0.111297,-0.462174
0.051520,-0.438429,0.568837,-0.345875,0.936485,0.058024
-0.076746,0.144903,-0.420079,0.521088,-0.852584,-0.039607
0.040475,0.706616,0.406228,-0.201840,0.714547,0.669838
-0.572959,0.338378,0.835763,-0.197088,0.595200,0.779033
0.003437,0.707183,0.007268,-0.473412,0.822475,-0.315304
0.429444,0.550602,0.067005,-0.526598,0.477007,0.703675
0.092396,-0.431199,0.046221,-0.475256,-0.219445,0.852042
0.040108,0.777002,0.354259,0.053474,0.649871,0.758161
-0.474224,0.188284,0.804716,0.210392,-0.959953,-0.185002
-0.004638,-0.203841,0.732055,0.077122,0.497694,0.863917
-0.570322,-0.667487,0.547855,-0.339044,0.295622,-0.893117
0.109446,-0.054243,0.437624,0.960495,-0.165876,-0.223459
0.481431,-0.370558,0.541439,0.395690,0.590605,0.703289
0.400515,-0.352838,0.671040,0.892815,0.230836,-0.386776
-0.158130,-0.401817,0.813854,0.473120,0.849498,-0.233475
-0.129300,0.076041,-0.390385,-0.616324,0.703842,0.353202
0.008409,-0.036026,0.937374,0.416326,-0.499761,-0.759546
-0.170643,-0.707430,0.476456,0.698607,0.358153,0.619415
-0.692148,-0.580373,0.623968,-0.699481,0.703735,0.124428
-0.110748,0.139161,-0.704809,-0.305598,0.937605,0.165852
0.755814,0.051834,0.530644,-0.424499,0.166556,-0.889977
-0.112516,0.353653,0.542823,-0.402663,-0.480472,-0.779108
-0.430578,-0.458135,0.443235,-0.358589,-0.863933,0.353602
-0.378157,-0.349116,0.859467,0.908191,-0.344880,0.237164
-0.636291,-0.730042,0.315625,0.171755,-0.112139,-0.978736
0.567053,0.260797,0.649025,-0.227490,0.697511,0.679505
-0.458107,0.127891,0.575436,0.780277,-0.523728,0.341871
-0.548567,-0.345643,0.421812,0.883891,-0.427018,0.190765
-0.556041,-0.206925,0.805264,0.810185,-0.300449,0.503320
0.370984,-0.009764,0.801797,-0.094240,-0.837475,0.538289
0.316260,0.552587,0.825744,0.828321,0.079488,0.554586
-0.220427,0.043789,0.819282,0.966183,-0.170069,0.193824
-0.261803,0.427443,0.816637,0.892523,0.260970,0.367827
-0.638460,-0.156421,0.676666,0.189364,0.317876,0.929030
0.337582,0.633960,-0.052546,0.031422,0.942796,0.331887
-0.371818,0.209832,0.915449,0.612661,0.625238,0.483450
0.613368,0.018660,0.683478,0.961575,-0.098681,0.256194
-0.399546,0.570555,0.571027,-0.046042,0.150386,0.987555
-0.630084,-0.155003,0.441821,0.168452,-0.496596,0.851479
0.287998,0.419752,0.596053,0.536339,0.418205,-0.733107
-0.283559,0.340257,0.639872,-0.153958,0.604312,0.781731
-0.026694,0.094080,0.883672,0.830321,-0.324278,-0.453222
-0.131169,-0.155392,0.242767,0.003309,0.143899,0.989587
-0.597117,0.323990,0.651199,-0.347842,0.292614,0.890720
0.011212,0.389733,0.742120,0.255055,-0.533006,0.806754
-0.096199,-0.302971,0.882912,0.852168,0.501412,-0.149651
0.409724,0.590580,-0.001475,-0.466828,-0.655291,-0.593856
-0.585038,0.291914,-0.004272,-0.267084,-0.720586,-0.639861
0.696520,-0.610816,-0.355795,-0.416329,0.317674,-0.851911
0.580734,0.858411,0.394551,0.005941,-0.144952,0.989421
0.296807,-0.422444,0.835414,0.987141,0.127119,-0.096916
0.543596,0.439564,0.372140,0.911855,0.407653,-0.048363
0.585572,-0.191543,0.332791,-0.244914,-0.055044,0.967981
-0.013781,0.224859,0.888264,0.197723,0.358773,0.912243
-0.389903,-0.122220,0.182649,0.554413,0.796009,0.242889
0.195970,-0.355106,0.578310,-0.457513,-0.356827,-0.814467
0.308519,-0.540749,0.022852,0.026105,-0.008513,0.999623
0.327605,-0.351384,0.347189,0.089036,0.963442,0.252691
-0.208115,0.517819,0.311247,-0.274189,0.647915,0.710652
-0.621609,0.072850,0.830883,0.403249,0.794626,-0.453828
-0.387834,-0.193670,0.582947,0.308125,0.126534,-0.942893
0.254396,0.713066,0.614055,0.595438,-0.652371,-0.468898
-0.037105,-0.081001,0.952593,0.454538,0.515734,0.726233
0.372051,-0.277949,0.538809,0.116296,0.907583,0.403445
0.208382,-0.608548,0.690350,-0.462820,0.286841,0.838761
0.112851,0.312718,0.785133,0.709155,0.703833,0.041462
0.004972,-0.595790,0.797449,-0.302958,-0.173276,0.937119
-0.173179,0.246833,0.946268,-0.483015,-0.554103,0.677987
-0.128433,-0.686980,0.572456,-0.223302,0.012620,0.974668
-0.026628,0.475749,0.799228,-0.374530,0.656788,0.654490
0.400481,0.363116,0.798407,-0.487101,-0.333547,-0.807142
0.856286,-0.680600,-0.322878,-0.342967,0.779448,-0.524246
-0.216957,-0.011819,0.881908,0.802431,0.336538,-0.492795
0.270713,-0.426414,0.041629,-0.241867,0.174833,-0.954429
-0.178417,0.419645,0.688404,0.780352,-0.548894,0.299610
-0.710400,0.217665,0.078393,-0.088591,0.661566,0.744636
-0.096032,-0.504669,0.812699,0.972938,-0.109219,0.203624
-0.256999,0.342347,0.832860,0.890912,0.043911,-0.452049
0.234343,-0.137176,0.798741,0.177950,0.559013,0.809838
-0.490940,-0.325263,0.574676,0.177961,-0.094239,-0.979515
-0.592478,-0.390441,0.455870,0.354854,-0.898005,0.260125
-0.428343,-0.068384,0.572137,0.080068,0.493172,0.866239
0.303647,0.261187,0.840507,0.799287,0.357250,0.483231
0.467817,-0.200723,-0.290173,0.424195,0.611143,0.668253
-0.215922,-0.101203,0.888461,-0.215689,-0.961721,-0.169032
-0.299309,0.342028,0.865001,-0.352959,-0.903127,-0.244503
0.342321,0.425741,0.568640,-0.359919,0.526123,0.770489
-0.104975,0.417200,0.722203,0.818929,-0.064183,-0.570295
0.536288,0.742412,0.485944,-0.342211,-0.311935,0.886334
0.462178,0.603906,0.687993,0.573991,0.800511,0.172387
0.290800,0.647605,0.230375,-0.331123,-0.596500,-0.731126
-0.094364,0.347841,0.799228,-0.746663,0.633968,-0.201444
-0.737495,-0.474331,0.689042,0.148846,0.802091,0.578356
-0.600621,-0.194591,0.419714,-0.360319,0.527462,-0.769386
-0.341252,-0.188531,0.260251,-0.582980,0.080554,-0.808483
-0.333778,-0.174956,0.602332,0.708002,0.316291,-0.631421
-0.249958,-0.391079,0.838211,0.439558,-0.663184,0.605785
-0.765791,0.054562,0.736951,-0.217523,-0.704149,0.675913
-0.098301,0.382077,0.796491,0.896898,-0.393222,0.202362
-0.313357,-0.166841,0.768348,0.845781,-0.397569,-0.355799
0.329741,-0.060303,0.384029,0.557710,0.293997,0.776226
-0.239614,-0.758324,0.483313,0.396758,0.564188,0.724069
0.408122,-0.014584,-0.333597,0.278840,0.259568,0.924593
0.314825,0.527282,0.404525,-0.358880,0.273880,0.892298
-0.078681,0.264022,0.828693,-0.656777,0.548436,0.517554
0.189096,0.741986,0.725958,0.682669,0.570652,0.456420
0.093497,0.215645,0.830381,0.699621,0.152080,0.698142
-0.598752,0.217310,0.055161,-0.188057,-0.804263,-0.563734
-0.252561,-0.360563,0.852443,0.580860,0.563422,-0.587501
-0.249157,-0.434955,0.410971,0.263487,0.073881,0.961830
0.281324,0.019653,0.533807,-0.438964,0.881959,-0.171636
0.131302,0.004412,0.223138,-0.477911,-0.789342,-0.385409
-0.413327,0.526750,0.584224,-0.022817,0.119518,0.992570
-0.423037,-0.650157,0.546001,0.259699,-0.117054,0.958569
0.190697,-0.379525,0.744690,0.832759,-0.494069,-0.249816
0.369015,0.642006,0.266288,-0.269005,0.186408,0.944928
-0.143782,-0.109390,0.801083,0.845993,0.492931,0.203262
0.770830,0.233152,0.402624,0.378961,0.411477,-0.828900
-0.242884,-0.397423,0.885132,-0.158968,0.959033,-0.234488
0.090227,-0.140472,0.925545,-0.105353,0.809594,0.577459
0.150422,0.670075,0.728543,0.650426,0.544877,0.529202
-0.193666,-0.254346,0.875143,0.459839,0.133976,0.877837
0.210751,0.476919,0.518390,-0.010060,0.827953,0.560707
-0.119990,-0.337243,0.017409,-0.091320,-0.071440,0.993256
-0.283159,-0.059311,0.805811,-0.702940,0.666163,0.249205
0.314658,-0.287484,0.800581,0.909624,-0.011803,0.415264
-0.187927,0.039606,-0.977634,0.275403,-0.244420,-0.929738
-0.486436,0.300172,0.798498,0.403560,0.675050,-0.617614
-0.630318,0.222130,0.043819,0.305005,0.740031,0.599437
-0.295372,-0.455440,0.788433,-0.305946,0.797880,0.519407
0.098836,0.707466,0.088823,-0.457648,-0.186147,0.869430
-0.435083,-0.095922,0.782108,0.219636,-0.637737,0.738276
0.449297,-0.613545,0.613538,0.003577,0.963920,0.266167
-0.157496,0.214049,0.455018,-0.599293,0.682059,0.419098
0.383630,0.474261,0.784160,0.471002,-0.343103,0.812673
0.143515,0.563184,0.366362,0.843366,-0.088767,0.529957
-0.236978,0.135405,-0.986119,-0.028004,0.169373,0.985154
0.022056,0.620493,0.477673,0.224834,-0.589880,-0.775559
-0.434449,-0.255090,0.412902,-0.265782,0.949253,0.168165
0.789749,0.717922,0.298414,-0.373618,0.669400,0.642116
0.728687,-0.779801,-0.373554,-0.175750,-0.338600,0.924371
0.438420,-0.010153,-0.447690,-0.243469,0.937618,0.248185
0.192099,-0.004093,0.834061,0.839399,-0.116844,0.530807
0.718910,0.787316,0.463578,0.995184,-0.039153,0.089867
0.560113,0.579310,0.560490,0.285144,-0.770268,-0.570421
0.138444,-0.646790,0.600523,0.420161,-0.142540,-0.896185
-0.302512,0.192076,0.721321,0.413314,-0.629581,0.657874
-0.374019,-0.103932,0.942254,0.537886,0.156249,0.828411
0.395642,0.074764,-0.317708,0.224265,0.125834,0.966370
1.000000,-0.351916,-0.274163,-0.353502,0.781120,-0.514673
-0.666622,-0.100742,0.748202,0.790845,0.030421,-0.611259
0.216524,-0.077988,0.118076,0.414630,0.100526,0.904421
0.122894,-0.103436,0.923568,0.783433,-0.131326,-0.607442
0.431580,0.592564,0.588998,0.018357,-0.605512,0.795624
-0.609730,-0.087204,0.636481,0.730658,-0.681853,0.034860
-0.112650,0.141004,-0.047224,0.911868,0.401172,0.086938
-0.040442,-0.574666,0.532818,0.932035,-0.224112,-0.284753
-0.545797,-0.562155,0.311733,-0.059265,0.136608,0.988851
0.692583,-0.152380,-0.458500,0.974125,0.218688,-0.057060
0.178651,-0.504066,0.754451,-0.278536,-0.881159,-0.382068
-0.656746,-0.219719,0.699564,-0.645608,0.333303,0.687095
0.072174,-0.076571,-0.174195,0.022802,-0.399278,0.916546
0.040742,0.218019,0.868696,0.760377,0.232801,0.606326
0.405987,0.041662,-0.320673,0.280333,0.255550,0.925261
0.241083,-0.003136,0.206900,0.498835,0.811252,0.305013
-0.003403,-0.571405,0.460081,-0.074034,-0.473407,0.877727
0.235077,0.232975,-0.591172,-0.514222,-0.011278,-0.857583
-0.414395,-0.388385,0.466710,-0.093237,-0.683548,0.723926
-0.406386,0.250909,0.843761,0.581514,-0.595693,-0.554068
-0.204177,0.347735,0.919083,0.603575,0.775970,-0.183215
0.369716,0.118570,-0.331788,-0.260800,-0.131236,-0.956431
-0.296006,-0.239283,0.870110,-0.611819,0.561035,0.557600
-0.420901,0.248924,0.811573,0.159773,0.157432,0.974519
0.426274,-0.315801,0.073224,-0.350070,-0.475484,0.807072
-0.682805,-0.203274,0.682991,0.052464,0.387773,0.920260
0.037439,0.345112,-0.995697,0.039077,0.161442,0.986108
-0.067636,0.136079,-0.399964,-0.677855,0.728852,0.096370
0.338750,-0.593308,0.027657,0.074115,-0.091783,0.993017
-0.038773,0.658522,0.433899,0.117231,0.755301,0.644808
0.119123,0.651291,0.247647,-0.208818,0.044815,0.976927
0.528747,0.269976,0.370695,-0.539465,0.626971,0.562036
0.059495,-0.313321,0.874686,0.256896,-0.765179,0.590343
0.562882,-0.259095,-0.295632,-0.093290,0.664683,0.741278
-0.035569,0.273237,0.881437,0.310820,0.343745,0.886132
0.041843,0.600822,0.071886,-0.500701,0.743454,-0.443367
-0.996030,-0.405575,0.456006,-0.091881,0.216119,0.972034
0.535988,0.155890,0.870703,0.851845,-0.371786,-0.368965
0.634122,0.042265,0.780891,0.429200,0.674574,0.600615
0.799994,0.274548,0.667893,0.365033,0.324405,-0.872647
-0.778405,-0.457106,0.668501,0.059720,0.344795,0.936776
0.036271,0.235137,0.431877,-0.377962,0.796959,-0.471170
-0.054990,-0.163757,0.739110,0.154026,0.422261,0.893293
0.459675,0.531357,0.750255,0.963562,0.243715,0.110231
-0.376222,-0.170491,0.853416,-0.427175,0.891155,-0.152854
-0.321900,0.531605,0.567530,0.354942,-0.304495,-0.883911
-0.193099,-0.014974,0.687796,-0.551081,-0.820453,-0.152203
0.514065,-0.584803,0.593012,0.169688,0.271295,0.947420
0.500618,-0.146603,0.527497,0.659912,-0.265264,-0.702959
-0.140378,-0.030922,0.944809,0.013740,-0.530756,0.847413
-0.313791,0.173292,0.923401,0.880326,-0.471581,-0.051360
0.030299,0.308572,0.558574,0.356299,-0.715517,-0.600905
-0.010177,0.487658,0.737681,0.973100,0.156076,0.169460
-0.202709,0.538516,0.557586,0.899601,0.354737,0.254713
0.248857,0.038826,0.616168,0.951044,-0.294131,0.094878
-0.558410,-0.405539,0.671557,-0.010457,-0.469352,0.882949
-0.141279,-0.175807,0.816363,0.901088,0.361754,0.239113
0.699190,0.075614,0.535053,0.231097,-0.007839,0.972899
-0.317128,0.628432,0.559167,0.521599,-0.141943,0.841300
-0.734393,0.086779,0.748856,-0.609681,-0.792547,-0.012544
-0.131502,-0.208059,0.842742,-0.416864,-0.809172,-0.414083
-0.714238,-0.232337,0.681988,-0.346962,0.218276,0.912125
0.222330,-0.342878,0.352800,-0.018572,0.457190,0.889175
0.285895,0.231168,0.596007,0.654741,0.751641,-0.079687
0.034303,0.605713,0.464156,0.029239,0.430202,0.902259
0.619774,0.910901,0.400207,0.643762,0.417460,-0.641325
-0.278521,-0.032092,0.581381,-0.187541,0.651116,0.735443
-0.800828,-0.069341,0.709340,0.044006,-0.151992,0.987402
0.237079,-0.744254,0.002843,0.289026,0.304933,0.907458
-0.321466,-0.345076,0.843715,-0.289739,0.142721,-0.946405
-0.378023,-0.155074,0.860805,0.618449,0.529421,0.580718
-0.172278,0.631586,-0.003345,-0.272186,0.326112,0.905299
-0.190196,-0.245414,0.250703,0.216947,-0.014148,-0.976081
-0.630819,-0.270649,0.322239,-0.533883,0.085861,-0.841188
0.543862,0.065904,0.361481,-0.134070,-0.399430,0.906907
0.532818,-0.150395,0.326116,-0.393041,0.047366,0.918300
-0.372885,-0.307401,0.875249,0.873992,-0.061819,0.481992
0.002436,0.198101,0.442064,-0.245301,0.911185,-0.331011
0.442991,-0.335294,0.535935,0.695705,0.479036,0.535274
0.182355,0.313640,0.246051,0.855291,-0.505143,0.115358
0.404985,-0.106448,0.672409,0.257176,0.650819,-0.714349
0.224466,0.074729,0.667331,0.642402,-0.189000,0.742697
-0.047081,0.015718,0.916893,-0.456507,-0.157225,-0.875718
-0.563982,-0.162694,0.789710,0.752249,0.524870,0.398288
-0.726851,-0.488791,0.658953,-0.157145,-0.987167,0.028417
-0.129901,0.064309,-0.021453,0.836466,0.355803,-0.416809
-0.247523,-0.026422,0.576774,0.023272,0.827290,0.561292
-0.237078,0.139516,0.850542,-0.322463,0.871278,-0.369990
0.330275,0.765449,0.513022,0.262268,-0.935594,0.236387
0.180353,-0.154187,0.782229,-0.228769,0.517616,0.824463
-0.454436,0.562298,0.562011,-0.222163,0.393087,0.892259
0.054690,0.649094,0.439768,0.801358,-0.375960,-0.465273
0.611732,0.536709,0.625063,-0.847262,0.334515,0.412610
-0.065168,0.442080,0.081784,-0.128634,0.386427,0.913306
0.316961,0.510022,0.003786,-0.491458,0.602814,0.628557
0.278955,-0.254877,0.806328,0.925591,0.377036,-0.033538
-0.229904,-0.145540,0.497332,0.656631,0.104042,-0.747002
-0.028630,0.012636,0.739125,0.868691,-0.477985,0.130025
0.445327,-0.492477,0.353545,-0.560396,-0.357581,-0.747055
0.191031,0.716079,0.608566,-0.712900,0.613081,0.340450
-0.349294,-0.271570,0.860197,0.840279,-0.521797,-0.147170
0.527679,-0.239992,0.557221,-0.026667,-0.128770,0.991316
0.362007,-0.182364,0.292287,-0.007663,0.367344,0.930053
0.504055,0.085290,-0.514512,0.736202,0.360485,0.572762
0.092162,0.537878,0.455672,0.576371,0.713636,0.398146
0.144082,0.775833,0.738365,0.655213,0.692943,0.300877
-0.135706,0.085007,-0.293868,0.917251,-0.397721,0.021635
-0.042510,0.204977,0.886850,0.129076,0.225051,0.965760
0.038807,0.260549,-0.985845,0.076667,0.228469,0.970528
0.514566,-0.567471,0.528075,0.254838,0.118206,0.959732
0.176182,0.616346,0.594593,0.772575,-0.078663,-0.630032
0.635290,-0.317999,0.335406,-0.288857,0.272500,0.917772
0.473923,-0.417802,-0.252528,-0.325489,0.310700,-0.893041
0.655478,-0.405291,-0.285430,-0.054301,-0.817027,0.574036
-0.229103,0.321686,-0.996579,0.040742,0.192068,0.980536
0.223598,-0.708316,0.025239,-0.527868,-0.820692,0.218676
-0.405652,-0.391610,0.839914,0.692415,0.701447,-0.168922
-0.794521,-0.455866,0.674887,0.154974,0.706618,0.690416
0.420234,-0.198383,0.734974,0.762728,0.175144,0.622552
0.634223,-0.237475,0.545119,0.341424,-0.511259,0.788697
0.305349,-0.520830,0.703927,-0.348765,0.768444,-0.536523
-0.609964,0.018696,0.716243,0.371566,-0.324483,0.869856
0.473857,0.395793,0.569826,-0.151825,0.825726,-0.543254
-0.405452,0.327782,0.889526,0.433345,0.747402,0.503589
-0.587374,-0.108362,0.294142,0.136879,0.465228,0.874544
-0.213854,0.522461,0.580514,-0.652137,-0.465508,-0.598347
0.608829,0.796637,0.492725,0.723618,-0.383762,-0.573676
-0.545531,-0.451152,0.545955,0.150341,0.374115,0.915115
0.149021,0.181089,0.172371,0.801103,0.569241,-0.184927
-0.193901,0.410112,0.866111,-0.263291,0.682598,0.681716
-0.103073,0.134980,-0.017683,-0.320658,-0.084223,0.943443
0.003538,0.692616,0.040322,0.976367,-0.214924,-0.022685
0.129101,-0.779057,0.742987,0.829730,0.427320,0.359090
0.596784,-0.303432,0.739460,-0.334203,-0.470362,0.816742
0.491408,-0.349684,0.705128,0.447873,0.043436,-0.893041
0.207014,0.254523,0.063752,0.498479,-0.279967,-0.820450
-0.521239,-0.081355,0.794651,-0.520463,0.840423,-0.151021
-0.139945,0.144548,-0.006127,-0.269209,-0.043579,0.962095
0.190263,0.483086,0.069681,0.138130,0.514311,0.846407
0.691582,0.138878,0.680148,0.746622,0.275870,0.605352
-0.271814,-0.037586,0.846923,0.430515,0.887938,-0.161934
0.030098,-0.178253,0.436195,-0.438829,-0.032503,0.897983
-0.190463,-0.068065,-0.976388,0.311198,0.066119,-0.948042
-0.080250,-0.031205,0.933846,-0.421426,-0.375450,-0.825492
0.183323,-0.278375,0.854374,-0.457231,0.165884,-0.873740
0.422470,-0.413089,0.694272,0.253616,-0.183225,-0.949793
0.325637,-0.252645,0.045035,-0.177225,-0.400405,0.899037
0.133772,-0.660116,0.757431,0.190679,-0.591020,-0.783796
0.195269,-0.338484,0.443113,0.038679,-0.554700,0.831151
-0.467683,0.206890,0.849782,0.741667,-0.615821,-0.265883
0.398646,0.502969,0.634900,0.688437,0.391251,-0.610719
-0.715673,-0.320408,0.491934,-0.252259,-0.542213,0.801480
-0.422871,-0.370558,0.435101,-0.742267,-0.062389,0.667194
-0.438719,-0.272775,0.269556,-0.098599,0.368496,0.924385
-0.570656,-0.249561,0.560369,-0.573408,-0.081473,0.815209
0.250359,-0.266396,0.505055,-0.298451,0.735118,0.608710
0.093330,0.152593,-0.536011,0.386663,0.054794,0.920592
-0.391304,0.179990,0.193383,-0.077705,-0.839513,0.537755
0.177650,-0.208768,0.814493,0.733492,-0.679590,0.012103
0.495779,-0.654906,0.538900,0.351602,0.219961,0.909941
-0.170877,0.338059,-0.998449,0.005962,0.196413,0.980503
-0.215156,0.001613,0.937510,0.848797,0.345497,-0.400220
0.067904,-0.517499,0.404570,0.910210,0.091521,-0.403907
-0.545497,-0.051798,0.822946,0.061372,0.450390,0.890720
-0.040375,0.224930,0.886698,0.099735,0.174967,0.979510
0.017185,0.192926,0.899667,0.087770,0.513564,0.853551
0.246855,-0.433608,0.655243,0.009535,0.184989,-0.982694
-0.437085,0.458384,0.778702,0.965873,0.148203,0.212428
0.478462,-0.414683,0.556598,0.012477,0.555484,0.831433
0.605092,-0.435026,0.588892,-0.675081,0.421641,0.605379
0.402350,0.810211,0.419288,-0.794747,-0.399625,-0.456812
-0.293970,-0.223654,0.867981,-0.621775,0.537869,0.569291
0.186226,0.414046,0.105031,0.030827,0.621030,0.783180
0.390937,0.249207,0.832905,0.425865,0.633446,0.646054
0.539291,0.218232,0.781575,0.160560,-0.001401,-0.987025
0.682472,-0.271429,0.362044,0.715445,0.194780,-0.670968
0.532818,0.847708,0.508689,-0.191784,-0.085977,0.977664
0.117555,-0.159894,0.938727,-0.158356,-0.908495,0.386731
0.103307,0.343801,0.771282,0.451151,0.875952,0.170794
-0.194468,0.182932,-0.994770,0.092343,-0.106581,-0.990007
-0.274417,-0.406992,0.808654,0.800139,-0.598748,-0.035755
0.009110,-0.160355,0.906205,0.712339,-0.701228,0.029195
-0.172211,0.224186,0.628985,0.279016,-0.833309,0.477227
0.653743,0.668197,0.462468,0.596001,-0.383614,0.705424
-0.088791,0.140898,-0.016132,0.288056,0.036311,-0.956925
-0.017885,0.191651,0.892658,0.040201,0.331771,0.942503
-0.837799,-0.399868,0.634748,-0.322532,0.852324,0.411723
-0.389269,0.714022,0.559669,0.077433,0.253451,0.964244
0.097735,-0.351597,0.505283,0.863489,-0.368892,-0.343956
-0.447029,0.779661,0.549041,0.315754,0.350518,0.881724
0.312023,0.013203,0.804564,-0.406980,0.661356,0.630060
0.214755,-0.334089,-0.382692,0.795279,0.366441,0.482961
0.280524,-0.133207,0.780237,0.643035,0.556698,0.525921
-0.324368,-0.457390,0.535616,-0.074835,0.583766,0.808466
-0.420467,0.303255,0.925697,0.858877,0.346453,0.377228
0.130568,-0.705304,0.792325,-0.761136,0.530176,-0.373611
0.677601,0.449452,0.450046,0.025357,-0.111651,0.993424
-0.654776,-0.440448,0.670265,0.685980,-0.367699,0.627877
-0.241216,0.072496,0.653601,-0.237649,-0.867385,-0.437226
0.137809,-0.757154,0.744507,0.959762,0.107819,0.259290
0.362976,0.495419,0.041857,0.876796,-0.375321,-0.300603
0.086089,-0.288866,0.678673,-0.541660,-0.422997,-0.726414
0.267777,-0.367758,0.550638,-0.383416,0.483913,0.786652
0.011345,0.543018,0.398838,0.469977,0.033407,-0.882046
-0.044846,-0.305346,0.883459,0.585427,0.238294,-0.774914
0.438787,0.693006,0.344939,-0.259994,-0.846887,-0.463882
0.687811,0.020752,0.550516,0.197860,0.090990,0.975998
-0.093529,0.455370,0.698499,0.729706,0.053483,-0.681666
0.070172,0.341533,-0.023962,0.350809,-0.354192,-0.866880
-0.402449,-0.252006,0.827447,-0.297521,0.762325,-0.574754
0.347059,-0.685669,0.735005,-0.400293,0.107290,-0.910085
0.287364,-0.262320,0.829104,0.968856,0.045125,0.243479
-0.034936,-0.025287,0.282510,0.782394,0.462464,-0.417117
0.081718,0.264908,0.442034,0.015944,-0.088479,0.995950
-0.568788,-0.081178,0.272506,-0.119350,-0.606780,-0.785858
0.174047,0.718594,0.809749,-0.426038,0.685091,-0.590882
-0.682606,-0.550034,0.571620,-0.563018,0.715176,0.414167
0.381361,0.697330,0.265117,0.755472,0.633160,0.168434
-0.629350,0.077245,0.652932,0.839582,-0.225177,0.494366
-0.837832,0.111341,0.748932,-0.673824,0.728236,-0.125039
0.092863,0.387075,0.111812,-0.100950,0.376247,0.921003
-0.111749,0.510058,0.798255,0.937480,0.347384,-0.021333
0.153225,-0.527706,0.767223,0.683526,0.269105,0.678509
0.047249,-0.279438,0.873029,0.832264,0.318230,0.453946
-0.160633,-0.137318,0.572547,0.681139,-0.122229,0.721879
-0.086789,0.476458,0.814173,0.590859,0.806071,-0.033701
-0.181621,0.630736,-0.012893,-0.530380,0.328046,0.781718
0.285628,0.019582,0.559471,-0.531605,0.789083,-0.307804
-0.454002,0.343376,0.635341,0.862704,-0.046053,0.503607
0.084788,0.164928,0.861656,-0.770587,-0.365265,-0.522281
0.390470,-0.562722,0.526372,-0.159405,-0.330652,0.930193
-0.339784,0.255800,0.796156,0.965407,0.242124,0.096770
0.339652,0.492513,0.411808,-0.013520,-0.954124,0.299105
-0.434282,0.183570,0.055404,-0.197406,-0.698592,-0.687750
-0.033668,0.681878,-0.136139,0.732459,0.248700,0.633760
0.040142,0.331928,0.578082,0.398761,-0.501325,-0.767896
0.506224,0.031278,0.078074,-0.607516,-0.423793,-0.671807
-0.301311,0.260974,0.872801,0.125855,-0.980264,0.152460
0.470152,0.437827,0.413921,0.154508,0.085040,0.984325
-0.083086,-0.198029,0.725350,0.242718,0.327869,0.913012
-0.157930,-0.309705,0.011616,0.330772,0.349197,0.876728
-0.234409,0.072141,0.923857,0.668443,0.638051,-0.382198
0.016284,-0.379738,0.259704,-0.128666,0.305356,0.943506
-0.084554,0.327923,0.386797,0.730866,-0.445227,-0.517308
0.062498,0.048963,0.716471,-0.486693,0.723048,-0.490237
0.266443,0.170705,0.817458,-0.310240,0.576155,0.756172
0.601655,0.766335,0.500707,-0.170630,-0.182919,0.968208
-0.305582,0.273343,0.887169,0.444628,0.305421,-0.842036
-0.559779,-0.377045,0.673093,0.328290,-0.281044,0.901798
-0.371450,-0.386081,0.285840,0.440076,0.187396,0.878189
-0.157562,0.293368,0.658649,0.159006,0.561500,-0.812056
0.390504,-0.729545,0.726840,0.800409,-0.508425,-0.317568
-0.170143,-0.054774,0.930760,-0.056531,-0.903430,0.424993
-0.070507,-0.363789,0.384440,-0.298543,-0.267607,-0.916110
0.339417,0.145045,0.824269,-0.211831,-0.196032,-0.957444
-0.057326,0.404051,0.750696,0.442316,-0.895710,0.045379
0.104575,-0.052754,0.966505,-0.252650,-0.075396,-0.964616
-0.100504,0.071645,0.081404,0.431427,-0.901638,0.030326
0.548334,-0.128280,0.547050,0.812807,-0.081649,-0.576783
0.351230,-0.174992,0.648325,0.582047,0.142428,-0.800585
-0.002736,0.494463,0.735871,0.905102,0.410840,-0.109547
-0.767593,0.048396,0.711408,0.233680,-0.953863,0.188517
0.098435,0.350393,0.827629,0.181883,0.925313,-0.332739
-0.047682,0.408447,0.524000,-0.323667,0.938111,-0.123236
0.219494,0.452641,0.524745,0.082904,0.611042,0.787245
0.015183,0.503465,0.331119,-0.233193,0.972294,-0.016316
0.457406,0.302511,0.519028,-0.817998,0.567434,0.094332
0.559446,0.402988,0.403795,-0.675906,-0.498920,-0.542430
-0.724549,-0.071645,0.701236,-0.374580,0.254816,-0.891492
0.339684,-0.826371,0.706771,0.873125,-0.147119,-0.464767
-0.164370,-0.322074,0.011510,0.333205,0.327597,0.884112
-0.008442,0.502933,0.830807,0.203120,0.972484,-0.114091
0.052921,0.537311,-0.212449,0.765551,0.150711,0.625474
0.362441,-0.328241,0.519864,0.116296,0.907583,0.403445
0.515266,-0.147383,0.541196,0.757716,-0.052194,-0.650494
0.132938,-0.223937,0.660382,-0.464083,0.735374,0.493814
-0.275918,-0.447041,0.832981,0.846719,-0.441086,-0.297506
0.038540,0.456540,0.815922,-0.611107,-0.787182,-0.083023
-0.309053,0.511793,-0.047924,0.025782,0.335066,0.941842
-0.719744,-0.385444,0.621155,0.180584,-0.073913,-0.980778
0.491141,-0.597348,0.590336,-0.760109,0.596868,-0.256872
0.473523,-0.283265,-0.540816,-0.713075,0.439631,-0.546121
0.342420,-0.067037,-0.302823,0.507515,-0.740687,-0.440240
0.340151,-0.810777,0.741771,0.173217,0.454399,-0.873795
0.117989,-0.348407,0.499035,-0.597424,0.709283,0.374168
0.464647,0.363081,0.774916,0.763774,0.287996,0.577674
-0.065767,0.491733,0.350504,-0.159942,0.559507,0.813247
0.083119,-0.254629,0.455900,-0.598869,0.361176,0.714778
-0.806633,-0.421594,0.719329,0.722205,-0.383240,0.575801
0.396310,0.614928,0.730869,0.415945,0.282140,-0.864515
-0.065468,0.052755,-0.881437,-0.516850,-0.856000,-0.011438
0.009410,0.341568,0.787824,-0.063485,0.728633,0.681956
0.632821,-0.102266,0.505283,0.453278,0.609939,-0.650011
-0.021456,0.113182,-0.009548,0.936109,-0.277821,-0.215676
0.473957,0.495100,0.628134,0.610037,0.780119,0.138812
0.360839,-0.567400,0.653920,0.001568,0.851776,0.523904
0.120725,0.114211,0.912271,-0.449357,-0.061199,0.891254
-0.007608,0.030215,0.776224,0.819773,-0.353439,-0.450614
0.191632,0.762755,0.710860,-0.433262,-0.880645,-0.191697
0.169442,0.111977,0.196713,0.374085,0.670109,0.641104
0.197638,-0.412202,0.803485,0.663184,0.550035,-0.507591
0.249425,-0.488614,-0.399340,0.008901,-0.214689,0.976642
0.734693,0.285110,0.659348,-0.314106,-0.236941,0.919346
0.747339,-0.062005,0.534871,0.865708,-0.118179,-0.486399
-0.468451,0.742022,0.568518,0.106897,0.252936,0.961559
0.050185,0.018022,0.579617,0.810277,0.583822,0.051019
0.183523,0.821021,0.358410,0.707044,0.586109,0.395682
0.392439,0.102515,0.812501,-0.514949,-0.588125,-0.623648
0.319931,-0.514096,0.733910,-0.431970,-0.154717,-0.888518
0.164737,-0.170350,0.835140,0.946321,0.107052,0.304986
0.287831,0.457001,0.550410,-0.543542,0.571124,0.615125
-0.345824,0.010474,0.850679,-0.754233,0.417760,0.506565
0.111850,0.694211,0.365374,0.847717,-0.075346,0.525070
0.132604,0.651044,0.055815,0.956684,-0.144549,0.252710
-0.627816,-0.375555,0.299387,0.519088,0.041752,0.853701
-0.050986,0.080364,0.894482,-0.202500,0.785736,0.584476
-0.539991,0.200794,0.686564,0.776903,0.396898,-0.488768
0.534386,-0.572468,-0.318894,0.512569,-0.529273,0.676124
-0.256231,-0.105421,0.901400,-0.102488,-0.736334,-0.668811
-0.340918,0.231062,0.867784,0.818724,0.430795,-0.379614
0.283159,0.630983,-0.026166,-0.157348,0.956650,0.245077
0.440522,0.031597,-0.520777,0.777573,0.150251,0.610577
0.116021,0.484574,0.683341,-0.377101,0.897137,0.230089
0.078815,-0.307225,0.475498,0.945407,0.202424,-0.255404
0.627382,0.577325,0.630399,-0.726364,0.168532,0.666327
0.341387,-0.232195,0.640799,0.769819,0.178765,-0.612717
-0.068370,-0.045347,-0.551048,-0.125796,-0.989443,0.071965
-0.234108,0.169216,0.834927,-0.372196,-0.927028,0.045705
-0.205212,0.310414,0.208572,-0.027067,0.418597,0.907769
0.243586,0.268630,0.699685,-0.037893,-0.204748,0.978081
0.433648,-0.703638,0.549543,0.471332,0.539796,0.697472
0.427542,0.177793,0.630339,-0.513460,0.605480,0.608073
-0.487604,0.082101,0.960195,0.485035,0.556956,0.674197
0.394041,0.511616,0.053808,-0.401646,0.844025,0.355390
0.009544,-0.300739,0.723495,0.466710,0.233538,0.853019
0.547366,0.091564,0.766447,0.096410,-0.185945,0.977819
0.593614,0.157911,0.730139,0.926110,0.071695,0.370378
0.501185,0.931846,-0.003239,0.100354,-0.296398,-0.949778
0.238213,-0.417341,0.536148,-0.110292,0.369947,0.922483
-0.401047,0.407206,0.626690,0.258517,-0.962653,-0.080424
-0.273950,-0.342064,0.906083,-0.664930,0.740949,0.094141
0.333178,0.540608,0.054446,-0.038179,0.986979,0.156254
-0.034035,0.614857,0.434766,-0.338574,-0.338025,-0.878127
-0.014081,0.439953,0.843366,-0.092459,-0.671104,0.735575
-0.046281,-0.487692,0.273434,-0.108419,0.254066,0.961091
-0.336948,-0.130123,0.837269,0.336612,0.656881,0.674684
-0.521271,-0.362584,0.278010,0.270037,0.142293,0.952278
-0.500850,-0.020573,0.572350,0.484251,-0.058038,0.873002
0.488772,0.641190,0.290234,-0.177196,0.888772,0.422713
-0.408455,-0.167478,0.341184,-0.849303,0.095263,-0.519239
-0.105809,-0.083801,-0.168722,0.392150,0.454667,-0.799685
0.046581,-0.423118,0.777334,-0.288680,-0.852299,0.436177
0.058427,-0.232372,0.902085,0.781197,0.175468,0.599118
0.626914,0.755490,0.042177,0.041792,0.491135,0.870081
0.331743,-0.248320,0.314394,0.580135,-0.567365,-0.584414
0.177217,0.080790,-0.566678,-0.655470,0.048231,-0.753680
-0.204845,-0.296521,0.416019,0.791178,0.046851,0.609789
-0.042311,-0.611419,0.586626,-0.520204,0.353134,0.777614
-0.373419,-0.055093,0.568852,0.288540,-0.743023,-0.603873
-0.515900,-0.269019,0.592176,0.407168,0.349823,-0.843705
0.129534,0.329376,0.441167,-0.073580,0.302219,0.950394
-0.053021,-0.282132,0.945417,-0.750038,-0.647852,-0.133158
-0.325470,0.256580,0.850542,0.114837,-0.783194,0.611081
0.027562,0.099999,0.128096,0.157391,0.925723,-0.343898
0.230772,-0.042441,0.234754,0.277903,0.949280,0.147096
-0.354400,-0.109532,0.304253,0.558213,-0.798621,0.224952
-0.297240,-0.109036,0.895516,-0.194838,-0.689615,-0.697473
-0.023458,0.330262,0.115020,0.512588,-0.639737,-0.572704
0.194402,-0.154826,0.412781,-0.731101,-0.537399,-0.420349
-0.186359,-0.017667,-0.973833,-0.303677,-0.005069,0.952761
-0.435684,0.177722,0.841982,-0.566359,-0.204542,-0.798374
0.233541,0.105173,0.053124,-0.232210,0.434409,0.870269
-0.144216,0.518492,0.707333,0.453627,0.607200,-0.652327
-0.598385,0.146037,0.621794,-0.587706,0.202273,-0.783382
0.296607,-0.025110,0.403719,-0.496815,-0.331379,-0.802099
-0.272314,-0.261256,0.838211,0.789769,0.504075,-0.349534
0.512063,-0.393666,-0.237156,-0.350275,0.464380,-0.813424
0.367046,0.531499,0.022457,0.832244,-0.541638,-0.118318
0.013848,-0.200332,0.742136,0.059340,0.455841,0.888081
-0.042177,-0.477982,0.401834,0.306597,0.314006,0.898554
0.294705,0.201610,0.877210,0.674448,0.361300,0.643881
0.538790,0.760558,0.462240,0.862196,0.170061,-0.477176
-0.335213,0.527601,-0.037098,0.025782,0.335066,0.941842
-0.441857,0.134058,0.551748,0.781495,-0.158271,0.603503
0.286763,0.022382,-0.332426,-0.502720,0.854881,-0.128260
0.409056,0.379065,0.785346,-0.136883,-0.887022,-0.440970
0.095799,0.228226,0.329279,-0.785076,-0.018041,-0.619137
-0.085621,-0.331963,0.892156,0.760758,0.281855,-0.584641
-0.458541,-0.029717,0.349075,0.385170,-0.107202,0.916598
0.302980,-0.252006,0.322057,-0.100184,-0.490161,-0.865855
-0.941740,-0.457106,0.458348,-0.122877,0.411886,0.902913
0.287898,0.296132,0.834152,0.667784,-0.179774,0.722320
0.541594,0.765307,0.410090,0.549895,0.450038,0.703620
-0.091961,-0.509382,0.808852,0.905839,-0.124094,0.405038
-0.095232,0.167444,0.924344,-0.657712,-0.734914,-0.165275
-0.589576,-0.161312,0.627815,0.615462,0.587020,0.525942
-0.399847,-0.345785,0.818583,0.158638,0.545123,0.823210
0.196470,0.447078,0.740326,0.106631,0.815824,0.568385
-0.951917,-0.469157,0.468215,-0.097412,0.387627,0.916655
0.064801,0.191579,0.413115,0.512286,0.706476,-0.488319
0.302113,0.265368,0.868513,0.880982,0.307403,0.359686
0.291902,-0.329127,0.809430,-0.934635,0.341424,-0.099431
-0.411725,-0.117648,0.582263,-0.075920,0.254968,0.963964
0.228403,-0.275575,0.861656,-0.712211,0.573949,-0.404151
0.763422,-0.329057,-0.317055,0.982839,0.114450,-0.144669
-0.274417,0.168720,0.040884,-0.150579,0.945581,0.288450
0.121993,0.085857,0.903879,0.555946,0.358296,-0.750032
-0.338550,0.305914,0.873698,0.869669,-0.107181,-0.481860
0.606493,0.477415,0.306032,0.653151,-0.752588,0.083690
0.601989,0.902607,0.397789,-0.649000,0.412205,0.639441
0.412594,-0.488720,-0.396391,-0.343726,-0.533904,0.772527
0.642197,0.123213,0.539174,-0.222208,0.191822,-0.955943
0.215523,0.631338,0.383938,-0.241032,-0.442136,-0.863955
0.085656,-0.490634,-0.276505,-0.198445,-0.623267,0.756411
-0.201274,0.021566,0.682428,0.881025,0.408427,0.238710
-0.011946,-0.092980,0.934667,0.802637,0.401063,0.441500
0.292135,-0.714553,0.739733,-0.278497,-0.066514,-0.958131
0.207882,-0.695805,0.042906,-0.510438,-0.059265,0.857870
0.075011,0.531216,0.527588,0.830049,-0.496133,-0.254698
-0.102072,0.067711,-0.294902,0.998580,-0.020352,0.049229
0.495212,0.089898,0.544070,-0.257249,-0.398595,0.880310
0.047249,0.329589,0.814113,-0.108705,0.985895,0.127259
0.556109,0.831016,0.268492,0.950741,0.019122,-0.309397
-0.690614,-0.516010,0.654255,0.908402,0.329357,0.257545
0.040342,0.030923,0.584194,0.959149,0.210662,0.188823
-0.566853,-0.473764,0.571635,0.277223,0.597485,0.752435
0.489974,-0.168435,0.529793,0.992140,0.088020,0.088943
0.029163,-0.169463,0.872938,0.863892,0.476050,0.164519
-0.330809,0.061544,0.517599,0.538868,0.564121,0.625611
-0.493443,-0.311406,0.417540,-0.193057,0.750705,0.631799
0.211619,0.310734,0.428836,0.321654,-0.500381,-0.803839
0.372919,0.776861,0.515881,-0.550133,0.675389,-0.491125
-0.431412,0.295883,0.779629,0.848874,0.334154,0.409578
-0.398311,-0.174461,0.824664,-0.671010,0.616881,0.411343
0.399379,0.018732,-0.315595,0.290440,0.365710,0.884252
0.041877,-0.239390,0.907528,0.515096,0.008712,0.857088
0.531350,-0.312753,0.711514,-0.437350,0.101192,0.893580
0.344790,0.011040,0.311079,-0.252714,0.248289,0.935141
0.196804,0.060481,0.826839,-0.305093,0.430391,0.849519
0.419701,-0.328170,0.572015,0.703906,0.679202,0.207846
-0.001801,-0.150537,0.713019,0.255481,0.439609,0.861088
0.610564,0.337528,0.353621,0.639736,0.701050,0.315066
-0.214889,-0.307225,0.763938,0.077751,0.836759,0.542024
0.463145,0.115239,0.822733,0.743293,-0.468730,-0.477293
-0.127198,0.379881,0.540801,-0.360257,-0.610795,-0.705085
0.473823,-0.509490,0.669368,-0.130735,0.655084,0.744160
-0.125629,0.455477,0.676544,-0.738304,0.565499,0.367584
0.301779,0.543974,0.632969,-0.262039,0.785463,-0.560700
0.537756,0.439492,0.633349,0.223782,0.737908,0.636721
-0.733658,-0.706615,0.621855,0.130825,-0.965726,0.224183
-0.223231,-0.042689,-0.985100,-0.297604,-0.042165,0.953758
0.124962,-0.267317,0.886987,-0.576223,0.802869,0.152865
-0.101638,-0.291489,-0.087744,-0.760697,0.485498,-0.430850
-0.448297,0.246124,0.846285,0.072012,0.359120,0.930509
0.217925,-0.349187,-0.391084,0.795279,0.366441,0.482961
0.326938,0.646790,0.692859,0.905494,0.226699,0.358731
0.762988,-0.439882,-0.313284,0.621710,0.437743,-0.649505
-0.329573,-0.273484,0.971705,0.483111,0.250195,0.839051
-0.050952,-0.378320,0.896033,-0.276005,0.361416,0.890618
-0.236611,-0.244387,0.059905,0.769460,-0.206358,0.604440
-0.069171,-0.239318,0.044001,0.175908,-0.110718,0.978161
-0.455337,0.466641,0.758678,0.858843,-0.180884,0.479239
-0.445560,0.322925,0.821335,0.014666,-0.562946,0.826363
0.252228,-0.258457,0.786821,0.930338,0.311397,0.193659
0.108946,-0.170987,0.431908,0.702374,0.708665,0.066815
0.365979,0.038118,0.330221,0.846218,0.191661,-0.497174
0.473489,0.042087,0.877697,-0.510249,0.376382,0.773293
0.102806,-0.494604,0.411960,0.748508,0.140930,-0.647977
-0.480996,0.320126,-0.013851,-0.087736,0.692951,0.715627
-0.298141,0.125800,0.176096,-0.104821,-0.060908,0.992624
-0.243085,-0.032942,-0.103252,0.002428,0.130903,0.991392
-0.291568,-0.111729,0.935686,0.590221,0.550844,0.590094
0.046816,0.205260,0.610801,0.957719,-0.123315,-0.259936
0.139344,-0.093583,0.962886,-0.255797,-0.116822,0.959646
-0.097234,0.720579,0.341929,0.809750,-0.466421,-0.356028
0.164370,0.017774,0.916027,0.725544,-0.023492,-0.687775
-0.714372,-0.422835,0.669429,0.070803,-0.422182,0.903742
-0.582669,0.289185,-0.004820,0.138523,0.754948,0.640987
0.217058,0.500382,0.711164,0.137657,0.869851,0.473719
0.169408,0.389839,0.567165,0.137526,-0.094658,0.985965
-0.080417,0.514169,0.452114,0.542599,0.570418,0.616611
0.829324,0.675391,0.339831,0.081030,0.767086,0.636406
-0.135640,0.163155,0.886622,0.114550,0.956247,-0.269202
0.216057,-0.111836,0.601466,-0.575770,-0.811899,0.096478
-0.685708,-0.322748,0.697876,0.180797,0.233485,-0.955404
0.454903,-0.626624,0.690426,0.836892,-0.529508,-0.138683
-0.205312,0.462070,0.558194,0.875254,0.410521,0.255739
-0.090494,0.033510,-0.165073,0.035285,0.752611,0.657519
0.264941,-0.234640,0.857703,-0.871119,0.255018,-0.419664
0.745604,-0.442611,-0.339435,-0.413326,0.213679,-0.885157
-0.119723,-0.745423,0.456463,0.055739,0.830145,0.554754
0.194802,-0.070971,0.795487,0.966660,-0.250692,0.052172
-0.159932,0.257962,0.894011,0.474070,-0.566696,-0.673879
-0.286663,-0.383388,0.054994,-0.568668,0.177361,-0.803218
-0.546598,0.109781,0.101595,0.168823,0.791180,0.587820
0.067937,-0.089719,0.964407,0.069054,-0.225318,0.971835
-0.360673,-0.220145,0.477794,0.360266,-0.067363,-0.930414
0.189296,-0.249525,0.847836,-0.090831,0.234272,0.967918
-0.420467,-0.198489,0.870064,0.932319,-0.157245,0.325662
-0.624479,0.049743,0.607821,-0.160875,-0.832616,0.529971
0.433882,0.647039,0.340971,0.393608,0.800587,0.451811
0.504288,-0.120058,0.714069,0.924966,-0.201248,-0.322391
0.450165,-0.825911,-0.489532,0.161655,-0.728596,0.665595
0.079149,0.700768,0.090116,0.388267,0.108714,-0.915112
0.279656,0.639986,-0.059114,-0.183802,0.977534,-0.103170
-0.250592,-0.333061,0.773274,-0.168524,0.767031,0.619083
0.213420,-0.361875,0.790227,-0.211836,-0.881213,0.422598
0.306750,0.462920,0.840218,0.931654,0.021496,0.362710
0.128967,0.724159,0.383376,0.891379,0.246533,0.380349
0.494678,-0.607343,0.530188,0.028103,0.041724,0.998734
0.406720,0.672769,0.640601,0.866157,-0.340508,0.365822
0.450666,0.126686,0.804747,0.716826,-0.357773,-0.598464
-0.074777,0.474899,0.360615,-0.261142,0.650117,0.713549
0.029330,-0.056511,0.710465,0.312638,0.117948,0.942521
0.538157,0.470788,0.365328,0.907923,0.281281,-0.310736
0.098736,-0.455512,0.411215,-0.384515,-0.228558,0.894376
-0.438954,0.151496,0.633668,-0.524356,-0.632135,-0.570488
-0.510227,0.069448,0.600964,-0.706236,-0.030673,-0.707312
-0.086823,-0.436692,0.385808,0.318704,0.416236,0.851572
0.012847,0.386330,0.737194,0.252412,-0.435059,0.864298
0.441223,-0.578422,0.705828,0.107839,0.739654,0.664291
0.140312,-0.230635,0.359110,-0.179064,0.400377,0.898685
-0.043378,-0.112969,0.307780,0.832420,-0.321408,-0.451414
0.246655,-0.402988,0.814052,-0.473428,0.746540,0.467488
0.631487,0.270295,0.083745,0.821263,-0.059062,0.567484
-0.364810,-0.202530,0.268492,0.330336,-0.051286,0.942469
0.271581,-0.728588,0.005078,0.347401,0.418919,0.838939
0.267343,-0.777037,0.783674,0.214133,0.665621,0.714910
-0.633788,-0.023763,0.783142,0.922171,-0.014014,-0.386529
0.208015,0.642112,0.389229,-0.241032,-0.442136,-0.863955
-0.447129,0.116160,0.573201,-0.663927,0.711209,-0.231048
-0.339718,-0.008417,-0.272004,0.099013,0.746327,0.658174
0.218326,-0.878329,0.017698,0.759548,-0.211151,0.615225
0.748640,0.354752,0.673382,-0.413176,-0.039337,0.909801
0.155327,0.139127,-0.983731,-0.076929,-0.140818,-0.987042
-0.100303,-0.328454,0.875082,-0.129586,0.079925,0.988342
0.536422,0.134838,0.850648,0.802726,-0.334587,-0.493642
0.268711,0.384098,0.568381,-0.719857,0.076200,0.689927
0.073609,0.186688,0.412750,0.512286,0.706476,-0.488319
0.043512,-0.231060,0.470709,-0.745865,0.323583,-0.582219
-0.330775,-0.161346,0.859908,0.537037,0.776142,0.330446
0.238446,-0.371586,-0.387389,0.834425,0.311250,0.454818
-0.108846,0.152593,-0.751942,-0.217833,-0.968279,-0.122412
0.379326,-0.705091,-0.470952,0.130664,-0.700178,0.701910
0.289533,-0.578175,-0.195056,0.307693,-0.704182,0.639885
0.277453,-0.331750,0.352526,0.123861,0.479274,0.868882
0.060630,0.340044,-0.024753,0.342093,-0.353335,-0.870705
0.087624,-0.726533,0.785224,0.353965,0.583385,0.731007
-0.280523,0.249030,0.903286,-0.531600,0.091906,0.841994
-0.588575,-0.227907,0.315413,-0.603810,-0.023631,-0.796778
0.225901,-0.701476,0.724681,0.590168,0.635106,-0.498339
0.342788,-0.787068,-0.470876,-0.103986,0.722352,-0.683662
0.031199,0.181444,-0.440483,-0.102231,-0.994735,-0.007134
-0.139877,0.030249,0.948716,0.680938,0.003467,0.732333
-0.116354,-0.022841,-0.972115,-0.236375,-0.034398,0.971053
0.601755,-0.541315,0.638473,-0.652845,0.750340,0.103842
0.182122,-0.174212,0.103830,-0.258187,0.110774,-0.959723
-0.469285,0.056511,-0.301440,0.049889,-0.987534,-0.149293
0.039908,-0.758997,0.807134,-0.743604,-0.578519,-0.335214
-0.200707,0.029364,0.224309,0.672556,0.147647,0.725169
0.206447,0.360175,0.567134,-0.019401,0.679213,-0.733685
-0.411391,-0.537948,0.551216,0.407940,-0.037281,0.912247
-0.193901,0.069200,-0.994085,0.205265,-0.149964,-0.967149
-0.100003,0.192465,0.955239,-0.608087,-0.734430,0.301402
-0.376155,0.109107,-0.465099,-0.453226,-0.781526,-0.428724
0.565651,0.424395,0.631099,0.076865,0.853198,0.515892
-0.541660,-0.151353,0.748506,-0.367292,0.683937,-0.630338
-0.174781,0.192182,-0.017318,0.663378,0.474953,0.578230
-0.355100,0.573461,0.566785,-0.132603,-0.187663,-0.973242
-0.049151,0.115452,0.079366,0.090921,-0.947401,0.306862
0.099570,0.275683,0.674325,0.758643,-0.433041,0.486760
-0.066302,-0.277524,-0.080142,-0.768257,0.291326,-0.570009
0.696987,-0.507044,-0.331620,-0.221515,0.402238,-0.888333
0.456405,0.464976,0.747533,0.979136,0.089609,0.182380
-0.818546,0.023976,0.715315,0.103285,-0.477623,0.872473
-0.107377,-0.302440,0.751593,-0.343599,-0.374571,-0.861183
-0.516467,-0.284294,0.762099,0.271208,-0.018696,0.962339
-0.541026,-0.309918,0.432835,0.796775,-0.603865,-0.022290
-0.248890,-0.188105,0.894406,0.991170,-0.006072,0.132457
0.353599,0.428222,0.608885,0.219384,0.632559,-0.742792
0.612233,0.847566,0.497104,-0.608680,0.097126,-0.787449
0.131770,-0.038825,0.709340,-0.019316,0.038812,0.999060
0.457639,0.579523,0.079929,0.929772,0.246842,0.273117
0.521706,0.436374,0.679053,0.147595,0.980560,0.129298
-0.689145,0.091989,0.706436,-0.508106,0.850438,-0.136325
0.215256,0.570307,0.410363,-0.673429,-0.365173,-0.642761
0.153759,-0.557157,0.778991,-0.469806,-0.355384,-0.808075
0.277487,0.495066,0.754588,0.136446,0.800965,0.582956
0.677501,0.763712,0.471135,0.536330,0.416509,0.734078
-0.109546,-0.444879,0.403354,0.416438,0.344011,0.841567
-0.124628,-0.028937,0.944748,0.275844,-0.438911,0.855142
0.424205,0.158336,0.707637,0.918028,0.374597,-0.130008
-0.729921,-0.302263,0.662131,0.691807,0.509089,-0.512085
-0.014915,-0.164360,0.913716,0.924073,-0.369292,-0.098546
0.148955,0.622654,0.391115,0.478110,-0.690684,-0.542556
0.280223,0.553295,0.062079,0.069057,0.824766,0.561241
-0.537121,-0.111233,0.592495,0.622761,-0.381491,0.683105
-0.633155,-0.058744,0.679403,-0.816924,-0.158109,0.554650
0.131903,0.549149,0.590762,0.779575,0.060443,-0.623386
