-0.382017,0.542454,0.878724,0.282036,0.293041,-0.913555
0.759377,-0.246528,-0.115711,0.482469,-0.207451,-0.850993
0.074861,0.044909,-0.305452,0.990406,0.132915,-0.037808
-0.044183,-0.015317,0.920708,-0.001208,-0.696401,0.717652
-0.014227,-0.112224,0.411830,-0.301979,0.922411,-0.240764
-0.407109,0.029820,0.806738,0.174950,-0.399204,-0.900016
0.242434,0.288804,-0.647038,0.265271,-0.279916,-0.922648
-0.283201,0.352801,0.651656,-0.862924,0.266722,0.429209
-0.459568,0.256869,0.525213,0.285926,0.375725,0.881520
-0.100420,0.152288,-0.091047,-0.568499,0.411333,-0.712470
0.109421,-0.011154,0.012644,0.837310,-0.520170,-0.168329
-0.094366,-0.147930,0.827163,0.881555,-0.073969,0.466251
0.098143,0.274495,0.955726,0.284840,0.589590,-0.755811
0.226446,-0.464538,0.662919,-0.004978,0.153831,0.988085
0.260385,-0.000878,-0.960515,-0.224525,-0.061409,0.972531
0.481762,-0.281454,-0.951675,-0.084176,0.142951,0.986144
0.536344,0.158011,0.304827,0.790605,0.473766,0.387930
0.089917,-0.094988,-0.267045,-0.596064,0.681537,-0.424518
-0.508304,-0.340640,0.267821,0.386834,0.042945,0.921149
-0.048993,0.021040,0.759549,0.611677,-0.619445,0.492075
-0.026799,0.848330,0.403275,0.289511,0.724133,0.625951
0.152828,-0.003285,-0.955442,0.434537,-0.221449,0.873005
-0.075949,-0.108647,0.763051,0.674302,0.235298,0.699966
0.232863,0.170173,-0.965550,0.031985,0.118224,0.992472
0.166330,0.532177,0.456218,0.473223,0.005362,-0.880926
-0.428320,0.542454,0.865266,0.168323,-0.286590,0.943151
-0.136997,-0.793047,0.642722,0.004437,0.106992,0.994250
-0.132030,-0.389938,0.559284,-0.431432,0.726852,0.534371
-0.083812,-0.274625,0.658357,-0.100387,-0.928183,0.358327
-0.205236,0.422393,0.669884,0.592532,-0.373661,-0.713641
0.525738,0.121459,0.299905,-0.446092,-0.646347,-0.619061
0.779087,0.054925,-0.133220,0.862761,-0.338112,0.375931
0.048011,-0.093753,-0.464111,-0.010089,-0.251394,0.967832
0.343731,-0.237878,-0.956199,-0.163980,0.193379,0.967324
-0.119716,0.265390,0.429510,0.257605,-0.892276,-0.370788
-0.049770,0.117687,-0.459739,-0.038385,-0.113147,0.992836
0.057789,-0.001918,-0.972648,0.048629,-0.426346,0.903252
0.781467,0.273520,-0.193262,-0.209026,0.432150,0.877242
0.387604,-0.153134,-0.956407,0.123757,0.393486,0.910963
-0.200269,0.385581,-0.992485,-0.128408,-0.008361,0.991686
0.099125,0.014927,-0.010676,0.915085,-0.398109,0.064261
0.087122,0.120419,-0.972024,-0.113391,0.042438,0.992644
0.198872,-0.215830,0.802650,0.426067,0.444187,0.788140
-0.580836,-0.405938,0.283967,0.008763,0.723523,0.690245
0.338816,0.036844,-0.640602,-0.051504,0.092364,0.994392
-0.100006,-0.316444,0.629547,-0.730228,-0.563281,-0.386629
0.543586,0.030795,-0.131516,0.527543,0.677840,-0.512085
0.113508,-0.027153,-0.677778,0.751352,0.265948,0.603939
0.702054,0.189750,0.421673,0.469558,-0.881955,-0.040867
-0.042062,-0.200936,0.498789,-0.612736,0.782983,0.107204
0.135702,-0.150532,-0.964906,-0.017910,0.105151,0.994295
0.231361,-0.285162,0.661632,-0.000053,0.050283,0.998735
-0.393140,-0.894377,0.245542,-0.181285,-0.117875,0.976341
-0.450877,0.021885,0.796706,-0.143993,0.311688,0.939211
-0.259456,0.269942,0.503047,0.259812,0.317557,0.911952
0.272751,-0.066502,-0.961045,-0.073347,0.030626,0.996836
0.524238,0.287307,0.276869,-0.283825,0.514887,0.808910
-0.057685,-0.643068,-0.185122,0.275311,-0.093306,-0.956817
-0.816648,-0.715261,0.655271,0.395398,-0.509690,-0.764118
0.013709,-0.283015,0.637157,0.176630,-0.409092,-0.895235
0.389879,0.114240,0.328014,-0.385298,0.602917,0.698596
-0.796420,-0.275015,0.654798,0.034082,0.155655,0.987223
-0.435045,-0.301226,0.869090,0.142056,-0.339428,0.929843
-0.186197,0.436832,0.416809,0.814521,0.111960,0.569228
-0.630245,-0.565932,0.745694,-0.033914,-0.157005,0.987015
-0.812717,-0.280479,0.276245,0.135893,0.031806,-0.990213
-0.785400,-0.492634,0.286182,0.180552,-0.557861,-0.810057
-0.071241,0.160808,0.273481,0.847488,-0.475249,0.236439
0.284598,0.235667,-0.967651,0.010974,0.268406,0.963243
-0.005433,-0.130890,-0.179746,-0.830719,0.206451,-0.516995
0.146152,-0.248805,-0.631156,-0.360951,0.195114,0.911945
0.001604,0.328282,0.941056,0.151706,0.832367,-0.533058
0.515080,0.524439,0.534961,-0.160913,0.051014,0.985649
-0.394692,0.271763,0.476490,0.924416,-0.367620,0.101536
0.379688,-0.085689,0.808385,-0.551029,0.484605,-0.679356
0.289720,-0.341355,0.202972,0.162934,0.080373,0.983358
0.038698,-0.499658,0.618985,-0.226300,0.228141,-0.946963
-0.471002,0.027023,0.640204,0.118927,0.352705,0.928146
0.398830,-0.170953,-0.958092,0.100259,0.039289,0.994185
0.075275,0.154239,-0.971001,0.141049,0.185458,-0.972476
-0.112577,0.355988,-0.983740,0.193136,0.234211,0.952808
0.349941,0.085558,-0.963127,-0.096156,0.059682,0.993575
0.317813,0.137264,0.762275,-0.445184,0.143743,0.883826
0.202287,-0.379662,0.832576,-0.239576,-0.427681,0.871603
0.076879,0.105395,-0.132728,0.543512,0.723480,-0.425642
0.430026,-0.017724,0.796195,0.085963,0.492727,0.865928
-0.057428,0.381158,0.963524,0.915597,0.400501,0.035789
-0.094211,0.195083,0.475790,-0.363550,-0.519282,-0.773419
-0.526153,0.509804,0.495306,-0.554395,0.092658,0.827080
-0.516582,-0.511170,0.772250,0.753348,-0.389194,-0.530090
0.150965,0.087314,-0.968427,-0.460705,0.111656,0.880502
-0.619846,-0.504081,0.292883,0.454599,0.373098,0.808788
-0.236639,-0.429742,0.872497,-0.274856,-0.787936,0.551009
0.151482,-0.017008,-0.833352,0.785783,0.612067,-0.088987
0.115215,0.673636,-0.263430,-0.298337,-0.221055,0.928509
0.100522,-0.294006,0.654306,-0.220739,0.122955,0.967552
-0.121786,0.198660,0.681582,0.566070,0.028490,-0.823865
0.098970,-0.234301,0.861953,-0.340480,0.940204,0.009438
0.004811,0.076713,-0.972970,-0.189855,0.029078,0.981381
0.186042,0.267276,-0.657978,-0.380151,0.276498,-0.882629
-0.065342,0.416994,0.968427,0.585489,0.757471,-0.288859
-0.130478,0.096485,-0.973557,0.088466,0.059059,0.994327
-0.046925,-0.129459,0.825099,-0.620410,-0.585472,0.521837
-0.009623,-0.129134,0.446432,0.026189,0.974641,0.222238
-0.350975,0.371988,0.853473,0.314525,0.628424,-0.711447
-0.060118,0.475594,0.691047,0.146036,0.492021,0.858248
0.194268,-0.276057,0.907988,0.637335,0.754326,0.157472
-0.308810,-0.837078,0.795495,-0.361584,0.251390,0.897809
-0.955611,-0.434685,0.645164,0.225868,-0.488428,0.842865
0.568989,-0.604306,-0.154760,0.173421,-0.155152,-0.972550
0.187283,0.360346,0.481052,-0.309160,0.485382,-0.817817
0.036163,0.016682,0.289570,-0.724356,0.105738,0.681269
-0.376740,0.540243,0.874427,-0.172534,-0.275726,0.945625
-0.392208,0.074047,0.802120,-0.454849,0.307144,0.835928
-0.849449,-0.779649,0.674314,0.702724,-0.471467,-0.532820
-0.104403,-0.025658,-0.472743,0.117073,-0.023498,-0.992845
-0.345439,-0.200806,0.489324,-0.168448,-0.924593,-0.341691
-0.424388,0.059478,0.734753,0.282173,-0.634076,0.719949
0.058875,-0.062860,0.182283,0.858928,-0.305742,-0.410810
-0.336127,-0.561314,0.721049,-0.464991,0.042967,-0.884272
-0.347716,0.322039,0.897729,0.898365,0.137091,-0.417309
-0.053029,0.397613,0.942760,0.844558,0.334036,-0.418499
-0.066119,-0.110728,0.454817,0.115172,0.991387,-0.062346
-0.130996,0.203278,0.913534,-0.241997,-0.599901,0.762598
0.094882,0.047250,-0.117812,0.350574,-0.932907,0.082360
0.457291,-0.143377,-0.957486,-0.262366,0.032138,0.964433
-0.017953,-0.084062,0.324815,-0.656021,-0.730594,-0.189389
-0.457707,-0.189490,0.771872,0.240559,0.944688,0.222926
-0.418905,-0.318787,0.872194,0.069209,-0.172027,0.982658
-0.375136,-0.220513,0.790517,-0.335419,-0.474701,0.813728
-0.083605,0.023641,-0.459985,-0.127353,-0.149594,0.980512
0.471052,-0.311957,-0.170263,-0.226775,-0.159900,0.960731
-0.239382,0.206400,0.495855,0.581473,0.125433,0.803838
-0.258110,-0.929108,0.223964,-0.268591,-0.650348,0.710568
0.208029,-0.231310,0.194624,0.513278,0.607102,-0.606607
-0.348491,0.572826,0.454325,0.356238,0.407732,0.840743
0.744321,0.166727,-0.130305,0.276100,0.711323,0.646365
0.022918,0.121655,-0.135151,-0.283111,-0.676366,0.679983
0.315484,-0.030275,0.625402,-0.274725,0.226068,-0.934569
-0.142584,0.420311,0.984441,-0.498281,0.066216,0.864483
0.221688,0.509219,0.481488,-0.467069,-0.125909,0.875210
-0.040924,-0.100322,0.388643,0.030395,0.963466,0.266101
-0.106939,-0.795389,0.653738,-0.063061,0.017588,0.997855
0.315381,0.761893,-0.090952,0.025193,0.021593,0.999449
0.142791,0.185783,-0.966686,-0.281219,0.153057,0.947359
0.035180,0.242626,-0.978970,0.067854,0.143661,0.987298
-0.084743,-0.203994,-0.466572,0.098108,0.249286,0.963448
0.385173,-0.203148,-0.958054,-0.018124,0.256742,0.966310
-0.026799,0.251016,-0.977948,-0.036368,0.073164,0.996657
-0.382276,0.048486,0.299697,0.090635,0.050113,-0.994623
0.719333,0.228643,0.371058,0.417193,-0.908714,0.013765
-0.244504,-0.595135,0.254458,-0.730178,0.507459,0.457521
0.397434,-0.236057,-0.953757,0.026584,0.236617,0.971239
-0.834652,-0.486065,0.291463,-0.301575,-0.200134,-0.932201
0.195922,-0.167507,-0.968560,-0.225522,0.128774,0.965690
-0.133375,0.382524,-0.985084,0.356550,0.163570,0.919846
-0.016349,-0.056290,0.766212,0.962287,-0.197752,0.186811
0.164208,0.518454,-0.275923,-0.146167,0.039504,0.988471
0.327177,0.392409,0.500322,-0.561398,0.207578,0.801089
-0.291997,-0.608078,0.237403,-0.692609,0.660536,0.289803
-0.065705,0.130240,0.314480,0.989911,-0.131404,0.053001
-0.082571,-0.264869,-0.202972,-0.317718,0.363640,0.875683
-0.338818,-0.744138,0.263657,0.801613,0.141821,-0.580778
0.232604,-0.197034,-0.964641,0.112484,-0.270418,-0.956149
0.252573,0.755975,-0.258982,-0.051327,-0.094166,0.994233
-0.022091,-0.169718,0.510581,-0.326529,0.935838,0.132615
-0.142532,0.293552,-0.977664,0.305563,0.163773,0.937982
0.294997,0.186238,-0.965474,0.005601,0.014518,0.999879
-0.073000,-0.472277,0.770282,0.066063,0.956458,0.284295
-0.399504,0.405418,0.785482,0.999092,0.042606,0.000707
0.238864,0.180514,-0.964471,0.004806,0.125137,0.992128
-0.392933,0.303827,0.821598,0.837641,-0.518449,0.171956
-0.442133,0.008163,0.538141,0.991639,0.047764,-0.119878
-0.797506,-0.649117,0.728128,0.723374,-0.262100,-0.638775
-0.908531,-0.666288,0.635510,-0.412704,0.057336,0.909059
-0.264318,0.168352,0.496347,0.299222,0.112601,0.947516
0.075793,-0.056356,0.671739,-0.667729,0.259762,0.697611
0.408764,-0.176417,-0.182586,-0.669975,0.210281,0.711980
0.208133,0.103834,-0.967007,-0.124011,0.092685,0.987943
0.036370,-0.042243,0.284535,-0.355750,-0.102528,0.928940
-0.523876,-0.645930,0.776642,0.229802,0.141971,-0.962827
0.147498,-0.618549,0.181828,0.009254,0.070556,0.997465
-0.231259,-0.251016,0.460874,0.714973,0.576647,0.395338
-0.267940,-0.327697,0.779122,-0.087383,-0.013275,0.996086
-0.498319,0.179344,0.817111,0.249233,-0.400773,0.881626
0.796988,0.508309,0.280541,-0.169903,0.092173,0.981141
0.023643,-0.063315,0.314670,-0.554529,-0.782843,-0.282231
0.168193,-0.201847,0.801268,-0.915701,0.334127,-0.223274
-0.470227,-0.188904,0.550312,0.106556,-0.340461,0.934201
0.065238,0.744008,-0.277645,-0.157605,-0.131606,0.978693
-0.025972,-0.081331,0.345448,0.848100,0.528271,0.040689
0.787470,0.015121,-0.152394,0.889706,-0.428802,0.156689
-0.200942,0.253423,0.425383,-0.106076,0.941995,0.318423
0.028145,-0.423889,0.293735,0.006008,-0.147504,0.989043
-0.199958,0.231960,-0.983362,-0.545744,-0.010218,0.837890
-0.020487,-0.335892,0.786296,0.938715,-0.017090,-0.344270
0.215064,-0.270918,0.192523,-0.181389,0.029699,0.982963
-0.202080,0.336932,-0.986655,-0.179439,0.117616,0.976713
-0.791712,-0.453416,0.286693,-0.129265,-0.577803,-0.805875
0.227689,0.243212,0.463657,-0.335856,0.409042,0.848460
-0.511615,-0.489513,0.758073,0.803690,0.569429,-0.172723
0.213410,0.593509,-0.090668,0.024735,0.041427,0.998835
-0.582131,-0.453871,0.755783,-0.336445,0.835569,0.434314
-0.600807,-0.021430,0.779709,-0.438691,0.282989,0.852917
0.054478,0.108582,-0.969468,-0.163722,-0.035382,-0.985872
0.151171,0.670190,0.174920,-0.738320,0.352912,0.574750
0.788504,0.180644,-0.172005,-0.226425,0.494722,0.839036
0.067049,0.155215,-0.285936,-0.014129,-0.099769,0.994910
0.027161,-0.008618,-0.971172,-0.132587,-0.138514,0.981445
0.164158,0.004065,-0.692201,0.968284,0.244145,0.053093
-0.031249,-0.115411,0.075866,-0.003711,0.984340,0.176242
-0.167469,0.258690,-0.974674,0.022408,0.145021,0.989175
0.081846,-0.092322,0.470490,0.957402,-0.276866,0.082018
-0.307983,0.371142,0.674598,-0.747258,0.233492,0.622163
-0.363702,0.595590,0.778194,0.039074,0.319491,0.946783
-0.051633,0.042827,-0.970490,0.038059,0.214003,0.976091
0.336644,-0.170043,-0.957941,-0.208626,0.104013,0.972449
0.099538,0.074307,0.922998,-0.386305,-0.517580,-0.763466
0.061202,-0.069234,0.063278,-0.529304,0.843214,0.093953
-0.166434,0.515528,0.423566,-0.699171,0.601529,-0.386422
0.287650,-0.392671,-0.635718,0.278722,-0.285148,0.917063
-0.786642,-0.801632,0.725781,-0.770552,-0.203643,0.603970
-0.001345,0.228188,-0.980049,0.273914,-0.094131,-0.957137
0.820268,-0.395922,-0.089589,0.586873,-0.030419,-0.809107
-0.394485,-0.290104,0.545277,0.084803,-0.525471,0.846575
0.407108,-0.098956,-0.637838,-0.028630,-0.000591,0.999590
0.269025,0.413418,-0.656918,0.127270,0.177130,0.975924
0.146515,0.326916,0.962559,-0.260968,-0.685546,0.679648
-0.380671,-0.868882,0.229169,-0.365151,0.386083,0.847116
0.053754,0.017072,-0.268503,0.963154,0.046819,0.264845
0.579336,0.015967,-0.107420,-0.062679,-0.505671,0.860446
0.465621,-0.060844,-0.184649,-0.086725,0.676185,0.731610
-0.103110,0.040746,-0.973102,0.028970,0.055652,0.998030
0.393657,0.784137,-0.261991,0.091982,-0.156842,0.983331
0.132495,-0.048942,0.492296,-0.575751,0.369892,0.729172
-0.042942,-0.057527,0.771985,0.933959,-0.338756,0.113861
0.180402,0.010764,-0.232311,0.334383,0.919111,-0.208379
-0.218636,-0.253423,0.539996,-0.488979,0.227749,-0.842039
-0.614207,-0.567233,0.632879,0.756541,-0.645490,-0.104823
0.173315,-0.068258,0.297028,-0.157063,-0.045897,0.986521
0.311396,0.243212,0.500549,0.479312,0.049300,-0.876259
0.500542,0.356574,0.822676,0.322646,0.328023,-0.887863
0.289927,-0.137134,0.878024,0.739806,-0.654725,-0.154990
0.562522,0.214009,0.831251,-0.390678,-0.334993,0.857409
-0.376688,0.106826,0.794530,-0.769437,-0.050267,-0.636741
0.005690,-0.048161,-0.975525,0.010665,-0.018199,-0.999778
-0.100056,0.100517,-0.977513,0.048089,0.125338,0.990948
-0.268870,0.410166,-0.994643,0.118168,-0.056643,-0.991377
-0.011123,0.124581,-0.970793,-0.147172,0.051723,0.987758
0.305499,0.207960,-0.967500,-0.115021,-0.074308,0.990580
0.279011,-0.242756,0.193735,0.102201,0.085298,-0.991100
0.099797,0.035804,-0.508480,0.991965,0.114842,-0.053082
0.693258,0.211538,0.388302,0.417193,-0.908714,0.013765
0.007605,-0.306234,-0.077626,-0.721704,0.181248,-0.668051
-0.616690,-0.457579,0.292012,-0.481061,0.069938,-0.873893
0.059600,0.615297,-0.092959,-0.226904,-0.161582,0.960420
-0.078742,0.392995,0.988529,0.202020,0.111305,-0.973036
0.436493,0.714351,0.487034,0.260953,-0.305160,-0.915850
-0.410782,-0.222269,0.682415,-0.238705,-0.924175,0.298194
0.107507,0.246073,-0.286674,-0.038864,0.027171,0.998875
-0.047028,0.433839,0.781639,-0.460181,0.143241,-0.876193
-0.100988,0.328152,-0.984933,0.201571,0.131576,0.970596
-0.016245,0.293812,-0.982321,-0.006616,0.193180,0.981141
-0.280977,-0.552079,0.234431,-0.717270,0.310685,0.623697
0.027781,-0.259146,-0.185766,0.517660,-0.364283,-0.774161
0.187644,0.213359,-0.971645,0.035200,0.143816,0.988978
-0.947644,-0.505512,0.639637,-0.113095,-0.494431,0.861828
-0.365358,-0.356574,0.563146,0.307709,0.429246,0.849154
-0.638057,-0.464212,0.732235,0.631599,-0.191292,-0.751325
-0.048114,-0.052909,0.693735,0.470683,0.807904,-0.354610
0.105023,-0.016422,0.491047,-0.510581,0.251035,0.822368
-0.236535,0.304738,0.477002,0.820997,0.557379,0.123666
0.477624,0.487562,0.523964,0.442708,0.105877,-0.890393
0.236483,-0.444701,0.823301,0.262198,-0.205647,0.942848
0.013606,0.178303,-0.973992,-0.116070,0.132681,0.984339
-0.244504,-0.445156,0.697445,-0.745297,0.437279,-0.503309
-0.255109,-0.872068,0.242476,-0.171890,-0.643429,0.745958
0.512545,0.201781,0.292523,0.725070,0.479117,0.494693
-0.158468,0.330169,-0.977058,0.106657,0.017870,0.994135
-0.032905,-0.155215,0.471493,0.048113,0.920120,0.388669
0.484039,-0.215766,-0.955385,-0.022038,0.023782,0.999474
-0.293497,-0.322753,0.542154,-0.187891,0.953324,0.236370
-0.171142,-0.129069,0.802063,-0.153568,0.233276,0.960208
0.364116,-0.018113,-0.195817,-0.100634,-0.243104,0.964766
0.440529,-0.153588,-0.960023,-0.134078,0.270036,0.953469
-0.581147,0.520796,0.887791,-0.058236,-0.114466,0.991719
0.204770,0.131150,0.750748,-0.741736,0.344419,0.575503
-0.048632,0.327177,-0.985330,-0.161244,0.182747,0.969847
-0.464535,-0.241781,0.781109,0.280786,0.938936,-0.198894
-0.290031,-0.639361,0.232595,0.003559,-0.177070,0.984192
-0.136013,-0.408800,0.303558,0.422680,0.764899,0.486077
0.099074,-0.019219,-0.385785,0.886822,-0.436773,0.150917
0.042371,-0.188970,0.454344,-0.514353,0.563510,0.646450
-0.105696,-0.411076,0.874901,-0.062554,0.993045,0.099744
0.149361,0.242692,-0.973102,-0.139123,0.210492,0.967645
0.214755,0.054469,0.068522,-0.156586,-0.169875,0.972946
0.382792,0.644434,0.195344,0.124930,-0.067035,0.989898
0.206788,0.290755,0.056483,-0.274096,0.187061,0.943334
-0.145170,0.169458,-0.974106,0.101435,0.028967,0.994420
0.099591,-0.029560,0.058471,0.412275,-0.894732,-0.171710
-0.096952,0.324640,-0.984138,-0.138459,-0.132901,-0.981410
-0.410471,-0.792657,0.750956,-0.301337,0.663387,0.684919
-0.901287,-0.721114,0.647889,-0.534110,0.079933,0.841628
0.103058,0.002569,-0.277437,0.864874,-0.499026,0.054471
-0.462517,-0.575753,0.797142,-0.217342,-0.056180,0.974477
-0.073154,-0.019283,-0.973027,0.073727,0.099661,0.992286
0.129598,0.053819,-0.696953,0.694492,0.710235,0.115094
0.493609,0.259731,-0.268522,0.011677,0.299816,0.953926
-0.226551,-0.826477,0.242476,-0.278877,0.325898,0.903337
0.312069,0.449188,0.499394,-0.573537,0.128807,0.808989
-0.037820,0.106370,0.804353,0.724042,0.646652,-0.240011
0.123234,0.063445,-0.671853,0.600685,0.792072,0.108629
0.129546,0.562551,0.191690,-0.706297,0.676366,-0.208983
0.233172,0.719359,-0.259322,-0.001743,-0.053185,0.998583
0.288996,0.185328,-0.966194,0.031868,0.064897,0.997383
-0.532206,-0.027023,0.652943,-0.497517,-0.688191,-0.528081
-0.901185,-0.565282,0.639088,-0.359498,-0.316538,0.877818
0.262403,0.121264,-0.961745,-0.122213,-0.109258,-0.986472
0.082364,-0.114890,0.141170,-0.560206,0.341229,0.754806
-0.211962,0.372769,-0.989343,-0.188812,0.112009,0.975604
-0.452222,-0.154369,0.687696,0.224688,0.884550,-0.408764
0.002586,-0.085689,0.644407,-0.395782,-0.758167,0.518209
-0.801697,-0.184937,0.636400,-0.291586,0.325574,-0.899433
0.051115,0.150597,-0.975222,0.031671,0.025778,0.999166
-0.668115,-0.079640,0.729623,0.897069,0.176098,0.405285
-0.207098,0.396247,0.675052,0.661441,-0.361392,-0.657185
-0.167366,0.435335,0.937706,-0.270886,0.156120,0.949867
0.243623,-0.418360,-0.163070,-0.148290,-0.057715,-0.987258
-0.613586,0.211798,0.830475,-0.485434,0.370380,-0.791942
0.358683,0.456278,0.826140,0.505322,0.351926,-0.787907
0.220290,0.230334,-0.970358,-0.105720,0.154896,0.982258
-0.010296,-0.059218,0.341378,0.849418,0.524219,0.060693
0.527496,0.320348,0.281298,-0.263840,0.474643,0.839704
-0.672668,0.477025,0.879197,-0.358967,0.326386,-0.874423
0.118837,0.054079,-0.789021,0.975321,0.220763,-0.003606
0.135288,0.014016,-0.928734,0.946491,0.316897,0.061084
-0.333076,0.118988,0.811054,0.926885,-0.375317,-0.004744
-0.222722,-0.325420,0.233996,0.192420,0.358611,0.913440
0.168659,-0.094664,-0.474181,-0.453441,-0.070593,0.888486
0.065911,-0.245813,0.829301,0.618610,0.717982,0.319099
0.244865,0.028844,0.503275,0.126782,-0.056496,-0.990320
0.405712,0.145979,0.806246,0.461019,0.223677,-0.858738
-0.095505,-0.571396,0.280011,-0.143623,-0.912904,0.382071
0.487247,-0.155799,-0.957486,-0.057920,0.129140,0.989933
0.362357,-0.189295,-0.959834,-0.171151,0.190707,0.966612
-0.169952,0.314623,0.966913,0.946223,0.312089,-0.085218
-0.523463,0.411857,0.866023,0.017270,-0.416458,0.908991
0.169848,-0.280739,0.219515,-0.066500,0.182557,0.980944
0.429924,-0.254788,-0.166723,-0.010923,-0.162607,0.986630
0.561694,-0.301616,-0.948609,0.197940,0.186612,-0.962287
-0.109266,0.365744,0.444785,0.707429,0.314056,-0.633178
0.187644,0.273064,-0.662805,0.311856,-0.239502,0.919448
-0.143618,-0.224415,0.668711,-0.124977,-0.042974,0.991229
0.162865,0.153134,-0.968806,-0.064273,0.073048,0.995255
-0.095659,0.261552,-0.979746,0.063747,0.189864,0.979739
-0.101817,-0.183636,0.817471,-0.752409,0.404421,0.519927
0.096125,-0.153978,-0.967518,-0.176467,0.067375,0.981998
-0.162813,-0.165750,0.193829,-0.723833,0.649511,-0.232811
0.145532,0.223050,0.934261,-0.279169,-0.747638,0.602579
0.691138,0.236838,0.273746,-0.171364,-0.039549,0.984414
-0.591236,-0.658482,0.646716,0.929614,0.086886,-0.358147
0.258161,0.189099,0.759455,-0.546876,-0.167927,0.820199
0.178953,0.262853,-0.971853,-0.030429,0.043426,0.998593
-0.064101,0.156970,-0.668370,0.067611,0.271074,0.960181
0.102694,-0.233781,0.901817,-0.487782,0.207982,-0.847828
-0.249005,0.589346,0.899338,0.836759,0.500314,-0.222530
-0.806560,-0.043023,0.698410,0.186799,0.071180,-0.979816
-0.766517,-0.575493,0.666856,0.980928,0.027946,-0.192353
0.339954,-0.153198,-0.966345,-0.379204,0.051794,-0.923863
0.101247,-0.016812,0.935113,0.117919,-0.032607,0.992488
0.030679,0.074241,0.275355,0.772362,0.090361,-0.628723
-0.440685,0.452180,0.842892,-0.133185,0.406269,-0.903995
-0.086865,0.027934,-0.972970,-0.074568,-0.061745,0.995303
-0.303223,0.318136,0.639920,0.885377,-0.433334,-0.168313
-0.352061,-0.089721,0.594870,0.433397,-0.553018,0.711575
0.208288,0.204448,0.760780,0.503789,0.122062,-0.855160
-0.844948,-0.812884,0.661594,-0.105186,0.451748,0.885923
0.021521,-0.039771,0.292693,0.017554,0.998127,0.058606
-0.080812,0.170693,-0.087375,0.666800,0.484929,0.565881
0.236380,0.203473,-0.967821,0.008391,0.274080,0.961670
-0.395778,-0.316965,0.544577,-0.450417,-0.686021,-0.571402
0.322003,0.467920,-0.658603,0.104998,0.041885,0.993590
-0.097368,0.286592,0.320538,0.907484,0.320679,-0.271364
-0.247608,0.343891,-0.991936,-0.160450,0.226997,0.960587
-0.744528,-0.100322,0.697558,-0.096888,-0.854747,0.509923
-0.243934,-0.359890,0.778459,0.099327,0.324711,0.940583
0.079051,-0.026568,-0.308139,0.914701,0.398046,-0.069865
0.056753,0.043023,-0.971096,0.232490,-0.291879,-0.927769
0.251591,0.047315,-0.963941,-0.174190,0.000635,0.984712
-0.151224,-0.126792,0.450255,-0.614324,0.748593,-0.249428
-0.774638,-0.555591,0.664168,0.967711,0.044365,-0.248127
-0.878214,-0.361517,0.660988,0.273512,0.278976,0.920524
0.222876,-0.224935,0.187583,0.381692,0.678767,-0.627365
-0.414299,-0.216806,0.791520,-0.236714,-0.528986,0.814948
0.115112,0.055706,-0.764414,0.944260,0.254538,0.208767
0.338559,-0.192872,0.210676,-0.078656,-0.615789,0.783976
-0.182938,0.202303,0.902877,-0.324764,-0.776433,0.540074
-0.419732,-0.577444,0.730873,-0.140774,-0.742260,0.655158
-0.138186,0.434620,0.394870,0.631663,0.123517,0.765340
0.142169,0.011805,-0.559512,0.258144,0.962625,0.081944
-0.863987,-0.437742,0.670926,0.520805,0.477175,0.707861
-0.518341,-0.347988,0.268711,-0.438497,-0.033261,-0.898117
0.132702,-0.026308,-0.750766,0.976276,0.212818,-0.039931
0.464121,-0.131931,-0.956672,-0.199316,-0.058767,0.978172
0.144032,-0.751162,0.189211,-0.276152,-0.064214,-0.958966
-0.010607,-0.094208,0.353776,0.996363,0.054151,0.065788
-0.575146,0.492504,0.881431,0.210517,0.373389,-0.903473
-0.719592,-0.331404,0.288226,0.203828,0.945476,0.254026
0.008328,-0.180384,0.489324,-0.134275,0.979831,0.147993
0.391897,-0.345517,0.210221,0.402887,0.031160,-0.914719
0.241968,0.414978,-0.253738,-0.279809,-0.105107,0.954285
-0.513892,0.478651,0.514234,0.531470,-0.133781,-0.836446
-0.539346,-0.123085,0.895173,-0.653639,-0.250716,0.714072
-0.245383,0.207506,0.451013,0.112481,0.992682,-0.043947
-0.406228,-0.305909,0.872667,-0.079043,-0.197113,0.977189
0.027058,-0.179669,0.494189,0.122032,-0.940376,-0.317492
-0.399400,-0.247179,0.775601,0.236260,0.896289,-0.375297
-0.112111,0.489317,0.463241,-0.104245,0.339189,0.934925
-0.098763,-0.185002,0.847511,0.824534,0.249205,-0.507978
-0.074654,-0.131931,0.430134,-0.098138,-0.936284,-0.337255
0.106575,-0.010308,-0.334791,0.995764,0.053563,-0.074728
0.191836,0.246594,-0.971929,0.033049,0.078980,0.996328
-0.094987,-0.259471,-0.218758,0.781636,0.615734,-0.099582
0.000725,-0.012065,0.760496,0.950946,-0.188998,-0.244909
0.103212,-0.022861,-0.306360,0.979135,0.148655,-0.138550
0.361011,0.310721,0.808423,-0.516811,-0.445844,0.730842
-0.326659,-0.299795,0.532746,0.315596,0.663695,0.678165
0.041854,0.349809,-0.982775,-0.055036,0.088034,0.994596
-0.027524,-0.120939,0.459341,-0.399524,-0.903177,-0.157008
-0.027368,0.302267,-0.980163,-0.193334,-0.099348,-0.976090
0.127115,0.017853,0.736627,-0.513930,0.792082,-0.329366
-0.187387,-0.810868,0.645845,-0.204015,0.063756,0.976890
-0.567852,0.491464,0.888321,0.321346,0.499833,-0.804303
-0.291634,0.450425,0.636116,0.871072,-0.454770,-0.185517
0.472450,-0.217587,-0.956540,-0.080552,0.124710,0.988918
-0.155518,-0.586289,0.598997,0.630995,-0.541176,-0.555854
-0.423509,-0.079444,0.518777,0.876052,0.411968,0.250629
0.191991,0.194303,-0.969298,-0.264086,0.120024,0.957002
0.668374,-0.095119,-0.165361,-0.418330,0.499097,0.758883
0.474365,-0.445221,-0.173689,-0.153955,0.038847,0.987314
0.488488,-0.155345,-0.957202,-0.057920,0.129140,0.989933
0.123958,0.085363,-0.775620,-0.545765,-0.834643,0.074243
-0.018728,-0.257650,0.774673,0.844215,-0.204393,-0.495504
-0.708935,-0.716367,0.660458,-0.152540,-0.894312,-0.420640
0.023489,0.280023,-0.286125,-0.154766,-0.108429,0.981983
-0.388329,-0.204514,0.571721,0.376689,0.242564,-0.894018
-0.021573,0.753439,0.408461,0.605310,0.436881,0.665384
0.175590,-0.174205,-0.963600,-0.104541,0.176217,0.978784
0.471933,-0.205879,-0.175014,-0.190932,0.076372,0.978628
0.903202,-0.250756,-0.098031,-0.228740,0.342520,0.911240
0.074654,-0.000618,0.760117,0.461932,-0.808437,0.364758
-0.682964,-0.351891,0.707325,0.255287,-0.281832,-0.924878
-0.211083,0.266430,0.494662,0.695736,0.276539,0.662931
0.731749,-0.033788,-0.167329,0.201733,-0.830059,-0.519909
0.460241,0.562160,0.526822,0.539021,0.508504,-0.671476
0.098091,-0.019349,-0.280239,0.511342,-0.844303,0.160255
-0.011227,-0.192676,0.591350,-0.554290,0.824402,0.114563
0.295410,-0.190921,-0.956691,-0.387889,-0.045465,-0.920584
-0.370996,0.334655,0.805849,0.389256,0.822803,0.414095
0.258833,-0.161653,-0.961291,-0.033937,0.254684,0.966429
0.063117,0.131671,0.908347,0.065982,0.766989,0.638259
-0.830773,-0.397808,0.654495,0.448436,-0.071678,0.890936
-0.500181,-0.402296,0.592580,-0.488813,-0.165084,-0.856627
0.273112,0.230009,-0.967878,-0.126292,0.320018,0.938956
-0.606497,-0.223700,0.895287,0.268575,-0.406487,-0.873290
0.384655,0.009333,-0.966591,0.000028,0.002013,0.999998
-0.638730,-0.490228,0.733125,-0.520793,0.095728,0.848299
-0.512546,-0.134728,0.692258,0.107551,-0.066937,0.991944
0.095866,-0.084452,-0.969563,0.268179,0.065503,-0.961140
0.380619,-0.117167,-0.965947,-0.063067,0.066179,0.995813
0.198510,0.239050,0.484725,0.060621,0.596656,0.800204
0.020849,0.241521,-0.978970,0.083831,-0.108532,-0.990552
0.547570,-0.071836,-0.629661,-0.060297,-0.113349,0.991724
-0.110715,0.177978,-0.978497,-0.001731,0.098952,0.995091
0.437736,-0.163279,-0.450464,0.254425,-0.074774,-0.964197
-0.560712,-0.214660,0.832917,-0.034625,0.967177,0.251733
0.142635,0.310006,-0.973954,-0.150506,-0.012365,0.988532
-0.396037,-0.775747,0.238065,0.500644,-0.034661,-0.864959
-0.165089,-0.179019,0.210903,-0.544500,0.824526,0.153873
-0.387345,-0.304868,0.236173,0.221098,0.284442,0.932850
0.504682,0.555267,0.509635,0.162070,0.842105,0.514386
0.272337,0.104809,0.224153,-0.518312,0.462532,0.719317
-0.142998,-0.332965,0.676074,0.116365,0.842907,0.525326
0.131201,0.289519,0.633030,-0.276545,-0.179369,0.944113
0.168709,0.791811,-0.265190,-0.132027,0.049568,0.990006
-0.727663,-0.124777,0.732254,0.677652,0.671137,-0.300605
0.111749,0.007577,-0.287431,0.828701,-0.418726,0.371381
-0.052461,0.022796,-0.973292,-0.021327,0.101227,0.994635
-0.216514,-0.174011,0.485690,0.413387,-0.900988,-0.131652
-0.686223,-0.414198,0.300549,0.097094,0.351018,0.931321
-0.025093,-0.039641,0.325402,0.542762,0.800167,0.255230
0.626002,0.139605,0.452413,-0.433179,0.878148,-0.203006
-0.817114,0.010829,0.694265,-0.155205,-0.069183,0.985457
-0.143566,0.308120,-0.981620,-0.309085,-0.075297,-0.948049
0.193750,-0.279763,-0.633788,-0.572610,0.281994,-0.769803
0.011641,0.065006,-0.972800,-0.074237,-0.040415,0.996421
-0.225258,-0.115216,0.692694,0.750718,-0.198330,0.630149
0.024988,0.313193,-0.283608,0.003866,-0.027442,0.999616
0.879610,0.126923,-0.165474,-0.288602,0.544509,0.787540
-0.509390,0.492765,0.509351,-0.538589,0.054930,0.840776
-0.332765,-0.209977,0.655574,-0.082916,-0.981638,0.171788
0.169175,0.397743,0.251940,0.024471,-0.145802,0.989011
-0.162865,-0.547137,0.604070,0.866445,0.165759,0.470953
0.200942,0.098240,-0.965209,0.141326,-0.125173,-0.982018
0.494489,-0.126012,-0.957562,-0.085922,0.121188,0.988904
-0.072120,-0.019283,-0.971418,0.073727,0.099661,0.992286
0.114801,0.513057,0.729188,-0.207703,0.233161,-0.949998
-0.869161,-0.226432,0.657183,-0.225836,0.522330,-0.822295
-0.618086,-0.245227,0.868484,0.092723,0.672695,0.734088
0.136116,0.170759,-0.977513,0.202105,-0.108152,-0.973374
-0.338972,0.627460,0.873348,0.282617,-0.086386,0.955335
-0.051477,0.159962,0.297766,0.968740,0.246676,-0.026334
-0.630865,-0.494846,0.293034,0.476892,0.349993,0.806275
-0.342129,0.596046,0.463846,-0.442174,-0.335904,-0.831655
-0.246676,-0.938408,0.811168,-0.296815,0.287053,0.910770
-0.035491,-0.654646,0.645391,-0.347076,-0.276229,-0.896234
-0.511822,-0.380183,0.272894,0.225790,0.545368,0.807213
0.348180,0.712334,-0.263922,0.043042,-0.205138,0.977786
0.112835,0.660303,-0.265985,-0.298337,-0.221055,0.928509
-0.264007,0.370622,0.906000,0.762016,0.153685,-0.629056
0.109886,0.039055,-0.711054,0.925842,0.319943,-0.201127
0.316726,0.014601,-0.962616,0.047140,0.112116,0.992576
-0.688809,-0.360997,0.291747,-0.270672,0.078471,0.959468
-0.119768,0.888589,0.140829,0.030385,0.810713,0.584655
0.056237,-0.124321,0.193148,-0.493145,-0.862727,0.111854
0.439856,0.201587,0.341662,0.202600,-0.726120,-0.657040
-0.159295,-0.542909,0.591974,-0.553619,0.573282,0.604031
0.061668,-0.266366,-0.291179,-0.405730,0.026145,-0.913619
0.362098,0.627720,-0.077608,0.052983,0.115221,0.991926
-0.155000,-0.130955,0.453682,-0.447707,0.813559,-0.371053
-0.511667,-0.066892,0.805565,0.383500,0.043563,-0.922513
-0.027783,0.142922,0.814424,0.403616,0.850995,-0.336009
0.190439,0.262984,-0.972421,0.041160,0.063168,0.997154
0.425215,0.148060,0.068086,0.334973,-0.753200,-0.566111
0.149878,-0.086989,0.299735,-0.031807,0.025822,0.999160
-0.357805,-0.411597,0.278100,-0.311952,0.737984,-0.598387
0.116974,0.055510,-0.827447,0.811088,0.575231,-0.106046
-0.192923,-0.405482,0.903066,0.018027,0.999813,0.006939
0.306068,0.793372,0.460420,-0.095820,0.521669,0.847750
-0.239226,-0.660303,0.620462,-0.156771,0.981989,0.105449
0.168296,0.038535,-0.964736,0.209372,0.200535,0.957052
0.484297,0.603070,0.861026,-0.362242,-0.487506,0.794430
-0.204873,0.342135,-0.989267,-0.137401,0.131157,0.981794
0.085984,0.136613,0.913345,-0.814539,0.384348,0.434515
0.142014,0.108387,0.208556,-0.302449,0.817545,-0.490046
0.383930,-0.125622,-0.961405,0.262942,0.315933,0.911618
0.640488,-0.448083,-0.165342,0.170975,-0.175611,-0.969499
-0.001086,-0.264739,0.635643,-0.286515,0.538365,0.792510
0.375859,0.347404,0.517452,-0.537942,0.261919,0.801259
-0.016349,-0.459335,-0.462654,0.193231,0.010536,0.981097
-0.125149,-0.538682,0.775430,0.004604,0.928522,0.371249
0.735475,0.369191,0.284497,-0.237480,0.205738,0.949355
0.219670,0.248675,0.217623,0.043423,-0.254365,0.966133
0.000827,0.206595,0.892883,0.406055,0.906922,0.112299
-0.059341,-0.123215,0.412606,-0.554919,0.712729,-0.429047
-0.032646,-0.944847,0.642930,-0.145409,-0.070520,-0.986855
0.447411,-0.107346,-0.959020,-0.034862,0.095071,0.994860
-0.415179,-0.214985,0.701798,0.401836,0.915368,-0.025070
0.598633,0.139540,0.452886,-0.433179,0.878148,-0.203006
-0.033421,-0.046210,-0.972932,-0.184705,0.046701,-0.981684
-0.454446,-0.354297,0.739845,0.882218,0.447521,-0.146342
-0.287857,0.401385,-0.996725,-0.024486,0.010826,0.999642
-0.525946,-0.388703,0.591993,0.460876,0.883014,0.088773
0.225412,0.856264,0.459266,0.003886,0.368725,0.929530
0.280511,-0.293616,0.196271,0.175281,0.199344,0.964126
-0.094314,-0.834347,0.646583,-0.075940,-0.028855,0.996695
0.416576,-0.058307,0.251524,-0.337504,-0.813986,0.472777
0.017745,0.780235,0.788037,0.183843,-0.221725,0.957622
0.153085,-0.382524,0.827806,0.384432,0.666009,-0.639253
0.217393,0.356703,0.471739,-0.703002,-0.267212,0.659080
-0.184956,0.034373,0.500871,0.417451,0.324618,0.848739
0.015934,-0.115411,0.330607,-0.655866,-0.705088,-0.269614
0.472606,0.425905,0.524967,0.304939,-0.049544,-0.951082
-0.587096,0.230790,0.852943,-0.311820,0.294715,-0.903278
-0.027783,-0.187604,0.489059,0.421680,-0.904753,-0.060075
-0.082880,0.186823,0.308915,0.963567,0.261894,-0.054319
-0.344871,-0.259601,0.781829,-0.368442,-0.479754,0.796295
-0.497854,-0.143833,0.898864,0.513267,0.598700,-0.614911
-0.566248,-0.266886,0.764092,0.837614,-0.362648,0.408520
0.245745,0.374590,-0.652849,0.198501,-0.006679,0.980078
-0.470795,-0.258236,0.544785,0.005292,0.087237,0.996173
-0.195406,0.261552,0.679065,-0.331820,-0.094625,0.938585
-0.361995,-0.714935,0.235094,-0.576049,0.465401,-0.671990
0.103885,-0.025722,-0.672743,0.858037,0.289495,0.424222
-0.443323,-0.836298,0.239334,0.119180,0.005468,-0.992858
-0.225103,-0.840850,0.239466,0.326269,-0.042884,-0.944304
0.154430,0.624077,0.461745,0.244818,0.299554,-0.922134
-0.346319,-0.173750,0.546489,0.556274,0.828078,0.069608
0.647730,-0.338167,-0.177967,-0.184401,-0.112116,0.976436
-0.276632,-0.123020,0.803823,-0.010652,-0.476609,0.879051
0.118526,0.749146,0.228128,0.243953,0.139728,-0.959668
0.304827,-0.035934,-0.965417,-0.089020,-0.133438,0.987051
-0.509545,-0.355012,0.900360,0.832874,0.065627,0.549557
-0.098143,0.236577,0.462521,-0.127043,-0.387195,-0.913203
-0.052513,-0.142272,0.431384,-0.130838,0.934101,0.332170
-0.033784,-0.032422,-0.484592,0.036420,-0.075284,0.996497
-0.277459,-0.465773,0.715843,0.216924,0.369646,0.903496
0.033473,0.164515,-0.974049,-0.154528,-0.090528,0.983832
0.065911,-0.039836,0.790252,-0.323892,-0.385067,-0.864186
0.056444,-0.235667,-0.651202,-0.300189,0.185052,0.935758
0.188783,0.149360,0.747359,0.712534,-0.016794,-0.701437
0.294686,0.048486,0.850672,0.915791,-0.332528,0.225283
0.417869,-0.157230,-0.960704,-0.030753,0.423977,0.905150
0.549588,0.089395,0.284308,0.877899,0.248475,-0.409333
-0.136583,0.348574,-0.978724,0.221915,0.050590,0.973753
0.049666,-0.048616,0.053114,0.128434,-0.955612,-0.265162
-0.066585,-0.199180,-0.469165,0.098108,0.249286,0.963448
0.358425,-0.156060,-0.963392,0.293396,-0.084589,-0.952241
0.185058,-0.226236,0.283400,-0.157787,-0.204684,0.966027
-0.562367,-0.165296,0.849479,0.639005,0.374705,0.671766
-0.150655,0.083542,0.883551,-0.631710,-0.222664,0.742538
0.222876,-0.045104,-0.963752,0.045038,0.074140,0.996230
-0.355994,0.637149,0.858735,0.247277,-0.643215,0.724658
-0.133634,0.119378,0.680560,0.441649,0.082728,-0.893366
0.187594,-0.081461,-0.290706,0.624652,0.607536,-0.490621
-0.072843,0.625963,0.224153,-0.259276,-0.037413,-0.965078
0.264162,0.673181,0.222317,0.210785,-0.020318,0.977321
0.567386,-0.274495,-0.950369,-0.267648,-0.070404,0.960941
-0.686791,-0.428896,0.721863,0.805530,0.591135,0.041012
-0.346526,-0.746219,0.789741,-0.677828,-0.049727,0.733537
-0.817632,-0.415499,0.647889,0.322212,-0.094664,0.941923
0.068653,-0.057397,-0.199640,0.972984,-0.218691,0.074007
0.484091,0.544860,0.527844,-0.030024,0.445878,0.894590
0.166692,0.261942,-0.972724,0.173924,-0.022045,-0.984512
0.561228,0.620305,0.538955,0.312996,-0.171425,-0.934156
-0.093280,0.437546,0.973594,-0.296299,0.947411,-0.120910
-0.100729,-0.261748,0.668200,-0.591388,0.582278,-0.557865
-0.329195,0.286657,0.903899,0.761972,0.451631,-0.464142
-0.039629,0.008878,0.763316,0.898670,-0.270214,0.345509
-0.770241,-0.286397,0.661632,-0.159200,0.615965,0.771520
-0.157950,0.158921,-0.976604,0.093357,0.149390,0.984361
0.133323,-0.057072,-0.297161,0.724271,0.588248,-0.359716
-0.083761,0.133166,-0.974957,0.040701,0.056853,0.997553
0.096073,0.163929,0.054268,-0.296319,0.171310,0.939600
-0.427855,0.021040,0.295400,-0.122254,-0.046106,0.991427
0.119664,-0.053689,-0.965607,-0.038308,-0.265676,0.963301
-0.109111,0.170173,-0.670414,-0.167593,0.250529,0.953493
-0.883956,-0.397613,0.293905,-0.344675,-0.302388,-0.888685
0.442392,-0.339143,-0.180011,0.307503,0.195536,-0.931240
-0.009055,0.025528,0.749442,0.884691,-0.406252,0.228653
-0.104144,0.345517,0.976680,0.302615,-0.425072,0.853076
0.052304,0.110728,-0.974465,0.015866,-0.112278,0.993550
0.252470,0.112289,-0.965664,0.040136,0.209615,0.976960
0.222774,0.186107,-0.968124,-0.030448,0.293228,0.955557
0.206477,-0.090956,-0.962446,-0.012856,-0.042851,0.998999
0.262351,0.229489,-0.965531,-0.168022,0.192312,0.966842
-0.782555,-0.032486,0.693053,0.087115,-0.021002,0.995977
-0.260594,-0.296673,0.546413,-0.449777,-0.107416,-0.886658
-0.001450,0.030991,0.246470,0.879186,0.430109,0.205033
-0.769310,-0.339208,0.660401,-0.410195,0.069091,0.909377
0.095762,0.054339,-0.074314,0.941244,-0.334987,-0.042935
-0.178126,0.654516,0.390422,0.644755,0.090101,0.759060
0.172072,-0.019674,-0.453890,0.377116,-0.907792,0.183571
0.118423,0.778674,0.463960,-0.298159,0.634245,0.713326
0.179523,0.228903,0.741624,0.528865,-0.289155,-0.797929
-0.174971,0.107216,0.683362,-0.188090,0.054418,0.980643
-0.120907,-0.129524,0.450312,0.541302,-0.574147,0.614286
0.050132,0.109232,-0.972004,0.016472,-0.014573,0.999758
0.170934,0.453286,-0.648268,-0.197719,-0.020020,-0.980054
0.072791,-0.017202,-0.145921,0.908917,0.008927,-0.416881
-0.041338,-0.094534,0.467481,0.580684,-0.545704,-0.604163
0.353820,0.099412,-0.092656,0.156416,0.336382,-0.928645
0.179625,0.029104,-0.964755,0.177929,-0.039597,0.983246
0.231052,0.046991,0.343952,0.357274,0.730657,-0.581804
-0.358839,-0.722675,0.791103,0.777155,0.248777,-0.578049
0.748511,-0.100647,-0.144956,-0.671704,0.141271,0.727225
0.460809,0.396573,0.813894,0.264195,0.447147,-0.854553
-0.129546,0.122436,0.710865,0.733725,0.055612,-0.677167
0.019194,0.274365,0.451410,-0.268002,-0.115243,0.956501
0.187387,0.151247,0.082642,-0.284608,0.220691,0.932895
0.437374,-0.038601,0.611849,-0.249275,-0.097093,-0.963553
-0.023489,0.262138,-0.449707,-0.007869,-0.090815,0.995837
-0.198821,-0.664857,0.680333,0.621086,0.680437,-0.388919
-0.527601,0.446847,0.869695,0.018934,-0.436340,0.899583
-0.347198,-0.680791,0.747113,0.975426,0.033585,0.217751
-0.224844,0.288153,0.420954,0.308288,0.622172,0.719625
-0.005277,0.355143,0.074787,-0.094392,0.061991,0.993603
-0.397021,-0.989659,0.225648,0.333649,0.109448,-0.936323
0.290754,0.484374,-0.662313,0.061927,0.097249,0.993332
0.086604,-0.036129,0.672686,-0.665440,0.245544,0.704909
-0.357701,0.416019,0.866950,-0.397277,-0.537297,0.743964
0.358269,0.676368,0.482453,-0.135211,0.359518,0.923290
-0.527135,0.516959,0.894094,-0.263453,0.450673,-0.852928
-0.021730,0.073461,-0.977588,-0.220320,0.138709,0.965515
0.021160,0.549804,0.464414,0.563223,0.091143,-0.821263
-0.512442,-0.277616,0.252811,0.995924,-0.023071,-0.087193
-0.031508,0.292510,-0.980863,-0.086860,0.119037,0.989083
0.805783,0.336086,0.292088,-0.222823,0.169827,0.959952
0.420405,-0.047771,-0.188927,-0.488552,-0.872486,0.009204
-0.286462,0.115671,0.886939,-0.293708,-0.343726,0.891957
-0.434580,-0.131150,0.829510,0.208927,-0.768212,-0.605145
0.580681,0.070469,0.389059,0.242975,-0.926840,0.286235
-0.342749,0.312998,0.836684,-0.486377,-0.797405,0.357186
0.340576,0.359630,0.507761,-0.413550,0.489377,0.767780
-0.376688,-0.734057,0.747681,0.986064,0.033212,0.163018
-0.714833,-0.401385,0.691463,0.776624,0.121138,-0.618207
0.243106,0.507203,0.057335,-0.039315,-0.026547,0.998874
0.195095,0.145588,0.743460,0.773266,-0.185746,-0.606265
0.324796,-0.371272,0.196971,0.100178,0.034105,0.994385
-0.077967,-0.546291,0.612606,-0.328933,0.604753,0.725312
0.220704,0.181880,-0.636816,0.495423,-0.308395,-0.812064
-0.509493,-0.326265,0.276699,0.276512,0.087160,0.957050
-0.064876,-0.008293,-0.975184,0.119844,0.133734,0.983744
0.473122,-0.381483,-0.176983,-0.205631,-0.077285,0.975573
0.024936,0.178043,-0.661802,-0.272888,0.130633,0.953135
-0.494750,0.324835,0.851467,-0.170246,0.207718,-0.963260
-0.237312,-0.044194,0.438141,0.433847,0.693899,0.574701
-0.025558,-0.147475,0.631005,0.859910,0.221452,-0.459905
0.659010,-0.067543,-0.160704,0.304742,0.041413,-0.951534
-0.591495,-0.450685,0.299981,-0.157127,0.275202,0.948459
-0.423975,-0.169132,0.681715,-0.213664,-0.922998,0.320034
-0.721351,-0.328737,0.288340,0.203828,0.945476,0.254026
0.115319,0.040486,-0.929377,0.946491,0.316897,0.061084
0.353199,0.090956,0.775090,0.296268,0.172327,-0.939430
-0.055203,0.095574,0.247094,0.900455,0.374793,0.220704
0.147395,0.236122,-0.972004,-0.025374,0.336794,0.941236
-0.617000,-0.210237,0.864622,0.193076,-0.042725,0.980253
-0.563816,-0.058437,0.781564,0.572602,0.353142,-0.739877
0.135754,0.190401,-0.972024,-0.264556,0.039561,0.963559
0.189921,0.303047,-0.973822,0.078438,-0.004969,0.996907
-0.497025,-0.229683,0.882093,0.420018,0.846196,-0.327929
-0.045166,-0.374134,0.681696,-0.136953,0.884719,0.445552
-0.415386,-0.343956,0.871058,-0.046331,-0.227916,0.972578
0.215480,-0.109687,-0.962540,0.011498,0.033564,0.999370
0.405608,-0.246658,-0.180882,-0.673964,-0.498456,-0.545266
-0.091521,-0.121914,0.832311,0.970388,-0.023835,0.240373
-0.037250,-0.240220,-0.454590,0.028659,0.168776,0.985238
-0.355890,-0.562030,0.713931,0.275866,0.179408,0.944304
0.482384,0.567754,-0.264925,-0.225660,0.201366,0.953168
-0.811009,-0.458359,0.659928,0.454037,0.419508,0.786043
0.448807,-0.162629,-0.958508,-0.100616,0.249692,0.963084
-0.462311,0.165556,0.537857,0.047747,-0.031694,0.998357
-0.446841,0.592338,0.796517,0.328845,-0.568878,-0.753816
-0.317244,-0.663815,0.237611,-0.657465,0.424280,-0.622677
-0.401159,-0.366264,0.295646,-0.152318,0.874140,0.461170
-0.464690,0.370037,0.857997,0.102912,-0.413625,0.904612
-0.058462,0.159507,0.299886,0.968740,0.246676,-0.026334
0.021987,-0.319827,0.847643,0.426649,0.174299,0.887463
-0.241089,0.565608,0.440413,0.593526,0.320409,0.738285
0.077913,-0.029950,-0.270528,-0.420076,-0.652960,-0.630222
-0.659269,-0.021495,0.694832,0.008285,0.058214,0.998270
0.158622,0.650352,0.176983,-0.702056,0.431230,0.566708
-0.109680,0.312932,0.939466,-0.299939,0.877402,-0.374435
-0.270888,0.371272,0.923888,-0.299436,-0.322380,0.898003
0.151119,0.036324,-0.879159,-0.688754,-0.723911,-0.039630
0.237362,0.430132,-0.659114,0.391622,0.170915,0.904113
0.346371,-0.213815,-0.958395,-0.172965,0.199102,0.964594
-0.303068,-0.564372,0.712304,0.154366,0.106388,0.982269
-0.171038,-0.338037,0.686523,0.216396,0.475819,0.852507
0.566971,-0.113135,-0.629964,-0.064087,-0.157747,0.985398
0.022039,0.267536,-0.981772,0.015281,0.149798,0.988598
0.687982,0.161003,0.405754,-0.490298,0.867524,0.083724
0.877178,-0.136939,-0.113061,0.084076,-0.329526,-0.940396
0.250762,0.043868,-0.238179,-0.290154,0.875292,0.386878
-0.059652,0.093753,-0.267670,-0.277836,0.319615,0.905899
-0.573801,-0.098760,0.693829,0.246249,0.192687,0.949860
-0.171815,0.158921,-0.064357,-0.266649,0.260427,-0.927942
0.297480,0.032292,-0.964774,0.051596,0.169342,0.984206
0.023746,-0.086924,-0.973481,0.027489,0.268334,0.962934
0.170727,0.038080,-0.698940,0.687793,0.714002,0.130928
0.133116,-0.179149,-0.957221,0.002358,0.062539,0.998040
0.021780,0.171539,0.199697,0.865340,0.111055,0.488726
-0.159347,-0.519560,0.802972,-0.487775,-0.789183,-0.373183
-0.193491,-0.404897,0.698221,0.364354,-0.648086,-0.668753
0.081639,0.010894,-0.186504,0.984119,-0.117681,0.132896
-0.328729,-0.709212,0.245239,0.977517,-0.128094,0.167489
0.107714,0.171994,-0.660325,0.122153,-0.207319,0.970617
0.307983,-0.258430,-0.459890,-0.252188,-0.011900,0.967605
-0.589530,-0.268577,0.865815,0.487890,0.852404,0.188072
0.050236,0.694644,0.474976,-0.511302,0.408480,0.756118
0.110404,0.034893,-0.276396,0.881096,0.050029,0.470284
0.092244,-0.032162,-0.307533,0.972460,0.178094,-0.150347
-0.272596,-0.595850,0.276055,0.706950,-0.065310,0.704242
0.566920,0.162239,0.826841,0.337950,0.223590,-0.914220
0.376843,0.148385,-0.271020,-0.374386,0.656278,0.655083
-0.427751,0.553900,0.779822,-0.323398,0.177476,0.929471
-0.073879,0.246724,0.934583,0.212526,0.374227,-0.902655
-0.817994,-0.347988,0.669222,-0.414558,0.503594,0.757981
0.334678,-0.140841,-0.959076,0.218650,0.096953,0.970975
0.414247,-0.132255,-0.962900,0.437835,-0.204192,-0.875560
-0.067412,-0.097069,0.838331,-0.654216,-0.599934,0.460522
-0.054944,-0.166076,0.824437,0.072841,0.270958,0.959831
0.213928,-0.051608,0.640034,-0.416459,0.451074,-0.789363
0.342231,0.067348,-0.964774,0.133195,-0.072341,-0.988446
0.104040,-0.075998,-0.970017,-0.217909,-0.007416,0.975941
-0.240675,-0.300900,0.731497,0.809577,0.558992,0.179202
0.168968,0.271893,-0.967632,-0.194926,0.041717,0.979930
-0.404626,-0.390264,0.577664,0.290793,0.573234,0.766057
-0.088986,0.446392,0.437043,0.968491,0.119584,-0.218459
-0.111542,0.375695,-0.986031,0.107474,0.314408,0.943185
-0.188887,-0.254724,0.685671,0.367944,0.419690,0.829745
-0.494593,-0.540177,0.781280,-0.390197,0.378990,0.839114
0.268922,0.046275,-0.966572,0.000846,-0.122705,0.992443
-0.154483,0.321388,-0.982605,-0.105799,0.150584,0.982920
-0.091262,0.171799,0.804316,-0.504641,-0.784530,0.360347
0.348284,0.354037,-0.664490,-0.108370,-0.053392,-0.992676
0.474520,-0.194758,-0.957675,0.041524,-0.112499,-0.992784
-0.405194,0.404702,0.854022,-0.252921,-0.391619,0.884684
-0.156450,-0.476504,0.255139,-0.010408,0.535931,0.844197
-0.338507,0.513837,0.468484,0.783480,0.283918,0.552765
0.281959,-0.344542,0.201609,0.162934,0.080373,0.983358
-0.607015,0.017072,0.703350,0.251298,0.362984,0.897269
0.539500,0.226692,-0.247606,0.425972,-0.471414,-0.772216
-0.124218,-0.324184,0.529112,0.003989,0.760601,0.649207
0.398002,0.214009,0.800606,0.637544,0.157910,-0.754057
-0.091417,-0.270593,0.576472,-0.304153,0.946021,0.111957
-0.668942,-0.541804,0.730210,0.754983,-0.100180,-0.648047
-0.484454,-0.366915,0.281488,-0.144700,0.863443,0.483248
0.483986,-0.173100,-0.954212,-0.017570,0.234974,0.971843
-0.601841,-0.384150,0.708575,0.283926,0.635016,-0.718430
0.287805,0.620044,0.496877,-0.106541,0.100845,0.989181
0.263852,-0.210562,-0.955518,0.103587,0.128512,-0.986283
-0.154225,-0.173620,0.199413,-0.723833,0.649511,-0.232811
0.143359,0.285876,-0.968730,-0.180480,0.014434,0.983473
-0.135238,0.337062,0.974541,0.576885,0.546466,-0.607107
0.002483,-0.188254,0.605641,0.283567,-0.843466,0.456240
0.137926,0.035804,-0.714045,0.823910,0.407797,-0.393539
-0.012002,0.137784,0.239201,0.919449,0.043134,0.390837
-0.494387,-0.089331,0.284706,-0.751640,-0.194293,0.630307
0.037818,0.391955,0.194605,0.899279,0.166112,0.404604
0.179160,-0.186758,-0.967878,0.037330,-0.196202,-0.979853
-0.101765,-0.200806,0.512512,0.224063,-0.879394,-0.420074
0.255677,0.039446,0.232690,-0.531362,0.496703,0.686252
-0.492473,-0.271308,0.266364,0.964819,-0.141046,0.221878
0.070773,0.554681,0.176377,-0.659592,0.384933,-0.645573
-0.399141,0.554681,0.873064,-0.287351,-0.359552,0.887779
0.182886,-0.374524,0.828942,0.314113,0.479967,-0.819125
-0.788090,-0.619914,0.667064,0.970033,-0.176239,-0.167260
-0.148431,0.323274,-0.978705,-0.349064,0.025983,-0.936739
0.417507,-0.068388,-0.964774,-0.196177,0.011658,-0.980499
0.062290,0.454197,0.454780,0.112651,0.341057,0.933268
-0.311553,-0.237033,0.668200,-0.095835,-0.993795,-0.056458
-0.201976,0.624663,0.329623,0.925737,0.329065,-0.186353
-0.237467,-0.503496,0.849915,0.532108,0.050915,0.845144
-0.427751,0.092843,0.796782,-0.290397,0.503364,0.813815
-0.083088,-0.616663,0.234545,-0.062517,-0.754848,0.652913
0.726834,-0.082501,-0.132614,-0.605204,0.019341,0.795836
-0.057530,-0.124581,0.439561,0.014826,0.999373,0.032148
0.301412,-0.221033,-0.622904,-0.306291,-0.569405,0.762865
0.125199,0.044780,-0.118626,-0.409220,0.889591,-0.202894
-0.031714,-0.133556,0.851221,0.750018,0.615384,-0.242438
-0.035543,-0.204254,0.552943,0.929914,-0.366949,-0.024659
-0.212944,0.640207,0.408196,0.204964,0.119149,0.971490
0.369135,0.157490,-0.255044,-0.007148,-0.135376,0.990768
-0.379326,0.565412,0.785425,0.062360,0.402651,0.913227
0.163278,-0.073136,-0.961310,-0.079734,-0.127656,0.988608
0.288737,-0.144353,-0.956748,-0.086748,0.059427,0.994456
0.230947,0.183832,-0.964868,0.093684,0.106247,0.989917
