-0.340643,0.031284,0.731612,0.720290,0.446780,0.530631
0.201829,0.236014,-0.215870,-0.086977,0.006646,-0.996188
-0.016188,-0.208211,0.495510,0.871096,-0.456350,0.181483
0.228752,-0.025401,0.724414,-0.624413,-0.640721,0.446750
0.055946,-0.072653,0.553954,-0.751553,0.159733,0.640041
0.390440,0.259415,0.651681,0.708301,-0.118691,0.695861
-0.232177,-0.054866,0.380222,0.938455,0.336587,0.077533
-0.549786,0.080827,0.747628,-0.275088,-0.956564,0.096496
-0.334518,0.493386,-0.176259,-0.561124,-0.651190,-0.510972
-0.220288,0.221281,0.042192,-0.185784,0.348157,-0.918842
-0.193227,-0.171783,0.332194,-0.391397,0.555450,0.733678
0.396294,-0.156153,0.416851,0.379022,0.463892,-0.800716
-0.082869,-0.360209,0.012361,-0.198971,0.030027,0.979545
-0.259507,-0.194421,0.605144,0.821021,0.275467,-0.500043
-0.551364,-0.166124,-0.036812,0.309321,0.068496,-0.948488
0.497151,0.175197,0.490420,0.088416,-0.904538,0.417125
0.232490,0.113257,0.896255,0.342147,-0.870192,-0.354544
0.353519,-0.001954,0.817924,0.795027,0.349563,-0.495719
0.091155,0.008017,0.730903,0.090830,-0.951024,0.295471
-0.132759,-0.127451,0.768751,0.950735,0.177683,-0.254030
-0.269953,-0.030117,0.383512,0.875551,0.443024,-0.192716
0.093587,-0.160824,0.587929,0.348586,0.916553,0.196008
0.383328,-0.160150,0.879931,0.248785,0.883721,-0.396412
-0.321821,0.422328,0.733248,-0.465928,0.413113,-0.782463
-0.328890,0.099692,0.890911,-0.583325,-0.797957,-0.151645
0.519754,0.318256,0.501418,0.486120,0.259810,0.834378
0.235282,0.055269,0.909416,0.216233,-0.693207,0.687537
-0.693916,0.233858,0.691492,-0.875965,0.445846,0.184137
-0.084625,-0.042155,0.623323,0.857043,0.006168,-0.515208
0.198360,-0.191637,0.397437,0.562183,0.428125,0.707572
0.169499,-0.317178,-0.078622,0.596847,0.601539,0.530966
-0.205835,0.254789,0.657426,-0.484345,-0.440100,0.756123
0.335645,-0.029039,0.939157,0.314989,0.818018,-0.481278
-0.659199,-0.018439,0.361116,0.711103,-0.364070,0.601486
0.499764,-0.095650,0.453590,0.030899,0.992283,0.120078
-0.351765,0.211085,0.274296,0.454279,0.122964,-0.882332
-0.609221,-0.081771,0.681403,-0.385638,-0.047727,-0.921415
-0.117900,-0.017316,0.341792,-0.218093,-0.764576,0.606514
0.132803,-0.032497,0.629413,-0.138117,0.989121,-0.050624
0.075260,-0.359850,0.673114,0.544746,0.542802,-0.639232
0.112948,-0.221058,0.456317,0.876250,-0.102757,-0.470772
-0.418268,-0.588025,0.399436,0.205994,0.062884,-0.976531
-0.599360,-0.040493,0.682167,-0.268808,0.234929,-0.934104
0.030325,-0.136839,0.597800,-0.236469,-0.890532,0.388632
-0.551408,0.047140,0.795146,-0.713411,-0.478200,0.512220
-0.211554,0.092685,0.026541,-0.408183,-0.272949,0.871140
0.289673,0.061423,0.829067,0.940768,0.131864,-0.312358
-0.176298,0.167696,0.034394,-0.204897,-0.740776,0.639741
0.480492,-0.208345,0.492292,-0.238143,-0.336531,0.911062
0.830117,-0.539966,-0.314488,-0.165972,-0.011340,0.986065
-0.237714,-0.276665,0.855081,-0.713381,0.700775,0.001721
0.177378,0.067801,0.910271,0.599590,0.701997,-0.384307
0.364190,-0.362051,0.360153,0.855419,-0.316467,0.410009
0.491163,0.072023,-0.494746,0.025727,0.483224,0.875119
-0.492471,-0.030881,0.307199,-0.036375,0.502491,0.863817
-0.496566,-0.141375,0.655972,-0.643384,0.721790,-0.255100
-0.223800,-0.124891,0.346282,0.788712,0.614714,-0.007721
-0.185755,0.252588,0.834103,0.219113,-0.219049,0.950793
-0.234380,0.437060,0.732285,-0.457360,-0.868678,-0.190316
-0.038025,0.237945,0.886275,0.957862,-0.285300,0.033238
0.402282,0.169178,0.618124,0.537899,0.081790,-0.839032
0.285485,-0.021942,0.944574,-0.176214,0.855755,0.486448
0.203494,0.274552,0.927231,-0.686521,-0.457824,0.564878
0.752809,-0.771554,0.071205,0.325652,-0.243889,0.913493
-0.312953,-0.325264,0.345628,0.125451,-0.307700,-0.943177
0.330286,0.235699,0.720814,0.984983,0.000587,-0.172649
0.849387,-0.721607,0.281203,0.139015,-0.046989,0.989175
0.335241,0.009500,0.885603,0.892247,-0.385834,-0.234578
-0.038069,-0.138051,0.207744,0.254881,-0.630877,0.732824
0.246854,0.129786,0.899945,0.065528,-0.988244,0.138126
-0.007001,-0.049117,0.876332,0.940460,-0.293351,-0.171697
-0.026408,-0.226493,-0.615215,-0.011683,-0.999363,0.033728
-0.331368,-0.155119,0.308907,0.344514,-0.017981,-0.938609
0.199127,0.279268,0.873278,-0.226141,0.945965,-0.232401
0.086923,-0.334831,0.381549,0.801400,0.580048,-0.145955
-0.249287,-0.030072,0.424977,0.917606,-0.072282,-0.390864
0.426416,0.393940,0.354826,-0.288503,-0.010627,0.957420
0.355772,-0.056079,0.817997,-0.368741,0.781535,-0.503222
-0.058287,-0.076965,0.545337,-0.462583,0.642623,0.610780
-0.315517,-0.065736,0.882912,0.757711,-0.296368,-0.581412
-0.464915,0.211400,0.479676,-0.512376,0.348164,-0.785018
0.124430,0.140207,0.943392,-0.310659,-0.774117,0.551574
-0.265765,-0.094393,0.301472,-0.362939,-0.551945,-0.750754
-0.235733,-0.090305,0.508562,-0.774712,0.040882,-0.630992
0.108985,-0.038247,0.703799,0.973872,0.062385,-0.218362
-0.268062,-0.050329,0.805981,0.753615,0.452878,-0.476409
-0.589635,0.082894,0.377549,0.653222,0.362939,0.664512
0.066344,-0.213871,-0.418924,-0.269923,0.908022,-0.320370
0.353656,-0.170347,0.904690,0.606675,0.588923,-0.533962
0.354420,0.233364,0.476222,0.225760,0.746486,-0.625933
-0.550418,-0.140118,0.687239,0.684962,-0.445922,0.576177
-0.552309,0.243650,0.601654,0.968447,-0.151719,-0.197715
-0.604763,-0.067802,0.679840,-0.360838,0.178292,-0.915428
0.283369,-0.042155,-0.445392,0.132638,0.471034,0.872086
-0.050765,0.135625,0.882930,-0.812305,0.531665,-0.239777
-0.639612,0.305365,0.702636,-0.258677,0.608594,0.750133
0.008804,-0.244009,-0.463407,-0.547872,-0.833357,-0.073155
-0.277876,0.005233,0.896037,0.924845,0.165975,-0.342220
-0.621197,-0.213871,0.601981,-0.064684,-0.966062,0.250079
0.198542,-0.110832,0.369515,-0.625751,0.408581,0.664452
-0.063734,0.244369,0.660425,0.487570,0.121596,-0.864575
0.056034,0.040088,0.567133,-0.015533,-0.067125,0.997624
-0.066977,-0.116582,0.525523,0.614515,0.201658,-0.762696
-0.115649,0.196397,0.618887,0.995387,0.053294,0.079781
0.224792,0.282817,0.547282,0.252240,0.564185,-0.786174
-0.341949,-0.208661,0.221996,-0.662960,0.489726,-0.566262
0.010469,-0.177489,0.422360,-0.530192,-0.813794,0.237982
0.307594,-0.192760,0.842483,0.247049,0.960424,-0.128657
-0.107229,0.029218,0.467988,0.558586,0.679993,-0.474965
0.067831,-0.219081,0.076313,-0.141947,-0.989687,0.019270
0.129112,-0.165630,0.455699,0.873899,0.429899,-0.226909
-0.339923,0.107283,0.889965,-0.475454,-0.877829,0.057966
0.211057,0.274148,0.879931,-0.031886,0.997729,-0.059326
-0.582206,-0.087925,0.636866,-0.077961,-0.071338,0.994401
0.787702,-0.664609,0.057408,0.905804,0.343184,0.248484
-0.391883,-0.550925,0.396510,-0.043946,0.162545,0.985722
-0.039734,0.307476,-0.255026,-0.498059,0.398116,-0.770351
-0.433935,-0.127227,0.610398,-0.650677,0.303811,-0.695930
-0.736779,0.064163,0.653063,-0.236173,0.912197,0.334840
-0.177018,-0.212792,0.861607,-0.631771,0.504830,0.588228
-0.270266,0.584701,-0.231540,0.129485,0.515423,0.847097
-0.246269,-0.192669,0.595473,-0.465233,0.544657,0.697788
0.248069,0.345521,0.581712,0.689819,0.574174,-0.440993
-0.538351,0.028589,0.696582,-0.212949,-0.917033,0.337199
-0.076656,0.220293,0.927395,0.279548,-0.399272,0.873175
-0.101015,-0.028186,0.330067,-0.303005,-0.778393,0.549812
0.409081,-0.058728,0.662407,-0.470845,0.857175,0.208702
-0.394312,-0.083118,0.610762,-0.408591,-0.911851,-0.039762
-0.238838,-0.066904,0.868678,0.208409,0.970627,-0.120205
0.528266,-0.119725,0.287257,-0.049967,-0.246802,0.967777
0.083905,-0.054147,0.869442,0.640626,0.016620,-0.767673
0.136810,-0.190154,0.660952,0.991170,-0.121973,0.052007
-0.225422,0.414018,0.694056,-0.413504,-0.830770,0.372606
0.471758,0.184449,0.490838,0.039620,-0.970494,0.237846
0.136585,-0.065062,0.831267,0.807963,-0.365718,-0.462003
0.087912,-0.211760,0.154408,0.164736,0.985379,-0.043476
-0.004706,-0.088823,0.789565,0.638794,-0.629918,0.441753
0.332987,0.118153,0.526995,0.874444,-0.433800,-0.217174
-0.235013,0.407685,0.707399,-0.671380,-0.706891,0.222609
-0.311917,0.152289,0.439629,-0.345607,-0.911996,0.220950
-0.364956,-0.018843,0.030322,-0.319262,0.472437,-0.821508
0.151625,0.140521,0.766570,0.965920,0.232317,-0.114137
0.200386,0.077818,0.911743,-0.112274,-0.692105,0.713012
-0.567616,-0.199497,0.270260,0.068857,-0.974305,0.214448
0.186788,0.002044,0.021287,0.178240,-0.434546,-0.882837
-0.251043,-0.085005,0.872659,0.205799,-0.975385,0.079190
-0.279093,-0.040987,0.816561,0.895622,0.444739,0.008272
0.392421,-0.178386,0.910107,0.436551,0.831589,-0.343342
-0.081204,0.012689,0.634957,-0.716140,-0.607511,0.343619
-0.042076,0.216745,0.397037,0.956526,0.017567,0.291118
0.442446,-0.629079,0.069060,-0.660404,0.746090,-0.084946
-0.335328,0.232735,0.404617,0.895624,0.248342,0.369031
0.489679,-0.016462,0.750463,0.074293,-0.993986,-0.080453
0.150408,-0.240462,-0.073659,0.464532,0.842147,0.273859
0.079088,0.138859,0.931122,0.683531,0.451564,-0.573477
-0.154640,0.102836,0.435084,-0.059501,-0.308532,0.949351
-0.628807,-0.127047,0.544156,-0.522574,-0.548959,-0.652350
-0.443796,0.236238,0.475332,0.790521,0.124075,0.599735
-0.595579,-0.687381,0.016579,0.861917,0.476329,0.173809
-0.031721,-0.059627,0.854136,0.844376,-0.350910,0.404836
-0.175218,0.322568,0.687402,0.476812,0.561827,-0.676018
0.839574,-0.283716,0.139611,0.838308,-0.149926,0.524177
-0.083636,0.196667,0.927068,-0.830103,0.278577,-0.483036
0.223440,-0.547332,0.034448,-0.288025,-0.022913,0.957349
-0.207050,0.391964,0.741283,0.256173,0.882813,-0.393723
-0.502557,0.121611,0.472441,0.834664,0.550221,-0.024356
-0.158334,0.003481,0.529813,0.082933,-0.663292,0.743751
0.272833,-0.094662,-0.368297,-0.619622,-0.773446,0.133605
0.043112,-0.227840,0.247791,0.232159,0.971130,0.054848
0.147753,0.188627,0.858407,-0.368640,0.568313,-0.735612
-0.417683,0.005322,0.796437,-0.012462,-0.953980,0.299612
-0.127400,0.161857,0.708235,0.012909,-0.646047,0.763189
0.031990,-0.318930,0.343228,0.759146,0.645941,-0.080356
-0.121231,-0.317494,0.002618,-0.090620,0.276182,0.956824
-0.157657,0.355132,0.731085,-0.955149,0.149296,-0.255737
0.102862,0.120893,0.007926,0.888584,0.341611,0.306138
0.038923,-0.142768,0.342065,-0.034232,-0.959307,0.280282
-0.040905,-0.284614,-0.977041,-0.068511,0.035650,0.997013
-0.431146,0.043681,0.310234,0.713860,0.024102,0.699874
0.194398,0.390033,0.392329,0.474410,-0.879082,-0.046358
-0.331503,-0.097267,0.666006,-0.175628,0.910492,-0.374379
-0.147393,0.166842,0.029722,0.268511,-0.337604,0.902178
-0.327810,-0.083568,0.875404,0.660943,-0.619948,-0.422870
-0.526825,0.035641,0.750373,0.493163,0.864917,0.093318
0.119115,-0.135491,0.972387,0.160934,0.979330,0.122526
0.009702,0.209109,0.748355,0.246722,0.196038,0.949051
-0.588151,-0.586050,-0.006163,-0.118885,0.370754,0.921090
-0.334249,0.222134,0.670660,-0.368201,-0.873124,0.319504
-0.201647,0.154445,0.836866,0.881996,0.467809,0.056900
0.319436,0.007299,-0.201600,0.617666,-0.483288,-0.620420
0.398366,0.742673,-0.441320,0.062436,0.968357,-0.241635
0.206330,0.125384,-0.204563,0.782319,-0.256500,0.567613
0.088138,-0.084196,0.574986,0.823138,-0.312898,-0.473855
0.527364,-0.223618,0.498982,0.198801,-0.097725,0.975155
0.389989,-0.025625,0.850700,-0.823743,0.088744,0.559975
0.320156,0.055405,0.866097,-0.223025,-0.332216,0.916456
-0.158018,0.518449,0.086548,-0.467359,0.431012,-0.771884
0.042842,0.055135,0.907053,-0.240087,-0.893854,0.378660
0.021184,-0.265795,-0.919178,0.813737,0.566697,-0.129178
-0.350322,-0.121028,0.740065,-0.431898,0.893852,-0.120383
-0.280442,0.167605,0.815706,0.597838,0.362788,-0.714825
-0.812917,0.057920,0.447137,0.845558,-0.201597,0.494359
-0.497648,-0.584926,-0.000818,0.481331,-0.395398,-0.782292
-0.277472,0.194286,0.814943,0.773149,0.452104,-0.444795
-0.589951,0.071575,0.419724,0.622603,0.443968,-0.644405
-0.046308,-0.229817,-0.357571,0.987425,0.146016,-0.060597
0.155000,0.248770,0.859280,-0.127476,0.917023,-0.377914
0.006550,-0.165855,0.470314,-0.341739,0.939113,-0.035789
-0.806208,-0.040493,0.425141,-0.632589,0.648425,-0.423528
0.589365,-0.023873,0.200036,-0.547922,0.249829,0.798353
0.045860,-0.197745,-0.025741,-0.744643,-0.647897,0.160428
0.105833,-0.132437,0.455753,-0.754322,-0.607355,0.249235
-0.148157,0.268039,0.722341,-0.547721,0.094249,-0.831335
-0.198902,-0.127181,0.652245,0.947133,0.270175,0.173045
0.122267,-0.285962,0.309289,-0.486649,-0.842517,0.230951
-0.209438,0.208075,-0.218033,-0.581439,-0.057505,-0.811555
0.336590,0.036764,0.877568,0.768836,-0.637237,0.053114
0.333619,0.200260,0.918433,-0.830780,-0.085891,-0.549934
-0.142754,-0.193074,0.707908,0.969349,-0.085551,-0.230313
-0.408361,-0.898174,-0.060789,0.259366,-0.361469,0.895583
0.063418,0.038111,0.865806,0.355200,-0.921306,0.158201
-0.702108,0.009140,0.408926,0.467865,-0.711922,0.523707
-0.392828,0.139084,0.869133,-0.244235,0.082997,0.966158
0.038294,0.423720,-0.193056,0.411582,0.425713,-0.805834
-0.459105,0.117749,0.789984,-0.103406,0.734578,-0.670599
0.310161,-0.038966,0.946246,0.098712,-0.989549,-0.105117
0.118620,-0.432569,0.400673,-0.365871,-0.371608,-0.853256
0.017447,0.095515,0.958644,0.589267,0.426223,-0.686366
-0.715706,0.111595,0.786021,0.201160,0.282834,0.937838
-0.134065,-0.178611,0.202727,0.608812,0.792707,0.031040
-0.278552,0.249264,0.839520,0.050878,-0.477613,0.877096
0.294716,0.305679,0.759626,0.795243,0.560195,-0.231886
0.303227,0.208390,0.712180,0.958498,-0.181639,-0.219748
0.009928,-0.183867,0.596746,0.992149,0.102878,0.071114
-0.377878,0.286231,0.887439,0.738007,0.496774,-0.456685
0.264459,0.155748,0.939502,0.861259,0.501583,-0.081535
-0.425067,-0.033306,0.769951,-0.387153,0.736290,0.554968
-0.371486,0.278999,0.423432,0.748995,0.452204,0.484271
-0.629617,-0.084062,0.322450,0.094315,-0.052993,0.994131
-0.546365,-0.176634,-0.029195,-0.046889,-0.362836,0.930673
0.056935,0.162351,-0.200836,0.323074,0.218716,0.920753
-0.374053,-0.010578,0.771369,-0.709709,0.059773,-0.701955
-0.049597,-0.093314,0.861625,0.335092,-0.739368,0.583993
0.188096,-0.132482,0.592256,0.964338,-0.066880,-0.256085
-0.168870,0.353875,0.702090,0.874447,0.485022,0.009787
-0.606879,-0.424035,0.173496,-0.541186,-0.041301,0.839888
0.158424,0.254340,0.962479,-0.177544,-0.158769,0.971221
-0.009342,-0.095605,0.886584,0.521603,0.640474,-0.563669
-0.432451,0.097581,0.780713,-0.042527,0.658529,-0.751352
0.109886,0.054955,0.923377,-0.048472,-0.397670,0.916247
-0.418581,-0.056258,0.877459,0.772403,-0.372494,-0.514433
-0.635111,-0.185348,0.673587,0.481198,-0.872048,0.089331
-0.335688,0.153143,0.848991,0.992161,-0.082321,-0.094018
-0.742451,0.041840,0.738084,-0.705965,0.692689,-0.147631
0.092235,-0.211580,0.173478,0.409442,0.908284,-0.085888
0.187959,-0.082444,0.588038,0.837941,-0.073330,-0.540811
-0.577749,-0.197656,0.657353,-0.365218,0.786004,-0.498811
0.298363,-0.165271,0.853045,0.611772,0.740235,-0.278903
0.146986,-0.125430,0.965788,0.441292,-0.885374,-0.146199
-0.022940,-0.054596,0.855263,-0.750159,0.446524,-0.487726
0.356583,0.108496,0.442356,-0.715863,-0.070400,0.694683
-0.529615,0.023199,0.381567,0.639877,0.045656,0.767120
-0.364280,-0.164912,0.874314,0.804403,-0.085747,0.587863
-0.244557,-0.094976,0.518633,0.451391,0.891865,-0.028674
0.115919,0.354773,0.544955,-0.095641,-0.677189,0.729567
0.011189,-0.208391,0.318269,0.968842,0.177524,0.172715
-0.348613,0.011162,0.821414,0.506387,0.778278,-0.371289
0.009026,-0.160645,0.500454,0.572437,-0.731211,0.371008
-0.342534,-0.179465,0.479131,0.010367,0.973798,0.227177
0.071613,-0.161722,0.825141,-0.700159,-0.684032,0.204638
-0.002815,-0.197341,0.378222,0.822336,0.568657,-0.019846
-0.840068,-0.046691,0.664570,0.911407,0.411083,-0.018652
0.179316,-0.070856,0.588929,-0.243181,-0.023531,0.969695
-0.113399,0.107238,0.695855,-0.348823,0.487344,-0.800512
0.104121,0.083342,0.898837,-0.008571,-0.981199,0.192808
0.288412,-0.303570,0.513634,0.031835,0.718047,0.695266
0.119475,-0.134773,0.939502,0.012089,-0.947473,0.319608
0.062203,0.003391,-0.017979,0.296529,0.654875,0.695133
-0.191608,0.371437,0.694855,0.200071,0.969050,0.144613
-0.131679,0.321490,0.740520,-0.627296,-0.770909,0.110448
0.014295,0.095650,0.923123,0.936421,-0.346863,-0.052932
-0.307369,0.030745,0.896455,0.900983,0.383948,-0.202024
0.000562,0.064478,0.178622,0.944395,-0.328302,-0.018307
0.382561,0.111595,0.554045,0.838407,-0.017867,-0.544752
-0.083545,0.105171,0.903981,0.992856,0.059765,0.103271
0.459869,0.040986,0.539793,-0.239635,-0.823123,0.514824
0.178010,0.035776,0.242301,0.255594,-0.315709,-0.913783
-0.193678,-0.145732,0.425359,-0.208038,0.973521,-0.094747
-0.780859,-0.279494,0.062934,0.480921,0.685706,0.546371
0.119161,0.328946,0.599655,0.752487,0.512563,0.413572
0.026634,0.145013,-0.117742,-0.668826,-0.410523,-0.619793
-0.042573,-0.092461,0.849518,0.763483,-0.614053,0.200080
0.140009,-0.186382,0.672332,0.942136,0.074121,0.326933
-0.371799,0.189435,0.448755,0.731239,0.390444,0.559323
-0.493460,-0.035102,0.051409,0.190679,0.494259,0.848145
-0.021500,0.054371,0.954208,0.618169,0.284825,-0.732627
-0.052568,0.277112,0.927740,-0.361568,0.764899,-0.533103
-0.481709,-0.555462,-0.003054,-0.202085,0.163361,0.965647
-0.105698,-0.060211,0.823432,0.901340,0.263008,-0.344111
0.058960,0.189076,-0.126759,0.980287,0.084243,0.178717
-0.034106,-0.234307,-0.847610,0.432068,0.901651,0.018497
-0.041130,0.270330,0.596219,-0.066768,-0.659871,0.748406
-0.230690,-0.254655,0.833358,0.778856,-0.625317,-0.048601
0.121503,0.215531,0.822123,-0.217200,-0.626041,0.748931
0.147528,-0.332315,0.363261,0.138123,0.422108,0.895961
-0.119252,-0.160734,0.762952,0.896482,0.421387,-0.136943
-0.234202,-0.084062,0.749118,0.887365,-0.233765,-0.397413
-0.262794,-0.100591,0.498000,0.737559,-0.662965,0.128390
0.584908,-0.497429,0.201818,0.863996,0.116821,0.489758
-0.256849,0.606171,-0.239047,0.192813,0.534134,0.823119
0.135999,-0.153951,0.479240,0.821178,0.540390,-0.183424
-0.214932,-0.233814,0.347191,0.760860,-0.342539,-0.551143
-0.257976,0.425157,-0.183276,-0.328029,0.177556,-0.927831
-0.892795,0.002044,0.728377,0.774948,0.608455,0.170993
-0.230014,0.183821,0.037902,-0.039783,-0.417000,0.908035
-0.272745,-0.107194,0.814088,0.990214,0.139007,-0.012388
0.303813,0.399735,-0.362243,0.396454,-0.265443,0.878843
-0.098045,0.166168,-0.102345,0.413044,0.837741,0.357190
-0.604538,-0.115908,0.702727,0.429907,0.318936,0.844666
-0.049235,0.124217,0.421687,-0.230268,-0.720170,0.654471
-0.152975,0.358052,0.505344,0.371663,-0.891921,-0.257572
-0.729889,0.124755,0.377131,0.415427,-0.110064,-0.902943
-0.127266,-0.229188,0.740865,0.907690,-0.011086,-0.419495
0.301875,0.509421,-0.200109,-0.328724,0.474942,-0.816315
-0.551589,0.136568,0.790547,0.291630,0.788366,-0.541693
-0.221640,0.354728,0.064752,-0.112096,-0.373767,0.920724
0.115468,-0.340759,0.629158,-0.699208,0.682494,-0.212861
0.839887,-0.560896,0.038629,-0.192729,-0.083802,0.977667
0.240594,-0.009186,0.394110,0.618806,0.249642,-0.744821
-0.070849,0.180227,0.656535,-0.613727,-0.188642,0.766651
0.212365,0.180542,0.889984,-0.563321,0.281629,-0.776759
-0.394898,-0.060974,0.889038,0.940933,0.321653,0.105755
-0.039465,0.179913,0.668642,0.800709,-0.279985,-0.529597
-0.370043,-0.597009,0.399491,-0.195319,0.374946,-0.906237
0.565860,1.000000,-0.366261,0.548892,0.144752,-0.823264
0.030190,0.033395,0.951900,-0.046753,-0.592221,0.804418
-0.038159,-0.026119,0.387620,0.997172,0.073687,0.014741
-0.338615,0.022705,0.888129,0.738707,0.413900,-0.531977
-0.214660,-0.069464,0.577895,-0.658013,-0.690239,0.300980
0.632679,0.724302,-0.355390,0.403257,0.005831,-0.915068
-0.919944,-0.091114,0.339793,0.500202,-0.329927,0.800591
-0.196470,0.038830,0.683767,-0.528561,0.762731,-0.372645
0.139286,0.109394,0.527031,-0.568092,-0.265052,0.779114
-0.321505,-0.007973,0.776877,0.896462,-0.441111,-0.042151
0.309169,0.181710,0.757062,0.893025,-0.410016,0.185456
0.430830,-0.275002,-0.352536,-0.154829,0.465681,0.871303
0.330060,0.240505,0.753372,0.981318,-0.099092,0.164912
-0.284812,0.038740,0.745883,0.935802,0.349664,-0.044832
0.313626,0.144294,0.883039,0.869936,-0.467949,0.155677
-0.113803,-0.220204,0.741083,0.976361,-0.046584,-0.211069
0.394672,0.078626,0.869042,0.014155,-0.918394,0.395413
0.008666,-0.259460,-0.766933,-0.050258,0.994044,-0.096700
-0.353565,-0.107328,0.539956,-0.031111,-0.434481,0.900144
0.068867,-0.114964,0.015270,0.370521,-0.226497,0.900785
0.089083,-0.074045,0.720287,0.749698,-0.215795,0.625608
-0.100746,-0.094482,0.521305,0.815847,-0.450037,-0.363127
-0.426056,-0.202507,0.504654,-0.717545,0.371928,-0.588896
0.129200,0.387787,0.397128,0.127783,-0.991214,0.034152
-0.203450,-0.064478,0.327122,-0.780187,0.624178,0.041352
0.872126,-0.228334,0.128740,0.912114,0.260512,0.316514
0.452757,0.089361,0.688293,0.826217,0.477938,-0.298230
-0.360768,-0.422462,-0.012143,-0.583571,0.568950,-0.579432
-0.202054,-0.137602,0.439356,0.881103,-0.454171,-0.131853
0.445104,-0.214904,0.132158,-0.096433,-0.989658,-0.106200
0.412324,-0.143846,0.719778,0.788566,-0.043891,-0.613382
0.038476,-0.166843,0.522432,0.859074,-0.504059,-0.088975
-0.352936,0.507265,-0.172260,-0.561124,-0.651190,-0.510972
-0.320832,0.318525,0.505908,0.057490,-0.796474,0.601934
0.804812,-0.686483,0.074605,0.822806,0.061858,0.564945
-0.189176,0.286769,0.062116,0.147098,-0.397792,0.905607
0.002813,-0.160959,0.607871,-0.694329,-0.716047,-0.071999
-0.291971,-0.056977,0.827377,0.979861,0.181904,0.082356
0.503996,-0.147798,0.202381,-0.209909,0.063787,0.975638
-0.294851,0.027601,0.752372,0.766733,0.019689,0.641664
0.341138,-0.161677,0.885312,0.175034,0.950137,-0.258076
0.198091,0.242527,0.858680,0.170008,-0.808698,0.563120
-0.383506,0.059178,0.855772,0.307884,0.927189,-0.213371
-0.740920,0.214858,-0.088420,0.489495,0.835470,0.249769
-0.400078,0.091113,0.610398,-0.049270,-0.727014,0.684853
0.037305,-0.371663,0.668006,-0.223721,0.672054,-0.705898
0.127266,-0.313316,0.410253,-0.111272,0.551216,0.826910
-0.690808,0.065690,0.727104,-0.023878,0.995719,-0.089298
-0.508498,-0.965640,-0.033049,0.024793,0.346891,0.937578
-0.000697,0.213376,0.949100,0.908017,0.047547,0.416227
-0.511065,-0.185484,0.325523,0.227512,-0.480255,0.847109
0.014567,0.056662,0.186475,0.908568,-0.411982,-0.069099
0.285125,-0.237452,0.380731,-0.285149,0.153995,0.946032
-0.105742,0.301727,0.943665,0.367136,-0.554532,0.746797
-0.134741,0.297954,0.724250,-0.772470,0.515404,-0.371010
0.131003,0.216565,0.779186,-0.017149,-0.780786,0.624563
0.193092,-0.106610,0.553008,-0.481592,-0.732716,0.480829
-0.083276,0.086217,0.657426,0.992269,-0.122227,0.021504
-0.211780,-0.316640,0.496546,0.752605,-0.171129,-0.635846
0.437222,-0.623510,0.256062,0.323075,-0.017976,-0.946203
0.119475,-0.168325,0.631849,0.902259,0.197721,0.383190
0.037934,-0.174928,0.693019,-0.054228,-0.222636,0.973392
-0.835746,0.068251,0.351554,-0.732115,0.148203,0.664863
0.197956,-0.127990,0.686857,0.844396,0.244121,-0.476866
0.320516,0.249669,0.717942,0.958592,0.051233,-0.280137
0.023795,0.045972,0.189384,0.903842,-0.403392,-0.142635
-0.166979,0.120893,0.433121,0.102114,-0.442507,0.890932
0.296607,0.231253,0.700018,0.989947,0.134294,-0.044386
-0.554785,0.171065,0.825323,0.471042,0.768556,-0.432945
-0.010604,-0.044580,0.862116,0.492975,-0.748913,0.442838
0.044914,-0.168236,0.932412,-0.645888,0.747793,0.153737
-0.161395,-0.159477,0.389147,-0.590208,-0.804686,0.064301
0.090526,-0.076381,-0.353081,0.742518,-0.669226,0.028352
0.267026,-0.092057,-0.198782,-0.609328,0.464388,0.642700
0.217408,0.170885,0.807217,0.562132,0.531340,-0.633787
0.246269,0.246165,0.855590,0.388262,0.897812,-0.207814
-0.387291,-0.824332,-0.064843,0.262343,-0.276042,0.924650
0.010738,-0.172727,0.417288,0.776263,0.578133,-0.251354
-0.392963,-0.027556,0.031249,-0.370116,0.349029,-0.860926
-0.547626,-0.189570,0.653808,-0.617866,0.701889,-0.354390
0.123754,-0.722506,0.032703,0.881770,0.466751,-0.068004
0.057339,-0.603073,0.048355,0.378256,0.044795,0.924617
-0.308045,0.376243,-0.184239,0.170094,-0.184296,0.968041
-0.091471,0.230714,0.744446,0.513518,0.450740,-0.730160
0.191518,0.211085,-0.205235,-0.164240,-0.341595,-0.925385
-0.006102,-0.223932,-0.113561,-0.747508,0.642322,0.169274
0.427812,0.019561,0.859371,0.347487,0.420220,-0.838252
0.527273,-0.402385,0.095910,-0.192740,-0.076527,0.978261
0.350413,-0.167921,0.875550,0.308274,0.909976,-0.277330
0.166256,-0.001909,0.780240,0.515611,0.842649,-0.155202
0.046308,0.054191,0.924159,0.415095,0.237610,0.878201
0.053557,-0.288971,-0.990402,0.274407,0.181360,0.944357
0.365226,0.134053,0.555354,0.827004,-0.050590,-0.559916
0.481528,0.365913,0.571405,0.944846,-0.319924,-0.070110
0.182331,-0.126868,0.628722,0.908981,-0.416837,0.001106
-0.532992,-0.693714,0.002618,-0.041336,0.131291,0.990482
-0.008081,-0.166484,0.287130,0.767791,0.640316,0.022179
-0.300254,-0.104679,0.790693,-0.403604,-0.818016,0.409822
-0.078953,0.094077,0.490893,0.897411,-0.380670,0.223034
-0.710801,0.065600,0.598091,0.836494,-0.498650,0.227215
-0.269637,-0.117076,0.775477,0.886301,0.046591,0.460760
-0.158152,0.236553,-0.225795,-0.795171,0.325768,-0.511447
-0.454739,0.511802,0.310362,0.519490,0.643856,-0.561764
-0.587024,-0.311609,0.184294,0.502124,-0.602917,-0.619969
0.218488,-0.240865,0.122396,0.047967,0.862364,0.504011
0.108760,0.253217,0.949936,0.855951,-0.516154,0.030529
-0.034106,-0.003167,0.616124,0.944685,0.081788,0.317618
0.022401,0.060659,0.757426,-0.304383,-0.267952,0.914086
0.120332,0.074988,-0.176168,0.140687,0.461114,0.876117
0.688557,-0.668696,0.068915,0.024323,0.179746,0.983412
0.784732,-0.329891,0.261534,-0.175625,-0.110666,0.978217
-0.406877,0.520156,0.718051,0.923165,-0.262287,0.281021
-0.719760,0.135895,0.377931,0.159579,-0.219932,-0.962374
0.357707,-0.013857,0.941483,0.580013,0.681327,-0.446518
-0.363156,-0.047859,0.871769,-0.395373,-0.090079,-0.914093
0.268691,0.127316,0.926668,0.138466,-0.970909,-0.195354
-0.590445,-0.255508,0.231340,0.966357,0.213857,-0.142898
0.338750,0.081860,0.440411,-0.718723,-0.077749,0.690936
0.552040,0.096323,0.443847,0.130887,0.541205,-0.830642
-0.670636,-0.042694,0.696546,0.380336,-0.423261,0.822311
-0.253381,-0.375256,0.494165,0.857629,-0.358164,-0.369041
-0.183141,0.262425,0.723959,0.849533,0.504468,-0.154294
0.235238,0.064837,0.941265,0.170055,-0.969814,0.174763
-0.143609,0.131852,0.706781,0.080438,-0.474774,0.876424
0.259867,-0.647315,0.082603,-0.219056,0.376522,0.900136
0.444293,0.354459,0.341465,0.936065,0.349817,0.037563
-0.585042,-0.292924,0.221432,0.911400,0.295485,-0.286423
0.011414,-0.175916,0.098073,-0.107567,-0.988152,0.109479
0.464734,0.097625,0.584548,0.876087,-0.258537,-0.406977
-0.340102,-0.070452,0.302436,-0.080071,0.543390,0.835653
-0.458025,0.013363,0.883876,0.522957,-0.356388,-0.774276
0.279992,0.184000,0.950282,0.811128,0.584037,-0.031186
0.111505,0.138635,0.838847,0.988062,0.151061,-0.030219
0.585177,-0.024817,0.198691,-0.567450,0.258508,0.781776
0.525833,-0.141510,0.279876,0.165574,0.691042,-0.703595
-0.177153,-0.043772,-0.179567,0.831517,0.547913,0.091487
0.033477,-0.070497,0.808635,0.016579,-0.986213,0.164647
-0.095296,-0.195769,0.239338,-0.381853,0.916463,-0.119517
-0.565456,0.208705,0.494583,0.752540,0.376042,-0.540625
-0.025598,0.145372,0.854772,0.950785,-0.298113,-0.084482
0.249600,0.014216,-0.202545,-0.342045,0.188165,0.920651
-0.812197,0.026074,0.443883,0.788329,-0.372809,0.489440
-0.428532,0.090080,0.608944,0.203376,-0.762615,0.614050
0.117719,0.046062,0.916506,-0.629525,0.707235,-0.321741
-0.787928,-0.260539,0.257844,0.889900,-0.183736,0.417515
0.154101,0.286814,0.904726,-0.209062,-0.874677,0.437302
0.474459,0.002178,0.873368,0.905684,0.262892,-0.332603
-0.275309,-0.088104,0.781767,-0.142396,-0.903379,0.404512
0.192598,-0.070497,0.506853,-0.504168,0.766734,0.397409
0.445326,-0.062142,0.690911,0.319849,-0.935645,-0.149216
-0.278598,0.036899,0.748573,0.915416,0.387994,-0.107118
-0.470093,-0.012599,0.876441,-0.325457,0.110590,0.939067
-0.399130,0.197027,-0.169733,0.809562,0.420612,0.409506
0.267204,0.132975,0.960043,0.785320,-0.481237,0.389465
-0.137577,0.344173,0.687439,-0.198402,-0.653719,0.730266
-0.161126,0.140790,0.436448,-0.286350,0.272439,-0.918575
0.057251,-0.381858,0.655663,-0.903849,-0.053383,0.424508
-0.371799,0.078356,0.756771,-0.598940,-0.787935,-0.142931
0.354645,-0.014890,0.611798,0.776406,-0.625919,-0.073608
0.077961,0.066499,0.763643,0.206122,-0.952686,0.223391
0.166617,-0.059358,0.704508,-0.330617,-0.066995,-0.941384
-0.369010,0.030386,0.277895,0.750718,-0.054266,0.658391
-0.376842,-0.071844,0.628795,0.525404,0.836417,0.156068
-0.459287,0.218047,0.482621,-0.507696,0.305462,-0.805567
-0.352394,0.044220,0.577913,0.015589,-0.699833,0.714137
-0.020148,-0.021403,0.878567,0.798853,0.532534,-0.279717
0.125644,0.054821,0.917033,-0.322961,0.838163,0.439521
-0.217092,0.229546,0.835012,-0.138792,0.206069,-0.968645
-0.515388,-0.091652,0.824650,0.737352,0.607979,0.294405
-0.373467,-0.064074,0.312616,0.457134,0.659626,0.596592
0.178280,0.375075,0.379167,0.183598,-0.833994,0.520332
0.331998,-0.075348,0.808835,0.331029,-0.446875,-0.831097
0.163195,-0.170886,0.910616,0.057433,0.983741,-0.170163
0.027983,0.027151,0.883039,0.056562,-0.766452,0.639806
-0.166034,0.356390,0.711652,0.733999,0.653014,-0.186597
0.073144,-0.063085,0.517742,-0.544434,-0.814693,-0.199665
-0.302010,0.216699,0.811652,-0.180305,0.785398,-0.592149
0.703326,-0.525681,0.047119,-0.232726,-0.486743,0.841974
-0.782299,-0.287085,0.190802,-0.500752,0.354446,-0.789693
-0.495082,0.009365,0.714270,0.416846,0.908965,-0.004567
0.145456,-0.143801,0.981203,0.346501,-0.937602,0.028990
-0.086021,-0.246345,-0.985893,0.393367,-0.209391,-0.895219
0.404445,-0.126149,0.723905,-0.720045,-0.298358,0.626512
0.075125,-0.289465,0.720014,0.691386,0.319397,-0.648051
0.257435,0.315022,0.576022,-0.694074,-0.606774,0.387410
0.140457,-0.124262,0.975132,-0.337887,0.925360,0.171877
-0.561766,0.209783,0.476695,0.748136,0.528065,-0.401796
-0.490264,-0.051407,0.055553,-0.207720,-0.199102,-0.957711
-0.763705,-0.257754,0.720560,0.295262,-0.072235,0.952682
-0.123619,0.112224,0.578277,0.830088,-0.551336,0.083559
0.232581,-0.003706,0.846955,-0.710057,0.662535,-0.238468
-0.752449,-0.474925,0.097582,-0.577254,-0.245496,-0.778788
-0.292916,0.123767,0.413307,0.389532,0.858829,0.332683
0.207457,-0.107059,0.949991,-0.088708,0.898142,-0.430665
-0.365000,0.268623,0.411889,0.882362,0.253282,0.396591
-0.761183,-0.241944,0.718669,0.344213,-0.198788,0.917606
0.062744,-0.372740,0.673223,-0.736157,-0.565794,0.371416
0.148473,0.339951,0.367079,0.210433,-0.599803,0.771981
-0.352980,0.037977,0.861134,-0.349848,-0.810909,0.469076
-0.410884,-0.063355,0.914306,0.981638,0.182967,-0.053942
-0.022355,0.114200,0.831485,0.940691,0.329233,-0.081886
-0.006550,0.126463,0.423541,-0.038603,-0.748830,0.661636
0.241990,0.142722,0.804472,0.946943,-0.019227,-0.320825
0.414214,0.224964,0.630631,0.948441,0.253409,-0.190378
-0.225377,-0.187818,0.623959,0.957571,-0.227863,-0.176457
-0.360680,0.147214,0.458062,0.657967,0.322366,0.680558
0.385622,0.128753,0.460680,0.526205,0.387101,-0.757140
0.044238,-0.215443,0.052445,0.084725,0.995146,0.050068
-0.567438,0.155209,0.417215,0.754665,-0.535569,-0.379006
-0.249509,0.103555,0.384984,-0.128382,-0.583253,0.802081
-0.293004,-0.018978,0.730249,0.955824,0.007626,-0.293841
0.024740,-0.220653,0.376222,0.778016,0.620508,-0.098290
-0.000067,-0.200531,-0.727613,-0.240623,0.968663,0.061585
0.102950,-0.188986,0.370569,0.490956,-0.870925,0.021249
0.211420,0.293417,0.546228,-0.153789,-0.752306,0.640612
0.404129,0.761628,-0.442374,0.062436,0.968357,-0.241635
0.264684,0.358232,0.603454,0.961154,-0.050225,-0.271405
0.716382,-0.460867,0.089075,-0.231599,0.791033,-0.566240
-0.227538,0.079704,0.778913,-0.689375,-0.585304,0.426827
-0.092144,0.155838,0.568224,-0.644761,0.754987,-0.119491
0.319705,-0.241225,0.117960,-0.186541,-0.428895,0.883884
0.360859,0.117524,0.447519,-0.726483,-0.079275,0.682596
-0.377518,-0.601231,0.244901,0.057040,0.238911,0.969365
-0.115064,-0.182429,0.534885,-0.614782,0.120314,0.779467
0.313852,0.071125,0.768424,-0.705757,0.674396,0.217017
-0.276886,0.420936,0.716579,-0.615803,0.342812,-0.709413
-0.025056,0.336897,0.627177,0.828527,0.556381,-0.063103
0.279497,0.089001,0.948900,-0.675992,0.642687,-0.360539
0.176928,0.364296,0.963425,-0.668403,0.399375,0.627485
0.236227,-0.022526,0.869605,0.835406,0.073601,0.544684
-0.241812,0.303254,-0.203054,0.117558,-0.205140,0.971647
0.757896,-0.840142,0.062679,-0.489650,0.202659,-0.848041
-0.254013,0.456914,-0.178422,0.336575,0.001250,0.941656
0.409531,0.147753,0.641611,0.185424,0.192442,0.963631
0.028434,0.064163,0.671478,0.496191,0.077939,-0.864708
-0.730521,0.005817,0.389202,0.531903,-0.665638,0.523455
-0.309125,-0.098120,0.883857,-0.448233,0.770254,0.453647
-0.481662,-0.377591,0.208689,-0.132032,0.663032,0.736856
0.142078,0.376243,0.389856,-0.169429,0.971918,-0.163305
-0.183141,0.084106,0.701691,0.920090,-0.073179,-0.384811
-0.658704,-0.121477,0.551772,-0.562908,-0.536027,-0.629135
0.173237,0.327419,0.938847,-0.548575,-0.131388,0.825714
-0.696120,-0.339861,-0.000818,0.539358,-0.412691,-0.734016
0.291248,0.294316,0.733867,0.749195,0.611369,-0.254825
-0.095296,0.186920,0.722396,-0.763614,0.594122,0.252810
0.424344,-0.536821,0.259753,0.207930,0.306432,0.928905
0.329656,0.188132,0.660680,0.755887,-0.487907,0.436557
-0.445282,0.141419,0.466770,-0.513918,0.212094,-0.831207
-0.552040,-0.126912,0.683276,-0.474664,0.675702,-0.564022
-0.247890,0.430772,-0.182585,-0.305358,0.157237,-0.939166
0.088228,0.115098,0.817142,0.964175,-0.097746,-0.246600
-0.185395,0.255867,-0.225650,-0.585204,0.072910,-0.807601
-0.008622,-0.256093,-0.933921,0.696238,0.701325,-0.152958
-0.173731,0.031374,0.670024,-0.435294,0.696941,-0.569905
0.688197,-0.464146,-0.328213,-0.462763,-0.461488,0.756888
0.107003,-0.744874,0.046773,0.958954,0.271786,-0.080871
0.025056,0.128259,0.685603,-0.266881,0.394373,-0.879343
0.259460,-0.244504,0.517924,0.386714,-0.407435,-0.827314
-0.236318,0.547331,-0.221960,0.314208,0.601018,0.734881
0.447533,0.201248,0.567806,0.686017,0.392732,-0.612488
-0.313222,-0.041481,0.689093,-0.289764,0.920784,-0.261139
-0.473198,0.048532,0.586493,-0.097523,0.644223,-0.758594
-0.202367,0.139533,0.836175,0.508117,0.476858,-0.717233
-0.018529,-0.010129,0.834903,-0.347374,-0.000705,-0.937726
-0.367298,0.185617,0.441120,0.743354,0.472007,0.473957
-0.176164,0.092371,0.697400,-0.043096,-0.090160,0.994994
-0.119972,-0.116042,0.803199,0.975839,0.212083,-0.052535
0.293142,-0.464775,0.412507,0.631595,-0.116331,0.766521
-0.362074,-0.509557,0.390783,0.135350,0.421574,0.896636
0.200523,0.274463,0.944065,0.874740,0.421660,0.238816
-0.778925,-0.029398,0.408544,-0.626788,0.381365,-0.679483
-0.719309,0.049520,0.728195,0.331989,-0.878972,0.342333
-0.242397,-0.055764,0.796292,-0.596804,0.432452,-0.675878
0.628672,-0.575135,0.012343,0.453389,0.515871,-0.726853
0.056531,-0.165451,0.904217,0.624113,-0.778487,-0.066649
-0.068326,0.248995,-0.181185,-0.481684,0.596661,0.641854
0.438079,-0.544906,0.358444,0.810045,0.452251,0.373225
-0.235551,-0.185484,0.482240,0.974012,0.003435,-0.226471
0.736419,-0.653155,-0.352827,0.544529,0.468993,-0.695366
-0.291295,-0.285602,0.703926,-0.606227,-0.581026,0.543045
-0.739211,-0.247468,0.716651,-0.628048,0.483491,-0.609747
-0.029201,0.564982,0.014288,0.884949,-0.324660,-0.333857
0.375446,-0.056528,0.735321,0.157950,-0.072618,0.984773
0.239154,0.229366,0.845337,-0.368481,-0.908322,0.197922
-0.166169,0.306622,0.724632,-0.034650,0.526631,-0.849388
-0.556451,-0.046781,-0.024614,0.519045,0.262918,0.813306
-0.200974,-0.199229,0.847373,0.933978,0.053012,-0.353376
-0.345370,-0.073371,0.834067,0.153396,-0.962212,-0.224985
-0.021635,0.267366,0.909416,0.265995,0.753582,-0.601133
0.084491,-0.146136,0.903708,0.126049,-0.991284,-0.038317
-0.252887,-0.023110,0.674768,0.684039,-0.668776,0.291254
0.197236,-0.074944,-0.202909,-0.213085,0.462297,0.860742
0.092864,0.008557,-0.025577,0.997484,-0.045146,-0.054665
0.289492,0.085228,-0.242283,0.508980,-0.301996,-0.806063
-0.003805,0.338738,-0.060916,0.783259,0.066748,0.618102
0.321731,-0.187954,0.129867,-0.363562,-0.059174,0.929689
0.051532,-0.365330,0.664006,-0.347207,-0.677673,0.648233
-0.411334,0.550340,0.707453,0.899415,-0.280921,0.334866
-0.407506,0.172232,0.654517,0.268965,0.434854,-0.859395
0.087552,0.090439,0.923977,0.923464,0.185994,-0.335591
0.016007,0.262470,0.487130,-0.565356,-0.362574,0.740886
0.503230,-0.494689,0.076968,-0.637521,0.770166,-0.020272
-0.174226,0.179105,-0.004799,-0.340603,0.936920,-0.078555
0.106688,-0.179870,0.928340,-0.380626,0.922977,-0.056901
0.366036,-0.215532,0.127886,0.200353,0.116822,-0.972734
-0.455863,-0.050195,0.637957,0.419665,0.581966,-0.696560
-0.410658,0.606126,-0.233994,-0.062498,0.487958,0.870627
0.270043,0.105845,0.859789,0.955292,0.255429,-0.148908
-0.282064,-0.063894,0.692220,0.482087,-0.858298,0.175832
-0.155451,-0.223214,0.700073,0.945820,0.309914,-0.096834
0.011054,-0.216655,-0.783712,-0.069263,0.989329,-0.128183
0.087734,0.301547,-0.204236,-0.561519,0.034405,-0.826748
-0.089984,0.184225,0.839847,-0.050407,-0.918834,0.391411
0.159730,0.085858,0.377004,-0.408082,0.197077,0.891420
0.539835,0.048802,0.192292,0.723964,-0.176883,-0.666774
-0.435422,0.395198,0.705962,0.957419,-0.136555,-0.254367
0.726424,-0.722731,0.072005,-0.044910,0.044761,0.997988
0.411964,0.042424,0.868878,0.496126,0.526849,-0.690137
-0.273869,-0.052665,0.681712,-0.400223,0.896733,-0.188923
0.273283,-0.302402,0.392310,-0.276853,0.324933,-0.904307
0.121681,0.190693,0.438211,-0.129230,0.976421,-0.172919
0.007361,-0.023290,0.212143,0.747094,0.392207,0.536679
-0.494405,0.237676,0.648046,-0.740648,-0.531588,0.410919
0.095928,-0.136929,0.995601,0.289680,0.923666,0.250850
-0.352980,-0.594224,0.382112,0.244184,-0.090314,0.965514
0.395258,-0.037348,0.789911,0.567586,0.803934,-0.177582
-0.165449,0.266917,0.726050,0.978703,0.119421,0.166969
-0.113352,-0.215173,-0.991638,-0.079804,0.358246,0.930210
-0.219659,-0.121433,0.533976,-0.804092,-0.587918,-0.088255
-0.463519,-0.356301,0.235775,-0.429261,0.243821,0.869647
0.112090,0.124530,0.830958,0.998153,-0.013301,-0.059283
0.311106,-0.663980,0.209235,-0.294948,-0.342807,0.891902
-0.095252,0.152200,0.835866,0.033389,0.996819,-0.072364
-0.505662,-0.431222,0.223196,-0.346608,0.598683,0.722109
0.183726,-0.063535,0.869987,-0.449239,0.870664,0.200322
-0.570049,0.034383,0.717560,0.321046,0.822862,-0.468857
-0.446994,-0.169134,-0.012670,0.362111,0.930194,-0.060122
-0.006416,-0.140746,0.437339,0.956831,-0.290512,-0.008782
-0.195299,0.131358,0.838556,0.916463,-0.001770,0.400115
-0.079942,0.400498,0.536284,-0.829818,-0.549087,-0.099523
0.312277,0.138500,0.723396,0.904383,-0.302123,-0.301352
-0.138701,0.547600,0.091783,-0.797796,0.351870,-0.489600
-0.513901,0.293911,0.716052,0.189860,0.741240,0.643829
0.063149,0.251869,0.678804,-0.396362,0.408361,0.822276
-0.001329,0.279134,0.922141,0.309824,-0.825805,0.471227
0.151040,-0.657781,0.010853,0.955579,-0.286531,0.069050
0.548888,0.126058,0.210671,0.894852,-0.188419,-0.404645
0.480717,-0.134862,0.787639,0.057837,-0.911419,0.407394
-0.024427,-0.223258,-0.988039,0.106480,0.649728,0.752672
-0.561268,0.131583,-0.023323,-0.702359,-0.408605,0.582867
0.103761,0.126103,0.928558,-0.181978,-0.873447,0.451635
-0.213940,-0.187864,0.822450,0.933221,-0.349721,-0.082430
0.369955,0.519168,-0.231631,-0.658503,0.454997,-0.599459
-0.480673,-0.571182,0.266842,-0.547608,-0.254580,0.797066
-0.477746,-0.377277,0.062934,0.270719,0.270278,0.923938
0.086876,0.380061,0.587966,0.916176,0.254464,0.309628
-0.652985,-0.108901,0.355444,0.823715,-0.174736,-0.539408
0.118081,0.240550,0.810198,0.247052,0.968689,0.024648
-0.823860,-0.647585,-0.072223,0.435161,0.457889,0.775224
0.272113,-0.221642,0.130504,-0.250496,0.483085,0.838976
-0.494947,-0.487726,0.251518,-0.348136,0.527002,0.775287
0.072514,0.062861,-0.162389,0.755546,0.478193,0.447752
0.578738,-0.499675,0.031940,0.243059,0.915965,-0.319267
-0.438393,0.461855,0.712434,0.814085,0.049647,-0.578620
0.097052,0.145147,0.803999,0.990629,-0.063883,-0.120718
-0.511112,-0.173985,0.552172,-0.470459,-0.669036,-0.575377
-0.372566,0.044040,0.849755,0.225419,0.952513,-0.204709
-0.710169,-0.253802,-0.033267,-0.421320,0.486524,0.765365
0.260271,-0.059583,0.708835,0.826722,-0.066786,0.558632
0.010560,0.114784,0.949336,0.851169,0.071790,-0.519960
-0.342803,-0.039774,0.862298,-0.521001,-0.075517,0.850209
0.237758,-0.091293,0.953881,-0.481952,0.685755,-0.545400
0.642091,-0.586005,0.010798,0.453389,0.515871,-0.726853
-0.289539,0.043546,0.600709,0.552191,0.604993,-0.573645
0.141540,0.138679,0.832903,-0.748383,0.630139,-0.206996
-0.870191,-0.022122,0.466624,-0.747889,0.534172,-0.394109
-0.144914,-0.157321,0.475586,0.569788,0.724244,-0.388344
-0.131589,0.352707,0.739138,0.805443,0.564587,-0.180287
-0.570139,0.234037,0.445301,0.907204,-0.379683,0.181165
-0.430830,-0.517237,-0.051318,-0.729265,0.682188,0.052846
-0.208493,0.382082,0.711198,0.614613,0.654446,-0.440400
0.330107,-0.170706,0.891311,0.724118,0.597061,-0.345212
-0.286656,-0.137962,0.100727,0.219966,0.817311,0.532557
0.101735,0.204932,0.816579,0.627109,-0.221966,0.746636
0.380852,0.025759,0.845228,0.884404,0.066801,-0.461917
0.158963,0.043502,0.933067,0.263930,0.328730,-0.906795
0.054910,-0.015159,0.742065,-0.109720,-0.901141,0.419413
-0.094486,-0.231792,0.201127,0.277545,0.959858,0.040507
0.572659,-0.176770,0.192819,-0.666100,-0.219797,0.712741
0.216910,0.148786,0.810107,-0.763188,-0.288457,0.578218
-0.502735,-0.134907,0.654281,-0.678228,0.688130,-0.257846
0.128302,0.348620,0.555972,0.949154,-0.232299,-0.212471
0.016861,0.139039,0.765661,0.843800,0.169723,-0.509112
-0.159955,0.365239,0.792910,0.065117,0.979533,0.190462
0.121907,0.336851,0.543101,-0.020137,-0.583010,0.812215
-0.994237,-0.038157,0.352499,0.724793,-0.688635,0.021370
-0.129472,0.362993,0.570424,0.834427,0.053372,0.548528
-0.010920,0.056662,0.834085,0.997561,0.041383,0.056216
-0.378824,-0.135042,0.714016,-0.489724,0.871872,0.002962
-0.168958,-0.054058,0.429376,0.896656,0.029258,0.441761
0.310026,0.138994,0.891729,-0.739404,0.642143,-0.202322
-0.264728,-0.261841,-0.080149,0.007960,0.991034,0.133375
0.832819,-0.541582,0.042029,-0.409457,-0.164305,0.897412
-0.190663,-0.009141,0.651645,0.052936,-0.849543,0.524857
0.416196,-0.132796,0.409144,0.403544,0.526210,-0.748502
-0.363156,0.089137,0.757135,0.355612,0.928897,0.103390
-0.654202,0.120174,-0.137211,0.983722,0.075275,-0.163173
-0.344065,-0.021224,0.662498,-0.001707,0.992856,0.119303
0.242576,-0.178746,0.221996,0.073187,0.927794,-0.365844
-0.452801,0.333662,0.246591,0.332879,0.899476,0.283079
0.054277,0.059312,0.903217,0.931951,-0.100436,-0.348396
-0.171077,-0.164192,0.192529,-0.721525,-0.688677,-0.071588
-0.403499,0.059537,0.888711,-0.626343,0.014556,0.779412
0.057430,-0.029802,0.881131,-0.308503,0.896464,-0.318087
-0.189987,0.162935,-0.219469,-0.690216,0.103199,-0.716206
-0.251177,0.034338,0.012507,-0.784533,0.131242,0.606040
-0.093812,-0.190963,-0.993928,-0.014156,0.342518,0.939404
-0.608141,-0.306758,0.180385,-0.678497,0.642437,0.356254
0.092911,-0.177848,0.598382,-0.237534,-0.935442,0.261774
-0.756096,-0.417882,0.183076,0.249057,-0.071686,0.965832
0.325155,-0.059223,0.913561,0.962042,-0.098109,-0.254655
-0.344650,-0.082444,0.768751,0.488027,0.872785,-0.008711
0.117224,0.099377,-0.459753,-0.136495,0.233406,0.962752
-0.512461,0.123587,0.480767,-0.541993,-0.694215,0.473613
-0.515882,-0.161454,0.647919,-0.641125,0.761467,-0.095539
-0.199440,0.151930,0.835375,0.915443,0.402151,0.015422
-0.617462,0.176994,0.566897,-0.183389,-0.546052,0.817433
0.405975,0.154221,0.638066,0.994134,0.017873,0.106672
0.352845,-0.179689,0.392001,0.417940,0.363236,-0.832698
0.811658,-0.797248,0.018706,0.956986,-0.110489,0.268274
0.080528,0.226626,0.944501,0.509704,-0.480875,0.713415
-0.102142,0.235340,0.653118,-0.154033,-0.703972,0.693324
0.142213,-0.124262,0.748755,0.614165,0.526599,-0.587788
-0.337895,-0.096144,0.802254,0.278410,0.952553,0.123004
0.538304,0.071305,-0.480131,0.156065,-0.429959,-0.889257
-0.448660,-0.097896,0.847955,0.350382,-0.933485,-0.076404
0.112002,-0.013004,0.707399,0.029261,-0.902919,0.428814
-0.481978,-0.154221,-0.012470,0.428515,0.856396,-0.288029
-0.200207,-0.129562,0.447137,0.823294,0.561765,0.081281
0.249284,0.329440,0.563788,-0.366976,-0.714360,0.595835
-0.005877,-0.219215,-0.993983,0.172024,0.476917,0.861950
-0.363967,0.173490,0.863097,-0.855608,-0.129351,0.501202
0.101601,-0.068520,0.914706,0.941340,-0.209717,-0.264382
0.455953,0.331372,0.397182,0.303664,0.649673,0.696931
-0.344469,0.164956,0.857299,-0.728808,0.684690,-0.006124
-0.594139,-0.462664,0.230504,-0.400213,0.658286,0.637565
0.041672,0.123498,0.570696,0.189605,-0.404991,0.894445
0.012135,0.029622,0.889493,0.119901,0.269096,0.955621
-0.164726,0.233947,0.718597,0.743815,-0.201137,0.637404
0.371261,-0.218631,0.389347,-0.149273,-0.504563,0.850373
-0.054099,0.169223,0.442938,0.924659,-0.127092,-0.358961
-0.033881,0.139757,0.834903,0.374300,0.908553,0.185556
0.112046,0.006715,-0.178822,0.898577,0.070163,0.433171
0.095071,-0.097492,0.538466,-0.482782,-0.865464,-0.133766
0.057160,-0.177084,0.921378,-0.513607,0.828231,0.224144
0.300345,-0.185348,0.849282,0.171523,0.953557,-0.247606
0.032622,-0.156198,0.446682,0.927535,0.314632,-0.201707
-0.841781,-0.267456,-0.029358,-0.059831,-0.043492,0.997261
0.763299,-0.612685,0.054626,0.323086,0.512576,0.795538
0.111912,0.235610,0.883021,0.554307,0.660288,-0.506718
-0.574281,0.106025,0.561970,0.575798,0.445205,-0.685747
0.181970,-0.122106,0.877859,0.763622,0.186064,0.618274
0.067471,0.280706,-0.057808,0.681556,0.381797,0.624269
-0.061618,-0.214139,-0.987475,0.003058,0.526985,0.849869
0.029605,-0.151167,0.546591,-0.684553,0.728848,0.012911
0.101691,-0.106925,0.496328,-0.565350,0.569192,-0.596992
-0.296291,-0.096055,0.531358,-0.499051,0.219546,-0.838301
0.176342,0.226626,0.901618,0.906673,0.096444,-0.410662
-0.057971,0.217149,0.444610,-0.885488,0.180420,0.428205
0.180440,0.020549,0.891620,0.350062,-0.825683,0.442384
0.592292,-0.292879,0.492438,0.150204,0.382144,0.911814
-0.529164,0.138320,0.451154,0.779361,0.599282,-0.182913
0.514758,-0.038202,0.206671,0.612749,-0.259930,-0.746308
0.242037,-0.129876,0.802199,0.269666,-0.952331,-0.142642
0.486436,0.222449,0.591765,0.945549,0.038723,-0.323168
-0.461807,-0.003212,0.876004,-0.306377,-0.133615,0.942486
0.320876,-0.081277,0.679549,0.310782,0.780146,0.542942
0.241495,0.123767,0.937739,-0.709124,-0.389877,-0.587485
-0.406019,0.212702,-0.176204,0.707189,0.300299,0.640081
-0.183323,0.294450,0.740211,0.877062,0.237099,0.417787
-0.718814,0.197745,0.374023,-0.293029,-0.115774,-0.949068
-0.591932,-0.062457,0.681767,-0.280224,-0.083002,-0.956340
0.650240,-0.175153,0.480167,-0.519888,0.006450,-0.854210
-0.680181,-0.114111,0.246010,-0.366642,-0.928703,-0.055538
0.273825,0.020684,0.008417,0.009973,0.551809,0.833911
0.067246,0.233184,0.820978,0.882373,0.296127,-0.365687
-0.519664,-0.200395,0.532849,0.316777,0.820846,0.475252
0.224207,-0.321132,0.354245,0.204557,0.964376,0.167739
-0.372566,0.042783,0.831721,-0.233413,-0.940910,0.245370
-0.281162,-0.311654,0.590202,0.579785,-0.182078,-0.794164
0.133658,-0.162081,0.851536,0.222677,0.931392,-0.287964
-0.377925,0.198554,0.830322,-0.521955,-0.814342,0.253793
0.339291,-0.172817,0.495019,0.126079,-0.165730,-0.978079
0.120827,0.083926,0.491965,-0.512724,0.542540,-0.665406
-0.194983,-0.226043,0.484948,0.759995,0.647213,-0.059356
-0.278777,0.009724,0.844937,0.954681,0.228873,-0.190268
-0.219117,0.290498,0.056299,0.142841,-0.412214,0.899820
0.096376,-0.117704,0.481858,0.813962,0.554222,-0.174078
0.290800,0.090169,0.429322,-0.731932,-0.021641,0.681034
0.377969,-0.055720,0.796637,-0.762906,0.622310,0.175227
0.299803,0.087744,-0.223705,-0.091705,-0.086683,0.992006
-0.190751,-0.054372,0.497873,0.785991,-0.607172,0.116452
-0.331728,0.075796,0.895092,-0.696777,-0.410195,-0.588423
0.314706,-0.199856,0.485603,-0.000556,0.196591,0.980485
0.250545,0.120982,0.914234,0.530219,-0.847644,-0.019158
-0.600891,-0.012195,0.682858,0.383217,-0.466113,0.797423
0.079673,-0.075707,0.134103,0.585518,-0.058921,0.808515
-0.385218,0.123767,0.782439,-0.014220,-0.553070,0.833013
0.176793,0.215802,0.432012,0.044657,-0.834640,0.548982
-0.417996,-0.445191,-0.008744,-0.611716,0.473575,-0.633664
0.419933,-0.118917,0.725577,0.793945,-0.031787,-0.607158
-0.603007,-0.186067,0.337920,-0.606710,0.386140,-0.694837
0.023707,0.172097,0.711489,0.783766,-0.420842,0.456731
0.487337,0.120264,0.582149,0.872951,-0.203659,-0.443260
0.603323,0.117928,0.201036,0.871990,-0.047364,-0.487226
