0.310378,0.259025,0.817070,0.823769,-0.241617,-0.512861
0.152787,0.209196,0.405089,0.791743,0.610638,-0.016278
-0.301979,-0.163126,-0.983920,0.181021,0.169542,0.968755
0.008734,0.584321,0.535841,-0.582253,0.712164,0.392178
-0.292646,-0.049473,0.905111,-0.481786,-0.262505,0.836047
-0.172390,0.409156,0.536135,-0.570307,0.800218,-0.185474
-0.504900,0.104657,0.900407,0.299176,-0.663973,-0.685298
0.093794,0.142491,0.765657,-0.708585,-0.342698,-0.616818
-0.162788,0.216798,0.620736,0.803798,0.249054,-0.540259
0.852142,0.399080,0.796111,0.922523,-0.189620,0.336150
0.060862,0.401716,0.849229,0.475640,0.365866,0.799943
0.772549,0.343491,0.536076,0.971620,-0.105371,-0.211782
0.190919,-0.267666,0.765334,0.743021,0.665534,-0.070600
-0.334444,0.201039,0.878742,-0.574414,0.371229,-0.729546
-0.220987,0.313658,0.728648,0.809337,0.544690,-0.219743
-0.042732,0.296620,0.828035,-0.413035,-0.850130,0.326621
-0.113324,0.488022,0.433896,-0.461987,0.886751,0.015524
-0.341511,0.149687,0.783324,0.269253,0.937923,0.218640
-0.278182,0.001479,0.363699,-0.489232,0.869007,0.074013
0.393640,0.715657,0.860723,0.993046,0.067031,-0.096779
-0.227054,0.096900,0.638844,0.883475,0.270865,0.382237
0.774348,0.180164,0.757515,-0.698531,-0.371177,-0.611786
-0.895075,0.488901,0.343152,-0.666573,0.621983,0.410874
-0.587296,0.131692,0.162809,0.054977,0.983337,0.173279
-0.022530,0.388760,0.907491,0.737726,0.549736,0.391856
-0.202853,-0.083226,0.894910,-0.599605,0.422382,-0.679755
-0.150122,0.585044,0.697841,0.367937,0.507539,0.779119
-0.257716,-0.050429,-0.437453,0.961951,0.266416,0.060609
-0.512968,-0.026997,0.773212,-0.650664,-0.445229,-0.615149
-0.206787,0.020113,-0.248644,0.856459,0.499105,-0.131804
0.235049,0.279744,0.908285,0.992308,-0.002780,-0.123761
-0.499366,0.004037,0.763570,0.985422,-0.005883,0.170027
-0.462036,-0.052431,0.756574,0.516544,0.820790,0.243898
-0.359512,0.504977,0.538663,0.469281,0.748151,-0.469091
0.090926,-0.172485,0.748990,0.923221,0.377402,-0.072319
-0.213253,0.042111,0.632200,0.810426,0.575400,0.110112
-0.246649,0.020274,-0.014007,-0.643479,-0.756750,-0.115165
-0.314780,0.275584,0.604892,0.735382,0.674745,0.062705
0.857541,0.422835,0.794465,0.935133,0.275518,0.222746
0.727818,-0.049951,0.746344,0.841386,-0.276911,-0.464102
0.849677,0.335973,0.812337,0.710655,-0.703369,-0.015536
0.789813,0.197997,0.861164,-0.520648,0.809472,-0.271442
-0.903339,0.296137,0.287182,-0.490026,-0.869724,-0.058773
-0.183856,-0.015797,0.670826,0.386966,-0.311397,0.867923
0.044062,0.054906,0.524171,0.333082,0.835891,0.436283
0.305446,0.470423,0.960286,-0.183522,0.924550,0.333957
0.795078,0.413955,0.486633,-0.045565,0.996354,0.072122
-0.383240,0.339493,0.667181,0.244856,0.751114,0.613085
-0.294713,0.113937,0.839705,0.164460,-0.125485,0.978369
-0.315179,0.459068,0.525641,0.871447,0.443575,-0.209335
0.786880,0.129134,0.471200,0.956987,0.035796,0.287915
-0.255519,0.176244,0.213105,-0.085185,-0.988698,0.123367
-0.147522,-0.267188,0.653630,-0.167502,0.591427,0.788769
-0.242385,0.005238,-0.996502,-0.054239,-0.101245,0.993382
0.630559,-0.112180,0.694490,0.835593,0.438852,0.330443
-0.018665,0.399798,0.893205,-0.575258,-0.803169,-0.154913
0.218786,0.222792,0.940150,0.195164,0.699867,0.687093
-0.307781,-0.093463,0.897232,0.722335,0.633281,-0.277826
0.130991,0.365566,0.669151,0.179344,0.881734,-0.436327
0.709350,-0.045230,0.680321,-0.553807,0.433607,0.710833
-0.483099,0.075625,0.225098,0.054348,0.973212,0.223394
0.804013,0.205037,0.797022,0.712597,-0.567625,0.412319
0.102327,0.339009,0.950086,0.745705,0.596993,0.295844
0.375176,0.700538,0.844379,-0.871757,0.467096,-0.147854
-0.453772,0.086423,0.205256,0.861508,0.469817,0.192552
-0.348579,0.540409,0.501154,0.959661,0.185855,0.210973
-0.214319,0.283102,0.661361,-0.309693,-0.918506,-0.245838
0.465368,0.904579,0.768655,-0.403458,-0.207459,-0.891169
0.000132,0.610234,0.376428,-0.614351,0.728572,-0.302913
-0.225919,0.161525,0.770154,0.873838,0.149346,0.462713
0.528832,0.780044,0.742023,0.667727,0.642500,-0.375945
-0.160790,0.037151,0.540044,-0.781972,0.553801,-0.286050
0.232783,0.102338,0.761071,0.639759,-0.199087,0.742342
0.389038,0.865466,0.831592,-0.443786,0.726333,-0.524875
0.811479,0.365327,0.794729,-0.497798,0.820065,-0.282296
0.249448,0.252869,0.807164,0.265854,0.464648,-0.844644
0.260849,0.417553,0.825742,0.454797,0.889971,-0.033343
-0.168256,-0.140333,0.932272,0.008460,-0.521683,0.853098
-0.168456,0.585923,0.669415,0.014517,0.166834,0.985878
-0.307578,-0.008519,0.875979,-0.404081,0.053187,-0.913176
-0.838609,0.125136,0.156342,-0.498791,-0.838830,0.218111
-0.496900,-0.156731,0.960198,0.881677,0.113344,-0.458038
0.260247,0.591039,0.791084,0.912596,0.352304,-0.207487
-0.111127,0.093458,0.759660,0.724815,0.529858,0.440335
-0.408906,-0.142735,0.850669,0.247010,0.874572,0.417265
0.114993,0.447469,0.819510,-0.580746,-0.781025,-0.229641
0.229385,0.397718,0.741846,0.700403,-0.031151,-0.713068
-0.266915,0.307097,0.915987,0.902077,0.286302,-0.322938
0.058462,-0.186882,0.723033,0.736896,0.425783,-0.525065
-0.445903,0.077782,0.943237,0.443064,-0.884653,-0.145202
0.771882,0.171284,0.493570,0.980807,0.045091,0.189695
-0.312513,0.381320,0.325514,0.690055,-0.495723,0.527335
0.210718,0.679341,0.728618,0.958180,0.282146,-0.047809
0.101924,0.148491,0.733909,-0.025871,-0.981580,0.189290
-0.253118,-0.003559,-0.121213,-0.241441,0.968784,0.056239
0.205319,0.659267,0.720093,0.988487,0.053966,-0.141355
-0.047199,0.384122,0.877684,0.590997,0.413523,-0.692619
0.415436,0.868903,0.842703,-0.545118,0.837024,0.047291
0.259315,0.415874,0.956965,0.115221,-0.822868,0.556428
0.753947,0.249349,0.875832,-0.264460,0.889627,0.372322
0.746351,0.218794,0.808810,-0.436601,0.615847,0.655830
-0.177122,0.088659,0.790673,0.010919,0.999916,-0.007013
0.099527,0.375086,0.750518,0.880376,-0.400839,0.253509
0.019398,0.444271,0.560592,0.058530,0.209295,0.976099
0.750350,0.048189,0.586725,-0.533097,0.753315,0.385129
-0.492632,0.342129,0.792466,0.848217,-0.514467,0.125906
-0.213253,-0.056268,0.009510,-0.585978,0.809792,-0.029431
0.167056,-0.094503,0.830592,0.910921,-0.074461,0.405806
-0.052196,0.541610,0.576907,-0.402124,0.901344,0.160858
-0.031799,0.297499,0.827241,0.419120,-0.580240,0.698326
-0.268514,0.122973,-0.048841,0.866957,0.426560,0.257744
-0.028532,0.637831,0.422373,0.859457,-0.508029,-0.056912
-0.123525,-0.014040,0.736673,0.941854,-0.325338,-0.084060
0.687887,0.099780,0.572409,-0.340900,0.891567,-0.298152
-0.103795,0.535532,0.745315,-0.012707,0.960428,0.278238
-0.155725,-0.013879,0.125417,0.274945,0.954589,-0.114737
-0.117393,0.087780,0.412614,0.399013,-0.910970,-0.104510
-0.518099,0.169844,0.866543,-0.351919,-0.928625,0.117508
-0.467903,0.303577,0.766127,0.631801,-0.713849,0.302072
-0.564629,0.541049,0.223040,0.491868,-0.851052,-0.183784
0.714619,0.172646,0.822596,-0.617805,0.613118,0.492344
-0.274581,-0.156888,-0.984743,-0.082975,-0.086104,0.992825
-0.234052,0.052109,0.602128,0.449255,0.856404,0.254444
-0.152189,0.169527,0.847260,0.470031,0.789371,0.394924
0.280916,0.335890,0.809310,0.354914,0.889360,0.288227
-0.325912,0.563608,0.869277,-0.644413,0.762161,0.061988
-0.047330,0.527614,0.428870,-0.574187,0.807274,0.136447
-0.256849,0.008758,-0.291856,0.925887,-0.377787,-0.003132
-0.127524,0.433473,0.793377,-0.693778,0.706164,-0.141438
-0.041263,0.545291,0.689610,0.014223,0.991589,0.128639
-0.070196,0.661908,0.375487,-0.147078,0.982055,-0.118050
-0.017733,0.616234,0.351177,-0.310243,0.931939,0.187723
0.219250,0.621755,0.562444,0.972135,-0.200648,-0.121221
0.198988,0.267105,0.733410,-0.425103,-0.882730,-0.200187
-0.215588,0.016676,0.620648,0.203884,0.939556,0.275075
-0.051732,0.399559,0.506210,0.961325,-0.033509,-0.273372
0.187119,0.751407,0.547775,-0.805068,0.383793,0.452293
-0.279650,0.492660,0.578171,-0.020721,0.995450,0.093007
0.433705,0.274066,0.729265,0.982413,0.154829,0.104372
-0.229918,0.176161,0.880212,0.876343,-0.445764,-0.182531
-0.498968,0.575046,0.247204,0.127699,0.930384,0.343626
-0.243451,-0.174487,0.885004,0.951333,0.060846,-0.302098
-0.402506,0.233352,0.814278,0.916926,0.335782,-0.215634
0.310113,0.172646,0.709100,-0.038737,0.935490,0.351224
0.810144,0.277342,0.888708,-0.718966,-0.272389,-0.639447
0.107726,0.222475,0.904523,0.746969,-0.516323,-0.418866
0.574695,-0.078983,0.790908,0.527952,0.805582,-0.268893
-0.342309,-0.185285,0.780913,0.212530,0.965691,-0.149237
0.467834,0.228714,0.882740,-0.265942,0.151678,0.951981
-0.431373,0.127772,0.886856,-0.112036,-0.809092,0.576903
-0.011533,0.231750,0.895145,0.916108,0.397038,0.055741
0.700818,0.434112,0.898908,-0.050216,0.198207,0.978873
-0.275980,0.049307,-0.076620,0.946759,0.162143,0.278133
-0.169188,0.428591,0.300675,0.802684,-0.583797,0.121983
-0.034664,0.011878,-0.060070,-0.292705,-0.308733,0.904991
0.743348,0.014758,0.513382,0.978080,0.150589,0.143810
-0.293582,0.032113,-0.330159,0.968719,-0.226719,0.100906
-0.026131,0.332053,0.841616,0.890664,0.278261,0.359566
0.791079,0.299178,0.847230,-0.106519,0.990726,-0.084359
0.845876,0.366206,0.825801,0.954686,0.015653,0.297202
-0.353445,0.138249,0.915723,0.737196,-0.675458,0.017312
0.281982,0.093219,0.783118,-0.400235,0.649940,0.646057
0.004466,-0.288863,0.869718,0.581275,-0.759786,0.291282
-0.143926,0.097617,0.754839,-0.188040,-0.884148,0.427695
0.359174,0.437471,0.810015,0.858150,0.378440,-0.346933
-0.093261,0.515614,0.480077,0.325695,0.942405,-0.076132
-0.283980,0.231672,0.560563,-0.212260,0.755398,0.619935
0.353710,0.173686,0.805136,-0.311898,0.619746,0.720163
-0.174457,0.112097,0.919603,0.655570,0.029872,-0.754543
0.766947,0.490419,0.870188,0.548614,0.772435,0.319950
0.350910,0.925855,0.721828,-0.173825,0.898970,-0.402041
0.137456,0.612236,0.527052,0.440679,-0.793041,-0.420580
0.292048,0.226312,0.562327,0.965853,-0.214150,-0.145834
-0.286181,-0.064030,-0.974573,0.328723,-0.925849,0.186400
0.388774,0.716614,0.895792,0.008869,-0.976754,0.214182
0.104125,0.653668,0.618649,-0.109615,-0.985762,-0.127508
0.214852,0.123774,0.759219,0.994892,-0.090982,-0.043717
-0.905939,0.302220,0.191852,-0.749999,-0.660831,0.028368
-0.377442,0.091222,0.883593,0.063451,0.991498,-0.113606
0.121726,0.431954,0.797993,0.734508,0.593588,0.328864
-0.237449,-0.053632,0.869306,0.990064,0.138624,-0.023598
0.556296,0.017955,0.612505,0.957811,0.141230,0.250305
-0.126259,0.022593,0.890295,-0.674566,-0.140252,-0.724769
0.137525,0.033792,0.771830,0.651270,0.710234,0.267236
-0.190590,0.544329,0.538193,-0.014060,0.929085,0.369598
-0.267249,0.225755,0.780443,0.825920,-0.559271,-0.071217
0.286246,0.249110,0.645781,0.119379,0.970131,0.211174
-0.783214,0.122895,0.157047,-0.066875,0.856136,0.512405
0.683086,0.325096,0.636786,-0.498029,-0.147048,-0.854601
-0.036267,0.649347,0.399327,-0.272486,-0.948969,-0.158772
0.271513,0.475945,0.771095,-0.750609,0.041793,0.659424
0.300511,0.097378,0.450240,0.779603,0.386810,-0.492541
0.360443,0.854267,0.860282,0.069469,0.888974,0.452658
-0.405175,0.102977,0.146259,-0.550509,-0.786715,-0.279318
-0.252715,-0.145293,-0.989888,-0.312547,0.606053,0.731447
0.176187,0.234631,0.799080,0.201819,-0.668352,0.715943
0.061794,0.322694,0.969605,0.260127,0.701918,0.663057
-0.333777,0.586162,0.421844,-0.464729,0.849536,0.249633
0.144125,0.038913,0.470641,0.969603,0.213166,0.120125
-0.225984,0.099941,0.866308,0.631527,0.315772,0.708139
-0.215987,0.420433,0.824213,-0.281768,0.865080,-0.415022
-0.020264,-0.002763,0.721034,-0.364262,-0.895427,0.255977
-0.231985,-0.087302,0.888796,0.488609,-0.769788,-0.410716
-0.431304,0.434991,0.417199,0.374493,0.819954,0.432932
-0.153792,0.058426,0.857401,0.723878,0.689924,0.002581
0.255051,0.178963,0.698635,-0.707351,0.668370,0.230081
-0.278247,0.144649,0.828358,-0.717944,-0.554377,-0.420979
0.046064,0.361808,0.868718,0.005521,-0.533774,0.845609
0.048998,0.503459,0.773653,0.162103,0.951777,0.260469
-0.456636,0.551686,0.559563,-0.140757,0.970893,0.193791
-0.200985,-0.026274,0.222041,0.177187,0.982149,0.063148
-0.243919,0.042672,0.945530,-0.514892,0.039176,-0.856359
0.595625,-0.076508,0.816776,0.975619,-0.214049,-0.048479
-0.264449,0.095538,-0.175154,-0.767452,-0.632883,0.102349
0.767813,0.159285,0.560269,0.998381,-0.053750,0.018620
-0.474970,-0.004760,0.836530,0.152078,-0.987952,0.028701
-0.370709,-0.060589,-0.978688,0.376492,-0.462024,-0.802986
0.200985,0.207995,0.675647,0.140494,-0.437561,-0.888145
-0.192986,0.554088,0.857460,-0.171261,-0.978705,-0.113166
0.288646,0.061545,0.777092,-0.024431,0.662006,0.749101
-0.155790,0.034432,-0.056895,-0.181669,0.868962,0.460327
0.635555,0.149047,0.934947,-0.702197,-0.640149,-0.311653
0.665688,0.331892,0.821685,0.573071,0.378449,-0.726888
-0.154390,0.518973,0.728030,-0.504561,0.657447,0.559626
0.760547,0.087463,0.468672,0.953412,-0.007451,0.301579
-0.321046,0.432272,0.869953,0.881692,0.410690,-0.232278
0.491632,0.963767,0.651631,-0.193779,0.980607,-0.029311
-0.027600,-0.080023,0.691168,0.966994,0.109424,-0.230107
0.193385,0.289820,0.928539,0.880529,-0.466823,0.082130
-0.239785,-0.050512,-0.492688,0.909946,-0.414694,0.005258
0.065261,0.264864,0.857137,-0.643803,0.740839,-0.191509
0.722085,-0.011160,0.747461,0.251420,0.804910,-0.537502
0.774816,0.609116,0.736673,0.776145,0.627175,0.065195
0.326176,0.386602,0.740876,-0.367165,0.895137,-0.252823
0.533165,-0.068907,0.771477,-0.404767,0.869005,-0.284593
-0.031933,-0.093785,0.888414,0.144078,-0.575135,0.805271
-0.069195,0.474822,0.800079,0.750288,0.651153,-0.114313
0.297378,0.368847,0.839999,0.977282,0.055742,0.204483
0.104194,-0.073545,0.663301,0.208459,-0.844051,0.494087
0.833678,0.354128,0.815748,-0.773781,-0.587333,-0.237283
-0.186122,0.144971,0.818511,-0.457256,0.885410,-0.083464
0.703287,-0.110017,0.694431,-0.643287,0.757320,-0.112464
0.220450,0.419794,0.458853,0.819445,0.199818,-0.537198
-0.347309,0.012117,-0.992945,-0.194892,-0.320602,-0.926948
-0.074863,-0.039475,0.246087,0.097522,-0.984799,-0.143737
-0.472570,-0.091144,0.813455,0.900088,-0.304845,-0.311306
-0.279182,0.016754,-0.999441,-0.000251,0.302833,0.953044
-0.006532,-0.049473,0.833003,0.526993,0.304152,0.793580
-0.479767,0.551286,0.340947,-0.635084,0.720652,0.278081
-0.335844,0.096577,0.078648,0.933906,0.173263,0.312730
-0.516166,0.548967,0.295589,-0.528941,0.749430,0.398217
-0.461503,-0.121777,0.834179,-0.597604,0.755847,0.267516
0.007130,0.073462,0.527551,-0.040305,0.838571,0.543299
-0.089327,0.306535,0.858048,-0.825179,0.310240,0.472049
0.739483,-0.062029,0.729765,-0.441393,0.843082,-0.307221
0.089193,-0.027397,0.646663,0.743036,0.021364,0.668910
0.363910,0.076103,0.767891,-0.144493,0.678847,0.719922
0.000865,0.629913,0.619355,-0.410402,0.723150,0.555539
0.640824,0.046670,0.816159,0.949494,0.293180,-0.111832
-0.561097,0.831552,0.422667,-0.539738,0.440173,-0.717587
0.277246,0.566483,0.766157,0.975581,0.134164,-0.173901
-0.262851,0.000757,-0.305113,0.900937,-0.294184,0.319013
-0.118459,0.010599,0.491953,0.358273,-0.861789,0.359110
-0.141659,0.245190,0.636051,-0.057291,-0.943684,0.325851
0.198585,0.385323,0.828446,-0.715395,-0.600016,0.358037
0.653490,0.483780,0.869541,0.387530,-0.885532,-0.256230
0.304779,0.445311,0.829387,0.323688,-0.137509,0.936118
0.098791,0.319897,0.628702,0.927081,0.239218,-0.288611
-0.281917,0.019713,0.118980,0.420335,0.897210,-0.135399
-0.013734,0.033314,0.650161,0.563719,-0.256967,-0.784977
0.206852,0.759008,0.885974,-0.144404,0.988786,0.038065
-0.060862,0.101860,0.584315,0.769427,-0.057189,-0.636169
-0.192856,-0.064269,0.850229,-0.150515,0.920633,0.360250
-0.383908,0.547927,0.447359,0.988307,0.143209,-0.052352
-0.503699,-0.033875,0.810603,0.746323,-0.338764,-0.572924
0.165856,0.492421,0.660420,-0.761490,-0.030746,-0.647447
-0.067795,0.514335,0.203287,0.420815,0.747528,0.513922
0.255783,0.379485,0.771389,0.842585,-0.210256,-0.495825
-0.063462,0.495618,0.497744,-0.289808,-0.922235,-0.255918
-0.098461,-0.084905,0.920308,0.586672,-0.658713,0.471076
-0.225321,0.399959,0.702309,0.784411,-0.446005,-0.431020
0.035799,0.555446,0.736173,-0.262518,-0.868313,-0.420852
0.923137,0.291260,0.621236,0.339936,-0.904183,-0.258644
0.888940,0.436431,0.765775,0.959052,0.202019,0.198512
-0.137790,0.344130,0.784735,-0.450315,-0.882700,0.134379
-0.051732,-0.002680,0.665506,0.298539,0.943708,0.142439
-0.248052,0.185202,0.668592,0.954966,-0.181339,0.234852
-0.469168,0.558809,0.354263,0.911073,0.124493,-0.392999
-0.164123,0.117457,0.783118,0.221728,-0.939117,-0.262482
-0.135926,-0.122417,0.761806,0.962328,-0.162140,-0.218254
-0.489833,0.564325,0.339036,0.334827,-0.908901,-0.248573
-0.433371,0.732134,0.404559,0.131229,0.803208,-0.581065
0.601760,-0.141612,0.714332,0.405316,-0.903875,-0.136852
-0.513631,0.690863,0.404883,0.211895,-0.826143,0.522099
-0.273116,0.215274,0.123212,-0.633035,0.766174,0.110653
0.643888,-0.134895,0.687670,-0.035902,0.933719,-0.356202
-0.082996,0.533853,0.574026,0.346256,-0.900942,0.261553
0.160388,0.096499,0.430016,0.746356,-0.492219,-0.447965
0.414171,0.846427,0.659568,0.914905,-0.402020,0.036450
0.057864,-0.206482,0.569117,0.821348,-0.569585,-0.030981
-0.209522,0.051469,0.630084,0.834685,-0.338740,0.434229
-0.187054,0.109456,0.673002,0.498758,0.866466,-0.021839
-0.287649,-0.073066,-0.986302,-0.732621,0.180017,-0.656399
-0.217919,-0.018200,0.411879,-0.657181,0.745042,0.114128
-0.257984,0.212077,0.790409,0.832621,-0.486786,-0.264161
-0.675420,0.031312,0.208343,-0.264698,0.874271,0.406921
0.122858,-0.133616,-0.111483,0.892494,0.401202,0.206136
0.018865,0.262145,0.552655,-0.150545,0.950366,0.272289
0.132859,0.391479,0.681262,0.043127,-0.725232,0.687153
-0.234317,0.568963,0.507680,-0.205345,0.976178,0.070074
0.706420,0.318613,0.867543,-0.594412,0.749406,-0.291659
-0.265715,-0.198564,0.829504,0.951701,0.296753,-0.078756
0.184987,-0.237194,0.685759,-0.288076,-0.956897,-0.036876
-0.484503,-0.099780,0.830240,0.698762,0.266947,-0.663680
0.107661,-0.065627,0.751812,0.932722,-0.358499,0.038845
0.417170,0.783564,0.715508,-0.286838,0.956267,0.057250
-0.236583,0.495618,0.915428,-0.228893,0.964489,-0.131794
0.106725,-0.065387,0.711481,-0.439934,0.879225,0.182816
-0.331779,-0.152811,0.784911,-0.759516,0.649336,0.038706
-0.218453,0.000117,0.470612,-0.291190,0.953873,-0.073042
-0.873076,0.472264,0.389773,-0.460835,0.885603,0.057781
-0.127927,0.104979,0.048430,-0.725747,0.682528,-0.086297
-0.285583,-0.085705,0.743551,0.989079,0.041092,-0.141540
-0.081194,0.576164,0.610389,-0.675255,0.737574,0.003947
0.125990,0.399319,0.790232,0.854768,0.213021,-0.473280
0.205184,0.439790,0.576319,0.623556,0.723855,0.295317
-0.081930,0.375242,0.768832,0.727449,-0.625716,-0.281599
-0.234186,0.105779,0.699281,0.970929,0.193863,-0.140408
-0.074061,0.135930,0.435131,-0.576731,0.741889,0.342027
-0.192588,0.306135,0.661096,0.824792,0.243896,0.510130
0.648555,0.290142,0.894999,0.921675,-0.386285,0.036052
0.117060,-0.256711,0.705249,-0.117551,-0.992775,0.024087
-0.171190,-0.133216,0.796317,0.103179,0.643895,0.758125
-0.001800,0.196079,0.655746,0.220263,0.922227,0.317776
-0.286115,0.009876,0.952614,0.050771,-0.222729,0.973557
-0.304779,0.360206,0.868219,0.839662,-0.113797,-0.531054
0.295913,0.383883,0.785440,0.326118,0.051448,0.943928
-0.113992,-0.060911,0.755486,-0.728787,0.584975,-0.355913
-0.150724,0.334772,0.944677,-0.492914,0.679129,-0.543893
-0.201120,0.235832,0.728912,0.810946,0.215887,0.543837
0.167789,-0.027314,0.813513,0.741304,-0.505255,0.441799
-0.053864,0.019073,0.192263,0.782351,-0.330015,-0.528222
-0.324577,-0.111858,0.784353,0.972069,-0.123699,-0.199450
-0.292516,0.395160,0.474992,0.180173,-0.841428,-0.509447
-0.271448,0.385802,0.826448,-0.330982,-0.943495,0.016386
-0.198385,0.062268,0.861605,-0.180452,-0.982383,0.048594
0.407104,-0.193843,0.723239,0.970774,0.222103,0.090931
0.138124,0.055389,0.749078,0.413495,0.907843,-0.069587
-0.072731,0.122095,0.323604,0.156089,0.987743,0.000110
-0.266850,0.248627,0.906668,0.843851,-0.536498,-0.009262
-0.336576,-0.083465,0.857225,-0.339742,-0.919979,-0.195484
0.159387,0.181121,0.739025,-0.533059,0.832879,-0.148863
0.041662,0.208635,0.904493,-0.446907,0.862815,0.236271
-0.204655,-0.021558,0.113835,0.175102,0.970115,-0.167979
0.419904,0.161608,0.787234,-0.461676,-0.724647,0.511608
0.640958,-0.014440,0.738730,0.380095,-0.765810,0.518712
0.614292,0.270546,0.938063,0.484052,0.854322,0.189281
-0.234520,-0.018278,-0.316460,0.838057,0.522465,-0.157137
-0.235651,0.006595,-0.033702,0.181630,-0.982291,-0.045995
0.042728,-0.231277,0.848289,0.964808,-0.037914,0.260207
0.229719,0.522176,0.742434,-0.703880,0.336028,0.625811
-0.159655,0.311896,0.948557,-0.732832,0.636580,-0.240256
-0.238186,0.118175,0.360113,0.862359,-0.359570,-0.356435
-0.222720,-0.113620,-0.992769,-0.237905,0.127032,0.962946
0.397839,0.798199,0.689904,0.916354,-0.211703,-0.339820
0.153922,0.234152,0.803754,0.061755,-0.568782,0.820167
0.017331,0.618953,0.515205,-0.138121,0.963982,0.227293
0.045462,0.589042,0.666358,-0.469314,0.633339,0.615326
-0.135658,0.128251,-0.073387,-0.664686,-0.061909,0.744553
-0.208586,0.010037,-0.107956,0.034952,-0.078102,0.996333
-0.030330,0.018116,0.802343,0.749628,0.524130,-0.404161
-0.191522,0.040749,0.630819,0.535964,0.844139,-0.013118
-0.226517,0.350369,0.603128,0.820712,-0.098147,-0.562849
-0.258782,0.021475,-0.106222,-0.378018,0.900016,-0.216967
0.224584,0.093858,0.753840,0.457387,-0.240627,-0.856093
0.028129,0.021475,0.959111,-0.719756,0.449470,0.529082
-0.241449,-0.042755,-0.233241,-0.453140,0.891379,-0.010338
0.270313,0.146328,0.504152,0.960247,0.277270,0.032368
-0.407108,0.138732,0.675559,0.590431,0.101310,0.800704
-0.038997,-0.228396,0.902935,-0.763939,0.091126,-0.638821
0.368573,0.417953,0.804136,0.550409,0.823765,0.135872
0.358177,0.263507,0.758161,0.552565,-0.688271,-0.470058
0.272913,0.613915,0.745345,0.955322,0.101428,-0.277619
-0.078329,0.350530,0.793407,0.958652,-0.274020,0.076804
-0.315179,-0.064269,-0.969046,-0.192554,0.711278,0.676022
-0.131593,0.014997,0.946882,0.453914,0.369324,-0.810902
0.291112,0.145288,0.771918,0.732444,-0.273833,-0.623330
-0.299913,0.676144,0.405118,0.834489,-0.443826,-0.326568
0.646821,-0.026435,0.762041,0.946228,-0.223371,-0.234006
-0.119460,0.385162,0.947499,-0.076910,0.984881,0.155225
0.552028,0.819553,0.764805,-0.703580,-0.499278,0.505665
-0.403975,-0.082264,0.793465,-0.194779,0.967658,0.160312
0.273450,0.569285,0.770419,0.541665,0.628526,0.558171
-0.534296,0.068663,0.261402,0.352530,0.318128,-0.880066
-0.057062,0.436910,0.867837,0.156957,-0.942768,-0.294200
-0.540232,0.132015,0.154225,0.092472,0.978486,0.184430
0.007867,0.667186,0.451563,0.786445,-0.611183,-0.089224
-0.350975,0.005160,-0.987918,0.035350,0.236628,0.970957
-0.340376,0.460826,0.908344,0.995798,-0.002630,-0.091541
0.025997,0.309816,0.848347,-0.616606,0.780174,-0.105479
0.211983,0.165846,0.724091,0.242012,-0.953930,-0.177332
-0.074997,0.414355,0.842615,-0.015193,0.632584,0.774343
0.846609,0.432433,0.531461,-0.023789,0.996228,0.083455
0.117393,-0.198402,0.734057,-0.001224,-0.819719,0.572765
-0.272583,0.247348,0.913048,0.374802,0.611865,-0.696523
0.001731,-0.034993,0.794641,0.139471,-0.626578,0.766778
-0.219120,0.018673,0.320635,0.905013,-0.420349,0.065261
0.301313,0.382921,0.815924,-0.221884,-0.332596,0.916596
-0.045731,0.298861,0.541191,-0.064878,0.616476,0.784697
-0.076661,0.341650,0.791525,0.794679,0.595147,-0.119525
0.007667,0.334293,0.825536,-0.216537,-0.224865,0.950025
0.119725,0.356369,0.876626,0.006933,0.761170,0.648515
-0.211519,0.225912,0.600659,0.685694,-0.553947,-0.472193
0.781012,0.328933,0.729882,0.841917,0.201939,0.500396
0.115660,0.432032,0.789908,0.680064,0.700258,-0.217146
-0.086393,0.351648,0.813425,0.908196,0.405878,-0.102190
0.700285,-0.095703,0.760483,-0.517195,0.854342,0.051082
0.263180,0.368447,0.773859,0.003093,0.809712,0.586819
0.409907,0.119776,0.775916,0.425972,0.284370,-0.858884
0.223852,0.254148,0.652160,0.425662,0.886038,0.183706
0.147791,0.372284,0.871306,-0.329715,-0.741317,-0.584583
0.613490,0.190963,0.892118,0.683595,0.411642,0.602702
-0.111461,0.095538,0.721446,-0.050611,0.924326,0.378234
-0.467504,0.338292,0.905199,0.889166,-0.260512,-0.376189
-0.242450,-0.001401,0.719006,-0.305407,0.400118,0.864079
0.117658,-0.079144,0.745433,0.896924,-0.441901,0.015823
-0.117194,0.378523,0.762482,0.463458,0.792334,-0.396752
-0.222851,-0.076508,0.891118,0.325597,0.910448,-0.255090
0.203451,-0.255989,0.619560,-0.664977,-0.743102,-0.074860
0.173322,0.309816,0.693726,0.964247,-0.235508,-0.121503
0.730019,0.121856,0.848524,-0.768002,0.581115,0.269219
-0.263449,-0.047232,0.494745,-0.227333,0.843952,0.485865
0.809477,0.381564,0.824978,0.100523,0.048465,0.993754
0.305113,0.187682,0.765128,-0.402729,0.610741,0.681766
-0.274516,-0.001962,-0.106339,0.122236,0.954826,-0.270861
0.262582,0.196001,0.721475,0.483835,-0.247766,-0.839355
0.561895,0.782040,0.763011,0.706520,0.498207,-0.502613
-0.217854,0.221996,0.707248,0.819874,-0.538055,0.195712
0.078061,0.164967,0.847995,0.587549,0.121062,-0.800082
-0.286514,-0.091862,-0.933742,0.755503,-0.623243,0.201950
0.569161,-0.119058,0.758602,-0.469232,0.777076,-0.419494
-0.165657,0.051547,0.668328,0.904541,-0.169397,-0.391294
-0.415172,0.447230,0.405089,0.383401,0.861781,0.332170
-0.107526,0.081780,0.743081,-0.292287,-0.950710,-0.103534
-0.283715,-0.131136,-0.345415,0.956548,-0.289157,-0.037472
0.089327,0.324774,0.834414,-0.702346,0.551445,-0.450131
0.243451,0.658145,0.794612,0.945510,-0.319243,0.063982
-0.221252,0.201840,0.893029,0.632324,0.686306,-0.359376
0.626490,-0.173686,0.767303,-0.869084,0.214370,-0.445802
0.087394,0.357008,0.634757,-0.060293,-0.576383,0.814952
-0.874276,0.229271,0.317342,-0.596620,-0.324567,0.733962
0.679156,-0.105779,0.712598,-0.548486,0.752392,-0.364786
0.073528,-0.182805,0.552685,0.782177,-0.623057,-0.000248
-0.357375,0.239269,0.702603,-0.901544,0.236733,0.362183
-0.275516,0.029393,-0.993974,-0.008641,0.404002,0.914717
0.359508,0.087302,0.781208,0.121042,-0.958786,-0.257057
-0.057331,-0.238155,0.831945,0.463285,0.527935,0.711795
0.744951,0.412754,0.587989,0.692219,0.428436,0.580754
-0.073329,0.456188,0.827682,-0.598171,0.722749,0.346158
-0.271981,-0.102660,0.847583,0.322636,-0.824187,-0.465426
-0.282250,0.552008,0.724150,0.523082,-0.707425,-0.475326
0.037797,-0.089626,0.697077,0.504321,-0.264162,-0.822119
0.214185,0.733574,0.542161,-0.805068,0.383793,0.452293
-0.069264,0.132893,0.674472,0.041646,0.672437,0.738982
-0.301780,0.370927,0.630936,0.968178,0.165710,-0.187539
-0.067197,0.082981,0.139204,0.851073,-0.513937,-0.107441
-0.221451,-0.052270,-0.989623,0.402607,-0.159404,-0.901386
0.279581,0.254549,0.528080,0.963658,0.101011,-0.247306
0.325778,0.179441,0.801755,-0.525153,0.843472,0.112998
-0.187990,0.012039,0.654218,0.786574,0.584637,-0.198749
0.212187,0.020753,0.759367,0.633733,-0.104699,-0.766434
0.821679,0.399559,0.773094,0.615083,-0.755612,0.225220
0.412771,0.168243,0.804606,-0.073687,-0.993119,-0.091022
-0.052997,0.131614,0.597749,-0.521829,0.745751,-0.414186
0.482567,-0.236715,0.753810,-0.210694,-0.934276,-0.287640
-0.265450,-0.064748,0.626997,0.098647,0.927101,-0.361597
-0.374773,-0.085862,-0.988506,-0.305657,0.120415,0.944497
0.189918,0.263424,0.798022,-0.610383,0.779330,-0.141692
-0.253985,-0.018038,0.591311,-0.596471,0.679682,-0.426913
0.092192,0.453869,0.801843,0.547053,0.827748,0.124764
0.034529,0.109695,0.847877,0.003541,-0.654743,0.755843
-0.252182,0.153929,0.789732,0.842262,-0.176715,0.509281
0.012998,-0.302459,0.853756,0.386677,-0.895078,0.222074
-0.235118,0.018595,-0.135618,0.868904,-0.484312,-0.102210
-0.449569,0.304939,0.844056,-0.044637,0.801941,0.595733
0.462833,-0.239435,0.674207,0.153887,0.986708,0.052207
0.381707,-0.198402,0.662448,-0.651038,0.648851,0.393881
-0.254717,-0.065148,-0.339653,0.928235,-0.354466,-0.112843
0.109724,0.484903,0.602863,-0.116159,0.256307,0.959590
0.202585,0.168165,0.728178,0.206512,-0.958678,-0.195676
-0.293846,-0.108977,-0.302027,0.864580,-0.494581,0.088835
0.111925,0.332614,0.888032,-0.360751,-0.273633,-0.891619
0.138058,0.439712,0.695460,0.754760,0.307359,-0.579541
0.232783,0.078583,0.749254,-0.510725,0.398832,0.761639
0.788015,0.145210,0.853492,-0.750030,0.321445,0.578038
0.283915,0.446990,0.784823,0.646997,0.324077,-0.690195
0.262782,0.439072,0.731205,0.898623,0.260131,-0.353283
0.128456,0.160886,0.917104,0.163738,-0.983640,0.075115
0.255315,0.194800,0.407675,0.618905,0.457201,0.638689
-0.038000,-0.047793,0.835413,0.120264,-0.172414,0.977655
0.053730,0.431232,0.845408,-0.031336,0.737294,0.674845
-0.240786,0.033470,-0.062539,0.931504,0.335286,0.141008
0.093392,0.372362,0.848494,-0.299679,-0.408167,-0.862318
-0.190590,0.310695,0.724209,0.714792,-0.042636,0.698036
-0.078329,-0.106258,0.818452,-0.142071,-0.214584,0.966317
-0.332312,0.108577,0.074033,0.888670,0.321220,0.327235
-0.200920,-0.253909,0.729441,-0.250287,-0.847512,0.468059
0.070863,0.434190,0.847554,0.144219,0.552691,0.820813
0.246385,0.249667,0.644635,0.203401,0.969514,0.136641
0.300312,0.473865,0.795817,0.868570,-0.393944,0.300656
-0.060195,0.532252,0.551215,0.073655,0.980272,-0.183419
0.629757,-0.105218,0.763864,-0.208326,-0.967677,0.142134
-0.271716,-0.014997,0.720887,0.697294,-0.626340,-0.348539
-0.311045,0.303020,0.900055,0.594118,-0.798420,0.097724
0.220585,0.713978,0.943501,0.490494,-0.786317,-0.375661
-0.426503,0.189762,0.889942,0.267775,0.336484,0.902815
-0.226118,0.037151,0.651484,0.870344,-0.257193,-0.419945
-0.248984,-0.043873,-0.273454,-0.469982,0.871616,0.139291
0.809343,0.049629,0.886856,0.828806,-0.558028,0.041056
-0.224584,-0.198642,-0.515763,0.943071,0.309320,0.122224
-0.153589,0.055707,0.665417,0.962566,-0.127166,-0.239363
-0.318246,-0.030433,-0.988682,-0.225459,0.200488,-0.953401
0.638155,-0.128256,0.679586,-0.466718,0.629623,-0.621087
-0.852878,0.454909,0.356262,0.176718,0.561721,0.808233
-0.449768,0.103778,0.739642,0.993554,-0.007680,-0.113099
-0.360309,0.020035,0.907874,0.471453,0.236877,0.849483
0.272046,0.262706,0.689051,0.351249,-0.422837,0.835364
-0.076527,-0.106102,0.807576,0.506647,-0.426609,0.749208
0.842808,0.394042,0.728325,-0.446488,0.879110,-0.166775
-0.193987,0.074824,0.750166,0.079546,-0.806356,0.586057
-0.202454,0.236872,0.917016,-0.234996,-0.438200,0.867616
-0.313913,0.251590,0.624028,0.991048,-0.048418,0.124415
0.263583,0.065787,0.806165,0.216201,-0.976181,-0.018120
-0.339713,-0.079706,-0.904464,0.788877,-0.597510,0.143719
0.171654,0.082420,0.744198,-0.198461,0.225794,0.953745
-0.266651,0.351409,0.697459,0.199396,-0.962062,-0.186222
-0.088928,-0.433873,0.355439,0.738424,-0.364995,-0.567018
-0.351643,-0.010120,-0.987389,0.004284,0.129864,0.991523
0.677687,0.561045,0.837324,0.067629,0.724768,0.685666
0.255515,0.408756,0.780120,0.513256,-0.807058,0.291935
0.165254,-0.161447,0.488573,0.872035,-0.271885,0.406982
0.204053,0.379802,0.670238,0.591717,0.179188,-0.785979
-0.189723,0.011878,-0.081588,-0.293097,0.955695,-0.027207
0.205384,0.727252,0.742376,0.972308,0.158411,-0.171821
0.241649,0.086023,0.774799,0.180487,-0.753415,-0.632289
0.005731,-0.032113,0.657275,0.044265,0.279829,0.959029
-0.243919,-0.096582,-0.991328,-0.111235,0.205531,0.972308
-0.216121,0.443232,0.341976,0.431505,-0.826356,0.361856
0.359707,0.115934,0.831915,-0.664463,0.592854,0.454988
-0.098795,0.503137,0.441098,-0.594800,0.790084,-0.148255
0.693954,0.008358,0.781384,-0.481541,0.755297,-0.444572
0.074529,0.191758,0.288652,-0.415259,0.815582,0.402971
0.294713,0.372123,0.775034,0.447856,-0.893514,0.032535
-0.235317,-0.306301,0.885739,-0.686305,0.697454,-0.206261
-0.279850,-0.101542,0.888443,0.466529,-0.827581,0.312187
0.484235,0.958006,0.676470,-0.711731,0.661055,0.237582
0.664956,0.284860,0.879830,0.775026,0.494908,0.392938
-0.308111,0.508097,0.652807,-0.586949,0.496079,-0.639841
-0.306048,0.469945,0.501242,0.938458,0.337254,0.074547
0.292178,0.327732,0.737731,-0.118240,0.343094,-0.931830
-0.211987,-0.026914,-0.304114,-0.708370,-0.683652,0.175590
0.777680,0.262867,0.758132,0.987477,-0.092128,0.128070
0.224784,0.743972,0.965842,0.366772,-0.804634,-0.466949
-0.048330,0.072905,0.911636,0.258068,0.026322,0.965768
-0.134925,0.202640,0.619648,-0.234330,-0.097239,0.967282
-0.308913,-0.081063,-0.820833,-0.985159,0.091952,0.144936
-0.206055,-0.008841,0.276070,-0.664371,-0.721593,0.194716
0.725084,-0.014680,0.727031,-0.397699,0.908359,-0.129305
0.250449,0.465307,0.667152,0.677005,0.274183,-0.682999
-0.437306,0.059549,0.202405,0.936089,-0.163993,0.311196
0.272782,0.056830,0.769273,-0.548170,0.481327,-0.683984
-0.289782,0.022832,0.634405,0.180455,-0.697847,-0.693142
-0.124127,-0.080823,0.785881,0.577624,-0.457832,-0.675826
0.715286,0.158889,0.823332,-0.472678,0.557487,0.682484
0.737750,-0.055472,0.699458,0.126825,0.978642,0.161785
-0.140390,0.538091,0.385334,0.238785,-0.967852,-0.079016
0.292980,-0.037795,0.857078,-0.437454,0.103339,0.893283
-0.279113,-0.087546,-0.767862,0.985516,0.062042,-0.157828
-0.332312,-0.000439,0.825419,-0.357515,0.030551,-0.933407
-0.250050,-0.128895,-0.991005,0.386375,0.150657,0.909954
0.155855,0.169844,0.739936,-0.070050,0.993761,0.086787
-0.110659,0.095381,0.578817,0.780879,-0.624677,0.002492
-0.524165,0.750690,0.440746,0.582305,0.533518,0.613416
0.217785,0.428591,0.669621,0.115280,-0.587831,0.800728
-0.269849,0.067384,0.637903,-0.296908,0.907876,-0.295986
-0.259648,0.248949,0.264459,0.893228,0.180204,-0.411911
0.207585,0.108255,0.457237,-0.020935,0.877224,0.479625
-0.199521,0.463384,0.650837,-0.297642,0.834425,0.463837
-0.300645,-0.065226,0.785999,-0.350876,0.607626,-0.712515
-0.164257,-0.024438,0.771242,0.207289,-0.255836,0.944235
-0.524165,0.253348,0.872040,0.836321,-0.533403,-0.126683
-0.328377,0.105140,0.053721,0.276353,0.938085,-0.208866
-0.053465,0.450989,0.546012,-0.674380,0.086278,0.733326
0.037732,0.588320,0.590605,-0.360044,0.582769,0.728525
-0.398242,0.575524,0.407381,0.177010,-0.984198,0.004641
-0.335709,0.290459,0.948322,-0.071745,-0.793020,0.604956
-0.351976,0.453630,0.352176,-0.018623,-0.424639,0.905171
0.549961,-0.228396,0.697194,-0.159491,0.983999,0.079422
0.247650,0.459708,0.954819,0.020507,0.947437,0.319285
0.224051,0.056585,0.768097,-0.596785,-0.091177,0.797204
-0.025399,0.431154,0.814925,-0.008078,0.999951,0.005671
0.755550,0.210075,0.801902,-0.260313,0.875488,0.407135
0.266781,0.316533,0.549598,0.847338,0.405024,-0.343472
0.294514,0.423475,0.854726,0.974192,0.159869,-0.159346
-0.252784,0.188400,0.876597,0.361605,0.526921,-0.769153
0.222452,0.279104,0.673501,0.963055,0.230473,0.139311
0.604360,0.231272,0.923865,-0.201206,-0.977708,-0.060026
-0.458036,0.549851,0.534518,-0.335592,0.941973,-0.008100
0.631690,0.196718,0.881947,-0.427179,-0.214464,-0.878364
0.061460,0.280222,0.866778,-0.375249,0.676416,0.633758
-0.244317,0.480343,0.920955,0.140793,-0.817659,0.558221
-0.363910,-0.064269,-0.986154,-0.103795,0.268330,0.957719
0.660688,-0.160090,0.637080,-0.086727,0.571531,0.815985
-0.327710,0.592240,0.795141,-0.492796,0.720286,-0.488201
-0.273051,0.346288,0.732763,0.625631,0.643721,-0.440691
0.689551,0.127694,0.913635,0.554910,0.401124,0.728818
0.057795,-0.160568,0.805489,0.861451,0.245267,0.444687
-0.920074,0.437949,0.367433,0.607378,-0.758420,-0.236413
-0.236518,0.253909,0.779738,0.649019,-0.744585,0.156097
-0.134193,0.256228,0.702103,0.397218,0.873175,0.282458
-0.031331,0.272465,0.562268,-0.236378,-0.971659,-0.001804
-0.259115,-0.041554,-0.994944,0.287743,0.068977,0.955220
0.722150,0.140011,0.916281,0.157002,0.557086,0.815479
-0.240652,0.170005,0.786998,0.895340,-0.287649,0.340035
0.714086,-0.097300,0.726590,-0.297448,0.943001,0.149243
0.555828,0.170645,0.896880,0.095013,0.911258,-0.400726
0.630624,0.249589,0.637374,0.466052,-0.339025,0.817225
-0.288716,0.128011,0.620619,-0.061048,-0.299518,0.952135
0.721617,0.144009,0.761395,-0.730741,0.323727,-0.601014
0.076193,-0.082425,-0.061893,0.774651,0.550415,0.311383
-0.229853,0.386280,0.656246,-0.077196,0.572765,0.816076
0.116059,0.060344,0.802343,0.438539,0.879599,0.184362
0.229784,0.296459,0.884004,0.745395,-0.393554,-0.538054
-0.520634,0.121294,0.193998,0.065987,0.965162,0.253197
0.150456,0.158167,0.704190,0.146065,0.319891,0.936128
0.196453,0.402039,0.791966,-0.003893,-0.242752,0.970081
-0.194256,0.018995,0.415495,0.911440,-0.409254,-0.042276
0.121189,0.391001,0.322045,0.826686,-0.029070,-0.561912
-0.260450,-0.001401,-0.989270,0.260679,0.016522,0.965284
-0.081861,0.023794,0.604216,0.595352,-0.801892,-0.050248
-0.446904,0.054906,0.219484,0.853794,-0.474441,0.214342
0.091728,0.383004,0.853139,-0.609732,0.508659,0.607860
0.158390,0.036672,0.796993,-0.027836,0.119948,0.992390
0.319443,-0.198481,0.574438,-0.050790,0.965496,0.255416
0.326311,0.306618,0.859606,0.858769,0.402493,-0.317041
-0.209522,0.121372,0.751753,0.717686,0.661510,-0.217557
-0.033199,0.184641,0.675647,-0.225388,0.702437,0.675116
0.123724,0.098579,0.710687,-0.048666,-0.436035,0.898613
-0.264449,-0.011960,-0.990387,0.559619,0.171705,0.810767
0.671755,0.182644,0.820157,0.986109,-0.166099,-0.000108
-0.021932,-0.167047,0.780120,0.653388,0.696567,-0.296443
0.359577,0.679341,0.846584,-0.221918,0.066401,0.972802
0.282315,0.567445,0.767244,0.958642,0.282739,-0.032629
0.079196,-0.266948,0.533959,0.481325,-0.861850,-0.159813
0.577828,-0.251429,0.706659,0.235168,-0.969836,0.064142
0.167256,0.019635,0.796082,-0.088044,0.646700,0.757646
-0.212720,0.241509,0.580434,-0.136023,0.833397,0.535674
-0.331645,0.728375,0.436189,-0.532127,-0.777225,-0.335800
-0.830545,0.170884,0.303056,0.248220,0.649948,-0.718300
-0.371242,0.470907,0.835354,0.691245,0.551364,-0.467096
-0.227587,-0.007718,0.007981,0.884114,-0.419467,-0.205890
0.608559,-0.153929,0.717154,-0.297443,0.902477,0.311550
0.705021,0.500740,0.874362,0.199732,0.773373,0.601665
0.175519,0.420834,0.599365,0.499519,0.479052,0.721796
0.116323,0.042911,0.742082,0.985363,0.122843,0.118189
0.679221,0.552326,0.837500,0.051888,0.766557,0.640077
-0.044730,0.339331,0.639814,-0.080647,0.612696,0.786193
0.733815,0.588159,0.812837,-0.534012,-0.701477,-0.471975
-0.199586,0.098257,0.741846,0.587347,0.800900,-0.116546
-0.349511,0.090822,0.866926,0.025266,0.190488,0.981364
0.945601,0.390039,0.581698,0.904961,-0.331519,-0.266720
-0.412039,-0.020279,0.726208,-0.655472,0.687145,-0.313351
-0.044530,0.558648,0.597778,-0.281252,0.856674,-0.432443
-0.017733,-0.314776,0.608272,-0.499436,0.632727,-0.591795
0.058861,0.067545,0.723739,0.013096,0.885634,0.464199
-0.384510,0.125854,0.683202,0.555531,0.813002,-0.174394
-0.233051,0.622873,0.709158,-0.008969,0.916104,0.400841
-0.062730,0.631353,0.284507,-0.732774,0.672168,-0.105984
-0.288113,0.516415,0.644840,0.986756,0.114102,-0.115295
0.172053,0.461226,0.699957,0.736576,-0.675445,0.035059
-0.251450,0.013235,0.322722,0.844158,-0.526028,0.103402
0.844875,0.449226,0.832679,0.851120,0.000256,0.524971
-0.230118,0.233112,0.895939,0.524160,0.652501,-0.547265
-0.442505,-0.265987,0.586137,0.872162,-0.445348,0.202482
-0.414574,0.086740,0.170657,0.600613,0.719295,0.349111
-0.242983,-0.106980,-0.994532,0.246697,-0.120146,-0.961616
0.029399,-0.126176,0.827947,0.789291,0.612623,-0.041385
-0.283182,0.138249,0.172833,0.873857,-0.215754,-0.435689
0.164721,0.255349,0.656687,0.107826,0.812362,0.573098
0.315577,0.080663,0.788703,-0.399235,-0.005988,0.916829
-0.318779,0.035071,-0.993327,-0.123477,-0.216095,-0.968533
-0.403840,0.077704,0.175831,0.895002,0.324437,0.306124
0.399239,0.695261,0.911431,0.571818,0.630349,-0.525056
-0.225117,-0.027797,-0.994209,-0.227985,0.020589,0.973447
-0.428904,-0.149931,0.608684,0.831343,-0.458129,0.314620
0.771081,0.279104,0.589459,0.876777,-0.292705,0.381556
0.815210,0.351648,0.821509,0.083405,0.119335,0.989345
0.510230,-0.259987,0.757632,0.191804,-0.892552,0.408120
-0.368577,-0.101781,0.866778,0.116045,-0.335661,0.934808
-0.279182,0.060828,0.573555,0.707110,-0.658838,0.256764
0.150391,0.157049,0.688875,0.821182,0.170327,-0.544654
0.014198,0.076425,0.785382,-0.349949,0.841655,0.411282
-0.341910,-0.079867,0.838618,-0.491691,0.868559,-0.062009
0.066261,0.249027,0.879125,-0.501325,0.506762,0.701332
0.733083,0.041232,0.599894,-0.611980,-0.790763,-0.013217
0.050397,-0.236554,0.808575,0.642316,-0.714990,-0.276079
-0.203720,-0.000283,0.327396,0.538574,-0.835562,0.108507
-0.228917,0.016515,-0.034143,0.181630,-0.982291,-0.045995
-0.217985,0.357726,0.694901,0.408440,0.808295,-0.424071
-0.369976,-0.094664,-0.978629,0.762454,-0.353670,-0.541832
0.771813,0.054828,0.698400,-0.315821,-0.887968,0.334319
-0.223652,0.089142,0.756897,-0.451334,-0.891129,0.046757
0.772012,0.343169,0.598248,0.933265,0.254780,0.253185
-0.180255,0.402278,0.635845,0.938854,0.322759,-0.119913
0.313913,0.529054,0.828829,-0.546843,0.821148,0.163337
-0.347509,0.389483,0.853962,0.961374,0.251232,-0.112443
0.336975,-0.288546,0.727384,0.417904,-0.785285,0.456819
-0.116860,0.379724,0.829005,0.994486,-0.101593,-0.026001
-0.279048,-0.049072,-0.710216,-0.263802,-0.963858,0.037235
0.223050,0.390122,0.787733,-0.395695,-0.820674,-0.412212
0.339310,0.430993,0.817012,0.803053,0.089380,0.589167
0.682219,0.036433,0.584902,0.204016,-0.167406,-0.964548
0.007997,0.552087,0.716742,0.356365,-0.903468,-0.238222
-0.371710,0.147451,0.709541,-0.159593,-0.118216,0.980079
0.203984,-0.102821,0.799639,-0.728320,-0.467796,0.500716
-0.274780,-0.242715,0.877361,0.752134,0.349424,0.558746
0.304246,0.497781,0.818128,0.907693,0.290652,-0.302681
-0.472570,0.023955,0.768185,0.351292,0.310388,0.883319
0.282446,0.301097,0.555213,0.951936,0.253713,-0.171602
0.160323,-0.184006,0.672414,0.639978,0.510438,0.574353
-0.354377,0.074824,0.697929,0.236909,0.559638,0.794153
-0.440304,0.489702,0.400679,0.958440,0.217398,-0.184748
-0.161856,0.046587,0.616914,0.033475,0.725715,0.687181
-0.447636,0.584800,0.390508,0.155050,0.985253,-0.072357
-0.122524,-0.086023,0.763011,0.966742,-0.142734,0.212217
-0.310581,-0.190323,-0.987125,0.074440,0.138502,0.987561
-0.333109,-0.188566,-0.983568,-0.242602,0.544598,-0.802843
-0.046532,0.289102,0.827271,0.142004,-0.506692,0.850352
0.131792,0.434991,0.785999,-0.667624,-0.370266,0.645896
0.261781,0.618475,0.755898,0.979305,0.086314,-0.183059
-0.089527,0.127611,-0.039552,-0.755895,0.654645,0.007911
0.313580,0.806757,0.722475,0.945531,-0.295794,-0.135928
0.118260,-0.111779,0.597631,0.945022,-0.326934,-0.006966
-0.143991,0.154168,0.878919,0.281810,-0.752889,0.594762
-0.412771,0.071382,0.800873,-0.492585,0.647420,0.581556
-0.819010,0.377805,0.322457,0.419447,0.447711,-0.789695
0.268848,0.295741,0.919515,0.752086,-0.655106,-0.072130
0.554563,0.931371,0.703632,0.926387,-0.376339,-0.013290
-0.327177,0.037151,0.026853,0.922570,0.369743,-0.110244
0.282446,0.349090,0.748078,-0.634163,0.732350,-0.247993
0.775813,0.277264,0.568940,0.974557,-0.193349,-0.113380
0.342777,0.402756,0.774740,0.455007,0.581849,-0.674107
-0.096061,0.092262,0.403002,0.540756,-0.841179,-0.001185
-0.296580,-0.055629,0.790467,-0.326787,0.941339,-0.084212
0.364642,0.181360,0.789467,0.463949,0.781145,0.417808
-0.493902,0.584243,0.316989,-0.080687,0.857700,0.507780
-0.260849,0.379323,0.468495,0.044277,0.974805,0.218620
0.221053,0.303660,0.858812,-0.751905,0.654837,0.076334
-0.237185,0.695901,0.295090,-0.036086,-0.931979,0.360712
0.268514,0.503620,0.831474,-0.731736,0.658074,-0.177486
-0.026734,0.207756,0.875744,0.918559,-0.167271,0.358148
0.192388,0.744367,0.905375,-0.484508,0.874521,-0.021555
-0.250449,-0.053632,-0.591516,-0.352890,0.930847,0.094832
-0.212585,0.423875,0.657451,-0.144987,0.867895,0.475118
-0.216052,0.400437,0.619355,0.750377,0.621941,0.223882
0.177053,0.245908,0.692403,0.936516,-0.316831,0.150188
-0.570097,0.122812,0.291003,0.203109,-0.793682,0.573425
-0.837678,0.469706,0.395476,-0.512885,0.851001,0.112902
-0.851210,0.269585,0.313579,-0.374283,-0.179663,0.909743
0.886673,0.412915,0.718771,0.998153,-0.059706,0.011229
-0.238450,0.142969,0.525670,-0.042635,-0.488057,0.871770
-0.035132,0.635752,0.412232,0.954366,0.034754,-0.296610
-0.275915,0.111774,0.810897,0.428682,0.806755,-0.406667
-0.434706,0.057947,0.206079,0.859535,-0.175101,0.480145
0.637622,0.181204,0.892794,-0.004937,0.776010,0.630702
0.340645,0.363248,0.768302,0.265169,-0.941744,-0.206891
-0.323113,-0.044752,0.860076,-0.384719,0.876710,-0.288740
0.546763,-0.247114,0.750548,-0.165560,0.983084,0.078325
0.725617,-0.050751,0.678675,0.820434,-0.359108,0.444892
0.083928,-0.043395,0.662155,-0.250671,-0.852540,-0.458628
0.225052,0.162404,0.513206,0.956276,0.136115,-0.258861
-0.413638,-0.034515,0.859900,0.676233,0.380527,-0.630800
0.825012,0.458829,0.560240,-0.645269,0.198805,0.737634
0.149325,-0.065709,0.796082,-0.150540,-0.850716,0.503606
-0.067596,0.122734,0.219513,-0.270527,-0.961949,0.038324
0.579162,-0.094263,0.800844,0.953941,0.286531,-0.088866
0.591828,-0.190245,0.722151,0.956758,-0.278948,-0.082481
0.148389,0.411236,0.723945,0.424860,0.139677,0.894418
0.629692,-0.126576,0.706042,-0.018170,0.932982,0.359463
-0.240985,-0.059387,0.910196,-0.631767,-0.700342,-0.332252
0.217586,0.758525,0.865573,0.529559,0.844932,-0.075213
0.181252,0.212394,0.492012,-0.715000,0.275624,0.642500
0.267050,0.446029,0.884093,0.741891,0.670350,0.015113
-0.238519,-0.139132,-0.989682,0.527429,-0.570337,-0.629709
0.062795,0.172007,0.903847,-0.642418,0.727001,-0.242423
-0.128057,0.069786,0.551332,-0.073532,0.989489,0.124515
0.311578,0.850831,0.853785,0.322026,-0.737749,0.593317
-0.301780,-0.115777,-0.952643,0.726567,-0.663939,0.176875
0.221586,0.465947,0.956965,-0.345587,0.784939,0.514238
0.181321,0.483863,0.554184,0.791398,0.393527,0.467788
0.090328,0.391318,0.638785,0.510213,0.763800,-0.395338
0.848810,0.413076,0.776034,0.865956,-0.418883,0.273234
-0.256251,0.506256,0.640431,0.832850,-0.185515,0.521484
-0.355911,0.494261,0.424990,0.889546,0.028095,-0.455981
-0.337443,0.067623,0.099314,-0.792015,-0.574490,-0.206577
-0.067930,-0.264307,0.568882,0.882996,-0.465466,-0.060492
-0.111392,0.106575,0.688228,-0.496089,0.867954,0.023478
0.226183,0.516976,0.919720,-0.068343,0.847218,0.526831
0.014800,0.525295,0.737555,0.175182,0.949010,0.262089
-0.212854,0.287662,0.768538,0.858691,-0.323455,0.397524
-0.192653,-0.092501,0.795876,0.459131,0.240520,0.855189
-0.325578,0.040832,-0.993503,-0.105752,-0.266365,-0.958053
-0.337776,-0.190562,-0.981481,0.062782,-0.468786,0.881078
0.334176,0.622312,0.813807,-0.782868,0.500819,0.369186
-0.138860,0.370126,0.539751,-0.398383,0.514733,0.759172
-0.604759,0.144649,0.162426,0.043157,0.984187,0.171796
0.344112,0.078261,0.941473,0.497449,0.771505,0.396641
-0.291779,0.072666,-0.049694,0.936177,0.255593,0.241338
0.398506,0.859706,0.765334,-0.710846,0.583862,0.392176
0.052530,0.378445,0.879183,0.386773,0.921860,-0.024112
0.010398,0.135852,0.867219,0.797301,0.585346,-0.147245
-0.305381,-0.055550,-0.965901,0.454994,-0.886900,-0.079925
-0.172655,0.311495,0.644370,-0.771084,0.613683,-0.169770
-0.042199,-0.008040,0.655188,0.613185,0.669938,-0.418554
-0.394441,0.101059,0.885798,-0.114328,-0.935226,0.335084
-0.129925,-0.282307,0.661008,0.075318,0.433681,0.897913
0.632223,0.331174,0.823743,0.490173,0.804311,-0.335877
-0.311578,-0.096582,-0.948940,0.829318,-0.554723,-0.067186
-0.179987,0.331892,0.792260,-0.516239,0.825021,-0.229865
0.202186,-0.262150,0.727648,-0.243252,-0.969934,-0.007488
0.621624,-0.182566,0.741670,-0.614506,0.781213,0.109953
0.286913,0.499861,0.812073,0.901951,0.056230,0.428162
0.648823,0.260465,0.891794,0.892622,0.431425,-0.130762
-0.418638,-0.179525,0.791614,0.748133,0.594185,0.295365
-0.130124,0.340210,0.887914,-0.664019,0.741195,0.098535
-0.454171,0.373646,0.905169,0.870891,-0.185785,-0.455008
0.178119,0.351810,0.714685,-0.164999,-0.652314,0.739771
-0.049262,0.623435,0.416729,0.950595,-0.115925,-0.287975
0.861476,0.384044,0.703308,0.997882,-0.029397,-0.058021
-0.244183,-0.092901,0.562003,-0.541017,0.556199,0.630828
0.289981,-0.028515,0.459236,-0.651348,-0.533114,0.539940
-0.397241,-0.163126,0.620118,-0.043987,-0.823870,0.565069
-0.213318,0.006918,0.428958,0.940603,-0.339166,-0.015232
-0.075331,0.460186,0.837471,-0.387331,0.795842,0.465414
-0.067327,0.400037,0.875774,0.379242,0.788539,-0.484129
-0.360244,0.103060,0.621471,0.152646,0.931487,0.330200
0.214384,0.232390,0.680968,0.755114,0.062108,-0.652645
0.129258,0.089059,0.768655,0.530890,0.798663,0.283362
-0.003599,0.666063,0.453327,-0.593972,0.799670,-0.087892
-0.258652,-0.028276,-0.184062,-0.719772,0.694082,0.013360
-0.226317,-0.189122,-0.529991,0.877475,0.412785,0.244227
-0.245184,0.179764,0.889413,0.976927,0.212246,-0.023781
-0.236916,-0.020919,0.555712,0.547892,-0.793710,-0.264273
-0.272848,0.093941,-0.168541,0.881255,0.467569,-0.069049
-0.463504,0.738211,0.418258,-0.266075,-0.774365,0.574075
