0.428808,0.113457,0.913555,0.945282,0.078506,0.316668
0.730530,-0.939036,0.812211,-0.496963,0.787080,-0.365421
0.325131,0.037696,0.798997,0.507832,-0.756340,0.412378
0.329680,0.064590,-0.946037,0.273487,0.056724,-0.960202
-0.758884,0.149742,0.625476,0.824286,-0.241153,0.512248
-0.032648,-0.442964,0.719728,0.922810,-0.305517,0.234694
0.155225,-0.076742,0.905323,0.771099,0.348855,0.532641
-0.173116,0.266885,0.366276,-0.608835,0.568973,-0.552802
-0.006746,0.038741,0.810391,0.441846,0.887247,-0.132529
0.232569,-0.255339,0.882194,-0.454444,0.850603,-0.264490
0.565815,-0.458253,0.826837,0.210995,-0.025049,0.977166
-0.361495,-0.374633,0.819745,0.920256,-0.275284,0.278114
0.380470,-0.121315,0.725936,0.933842,0.354325,-0.048908
-0.331842,0.058204,0.834932,-0.695710,0.708554,-0.118064
-0.289132,-0.394216,0.763810,0.716686,-0.665554,-0.208326
0.099960,-0.500308,0.850391,-0.299003,0.695372,0.653494
0.304862,-0.865421,0.762007,0.961601,0.233075,-0.144915
0.214893,-0.013323,0.347126,0.740095,0.638185,-0.212084
-0.655423,-0.306238,0.500544,-0.074806,-0.794035,0.603252
0.150680,0.640718,-0.995425,-0.289567,0.223127,0.930788
0.210489,0.106398,0.472534,-0.136436,0.749711,0.647548
0.220085,-0.012645,0.279371,-0.039610,-0.985814,0.163099
-0.447642,-0.330917,0.357891,-0.129030,-0.231819,-0.964164
0.131490,-0.094856,0.307789,0.743378,0.287626,0.603871
0.176507,0.514368,-0.985153,-0.217900,0.114333,0.969251
0.633709,-0.294449,0.953402,0.744901,0.275842,-0.607481
0.013673,-0.417487,0.764745,0.543617,0.334983,-0.769589
0.349231,-0.043223,0.192874,-0.400723,0.915691,-0.030509
-0.304571,-0.153793,0.581344,-0.018139,0.465726,0.884743
0.615166,-0.163434,-0.915833,-0.080463,0.187926,0.978882
-0.425347,0.032907,0.717959,-0.255250,0.966825,-0.009897
0.402404,-0.372358,0.765867,0.882291,0.146658,0.447274
0.468202,-0.005893,-0.347857,0.386979,0.895461,0.219992
-0.291369,-0.529777,0.566480,0.550756,0.784692,0.284476
0.332203,-0.105907,0.465323,0.835564,0.529193,-0.147609
0.341006,-0.115912,0.429779,0.907679,-0.419601,0.007272
0.438187,-0.191490,0.792653,-0.678121,-0.573687,0.459386
0.121679,0.013383,0.526956,0.929885,0.086198,0.357607
0.103496,0.491896,-0.986956,-0.319395,0.181916,0.929997
-0.691933,-0.411468,0.826140,0.878881,-0.403449,0.254554
-0.019301,-0.343812,0.428793,-0.557515,-0.310771,-0.769804
0.387758,-0.135375,0.692296,0.636813,0.769527,-0.047934
0.036400,0.006140,0.785102,0.937469,0.316544,0.144747
-0.351830,-0.047213,0.674592,0.316145,0.238665,-0.918200
0.478881,-0.475932,0.826429,-0.170510,-0.702565,0.690890
0.455577,-0.221513,0.873622,0.971959,-0.199526,-0.124441
0.406658,-0.156862,0.607670,-0.380674,0.857927,0.345034
0.071606,-0.474891,0.667857,-0.880489,0.040980,-0.472292
-0.357744,-0.182834,0.357449,-0.427655,0.570883,-0.700859
0.426861,-0.168898,0.849541,0.846820,0.397890,0.352959
0.535950,0.175774,-0.926854,0.176212,0.840102,0.513009
0.456585,-0.776031,0.570970,0.414063,0.501648,0.759540
0.813140,-0.804581,0.763368,0.844362,-0.510895,0.161367
0.402114,-0.044572,0.020170,-0.533755,0.845384,0.020781
0.077956,-0.104677,0.597772,0.859286,-0.147846,0.489662
-0.107464,-0.322138,0.820306,-0.562342,0.659476,-0.498862
0.595975,-0.098539,-0.924490,0.288429,-0.017342,-0.957344
-0.045343,0.073673,0.839507,-0.794414,-0.333931,-0.507342
0.302334,-0.608300,0.570850,-0.099980,0.688421,0.718387
0.351971,-0.368555,0.505493,0.420725,0.603270,0.677537
0.464159,-0.003191,-0.321667,0.464261,0.883702,-0.059441
0.463367,0.069498,-0.585493,0.993828,-0.093108,0.060309
-0.054868,-0.120581,0.815153,-0.118930,-0.987365,0.104719
0.322753,-0.087181,-0.939320,0.166514,-0.047371,-0.984901
-0.264239,0.151155,0.928623,-0.520760,-0.064543,-0.851260
-0.443023,-0.160118,0.735561,-0.072325,0.985017,0.156560
0.272539,0.085525,-0.949048,-0.333588,0.096545,0.937762
0.019155,-0.088838,0.601905,0.727978,-0.611938,0.309161
0.404135,-0.290275,0.786344,0.596449,-0.765616,-0.241000
-0.058188,0.244292,0.555425,0.393398,-0.368817,0.842147
-0.299450,-0.030145,0.762772,0.530634,-0.581689,-0.616495
0.122471,-0.270812,0.926820,0.919644,-0.231320,0.317404
-0.185600,0.048750,0.753793,0.244279,-0.898377,0.365029
0.420151,0.035796,-0.259014,0.943049,0.283106,0.174667
-0.480902,0.079875,0.575987,0.753425,0.382806,-0.534613
0.208252,-0.165398,0.921650,0.730811,0.246136,0.636657
0.072474,-0.348230,0.519439,0.600592,0.694004,-0.397048
-0.453917,-0.092278,0.551786,0.625368,0.749450,-0.217347
0.743014,-0.101732,-0.917296,-0.011060,0.209654,0.977713
-0.163090,0.099154,0.868742,0.294704,-0.135526,0.945929
0.494606,-0.035732,-0.931480,-0.243440,0.155066,0.957440
-0.379678,-0.259761,0.667364,-0.565449,0.413159,-0.713840
0.194328,0.302615,0.367313,-0.045541,-0.357710,0.932722
-0.610260,-0.355537,0.792449,0.346275,0.610151,0.712607
0.228962,0.285243,-0.969711,-0.267335,0.303057,0.914707
-0.089066,0.156558,0.863861,-0.612579,-0.788918,-0.048537
-0.469070,0.175591,0.889354,0.839853,0.445994,0.309413
-0.092963,0.307220,0.569184,-0.084209,-0.637099,0.766168
-0.461275,0.097801,0.881616,-0.251705,0.957164,0.143116
0.009269,-0.351977,0.438810,0.323094,-0.888177,-0.326729
-0.084160,-0.461749,0.795561,-0.060922,-0.363182,0.929724
0.398291,-0.443702,0.861344,0.995797,0.090201,-0.015873
-0.402404,0.146733,0.877024,0.158816,0.790838,0.591060
-0.509181,-0.317596,0.762211,0.229551,-0.928334,-0.292407
0.059267,-0.339146,0.780119,-0.251400,-0.767768,0.589347
0.082932,0.382858,0.322602,-0.788224,-0.364347,0.495937
-0.081853,-0.171536,0.662976,-0.237979,0.916160,0.322516
-0.400674,-0.284504,0.660901,-0.405397,-0.033424,-0.913530
0.177736,-0.518051,0.770221,-0.063714,-0.714721,0.696502
0.580897,-0.432404,0.827466,-0.192553,0.102010,0.975970
-0.463081,-0.353019,0.784524,0.611360,-0.002719,0.791348
-0.321886,0.423257,0.642449,0.976440,0.048283,0.210317
0.757224,0.205550,-0.936633,0.149613,-0.335137,-0.930215
0.625629,-0.460276,0.653657,-0.663014,-0.068660,-0.745451
0.264961,-0.404899,0.803265,0.809456,-0.326637,0.487943
0.452041,-0.174114,0.732738,-0.555445,-0.829656,-0.056141
0.376212,0.013631,0.729422,0.946680,-0.199649,-0.252858
0.594606,0.401771,-0.580799,0.963327,0.097209,-0.250103
0.039645,-0.036773,0.828674,0.882198,-0.450496,-0.137041
0.379893,-0.013998,-0.133826,0.908986,-0.411487,-0.066509
0.086543,0.027259,-0.965595,-0.260159,0.084886,0.961827
-0.762997,0.078278,0.593571,0.380678,0.881300,-0.279989
0.017641,0.654103,0.339864,0.007328,-0.200019,0.979765
0.596983,-0.493185,0.830289,-0.024945,0.142215,-0.989522
0.007900,0.002580,0.745357,0.476001,-0.859331,0.187012
0.170162,0.602470,-0.991106,-0.410835,0.302013,0.860234
0.345480,-0.226916,0.981293,-0.475463,-0.774311,0.417586
0.325492,0.041012,0.792126,-0.712896,0.630839,-0.306302
-0.245845,-0.375798,0.769762,0.332628,-0.940179,0.073634
-0.474913,0.172398,0.883248,-0.675523,-0.642211,-0.362262
0.300674,-0.100627,0.871241,0.729932,-0.263957,0.630497
0.255366,-0.734099,0.615629,0.139105,-0.768304,-0.624788
0.534867,-0.237476,0.948435,0.452559,-0.770967,-0.448108
-0.066194,-0.009516,0.715476,-0.433262,-0.901229,0.008370
-0.207028,-0.086443,0.816803,0.903253,0.422942,0.072480
0.383932,-0.075269,0.197092,0.490225,-0.855100,0.168769
0.398578,0.450822,-0.969847,-0.293311,0.018657,0.955835
0.428161,0.434124,-0.963027,-0.354624,0.008836,0.934967
-0.260923,-0.175036,0.334864,-0.541701,0.538532,-0.645402
0.415752,-0.159871,0.788963,0.935704,0.221939,-0.274228
-0.004580,-0.307463,0.426020,-0.703790,0.710277,-0.013650
0.135818,0.411285,-0.982687,0.534451,-0.083014,-0.841113
0.377080,-0.043223,-0.932959,-0.390303,0.108169,0.914310
-0.103135,0.200146,0.923674,-0.545637,-0.410722,-0.730471
0.339130,0.264430,-0.966139,0.257322,-0.041394,-0.965439
-0.550015,-0.332207,0.777109,0.694139,0.295221,0.656518
0.060064,-0.446400,0.667585,-0.824778,-0.147285,-0.545939
0.247360,-0.321216,0.840833,-0.736973,0.273964,-0.617912
0.125140,-0.060902,0.886956,-0.442959,-0.842430,0.306754
0.606363,-0.473661,0.652415,-0.506359,0.009313,-0.862273
-0.526712,0.098663,0.592908,0.883337,0.118900,0.453407
0.091303,-0.065567,0.551922,-0.557598,-0.757988,-0.338437
0.578009,-0.287820,0.922211,-0.229721,0.877918,0.420106
0.352622,-0.110017,0.418027,-0.801406,0.507484,0.316558
0.409617,-0.164352,0.670408,0.840271,0.540358,-0.044243
-0.313444,-0.421537,0.473707,-0.131266,-0.967800,-0.214786
0.260487,-0.501350,0.798402,0.315857,0.109904,0.942420
0.702682,-0.059122,-0.917942,-0.168581,0.205112,0.964111
0.335233,0.084540,-0.946156,0.106701,0.124358,0.986484
-0.290647,-0.232256,0.526225,0.596122,-0.598275,0.535449
-0.304210,-0.146426,0.580935,-0.031458,0.456882,0.888971
0.755278,-0.566492,0.672704,0.348269,0.006901,-0.937369
0.535730,-0.137646,0.803606,0.088082,0.995649,-0.030415
-0.046572,-0.371376,0.441973,-0.294015,0.931500,0.214158
0.239421,0.439157,-0.977279,-0.186840,0.188810,0.964076
0.392809,-0.181668,0.637109,0.886903,0.447972,-0.112800
-0.319288,-0.010745,0.794184,-0.414589,0.270270,-0.868948
0.054001,-0.127026,0.594677,0.584058,-0.661765,0.470047
0.395764,-0.036961,0.089966,0.831322,0.332134,0.445635
0.344542,-0.101054,0.470680,0.999542,-0.025371,-0.016504
0.469646,-0.478574,0.831786,0.765212,0.331099,0.552109
0.417843,-0.004543,0.058946,-0.760989,0.615984,-0.203616
-0.102920,-0.086012,0.836786,0.760027,-0.466443,0.452537
0.410410,-0.426941,0.852415,0.914462,0.183832,0.360506
-0.003862,-0.018663,0.644966,0.812540,0.575409,0.093183
0.400889,-0.060902,0.251412,-0.287350,0.865021,0.411300
0.032212,-0.100563,0.632228,0.564498,-0.730263,-0.384783
0.190290,0.607011,-0.987704,-0.219343,0.305402,0.926617
0.419790,-0.006938,0.917534,0.995618,-0.083013,0.043061
0.368638,-0.028301,0.150510,0.361698,0.905475,0.222011
0.381985,0.016085,0.736684,0.946680,-0.199649,-0.252858
0.497565,0.232504,-0.933861,0.085190,0.893919,0.440059
0.349808,-0.208311,0.875663,-0.219739,0.698965,0.680560
0.395764,-0.043159,0.226072,0.598337,-0.797106,0.081329
-0.424695,0.045063,0.878537,0.848446,-0.527264,0.046178
0.617764,-0.537511,0.829048,0.558914,0.110191,0.821871
0.693734,0.216664,-0.935102,-0.165172,0.433283,0.885993
-0.448866,0.038250,0.716157,0.082994,-0.995386,0.048150
-0.468995,-0.036466,0.483112,0.323351,-0.907265,-0.268915
0.286318,0.400909,-0.973095,0.305996,-0.157558,-0.938905
0.282276,-0.157540,0.363232,-0.582917,0.768668,-0.263357
0.616178,-0.207884,-0.915136,-0.144330,0.483871,0.863156
-0.106817,0.161347,0.879269,0.866505,-0.421353,0.267639
-0.496627,-0.367449,0.366395,0.340690,0.231551,0.911216
-0.027526,0.046048,0.806225,0.863071,0.504976,-0.010377
0.085966,-0.036714,0.873027,0.847624,-0.369057,-0.381223
0.303633,0.535180,-0.980544,-0.085994,0.197881,0.976447
0.260417,-0.531557,0.796055,-0.377362,-0.102046,-0.920426
-0.277661,-0.157600,0.809235,-0.722806,-0.603383,0.336869
0.054362,-0.478083,0.668129,-0.756794,-0.459898,-0.464497
-0.392518,-0.216233,0.667160,0.463763,0.463270,0.755185
0.557810,0.539171,-0.786446,0.244825,-0.091187,0.965270
-0.214100,-0.065200,0.808776,0.812372,0.367494,0.452768
-0.196063,0.127273,0.867296,0.144940,-0.785810,0.601245
-0.275785,-0.208435,0.578453,-0.529440,0.695414,-0.485894
-0.043758,-0.197875,0.624881,0.919255,0.191968,-0.343683
-0.380761,-0.068760,0.546582,-0.316826,-0.075088,0.945507
-0.779087,0.145567,0.633436,0.788297,-0.320764,0.525070
0.198586,0.337183,0.372806,0.095684,-0.120948,0.988036
-0.148012,0.176820,0.806871,0.911807,0.146248,0.383692
0.319649,-0.222802,0.575919,0.699234,-0.619401,-0.356953
0.549875,-0.309000,0.930221,-0.464506,0.869112,0.169939
0.210203,0.009456,0.277993,0.151902,-0.893729,0.422106
0.002488,0.139797,0.464167,0.093227,-0.774109,-0.626150
0.135241,-0.032539,0.866667,0.233556,0.917230,0.322707
0.057827,0.093751,0.573078,0.073225,0.637141,0.767261
0.408895,-0.198242,-0.930153,-0.353033,0.089546,0.931316
0.345334,-0.009269,0.371004,-0.693391,0.536609,-0.480894
0.071461,-0.078953,0.864694,0.774135,-0.149476,-0.615120
0.063596,-0.454689,0.869354,-0.119863,0.695080,0.708870
0.057391,-0.497423,0.804150,0.829234,-0.009968,-0.558813
0.152125,-0.068393,0.529830,0.812900,0.315793,0.489355
-0.543670,-0.419083,0.658929,-0.627968,0.763421,-0.151141
0.214025,0.174609,0.363282,0.616617,-0.030772,-0.786661
0.045995,0.123650,0.297806,0.059448,-0.766267,0.639766
-0.016342,-0.846943,0.639949,-0.472607,-0.813823,-0.338134
0.319939,-0.076865,0.878555,0.505350,-0.736242,0.450077
0.508895,-0.016085,0.468946,0.025892,-0.875221,0.483030
0.434220,0.013998,-0.260799,0.885769,0.405828,0.225206
0.094909,-0.545369,0.773402,0.023529,-0.748340,0.662898
0.376287,-0.070604,-0.940187,0.363435,-0.144097,-0.920408
0.390788,1.000000,-0.818639,-0.660054,-0.506546,-0.554743
0.482196,0.090314,-0.375442,0.843499,-0.491918,0.215698
0.618556,0.367082,-0.566718,0.841809,0.352048,-0.409170
-0.104866,-0.136297,0.363503,-0.099342,0.994297,-0.038792
0.218138,0.666750,-0.994949,-0.114429,0.230658,0.966283
0.441724,0.483363,-0.966497,-0.370979,0.069844,0.926011
-0.288987,-0.345835,0.854626,-0.096736,0.960493,0.260949
-0.065762,-0.324349,0.800902,-0.212125,0.737314,-0.641382
-0.024352,-0.443024,0.709337,0.946132,0.158757,0.282190
0.419503,-0.037452,0.778317,-0.746313,-0.534428,0.396740
0.413224,0.012094,-0.254745,0.986402,0.124058,0.107802
0.164675,0.013507,0.851820,-0.410414,0.775475,0.479790
0.256881,-0.145384,0.933878,-0.083623,0.658251,0.748140
0.635946,0.356583,-0.957007,0.392668,-0.579516,-0.714124
-0.484724,-0.070356,0.555782,0.859236,0.337641,-0.384334
-0.270879,-0.155453,0.792551,0.960043,0.263466,-0.094356
0.266115,0.100567,0.691463,0.950105,0.109843,0.291949
0.446774,0.064218,-0.186207,0.529499,-0.838561,0.128242
0.604848,-0.342215,-0.912041,-0.380240,0.000028,0.924888
0.219869,-0.035365,-0.945238,-0.195187,-0.139099,0.970852
0.385446,-0.156127,0.640918,0.884174,0.461756,-0.070844
0.584790,0.036346,0.381718,-0.103959,-0.994450,0.016182
0.458100,0.510561,-0.969796,-0.362841,-0.082253,0.928214
0.645467,-0.309491,0.958640,0.634176,0.361828,-0.683302
-0.478304,0.171045,0.868929,0.961149,0.085244,0.262536
0.335087,-0.077420,0.397993,0.948951,0.159016,0.272409
0.032432,-0.091663,0.608912,0.593453,-0.781482,-0.192614
0.360703,-0.172150,0.891463,-0.238396,-0.296627,-0.924759
0.441217,-0.183201,0.831157,0.999720,0.016921,0.016519
0.742217,0.096392,-0.926174,-0.183700,0.238598,0.953586
0.127883,0.198614,-0.970867,0.404859,-0.264370,-0.875327
0.264961,0.596144,-0.982721,-0.102505,0.239495,0.965471
0.267704,0.263816,-0.965289,-0.149300,0.130119,0.980193
-0.480827,-0.281802,0.774337,0.792404,0.278608,0.542654
0.524695,-0.507428,0.648282,0.914442,-0.032782,-0.403386
-0.225135,-0.555809,0.782398,-0.590033,-0.112217,-0.799542
-0.504205,0.182710,0.874558,0.935829,0.244735,0.253632
0.508895,-0.029346,-0.928793,0.172838,-0.072518,-0.982277
-0.331120,-0.293100,0.710969,-0.562139,0.823475,-0.076742
-0.270804,-0.484281,0.511633,0.918639,-0.395089,-0.002836
-0.092747,-0.364808,0.444133,-0.586244,-0.274188,-0.762325
0.681615,0.166687,-0.935731,-0.180410,0.145112,0.972828
0.395909,-0.280573,0.862381,0.147644,0.988718,-0.025251
0.183148,-0.075145,0.518674,-0.560064,-0.459073,-0.689623
-0.274556,-0.395445,0.782857,-0.661873,0.703002,0.260216
0.111863,-0.505157,0.871225,0.082094,0.645441,0.759385
-0.046858,-0.758778,0.648197,0.447704,0.504355,0.738367
-0.269867,-0.088838,0.406497,0.333540,-0.620805,0.709473
-0.454710,-0.076191,0.664167,-0.396743,0.343329,-0.851305
-0.007107,-0.849338,0.629133,0.438218,-0.129615,0.889475
0.018940,-0.491895,0.685919,0.909410,0.348809,0.226510
0.174777,0.686026,-1.000000,0.173334,-0.028541,-0.984449
0.210489,-0.364684,0.860034,-0.546076,0.263534,-0.795205
0.429244,-0.323490,0.913878,0.920550,0.134087,0.366891
0.556150,0.061517,-0.743844,-0.814657,0.398104,-0.421719
-0.402836,0.028241,0.542568,0.901249,-0.414563,0.126045
0.604562,-0.079567,-0.921905,-0.081550,0.248490,0.965195
0.334872,-0.073429,0.462687,-0.307193,-0.950539,-0.045919
0.354423,-0.017314,0.087568,0.961846,-0.235976,0.138447
-0.144692,-0.124201,0.359660,-0.205661,0.974912,-0.085150
-0.009269,-0.020507,0.725476,0.231804,0.971064,-0.057459
0.260994,0.636112,-0.988095,-0.228985,0.381289,0.895648
0.263591,0.370519,0.367874,0.257539,0.072130,0.963572
0.463367,0.306422,-0.745204,0.915775,-0.401102,0.021765
-0.431912,-0.002763,0.708061,0.223889,-0.303045,0.926303
0.121458,-0.091539,0.533146,0.890950,-0.126638,0.436086
0.337686,0.599153,-0.979592,-0.249251,0.132263,0.959365
0.308468,-0.044879,0.650272,-0.005797,-0.722573,0.691271
0.198947,-0.069007,-0.950782,-0.265229,0.110947,0.957781
0.295553,-0.018847,0.907449,-0.036426,-0.960752,0.275006
0.178528,-0.030205,-0.951139,0.276245,0.068455,-0.958646
0.657589,0.239995,-0.942755,-0.137953,0.122221,0.982869
0.314959,0.264734,0.485544,0.258170,-0.733556,0.628684
-0.505936,0.064099,0.593827,-0.362824,0.839083,-0.405337
-0.444392,0.038310,0.576003,-0.165326,0.739793,-0.652207
-0.451248,0.020690,0.564694,0.335084,-0.484342,0.808165
-0.410340,-0.012525,0.670340,0.363977,0.298017,-0.882443
0.377080,-0.139673,0.344643,0.846444,-0.522401,0.103103
0.853252,-0.836875,0.821344,0.970323,-0.235171,0.056280
0.449298,-0.349399,0.809949,-0.034691,0.784140,0.619614
0.793373,0.324840,-0.943657,-0.141553,0.341986,0.928982
0.360267,-0.215435,0.876224,-0.619314,0.738107,-0.267672
0.621586,0.297275,-0.945510,0.268521,-0.328662,-0.905471
-0.407526,-0.404161,0.360935,0.308109,0.385953,0.869545
-0.273403,-0.188237,0.722534,-0.492901,-0.864798,0.095774
0.679378,-0.011603,-0.921241,-0.351936,0.251457,0.901615
0.268858,-0.065200,0.475970,0.351002,0.907004,0.232681
-0.384944,0.124017,0.848044,0.708498,0.230892,0.666873
0.459470,0.157173,-0.905918,-0.651732,0.757523,-0.037474
0.441508,-0.211077,0.785170,0.996804,-0.027294,0.075075
0.711630,0.581474,-0.655255,0.857944,-0.126065,-0.498035
0.424479,0.121746,-0.917806,0.908660,-0.268101,-0.320093
-0.025576,-0.438606,0.812653,-0.057918,-0.802242,0.594183
0.486886,0.085829,-0.594303,0.978651,-0.203314,0.030083
0.497565,0.010682,-0.933997,-0.255340,-0.228207,0.939534
-0.315610,0.076498,0.762007,0.449847,0.339810,-0.825934
-0.279105,0.105168,0.848384,-0.597361,0.286196,0.749168
-0.390281,0.111741,0.882211,-0.313299,0.788950,0.528585
0.351755,-0.076314,0.269592,0.339286,0.925370,-0.169043
0.054652,-0.454505,0.859422,0.466669,-0.751365,-0.466552
0.001405,-0.117999,0.329660,-0.604490,-0.525204,-0.598960
0.438764,-0.061764,0.263622,0.920400,0.361478,-0.148986
0.290431,-0.014241,0.665034,0.260669,-0.526116,0.809477
0.463944,-0.192535,-0.925051,0.252632,-0.113935,-0.960831
-0.054939,0.118186,0.856276,0.917680,0.182829,0.352755
0.577793,-0.468198,0.827806,-0.187454,-0.106789,0.976451
0.503122,0.089269,-0.652449,0.938151,-0.324021,-0.121994
0.473469,-0.328339,0.932619,-0.394174,0.697609,-0.598305
-0.403919,-0.686089,0.552330,0.482658,-0.853374,-0.196962
-0.016989,-0.052677,0.691038,0.965878,0.068895,0.249666
0.520868,-0.516698,0.632058,0.884276,-0.017600,-0.466632
-0.580968,0.154655,0.913555,0.341057,-0.341275,0.875906
0.343027,0.212550,-0.956718,-0.182135,0.174862,0.967600
0.551966,0.089516,-0.608656,0.680901,0.725455,0.100446
0.314311,-0.080118,0.898010,-0.209660,0.904228,-0.372040
-0.125571,0.199472,0.931038,0.365894,-0.479111,0.797856
0.070813,-0.076682,0.305595,-0.489709,-0.147147,-0.859379
-0.223334,-0.119535,0.400782,0.729723,-0.039773,0.682585
0.066269,-0.023085,0.752551,0.369105,0.927607,0.057511
0.395403,-0.074104,0.256344,-0.215774,0.853982,0.473452
0.320661,0.589759,-0.978878,-0.234574,0.122217,0.964385
0.131490,0.218751,-0.973299,-0.278940,0.081359,0.956856
0.387322,-0.162022,0.727364,0.688021,0.725563,-0.013597
0.332494,0.346945,-0.588809,0.231161,0.957753,0.171095
0.209190,-0.164292,0.909133,-0.412297,0.727085,0.548962
0.732119,0.157233,-0.934745,-0.183362,0.207702,0.960853
0.517332,-0.322936,0.916718,-0.521308,0.589872,0.616676
-0.477797,-0.005094,0.555834,0.364225,-0.404211,0.839019
0.256449,-0.124691,0.925136,-0.195144,0.840658,0.505187
-0.250029,-0.083067,0.817670,-0.626278,0.266833,0.732514
0.165903,-0.777567,0.792755,0.173972,0.973883,0.145897
0.427148,-0.014058,-0.939813,-0.259599,0.125262,0.957558
0.274556,-0.100687,-0.935170,-0.005227,-0.380241,0.924873
0.471016,0.104801,-0.520119,0.803557,-0.587585,-0.095082
0.058329,-0.008962,0.814439,0.903412,0.026373,0.427961
0.428592,-0.170985,0.833980,-0.721269,0.261002,0.641599
0.069660,0.341665,-0.979779,-0.055190,0.180710,0.981987
-0.452473,-0.159136,0.722415,-0.383491,0.586742,-0.713210
-0.340715,-0.198981,0.689167,-0.516664,0.818943,0.249780
0.458607,0.010255,-0.304558,-0.581297,-0.809226,-0.085127
-0.203131,-0.561763,0.780782,-0.040889,0.322304,0.945753
0.142239,-0.435533,0.865136,0.404067,-0.599210,-0.691142
0.279823,-0.235265,0.468844,-0.070853,0.861323,0.503092
0.554344,0.437010,-0.963367,-0.134001,0.204650,0.969620
0.464811,-0.384394,0.618810,-0.658549,0.146885,0.738064
0.405143,0.020814,-0.342330,0.844570,0.526028,0.099982
0.379242,0.162082,-0.930459,-0.545767,0.670841,-0.502107
0.489775,0.116590,-0.451684,0.969858,0.175440,-0.169105
0.616535,-0.122544,-0.924694,0.367411,-0.170164,-0.914359
0.265683,0.299179,0.373759,-0.081883,-0.182355,0.979817
0.500453,-0.485758,0.831157,0.198452,0.192943,0.960932
0.506658,0.028980,-0.737687,0.838760,-0.541199,0.059871
0.151548,0.009947,-0.957483,-0.111805,-0.093142,0.989355
0.365102,-0.131200,0.494643,0.777743,0.624910,-0.067842
0.713070,0.204077,-0.934320,-0.048380,0.241079,0.969299
0.442661,-0.206595,0.810868,0.876717,-0.288424,0.384939
-0.412506,-0.418959,0.489337,0.417377,0.435185,0.797754
0.408173,0.541442,-0.971412,-0.358061,0.142800,0.922714
0.404135,-0.172027,-0.930680,-0.216906,0.191740,0.957177
-0.295843,0.026094,0.796378,0.176212,-0.322610,0.929985
0.336386,0.566736,-0.980833,0.262329,-0.136109,-0.955331
0.309190,-0.838838,0.654524,0.982740,0.177866,0.050853
0.435012,-0.040457,-0.157874,0.635836,-0.642478,0.427708
-0.486309,-0.533951,0.630748,0.014479,-0.900788,0.434018
0.400022,-0.201619,0.834082,0.816005,0.502630,0.285481
0.306663,0.293284,0.497313,0.933715,0.010206,0.357871
-0.291876,-0.357688,0.860612,-0.053133,0.881618,0.468963
0.015258,-0.049177,0.677517,0.937564,0.342704,0.059388
0.290863,-0.688787,0.781973,0.254831,0.508558,0.822453
0.287402,-0.075760,0.214575,-0.436609,0.898393,0.047580
0.388551,0.174425,0.567160,0.035131,-0.997801,-0.056213
-0.112731,-0.532107,0.544626,0.177981,0.955458,0.235422
0.633925,0.356028,-0.943350,0.434068,-0.518066,-0.737016
-0.491867,0.139366,0.866123,0.922127,0.386625,-0.014238
0.963640,-0.664966,0.792993,0.881830,-0.471106,-0.020853
-0.030050,-0.837302,0.656310,-0.698203,-0.485074,-0.526513
0.595759,0.281004,-0.946276,-0.377645,0.546682,0.747344
-0.066053,0.110943,0.899745,0.849748,-0.520246,-0.085282
0.084231,-0.121499,0.315051,-0.644921,-0.007722,-0.764210
0.288771,0.174238,0.765561,-0.305404,0.566866,-0.765108
0.436963,-0.242509,0.598129,0.958590,0.050634,-0.280252
0.370007,-0.047948,0.074660,0.993135,0.077847,-0.087306
-0.191012,-0.440570,0.772534,0.504220,-0.105645,-0.857089
0.363803,-0.042301,0.308265,-0.748583,-0.626165,-0.218040
0.237545,0.177123,0.574405,-0.518419,0.816917,0.252762
0.627720,-0.349826,-0.915051,-0.359761,0.129717,0.923983
-0.392448,0.092094,0.861616,0.758041,-0.538494,0.367965
0.089788,-0.255156,0.795272,0.153856,-0.510505,0.845998
0.342736,-0.337119,0.788163,0.339365,-0.438468,0.832212
-0.188560,-0.417790,0.529949,-0.258100,0.950996,0.170268
-0.321022,-0.177921,0.843334,0.922623,0.385515,-0.012080
0.249161,-0.151953,0.885986,0.618130,-0.114998,0.777618
0.395262,-0.073549,0.142449,-0.748226,-0.661400,-0.052038
0.350746,-0.095714,0.453793,0.820160,-0.564975,0.090225
0.275710,-0.278119,0.595289,0.226747,0.590626,0.774433
-0.169365,-0.220100,0.686803,-0.715961,0.122116,-0.687377
-0.096860,0.195297,0.889371,0.916555,-0.381262,0.120687
-0.001048,-0.007860,0.747245,0.522683,-0.822499,0.224274
-0.220014,0.104558,0.907262,-0.826298,0.398834,-0.397696
-0.207966,0.005525,0.403912,-0.491253,0.335260,-0.803910
0.341006,0.049975,0.803061,0.443767,-0.788325,0.426163
0.657660,0.125613,-0.931309,0.012881,0.373173,0.927672
-0.290863,0.103943,0.780289,-0.197207,-0.116861,0.973372
0.333141,-0.131631,0.546735,-0.042601,0.958151,0.283075
-0.451610,0.050223,0.858402,0.788755,0.549156,0.276213
0.559831,0.468689,-0.727398,-0.556831,0.721697,-0.411208
-0.427152,-0.412207,0.366973,0.272517,0.302080,0.913500
-0.626782,-0.155265,0.644167,0.206161,0.457439,0.865013
0.450526,0.215990,-0.934337,-0.341355,0.861788,0.375231
0.277225,-0.641516,0.775255,0.340848,0.682212,0.646845
0.471663,-0.191183,0.765204,0.530449,0.847657,-0.010070
0.101982,-0.440813,0.647874,-0.601241,-0.389249,-0.697850
-0.185671,0.114379,0.791718,-0.311543,0.551152,0.774062
0.801378,-0.890902,0.841956,-0.714791,0.509550,-0.478991
-0.280259,-0.442657,0.549082,-0.581959,-0.331526,-0.742572
0.253344,-0.175283,0.881735,0.323892,-0.235084,0.916422
-0.032934,-0.158765,0.651259,0.418973,-0.903831,-0.086899
-0.221745,-0.216357,0.574048,-0.641824,0.759979,-0.102440
0.308323,0.005833,-0.943146,0.227069,-0.327601,-0.917125
0.397499,0.044943,-0.294677,0.929885,-0.352736,-0.104365
-0.229609,-0.306665,0.809745,-0.321653,-0.828133,0.459058
0.286604,0.085769,-0.946854,-0.407847,-0.071560,0.910242
0.312722,-0.587121,0.566667,-0.021140,0.742021,0.670043
-0.028174,-0.669755,0.776480,0.653270,-0.545708,-0.524825
0.067493,-0.415519,0.797840,0.865323,0.500744,-0.021702
-0.486886,-0.009269,0.659558,-0.654214,0.584180,0.480352
-0.490136,-0.115728,0.522466,0.673059,0.570542,-0.470609
-0.231701,0.042424,0.720374,0.350669,0.676686,-0.647400
0.297283,-0.036039,0.856820,0.359505,0.788049,0.499734
0.447712,0.172705,0.459813,-0.167688,0.485605,-0.857945
-0.080770,-0.271486,0.837976,-0.692390,0.561410,-0.453227
-0.034955,-0.124875,0.342653,-0.208188,0.975521,0.070825
0.052702,-0.076434,0.841361,0.858520,-0.260323,-0.441786
0.374842,-0.722310,0.788384,0.183652,0.240249,0.953180
0.160421,0.313789,0.539881,0.229103,0.442372,0.867075
-0.005302,-0.050342,0.636140,-0.690866,-0.617795,0.375544
-0.257096,0.164907,0.367840,-0.337025,0.710454,-0.617794
0.361786,0.077727,-0.944014,0.079786,-0.274236,0.958347
0.123193,-0.459849,0.866888,0.103609,0.484910,0.868405
0.132428,-0.425221,0.861905,0.432425,-0.641221,-0.633912
-0.486886,-0.026277,0.885595,-0.717893,-0.058882,-0.693659
0.493236,-0.767498,0.674252,-0.328851,0.480646,0.812918
0.307024,0.297706,-0.967636,-0.292861,-0.020381,0.955938
0.471302,-0.101732,0.852109,0.618308,0.628380,-0.472053
0.239350,-0.152013,0.536820,-0.082366,0.793042,0.603573
-0.234013,-0.593997,0.563997,-0.478206,-0.489288,-0.729326
-0.069946,-0.390532,0.755493,-0.678052,-0.716198,-0.165247
0.406081,-0.298133,0.823691,0.983116,0.154004,-0.098817
0.464811,-0.206839,0.967874,0.077173,-0.834244,0.545969
0.372821,-0.764549,0.780187,0.008324,0.225718,0.974157
0.858158,-0.856150,0.848402,-0.784315,0.562759,-0.261058
0.069585,0.380344,0.759932,-0.725237,0.311602,-0.613951
0.485231,0.139550,-0.886411,0.852039,-0.506386,-0.132673
0.093034,-0.560227,0.761956,-0.248066,0.555174,-0.793880
0.625052,-0.276582,0.954456,0.675639,0.407918,-0.614097
0.396631,-0.677429,0.717024,0.847331,-0.228715,0.479290
-0.194258,-0.131875,0.394779,0.847237,0.295273,0.441592
-0.393095,0.145324,0.872381,0.572119,0.812863,-0.109238
0.020455,-0.036654,0.705952,0.687965,0.706799,-0.164736
-0.258179,-0.412634,0.470204,0.321560,0.552490,0.768995
0.612929,0.322693,-0.587857,0.895426,0.159211,-0.415769
-0.309983,-0.258719,0.708385,-0.366260,0.684168,-0.630688
0.436241,0.071095,-0.296072,0.674538,-0.683563,-0.278819
0.298437,-0.104370,-0.943997,-0.212179,0.036959,0.976532
-0.430468,-0.027566,0.761157,-0.261234,-0.899311,-0.350709
0.128601,0.239504,-0.977602,0.278323,-0.259076,-0.924887
0.122832,-0.767007,0.620051,-0.004365,0.469786,0.882770
-0.745466,-0.446648,0.842126,-0.907486,0.380569,-0.177866
0.382201,-0.150049,-0.933010,0.011849,0.325601,0.945433
-0.331917,0.386725,0.661820,-0.945988,0.236475,-0.221778
-0.392734,-0.040397,0.555476,-0.115738,-0.350660,0.929323
0.188776,-0.384454,0.849507,0.060714,-0.084252,0.994593
0.544317,0.080980,-0.534473,0.474906,-0.758994,0.445412
0.338553,-0.042792,0.231310,-0.217643,0.974994,0.044929
0.218499,-0.400601,0.810970,0.844589,-0.440766,0.303965
0.549152,0.525235,-0.794405,0.244825,-0.091187,0.965270
-0.027381,-0.021425,0.702381,-0.590550,-0.785028,-0.187035
0.398362,-0.108117,0.748878,0.941859,0.335869,0.009702
0.202268,-0.225504,0.875867,0.436338,-0.732613,0.522387
0.397138,-0.126164,0.684201,0.555156,0.817117,-0.155311
0.468779,-0.371253,0.620136,-0.686534,0.150012,0.711454
-0.372606,0.141577,0.570986,0.298807,0.904278,-0.304953
-0.027742,-0.012154,0.759269,0.043804,-0.982192,0.182701
0.649795,-0.491956,0.823504,0.882089,-0.182700,0.434211
-0.110709,0.035241,0.738486,-0.242522,0.932752,-0.266753
0.802752,0.256078,-0.939014,-0.229390,0.375174,0.898123
0.183434,0.579079,-0.989201,-0.285752,0.188724,0.939537
0.663649,0.195054,-0.939728,-0.285408,0.329199,0.900095
0.409692,0.506754,-0.968622,-0.422300,0.058872,0.904542
0.277445,0.221513,-0.964847,-0.142177,0.152582,0.978010
-0.300458,0.389675,0.609966,0.865169,0.493532,0.088934
-0.012735,-0.854618,0.640272,-0.559774,-0.718666,-0.412519
0.640636,-0.267192,0.936004,-0.457128,0.616551,0.641014
0.169149,0.026769,-0.958163,-0.294656,0.035725,0.954935
0.412215,-0.152934,0.741038,0.867880,0.494471,-0.047781
-0.248800,-0.351913,0.835255,-0.220337,0.965363,-0.139732
0.136611,-0.154531,0.927313,-0.313504,0.458588,-0.831512
0.429530,0.199412,-0.757126,0.837401,0.188053,-0.513220
0.286679,-0.746929,0.615850,0.321724,-0.732558,-0.599877
-0.688828,-0.284564,0.502194,0.190542,-0.179331,0.965160
0.623678,-0.235389,0.964592,0.608488,0.773614,-0.176813
-0.564521,-0.748526,0.601922,0.068538,0.957969,0.278564
0.570289,0.035796,-0.594830,0.862811,-0.396251,0.313915
0.267128,0.635254,-0.987925,-0.280668,0.344784,0.895740
0.162513,0.190939,0.700918,-0.267754,-0.767702,0.582186
-0.121027,0.222558,0.929592,-0.302613,-0.740235,0.600398
0.360558,0.189096,-0.959694,-0.070994,0.102582,0.992188
0.552398,0.092031,-0.573010,0.663795,0.703419,0.254122
-0.131996,-0.030883,0.754813,0.709342,0.274562,0.649192
0.418926,-0.233793,0.658418,0.979921,0.093988,-0.175844
0.133220,-0.608975,0.753776,0.904970,0.225894,-0.360556
0.097939,0.430134,-0.987262,-0.351668,0.129795,0.927083
-0.171822,-0.335399,0.828810,0.454757,-0.766738,0.453109
0.482487,0.088347,-0.778742,-0.731803,0.671504,0.116391
0.421304,-0.204692,0.787007,-0.307850,-0.313275,0.898380
0.146206,0.550469,-0.992211,-0.352766,0.177429,0.918736
-0.107033,-0.343872,0.838861,0.609158,-0.689369,0.392042
0.496988,0.377028,-0.964252,-0.105504,0.217492,0.970343
0.466612,-0.404899,0.626327,0.909066,-0.148178,-0.389412
0.679664,-0.459542,0.820663,0.875136,-0.257327,0.409781
0.422172,-0.091292,0.771327,0.955344,0.287461,-0.068435
-0.268281,-0.195912,0.838946,0.695596,0.639816,0.326775
0.061795,-0.062622,0.626616,0.748625,-0.606591,0.267595
-0.264820,-0.410116,0.784847,-0.661873,0.703002,0.260216
0.253344,0.611002,-0.983316,-0.258743,0.351200,0.899839
0.423832,-0.052860,-0.938605,-0.297873,0.190309,0.935443
0.384944,-0.775480,0.717874,0.461057,0.865368,-0.196379
0.097939,0.345161,0.743385,-0.725237,0.311602,-0.613951
0.093685,-0.608667,0.740391,0.670661,-0.260100,-0.694667
0.423541,-0.391945,0.754898,0.672016,0.617628,0.408571
-0.309551,-0.212917,0.583844,0.955764,0.261836,0.134003
0.331917,0.179889,0.567313,0.035131,-0.997801,-0.056213
-0.158254,0.029103,0.847976,0.723745,0.539963,0.429689
0.538619,-0.163494,-0.921327,-0.200670,0.311130,0.928940
-0.391435,-0.285426,0.729133,-0.227948,0.972736,-0.042703
0.549945,-0.017498,-0.931514,0.119424,-0.002508,-0.992840
-0.325928,-0.223169,0.344932,0.536615,0.457193,0.709238
-0.211502,-0.230967,0.698691,0.686374,0.401500,0.606373
-0.538835,-0.240729,0.794949,-0.490442,0.165070,-0.855698
-0.635801,-0.049053,0.626429,0.316895,-0.272136,-0.908581
0.358105,-0.763631,0.781990,0.008324,0.225718,0.974157
0.458677,0.058264,-0.897959,0.676970,0.715790,-0.171336
0.218715,0.065324,-0.954983,0.299134,-0.306535,-0.903635
0.193104,-0.385376,0.616497,-0.711556,-0.243841,-0.658960
0.319217,-0.332514,0.798844,0.605526,0.289896,-0.741147
0.284297,-0.119412,0.888487,-0.467781,0.384299,-0.795924
-0.024206,-0.458680,0.715187,0.939004,0.240783,0.245551
0.208543,-0.264243,0.869779,0.051313,-0.511582,0.857701
0.240719,0.409749,-0.973078,0.313726,-0.148957,-0.937757
-0.497565,-0.295862,0.758980,-0.399515,0.384239,0.832315
0.607878,-0.035484,-0.925816,0.153813,-0.143491,-0.977626
0.204069,0.171660,0.707211,-0.497372,-0.763279,0.412342
-0.007684,-0.033397,0.710357,0.370444,0.920538,0.124023
0.259549,-0.206471,0.886242,0.725967,0.598183,0.339336
0.436818,0.069562,-0.351752,0.950559,-0.213869,0.225160
0.295046,-0.212733,0.876633,-0.142626,-0.680462,0.718770
0.778652,0.143113,-0.928231,-0.020420,0.269476,0.962790
-0.202770,-0.351362,0.815629,0.389433,0.871869,-0.296963
0.391580,-0.031003,0.068214,-0.747211,0.242643,-0.618708
0.643591,-0.493308,0.658793,0.587487,0.297943,0.752389
0.614157,-0.336321,-0.908503,-0.363686,0.005528,0.931505
-0.225426,-0.547827,0.786004,-0.491600,-0.307129,-0.814863
-0.100753,0.005158,0.735374,0.790682,0.490369,0.366551
-0.201832,-0.204384,0.826463,-0.682339,-0.378017,-0.625713
0.325492,-0.079320,0.344592,0.850346,0.525747,0.022390
-0.166987,-0.382675,0.343180,-0.091333,-0.117850,0.988822
0.387829,-0.153485,0.653334,0.814305,0.566539,-0.126261
0.503408,-0.166196,-0.926241,-0.122115,0.262047,0.957298
0.438187,-0.446708,0.841888,0.728326,0.353080,0.587261
-0.508098,0.016700,0.699133,0.113975,-0.835291,0.537864
0.572381,0.100012,-0.778895,-0.343729,-0.937955,-0.045721
0.302189,-0.875490,0.667228,0.990076,0.085413,0.111599
0.504346,0.416872,-0.779082,0.894598,-0.392374,-0.213863
0.556220,-0.271426,0.947653,0.833347,0.500954,0.233622
0.130120,0.200146,-0.971599,0.404859,-0.264370,-0.875327
-0.065617,0.253747,0.885884,0.832371,-0.509650,0.217751
0.420225,-0.455794,0.780714,-0.434188,-0.737993,-0.516572
-0.402906,0.105356,0.860714,0.458526,-0.089568,0.884156
-0.422101,-0.016452,0.548027,0.771044,0.583876,-0.254126
0.190361,0.316491,-0.974915,-0.097479,0.021309,0.995009
-0.039068,-0.090741,0.813997,0.655630,-0.516723,0.550588
-0.064393,0.125921,0.864031,0.856928,0.464507,0.223401
-0.132934,0.049177,0.755238,-0.191014,-0.888007,0.418280
-0.313805,-0.219916,0.647687,0.339647,-0.918770,-0.201250
0.461275,-0.182159,0.792840,0.956623,0.098606,-0.274134
0.481694,0.012709,-0.737024,0.807825,-0.583993,-0.079817
0.056599,-0.069375,0.310068,-0.445419,-0.280224,-0.850339
-0.594967,-0.230600,0.742177,-0.297148,0.814472,0.498336
0.868911,-0.772040,0.767585,0.896616,-0.438542,-0.061316
-0.447061,0.022534,0.657840,-0.337596,0.850039,0.404304
0.450236,0.211811,-0.811480,-0.641122,-0.482421,0.596852
0.709534,-0.016759,-0.923163,-0.250744,0.164419,0.953988
0.177159,-0.240238,0.670272,-0.637648,0.075816,-0.766588
0.116051,-0.162696,0.922058,0.662510,0.209065,0.719286
-0.310775,-0.182219,0.740255,0.138342,0.971486,-0.192551
-0.432996,0.448308,0.397738,0.894241,0.094764,0.437439
-0.429024,-0.179210,0.743401,-0.002581,0.650271,0.759698
0.388841,0.300775,-0.960935,-0.175046,0.155233,0.972246
-0.016051,-0.008962,0.698333,-0.585348,-0.752580,-0.301649
0.489775,-0.126412,-0.929524,0.321024,-0.339256,-0.884222
0.458100,-0.402381,0.619235,0.613873,-0.176711,-0.769372
0.324193,-0.127150,0.404762,0.940397,-0.340034,0.005446
-0.336893,-0.649557,0.587857,0.515962,-0.434966,0.737962
0.080263,-0.515960,0.784337,0.752422,0.301184,0.585789
0.412070,0.204875,-0.952177,-0.561398,0.344173,0.752580
-0.063310,-0.091783,0.829796,-0.290999,-0.888621,0.354503
0.606363,-0.445175,0.824711,-0.360417,0.158105,-0.919294
0.213739,-0.470222,0.797806,0.550942,-0.102037,0.828282
0.607662,0.479312,-0.610102,0.899465,-0.266281,0.346494
0.445330,-0.190077,0.784949,0.261560,0.147053,0.953919
-0.217922,-0.111430,0.398316,0.729723,-0.039773,0.682585
0.205368,-0.029714,0.500681,0.781560,0.263844,0.565287
-0.071681,0.132370,0.849456,0.554690,0.830356,-0.053183
0.407094,-0.147962,0.759932,0.896520,0.397209,0.196154
0.377802,-0.135989,0.674439,-0.593679,-0.796905,0.111751
0.103281,-0.040030,0.303827,0.177963,0.267582,0.946958
-0.091664,0.037943,0.562126,-0.116284,0.741754,-0.660514
0.552037,0.392927,-0.666973,0.725738,-0.598054,-0.340054
0.402188,0.028549,-0.269779,0.908783,0.382866,-0.165913
0.215615,0.224829,0.358861,0.824640,0.199169,-0.529434
-0.255220,0.193457,0.415867,-0.675799,0.713192,-0.186155
-0.249522,-0.235082,0.721293,0.949695,0.276090,0.147828
0.218284,0.247178,0.361548,-0.767837,-0.147868,0.623347
0.501462,-0.643663,0.823146,0.314932,-0.427590,0.847340
-0.450812,0.023943,0.655595,-0.405918,0.857263,0.316750
-0.505861,-0.710094,0.575051,0.860129,0.257309,0.440421
-0.509397,-0.363459,0.493163,0.487328,0.545759,0.681658
0.191153,0.148209,0.579150,-0.560240,0.826875,-0.049090
-0.629741,-0.052429,0.620612,0.316895,-0.272136,-0.908581
0.144405,0.284752,-0.977313,-0.153093,0.089100,0.984187
0.334009,-0.103939,0.478708,0.974280,0.221455,-0.041664
0.451464,-0.123279,0.917942,0.989566,0.119484,0.080509
0.546338,-0.508350,0.664184,-0.516128,0.061219,0.854321
0.417337,-0.055806,-0.033860,0.832430,-0.549125,0.074312
0.363948,0.109039,0.419694,0.997658,-0.020740,-0.065184
0.216192,0.041319,0.842347,-0.128193,-0.923948,-0.360399
0.432776,-0.141022,0.575885,0.291097,0.715355,0.635239
-0.503047,-0.280881,0.716361,0.243871,-0.958242,0.149331
0.451103,-0.387954,0.748605,0.823545,0.109300,0.556621
0.271311,-0.847434,0.735987,0.973892,0.144191,-0.175337
0.498001,0.440941,-0.793640,0.239770,-0.139223,0.960795
0.621877,-0.242385,0.789915,0.693837,0.551914,-0.462580
-0.000035,-0.391514,0.782330,0.807608,-0.375199,0.454968
0.495112,-0.694989,0.673435,0.960993,-0.054613,0.271128
-0.357598,-0.491528,0.559847,0.128146,0.726732,0.674862
0.275278,0.127457,0.471344,-0.460762,0.045606,-0.886351
-0.465243,-0.049728,0.488504,-0.644005,0.661137,0.384910
-0.302695,-0.600873,0.794490,-0.630093,0.221472,-0.744267
-0.437901,0.015163,0.875783,0.877234,-0.269696,0.397145
0.169585,0.000676,0.504337,0.703587,0.469211,0.533672
0.108041,0.083929,-0.969218,-0.267418,0.261810,0.927331
-0.734643,-0.408276,0.826616,-0.816773,0.490177,-0.304317
-0.428015,-0.325761,0.660578,-0.918759,0.239161,-0.314141
0.140077,0.260559,0.720459,0.512560,-0.430532,0.742916
0.199595,-0.011356,0.264813,-0.101373,-0.964840,0.242502
0.363156,0.102774,0.848861,0.906758,-0.371797,0.198890
0.460769,-0.224275,0.868810,-0.159827,0.888316,0.430524
-0.026804,-0.429763,0.741786,-0.260482,-0.953543,0.151340
0.371161,0.450886,-0.783571,0.077639,0.013459,0.996891
-0.473398,-0.042424,0.524371,0.910918,-0.408735,-0.056247
0.203421,-0.071709,0.305561,-0.570744,0.179016,-0.801376
-0.313660,-0.067227,0.419847,0.239904,-0.729116,0.640965
0.125862,0.634700,-0.994694,-0.235971,0.248916,0.939339
0.287617,-0.859467,0.737959,0.990930,0.020161,-0.132860
0.241512,0.432097,0.552279,0.986020,0.122617,0.112828
0.685653,0.121994,-0.933299,-0.127584,0.202926,0.970847
0.461927,0.056361,-0.914286,0.598826,0.665140,-0.446090
0.616535,0.040397,-0.929269,-0.196020,0.062612,0.978599
-0.311137,-0.194499,0.784677,0.905646,-0.261165,-0.334064
0.056960,0.031007,-0.967772,-0.292831,0.091357,0.951790
0.007609,-0.035548,0.733758,-0.663932,0.713345,-0.224352
0.231992,0.556240,-0.984218,-0.227009,0.214332,0.950015
0.413440,-0.166440,0.744252,0.813541,0.574625,0.089205
-0.192743,-0.539598,0.504371,0.148413,-0.907194,-0.393665
-0.622815,-0.235756,0.653878,0.284078,0.777139,0.561564
0.197649,0.414661,-0.978844,0.323864,-0.287096,-0.901492
-0.007614,0.471515,-0.781531,0.129079,-0.583445,0.801829
0.092241,-0.325514,0.856973,-0.197666,-0.168587,0.965664
0.130477,-0.108976,0.296480,0.782888,0.395587,0.480206
0.338192,0.357257,-0.970816,-0.054575,0.173482,0.983324
0.521304,0.233054,-0.941020,-0.101925,0.630697,0.769307
0.137042,0.375368,-0.979388,0.244549,0.018216,-0.969466
0.604633,-0.408336,0.805034,0.643729,0.640626,-0.418582
0.113307,-0.085402,0.538470,0.743309,-0.364883,0.560670
-0.197072,-0.239440,0.692398,-0.419726,-0.678412,-0.602982
-0.139425,0.294330,0.570289,-0.099423,-0.808025,0.580698
0.736664,-0.357872,0.975136,0.862988,0.121092,-0.490499
0.776490,0.052126,-0.920867,-0.165883,0.328958,0.929661
0.699652,0.132613,-0.932058,-0.080022,0.264235,0.961133
0.083945,-0.289720,0.488231,-0.077487,0.826991,0.556850
0.694962,-0.090681,-0.916990,-0.158427,0.079180,0.984191
-0.042459,-0.274252,0.841157,0.791964,-0.380617,0.477414
-0.270518,-0.095838,0.772619,0.959339,0.281884,-0.014523
0.256449,0.654286,-0.990357,-0.277250,0.360271,0.890695
-0.439200,-0.246376,0.666820,0.115453,-0.057005,0.991676
0.555718,0.563116,-0.785629,0.244825,-0.091187,0.965270
0.679308,0.550960,-0.661565,-0.551058,-0.281568,0.785529
0.125430,-0.073980,0.547534,0.508312,-0.780527,0.363864
0.089934,-0.526768,0.532704,-0.495459,0.085100,0.864453
-0.181778,-0.465433,0.773384,0.602710,-0.386295,-0.698224
-0.425924,-0.158338,0.654303,0.503156,-0.249005,0.827545
-0.670505,-0.278853,0.734541,-0.256197,0.842757,0.473417
-0.483135,0.105292,0.899966,0.637649,0.003861,0.770318
0.779664,-0.935660,0.809218,0.271087,-0.811507,0.517656
-0.234154,0.199719,0.939116,0.408016,0.190409,-0.892898
-0.124854,0.006324,0.697415,0.210957,0.965226,0.154386
0.323616,-0.748586,0.726956,0.980817,-0.123665,0.150682
0.456585,-0.235082,0.666786,0.846203,0.527583,-0.074809
0.303342,-0.875981,0.737347,0.967852,-0.158298,-0.195457
-0.726707,-0.375367,0.834864,0.905453,-0.359576,0.225522
0.423326,0.179581,-0.945612,0.792810,-0.365780,-0.487501
0.166119,-0.196155,0.541939,0.488159,0.747773,0.450040
-0.302263,-0.227775,0.844082,0.827595,0.544852,0.134990
0.262222,0.578401,-0.983061,-0.262876,0.143169,0.954148
0.307169,-0.205609,0.983878,0.286165,0.849129,-0.443947
0.030481,-0.524804,0.695783,0.868310,0.415535,0.270865
-0.331626,0.259454,0.932415,0.715147,0.143201,0.684148
-0.226435,-0.335523,0.847313,-0.332931,0.940636,-0.066031
0.102629,-0.653241,0.751191,0.528900,0.831699,0.168942
0.494967,0.061948,-0.285612,0.973044,0.225068,0.050301
0.004580,-0.108545,0.315306,-0.447303,-0.814390,-0.369714
0.201185,0.079567,-0.960527,0.139468,-0.382291,-0.913456
0.295843,0.409198,-0.972313,-0.244001,0.292255,0.924689
0.299375,0.212917,-0.959031,0.516249,-0.118588,-0.848189
-0.676348,0.052126,0.514456,-0.604499,-0.739501,-0.296174
0.237113,-0.135682,0.891276,-0.564350,0.417529,-0.712165
-0.379316,-0.311271,0.770578,-0.323982,-0.673854,-0.664045
0.280761,-0.773085,0.769898,0.513154,0.722129,-0.463900
-0.099168,0.126659,0.915493,0.690348,-0.343390,0.636792
0.233722,0.569928,-0.757789,-0.492588,0.831605,0.256495
-0.435880,0.022103,0.656803,-0.086641,0.962723,0.256238
0.686737,-0.361371,-0.905901,-0.301094,0.141918,0.942975
-0.272681,0.219242,0.930731,0.553477,0.187802,0.811414
0.277806,-0.895935,0.693181,0.998852,-0.042111,-0.022841
0.199309,0.007553,-0.945017,-0.278919,0.083758,0.956655
0.567982,-0.309798,0.938419,0.175206,0.968233,0.178402
-0.576930,-0.445175,0.676497,-0.258844,0.949963,0.174841
-0.111361,-0.185472,0.667959,-0.630352,0.775318,-0.039233
0.071536,-0.313114,0.494694,-0.106978,0.952258,0.285939
-0.297789,0.076558,0.587976,0.792580,-0.260623,-0.551265
0.182641,-0.159012,0.342160,-0.540180,0.761156,0.358953
0.061002,0.013998,0.776599,0.987513,0.148840,-0.051620
0.232569,0.353390,-0.970697,0.232312,-0.128734,-0.964084
-0.487970,0.056608,0.897330,0.869389,-0.328776,0.368876
-0.352046,-0.049544,0.429303,0.714328,0.546583,0.437015
0.122973,0.047397,0.601122,0.151076,0.799943,0.580748
0.673605,0.367693,-0.534847,0.956609,-0.166513,-0.239106
0.386675,0.010378,-0.114762,-0.425685,0.886391,0.181941
-0.362579,0.061764,0.593350,-0.486110,0.619326,0.616549
-0.159844,-0.405267,0.458198,0.291860,0.601367,0.743758
-0.072183,0.100012,0.852245,0.893611,-0.379458,0.239732
0.090510,-0.579690,0.761922,-0.289320,0.574906,-0.765360
-0.358466,-0.027810,0.801565,-0.429170,0.891274,-0.146438
-0.057396,-0.063787,0.838215,0.768272,-0.251720,0.588554
0.353992,0.026828,0.794966,0.941663,0.336485,-0.006965
0.444247,-0.043039,0.877381,0.340549,0.562227,0.753609
0.392518,0.513139,-0.972636,-0.291843,0.158224,0.943288
-0.024713,-0.087489,0.826633,-0.793149,0.175501,-0.583193
0.322969,-0.358730,0.513010,0.916324,-0.179491,-0.357957
0.606724,-0.214820,-0.906990,-0.247327,0.128800,0.960333
-0.701453,0.022039,0.532653,-0.793398,-0.512864,-0.327858
0.461997,-0.017314,0.015952,-0.612193,0.774474,0.159406
0.761914,0.217522,-0.929048,0.150396,-0.208420,-0.966407
0.673751,0.249572,-0.940255,0.184175,-0.287307,-0.939965
0.620071,0.339514,-0.634524,0.976987,0.125338,-0.172587
0.547276,0.160485,-0.887313,-0.345331,-0.900153,-0.265465
0.500669,-0.159136,0.865731,0.939773,-0.195783,0.280170
0.340429,0.266330,-0.961020,-0.122626,0.142603,0.982155
0.164027,-0.378500,0.617075,-0.711556,-0.243841,-0.658960
0.019732,0.577296,0.325187,-0.430589,0.277033,-0.858979
-0.470078,-0.722985,0.573044,-0.439140,0.828987,0.346320
-0.057898,0.005218,0.704422,0.374512,0.910792,0.173779
0.053137,-0.070847,0.847619,0.828792,-0.232478,-0.508976
0.535012,0.013263,-0.665493,0.981867,-0.184385,-0.044040
-0.017856,0.105049,0.833384,0.913098,0.366955,-0.177755
-0.104003,0.155393,0.782313,0.827996,-0.208140,0.520673
-0.250315,0.178292,0.935561,-0.215574,0.109428,0.970337
-0.286248,0.003131,0.768129,-0.551109,-0.344489,0.760004
0.221599,-0.242265,0.468486,-0.046051,0.807165,0.588528
0.010643,-0.026585,0.687364,0.907635,0.417186,-0.046414
0.583060,0.196219,-0.936190,0.155015,0.479015,0.864011
0.471302,-0.033952,-0.206173,0.959075,0.271501,0.080394
0.440931,-0.150540,0.554048,-0.010760,-0.994403,-0.105102
-0.076225,-0.404225,0.753265,0.764334,0.608046,0.214647
-0.158690,0.040952,0.667109,0.420736,-0.149032,0.894858
-0.048302,-0.117692,0.315102,-0.240271,0.929456,0.279967
0.118865,-0.747237,0.624235,-0.050902,-0.563463,0.824572
0.380686,0.002149,-0.941224,-0.179999,0.227318,0.957041
0.391219,-0.108792,0.846327,0.705749,-0.376337,0.600240
0.482196,-0.597002,0.834473,0.340607,-0.421542,0.840410
0.704342,-0.351115,0.965255,-0.581533,0.260894,0.770554
0.238918,0.183696,0.564099,-0.377265,0.837102,0.396146
-0.251328,-0.348293,0.754881,0.221878,0.963929,0.147007
-0.827571,0.143173,0.647925,0.586477,-0.636452,0.500973
0.464159,-0.037879,-0.129150,0.914712,-0.402630,0.034520
-0.127377,-0.386418,0.514898,-0.351209,0.900232,-0.257360
0.040654,0.110448,0.573963,-0.214614,0.785136,0.580949
-0.511348,0.152200,0.593725,0.443778,0.009593,0.896085
-0.060350,-0.039415,0.742517,0.145140,0.923767,-0.354385
0.461420,-0.059306,0.902092,-0.255119,-0.773788,0.579798
-0.055876,-0.426757,0.750595,-0.617790,-0.784698,-0.050839
0.241948,-0.050342,0.494796,0.689197,0.130793,0.712671
-0.470294,-0.400294,0.491922,0.377840,0.571203,0.728673
-0.369937,0.057222,0.710680,-0.377441,0.898661,0.223489
-0.038777,0.111370,0.834286,0.391159,-0.792823,0.467361
-0.484654,-0.321463,0.761837,0.164873,-0.900163,-0.403141
0.227447,0.430932,0.547840,0.988702,0.016593,0.148974
0.013743,-0.504726,0.714864,0.857979,0.507306,0.080701
0.341437,-0.258719,0.945034,0.554418,0.814945,-0.168778
0.271381,-0.737168,0.606004,-0.087614,0.847009,0.524308
-0.513726,-0.329385,0.778283,-0.401342,0.911578,0.089160
0.004218,-0.091723,0.835714,-0.096151,-0.843369,0.528662
-0.499516,-0.502823,0.684320,-0.692956,0.615645,0.375224
0.345405,-0.354679,0.508895,0.420725,0.603270,0.677537
-0.124563,0.303477,0.925612,0.948395,-0.316733,-0.015084
-0.012951,-0.110325,0.323401,-0.057784,0.997504,0.040579
0.490206,0.107870,-0.580306,0.736822,-0.672374,0.070757
-0.355220,-0.300835,0.702058,-0.111201,-0.547602,0.829317
0.871505,-0.814402,0.753027,0.860845,-0.508531,-0.018496
0.224990,0.129852,-0.961463,0.237236,-0.130287,-0.962676
0.213087,0.355170,-0.975119,0.310554,-0.127729,-0.941935
0.432128,-0.806361,0.604966,-0.518598,-0.474223,-0.711455
-0.268427,0.365239,0.595816,0.813963,0.562594,0.144751
0.428808,0.115852,-0.936871,-0.729513,-0.004582,0.683951
0.007107,-0.300651,0.786565,-0.338054,0.638028,-0.691838
0.419142,-0.088040,0.776054,-0.743138,-0.076839,0.664712
-0.564591,0.001535,0.707160,0.177544,-0.330187,0.927068
0.498648,-0.167054,0.546497,-0.100924,-0.993350,-0.055405
0.270228,-0.092705,-0.937636,-0.490860,-0.015234,0.871105
