-0.723536,-0.145068,0.608844,0.009884,-0.343962,0.938932
0.142560,0.075781,0.229585,0.890812,-0.003972,-0.454354
0.570963,0.180366,0.205371,-0.459114,-0.791316,0.403774
0.160250,0.434674,0.013704,-0.182637,0.835945,-0.517532
0.288436,0.422469,0.386900,0.842017,-0.088685,-0.532111
-0.164607,-0.177895,0.898247,-0.432896,0.875039,-0.216584
0.475567,-0.385328,0.208048,0.401326,-0.216247,-0.890042
-0.693210,-0.022333,0.638949,-0.752161,0.521472,0.402890
0.216729,0.510166,-0.689826,-0.433048,-0.190324,0.881048
0.017974,-0.403110,0.893886,0.580935,-0.301938,-0.755875
0.018226,-0.129390,0.703042,0.934037,0.088808,-0.345960
0.174149,0.004024,-0.105416,-0.378686,0.156555,0.912188
-0.007676,-0.254387,0.534863,-0.466967,-0.428630,-0.773446
-0.803456,-0.153957,0.607448,0.863685,-0.401714,0.304425
0.415423,-0.760950,0.499421,-0.122315,-0.310100,0.942803
-0.388318,-0.231187,0.861849,0.760610,-0.552382,0.341095
0.379980,-0.307627,0.910392,0.863556,0.320898,0.388968
0.267081,-0.358603,0.922748,-0.740551,0.667959,-0.073586
0.203588,0.190625,-0.982002,0.300865,0.395463,0.867807
-0.812427,-0.242708,0.647671,0.300122,0.570041,0.764840
0.275611,-0.132861,0.679478,0.069425,-0.928800,0.364019
0.335819,0.250913,0.119454,0.917481,-0.259451,-0.301520
0.133082,-0.085251,0.706294,0.940417,0.236557,-0.244246
0.349149,-0.369073,0.928505,-0.216809,0.227737,-0.949279
0.273019,-0.356657,0.897635,0.830384,0.060898,0.553853
-0.311369,0.218350,0.368864,-0.092749,-0.011093,0.995628
0.557002,-0.336403,0.556036,-0.543704,0.838627,-0.033012
0.313137,-0.356184,0.882659,0.120582,0.167890,0.978403
0.261839,-0.676620,0.560913,0.648983,-0.334182,-0.683479
0.380674,0.525211,0.519619,0.895364,0.441005,-0.061956
0.326151,0.059683,-0.361271,-0.086655,0.362115,0.928097
0.104906,-0.240866,0.967542,0.784081,0.584367,-0.209122
-0.063778,0.413893,0.329827,0.889288,-0.144558,0.433901
-0.372460,0.041902,0.524707,-0.414177,0.094627,-0.905264
-0.411630,0.010811,0.345587,0.879347,-0.124363,-0.459655
0.367027,-0.210407,0.479951,0.427355,0.458186,-0.779380
0.453138,-0.699872,0.585491,-0.339046,0.155640,0.927806
0.013426,-0.323304,0.844655,0.573433,0.530393,-0.624386
-0.044698,-0.688351,0.823654,0.996334,-0.048619,-0.070397
0.510061,-0.217824,0.829200,0.986968,-0.039842,-0.155909
0.150078,-0.329143,0.336578,0.106066,0.660571,0.743233
0.202136,0.112501,0.112473,0.053774,0.829831,0.555418
-0.003253,-0.565932,0.672554,0.985652,-0.064360,-0.156037
0.432921,-0.374175,0.199422,0.206102,-0.252108,-0.945496
-0.134852,-0.242761,0.595934,0.998960,-0.043062,0.014966
0.412958,-0.166952,0.178001,0.384589,-0.132016,-0.913599
0.284834,0.235552,0.704572,-0.265703,0.445214,-0.855095
0.370502,0.555094,0.560397,0.665643,0.696332,-0.268405
-0.384401,-0.029172,0.356585,-0.145138,0.217162,-0.965285
-0.452253,-0.412737,0.734467,0.426790,0.366185,0.826897
-0.728590,-0.231240,0.587767,-0.421989,0.302827,-0.854530
-0.288752,-0.047585,0.837865,0.753042,0.198688,0.627257
0.200871,0.031959,0.687205,-0.024457,-0.107170,0.993940
0.324762,0.287213,0.641531,-0.547589,0.137086,0.825442
-0.634836,-0.120499,0.802519,-0.581950,-0.807546,0.095934
-0.751334,-0.168899,0.372536,0.051205,0.008723,0.998650
-0.426667,-0.005183,0.743820,-0.234462,0.970628,0.053937
-0.646524,-0.068733,0.574512,-0.539911,-0.414364,-0.732666
0.583979,-0.692244,0.241864,0.304652,0.618352,-0.724450
0.230628,0.171370,0.058345,0.983122,0.177770,-0.043237
0.216918,0.133439,-0.538726,0.277312,0.936419,0.214985
-0.597814,-0.209564,0.567187,0.139067,0.502645,0.853234
0.010266,-0.396428,0.883749,0.286961,0.255542,0.923229
-0.196134,0.006813,0.078352,0.108905,0.630375,0.768614
0.379853,-0.313939,0.495500,0.660706,-0.297715,-0.689081
-0.500394,-0.147961,0.783412,-0.086650,-0.367768,0.925872
-0.774457,-0.152064,0.610986,0.054380,-0.506782,0.860357
-0.456740,-0.256544,0.876672,-0.466954,0.191280,-0.863346
0.149698,0.093930,-0.217879,0.546300,0.835555,-0.058345
0.170104,0.101717,-0.341322,-0.164955,0.973320,-0.159493
-0.132135,-0.187260,0.682500,0.875156,-0.128106,0.466574
0.351991,0.081252,0.130165,0.851853,-0.519997,0.062848
-0.192658,0.243600,0.009554,-0.288531,0.560415,-0.776328
0.142244,-0.423996,0.744470,-0.321826,0.098038,0.941710
-0.719366,-0.110030,0.815640,0.136194,0.873902,0.466633
0.405061,-0.143120,-0.344803,-0.185648,0.263495,0.946628
0.077486,-0.307627,0.641742,0.037480,0.914973,-0.401769
0.165051,0.028013,0.174940,-0.312421,0.800072,0.512131
0.287362,0.430517,-0.002553,0.193414,0.095746,0.976434
0.029409,-0.011075,0.401819,-0.439533,0.273321,0.855632
-0.578230,-0.144699,0.574206,-0.589525,0.376324,-0.714731
0.010013,-0.464609,0.540486,0.120802,0.293894,0.948174
0.155131,-0.451141,0.830329,0.947671,0.215353,0.235676
-0.434564,-0.282480,0.897979,0.568300,-0.487489,0.662864
0.249960,0.264223,0.502290,0.612432,0.129640,-0.779821
-0.092902,-0.568141,0.677413,0.217494,-0.046205,0.974967
0.579745,-0.211880,0.603833,-0.062471,0.997352,-0.037221
0.386928,-0.070627,0.684872,-0.338212,-0.938522,0.069203
-0.327985,-0.028068,0.777616,0.922937,0.019581,0.384454
-0.593075,-0.164269,0.917718,0.340092,-0.233613,0.910913
0.540892,-0.075782,-0.337057,-0.231526,0.128020,0.964368
0.032000,-0.359865,0.355227,0.404680,0.373600,0.834660
-0.459834,-0.016967,0.542112,0.150369,-0.423663,0.893252
0.293680,-0.424784,0.701053,0.918286,-0.262270,0.296588
-0.366206,-0.239551,0.844023,-0.125631,0.870348,-0.476142
0.541713,0.639318,-0.000756,0.104445,-0.152571,-0.982758
0.019428,-0.736908,0.666396,0.300134,0.029210,0.953450
0.240104,0.359549,-0.449654,-0.621643,-0.047506,0.781859
0.510693,-0.253230,0.797125,0.821389,0.254619,-0.510382
0.334554,-0.171162,0.492211,0.637790,0.621278,-0.455233
0.571343,-0.305311,0.598325,0.206650,-0.582316,0.786259
0.382949,-0.094089,0.755334,0.880634,0.438231,-0.180105
-0.040717,-0.402373,0.847638,0.762075,-0.151416,-0.629535
-0.076350,-0.143700,0.669685,-0.409186,0.905846,-0.109592
0.428120,-0.771471,0.504547,0.463865,-0.107237,0.879392
-0.559212,0.079253,0.334914,-0.339220,0.162161,-0.926625
-0.356097,-0.005551,0.831725,0.606230,0.756089,0.246604
0.026756,-0.124919,0.744700,0.867867,0.445597,-0.219661
0.680640,0.122023,0.237828,0.525411,0.659598,0.537470
0.644060,-0.503118,0.715207,-0.633301,0.304573,0.711453
0.364247,0.094351,0.134373,0.851853,-0.519997,0.062848
0.116278,-0.358603,0.177924,0.133223,0.229317,0.964192
-0.502480,0.066628,0.544828,0.121939,-0.153597,0.980581
-0.052343,-0.707763,0.804527,0.940897,0.286063,-0.181330
0.229113,0.297313,0.350751,0.744710,0.419023,-0.519449
0.545187,-0.769156,0.561487,-0.073440,0.995460,-0.060540
-0.387497,0.002920,0.322061,0.410835,0.826811,-0.384185
-0.619420,-0.215193,0.772471,-0.319870,0.867366,-0.381261
0.041665,-0.295789,0.861524,0.833847,0.298941,-0.464041
-0.616894,0.117341,0.342068,0.116213,-0.222383,0.968008
0.154689,-0.023227,0.589909,-0.803131,0.469263,0.367114
-0.369680,-0.222349,0.359301,0.182180,0.360464,0.914809
0.252424,-0.247442,0.630438,0.787583,-0.504584,-0.353705
0.328932,-0.503329,0.948091,0.974770,0.220441,0.035047
0.237388,-0.290897,0.899777,-0.254578,0.705959,0.660917
0.331837,-0.769578,0.543795,0.965948,0.258705,-0.004143
0.177180,-0.152801,0.777788,0.172222,0.764378,0.621342
0.422435,-0.283795,0.195635,0.223913,0.086149,0.970794
-0.035536,-0.566826,0.677967,0.177519,-0.873970,0.452397
-0.631046,0.024226,0.384261,0.261432,-0.014649,0.965111
-0.276368,-0.377594,0.729073,-0.063138,0.384778,0.920847
0.525919,0.187258,0.212754,-0.874443,0.393898,0.283183
0.193165,-0.106085,0.379785,-0.676541,0.505237,0.535750
-0.040717,-0.764895,0.839567,0.732247,0.199412,0.651191
0.471269,-0.329880,0.195042,-0.123529,0.271699,0.954422
0.376694,-0.499015,0.671273,0.040192,-0.305603,0.951310
0.018543,-0.128917,0.705854,0.932293,-0.086484,-0.351212
0.309916,-0.148014,0.487486,0.953187,0.078940,-0.291894
0.207378,0.555514,0.377337,0.721009,0.624438,-0.300370
0.063841,-0.615751,0.815927,0.789294,-0.017704,0.613760
0.430584,0.443512,0.212008,-0.408907,-0.123035,0.904244
0.082162,-0.172423,-0.101265,-0.126977,0.190071,0.973524
0.175853,0.140699,-0.023076,0.883569,-0.452189,0.121783
0.380105,-0.291896,0.874607,0.270630,0.953474,0.132839
0.276812,0.094931,-0.968594,0.848625,0.241782,0.470508
0.125690,-0.309152,-0.323534,-0.114830,0.365662,0.923637
0.436711,-0.467186,0.214035,-0.350821,0.080817,0.932949
0.336576,-0.022543,0.383304,-0.437241,0.628700,-0.643084
0.206243,0.421363,-0.448009,0.407527,0.107284,-0.906869
0.152794,-0.018703,0.576253,0.940401,-0.235374,-0.245448
-0.304039,-0.240972,0.809079,0.783150,-0.619693,-0.051552
-0.181730,-0.566616,0.823768,0.816796,-0.103356,-0.567594
-0.199924,-0.164637,0.714556,0.949441,0.125745,0.287662
0.014309,-0.196833,0.961326,0.942844,0.195069,-0.270173
0.426541,-0.311571,0.200379,0.062705,0.215841,0.974413
0.406893,-0.010391,-0.350828,-0.297459,0.004652,0.954723
-0.536721,0.086619,0.743552,-0.251912,0.386520,-0.887211
-0.079129,0.308256,-0.081087,-0.097887,-0.566226,0.818417
-0.084120,-0.172844,-0.110063,0.143839,0.170502,-0.974802
-0.121711,0.284530,0.019576,0.559422,0.615575,0.555081
0.509745,0.726491,0.306492,0.481806,-0.538381,-0.691382
-0.461540,-0.026016,0.337286,0.752083,0.010784,-0.658981
-0.356097,-0.589711,0.696596,0.701332,-0.411366,0.582161
0.875161,0.320567,0.385887,0.775138,0.631272,-0.025624
0.355340,0.424731,0.615883,-0.523830,-0.087526,-0.847314
0.021512,-0.673778,0.810055,0.439426,0.042302,0.897282
-0.139905,-0.422628,0.773198,-0.485384,-0.721647,-0.493587
0.048805,0.160691,0.712070,-0.060349,0.944238,0.323686
0.213696,-0.297421,0.943500,-0.111477,0.859437,0.498940
-0.231955,-0.126865,0.829564,0.862055,0.458159,-0.216684
0.410431,-0.668149,0.160844,0.833683,0.248354,-0.493247
0.242443,-0.334929,0.172607,-0.135766,0.266894,0.954115
0.077677,-0.681828,0.724578,-0.580974,0.082531,0.809727
0.103011,0.109187,0.408896,-0.572244,-0.700050,0.427162
0.276243,0.562354,0.001253,0.530216,-0.161180,-0.832401
0.173453,0.074202,-0.675768,0.984173,0.014599,-0.176606
0.027703,0.545939,0.332466,-0.237869,-0.167342,0.956773
0.232903,-0.164112,0.970622,0.748918,0.648268,-0.137367
0.358941,-0.415262,0.198141,0.345398,0.497338,-0.795836
0.021512,0.290106,0.664081,0.730219,0.479770,0.486418
0.419213,-0.354290,0.856609,0.816072,0.390569,-0.426007
-0.018543,-0.120289,0.724751,0.750044,0.658943,-0.056805
0.009383,0.379645,-0.710769,0.402470,-0.273863,-0.873508
-0.749881,-0.236132,0.604368,0.347703,0.601419,-0.719303
-0.619799,-0.109505,0.592835,0.668433,0.254262,0.698962
-0.001042,0.569140,0.422915,-0.269661,0.192015,0.943617
0.313706,0.650629,0.554448,0.898319,-0.335673,-0.283455
-0.278452,-0.533998,0.787275,-0.026708,0.827300,0.561126
0.066305,0.653785,0.509195,0.333998,0.813910,-0.475390
-0.385538,-0.424890,0.722054,0.765131,0.379723,0.519986
0.527245,0.691822,0.329502,-0.744270,-0.079021,0.663188
-0.675396,-0.100034,0.814760,0.590063,0.551149,0.589966
0.365765,-0.401900,0.482839,0.603227,0.356486,-0.713467
-0.084942,-0.654524,0.750112,0.786547,0.497658,0.365622
-0.062704,0.284794,-0.092888,0.150056,-0.363225,0.919538
0.657263,-0.042902,0.580747,0.583406,0.032017,0.811549
0.241938,-0.262856,0.791942,0.930740,-0.234144,0.280890
0.289194,0.221137,0.638567,-0.812339,0.277431,-0.512969
-0.128281,-0.502275,0.686096,0.080107,-0.527120,0.846007
0.327100,0.282425,0.379307,0.884540,0.282297,-0.371345
-0.613292,0.030486,0.556284,0.076405,0.707941,0.702127
-0.297785,-0.446617,0.830329,0.816605,-0.356510,0.453934
0.005529,0.269169,0.672822,0.687924,0.710492,0.148192
0.002560,0.580081,0.307659,0.033011,0.550795,0.833987
0.298670,-0.428994,0.865522,0.758007,-0.122332,-0.640672
0.436459,0.552621,0.585682,-0.388335,-0.190042,0.901710
-0.465206,-0.214878,0.891916,0.667359,0.391579,0.633481
-0.020754,-0.388854,0.872312,0.755167,0.421420,0.502123
-0.483273,-0.174581,0.732000,0.826244,-0.315895,0.466402
0.417823,0.040849,0.643195,-0.094317,0.861056,0.499686
-0.280791,-0.051162,0.664502,-0.143462,0.875630,0.461185
0.282118,-0.315307,0.727046,0.301097,0.536509,-0.788352
-0.180023,-0.173897,0.329769,-0.133941,0.427866,0.893863
0.221088,-0.040693,0.908843,-0.670467,0.428848,-0.605445
-0.200998,0.021964,0.077510,0.108905,0.630375,0.768614
-0.027955,-0.211826,0.905094,0.870493,-0.387328,-0.303676
0.225953,0.214299,-0.447436,0.916981,-0.243399,-0.316074
-0.804908,-0.154747,0.602073,-0.709959,0.465634,-0.528341
0.200682,-0.240235,0.417063,-0.603066,-0.770761,-0.205518
0.112676,0.004812,0.517611,-0.455063,0.887205,0.076055
0.356414,0.082516,0.621659,-0.699199,0.631958,0.334290
0.099915,-0.006024,-1.000000,-0.134786,0.095139,0.986297
0.175917,0.104453,-0.263534,-0.096621,-0.995170,-0.017375
0.320277,-0.745904,0.507015,0.902718,0.107891,0.416485
0.380927,-0.508904,0.951151,0.874062,0.358234,0.328152
0.308715,-0.186786,0.520652,-0.786127,0.329084,0.523171
0.305873,0.612226,0.523368,0.570123,0.743328,-0.349890
0.368481,0.242232,0.147666,0.887042,-0.434369,-0.156461
0.188553,0.071993,0.396770,0.556068,0.640478,-0.529694
-0.624791,0.095141,0.545229,-0.556320,-0.142148,0.818719
-0.566035,-0.167162,0.781097,0.369878,-0.431979,0.822548
0.609375,-0.162270,0.640804,-0.684455,-0.472126,-0.555534
-0.358689,0.094614,0.314946,0.058035,-0.236582,0.969877
-0.583410,-0.122762,0.914122,-0.261246,-0.232190,-0.936930
0.156965,-0.288319,0.332218,0.115285,0.526426,0.842369
0.719999,-0.243181,0.608404,0.847534,0.528770,0.045702
0.233281,0.197779,0.330381,0.800722,-0.534989,-0.269502
0.108001,-0.333457,-0.308960,-0.024478,0.366373,0.930146
0.138831,-0.172477,0.918483,0.165804,0.978946,-0.119053
0.154878,-0.647000,0.737259,-0.722820,0.350188,0.595735
0.621947,-0.233449,0.566001,0.363765,0.461616,-0.809065
-0.101810,-0.103033,0.939732,-0.304852,0.808709,0.503045
-0.403924,-0.060368,0.828416,0.497339,0.542926,-0.676672
0.016079,0.650525,-0.068693,0.840461,0.427312,0.333212
0.119816,-0.332036,0.536183,-0.359557,0.402177,0.842005
0.453327,-0.346135,0.552287,-0.293362,0.954992,-0.043918
0.391984,-0.876740,0.228571,-0.015992,-0.249076,0.968352
0.176106,-0.012180,0.724425,-0.514067,-0.533536,0.671621
0.082352,0.542887,0.307984,0.673600,0.410150,-0.614849
-0.091071,0.021964,0.057695,-0.194242,-0.483738,-0.853386
0.098904,0.485493,-0.710062,-0.545105,-0.062173,0.836059
-0.072369,-0.065419,0.636788,0.758274,0.643406,0.105116
-0.351296,-0.122498,0.359989,0.496758,0.335745,0.800317
-0.403607,-0.241340,0.829373,0.330786,0.119186,0.936149
0.234799,-0.625905,0.810189,-0.592999,0.576753,0.561879
0.137252,0.096772,-0.196898,0.998033,-0.013555,0.061203
0.009444,-0.179736,0.684776,0.879577,0.428812,-0.206070
-0.220583,-0.155063,-0.107347,0.058495,0.073245,0.995597
0.194302,-0.562354,0.558503,-0.430466,0.058644,0.900700
0.538680,-0.462346,0.483642,-0.407194,0.331083,-0.851221
0.262596,0.211721,0.506995,0.963691,0.189140,-0.188482
0.316992,-0.695295,0.572925,0.320670,0.444088,0.836634
0.064599,-0.176580,0.240296,0.359977,0.148624,0.921047
0.163913,0.052792,0.381220,-0.375827,-0.702413,0.604458
0.043941,0.153798,0.738350,-0.147850,0.579847,0.801197
0.435133,-0.258228,0.730297,0.891572,-0.247368,-0.379353
0.152478,-0.555306,0.739038,0.980324,0.099209,0.170653
0.362416,-0.560461,0.582316,0.275828,0.461309,0.843275
0.063778,-0.710341,0.815142,-0.209290,-0.255374,-0.943918
0.218561,0.305206,-0.694378,0.688291,-0.081984,-0.720787
-0.611713,-0.055370,0.369744,0.155180,-0.262035,0.952500
-0.700855,-0.039483,0.619995,-0.646576,0.762269,0.029761
0.060870,0.791040,-0.089751,0.871973,-0.358759,-0.333100
0.340303,-0.249968,0.483546,0.617067,0.031257,0.786290
0.582398,-0.438252,0.496992,-0.946334,0.316507,0.065395
0.415548,-0.105453,0.633728,0.016164,-0.834039,0.551468
0.179455,-0.143751,0.442998,0.835972,-0.533355,-0.129166
0.062577,0.327880,0.424025,0.977527,-0.194170,-0.082088
0.148308,-0.021912,0.054692,0.060960,0.670866,0.739068
0.323246,0.619117,-0.671751,-0.347401,0.070911,0.935032
-0.075276,0.021437,0.906892,0.954092,0.021690,-0.298727
-0.042423,0.692296,-0.042700,0.578563,0.195138,0.791951
0.089490,0.099349,-0.983647,0.786151,-0.093644,-0.610899
0.330449,-0.615331,0.532835,-0.623871,-0.670228,-0.401969
-0.407461,0.125232,0.326021,-0.740528,-0.146112,-0.655950
-0.041729,0.263592,0.547333,-0.217721,0.764760,0.606416
0.599519,-0.200885,0.605134,0.105565,0.981899,-0.157256
-0.604952,0.023226,0.372536,-0.691973,-0.074284,-0.718091
0.095935,-0.448038,0.879637,0.799202,0.437030,0.412652
-0.008182,-0.365337,-0.068693,-0.183073,0.423999,0.886966
0.202514,0.168424,0.332638,0.019562,-0.897755,0.440060
-0.717914,0.065207,0.540142,0.161018,-0.134319,0.977769
0.305240,-0.403741,0.918732,-0.729680,-0.638535,0.244624
0.311747,-0.281270,0.741811,-0.275597,-0.931485,0.237448
0.202957,-0.466187,0.768244,0.383086,0.584955,0.714893
0.401207,0.301576,0.124848,-0.631163,0.732056,0.256374
0.602110,-0.387853,0.572427,-0.291592,0.212844,0.932562
0.387055,-0.176053,0.742519,0.912888,0.407570,-0.022863
0.356477,-0.215826,0.082693,-0.076131,0.573511,0.815653
-0.026187,0.655522,0.404344,-0.751738,-0.066840,0.656066
0.050068,-0.144594,0.911578,-0.464028,0.684716,-0.561999
0.198850,0.088671,0.021661,0.916963,-0.112126,-0.382893
-0.084436,-0.056265,0.721289,0.801186,-0.305350,-0.514648
-0.864675,-0.216877,0.633460,0.230170,0.883266,0.408489
0.057332,0.247967,0.558044,0.285400,-0.955773,0.071024
0.240737,-0.311520,0.439479,-0.500979,-0.606807,-0.617094
0.454087,0.245442,0.184408,0.855270,0.094693,-0.509456
0.149509,-0.519480,0.617298,0.639670,0.761603,0.103837
-0.056766,-0.409317,0.732229,0.460346,0.578839,0.673073
0.553401,-0.318780,0.684872,0.205551,0.665950,0.717119
0.589032,0.530052,0.340633,-0.773194,0.294678,0.561548
0.280664,-0.281217,0.754091,-0.736220,-0.631829,-0.242431
0.041793,-0.346293,0.871623,0.836614,-0.128351,-0.532543
-0.095303,-0.448879,0.845075,0.779456,-0.442525,-0.443418
0.414094,0.251703,-0.442348,-0.275847,0.215965,0.936626
0.219320,-0.160956,0.450802,-0.509422,0.523709,0.682802
0.154942,-0.557356,0.823214,-0.655689,0.505252,-0.561064
0.283697,-0.149696,-0.352549,-0.016233,0.327312,0.944777
0.576524,0.680299,0.329176,-0.656731,-0.120600,0.744419
-0.246927,-0.338034,0.898400,-0.629445,-0.194716,0.752253
0.384844,0.289159,0.578280,0.854400,-0.360308,0.374406
0.157847,-0.107241,-0.352989,-0.216071,0.457233,0.862700
0.394004,-0.263487,0.636845,-0.025170,0.519728,0.853961
0.903592,0.328878,0.412205,0.553039,0.631296,-0.543704
0.100547,-0.490754,0.861696,0.975251,-0.075661,0.207753
-0.811099,-0.205409,0.602475,-0.639078,0.407118,-0.652560
0.496414,-0.268064,0.630361,-0.400961,0.563968,0.721921
0.330195,-0.578400,0.531936,0.467870,0.810325,0.352805
-0.560918,-0.119132,0.912477,0.374899,0.059774,0.925137
0.405314,0.186154,0.666243,0.267816,0.875014,0.403267
0.382505,-0.050162,-0.404956,-0.794775,-0.599827,0.092410
0.361342,-0.265645,-0.326575,-0.101388,0.353036,0.930100
-0.320782,-0.117553,0.337688,-0.164138,-0.479236,-0.862201
0.153741,-0.373123,-0.085161,-0.365354,-0.277922,-0.888412
-0.639448,-0.163953,0.921543,0.067039,0.022146,0.997505
-0.360836,-0.068838,0.794926,0.753617,-0.364563,0.546951
-0.095744,-0.072521,0.620148,0.928059,0.261623,-0.265065
0.188300,0.141963,-0.850813,-0.682305,-0.709862,-0.174803
0.142244,0.850804,-0.026940,-0.323837,0.160348,0.932426
0.529898,-0.669360,0.228782,-0.220651,0.303420,0.926957
0.102695,0.569034,0.338204,-0.855557,0.051687,0.515122
0.097767,-0.069943,0.666472,-0.381782,-0.903076,-0.196714
-0.867960,-0.225295,0.615730,-0.128321,-0.704963,0.697539
-0.325268,-0.550623,0.779816,-0.655861,0.721801,0.221020
0.338661,0.063996,0.120640,0.772726,-0.506502,-0.382557
0.458508,0.280427,0.680607,0.413764,0.711383,-0.568097
0.200999,-0.374754,0.346735,0.048423,0.316259,0.947436
0.229175,-0.077781,0.885451,-0.580287,-0.787916,0.206049
0.560160,-0.433728,0.684604,-0.411585,0.349493,0.841696
0.239599,0.448141,0.047960,0.772841,-0.186005,0.606728
-0.157090,-0.592657,0.685331,-0.211350,-0.445913,0.869766
-0.018668,0.043795,0.751623,-0.282244,0.728952,0.623673
0.349781,-0.118658,0.740377,0.839627,0.521554,-0.151687
0.643427,-0.829708,0.255692,-0.490170,-0.069898,0.868820
0.048805,-0.347083,0.865885,0.796747,0.173536,-0.578860
0.155827,0.088618,-0.079805,0.756469,-0.606549,0.244649
0.105791,0.102348,0.587002,0.835272,0.080994,0.543839
-0.091892,0.041322,0.837520,-0.240952,-0.901681,-0.359044
0.194364,-0.442881,0.167825,0.078813,-0.028162,0.996492
0.099537,0.007548,0.492096,-0.425261,0.901666,0.078428
0.298544,0.265170,0.298937,-0.451439,0.869349,0.201088
0.485864,-0.468397,0.500913,0.264723,-0.629308,0.730680
0.150330,-0.175790,0.424675,0.950177,0.147209,-0.274761
0.475567,0.347869,0.222546,-0.596484,-0.205243,0.775940
0.080205,-0.028699,0.066398,-0.217097,-0.573304,-0.790058
-0.376315,-0.037800,0.834345,-0.463100,-0.756333,0.462060
0.620116,-0.169583,0.641703,-0.422181,0.410434,0.808274
-0.644818,-0.088461,0.773332,-0.061664,-0.337186,0.939416
-0.583852,0.034695,0.542839,0.161395,0.720178,0.674756
0.097387,-0.203252,-0.334819,-0.093247,0.524442,0.846325
-0.276052,0.098244,0.631490,-0.540907,-0.283509,0.791860
0.263354,-0.241077,0.872331,0.111962,0.969669,0.217269
-0.028399,-0.477235,0.807702,0.689601,-0.285546,0.665517
0.146224,0.097456,0.257758,-0.680688,0.453113,-0.575632
0.298733,-0.109242,0.479147,0.905173,0.020368,-0.424555
-0.470386,-0.090355,0.740893,-0.196246,-0.737191,-0.646558
0.557064,0.496961,0.233448,0.558430,-0.062242,-0.827214
-0.293111,0.186258,0.641474,-0.467465,-0.046452,0.882790
0.331016,0.511692,-0.427582,0.641203,0.329199,-0.693172
0.802760,0.033589,0.237886,0.090748,-0.232867,0.968265
-0.076665,-0.237710,0.912171,-0.375791,-0.185986,-0.907849
0.268471,-0.166478,0.982308,0.558643,0.824692,0.088323
0.176991,0.372595,0.336196,-0.537912,0.147409,0.830013
0.675080,0.295998,0.279639,0.834427,-0.131172,-0.535280
-0.190132,0.120708,0.381507,-0.480425,0.876873,-0.016923
-0.209842,0.082357,0.332772,0.034433,0.998642,-0.039099
0.197966,-0.063157,0.718515,-0.304134,0.839319,0.450607
0.206304,0.079833,0.418172,0.558756,0.684811,-0.467788
-0.625927,0.005076,0.765605,0.975326,-0.167481,0.143835
-0.802255,-0.251230,0.586026,-0.186668,-0.069545,0.979958
-0.334049,-0.129021,0.345013,0.556185,0.519275,0.648854
0.245223,-0.094512,0.867243,0.764409,0.639701,0.080381
0.325647,0.602494,0.547716,0.721532,0.691632,-0.032198
-0.006412,-0.511113,0.636463,0.026960,0.789770,0.612810
0.151909,-0.026331,0.578280,0.940401,-0.235374,-0.245448
-0.073001,0.264960,0.016420,-0.641695,-0.614998,0.458263
0.111666,0.154903,-0.687913,0.969133,0.127589,-0.210956
0.147677,0.149958,-0.057485,-0.750446,0.609818,0.254857
-0.046404,0.025594,0.198543,0.256558,-0.051614,0.965150
0.700477,0.002236,0.573211,0.425529,0.344422,0.836838
0.573932,-0.824606,0.248998,0.517163,0.155464,-0.841649
0.291594,-0.402163,0.991776,0.856558,0.174103,-0.485795
-0.081340,-0.564458,0.797450,0.133612,0.056570,0.989418
-0.845342,-0.207986,0.610910,-0.712863,0.668115,-0.213187
0.278832,-0.557041,0.893465,-0.775994,0.500170,0.384270
-0.336765,0.021280,0.627913,0.723041,-0.179697,-0.667024
0.837571,0.407317,0.385829,0.959621,-0.002051,-0.281287
0.329501,-0.448299,0.905898,0.985350,-0.168971,-0.023130
0.127396,0.037115,0.787849,0.363539,-0.858826,0.360912
0.077929,0.494699,0.313397,0.232642,-0.334209,-0.913336
0.128407,0.093616,-0.098052,0.960558,0.209572,-0.182781
0.363237,-0.402531,0.949506,0.998732,0.050307,0.002133
-0.382696,-0.036590,0.639867,-0.306450,0.767282,0.563353
0.029536,0.328931,0.013953,0.529795,-0.160634,-0.832775
-0.413778,0.012021,0.904004,-0.055136,0.855387,0.515047
0.239283,-0.028068,0.916264,0.322870,0.543676,0.774707
0.172948,-0.548307,0.791923,0.877266,-0.427564,-0.218157
0.062640,-0.341768,0.343483,-0.010422,0.702836,0.711276
0.127396,0.028066,0.746497,0.975482,-0.173517,-0.135380
0.191395,0.473025,-0.695353,0.464834,0.176216,-0.867685
-0.302965,-0.108768,0.673855,0.379923,0.678807,0.628394
0.716272,0.082463,0.236891,-0.317327,-0.255126,0.913353
0.254320,-0.099561,0.887058,-0.671550,-0.740959,-0.000870
0.384464,-0.481179,0.194105,0.690049,0.199410,-0.695750
0.091260,-0.439725,0.340499,0.109855,0.349589,0.930440
0.410367,-0.208092,0.760823,-0.657639,0.151179,0.738008
0.007802,-0.030908,0.775015,0.993728,-0.084409,-0.073342
0.124364,0.141857,0.281207,-0.507853,0.860890,0.030867
-0.181982,-0.174686,0.711706,0.903546,0.310458,-0.295331
-0.554286,0.030802,0.544369,0.043821,0.053968,0.997581
0.112235,0.256017,-0.067392,-0.239504,0.231304,0.942940
0.236694,-0.292053,0.807205,0.938448,0.160847,0.305685
0.009761,-0.406056,0.799095,0.971484,-0.236706,0.013734
0.467859,-0.757320,0.580996,-0.343202,0.935679,-0.081956
0.554538,-0.170161,0.602150,0.496300,0.832828,-0.245118
0.512588,0.228135,0.669571,0.008582,-0.426246,0.904567
0.153741,0.069889,0.055859,-0.489343,0.798064,-0.351619
0.291910,-0.205409,0.162948,-0.579285,0.558956,0.593293
0.117857,-0.516848,0.824189,-0.212258,0.198382,-0.956865
0.305682,-0.753217,0.574856,0.268647,0.537343,0.799432
0.490476,-0.846385,0.232396,-0.080506,0.101751,-0.991547
0.242884,0.090039,-0.363509,0.526992,0.329172,0.783534
-0.134788,-0.144174,0.732267,0.989392,0.111330,-0.093323
0.228669,-0.125865,0.291956,-0.281328,0.504010,0.816596
0.069336,0.880264,-0.094055,-0.790488,0.438498,0.427607
-0.171052,-0.069786,0.830271,-0.373865,0.496352,0.783492
0.658528,-0.076466,0.546224,-0.454769,0.865008,0.212006
0.077929,-0.669570,0.790106,0.878216,-0.039676,0.476616
0.428309,-0.837178,0.241061,0.350352,-0.088939,0.932386
0.257921,0.079096,0.083669,0.336799,0.940152,-0.051781
0.114003,-0.145488,0.243356,-0.532926,-0.264463,0.803772
0.770351,0.337822,0.429801,0.622460,0.601211,0.501088
0.052532,0.022384,0.448927,0.871744,-0.488360,0.039596
0.478661,0.269431,-0.357216,-0.682766,0.683639,0.257813
0.120132,-0.318096,-0.319097,-0.124206,0.418475,0.899695
-0.367027,-0.081990,0.334934,-0.291048,-0.755296,-0.587213
-0.126511,-0.010916,0.225855,-0.757690,-0.076377,0.648129
0.434944,-0.198254,0.730546,0.446980,0.719970,-0.530898
-0.318759,-0.306626,0.684700,0.272740,-0.727406,0.629677
-0.351360,-0.654840,0.685197,0.793433,0.218187,0.568206
0.231386,-0.094301,-0.095279,-0.201136,0.078254,0.976433
0.174716,-0.182313,0.416833,0.995154,0.074541,-0.064130
-0.423634,0.017703,0.734601,0.145534,0.932624,-0.330199
0.703699,0.038746,0.239837,0.370133,0.010857,0.928915
0.124555,-0.506852,0.791617,0.587104,0.708038,-0.392417
0.176044,-0.643844,0.751872,0.945420,-0.310400,0.099161
0.207253,-0.097825,-0.349106,0.152615,0.546387,0.823510
0.208199,-0.096037,0.735347,-0.151809,0.827580,0.540431
0.080962,-0.329406,0.861429,0.947985,0.314957,0.046121
0.231638,0.100086,-0.920625,-0.643560,0.748030,-0.162117
-0.533311,0.031116,0.551522,-0.058795,-0.038410,0.997531
-0.509619,0.069153,0.738751,0.148263,0.696446,0.702126
0.494583,-0.144121,-0.429610,0.871611,-0.375276,-0.315377
-0.054868,-0.635953,0.905419,0.355566,0.620892,0.698617
0.113120,-0.443514,0.747894,-0.171690,0.172517,0.969928
0.094229,-0.505643,0.635124,0.128778,0.750914,0.647723
0.189816,-0.054213,0.899586,-0.449195,0.866433,-0.217986
0.237640,-0.406267,0.856953,-0.760526,0.377455,0.528325
0.450549,0.450666,0.564719,0.917820,0.396711,-0.015068
0.313074,-0.456927,0.968537,0.914419,0.370293,0.163466
0.628454,-0.089777,0.573422,0.492304,-0.305164,-0.815176
0.348328,-0.272642,-0.328794,-0.101388,0.353036,0.930100
-0.259500,-0.295422,0.762908,0.959499,-0.124735,0.252593
0.049499,0.541152,0.310433,-0.398097,-0.041420,0.916408
-0.315412,-0.361813,0.842685,0.237592,-0.358332,0.902856
0.241999,-0.134229,0.442769,-0.520850,0.362295,0.772954
0.085510,0.063682,0.115801,0.947281,-0.318329,0.036406
-0.181855,-0.390063,0.712663,-0.284997,-0.823729,0.490151
-0.136367,-0.192729,0.756941,-0.114491,0.562124,0.819090
-0.695044,0.173685,0.543623,0.300974,-0.014223,0.953526
0.282812,-0.384802,0.468169,-0.642592,0.362207,0.675190
0.200809,-0.283689,0.804412,0.932762,-0.117746,0.340721
-0.669710,-0.188258,0.595245,0.573838,-0.441380,0.689851
-0.524149,-0.175265,0.773045,-0.040252,-0.840890,0.539707
-0.350475,-0.146856,0.340117,0.433281,0.499688,0.750053
0.335502,0.064629,0.482246,0.772293,0.369017,-0.517098
0.081340,0.162375,-0.990552,-0.714987,0.650625,0.255892
-0.037179,-0.790778,0.673989,-0.574801,0.789331,-0.215779
0.086648,-0.636111,0.806287,0.655821,-0.041148,0.753794
0.224121,0.533051,0.374315,0.706589,0.695835,-0.128630
-0.858168,-0.304891,0.586103,-0.384956,0.322517,-0.864750
0.002052,0.085987,0.054367,0.085898,0.561670,0.822890
0.343905,-0.323041,0.920243,-0.788546,0.346952,0.507760
0.551062,0.207933,0.226773,0.844454,0.314722,-0.433413
0.106485,-0.262436,0.528283,0.116760,0.502235,0.856812
0.162714,0.135334,-0.203133,-0.045142,-0.990332,0.131164
0.321983,-0.195624,0.625446,0.292272,0.511247,0.808210
-0.233028,0.109555,0.645701,0.127492,-0.119481,0.984617
0.091449,-0.507379,0.542169,-0.345480,0.445466,0.825956
-0.046150,-0.625116,0.669934,-0.177337,-0.111758,-0.977784
0.601225,-0.961912,0.222757,-0.189052,-0.538959,0.820843
0.107434,0.048899,0.131963,-0.399586,0.900615,-0.170952
0.318254,-0.478603,0.580059,-0.146289,-0.193931,0.970046
0.713112,0.398427,0.368940,0.966133,0.257993,-0.005148
0.549610,0.687139,0.322291,-0.623844,0.092601,0.776044
0.385602,-0.475604,0.675787,0.569360,-0.117616,-0.813631
-0.060997,-0.812611,0.714881,0.594018,-0.403425,-0.695982
-0.142053,0.416892,-0.707040,-0.176590,0.195128,0.964749
0.236314,-0.300524,0.904272,0.439110,0.894401,-0.085029
0.121017,-0.345398,0.899414,0.626349,-0.467890,-0.623511
0.343147,0.003551,0.755277,0.750956,-0.354803,-0.556937
0.878574,0.258594,0.384949,0.797585,-0.081911,-0.597619
0.901822,0.297156,0.408647,0.855512,0.274917,-0.438770
-0.586063,-0.407688,0.651726,0.033643,0.999420,-0.005261
0.801875,0.660835,0.395106,0.277945,0.933378,0.227051
0.270430,-0.512587,0.508220,0.960369,-0.054819,-0.273288
-0.011592,-0.236763,0.700843,-0.409899,0.689391,0.597262
-0.440060,0.014020,0.344038,-0.760541,0.631622,-0.150432
-0.519348,-0.054161,0.699504,0.368351,-0.732175,0.572920
0.037559,0.206355,-0.749443,0.535823,0.816140,-0.216353
0.319961,-0.409791,0.991852,0.792264,0.360007,-0.492659
0.661181,-0.009918,0.572542,0.522234,-0.548540,-0.652975
-0.489211,0.148380,0.737718,0.215426,0.054645,0.974990
0.524276,0.214246,0.335201,0.318497,0.430046,0.844760
-0.121583,-0.214194,0.861084,-0.127068,0.966664,0.222294
0.306630,-0.314570,0.650846,-0.664563,-0.488025,-0.565851
0.098461,0.139385,0.721977,-0.575951,-0.738298,-0.350993
0.513599,-0.545520,0.496132,0.583095,0.040094,0.811414
0.452444,0.420364,0.610585,-0.168218,0.829749,-0.532183
0.377832,-0.623589,0.534366,0.461232,0.413235,0.785176
0.150519,-0.074573,0.695296,0.648745,0.399259,-0.647860
-0.609943,-0.208617,0.910105,-0.190591,-0.957889,0.214763
0.040150,-0.095984,0.389368,-0.618452,-0.769658,-0.158567
0.300629,-0.643634,0.569310,-0.263665,0.113109,0.957960
0.104463,-0.260490,0.310394,-0.163082,0.639147,0.751596
0.057396,-0.350976,0.873038,0.921402,-0.184101,-0.342236
-0.152225,-0.681248,0.838018,0.021946,0.441156,0.897162
-0.170231,0.117499,0.770960,0.578194,0.390887,0.716169
0.581704,0.787357,0.309763,-0.521076,0.797053,0.305266
-0.521369,-0.074573,0.794065,0.029142,0.000454,0.999575
0.203715,-0.546519,0.790240,0.165498,0.602184,0.781015
-0.589601,-0.163585,0.567340,0.569878,-0.383373,0.726818
-0.325710,-0.220665,0.590043,0.236347,0.867299,0.438102
-0.353065,-0.329247,0.850316,-0.742747,-0.468756,-0.478117
0.154121,0.095931,-0.210611,0.026242,-0.991641,0.126328
-0.202198,-0.050425,0.917871,0.037831,-0.947889,0.316346
0.334745,0.710866,0.569769,0.602462,0.214678,-0.768734
0.360584,-0.624379,0.578089,-0.339437,-0.675411,-0.654678
0.157026,-0.250125,-0.324605,-0.012671,0.347743,0.937504
-0.680324,0.063471,0.610891,0.944151,-0.324760,0.055770
0.237640,0.217823,-0.440455,0.699641,-0.379869,-0.605147
-0.087026,-0.641372,0.824075,-0.001205,0.333270,0.942831
-0.011845,-0.223821,0.519026,-0.636871,-0.419787,-0.646663
0.068958,0.096246,0.221360,0.532468,0.844147,0.062397
0.040275,-0.658837,0.721174,-0.657779,0.240102,0.713917
-0.104715,-0.182893,0.636692,-0.582195,-0.797541,-0.158040
-0.053669,0.180839,0.032716,0.546411,0.507753,0.666049
0.533500,-0.093617,0.206097,-0.280908,-0.656820,0.699770
0.299555,-0.186049,0.476929,0.892765,0.390770,-0.224209
0.078814,-0.256333,0.323075,-0.212855,0.614860,0.759369
0.468996,-0.484915,0.216368,0.423375,-0.297853,-0.855592
0.155131,0.110818,-0.799287,0.997245,0.044973,0.058998
-0.009950,0.027276,0.610374,-0.230191,-0.549458,0.803186
0.157217,0.592498,0.371580,-0.631791,-0.226427,0.741331
-0.639826,0.179208,0.544847,0.795349,0.590276,-0.137819
-0.345927,0.103663,0.332964,0.133564,0.939518,0.315382
-0.158416,0.086513,0.778152,-0.181638,0.227684,0.956644
0.006919,0.048478,0.387149,-0.741790,0.035615,-0.669686
0.411630,-0.460400,0.584458,-0.707965,0.607193,0.360698
0.367407,-0.370598,0.514608,0.907722,0.099089,-0.407704
-0.230439,-0.069627,0.932369,0.264135,-0.840584,0.472918
0.574059,-0.232291,0.555711,0.300669,0.346811,-0.888437
0.472598,0.394218,0.320340,-0.264004,0.140527,0.954229
-0.170356,-0.144068,0.108285,0.317555,0.488429,0.812770
-0.478661,0.062945,0.732573,-0.194246,-0.736504,0.647944
0.094609,-0.040272,0.300602,0.996130,0.008720,0.087455
-0.295448,-0.195045,0.344803,0.574169,0.286037,0.767146
0.009444,-0.420680,0.177905,0.228770,0.268801,0.935634
0.681587,-0.414894,0.585491,-0.289954,0.350307,0.890624
0.376756,-0.518532,0.189419,0.381577,0.338399,-0.860166
0.261079,-0.035011,0.851808,-0.550845,0.698608,0.456636
0.150394,0.091511,-0.348972,0.449532,-0.833638,0.320889
0.284645,-0.537313,0.829506,0.853571,0.514047,0.084686
0.092650,0.129073,0.622787,0.830782,-0.491764,0.260711
0.872445,0.175421,0.386001,-0.445881,-0.070709,0.892295
0.075591,-0.216667,0.515182,0.099947,0.487117,0.867599
-0.619103,-0.181419,0.377260,-0.132113,0.364009,-0.921978
-0.472090,0.139121,0.751145,-0.208105,0.459359,0.863528
-0.449348,-0.477972,0.740262,-0.000020,0.671596,0.740918
-0.413336,0.071520,0.776526,-0.002945,-0.999646,-0.026425
0.545756,0.213035,0.673893,-0.368114,0.598151,-0.711834
-0.173833,-0.062262,0.467633,-0.027893,0.970487,0.239537
-0.437091,-0.184524,0.869156,0.690787,0.218619,0.689216
-0.419591,-0.252546,0.876845,-0.663008,0.329517,-0.672189
-0.577597,-0.211933,0.771381,0.204157,-0.873918,0.441121
0.449159,-0.862641,0.230216,-0.053831,0.255287,-0.965366
0.520295,-0.513271,0.222432,-0.813975,-0.028653,0.580192
0.115709,0.185470,0.626555,0.993968,0.037763,-0.102966
0.286857,-0.778363,0.586351,0.226321,0.218150,0.949310
-0.177748,-0.430202,0.755468,-0.560396,0.820490,0.112929
-0.405061,-0.044639,0.689749,-0.233206,0.729429,-0.643077
0.049626,-0.422628,0.759963,0.032841,0.849776,0.526120
0.315790,0.332455,0.402010,0.970409,0.114403,-0.212647
0.255330,0.466660,0.377222,0.910772,0.389188,0.137941
0.028462,0.114448,0.290885,0.862766,0.505336,-0.016467
0.130746,-0.311150,-0.318313,-0.054523,0.337356,0.939797
0.101432,-0.150539,0.901575,0.459832,-0.571824,0.679390
-0.655747,-0.191204,0.570706,-0.596181,0.223710,-0.771052
-0.453771,0.009232,0.790106,0.177096,-0.634612,-0.752266
0.053037,-0.251756,0.981275,0.838600,0.269854,-0.473211
-0.566794,-0.178052,0.577840,-0.621291,0.432018,-0.653727
0.081783,0.183943,0.452447,0.973978,-0.195495,-0.114666
0.089870,0.033537,-0.370069,0.348790,-0.871849,-0.343839
0.027009,-0.110240,0.921639,0.229247,0.726855,0.647401
0.329880,-0.527738,0.665305,-0.209323,-0.033252,-0.977281
0.604005,0.386694,0.637381,0.793788,0.570511,0.210756
0.218877,-0.024648,0.912267,0.425436,0.124395,0.896399
0.022586,0.026856,0.682577,0.470543,0.871166,0.140214
0.227154,-0.695926,0.818241,0.458312,-0.525563,-0.716752
0.218308,-0.111819,0.959624,0.206394,0.917095,0.341083
-0.441007,-0.008287,0.744776,-0.357096,0.927810,-0.107940
0.136620,0.662098,0.514053,0.329242,0.809734,-0.485727
0.442272,0.438355,0.618981,-0.121577,0.930952,-0.344307
0.140096,0.060315,0.098874,0.825316,-0.564537,0.012271
0.151215,0.418944,0.471420,0.789197,-0.332808,-0.516146
-0.052090,0.017229,0.061444,0.165807,0.478375,0.862360
0.486811,0.359286,0.578854,0.834755,0.288660,-0.468891
0.570333,0.309309,-0.420085,0.827320,-0.457758,-0.325576
0.638816,0.749849,0.367162,0.818972,0.485886,-0.305287
-0.339862,-0.157536,0.913988,-0.394886,0.878692,0.268264
0.187732,-0.352133,0.555864,-0.710719,-0.150142,0.687267
-0.091638,-0.681038,0.705165,0.733420,-0.351136,-0.582064
-0.049690,0.169529,0.177465,0.263842,0.033347,0.963989
-0.009128,0.400163,0.006245,0.012245,0.814058,0.580654
-0.658084,-0.074835,0.584420,0.799175,0.462866,0.383503
-0.404554,-0.057475,0.761244,0.973963,-0.226606,0.006764
0.157406,-0.389852,0.766179,-0.180787,0.123768,0.975704
0.279717,-0.507116,0.500875,0.996779,-0.075120,-0.028078
-0.037433,-0.648264,0.821110,-0.262261,0.536714,0.801971
0.349843,-0.660152,0.565943,-0.334125,0.577176,-0.745137
-0.218055,-0.523530,0.696214,-0.527615,0.359998,-0.769431
0.506903,-0.555357,0.238287,0.439632,0.134310,-0.888079
0.255394,0.392586,-0.004696,0.007878,-0.315485,0.948898
-0.004960,-0.406687,0.360104,-0.499983,-0.256735,-0.827106
0.702941,0.013336,0.238708,-0.390590,0.024059,-0.920250
0.550493,0.612436,0.325504,0.567145,-0.033269,-0.822946
0.017847,0.510744,-0.721767,-0.376674,0.033418,0.925743
0.051016,-0.579820,0.835455,0.359634,-0.637010,0.681822
0.263291,0.345292,-0.437299,0.832645,-0.076863,-0.548447
0.394889,-0.668938,0.546626,0.629006,0.584915,0.512080
0.314528,-0.280743,0.914179,-0.207101,0.711564,0.671405
-0.307704,-0.408949,0.851100,0.226353,0.259471,0.938850
0.524402,-0.301208,0.654193,0.463872,-0.410000,-0.785317
0.255141,-0.021543,0.742251,0.167724,0.724451,-0.668611
-0.255393,0.267538,0.369725,-0.169563,0.223108,0.959933
0.171999,0.288265,0.514015,0.288142,0.459476,-0.840152
-0.053794,-0.095616,0.641302,0.389561,0.770187,0.505028
-0.182865,-0.236922,0.858043,-0.728648,0.510689,-0.456366
-0.079067,-0.106980,0.625580,-0.656455,-0.352435,0.666976
-0.080457,0.265697,0.017013,0.813535,0.570364,0.113341
0.394068,-0.648054,0.563017,0.919487,0.050248,-0.389895
0.204409,-0.219033,0.144089,-0.223702,0.637902,0.736912
-0.614619,-0.124497,0.914179,0.306308,0.103288,0.946312
-0.462046,-0.165901,0.354557,-0.562098,-0.051874,-0.825442
-0.331648,-0.402110,0.378618,-0.272198,-0.388975,-0.880117
0.114762,0.504537,0.644285,0.096221,0.986183,-0.134849
0.030167,-0.024858,0.598611,-0.510405,0.537367,-0.671359
0.151024,0.072941,-0.172033,0.946128,-0.311892,-0.086978
0.317119,0.192203,0.521838,-0.402829,-0.716265,-0.569819
0.027894,0.149958,0.713791,-0.279970,0.904643,0.321307
-0.110908,-0.341716,0.817591,-0.209441,0.319690,0.924085
0.161893,-0.339349,0.338816,0.099132,0.662450,0.742518
0.677669,-0.710656,0.260436,0.424955,0.431737,-0.795623
0.193859,-0.175212,0.463196,-0.774321,0.608226,0.174609
0.050825,0.064470,0.240047,0.669210,0.695257,0.262253
0.097387,0.040008,0.167194,-0.531119,0.840824,0.104534
0.176106,-0.551043,0.820230,0.995817,0.076431,-0.050073
-0.373409,-0.032118,0.858349,0.679084,0.733407,0.030969
-0.428562,0.098455,0.742672,-0.724054,0.011062,0.689655
0.392362,-0.390063,0.202291,-0.237305,-0.185354,0.953588
-0.097009,0.707183,-0.110236,0.832191,-0.146378,-0.534818
0.661938,-0.554832,0.261813,-0.523496,-0.012981,0.851930
0.038885,0.300102,0.299148,0.786525,0.156683,-0.597351
0.160817,-0.032855,-0.102853,-0.190503,0.047308,0.980546
-0.034969,-0.758004,0.816252,-0.564848,-0.538922,-0.624908
0.919386,0.305783,0.419970,0.672225,0.334508,-0.660468
0.209212,0.191572,-0.266767,0.972319,0.231264,0.033348
0.199167,0.106558,-0.472090,0.873972,0.301038,-0.381509
0.067252,-0.233343,0.959050,0.953668,0.123011,-0.274566
0.178254,0.539574,0.364714,0.741073,0.511222,-0.435274
0.165808,0.208301,0.009133,-0.351067,-0.901747,-0.252201
0.248698,0.174000,0.561774,0.845053,-0.498122,-0.194319
0.443978,0.433357,0.517706,0.955182,0.215698,-0.202735
-0.085952,0.123654,0.269980,-0.125044,-0.972776,0.195119
0.244780,-0.147961,0.916073,-0.412787,0.892431,-0.182140
0.143823,-0.130758,0.383113,0.563445,-0.473002,-0.677347
-0.409862,-0.473448,0.730756,0.436204,0.640733,0.631812
0.331901,-0.361970,0.884361,-0.074229,0.329732,0.941152
-0.126575,0.230134,0.369667,-0.467473,-0.041158,-0.883049
0.034906,0.316990,0.443170,0.997453,-0.048362,-0.052435
0.092523,0.160060,-0.763597,-0.388972,-0.901575,0.189375
0.258490,-0.120763,0.878681,0.805327,0.459015,-0.375170
0.173200,0.432832,0.426607,-0.448501,-0.605990,-0.656980
0.317371,-0.253020,0.880785,-0.598164,-0.800620,-0.034749
-0.230628,-0.116028,0.864699,0.285768,-0.935462,0.207962
-0.018920,-0.360602,0.580939,0.958159,0.284157,0.034454
-0.455097,-0.046479,0.348513,0.184561,0.488060,0.853074
0.111855,0.423835,-0.459179,-0.420962,-0.046502,0.905886
-0.028019,-0.128970,0.480792,0.916938,0.349816,0.191975
0.142749,0.090143,-0.276846,-0.607604,-0.780890,0.145010
0.042359,-0.714655,0.814492,0.102523,0.181619,0.978010
0.127713,-0.225821,0.845821,0.886170,0.444206,-0.131850
0.493193,-0.232975,0.660562,-0.394544,0.344430,0.851882
0.308021,-0.432201,0.893274,0.951020,0.238369,0.196830
-0.321792,0.368071,0.361252,-0.119189,0.058499,0.991147
0.282181,0.183785,-0.415896,-0.258963,0.838656,0.479159
-0.368038,-0.259069,0.800778,-0.453234,0.532341,0.714977
0.046973,0.259014,0.310165,0.802394,-0.384525,-0.456404
0.442904,-0.078518,0.669838,-0.168756,-0.981726,-0.087947
0.409673,-0.259753,0.627359,-0.000482,0.602146,0.798386
-0.010771,-0.098089,0.227098,-0.255466,0.012217,0.966741
-0.443726,-0.003499,0.728117,-0.674303,0.698626,-0.239243
0.527623,0.758370,0.339180,0.586090,-0.617845,-0.524182
-0.716524,-0.044691,0.618752,0.776825,-0.626837,-0.060152
-0.138074,-0.229239,0.325370,0.292232,-0.044137,0.955328
0.378715,-0.347556,0.887441,0.036238,0.299807,0.953311
-0.509681,-0.244496,0.902990,0.772917,0.259307,0.579103
0.340683,0.036641,-0.989021,0.164601,-0.196848,0.966518
0.158732,0.639634,0.376209,-0.058962,-0.994723,0.083967
-0.099030,-0.516322,0.853568,0.921789,-0.133237,-0.364078
0.350664,0.057106,0.611292,-0.470780,0.847113,0.246509
0.256215,0.080043,0.199231,0.007930,-0.444439,0.895774
0.134409,-0.434149,0.829105,0.921314,0.286251,0.263136
0.375873,0.703237,-0.669035,-0.254987,0.030201,0.966473
0.138137,-0.319515,0.528934,-0.470341,0.441999,0.763817
0.098083,-0.203147,0.164344,0.027898,-0.467590,-0.883505
0.687905,-0.112082,0.579887,-0.154385,0.433796,0.887686
0.363426,0.256542,0.559306,0.993336,-0.114109,0.016205
0.270746,0.625429,0.528589,-0.471330,-0.838971,0.271984
0.187225,-0.751796,0.594404,-0.307505,-0.306510,-0.900829
0.230376,-0.232922,0.832261,0.691612,0.690677,-0.211277
-0.175032,0.000815,0.075961,0.126506,0.639596,0.758230
-0.066872,0.100455,0.243490,-0.357360,-0.933738,0.020688
-0.032694,0.278849,-0.007412,0.234991,0.921558,-0.309048
0.007108,-0.645422,0.689003,0.954885,0.228656,-0.189504
0.188995,0.762106,0.519504,0.953433,-0.164482,-0.252808
0.008561,-0.054108,0.596259,-0.616043,0.781839,-0.096013
0.409293,-0.528579,0.556552,0.864502,-0.430429,-0.259551
0.039390,0.332824,0.615634,0.902243,0.375810,0.211482
0.047856,-0.339033,0.880459,-0.078906,0.320646,0.943907
0.405187,-0.795145,0.248482,0.064181,-0.145743,0.987239
0.208959,0.101296,-0.430968,0.859092,-0.156837,0.487198
0.084878,-0.478656,0.847715,0.371652,0.928000,0.026289
0.096504,0.083620,0.131963,-0.738791,0.673869,-0.009352
-0.024292,0.321618,0.680435,-0.728008,0.601872,-0.328261
-0.163219,-0.209934,0.323993,0.058041,0.201156,0.977838
0.057271,0.185680,0.193837,-0.568405,-0.027548,0.822288
0.069969,0.551464,0.306454,-0.581443,-0.365691,0.726769
0.405755,0.059105,0.670795,0.594318,-0.798086,0.099222
0.039138,0.216035,0.556648,-0.303907,0.952604,-0.013612
0.185836,0.109818,-0.847160,0.652921,-0.748782,0.114105
0.547715,-0.715602,0.575143,0.530555,-0.664373,0.526422
0.151973,-0.067207,-0.101151,-0.138541,0.072879,0.987671
-0.373029,0.082410,0.778649,-0.254257,0.944447,-0.208264
-0.667687,0.076360,0.381774,0.130699,0.588102,0.798156
0.047287,0.684141,-0.069611,0.853828,0.485763,0.187114
0.490602,-0.361813,0.679057,0.415465,-0.406334,-0.813806
0.007108,0.026592,0.381793,0.981975,-0.013423,0.188531
-0.158543,0.055158,0.761703,-0.028902,0.625894,0.779373
-0.022144,-0.324882,0.868716,-0.073823,0.458939,0.885395
0.263543,-0.410211,0.899490,0.856512,0.508470,0.088572
0.634456,0.705395,0.344038,0.933054,-0.359548,-0.011612
0.039265,0.248547,0.599778,-0.632312,0.770091,-0.084510
0.182108,0.076203,0.526352,0.861872,-0.487575,-0.139452
-0.160186,-0.113450,0.706274,0.997670,0.066811,-0.013803
0.460719,-0.277166,0.190911,0.188521,0.052600,0.980660
0.174085,-0.567510,0.802519,-0.499518,0.660147,0.560970
0.372651,-0.076309,0.779950,0.880545,0.294704,-0.371202
0.159238,0.159113,-0.663259,0.301592,0.906183,0.296436
0.311431,0.108083,-0.067354,-0.492441,-0.819654,0.292694
0.116972,0.122445,-0.179167,0.852119,-0.520422,-0.055262
0.488581,-0.064998,0.634818,0.123606,-0.972276,0.198498
-0.075718,-0.035275,0.688181,-0.553083,0.628778,-0.546569
-0.351169,-0.015651,0.870514,-0.720333,-0.684919,-0.109576
0.308653,0.504432,-0.429572,0.627029,0.397479,-0.669960
0.356541,-0.740853,0.596125,0.169470,0.183531,0.968295
-0.461035,-0.078307,0.810762,-0.132296,-0.812468,0.567797
-0.502544,-0.290003,0.917201,0.933724,-0.357731,0.013688
-0.177496,-0.426993,0.689960,-0.736589,-0.033223,0.675524
0.030230,0.219034,0.501831,-0.525696,0.693147,-0.493143
-0.034401,-0.652366,0.914275,0.546806,0.407613,0.731338
-0.081151,-0.802299,0.709067,-0.653960,0.375099,0.656991
-0.456676,-0.266592,0.884036,-0.656984,0.592000,0.466806
0.116783,0.030486,0.138734,-0.374839,0.918926,-0.122764
0.107307,0.341189,0.322903,0.694860,0.124216,-0.708336
0.390214,-0.141911,0.760230,0.971724,0.111661,-0.208051
-0.240168,0.071152,0.794543,-0.603981,-0.188963,-0.774274
0.601225,0.006286,0.551312,0.846792,-0.198014,-0.493694
-0.656505,0.071730,0.534882,-0.190402,-0.200746,0.960962
-0.449095,-0.103664,0.765681,0.817113,-0.509657,0.269400
-0.630097,-0.423049,0.645796,-0.326034,0.778469,0.536365
0.302965,-0.027384,0.742424,0.222367,-0.965363,-0.136482
0.464132,-0.090512,-0.342871,0.190604,-0.337155,-0.921953
0.544555,0.036063,0.676016,0.066103,0.995225,-0.071812
-0.097134,0.233921,0.537502,-0.087390,0.377899,0.921713
0.296397,-0.305732,0.725477,0.326757,0.474695,-0.817248
0.606089,0.072941,0.691719,-0.593133,0.803709,0.047391
-0.014372,0.188205,-0.784827,-0.507922,-0.855159,0.103533
-0.066999,-0.068733,0.650215,0.851368,0.519427,0.073270
0.543481,-0.259857,0.550508,0.476933,0.172011,-0.861944
0.052784,-0.584397,0.869423,-0.272919,0.469391,0.839754
0.543986,-0.638583,0.558331,0.851450,0.463966,0.244477
0.163849,-0.048269,-0.097574,-0.206816,0.067951,0.976017
0.458066,0.078833,0.646351,-0.344728,0.657667,0.669804
0.094165,-0.680511,0.732382,-0.595393,0.098118,0.797421
0.158227,0.110818,-0.658516,0.651596,0.757044,-0.048030
0.356730,0.187258,0.169432,-0.570690,0.524795,0.631588
0.254383,0.028119,0.136974,0.029582,-0.886427,-0.461923
0.265755,0.029644,0.759083,0.026029,-0.739220,0.672961
-0.281107,-0.657996,0.730355,0.716641,-0.675594,-0.173203
0.277190,0.334192,-0.446938,0.884949,0.001659,-0.465686
0.122785,0.559986,0.019844,0.828385,0.546876,0.121264
0.379095,0.066785,0.612402,-0.686667,0.534462,0.492786
-0.286477,0.199357,0.017663,-0.215796,-0.253072,-0.943073
0.019933,-0.470185,0.608538,-0.094845,0.770485,0.630363
-0.155006,0.243864,0.541155,0.010224,0.365685,0.930683
0.203588,0.538312,-0.686746,-0.433078,-0.196179,0.879748
-0.086015,0.004655,0.075884,0.224652,0.622910,0.749343
0.175853,-0.452509,0.764629,-0.095309,0.228381,0.968895
0.347948,-0.643003,0.536967,0.511338,0.479437,0.713213
0.494330,-0.643528,0.239741,-0.177377,0.056655,0.982511
0.079888,-0.056528,0.664234,0.602222,0.639505,-0.477874
0.276748,-0.376543,-0.317701,0.025545,0.378090,0.925417
0.359510,-0.479654,0.673166,-0.358719,0.181066,0.915716
-0.378651,-0.331932,0.716526,-0.307713,0.825607,0.472954
0.441262,0.132388,0.176165,-0.474561,0.562402,0.677123
0.024861,0.193781,-0.749443,0.535823,0.816140,-0.216353
-0.565152,-0.282321,0.763080,0.364862,-0.226025,0.903210
0.048805,0.368545,-0.060220,0.021905,-0.353056,0.935346
0.121838,0.598547,0.054157,0.222788,0.909363,0.351319
0.309474,-0.384223,0.717597,-0.004383,-0.658497,0.752570
-0.019996,-0.725386,0.919458,-0.612484,-0.381487,-0.692337
0.117540,-0.103981,0.676973,-0.057093,0.876625,0.477776
