0.188714,-0.360437,0.048952,-0.391700,0.888132,0.240401
-0.801547,-0.046354,-0.281589,-0.605750,0.786120,-0.122809
-0.524959,0.086080,0.264952,-0.371129,0.927501,0.044789
0.701250,-0.891894,-0.913279,-0.019297,0.165347,0.986047
0.059088,0.097291,-0.961421,0.080992,0.093173,0.992350
0.060093,0.434772,0.535365,0.750426,-0.577792,0.320963
-0.336747,0.330852,-0.968626,-0.222870,-0.032563,0.974304
-0.693146,0.545715,0.658504,0.327810,0.773765,-0.542059
-0.478020,-0.420630,-0.558372,-0.369429,0.913238,0.171809
0.350744,0.618700,-0.025487,0.768322,0.459887,-0.445180
-0.392921,0.387789,0.805730,-0.051793,-0.298200,0.953097
-0.327442,0.599302,0.880726,0.852064,-0.415636,0.318171
0.604300,0.078963,-0.164477,-0.717661,-0.480415,-0.504147
-0.587091,-0.434725,0.335216,-0.038662,0.610401,0.791149
-0.030163,0.062589,0.597442,0.950332,0.161115,0.266293
0.079508,0.195023,-0.964303,0.043276,0.103839,0.993652
0.150215,-0.284708,0.691041,0.988496,-0.122760,0.088354
-0.018647,0.446726,0.081456,0.825064,-0.557973,-0.089082
0.025345,-0.442121,0.561565,-0.570356,0.820448,0.039479
-0.796055,-0.531387,0.470914,0.905767,-0.016751,-0.423444
0.303605,0.168508,0.273500,0.032199,0.422695,0.905700
-0.069063,0.155763,0.153604,0.982196,-0.140288,-0.124940
0.182352,0.582417,-0.096931,0.760387,0.440652,-0.477113
0.506009,-0.377649,0.426653,0.974223,0.018419,0.224833
-0.776439,0.898407,-0.997003,-0.005750,0.104737,0.994483
-0.105287,-0.238934,0.166261,-0.427227,-0.153588,-0.891004
0.269862,0.455240,-0.344878,-0.604341,0.536415,-0.589093
-0.921730,-0.301174,0.632632,0.476765,0.847297,0.234057
0.401965,-0.256797,0.448628,-0.622809,0.013704,0.782254
-0.421245,0.206978,-0.961306,0.005716,0.161215,0.986903
0.450640,-0.221630,0.399880,0.869936,-0.154211,-0.468433
-0.934586,0.338621,0.807105,-0.733383,0.103123,-0.671948
-0.138359,0.227864,0.699506,-0.041896,0.502760,0.863410
-0.506945,-0.502128,-0.554016,-0.338594,0.915332,0.217993
0.310303,0.098267,0.323836,0.432318,-0.451031,-0.780815
-0.590639,0.378207,0.866775,-0.165195,-0.783130,0.599514
-0.263364,-0.017978,-0.260105,-0.187199,-0.755099,0.628317
0.198555,0.627538,0.256339,0.110462,0.181533,0.977161
-0.696293,0.752065,-0.989602,-0.013069,0.172612,0.984903
-0.493958,0.916177,0.679005,0.698623,0.521016,0.490376
0.595395,0.540086,0.489041,0.844035,0.219493,0.489314
-0.352681,0.077661,0.778040,0.970920,-0.020507,0.238524
0.277426,0.439330,-0.354866,-0.604341,0.536415,-0.589093
0.786484,-0.623445,-0.923415,0.076593,0.092899,0.992725
0.366677,0.400861,-0.449512,-0.806277,0.460412,0.371400
0.472532,0.558693,-0.008245,0.774644,0.279094,-0.567479
-0.105217,-0.175578,0.721056,0.948657,-0.297603,-0.107155
0.087678,0.589766,0.681199,-0.642790,0.685587,0.341747
-0.543504,0.006211,0.625672,0.210167,0.967397,-0.141329
-0.419169,0.468077,0.535889,-0.570583,-0.820251,0.040290
-0.171101,0.005652,0.868805,0.282784,0.914504,-0.289337
-0.093232,-0.168601,-0.947421,-0.026316,0.168425,0.985363
-0.045296,-0.120735,0.719762,-0.287234,0.794374,0.535226
0.099463,0.059705,-0.959341,0.105844,0.138783,0.984650
0.664356,-0.172834,0.123179,0.291047,-0.137006,-0.946848
-0.853169,-0.833283,-0.898427,-0.026352,0.125505,0.991743
0.387233,-0.117199,0.759029,-0.478115,-0.813099,0.332079
-0.292089,0.348855,0.892188,0.439446,0.394122,0.807190
0.620904,-0.067566,0.501093,0.948660,-0.277144,0.152430
-0.511968,-0.098918,-0.659552,0.966689,-0.255917,0.004389
-0.792173,-0.292383,0.063510,-0.139052,0.639111,0.756440
-0.105622,0.055890,0.209851,-0.321505,0.395219,0.860486
0.212952,-0.228143,-0.941215,-0.013518,0.184497,0.982740
0.856185,-0.713083,-0.920206,0.047115,0.155884,0.986651
-0.308828,0.499105,0.834451,-0.303790,-0.378826,-0.874187
-0.050784,0.274892,-0.972441,-0.013376,0.163712,0.986418
0.259952,0.038400,0.757522,0.021581,0.231479,0.972601
0.088013,-0.303547,-0.937399,0.009641,0.113775,0.993460
-0.623916,0.396209,0.766970,0.402186,0.794490,0.455008
0.059893,-0.265775,-0.942983,0.009779,0.117174,0.993063
0.104482,-0.676055,-0.006149,0.444060,-0.619352,0.647467
-0.896687,0.462543,0.847911,-0.726882,0.653489,-0.211175
0.338623,0.026166,0.376596,-0.207779,0.479207,-0.852753
-0.465168,0.378021,0.801832,-0.648643,0.674146,-0.353256
0.125307,-0.513664,-0.434726,-0.147784,0.392367,0.907859
0.177530,0.402489,-0.087974,0.786236,-0.420186,-0.453075
-0.358909,0.867334,0.646386,-0.467654,-0.830073,0.303773
-0.398614,-0.104081,0.351657,0.841135,-0.005078,0.540801
0.530447,-0.351181,-0.938382,0.040059,0.147816,0.988203
0.113121,0.440261,0.665676,0.874891,-0.448979,-0.181614
0.229286,-0.414955,-0.932814,0.029333,0.226500,0.973569
0.271803,0.445238,0.702454,-0.204873,0.519400,0.829609
-0.246695,0.642517,0.612704,0.488406,-0.872515,-0.013297
-0.475544,0.980882,0.661075,0.692231,0.721675,-0.001160
-0.362591,0.905105,0.028451,0.471098,0.881953,-0.015013
-0.856786,-0.029980,0.473321,0.945509,-0.211086,0.247901
-0.778715,-0.487335,0.164264,-0.610740,0.227220,0.758530
-0.249306,0.378114,0.214240,0.859116,0.486337,0.159365
0.468850,0.255821,0.462383,0.746302,0.661481,0.073993
-0.238926,0.788813,0.634580,0.796261,0.041058,0.603558
0.158850,0.530550,0.619139,0.873000,-0.270189,-0.406040
-0.023600,0.648983,0.517419,0.874718,0.361278,-0.323027
-0.621974,0.332713,0.915359,-0.364272,0.319929,0.874615
-0.140101,0.340900,-0.021361,0.151631,-0.985724,-0.073184
0.167889,0.506734,-0.168275,0.666010,0.635773,-0.390158
0.237655,-0.307594,0.578660,0.816780,0.576038,0.032408
-0.473002,-0.032445,0.831356,0.552548,-0.555946,0.620979
-0.314451,0.640005,0.630257,-0.488873,0.639704,-0.593112
0.268321,0.454123,0.631158,0.016385,-0.994928,0.099244
-0.898898,-0.588324,0.650644,0.402904,-0.914761,-0.029674
-0.313315,0.298245,0.916374,0.688492,0.705653,0.167433
-0.864885,-0.553715,0.666544,-0.484630,0.872202,-0.066307
-0.433832,0.621770,-0.983691,-0.030241,0.205616,0.978165
-0.140035,0.874590,0.595232,0.785746,0.593585,-0.173952
-0.836696,-0.246935,0.621906,-0.088111,0.721670,0.686607
0.674266,0.134225,0.313372,0.772742,0.255379,-0.581078
-0.746244,0.540133,-0.979810,0.001448,0.179137,0.983823
0.098123,-0.425607,0.568934,0.271744,0.875791,0.398930
-0.822704,-0.401279,0.537167,0.839483,-0.448144,0.307304
-0.001373,0.133946,0.552068,-0.464177,0.466740,0.752790
0.473807,0.348994,0.032561,0.863760,-0.411018,-0.291519
-0.457465,0.282289,0.814064,-0.322792,0.928544,0.183337
0.254259,0.453750,0.835810,0.109936,0.986138,0.124280
0.665431,0.587161,0.133004,0.902887,0.427992,0.040218
0.300593,0.210048,-0.101401,0.681286,0.514615,0.520597
0.048508,0.114084,-0.956918,0.051051,0.082490,0.995283
-0.332060,0.145901,0.268866,-0.755907,0.629426,-0.180077
0.385962,0.610187,0.529405,-0.690350,-0.723256,-0.017814
-0.216230,0.126224,0.826067,0.476580,0.032272,0.878539
-0.554484,0.399465,0.885557,0.377158,0.834892,0.400883
0.335545,0.614002,0.793105,-0.024280,-0.644686,0.764062
-0.618223,-0.199953,0.449136,0.995309,0.086931,-0.042469
0.473402,-0.432399,0.182096,0.582003,0.093389,-0.807806
0.496034,0.196092,0.770786,0.487690,-0.869316,-0.080299
-0.718990,-0.367089,0.200599,0.997092,-0.055385,0.052343
-0.541763,-0.083475,0.775682,0.588258,0.808526,0.015421
0.064511,-0.160925,0.605269,0.960847,0.266193,-0.076906
-0.067322,0.201163,0.465854,0.498610,-0.859260,0.114280
0.719260,0.171020,0.344108,0.650962,0.496140,-0.574538
-0.043016,0.372299,0.630978,0.984211,0.087697,0.153748
0.869507,-0.638562,-0.925495,-0.018238,0.061799,0.997922
0.854644,-0.067938,0.011634,0.969574,0.173510,0.172688
-0.012955,0.459240,0.857245,-0.661554,0.612278,-0.432968
0.165813,0.415653,0.248708,0.942559,-0.215499,-0.255232
-0.071139,0.030864,0.791352,-0.402299,0.354224,0.844204
-0.502258,0.493011,0.623511,0.977890,-0.197914,0.067537
-0.593250,0.399604,-0.972638,-0.020805,0.219041,0.975494
-0.322620,0.256937,0.914736,0.749100,0.455158,-0.481332
-0.611799,-0.478451,0.182767,0.259401,0.951700,-0.164247
-0.617757,-0.281916,0.414945,0.893922,-0.273786,0.354888
-0.429880,0.301128,0.736530,0.020465,-0.912134,0.409381
-0.403702,0.488731,0.545616,0.998615,0.040641,0.033412
0.714037,-0.151715,0.106575,0.432118,-0.579609,-0.690889
0.541697,0.639865,0.618517,0.905548,-0.219063,-0.363309
0.557500,0.097291,-0.031693,0.796027,0.092028,-0.598224
0.247565,0.428957,0.858702,-0.137209,0.989024,0.054814
0.691810,0.043145,0.510869,0.978937,0.069645,0.191919
-0.228081,0.865147,0.426047,0.414912,0.548701,0.725792
-0.200762,-0.110641,0.607365,0.354085,0.644030,0.678122
-0.139430,0.347459,0.065344,0.956398,-0.069170,0.283759
0.722275,0.339924,0.172893,0.878360,-0.413273,-0.240187
0.670519,-0.085382,0.633041,-0.098791,0.775725,0.623291
0.677548,0.365321,0.147676,0.980504,0.195574,-0.019040
-0.287402,0.226701,0.251247,-0.872979,0.427137,-0.235503
-0.404172,0.320712,0.750088,0.180785,0.920869,-0.345424
-0.391450,-0.011513,0.022376,0.961657,0.254495,-0.102216
0.254128,-0.086684,-0.254816,-0.570226,0.083097,0.817274
0.331659,-0.107803,-0.950008,0.026037,0.225940,0.973793
0.752806,-0.028072,0.099452,0.906480,-0.389308,-0.163506
0.140370,0.248192,0.910381,0.852181,-0.462729,-0.244274
-0.454453,0.473288,0.810642,-0.602113,-0.572009,-0.557015
0.334005,0.374393,-0.464806,0.847939,-0.487725,-0.207661
0.009342,0.466264,0.862223,-0.255214,0.861421,0.439113
-0.308693,-0.095057,0.662237,-0.499217,-0.714098,0.490762
0.671855,0.452262,0.672652,0.760441,0.203486,-0.616704
-0.066382,-0.438865,-0.011471,-0.056352,-0.125742,0.990461
-0.037057,0.211118,0.731470,-0.904729,0.279206,-0.321729
0.131801,0.081614,0.816308,0.792255,0.290271,0.536726
0.347597,0.455750,0.765611,0.199057,-0.937337,0.285966
-0.116868,0.334295,0.046889,-0.838734,-0.512571,0.183839
-0.634361,0.760670,0.748369,0.890028,-0.445211,-0.098175
-0.229086,0.179579,-0.963337,0.013694,0.096536,0.995235
-0.526900,0.488173,-0.976912,-0.085411,0.125449,0.988417
-0.069599,-0.019142,0.836318,0.796777,0.592908,0.116649
0.338557,0.798023,0.138539,-0.145815,-0.982747,0.113784
0.333470,0.516130,-0.033364,0.945226,0.099252,-0.310960
0.555555,0.169485,0.474271,0.223937,0.589296,0.776262
0.272203,-0.590603,-0.924922,0.139753,0.239663,0.960745
-0.276221,0.797790,0.707972,-0.113750,0.992972,-0.032679
0.009342,0.505850,0.885196,-0.180678,0.884440,-0.430257
0.272673,0.584975,0.571095,-0.246800,0.679220,-0.691194
-0.506075,-0.083521,0.831471,-0.349512,0.909338,-0.225712
-0.933111,0.708804,0.792793,0.347357,0.253119,0.902925
-0.374376,0.081847,0.935893,0.613318,0.553470,-0.563482
-0.276086,0.639214,0.618910,-0.375955,0.926054,-0.032891
0.300662,-0.225910,0.548072,0.007091,0.701564,0.712571
-0.224799,0.192883,0.858784,-0.697921,-0.343895,-0.628206
-0.913965,0.459193,0.825035,-0.717018,0.609555,-0.338125
0.495364,-0.522084,0.193378,0.136322,0.618391,0.773957
-0.666698,0.567066,0.804010,-0.607466,-0.728521,0.316611
0.181011,-0.384626,0.527997,0.207213,-0.941739,-0.264935
0.334675,0.465845,-0.055191,0.970288,0.240451,-0.026928
-0.399684,0.703780,0.655131,-0.793346,-0.565252,0.226034
0.985137,-0.216699,0.006427,-0.760885,-0.539414,-0.360675
-0.662415,0.657775,0.816717,-0.537824,-0.836060,-0.108395
-0.552609,0.730202,-0.990241,-0.055715,-0.234856,-0.970432
0.163067,0.609815,-0.105052,-0.676657,-0.574932,0.459987
-0.291754,-0.639911,0.248839,-0.576570,0.751520,0.320601
0.759970,-0.660658,-0.922629,0.067155,0.138501,0.988083
-0.552543,-0.449145,0.352918,-0.265927,0.721032,0.639841
-0.787755,-0.039888,0.488452,0.968728,0.000312,0.248125
0.149410,-0.168368,-0.948043,-0.002089,0.107941,0.994155
-0.884235,-0.531666,0.434792,0.938511,0.231355,-0.256265
-0.185229,0.495244,0.186566,0.918673,-0.389280,-0.067082
-0.481102,0.277916,0.782002,0.949737,-0.300393,-0.088113
0.012554,-0.204977,0.365412,0.447622,0.589781,0.672155
-0.266045,-0.540086,0.272010,0.957935,0.200133,-0.205687
-0.852969,0.004535,0.639493,0.504085,0.119380,-0.855363
0.329788,-0.025793,0.385405,0.143079,-0.704616,0.695015
-0.053931,0.027143,-0.203678,0.892944,0.448160,0.042461
-0.715042,-0.385464,0.538952,0.253021,-0.858819,0.445433
-0.846271,-0.377555,0.403352,0.792236,0.147143,0.592209
-0.495499,-0.091940,-0.643210,0.987453,-0.139995,0.073066
-0.165813,0.379509,0.860536,0.136151,0.584900,0.799597
0.488400,-0.559437,0.196768,0.287971,0.653780,0.699746
-0.225735,0.908455,0.647467,0.724882,0.641076,0.252127
-0.412406,0.089569,0.852070,0.988394,-0.114468,-0.099877
0.471396,0.291127,0.706793,-0.710538,0.372828,0.596770
0.298251,0.294616,-0.463529,0.873761,-0.371458,-0.313944
-0.620704,-0.468496,0.554213,-0.306797,0.879899,-0.362842
-0.249372,0.352855,-0.268915,0.969892,-0.236992,0.056080
0.480836,0.380812,0.547990,-0.662293,-0.671696,-0.331953
-0.048778,-0.335271,0.419841,-0.712337,-0.449404,-0.539084
-0.463092,0.060635,-0.685981,0.935843,-0.343494,-0.078808
-0.107628,0.275079,0.395312,-0.439302,0.866586,0.236732
-0.348663,0.668334,-0.986769,0.018382,0.231835,0.972581
0.126578,0.429422,0.438803,-0.904789,0.113380,-0.410491
-0.563859,-0.116641,0.750203,0.105118,-0.774814,0.623389
-0.583675,-0.219211,0.425687,0.992100,-0.125396,-0.003566
-0.881759,-0.056821,0.776533,-0.587633,-0.160086,-0.793133
0.807975,-0.039051,0.570489,0.927000,-0.374025,-0.027853
-0.407518,0.074125,0.655049,0.772232,0.128742,-0.622161
0.104081,0.154087,0.277741,0.997681,-0.021079,-0.064715
0.110174,-0.108594,0.408330,-0.587068,0.388735,0.710096
-0.341569,0.072451,0.913361,0.923089,0.382537,0.039640
0.187104,-0.327735,0.249527,0.983164,0.099590,0.153201
0.785213,0.020398,0.234921,0.664318,-0.004477,0.747436
0.206859,-0.526596,-0.057844,-0.165159,-0.093481,0.981827
-0.139300,0.400908,-0.507135,0.294996,0.953547,0.061034
0.072950,0.527341,0.849974,-0.277120,0.960835,0.000442
0.492286,0.185441,0.498047,0.967900,-0.201399,-0.150360
-0.607242,0.888453,-0.995808,-0.056841,0.067182,0.996120
-0.210136,0.015281,0.823120,0.000348,0.996866,0.079103
-0.308693,-0.027422,0.851825,-0.669547,0.708613,0.222654
-0.456194,0.560414,0.903291,0.767827,-0.062871,0.637565
-0.482107,-0.371183,0.616945,-0.425381,0.772705,0.471146
-0.362055,0.104036,0.728031,-0.681246,0.669963,-0.295048
0.024675,0.445936,0.874831,-0.148057,0.560030,-0.815136
0.134146,0.402396,0.861666,0.910594,0.083741,0.404730
-0.554885,0.315316,0.667412,0.836016,0.544965,0.063956
0.017107,0.001559,0.715947,0.927065,-0.183924,-0.326685
-0.145728,0.507478,0.197996,0.898847,-0.431402,-0.077245
-0.716248,0.168276,0.573404,0.055215,-0.919195,-0.389914
0.840317,0.449285,0.211161,0.904764,0.161334,-0.394174
0.548526,0.491988,0.246088,0.610316,-0.633231,-0.475954
0.623850,0.472869,0.499325,0.909239,0.391631,-0.141101
-0.206655,0.134271,0.556096,0.251292,0.607226,0.753743
-0.499716,0.178742,0.962633,0.656296,0.713437,0.245528
-0.681831,-0.284428,0.307559,0.223117,0.870422,0.438845
0.085536,-0.064170,0.411048,0.847371,-0.194787,-0.493984
-0.681095,0.550553,0.641851,0.000420,-0.858822,0.512275
0.349338,0.566461,0.581379,0.166200,0.743716,-0.647506
0.866495,-0.039330,0.387157,0.841143,0.508450,0.184272
-0.474338,0.638237,0.694463,0.774791,-0.524722,0.352656
-0.307892,0.429236,0.366574,-0.381280,0.921210,-0.077450
-0.645542,0.905105,0.776713,-0.221927,-0.952418,0.208920
0.080113,-0.076358,0.567837,0.816007,0.414451,-0.402943
0.772892,-0.140272,-0.147398,-0.349693,-0.224530,-0.909561
-0.174718,0.170136,-0.226357,0.620808,0.257042,-0.740626
-0.420040,0.338947,0.573895,-0.655836,0.727879,-0.200179
-0.008537,0.380765,0.879203,0.408224,0.348607,-0.843698
-0.957884,0.100267,0.713343,0.890402,-0.388038,0.237932
-0.468315,0.373276,0.697378,-0.458773,0.756183,-0.466598
-0.786079,-0.408163,0.548727,0.953412,-0.237669,0.185792
0.204248,-0.307129,0.624231,0.700524,-0.711070,-0.060377
-0.515049,-0.079753,0.848599,0.239281,-0.903224,0.356274
-0.221787,0.364392,-0.199257,0.992746,-0.091708,0.077750
-0.337552,0.579672,0.876092,0.858206,-0.472554,0.200437
-0.356232,0.608653,0.588289,0.225316,-0.917206,0.328583
0.346726,0.076730,0.492447,0.311700,0.078428,-0.946938
-0.665562,0.317596,0.840444,-0.800474,0.390075,-0.455063
-0.458875,-0.522875,0.177806,0.560480,0.826563,-0.051530
-0.497105,0.204606,0.798590,0.878785,0.031778,-0.476160
0.068863,0.454076,0.844276,-0.082369,-0.583341,0.808040
0.069599,-0.429096,0.562482,-0.690490,-0.272610,-0.670006
-0.295101,0.592278,-0.978631,0.020700,0.192795,0.981021
-0.029427,-0.171671,0.778056,0.902130,-0.396945,0.169106
-0.307221,0.323642,0.724232,0.353010,-0.815076,0.459386
0.465103,0.446680,0.721743,0.075267,-0.449970,0.889866
-0.320879,0.453797,0.350363,0.846096,0.532553,-0.022568
0.026616,-0.104454,0.612049,0.997046,0.073664,-0.021732
-0.164538,0.358344,-0.313323,0.256235,0.965689,0.042288
-0.824980,-0.618607,0.472896,0.734322,0.678702,0.011563
-0.104212,0.443145,-0.368375,-0.689376,0.724379,-0.005997
-0.636907,-0.340854,0.380247,0.829725,-0.097056,-0.549669
-0.382410,0.441423,0.799818,0.828138,0.560279,0.016546
-0.056677,0.526457,0.658799,-0.489776,0.572713,0.657358
-0.767400,0.527666,0.784066,-0.711912,0.238301,-0.660601
-0.159651,0.240470,0.787488,-0.199930,-0.790527,0.578873
-0.804625,-0.035236,-0.573257,-0.100610,0.331968,0.937910
-0.210001,0.847704,0.528963,0.814145,0.553836,-0.174452
0.173247,0.012211,0.779972,0.447990,0.847522,0.284626
-0.597201,-0.148366,0.723413,-0.338728,0.898648,0.278739
-0.109639,0.322480,0.659830,-0.319301,0.946198,0.052505
-0.355762,0.380254,-0.971393,0.207413,0.016778,-0.978110
-0.215960,0.288661,0.297243,0.329172,0.890651,0.313666
-0.730441,-0.654471,0.472896,-0.212196,0.971564,0.105051
0.598942,0.637632,0.645011,-0.740656,-0.224658,0.633212
0.456198,0.249587,-0.141945,-0.679750,-0.643694,-0.351564
-0.046497,-0.025142,0.850793,0.848130,0.516359,0.118529
-0.376117,0.279451,0.837513,0.779434,0.482495,0.399602
0.117673,-0.026864,0.613195,-0.650869,0.721825,-0.235238
-0.476750,-0.106082,-0.011471,0.813208,0.236461,0.531769
-0.835360,0.660937,0.743522,0.910813,-0.282937,0.300611
-0.507550,0.683033,0.738134,-0.606267,0.615624,-0.503436
-0.567071,-0.257867,0.399029,0.925089,-0.121540,0.359775
0.151886,0.523433,0.780021,0.139691,-0.591804,-0.793886
-0.401156,0.337040,0.555408,-0.569153,0.688483,-0.449506
0.313850,0.304524,0.581706,0.962813,-0.205678,-0.175181
0.664356,0.065380,0.623396,0.725378,-0.372778,-0.578674
0.427874,0.340342,0.379150,0.948870,-0.220896,-0.225501
-0.450505,0.440680,0.821548,0.178477,-0.897477,0.403339
0.457403,0.261170,0.609772,-0.043198,0.903577,0.426242
0.373305,-0.684056,-0.092215,0.591437,0.207886,0.779093
0.591848,0.155763,0.046169,0.747514,0.482501,0.456526
0.207460,-0.602000,-0.399946,-0.095954,0.437253,0.894205
0.361990,-0.540830,0.206199,-0.325463,-0.692034,-0.644331
-0.524824,0.796907,0.740754,0.844244,0.285073,0.453856
-0.157109,0.321689,-0.215615,0.967076,-0.254249,0.011045
-0.567406,0.795418,0.754820,-0.427062,0.268875,-0.863322
0.215359,0.456960,0.855689,0.878014,-0.029970,-0.477695
0.467179,0.237400,-0.136525,0.158416,0.954201,0.253781
0.326171,0.088173,0.407249,0.720047,0.058422,0.691462
-0.665497,0.721968,0.850891,0.949323,0.008743,0.314182
0.749925,0.381184,0.697410,-0.602600,-0.251178,0.757484
-0.494293,-0.329271,0.606661,-0.251736,0.829497,0.498563
0.271133,0.438168,0.773750,0.862910,-0.421435,0.278889
-0.125638,0.769322,0.596001,0.790586,0.604119,-0.100071
-0.350074,0.941435,0.576433,0.058986,0.975315,0.212794
-0.138964,0.337783,-0.107230,0.758215,0.607168,-0.237606
-0.598473,0.488127,0.846519,-0.502648,-0.852115,-0.145760
-0.471796,-0.318013,0.000205,0.608103,0.667806,0.429240
-0.215224,-0.048308,0.474615,-0.726069,0.255603,0.638350
-0.586891,-0.226421,0.758177,0.162261,0.627317,0.761672
-0.575910,-0.457983,0.653641,0.965056,0.078891,0.249885
0.053665,-0.187347,-0.207411,0.839130,0.043351,0.542201
0.524223,-0.499151,-0.930898,-0.088811,0.025603,0.995719
0.430485,0.478916,0.630749,0.465189,0.237497,-0.852757
-0.680960,0.458542,0.900621,-0.850458,0.126044,-0.510719
-0.065046,0.019421,0.837824,0.762996,-0.646132,-0.018710
-0.075491,0.342296,0.334299,-0.385554,0.920611,-0.061838
-0.485184,-0.085242,0.675222,0.602461,-0.724231,-0.335455
-0.534399,0.145622,0.994629,-0.579863,0.420674,0.697705
-0.642595,0.882498,-0.993548,-0.031669,0.061596,0.997599
-0.280037,0.131434,0.750514,0.785966,-0.256812,0.562410
-0.563324,-0.169206,0.443732,0.928384,-0.348241,-0.129735
-0.172507,0.381277,-0.965220,-0.350380,0.244357,-0.904170
-0.940074,-0.127573,0.617043,0.820584,-0.563289,0.096686
0.173512,-0.019188,0.082128,-0.245713,-0.671721,0.698867
0.067192,0.348436,0.450642,0.069292,0.992453,0.101174
-0.497906,0.077939,0.829424,0.121429,0.106503,0.986870
-0.413612,0.381789,0.580822,0.622202,-0.386552,0.680766
0.428609,-0.455192,0.155618,-0.102810,0.636825,0.764123
0.405312,0.453099,0.771146,-0.196885,0.939573,-0.280071
-0.316192,0.032958,-0.782379,0.017410,-0.998500,0.051919
-0.412071,-0.200791,0.655655,0.804468,-0.449569,0.388225
-0.380604,-0.024212,0.796003,0.599786,-0.783679,-0.161564
0.271468,-0.621212,-0.920271,0.187508,0.361524,0.913313
0.291153,-0.178369,-0.945128,0.008714,0.174889,0.984550
-0.062500,-0.096685,0.717060,-0.742715,0.611163,0.273596
-0.367347,-0.014537,0.774519,-0.721602,0.690256,0.053269
0.172642,-0.457425,0.416435,0.187098,0.659783,0.727792
-0.101871,0.865519,0.252671,-0.322290,0.916531,-0.236853
0.005190,-0.197209,0.058957,-0.968581,0.242024,-0.057236
-0.939273,0.493430,0.830521,-0.671317,0.702171,-0.237254
-0.594991,0.246238,0.738642,0.555797,-0.431454,-0.710589
0.094911,0.247959,0.678235,-0.674830,0.669170,0.311154
0.579727,-0.054030,0.081718,-0.134082,0.522572,0.841986
-0.576311,0.627817,0.797411,-0.360768,0.335310,0.870295
0.296441,0.503198,-0.041158,0.995117,0.097876,0.012771
-0.220046,0.356251,-0.950777,0.149105,-0.589879,0.793606
-0.782532,0.104268,-0.295344,0.303677,0.698097,0.648414
-0.076362,-0.125480,0.264821,-0.631989,0.765018,0.123841
0.531722,-0.364112,-0.938562,0.038675,0.100321,0.994203
-0.314185,-0.029236,0.840460,-0.543492,0.805378,-0.236606
-0.719460,0.582231,-0.983658,-0.024559,0.159483,0.986895
-0.237251,0.356111,-0.122410,-0.428270,0.892940,0.138717
-0.370290,-0.307175,0.752610,-0.657507,-0.419409,0.625923
-0.308358,-0.077101,0.650906,0.676088,0.709465,-0.198910
-0.210001,0.348622,0.174383,-0.702028,-0.712019,0.013590
-0.768671,-0.162926,0.549350,0.196551,-0.656700,-0.728088
-0.849752,0.308710,0.763597,0.510632,-0.739454,0.438705
-0.126578,0.724200,0.535513,-0.743665,-0.649711,0.157600
-0.734323,-0.276846,0.208656,0.565755,0.128820,0.814449
-0.543904,-0.003233,0.752626,-0.393753,-0.917360,-0.058388
-0.865490,-0.559018,0.423198,0.944922,0.327123,-0.010617
-0.606041,-0.243354,0.285994,0.023032,0.483883,0.874830
0.298517,-0.607070,0.182620,0.265608,0.727716,0.632362
0.416893,0.355553,0.570227,-0.048492,0.813211,0.579945
-0.048442,-0.064495,0.803355,0.818234,-0.493994,0.294045
0.475883,-0.526596,-0.929359,0.015623,0.152753,0.988141
-0.914966,0.064450,0.749711,0.815072,0.562455,-0.138928
-0.308893,0.298384,0.676500,0.889453,0.456976,0.006867
0.503598,-0.493941,-0.932208,-0.149323,0.037715,0.988069
0.032774,0.379742,0.696510,0.271838,-0.935149,0.227159
0.319072,-0.432445,0.035918,-0.358561,0.098152,0.928332
-0.120350,0.226562,0.398751,0.892044,0.447900,-0.060366
0.183958,-0.591999,-0.054487,0.916094,0.317430,0.244970
0.563189,0.185906,-0.027207,0.843488,0.497998,-0.201309
0.133476,0.463379,0.828097,-0.648302,0.721469,-0.243285
0.532793,-0.253448,0.486700,0.873715,-0.465867,-0.139963
0.704462,0.240749,0.665545,-0.263856,-0.632656,0.728098
0.326036,0.478591,-0.068062,0.916890,0.139747,-0.373876
0.081450,0.263310,0.395541,0.587942,0.776294,0.227360
-0.542298,-0.425933,0.621857,0.588127,-0.611520,-0.529292
-0.834690,-0.497383,0.460287,-0.666166,0.700438,-0.256144
0.718724,-0.635725,-0.922809,0.013122,0.125936,0.991952
0.195878,0.505943,0.686325,0.818496,-0.382390,-0.428768
-0.252383,0.676567,0.630208,-0.190486,0.763442,-0.617148
0.058822,-0.157391,0.605155,0.960847,0.266193,-0.076906
-0.256601,0.231492,0.834615,0.554930,0.452082,-0.698337
0.158049,0.498639,0.317974,-0.130081,-0.963958,0.232087
0.666502,0.400163,0.502370,-0.445182,0.841859,0.305099
-0.778715,0.328526,0.851988,0.845701,-0.293463,0.445723
0.661210,-0.001418,0.536823,0.965518,0.032266,-0.258329
-0.534664,0.977300,0.269079,0.009968,0.957867,0.287039
-0.177595,0.439098,-0.879334,0.597548,-0.800553,-0.045288
-0.306617,0.161205,0.427374,0.995923,-0.088255,0.018652
-0.826255,-0.215537,0.590336,-0.043208,0.977133,0.208193
-0.004320,0.088080,0.578202,0.968085,-0.083449,0.236320
-0.676477,0.683080,0.811166,-0.708719,-0.358712,-0.607489
-0.719190,-0.282196,0.174400,0.838299,0.476109,-0.265661
-0.795789,-0.338900,0.080752,-0.314392,0.672845,0.669655
0.368083,0.708897,0.583687,0.279040,-0.822829,0.495065
-0.162932,0.331318,-0.414978,0.656574,-0.737313,0.158997
-0.533863,-0.201116,-0.063313,0.450758,-0.446792,-0.772784
-0.291889,0.385091,0.565217,-0.252608,0.812072,-0.526050
-0.416288,0.168415,0.120805,0.927423,-0.372162,0.037175
-0.642595,-0.323177,0.657980,0.532886,0.839930,0.102709
0.028892,-0.224235,-0.941362,0.036971,0.181446,0.982706
-0.570618,0.192325,0.781266,0.868271,-0.303009,-0.392800
0.208665,0.141110,0.653657,0.357714,0.160329,0.919965
-0.231362,0.334016,-0.338835,0.077707,0.996479,0.031485
0.031973,0.403698,0.836580,0.567893,-0.310681,-0.762217
0.085001,0.491243,-0.210653,0.532154,0.836074,-0.133386
0.483713,0.635446,0.627162,-0.444638,-0.259450,-0.857311
-0.038667,0.367833,0.344173,-0.240740,0.931947,0.271143
0.249041,0.519061,0.687127,0.812203,-0.452803,-0.367825
-0.668909,0.015421,0.434808,0.820975,-0.505253,0.265931
-0.453182,0.077986,0.220757,0.966512,-0.208179,0.150052
-0.147199,-0.145761,0.649170,-0.521446,0.839831,-0.150922
-0.329314,-0.300430,-0.205250,0.730782,0.105687,0.674380
-0.196479,0.501477,-0.969428,-0.014405,0.504839,0.863093
-0.499982,0.109757,-0.776108,-0.257970,0.956941,-0.133098
0.029427,0.350064,0.852234,0.094269,0.948155,-0.303507
0.366007,-0.680893,-0.917962,0.132674,0.212094,0.968201
0.352284,0.279591,0.609560,-0.055605,0.907574,0.416194
-0.680090,0.282987,0.703600,0.795056,-0.562962,0.225745
-0.218036,0.328573,0.146677,0.882322,0.414365,-0.223182
0.156508,0.454216,0.667051,-0.432133,0.898505,-0.077138
-0.164338,-0.031608,0.486356,0.928736,-0.116065,-0.352105
-0.130125,0.058077,-0.957426,-0.065178,0.191483,0.979329
-0.054936,0.489336,0.896364,-0.142171,0.792295,-0.593343
-0.180206,0.178463,-0.243812,-0.660493,0.071962,-0.747376
0.312044,0.309222,0.794562,-0.322289,0.832398,0.450825
-0.897627,0.800814,-0.993368,0.048844,0.087145,0.994997
0.279772,-0.485196,0.191790,-0.472299,-0.313136,-0.823941
-0.635297,-0.437748,0.614145,0.710990,-0.588897,-0.384309
-0.137624,0.329504,-0.319595,0.171330,0.975436,0.138459
-0.638979,-0.041284,0.678235,0.762355,0.507728,0.401281
-0.276020,-0.329643,0.030105,0.058561,0.534510,0.843131
-0.192727,-0.314013,0.179590,-0.623251,0.251185,-0.740583
-0.787015,-0.415792,0.561991,0.994679,-0.072045,0.073636
-0.043016,0.137248,0.192199,-0.535256,0.617411,0.576458
0.187305,-0.149622,-0.485029,0.519077,-0.483361,-0.704927
-0.631214,0.477335,0.875945,-0.652328,-0.757066,0.036324
0.219446,0.047378,0.307871,-0.253080,0.550835,0.795319
-0.773558,-0.177206,0.782903,-0.614278,-0.602146,0.509983
-0.449966,0.118130,0.207591,0.998419,-0.035851,-0.043302
0.067658,-0.414164,0.527702,0.910685,0.244576,0.332920
0.561918,-0.420211,-0.133856,0.566696,-0.719626,0.401240
-0.370960,0.107664,0.502370,-0.014741,0.920112,0.391379
0.562854,-0.305035,-0.940936,0.082955,0.142783,0.986271
-0.903050,-0.521665,0.487617,0.977472,-0.202222,0.060456
0.323625,0.106455,0.080081,0.260813,0.291278,-0.920399
-0.575240,0.673265,0.803404,-0.373935,-0.324104,0.868982
0.140305,0.504826,0.298291,-0.271084,-0.880084,0.389828
-0.366677,0.663496,0.703977,-0.524341,0.705187,-0.477260
-0.061364,0.065055,0.580838,-0.276722,0.914331,0.295675
-0.015500,-0.296011,0.782576,0.916996,0.384043,0.107836
0.051454,0.177812,0.863631,0.788461,0.607261,-0.097793
-0.664156,0.744622,0.618517,0.390934,0.638844,-0.662608
0.140905,0.229632,-0.049460,0.687370,-0.538270,-0.487635
0.268521,-0.235306,-0.939708,-0.100174,-0.144500,-0.984421
-0.053330,-0.272520,-0.937923,0.032867,0.138830,0.989771
-0.750661,-0.266705,0.624985,-0.468406,0.594511,0.653569
0.194473,-0.126317,0.520252,-0.522731,0.680289,0.513770
-0.396268,0.319130,-0.973456,-0.025177,0.086278,0.995953
-0.175989,-0.426073,-0.428111,0.112561,0.306249,0.945273
-0.599678,-0.379649,0.576319,0.919060,-0.389190,0.062122
-0.618963,-0.407792,0.643112,0.992714,0.120120,-0.009486
0.251317,0.542273,0.456455,0.190654,-0.952865,0.236005
-0.653711,0.677498,0.731535,-0.150705,-0.901888,0.404828
0.153897,0.133109,-0.961781,0.035562,0.101764,0.994173
-0.514849,0.034632,0.637167,0.368056,0.924639,0.097868
-0.684442,0.395744,0.617993,-0.589311,-0.783783,0.195950
-0.455793,-0.276055,0.612032,-0.713575,0.686615,0.139181
-0.336146,0.383789,0.563596,-0.254448,0.787644,-0.561135
0.408389,0.279777,-0.211849,0.817327,0.565822,-0.108726
-0.935657,-0.142459,0.672439,0.763526,-0.211747,-0.610075
0.703796,0.081940,0.536430,0.867882,0.293502,-0.400796
-0.687454,0.608234,-0.983822,-0.029416,0.122098,0.992082
-0.516520,0.838726,-0.992992,-0.047361,0.089574,0.994853
-0.516655,0.331038,0.675091,0.952525,0.168664,0.253472
-0.349203,-0.106175,0.035378,-0.654771,0.212097,0.725458
-0.477820,-0.225445,0.708218,0.773092,0.548305,0.318890
0.717854,0.529759,0.291185,0.929885,0.288341,0.228415
0.149745,-0.097709,0.631305,0.819739,-0.326513,-0.470550
0.408189,-0.364996,-0.935729,0.014421,0.117797,0.992933
-0.781727,-0.500547,0.573994,0.674870,0.373843,0.636233
0.760771,0.356577,-0.296768,0.585421,0.729701,-0.353298
0.334005,0.841051,0.245564,0.307791,-0.257877,0.915840
0.029227,-0.149389,-0.945570,0.032627,0.155927,0.987230
-0.668774,0.693546,-0.985476,-0.177565,0.153220,0.972108
-0.881023,-0.239725,0.167882,0.466543,-0.563944,-0.681400
-0.353956,0.183812,0.298078,0.773522,-0.589608,0.232436
-0.095577,0.517386,0.430845,-0.216869,0.906453,0.362369
-0.108029,0.732062,0.303384,0.028872,0.852438,0.522030
-0.525625,0.845843,0.761747,-0.336916,-0.498475,0.798755
0.060228,0.378021,0.789715,0.961669,-0.210524,-0.175705
-0.016436,-0.008768,0.207657,0.356756,0.052283,-0.932734
-0.026481,0.321456,0.475532,0.910725,0.336712,0.239175
-0.645141,0.615025,0.805844,0.968235,0.174425,0.179157
-1.000000,-0.126363,0.636300,0.972186,-0.230961,-0.038865
-0.461817,-0.127713,-0.017677,0.820389,0.163831,0.547833
0.135752,-0.279451,0.603272,0.973978,0.145197,-0.174027
0.117808,0.040680,0.680069,0.492370,0.830770,-0.259601
-0.208126,0.150134,0.937088,0.786016,-0.177855,-0.592070
0.535604,-0.255123,0.287386,0.818399,0.566547,-0.096163
0.352215,0.353460,0.782494,-0.401214,-0.901584,-0.161783
-0.230622,0.206187,0.960701,0.977988,0.185936,0.094699
-0.780522,0.383184,0.795004,-0.464026,0.454773,-0.760171
-0.459005,0.411281,0.883641,0.607919,-0.774719,0.173911
0.155503,0.506548,0.319791,-0.130081,-0.963958,0.232087
0.422451,0.565671,-0.018266,0.743125,0.250805,-0.620373
0.182552,0.844726,0.376317,-0.440491,0.896274,-0.051579
-0.494628,0.086824,-0.669344,0.922894,-0.384565,0.019408
0.575175,0.540272,0.455817,0.730098,0.272512,-0.626653
-0.499311,0.095848,-0.693333,0.918358,-0.391506,-0.057800
0.537880,0.360298,0.257027,0.857631,0.345930,0.380528
-0.349804,0.404117,0.798721,-0.738745,-0.568917,0.361370
-0.560843,-0.473055,0.356700,-0.224676,0.761131,0.608440
-0.432827,0.156321,-0.962043,0.066756,0.134183,0.988706
-0.438450,0.523945,0.879956,0.825079,0.551372,-0.123425
-0.061295,0.291918,-0.970984,0.014227,0.027876,0.999510
-0.441131,0.623259,-0.982070,0.007154,0.176177,0.984332
-0.092966,0.494407,0.436134,0.798324,0.146201,-0.584213
0.031103,0.202745,-0.963484,0.040682,0.073383,0.996474
-0.582805,-0.384067,0.532778,0.432141,0.389866,0.813178
0.633090,0.245028,0.769869,0.867435,-0.012407,0.497396
0.517394,0.431515,0.022196,0.824198,-0.355618,-0.440719
0.429684,-0.373973,-0.938218,0.036711,0.094362,0.994861
0.096247,-0.241214,0.645781,0.504718,0.144085,0.851175
0.054065,0.222468,-0.963124,0.020286,0.068924,0.997416
-0.496835,0.747459,-0.989668,0.041479,0.240583,0.969742
-0.238056,0.288383,0.422510,0.057040,0.885051,0.461986
-0.029293,0.432772,-0.357339,-0.473328,0.880285,-0.032544
0.528506,0.175486,-0.045546,0.898263,0.416865,0.139096
-0.542699,0.470125,0.682165,0.741465,-0.660882,-0.116038
0.581603,0.573439,0.599407,0.666750,0.744264,0.038922
-0.072345,0.323782,0.292904,-0.272647,-0.849939,0.450851
-0.020989,0.013839,0.657685,0.970952,-0.204745,-0.123817
-0.660139,-0.614885,0.213879,0.918399,-0.372465,0.133462
-0.358373,-0.120316,0.628620,0.503816,0.733768,0.455801
0.597941,-0.403744,-0.934992,-0.117254,0.172608,0.977987
0.595661,-0.838260,-0.914311,0.063745,0.175634,0.982390
-0.198351,0.026770,0.919567,-0.497221,0.718159,-0.486846
0.187174,-0.381137,-0.444993,-0.209794,0.413780,0.885874
-0.275015,0.918595,0.181981,-0.630099,-0.773014,0.073653
-0.191591,-0.359367,0.049607,0.680607,0.220315,0.698738
-0.692811,-0.195906,0.749171,-0.516943,0.845868,0.131441
0.098393,-0.287824,-0.210015,0.599258,0.041636,0.799472
0.144857,-0.011792,0.351837,0.318667,0.766661,0.557388
0.140840,0.455704,0.853347,-0.478457,-0.327831,-0.814620
0.674136,0.211490,0.653297,-0.415288,0.613058,-0.672083
0.506749,0.484917,0.830537,0.877160,-0.087785,0.472106
-0.520337,-0.113896,0.448857,-0.705746,0.624632,-0.334302
0.604300,0.072544,0.030089,-0.052868,0.786291,-0.615590
-0.185498,0.432958,-0.937809,-0.238852,-0.969180,0.060326
-0.177595,0.404535,-0.601274,-0.236880,0.967846,0.084633
-0.218305,0.729597,0.223164,-0.058598,0.095648,0.993689
-0.252584,0.358856,-0.330566,0.099666,0.989377,0.105834
0.413277,0.567624,-0.040405,0.817346,0.322788,-0.477235
-0.450836,0.733504,0.301992,0.567100,0.506618,0.649412
0.519936,0.235586,0.628210,0.599324,0.798581,0.055494
-0.598272,0.735970,0.645863,0.408076,0.786427,-0.463688
0.089688,0.347320,0.783231,-0.381356,0.174800,0.907752
-0.314385,0.016676,0.185060,0.123645,0.726639,0.675802
-0.287937,0.429282,0.328781,0.748653,0.660482,-0.057283
-0.213683,-0.430957,0.300846,-0.340887,-0.592360,-0.730004
0.335946,-0.307873,0.184568,-0.748399,-0.549882,-0.370848
0.432295,0.264705,-0.149674,-0.644004,-0.734504,-0.213920
-0.290683,0.505198,-0.976371,-0.051510,0.345453,0.937021
0.064646,0.506687,0.894333,-0.204962,0.887664,-0.412362
0.272739,-0.597906,-0.922957,0.163833,0.212572,0.963313
0.730910,-0.176974,-0.138146,0.370018,0.076830,0.925842
-0.012084,0.120642,0.570407,0.992925,-0.090495,0.076886
-0.520537,0.020212,-0.498260,0.253669,0.941992,0.219778
-0.427404,0.124270,0.483834,-0.715832,0.679569,0.160531
-0.098454,-0.267031,0.584637,-0.119786,0.775749,0.619568
-0.388369,0.428957,0.861142,0.885962,-0.304960,0.349387
-0.131265,0.363601,0.435381,0.480596,-0.255539,0.838885
-0.263029,0.100686,-0.960471,-0.029517,0.139212,0.989823
-0.523753,0.418445,-0.980383,-0.068520,0.122309,0.990124
0.093436,0.485289,0.854428,0.865197,0.451414,-0.218311
0.082255,0.194279,-0.961405,0.043276,0.103839,0.993652
0.503198,-0.322618,-0.939643,0.041461,0.146066,0.988406
0.033780,0.239726,0.308313,-0.469959,-0.651430,0.595633
0.041009,-0.161530,0.769836,-0.094608,0.172185,-0.980511
-0.438585,0.281591,0.872080,0.698889,0.310865,-0.644141
-0.179740,0.376533,-0.054585,-0.157254,-0.987547,0.004693
0.132471,0.003094,0.710608,0.187108,0.868314,0.459370
-0.258677,-0.310524,-0.441489,0.142098,0.035519,0.989215
-0.727094,0.308199,0.846110,0.675974,0.052887,0.735025
0.028622,-0.093894,0.252884,-0.559972,0.196131,-0.804962
-0.705733,0.182929,0.587077,-0.002184,0.913618,0.406568
-0.254860,0.183998,0.924152,0.988665,0.112854,-0.099021
0.761977,0.499105,0.305480,0.788571,-0.032707,0.614074
0.810117,-0.034074,0.567362,0.942814,-0.288847,0.166338
-0.092900,0.240609,0.450036,-0.132471,-0.953827,0.269566
0.477824,-0.184928,-0.947404,0.010085,0.128434,0.991667
0.525024,-0.212885,0.456046,-0.286656,0.728222,0.622512
0.391519,0.450030,0.824610,-0.578535,0.753727,-0.311758
-0.385087,0.371043,0.841459,0.810465,-0.104531,0.576385
0.438184,0.703268,0.255455,0.568170,0.133234,-0.812054
-0.225870,0.332528,0.004086,0.867548,-0.475358,-0.146272
-0.888857,-0.355320,0.430829,-0.618106,0.482532,0.620571
-0.078638,-0.199070,0.790697,0.935200,0.334609,-0.115923
-0.535335,-0.035888,0.709053,0.152793,0.892866,0.423609
-0.561914,-0.507198,0.541440,0.081314,0.987070,-0.138133
-0.982926,-0.228422,0.617419,0.856912,0.445670,0.258997
0.125572,0.112874,0.811592,-0.491848,-0.864719,0.101717
-0.030429,0.473567,0.892172,-0.142171,0.792295,-0.593343
-0.676273,-0.041237,0.430714,-0.633590,0.757051,0.159491
0.462556,-0.258007,-0.236788,-0.119724,0.362362,0.924316
-0.394462,0.505105,0.787504,0.963998,0.247018,-0.098439
-0.221652,0.310106,0.361236,0.949281,-0.273404,-0.155292
0.014565,0.073102,0.823267,0.981568,-0.027757,0.189086
-0.850357,0.121201,-0.318547,0.663127,0.708624,0.241071
0.332264,0.596279,0.762942,0.427391,-0.857367,0.286807
0.456198,0.773137,0.103382,-0.653898,-0.753253,0.070911
0.661210,-0.310012,0.485209,0.833720,-0.520826,-0.183444
0.061499,0.652797,0.576826,0.471808,0.832081,-0.291612
-0.600348,-0.442446,0.520268,-0.581399,0.243906,-0.776199
0.183157,0.055983,-0.958899,-0.000276,0.147225,0.989103
-0.533193,-0.426445,0.406054,0.873252,0.316427,0.370547
-0.469116,0.517991,0.728588,0.796412,0.543961,0.264263
0.438385,0.582510,0.812312,0.971069,0.021641,-0.237815
0.453117,-0.737737,-0.917127,0.098481,0.137053,0.985656
0.127314,0.501477,0.669770,-0.343935,0.938263,0.037022
0.049112,-0.388022,-0.934157,-0.008685,0.095005,0.995439
-0.518261,0.469613,0.807449,0.226945,0.807427,0.544572
-0.701851,0.905385,-0.997085,0.003172,0.111184,0.993795
0.072010,0.459845,0.468311,0.892503,0.331731,0.305603
0.839712,-0.038074,0.558732,0.916617,-0.345643,-0.200858
0.235379,0.400582,0.760650,0.792059,0.029770,-0.609718
-0.657528,0.400814,0.725509,0.796873,0.034758,0.603146
-0.825715,-0.248656,0.518598,0.392942,0.787504,-0.474799
0.176124,0.375695,0.743407,0.072773,-0.995671,-0.057819
0.879417,-0.064263,0.364888,0.844839,0.078251,-0.529267
0.359043,-0.101151,0.364364,-0.303640,-0.182388,-0.935167
-0.093436,0.078311,-0.957950,-0.120547,0.165439,0.978825
-0.788290,-0.332992,0.747059,0.787525,0.616212,-0.009364
0.028557,0.215909,-0.963091,0.021455,0.062310,0.997826
0.070338,0.293592,0.834353,-0.230357,-0.935073,0.269397
-0.192057,0.010769,0.521381,0.979611,0.198170,-0.033041
0.023134,-0.232794,0.563841,-0.312978,0.922972,0.223979
-0.583140,0.389929,0.900474,0.156539,0.564310,0.810586
-0.218440,0.461798,0.833174,0.617605,0.571164,-0.540681
0.560112,-0.270984,0.290972,-0.744790,-0.663593,0.070220
-0.236250,0.356670,-0.437362,0.873208,-0.397607,0.281811
0.126177,-0.373509,0.491186,0.821417,0.341215,-0.456997
-0.649089,-0.143435,0.496066,-0.516952,-0.581012,-0.628638
-0.156169,0.430167,-0.876845,0.586213,-0.809788,-0.024448
-0.870042,0.727829,-0.992337,-0.036540,0.104550,0.993848
-0.265710,0.536225,0.829588,0.547749,0.691314,0.471229
-0.713367,0.347645,0.575287,0.994749,0.035191,0.096099
-0.674667,0.677219,0.835073,0.418294,0.739192,-0.527850
0.067592,-0.374345,-0.937088,-0.012094,0.114738,0.993322
0.102075,0.447006,0.479904,-0.647576,-0.756629,0.090324
0.043955,0.338760,0.526654,0.742139,-0.667191,0.063922
0.838441,-0.013466,0.558945,0.968765,0.245121,0.037541
0.385692,0.663263,0.825134,0.113557,0.822020,0.558021
0.245825,-0.165717,0.525508,-0.196790,-0.835303,-0.513365
-0.355627,0.084964,0.758816,0.901333,-0.308638,-0.303876
-0.165879,-0.306431,-0.001253,-0.093221,0.622582,0.776982
-0.631014,0.117432,0.678104,0.917908,0.365335,-0.154836
-0.278227,0.235958,0.645109,-0.662247,-0.738307,-0.127796
-0.750326,-0.171578,0.515437,-0.653074,0.134641,-0.745229
0.230357,0.535295,0.604058,0.333618,-0.509290,0.793299
0.004320,0.342249,0.417303,0.584853,0.801946,-0.121775
0.057212,0.396860,0.512293,0.878652,-0.410171,-0.244399
0.761711,0.330992,-0.294312,0.559902,0.735060,-0.382357
-0.220917,0.334295,-0.622676,-0.456110,0.889919,-0.002833
0.775303,0.154320,-0.065769,0.189767,-0.902944,-0.385591
0.536340,0.491662,0.646730,-0.610768,0.127214,0.781524
-0.829732,-0.021467,0.649285,-0.573033,0.495745,-0.652587
0.580332,0.287452,0.742654,0.405545,0.913909,0.017413
-0.446954,0.521619,0.801652,0.699237,0.077050,0.710725
-0.373641,0.550041,0.802078,0.852935,0.288777,-0.434868
0.310973,0.378067,0.775764,-0.233539,0.204265,0.950650
-0.435103,0.125619,-0.777778,0.730311,-0.669252,0.136923
-0.408859,0.740761,0.672914,0.905673,0.422839,0.031036
-0.767065,0.040680,0.753232,0.636943,-0.609833,0.471602
-0.117804,0.369229,-0.026437,0.042003,-0.998944,0.018629
-0.119950,-0.122642,0.161873,-0.237246,0.083379,0.967865
-0.132536,0.387882,-0.544339,-0.591652,-0.802623,0.075793
-0.367012,-0.065240,0.808644,-0.549583,0.829071,0.102953
-0.123362,0.209536,0.738855,-0.826167,0.154946,0.541701
-0.081515,0.278242,-0.099698,0.814769,0.476535,-0.330251
-0.184893,0.367926,-0.272665,0.063239,0.995502,-0.070539
0.243818,-0.354948,0.193738,0.724828,-0.084895,0.683680
0.358243,-0.218374,-0.938365,0.022083,0.131081,0.991126
0.154832,-0.088918,0.036393,0.279813,-0.841467,0.462209
0.027956,0.817049,0.218792,0.229568,-0.973185,0.014477
-0.062905,0.444354,-0.364904,-0.743672,0.666733,0.049196
0.073685,-0.418257,0.560075,-0.449355,-0.569315,-0.688448
0.370494,0.703500,0.008146,-0.688407,-0.519772,0.505898
-0.448429,0.048447,0.353458,0.960624,0.167548,0.221651
0.539687,0.004814,0.074808,-0.321726,0.529496,-0.784937
0.402300,0.412723,0.405939,0.891763,-0.118752,-0.436643
-0.582604,-0.532225,0.458879,-0.432342,0.661441,-0.612842
-0.139165,0.061333,0.495362,0.939440,0.164581,-0.300610
-0.561448,-0.024631,-0.426997,0.750490,0.600983,-0.274927
-0.423987,0.362856,0.777909,-0.067353,-0.963155,0.260376
-0.058483,0.026166,0.696952,0.991485,-0.035460,-0.125302
0.022329,0.077846,-0.955117,0.064481,0.100807,0.992814
0.079043,-0.333876,-0.935565,0.001183,0.125819,0.992052
0.245289,-0.397744,0.406938,0.071137,0.630500,0.772922
-0.405843,0.364066,0.651283,-0.769585,0.584419,0.257283
0.345656,0.159577,0.086729,-0.176309,0.185183,0.966759
-0.721871,0.116502,0.452787,-0.743126,0.432033,-0.510990
0.710089,0.421840,0.537723,0.863348,0.205446,-0.460893
-0.201702,0.698756,0.262054,0.254503,-0.749214,0.611479
-0.353420,0.335179,0.518008,0.817417,0.550826,0.168580
0.348467,0.357646,0.783149,-0.401214,-0.901584,-0.161783
-0.178400,0.390301,-0.390580,0.658771,-0.749282,-0.067803
-0.793243,-0.063472,0.519416,0.844035,0.501401,0.190269
0.207595,0.363601,0.751627,0.888602,0.048419,-0.456117
0.101605,-0.155901,0.440965,0.907132,-0.413804,-0.076663
-0.703657,0.301268,0.866513,0.963052,-0.200359,0.179962
-0.668508,-0.474869,0.353442,0.310289,0.722108,0.618289
-0.802618,0.263263,0.904420,0.377230,0.156791,0.912751
-0.333870,0.653030,0.715701,-0.170780,0.952020,-0.253952
0.311643,0.683126,0.599047,-0.489968,0.688359,-0.534876
-0.534734,0.210559,0.949402,0.750376,0.539930,0.381330
-0.497305,-0.463984,0.512604,0.687533,-0.577116,-0.440721
-0.487865,0.385975,0.876256,0.396611,0.843306,-0.362677
0.436578,0.795000,0.170961,0.122617,0.990265,-0.065876
-0.067923,-0.082637,-0.950679,-0.036909,0.205291,0.978005
-0.090555,0.393465,-0.019609,0.100619,-0.985671,0.135385
-0.489941,-0.084033,0.766921,0.791525,-0.606819,-0.072516
0.100734,0.467938,0.818436,-0.395620,0.918095,0.024235
-0.069198,0.533062,0.574092,0.696134,0.717400,0.027131
0.437919,-0.392906,-0.937514,0.060050,0.002283,0.998193
-0.414883,0.645261,0.811133,0.823460,0.450521,0.344884
-0.854440,-0.898825,-0.902144,-0.130175,0.113120,0.985017
0.244619,0.153297,0.631011,0.322832,-0.214879,-0.921741
0.593053,0.671125,0.643603,0.938411,0.345173,-0.015504
-0.554954,0.356716,0.820254,-0.541869,-0.088727,-0.835766
-0.661009,0.585998,-0.983085,-0.037489,0.130084,0.990794
0.421715,-0.744993,-0.915899,0.140195,0.167336,0.975881
-0.514109,-0.105152,0.216532,0.373031,0.534811,0.758173
-0.487930,-0.473241,0.398701,0.880339,0.384668,0.277550
-0.251848,-0.297035,0.620089,-0.428933,0.446288,-0.785394
-0.157579,0.352251,-0.258861,-0.011020,0.999928,0.004673
0.393796,0.431981,0.842016,0.927858,0.138695,0.346183
0.689869,0.211862,0.499226,0.336138,0.729756,-0.595372
-0.470991,0.586417,0.823627,0.660737,0.218754,-0.718034
0.610528,0.196046,0.003218,0.801687,0.534315,-0.267965
0.520271,0.193441,0.550905,0.907254,-0.143012,-0.395523
-0.060694,-0.151110,0.752266,0.927149,-0.340850,-0.155617
0.177064,0.435749,0.705434,0.625550,-0.646348,-0.436945
-0.468446,0.670613,0.778269,-0.688205,0.688857,0.227706
0.501526,0.201907,0.551298,0.907254,-0.143012,-0.395523
0.695893,-0.436632,-0.935074,0.040276,0.119122,0.992062
0.474808,-0.114734,0.393036,0.931671,0.047034,-0.360245
0.149810,0.357042,0.858309,0.999021,0.019636,0.039644
0.109439,-0.410629,-0.218350,0.348818,0.299866,-0.887922
0.798135,0.073753,0.355259,0.771862,0.175278,-0.611152
-0.958689,-0.237586,0.645240,0.944075,0.305128,0.124975
0.032104,0.402349,0.862878,0.241008,-0.029114,-0.970086
-0.252383,-0.264100,-0.609478,0.413881,0.804487,0.426033
-0.450436,-0.004303,0.629733,0.859365,0.490059,0.146058
0.785144,0.312944,-0.315256,0.645043,0.591337,-0.483984
-0.021859,0.039237,0.620580,0.897421,0.420622,-0.133086
-0.126913,0.236284,0.454572,-0.541516,-0.771978,-0.332881
-0.412471,0.005978,0.192870,-0.649694,-0.107381,-0.752574
-0.060294,-0.063054,0.690680,0.476802,-0.820969,-0.314117
-0.899233,-0.101709,0.612180,0.034569,-0.971944,0.232658
0.444012,0.178602,0.764612,0.607994,-0.791473,0.062558
0.370559,-0.195953,0.023080,0.253001,-0.843566,-0.473695
-0.529777,0.206792,0.962878,0.886902,0.284065,0.364297
-0.222993,0.386720,-0.634777,-0.331039,0.942854,0.037943
0.132405,-0.000860,0.787013,-0.361021,-0.123946,0.924284
-0.712161,0.425701,0.598408,0.461584,0.784123,-0.414840
-0.251848,0.389418,0.180622,0.789570,0.611211,-0.054776
0.377392,0.746482,0.230500,0.399501,0.482421,0.779532
0.432161,0.174416,0.711755,-0.774557,0.464140,0.429692
-0.681365,0.091616,-0.281196,-0.657882,-0.728929,-0.189351
0.578387,-0.394069,-0.934992,-0.020856,0.169034,0.985390
-0.361720,0.314153,0.742605,-0.177012,0.926187,-0.332932
0.161396,-0.176044,-0.472896,0.519077,-0.483361,-0.704927
-0.072075,-0.156413,0.644520,-0.309684,-0.912063,0.268770
-0.043485,-0.230422,0.863893,0.996055,-0.006516,-0.088495
0.277626,0.028120,-0.956410,-0.018714,0.131032,0.991201
-0.641660,-0.278334,0.216204,0.858666,0.343841,-0.380087
-0.550533,-0.213164,0.526932,0.751147,-0.640992,-0.157823
-0.007597,-0.057053,0.844325,0.899395,0.437135,-0.000993
0.034985,-0.596744,-0.004904,0.138055,0.421910,-0.896065
0.545580,0.748064,0.634024,0.092135,0.962387,-0.255584
0.000903,0.470589,0.876420,0.012258,-0.879319,0.476076
0.193197,-0.267543,0.788258,0.968606,-0.168155,-0.183104
-0.054466,0.359647,0.857015,0.320568,0.882764,-0.343458
0.029562,-0.357041,-0.121575,0.722766,0.588645,0.362085
-0.050114,0.714200,0.178362,0.930223,-0.366090,0.025743
0.184427,0.644470,0.790779,0.936805,-0.253807,0.240788
-0.698504,0.213583,0.698557,-0.839293,0.273983,-0.469595
-0.540758,0.368578,0.648925,0.974712,-0.139254,-0.174774
-0.570353,-0.595162,0.217695,-0.612647,0.331429,0.717509
-0.816410,-0.153110,0.748434,0.647274,-0.194557,0.737010
-0.349869,0.119804,0.734859,-0.742000,0.562506,-0.364723
0.170435,0.068077,-0.011389,0.623276,0.693941,0.360519
0.200696,0.461845,-0.109654,-0.707050,0.676849,0.204833
-0.475944,-0.542877,0.223540,0.157492,0.503650,0.849431
-0.762512,-0.429050,0.518319,0.840284,-0.311202,0.443932
0.180611,0.482731,0.655229,0.849279,-0.465275,0.249489
0.259416,0.777742,0.172189,-0.067199,-0.997739,0.001397
0.145928,-0.416304,0.411539,-0.335482,-0.574040,-0.746947
-0.747314,-0.390952,0.348136,0.101927,-0.039466,0.994009
-0.165278,0.313827,0.279935,-0.189206,0.980770,0.047857
-0.715042,0.038958,0.782232,0.423369,-0.174831,0.888928
-0.144118,-0.012257,-0.954265,-0.002120,0.168083,0.985771
-0.621104,-0.390394,0.589419,0.781819,-0.614819,-0.103714
0.528441,-0.374485,0.198078,-0.435950,-0.625324,0.647239
-0.065516,0.195581,0.600750,-0.707600,-0.690888,-0.148242
-0.348198,0.577253,0.551724,-0.738172,0.595832,-0.316364
-0.227746,0.381603,-0.673470,-0.005792,0.998731,0.050029
-0.477350,0.291499,0.818878,-0.246871,0.967474,0.055222
-0.011279,0.347552,0.493790,0.486008,-0.873412,-0.030769
-0.420375,0.665589,-0.986262,0.015484,0.214660,0.976566
-0.047102,0.176602,0.859357,0.193532,-0.957362,0.214482
