-0.484921,-0.367249,0.486753,-0.067541,0.737817,0.671613
-0.543117,-0.042664,0.322835,0.981342,-0.171758,0.086410
-0.125932,-0.652133,0.240193,0.678813,-0.432494,-0.593432
0.070643,-0.288745,0.777739,0.851154,-0.524915,-0.000613
0.237454,-0.793074,0.516261,-0.515980,0.559653,0.648500
0.069465,-0.595117,0.665370,0.612090,0.651682,-0.447947
0.054700,-0.232314,0.722256,0.936821,0.346202,0.050101
-0.236551,-0.451212,0.335968,0.845053,0.385104,0.370919
-0.937014,-0.458740,0.527755,0.985727,-0.104450,-0.132034
0.216838,0.070978,-0.961275,-0.162838,0.081438,0.983286
0.212087,-0.188830,0.825609,0.917516,-0.389711,-0.079314
0.372968,0.049529,0.466498,0.827065,0.121424,-0.548835
0.137085,0.459286,0.652984,0.194229,0.248616,0.948928
0.038522,-0.485765,0.556371,-0.611282,-0.157430,-0.775597
-0.256656,0.147298,0.915154,0.403434,0.907562,-0.116496
-0.040485,0.102957,0.219501,0.695616,0.500093,0.515776
0.305820,0.077959,-0.953661,0.310063,0.029397,-0.950261
0.820584,-0.322596,-0.169865,-0.115747,-0.443437,0.888801
0.112503,0.237112,0.482928,-0.174460,-0.520601,0.835786
0.205332,-0.574252,0.426170,0.859027,0.441674,-0.258837
-0.214718,-0.075423,0.143362,0.121507,0.965419,0.230656
0.152556,0.369551,0.773896,0.739308,-0.519500,0.428420
0.164376,0.430817,0.547737,-0.638397,0.228161,0.735113
-0.022736,-0.181733,0.519085,0.251931,0.965100,-0.071504
-0.053287,0.392013,0.410286,0.796773,-0.266248,0.542461
-0.126286,0.661142,0.537664,-0.158903,0.150651,-0.975733
0.197676,-0.405896,0.814716,-0.713071,0.519487,0.470810
-0.419265,-0.583573,0.813423,-0.683439,0.496863,-0.534826
-0.112895,0.819515,0.587665,0.723482,-0.310912,0.616367
-0.263881,0.411201,0.619578,-0.456909,-0.444288,-0.770611
-0.602057,-0.466110,0.729214,0.134255,-0.280860,0.950312
0.518731,-0.200023,-0.187479,-0.164314,-0.000594,0.986408
-0.094872,0.126394,-0.972896,-0.041961,0.003401,0.999113
-0.305898,-0.481319,0.833350,0.681501,-0.719697,0.132637
-0.727598,-0.349933,0.815700,0.954138,0.296826,-0.038916
0.049400,-0.436783,-0.194893,0.944270,0.329052,-0.008889
0.384905,-0.101708,0.619323,-0.553646,-0.527288,0.644549
-0.584231,-0.368847,0.388920,0.811801,-0.547780,0.202276
0.075945,-0.816472,0.644842,-0.665653,0.746203,0.009280
-0.238200,0.355706,0.623312,0.058405,0.718914,0.692641
-0.231760,-0.112277,0.731254,0.372625,0.901117,0.221672
-0.192335,-0.135676,0.840035,0.532945,0.845648,0.029138
-0.011820,-0.020747,-0.971184,-0.059482,-0.024505,0.997929
0.069072,-0.419663,-0.104400,-0.491544,-0.714484,-0.497893
-0.451151,0.540286,0.559140,-0.374327,0.926194,-0.045215
-0.167989,-0.083847,-0.179701,0.447419,0.548413,-0.706441
-0.287718,-0.011622,0.484658,0.514948,-0.647958,0.561230
0.179220,0.036503,0.550797,0.777434,0.146014,-0.611781
-0.167125,-0.162390,0.906210,0.997621,-0.009821,0.068227
-0.466426,0.422744,0.531708,0.349180,-0.384464,0.854553
-0.054740,0.235356,0.181468,0.986365,-0.157100,-0.049020
-0.301383,0.346619,0.678467,-0.458695,0.317509,0.829932
0.586822,-0.403947,-0.178517,0.066403,-0.079633,-0.994610
-0.089256,0.200921,0.026039,0.977466,-0.211058,-0.003938
-0.414278,0.092076,-0.991931,-0.171814,-0.013111,0.985042
-0.753986,-0.451914,0.593038,0.428976,-0.903305,0.004392
0.229364,-0.272521,0.841000,0.907074,-0.272694,-0.320710
-0.197086,-0.102409,0.925537,0.706506,0.589432,0.391687
-0.042644,0.677795,0.533165,-0.438796,0.246023,-0.864252
-0.039700,0.155293,0.578065,-0.816946,0.556948,-0.149695
0.176392,0.604556,0.723422,0.886251,0.453918,0.092286
-0.059688,-0.229233,0.838523,0.898462,-0.399303,0.182544
-0.042763,0.380197,0.708868,0.329915,0.573648,-0.749723
0.030473,-0.027493,-0.968706,-0.132396,0.046001,0.990129
-0.462303,-0.534553,0.722730,-0.597277,0.796438,-0.094584
-0.049007,-0.151977,0.257461,-0.317738,-0.939071,0.131105
0.348582,-0.186257,0.482217,-0.254025,-0.863423,0.435858
-0.360285,-0.012285,-0.988998,-0.102268,0.010925,0.994697
-0.729601,-0.143163,0.748650,0.609589,0.616706,0.498072
0.139205,-0.477498,-0.101558,0.543786,0.570622,0.615375
-0.157622,0.003667,-0.199756,0.418777,-0.815301,0.399887
0.214128,-0.318929,0.794716,0.903206,0.149089,-0.402482
-0.509385,-0.514740,0.300285,0.471570,-0.744182,-0.473092
0.053601,-0.640122,0.180302,0.274382,-0.371357,0.887023
-0.505065,-0.300600,0.844771,0.325479,0.678757,0.658294
0.180005,-0.771235,0.247680,-0.510043,0.801663,-0.311757
-0.156954,0.030693,0.550470,0.499438,0.736908,-0.455552
-0.230975,-0.302706,0.859489,0.729980,-0.352029,-0.585837
0.164062,0.115670,0.631982,-0.381061,0.129651,-0.915414
-0.248174,0.052297,0.770909,0.700418,0.675660,-0.229995
-0.115998,-0.519031,0.727702,-0.400457,-0.684340,-0.609354
-0.222729,0.824039,0.647738,-0.721641,-0.577752,0.381362
0.409487,-0.535918,0.302963,-0.134352,0.312105,0.940500
-0.533260,-0.445830,0.830527,0.779638,0.447245,0.438334
0.453900,-0.601279,0.484276,0.913975,-0.257890,-0.313278
-0.193316,-0.070080,-0.460469,0.377764,0.925771,-0.015549
-0.033888,-0.763513,0.268172,-0.297538,0.056739,0.953023
-0.362837,-0.166874,0.951420,-0.488666,0.705489,-0.513313
-0.512723,-0.482256,0.293855,-0.273130,0.767856,0.579480
-0.977265,-0.347905,0.554568,-0.664316,0.462929,-0.586839
-0.030237,-0.663247,0.672930,-0.463482,0.303328,0.832572
-0.592713,-0.752320,0.228991,-0.149122,-0.988752,-0.011527
-0.018888,0.308946,0.450323,-0.575140,-0.809061,0.120974
-0.058313,0.315967,0.768031,0.895790,0.316053,0.312524
0.402302,-0.701622,-0.172962,0.387631,-0.110125,0.915213
-0.685502,-0.557250,0.579359,0.935661,-0.223778,-0.272878
-0.312928,-0.205678,0.610670,0.755949,-0.628864,0.181856
0.310925,-0.406013,0.354311,-0.503886,0.784574,-0.361307
-0.695948,-0.744833,0.466880,0.560410,-0.066733,0.825522
-0.395822,-0.015248,-0.985883,-0.069389,0.064581,0.995497
0.151418,0.148077,0.413619,-0.648600,0.273121,-0.710439
0.233017,-0.174596,0.476917,-0.343128,-0.937612,0.056091
-0.276604,-0.086537,0.902312,-0.496751,0.636610,-0.589887
0.040368,0.021215,0.404439,-0.236493,-0.970482,0.047286
-0.184677,-0.160283,-0.199537,-0.400501,-0.577010,0.711800
-0.282966,0.129905,0.499540,0.897440,0.424672,-0.119393
-0.634847,-0.427540,0.811783,0.083054,0.990678,0.107977
-0.303425,0.897903,0.543402,0.939817,0.310634,-0.142307
0.028431,-0.214999,0.694624,0.949657,0.307887,0.057940
0.288463,-0.625380,0.568375,0.293638,0.252949,-0.921843
-0.374421,-0.411239,0.747721,0.398380,0.855544,0.330661
-0.144938,-0.206457,0.050155,0.568800,0.682649,0.458756
-0.276447,-0.010685,0.624751,0.972921,-0.174358,0.151734
0.279470,-0.057484,0.729342,0.246775,0.604772,-0.757200
-0.290034,-0.674713,0.519194,-0.424107,0.905599,-0.004941
-0.206786,-0.679471,0.515369,0.023432,0.957200,0.288478
-0.053955,0.119531,-0.972532,0.002662,-0.014337,0.999894
-0.317483,-0.079049,0.904972,-0.023807,-0.988225,0.151141
-0.451268,0.009789,0.661181,0.138409,-0.814008,0.564122
0.319956,-0.041416,0.743950,-0.368812,-0.929117,0.026821
-0.315755,-0.048865,0.894553,-0.001575,0.748788,0.662808
-0.034045,-0.167109,-0.224984,-0.097992,0.370202,-0.923768
0.496388,0.065440,0.065820,-0.224318,0.540024,0.811206
0.010170,0.481203,0.733568,-0.416116,-0.855759,-0.307448
-0.199089,-0.021214,-0.529340,-0.570669,-0.426504,-0.701734
0.350545,0.008658,0.634314,0.835215,0.420686,-0.354174
-0.225753,-0.447079,0.753404,0.489610,0.869098,0.070361
-0.268672,-0.058498,-0.674842,0.464062,-0.876032,0.131201
-0.162923,0.718704,0.634350,0.859008,0.505203,-0.082914
0.479306,-0.721550,-0.025711,-0.113713,0.536252,-0.836363
-0.691864,-0.567584,0.419430,0.768343,0.197880,-0.608680
-0.172897,-0.175882,0.795954,0.136415,0.988101,-0.071048
0.452172,-0.316512,0.107442,0.905941,-0.265440,0.329868
-0.067187,-0.050151,0.509467,-0.791228,-0.394426,0.467319
-0.392523,0.049997,-0.990929,-0.158682,0.007491,0.987301
-0.150514,-0.032017,0.985628,-0.132358,-0.958095,-0.254037
0.096207,-0.025739,0.758814,-0.709074,0.704584,0.027831
-0.166732,-0.014741,-0.477573,0.814098,0.567138,0.124895
-0.110618,0.908510,0.622437,0.593237,-0.236145,0.769614
-0.129114,0.023360,0.900418,0.620460,0.524271,0.583241
0.388597,-0.314873,0.216441,-0.206706,0.975854,-0.070584
-0.228265,0.846697,0.571945,-0.305878,-0.319683,0.896795
-0.308136,0.832463,0.581836,0.817792,-0.316387,0.480745
0.780295,-0.069885,-0.158863,0.098009,-0.049466,-0.993955
-0.092673,0.810779,0.570524,-0.275547,-0.908233,-0.314940
-0.377955,0.778605,0.511708,0.966680,-0.032350,-0.253936
0.092005,0.398136,0.687647,0.314401,0.857192,0.407889
-0.248017,0.093324,0.889380,0.579844,0.747108,0.324978
-0.046375,0.295375,0.349448,-0.903394,0.345239,0.254341
0.053247,-0.406988,0.529923,-0.616051,-0.714617,-0.331365
0.002003,-0.586264,0.661072,-0.294757,0.166601,-0.940937
0.072999,0.417557,0.695862,0.689131,0.566790,0.451496
-0.129545,0.100110,-0.099263,0.987370,-0.153951,0.037400
0.140462,-0.594883,0.279319,-0.333732,-0.542853,-0.770671
-0.474162,-0.655798,0.342653,0.233567,0.647252,-0.725611
0.295689,-0.423407,0.295112,-0.692747,-0.622412,0.364287
-0.280531,-0.063724,0.865572,0.772011,-0.139820,0.620039
-0.284968,-0.106114,-0.140593,0.964580,-0.206690,-0.163902
0.505262,0.568521,0.508739,-0.084022,-0.794518,0.601400
-0.475497,-0.600616,0.771819,-0.222092,0.295197,0.929265
0.085919,0.135950,-0.969144,-0.037391,-0.019087,0.999118
0.010406,-0.432883,0.327681,0.893782,0.310106,-0.324018
-0.068837,0.496880,0.776847,0.175963,-0.893768,-0.412573
0.309040,0.698931,0.118243,-0.010028,0.251787,0.967731
-0.027919,-0.686530,0.343000,0.962844,-0.267143,0.039572
-0.005341,0.248460,0.481799,0.476217,0.877678,-0.053840
0.386476,-0.576047,0.594477,0.856663,0.329743,-0.396733
-0.400377,-0.058107,0.712730,0.520181,0.774060,0.360891
-0.207217,-0.093480,0.145038,0.009505,0.925939,0.377552
-0.818739,-0.488340,0.629049,-0.389457,0.903530,0.178763
-0.278489,-0.441111,0.854789,-0.900385,0.415979,-0.127550
-0.447263,-0.412448,0.760253,-0.486023,-0.667718,0.563856
-0.332522,-0.529327,0.235876,0.905531,0.043432,-0.422050
0.023560,0.031160,0.737192,-0.760526,-0.307131,0.572076
-0.023954,-0.152445,0.700926,-0.475345,0.018064,0.879614
-0.055133,0.162352,-0.969034,0.094029,0.101558,-0.990376
-0.562632,-0.069027,0.338318,-0.948233,0.306159,-0.084387
0.392719,0.456283,0.442272,-0.654889,0.157426,0.739146
-0.311593,-0.098822,0.940418,-0.605304,0.794137,0.054344
0.281709,-0.052647,0.737520,0.379833,0.656656,-0.651559
-0.233057,0.429218,0.600707,-0.664966,-0.271969,-0.695595
0.126915,-0.149052,0.726792,-0.434253,0.706625,0.558664
0.240870,-0.479018,0.687247,0.083855,0.592218,0.801403
-0.218095,-0.045511,-0.803313,-0.555133,0.829110,0.066362
0.377797,0.094845,-0.945409,-0.103922,0.023704,0.994303
-0.384905,-0.689377,-0.197169,0.970898,0.083989,0.224284
0.091731,0.485922,0.043962,0.197478,0.385364,0.901386
0.043313,0.319086,0.242179,-0.576465,0.345157,0.740645
-0.077319,0.417480,0.705571,0.231430,0.475245,-0.848871
-0.341122,-0.303408,0.292052,-0.088104,0.075569,0.993241
0.465326,-0.724319,-0.025000,-0.113713,0.536252,-0.836363
-0.242010,0.009049,-0.212288,0.871250,-0.483969,-0.081839
-0.141365,0.052648,0.743987,0.117227,0.923570,0.365071
-0.502003,-0.468333,0.825226,0.815470,0.522523,0.248956
0.032199,-0.098432,0.192142,-0.593987,0.217696,0.774460
-0.044216,0.251658,0.417317,-0.604139,-0.661039,0.445020
0.065774,-0.036659,0.747393,0.736619,0.668622,-0.101674
0.013195,-0.100460,0.182889,-0.705974,0.280866,0.650165
0.199953,-0.672958,-0.015711,-0.040011,0.438057,0.898056
-0.002828,-0.213516,0.013197,-0.367905,-0.826155,-0.426747
0.161509,-0.824312,0.183271,-0.867932,-0.187611,-0.459887
-0.071861,0.760277,0.607191,-0.181815,0.982937,-0.027879
-0.610265,-0.388932,0.448046,-0.531141,0.680790,-0.504395
0.106456,-0.499960,0.716008,0.843268,0.506274,0.180517
-0.220137,-0.081351,0.963442,-0.140113,-0.925814,0.351051
-0.595107,-0.643358,0.313564,0.203923,-0.168101,0.964447
0.256578,-0.663520,-0.008752,0.083774,0.554718,0.827810
0.620592,-0.478940,-0.174364,-0.091192,-0.082409,0.992418
0.302246,-0.293464,0.685589,0.843035,-0.071153,-0.533132
-0.227048,0.670112,0.664478,0.781766,-0.468564,-0.411449
-0.006596,-0.517783,0.634459,-0.365137,-0.763190,-0.533119
-0.329066,-0.071874,0.805135,0.497101,0.820768,0.281479
-0.653657,-0.163911,0.348519,0.392341,-0.577351,-0.716055
0.222375,-0.090554,0.813550,0.934353,0.291291,-0.205265
0.342535,-0.900671,-0.004217,-0.450390,0.020583,-0.892595
0.310296,0.143125,0.638667,0.494493,-0.493283,-0.715646
0.004516,0.290695,0.225111,-0.774827,0.627787,0.074342
-0.276330,-0.081740,-0.175931,0.901474,-0.370350,0.224022
0.292154,-0.064231,0.567063,-0.424327,-0.615496,0.664162
0.187937,-0.366156,0.649541,-0.541058,0.725799,0.424821
-0.106731,0.816980,0.555060,-0.736227,0.522875,-0.429617
-0.166968,0.714688,0.690926,0.929611,-0.287811,-0.230191
0.336330,-0.345761,0.403528,-0.253178,0.928741,0.270815
-0.326750,-0.167693,0.426771,-0.710850,0.690575,-0.133410
-0.008481,-0.335621,-0.133981,0.636784,0.770601,-0.026085
-0.329577,0.024569,-0.986065,-0.196508,0.041591,0.979620
-0.059255,-0.241283,0.716482,-0.295439,0.700110,0.650048
-0.328281,-0.191639,0.258008,-0.516464,-0.418114,-0.747292
0.140973,-0.237852,0.819798,-0.027593,0.694749,-0.718723
0.027527,-0.091217,0.454913,0.311786,-0.086067,0.946246
0.184246,-0.335114,0.898542,0.337719,-0.932582,0.127422
0.146078,-0.433001,0.638758,-0.585407,0.525290,0.617551
-0.641522,-0.239178,0.678412,0.856390,-0.132765,0.498969
-0.376581,-0.283714,0.551672,-0.760096,-0.368656,-0.535113
0.305898,-0.223812,0.133999,0.234540,-0.030402,0.971631
0.198500,-0.554753,0.552546,-0.392811,0.160891,0.905436
0.200228,-0.322517,0.803022,0.471335,0.840017,-0.268729
-0.464345,-0.286131,0.820873,0.975177,0.068123,0.210688
0.133865,0.171009,0.762785,0.583528,-0.005130,0.812077
-0.360559,-0.485414,0.748704,0.201746,0.729615,0.653422
0.006125,0.262070,0.579504,0.000660,-0.998822,0.048526
0.417930,-0.281335,0.221669,-0.206706,0.975854,-0.070584
0.130527,-0.716363,0.679615,0.409403,-0.871095,-0.271262
0.078261,0.306646,0.787175,0.972968,0.114599,0.200498
-0.355769,-0.264955,0.856975,0.748844,-0.547742,0.373111
-0.574374,-0.526518,0.314912,-0.076240,0.930045,0.359450
-0.310886,0.125419,0.768905,0.720414,0.686763,0.096747
0.147530,-0.645815,0.656973,-0.636042,0.410685,0.653290
-0.755910,-0.596911,0.301724,0.776107,0.563137,-0.283788
-0.349250,0.467515,0.572145,-0.729846,0.297835,-0.615321
-0.197165,0.742688,0.684186,0.869738,-0.226601,-0.438415
0.349446,-0.662819,-0.018425,0.230361,0.972141,0.043312
-0.186681,0.446768,0.583967,-0.760569,0.097415,-0.641908
-0.520812,-0.588020,0.767794,0.023288,0.466220,0.884362
-0.444436,-0.766711,0.212160,0.905602,0.378838,-0.190700
0.295021,-0.129085,0.285677,0.595623,0.188537,-0.780824
-0.105867,0.853951,0.668886,-0.130538,0.918728,-0.372692
-0.520460,-0.195616,0.626080,-0.204209,0.945091,-0.255151
-0.385416,-0.308321,0.586717,-0.243301,0.909481,0.337119
0.158604,-0.567389,0.267771,-0.547105,-0.705236,-0.450907
-0.017750,-0.773419,0.713695,-0.641051,0.332816,0.691583
-0.158446,-0.206770,0.794023,-0.288596,0.858098,0.424712
0.507500,-0.558809,0.302872,0.321973,0.452611,0.831551
-0.344656,0.182903,-0.987213,0.125159,-0.009799,-0.992088
-0.154834,0.590321,-0.063489,0.423947,0.482713,0.766327
-0.187505,-0.260080,0.875026,0.875476,-0.482017,0.034669
0.326985,-0.165275,0.715808,0.573671,-0.786406,-0.229056
-0.557449,-0.434911,0.614787,-0.274317,0.679073,-0.680889
-0.281512,0.021371,0.628521,-0.470000,0.836413,-0.281980
0.230385,0.463263,0.657938,0.930075,-0.120267,-0.347126
-0.249077,-0.085875,0.030282,-0.611374,0.693779,0.380648
-0.446242,0.132517,0.739998,-0.641122,0.147111,0.753208
-0.263213,0.011778,0.625953,-0.344648,0.815703,-0.464592
-0.380272,-0.197839,0.720489,-0.719015,0.685975,0.111608
-0.404461,0.778918,0.498083,0.926627,0.054987,-0.371940
-0.309746,-0.493487,0.852731,0.475752,-0.628966,0.614867
0.306448,-0.711879,0.125092,-0.666939,-0.203847,-0.716686
0.451544,-0.933702,-0.037132,-0.598617,-0.163078,-0.784260
-0.261133,-0.386553,-0.192361,-0.704841,0.021823,-0.709029
-0.168499,-0.195149,0.894990,0.290165,0.337283,0.895569
-0.030982,-0.340261,-0.115639,0.511242,0.809264,0.289350
-0.640147,0.055690,0.296824,0.907170,0.381870,0.176688
-0.320074,-0.139849,0.701473,-0.608983,0.791648,-0.049316
-0.398571,0.460144,0.514804,-0.700629,0.222713,0.677878
0.302443,-0.077528,0.592291,-0.482134,-0.718671,0.501058
-0.016886,0.194876,0.710015,0.333714,-0.856898,-0.392888
0.014059,0.507878,0.462782,0.044360,-0.967375,0.249436
0.263135,-0.740114,0.499977,-0.548318,0.576677,0.605633
0.065891,0.544771,0.640671,0.897480,0.271997,0.347199
-0.340611,-0.346384,0.180594,-0.537192,0.046835,-0.842159
-0.118433,0.850753,0.598284,0.493186,-0.282022,0.822941
-0.700385,-0.517003,0.522819,-0.393308,0.375131,0.839396
-0.373557,0.040052,0.602911,0.850641,0.170975,0.497170
-0.128131,-0.801303,0.680962,-0.169116,-0.025918,0.985255
0.265098,-0.726737,0.517099,-0.643842,0.423712,0.637131
-0.487827,-0.146361,0.890272,0.878690,-0.477392,-0.001095
0.029843,0.392404,0.651709,-0.027214,-0.977734,0.208076
-0.556035,-0.081740,0.668558,0.434692,-0.255898,0.863458
-0.354159,-0.173036,0.686609,0.922466,-0.265898,0.279918
-0.373753,-0.017042,0.658576,0.363318,0.091502,-0.927161
-0.129271,0.086148,0.697137,0.757499,-0.301004,-0.579303
-0.320153,-0.073590,-0.639851,0.381751,-0.774925,0.503743
0.313516,0.828525,0.116950,-0.164981,0.187588,0.968293
-0.406974,-0.174791,0.376023,-0.372820,0.924866,-0.075024
-0.091024,-0.276539,-0.163854,0.724119,0.689673,0.001618
0.368216,0.744716,0.116768,-0.074069,0.104364,0.991777
-0.409134,-0.132283,0.802566,0.122848,0.971046,-0.204884
0.303071,-0.344084,0.422800,0.146591,0.847072,0.510862
-0.548064,-0.229935,0.873314,-0.019454,0.972400,0.232506
-0.504673,-0.216169,0.840108,-0.218376,0.937138,0.272186
0.018417,-0.047422,-0.971548,0.111383,-0.046785,-0.992676
0.084701,0.141058,0.708577,0.966757,0.254899,0.020189
-0.277233,-0.180875,0.572346,-0.663048,0.618592,0.421559
0.207296,-0.583729,-0.128225,-0.612109,-0.193504,-0.766732
-0.390207,0.271235,0.747921,-0.028497,0.739381,0.672683
-0.479738,-0.267217,0.841529,-0.094665,-0.533920,0.840219
-0.196655,-0.032798,-0.168645,0.016002,0.517676,0.855427
-0.291840,-0.163793,-0.984353,-0.204623,0.025014,0.978521
-0.034124,0.325247,0.095529,-0.135869,-0.210490,0.968108
0.339787,0.612745,0.644787,0.849332,0.265522,-0.456216
-0.302404,-0.512908,0.805936,-0.886355,0.203923,0.415680
0.185856,0.241050,0.563348,0.219153,-0.171217,0.960550
-0.279589,-0.550620,0.697575,0.973008,-0.180864,0.143333
0.126051,0.083809,-0.963971,-0.116914,0.023464,0.992865
-0.219194,0.448639,0.602510,-0.661562,-0.097726,-0.743496
0.179534,-0.068286,-0.960801,-0.119746,-0.001536,0.992803
-0.140305,0.586187,-0.091103,-0.423587,-0.387489,-0.818796
-0.346698,0.517862,0.581763,0.712380,-0.156060,0.684222
0.047908,-0.499064,0.681327,-0.581906,0.637194,0.505341
-0.333150,-0.191132,0.278026,0.279424,0.843495,0.458736
0.294039,-0.634233,0.484731,-0.389925,0.383397,0.837237
-0.165829,0.174870,-0.975373,0.117202,-0.065883,-0.990920
0.271067,-0.341159,0.672857,-0.460030,-0.271104,0.845503
-0.281945,0.124952,0.927741,0.278175,0.955274,-0.100351
0.197833,0.352742,0.422964,-0.821642,0.543789,-0.170875
-0.516807,-0.497269,0.828468,0.919997,0.123828,0.371850
-0.211144,-0.309998,0.254055,-0.467655,-0.029667,-0.883413
-0.203606,0.063684,0.890054,0.680807,0.694343,0.233216
0.146273,0.413580,0.751218,-0.473477,0.343895,0.810898
-0.449698,-0.140472,0.700325,-0.275596,-0.450411,0.849221
-0.248881,-0.013141,-0.389794,0.431010,-0.766778,0.475692
0.084505,0.128578,0.716792,-0.667487,-0.679415,-0.304723
-0.001217,-0.381327,0.806920,0.948906,-0.254884,0.186041
-0.397118,0.750877,0.478429,0.928287,0.184643,-0.322785
-0.304210,-0.543366,0.788450,0.783613,-0.335739,-0.522714
-0.523600,0.098549,-0.996211,0.086802,-0.032562,-0.995693
0.168028,-0.490757,0.668995,0.011677,0.844606,0.535261
0.087647,0.694096,0.533238,-0.364642,-0.254957,0.895563
-0.315675,-0.140589,0.556316,-0.282386,0.917095,0.281415
-0.358793,0.623041,0.638631,0.258322,0.965841,-0.020514
-0.042684,-0.768505,0.373182,-0.766917,0.403765,-0.498810
-0.042330,-0.233289,0.900873,0.154330,-0.389283,0.908098
0.089766,-0.388113,0.211395,0.420898,0.169963,-0.891043
-0.253946,-0.559823,0.530141,0.033628,-0.941100,0.336453
-0.551951,-0.654005,0.314511,0.324819,-0.005396,0.945761
0.150554,-0.736916,0.175457,-0.682864,-0.353412,-0.639373
-0.234116,-0.078816,0.079482,0.108575,0.965213,0.237857
-0.284615,0.507839,0.443037,-0.284900,0.162766,0.944637
-0.110147,-0.761836,0.685443,-0.046649,-0.235889,0.970660
-0.200934,0.757079,0.641964,0.992593,0.038533,-0.115213
-0.170816,-0.047383,0.928196,-0.143208,0.897142,-0.417886
0.681773,-0.168747,-0.182197,-0.186382,-0.004547,-0.982467
0.114937,-0.267217,0.224419,-0.545176,-0.150133,0.824768
-0.440392,-0.478277,0.766227,-0.579222,0.362627,0.730071
-0.132529,-0.793658,0.686281,-0.289843,-0.066793,0.954741
0.500707,-0.243546,0.115365,-0.641235,0.215289,-0.736524
0.202427,-0.630723,0.556590,0.404163,0.204210,-0.891600
0.003298,-0.715154,0.607264,0.353124,-0.147921,-0.923809
-0.052698,0.008853,0.704715,0.990066,-0.118466,-0.075733
-0.010524,-0.667264,0.375422,0.999600,0.023214,-0.016129
-0.268044,-0.566024,0.635935,0.668618,0.673367,-0.315479
0.297966,-0.215427,0.467409,0.495589,0.824764,-0.272316
-0.087607,0.795571,0.596098,-0.178285,0.444708,0.877753
-0.136025,0.131582,0.861110,-0.267782,-0.489603,0.829808
-0.427983,-0.627914,0.770125,-0.077653,0.238811,0.967956
0.412786,0.412838,0.366825,0.100580,-0.281769,0.954196
-0.345402,0.639537,0.396005,0.690499,0.723033,-0.020873
-0.320466,-0.371617,0.651235,-0.006360,0.140562,0.990051
0.581128,-0.662975,0.336934,-0.237903,0.025444,0.970956
-0.088549,-0.601317,0.227825,-0.072883,0.402367,0.912573
-0.480955,-0.373645,0.698722,-0.490682,-0.729934,-0.475844
-0.026349,-0.275758,0.132979,0.042074,-0.887478,0.458925
-0.713501,-0.227946,0.781382,0.167190,-0.613135,-0.772083
-0.306841,-0.476367,0.696737,-0.734601,-0.371527,-0.567741
-0.114466,-0.234654,-0.971657,-0.050379,0.056006,0.997159
0.031532,-0.740386,-0.068461,0.530123,0.148163,-0.834876
-0.274719,-0.829577,0.473092,0.890658,0.002411,0.454667
0.188683,-0.103502,0.728413,0.448563,-0.580552,-0.679522
-0.071704,-0.734849,0.680908,0.689157,0.622695,0.370559
-0.250766,-0.703221,0.519322,-0.209766,0.883878,0.418041
-0.526703,-0.330551,0.888123,0.114889,-0.430789,0.895110
-0.146430,0.075229,0.685225,0.810285,0.389776,-0.437622
-0.523757,-0.633764,0.304456,0.420756,-0.069638,0.904497
-0.111286,-0.141408,0.895846,-0.281106,0.281949,0.917324
-0.038757,-0.119725,0.571453,0.360884,0.730193,-0.580157
0.012330,0.047773,0.707994,0.252643,0.790583,-0.557808
-0.418048,-0.511544,0.574313,0.583050,0.001916,0.812434
0.066835,-0.440488,0.527974,0.354909,0.605011,0.712742
-0.238867,-0.184541,-0.036931,0.851587,0.521727,0.051000
0.501531,-0.117541,0.105274,0.975961,-0.059351,0.209706
0.366292,0.117113,0.030519,-0.216665,-0.406504,-0.887587
-0.377366,0.191054,-0.991566,0.121842,0.028558,-0.992139
0.006793,0.429920,0.705990,0.373280,0.926871,0.039659
0.265020,-0.700608,0.476589,0.828714,-0.349285,-0.437301
-0.475026,-0.071094,0.804588,-0.215814,0.879980,-0.423154
0.181457,0.078934,-0.962878,-0.070590,0.069184,0.995103
-0.044923,-0.196240,-0.971894,-0.109846,0.001464,0.993948
-0.106417,0.955659,0.619450,-0.684205,0.481256,-0.547956
-0.286540,0.010257,-0.322289,0.679762,0.481170,-0.553534
0.046337,-0.247523,0.197807,0.548981,0.577610,0.604142
-0.551794,-0.362530,0.387189,0.807733,-0.562751,0.175724
0.361699,-0.693822,0.508356,-0.337646,0.687660,0.642743
0.800440,-0.130411,-0.187497,0.130181,0.057342,-0.989831
-0.148708,-0.138133,0.884753,0.922127,0.386821,-0.007126
0.010328,0.253764,0.738486,0.956364,0.189285,0.222574
0.199168,-0.691717,-0.010665,0.023170,0.446992,0.894238
-0.093576,-0.199945,0.860345,0.380568,0.868431,0.317799
0.344931,0.361750,0.623804,0.137082,0.179239,0.974208
-0.072371,0.788668,0.597501,-0.245957,0.444511,0.861345
-0.475929,-0.484440,0.785699,-0.654055,0.409234,-0.636192
-0.015786,-0.521956,0.622583,0.353256,0.747908,0.561999
0.106574,0.223033,0.678030,0.473857,-0.206152,-0.856131
-0.399396,-0.053037,-0.987158,0.064516,-0.023688,-0.997636
-0.782456,-0.411590,0.460760,-0.530625,0.679648,-0.506474
-0.244209,-0.118945,0.234365,0.410280,-0.900177,-0.146125
-0.499922,-0.241634,0.860035,-0.769076,-0.637737,0.042590
0.198343,-0.547851,0.424931,0.757781,0.391365,-0.522112
-0.886869,-0.375633,0.492673,-0.400021,0.531536,-0.746627
-0.249705,-0.110249,0.646062,0.284548,0.947168,0.148003
-0.181143,-0.074448,0.944444,0.120662,-0.896106,0.427124
0.055133,-0.167147,0.645024,0.883691,-0.405358,-0.234040
0.218134,-0.520629,0.257388,-0.583171,0.543342,0.603896
-0.263018,-0.043755,-0.142852,0.525781,-0.802681,-0.281527
-0.502592,-0.230442,0.368227,0.221495,0.432810,0.873851
0.124205,0.489120,0.677247,0.906734,-0.209851,0.365782
-0.310846,-0.118243,0.917668,-0.395162,0.910121,-0.124605
0.155305,0.482841,0.652984,0.132417,0.988450,-0.073703
-0.371280,-0.563295,-0.189574,0.918059,-0.380922,0.109850
0.119336,0.376804,0.509558,-0.105330,-0.724882,0.680773
-0.229521,-0.604399,0.621217,-0.637200,-0.770511,0.016963
-0.418009,0.427814,0.448173,0.930979,-0.337481,0.139231
-0.323333,-0.056821,-0.220831,0.767267,-0.638298,-0.062265
0.180829,-0.255712,0.147315,-0.123709,0.910135,-0.395412
-0.196458,-0.014818,-0.243381,-0.420604,0.893210,0.158956
-0.280217,-0.007838,-0.374730,0.876183,-0.248162,0.413183
0.315087,-0.849232,0.001995,-0.412830,-0.182179,-0.892402
-0.279079,0.796194,0.567592,-0.787839,-0.474913,0.392132
0.039897,-0.074330,0.565770,-0.550029,0.579582,0.601293
0.408231,-0.505030,0.262416,0.029180,0.654488,0.755509
-0.164298,-0.134895,0.853514,0.977306,0.157156,-0.142038
0.182440,-0.270376,0.773094,0.628901,0.086024,-0.772711
-0.016846,-0.192614,0.700981,-0.022733,0.661932,0.749219
0.151064,-0.559551,0.762548,-0.287501,0.952950,0.096064
-0.406621,-0.366858,0.293017,0.175021,-0.170194,-0.969743
-0.511113,-0.438031,0.808140,0.488743,0.578495,0.653049
0.027291,0.037712,0.678212,0.147946,0.188026,0.970957
0.339040,0.020513,0.621162,0.747288,0.539147,-0.388434
0.188526,0.127136,-0.962914,-0.126089,0.030186,0.991560
0.096167,-0.135442,-0.965009,-0.084709,-0.060643,0.994559
-0.335428,0.170970,-0.988342,0.133012,0.034899,-0.990500
-0.476283,-0.058147,0.831674,0.967086,-0.169725,-0.189573
0.095813,-0.847437,0.273254,0.238625,0.477097,0.845835
-0.392249,0.176781,0.871893,-0.508791,0.860073,-0.037496
-0.157230,-0.776187,0.686518,-0.406507,0.479827,0.777507
0.074610,-0.524608,0.745225,-0.129822,-0.904724,-0.405734
0.113288,-0.531393,0.737484,-0.179207,-0.968305,-0.173986
-0.734038,-0.434014,0.473984,-0.085812,-0.419500,0.903690
-0.203252,-0.067389,0.084691,-0.174057,0.975423,0.135108
-0.163512,-0.176936,0.316005,0.781849,-0.470985,-0.408516
-0.374186,-0.142578,0.833405,0.101947,-0.528496,0.842792
-0.751905,-0.454021,0.569031,0.553444,-0.811905,0.185770
-0.220765,-0.303876,0.924371,-0.020670,-0.358348,0.933359
-0.191707,-0.096482,0.033835,-0.553594,0.773451,0.308718
0.216799,-0.112082,0.771000,0.769006,-0.383917,-0.511114
0.102333,-0.529872,0.715862,0.958908,0.119057,-0.257527
0.026153,0.242649,0.695516,0.897057,-0.416252,0.148402
-0.577004,-0.261368,0.829925,-0.559257,0.815354,-0.149762
-0.354002,0.000858,0.666518,-0.353232,0.431615,0.830022
-0.347993,-0.518445,-0.057824,0.971577,0.000509,0.236725
-0.148119,0.460651,0.540943,0.903076,-0.126687,0.410371
-0.106652,-0.189688,0.928105,0.870905,0.475472,0.124303
-0.109165,-0.219483,0.885700,-0.788923,0.389771,-0.475056
-0.501845,-0.558069,0.770107,-0.331192,0.500206,0.800066
-0.472473,-0.389009,0.771528,-0.588445,-0.802212,-0.100937
0.006165,0.395172,0.604623,0.946436,0.281478,-0.158209
-0.265295,0.658412,-0.065420,0.453853,0.231093,0.860589
-0.416202,-0.574721,0.830581,-0.510805,0.414815,-0.752999
0.400534,-0.491966,-0.355076,0.075041,0.782549,0.618050
-0.278489,0.273185,0.419740,0.166913,-0.907054,0.386513
0.223082,0.383473,0.346278,-0.581929,-0.043168,0.812093
0.370690,-0.869745,-0.007951,0.479589,0.168021,0.861257
0.037227,0.115280,0.828997,0.874820,-0.310478,0.371879
-0.060709,0.531706,0.516535,-0.084362,0.205898,-0.974930
-0.464973,-0.334958,0.855172,0.930484,0.227497,0.287131
0.077359,-0.480149,0.803259,-0.385443,0.805621,0.449898
-0.577868,-0.645815,0.297990,0.111537,-0.193912,0.974658
0.243030,-0.366976,0.621545,0.091810,0.983928,-0.153153
0.363936,-0.659738,0.021175,0.239930,0.666017,-0.706297
-0.098445,0.069612,0.714715,-0.574281,-0.772079,0.272206
-0.171445,-0.291396,0.429539,0.577634,-0.707582,-0.407022
-0.873872,-0.495241,0.573603,-0.515595,0.838868,0.174536
0.095853,-0.427268,0.210357,-0.415702,0.005900,0.909482
0.020026,-0.079088,0.201104,-0.505596,0.034353,0.862086
-0.934227,-0.546798,0.575333,0.824387,-0.491243,-0.281189
0.090317,-0.566024,0.768778,-0.019101,0.958216,0.285407
0.105789,-0.256922,0.226058,0.597029,0.350342,-0.721676
-0.083287,-0.087356,-0.974007,-0.053202,0.025905,0.998248
0.115487,0.001170,0.629468,0.973340,-0.156367,-0.167806
0.034085,-0.000545,0.746191,0.692551,0.714812,-0.097039
-0.088942,0.031433,-0.971584,-0.045985,0.003911,0.998934
0.006950,-0.374970,-0.097114,0.502008,0.621178,0.601769
-0.469371,-0.644918,0.278390,-0.184999,0.963606,-0.192973
-0.348386,-0.125926,-0.008771,-0.358333,0.933586,0.003816
-0.514058,-0.640160,0.608721,-0.584268,-0.008767,-0.811513
-0.446635,-0.047734,0.827467,-0.014376,-0.949678,0.312899
-0.245268,-0.401100,0.723622,-0.560291,0.540248,-0.627858
-0.276761,-0.424849,0.675316,0.566150,-0.401577,-0.719868
-0.052070,0.623236,0.535333,-0.499746,0.115325,-0.858460
-0.334093,0.061930,0.238172,0.998898,0.042472,-0.019987
-0.205332,-0.510179,0.474859,0.940715,-0.219526,0.258579
0.159978,0.448990,0.620525,-0.090637,-0.176014,0.980206
0.069425,-0.711800,-0.062505,-0.435165,-0.075962,0.897141
0.116705,-0.419935,0.811364,0.510670,-0.730747,-0.453017
-0.146587,-0.265385,0.379193,0.491200,-0.674511,-0.551142
0.104571,0.027534,0.789652,0.896684,-0.099372,0.431374
-0.091652,-0.360736,0.817867,-0.093159,0.614920,0.783067
-0.175371,-0.053193,0.890491,-0.436752,-0.206049,0.875666
0.324707,0.032603,0.471926,0.152103,-0.861044,0.485251
0.213657,-0.522424,0.768158,-0.667868,0.625364,-0.403574
-0.034556,-0.227205,0.789761,-0.595805,-0.182230,0.782182
-0.331776,-0.095273,0.938269,-0.763727,0.644990,-0.026634
-0.326003,0.202793,-0.985118,0.161055,0.030264,-0.986481
0.441177,-0.482256,0.498265,0.779129,0.167474,-0.604079
0.077437,0.027377,-0.968597,-0.109911,0.048694,0.992748
0.169206,0.124405,0.404093,-0.541319,0.296939,-0.786639
-0.421110,0.045745,-0.991894,-0.094366,0.057503,0.993875
0.457827,-0.632750,-0.165420,-0.596580,0.200084,-0.777212
-0.041467,0.008892,0.359630,-0.667911,0.640718,0.378649
-0.184167,-0.253061,0.151213,0.621621,0.326428,0.712062
-0.692296,-0.651586,0.456771,0.908593,-0.287103,-0.303364
-0.339473,-0.481124,0.398847,-0.789772,0.595323,0.147819
0.340494,0.546486,0.084400,0.056261,-0.717497,0.694285
-0.373322,-0.265736,0.863223,-0.034604,0.965472,0.258200
-0.204861,0.020513,0.527427,-0.450727,0.833368,-0.319911
-0.300282,-0.460572,0.742948,-0.324858,0.327713,0.887170
-0.123498,0.038921,-0.971912,0.001529,0.062750,0.998028
-0.104021,-0.472857,0.712912,0.145300,-0.116823,0.982466
0.224574,-0.408743,0.833040,0.891536,-0.294254,-0.344351
-0.129859,-0.119452,0.624751,0.864716,-0.328979,-0.379525
-0.494463,-0.208485,0.802639,0.370042,0.641749,0.671734
-0.667125,-0.229505,0.785371,0.150208,-0.545283,-0.824684
0.379291,-0.753413,0.015638,0.807174,0.255441,-0.532184
0.766513,-0.099562,-0.193016,0.006351,-0.064522,0.997896
0.281826,-0.017939,0.607756,0.633508,0.634713,-0.442500
-0.174860,-0.195538,0.816811,0.969862,-0.132523,-0.204465
-0.167478,-0.791630,0.677228,-0.252736,0.796887,0.548722
-0.320663,-0.654979,-0.088680,0.984813,0.034281,0.170199
-0.264864,0.056353,0.427008,0.979645,0.200232,0.014216
-0.116665,0.914048,0.626772,-0.647625,0.271636,-0.711896
-0.342379,-0.064542,0.689906,-0.443293,-0.650831,-0.616369
0.098720,0.098549,0.660507,0.779857,0.264070,0.567529
-0.445418,-0.345994,0.706628,0.975973,0.214485,0.038370
-0.322626,-0.084705,0.641800,-0.137234,-0.981930,0.130305
-0.050892,-0.158723,0.456662,0.876314,-0.440094,-0.195935
-0.546886,-0.424421,0.882002,-0.046097,-0.136038,0.989631
0.063418,-0.606192,-0.040483,0.391627,-0.026909,-0.919731
-0.300793,0.583379,0.564149,-0.586042,0.615748,-0.526696
0.285400,-0.658801,-0.024508,0.011607,0.671780,0.740659
-0.381097,0.771820,0.498192,0.924203,0.052148,-0.378324
-0.685110,-0.414632,0.188590,-0.702856,-0.176166,-0.689172
-0.304092,-0.442321,0.665352,-0.213612,0.664352,0.716244
-0.139912,-0.288901,0.105584,0.804285,0.546148,0.234195
-0.437524,-0.088994,0.907030,0.825944,0.033180,-0.562774
-0.405011,-0.453240,0.762038,-0.299746,0.745560,0.595225
-0.205254,-0.121129,0.203690,-0.778654,0.478615,0.405740
-0.178042,-0.153771,-0.971603,-0.024981,-0.147891,0.988688
-0.151300,-0.344708,0.435532,0.563093,-0.619682,-0.546736
0.231368,-0.281491,0.865864,0.851501,-0.491451,-0.182817
-0.069465,0.017471,-0.971967,-0.038129,-0.020282,0.999067
-0.184599,0.794907,0.629632,-0.655486,0.656388,-0.373486
-0.242127,-0.426019,0.848796,-0.924743,0.377698,-0.046853
0.009659,-0.287496,0.830818,0.871134,0.381620,-0.309016
-0.453153,-0.006045,0.885482,-0.741710,0.668183,-0.058286
-0.158722,-0.345566,0.507573,0.490207,0.113174,-0.864227
-0.036401,-0.405311,0.840691,0.096790,0.792499,0.602144
-0.276564,-0.059901,-0.982022,-0.166579,0.053538,0.984574
0.067856,-0.137235,0.425004,0.109475,-0.100018,0.988945
-0.334250,0.101163,0.778249,-0.328496,-0.468550,-0.820092
-0.005615,0.028235,-0.969144,-0.030256,-0.014389,0.999439
-0.001688,-0.147219,0.842567,0.915602,-0.313615,0.251631
-0.080146,0.488418,0.774861,-0.105806,0.963023,0.247772
0.020970,0.317526,0.756245,0.813992,0.433397,-0.386762
-0.018260,-0.580648,0.206769,0.407505,0.462653,0.787332
-0.205254,0.091062,0.892567,-0.674081,-0.525823,-0.518773
0.345323,-0.425981,0.029754,0.290466,0.357391,0.887638
-0.225320,-0.160323,-0.043725,0.866127,0.424099,0.264507
-0.195712,0.749006,0.650671,0.902828,0.371640,-0.216297
-0.141640,-0.142461,-0.971238,-0.026640,-0.147440,0.988712
0.336096,-0.589969,0.442891,-0.471554,0.644079,0.602328
0.164415,0.105257,0.704642,0.570538,0.816255,0.090634
-0.305348,-0.022307,-0.605169,0.846488,0.456032,-0.274760
-0.746603,-0.289447,0.522236,-0.156938,0.985045,0.071116
-0.125265,-0.137547,0.634769,0.834436,-0.293489,-0.466456
-0.650083,-0.101045,0.711382,-0.482132,0.238693,-0.842956
-0.214835,0.572732,-0.071613,0.348243,0.326931,0.878546
0.045355,-0.242064,0.210940,0.602657,0.795623,-0.061546
-0.306998,0.023673,-0.146040,-0.781095,-0.541334,-0.311203
-0.371673,-0.649091,0.775936,-0.016120,-0.611210,0.791304
0.068915,0.082911,0.446898,0.812365,-0.094309,-0.575472
-0.463167,-0.312377,0.794825,-0.834775,0.498080,0.234663
-0.558234,-0.661142,0.310485,-0.179307,-0.062709,-0.981793
-0.085919,-0.196747,0.438173,0.927184,-0.104546,-0.359723
0.276918,-0.088838,0.019554,-0.026915,-0.517112,0.855494
0.107948,0.380821,0.519795,-0.664749,0.747040,-0.006257
-0.023600,0.622222,0.692529,0.872644,0.433183,-0.225487
0.000982,-0.807736,-0.070502,0.188324,0.400266,-0.896840
-0.330520,0.023322,-0.981566,0.200285,-0.032078,-0.979212
-0.136417,0.536152,0.551672,0.723244,-0.456761,0.517965
-0.865782,-0.300874,0.527719,-0.408697,0.888112,-0.210294
-0.714718,-0.325559,0.816374,0.949727,0.178857,-0.256960
-0.761172,-0.654161,0.433929,-0.223330,0.600822,0.767553
-0.189822,-0.001443,0.817485,0.629120,0.759213,-0.166744
-0.764745,-0.328679,0.479412,-0.417494,0.676016,-0.607208
-0.654638,-0.566493,0.544859,0.228658,-0.840306,-0.491530
-0.238828,-0.055963,-0.134655,-0.548724,0.803941,0.229305
-0.015354,-0.742765,-0.054472,-0.246179,-0.261782,0.933202
0.380036,-0.530886,0.450013,0.603013,-0.162016,-0.781106
-0.039386,0.112939,0.733677,0.585219,0.309860,-0.749336
0.450916,-0.562007,-0.174564,-0.545875,0.055482,-0.836028
-0.295217,-0.169526,0.571617,-0.777471,0.562184,0.281936
-0.458769,-0.016028,0.807412,-0.623932,0.771323,-0.125579
0.660057,-0.282270,-0.183909,-0.028856,0.209891,0.977299
-0.476950,-0.531081,0.693294,-0.748971,0.231659,0.620787
-0.154716,0.531394,0.558848,0.900468,-0.170641,0.400050
-0.424135,-0.825832,0.515150,0.172953,-0.711101,-0.681485
0.394918,-0.702324,0.312562,-0.368354,-0.035012,0.929026
-0.731329,-0.439162,0.551398,-0.543348,0.408525,-0.733403
-0.154088,-0.860151,0.568175,0.851945,0.523489,-0.012188
0.191079,-0.554364,0.420578,0.749192,0.535961,-0.389173
0.102293,0.510686,0.702201,0.896987,-0.405756,-0.175434
-0.543431,-0.649325,0.617847,-0.634273,-0.140646,-0.760209
-0.854630,-0.406988,0.476188,-0.571543,0.543784,-0.614522
0.704311,-0.262694,-0.197024,-0.093804,-0.001511,0.995590
0.112150,-0.127915,-0.964226,-0.084371,-0.078595,0.993330
-0.148041,0.365923,0.418592,-0.393125,0.890505,-0.229028
-0.073746,-0.073160,0.664824,0.523953,-0.699459,0.486035
-0.240556,-0.127134,0.040884,0.718953,0.687030,-0.105336
-0.308136,-0.760783,0.555788,-0.735827,0.554001,-0.389412
-0.206432,-0.700374,0.517354,0.136977,0.841342,0.522859
-0.602176,-0.373956,0.688649,-0.201074,0.919219,0.338536
-0.105435,0.630607,-0.095875,-0.660891,-0.129730,-0.739184
0.540328,-0.717417,-0.203654,-0.604912,-0.076232,-0.792635
-0.419187,-0.130255,0.909817,-0.267667,0.710140,-0.651195
0.364996,-0.001598,0.669705,0.749760,-0.095238,-0.654820
-0.375442,-0.130762,0.935100,-0.629631,0.541198,0.557378
0.284301,-0.333553,0.677593,-0.740915,0.001553,0.671597
-0.418244,-0.577256,0.816665,0.795463,-0.345594,0.497800
-0.531493,-0.299976,0.924881,0.922507,-0.025375,-0.385145
0.252847,0.759106,0.585952,0.602431,0.476467,-0.640356
0.250019,0.553819,0.478447,0.372320,-0.149891,-0.915921
-0.723514,-0.581662,0.555169,-0.151610,0.489393,0.858783
0.328752,0.633219,0.642182,0.849332,0.265522,-0.456216
0.176431,0.058030,0.571763,0.925976,0.349339,-0.143284
-0.199875,-0.115319,0.152961,-0.083913,0.969260,0.231286
-0.420168,0.634000,0.490760,0.361971,0.645877,0.672175
0.400574,-0.000975,0.059299,-0.256766,-0.058232,0.964718
-0.012134,-0.180992,0.916502,-0.619547,0.179023,-0.764272
0.227008,0.338976,0.279447,-0.037546,-0.974333,0.221958
-0.249431,-0.609703,0.453929,-0.279368,0.095813,0.955392
-0.194494,-0.139342,0.835171,0.594764,0.803338,-0.030083
0.731839,-0.294322,-0.058844,0.706085,-0.327249,0.627974
-0.710202,-0.291475,0.408173,-0.280552,0.571043,0.771493
0.377602,-0.308946,0.216441,-0.206706,0.975854,-0.070584
-0.194494,-0.127408,0.161504,-0.048188,0.959231,0.278484
0.038208,0.525154,0.535296,-0.329389,0.493390,0.805028
-0.024425,0.511466,0.722201,0.973736,0.227226,0.014389
-0.174939,-0.010958,-0.544276,0.847297,0.446351,0.287852
-0.241223,-0.510919,0.834534,-0.381784,-0.920888,-0.078777
0.112110,0.346697,0.722256,0.532992,0.738056,0.413755
-0.002709,0.430895,0.734169,-0.551736,-0.824561,-0.125246
-0.085526,0.489314,0.408301,0.677561,0.007188,-0.735431
0.062986,-0.361750,0.380614,0.625045,0.411464,-0.663338
-0.629977,-0.574994,0.545369,0.983149,0.016508,0.182059
-0.309746,0.728298,0.574695,-0.167187,0.656950,0.735164
-0.415103,-0.049333,0.873915,0.778927,0.529043,0.336728
-0.152046,-0.249123,0.826993,-0.366851,0.666034,0.649475
0.133865,0.563724,0.774661,0.298054,0.108134,0.948405
0.517239,-0.623820,-0.208426,0.701927,0.075699,0.708215
-0.355533,-0.400163,0.516353,0.859587,0.482614,-0.167910
-0.348622,0.051869,-0.986320,0.208325,-0.006974,-0.978035
-0.278529,0.121207,0.895445,-0.499509,-0.865248,-0.042866
-0.042370,0.501171,0.146732,-0.274989,0.068431,0.959009
-0.655934,-0.169877,0.714496,-0.671032,0.258979,-0.694728
-0.132412,-0.772209,0.691782,-0.455113,0.023793,0.890115
-0.258344,0.699945,0.611508,0.750557,-0.533463,-0.389976
-0.247113,-0.105686,0.024053,-0.781521,0.540981,0.310748
-0.294472,-0.128110,0.579960,0.425932,-0.799653,0.423247
-0.263843,-0.460417,0.802985,0.455489,-0.419514,-0.785199
-0.292704,-0.066219,-0.052560,0.599955,0.793120,-0.104951
-0.172112,-0.269948,0.769288,0.938349,-0.091673,0.333314
0.304289,0.353834,0.620780,0.607158,0.600378,0.520485
-0.141601,-0.270415,0.379084,0.491200,-0.674511,-0.551142
0.350231,0.035100,-0.946684,-0.127766,-0.015766,0.991679
0.121810,0.762578,0.106039,0.262500,-0.024182,-0.964629
-0.241577,0.861790,0.698886,-0.008133,-0.908510,0.417784
-0.180672,-0.600109,0.478939,0.812988,-0.245226,-0.528124
0.075631,-0.248771,0.728085,-0.823763,-0.381871,-0.419033
-0.799341,-0.603501,0.674952,-0.001434,-0.040963,0.999160
0.419854,-0.550698,0.309046,-0.005624,0.194970,0.980793
0.042056,-0.797598,0.249756,0.232929,0.227756,0.945448
0.156130,0.358319,0.310649,0.154730,-0.923762,0.350317
-0.057528,-0.164651,0.542091,0.107813,-0.948585,0.297596
-0.005458,-0.188285,0.572255,0.657823,0.704002,-0.267676
-0.200189,-0.362608,0.824188,-0.457585,-0.694709,-0.554973
-0.409094,0.763280,0.476061,0.885769,0.320700,-0.335507
-0.262349,-0.093167,0.865900,0.723391,-0.495441,0.480877
0.302521,-0.491654,0.704842,-0.708054,0.350408,0.613085
-0.089453,-0.181655,0.673622,0.709134,-0.154292,-0.687985
0.211223,-0.396614,0.715371,-0.348096,-0.912320,-0.215642
0.072254,-0.525076,0.325112,0.872382,0.480620,-0.089188
-0.231720,-0.108142,0.417208,0.543130,-0.794982,0.270211
-0.056271,0.374191,0.704624,-0.089788,-0.666004,0.740525
0.334014,-0.588176,0.466862,-0.069534,0.546972,0.834258
-0.386202,-0.674050,-0.208098,0.911860,0.185988,0.365950
-0.287245,0.869394,0.583967,0.237825,-0.597277,0.765963
-0.102176,-0.201817,0.542910,-0.508488,0.705797,-0.493245
0.186562,-0.299664,0.798723,-0.430721,-0.252410,-0.866469
0.123498,-0.054207,0.703148,-0.729107,0.326890,-0.601287
0.243815,0.528275,0.674022,-0.633703,0.574851,-0.517655
-0.011741,-0.623469,0.384020,0.911709,-0.091336,0.400556
0.041545,0.040130,0.818942,0.981361,0.179722,0.068042
0.309864,-0.551906,0.579268,-0.504269,-0.287201,0.814388
0.656013,-0.194486,-0.181450,0.137191,-0.016537,0.990407
-0.134768,-0.294711,0.111413,0.840896,0.473708,0.261717
-0.101508,0.343967,0.386315,0.019504,-0.920008,0.391413
-0.391895,-0.318657,0.607993,-0.260271,0.850221,0.457585
-0.336135,0.745847,0.537136,-0.040561,0.878152,0.476660
-0.488141,-0.716910,0.464203,0.277805,-0.356490,-0.892042
0.079204,-0.058068,0.767903,0.898289,-0.388239,-0.205784
0.300125,-0.077879,0.570178,0.510207,0.641401,-0.572969
-0.111639,-0.349427,0.664277,-0.547684,-0.822954,0.150960
-0.342889,-0.548163,0.790399,0.211426,0.277938,0.937043
-0.021205,-0.095390,0.835208,0.843995,-0.346431,-0.409461
-0.266120,-0.151508,-0.101923,0.960710,-0.254128,-0.111605
-0.148748,-0.188246,-0.223672,0.050277,0.957180,0.285095
0.388204,-0.602644,0.307043,-0.155959,0.077829,0.984693
-0.112267,0.885695,0.600379,0.717136,-0.184295,0.672124
-0.211694,-0.687231,0.641290,0.997674,0.023233,0.064085
-0.224495,-0.012362,-0.187880,-0.702852,0.683366,0.197509
-0.399356,-0.597574,0.557045,0.570273,-0.577529,0.584164
0.229090,0.330084,0.677848,0.674388,0.738374,-0.002223
0.347758,-0.547461,0.737630,-0.288205,0.781213,0.553754
0.244012,-0.792605,0.511252,-0.515980,0.559653,0.648500
-0.208945,0.182201,-0.980382,-0.100678,0.026689,0.994561
0.221158,-0.264059,0.816847,0.956929,0.240014,0.163341
0.232820,-0.019928,-0.960419,-0.067407,0.024067,0.997435
-0.141954,-0.482958,0.421343,0.873366,0.124688,0.470835
0.109558,0.530810,0.761601,0.289100,-0.167596,0.942514
0.246918,-0.419351,0.826137,0.912160,-0.349576,-0.213919
-0.513861,-0.068871,0.491398,0.512982,0.018091,-0.858209
0.067188,0.364013,0.794607,0.955147,0.068380,-0.288129
-0.142818,0.070275,-0.971931,-0.058932,0.135447,0.989030
0.330519,0.544107,0.423856,-0.738996,-0.630519,0.237339
0.044883,-0.869082,0.523001,-0.193034,0.980758,0.029175
0.411176,-0.185555,0.129190,-0.310317,0.019644,-0.950430
0.200974,-0.363505,-0.285786,-0.576950,0.117846,-0.808233
-0.443807,-0.857343,0.521125,-0.322257,0.539504,0.777873
-0.073313,0.697761,0.546699,0.224986,-0.493824,0.839952
0.237101,-0.484985,0.669450,0.516136,0.692087,0.504598
0.142779,0.600383,0.112123,0.325060,-0.232646,-0.916631
0.033967,-0.820762,0.274565,0.074129,0.521267,0.850168
-0.203606,-0.090710,-0.043798,0.982447,-0.131516,-0.132290
-0.489319,-0.592504,0.377517,0.197058,0.937314,-0.287422
-0.217113,-0.453474,0.761564,-0.605150,-0.720636,-0.338345
0.141444,0.515483,0.659888,-0.253116,-0.812344,0.525385
-0.744052,-0.694368,0.550050,0.022006,0.995794,0.088938
0.120906,-0.538491,0.728431,0.522204,0.830891,0.192153
0.052344,-0.159425,-0.224711,-0.063975,0.049791,0.996709
-0.019085,0.258795,0.486534,0.721478,0.632010,-0.282900
-0.056546,0.306412,0.433802,-0.518966,-0.783457,0.341861
-0.079950,0.179628,0.695589,0.748119,-0.465144,-0.473244
-0.426648,-0.027728,0.844006,-0.276040,-0.768219,0.577617
-0.287325,-0.523126,0.846173,0.012207,0.722278,-0.691495
-0.413650,-0.271429,0.804206,0.532060,0.022244,0.846414
-0.747310,-0.704313,0.449412,0.309141,0.732153,0.606946
-0.235020,-0.041883,-0.072742,-0.591918,0.801934,0.080840
-0.687898,-0.397161,0.554440,0.574859,-0.698875,-0.425570
-0.155816,0.923291,0.607155,-0.737780,0.530472,-0.417469
-0.345520,0.117074,0.606044,0.970296,0.014126,0.241506
0.405522,-0.518368,0.027915,0.459519,0.309393,0.832537
0.039346,0.234030,0.822348,0.973133,0.226768,0.039863
-0.290819,-0.100265,-0.781255,0.570282,-0.820891,0.030272
-0.109361,0.103268,0.726555,0.499178,-0.782393,-0.372400
0.205961,0.568988,0.123926,-0.197294,0.093191,0.975905
0.269143,-0.019693,0.603421,0.431429,0.441229,-0.786884
0.156130,0.709422,0.561162,0.491575,0.416242,-0.764916
-0.248527,-0.097808,0.173508,0.526729,-0.849374,0.033473
0.011153,-0.048279,0.535278,0.557203,0.154870,-0.815807
-0.527291,-0.231222,0.866884,-0.057527,0.875361,0.480035
0.170659,0.108845,-0.966083,-0.054411,0.011363,0.998454
-0.372851,-0.514117,-0.187643,-0.535595,0.238304,-0.810154
-0.760466,-0.304539,0.404621,-0.414000,0.420017,0.807583
0.132844,0.508190,0.356315,-0.395409,0.087011,-0.914375
-0.081481,-0.551439,0.658612,0.192784,0.760307,0.620296
-0.560590,-0.524997,0.330759,-0.791507,0.343577,-0.505441
0.488887,-0.011231,0.079299,0.890051,0.025354,-0.455154
-0.047946,0.122884,0.731181,0.419675,0.360610,-0.832966
-0.407759,-0.555806,0.567355,-0.589603,0.564793,-0.577389
-0.147491,-0.117736,0.298445,-0.659463,0.487143,0.572538
0.157583,0.504564,0.661909,-0.107697,0.653802,-0.748962
-0.242284,-0.447781,0.265622,-0.310234,0.305969,0.900077
-0.604924,0.042859,0.710890,0.277840,0.500524,-0.819927
0.080068,-0.471141,0.390541,-0.479848,0.419433,0.770599
0.445025,0.055183,0.509668,0.774797,0.093851,-0.625205
-0.333936,-0.328835,0.536353,0.617913,-0.022693,0.785919
-0.062868,0.158608,0.140830,0.674490,0.734967,-0.069903
0.863387,-0.334879,-0.237953,0.701322,0.636748,-0.320468
-0.630841,-0.316589,0.147970,-0.807946,0.422459,-0.410794
-0.010956,0.468451,0.737375,0.915773,0.368326,0.160299
-0.073392,-0.181343,0.004581,0.319741,0.846219,0.426238
0.002552,-0.501520,0.291287,-0.424428,-0.774923,0.468353
-0.479738,-0.323726,0.756537,-0.678115,0.723084,0.131568
-0.171405,-0.058107,-0.513475,0.925041,0.293247,0.241466
-0.478913,-0.691054,0.452290,-0.031672,0.544168,0.838378
-0.193552,-0.616293,0.596608,-0.694505,-0.324702,-0.642052
-0.039621,-0.034943,0.712657,0.753209,0.192658,-0.628934
-0.293725,0.306606,0.667629,0.277754,0.264538,0.923511
0.491400,-0.605959,0.044600,0.160817,0.282459,0.945703
-0.006322,-0.130762,0.860836,0.921855,-0.344863,-0.176784
-0.105239,-0.202129,0.796209,0.106109,0.940952,0.321481
0.253358,0.326028,0.068516,0.483577,0.141999,0.863707
0.345480,-0.600147,0.460104,0.126867,0.485235,0.865131
0.375992,0.610873,0.114145,0.071008,-0.582264,0.809893
-0.072214,-0.167186,0.446844,0.855112,-0.465039,-0.229178
0.043744,0.191912,0.684842,0.463567,-0.819418,0.337134
-0.013430,-0.615474,0.461525,-0.138755,0.974295,0.177472
0.231171,0.220615,0.548830,0.351089,-0.370260,0.860026
-0.462382,-0.537438,0.894662,0.855849,-0.091653,-0.509041
-0.127582,-0.151275,0.336843,0.916223,-0.309994,-0.253850
-0.081245,-0.603033,0.667848,-0.346386,0.330371,0.877993
-0.167204,-0.536424,0.543019,0.103154,0.994663,-0.002182
-0.154402,0.448639,0.004035,0.810064,0.586336,0.002423
-0.176078,-0.306489,0.913897,0.372596,-0.081243,-0.924431
-0.034399,-0.213439,0.891019,0.104989,-0.751130,0.651752
0.279863,0.500040,0.571890,0.882731,-0.427087,0.195913
