-0.100137,0.327015,0.391010,-0.074374,-0.997222,-0.004156
0.303407,-0.046314,0.609965,0.538054,0.835897,0.108509
0.220830,0.556797,0.571340,-0.116529,0.319753,-0.940308
0.432027,0.248679,0.544850,-0.562701,-0.632345,0.532454
-0.741380,0.218555,0.757422,-0.268578,-0.020002,0.963050
-0.000500,-0.334537,0.906084,0.856315,-0.516431,-0.004921
0.580258,-0.293469,0.628998,-0.145417,0.404896,0.902725
0.149592,0.176774,-0.248214,0.211677,0.955748,0.204300
-0.764195,0.465448,0.712286,-0.538388,-0.079555,0.838934
-0.033895,0.431978,0.961633,0.842754,-0.503313,-0.190896
0.161069,-0.018484,0.178308,0.296295,-0.585105,0.754891
-0.664766,0.083695,0.624796,-0.074765,0.826632,0.557754
-0.236615,0.228371,0.803749,0.575186,0.758313,0.306795
0.051162,-0.608732,0.792347,0.410063,0.265381,-0.872594
-0.641985,0.594442,0.688750,-0.478201,0.475035,0.738692
0.381882,-0.002915,0.784889,0.467343,-0.728473,-0.500916
-0.355138,-0.582069,0.755156,-0.038791,0.278566,0.959633
0.123675,-0.182866,0.847882,-0.603539,0.796689,-0.032058
0.090313,0.167598,-0.840567,-0.025476,-0.999435,0.021928
-0.893884,0.287377,0.395542,0.221899,0.587903,-0.777902
-0.049405,-0.000771,-0.391799,-0.256770,0.601956,-0.756120
0.097172,0.173728,-0.156794,0.971625,-0.129673,-0.197811
0.618101,-0.308475,0.396819,-0.418469,0.707644,0.569319
-0.242233,0.449427,0.956197,0.133865,0.370289,0.919220
0.114025,-0.241985,0.195821,-0.023576,0.411078,0.911295
-0.309266,0.090728,0.778836,0.240169,0.918373,0.314500
-0.269666,0.517572,0.901681,0.356131,-0.781752,-0.511893
0.095379,-0.537617,0.585497,0.103007,0.515108,0.850913
0.080698,0.139279,-0.960629,0.753450,0.373351,-0.541223
-0.423274,0.363720,0.829580,0.411642,0.782285,-0.467526
-0.492995,-0.474850,0.575299,-0.594698,0.097878,0.797969
-0.320777,-0.285572,0.721494,-0.517151,0.338895,0.785942
-0.552790,0.103514,0.367072,-0.518431,-0.048230,0.853758
0.182196,0.282300,0.394022,-0.074066,-0.941607,0.328468
0.020868,0.337357,0.291128,-0.224013,0.631957,-0.741922
0.163171,-0.696095,0.756705,0.817411,0.127887,0.561679
0.289862,-0.485079,0.718841,-0.211351,-0.876369,0.432790
0.315676,-0.439085,0.622027,0.045611,0.979430,0.196560
-0.382020,0.415092,0.791687,-0.655667,0.030017,-0.754453
-0.096931,0.467893,0.899458,-0.013796,0.568002,0.822911
0.134704,-0.341795,0.210020,-0.144849,0.042830,0.988526
0.038548,0.164326,0.446358,-0.465722,0.856236,-0.223525
-0.832745,0.193584,0.724033,0.700659,0.318214,-0.638606
0.516328,0.120851,0.456570,-0.486219,0.123305,0.865094
0.510848,-0.187416,0.396604,0.276512,0.621862,0.732687
0.130878,-0.454768,0.575356,-0.225284,0.368484,0.901924
0.431166,0.102236,0.751714,0.040162,0.938413,0.343174
-0.042511,-0.374701,0.570193,-0.512516,0.008800,0.858632
0.008633,-0.704067,0.655718,0.973643,-0.102813,-0.203589
-0.537454,0.505989,0.894624,0.747242,0.441035,0.497109
0.163309,-0.477257,0.679140,0.548003,0.250683,-0.798030
-0.622684,0.535624,0.694673,0.129118,0.150162,0.980194
-0.127846,-0.217239,0.682066,-0.734498,-0.617929,-0.280493
-0.094380,-0.327579,0.267218,0.838184,-0.460460,0.292274
-0.410591,0.404299,0.839620,0.163019,0.813218,-0.558660
-0.153281,-0.381245,0.786222,-0.566020,0.628121,0.533933
0.022143,-0.752731,0.660064,0.930274,-0.205639,-0.303815
-0.049439,0.045298,0.206362,0.046902,0.908094,-0.416132
0.122985,0.378801,0.919179,0.069214,0.967649,0.242621
-0.234099,-0.226829,0.729454,0.058654,0.952412,0.299118
-0.097759,0.339539,0.901394,0.462384,0.000392,0.886680
-0.050231,-0.181851,0.536201,0.807767,-0.242775,-0.537190
-0.390223,-0.506327,0.705430,0.812185,-0.403400,-0.421456
-0.349968,-0.003027,0.572746,0.163032,-0.985577,-0.045380
-0.383433,-0.198736,0.792935,-0.377558,0.880435,-0.286851
-0.144044,-0.521972,0.781661,-0.159425,0.089094,0.983182
-0.186952,-0.642391,0.597358,-0.366791,0.531618,-0.763443
-0.399493,0.666159,0.877227,0.442126,0.434576,-0.784646
0.145250,0.190538,0.737902,0.737360,0.068555,-0.672012
-0.226655,-0.467178,0.632110,-0.162369,-0.405818,0.899415
-0.396391,0.584212,0.634706,0.959967,0.264383,0.092544
0.215971,-0.238488,0.859743,-0.021187,0.765483,0.643107
0.115542,0.194825,-0.192307,0.945579,0.210756,0.247917
0.316709,-0.449540,0.779783,-0.330520,0.838651,-0.432922
0.230342,0.394295,0.669344,0.101163,-0.080811,0.991582
-0.057814,-0.051503,0.464215,-0.725169,0.541183,-0.425736
0.720321,0.048683,0.516408,-0.162154,0.323047,0.932387
-0.458118,0.939227,0.778678,0.452752,0.325312,-0.830174
0.576330,0.033677,0.770962,0.389776,0.865229,0.315362
0.372473,0.297456,0.663248,0.380840,0.127675,0.915784
-0.198807,-0.117128,0.863085,-0.386481,0.799288,0.460187
0.019627,-0.248040,0.908594,0.992486,0.103705,-0.064931
0.716358,0.112127,0.500889,-0.547582,0.369148,0.750922
-0.404801,0.118332,0.633344,0.009687,-0.357051,0.934035
-0.659217,-0.048758,0.630059,-0.416438,0.652410,0.633198
-0.867416,0.372784,0.333467,-0.710446,-0.183620,-0.679375
-0.004429,0.011113,0.795631,-0.579734,0.758294,0.298158
0.104271,0.274816,0.130590,0.941307,-0.333608,-0.051438
0.223311,0.335665,0.669143,0.214851,-0.145929,0.965683
0.592701,-0.016077,0.776340,0.722970,0.680985,-0.116511
0.019834,0.033452,0.813115,0.948891,-0.156731,-0.273938
0.152315,0.135706,-0.282393,0.831488,0.552142,-0.061367
-0.139218,-0.131043,0.924013,0.529061,0.848422,-0.016586
-0.509090,0.490532,0.873899,0.655442,0.479741,0.583305
-0.728593,0.584626,0.647328,0.971594,0.234813,-0.029451
-0.206631,-0.768752,0.524713,-0.498987,-0.461265,0.733653
-0.277318,0.340215,0.700181,-0.751217,0.506386,0.423374
-0.352415,0.431827,0.961361,-0.448596,0.874546,0.184203
-0.136254,-0.592486,0.781733,-0.303887,0.490744,-0.816592
-0.052161,0.488690,0.754138,-0.171884,0.954599,-0.243304
-0.128811,0.007127,-0.190399,-0.612794,0.398485,0.682417
0.301304,-0.165115,0.673848,-0.547922,-0.116302,-0.828405
0.508193,-0.421861,0.413055,0.206621,0.142648,0.967967
-0.046268,0.634268,0.695103,0.612110,0.335669,-0.715994
0.126191,-0.117241,0.694587,0.886696,-0.307852,-0.344961
0.346280,0.335816,0.422765,-0.674627,0.513532,0.530248
-0.939412,0.353303,0.334141,-0.337247,-0.170141,-0.925914
0.461736,-0.603167,0.649809,-0.360780,0.424072,0.830663
0.259292,0.185311,0.644861,0.237545,0.124416,0.963376
-0.697128,0.377033,0.317475,0.337684,0.312022,0.888038
0.071944,-0.096707,0.464029,0.679841,-0.725294,-0.108468
0.425411,0.594893,0.479820,0.922297,0.329973,0.201213
-0.064018,-0.537241,0.605447,-0.042953,0.929816,0.365508
-0.120642,-0.741938,0.777516,0.309609,0.557005,-0.770641
0.067085,0.159399,0.344827,0.965948,0.030071,0.256982
-0.300374,-0.113969,0.814090,0.014925,-0.963453,0.267463
0.158863,-0.084222,0.397651,0.358133,0.665683,0.654680
-0.286002,-0.563491,0.782694,0.803065,0.365376,0.470731
0.292309,0.133300,-0.976105,0.031057,0.150680,0.988095
-0.001878,-0.534834,0.777244,0.927233,0.345036,-0.145563
0.167031,0.541002,0.311222,0.255848,-0.484801,0.836367
0.278937,-0.502491,0.700209,0.294833,0.849173,-0.438153
-0.451775,-0.596961,0.590086,-0.316039,-0.414664,0.853331
-0.893195,0.172298,0.508233,0.251585,-0.769938,0.586430
-0.503196,0.441831,0.548450,0.052706,0.823929,0.564237
0.228653,-0.264436,0.879263,0.872634,0.477827,-0.100949
0.083489,0.080010,0.086228,0.168792,0.766917,0.619150
0.550482,0.066772,0.823370,0.858838,0.492458,-0.141007
-0.189640,-0.159888,0.825650,-0.603071,0.617459,-0.505025
-0.389257,0.020853,0.862941,0.844257,-0.072039,-0.531075
-0.491548,0.828510,0.670104,-0.249357,0.963227,0.100079
-0.293206,0.071849,0.803333,0.121385,-0.985185,-0.121145
-0.447019,0.087118,0.626316,-0.500085,0.265805,-0.824174
-0.472282,0.819785,0.779912,0.731920,0.105791,-0.673128
-0.122573,0.196668,0.528413,-0.292932,0.945099,-0.144838
-0.017767,-0.656005,0.624480,0.538199,-0.342229,-0.770209
0.048129,-0.968447,0.647672,0.606058,0.714420,0.349710
0.045958,0.135255,0.296951,0.994031,-0.046358,0.098754
0.517327,-0.462891,0.416884,0.293591,-0.297846,0.908346
-0.319467,-0.576014,0.463727,-0.680067,-0.383126,0.625079
-0.381021,0.320773,0.903990,-0.816058,0.247056,0.522506
-0.121332,-0.772475,0.626646,-0.733362,0.605608,-0.308900
-0.196326,0.441681,0.866857,0.628413,-0.570001,0.529336
0.276973,-0.519753,0.708098,0.294833,0.849173,-0.438153
-0.398321,-0.590643,0.610682,-0.274079,-0.790610,0.547555
0.385019,0.497001,0.502367,-0.463444,0.296875,-0.834916
-0.112095,-0.317538,0.541737,-0.408457,0.587508,0.698568
0.389085,0.120212,0.738648,-0.472814,0.495754,0.728474
-0.318951,0.457701,0.915694,0.342607,-0.853694,0.392208
0.365856,-0.172186,0.387740,0.353364,0.704628,0.615332
0.076322,0.556421,0.774031,-0.368615,0.881068,0.296382
-0.146284,0.078092,0.607670,-0.493888,-0.389769,0.777274
-0.376023,-0.640059,0.639124,0.212023,-0.769423,-0.602524
-0.568231,0.244956,0.482947,-0.425687,0.386315,0.818261
0.223656,-0.791768,0.616520,0.841040,0.270446,-0.468519
-0.746170,0.558677,0.692020,-0.683921,0.489147,0.541283
-0.491100,0.751152,0.758613,0.809770,0.288992,0.510643
-0.203563,-0.316147,0.744241,0.148464,0.458474,0.876219
0.878237,0.052669,0.522260,0.244398,0.040961,0.968810
0.101859,-0.358718,0.210708,-0.133836,0.101226,0.985820
-0.197946,-0.561986,0.752288,-0.473295,-0.651668,0.592723
-0.355103,0.432654,0.623505,0.053956,-0.962772,0.264874
0.073633,0.288205,0.614670,0.987514,0.155067,0.027760
-0.179129,-0.001298,0.875721,-0.628540,-0.652751,-0.422911
0.244886,-0.270868,0.913757,0.844154,-0.535026,0.033941
0.450673,-0.069103,0.818536,-0.195141,-0.896420,-0.397934
0.098240,-0.206070,0.514787,0.181460,0.480344,0.858104
-0.074219,-0.167485,0.739322,-0.554651,0.254294,-0.792273
-0.177095,0.193058,0.729841,0.494064,0.475173,-0.728087
-0.778084,0.479212,0.715470,0.739646,0.048350,-0.671257
-0.059985,-0.568981,0.695720,-0.668225,0.706086,0.234346
-0.071979,0.498881,0.777072,-0.004891,-0.990793,0.135295
0.264910,-0.327429,0.452956,-0.242404,0.009067,0.970133
0.001774,-0.777138,0.651157,0.829607,-0.260525,-0.493842
0.604625,0.260901,0.637561,0.378843,0.179551,0.907876
0.528389,-0.395122,0.657382,0.024600,0.295158,0.955132
0.562613,0.148117,0.675726,-0.420420,0.520643,0.743087
0.431614,0.060492,0.595666,0.835226,0.239712,0.494909
-0.817718,0.321487,0.390322,-0.258622,0.689075,0.676972
-0.300408,0.448111,0.881544,0.070820,-0.962074,-0.263436
-0.183471,0.134766,0.840925,-0.429596,-0.554734,0.712543
0.262187,0.094000,0.799633,-0.693194,0.288243,0.660604
0.087039,0.861379,0.421617,-0.493710,-0.861252,0.120395
0.332426,-0.468570,0.638421,-0.447093,0.303252,0.841514
-0.545933,0.563905,0.777387,-0.020083,-0.608933,0.792967
0.130912,0.459356,0.402111,0.540903,0.259800,-0.799955
-0.211904,0.466877,0.681062,0.548179,0.760640,-0.347745
-0.437852,0.114158,0.753937,-0.275982,-0.031240,0.960655
-0.523359,-0.549463,0.564313,-0.048453,-0.978875,0.198637
0.069325,0.195991,0.462982,-0.657738,0.738907,0.146278
-0.343937,0.862056,0.738705,-0.114617,-0.517166,0.848176
-0.045269,-0.466840,0.819569,0.420175,0.866987,0.267930
-0.364409,0.611478,0.809042,0.996550,0.057514,0.059833
0.273871,0.696057,0.738562,0.821942,0.512690,0.248115
0.080801,0.154924,-0.256992,-0.412859,0.890407,0.191631
-0.438990,-0.162934,0.795646,-0.318133,0.947278,-0.038150
-0.034240,0.350971,0.879321,-0.529568,0.697647,0.482542
0.315642,-0.163084,0.644660,-0.223194,0.217982,0.950089
0.708363,-0.268310,0.414016,0.157128,-0.701134,0.695501
-0.006359,-0.220774,0.882906,0.867297,0.466333,-0.174155
-0.060399,0.498957,0.914718,-0.159551,0.386479,0.908393
0.601730,0.083131,0.652563,-0.607533,0.296499,-0.736880
-0.369096,-0.435776,0.783870,0.690823,0.569929,0.444910
0.090038,0.292567,0.348255,0.708879,0.642890,-0.290145
-0.772467,0.235479,0.757078,-0.172691,-0.257736,0.950658
0.506263,-0.159700,0.514084,-0.470143,0.580495,0.664824
-0.177371,0.594329,0.574955,0.865956,-0.115143,0.486684
0.135117,-0.686993,0.736496,0.239766,-0.605152,-0.759146
-0.189709,0.410165,0.912969,-0.215842,0.251217,0.943558
0.146490,0.180685,-0.576647,0.918892,-0.385075,0.085761
-0.205528,0.007202,0.798471,0.900419,0.431409,0.055963
0.060640,0.138189,0.589240,0.401177,0.906451,-0.131926
-0.155762,0.119648,0.864017,0.919979,-0.382608,0.085148
0.184919,0.168951,-0.881773,0.100725,0.986785,0.126924
0.194327,0.142890,0.909985,0.495387,0.868669,0.002336
0.162413,-0.626145,0.612389,0.827382,0.073168,-0.556854
0.538212,-0.358606,0.408322,-0.649845,0.755962,-0.078884
0.528218,0.223068,0.608574,0.797239,-0.147441,-0.585382
-0.036550,-0.498467,0.595522,-0.397681,0.456036,0.796166
0.374231,-0.463492,0.772812,-0.469623,0.236772,-0.850526
0.106236,-0.453113,0.655876,0.098456,0.841734,0.530840
-0.474006,0.286738,0.539815,0.441479,-0.828314,0.344952
0.175578,0.660292,0.932331,-0.545287,0.791090,0.277197
0.411763,-0.518775,0.641620,-0.574194,-0.809337,0.123589
0.030586,-0.293921,0.572301,-0.682487,0.174449,-0.709774
0.066499,-0.257517,0.861120,-0.511860,0.539271,-0.668720
-0.379332,-0.481619,0.715169,0.852889,-0.188407,-0.486912
0.015974,-0.408736,0.847007,0.947128,-0.067296,0.313720
0.299857,-0.390158,0.805929,0.869938,0.176574,-0.460467
0.534386,-0.329084,0.402470,-0.704474,0.651580,0.281354
-0.383743,-0.502642,0.684777,0.510270,0.820226,0.258560
-0.131946,-0.026231,0.746551,0.869152,-0.494100,-0.020980
-0.716393,0.418589,0.758340,0.891025,0.015532,-0.453689
0.285864,0.101296,-0.973968,0.005703,0.080955,0.996701
-0.503024,0.288167,0.562850,0.278138,0.907518,0.314721
0.088660,-0.234050,0.523909,0.287694,0.558309,0.778154
0.202047,0.558564,0.775566,-0.005038,0.716760,0.697302
-0.330875,0.378913,0.857462,-0.042879,-0.816168,0.576221
-0.164929,-0.775822,0.524626,-0.483562,-0.468915,0.739112
0.479106,0.201444,0.540661,0.643590,0.716040,0.270331
0.064189,0.071699,0.304509,0.857453,0.159360,0.489263
-0.147353,0.422651,0.561372,-0.219398,0.731473,0.645610
-0.540866,0.048457,0.661326,0.117201,0.906085,-0.406539
-0.392463,-0.524266,0.706348,0.858706,-0.512009,0.021705
-0.380538,0.385345,0.886521,-0.730158,0.132196,0.670369
-0.085283,-0.136684,0.244184,0.204057,-0.081405,0.975569
0.057814,-0.181023,0.750567,-0.136298,0.430950,0.892023
0.079354,0.450029,0.586673,0.747108,-0.583423,0.318509
0.146766,-0.282902,0.794441,-0.254080,-0.149594,0.955544
0.099412,0.063651,0.095207,0.679113,0.614315,0.401774
0.089383,0.665068,0.784057,0.756907,0.332962,-0.562342
0.115197,-0.404186,0.436677,0.140113,-0.475665,0.868396
-0.456083,0.514676,0.737228,0.673516,-0.559436,0.483123
0.000465,-0.617721,0.781762,-0.253413,0.301570,0.919150
0.064637,0.679058,0.871748,0.952554,-0.290424,0.091080
-0.620479,0.597601,0.705387,-0.549439,0.297605,0.780736
-0.282384,-0.523213,0.423582,-0.072975,-0.760673,0.645020
-0.316331,-0.707189,0.584966,0.017838,-0.985700,0.167561
-0.018973,0.517873,0.402757,0.882153,0.434067,-0.182735
-0.210354,-0.647506,0.799618,-0.321288,0.449724,0.833380
0.355206,0.209718,-0.980680,-0.095309,0.139669,0.985601
0.077080,-0.393430,0.809013,-0.092647,0.970909,0.220798
-0.068980,0.632012,0.472692,0.802613,0.452118,-0.389104
-0.016802,-0.618210,0.659706,-0.677577,-0.352442,0.645503
-0.909324,0.284895,0.515677,0.675457,0.096664,-0.731036
0.141218,0.183731,-0.388371,0.928428,0.371331,-0.011648
-0.266944,0.048946,0.719156,-0.104198,0.402172,-0.909616
0.167445,0.064704,0.601015,-0.362216,0.025831,0.931736
0.743896,0.185010,0.615071,0.827087,-0.000408,0.562073
-0.147491,-0.137361,0.882290,0.449694,0.872925,0.189152
0.042822,0.269025,0.906271,0.440417,-0.123204,0.889299
0.144250,0.216449,-0.093399,0.939500,-0.315495,0.133429
0.336389,-0.438784,0.773845,0.088875,0.949535,-0.300806
-0.234065,0.651793,0.918318,0.555772,0.137474,0.819889
-0.691372,0.410203,0.696810,-0.325797,0.124856,0.937159
0.090555,0.170719,-0.239293,0.199487,-0.972421,-0.120844
0.182299,-0.603279,0.779324,0.834353,-0.014716,0.551033
0.135841,0.233411,0.031597,0.984568,0.007437,0.174845
0.287656,-0.280156,0.825507,0.767416,0.462799,0.443723
0.076665,0.093022,0.355039,0.793405,0.373302,0.480785
-0.718426,0.333033,0.758426,0.825574,-0.386740,-0.410927
0.246403,0.192080,-0.978185,0.045848,0.202845,0.978137
0.616342,0.060191,0.750710,-0.457521,-0.617404,-0.639911
-0.007255,-0.695568,0.780141,0.038312,0.033491,0.998704
-0.205528,0.747805,0.707051,0.315922,-0.643301,0.697393
-0.135497,0.217202,0.241947,0.398254,-0.390977,0.829778
-0.235754,-0.464846,0.818637,0.533827,-0.811019,0.239326
-0.788906,0.217578,0.748831,-0.652113,-0.048226,0.756586
-0.756337,0.361163,0.349416,0.241536,0.970389,-0.002314
0.229136,-0.162859,0.800608,0.211424,0.718537,0.662574
-0.043752,0.114646,0.961303,0.700918,0.704598,-0.110702
-0.193465,0.723886,0.600356,0.478474,-0.399215,0.782106
-0.766229,0.251988,0.289823,-0.183001,-0.657008,0.731335
0.718943,0.220586,0.623849,-0.375135,0.285836,0.881800
-0.041271,0.184145,0.904693,-0.623397,-0.661714,-0.416546
0.076114,0.640699,0.746694,0.866029,0.043064,-0.498136
0.210525,0.046238,0.609047,0.099269,-0.464791,0.879838
0.176198,-0.642353,0.621583,-0.446222,-0.789915,0.420618
0.092864,0.301480,0.789708,-0.080711,0.324918,0.942292
-0.793662,0.238149,0.347781,-0.470081,0.808288,-0.354533
0.309886,0.194299,0.915249,0.979797,0.166924,-0.110160
-0.271390,0.119648,0.455007,-0.756997,0.652240,0.039234
-0.323500,0.120889,0.612733,-0.365880,0.396152,-0.842138
0.155727,0.164175,0.884785,0.460680,0.248637,0.852029
-0.035309,-0.458829,0.593256,-0.456756,0.467709,0.756718
0.051093,-0.621557,0.795775,-0.173548,-0.329644,0.928017
-0.120849,0.445968,0.746981,-0.553427,0.559111,-0.617343
-0.115266,-0.748895,0.581567,0.753378,0.653153,-0.076241
-0.272044,0.611779,0.829738,-0.752130,-0.125233,-0.647007
-0.180197,0.036160,0.852600,0.889003,-0.110278,-0.444423
0.186641,-0.007728,0.810949,0.843033,-0.499190,0.200260
-0.309576,-0.576804,0.606968,0.690434,0.023002,-0.723030
0.292102,-0.293432,0.809400,-0.063374,0.177636,0.982054
0.665385,0.151314,0.625470,0.492811,-0.147804,-0.857491
0.616204,-0.126154,0.533002,0.921321,0.213054,0.325230
0.689786,0.075083,0.595106,0.780718,-0.607231,-0.147480
-0.285244,-0.263308,0.722168,-0.458894,0.509373,0.727981
0.874068,0.083583,0.519563,0.097289,-0.668690,0.737149
-0.695749,0.292981,0.775394,0.698170,-0.180887,-0.692704
-0.039755,0.356650,0.880741,-0.385081,0.737242,0.555145
-0.060296,0.587748,0.955767,-0.655264,-0.667182,0.354255
-0.380538,0.246837,0.502811,-0.294429,0.444967,-0.845764
0.237855,0.276245,-0.987780,-0.044516,0.257838,0.965162
0.147249,-0.471127,0.766788,0.831929,0.064482,-0.551123
0.079699,-0.623926,0.738160,-0.123516,-0.253797,0.959339
-0.124226,-0.460070,0.804395,-0.168651,-0.056028,0.984082
0.829436,0.053158,0.536387,-0.559474,0.423646,0.712399
-0.302511,0.229462,0.588394,0.234633,0.617083,0.751103
-0.291758,0.410128,0.587978,-0.512288,0.557388,-0.653360
-0.357447,0.389331,0.839635,-0.013377,0.933766,-0.357633
-0.314504,0.493842,0.836981,0.889737,0.326330,-0.319181
-0.612827,0.246837,0.484998,-0.445267,0.370156,0.815305
0.603177,0.074594,0.746938,-0.397897,-0.678248,-0.617784
0.767090,0.219007,0.576948,-0.655939,-0.092650,0.749106
-0.124055,0.606175,0.864548,-0.104938,0.992999,0.054227
-0.497958,0.028525,0.632526,0.340899,-0.150109,0.928038
0.127846,0.210545,-0.428201,0.973318,0.190469,-0.127962
0.650256,0.137737,0.668785,-0.737878,0.285845,-0.611415
-0.151385,-0.354243,0.789206,-0.508033,0.194442,0.839104
-0.197533,-0.053233,0.828117,0.714872,-0.088961,0.693573
0.049094,0.302345,0.222713,-0.352743,-0.934956,0.037813
0.378401,0.109607,0.609263,-0.822399,-0.000177,-0.568912
0.375472,0.614336,0.683873,0.204737,-0.892779,0.401283
-0.398907,-0.064591,0.767018,-0.418096,0.518414,0.745951
-0.091176,0.163423,0.922894,-0.403182,-0.792534,0.457531
0.664214,0.370038,0.592668,0.042407,0.744419,0.666364
0.072185,-0.246159,0.857133,-0.479685,0.619842,-0.621046
-0.158760,0.178617,0.934726,-0.495645,0.864427,-0.084273
-0.112751,-0.570523,0.556438,0.853100,-0.468989,0.228625
0.369164,0.072225,0.805226,0.400558,0.767352,0.500724
0.522566,-0.386660,0.410516,0.074085,0.340513,0.937317
-0.173097,0.078167,0.206276,0.549734,-0.222102,-0.805272
0.029277,0.365337,0.584966,0.015663,-0.978458,0.205849
-0.294550,-0.264361,0.715413,0.124484,-0.989703,-0.070652
0.142493,0.164025,-0.716230,0.875683,0.481021,0.042406
-0.642984,0.380080,0.756519,-0.487752,0.492788,0.720596
-0.141425,-0.400124,0.799862,-0.030292,0.356958,0.933629
-0.776327,0.132886,0.762270,-0.220297,-0.106040,0.969652
-0.035274,-0.419191,0.181349,0.155239,0.982041,0.107221
-0.010392,0.469886,0.489888,0.812242,0.373958,0.447681
-0.699746,0.182979,0.756935,-0.309931,0.609965,-0.729305
0.146146,-0.105959,0.868793,0.793745,0.557976,-0.242138
0.278937,-0.276922,0.802731,0.007747,0.166738,0.985971
0.126915,0.113857,-0.036273,0.950772,-0.308113,0.033147
0.573469,0.263835,0.818623,0.591717,-0.786857,-0.175290
0.300891,-0.034279,0.595680,-0.419782,-0.884472,-0.203699
-0.272940,0.025780,0.727518,0.542788,0.839636,0.019825
0.039100,0.091142,0.224721,-0.176089,0.935866,-0.305200
-0.466699,0.503244,0.752962,0.270783,-0.917224,0.292192
0.414727,0.153420,0.580032,0.894768,-0.016801,0.446216
0.657562,0.282563,0.615272,-0.179261,-0.954276,-0.239213
0.403904,-0.020703,0.763790,0.943912,0.318172,-0.088299
0.254674,0.215209,0.889174,-0.352011,-0.146211,0.924506
0.093416,0.377974,0.378001,0.835935,-0.527749,0.150642
0.428270,0.151840,0.601231,0.685096,0.635592,0.355903
0.113750,-0.007691,0.605964,-0.229771,-0.013723,0.973148
0.096621,0.618586,0.349588,0.960681,0.272633,-0.052560
0.462701,-0.538030,0.642581,0.879320,0.422087,-0.220544
0.213041,0.303135,-0.991194,-0.062798,0.261032,0.963285
-0.742827,0.441003,0.727446,-0.033554,-0.041035,0.998594
-0.353828,0.626596,0.863013,-0.517119,-0.588742,0.621265
0.209664,-0.564732,0.763905,0.612561,-0.505124,0.607963
-0.551068,-0.040221,0.537563,-0.584372,-0.347549,0.733293
-0.122159,0.742201,0.726141,0.031994,-0.312776,0.949288
0.103134,-0.434572,0.766845,0.454154,0.633840,-0.626093
0.009185,0.093661,0.826855,-0.496881,0.456479,-0.738063
-0.872758,0.354920,0.350621,-0.737611,0.633080,-0.234817
0.123606,0.249770,0.131149,0.941307,-0.333608,-0.051438
-0.462977,0.084071,0.518760,0.073134,0.760275,0.645472
-0.104651,-0.269852,0.525645,0.543619,-0.681041,-0.490572
0.064121,-0.507644,0.746780,-0.139278,-0.089047,-0.986242
0.185367,0.334838,0.879909,0.652557,-0.589101,-0.476581
0.343558,0.070119,-0.972118,-0.048330,0.082155,0.995447
-0.069876,-0.165416,0.646195,0.748877,0.297754,0.592052
0.075942,0.679134,0.670004,-0.535111,-0.713639,0.452080
0.632851,-0.103251,0.507501,0.693689,0.367121,0.619691
-0.367304,0.016904,0.796004,-0.706923,0.085300,0.702128
-0.129535,-0.761832,0.733527,0.725135,0.680924,0.102580
-0.815926,0.405013,0.385617,0.043567,0.909137,0.414212
0.181851,-0.753446,0.748429,-0.583330,-0.148946,-0.798462
0.077596,0.019612,0.193368,-0.186244,-0.514029,0.837310
-0.045614,-0.784246,0.767936,-0.766094,0.176439,-0.618036
0.027968,-0.284030,0.875778,-0.196966,-0.970421,-0.139594
0.143837,0.204528,-0.251570,-0.183502,-0.976738,-0.110954
0.094450,0.212651,-0.439058,-0.803612,-0.594629,0.024960
0.456256,-0.069517,0.738547,-0.491128,-0.730157,-0.475040
-0.471352,0.657547,0.630848,0.962055,0.025565,0.271655
-0.197153,0.346233,0.861206,0.549551,0.532491,0.643775
-0.573331,0.799440,0.679456,-0.585489,0.686738,0.430805
0.493030,0.192719,0.526563,0.454356,0.888138,-0.069082
-0.662974,0.403622,0.721394,-0.284218,0.523466,0.803246
-0.664351,0.577218,0.784559,-0.505654,0.812093,-0.291239
-0.065844,-0.347135,0.226198,-0.200545,-0.202809,0.958462
-0.577467,-0.103665,0.608531,0.007959,-0.973600,0.228124
-0.487688,-0.533631,0.631106,-0.626100,0.648137,0.433494
-0.558443,0.154284,0.599352,0.476225,-0.527909,-0.703223
0.414141,-0.170907,0.800565,-0.719088,0.272799,-0.639135
-0.756234,0.382035,0.613020,0.341402,0.764246,-0.547150
-0.200151,-0.152893,0.633946,-0.107718,0.046735,0.993082
0.144905,-0.136647,0.407877,0.018545,0.551095,0.834237
-0.072772,0.634456,0.928014,0.968524,-0.240523,-0.064104
0.112371,-0.206145,0.513396,0.249887,0.223271,0.942182
-0.419966,0.367556,0.747784,-0.674273,0.428486,0.601461
-0.516396,0.033038,0.636485,-0.124041,-0.467164,0.875427
0.693887,0.049548,0.516652,-0.166825,0.261561,0.950661
0.076355,0.431150,0.896962,-0.278744,-0.149338,0.948683
-0.453844,0.612606,0.824776,0.222670,-0.422867,0.878408
0.163241,0.150411,-0.892444,0.358093,0.918236,0.169153
-0.305682,0.249318,0.805786,0.623871,0.368625,-0.689130
-0.154314,0.617382,0.873799,-0.693667,-0.712134,-0.108126
0.521945,-0.031985,0.719931,0.633972,0.661788,0.400145
0.288001,0.052481,0.401380,-0.569001,0.046628,0.821014
0.026003,-0.900528,0.656450,0.875475,0.387949,0.288164
0.384501,0.217014,0.733384,0.215605,-0.002183,0.976478
-0.120401,0.351310,0.685838,-0.729576,0.657812,-0.187087
-0.863762,0.457814,0.608990,0.498870,0.834270,-0.234781
-0.378643,-0.233072,0.696036,-0.816114,0.453966,0.357593
0.326636,0.342472,0.650412,0.208075,-0.024306,0.977811
0.058296,-0.380568,0.789378,-0.296568,0.677510,0.673073
0.386363,0.606740,0.681277,-0.034450,-0.963298,0.266216
0.698678,0.266355,0.571039,-0.138954,-0.709266,0.691110
0.410039,-0.456535,0.647658,0.307374,0.001814,-0.951587
-0.279730,-0.144243,0.234818,-0.417081,-0.634350,0.650879
0.088901,0.817830,0.735765,0.295418,0.654523,-0.695936
0.596801,-0.092006,0.535713,0.764799,0.017732,0.644025
-0.228413,0.751603,0.904177,0.834534,0.282490,0.473025
-0.341696,-0.654350,0.653295,-0.496523,0.099624,-0.862287
-0.279075,0.044997,0.869037,0.142822,-0.137404,0.980164
-0.086488,0.255749,0.927756,-0.015505,0.008211,0.999846
-0.183678,0.331152,0.452569,-0.226738,-0.971893,-0.063351
-0.223243,0.483312,0.933938,0.970867,-0.234996,0.046838
0.102651,0.102010,-0.055893,0.714543,-0.644671,-0.271713
-0.624339,0.396627,0.651330,-0.268351,-0.233626,0.934562
-0.208044,-0.072827,0.734689,-0.388835,-0.525962,-0.756420
0.082007,-0.471164,0.739680,0.884011,-0.159966,-0.439244
-0.135773,0.639120,0.509882,-0.117804,0.962898,0.242796
-0.169823,-0.362667,0.660839,-0.553749,0.768054,-0.321646
-0.601627,0.518212,0.784100,0.032254,-0.149271,0.988270
-0.787734,0.446870,0.630475,-0.338310,-0.902480,0.266600
0.116989,0.452662,0.664826,-0.350278,-0.877789,0.326790
0.114231,0.250447,0.086400,0.938373,-0.342280,0.047970
-0.164481,0.626935,0.589685,0.798800,-0.135715,0.586088
0.063638,0.471992,0.668598,0.118693,0.938344,-0.324687
0.108201,-0.003779,0.181880,0.439718,-0.521976,0.730883
-0.530286,0.292605,0.483348,-0.691378,0.180053,0.699698
0.325843,0.323367,0.528284,-0.614662,0.536637,0.578110
0.086350,-1.000000,0.641892,0.558139,0.779280,0.284963
0.198324,0.245106,0.759430,0.184445,-0.468123,0.864199
-0.890714,0.373423,0.540575,0.853981,0.302032,-0.423667
-0.283728,-0.112089,0.820702,0.093950,-0.992766,0.074761
0.138908,-0.588086,0.772798,0.908184,0.337137,-0.248075
-0.115335,-0.025366,0.727346,0.352952,0.898398,0.261356
-0.480416,-0.047856,0.548320,-0.219350,-0.121290,0.968078
0.260291,0.165529,0.911233,0.322850,-0.820474,-0.471795
-0.833571,0.375266,0.367588,0.170339,-0.982876,0.070284
0.407799,-0.413700,0.643197,0.497389,-0.281839,-0.820470
-0.212870,0.418176,0.851396,-0.472183,0.246012,-0.846476
0.087074,0.106260,-0.102794,-0.420750,0.896325,0.139893
-0.322466,-0.675786,0.613694,0.378583,0.226671,-0.897383
0.168927,0.134127,0.903029,0.338485,0.924739,-0.174028
-0.465941,0.772249,0.484883,0.894747,0.363762,-0.259045
-0.598249,0.600045,0.710995,0.770982,0.193267,-0.606824
0.238373,0.385156,0.747124,0.860831,0.378486,0.340174
0.264875,-0.005171,0.807292,-0.208431,-0.274711,0.938664
0.136220,0.173389,0.854494,0.939073,0.250480,-0.235374
0.205183,-0.262218,0.660279,-0.273412,0.176237,0.945614
0.141701,0.614111,0.528312,0.806785,0.168683,-0.566254
0.035825,-0.820124,0.690643,0.878793,-0.222536,-0.422138
-0.011046,-0.876873,0.629471,0.923408,-0.019379,-0.383330
-0.371577,-0.565897,0.612676,0.048265,0.961810,-0.269429
-0.491961,-0.022245,0.631494,-0.099703,-0.399680,0.911216
-0.351761,0.862357,0.594992,0.839665,0.187702,-0.509637
0.282383,0.557135,0.557313,0.022069,-0.936299,0.350510
0.186159,-0.257705,0.595967,-0.461908,-0.802419,0.377843
-0.032345,-0.232620,0.621884,0.240143,0.456786,0.856550
0.207803,0.082492,0.900218,0.739712,0.535986,-0.406873
0.710981,-0.117768,0.461347,0.340935,-0.800039,0.493661
-0.136392,0.566537,0.561372,-0.761845,-0.370820,0.531117
-0.225862,0.059852,0.852156,-0.091958,0.912754,0.398024
0.337733,0.096632,0.802430,0.128108,0.875221,0.466451
-0.037170,0.499934,0.492872,0.423731,0.186740,0.886330
-0.551205,0.175081,0.501219,0.400659,-0.452545,-0.796665
0.064293,0.529381,0.918849,-0.150738,-0.316466,0.936551
0.225104,-0.373686,0.796449,0.119111,0.380174,-0.917213
0.122296,0.641677,0.965907,0.646102,-0.762792,-0.026457
-0.015423,-0.254771,0.755816,0.490334,0.036608,-0.870766
0.334079,-0.120551,0.829953,-0.109803,-0.414281,0.903501
0.635781,-0.099491,0.503629,0.778692,0.188816,0.598320
-0.766194,0.072601,0.403617,-0.456688,-0.438325,0.774149
0.103582,0.205355,0.834199,0.378732,0.032428,-0.924938
0.061363,0.021192,-0.977453,0.112611,-0.048317,-0.992464
-0.313402,0.356387,0.786079,-0.301283,-0.440887,-0.845486
-0.005566,0.636900,0.813545,-0.563548,-0.211588,0.798526
-0.271769,-0.650101,0.818364,-0.009234,0.350647,0.936462
-0.111131,0.482898,0.777244,0.392772,-0.887999,0.239143
-0.294928,0.219195,0.747454,0.818982,-0.441824,0.366142
0.168375,-0.014648,0.620120,-0.032957,-0.844525,0.534500
-0.042719,0.631146,0.487479,-0.738656,-0.034001,0.673224
-0.621065,0.354318,0.760104,-0.825153,0.257664,0.502724
0.063293,-0.782291,0.560698,0.862739,0.318235,-0.392947
-0.358240,0.235140,0.593328,0.021827,0.605486,0.795557
-0.082663,-0.331942,0.748243,-0.085920,0.463941,0.881690
0.105375,0.556684,0.849804,0.758410,0.460306,-0.461446
-0.554617,0.956225,0.784358,0.213955,-0.619273,0.755463
-0.565474,0.369925,0.568099,0.334394,-0.226294,-0.914862
-0.131120,0.409451,0.561473,-0.219398,0.731473,0.645610
0.142562,0.216224,-0.110066,0.997868,0.016558,-0.063124
-0.150902,0.603580,0.853619,0.732890,0.090475,0.674304
-0.359067,0.649085,0.775910,0.667009,-0.738755,-0.096646
0.300891,0.373611,0.517312,0.970452,-0.171811,-0.169423
-0.187089,0.389632,0.761338,-0.509284,0.637933,-0.577643
0.572435,0.053572,0.526921,0.730247,0.448593,0.515270
0.206252,-0.191102,0.434024,-0.245751,0.484869,0.839350
-0.153039,-0.649875,0.658071,0.999741,-0.016785,-0.015354
0.547999,0.034806,0.786567,-0.678506,-0.722432,0.133126
0.132636,-0.065569,0.818766,0.146419,0.813254,0.563186
0.140184,0.186251,0.743639,0.670134,-0.073203,-0.738621
-0.075253,0.193509,0.223631,0.136316,-0.606904,0.782997
0.189813,-0.257291,0.213892,-0.017261,0.287831,0.957526
0.500232,-0.019650,0.793408,0.154647,0.198591,0.967805
0.219176,-0.865666,0.593902,0.435357,0.170346,-0.883995
0.699229,0.153495,0.519133,0.271316,0.957748,-0.095427
0.096999,0.218142,-0.430940,-0.468939,0.883209,0.006228
-0.753856,0.574472,0.806905,0.156287,-0.088468,0.983742
-0.741896,0.176022,0.428229,-0.791843,-0.342713,0.505502
-0.834950,0.355484,0.331259,-0.551355,-0.018567,-0.834064
-0.041064,-0.449427,0.224549,0.318411,0.514033,0.796483
-0.219521,0.716365,0.711325,0.501313,-0.459170,0.733381
0.084490,0.203024,0.118284,0.930541,-0.158344,-0.330184
0.201048,-0.861078,0.597387,-0.386869,-0.032006,0.921579
-0.381434,0.120325,0.420570,0.873056,-0.043401,-0.485684
0.030966,-0.331754,0.808956,-0.756274,0.402088,-0.516115
-0.112716,-0.325662,0.797926,0.017326,0.111248,0.993642
-0.103824,-0.466727,0.803032,0.634936,0.337141,0.695120
0.001396,0.100920,-0.161054,-0.248278,0.958362,-0.141066
-0.296135,-0.233448,0.831201,0.448742,0.594259,0.667448
0.175647,0.090352,-0.973824,-0.016922,-0.347414,0.937559
0.590632,-0.264436,0.379751,0.202803,0.517328,0.831410
-0.771191,0.129764,0.746221,-0.361899,-0.780669,0.509494
0.316400,0.030707,0.829537,-0.160753,0.042815,0.986066
-0.107305,-0.280269,0.527940,0.512730,-0.708434,-0.485005
0.062087,0.531713,0.820272,0.306044,0.912176,-0.272530
0.399080,0.275569,0.551935,0.553380,0.809017,-0.198149
-0.412832,-0.062372,0.750911,-0.011882,0.960526,0.277935
0.569747,0.252102,0.790296,-0.601860,0.756783,0.255037
-0.156830,-0.043568,0.811566,0.764210,0.644927,-0.007197
0.045786,0.094451,0.148102,0.488974,-0.861504,-0.136804
0.037687,-0.497114,0.803534,0.587214,-0.174016,-0.790505
-0.153453,-0.204227,0.241717,0.699418,0.589072,-0.404733
0.606589,0.221752,0.551849,-0.080935,-0.713355,0.696113
0.516706,0.090202,0.768366,0.616212,0.752354,-0.232909
0.135048,-0.187943,0.512593,0.224030,0.407869,0.885129
-0.667833,0.594968,0.820559,-0.367491,0.117853,-0.922530
-0.552549,0.869427,0.764422,-0.545347,0.105361,0.831563
-0.192845,0.738478,0.881630,0.761292,-0.329640,0.558365
0.345729,-0.464057,0.734718,-0.131771,-0.779356,0.612568
0.164688,0.367105,0.588724,0.132345,-0.407059,0.903763
-0.754820,0.630470,0.783210,0.685198,0.046020,0.726901
-0.167066,0.316109,0.405855,0.102065,-0.864121,-0.492826
0.204804,0.069668,0.776885,-0.593322,0.346766,0.726445
-0.373197,0.813166,0.732136,-0.367921,0.411771,-0.833714
-0.469215,0.246460,0.707381,0.454031,-0.528467,0.717342
-0.522841,0.196104,0.682740,0.226530,-0.662432,0.714050
0.004429,0.543484,0.842431,-0.421779,-0.462616,-0.779800
-0.627786,0.653786,0.807952,0.658833,-0.196084,0.726285
0.122848,0.780486,0.708471,0.222437,0.788976,-0.572747
-0.289552,0.437393,0.598219,-0.624890,0.604086,-0.494563
-0.088384,-0.113330,0.851094,0.358963,0.871008,0.335395
-0.456050,-0.486734,0.575586,-0.071288,0.940137,0.333259
0.021041,0.376845,0.517355,-0.217310,-0.976024,-0.012384
-0.769055,0.377033,0.317576,-0.069837,0.712145,0.698550
0.093381,0.212463,-0.461060,0.749258,0.655799,-0.092412
0.093691,0.767511,0.688262,0.176850,0.720771,-0.670234
-0.366339,0.531148,0.430911,-0.377188,0.214058,0.901059
-0.232169,-0.282187,0.231118,0.389523,-0.270276,-0.880467
0.445744,-0.657622,0.642624,-0.486575,0.294018,0.822677
0.565646,0.121980,0.678638,-0.558231,0.217096,0.800779
-0.091762,0.435927,0.708442,-0.628907,0.707164,-0.323101
0.178681,-0.775860,0.602335,0.535258,-0.086675,-0.840230
0.305612,0.319268,0.654844,-0.055357,-0.295949,0.953598
0.496855,-0.134240,0.793035,0.101887,-0.608221,0.787202
-0.076528,0.529005,0.827831,0.997123,-0.060492,0.045681
0.192880,-0.725955,0.620306,0.841130,0.217738,-0.495066
0.411969,-0.201745,0.394424,0.069867,0.723530,0.686748
0.325808,-0.490006,0.729397,-0.007986,-0.892043,0.451880
-0.883062,0.164664,0.483104,0.487273,-0.508359,0.710025
-0.257052,-0.389895,0.766343,0.950972,0.299051,-0.078873
-0.636746,0.606551,0.789320,-0.617983,0.687236,-0.381841
0.083559,0.332055,0.429047,0.357157,0.925298,-0.127523
-0.045614,0.176398,0.869998,0.756046,0.651404,0.063775
0.240268,-0.189297,0.848097,0.251778,0.760211,0.598905
0.198221,-0.280006,0.213763,-0.217456,0.349643,0.911297
-0.289483,0.847464,0.657526,0.009643,-0.560781,0.827908
0.098620,-0.070533,0.847925,-0.242002,-0.857329,-0.454337
0.809756,0.065982,0.529216,0.145744,0.974063,0.173088
0.106684,-0.034091,0.173202,0.358974,-0.559478,0.747076
0.313918,0.340291,0.491882,-0.809596,0.586202,-0.030368
0.120539,0.129501,0.032916,0.994138,0.099544,0.042188
0.484689,-0.359659,0.412926,0.112599,0.060369,0.991805
0.273836,0.481507,0.758383,0.898620,-0.324015,0.295797
0.062432,0.045938,-0.026075,-0.672809,0.280154,-0.684720
-0.020214,0.570034,0.719802,0.794883,-0.118961,-0.594987
0.184194,0.565785,0.523422,-0.466735,-0.854183,0.229196
0.027347,0.399823,0.306517,0.426589,-0.581213,0.692974
0.026968,-0.475339,0.175569,-0.688757,0.642055,0.336719
0.345591,0.169628,0.738662,0.442950,0.057732,-0.894686
0.539383,-0.002501,0.609922,-0.683756,0.666584,0.296891
-0.399803,0.660781,0.792246,0.742712,-0.028874,0.668988
0.506367,-0.129952,0.779639,0.911560,-0.283280,-0.298010
0.232169,0.064741,0.386922,-0.567743,-0.140545,0.811119
0.214592,-0.206183,0.846677,-0.072555,0.766527,0.638101
-0.266082,-0.150411,0.864648,-0.491706,-0.411450,0.767420
-0.265014,0.057897,0.796004,0.563860,0.677028,-0.472965
-0.283453,-0.507192,0.494794,0.465649,0.720278,-0.514170
-0.275491,-0.297343,0.681564,0.405641,0.914022,0.004367
-0.145043,0.640624,0.458148,-0.206014,0.947482,0.244615
0.328462,-0.470525,0.749964,0.193072,0.900145,-0.390465
-0.359411,-0.289032,0.725395,-0.597406,0.277226,0.752497
0.265841,0.252177,0.642710,-0.099167,-0.125748,0.987093
0.198877,0.759538,0.740025,0.591434,0.753796,0.286352
-0.441781,0.018710,0.632340,-0.512999,0.001380,-0.858388
-0.054609,-0.699291,0.636528,-0.574649,0.294855,0.763439
-0.222863,0.160114,0.849158,0.742612,0.663420,0.091660
0.058985,0.093736,0.552523,0.851814,-0.506465,-0.133810
-0.537454,0.321186,0.736654,-0.266782,0.407166,-0.873523
0.045613,-0.011451,0.570509,0.893535,0.437905,0.099170
0.002947,0.706098,0.368994,0.984927,0.030418,-0.170276
0.082973,-0.359922,0.203652,-0.125804,0.211881,0.969164
-0.237166,0.691920,0.609736,-0.504805,0.254109,-0.824985
-0.610071,0.626182,0.874745,-0.237220,-0.921584,-0.307263
0.524806,-0.347587,0.439245,0.123914,-0.956342,0.264680
-0.160690,0.586883,0.923338,-0.025282,0.703112,0.710629
-0.579949,-0.139053,0.527022,0.589827,0.284374,-0.755801
-0.467698,0.481507,0.716417,-0.588701,0.707179,-0.391572
0.123572,0.772325,0.749821,0.244223,-0.526307,-0.814467
-0.609002,0.504899,0.773959,-0.319316,-0.379710,0.868249
0.277318,-0.450180,0.781446,-0.311076,0.943325,0.115625
-0.085592,0.502830,0.772124,0.101021,-0.943326,0.316119
0.332012,-0.222542,0.728350,0.736447,0.608525,0.295539
0.310989,-0.160678,0.857950,-0.687394,0.645801,0.332312
-0.138254,0.056769,0.850836,0.797258,-0.408099,0.444787
-0.717634,0.202911,0.764895,-0.003617,-0.206526,0.978434
-0.306405,0.442320,0.916698,-0.634701,0.711830,-0.300755
-0.385949,-0.597300,0.436534,0.220684,-0.294878,0.929702
0.390671,0.495986,0.502668,0.461127,-0.681047,0.568803
-0.312954,0.213855,0.645836,0.415246,-0.779091,0.469668
-0.370199,-0.458190,0.726112,0.857354,-0.020803,-0.514307
-0.180714,0.519716,0.880353,0.983751,-0.176902,-0.030650
0.326980,0.101408,0.633057,-0.389639,0.403823,-0.827713
-0.006635,-0.494857,0.236783,-0.861687,0.385985,-0.329412
0.041753,-0.156315,0.600628,-0.309752,0.940899,0.136973
-0.781462,0.616217,0.676458,0.045527,0.865859,0.498213
-0.421206,0.006450,0.558977,0.261293,-0.166614,-0.950771
-0.651049,0.394257,0.729626,0.142022,-0.770473,-0.621451
-0.697265,0.291213,0.525430,-0.535782,0.685994,-0.492290
0.393773,-0.032173,0.745661,0.443585,0.852262,0.277277
-0.142286,0.635095,0.908293,0.186436,0.611763,-0.768757
0.363754,-0.451684,0.639769,-0.426268,0.353962,0.832470
-0.465906,-0.181851,0.821161,0.010977,-0.976514,0.215174
-0.224656,0.493391,0.571771,-0.225649,0.081759,0.970772
-0.364753,0.567966,0.547216,-0.591427,-0.783365,-0.191188
0.020179,0.354130,0.876481,0.022519,0.843449,0.536737
0.009598,-0.559090,0.691346,0.996374,0.002327,-0.085046
0.193706,0.514187,0.813287,0.844998,0.454787,0.281332
0.436715,-0.471315,0.654069,-0.647363,-0.023795,0.761811
-0.020110,-0.517873,0.806919,0.249678,0.836094,-0.488475
-0.866829,0.414302,0.311925,0.782747,0.235752,0.575959
-0.088866,0.330513,0.420757,0.547334,0.778128,0.308128
-0.352932,0.025630,0.869941,-0.625248,0.265222,0.733977
0.165032,0.183806,-0.089269,0.971487,-0.054281,0.230798
0.178714,-0.717418,0.590760,-0.154092,-0.438144,0.885599
0.171718,0.184145,0.672758,-0.615010,0.232841,-0.753357
0.079285,-0.685038,0.613780,0.128029,-0.850042,0.510918
0.641881,0.151163,0.609478,0.354955,0.799579,-0.484438
-0.368717,-0.515203,0.731519,-0.667510,0.538845,0.513884
-0.541935,0.847126,0.666117,0.299694,-0.835197,-0.461117
0.387707,0.524642,0.536373,0.842109,-0.279898,0.460988
-0.085661,0.392941,0.858553,-0.608479,0.277942,0.743305
-0.044959,-0.387450,0.233169,-0.490832,-0.283079,0.823984
0.179162,-0.181174,0.831015,0.043734,0.956993,0.286794
0.096621,-0.284857,0.733757,-0.692420,-0.003446,0.721486
0.263635,0.100732,0.816270,-0.591257,0.190313,0.783707
0.662043,0.135180,0.479088,0.045326,0.992969,0.109355
0.180231,0.658562,0.919437,0.767444,-0.459267,-0.447328
-0.480692,0.247927,0.513540,-0.419083,0.907615,-0.024588
-0.252400,0.375153,0.772955,-0.278499,0.664618,-0.693341
-0.292378,-0.115511,0.869008,0.592912,0.321058,0.738497
0.076597,0.331603,0.432059,0.279927,0.920634,-0.272165
0.508918,0.156353,0.575586,-0.623744,0.781539,0.011822
0.166135,0.171057,0.908207,0.171818,-0.968128,-0.182227
0.563268,-0.052105,0.549038,0.792762,0.144432,0.592172
0.280832,-0.272485,0.797467,0.455321,0.539653,0.708137
-0.121573,0.115511,0.484524,0.212153,-0.915474,0.341903
0.027037,0.527576,0.342259,0.108988,-0.459783,0.881318
0.201323,0.299788,0.820774,0.951386,-0.288596,0.107597
0.084558,0.141235,0.133659,0.963633,-0.267053,0.009698
-0.502645,-0.173050,0.827271,-0.168981,0.912471,0.372616
-0.070221,0.486960,0.780012,0.022929,-0.996283,0.083027
-0.277352,-0.585378,0.790669,0.016487,0.486370,0.873598
-0.391980,-0.606250,0.591004,-0.230761,0.206948,0.950748
-0.245542,0.404261,0.553025,-0.622885,-0.781088,0.043781
-0.073599,-0.755439,0.634649,0.618043,-0.442082,-0.650066
0.738691,-0.193321,0.434181,0.135356,-0.562097,0.815920
0.297341,0.221226,0.732222,-0.101910,-0.740566,0.664211
-0.141080,0.057784,0.580821,0.680334,0.091421,-0.727178
-0.017594,-0.500084,0.216861,-0.819288,0.555490,0.142116
-0.412384,0.039507,0.518057,-0.000741,0.899878,0.436140
-0.454016,-0.614562,0.644603,-0.422680,-0.347047,-0.837198
-0.001361,-0.234651,0.888271,0.997301,0.059122,-0.043527
0.153349,-0.214644,0.009925,0.385228,-0.279174,-0.879580
0.470214,-0.073842,0.805284,0.387948,0.831628,0.397355
-0.240958,0.716064,0.906113,0.592385,-0.252744,-0.764984
-0.036894,-0.126643,0.535914,-0.633368,-0.085942,0.769064
0.723699,0.308888,0.427154,-0.499863,-0.148749,-0.853235
-0.089521,0.809594,0.729755,0.054077,-0.469509,0.881270
0.100343,0.055114,0.093701,0.743245,0.542308,0.391776
-0.395427,0.223219,0.690456,-0.354532,0.704387,-0.614936
-0.786149,0.180572,0.716919,-0.129387,-0.751535,0.646881
-0.110303,0.487223,0.821591,-0.597530,0.777805,-0.194878
-0.763678,0.653410,0.669459,-0.584963,0.796393,0.153548
0.924523,0.015400,0.516953,0.099993,0.030110,0.994532
0.043511,-0.474135,0.427426,0.300379,-0.597121,0.743787
0.161517,-0.660856,0.712171,0.434910,-0.844509,0.312502
-0.057194,-0.952953,0.613623,0.221324,-0.974932,-0.022882
-0.136083,-0.302194,0.253765,-0.206667,0.436450,-0.875671
-0.458496,0.759689,0.745475,0.655352,0.024767,0.754917
0.259878,0.105320,0.807464,-0.420602,0.515437,0.746604
0.407868,-0.469134,0.609449,0.900867,-0.032519,-0.432875
0.008427,0.559316,0.825048,0.274933,-0.754007,0.596561
0.432751,-0.603016,0.649436,0.838222,-0.059527,-0.542071
0.393324,-0.565860,0.670118,0.165133,-0.562674,0.810018
-0.130569,-0.911359,0.605792,0.808742,-0.279576,0.517469
0.219727,-0.362968,0.790238,0.119111,0.380174,-0.917213
-0.045097,0.031459,0.896231,0.768005,-0.453200,0.452525
0.001671,0.301668,0.288603,0.527931,-0.687311,0.498892
-0.735865,0.657697,0.669932,-0.663410,0.714325,0.222770
-0.187986,-0.385420,0.726815,0.790398,-0.311691,0.527371
-0.278696,0.341306,0.863730,-0.111216,-0.982881,-0.146887
0.180921,-0.750287,0.600184,-0.714545,-0.051988,0.697655
-0.733419,0.189109,0.748602,-0.168347,-0.341062,0.924844
0.107822,0.588199,0.918849,0.911235,-0.397735,-0.107043
0.371509,0.049849,0.816686,-0.458908,-0.695694,-0.552643
-0.096207,0.095241,0.239164,-0.425084,-0.136281,0.894836
-0.747239,0.157519,0.434411,0.459674,0.371387,-0.806704
0.346142,0.094376,0.734015,-0.627413,0.368554,0.685945
0.084042,-0.047705,0.416927,-0.582452,-0.554598,-0.594281
-0.308508,-0.123258,0.797223,-0.035824,-0.999028,0.025680
0.110613,0.188733,-0.009796,0.987502,-0.124881,0.096145
0.073013,-0.321299,0.453085,0.018850,-0.338106,0.940919
0.131120,0.066095,0.723244,0.299339,-0.903655,-0.306273
0.180403,-0.136910,0.844654,0.959440,0.224118,0.171015
-0.175717,0.108968,0.807277,-0.487589,-0.743311,-0.457980
-0.019593,0.138302,0.618227,-0.472640,0.388254,-0.791120
0.247816,0.427013,0.299791,0.215669,-0.719484,0.660174
0.079629,0.143190,-0.612705,0.923372,-0.376783,0.073616
0.064948,-0.128298,0.649910,0.981256,-0.040276,-0.188451
0.079699,-0.301517,0.822509,0.388228,0.909021,-0.151526
0.467836,-0.006299,0.680904,0.841276,-0.506969,-0.187715
-0.830987,0.464282,0.724621,-0.712375,0.141730,0.687339
0.227171,0.392264,0.747741,0.860831,0.378486,0.340174
0.132670,0.075873,-0.976966,0.180327,0.182941,-0.966445
0.497199,-0.546530,0.676042,0.587142,-0.041735,-0.808407
0.172063,0.163273,0.882620,-0.638542,-0.432127,-0.636812
0.548827,-0.279856,0.629385,-0.261214,0.561559,0.785123
-0.213937,0.057182,0.811150,-0.679631,0.566997,-0.465421
-0.209043,0.472782,0.577106,-0.012506,-0.030459,0.999458
0.090245,0.228973,0.174421,0.962966,-0.261965,0.063796
0.049473,0.163047,0.372996,0.987087,-0.107036,0.119173
-0.350865,0.399823,0.476722,0.027254,0.451085,0.892065
-0.606073,0.632425,0.855053,-0.487099,-0.265460,-0.832025
-0.463597,0.839755,0.787901,0.687420,0.419757,-0.592671
-0.389395,0.360486,0.848756,0.208828,0.800980,-0.561090
0.462218,-0.529381,0.658128,0.963478,0.253179,0.087234
-0.409109,0.020966,0.570953,-0.264190,-0.796688,0.543592
-0.016802,0.343976,0.893721,0.112367,0.817859,0.564341
-0.134910,-0.560971,0.206004,-0.575296,-0.155538,0.803021
-0.434268,-0.027246,0.628195,-0.276754,-0.011813,-0.960868
-0.438576,-0.210056,0.831144,-0.452410,-0.217431,-0.864898
0.285141,0.315545,0.663291,0.126644,-0.489752,0.862615
0.081732,0.422914,0.657081,-0.170994,-0.794886,0.582166
0.171580,0.685452,0.929707,-0.668637,0.611106,0.423644
0.548862,0.110021,0.512062,0.748329,0.160336,0.643658
0.117885,0.406480,0.642322,0.651087,0.480428,-0.587601
0.543382,0.169967,0.680187,-0.548155,0.639179,0.539422
-0.592218,0.541039,0.781633,-0.224951,-0.275909,0.934490
0.092795,0.135894,0.147400,0.850024,-0.276286,0.448469
-0.329117,0.713469,0.634491,-0.211431,0.745027,-0.632638
0.698472,0.265678,0.611141,0.141984,-0.640852,-0.754420
0.427581,0.038943,0.619604,0.994948,0.011686,-0.099706
-0.242130,-0.187868,0.217134,0.222664,0.578579,-0.784645
-0.007599,-0.004043,0.616620,-0.673440,-0.662197,-0.328593
-0.396839,0.585040,0.808597,0.295008,0.955488,-0.003733
0.094105,-0.314680,0.783827,0.849075,-0.265146,0.456913
0.096690,0.118934,0.293896,0.841650,-0.086404,0.533067
-0.160897,-0.552246,0.781202,0.141789,0.323697,0.935476
0.346211,0.046915,0.425002,0.034428,0.999307,-0.014175
-0.340939,0.325135,0.535010,-0.256554,0.961746,-0.096049
-0.220382,0.475828,0.944207,0.972097,-0.061364,0.226410
-0.044408,-0.042966,0.449141,0.838702,-0.333098,0.430842
0.386224,0.099415,0.751972,-0.549398,0.540477,0.637218
-0.367683,0.033677,0.575586,0.149257,0.906963,-0.393879
-0.177577,-0.317049,0.239781,0.656941,0.740319,0.142679
-0.183264,0.619488,0.510484,-0.566379,0.700524,0.434143
0.536489,-0.408887,0.674321,0.222871,0.275830,0.935012
0.089004,0.272259,0.631393,0.456683,-0.090853,-0.884978
-0.094347,-0.491811,0.248214,0.072309,0.219994,0.972817
0.043373,0.575149,0.960888,0.922494,-0.373590,0.097134
0.042408,-0.253981,0.762801,-0.256120,0.473873,0.842524
0.158415,0.743894,0.872608,-0.253926,0.944595,-0.207997
-0.370991,0.241270,0.596498,-0.054641,-0.662370,-0.747182
0.023315,0.633177,0.909469,0.720080,0.048064,-0.692224
-0.340939,-0.458115,0.714107,0.943600,0.051399,-0.327075
0.672933,0.149057,0.637589,-0.203454,0.303765,0.930770
0.564715,0.043455,0.774533,0.741880,0.644585,-0.184726
0.068222,0.234539,0.047388,0.984895,-0.045210,0.167145
0.201013,-0.547094,0.772669,-0.247196,0.552555,-0.795976
-0.528804,0.983829,0.802889,-0.136907,-0.689318,0.711405
0.012011,0.155112,0.384269,0.985410,-0.166789,-0.033895
-0.164515,0.342096,0.885101,-0.715250,0.380996,0.585883
0.173028,0.120889,0.710005,0.385886,-0.705973,-0.593880
-0.326498,0.239202,0.584808,0.135269,0.581679,0.802092
0.418310,-0.529870,0.651860,0.523748,-0.248655,-0.814775
-0.006875,0.050488,-0.985858,-0.177587,0.098609,0.979152
0.051575,0.582069,0.986274,0.908107,-0.414949,0.056200
-0.654185,0.553938,0.791945,-0.364576,0.646055,-0.670594
-0.547656,-0.591245,0.612834,0.779599,-0.599461,0.181306
0.136392,0.635358,0.911936,0.669488,-0.297457,-0.680665
0.279971,-0.438070,0.815352,-0.543230,0.839580,-0.002335
0.313297,0.095467,-0.975445,-0.032614,0.095857,0.994861
-0.653324,0.602791,0.883939,0.202804,0.938383,0.279835
0.181816,-0.539460,0.785362,-0.265886,0.098249,0.958985
-0.130396,0.217691,0.518187,-0.106674,-0.994294,0.000152
-0.376506,-0.359395,0.681492,0.973726,-0.174458,0.146360
-0.321362,0.395950,0.846347,0.525408,-0.786089,0.325593
