0.072776,0.063123,0.623462,-0.273637,0.185238,0.943827
-0.410240,-0.435332,-0.644262,-0.273889,0.728455,-0.627963
-0.212018,-0.589730,0.002964,-0.058764,0.337131,0.939622
0.264929,-0.325233,0.591695,-0.230415,-0.484169,-0.844091
0.213060,0.241650,-0.235660,-0.685267,0.719069,0.115539
0.284487,-0.487090,0.625685,-0.295756,0.512999,0.805829
0.111342,-0.638515,0.660170,0.074503,0.686198,0.723590
-0.233047,-0.031125,-0.431451,-0.405305,0.157436,0.900523
0.070140,-0.771289,0.269181,0.165536,-0.054166,0.984715
-0.029982,-0.592587,-0.713058,0.621677,-0.003484,0.783266
0.333659,-0.132366,0.722543,-0.369478,-0.739797,0.562305
0.643408,0.219268,-0.165209,-0.132054,-0.001416,0.991242
0.069895,-0.214840,0.661627,0.049972,-0.873906,-0.483519
0.157877,-0.757941,0.255644,0.426781,0.849462,0.310278
0.287861,0.394999,-0.985772,0.024175,-0.065946,0.997530
0.281299,0.318295,-0.889828,0.573697,0.814091,0.090151
0.061619,-0.450080,0.050319,0.785699,0.146251,0.601072
0.222685,-0.679431,0.231362,0.496869,-0.126304,0.858585
0.080012,-0.594976,-0.198557,0.011436,0.323873,0.946031
0.303372,0.488080,-0.308705,-0.108399,-0.151699,0.982465
0.435438,-0.315091,0.378143,0.541900,-0.376411,-0.751438
0.231514,-0.117620,0.472333,0.960389,-0.003718,-0.278639
-0.255611,-0.055313,0.664122,-0.671270,0.625675,-0.397400
0.459410,-0.426065,0.620276,0.957717,-0.137480,0.252742
0.449172,-0.297547,0.220592,0.766263,-0.104479,-0.633976
0.493010,-0.519030,0.584358,0.806761,-0.391049,0.442964
0.340895,0.037710,0.198409,-0.278317,0.772332,0.571002
0.624830,-0.158654,-0.195939,-0.402687,-0.309480,0.861432
0.202698,-0.075596,0.678351,-0.644295,-0.144874,0.750930
-0.121460,0.698490,-0.305395,-0.210652,-0.591801,0.778073
0.496688,-0.808592,0.453510,-0.530847,-0.132336,-0.837072
-0.215513,0.050592,0.766662,0.805539,-0.585569,-0.090641
0.058982,-0.480738,0.061953,0.298481,-0.004963,0.954403
-0.136298,0.932505,-0.297638,-0.122068,-0.225855,0.966483
-0.166217,0.219094,0.254360,-0.116126,0.078542,-0.990124
-0.300676,-0.140642,0.207351,-0.327520,0.648928,-0.686748
0.022623,-0.129453,0.897955,-0.067117,0.415827,0.906964
-0.027653,-0.253774,0.690529,0.789821,0.420301,0.446688
0.229797,-0.609489,0.651376,0.417196,-0.399106,-0.816494
-0.312018,-0.725010,0.392125,-0.460067,-0.655009,0.599417
-0.170816,-0.537741,0.290228,0.313043,-0.882887,0.350021
0.261557,-0.037128,0.680278,-0.348974,0.741985,0.572430
0.461556,-0.396748,0.635517,0.857761,-0.161520,-0.488014
0.359840,-0.590721,0.403834,0.088023,-0.992991,0.078865
-0.339793,-0.195489,-0.640334,0.141250,-0.032006,0.989456
0.168118,0.099900,-0.629440,-0.848327,0.509861,0.142769
0.346168,0.089002,0.303073,0.595524,0.173024,-0.784483
0.132679,-0.171242,0.023195,-0.760512,0.360265,0.540214
0.556530,-0.312643,0.693543,-0.592597,-0.598927,0.538623
0.592030,0.202249,-0.657107,-0.369951,0.285462,-0.884109
0.090312,-0.301743,-0.024011,0.886625,0.076600,0.456101
0.190618,0.107303,0.331678,0.277686,-0.956398,-0.090519
-0.380626,-0.136912,0.008127,-0.492557,0.305818,-0.814778
-0.504537,-0.217930,0.022726,0.332752,-0.326814,0.884573
0.625751,0.158768,0.425399,0.562987,0.331725,-0.756970
0.675659,-0.043190,0.396522,-0.038230,0.292417,0.955526
-0.145801,-0.596666,0.004422,0.128665,0.649899,0.749050
0.480625,-0.414758,0.650141,0.712451,-0.166830,-0.681602
0.121949,0.082415,0.306877,0.394808,-0.910805,-0.120666
-0.462784,-0.418605,0.384813,0.796417,-0.589451,0.135159
-0.112692,-0.443959,0.481424,0.927868,-0.301232,0.219819
0.013427,-0.111617,0.258559,-0.521622,0.851363,0.055611
-0.538810,-0.072857,0.247517,0.197343,-0.161537,0.966934
-0.667628,-0.392785,-0.254434,-0.320000,0.618482,-0.717691
-0.138687,-0.545316,0.326491,0.190243,0.627794,0.754773
0.232433,0.221716,-0.382664,0.828856,-0.431035,0.356661
0.363397,-0.106663,0.684502,-0.558595,0.005647,0.829421
0.092520,-0.592353,0.634035,0.048601,0.744598,0.665741
-0.392889,0.383983,0.857591,-0.207464,0.397305,-0.893928
0.194910,0.137552,0.104516,0.917937,0.364557,0.156495
0.085161,-0.012124,0.135591,-0.854542,-0.007481,-0.519329
-0.451565,-0.441745,0.437824,0.978213,0.097273,-0.183404
-0.955550,-0.497348,-0.276049,0.420756,0.297627,0.856961
0.112384,0.017251,0.008102,-0.011419,-0.971032,0.238677
-0.143532,0.150843,0.757423,0.488618,-0.707645,0.510383
0.443899,-0.316898,0.218912,-0.564063,0.088410,0.820985
0.104660,0.107652,0.767304,0.260722,0.778773,-0.570557
-0.019989,-0.122748,0.685860,0.914757,-0.385161,0.121942
-0.450889,0.096054,0.256929,-0.567109,0.349315,-0.745899
-0.282405,-0.365857,0.007040,0.236463,-0.971511,-0.015871
-0.252055,-0.012532,0.536955,0.715004,-0.454363,0.531341
0.134028,0.323658,-0.570896,0.604613,0.743621,0.285430
0.581483,-0.719066,0.455684,-0.464301,-0.035245,0.884976
0.246352,-0.116804,-0.664369,-0.774036,-0.450142,0.445242
0.171918,-0.035438,0.784176,0.968040,0.161164,0.192156
0.206560,-0.012473,0.634232,0.809749,0.132169,-0.571697
0.198834,-0.163433,0.853095,0.786157,0.473630,-0.397030
0.003310,-0.136272,0.255323,-0.017024,0.682912,0.730302
0.091906,0.283733,0.867521,0.306038,-0.615885,0.725966
0.074311,-0.285715,0.680154,-0.511682,0.070263,-0.856297
-0.238812,0.155738,0.584358,0.102247,-0.676940,0.728902
0.125075,-0.751064,0.268391,0.068566,0.701196,0.709664
0.513365,-0.252492,0.617361,0.002361,0.623799,0.781581
0.104108,-0.133182,0.271874,0.847349,0.287789,-0.446293
0.403004,-0.049835,0.566647,0.492059,0.110856,-0.863475
-0.448377,0.386664,0.445605,-0.371343,-0.484979,-0.791770
0.165541,-0.170776,0.037671,0.974605,-0.165577,-0.150762
0.198282,0.109517,0.296922,-0.679129,-0.714494,-0.168174
0.290374,0.107886,0.079813,0.402235,0.902625,0.153212
0.583322,-0.230169,-0.231831,-0.375449,-0.281688,0.883000
0.075046,-0.167220,0.614248,0.768108,-0.573539,-0.284715
0.297609,0.158477,-0.170001,0.476300,0.466424,0.745377
0.500735,0.452409,0.318957,0.916231,0.306819,0.257649
0.324587,0.020224,-0.624030,0.407974,0.201714,-0.890432
0.469466,0.486740,-0.315696,-0.716119,-0.648104,0.259104
0.578846,-0.402109,0.676523,0.703332,-0.432524,-0.564133
0.190251,0.143964,-0.273134,-0.760270,-0.281096,0.585640
0.006622,0.045695,0.620078,-0.419047,-0.298654,-0.857441
-0.287554,-0.392494,0.332123,0.094030,-0.088762,0.991605
0.488717,-0.422335,0.401611,-0.262347,0.472424,0.841421
-0.214409,-0.135164,0.637790,0.769527,0.360685,-0.527005
0.412998,-0.529580,0.203992,0.961455,-0.268624,-0.058705
0.538320,-0.433002,-0.706240,-0.359470,-0.234060,0.903326
-0.287616,0.252199,0.266563,0.348271,0.080050,0.933970
0.054015,0.388761,0.888914,0.779716,0.464491,0.419871
-0.205089,-0.163782,-0.426906,0.275786,0.075633,-0.958239
-0.212877,0.902896,-0.297342,0.022261,-0.181961,0.983054
0.320478,-0.085329,0.743664,0.951299,-0.228685,0.206720
-0.389761,-0.570496,0.338101,0.877061,0.147613,0.457137
0.206928,-0.566825,0.645027,-0.068268,0.249699,0.965914
-0.405150,-0.421636,0.010424,-0.633689,0.114809,-0.765021
-0.086512,-0.230343,0.664888,0.572164,-0.258222,-0.778428
-0.635746,0.083288,0.274171,0.427385,0.425327,-0.797771
-0.059106,-0.321501,-0.264315,0.286776,0.223338,-0.931601
-0.435440,0.203647,0.608517,0.003483,-0.534753,0.845001
0.496505,-0.121000,0.378168,0.927347,0.328258,-0.179651
-0.470572,-0.329370,0.012796,0.097456,-0.006557,0.995218
0.239914,0.265488,-0.372808,0.908635,-0.266432,0.321554
0.265297,0.191349,-0.453214,0.980184,0.012653,0.197683
-0.217781,-0.615435,-0.697396,0.168515,-0.438287,0.882897
0.034518,0.125312,-0.070649,-0.539204,0.842171,0.002558
0.528082,-0.625809,0.536955,-0.666029,0.120705,0.736095
-0.277989,-0.098095,-0.024776,-0.478160,0.031783,-0.877698
0.115634,-0.139826,0.005756,0.887427,-0.156379,-0.433611
-0.174371,0.027276,0.448422,-0.172000,0.960398,0.219205
0.714837,-0.702221,0.274221,-0.604909,-0.294068,0.740006
0.570815,0.216529,-0.639618,0.357844,-0.278732,0.891211
0.319436,-0.593286,-0.467714,0.353168,-0.089290,0.931289
-0.144022,-0.215598,0.651845,0.627240,0.000977,-0.778826
0.613059,-0.546775,0.699941,-0.637894,-0.117269,0.761143
-0.115695,-0.165589,0.682624,-0.442222,-0.351482,-0.825167
0.746719,-0.617241,0.613655,-0.587319,0.188942,0.786993
0.168730,-0.844087,0.258831,-0.355300,0.887072,0.294730
-0.133967,-0.096813,-0.640828,0.073430,0.366926,-0.927348
0.225200,0.213149,-0.101205,-0.034506,0.974862,0.220120
-0.303434,-0.224458,-0.259943,0.105040,-0.295710,0.949485
-0.145309,-0.684153,-0.190504,-0.389617,0.565714,0.726750
-0.048375,0.166113,0.557161,0.000632,-0.998619,0.052537
-0.612937,-0.159411,0.250432,-0.329429,0.399203,-0.855637
0.193561,-0.054148,-0.276666,-0.128020,-0.053154,-0.990346
-0.325812,-0.371044,0.330270,-0.200466,0.557876,-0.805350
-0.215206,0.066620,0.724791,0.500834,0.822330,-0.270072
0.529921,-0.181092,0.601378,-0.416415,-0.149394,0.896817
0.046965,0.099608,0.600291,0.906361,-0.275505,0.320324
-0.117537,0.566240,0.617830,0.567141,0.820708,-0.069209
0.353280,-0.167337,-0.623882,0.748387,0.277758,-0.602301
-0.463336,-0.649881,0.363470,-0.394418,-0.918554,0.026339
0.120171,0.075362,0.764315,-0.053282,-0.747069,0.662608
-0.411527,-0.103223,0.024752,-0.398175,0.085923,-0.913276
0.423912,-0.225448,0.374512,0.847645,0.346885,-0.401459
0.065481,-0.490005,0.624129,0.125911,0.018444,0.991870
0.657756,-0.622720,0.256386,-0.674833,-0.236588,0.699018
0.038565,-0.262983,0.656959,-0.173598,0.853478,0.491364
0.224096,-0.586175,0.642681,-0.247868,0.460374,0.852418
0.237829,0.095005,0.417346,0.223142,0.957425,0.183151
-0.193440,-0.248937,-0.022701,-0.111148,0.297318,0.948287
0.068055,-0.777817,0.246554,-0.660525,-0.108710,-0.742892
0.471735,-0.104447,0.576454,-0.629978,-0.172388,0.757238
-0.280135,0.165821,0.821130,0.320015,-0.761415,-0.563771
0.171121,-0.104214,0.060694,0.409406,-0.177187,-0.894981
-0.126243,-0.325057,-0.260190,0.194681,0.449358,-0.871881
0.741753,-0.666375,0.548886,-0.839540,0.437914,0.321565
-0.428573,-0.437723,0.463786,0.913253,-0.062084,-0.402635
-0.199203,-0.567174,-0.703498,0.084692,-0.393538,0.915399
0.416615,-0.270502,0.618695,0.746914,0.659862,-0.081867
0.051930,-0.297081,0.207673,0.979611,-0.103905,-0.171945
0.339915,-0.117620,0.532237,-0.736766,-0.675614,-0.026865
-0.463519,-0.536574,0.023418,-0.494314,0.117401,-0.861319
-0.285286,-0.188495,0.434860,-0.105488,0.247752,0.963064
0.034642,-0.232675,0.636752,-0.698795,0.714147,0.040986
-0.262968,-0.137378,0.440739,0.230483,0.585968,0.776865
-0.027775,0.223349,0.241243,0.292639,0.113393,0.949476
0.247271,-0.474210,0.569438,0.617395,-0.782673,0.079037
-0.037156,-0.810340,0.280791,-0.240669,0.134575,0.961232
-0.645188,0.186045,-0.028951,-0.013069,0.332498,0.943014
0.270263,-0.157604,0.685515,0.477351,-0.441261,-0.759885
0.317044,-0.396049,0.594906,0.885644,0.088209,0.455911
0.218209,-0.579181,0.646732,0.408942,-0.435445,-0.801969
0.690251,-0.391444,0.666370,0.942656,0.330297,-0.047994
0.400613,0.250858,-0.308359,-0.124604,-0.185358,-0.974739
-0.059044,-0.176254,0.672348,-0.172944,-0.442131,-0.880120
0.038994,-0.184765,-0.010746,0.094407,-0.929635,0.356183
0.285591,-0.174564,0.690850,-0.658942,-0.420833,-0.623454
0.033659,-0.094481,-0.649820,-0.423243,0.561267,-0.711228
0.450092,-0.460453,0.631861,-0.161006,0.342545,0.925603
-0.010852,0.141983,0.858999,0.995619,-0.093351,-0.005300
0.594174,-0.239554,0.597574,0.827911,0.056571,-0.558000
-0.203863,-0.513726,0.320019,0.756988,-0.401481,0.515541
-0.247211,-0.441978,-0.009906,0.898604,0.162066,-0.407732
0.592335,-0.600921,0.705153,-0.590639,0.366932,0.718684
-0.344636,-0.401761,0.333630,0.239951,0.012517,0.970704
-0.054507,-0.843796,0.287758,0.084918,0.178720,0.980229
0.071427,-0.806726,-0.187170,-0.058653,-0.126238,0.990265
-0.193625,-0.619981,0.003508,0.436828,0.046676,-0.898333
-0.112262,0.420701,-0.577368,0.258183,0.333010,-0.906888
0.274494,-0.053739,0.493306,-0.726445,-0.685752,-0.044976
0.068301,-0.521769,0.060792,0.169221,0.072144,0.982934
-0.436175,0.181849,0.612346,-0.013657,0.502784,-0.864304
0.425261,-0.421460,0.398893,0.987988,-0.146814,0.048219
0.677805,-0.422976,0.678647,0.852309,-0.071602,0.518115
-0.194972,-0.387072,0.320562,0.823437,0.146004,0.548301
-0.252484,0.080200,0.239069,-0.585030,0.753263,-0.300558
0.314408,0.283674,-0.602564,0.018394,0.698620,0.715256
0.179951,0.135570,0.228052,0.661047,-0.738874,-0.130702
-0.212325,0.262516,0.818240,0.322194,0.076739,0.943558
0.187308,0.196771,0.667507,0.059745,-0.844769,0.531785
0.200490,-0.531328,0.644336,-0.107214,0.525654,0.843916
0.119926,-0.402286,0.537869,-0.060263,-0.904612,0.421953
0.237523,0.279535,0.714441,-0.419002,0.901422,-0.108972
0.135316,-0.391503,0.529445,0.153968,-0.862722,0.481669
-0.069528,-0.748791,0.283138,0.531105,0.743146,0.407016
-0.119129,-0.390804,0.292327,0.813287,0.057219,0.579042
0.171551,-0.129918,0.061410,0.686466,0.013219,-0.727041
-0.134335,-0.359970,-0.266711,0.300438,0.537290,-0.788071
-0.540711,-0.138078,0.050961,-0.404766,0.406650,-0.819024
-0.180013,0.083173,-0.025394,-0.046209,-0.742763,0.667958
-0.041815,0.265022,-0.596537,0.146345,0.201357,-0.968524
-0.078724,-0.431195,0.472160,-0.767337,0.135827,-0.626693
0.757143,-0.691088,0.621041,0.401022,-0.634544,-0.660708
-0.031884,-0.267647,0.679759,0.645071,0.456737,0.612597
0.251256,-0.321211,0.601156,0.540877,0.700059,-0.466230
0.247088,0.276038,0.815103,0.969748,0.232794,-0.073461
0.050950,-0.182375,-0.011462,-0.539598,-0.233927,0.808772
-0.517353,-0.195605,0.046070,0.320800,-0.471406,0.821501
-0.188045,-0.069186,-0.034509,-0.328236,0.183642,-0.926572
0.746719,-0.466108,0.592214,0.362065,0.011195,-0.932086
0.216308,-0.228479,0.710612,-0.030248,0.882224,0.469857
0.416493,-0.069944,0.817351,0.470071,0.805270,0.361350
0.489331,-0.238853,0.716936,-0.291974,-0.329953,0.897710
0.379032,-0.229061,0.349587,-0.634866,-0.725011,0.267028
0.411649,-0.453925,0.412677,0.691490,-0.417926,-0.589220
0.674003,0.408928,-0.620078,-0.222400,0.329343,-0.917644
-0.224893,-0.189545,-0.412307,0.009586,-0.081524,0.996625
0.037768,-0.383401,-0.427227,-0.284574,0.056511,-0.956987
-0.260270,0.034329,0.243392,-0.164777,-0.694299,0.700569
0.100367,-0.123216,0.272615,0.955786,0.107549,-0.273689
-0.301411,0.213672,0.009930,-0.152239,-0.004138,0.988335
0.686142,-0.711547,0.257176,0.685472,0.118713,-0.718356
-0.507849,0.429561,0.269774,0.403383,0.548105,0.732709
0.274984,-0.396049,0.450669,0.829848,0.552146,-0.080544
-0.516556,-0.495950,-0.276617,0.208613,-0.170306,0.963056
0.214959,0.059683,0.724841,0.978166,-0.110053,0.176292
-0.511895,-0.264849,0.424806,0.647683,0.501646,-0.573461
-0.221276,0.266305,0.816289,0.294345,0.105572,0.949850
0.295156,0.312640,-0.852132,0.841382,0.540317,-0.011571
0.406376,-0.494900,0.638135,0.026106,0.868749,0.494564
0.139853,0.092148,0.751544,0.088801,-0.680858,0.727012
0.110668,-0.118611,0.635764,0.784499,0.281726,-0.552441
-0.066033,0.232498,0.026432,-0.144382,-0.206416,0.967753
0.205763,0.000583,0.059631,-0.158188,-0.111480,-0.981096
0.258614,-0.278371,0.586853,-0.659810,-0.241390,0.711605
0.012447,-0.306989,0.547009,0.750492,-0.481146,0.453056
-0.604476,0.453576,0.302530,0.437197,0.452275,0.777372
0.210607,-0.337880,0.495479,0.919675,0.043098,0.390309
-0.450523,-0.465466,0.347661,0.361680,-0.037888,0.931532
0.250398,-0.430320,-0.428363,-0.389642,0.073888,0.917997
0.161373,0.164772,0.166864,0.553636,0.832659,0.012905
0.637707,-0.401119,0.589175,0.797252,0.301324,0.523062
0.006498,0.314798,-0.581814,-0.207978,-0.329918,0.920814
-0.098652,0.458704,0.838644,0.853501,0.348665,0.387259
-0.127959,-0.188903,0.528852,-0.830425,0.392453,0.395442
-0.685409,-0.431252,-0.037819,-0.723013,-0.293755,0.625268
-0.105702,0.232265,-0.607332,-0.023824,-0.160605,0.986731
0.136910,-0.006295,0.580085,0.569319,-0.783016,-0.250525
0.047700,-0.295041,0.677832,-0.094596,0.412000,0.906260
0.640344,-0.198928,0.650585,-0.729098,-0.538941,-0.421851
0.143040,-0.073440,0.791908,-0.467231,0.879965,-0.085772
-0.381730,-0.318880,0.207450,-0.242646,-0.311198,0.918846
-0.205458,-0.215657,0.466973,0.133052,0.488862,0.862155
0.410300,-0.138894,0.363643,-0.968456,0.236592,0.078213
0.680258,-0.579472,0.263772,-0.725788,-0.187473,0.661881
0.108828,0.144430,0.513265,0.533372,0.845250,-0.032671
-0.213919,-0.534068,0.290154,0.621977,-0.234660,0.747047
-0.208401,0.215247,0.263944,0.154429,-0.319594,0.934886
0.798835,-0.661538,0.632973,-0.546982,0.320270,0.773458
0.252177,0.278196,-0.576157,-0.204865,-0.966120,-0.156978
0.462722,-0.453109,-0.728966,-0.359333,-0.227317,0.905100
0.055302,-0.360612,0.056321,0.930876,-0.119351,0.345291
0.072962,-0.771056,0.263648,0.071750,-0.294500,0.952954
-0.578910,-0.382060,0.013463,-0.195822,0.021781,0.980398
-0.398590,-0.210760,0.446248,0.263626,0.179635,0.947751
0.143470,0.288395,0.274270,0.445186,0.512039,-0.734592
-0.411651,-0.648074,0.361914,0.570905,0.271295,-0.774898
0.192212,0.078509,0.604738,0.967879,0.174380,-0.181113
0.211833,-0.091975,0.057705,-0.473960,0.190618,-0.859667
-0.203985,-0.559131,-0.695519,0.139346,-0.434564,0.889796
-0.644512,0.192107,0.270046,-0.535646,0.443032,-0.718893
0.460821,-0.650231,0.497826,0.843726,-0.536489,0.017508
-0.542736,-0.242175,0.430315,-0.749388,-0.281117,0.599492
0.681115,-0.778399,0.250284,0.588327,-0.350799,-0.728568
-0.365667,-0.694877,0.396720,-0.227386,-0.732466,0.641708
0.425935,-0.463077,0.406675,0.915613,-0.175195,-0.361882
0.164744,-0.502711,0.604466,-0.341177,0.816140,0.466385
0.214959,0.101940,0.345462,-0.449180,0.890991,-0.066133
0.182280,-0.445009,0.273900,0.240858,0.115887,0.963617
0.001409,-0.834529,-0.198681,-0.017632,-0.165304,0.986085
0.480993,-0.013407,0.670100,0.668569,0.730420,-0.139652
0.047700,-0.513493,0.239292,0.921696,-0.080149,0.379542
0.559535,-0.233899,0.460550,0.899781,0.412845,-0.141258
0.726302,-0.711897,0.269181,-0.584160,-0.302933,0.752987
-0.489271,-0.246548,0.453782,-0.078139,-0.978062,0.193102
0.608155,-0.737075,0.501581,0.830819,0.535908,0.150141
0.173943,-0.259253,0.528432,0.678996,0.106636,0.726356
0.413060,-0.503643,0.631565,0.051927,-0.011363,0.998586
0.232678,0.404674,0.655995,-0.196045,-0.242487,0.950140
-0.263888,-0.012007,0.419075,-0.020693,0.139265,0.990039
0.394482,-0.579881,0.205647,0.865313,-0.262389,0.427066
-0.057757,-0.398438,0.049800,-0.247415,0.891306,-0.379948
-0.130964,-0.164248,0.434020,0.893117,0.232537,0.385056
0.304966,-0.466341,-0.015266,-0.196295,0.379457,-0.904147
-0.478295,-0.104972,0.241268,0.339857,-0.335200,0.878714
0.368425,-0.074956,-0.618868,-0.294429,-0.106215,0.949752
0.479214,-0.154397,0.413023,0.967261,0.200385,-0.155732
0.483323,-0.318703,0.633220,-0.553347,0.388849,0.736616
-0.516677,0.225447,-0.031224,-0.257508,0.043038,0.965317
0.034887,0.134231,-0.050417,-0.537373,0.842516,-0.037379
0.070877,-0.211750,0.052221,0.588174,-0.359610,-0.724383
0.423605,-0.203648,0.371128,-0.096241,0.244927,0.964753
-0.008951,-0.557149,-0.189714,0.004527,0.002068,0.999988
0.281239,0.316081,-0.862482,0.806341,0.590617,-0.031401
-0.016187,-0.101884,0.893879,-0.166721,0.774502,0.610205
0.711281,0.204056,-0.180327,0.162475,-0.104099,-0.981206
-0.019375,-0.583319,-0.188059,-0.666894,0.741904,-0.069506
-0.213612,0.333624,0.016798,0.136639,-0.039870,-0.989818
0.222501,0.029900,-0.645126,-0.135657,-0.578865,0.804060
-0.949847,-0.454742,-0.301566,0.926843,-0.372599,-0.046182
-0.262294,-0.374891,0.333012,0.315183,-0.101149,0.943625
0.412017,-0.512620,-0.241712,0.098315,0.250491,0.963114
0.232495,0.450020,0.787066,0.753473,0.634514,0.172252
0.616799,-0.511862,0.705499,-0.499872,-0.146443,0.853629
-0.545617,-0.633678,0.356232,0.726340,0.244198,0.642493
-0.232925,-0.247887,-0.014204,0.098473,0.230562,0.968062
-0.113611,-0.258029,0.409589,0.930065,0.259797,-0.259778
0.234886,-0.560996,0.377970,0.500817,-0.106717,-0.858949
-0.062599,-0.731656,0.291043,0.528320,0.154392,0.834890
-0.082465,-0.567058,0.340695,0.479379,0.484547,0.731717
-0.471428,-0.107654,0.436046,0.116290,0.054992,0.991692
-0.054262,-0.638690,-0.203103,0.967783,-0.155618,-0.197937
-0.073085,-0.186980,-0.651697,0.222579,-0.314396,0.922829
0.235255,0.649647,0.657057,0.252268,0.518169,0.817228
-0.069652,-0.154632,-0.391680,0.489777,-0.172090,-0.854695
0.391600,-0.104155,0.224939,0.925511,0.378719,-0.001210
0.570080,-0.504167,0.689813,-0.583092,0.023041,0.812080
0.223789,0.056769,0.064745,0.738516,0.072590,-0.670317
0.346106,0.317655,-0.987772,-0.153036,-0.088398,-0.984259
0.101717,-0.131959,0.894274,-0.528231,0.100397,-0.843145
0.318822,0.076353,0.096092,-0.261456,0.934691,0.240820
-0.537216,-0.350411,0.178030,-0.002863,-0.550986,0.834509
0.462784,-0.099378,0.571316,-0.662989,-0.208535,0.718998
0.324463,-0.136679,0.562176,0.144467,0.822236,0.550507
0.443470,-0.286589,-0.468381,0.038359,-0.012531,0.999185
0.073513,0.595849,-0.312386,-0.707871,-0.327071,0.626054
0.311158,-0.344116,0.720814,-0.489147,-0.367916,0.790805
0.238993,0.280177,-0.990070,-0.148503,-0.139336,0.979047
-0.134642,-0.039227,-0.028778,-0.191332,0.385671,0.902580
0.175168,-0.077286,0.057878,0.068924,-0.193612,0.978654
-0.270142,0.090750,0.697792,0.442358,0.828865,-0.342495
0.270632,0.083521,-0.334593,0.609200,0.589709,0.530205
-0.127407,0.262457,0.974310,-0.393803,0.759329,-0.518014
0.482219,-0.188554,-0.001556,0.057335,-0.223648,0.972982
-0.465237,0.041615,0.426511,-0.262365,-0.189878,-0.946103
0.307296,0.337121,-0.976409,0.412831,0.266377,0.870985
0.119926,0.435506,0.319895,-0.518880,-0.488486,0.701530
0.357387,0.036661,0.214812,0.939162,-0.043572,-0.340700
0.187798,0.201607,-0.276864,0.884053,-0.425218,0.194010
0.061496,0.576206,0.678277,0.366619,0.358254,-0.858629
0.233047,-0.220086,0.855170,-0.127871,0.571436,0.810623
0.388043,-0.319811,0.743269,-0.177703,0.464674,0.867467
0.289208,-0.499096,-0.028037,0.953796,0.150429,-0.260085
0.332556,0.065745,0.551529,0.814993,0.053696,-0.576977
-0.125446,0.170833,0.780100,0.752786,-0.514533,0.410572
0.304169,-0.136446,0.696952,0.540395,-0.078505,-0.837741
-0.424157,0.113132,0.590015,-0.049216,-0.345444,0.937148
-0.073513,0.001574,-0.407490,0.441813,0.014168,-0.896995
0.148743,-0.733229,-0.193345,0.022480,0.210032,0.977436
-0.076333,-0.930583,0.304605,-0.168595,0.600911,0.781333
-0.047026,-0.693712,0.287881,0.715398,-0.073952,0.694792
0.225997,-0.014513,0.456153,0.928297,0.107716,-0.355896
0.180624,0.066211,0.441678,0.883732,0.454717,0.110678
-0.103679,-0.387947,0.468752,0.742834,0.430725,0.512517
-0.341937,-0.714985,0.382367,0.637710,0.769981,-0.021331
0.136541,0.598764,-0.358801,0.745224,-0.221798,0.628846
-0.321767,0.109226,0.812114,-0.693358,0.715029,-0.089380
0.160821,-0.136272,0.052715,0.900664,0.009740,-0.434408
-0.015021,-0.029668,-0.216170,-0.114072,0.183270,0.976422
0.428999,0.564784,-0.307495,0.855605,0.516491,0.034297
0.427467,-0.637291,0.437750,-0.380711,0.080905,0.921148
0.227651,0.206212,-0.424608,0.694147,-0.411647,-0.590514
0.178173,0.131257,0.098562,0.876023,0.446713,0.181747
0.018209,-0.603078,0.234919,0.335512,0.228833,0.913820
0.708644,-0.741505,0.267699,-0.340449,-0.240695,0.908934
-0.219558,-0.135747,-0.415592,-0.292143,0.010635,0.956316
0.054383,0.139243,-0.231288,0.013219,0.493263,0.869780
0.213733,-0.012590,0.460229,0.928297,0.107716,-0.355896
0.151931,0.068950,0.326861,-0.563019,0.792414,0.234711
0.241998,-0.025413,0.044761,0.674915,0.060452,0.735415
0.517781,-0.307688,0.628180,-0.027014,0.804233,0.593700
0.205272,0.005186,0.678845,-0.693280,-0.720660,0.003382
0.381913,-0.007870,0.267699,0.868058,0.422178,-0.261231
0.103739,0.015736,-0.641322,-0.695501,0.671370,-0.256008
0.062844,-0.775602,0.268144,0.057493,-0.251797,0.966071
0.193685,0.005478,0.674102,-0.650845,-0.758621,0.029915
-0.251563,0.397680,0.691443,0.128520,-0.425943,0.895575
0.250336,0.213964,-0.427449,0.971300,-0.016550,0.237283
-0.106744,0.231218,0.503582,-0.249067,0.522737,-0.815299
-0.509196,-0.358805,-0.266711,0.158785,-0.365560,0.917144
0.209074,0.166404,0.079467,-0.751150,-0.623781,-0.216033
0.504782,-0.140294,0.417593,0.952032,0.244438,-0.184081
0.551074,-0.591770,0.476706,0.936815,0.301175,-0.177962
-0.353527,0.364049,0.660886,-0.084179,-0.531651,0.842770
0.256101,0.104098,-0.615286,-0.096827,-0.107654,0.989462
-0.132679,0.605001,0.653772,-0.601542,-0.365993,0.710068
-0.046598,0.069242,-0.226372,-0.189199,0.251546,0.949172
0.209258,-0.019469,0.059187,-0.518375,-0.140200,-0.843582
-0.245372,-0.610713,0.324292,-0.251067,0.097084,0.963089
0.553525,-0.517108,0.682797,-0.712199,-0.452196,0.536928
0.154629,0.023080,0.034312,0.285426,0.767950,-0.573398
0.409626,-0.203358,0.370461,0.435121,-0.219409,-0.873229
0.332679,-0.144490,0.535645,0.763477,0.644591,-0.040066
0.112445,0.307105,0.926214,-0.467134,0.446847,-0.762964
-0.478787,-0.650289,0.365199,0.374522,0.924583,0.069858
-0.446475,-0.384799,0.435230,0.881345,0.141509,-0.450785
0.148681,-0.361078,-0.046218,-0.504120,-0.859751,0.081799
-0.089700,-0.389637,0.293464,0.885882,0.060691,0.459924
0.122134,0.066679,0.112618,-0.809353,0.397745,-0.432142
-0.389884,-0.423677,-0.647448,-0.273889,0.728455,-0.627963
0.195279,0.025528,0.451608,0.778956,0.604030,0.168450
-0.234213,0.245206,0.002841,-0.038020,0.065970,0.997097
0.223544,-0.315674,0.549331,-0.842458,0.530978,-0.091252
0.140158,0.030192,0.553653,0.957141,-0.156768,-0.243525
0.469220,-0.442794,-0.708043,-0.397804,-0.240959,0.885263
0.184488,-0.089876,0.636653,0.774683,-0.554112,-0.304674
0.264622,-0.422453,-0.427326,-0.389642,0.073888,0.917997
0.899264,-0.537390,0.620276,-0.514710,-0.013531,0.857258
-0.543655,-0.548815,0.030211,-0.116739,0.122783,0.985544
-0.029307,0.101940,-0.600316,-0.175883,-0.550552,0.816062
0.595216,-0.413885,0.533768,0.898014,-0.356930,-0.257239
0.003986,0.617939,0.326219,-0.268462,-0.030687,0.962801
-0.308523,-0.119310,-0.003681,-0.588371,0.441534,-0.677397
0.091171,-0.648832,-0.191789,0.210117,0.213977,0.953973
-0.431576,-0.202424,0.221605,0.025953,-0.453013,0.891126
0.395340,0.522293,-0.309940,-0.412534,0.860178,0.299850
-0.307603,0.414698,0.850946,0.102737,-0.272041,0.956786
-0.451748,-0.130676,0.433328,-0.020037,0.222574,0.974710
-0.183324,-0.046978,-0.419050,0.415031,0.065042,-0.907479
0.601041,-0.249812,0.647695,-0.807447,0.476481,0.347844
0.698406,-0.502070,0.592683,0.110599,-0.224170,0.968254
0.501778,-0.794953,0.436046,-0.001533,0.165124,0.986272
0.632249,0.137262,0.427820,0.562987,0.331725,-0.756970
0.413857,-0.743720,0.449360,0.198789,-0.203988,-0.958578
0.158123,-0.425717,0.621437,0.492568,-0.043239,0.869199
0.110239,-0.548580,0.620374,0.149794,0.521004,0.840308
-0.562416,-0.559713,0.028284,0.067741,-0.141596,-0.987604
-0.046536,-0.760681,0.284793,0.811923,0.248766,0.528106
0.277375,0.343066,-0.924534,0.099581,-0.987192,-0.124644
-0.504109,0.372384,0.298404,-0.528611,-0.277329,-0.802283
-0.346660,0.269627,0.815819,0.266641,-0.476428,0.837806
0.245800,-0.693420,0.241885,-0.649266,-0.066414,-0.757656
0.052851,-0.119369,0.177338,0.978930,-0.060764,0.194945
-0.360822,0.010608,0.838521,0.966004,-0.132305,0.222107
0.052606,0.329602,0.890593,-0.705020,0.051390,-0.707323
-0.518823,0.091682,-0.019490,-0.038221,0.482429,0.875101
-0.535194,-0.259545,0.404748,-0.481055,-0.555506,0.678232
0.245922,-0.495133,0.623462,-0.290724,0.685925,0.667073
0.730104,-0.561404,0.594832,0.804571,-0.045303,-0.592126
0.267382,0.385965,-0.986315,-0.096164,-0.059538,0.993583
0.157142,0.102232,0.267922,-0.372634,0.927712,-0.022230
-0.190620,0.146529,0.771034,-0.352542,-0.345190,-0.869803
0.294176,0.340326,-0.639247,-0.166014,0.985074,-0.045487
-0.216617,-0.238095,0.469097,0.027833,0.431546,0.901662
-0.566218,0.322199,0.296626,0.174152,0.132323,0.975788
0.092335,-0.210176,0.658984,0.275660,0.808386,0.520119
-0.003127,0.171067,0.742009,0.787948,-0.548294,0.280199
-0.419743,0.420878,0.266588,0.321213,0.614631,0.720452
-0.215513,-0.481028,-0.014253,0.990627,0.133564,0.028596
0.358001,0.297313,-0.988168,0.050529,-0.156793,0.986338
-0.569407,0.273240,0.296230,0.037187,-0.148298,0.988243
-0.152790,0.168911,0.248901,0.022231,-0.162478,0.986462
0.217474,-0.517108,0.632108,0.191679,-0.500465,-0.844271
-0.101043,-0.062366,-0.408453,0.485658,0.059041,-0.872153
0.182097,0.160983,0.165160,-0.602765,-0.797792,-0.014215
0.170814,-0.333451,0.568154,-0.722901,0.686293,0.080098
0.083017,-0.687066,0.242577,-0.779449,-0.041217,-0.625109
-1.000000,-0.465642,-0.297169,-0.552946,-0.369851,-0.746633
-0.231208,-0.552428,-0.004768,-0.065402,0.147100,0.986957
-0.993563,-0.471645,-0.277506,0.931039,0.309284,0.193675
-0.460823,-0.157663,0.031323,-0.466055,0.415826,-0.780949
0.118087,-0.126770,0.633985,0.739613,0.373769,-0.559705
0.486633,-0.411494,0.229954,0.749287,0.175009,-0.638702
0.219435,0.199684,-0.380268,0.199691,-0.771328,0.604298
0.379767,0.472226,-0.616348,0.427105,-0.901162,-0.074082
0.157449,0.099551,0.394669,0.134709,0.961130,0.241005
0.456407,0.499213,-0.659231,0.601061,-0.712041,0.362937
-0.111465,-0.728741,0.273084,-0.643155,0.525009,0.557420
-0.132803,0.568921,-0.566993,-0.314359,0.136930,0.939377
0.323483,0.404033,-0.985080,-0.204550,0.004656,0.978845
0.488903,-0.317480,0.274566,-0.672196,0.739245,0.040856
0.011771,-0.383751,0.557532,-0.379554,-0.561295,0.735450
0.408522,-0.611938,0.170891,0.964545,0.253151,0.074620
0.002391,-0.428922,0.453831,0.576291,0.186305,0.795725
0.302882,0.079151,-0.295885,-0.613279,-0.508640,-0.604296
-0.086512,0.641777,-0.349760,0.200807,0.653705,-0.729621
0.053279,0.449320,0.301270,0.490079,0.534625,-0.688475
0.538565,0.191349,0.669335,0.394934,-0.548011,-0.737367
0.195341,0.274464,-0.977570,0.056196,-0.102871,0.993106
0.390496,-0.308678,0.350032,0.896219,-0.152624,-0.416530
0.403004,-0.293293,0.307371,0.190828,0.368237,-0.909938
0.016677,-0.804337,0.278716,0.150260,0.625468,0.765645
0.031391,-0.210818,0.623660,0.888799,-0.432205,-0.152431
-0.438321,0.061607,0.581345,0.261560,0.309651,-0.914168
-0.152117,-0.128986,0.429994,-0.796812,-0.317344,-0.514183
0.379644,-0.611354,0.659651,-0.047748,0.530637,0.846253
0.035684,0.142274,0.656390,-0.802967,-0.586962,-0.103538
0.684058,-0.488431,0.574601,0.615160,0.129218,0.777741
0.764683,-0.050068,0.707920,0.525194,0.210090,0.824641
0.685285,-0.594510,0.265303,-0.722743,-0.192521,0.663761
0.468975,-0.118961,0.579097,-0.629978,-0.172388,0.757238
0.153402,0.096579,0.431105,-0.513135,-0.838471,-0.183467
0.190496,0.156321,0.565412,-0.631052,0.714098,0.303048
-0.020908,0.458005,-0.556371,-0.233959,-0.293004,0.927045
-0.128817,-0.377746,-0.678796,0.371458,-0.336102,0.865479
-0.184488,0.329369,0.896547,-0.454099,-0.548550,-0.702059
0.263948,0.079850,0.758683,-0.498613,0.052864,0.865211
-0.232312,-0.350703,-0.003829,-0.475423,-0.105793,-0.873373
0.177069,-0.366731,-0.237834,-0.285072,0.490248,0.823645
0.353587,-0.518739,-0.228645,0.078334,0.185028,0.979606
0.280073,-0.803054,0.445186,0.528513,-0.492858,-0.691205
0.215635,0.247945,-0.234549,-0.685267,0.719069,0.115539
-0.225506,-0.488024,-0.008201,0.990627,0.133564,0.028596
0.139792,0.116163,0.510128,0.733982,0.675641,0.069126
0.423727,0.504517,-0.811324,0.565075,0.823415,-0.051746
0.192704,-0.234250,0.685860,0.347572,0.932546,-0.097731
0.104598,0.045288,0.034707,0.049455,-0.925117,0.376448
-0.250890,-0.431428,0.321229,-0.492614,0.269729,-0.827392
-0.674985,-0.246663,0.045946,-0.062973,-0.296746,0.952878
-0.126978,-0.494609,-0.683859,-0.409813,0.312044,-0.857136
0.235376,-0.206855,-0.441406,0.081186,-0.067326,0.994422
0.138074,-0.073149,0.011264,0.850237,-0.028516,-0.525627
-0.322931,0.368419,0.649400,-0.026260,-0.523675,0.851513
0.230104,-0.548347,0.636703,0.408026,0.430580,0.805056
0.195707,0.161157,0.669236,-0.697684,-0.689863,0.193201
-0.151931,-0.770182,-0.219283,0.855544,0.346294,-0.384869
-0.330411,-0.475201,0.334593,0.035874,0.022797,0.999096
-0.102514,0.366614,-0.351317,-0.209387,0.116095,-0.970916
0.027344,0.126828,0.632528,-0.810671,0.458015,-0.364741
0.493378,-0.102524,0.683044,0.819248,0.208407,0.534228
-0.135009,-0.748966,0.275826,0.485342,-0.083938,-0.870286
-0.150154,-0.297255,0.301566,0.989956,-0.071539,0.121940
0.415206,-0.598531,0.671039,-0.204927,0.656507,0.725950
0.674126,-0.042316,0.295366,0.234091,-0.716761,0.656853
0.224034,-0.804453,-0.191023,-0.290254,-0.099921,-0.951719
0.249601,0.416856,-0.986611,-0.105911,-0.087260,0.990539
0.240035,-0.457773,-0.071884,0.723071,0.300797,-0.621843
-0.154998,-0.338054,-0.268885,-0.368101,-0.483350,0.794276
0.061067,-0.834179,-0.187787,0.138174,0.197621,-0.970492
0.113428,0.282742,0.614125,-0.723355,-0.315871,0.613989
-0.202331,-0.607100,0.012722,-0.462650,0.028143,0.886094
-0.228633,-0.278954,0.439183,0.900029,-0.269559,-0.342469
-0.040100,-0.711721,0.031693,0.554317,0.525567,-0.645377
-0.051380,-0.744769,0.278840,0.754761,0.285219,0.590750
0.166646,-0.334733,0.546860,-0.630418,0.740909,-0.231575
-0.384366,-0.231743,0.211032,-0.210561,0.348864,-0.913213
0.318331,0.225796,-0.180722,-0.201570,0.786909,0.583218
0.431636,-0.523636,0.195420,0.866516,-0.223131,-0.446501
-0.239731,0.183365,0.413295,-0.214607,-0.502844,0.837312
-0.133722,0.600104,-0.572156,0.436800,0.072747,-0.896612
-0.284551,-0.131784,-0.433230,-0.096283,0.157134,0.982873
0.456652,-0.257563,0.236500,0.919299,0.388964,-0.059978
0.359411,-0.353675,-0.710983,-0.528989,-0.448850,0.720211
0.140710,0.171533,0.150610,0.878025,0.470695,0.086715
-0.018271,-0.095413,0.670421,0.968860,-0.157039,-0.191437
-0.143410,-0.280703,-0.656810,0.254341,-0.098711,0.962064
0.501409,-0.747683,0.472407,0.952649,-0.234192,0.193945
0.336296,-0.282275,0.292476,0.288614,0.883317,0.369396
0.094543,-0.096813,0.254508,0.969195,0.177167,-0.171091
0.230227,0.136212,0.102984,0.496190,0.863868,-0.086765
-0.486083,0.384798,0.005311,0.280511,0.269751,-0.921167
0.252177,-0.483593,-0.428264,0.353168,-0.089290,0.931289
0.152850,0.045928,0.494269,0.814716,0.560019,0.150391
-0.164316,-0.035904,-0.412233,0.373185,0.100241,-0.922326
0.434396,-0.418196,0.393113,0.757668,-0.394400,-0.519988
0.426425,-0.118319,0.215849,0.915660,0.381160,0.127612
-0.092030,0.661128,-0.345314,-0.141633,-0.876086,0.460883
0.183874,-0.045112,0.056791,0.213391,-0.275119,0.937429
0.139240,-0.184182,0.036312,0.836870,-0.473487,-0.274697
-0.092030,-0.649298,0.335828,-0.304485,-0.292543,0.906481
-0.058431,-0.746109,0.266094,0.185959,0.402510,0.896329
0.019680,0.072915,-0.383084,0.027606,-0.217037,0.975773
-0.386206,-0.435565,-0.651969,-0.273889,0.728455,-0.627963
-0.098652,-0.760390,-0.227138,0.561186,-0.333258,-0.757634
0.272961,-0.083407,0.793810,-0.246547,0.865982,0.435075
-0.321643,0.338171,0.657749,-0.084179,-0.531651,0.842770
0.364929,-0.458881,0.644286,-0.021352,-0.099288,0.994830
0.040404,0.663693,-0.319129,-0.429250,-0.460061,0.777231
0.255242,0.297487,-0.695346,0.285306,0.940802,0.183008
0.118946,-0.515533,0.623265,0.199788,0.100199,0.974703
0.119743,0.078393,0.306260,0.394808,-0.910805,-0.120666
0.041323,-0.075655,0.169236,0.817932,0.432701,0.379153
0.907111,-0.426764,0.650882,0.468323,0.206926,-0.858985
0.184548,0.162906,0.047601,0.994596,0.082953,-0.062425
-0.006315,0.264672,0.977966,-0.371676,0.869321,-0.325789
-0.546108,-0.244507,0.428166,-0.852021,-0.163831,0.497211
-0.036726,-0.025121,0.493479,-0.428557,0.103316,-0.897588
-0.107786,-0.707175,-0.182229,-0.216409,-0.147887,0.965037
-0.199755,-0.541937,-0.684897,0.128524,-0.642898,0.755092
-0.230841,-0.409863,0.330665,-0.268942,-0.035644,-0.962497
-0.681423,-0.345982,-0.006793,-0.538822,-0.574853,0.615804
0.679399,-0.488897,0.681439,-0.717587,0.405994,0.565896
0.098528,-0.293001,0.645571,0.431985,0.874384,0.221002
0.529736,-0.082649,0.632479,0.831528,-0.363186,0.420305
0.583629,-0.731480,0.453807,-0.416548,-0.295226,0.859842
0.243102,0.224339,-0.334519,0.994418,-0.087405,0.059097
0.550091,-0.151717,0.598142,-0.062002,-0.380920,0.922527
-0.431393,-0.398904,0.443555,0.852656,0.043449,-0.520662
-0.223729,0.175787,0.007114,0.081896,0.151797,-0.985013
0.121030,0.513201,-0.344622,-0.731850,-0.323548,0.599760
0.245860,-0.036078,0.489576,0.845998,0.533185,-0.000841
0.000062,-0.557033,0.246900,-0.928790,0.363796,-0.070722
0.204659,-0.320977,0.576478,0.775078,-0.185800,-0.603931
-0.067260,-0.472869,0.293340,0.946812,0.015315,0.321422
0.151931,-0.099378,0.884245,-0.203669,0.970345,-0.130191
0.101593,-0.714170,-0.194729,-0.050794,-0.159399,-0.985907
0.073390,-0.691729,0.238600,0.368734,0.066147,0.927178
-0.290804,0.035496,0.701398,-0.102385,-0.473970,0.874569
-0.311098,-0.620739,0.015661,0.118569,-0.011899,0.992874
0.155181,0.288103,0.853021,-0.528565,0.753597,-0.390782
0.044942,-0.285073,0.536041,0.488133,-0.652762,0.579334
0.360761,-0.357581,-0.228250,0.010021,0.329663,0.944046
0.104353,0.137552,0.529939,-0.572282,-0.819823,-0.019565
0.075474,0.584017,-0.330567,0.932151,0.361048,-0.027189
0.120540,-0.369820,0.564597,-0.317757,0.910372,0.265054
0.009625,-0.382060,0.536090,-0.629160,0.113076,-0.769007
0.189576,0.160634,-0.100736,-0.272637,0.937648,-0.215604
0.169957,0.061607,0.738995,-0.300786,-0.732439,0.610787
0.118639,0.433524,0.314461,-0.518880,-0.488486,0.701530
-0.244882,0.125663,0.783533,-0.105388,0.877840,-0.467215
0.285960,-0.037245,-0.265451,0.292278,0.017429,-0.956174
0.172715,0.144197,0.142854,0.726576,0.685664,0.044185
0.528632,-0.243166,0.586112,-0.008715,0.096059,0.995338
-0.215328,-0.250977,0.358283,0.121141,0.193218,0.973649
0.553525,-0.442736,-0.706339,-0.359470,-0.234060,0.903326
0.150154,-0.101767,0.046070,0.831188,-0.379856,-0.406000
0.060330,-0.336364,0.259893,0.408256,0.204842,-0.889588
0.272286,0.049018,0.461341,0.786992,-0.607937,-0.105151
0.553648,-0.648307,0.695297,-0.122170,-0.184971,0.975121
0.262477,-0.167571,0.697446,-0.148804,-0.668195,-0.728953
0.146720,-0.001516,0.608196,-0.661799,0.731727,0.163088
0.382404,-0.606983,0.655798,0.194043,0.650308,0.734470
0.554322,-0.670689,0.546218,0.610385,-0.151941,-0.777396
0.158615,0.103573,0.484956,0.756863,0.640248,0.131303
0.311219,-0.649764,-0.220172,-0.032542,-0.063074,0.997478
-0.056470,-0.589789,0.080085,0.129865,-0.091037,0.987344
0.183936,0.110158,0.435107,0.419795,0.905838,0.056835
0.088044,-0.107770,0.268589,0.925171,0.172758,-0.337955
0.375351,-0.630588,0.667852,-0.395155,-0.067862,0.916104
-0.143532,-0.085854,-0.035003,-0.300766,0.291296,0.908122
-0.016432,-0.705602,0.263475,-0.114795,0.168803,0.978942
0.717902,-0.170484,0.746678,0.159520,-0.279097,0.946920
-0.262232,0.280526,0.806902,-0.004725,-0.340737,0.940147
0.623605,-0.326805,0.611605,-0.602806,-0.659512,0.449076
0.112324,-0.108412,0.279853,0.923637,0.072379,-0.376372
0.655058,-0.707991,0.702831,0.027215,-0.666850,0.744695
-0.438628,-0.464593,0.014154,-0.441597,0.171854,-0.880601
-0.128634,-0.446465,0.313399,0.104512,-0.946352,-0.305770
-0.597486,-0.015038,0.285831,0.618014,0.557963,-0.553838
0.181238,0.027801,0.023492,0.448931,0.662237,-0.599920
0.247088,0.320335,-0.989304,-0.172670,-0.022572,0.984721
-0.414654,-0.098095,0.432736,-0.095676,0.559673,0.823172
0.091293,-0.484993,0.402920,-0.220702,0.748658,-0.625142
-0.133845,-0.297896,0.319846,0.957023,0.278625,-0.080467
0.127959,-0.318413,0.261622,-0.672071,0.053333,0.738564
0.268117,0.478462,-0.312682,-0.170299,0.066955,0.983115
0.170448,-0.385208,-0.233536,-0.192245,0.480413,0.855713
0.192397,0.582619,0.671681,0.058200,0.508792,0.858920
0.111036,-0.315848,0.264537,-0.782130,0.082569,0.617621
0.224893,0.215479,-0.239835,-0.852501,0.434887,0.290028
-0.105274,-0.697209,0.270614,-0.152425,-0.235820,0.959768
-0.214961,-0.371802,0.323749,0.362836,-0.130481,0.922673
0.044942,0.140001,0.560817,0.705186,0.702537,-0.095677
0.582648,-0.492045,0.562942,0.935656,0.101675,-0.337951
-0.326181,0.281692,0.826219,0.222225,-0.458561,0.860429
0.008890,-0.239728,0.599180,0.923138,-0.327013,-0.202185
0.276578,0.229352,-0.991799,-0.047836,-0.240755,0.969406
0.411649,0.547765,-0.278568,0.702570,0.623025,-0.343852
0.204904,0.071632,-0.280767,0.934784,-0.106002,-0.339032
0.293683,-0.603719,0.656069,-0.226861,0.711557,0.664997
0.095585,-0.760798,0.269033,-0.095892,0.941350,0.323520
0.203923,0.116803,0.062003,0.030096,-0.172342,0.984577
-0.310669,0.312932,0.645843,-0.088868,-0.464709,0.880993
0.068853,-0.604360,0.241836,-0.499163,-0.267480,-0.824191
-0.101412,0.254181,0.513092,-0.524711,-0.460970,-0.715671
-0.125322,-0.321560,0.298552,0.949358,0.291079,-0.118291
0.264438,-0.293641,0.021886,-0.428991,0.296967,-0.853099
0.100736,-0.872297,0.240848,0.992091,-0.125442,0.004401
0.577069,-0.662937,0.663233,0.331039,-0.326867,0.885196
0.531943,-0.217521,0.450077,0.908063,0.385318,-0.164170
-0.370264,-0.170834,0.528630,-0.204853,-0.943391,0.260860
0.338687,-0.622371,0.669236,-0.055955,0.439086,0.896701
-0.142797,0.240485,0.801764,-0.762362,0.462602,-0.452553
0.227222,-0.167220,0.468900,0.983996,0.108405,-0.141424
0.125261,0.302559,0.716467,0.861107,0.459470,0.217674
-0.252055,-0.290436,-0.022998,0.176350,0.195550,0.964708
0.083017,-0.907502,0.277432,0.691797,-0.179401,0.699451
0.247026,0.294398,-0.665802,-0.496017,0.852771,0.163548
0.426486,0.010257,0.705672,0.533270,-0.644614,-0.547811
0.383201,-0.527015,0.418458,0.715368,-0.287528,-0.636849
0.103249,-0.034563,0.587619,0.706500,-0.637611,-0.307099
0.237154,-0.067845,-0.654266,-0.430106,-0.490600,0.757839
-0.497426,-0.143673,0.035028,-0.400716,0.407065,-0.820807
-0.485286,-0.509996,0.344128,-0.437899,-0.025865,-0.898652
0.145983,-0.671855,0.234919,-0.299883,0.191611,-0.934535
0.010300,0.705950,-0.324391,-0.107914,-0.642477,0.758668
-0.394788,-0.527716,0.016625,-0.391782,0.145043,-0.908553
0.460759,0.025937,-0.202485,-0.628062,-0.587087,0.510751
-0.159840,-0.636184,-0.222593,-0.199821,0.307259,0.930410
0.621030,-0.218163,0.717208,0.743218,0.356901,-0.565905
0.304046,-0.622429,-0.217183,-0.036791,-0.010176,0.999271
-0.456897,-0.660081,0.359295,0.341475,0.893091,-0.292887
0.618577,-0.337296,0.604911,-0.665638,-0.676946,0.314117
-0.592399,0.290376,0.300825,0.193659,-0.143655,0.970494
-0.244451,0.089002,0.236648,0.283918,-0.710535,0.643840
-0.548621,-0.139127,0.247295,-0.427329,0.374681,-0.822803
-0.471062,-0.667308,0.376414,0.684965,0.706319,0.178709
-0.095095,-0.047444,0.397806,-0.759819,0.142564,-0.634311
-0.390803,-0.450429,-0.646287,-0.273889,0.728455,-0.627963
0.396627,-0.627149,-0.213601,0.027295,0.014289,0.999525
0.338932,-0.357172,-0.733215,0.513305,0.450515,-0.730448
0.199386,0.190476,-0.063534,-0.055299,0.997469,0.044689
-0.086022,-0.004954,-0.036979,-0.790068,0.589016,-0.169864
0.443102,-0.575042,0.528531,-0.268353,-0.182697,0.945837
0.240342,-0.050127,0.654068,0.873304,0.487133,-0.006497
0.626058,0.180275,-0.174349,-0.059665,-0.318745,0.945961
-0.320235,-0.728858,0.392174,-0.460067,-0.655009,0.599417
0.297057,-0.562220,-0.437083,0.353168,-0.089290,0.931289
0.470570,-0.125897,0.397238,0.382253,0.896131,0.225459
0.268976,0.188144,-0.174596,0.200314,0.908016,0.367943
0.172042,-0.222999,0.723581,-0.260495,-0.314155,0.912934
-0.595892,0.011074,0.273208,0.597059,0.673388,-0.435969
0.107848,0.094654,0.756805,-0.300312,-0.746631,0.593595
0.269773,0.263914,-0.598958,-0.104759,0.802548,0.587318
-0.490620,-0.223641,-0.233486,-0.326704,0.590092,-0.738279
-0.098652,-0.409395,0.498493,0.984396,-0.113753,-0.134253
0.250766,-0.112316,0.032484,0.436820,-0.238017,0.867488
0.209013,0.253016,-0.370486,0.959782,-0.271359,0.071994
-0.102944,-0.550912,0.329702,0.374099,0.449250,0.811311
0.253096,-0.454159,0.409911,-0.273980,-0.414668,0.867747
0.881913,-0.486857,0.627711,0.518078,0.100750,-0.849379
0.028448,-0.494143,0.235142,0.915173,-0.150324,-0.373981
-0.142428,-0.540887,0.325923,-0.021527,0.607573,0.793972
-0.210117,0.182374,0.804333,-0.557527,0.692591,-0.457691
0.087124,-0.763595,-0.188281,0.017356,-0.013883,0.999753
0.593991,-0.249169,-0.214910,-0.291508,-0.325719,0.899406
-0.139240,-0.256864,0.463712,-0.613171,-0.298039,-0.731569
0.068669,0.014279,0.122795,-0.885748,0.130492,-0.445446
0.484487,-0.673836,0.535423,0.537651,-0.242426,-0.807564
0.120906,0.335956,-0.575886,-0.041023,-0.329953,0.943105
0.354996,0.188669,0.562843,-0.400570,-0.483924,0.778050
0.633598,-0.225623,0.731313,0.743218,0.356901,-0.565905
0.022807,-0.565483,0.240922,-0.130842,0.540243,0.831275
-0.086329,-0.405432,0.078109,0.816076,0.104986,-0.568328
0.000490,-0.570205,0.067314,-0.347515,0.339575,0.874027
-0.201841,-0.012007,0.742330,-0.408964,0.400083,-0.820172
0.479583,-0.415400,0.231881,0.848876,0.205706,-0.486923
-0.767812,-0.306348,-0.214663,-0.244485,0.669882,-0.701060
0.515328,0.047502,0.745418,-0.642912,0.250360,0.723867
-0.041142,0.022207,0.447236,0.971842,0.186011,-0.144650
0.504414,-0.505567,-0.721185,-0.359470,-0.234060,0.903326
0.552361,-0.447689,-0.694951,-0.359470,-0.234060,0.903326
0.317473,0.219560,0.566227,-0.024457,0.596853,-0.801978
0.071979,0.000465,0.128032,-0.865302,0.008657,-0.501176
0.148253,-0.180859,0.022059,-0.728597,0.456446,0.510689
0.051133,-0.763595,0.263772,-0.744802,-0.193017,-0.638760
0.345064,-0.634494,0.415518,0.955986,-0.279148,-0.090375
-0.092520,-0.228070,0.671706,0.578638,0.437962,-0.688017
0.364929,-0.578190,0.654365,0.294216,0.612873,0.733365
0.478417,-0.103748,0.814609,-0.555356,-0.808602,-0.194274
0.386696,-0.053391,-0.271108,-0.228449,-0.296570,-0.927285
0.043103,0.206038,0.798948,0.435232,0.899468,-0.039132
0.246964,-0.457599,0.404204,-0.222156,-0.448454,0.865757
0.495770,-0.004373,0.358209,-0.708461,0.616899,0.342810
0.357939,-0.381069,0.001556,0.129864,0.073903,0.988774
0.202267,0.379785,0.763870,0.327972,0.500746,-0.801054
0.219068,0.242758,-0.203152,0.477051,0.878829,0.009011
0.431207,0.241066,-0.312732,0.044069,0.151185,0.987523
0.048620,-0.054497,-0.647942,0.455512,-0.116926,-0.882518
0.279766,0.274174,-0.613359,0.136544,0.987458,0.079262
-0.191785,0.049018,0.719653,0.151049,0.985153,-0.081598
0.169282,0.054729,0.508004,0.834498,0.548543,-0.052098
0.231391,-0.209769,0.437701,0.869729,0.323903,-0.372369
0.106561,0.026111,0.264364,0.901123,-0.324109,0.287977
0.202084,0.176778,-0.041302,0.540230,0.841137,-0.025294
-0.284489,-0.049951,0.689220,0.916235,-0.049294,0.397597
-0.309197,-0.322901,0.513413,-0.573846,-0.164473,-0.802278
0.167995,-0.830391,0.257127,0.334984,-0.917220,-0.215623
0.267443,0.116744,0.079912,0.360073,0.929513,0.079710
0.692949,-0.866061,0.604120,-0.813555,-0.226943,0.535374
-0.084611,0.270035,0.873425,-0.442999,-0.888051,0.122953
-0.216677,0.031008,0.671508,0.591804,0.436047,0.677961
0.138626,-0.402810,0.280174,-0.018333,0.409536,0.912110
-0.105090,0.162673,0.013216,-0.188258,-0.358565,0.914325
-0.207604,0.142157,0.778963,-0.397886,-0.129376,-0.908267
-0.313368,-0.367839,0.007806,-0.379018,0.925330,0.010509
-0.254997,-0.145772,0.613186,0.706251,0.475404,-0.524595
-0.159781,-0.050650,0.194383,-0.261284,0.093183,-0.960754
0.358062,-0.297197,-0.716541,0.566411,0.550782,-0.613040
0.637093,-0.346448,0.573909,0.874781,0.478268,0.077576
-0.387983,-0.625459,0.333457,0.952931,0.076783,0.293305
0.047945,-0.213849,0.606838,0.897289,-0.434368,-0.078726
-0.647641,-0.175089,0.254879,-0.262117,0.241716,-0.934274
0.532005,-0.234949,0.587891,0.942054,-0.081318,0.325457
-0.254323,-0.108993,0.195988,-0.486662,0.757134,-0.435785
0.083383,-0.061375,0.626896,0.916112,0.386100,-0.108010
0.623483,-0.449904,0.597179,0.844729,0.119282,0.521732
-0.006684,0.259893,0.879329,-0.207650,-0.855833,0.473741
0.233109,-0.031009,0.059187,0.751368,-0.058010,0.657329
0.616738,0.052689,-0.183143,0.085574,-0.042704,0.995416
0.122562,-0.342659,0.265550,-0.755519,-0.015295,0.654948
0.010177,-0.568923,0.244973,-0.183699,0.567538,0.802593
-0.147946,0.045579,-0.411664,-0.520588,0.058398,0.851808
0.614346,-0.600338,0.704511,-0.473127,0.292103,0.831160
-0.339118,-0.128928,0.007682,-0.513537,0.426320,-0.744669
0.055057,-0.003964,0.134109,-0.854542,-0.007481,-0.519329
-0.115329,-0.155564,0.325429,0.748092,-0.551052,0.369729
-0.564624,-0.180918,0.229361,0.354788,-0.812813,0.462018
0.564255,-0.496823,0.697421,-0.506072,0.579035,0.639226
0.027284,-0.198986,0.681957,-0.182643,-0.226179,0.956810
-0.569528,0.319170,0.307445,-0.193988,-0.062182,-0.979031
-0.476211,-0.466341,0.018551,-0.319685,0.084640,-0.943736
0.467136,-0.099027,0.371054,-0.228218,0.841692,0.489358
-0.245679,0.216529,0.605924,-0.124178,0.784378,-0.607727
0.605885,0.112374,-0.659478,-0.439392,0.094929,-0.893266
0.102697,0.012997,0.016872,0.421618,0.544850,-0.724828
0.566278,-0.537449,0.658367,0.989745,0.142204,-0.013551
0.596689,-0.437081,0.561509,-0.695084,0.400890,0.596780
-0.421276,-0.664044,0.386839,0.438618,0.898517,0.016778
0.545125,-0.642654,0.681686,-0.335898,0.460341,-0.821741
0.209748,0.087427,0.401561,-0.032061,0.993173,0.112160
