-0.065380,-0.222157,0.166855,0.173669,0.394123,0.902500
0.210238,-0.082703,-0.230505,0.124760,-0.530265,0.838602
-0.059320,0.488661,0.378244,0.933063,-0.239210,0.268650
-0.052431,-0.355313,0.349021,0.330966,0.554535,0.763513
0.141190,-0.249357,0.339017,-0.643425,-0.233563,-0.729008
0.081295,-0.003244,0.679087,0.238800,-0.935391,-0.260805
-0.000127,0.774120,0.489856,-0.532866,-0.215046,0.818419
-0.271249,-0.347642,0.656109,-0.701664,0.687782,-0.186074
0.610397,0.038339,0.500534,0.876035,0.320276,-0.360535
-0.269941,-0.427293,0.385406,0.247449,-0.039556,0.968093
-0.375123,-0.293945,0.721589,0.798278,-0.496074,0.341559
-0.049051,-0.112013,0.339226,0.191577,-0.045796,0.980409
-0.056546,-0.195819,0.879959,0.619736,0.231167,-0.749992
-0.005932,-0.145830,0.646620,-0.364864,0.856682,-0.364651
-0.045702,-0.048951,-0.181483,-0.278924,0.349590,-0.894421
-0.609344,-0.370431,0.529260,0.978578,-0.077012,0.190929
-0.520077,-0.713103,-0.095595,0.031937,-0.859977,0.509333
-0.409089,-0.136337,0.534446,0.780296,-0.203828,0.591263
-0.087769,0.438991,0.693522,-0.317427,-0.866822,0.384525
0.338861,-0.292730,0.114574,0.830911,0.326827,-0.450301
0.147504,-0.346331,0.402988,0.509313,0.791471,-0.337897
0.126774,-0.297013,0.339274,0.858430,0.326527,0.395574
0.084740,-0.136561,0.803769,-0.121550,0.814698,-0.567003
0.159528,0.003308,0.777034,-0.127298,0.991561,-0.024549
-0.929995,-0.126652,-0.014379,-0.004851,0.719208,0.694778
0.512837,-0.018554,-0.981261,-0.097630,0.108629,0.989277
-0.108435,0.080754,0.605996,0.891922,0.427252,-0.148093
0.092617,0.713838,0.420908,-0.213964,-0.085325,0.973108
-0.094817,-0.246864,0.855440,0.569250,0.088471,0.817391
-0.132515,0.302862,0.592379,0.712082,-0.350493,0.608354
-0.296603,-0.594362,0.759981,0.220075,0.930417,0.293073
-0.570020,-0.094753,0.256260,-0.672375,0.396713,-0.624925
-0.010429,-0.087210,0.981374,0.457428,0.865675,-0.203387
0.183543,-0.315360,0.262795,0.916630,0.264466,0.299746
-0.373050,0.285123,0.125493,0.744539,-0.293607,0.599547
-0.136724,-0.291324,0.121575,0.921848,0.115953,0.369800
-0.188646,0.498697,0.630900,0.983407,-0.177059,0.039502
-0.364025,-0.377112,0.691402,-0.218718,0.886380,-0.408035
-0.138287,-0.129593,0.723902,0.607296,0.083208,-0.790106
-0.291979,-0.410513,0.785223,-0.706205,0.305827,-0.638548
-0.057598,-0.262749,0.413795,0.346146,-0.780733,-0.520230
-0.685600,-0.104726,0.283043,-0.213292,0.671084,0.710037
-0.156147,0.439247,0.684097,-0.503397,-0.450121,0.737551
-0.427236,-0.335304,0.749143,-0.881973,0.362143,-0.301621
-0.082985,0.092292,0.049784,-0.388251,-0.921208,-0.025253
-0.143550,-0.349528,0.172636,0.327286,-0.388180,0.861511
0.067453,0.601585,0.394671,0.754338,-0.088590,-0.650482
-0.014894,0.575887,0.440738,-0.407623,0.836621,-0.365936
-0.286940,-0.401212,0.789414,0.568543,-0.452854,0.686791
-0.304162,-0.340194,0.510682,-0.594462,-0.439368,-0.673477
-0.360453,0.143209,0.885145,0.130118,0.148875,-0.980258
-0.500016,0.401467,0.176216,0.099498,-0.257312,0.961192
-0.450231,-0.583750,0.626420,-0.624065,0.719825,0.303965
0.169128,-0.226631,0.130567,0.358901,-0.912138,0.197976
-0.352543,-0.597366,0.396276,0.262552,-0.274723,0.924983
-0.386988,0.176514,0.531636,-0.435889,0.169400,0.883914
-0.487960,-0.292794,0.503729,0.461671,-0.141926,0.875624
-0.411896,-0.322775,0.492522,0.048848,0.916201,0.397730
-0.691915,-0.182139,0.207608,-0.209300,0.897311,-0.388622
-0.423027,0.233727,0.736041,-0.606089,0.279515,-0.744666
-0.397608,0.412207,0.488122,0.851116,0.161345,-0.499570
-0.232977,0.084685,0.889946,0.946356,-0.209725,-0.245817
-0.375602,0.414859,0.622711,0.240809,-0.622757,-0.744436
0.082985,-0.131607,0.458529,0.437588,0.555362,-0.707170
0.597066,-0.104246,0.155921,0.090884,-0.118313,0.988808
-0.060022,0.016636,0.396180,0.953755,0.219351,0.205514
-0.395918,-0.065859,0.478536,-0.229695,0.583313,0.779093
-0.044905,0.909002,0.452765,0.895013,0.170452,0.412187
0.935098,-0.117638,0.198343,-0.423787,0.296288,-0.855931
0.084165,0.379381,0.543599,0.345380,-0.060615,0.936503
-0.189603,-0.588289,-0.079201,0.227742,-0.604215,-0.763582
-0.211481,-0.051444,0.701936,0.838407,0.298277,0.456184
0.170531,-0.064485,0.875254,-0.585944,0.608669,-0.534969
-0.127189,0.340067,0.707845,-0.728981,-0.147946,-0.668355
0.052018,-0.204705,0.356696,-0.133862,-0.925286,-0.354862
0.269750,0.110863,0.287170,0.823093,0.013640,-0.567743
-0.076575,-0.376345,0.160224,-0.448544,0.645737,-0.617926
-0.641556,0.058539,-0.033422,-0.410802,0.357884,-0.838547
-0.388167,0.421156,0.688978,0.953039,-0.299610,-0.044162
-0.255110,0.653365,0.605723,0.058757,-0.218834,0.973991
-0.303141,0.391239,0.640341,-0.723341,0.607288,-0.328603
-0.209951,0.347035,0.424103,-0.757010,-0.651037,0.055568
-0.310923,-0.022997,0.518068,0.180264,0.652751,0.735813
-0.280242,-0.013153,0.696428,-0.235973,-0.860609,0.451296
-0.402870,0.079699,0.771960,0.200431,0.542154,0.816025
-0.459224,-0.316862,0.612627,0.411418,0.861600,-0.297288
-0.057247,-0.746504,0.496279,0.148148,0.050203,-0.987690
-0.318386,-0.087754,-0.133842,-0.462961,0.243293,-0.852335
-0.256450,-0.361418,0.200077,-0.131841,-0.064070,-0.989198
-0.087578,0.993224,0.321499,0.350929,-0.147188,-0.924762
-0.106969,-0.529606,0.649831,0.966478,0.165482,-0.196308
-0.048030,-0.054544,0.798759,-0.677132,-0.569061,-0.466542
0.571680,-0.051412,-0.961383,-0.533193,0.180969,0.826411
-0.340583,0.162323,0.468083,0.655065,0.196389,0.729604
-0.295678,-0.261758,0.649301,0.818782,0.545221,0.179806
-0.389890,-0.503652,0.051262,0.031624,0.027619,0.999118
0.624780,-0.092068,0.155953,-0.063229,-0.183405,0.981002
0.018179,-0.024563,0.926973,0.294953,0.733209,0.612705
0.425961,-0.015454,0.596747,-0.007098,0.854392,0.519581
0.147791,-0.305324,-0.005708,0.070630,0.927500,0.367090
-0.406187,-0.492401,0.640807,0.776459,-0.439527,-0.451583
-0.640854,-0.872789,-0.152340,-0.617570,0.331490,-0.713247
-0.064615,0.134355,0.791373,-0.705371,-0.038942,0.707768
0.061425,0.800713,0.523929,-0.203939,-0.759326,0.617926
-0.008930,-0.480031,0.912233,-0.119047,0.597806,0.792752
-0.356466,-0.353523,0.704858,0.112178,-0.928056,0.355145
-0.530091,-0.744107,-0.120628,0.070042,-0.618611,0.782569
0.599586,-0.021207,0.158971,0.390637,-0.059892,0.918594
0.002743,-0.737139,0.846512,0.558009,0.728830,0.396778
0.006060,-0.145062,0.868237,-0.596905,0.609408,-0.521849
-0.414797,0.112748,0.607087,-0.694958,-0.602622,0.392277
0.018242,-0.214773,0.667863,-0.713416,-0.683196,-0.155819
-0.146675,0.959503,0.337749,-0.619004,-0.067547,-0.782477
-0.398628,0.109904,0.856082,0.107564,0.902910,-0.416153
-0.169191,0.461205,0.635733,0.984753,-0.092160,0.147543
0.055302,0.380563,0.708166,0.641477,0.593267,-0.486355
-0.071280,0.394371,0.445250,-0.491566,0.795546,0.354216
0.068442,-0.244466,0.673676,0.452501,0.891426,-0.024545
-0.479859,0.108753,-0.073244,0.492342,0.088869,0.865853
0.250167,-0.003244,0.815378,0.761598,-0.315453,-0.566090
-0.070068,-0.359341,0.367470,-0.376603,-0.607443,-0.699416
-0.108500,0.187669,0.473542,-0.488443,-0.821375,-0.294563
-0.370467,-0.490579,0.813419,0.894528,-0.233669,0.381075
0.027459,-0.329967,0.824161,0.669643,0.727751,0.148179
-0.235656,0.333610,0.638093,-0.229881,0.159081,0.960129
0.415946,0.087754,-0.974148,0.122864,0.144665,0.981823
0.073992,0.612740,0.549154,-0.161587,0.425683,0.890328
0.100654,0.009988,0.812632,-0.200154,0.962578,-0.182707
-0.026917,0.418152,0.662677,-0.229370,-0.254472,0.939486
0.165046,0.675707,0.435536,0.589109,-0.230166,-0.774580
0.037793,0.439407,0.753687,-0.519196,-0.715071,0.468091
0.044650,-0.128410,0.856034,-0.655154,0.421989,0.626657
0.146707,-0.230339,0.227872,0.866967,0.445828,0.222722
-0.919215,-0.078165,-0.036056,-0.125958,0.423652,0.897025
-0.220602,0.163218,0.818252,-0.131093,0.968449,-0.211948
0.043598,0.165615,0.800188,0.913881,-0.404974,0.028577
-0.211672,-0.445799,0.683454,-0.045844,-0.923864,0.379965
-0.416074,-0.353427,0.731994,0.808194,-0.573055,0.135756
0.098166,-0.457338,0.350835,0.850598,-0.514268,0.109600
0.329963,-0.223914,-0.250640,0.981604,-0.176921,-0.071787
-0.164471,-0.654644,0.407564,0.022112,0.517811,0.855210
-0.066177,0.109839,0.441075,0.783936,0.197256,-0.588672
0.512518,-0.079219,0.141341,0.331219,0.533227,-0.778436
-0.032307,0.023093,0.586342,0.542364,0.524070,0.656652
-0.258874,0.105812,0.791919,0.454363,-0.490099,0.743880
0.138479,-0.077430,0.169810,-0.470718,0.485502,-0.736690
0.365811,-0.019193,0.331792,-0.299946,-0.298264,0.906130
0.025004,-0.077685,-0.195164,0.098732,-0.365367,0.925613
-0.193206,-0.023125,0.825044,0.141735,-0.442125,0.885684
-0.278743,-0.306986,0.043362,-0.025068,0.180986,0.983166
-0.608324,-0.402554,0.168204,-0.026527,-0.113593,0.993173
0.628672,0.003084,0.545445,-0.145076,0.514752,0.844975
0.017797,0.070717,0.051519,0.144969,0.609704,-0.779259
0.507096,-0.077397,0.141068,0.312438,0.566661,-0.762416
-0.710190,-0.670146,-0.087887,0.184489,-0.614589,0.766971
-0.044490,0.173190,0.623064,0.504784,0.381503,-0.774370
-0.273035,0.058955,0.438040,-0.611934,0.139098,-0.778581
-0.066241,0.924504,0.401382,0.938818,-0.313963,0.141592
-0.161569,-0.596823,-0.074416,0.227742,-0.604215,-0.763582
-0.359624,-0.372445,0.685220,0.117025,-0.922031,0.369003
0.474055,0.025139,-0.986127,0.022143,0.030835,0.999279
-0.206634,-0.444745,0.374150,0.006830,0.082231,0.996590
0.081040,-0.199942,0.347640,0.484291,0.843451,0.232492
-0.017700,-0.521231,0.809405,-0.423948,0.767115,0.481458
0.542402,0.028591,-0.982081,-0.098040,0.019567,0.994990
-0.125881,-0.553673,-0.086153,0.360298,-0.763692,-0.535686
-0.096667,0.077397,0.494673,0.886265,-0.196321,0.419513
-0.234093,-0.053234,0.827436,-0.331308,-0.084915,-0.939694
-0.099283,0.876336,0.441573,0.128841,-0.464769,0.876008
-0.247265,0.582663,0.106224,0.512057,0.840833,-0.175491
-0.346547,0.563134,0.180279,0.567643,-0.602036,-0.561546
-0.283496,0.530724,0.738738,-0.253307,0.945201,-0.205986
0.163260,-0.157912,0.174129,-0.000832,0.137998,0.990432
-0.241939,0.967175,0.425612,-0.659723,0.745134,0.097677
0.562621,-0.380276,-0.954045,-0.150332,0.069760,0.986171
-0.077212,0.912007,0.487223,0.756569,-0.652296,-0.045969
-0.263721,0.218513,0.615052,0.855703,0.087995,0.509931
-0.094243,0.167564,0.824354,-0.586449,0.693689,-0.418179
0.087163,0.666086,0.526691,0.616813,-0.686894,-0.384343
0.445033,-0.025426,0.520011,0.241485,0.395131,0.886316
-0.346898,-0.047800,0.809051,0.332100,0.498522,0.800740
-0.136852,0.537916,0.414678,0.393911,-0.402814,0.826181
0.328241,-0.235325,-0.241970,0.964900,-0.245394,-0.093546
-0.188582,0.127163,0.658871,0.853319,0.481867,0.199127
-0.619103,-0.174980,0.185080,0.095857,-0.546354,0.832051
-0.398660,0.187892,0.658036,0.621961,-0.751185,-0.221102
-0.091596,0.356496,0.315205,-0.365004,-0.263683,-0.892885
-0.191484,0.597590,0.590677,-0.532113,-0.070603,0.843725
-0.089236,0.386189,0.669709,0.541372,0.505193,-0.672083
0.028225,0.251083,0.682427,-0.491853,-0.347097,0.798501
-0.079350,0.056750,0.438827,0.398740,-0.841020,0.365639
0.192505,0.239672,0.788129,0.337821,0.687016,-0.643340
0.619710,-0.059818,0.156772,0.301114,0.072371,0.950838
0.123043,0.168811,0.424071,0.640859,0.005099,-0.767642
-0.024270,-0.168939,0.910724,0.837154,0.489691,-0.243670
-0.418881,-0.007815,0.720770,0.707905,-0.474085,0.523559
-0.457216,-0.344446,0.794632,-0.263718,0.852650,0.451044
0.035114,-0.283045,0.515419,0.882695,-0.458109,0.104809
0.075745,0.318141,0.658100,0.377838,-0.706928,0.597905
-0.235400,0.261023,0.107894,0.420039,0.060396,-0.905494
-0.086079,-0.254854,0.369333,-0.394951,0.914553,-0.087214
-0.181343,-0.127355,0.493902,-0.234566,0.242955,0.941250
-0.249944,0.774184,0.121607,-0.242406,-0.017841,0.970011
-0.158348,0.352692,0.615855,0.811623,-0.365520,0.455701
0.127189,0.179327,0.731095,-0.289200,0.770698,-0.567793
0.026758,0.812379,0.544289,0.674287,0.400959,-0.620137
0.117493,-0.103351,0.845067,0.924187,0.060960,0.377044
0.071568,-0.158966,0.469223,0.798124,-0.477853,-0.366954
0.197959,0.553929,0.548512,-0.597220,-0.553347,0.580633
0.349609,-0.228997,-0.250415,0.981604,-0.176921,-0.071787
-0.334078,0.391878,0.547131,0.654494,0.353584,-0.668293
-0.375665,-0.467470,0.572886,0.810472,0.092644,0.578404
-0.471631,-0.484410,0.595286,0.227465,0.107015,0.967888
0.042673,0.199591,0.139671,0.413053,0.888380,0.200422
-0.110891,-0.631726,0.420571,0.335924,0.378164,0.862639
-0.629532,-0.240439,0.627335,0.244575,-0.849393,0.467670
-0.162111,0.288160,0.086908,-0.237286,-0.002839,-0.971436
-0.039100,0.660652,0.707122,-0.656752,0.578302,0.483987
-0.413011,0.053969,0.371629,0.163872,-0.941427,-0.294722
-0.407590,0.216691,0.823294,0.695539,-0.515744,0.500233
0.560772,0.081393,0.494930,-0.762422,0.630831,-0.144101
0.028130,-0.230914,0.615839,0.964677,0.249795,-0.083665
0.391804,0.021143,0.334811,0.234331,0.393113,-0.889130
-0.616839,-0.219280,-0.019357,-0.017511,0.962067,0.272252
-0.362334,-0.294200,0.632072,0.517073,-0.417370,0.747287
-0.220283,-0.064709,0.836364,-0.124182,-0.508663,-0.851963
-0.044043,0.176865,0.601532,0.105011,0.857325,-0.503951
-0.069271,-0.731609,0.726085,-0.553993,0.820185,-0.142786
-0.036836,0.495757,0.366362,-0.440442,0.833523,-0.333540
-0.564726,0.094594,-0.053526,0.157765,-0.076169,0.984535
-0.055366,0.053905,0.153335,0.685436,0.552305,-0.474485
-0.442289,-0.470922,0.162440,-0.281573,0.278587,0.918208
-0.212439,0.097534,0.754956,0.904770,-0.359091,0.229008
-0.336151,-0.121378,0.665454,-0.425108,0.727234,-0.538900
0.154903,0.012449,0.792705,-0.359665,0.932220,-0.040078
-0.124031,-0.097950,0.346323,-0.008716,-0.539362,0.842029
0.094499,0.219312,0.220710,-0.315279,-0.718339,0.620152
0.082315,-0.008294,0.620977,-0.754157,0.636031,-0.163435
0.210333,-0.096384,0.517827,0.483143,0.616081,-0.622107
-0.342911,-0.742541,0.462672,0.315328,0.449869,0.835576
0.178153,-0.001646,0.904076,-0.112311,0.962552,0.246738
0.231415,-0.149282,-0.256726,0.392443,-0.008591,0.919736
0.017477,-0.022038,0.895373,0.696118,0.714179,-0.073269
0.141636,-0.227622,0.233829,0.870436,0.432439,0.235240
-0.036357,0.160501,0.379192,-0.514930,0.608432,0.603869
-0.131973,-0.563230,0.562915,0.202246,0.062812,0.977318
-0.261330,-0.620507,0.809051,0.295261,0.882998,0.364877
-0.654408,-0.752993,-0.103912,0.090792,-0.095635,0.991267
0.056036,0.819443,0.514279,0.543739,0.453531,-0.706157
-0.178983,0.672926,0.590469,-0.327537,0.095588,0.939991
0.055525,0.119364,0.707507,-0.411202,0.845401,-0.340896
0.208994,0.326003,0.333831,0.052365,-0.504126,0.862041
0.025515,-0.142665,0.930875,0.871752,0.489850,0.009795
-0.487514,-0.495725,0.607617,-0.035027,-0.119829,0.992176
-0.368776,-0.675643,-0.091195,-0.074847,-0.317980,0.945138
-0.393557,-0.026066,-0.107204,-0.320330,0.373293,-0.870656
-0.068761,0.005641,0.429145,0.967264,0.207502,-0.146093
0.073513,-0.118853,0.162905,0.106588,-0.414955,0.903577
0.586668,-0.308520,-0.953050,-0.093433,0.103520,0.990229
-0.126583,-0.231425,0.812214,-0.139829,0.764387,0.629413
-0.447074,-0.685072,-0.105614,-0.101220,0.821180,-0.561620
0.034445,0.191217,0.634577,-0.586606,0.549372,0.595050
0.547728,-0.393636,-0.951701,-0.378785,0.028530,0.925045
-0.186636,0.361450,0.775685,0.986065,-0.113514,0.121614
-0.293542,-0.274991,0.037918,0.208002,-0.171163,-0.963036
-0.375698,-0.068927,0.199322,0.290193,0.924251,-0.248091
-0.221240,0.322807,0.410246,0.396153,-0.761480,0.513040
0.470738,-0.288511,-0.968705,-0.197146,0.041434,0.979498
-0.090511,0.223691,0.823904,0.909642,-0.329543,0.252890
-0.099888,-0.262334,0.370184,-0.403883,0.746844,-0.528302
0.087418,0.213559,0.341892,-0.714266,0.692886,0.098655
-0.529325,-0.209276,0.544289,-0.088006,-0.753359,0.651694
0.033201,0.328049,0.262587,0.622070,-0.252311,0.741194
-0.262956,0.621178,0.481057,0.898660,-0.338417,0.279078
0.165556,0.177089,0.491992,0.832626,0.541260,0.117349
-0.127731,0.600371,0.424793,0.602557,0.098669,0.791953
-0.198661,-0.272913,0.783713,0.390599,-0.292314,0.872917
0.163291,-0.345660,0.278130,0.912187,0.038892,0.407925
0.138032,-0.153692,0.298618,0.546332,0.686245,0.480197
-0.229597,0.119876,0.595655,0.341416,0.925096,-0.166229
-0.167597,-0.059051,0.495829,0.542803,0.177063,0.820983
0.065699,-0.221645,0.530319,-0.635275,-0.737824,-0.228124
0.216967,-0.191089,0.796431,0.325421,-0.803055,0.499204
0.090065,0.233887,0.854733,-0.522467,0.846766,0.100073
0.250007,0.280169,0.469496,-0.196875,-0.177548,0.964218
-0.383703,-0.130552,-0.129106,0.301389,-0.217020,0.928476
-0.267390,0.415531,0.138226,0.771286,0.174333,0.612148
-0.128209,0.455995,0.694582,0.624727,0.687467,-0.370276
-0.668251,0.049335,-0.042157,-0.323510,0.248323,-0.913059
-0.252527,0.793713,0.122972,-0.312669,-0.081441,0.946364
0.073609,0.239768,0.087550,0.051863,-0.144794,0.988102
-0.656067,-0.906190,-0.097618,0.785497,0.280280,0.551758
-0.783989,-0.598133,0.228546,0.266038,-0.238573,0.933974
0.007814,-0.237946,0.846287,0.571866,0.322493,0.754299
0.587402,0.039713,0.159694,0.417576,-0.193864,0.887720
0.043725,-0.349208,0.803881,-0.220173,-0.162183,0.961884
-0.291500,-0.133492,0.250496,0.246966,-0.249719,0.936295
-0.228863,-0.114922,0.866904,-0.645456,0.163295,-0.746138
0.471503,-0.121922,-0.977183,0.125065,-0.181364,-0.975431
-0.137266,0.245553,0.579470,-0.300626,0.510125,-0.805852
-0.231765,0.686159,0.477316,-0.698969,0.381608,-0.604828
-0.292011,-0.423521,0.535971,0.489894,0.247683,0.835857
0.034890,0.130328,0.458802,-0.382512,-0.859120,0.339997
-0.162781,-0.095456,0.870854,-0.289284,0.396524,0.871254
-0.052463,-0.033736,0.662115,-0.573830,0.612487,-0.543671
0.139308,-0.044444,0.682603,0.988101,0.094308,-0.121504
-0.199936,0.513784,0.748372,-0.128791,0.972823,-0.192429
-0.059193,0.731450,0.421743,-0.552846,0.167352,-0.816306
0.045894,0.240279,0.799690,0.277586,0.486862,0.828198
0.128911,0.163121,0.195437,-0.240771,-0.604970,0.758973
-0.134236,0.133556,0.536421,-0.659815,-0.174279,-0.730939
-0.633615,-0.279945,0.610540,0.473856,-0.567511,0.673343
-0.182842,0.339460,0.859342,0.706597,0.698287,-0.114527
-0.005263,-0.430617,0.823904,-0.004397,0.991558,0.129590
-0.223569,-0.248781,0.028702,-0.063818,0.106481,0.992265
-0.181406,0.090278,0.476962,-0.522765,-0.704832,-0.479509
0.285919,0.108337,0.500839,0.206695,0.254265,0.944789
-0.664997,-0.133492,0.277102,-0.039381,0.724787,0.687847
-0.355477,0.851661,0.108312,0.281563,-0.255061,-0.925022
-0.195248,0.279338,0.762326,-0.030687,0.335268,0.941623
0.694658,-0.127867,0.161926,-0.114532,-0.639850,0.759917
0.027141,-0.255174,0.773004,-0.916159,-0.251239,-0.312301
-0.266528,-0.661579,0.600408,0.243963,0.488248,0.837912
-0.137808,0.282534,0.528617,0.219579,0.439695,-0.870892
-0.085218,0.200966,0.619869,-0.197038,-0.578358,0.791630
0.462541,-0.024020,0.159951,-0.222205,-0.622469,0.750438
-0.015595,0.146469,0.715456,-0.432540,-0.888627,0.152482
-0.146516,0.385166,0.540837,0.383601,-0.680417,0.624406
-0.691404,-0.467470,0.282080,-0.086252,0.991335,-0.099076
-0.163196,0.054992,0.563364,0.863823,0.497322,0.080510
0.023122,-0.191313,0.098726,0.304838,0.815022,0.492760
0.182172,-0.146341,-0.250897,0.300070,-0.101221,0.948532
0.001881,0.132885,0.187745,0.029529,-0.243989,0.969328
-0.031414,-0.236316,0.826104,0.185766,-0.529269,-0.827868
-0.031733,-0.310661,0.557905,0.216808,-0.025558,0.975880
0.564184,-0.168651,-0.878064,0.388924,-0.904833,0.173247
0.055940,0.344318,0.671026,0.610791,0.534293,0.584350
0.217987,-0.169769,0.319605,-0.621087,0.140688,0.771011
-0.217509,-0.565500,0.725909,0.519831,-0.854250,0.005747
0.023856,0.398718,0.738305,0.486448,0.771330,-0.410388
-0.186127,0.362249,0.533595,-0.651565,-0.312830,0.691086
-0.281422,0.899829,0.394992,-0.254393,0.943946,0.210357
-0.516663,-0.392741,0.181708,0.793340,0.035951,0.607717
0.221846,-0.263516,0.293432,0.003693,-0.753268,0.657703
0.220762,0.348377,0.480190,-0.497540,0.526394,-0.689466
-0.066369,-0.396929,0.760110,0.032178,0.595049,0.803045
-0.002551,0.410001,0.724881,0.324469,0.758362,-0.565337
0.071599,-0.061704,0.542507,-0.124318,-0.964067,0.234776
-0.047042,0.950746,0.409909,0.921208,-0.387439,0.035598
0.265381,0.148131,0.293737,0.579055,0.290348,-0.761835
-0.326423,0.001806,0.802869,-0.217504,-0.810474,-0.543897
0.534779,0.042910,0.522997,0.381366,-0.819112,-0.428503
0.073290,-0.251978,0.037838,-0.127752,0.953480,-0.273048
-0.097209,0.091461,0.121157,0.921801,0.221232,-0.318339
-0.093286,-0.198312,0.961640,0.921062,-0.077068,-0.381713
-0.288407,0.230019,0.374198,0.141650,-0.597742,0.789075
0.107990,-0.024307,0.224612,0.871773,-0.127571,0.473009
-0.135800,0.108273,0.586438,0.685524,0.713681,-0.143931
-0.463371,0.335496,0.824450,0.952842,-0.104082,0.285061
-0.345495,-0.079603,-0.132526,0.430978,-0.235994,0.870956
-0.301100,-0.366787,0.664973,-0.433831,-0.017364,-0.900827
0.223729,0.162866,0.807028,0.946711,0.100293,-0.306071
-0.528974,-0.410896,0.444993,-0.536050,0.357609,-0.764700
-0.392505,-0.019897,-0.111009,-0.320330,0.373293,-0.870656
-0.032148,0.212024,0.752194,-0.006210,-0.786156,0.617997
-0.742050,-0.498410,0.320375,-0.254351,0.966795,0.024748
-0.082252,0.482588,0.071542,-0.296177,-0.020189,-0.954920
-0.075968,0.900372,0.327681,-0.329732,0.348249,0.877496
0.125658,0.350838,0.352024,0.643060,-0.242037,-0.726561
0.090672,-0.125853,0.861878,-0.673956,0.654003,0.343605
0.005837,0.666437,0.467617,0.920950,-0.389610,0.007470
-0.109615,0.215221,0.512095,0.715054,0.325020,-0.618919
-0.752288,-0.350359,0.039990,0.430654,0.548450,0.716757
-0.698548,-0.451233,0.267869,-0.248400,0.814015,-0.525050
-0.085058,-0.123808,0.844585,-0.170333,-0.805131,0.568112
-0.139722,-0.009637,0.484702,-0.375364,0.163718,-0.912304
-0.002902,-0.030956,0.740858,-0.250880,-0.902804,-0.349290
-0.026917,-0.406293,0.530737,-0.673732,0.188558,-0.714514
0.228130,0.035431,0.892258,-0.025453,0.832157,0.553956
0.105884,-0.157368,0.314226,-0.621680,-0.194364,-0.758773
-0.349577,0.207997,0.870228,-0.779650,-0.153834,0.607027
0.193558,-0.016381,0.138932,0.853062,0.023047,0.521300
-0.094945,-0.694884,0.779539,-0.048077,-0.995530,0.081296
-0.246659,0.275917,0.765906,0.555577,0.817789,-0.150185
-0.597703,0.138095,-0.040841,0.086549,-0.065703,0.994079
0.033073,-0.750723,0.514230,0.087475,-0.503905,0.859318
-0.241907,0.793265,0.125991,-0.041638,-0.008025,0.999101
0.069877,-0.005258,0.752708,0.926460,0.299997,-0.227318
0.055749,0.045084,0.372978,-0.864501,0.127601,0.486164
0.021432,-0.175875,0.611519,-0.656460,-0.507733,-0.557914
-0.188327,0.284707,0.801906,0.783900,0.351732,-0.511649
0.324063,-0.138670,0.146511,0.074078,0.142597,0.987005
-0.443789,-0.187988,0.028300,0.152183,0.548782,-0.821997
0.190018,0.204769,0.464807,0.340915,0.665484,0.664009
-0.766130,0.055887,-0.037421,0.034765,0.318956,0.947132
0.054154,-0.428667,0.576884,0.983766,0.175430,-0.037810
0.003923,0.854985,0.503312,-0.543699,-0.444232,0.712074
-0.300877,0.336902,0.732428,0.728576,0.609873,0.311822
-0.557168,-0.325875,0.621860,-0.042590,0.329641,0.943145
-0.042354,0.268918,0.803528,0.340948,0.657899,0.671509
-0.449593,-0.516756,0.223729,0.158280,-0.016370,-0.987259
-0.163929,0.323830,0.086571,0.552012,0.006191,0.833813
0.382938,0.012673,0.349214,-0.031908,-0.413451,0.909967
-0.433966,0.150368,0.789366,0.484028,-0.866158,0.124444
-0.020922,-0.703610,0.807606,0.343064,0.885259,0.314043
-0.057279,-0.597238,0.686344,0.933730,0.263654,-0.242148
-0.097942,0.046170,0.462752,-0.607580,-0.764728,-0.214566
-0.328592,-0.080658,0.670625,0.822132,-0.393040,0.411847
-0.082507,-0.651639,0.839078,-0.618221,-0.719004,-0.317546
-0.426120,-0.404919,0.415609,-0.355748,-0.112657,-0.927767
-0.137076,0.291292,0.344975,0.918049,0.390952,-0.065900
0.314846,-0.188021,0.141951,0.180935,-0.844479,-0.504101
-0.441397,-0.183130,0.487929,0.068081,0.502036,0.862163
-0.145336,0.333866,0.670384,-0.018547,0.730726,0.682419
-0.596109,-0.426622,0.635829,-0.138960,-0.973696,-0.180571
0.010843,-0.206335,0.825012,0.863961,0.341972,-0.369630
-0.267007,0.637480,0.468211,-0.702053,0.445676,-0.555423
-0.626631,-0.470027,0.025362,0.499978,0.510350,0.699689
-0.284643,-0.459096,0.667349,0.204302,0.482924,-0.851496
0.087100,-0.436434,0.836862,-0.657067,0.179983,-0.732031
0.001595,-0.424352,0.645528,-0.742937,0.220730,-0.631921
-0.753086,-0.555208,0.237923,-0.170864,-0.492864,0.853165
-0.406793,0.427389,0.663656,0.865218,-0.487139,0.118718
-0.102567,0.598485,0.425950,0.542074,-0.039515,0.839401
-0.381278,0.236220,0.123694,0.653505,0.407750,0.637708
-0.223855,-0.012801,0.769760,0.889451,0.456533,-0.021306
0.047329,-0.058891,0.895116,0.195329,0.969970,-0.144933
-0.347600,0.176034,0.788563,-0.706535,0.543365,-0.453390
-0.110413,0.285922,0.792754,-0.293302,-0.938484,0.182269
-0.237793,0.133556,0.819183,0.384603,0.342681,0.857118
-0.129038,0.032234,0.814591,-0.489604,0.614189,-0.618918
-0.049401,-0.326067,0.112230,0.749519,0.264825,0.606704
-0.031159,-0.474694,0.878642,0.257298,0.843633,0.471256
-0.168457,0.470538,0.663592,-0.193878,-0.618071,0.761839
-0.192154,0.162738,0.825863,-0.009312,0.660359,0.750893
-0.567469,-0.233951,0.008791,-0.400589,0.531471,0.746369
0.178153,-0.270548,0.248489,0.854034,0.365686,0.370000
-0.260309,0.272274,0.074721,-0.355947,0.014986,0.934386
-0.370052,-0.680725,-0.092207,-0.074847,-0.317980,0.945138
-0.321161,-0.015614,0.620270,-0.402147,0.884204,-0.237615
-0.356562,-0.390120,0.017446,-0.002453,0.332324,0.943162
0.131877,-0.218832,0.377442,0.579285,-0.807637,-0.110236
0.698772,-0.279945,-0.950545,0.146018,0.285596,0.947161
-0.244107,0.157368,0.807558,-0.175611,0.853387,-0.490808
-0.090416,0.734358,0.435744,-0.530341,0.451419,-0.717606
-0.411992,0.388842,0.747040,0.877336,-0.436887,0.198523
-0.052560,-0.235869,0.823278,-0.093983,0.622153,0.777234
-0.023123,0.316286,0.691723,0.266779,-0.327375,-0.906452
-0.088949,-0.161492,0.488668,0.210252,-0.018824,0.977466
0.181598,-0.344062,0.343112,0.905454,-0.120031,0.407119
-0.083112,0.171400,0.192113,-0.474257,0.008362,-0.880347
-0.318833,-0.166669,0.529677,-0.308333,0.581039,-0.753210
-0.448381,-0.426717,0.171929,-0.134982,-0.306812,0.942150
0.437921,-0.015710,-0.984874,-0.088239,-0.004073,0.996091
-0.721256,-0.786969,-0.104201,-0.511914,-0.341257,0.788345
-0.390208,0.115593,0.785978,0.104192,0.650546,0.752286
0.097305,0.874067,0.536501,-0.545721,-0.808043,0.221935
0.059129,-0.191249,0.851393,-0.050612,0.393521,-0.917921
-0.478839,-0.158614,-0.116196,-0.381274,0.001852,-0.924460
-0.260149,0.492848,0.540500,0.807803,-0.533005,-0.251714
-0.182300,-0.223595,0.417263,0.570844,0.784492,0.242301
-0.456259,0.258913,0.765842,0.839508,-0.412657,0.353470
0.096093,-0.039522,-0.206002,0.225543,-0.397742,0.889343
-0.340392,-0.734646,-0.101520,-0.288171,-0.035585,0.956917
0.267709,0.063590,0.770354,0.827434,0.006898,-0.561521
0.175634,0.062823,0.159935,0.704573,-0.040625,0.708468
-0.205900,0.469516,0.690953,-0.538578,0.352647,-0.765228
0.554010,-0.113931,0.163933,0.220352,0.264732,0.938809
0.497528,-0.153884,-0.806338,0.603541,-0.787780,0.123050
-0.146994,-0.538747,0.407548,-0.374374,0.393207,0.839781
0.215054,-0.240343,-0.012243,-0.616596,0.756238,0.218892
0.166768,0.032586,0.819312,0.879744,0.465681,-0.095875
0.075299,-0.540697,0.334859,-0.809939,0.573206,-0.124233
-0.223313,0.040321,0.928996,0.835797,-0.520552,-0.174551
-0.074182,0.392645,0.326060,-0.457939,0.532408,-0.711923
-0.267325,0.366756,0.554662,0.681042,-0.243021,0.690740
0.130952,0.159542,0.428422,0.582848,0.075913,-0.809027
-0.155350,0.497387,0.705372,0.038329,-0.917089,0.396835
-0.283591,0.172391,0.625489,0.420575,-0.580226,0.697463
-0.194132,0.180029,0.454354,0.919911,0.243041,-0.307724
-0.037378,-0.441772,0.797908,-0.299511,0.926275,-0.228710
-0.303301,-0.108881,0.100139,0.329091,0.932002,0.151893
0.291277,-0.001039,0.826361,0.876104,-0.004280,-0.482103
-0.557518,-0.209339,0.283589,0.724887,0.647905,0.234004
-0.367756,-0.354993,0.712485,-0.716678,0.544465,-0.435809
-0.284388,-0.760919,0.483642,0.417851,0.754709,-0.505781
-0.230171,0.486520,0.481972,0.590124,-0.112126,0.799488
-0.167213,0.213718,0.382275,0.263480,0.780467,-0.566965
0.282060,0.131287,0.854332,0.974439,0.180762,-0.133397
0.074566,-0.128091,0.153737,0.626785,-0.334626,0.703680
-0.069845,-0.467566,0.394960,-0.406045,0.647703,-0.644677
-0.217797,-0.113899,-0.171416,0.318122,-0.486812,0.813519
-0.096858,-0.056558,0.903097,0.152899,-0.794773,-0.587330
-0.312390,0.361418,0.714107,-0.470563,-0.785439,0.402064
0.092202,0.395906,0.754249,0.544975,0.725342,-0.420572
0.252337,0.578476,0.561229,-0.290801,0.951737,0.098141
-0.273480,-0.051188,0.831483,0.303809,0.758860,0.576048
0.008483,-0.588896,0.490691,0.999905,-0.010723,-0.008666
0.098645,0.080977,0.062132,-0.004634,-0.869814,0.493357
0.045606,0.755901,0.504404,-0.293055,-0.539213,0.789537
0.223218,-0.157688,0.789398,0.224370,-0.655351,0.721230
-0.155828,0.093283,0.595976,0.855061,0.506932,-0.109041
-0.076862,0.376504,0.501305,0.708801,-0.670244,0.219940
0.020060,-0.264411,0.586246,0.915342,-0.311867,0.254731
-0.164056,0.831525,0.373861,0.289509,0.397819,0.870589
-0.228034,0.338053,0.105919,0.659219,0.564003,-0.497324
0.200606,0.020696,0.508980,-0.794127,-0.198524,-0.574414
0.124382,-0.168811,-0.232624,0.375459,-0.002063,0.926837
-0.209982,0.345405,0.508081,-0.661991,0.093811,0.743617
0.180099,-0.246927,0.742752,-0.882362,0.470499,0.008215
-0.335162,0.008966,0.391427,-0.240901,-0.957812,0.156727
-0.178313,0.871414,0.356423,0.898257,0.069477,0.433943
0.036199,-0.270995,0.538605,-0.649885,0.599540,-0.467119
-0.109902,0.224298,0.517153,-0.652051,-0.309995,0.691905
-0.333471,-0.463187,0.657522,-0.711264,0.104161,0.695165
-0.016680,-0.201477,0.698323,-0.577062,-0.816643,-0.009667
-0.400893,-0.513017,0.598031,0.590193,-0.360424,-0.722334
0.226216,-0.212695,0.329062,-0.332778,0.742764,0.581000
-0.178983,-0.114506,-0.177276,-0.336190,-0.799267,-0.498145
-0.157327,-0.416362,0.772891,0.226250,-0.918450,-0.324439
-0.799170,0.093251,-0.049399,-0.009441,0.407819,0.913014
-0.213076,-0.196842,0.187232,0.106407,0.398872,0.910812
-0.588391,-0.173190,0.562481,0.158952,0.983835,-0.082485
-0.229213,0.206431,0.678139,0.811260,0.556527,0.179260
0.389667,0.237467,0.224981,-0.438968,-0.686935,-0.579161
0.003540,0.148802,0.285933,0.999620,-0.002525,0.027453
0.076702,0.105876,0.706624,-0.380348,0.765860,-0.518453
-0.456706,-0.169642,0.723629,0.869681,-0.105986,0.482101
0.078456,0.232576,0.427780,0.825494,0.318028,-0.466281
0.001850,-0.126428,-0.207399,-0.185651,0.620063,-0.762270
-0.823090,-0.659629,0.228674,0.209893,-0.382656,0.899733
-0.434061,-0.420740,0.085704,-0.105970,0.379595,0.919064
-0.024525,-0.139884,0.913758,-0.607355,-0.698553,0.378342
-0.270005,0.805827,0.136733,-0.350692,0.074241,0.933544
0.192856,-0.337606,0.449152,0.016847,-0.864237,0.502803
0.559241,-0.398334,-0.949212,-0.272229,0.027735,0.961833
-0.462765,0.107123,0.562947,-0.334664,0.923246,-0.188725
-0.529516,-0.656561,0.635942,-0.628377,0.736404,0.250703
-0.276989,0.440238,0.569370,0.909912,0.371403,0.184716
-0.056577,-0.131127,-0.208780,0.262608,-0.513434,0.816959
-0.169128,0.507935,0.480993,-0.612775,-0.021891,-0.789954
-0.229150,0.911399,0.393322,-0.220217,0.928615,-0.298628
-0.202902,-0.102169,0.747377,0.052663,-0.900638,0.431367
-0.166353,0.442315,0.677802,-0.677374,0.364626,-0.638915
0.028193,-0.235805,0.681511,0.656924,0.715845,0.236678
-0.032243,0.192751,0.851666,0.680930,0.621182,0.387901
-0.199393,-0.616832,0.771751,0.133056,0.795854,0.590688
-0.107064,0.457945,0.709691,-0.174484,-0.731097,0.659585
0.062669,-0.033609,0.731368,-0.079667,0.955192,-0.285063
-0.027140,-0.320122,0.901186,-0.379713,-0.822337,-0.423769
0.074693,-0.271667,0.461291,0.938022,-0.179887,0.296237
-0.236389,-0.427612,0.385229,0.008756,0.016759,0.999821
0.067740,0.183258,0.380123,-0.327999,0.886901,0.325306
0.455876,-0.295926,-0.969492,-0.153084,0.060078,0.986385
-0.041652,-0.366308,0.541848,0.738657,-0.260067,0.621894
-0.778695,-0.147428,0.021621,0.184928,0.865520,0.465485
-0.108435,-0.536957,0.643521,0.961079,0.242385,0.132577
-0.279413,-0.057389,0.042189,-0.759113,-0.515244,0.397834
0.703365,0.071229,0.576017,-0.376095,-0.114651,0.919461
0.015372,-0.143688,0.833907,-0.357959,0.367137,0.858531
-0.060533,0.402298,0.709996,-0.162049,-0.824337,0.542411
-0.129676,-0.376824,0.498752,0.221264,0.065931,0.972983
0.092362,0.101721,0.406601,-0.757300,0.553997,-0.345809
0.069590,0.083598,0.402169,-0.908520,0.338030,0.245617
-0.279540,0.637831,0.116838,0.332427,0.797747,-0.503083
-0.210269,0.060873,0.893751,0.923565,-0.229492,-0.307183
-0.034061,-0.432471,0.842064,-0.144954,0.963171,0.226471
-0.175601,0.114922,0.555079,0.445028,0.328427,0.833118
-0.082698,-0.049750,0.357226,0.281452,-0.246614,0.927343
-0.227332,0.219056,0.462495,0.734132,0.589375,0.337176
-0.024207,0.412750,0.711136,0.135471,0.926741,-0.350427
-0.240058,0.436434,0.488973,0.724257,0.459334,0.514260
-0.177197,0.853803,0.364773,0.965592,0.134757,0.222423
0.190592,-0.119812,0.478375,-0.583125,-0.721418,0.373525
0.331590,-0.234175,0.082155,-0.730893,0.173259,0.660134
-0.176973,0.091717,0.859743,0.017388,-0.128464,0.991562
-0.059162,-0.168459,0.113659,-0.243099,-0.221878,-0.944284
0.857344,-0.168395,0.231725,0.849190,-0.341881,0.402485
0.030586,0.776453,0.434395,0.478202,0.876241,0.059373
-0.299665,0.007207,0.786893,0.245981,-0.817334,-0.521016
-0.359464,-0.091429,-0.137471,-0.387498,0.182510,-0.903623
-0.318227,0.361961,0.487881,0.789992,-0.240439,0.564005
-0.726423,-0.179742,0.250688,-0.104735,-0.981749,0.158747
0.275713,0.526697,0.531636,-0.219006,-0.615531,0.757072
-0.129485,-0.661611,0.465161,-0.111020,0.746082,0.656533
-0.160516,0.228389,0.817481,-0.661842,-0.188603,0.725531
-0.230553,0.364998,0.117994,-0.750631,-0.593594,0.290171
-0.256163,0.612421,0.460761,0.697774,-0.267951,0.664314
-0.022739,-0.180253,0.628427,-0.628114,-0.731375,0.265638
0.080753,-0.440557,-0.138226,-0.701731,0.385945,-0.598849
-0.075235,-0.476260,0.542426,-0.778900,0.583858,-0.228965
0.791580,-0.191440,0.155327,0.337544,0.869577,-0.360415
-0.254791,0.786106,0.120852,-0.312669,-0.081441,0.946364
-0.071249,0.242485,0.687436,0.939640,-0.335341,0.067994
-0.064136,-0.266105,0.417327,-0.040605,0.690175,0.722502
0.191452,-0.201509,0.179926,0.741996,-0.658560,-0.125461
0.175091,-0.208988,0.180712,0.695761,0.718219,0.008783
-0.043183,0.083439,0.436547,0.987286,-0.150929,-0.049862
0.160485,0.024723,0.806948,-0.080578,0.992483,0.092112
0.628097,-0.021814,0.153271,0.488945,0.116492,0.864501
-0.118099,-0.182586,0.773325,-0.475359,0.876697,-0.073734
0.060309,-0.179231,0.326493,0.785124,0.400816,0.472152
-0.391421,0.382865,0.740681,0.770829,-0.636914,0.012779
-0.965619,-0.824717,-0.060623,-0.536495,0.396115,-0.745161
-0.375857,0.270356,0.736924,-0.188121,-0.834512,0.517880
-0.284038,0.098141,0.857061,0.751388,0.452609,0.480167
-0.207750,-0.489492,0.678717,-0.445488,-0.853205,-0.271258
-0.059926,0.128218,0.442681,0.503632,-0.089210,0.859300
-0.073226,-0.371390,0.170757,0.232384,-0.607403,0.759644
-0.211450,0.297780,0.095161,-0.352993,-0.152552,0.923105
0.596364,-0.060202,0.155583,-0.334565,0.099834,-0.937070
-0.199617,-0.578445,0.418499,-0.215518,0.625501,0.749867
-0.482857,0.128889,-0.073902,-0.506554,-0.042304,-0.861170
0.147856,0.317341,0.674141,-0.191943,0.441089,0.876697
-0.211353,0.191280,0.587707,0.871109,-0.081155,0.484338
-0.045639,0.259968,0.876667,0.907247,0.320319,-0.272577
0.176942,0.394659,0.203305,0.081341,0.416006,0.905717
-0.292999,0.505889,0.633212,0.828479,0.206746,-0.520459
-0.194259,-0.729436,0.462832,0.447577,-0.361668,-0.817845
-0.801148,-0.112333,-0.019903,0.011919,0.165131,0.986200
0.027587,0.205184,0.677610,0.475843,0.262593,-0.839416
-0.646595,-0.042846,-0.041740,-0.209590,0.016806,-0.977645
0.186892,0.694565,0.441926,0.622396,-0.127272,-0.772286
-0.680561,-0.261183,0.149482,-0.003073,-0.189919,0.981795
-0.079413,-0.466223,0.529292,0.839178,-0.543565,-0.017789
0.682538,-0.144008,0.502974,0.930854,0.331566,-0.153544
0.562813,-0.052595,0.165523,-0.248893,0.158876,-0.955411
-0.158475,0.481374,0.578297,0.622692,0.635280,-0.456808
-0.329772,0.468333,0.591737,0.861907,0.458781,0.215953
-0.052400,0.608777,0.512544,-0.426673,0.870668,-0.244719
-0.007622,0.401179,0.684755,-0.252623,-0.967372,-0.019301
-0.702918,-0.516789,0.257850,-0.256166,0.481517,-0.838165
0.117334,-0.277836,0.011617,-0.256086,-0.958851,0.122578
-0.184946,0.208221,0.380027,0.260114,0.772422,-0.579401
-0.295838,0.104790,0.681447,-0.065721,-0.366127,0.928241
0.321576,-0.143496,-0.263678,0.518377,0.850082,0.092985
0.044235,-0.537788,0.813451,-0.546001,0.827859,-0.128580
-0.112805,0.146916,0.691242,-0.629874,0.381915,-0.676313
0.115867,-0.078676,0.846673,-0.254432,0.687866,-0.679783
-0.263785,-0.592060,0.401334,-0.539749,0.229429,0.809959
-0.221719,0.338053,0.118347,0.853499,0.465250,-0.234696
-0.445638,0.023796,0.433689,-0.257611,0.942175,0.214341
-0.235687,0.062407,0.826698,0.921686,0.251172,-0.295647
0.088599,-0.216180,0.359121,-0.383939,-0.923009,-0.025394
-0.205581,0.370303,0.763996,0.855735,-0.332523,0.396417
-0.337426,-0.071677,-0.127805,0.423401,-0.268351,0.865286
-0.490448,0.103735,0.569065,-0.719661,0.576317,-0.387230
0.014862,0.802982,0.496247,-0.515185,-0.335602,0.788642
-0.217637,-0.198632,0.843847,0.310865,0.620419,-0.720030
0.074821,-0.491282,0.772634,-0.548274,0.331267,0.767892
-0.590782,-0.343615,0.536068,0.862243,-0.285732,0.418204
-0.219326,0.055535,0.896096,0.922803,-0.254108,-0.289593
-0.277117,0.546418,0.449923,0.676981,-0.319929,0.662828
-0.203317,0.466447,0.424151,0.788578,-0.234101,0.568631
-0.110573,0.112269,0.101215,0.939407,0.318873,-0.125834
0.093350,-0.183961,0.460295,-0.583077,-0.123972,-0.802902
-0.012310,0.160085,0.865379,0.542524,0.828144,0.140873
0.242577,-0.412015,0.311046,0.029733,0.999348,0.020490
0.048413,0.177185,0.183314,-0.524719,0.695528,0.490827
-0.220315,-0.778531,0.476786,0.228015,0.966236,0.119991
-0.390560,-0.181500,0.538332,-0.439476,0.425517,-0.791073
-0.207686,-0.202979,0.192129,-0.265918,0.263629,-0.927247
-0.581565,-0.236156,0.217916,0.845588,0.219222,-0.486747
-0.145782,0.044732,0.839126,0.744157,-0.668001,-0.002343
0.281710,-0.145510,0.348668,0.721191,-0.131769,-0.680088
-0.091628,0.261343,0.838548,0.666239,0.745682,0.009169
-0.533248,-0.344286,0.187521,-0.064393,-0.516329,0.853966
-0.368649,-0.373148,0.690985,0.041994,-0.940345,0.337621
0.101260,-0.148706,0.626581,0.209798,-0.301673,0.930042
-0.392983,0.095936,0.645463,0.413765,0.837268,-0.357464
0.333726,-0.230147,0.197909,0.261986,-0.964482,-0.033734
-0.157136,0.319291,0.714316,0.256692,-0.255197,0.932193
0.556434,-0.155610,-0.919892,0.530158,-0.832683,0.159911
-0.039802,0.231586,0.182575,-0.139910,0.028711,-0.989748
-0.313857,-0.312483,0.630145,-0.386490,0.655499,0.648804
0.030936,0.218353,0.802050,-0.602761,-0.523406,-0.602267
-0.127252,0.605868,0.414164,0.544580,-0.011241,0.838633
0.202041,0.319931,0.467649,-0.006431,-0.514562,0.857429
-0.490065,-0.501958,0.047087,-0.265743,0.725149,0.635247
-0.025227,-0.012513,0.756625,0.587568,0.448100,0.673774
-0.423856,-0.357486,0.757541,-0.418102,0.907536,0.039604
-0.169733,0.336615,0.722264,0.148811,-0.008659,0.988828
-0.218402,-0.168555,0.871866,-0.701325,-0.560226,-0.440783
0.238686,0.370687,0.342903,0.250074,-0.096705,0.963385
-0.005453,0.138446,0.466975,0.271863,0.455372,-0.847778
-0.116058,0.305707,0.543502,-0.410371,-0.312252,0.856793
-0.012980,-0.472520,0.777837,-0.536636,0.338838,0.772794
0.100717,-0.223339,0.389468,-0.400894,0.908539,-0.117647
-0.022803,-0.549167,0.749352,0.904591,0.294018,0.308655
0.135959,-0.081808,-0.226764,0.377700,-0.415747,0.827344
-0.292648,-0.265817,0.031817,-0.147620,0.119673,0.981777
-0.167915,0.273361,0.817577,0.790057,0.330217,-0.516495
-0.289778,-0.034855,0.822025,-0.063000,0.734958,0.675180
0.639866,-0.031723,0.559623,-0.382752,-0.660043,-0.646409
-0.211895,-0.109201,0.861959,0.926507,-0.211419,0.311266
0.164312,-0.175875,0.443773,0.275710,0.423907,-0.862721
-0.098007,0.622553,0.344846,0.956821,0.280245,-0.077180
-0.051985,0.422115,0.624734,0.418486,0.256988,-0.871106
-0.189444,0.469484,0.686537,0.605262,-0.368832,0.705423
0.087865,0.123456,0.722135,0.294319,-0.414468,0.861158
-0.270802,0.694629,0.392375,-0.016944,0.790660,0.612020
-0.038016,0.981110,0.404995,0.971905,-0.156579,0.175738
-0.285504,-0.768878,0.438330,0.638958,0.067458,0.766278
0.528113,-0.248877,0.162440,-0.553598,0.798157,-0.237645
0.312007,0.093379,0.314129,-0.685643,0.045821,0.726494
-0.200669,-0.124383,0.860803,0.484343,-0.768594,0.417941
0.089141,0.576079,0.558435,-0.512390,0.302520,0.803703
-0.139212,0.093794,0.554565,0.932919,0.187805,0.307232
-0.005039,-0.071165,0.594354,-0.149429,0.009367,0.988728
-0.407654,-0.331373,0.382034,0.326539,0.299317,0.896539
-0.106172,-0.450370,0.425516,0.169472,-0.335220,0.926772
-0.211163,0.768047,0.416283,0.899545,-0.407465,-0.157454
-0.441364,0.190386,0.484140,0.685776,0.515630,0.513651
0.654951,-0.263453,-0.949935,-0.086159,0.070867,0.993758
-0.178568,0.339587,0.755469,0.747052,0.295548,0.595453
0.042386,-0.244179,0.400451,0.053917,-0.903941,0.424245
-0.150597,0.510140,0.077483,0.240988,-0.082663,0.967001
0.152862,0.174468,0.491976,0.832626,0.541260,0.117349
-0.149960,0.345053,0.546376,0.026998,-0.344313,0.938467
-0.109137,0.099004,0.090585,0.707754,0.704239,0.055955
0.062542,0.138734,0.179749,-0.238313,-0.137179,0.961451
-0.036454,-0.022645,-0.174049,-0.363339,0.296012,-0.883381
0.242258,0.209180,0.458882,0.372934,-0.088290,-0.923648
-0.158730,0.444137,0.571987,-0.045373,-0.745903,0.664507
-0.121384,-0.016796,0.804170,-0.732581,-0.552626,0.397405
-0.040057,-0.012513,0.371854,-0.650247,0.494632,-0.576644
-0.643342,-0.311908,0.027963,-0.009960,0.548007,0.836415
-0.342529,0.419846,0.156129,0.552995,0.207724,0.806875
-0.556721,-0.481342,0.427154,-0.500193,0.302662,-0.811297
-0.440376,0.192080,0.831001,0.869814,-0.171855,0.462481
-0.821081,-0.801384,-0.107316,0.232164,-0.537593,0.810613
0.126040,-0.091621,0.836525,-0.647048,0.554662,-0.523143
-0.004082,-0.228293,0.163660,-0.118823,-0.135151,-0.983674
0.536916,-0.164720,-0.961704,-0.614029,0.196597,0.764407
0.089906,-0.237786,0.416797,-0.507391,0.861617,0.013096
0.321543,-0.256485,0.068635,-0.628539,0.224728,0.744604
-0.485441,-0.309223,0.497949,-0.275174,0.007436,-0.961366
-0.287258,-0.007207,0.506073,-0.078866,-0.783598,-0.616242
0.247137,-0.139533,-0.071269,0.993526,0.106476,0.039598
0.025738,0.118054,0.055308,-0.306950,-0.529511,0.790822
-0.021814,-0.137839,0.339467,0.341884,0.017523,0.939579
-0.279445,-0.037028,0.508225,-0.123529,0.926174,0.356289
-0.225578,-0.429658,0.613318,-0.075755,-0.246792,0.966103
-0.311402,-0.628210,0.404642,-0.156667,0.603728,0.781645
-0.026535,-0.186997,0.871256,0.993458,0.109234,0.033297
0.214097,0.072188,0.494207,0.950153,0.030293,-0.310308
0.004178,0.655410,0.440754,0.763302,-0.264166,-0.589565
0.633870,-0.033193,0.136749,0.353326,0.113364,0.928606
-0.250996,0.897623,0.398589,-0.385645,0.856705,-0.342541
-0.449051,-0.334985,0.603073,0.126807,-0.854196,0.504251
-0.190400,-0.135474,0.725652,-0.530537,0.377221,-0.759101
-0.759910,-0.715948,-0.091420,0.156268,-0.539781,0.827174
-0.018625,-0.160213,0.890347,0.961793,0.235190,0.140142
0.109074,0.241206,0.355877,0.779150,-0.614032,-0.126055
0.238654,-0.000112,0.909953,0.170031,0.866076,0.470107
-0.233743,-0.773736,0.495123,-0.424228,-0.647537,-0.633030
-0.103205,0.118917,0.826553,0.528645,-0.060796,0.846663
-0.467549,0.387180,0.821158,0.931423,-0.205116,0.300629
-0.232594,0.186646,0.652930,0.721158,0.672842,-0.164970
0.104576,-0.243188,0.568583,0.078368,-0.994169,-0.074074
-0.035943,-0.834465,0.473928,0.400910,0.424967,-0.811587
-0.041237,0.686830,0.591352,-0.596045,0.771087,-0.223953
-0.397002,0.301520,0.773887,0.927799,-0.277278,0.249611
0.216840,-0.184441,0.802645,0.473214,-0.651920,0.592510
0.097432,0.254439,0.412558,-0.310936,0.803390,0.507822
0.536629,0.050006,-0.981470,-0.068471,-0.031808,0.997146
0.041747,0.040800,0.089317,-0.181714,0.643176,0.743845
0.083464,-0.182107,0.092978,0.042925,0.865049,-0.499848
0.170946,0.632142,0.565420,-0.566191,0.397967,-0.721838
-0.350917,-0.355601,0.701615,0.101654,-0.928987,0.355878
0.161984,-0.158167,-0.244201,0.340606,-0.100381,0.934832
-0.619295,-0.433110,0.654070,-0.392471,0.915842,-0.084855
-0.214447,0.177057,0.912811,-0.573216,0.768242,0.285004
-0.353596,-0.131830,0.643408,0.251680,-0.967662,-0.016946
-0.408100,0.141355,0.773967,-0.445307,-0.171241,-0.878851
-0.614160,-0.175523,-0.083054,-0.527895,-0.312741,-0.789633
-0.255365,-0.235741,0.712308,-0.278119,0.471340,-0.836951
-0.308914,-0.008231,0.773999,0.848127,0.150054,0.508099
0.002838,0.172071,0.859358,0.390064,0.864803,0.316174
-0.419295,-0.552555,0.637901,0.885661,-0.461339,-0.052633
0.131143,0.163856,0.712758,-0.008314,-0.748424,0.663168
0.048605,-0.195436,0.098132,-0.077697,-0.996962,0.005399
-0.151427,0.362025,0.658293,-0.111712,0.657974,0.744708
-0.360548,-0.699136,0.475694,-0.336272,0.080460,-0.938322
-0.281454,0.734934,0.123710,0.037123,-0.374423,-0.926515
-0.051347,-0.114794,0.938052,0.838078,-0.316391,0.444435
0.073864,0.008582,0.254590,0.820661,0.071855,0.566880
0.182300,0.051284,0.156258,0.807866,0.044969,0.587648
-0.547185,-0.302766,0.611519,0.674559,0.497268,-0.545614
-0.393685,-0.212728,0.534494,-0.195939,0.866121,-0.459830
0.162494,0.444968,0.356712,-0.466895,0.131533,-0.874476
-0.288757,0.381842,0.162729,0.745896,0.412424,0.523016
0.494179,-0.152861,0.539568,-0.102577,0.687349,-0.719047
-0.337968,-0.010404,0.711489,-0.519845,0.564489,-0.641182
-0.016808,-0.212664,0.436306,-0.225825,-0.644876,0.730163
-0.376431,-0.457530,0.588156,0.982044,0.177254,0.064586
-0.059097,0.242261,0.692301,-0.629535,0.006958,-0.776941
-0.466113,-0.535135,0.407998,0.198818,0.155605,0.967605
-0.233743,0.418152,0.477428,0.697437,0.521337,0.491721
0.233104,-0.073083,0.540901,-0.350643,0.722610,0.595722
0.002010,-0.576239,-0.061891,-0.176669,0.558268,0.810633
-0.121225,0.160948,0.208427,-0.527952,0.074216,-0.846025
-0.115579,-0.369025,0.745578,0.295298,-0.512848,0.806093
-0.365843,0.439215,0.532022,0.915835,-0.348733,0.199079
-0.333790,-0.111214,0.257159,0.792623,0.481608,-0.373902
-0.058747,0.563230,0.502204,-0.459470,0.860362,-0.220600
-0.010461,0.157176,0.063240,-0.079904,-0.513057,0.854627
0.465126,0.006632,0.327489,0.104658,-0.373381,0.921755
-0.760580,-0.219983,0.195902,0.075079,0.702045,-0.708164
-0.365938,0.549198,0.610540,0.895534,-0.419193,-0.149317
-0.440632,-0.276749,0.020786,0.018562,0.024287,0.999533
-0.164503,0.908811,0.447948,0.020182,0.180371,0.983392
-0.711465,0.001582,-0.037581,0.348765,-0.163511,0.922837
-0.420954,0.336104,0.754875,0.920679,-0.377162,-0.100492
-0.392601,-0.470250,0.613848,0.883572,-0.295036,-0.363667
-0.121192,-0.283685,0.433946,-0.248134,0.967702,-0.044531
0.456196,0.054097,0.176506,0.001162,-0.207100,0.978319
-0.236199,-0.586275,0.028108,0.338556,0.884315,0.321508
0.253037,0.598293,0.548448,0.305751,0.187217,-0.933524
0.191612,0.076087,0.859791,0.797764,0.285048,-0.531338
-0.020156,-0.507072,0.908716,-0.242960,0.753218,0.611256
-0.125403,-0.083375,0.345826,-0.008716,-0.539362,0.842029
-0.228321,-0.689738,0.588574,0.198063,0.466408,0.862110
-0.043470,0.241654,0.871448,0.930917,0.365227,0.001323
-0.191580,-0.475013,0.561935,0.893663,0.422902,-0.150070
0.055622,-0.301584,0.066596,-0.892573,0.255976,-0.371201
-0.286589,-0.233248,0.402715,-0.042694,-0.562286,0.825840
-0.284580,0.337126,0.492345,0.662894,0.347982,-0.662933
0.327029,-0.028623,0.859711,0.841244,0.527981,0.116381
-0.149131,-0.673789,-0.067784,0.229149,0.426890,0.874789
-0.152671,0.374331,0.624654,0.255218,-0.837727,0.482781
0.377228,-0.187189,0.316217,0.869437,-0.414459,0.268893
0.008994,-0.542454,0.730918,0.881194,0.437271,0.179697
-0.193493,0.255494,0.098212,-0.232428,0.113214,0.966002
-0.083367,0.328496,0.658710,-0.205648,-0.365367,0.907863
0.067804,0.838940,0.521119,-0.353683,-0.450265,0.819860
0.137937,0.641091,0.425998,-0.635976,-0.050729,0.770040
-0.457343,0.288927,0.792577,0.914950,-0.257682,0.310590
-0.079062,-0.317981,0.917997,-0.578094,-0.807908,-0.114424
0.145304,-0.224202,0.599573,-0.127048,-0.466396,0.875405
0.124637,-0.418503,0.324341,0.879520,-0.445551,-0.167118
0.151523,0.029326,0.091934,0.823488,0.220792,-0.522607
-0.634220,-0.331884,0.174161,-0.267610,-0.092726,0.959055
-0.218689,-0.575504,0.705918,-0.507523,0.526902,-0.681759
-0.127762,-0.264763,0.386193,-0.539961,0.811650,0.222859
-0.181502,0.559394,0.430397,0.554896,-0.060636,0.829707
-0.026216,0.734071,0.412606,0.199644,-0.148701,0.968520
-0.263626,-0.297524,0.187617,0.008350,0.235969,0.971725
