-0.324129,0.480885,0.817118,-0.728430,0.667527,0.154265
-0.459426,-0.810680,0.764218,0.969768,-0.196443,0.144777
0.058117,-0.238794,0.432415,0.728168,0.611052,0.310462
0.514760,0.409800,0.744438,0.819558,0.067027,-0.569063
0.034261,-0.131260,-0.078305,0.978520,-0.063348,0.196179
-0.493791,0.270710,0.614115,0.975606,0.218505,0.021178
-0.418516,0.408348,0.839391,0.440315,0.368560,-0.818710
0.359110,0.299303,0.362486,-0.553724,0.179466,-0.813131
-0.038334,0.038475,0.425001,-0.729214,-0.684284,0.001484
0.603688,0.069182,0.585545,-0.501327,0.730799,0.463253
0.010563,-0.528395,0.932791,-0.079493,0.305890,0.948742
-0.023959,-0.293559,0.873902,-0.278575,0.617284,0.735770
0.474986,-0.034545,0.238833,0.909284,-0.042695,-0.413979
-0.148385,0.132711,0.528453,0.245795,-0.746735,0.618039
0.405532,-0.247921,0.599450,-0.374096,0.926436,-0.042060
0.365551,-0.618702,0.578957,0.770690,0.349319,0.532930
-0.491524,0.469036,0.590871,0.793558,0.368126,-0.484510
0.026123,-0.052014,0.274364,0.565248,0.772282,0.289959
0.147407,0.044096,-0.995646,0.070236,0.043676,-0.996574
0.207068,0.344336,0.880976,0.963137,0.238124,0.125153
-0.607295,0.415240,0.884376,0.689741,-0.146864,0.709005
-0.028544,0.085805,-0.266124,0.801059,0.112287,0.587959
-0.584575,0.021309,0.725418,0.903045,0.228709,0.363595
0.262867,-0.177259,0.170750,-0.058560,0.527703,0.847408
0.304858,0.293197,0.691846,-0.261517,-0.432529,0.862860
-0.325623,-0.208812,0.119097,0.485256,-0.050773,0.872897
0.121334,-0.348263,0.784145,0.398869,-0.787623,-0.469632
-0.048535,-0.233535,0.835361,0.761635,0.569805,0.308600
0.246691,0.406171,0.682376,0.340954,0.477606,-0.809718
-0.479212,-0.316287,0.809542,-0.348690,0.807239,0.476215
-0.399299,0.229546,0.763085,0.821409,0.089357,0.563297
0.099284,0.318706,-0.132823,0.862494,-0.176672,0.474228
-0.455511,-0.309759,0.394877,0.969701,0.123239,0.210929
-0.204904,-0.009700,0.906422,0.722614,0.688887,0.057125
-0.204854,-0.426542,0.928550,-0.665514,-0.540092,-0.515161
0.095470,0.275667,0.849994,0.946936,0.307634,-0.093129
-0.188470,-0.403875,0.616543,0.996423,-0.024933,-0.080746
0.080067,-0.084836,0.133714,0.978881,-0.202973,0.024366
-0.467618,0.470789,0.362762,-0.072894,0.713651,0.696698
-0.109951,0.473691,0.182129,0.956067,0.212604,0.201832
-0.980629,0.123342,0.817587,0.918061,0.386541,-0.088041
0.081561,0.258984,0.246247,0.112674,0.457389,0.882100
0.158895,-0.177803,0.423609,-0.718004,0.551746,0.424319
-0.016692,0.490918,0.859512,0.015389,0.987984,0.153788
0.276109,0.131623,0.755510,0.524704,-0.150596,0.837858
-0.572726,0.821320,0.565311,-0.217483,0.702518,0.677620
-0.240405,-0.492368,0.933957,-0.483867,0.019230,-0.874930
-0.224691,0.120320,0.960860,0.308488,-0.090272,0.946935
-0.045648,-1.000000,0.564939,-0.499990,-0.287986,-0.816746
-0.126335,-0.713664,0.594594,0.269320,0.588204,-0.762550
-0.324953,0.419228,0.808781,0.484665,-0.503205,-0.715461
-0.429853,-0.708344,0.781959,-0.382504,0.319585,0.866923
0.486784,0.447699,0.725191,0.113318,0.986083,-0.121652
-0.739347,0.090339,0.808361,-0.108198,0.974953,-0.194318
-0.464838,0.015444,0.343224,0.840644,0.539921,-0.042455
-0.096193,0.202830,0.865841,0.070490,0.232844,0.969956
0.275182,-0.210625,0.502602,0.892220,0.378641,-0.246119
-0.680148,0.694201,0.598058,-0.268746,0.792338,0.547701
0.472614,-0.021971,-0.180737,0.505805,0.697054,-0.508209
-0.025607,0.673588,0.789891,-0.769114,-0.638979,-0.013019
0.026893,-0.161544,0.775436,-0.586783,-0.671999,0.451778
-0.487351,0.227008,0.798551,0.529256,0.249481,-0.810954
-0.343346,-0.025356,0.196261,0.468858,0.819474,-0.329597
-0.091300,-0.264785,0.896338,0.771814,-0.631831,0.071355
-0.207738,-0.272341,0.658047,-0.821471,0.138393,-0.553203
0.281364,0.387736,0.389632,0.668131,-0.380028,0.639672
-0.542121,-0.518421,0.751236,-0.371004,0.762533,0.529999
-0.326654,-0.392329,0.749990,0.618411,0.053999,0.783997
-0.896081,0.046635,0.810659,0.740549,0.146418,-0.655857
-0.308827,0.012362,0.924746,0.481979,-0.787984,0.383115
0.207634,0.041860,0.274283,0.197609,0.809449,-0.552941
-0.648308,-0.020521,0.768524,0.955724,0.293634,-0.019256
0.061054,-0.067789,0.103606,0.935542,0.353206,-0.002580
-0.587874,0.418262,0.644952,-0.079027,0.384748,0.919632
-0.355145,-0.374013,0.834179,-0.333711,-0.936165,0.110599
-0.540112,0.554931,0.621529,0.939894,0.066802,0.334868
-0.416303,-0.086286,0.265024,-0.597844,0.442423,-0.668464
-0.358752,-0.687007,0.791591,0.529073,0.736797,-0.420964
0.251534,-0.400790,0.803375,-0.169012,0.458436,0.872509
-0.563141,-0.429081,0.728639,-0.550580,0.180781,0.814972
0.569889,-0.337383,0.279042,0.061967,-0.335852,0.939874
-0.177753,-0.012663,0.413945,0.990642,0.006874,0.136316
0.367717,0.135008,0.285824,0.802938,-0.596031,-0.006203
0.167241,0.160094,0.643139,0.117006,-0.909553,0.398777
-0.018701,-0.300390,0.916054,0.130178,0.828960,0.543947
0.118039,-0.084111,0.189867,-0.472346,0.874647,0.109005
-0.277037,-0.026325,0.482886,0.978690,-0.083931,-0.187409
0.055799,0.200231,0.029064,0.657505,-0.520627,0.544642
-0.086866,-0.120621,0.638234,-0.529203,0.844883,-0.078211
0.049563,0.204280,0.316029,0.475109,0.330241,-0.815606
-0.045444,0.196301,0.982243,-0.034786,-0.555500,0.830788
0.140193,0.233053,0.904544,0.172316,0.885082,-0.432363
-0.668865,0.573610,0.630497,0.367579,-0.374730,-0.851154
-0.012726,0.440143,-0.120764,0.864257,0.147809,-0.480846
0.016591,-0.117961,-0.030003,0.543961,-0.804927,-0.237063
-0.264207,-0.542235,0.945110,-0.524822,-0.009882,-0.851155
0.375186,0.356607,0.703436,0.582123,0.773234,-0.251480
-0.526404,0.665246,0.225333,-0.215773,0.567913,-0.794303
0.524294,0.371113,0.758990,-0.512221,0.722637,0.464140
-0.836571,-0.275243,0.851694,-0.396698,0.577324,0.713672
-0.486888,0.361380,0.841010,-0.254578,0.643165,-0.722170
-0.272761,0.432285,0.777023,0.262352,0.722835,-0.639281
0.008604,-0.753498,0.633167,-0.664310,-0.543026,-0.513629
-0.092482,-0.089430,0.951941,-0.573566,0.130895,-0.808634
0.291823,0.009280,-0.176966,0.955109,-0.132244,0.265100
-0.846153,0.180101,0.802889,0.828864,0.517881,-0.211624
-0.149363,-0.648622,0.426312,-0.187710,0.520851,0.832754
-0.165077,0.089915,0.523079,-0.281526,-0.869234,0.406418
-0.748623,0.346935,0.665898,0.173503,-0.495512,-0.851096
-0.067702,-0.161844,0.535381,0.938129,-0.304597,0.164728
0.408161,-0.001661,0.782672,-0.047630,0.459032,0.887142
0.410891,0.156467,0.198883,0.971353,-0.066252,-0.228220
-0.025299,0.557773,-0.046158,0.501784,-0.628680,0.594116
-0.622185,0.381390,0.900546,0.579976,0.232025,0.780892
-0.502036,0.380543,0.527886,0.921846,-0.314484,-0.226496
-0.415167,0.187477,0.804055,-0.037025,0.924054,0.380466
0.095315,-0.285217,-0.985189,-0.167336,0.065594,0.983715
-0.378947,0.732283,0.218065,-0.620629,-0.396752,0.676319
-0.024010,-0.039501,0.307175,-0.500193,-0.859581,-0.104538
-0.048482,-0.085561,0.929780,0.915811,-0.401401,-0.012903
0.173269,-0.315863,-0.982987,0.257179,-0.092965,-0.961882
0.067856,-0.181732,0.511473,0.546697,0.164754,0.820962
-0.809678,0.143108,0.812310,-0.705031,-0.045460,0.707718
-0.354683,-0.022093,0.932273,0.768831,-0.286617,0.571621
-0.398063,-0.617311,0.798292,0.535563,0.513955,0.670091
-0.493432,-0.359506,0.456841,0.950408,-0.178646,0.254580
-0.437837,0.218847,0.630173,0.518196,-0.208210,0.829531
-0.160442,0.271618,0.867411,0.002956,0.250008,0.968239
0.850483,-0.385437,0.269815,0.009732,-0.086184,0.996232
-0.381834,0.163418,0.780713,-0.310643,0.589451,-0.745686
-0.041063,-0.239035,0.935414,-0.004103,-0.289035,0.957310
-0.053739,0.248829,0.983263,0.294054,0.189797,-0.936755
-0.854860,-0.070752,0.835668,0.078833,0.066632,0.994659
-0.011491,-0.053585,0.649047,0.170626,0.939125,0.298212
-0.371117,0.135674,0.766420,0.821633,0.031367,0.569153
-0.402649,0.309397,0.590466,-0.694262,0.388829,-0.605650
-0.444124,0.237224,0.796318,0.051954,-0.563042,0.824794
-0.598330,0.193521,0.144656,0.343688,-0.075465,-0.936047
-0.393941,0.299906,0.609534,0.699828,-0.696046,-0.160501
0.299861,-0.137485,-0.156958,0.805187,0.275404,0.525192
-0.005204,0.056125,0.422945,0.730956,0.669431,-0.132536
-0.191150,-0.007042,0.961572,0.477313,0.803616,0.355489
0.069554,-0.238371,-0.987584,-0.175586,0.128258,0.976073
-0.127724,-0.360956,0.733932,-0.390590,-0.911577,0.128326
-0.557836,0.701817,0.630400,0.995394,-0.005193,-0.095724
-0.146583,0.340829,0.840654,-0.154125,-0.132152,0.979174
0.059869,-0.078791,-0.175007,0.979367,-0.091914,0.179977
0.333349,-0.317556,0.610166,0.965448,-0.063617,-0.252710
0.415064,-0.191584,0.790021,-0.500073,0.685543,0.529110
-0.271317,0.124189,0.793922,0.115463,0.960009,-0.255050
-0.345871,-0.465469,0.725110,0.979999,-0.089455,0.177765
-0.155445,-0.166198,0.269168,-0.645215,0.716985,-0.263874
-0.498945,-0.102184,0.395395,0.875827,-0.001404,-0.482623
0.491678,-0.163116,0.253547,-0.635588,0.219478,0.740174
0.418620,0.118325,0.806791,-0.802744,0.065209,0.592747
-0.248493,-0.527124,0.612675,0.823909,-0.341038,0.452623
-0.475759,-0.633027,0.808490,-0.670885,-0.358117,-0.649358
-0.024887,0.132167,0.795233,0.813133,-0.163512,0.558639
-0.620229,0.359447,0.651491,0.147442,0.718583,0.679632
-0.269307,-0.753921,0.544414,-0.313357,0.141419,0.939046
0.075016,0.227130,0.318846,0.442695,0.304744,-0.843299
0.518008,0.098800,0.815952,-0.015224,-0.630672,0.775900
-0.165388,-0.173632,0.594658,0.392963,-0.912022,0.117457
-0.347261,-0.206757,0.431783,-0.465313,0.853959,-0.232888
-0.494307,0.140570,0.164664,0.413140,0.025089,-0.910322
-0.382761,0.182881,0.514856,0.832613,0.541959,-0.114178
0.016076,-0.108048,0.683186,0.412935,0.895940,0.163635
-0.655006,0.375948,0.653482,0.151609,0.757120,0.635440
-0.121646,-0.320880,0.901922,0.764155,0.516498,0.386389
0.162297,0.419955,-0.261106,0.987968,-0.029350,-0.151847
-0.072391,-0.118686,0.927255,0.993259,-0.105840,-0.047277
0.037765,-0.020399,0.494525,0.900738,-0.384420,-0.202219
-0.079859,0.131623,0.482368,0.107183,-0.928827,0.354671
0.339327,0.393902,0.704812,0.458115,0.873537,-0.164511
0.326035,0.050261,-0.090818,0.981199,-0.157923,-0.110942
-0.699985,-0.128055,0.779127,-0.548050,-0.803184,-0.233529
-0.482096,0.429566,0.863704,-0.004458,-0.758884,0.651210
-0.563090,0.276514,0.793825,-0.067035,0.679898,0.730237
-0.012777,-0.874331,0.690114,0.863949,0.477511,0.159925
-0.344736,0.336780,0.839230,0.234797,0.468013,-0.851959
-0.020403,0.597305,0.785391,0.638892,0.578285,-0.507348
-0.491627,0.623177,0.739355,0.565941,0.338909,0.751566
-0.474265,0.952005,0.210198,-0.130138,0.091599,0.987256
-0.296512,-0.725511,0.207770,-0.317641,0.254520,0.913413
-0.709774,0.076013,0.160941,-0.219691,-0.431572,-0.874918
-0.785564,-0.098498,0.819562,0.772764,-0.525893,0.355348
-0.038900,0.183366,0.861811,-0.134534,-0.183088,-0.973848
-0.429337,0.348446,0.598122,0.940781,-0.303702,0.150652
-0.651192,0.281651,0.665930,-0.640503,-0.323738,-0.696383
0.278377,0.024452,0.748630,0.879253,-0.369039,0.301203
0.279871,-0.540483,0.612804,-0.287947,0.422838,0.859241
-0.459942,0.551667,0.751382,0.797210,0.396411,0.455318
0.243958,0.053646,-0.128874,0.958581,-0.129473,0.253689
0.335359,-0.484510,-0.139347,0.175698,0.261780,0.949000
0.524706,-0.086469,0.601910,-0.018257,0.573254,0.819174
-0.446187,0.165051,0.324495,0.928643,0.253404,0.270940
-0.179401,-0.230755,0.789956,0.995789,-0.067520,0.062015
0.308311,-0.439658,0.878532,0.288170,0.444811,0.847998
-0.701632,0.218183,0.772344,-0.701104,-0.574530,-0.422337
0.187955,0.356485,-0.264862,0.926238,0.031316,0.375636
-0.232675,-0.651524,0.206426,0.251962,-0.320511,-0.913120
-0.348343,-0.394565,0.735066,0.912796,-0.093488,0.397572
-0.728271,0.720737,0.582631,-0.200200,0.634136,0.746855
-0.578804,-0.346813,0.377168,0.748701,0.054840,0.660636
-0.071564,0.390274,0.199126,0.467438,-0.508158,-0.723380
0.061054,-0.075528,0.232552,0.025450,-0.994993,0.096651
-0.439281,-0.519387,0.183829,0.124726,0.315148,0.940811
-0.311556,-0.714087,0.561086,0.914643,-0.019091,-0.403811
-0.430985,0.367306,0.838695,-0.443332,0.241492,-0.863214
0.159822,-0.046513,-0.854316,0.452409,-0.891811,-0.000404
0.196763,-0.522531,-0.837902,0.863874,0.026933,-0.502987
-0.175486,-0.473206,0.913610,0.153881,-0.621861,0.767860
0.099850,-0.427992,0.490769,-0.040864,0.891364,0.451442
0.009943,-0.093300,0.656509,-0.114273,-0.970703,-0.211371
0.266732,-0.080546,-0.847064,-0.372338,0.924204,-0.084915
-0.158483,-0.089310,0.686132,0.158891,0.567068,0.808200
-0.174508,-0.087858,0.961248,0.977168,0.211744,-0.017517
-0.605597,0.618703,0.715900,-0.130877,-0.158810,-0.978596
-0.804835,0.026205,0.401028,0.168959,0.985182,-0.029494
-0.020711,-0.205910,0.533277,0.823972,0.020132,0.566273
-0.498275,-0.325898,0.590822,-0.496778,0.849876,0.175849
0.259518,-0.000875,-0.447825,-0.535469,0.782195,-0.318502
-0.466432,-0.176231,0.272648,-0.375291,0.295987,-0.878378
0.721315,-0.144316,0.395249,0.880400,0.101666,-0.463207
-0.428359,-0.736874,0.762535,0.618138,-0.083570,-0.781615
0.107938,0.104301,-0.991825,-0.022643,0.084676,0.996151
0.379513,-0.187777,0.660232,-0.748047,-0.408297,0.523182
-0.007006,-0.380602,0.935511,0.961496,-0.099882,0.256027
-0.103407,0.130354,0.858282,0.074109,-0.070892,0.994727
-0.796743,0.649893,0.612723,-0.305540,0.835036,0.457559
-0.648720,-0.018042,0.805900,-0.528851,0.426711,-0.733645
-0.395435,-0.689484,0.201166,-0.375785,0.387212,0.841934
-0.229380,0.008191,1.000000,0.520676,0.851223,-0.065692
-0.443092,-0.080001,0.260815,0.579465,-0.506819,0.638243
0.570920,0.214435,-0.112185,0.438873,0.380185,-0.814156
0.082847,0.501981,0.789859,0.622877,0.772879,-0.121169
-0.335000,0.137246,0.836122,0.750745,0.634157,-0.185007
0.180844,0.104665,-0.273570,0.509954,-0.833109,0.214187
-0.438715,0.033458,0.613516,-0.586431,-0.707951,-0.393579
-0.172857,-0.182215,0.891482,0.886806,-0.111925,0.448385
-0.626824,0.889987,0.550678,-0.206011,0.513474,0.833009
-0.436498,0.025236,0.784549,0.100096,0.252748,0.962340
-0.314906,0.081573,0.968257,0.116387,-0.568439,0.814452
-0.792366,-0.247016,0.847663,0.604611,-0.569755,-0.556619
-0.518524,-0.347236,0.758941,-0.239787,-0.423339,0.873663
0.334792,0.300934,0.316434,0.307557,0.906126,-0.290420
-0.506002,0.575726,0.583521,0.986558,0.062194,-0.151113
-0.622908,0.452777,0.893732,0.668104,-0.319244,0.672102
0.137410,-0.459001,-0.865533,0.992673,-0.078662,-0.091717
-0.489259,0.372141,0.175460,0.221410,-0.719178,0.658605
0.604565,-0.319551,0.302448,0.366505,-0.890519,0.269538
0.079859,-0.079699,0.094703,0.887164,0.442879,0.129607
-0.470093,0.190559,0.170070,-0.546338,0.054829,0.835768
0.186615,0.461662,0.334693,0.761344,0.160604,-0.628141
-0.324849,0.290476,0.724560,0.932661,0.330650,0.144273
0.394249,-0.136821,0.555421,-0.178385,-0.086030,0.980193
-0.166366,-0.048931,0.886302,0.666462,0.733831,-0.131605
0.245968,0.110527,-0.076427,-0.271074,0.799384,0.536194
0.146788,0.017197,-0.993379,0.180234,-0.015453,-0.983502
-0.097378,-0.813823,0.559888,-0.887050,0.412389,-0.207554
0.066721,0.428658,0.578649,-0.419064,0.585350,-0.694082
-0.504046,0.276816,0.156165,-0.432563,-0.065974,0.899187
-0.670154,0.069001,0.501615,0.030743,-0.673391,0.738647
-0.583131,0.835948,0.551941,0.751063,0.228353,0.619483
0.011953,-0.755251,0.629849,-0.653173,-0.523433,-0.547158
-0.409038,0.288604,0.584978,0.859512,-0.065374,0.506918
0.040960,0.132953,0.260718,0.199793,0.589878,0.782385
0.292698,-0.071418,0.060888,-0.727302,0.265022,0.633084
0.056931,-0.049173,-0.108138,0.075846,0.994519,-0.071973
-0.439539,-0.281710,0.895237,0.327843,0.555154,0.764410
0.309909,-0.050322,-0.972207,0.563564,0.288681,0.773989
0.002371,0.076375,0.854025,0.135630,-0.119486,0.983528
-0.017724,-0.006618,0.267371,0.320809,0.938181,-0.129988
-0.513577,-0.507177,0.432382,-0.438010,0.292807,0.849948
0.037148,-0.060597,0.597540,-0.519486,0.852251,-0.061666
0.179863,0.483060,0.411388,0.237980,-0.580558,0.778664
-0.806636,0.009341,0.835766,-0.664278,0.747052,0.025482
-0.533722,0.641430,0.235644,-0.382743,0.366099,-0.848221
-0.606833,0.067730,0.422023,0.794684,-0.402917,0.454021
-0.616827,0.725330,0.551600,-0.504536,0.391464,-0.769545
0.018856,-0.411731,0.412068,-0.431610,-0.183743,0.883148
-0.637283,-0.501798,0.446967,-0.765327,0.027673,-0.643047
-0.272965,-0.149817,0.912946,-0.377233,0.188956,-0.906637
-0.001289,-0.028077,-0.255538,0.827970,0.559851,0.032115
0.007060,-0.105871,0.686326,0.545754,0.826411,0.138554
-0.131743,0.483423,0.472170,-0.040910,0.356474,0.933409
0.587924,0.496963,0.804929,-0.299578,-0.923078,0.241207
0.126746,-0.163416,-0.556813,0.420006,0.875211,-0.240003
-0.064919,-0.264061,0.879115,-0.157443,0.951877,-0.262949
-0.296305,-0.610965,0.666125,-0.371024,0.893750,-0.252095
0.260138,0.394386,0.851904,0.335052,0.940751,-0.052222
-0.212634,0.025600,0.419562,0.962424,-0.026148,0.270291
-0.494360,0.276575,0.164065,0.757068,0.172382,-0.630185
0.432479,-0.356786,0.629801,-0.766631,0.299150,0.568143
-0.073419,-0.751080,0.544106,0.804339,-0.112133,0.583493
-0.472718,0.461844,0.735292,-0.025409,-0.632500,0.774143
-0.573446,0.640766,0.223925,-0.328875,0.627404,-0.705837
0.848782,0.001360,0.448149,0.138783,-0.119058,0.983140
-0.446545,-0.453984,0.434292,-0.771517,0.625157,0.118069
-0.442168,0.616163,0.736166,-0.069355,0.405092,0.911641
0.164511,0.282135,-0.993978,-0.083531,0.146613,0.985661
0.445875,-0.285881,0.251945,-0.636361,0.263624,0.724946
-0.915402,0.429866,0.666659,-0.422594,-0.401173,-0.812696
-0.483074,-0.719587,0.821230,-0.516424,-0.194690,-0.833908
-0.550467,0.497930,0.652673,0.711606,0.392583,0.582662
0.034261,-0.036238,0.416746,0.947722,0.278377,-0.155976
-0.329333,-0.028621,0.949318,-0.231219,0.265951,-0.935846
-0.247515,0.012665,0.914451,-0.652800,0.529551,-0.541689
-0.173684,-0.210564,0.933698,0.010664,-0.127586,0.991770
0.046988,-0.289569,0.924406,-0.445321,0.884448,0.139433
0.270597,0.207120,0.690470,-0.427511,0.123783,0.895496
0.032821,0.397710,0.560763,0.331691,0.486668,-0.808168
-0.388170,0.237043,0.814787,0.995787,0.007322,0.091405
0.629295,0.123342,0.516167,0.276054,0.058375,-0.959368
-0.933226,0.059510,0.769042,-0.189282,0.655684,0.730925
0.237260,-0.103394,0.049055,-0.538476,0.331431,0.774724
-0.021072,-0.906912,0.552458,-0.605220,-0.359155,-0.710434
-0.466020,-0.457611,0.784938,0.220309,0.418427,0.881126
-0.148643,0.550217,0.879503,0.262217,0.583446,-0.768657
-0.464784,0.530088,0.752305,0.593617,0.263131,0.760513
0.013500,-0.080968,0.616818,0.585676,-0.808605,-0.056048
0.565458,0.051713,0.807389,-0.002138,-0.490039,0.871698
0.414139,0.068275,0.545385,-0.450353,-0.883248,-0.130599
0.401359,0.253241,0.120084,-0.709134,0.703873,0.041125
-0.149262,-0.559163,0.566865,0.755889,-0.625852,-0.192198
0.058994,-0.060355,0.242491,-0.100331,-0.987974,0.117649
-0.484929,-0.285217,0.900109,0.340840,0.399473,0.851028
-0.332525,-0.015323,0.478483,0.968222,-0.043947,-0.246201
-0.244370,-0.440202,0.780470,-0.596037,0.108610,-0.795578
0.294965,-0.057334,0.158464,-0.596799,0.291029,0.747752
-0.379412,0.483726,0.361790,0.244079,0.574782,0.781057
0.274204,0.311272,0.817199,0.756439,0.610389,-0.235002
0.027255,0.167711,0.973372,0.064868,-0.708285,0.702940
-0.223556,-0.012663,0.932548,0.198100,-0.961763,0.189124
-0.470401,0.455677,0.738562,-0.542110,-0.773900,0.327407
-0.769026,0.086349,0.808442,-0.458812,-0.640408,-0.615929
-0.118913,0.036479,0.700053,0.366453,0.321911,-0.872975
0.014632,-0.066642,0.631516,0.290695,0.950162,0.112641
-0.055541,0.650618,0.198138,-0.492749,-0.299607,0.816966
-0.274874,-0.583099,0.390134,0.227659,0.429588,0.873856
0.075325,-0.069422,-0.141775,0.962537,0.040262,0.268144
-0.368903,-0.176050,0.512816,0.852383,-0.269351,0.448211
-0.076098,0.130354,0.274720,0.121449,0.637092,0.761160
-0.820033,0.164023,0.791607,0.314457,0.948642,0.034569
-0.153847,0.384714,0.864287,0.510208,0.504275,-0.696703
0.041525,-0.046151,0.232763,0.055412,0.997587,-0.041831
-0.620949,0.635931,0.743208,-0.015323,0.581503,0.813400
0.353135,0.385136,0.696508,0.323310,0.812329,-0.485378
-0.075944,0.042949,0.712371,-0.495626,-0.362521,0.789261
-0.043227,0.276333,0.826199,-0.294908,0.478806,0.826906
0.357154,0.113065,0.563320,0.604247,0.606747,0.516472
0.025453,-0.037205,0.341249,0.885862,0.463385,0.022891
-0.144829,0.313930,0.348388,-0.304529,0.866408,0.395726
0.214694,-0.012421,0.269848,-0.254101,-0.540141,0.802297
-0.789221,0.239581,0.709927,0.174040,-0.932793,0.315608
-0.416715,0.403513,0.833888,0.825952,0.412454,-0.384299
-0.281106,0.021368,0.531189,-0.233191,0.908028,0.348003
-0.411614,0.246412,0.848570,-0.103974,-0.423687,0.899822
-0.516153,-0.707256,0.815094,0.475843,0.356938,0.803846
-0.428460,-0.305588,0.358747,-0.560023,0.828420,0.009718
-0.681899,0.148245,0.787981,-0.151064,-0.532378,0.832918
-0.529137,0.290961,0.157784,0.404488,0.060749,-0.912524
-0.178939,0.414998,0.860402,0.264887,0.330064,-0.906031
-0.239012,-0.176473,0.940172,-0.309599,-0.154707,0.938197
-0.350044,0.654850,0.231597,0.335707,0.216648,-0.916714
0.093152,-0.380300,-0.986937,-0.140660,0.013892,0.989961
-0.632540,0.543870,0.394958,0.333125,-0.052676,-0.941410
-0.329126,-0.071174,0.808684,0.568385,-0.817854,-0.089740
-0.268638,-0.314655,0.685290,-0.454366,-0.661050,-0.597130
-0.961512,-0.139118,0.841334,-0.506166,-0.230215,-0.831142
-0.187181,-0.434762,0.400720,0.923677,0.337685,0.181078
-0.617650,0.065011,0.799393,0.307670,-0.158715,-0.938163
0.182700,0.571494,0.423172,0.250767,-0.591166,0.766576
0.070947,0.184152,0.665040,-0.296229,0.915107,-0.273547
0.470193,-0.221808,0.623164,-0.260247,0.942293,-0.210608
-0.225361,0.463416,0.463235,-0.758193,-0.359005,0.544296
0.069916,0.364221,0.813184,0.677285,0.303583,0.670166
0.684321,-0.017378,0.449654,-0.309197,0.888549,0.338935
-0.052450,-0.080363,0.104383,-0.109071,0.976188,-0.187510
-0.060281,-0.072021,0.113933,-0.036020,0.991347,-0.126229
-0.412438,0.067791,0.599741,0.961349,-0.139519,0.237364
0.083774,0.206276,0.695035,0.579055,-0.763003,0.287264
-0.252307,-0.578021,0.670382,0.343891,-0.937418,-0.054645
-0.555876,-0.705623,-0.004994,0.267696,0.000073,-0.963503
-0.431089,-0.668027,0.419481,-0.563616,0.128556,-0.815972
0.063991,-0.060719,0.242766,-0.100331,-0.987974,0.117649
-0.189398,-0.086771,0.955437,0.828466,0.446580,0.337950
0.108507,0.272465,-0.386476,0.502783,0.428521,0.750719
-0.507083,-0.173271,0.801934,0.784974,-0.266669,-0.559200
0.168684,-0.140870,-0.486334,-0.386352,0.914438,-0.120561
-0.126951,-0.944569,0.562559,0.441837,0.304352,0.843890
0.618270,0.004745,0.525912,-0.325623,-0.235959,-0.915583
0.084910,0.045124,0.549156,0.905150,-0.408734,0.116788
0.150033,0.201258,0.906600,-0.302359,-0.817961,0.489407
-0.063114,0.215281,0.983376,0.294054,0.189797,-0.936755
0.002009,-0.441593,0.921541,0.457659,0.338272,0.822266
-0.911226,0.009219,0.815046,0.842475,0.532990,-0.078474
-0.021846,0.470427,0.870325,-0.560076,-0.620104,0.549350
0.289660,-0.098920,-0.898086,0.923796,-0.382687,0.012308
-0.664796,0.166139,0.794731,-0.093859,-0.547366,0.831614
-0.592921,-0.204097,0.280223,0.230354,-0.489961,0.840759
-0.554587,-0.300148,0.903881,0.311037,0.230499,0.922023
0.143438,0.348265,0.016454,-0.789881,0.578110,-0.204637
0.467256,-0.178891,0.838323,0.720723,0.375967,-0.582414
-0.213458,-0.685555,0.212448,0.245791,-0.323549,-0.913730
0.106910,-0.687853,0.500385,-0.420691,0.298189,-0.856798
0.607348,0.169100,0.519906,0.007254,0.142781,0.989728
-0.266524,-0.398433,0.414512,0.133651,-0.482867,0.865435
-0.246999,-0.670323,0.212529,0.245791,-0.323549,-0.913730
0.207379,-0.142442,0.469823,0.835330,0.519181,-0.180764
-0.310270,-0.203916,0.365351,-0.808863,-0.160796,-0.565584
0.444020,0.340226,0.711804,-0.512877,-0.604572,0.609467
-0.338554,-0.231238,0.622905,0.962075,0.047277,-0.268658
-0.008500,-0.147218,0.720189,-0.547516,-0.825270,-0.138406
-0.208357,-0.480944,0.397629,0.732868,0.674798,0.086900
-0.254314,-0.466135,0.776456,0.024358,0.177287,0.983858
-0.479366,-0.819446,0.794310,-0.638977,0.708645,0.299218
-0.118143,-0.061505,0.898280,-0.490206,-0.845295,0.212544
0.066051,-0.134584,-0.300781,-0.779421,-0.618284,-0.101137
-0.375085,-0.565689,0.418882,-0.552084,0.325204,-0.767753
-0.773765,0.539880,0.488422,0.120818,-0.393633,-0.911293
-0.707403,-0.079699,0.787253,0.973102,-0.059106,0.222663
-0.764026,0.424487,0.624038,0.468551,0.653381,0.594604
-0.318874,-0.069119,0.922221,-0.620316,0.017052,-0.784167
-0.760935,-0.171940,0.790862,-0.798050,0.379560,0.468028
-0.528106,0.213590,0.419676,0.413448,-0.015614,-0.910394
0.233707,0.187657,-0.144381,0.735075,0.652775,-0.183164
-0.341491,-0.150179,0.621998,0.953062,-0.130197,0.273353
0.024783,-0.299724,0.908818,0.281530,-0.924052,-0.258590
-0.508165,-0.334240,0.903670,0.271274,0.525521,0.806373
0.365397,-0.100311,-0.975881,0.116904,0.059175,0.991379
-0.566027,0.446308,0.832156,0.172933,-0.982539,0.068641
-0.078573,-0.775017,0.577807,0.859349,-0.341158,0.380961
-0.830285,-0.297791,0.841917,-0.130559,0.891280,0.434251
0.052089,0.579897,0.625657,0.819548,-0.418689,0.391205
-0.622185,-0.545501,-0.000202,-0.067512,-0.601353,0.796126
-0.599157,-0.545501,0.003537,-0.006360,-0.163140,0.986582
-0.545983,0.048689,0.670819,0.843283,0.396160,0.363223
0.008192,0.135674,0.967626,0.026245,-0.706514,0.707213
-0.353651,-0.467404,0.397030,-0.516399,-0.582029,0.628151
-0.152250,0.474054,0.856809,-0.069987,-0.471286,0.879199
0.136328,-0.733127,0.492793,0.505015,-0.169696,0.846264
0.021588,-0.128419,0.148962,0.517541,-0.817752,0.251860
-0.766293,-0.234562,0.801076,0.298310,0.460113,0.836246
0.711422,0.234564,0.163854,-0.560071,0.029150,-0.827932
0.208408,0.054251,-0.364461,0.825437,-0.474552,0.305704
0.204854,-0.340043,-0.972935,-0.311235,0.301273,0.901314
0.058375,0.079942,0.856453,0.642393,-0.009476,-0.766317
0.356639,0.063801,-0.177257,0.043080,-0.646842,0.761406
0.341903,0.275123,0.678022,-0.427114,0.409885,0.805958
0.087073,-0.092150,0.032803,0.455700,0.889030,-0.044312
0.004069,-0.122132,0.159549,-0.551750,0.812311,0.189004
0.289864,-0.111372,-0.158577,0.826891,0.125905,0.548088
-0.698337,-0.113851,0.791219,-0.675168,-0.552223,-0.489079
-0.270081,-0.070994,0.482692,0.273327,0.166800,0.947349
-0.367098,0.373290,0.733868,-0.639908,-0.677179,0.363244
0.075378,-0.291140,0.905694,-0.239193,0.929286,-0.281451
0.688340,-0.209236,0.395071,0.837526,0.225360,-0.497757
0.310321,-0.286667,0.809057,-0.086681,0.324022,0.942070
0.675201,-0.293620,0.282069,0.243218,-0.339540,0.908602
0.536813,0.106417,0.309522,0.877145,0.455318,-0.152650
0.378331,-0.055701,0.557395,-0.346343,-0.205308,0.915366
0.196712,0.095113,0.543701,-0.430339,0.512489,0.743077
0.077180,-0.061444,-0.020986,0.807132,-0.413671,-0.421205
0.241590,0.180223,-0.213646,0.303166,0.788884,-0.534558
0.132206,-0.169644,-0.987536,-0.199263,0.164512,0.966038
-0.164565,0.377400,0.854802,0.084694,-0.723042,0.685592
-0.690453,-0.293922,-0.023900,-0.569264,0.355670,0.741241
0.161832,0.240367,-0.163110,-0.405881,-0.881326,0.241918
-0.881653,-0.312358,0.794132,-0.183037,0.775683,0.603998
0.017516,0.379455,0.058670,0.380978,0.253702,0.889096
0.214489,0.278266,0.873838,0.430629,-0.887842,-0.162157
-0.004381,-0.282074,0.874955,-0.527541,0.779148,0.338570
0.050699,0.007103,-0.142277,0.972516,0.089664,0.214880
-0.181618,-0.588659,0.687313,0.351351,-0.915120,0.197759
-0.217427,0.408106,0.459383,-0.661951,0.104776,-0.742187
-0.116699,0.403633,0.468528,0.143175,-0.379142,0.914195
0.285845,-0.152778,0.528016,-0.854291,0.144017,0.499445
0.061516,0.350923,0.740083,0.821220,0.245207,-0.515239
0.286619,-0.032067,0.293173,0.803142,0.335947,-0.492039
-0.520841,-0.257654,0.770434,0.935831,-0.345757,0.068355
0.055491,0.594706,0.625122,0.819548,-0.418689,0.391205
-0.434130,0.461058,0.852810,-0.731534,0.149297,-0.665258
-0.833068,0.100494,0.410109,-0.524756,-0.487064,0.698140
-0.448658,0.348385,0.824273,0.354626,-0.888776,0.290374
0.073265,-0.075950,0.173243,0.354765,-0.861567,-0.363103
-0.216342,-0.144075,0.708405,-0.134792,0.905598,0.402149
0.058633,-0.517635,0.529894,-0.641949,0.393933,0.657813
0.409293,0.203374,0.215297,0.967576,0.208648,-0.142345
0.010821,-0.105146,0.396965,0.945760,0.319551,0.058522
-0.248443,-0.323963,0.608628,-0.508392,-0.579158,0.637270
0.034365,-0.068153,-0.124018,0.674266,-0.732413,0.094533
-0.154568,0.066522,0.898572,-0.243660,0.959225,0.143241
-0.468699,0.240670,0.828400,-0.607502,-0.305900,0.733053
-0.251276,-0.357632,0.725531,0.984303,-0.066598,0.163438
-0.386265,-0.199504,0.518207,0.854112,-0.288866,0.432491
-0.476171,-0.756581,0.795848,0.470980,-0.612197,-0.635132
-0.350198,0.451206,0.822363,0.066316,0.983530,0.168140
0.058736,-0.118989,0.364380,0.909908,0.371409,-0.184725
-0.185121,0.826277,0.199531,-0.620207,-0.293748,-0.727362
0.353393,-0.173029,0.758683,-0.458381,-0.871351,-0.175029
0.231439,0.018466,0.141079,-0.273771,0.222574,0.935687
0.149159,-0.261703,0.876314,0.680376,0.257709,-0.686057
-0.002937,-0.102789,0.707742,0.556261,0.802581,0.215495
0.111083,-0.258801,0.692590,0.393651,0.264502,0.880385
-0.479778,-0.303050,0.420550,0.811857,0.045431,0.582085
-0.001701,0.324931,0.845672,-0.334470,0.756297,0.562268
-0.154618,-0.225193,0.769463,-0.628736,-0.013814,-0.777496
0.586119,0.474901,0.824758,0.958516,-0.017340,-0.284510
0.271421,0.439538,0.693108,0.604602,0.437751,-0.665455
-0.288371,-0.181551,0.859836,0.723271,-0.690468,-0.011521
0.190272,-0.274216,0.796156,-0.483237,0.433993,0.760350
-0.914990,0.108956,0.776035,-0.209404,0.619505,0.756547
0.170797,0.392692,-0.073352,-0.021422,0.588742,0.808037
-0.412130,0.575785,0.750184,-0.158796,0.301647,0.940102
-0.502190,-0.347841,0.908737,0.220261,0.608105,0.762688
-0.259260,-0.023784,0.986646,0.387203,0.851465,-0.353668
-0.778196,0.677820,0.477188,0.620110,0.304439,-0.723036
0.370035,0.390698,0.375080,0.429056,-0.518844,0.739400
0.310836,0.053646,0.085492,0.938965,-0.213086,0.270073
-0.099180,0.215462,0.544284,-0.519650,0.848911,-0.096512
-0.045906,-0.130110,0.753972,-0.331906,0.942972,0.025350
0.359730,0.061446,-0.986888,-0.120740,0.143152,0.982308
0.171879,-0.373288,0.636615,-0.179333,-0.293863,0.938874
-0.586326,0.884124,0.549286,0.057525,0.462173,0.884922
-0.837086,0.162210,0.802857,0.925710,0.243099,-0.289764
-0.503222,-0.496600,0.008798,-0.042540,0.063219,0.997093
-0.447369,0.276394,0.636648,0.871516,0.090394,0.481964
0.952651,0.210264,0.130201,0.013354,-0.284720,0.958518
0.443712,-0.044095,0.792238,0.358884,0.443193,0.821451
-0.306921,-0.422552,0.745943,0.899478,0.400271,-0.175277
-0.688239,0.365007,0.604290,0.904896,0.412853,0.103514
-0.076922,0.093300,0.911683,0.854068,0.488000,-0.180066
-0.812357,0.121649,0.805479,0.713711,0.668302,0.209738
0.225411,0.294466,0.315884,0.580462,-0.199678,0.789426
-0.483332,0.952429,0.558836,-0.470038,-0.233419,0.851223
-0.535370,0.535045,0.796382,-0.088809,0.869857,0.485244
-0.332321,-0.146249,0.628781,0.835244,-0.018684,0.549563
-0.244320,-0.330311,0.670641,0.812830,0.180920,0.553692
-0.454737,0.441051,0.863883,0.533971,-0.302750,0.789441
0.031736,0.358479,0.853118,0.082574,0.981822,-0.170901
0.488124,0.540182,0.766015,-0.191772,0.950368,0.244999
0.353393,-0.260314,0.809073,0.190850,-0.544259,-0.816920
0.597352,-0.247921,0.280806,-0.088799,-0.402803,0.910969
0.352516,0.216128,0.706317,0.996065,0.076058,0.045491
0.117007,0.193097,-0.859156,0.952280,0.222556,0.208882
-0.010871,0.382537,-0.171203,0.080739,-0.084460,0.993150
-0.055903,-0.132348,0.429372,-0.516156,0.819106,-0.250296
-0.288783,-0.236134,0.739420,0.967978,-0.082575,0.237063
-0.620795,0.105995,0.717260,0.925802,0.348331,-0.146819
-0.010459,0.016231,0.710947,-0.247483,-0.317271,0.915473
0.279663,-0.179980,-0.335551,0.076693,0.643155,0.761886
-0.310732,-0.234503,0.371810,-0.299424,0.905394,0.301011
0.076768,-0.111433,0.179669,-0.471193,0.866957,0.162365
0.147457,-0.278870,0.074550,0.866298,-0.020399,0.499112
0.092378,-0.518965,0.724285,0.131128,-0.010606,-0.991309
-0.021434,-0.888476,0.722488,0.673437,0.712383,0.197467
-0.367305,0.491282,0.601538,0.305730,0.162636,-0.938125
-0.163379,-0.753498,0.587989,-0.173582,-0.445835,0.878123
-0.093051,-0.361017,0.037449,0.281061,0.727534,-0.625858
-0.075790,-0.388219,0.628716,0.956698,-0.209714,-0.201865
-0.237314,-0.068033,0.904868,0.510791,0.374493,-0.773852
-0.179555,-0.577174,0.559921,-0.530503,0.715636,0.454348
-0.477149,-0.345664,0.824418,0.164212,0.977747,-0.130561
0.173681,0.226888,-0.416001,0.846497,0.456108,0.274605
-0.631459,0.737239,0.552944,-0.119392,0.018870,-0.992668
-0.352723,0.013631,0.564583,-0.465214,-0.856753,-0.222599
-0.066001,0.300451,0.514856,0.782363,-0.095669,-0.615431
0.372507,0.148065,0.262871,0.669630,-0.700534,0.246675
-0.301663,-0.138332,0.930946,0.202156,-0.179064,0.962844
-0.597971,0.108533,0.726357,0.942840,0.329416,0.050378
-0.787778,-0.279958,0.809024,-0.187937,-0.210136,0.959439
0.225823,0.087557,0.300360,0.444471,0.828358,-0.340983
-0.077799,0.013390,0.714637,0.539163,0.297967,-0.787730
-0.524964,0.446008,0.866958,0.186449,-0.762596,0.619423
-0.243342,-0.281952,-0.005787,0.131451,0.049132,0.990104
-0.157555,0.430230,0.472705,0.114040,0.142958,0.983137
0.415167,0.317558,0.350945,0.397723,-0.031968,0.916948
-0.395692,0.222898,0.492987,0.121783,0.898622,-0.421482
-0.181307,-0.432405,0.928712,-0.283653,-0.882942,-0.374105
-0.312692,-0.229425,0.872510,-0.718797,-0.211980,-0.662115
0.333865,0.330916,0.625543,0.796941,0.133879,-0.589034
0.407903,-0.353098,0.648853,0.828286,-0.137999,-0.543046
0.693236,0.142202,-0.391720,0.134516,0.376161,0.916738
-0.506259,-0.421342,0.768217,-0.266398,0.320428,-0.909042
0.078623,-0.221083,0.411517,0.308243,-0.761367,-0.570357
0.265754,-0.129144,0.159516,-0.063280,0.459718,0.885807
0.234427,0.149395,0.802080,0.764589,0.261931,0.588893
-0.091092,0.061746,0.946307,-0.233706,-0.530039,0.815132
-0.745375,0.026022,0.822039,0.865455,-0.087478,-0.493290
0.536297,-0.027411,0.583085,0.572610,-0.800605,-0.176493
-0.565046,0.041678,0.184719,-0.000043,-0.754562,0.656229
-0.233911,0.318403,0.829598,0.277473,0.609195,-0.742893
-0.206452,0.332367,0.448132,-0.251813,-0.398194,0.882061
-0.534288,0.512558,0.735681,0.497695,0.540942,-0.677998
-0.111907,0.286730,0.105597,0.367987,-0.573360,0.732014
-0.752331,0.583341,0.635628,-0.261353,-0.210152,-0.942088
-0.578754,0.785657,0.552394,0.988381,0.134022,-0.071697
-0.880263,0.008494,0.808085,0.475402,0.414690,-0.775903
-0.518728,0.680178,0.590288,0.058600,-0.482628,0.873863
0.085733,-0.183909,-0.392157,0.823726,-0.558485,0.097827
-0.423051,-0.765284,0.793210,-0.059249,0.739392,0.670663
0.228348,0.414393,0.364397,0.441674,0.770498,-0.459628
0.224329,-0.029407,-0.978600,-0.573352,0.497083,0.651288
-0.402287,0.064225,0.583845,0.949785,-0.047479,0.309281
-0.031378,0.171699,0.257205,-0.532318,0.500222,-0.682946
-0.449998,0.180646,0.783692,0.025975,-0.711340,0.702368
-0.525065,0.491040,0.745231,0.307674,0.888716,-0.339883
-0.312742,0.340829,0.762292,0.937671,0.307174,0.162532
-0.898553,0.309820,0.646635,-0.329023,0.272131,0.904261
-0.364780,0.205851,0.519809,0.082283,-0.577110,0.812511
0.313978,-0.442982,0.896305,0.384365,0.284030,0.878402
-0.027978,0.603228,-0.046999,0.510276,-0.607551,0.608687
-0.490803,0.012604,0.635336,0.760004,0.384979,0.523627
-0.066824,-0.085561,0.697398,-0.189747,0.978822,0.076832
-0.433614,0.150603,0.623342,-0.645531,0.200969,-0.736818
0.304654,0.191164,0.705896,-0.606916,0.637597,0.474471
-0.608119,0.299545,0.777961,-0.023239,-0.936567,0.349718
-0.523263,0.226283,0.335227,-0.496951,-0.191858,-0.846304
0.169973,-0.166923,0.466116,0.884132,0.395456,-0.248850
-0.496882,0.384231,0.650245,0.889252,0.434866,0.141853
-0.383894,-0.250762,0.389017,-0.707290,0.671325,0.221501
-0.199445,0.051652,0.461001,-0.738958,0.396723,-0.544566
0.128960,0.128963,0.311497,-0.253842,-0.756288,0.602987
-0.613993,0.797383,0.553673,0.445028,0.019523,0.895304
-0.445771,0.497205,0.369706,0.061505,-0.600131,-0.797533
-0.674893,0.228821,0.504982,0.362505,-0.083391,0.928243
-0.601679,0.877837,0.555404,0.041508,0.347043,0.936930
0.370705,0.313507,0.639303,0.898361,0.153792,-0.411456
-0.212068,-0.494906,0.387706,-0.486995,0.355569,0.797751
-0.066362,0.098256,0.965424,0.587548,0.280456,-0.759034
0.606213,-0.265027,0.350670,-0.569615,-0.018822,0.821696
-0.785306,-0.199140,0.835814,0.863060,-0.489828,0.123272
-0.181876,-0.073290,0.910922,-0.595377,0.654929,-0.465397
0.074655,-0.542235,0.719315,0.002199,0.001535,0.999996
0.084548,-0.162874,-0.425762,0.867223,-0.497606,0.017647
-0.521099,-0.918094,-0.011614,-0.248299,-0.006924,0.968659
-0.316141,0.175991,0.804379,0.070723,-0.894835,0.440759
-0.171105,-0.408046,0.616657,0.964970,-0.251970,0.073098
-0.827039,-0.205307,0.826474,0.862060,-0.405654,0.303805
0.429853,-0.112944,0.565230,-0.280119,0.689201,-0.668233
0.267402,0.277722,0.687378,0.333678,0.536090,-0.775414
0.817766,-0.089793,0.436656,0.861486,0.052745,-0.505035
-0.091711,-0.117961,0.898102,0.986478,0.114525,0.117244
-0.490495,-0.198537,0.786233,0.816618,-0.171120,-0.551229
-0.021072,-0.403753,0.909757,0.632696,0.279205,0.722316
0.296254,0.076557,0.745166,-0.018285,-0.530843,0.847273
-0.146014,0.016111,0.312840,-0.179662,0.973840,-0.139130
-0.170848,0.072143,0.845704,0.306624,0.622197,-0.720314
0.343708,0.100070,0.772183,-0.519155,0.487472,0.702032
0.086815,0.121770,0.580883,-0.454685,-0.869525,0.192841
-0.217065,-0.425393,0.937712,0.490991,0.310033,0.814130
-0.368953,-0.321908,0.870940,0.724418,0.065498,0.686242
0.061620,-0.058240,-0.153689,0.988208,-0.152078,0.017806
-0.599877,0.348990,0.856906,0.532149,-0.678438,0.506497
-0.652223,0.451145,0.890090,-0.083609,-0.702210,0.707043
0.050337,-0.047904,0.302303,0.855895,-0.503650,0.117388
0.492505,-0.066762,0.571381,-0.038921,-0.929813,0.365968
0.021280,-0.044941,0.366679,0.972217,0.213886,-0.095111
0.231801,-0.052678,-0.814657,-0.482415,0.859135,0.170771
-0.719614,0.451023,0.889733,0.003100,0.142074,0.989851
0.328406,-0.309517,0.817393,-0.118687,-0.160534,0.979868
-0.091658,0.094751,0.710170,-0.256610,-0.295049,0.920379
-0.176105,0.049839,0.950905,0.252172,0.129828,0.958934
-0.167398,0.130837,0.442078,0.995841,0.091091,0.001931
0.462567,0.296401,0.698839,-0.662628,-0.584202,0.468649
-0.083105,-0.269742,0.925199,0.172574,0.282341,-0.943664
-0.917307,0.112462,0.823366,-0.152795,-0.941661,-0.299881
-0.226235,-0.348807,0.010708,0.612400,0.264878,-0.744853
-0.296562,0.578687,0.344713,-0.026126,0.144245,0.989197
-0.268896,0.260436,0.669475,0.731134,-0.509937,0.453219
0.160542,-0.280985,-0.983020,0.254752,-0.071672,-0.964347
-0.820961,-0.276695,0.851240,-0.396698,0.577324,0.713672
-0.679582,0.000696,0.760333,0.986370,0.134501,0.094784
-0.172756,-0.115543,0.052244,-0.631425,0.492514,0.598943
0.116080,0.127452,0.265963,-0.054270,0.451660,0.890538
-0.454379,-0.544534,0.785067,0.254296,0.545677,0.798480
-0.040447,0.237163,0.091433,0.893653,-0.073873,0.442636
-0.266371,0.146615,0.506730,0.097509,-0.875260,0.473720
-0.078881,0.313507,0.646117,0.905842,-0.415617,0.081933
-0.143904,0.144619,0.544818,0.278536,0.936996,-0.210846
-0.248751,-0.047965,0.948282,-0.514953,0.063107,0.854892
-0.108300,-0.156285,0.957363,0.056642,-0.863628,0.500937
-0.270801,0.578384,0.177824,0.264416,-0.388232,0.882814
-0.623062,0.735062,0.552216,-0.392077,0.172060,-0.903699
0.464476,0.167166,0.394893,-0.714517,0.498506,0.490875
-0.635066,-0.532686,0.006354,-0.129264,-0.409597,0.903062
0.316503,0.236860,0.676808,-0.675081,0.129483,0.726292
-0.099438,-0.207060,0.604095,-0.698372,0.470432,-0.539416
-0.236952,-0.335570,0.922901,-0.630317,0.478653,0.611221
-0.301405,0.296219,0.834600,0.064858,-0.792257,0.606730
0.246433,0.288907,0.842483,0.282732,0.952229,0.115420
-0.763356,0.135130,0.699956,0.551714,0.776087,0.305451
-0.264826,0.061929,0.891352,0.326662,0.879485,0.346118
-0.310578,0.322091,0.823188,0.281723,0.937860,-0.202611
0.089133,-0.289569,0.916653,-0.407300,-0.546976,-0.731385
0.094133,0.612719,-0.097293,0.310422,0.445374,0.839809
-0.410171,0.040531,0.436122,0.996802,-0.050898,0.061605
-0.435932,0.145829,0.621578,-0.645531,0.200969,-0.736818
-0.031378,0.216611,0.990158,0.001576,-0.378573,0.925570
-0.279871,0.450056,0.805819,-0.218200,0.940735,-0.259629
0.205266,-0.328800,0.597782,0.877095,-0.381270,0.292125
-0.505127,0.481971,0.586192,0.992485,0.115467,0.040502
-0.456180,0.096323,0.631144,-0.562194,0.156735,-0.812017
-0.354991,-0.051591,0.258662,0.732680,0.206295,0.648554
-0.196043,-0.459607,0.385213,-0.720832,0.191097,0.666246
0.335050,-0.242360,0.803845,0.192543,0.620965,0.759822
-0.383843,-0.209537,0.870082,-0.334967,-0.910091,-0.243991
-0.125765,0.420558,0.848958,0.588523,-0.526531,0.613520
0.060692,0.231118,0.727652,0.895086,0.440938,-0.066296
0.108146,-0.193097,-0.985869,-0.133357,0.158499,0.978312
-0.180483,-0.279111,0.315576,0.930564,0.207541,0.301625
-0.306817,0.436153,0.355510,0.567963,0.512124,0.644319
-0.893760,0.603167,0.376812,-0.141921,0.412125,0.900007
0.086765,0.616768,-0.075489,-0.415895,-0.530539,-0.738620
-0.799423,-0.295433,0.849848,0.792275,-0.504409,-0.343326
-0.207068,-0.680659,0.566379,-0.824294,0.498204,0.268946
-0.582461,-0.073593,0.728283,0.912250,0.368790,0.178309
0.095058,0.164687,0.507264,0.965983,-0.241590,0.092260
0.640166,0.020099,-0.129635,0.272395,0.677484,-0.683240
-0.083262,0.133678,0.267176,-0.398194,-0.225238,-0.889218
-0.462413,0.405568,0.857149,0.151280,-0.634470,0.757999
-0.908549,0.488500,0.655295,0.403352,-0.161323,0.900712
-0.572002,-0.484268,0.738983,0.104448,0.523247,0.845756
-0.651861,-0.201559,0.437093,0.150962,0.794135,0.588694
0.001906,0.508206,0.895140,0.268779,-0.468993,0.841311
-0.491935,0.627951,0.592246,-0.009099,-0.109827,0.993909
-0.382246,0.256990,0.820452,0.953973,-0.148280,-0.260668
-0.781029,-0.180826,0.084392,-0.559244,-0.815597,0.148486
-0.196712,0.271013,0.451289,0.454369,0.515605,-0.726430
0.217012,-0.068697,-0.786362,0.239702,0.966044,-0.096449
-0.097740,-0.121346,0.943637,0.469472,0.167351,0.866943
0.175794,-0.203372,0.884845,-0.679445,-0.171616,-0.713374
-0.206298,0.361321,0.463235,-0.261987,-0.464086,0.846160
-0.691843,0.023666,0.189236,0.141131,-0.252496,0.957250
0.025761,-0.638831,0.938505,0.051853,0.202296,0.977951
-0.201093,0.368877,0.686148,0.586097,-0.558873,0.586644
0.107425,0.217700,0.259973,0.208381,0.713948,0.668473
-0.146583,-0.253241,0.590110,-0.506426,-0.731818,0.456042
-0.581484,0.265151,0.405156,-0.120612,0.103065,0.987335
0.142665,0.501739,0.888843,-0.491789,0.345967,0.799031
0.178577,-0.235047,0.059852,0.777723,-0.018455,0.628337
0.336132,-0.003475,-0.978811,0.080849,0.470090,0.878907
-0.835231,0.264424,0.736425,0.039770,0.925810,0.375892
-0.196920,0.508932,0.863219,0.375644,-0.011228,-0.926696
-0.439488,0.229063,0.633686,0.628895,-0.123152,0.767675
-0.546807,0.264546,0.658921,-0.459427,-0.007337,-0.888185
-0.951827,0.147098,0.835960,0.397652,-0.917025,-0.030629
-0.552373,-0.635566,0.828756,0.598319,0.141583,0.788650
0.429954,-0.028924,0.599838,0.330805,0.907253,0.259732
0.001132,-0.138694,0.722958,-0.547516,-0.825270,-0.138406
-0.773303,0.040106,0.814253,-0.730851,-0.205284,-0.650934
-0.292597,-0.186689,0.744762,0.890351,-0.132347,0.435613
0.247874,0.159731,-0.173291,0.890410,0.454266,-0.028489
-0.355661,-0.433252,0.731860,0.972766,0.041018,0.228133
0.059148,-0.075830,-0.107215,0.326316,0.928254,-0.178500
0.389356,-0.017620,0.227826,-0.742679,-0.066550,0.666333
-0.231389,-0.521081,0.684125,0.309781,0.200687,0.929387
0.043434,-0.480883,0.741783,-0.026285,-0.044033,0.998684
0.231439,-0.131199,-0.727295,0.018109,0.999686,0.017316
0.121746,0.488380,0.882821,0.924716,-0.377503,0.048916
-0.086815,0.169282,0.964307,-0.108364,-0.642841,0.758296
-0.424649,0.170551,0.624297,0.966914,0.048103,0.250525
-0.261374,-0.137485,0.838922,0.420548,0.821879,-0.384258
0.266836,-0.142623,0.789600,0.512026,0.082926,0.854958
0.174351,-0.253786,0.067427,0.858010,-0.058770,0.510259
0.146992,-0.057635,-0.566654,-0.110142,0.988610,0.102559
-0.517030,0.503128,0.788467,0.825983,0.531016,0.189138
-0.442168,-0.408529,0.759508,0.264474,-0.539749,0.799202
-0.339327,0.087799,0.496694,0.262435,0.782407,0.564772
-0.224741,0.397529,0.469532,-0.408050,0.910198,0.070955
0.164976,0.368997,0.338578,0.711582,0.386845,-0.586517
-0.709312,-0.240910,0.793679,0.143020,-0.206326,-0.967974
0.300015,0.037024,0.055465,0.876970,-0.310449,-0.366805
-0.712453,0.325959,0.531739,0.074383,-0.686832,0.723000
-0.659487,0.427933,0.565036,0.001362,-0.999949,0.010041
-0.143077,0.379213,0.849023,0.254398,-0.687382,0.680285
-0.200011,-0.031885,0.328801,-0.271410,0.958342,-0.088975
0.000258,-0.483905,0.926996,0.071353,0.298005,0.951894
0.487970,-0.218000,0.854251,0.683537,0.386075,-0.619454
0.436910,0.175930,0.678929,0.028491,-0.760762,0.648405
-0.487196,-0.637923,0.160941,0.718268,0.676818,-0.161269
-0.226751,-0.269622,0.794893,-0.586038,0.057736,-0.808224
0.275594,0.417476,0.689466,0.532845,0.435737,-0.725403
-0.164099,-0.211955,0.903913,0.475723,0.478180,0.738262
0.439127,0.393417,0.352353,-0.489773,0.374152,-0.787485
-0.099696,0.047481,0.524859,0.500080,-0.789621,0.355554
0.349271,-0.484631,0.631031,0.858227,-0.344711,-0.380290
-0.590653,-0.504700,0.743564,0.159631,0.535360,0.829402
0.083158,0.232872,0.855805,0.272760,0.926467,0.259347
0.039931,0.568714,0.817539,0.114664,-0.945064,0.306113
-0.231181,0.386950,0.789567,0.401958,0.073554,0.912699
-0.104693,-0.029710,0.928453,0.019407,-0.964905,0.261879
0.355607,0.367306,0.639497,0.809304,0.279190,-0.516798
0.018856,-0.040287,0.425746,0.898366,0.393418,-0.195350
-0.340305,-0.105569,0.135025,0.200358,-0.647132,0.735579
-0.287289,0.075408,0.966703,0.117601,-0.473345,0.872992
0.477561,-0.261400,-0.293383,-0.133383,0.590251,0.796123
-0.899119,0.077885,0.788499,-0.445114,0.736143,0.509869
-0.109331,0.428053,0.858023,0.375184,-0.397851,0.837228
-0.637386,0.169766,0.758084,-0.389823,0.736834,0.552371
-0.306610,-0.567141,0.803861,-0.165539,0.337717,0.926577
-0.630893,0.808747,0.554919,-0.017590,0.083749,0.996332
0.560615,0.264546,0.260459,0.686060,-0.165457,-0.708481
-0.243650,-0.292834,0.845996,0.619801,-0.084715,0.780173
-0.145294,0.273795,0.463899,-0.528517,0.443602,-0.723800
0.062497,0.570286,0.610441,0.817400,-0.407561,0.407126
-0.091711,-0.133556,0.902764,0.287968,-0.586685,-0.756885
-0.657377,0.311694,0.861001,0.092747,-0.898160,0.429774
0.016591,-0.129446,0.556020,-0.565710,0.790896,-0.233356
-0.368488,0.087498,0.526252,0.979495,0.133035,0.151299
-0.120202,-0.083264,0.880733,-0.069120,0.961920,-0.264448
-0.236902,-0.058420,0.194157,0.207301,-0.920138,0.332223
0.447215,-0.122616,0.834519,0.888990,0.012596,-0.457753
-0.244836,-0.090820,0.885298,0.618372,-0.781754,-0.080483
-0.613169,0.632061,0.641293,-0.200627,-0.051239,0.978327
-0.099180,-0.018708,0.362357,-0.055856,-0.998144,0.024260
-0.084394,0.350259,0.127935,0.359124,-0.572546,0.737035
-0.455718,0.243752,0.811776,0.902778,-0.134102,0.408666
-0.175278,-0.349291,0.908705,-0.614907,-0.120922,-0.779273
0.001340,0.491282,0.893748,0.192840,-0.425992,0.883937
-0.470350,0.178410,0.791575,-0.014744,-0.776628,0.629787
-0.251842,0.234200,0.814188,0.711937,0.278727,-0.644559
0.195115,-0.119352,0.647784,0.191458,0.949653,0.248000
-0.058994,0.096565,0.956894,0.705019,0.428752,-0.564907
-0.079447,0.361261,0.865501,-0.497401,0.185450,0.847467
0.226905,0.086893,-0.309037,0.738359,-0.667761,0.094448
-0.517904,0.057334,0.786767,0.508625,0.218296,0.832855
0.049617,0.089009,0.021667,0.941463,-0.197290,0.273357
0.632387,-0.029407,0.443908,-0.238180,0.830007,0.504340
-0.080529,0.363738,0.173194,0.874995,0.464802,-0.135437
0.099130,0.032672,-0.995678,-0.076492,-0.065090,0.994943
-0.715029,-0.553540,-0.003925,-0.206071,-0.508028,0.836326
0.673708,-0.336778,0.272049,0.110022,-0.630418,0.768419
-0.669381,0.376675,0.898215,0.395132,0.916818,0.057576
0.459014,-0.340285,-0.628813,-0.548912,-0.824733,-0.136056
-0.400277,-0.597484,0.795265,0.647899,0.404044,0.645737
0.380236,0.123584,-0.984833,-0.189020,0.019106,0.981787
-0.077130,0.039564,0.840784,0.115247,-0.634038,0.764666
0.105054,-0.265813,0.778965,-0.601878,-0.798434,-0.015690
-0.528826,0.290476,0.650358,-0.559559,-0.013392,-0.828682
0.115618,0.416570,-0.125944,0.900040,0.435763,0.006254
0.824772,0.331520,0.165052,-0.245046,0.506189,-0.826877
-0.378485,-0.734699,0.788629,-0.197639,0.304621,-0.931743
-0.056419,-0.127814,0.789373,-0.007227,0.971044,0.238792
0.173219,0.114879,-0.141710,0.809869,0.498877,0.308601
-0.084859,0.170974,0.980835,0.338369,0.500217,-0.797050
-0.173064,-0.536676,0.398681,0.255741,-0.253924,-0.932802
0.317119,-0.149937,0.751981,0.845733,0.515614,0.137400
-0.194137,0.378005,0.000882,0.021007,0.842703,0.537968
-0.043073,-0.154894,-0.015629,-0.560372,0.828068,0.016949
