-0.321973,-0.255724,0.806291,0.773376,-0.190677,-0.604592
-0.436738,-0.076655,0.779872,0.010806,0.994775,0.101517
-0.315871,-0.279934,0.858113,0.833891,0.540103,-0.113645
0.034460,0.039216,0.196878,-0.463945,0.883811,0.060282
-0.590095,0.803836,0.525095,-0.748909,0.662420,0.018290
0.021489,-0.510751,0.877200,-0.462732,0.869755,0.171479
0.526450,0.597618,0.104943,-0.771573,0.365738,0.520490
-0.659462,-0.106358,-0.151277,0.985637,-0.104814,0.132412
0.404820,-0.011989,0.394560,-0.001348,0.905748,0.423815
0.206510,0.411045,-0.087843,0.980085,0.182610,0.078019
-0.433622,0.141399,-0.145790,0.935520,0.020982,0.352651
0.355607,0.565670,-0.190729,0.682823,0.729418,0.041255
0.394711,0.400989,-0.140019,0.524179,-0.831824,-0.182497
0.274606,-0.440283,0.428666,-0.658559,0.615427,0.433070
-0.623410,-0.221998,0.822777,0.344582,0.912272,-0.221411
-0.618070,-0.163985,0.814782,0.043050,-0.341615,-0.938854
0.438263,0.296720,0.089711,0.734894,0.484398,0.474647
0.289038,-0.277229,0.740563,-0.679961,-0.066421,0.730234
0.070766,-0.335242,0.902673,0.698440,-0.384833,-0.603395
-0.226348,-0.165765,0.573368,-0.670742,0.720754,0.174980
-0.804044,-0.298035,0.697706,0.825813,-0.547229,0.136286
0.186738,-0.363862,0.619797,-0.703387,-0.502373,-0.502859
0.451425,0.437191,-0.388742,0.900293,0.431738,0.055446
-0.509156,-0.358600,0.710454,0.829511,-0.521500,-0.199873
-0.276005,-0.520033,0.612654,0.878411,-0.196536,-0.435624
0.254450,0.210549,-0.786400,0.258259,0.270224,0.927513
0.292090,0.495436,-0.262867,0.545816,-0.815486,-0.192531
-0.102746,-0.427600,0.499480,-0.915771,0.379077,0.132903
-0.841556,0.406945,0.527957,-0.300579,0.470498,0.829629
0.375127,0.623761,-0.529021,0.693271,-0.717644,0.066054
-0.066315,-0.166539,0.659390,0.947430,-0.279833,0.155145
-0.118516,0.642946,0.607072,-0.361263,0.254590,-0.897036
-0.130596,-0.049659,0.666698,0.548161,-0.447364,0.706671
0.417853,0.384746,-0.313789,-0.371742,-0.903403,-0.213705
-0.849632,-0.183013,0.746618,0.860365,0.508742,-0.030888
-0.112093,-0.600479,0.269347,-0.434734,-0.137781,-0.889957
-0.454921,0.128094,-0.173297,-0.230307,0.539975,-0.809559
-0.213759,-0.021890,0.554754,-0.419602,0.059848,0.905733
-0.160161,-0.328744,0.571641,0.239059,-0.625453,-0.742738
-0.427328,-0.174272,0.794678,0.714200,-0.275062,0.643629
-0.127352,-0.560567,0.782923,0.324210,-0.239006,-0.915295
0.294506,-0.037826,0.416604,0.601985,-0.770899,-0.208156
0.216875,0.226561,0.183633,0.952946,-0.086815,-0.290442
-0.207909,-0.132889,0.257332,-0.174803,0.340804,0.923740
0.257184,0.542543,-0.765847,-0.382500,0.923314,0.034429
0.411178,-0.366954,0.430062,-0.799475,-0.166455,-0.577177
0.198054,0.318765,0.063174,-0.096947,0.857203,0.505771
0.135363,0.184715,0.597800,0.898666,-0.021208,0.438121
0.394328,-0.299968,0.689522,0.846014,0.455399,-0.277259
0.419570,0.663599,-0.447517,0.810028,-0.584631,-0.045409
-0.692777,-0.146736,0.421145,-0.715767,-0.194922,-0.670584
0.377861,0.580832,-0.600686,-0.745768,0.649567,0.147958
-0.450408,-0.183632,0.779990,0.317544,0.948223,0.006313
-0.084944,-0.534267,0.800165,0.903407,0.133630,-0.407429
-0.147888,-0.540223,0.721689,0.838788,-0.322931,0.438350
-0.550102,-0.544090,0.382639,0.987665,0.055873,0.146275
-0.038976,-0.430383,0.672990,0.175206,-0.900024,0.399072
-0.005468,-0.461323,0.458065,-0.362134,-0.469976,0.804973
-0.151005,-0.414449,0.792077,0.142218,-0.578156,0.803436
0.061609,0.131111,0.232379,-0.445241,0.417890,-0.791914
-0.857962,-0.106899,0.734153,0.966118,0.154126,-0.207030
0.344417,0.053063,0.102105,0.306355,0.753210,0.582084
-0.768375,-0.158416,0.500024,0.952407,0.073753,0.295772
-0.437819,-0.485148,0.479328,-0.664915,0.720822,-0.195715
-0.135682,-0.029316,0.690989,-0.278926,-0.755113,-0.593300
-0.699072,-0.399983,0.750307,0.867177,-0.062410,0.494074
0.419888,0.398050,-0.302389,-0.375118,0.871325,0.316353
0.282680,-0.617110,0.255889,-0.045295,-0.990332,0.131114
0.374682,0.588568,-0.321334,0.835633,-0.549289,-0.000358
-0.582846,0.013151,0.743921,0.650125,-0.754954,0.085918
-0.477619,0.218131,-0.152034,-0.323620,-0.787088,-0.525130
0.477429,-0.404162,-0.011164,0.356105,0.335593,-0.872104
0.177137,0.643486,0.546736,0.775577,0.127391,0.618265
0.267295,0.548343,-0.769371,-0.382500,0.923314,0.034429
0.569176,-0.362778,0.472067,0.823416,0.515634,0.236870
0.470562,0.635132,-0.707592,0.889034,0.330650,0.316685
-0.041710,-0.619430,0.040989,-0.078757,0.564518,0.821655
-0.186610,0.178141,0.431764,0.360405,-0.902296,0.236581
-0.688390,0.369508,0.604399,0.258096,0.901185,-0.348212
-0.634346,0.677056,0.511778,-0.041506,0.098037,0.994317
-0.081257,-0.457922,0.130274,0.894543,-0.426434,-0.133966
-0.002161,0.728727,0.150473,0.463237,0.863913,-0.197652
-0.271618,-0.629717,0.541722,0.498756,-0.741393,-0.448976
-0.497329,-0.361154,0.639428,-0.537354,0.631708,-0.558745
-0.446910,-0.184715,0.825520,-0.645221,-0.760802,-0.069792
-0.649797,0.034653,0.373179,-0.060073,0.543177,0.837466
-0.083037,-0.360458,0.378950,0.744832,-0.037938,-0.666172
-0.741353,-0.200805,0.589735,0.948807,-0.183796,-0.256873
0.233723,0.229578,0.390161,-0.466187,0.664607,-0.583924
0.478954,0.214109,-0.134130,0.414195,0.205415,0.886706
0.304807,-0.003482,0.403902,-0.313888,0.872483,0.374497
0.224949,-0.059947,0.495648,-0.586375,-0.799107,-0.132633
0.385428,-0.324412,0.608444,-0.126771,-0.989200,0.073568
0.417090,0.633430,-0.620695,0.916752,-0.333563,0.219778
-0.481752,0.227876,-0.148652,0.002825,0.901603,0.432555
0.156154,-0.287592,0.063221,0.875828,0.466642,-0.123166
-0.846071,-0.089497,0.530700,0.822741,-0.165026,-0.543933
-0.420525,-0.441600,0.800757,-0.630843,0.632821,0.448971
-0.436992,-0.467590,0.802673,0.625547,-0.561629,-0.541538
-0.459054,-0.646348,0.550426,0.733378,-0.634486,-0.244100
0.534716,0.162360,-0.158609,-0.746300,-0.456256,-0.484631
-0.322227,-0.795250,0.623959,0.846154,0.314579,0.430190
-0.910797,-0.310180,0.461849,-0.636789,-0.766526,-0.083290
0.044061,-0.248916,-0.295057,-0.226114,0.370060,0.901071
-0.062246,-0.065981,0.406551,0.351152,-0.298564,0.887441
0.256739,-0.465655,-0.315303,0.732008,0.678895,0.057144
0.355925,0.300665,-0.118590,-0.183674,0.954872,0.233418
-0.447292,-0.224552,0.838552,-0.609382,-0.208051,-0.765094
-0.263226,-0.638227,0.787772,0.572730,-0.809109,-0.131613
-0.033508,-0.466816,0.664428,0.592244,0.278545,-0.756082
-0.077951,-0.098082,0.408893,0.499505,-0.122026,0.857674
0.345118,0.547572,-0.382900,0.727507,-0.628488,0.275200
0.319493,-0.459081,-0.263198,-0.130644,0.741140,0.658516
-0.134473,-0.630723,0.688978,0.572665,-0.578478,0.580877
-0.431715,-0.830754,0.515657,0.636751,0.171065,-0.751854
-0.706193,-0.444383,0.781575,-0.015842,-0.768609,0.639523
-0.107834,-0.434096,0.553075,0.770883,-0.289205,0.567538
-0.305634,-0.881497,0.664096,-0.447932,-0.811584,-0.375085
-0.105290,0.647044,0.604494,-0.361263,0.254590,-0.897036
-0.424594,-0.315827,0.829234,-0.556981,-0.598541,0.575778
0.394518,-0.060952,-0.170506,0.274934,0.558087,0.782911
0.398397,0.596070,-0.372966,0.783908,-0.610199,-0.114653
-0.735503,0.259668,-0.095601,0.190074,-0.468447,0.862803
0.071146,-0.199644,0.572824,-0.848996,0.260355,-0.459806
-0.102238,-0.378481,0.771429,0.869384,0.493843,-0.017042
-0.500828,-0.584236,0.395270,-0.030657,0.129466,0.991110
0.144520,0.215115,-0.412441,-0.111997,0.704409,0.700903
0.649160,0.013769,0.231646,0.982969,0.179247,0.040518
-0.757439,-0.348778,0.795341,0.802158,0.007583,-0.597064
-0.720943,-0.477878,0.606977,0.425231,0.422112,-0.800625
-0.521490,-0.449877,0.733089,0.784379,0.009328,0.620212
0.498092,0.167698,0.049385,-0.511346,-0.462565,0.724265
0.251716,-0.401685,0.608515,-0.793940,-0.436128,0.423617
0.224122,-0.237470,0.650851,0.910846,0.231844,0.341478
0.351728,0.612855,-0.517668,0.759843,-0.649868,-0.017592
-0.007311,-0.153929,-0.311708,0.135536,-0.141776,0.980576
-0.305316,-0.667543,0.776253,0.984402,0.095943,-0.147468
-0.242944,-0.507503,0.711282,0.638601,-0.310733,-0.704013
-0.562563,0.016786,0.742668,0.007127,0.998329,0.057345
0.216619,-0.638071,0.799196,-0.636678,-0.141654,-0.758008
-0.211916,-0.246905,0.436400,0.505144,-0.512389,0.694469
-0.058303,-0.325727,0.267266,-0.685615,-0.067438,-0.724834
-0.056016,0.276842,0.628926,-0.142763,-0.866682,0.477997
-0.572356,-0.624923,0.448841,0.965446,0.260516,-0.006790
0.027530,-0.514309,0.880984,-0.645985,0.719084,0.256167
-0.089205,0.791306,0.563505,0.775826,-0.509764,-0.371801
-0.390768,0.190902,0.166816,0.177988,0.187440,0.966016
-0.781156,-0.148207,0.494867,0.798884,-0.211240,0.563171
-0.546414,0.298962,-0.100426,-0.084400,-0.076604,0.993483
0.342954,0.218441,-0.816012,0.250703,0.230469,0.940230
0.216747,0.349396,0.031173,0.716096,-0.697965,-0.007117
0.302327,0.422029,-0.456008,-0.643564,0.646295,0.410034
0.113300,0.715732,0.640208,0.415716,0.090338,0.904997
-0.310465,-0.612237,0.362062,0.682060,-0.710491,0.173197
-0.154121,-0.285814,0.801206,0.514226,0.502311,0.695166
0.105098,-0.039063,0.518732,0.987524,-0.047225,0.150219
0.418554,-0.332225,0.256551,0.939873,-0.259020,-0.222594
-0.152912,-0.436804,0.838742,0.334537,-0.832653,0.441331
-0.532300,0.567915,0.558420,0.619710,0.016063,0.784667
-0.029819,0.018488,-0.294016,-0.048415,0.061251,0.996948
-0.413404,-0.306467,0.795412,0.683045,0.162453,-0.712080
0.362410,0.331220,-0.801490,-0.523982,0.188435,-0.830624
-0.262207,0.151067,0.508420,-0.652344,0.730611,-0.201632
-0.276831,-0.479965,0.688789,0.808495,-0.045387,-0.586750
0.460579,0.369121,-0.117053,-0.673123,0.731727,0.107148
-0.641785,0.688736,0.515090,-0.035466,-0.055277,0.997841
-0.693540,-0.298191,0.664972,0.796208,0.165130,-0.582052
0.165501,0.149830,-0.593330,0.353719,0.015197,0.935228
-0.774035,0.130259,0.762819,-0.089442,0.990879,0.100795
-0.273207,0.454749,0.152460,0.052161,-0.926063,0.373746
0.030009,-0.079750,0.606741,-0.011477,-0.494060,0.869352
-0.631866,0.622137,0.581883,0.661475,-0.037174,-0.749045
0.587869,-0.401454,0.521263,-0.628140,-0.658675,-0.414232
-0.146618,0.416614,0.141816,-0.547758,0.425379,-0.720426
0.505277,-0.382348,0.320222,0.907867,0.222824,-0.355145
-0.317014,-0.738861,0.566580,0.892408,0.382184,0.239883
-0.318095,-0.902459,0.591320,0.433727,0.776330,-0.457376
-0.313772,-0.834080,0.740657,-0.757323,-0.211571,0.617818
0.225139,-0.515779,0.764522,0.096674,0.991957,-0.081703
0.451805,0.649983,-0.813694,-0.113931,0.902554,0.415230
-0.268630,-0.827118,0.610549,-0.390412,0.665124,0.636544
-0.511954,-0.379949,0.709390,-0.637764,0.766048,0.080170
-0.511317,-0.148901,0.221050,-0.720360,0.302571,-0.624126
0.168045,0.544321,0.596901,0.294231,-0.420535,-0.858241
0.311674,-0.537747,-0.096902,0.736603,-0.327784,0.591585
0.349377,0.578356,-0.224385,0.984424,0.164357,-0.062420
-0.495106,-0.145653,-0.095388,0.278762,0.165652,0.945966
-0.126017,-0.485613,0.498841,-0.409103,0.667553,0.622100
-0.081448,0.794011,0.552507,0.945524,-0.143832,-0.292055
-0.577442,-0.082767,0.309342,0.422935,-0.156425,-0.892557
-0.191061,0.414371,0.140823,-0.538412,-0.660045,-0.523883
0.362030,0.589417,-0.292360,-0.717995,0.687299,0.110017
0.321591,0.547572,-0.836542,-0.757486,0.282592,-0.588521
-0.525877,-0.372988,0.800899,-0.081334,-0.232393,0.969215
-0.264115,-0.818377,0.658893,-0.093223,0.291803,0.951925
-0.588313,0.016630,-0.110691,0.207048,0.591845,0.779006
0.238873,0.296720,-0.066249,-0.617437,-0.675200,-0.403579
0.114445,-0.587328,0.866982,0.873748,-0.446663,0.192502
-0.777023,-0.260983,0.394300,0.401098,0.503128,0.765495
-0.538720,-0.411819,0.709863,-0.540624,-0.557416,-0.630089
0.406853,-0.173191,0.750615,0.629342,0.515219,-0.581789
0.122711,-0.567759,0.487725,0.995299,-0.057440,-0.077978
0.359105,0.463799,0.049858,-0.760554,-0.646147,0.063655
0.520473,-0.235768,0.224551,0.822637,-0.099413,-0.559808
0.277086,0.383740,0.539499,-0.078995,0.281257,0.956376
0.123029,-0.273903,0.750615,-0.659551,0.726084,-0.194408
-0.318921,0.036974,-0.107072,0.385040,-0.273310,-0.881502
-0.250065,0.240486,-0.134413,0.451212,0.407072,-0.794167
-0.444176,-0.232210,0.799858,0.882798,0.272118,-0.382910
0.235312,0.386216,-0.050710,-0.152685,0.983023,0.101754
-0.536241,0.483059,-0.029163,0.214802,-0.844950,0.489816
-0.296732,-0.427676,0.799787,0.148817,-0.155031,0.976636
-0.514942,0.666925,0.557119,0.893890,0.320071,0.313873
0.590031,0.631962,-0.960241,0.927039,0.256926,0.273109
-0.455748,-0.208850,0.678832,0.428271,-0.516184,0.741713
0.387780,0.547106,-0.102247,-0.786147,-0.612326,-0.083842
0.446337,0.378559,-0.258042,-0.626584,0.754003,-0.197160
0.093082,-0.039294,0.124598,0.693414,-0.702450,0.160440
-0.107516,-0.024135,0.422919,0.627694,-0.143127,0.765189
0.391212,0.511138,0.009035,0.028425,0.999520,-0.012342
-0.125891,-0.529239,0.785099,-0.029645,0.752940,0.657421
-0.629388,-0.111309,0.318874,0.709505,0.618176,0.338322
-0.089840,-0.412669,0.487961,0.788429,-0.561263,-0.251720
0.550737,0.703511,-0.979896,0.978416,0.197652,0.060291
0.048130,0.071008,0.630227,-0.494204,-0.243648,-0.834505
-0.533445,-0.668162,0.566462,-0.284119,0.784050,0.551853
0.601729,-0.384515,0.468188,0.944380,-0.262557,0.198016
-0.738175,-0.223391,0.457994,0.123005,0.922963,0.364703
0.509538,0.494430,-0.570506,-0.635382,-0.738455,-0.225773
-0.779692,-0.310721,0.639380,0.293165,-0.688249,0.663602
-0.217448,-0.262841,0.438576,0.314779,-0.846122,0.430106
0.242053,0.453821,-0.265374,0.767657,-0.597586,0.231504
0.103891,-0.531326,0.866580,-0.529573,-0.843937,0.085577
0.131675,-0.200959,0.700497,-0.132132,0.946984,0.292853
-0.553853,-0.514774,0.698817,-0.656547,0.436509,0.615147
-0.311864,-0.180152,0.268330,0.130660,-0.148742,0.980206
-0.181078,-0.090502,-0.116367,0.131793,0.229001,0.964463
-0.062564,-0.383200,0.786518,0.709102,0.687805,-0.155239
-0.236649,-0.749613,0.609792,0.489285,-0.779812,-0.390504
0.258328,-0.167157,0.634815,0.461911,-0.439123,-0.770590
0.035161,-0.653930,0.954092,-0.778250,0.419101,0.467634
-0.370868,-0.483602,0.507403,-0.347561,0.680810,0.644748
0.011952,-0.422647,0.684981,0.399794,-0.898571,0.180930
0.172686,-0.036511,0.368212,0.696097,0.402822,0.594293
-0.435401,-0.359762,0.277318,-0.295094,-0.169917,-0.940238
0.083481,-0.241492,0.616556,0.933371,-0.198275,-0.299174
0.115399,-0.384746,0.643164,0.235966,-0.279362,0.930740
0.229972,0.103882,0.130014,0.902127,0.339319,-0.266513
-0.015323,0.683708,0.030440,-0.329550,0.895390,0.299456
0.066759,0.475633,0.603997,0.842613,-0.513418,-0.162497
0.499873,-0.533028,0.547706,0.367358,0.846642,0.385025
-0.692459,-0.528543,0.758089,-0.699280,0.690926,-0.183379
0.181524,-0.399365,0.651230,-0.033452,0.383321,0.923009
-0.655647,-0.027614,0.348888,-0.371053,0.873897,0.314043
0.136698,-0.295174,0.684957,0.845493,0.295787,-0.444580
-0.455622,-0.333153,0.783112,-0.438984,-0.562727,0.700451
0.465793,-0.072014,0.467455,0.319518,-0.797762,-0.511356
-0.267993,-0.398978,0.611211,0.681955,-0.558317,-0.472461
0.438325,0.672958,-0.605913,0.892154,-0.449219,0.047575
0.393502,0.582921,-0.192621,0.870118,0.492543,0.017205
0.369215,0.367032,-0.224929,-0.238863,-0.970744,-0.024504
-0.628116,-0.289990,0.799243,0.074448,-0.316005,0.945832
-0.059894,0.810335,0.551585,0.927004,-0.165150,-0.336734
0.064407,-0.608989,0.811164,0.007760,0.716422,0.697624
-0.351158,-0.303991,0.276112,0.148582,-0.037102,0.988204
-0.233533,0.273359,0.585383,0.312650,0.879198,-0.359527
-0.685974,-0.576345,0.724480,-0.769515,0.505196,0.390671
0.258392,0.347541,-0.284934,0.947223,-0.313610,-0.066458
-0.599251,-0.362160,0.739120,-0.628241,0.772288,-0.094257
-0.245803,-0.567837,0.472919,0.454717,-0.878673,-0.145486
-0.299339,-0.523128,0.716202,0.431753,-0.810207,-0.396425
-0.387716,0.419477,0.626797,0.585890,0.803887,-0.102464
-0.608087,0.276995,-0.112583,0.110574,-0.784742,0.609880
-0.340731,-0.191367,0.787583,-0.405581,-0.255653,0.877580
-0.478828,-0.099551,0.822635,0.332199,0.941109,0.062914
0.354780,0.504949,-0.413765,-0.683628,-0.729551,0.020202
-0.450662,-0.085165,-0.101206,0.603934,0.198247,0.771986
0.320256,-0.004487,-0.069607,0.862308,-0.092043,0.497948
-0.281601,-0.156405,0.444938,0.618866,0.387024,0.683533
-0.003751,-0.097386,0.581835,0.527000,-0.838046,-0.141248
-0.191125,0.197710,0.127058,-0.342079,-0.892819,-0.293011
-0.004069,-0.079750,-0.560218,-0.626098,0.722926,0.292198
0.372139,0.419864,0.008183,0.854369,0.508631,0.106525
0.391977,0.567218,-0.162039,0.836898,0.547243,0.011264
-0.288722,-0.512684,0.731149,-0.267583,0.894494,0.358162
0.281599,-0.380261,0.440941,0.265821,0.434797,-0.860401
-0.556715,-0.518487,0.534910,-0.117183,0.530086,0.839808
-0.543107,0.616104,0.564806,0.737849,0.432721,0.518008
-0.750382,0.225015,0.489238,-0.692533,0.350016,0.630782
-0.441824,-0.012377,0.321570,0.898418,-0.404388,0.171217
-0.743833,0.215577,0.492408,-0.692533,0.350016,0.630782
-0.374428,-0.501934,0.846712,0.753386,0.608377,0.249574
0.160923,0.100247,0.357971,0.606337,-0.794923,-0.021271
-0.184258,-0.194228,0.269607,0.022676,0.152192,0.988091
-0.627607,0.254950,0.554328,0.645487,0.381929,-0.661421
-0.097533,-0.052832,0.245199,-0.334510,-0.075809,-0.939338
0.595689,-0.462485,-0.285596,-0.043011,-0.729753,0.682357
0.089585,-0.534111,0.475355,0.939825,-0.252228,-0.230455
0.503688,-0.192220,0.474882,0.250048,0.921709,-0.296529
0.742752,0.155399,-0.201632,-0.226518,-0.270710,0.935631
0.133012,0.116258,0.337535,-0.616838,-0.783150,-0.078659
-0.605417,0.015934,0.465421,0.925700,-0.378177,-0.007921
-0.001209,-0.231667,0.744725,-0.612797,0.746867,0.258205
-0.228573,-0.065827,0.661755,0.202959,0.871399,-0.446623
-0.566062,-0.279934,0.761187,0.984886,-0.025177,-0.171364
-0.590221,-0.217357,0.502507,0.026687,-0.923216,0.383354
0.365844,0.613396,-0.220246,0.981553,0.166606,0.093793
0.383901,-0.385598,0.437843,0.853918,0.169703,0.491961
0.560530,-0.402847,-0.145790,0.208033,0.429455,0.878801
0.273843,-0.281018,0.439522,-0.701781,0.276376,0.656597
-0.713760,-0.460008,0.766249,-0.552205,-0.196905,-0.810122
0.081956,0.141399,0.624692,0.342411,-0.714679,0.609909
0.066633,-0.339727,0.645104,0.914173,-0.284994,0.288213
-0.214331,0.653078,0.042786,0.295229,-0.942066,0.159220
0.279820,-0.375851,-0.068898,-0.692158,-0.240332,-0.680557
-0.559829,-0.566213,0.546003,-0.197433,0.809407,0.553065
-0.512272,0.199875,0.562772,-0.212974,-0.658579,0.721745
0.191251,-0.366414,0.116958,-0.578419,-0.014717,0.815607
0.147762,0.211633,0.169678,0.984318,0.176376,-0.003118
-0.164738,-0.679686,0.109177,0.475802,-0.839975,0.260873
-0.635429,-0.124150,0.808538,-0.482281,-0.606384,0.632221
0.057731,0.710241,0.175142,0.913417,0.080585,0.398969
-0.472216,-0.593671,0.535359,0.073781,0.556025,0.827884
-0.778039,-0.268410,0.660501,0.278317,0.646473,-0.710361
0.308494,-0.223160,0.769276,0.114559,0.916326,-0.383697
-0.545333,-0.447247,0.757048,0.250818,0.654980,-0.712805
0.722596,-0.346226,0.491202,0.408078,0.682675,0.606158
-0.428535,-0.616335,0.713056,0.958267,-0.275467,0.076438
0.412321,-0.373840,0.446570,0.542724,0.254739,-0.800349
-0.026133,0.364867,0.101159,-0.181672,0.979462,0.087460
-0.045588,0.167389,0.351561,-0.255514,-0.958247,0.128357
-0.265451,-0.780013,0.563032,0.904885,0.418271,0.078946
-0.457275,-0.089572,0.769631,0.245039,-0.929388,0.276031
-0.456130,-0.276917,0.746972,0.889907,-0.263643,-0.372234
-0.376844,-0.243347,0.801395,0.437320,0.406873,0.802001
-0.909016,0.299581,0.515113,0.826772,-0.209658,-0.522007
-0.144710,-0.485767,0.364475,0.019084,-0.699982,0.713905
-0.649034,0.686881,0.512748,0.003159,0.227142,0.973857
0.121440,0.170249,0.336495,-0.209448,-0.971360,0.112207
0.154247,-0.137841,0.625189,-0.183365,-0.095815,-0.978364
0.351666,-0.471535,-0.103075,0.411766,0.765360,0.494644
0.218400,0.178528,-0.370175,-0.366355,0.867508,0.336473
-0.290945,-0.364634,0.765350,-0.499016,0.566696,-0.655621
-0.637590,-0.126780,0.436022,0.843075,-0.246358,-0.478051
-0.087678,-0.096845,0.404186,0.353629,0.113347,0.928493
0.477237,0.677753,-0.885478,0.553979,-0.825092,-0.111039
-0.018311,-0.124459,0.551656,-0.601724,0.463690,-0.650323
0.481624,-0.002630,0.166320,0.854513,0.039883,0.517896
-0.227238,0.500773,0.103004,0.751088,-0.645862,0.136852
0.142993,-0.172029,0.642904,-0.301778,-0.917383,-0.259495
0.360949,0.031792,0.490350,0.979305,0.163539,0.119234
-0.104145,-0.381576,0.764759,0.618258,0.056524,0.783940
0.309957,0.365252,-0.166722,0.772530,0.631604,0.065378
0.390704,0.630260,-0.274030,0.999094,-0.034434,0.025014
-0.507949,0.247138,0.491533,0.888903,-0.401976,0.219699
-0.602556,0.577119,0.513481,-0.146992,-0.227334,0.962659
-0.664483,-0.255724,0.722304,0.201175,-0.358575,0.911566
-0.887781,-0.201889,0.542171,-0.580286,0.580278,0.571442
0.242625,-0.386604,0.133586,0.618533,-0.170727,-0.766987
0.509664,0.685023,-0.773368,0.996886,-0.077283,0.015683
-0.477619,-0.498531,0.752909,0.392623,0.577373,-0.715882
-0.133012,-0.396813,0.613221,-0.477836,0.391742,-0.786264
0.767738,-0.443224,0.368046,0.574652,0.810517,0.113305
-0.043999,-0.378016,0.750165,0.608700,0.482280,0.629992
-0.566252,-0.205833,0.807025,0.752254,0.141347,-0.643533
0.213823,-0.773436,0.584721,0.741822,-0.596694,-0.306034
0.089331,-0.119818,0.239688,-0.322939,0.854491,0.406885
-0.054616,0.721456,0.012606,0.000400,0.998306,0.058180
-0.712995,-0.501391,0.753832,0.871167,0.218494,0.439691
0.104526,-0.312191,0.838221,0.674693,-0.725046,0.138196
0.395345,-0.527847,0.529730,0.978108,0.169085,-0.121308
0.232642,-0.300974,-0.156883,-0.189193,0.285841,0.939415
-0.464586,-0.265624,0.571334,-0.318956,0.854362,0.410283
0.293998,0.321239,0.056552,-0.260503,0.898748,0.352691
0.380469,0.589573,-0.207781,0.818579,0.571110,0.061342
0.300992,-0.478650,0.774432,-0.181706,0.665234,0.724187
-0.654184,-0.495127,0.740019,0.542512,-0.392411,0.742761
0.248219,0.384590,-0.053430,0.369888,0.912324,0.175634
-0.573817,-0.365177,0.672706,-0.132440,0.298759,-0.945094
0.057541,0.006496,0.502389,-0.263064,0.947449,-0.182036
0.420523,0.425046,-0.471500,0.227918,0.970946,0.072923
-0.134411,-0.050047,0.251821,-0.249330,0.610256,0.751946
-0.480607,-0.048963,0.360785,0.268881,0.102775,0.957674
0.131231,-0.482906,0.871310,0.914293,0.353389,-0.197949
0.369659,0.343518,-0.233160,0.858780,-0.440497,0.261648
0.293045,0.037361,0.402152,0.348568,0.711876,0.609699
-0.681269,0.589417,0.515610,0.801322,0.021126,-0.597860
0.141214,0.182473,0.600709,0.882859,-0.085762,0.461741
0.194049,0.705213,-0.007427,-0.420518,-0.903303,-0.084901
0.113174,0.160193,0.327223,-0.279403,-0.957886,0.066248
-0.657490,0.415377,0.514522,0.914356,-0.313671,-0.256053
-0.470372,0.151686,-0.133822,0.398115,-0.915163,-0.063097
0.236647,-0.073716,0.437961,-0.044588,0.844111,0.534312
0.297304,0.007039,0.415279,-0.387973,0.912676,0.128449
0.495104,0.490408,-0.586187,0.751577,0.612431,0.245073
-0.692841,-0.438815,0.754659,0.618543,0.073215,0.782333
0.439344,0.474783,-0.272777,-0.304059,0.939992,0.154799
-0.322482,-0.554068,0.687725,0.592502,-0.197233,-0.781051
0.138670,-0.318069,0.441816,0.279617,0.337099,0.898987
-0.081956,0.480042,0.610903,-0.125097,0.252123,0.959575
0.194367,0.317219,0.070577,-0.584534,0.756318,0.293775
-0.207529,0.132348,0.154470,-0.656258,-0.026742,-0.754063
0.247965,-0.340811,0.735643,-0.157356,0.590686,0.791409
0.022254,-0.332070,-0.152933,0.109238,0.405701,0.907454
-0.273081,-0.417157,0.796972,0.088606,-0.666993,0.739777
-0.836597,0.169168,0.500733,-0.738549,0.674182,0.004906
-0.052009,-0.296255,0.717904,0.044130,0.917805,0.394571
-0.402086,-0.548112,0.713032,-0.384994,-0.618081,-0.685388
-0.435339,-0.842358,0.528382,0.642033,0.270331,-0.717436
-0.454795,0.544012,0.188505,0.428820,-0.747738,0.506953
0.476983,0.671719,-0.909910,0.756084,-0.634252,0.161435
0.280456,-0.672725,0.676514,0.932852,0.293403,0.209051
-0.283762,-0.913058,0.675213,0.470115,0.773034,0.425922
-0.757058,0.084159,0.636826,0.999196,-0.039661,-0.005824
-0.719228,-0.291692,0.451655,0.983336,-0.131286,0.125758
-0.672813,-0.163057,0.705487,-0.563719,0.672559,-0.479463
0.367880,0.531172,-0.887819,0.702378,-0.659321,0.268257
-0.456574,0.114016,-0.170151,-0.230307,0.539975,-0.809559
0.099122,-0.053682,0.515043,-0.552249,-0.676094,-0.487768
-0.106689,-0.115640,0.598368,-0.092247,0.991093,-0.096051
-0.006995,-0.693920,0.092218,-0.433569,-0.845406,-0.311939
-0.551566,-0.770032,0.621972,-0.142508,0.966242,0.214634
0.418171,0.124690,-0.362772,0.008926,0.586827,0.809663
-0.316952,-0.227336,0.845884,0.722453,0.634678,0.274309
-0.147762,-0.416229,0.848699,-0.430784,-0.777224,-0.458637
0.092255,0.282951,-0.444347,-0.244956,0.815368,0.524567
-0.073246,0.429609,0.606835,0.305153,0.061967,0.950285
0.405200,0.635364,-0.513150,0.769632,-0.605708,-0.201951
-0.064472,-0.706063,0.872067,0.963868,0.199863,0.176106
-0.367625,-0.407566,0.363647,-0.169037,0.808636,0.563501
0.510364,0.613474,-0.939357,0.886439,0.016787,0.462541
-0.007121,0.803991,0.175899,-0.286740,-0.653248,0.700748
-0.468783,0.297494,0.495577,0.960063,-0.257979,-0.108282
-0.086025,-0.189588,0.343425,0.780502,-0.620031,-0.079870
-0.569938,-0.305770,0.804825,0.876586,0.458965,-0.144733
-0.504134,0.135752,0.454068,0.973151,-0.171398,-0.153622
-0.111903,-0.045559,0.245080,0.260689,-0.031511,0.964909
0.352811,-0.278619,0.491935,0.307578,-0.906088,-0.290517
-0.599631,-0.447556,0.749763,-0.437869,0.133134,-0.889127
0.628179,-0.387453,0.362701,-0.523151,-0.553602,-0.647949
0.007185,-0.417310,0.647658,-0.655392,0.445267,-0.610080
0.056078,-0.429300,0.452909,0.041745,0.415710,0.908539
-0.651006,-0.500851,0.761518,-0.697517,0.606901,-0.380975
0.396046,0.651144,-0.336211,0.977681,-0.103866,0.182623
-0.568603,-0.544477,0.703453,-0.722823,0.071107,0.687365
-0.532744,-0.732518,0.624645,0.197770,0.728800,0.655543
-0.126782,0.177985,0.292148,-0.438415,0.897518,-0.047466
-0.087678,-0.690903,0.875875,0.964284,0.104117,-0.243550
-0.229972,-0.177832,0.636377,-0.658759,0.430775,-0.616823
-0.087424,-0.266167,-0.144726,-0.375651,0.011782,-0.926686
0.236075,0.544477,-0.574622,-0.062639,-0.989404,0.130977
0.468272,0.108757,0.207450,-0.513469,0.532393,-0.672984
-0.827822,-0.204672,0.528169,0.443449,0.212097,0.870843
0.115972,-0.082689,0.489759,0.956411,0.253244,-0.145411
-0.492562,-0.266089,0.854068,-0.231142,0.970851,-0.063417
-0.170905,-0.141939,0.619111,0.512753,-0.836861,0.191696
-0.323372,-0.826656,0.577696,-0.420194,0.020311,0.907207
-0.417537,0.102567,0.394016,0.630646,-0.020173,-0.775808
-0.021299,-0.073485,0.642952,-0.280954,0.524693,-0.803593
-0.499683,-0.513999,0.338198,0.963483,-0.102373,0.247429
-0.269774,0.306620,0.044773,-0.092612,0.068816,0.993321
-0.103827,-0.039525,0.561471,-0.056846,0.319610,0.945842
-0.584563,0.149365,-0.141391,-0.489546,0.860635,0.140185
0.007439,0.106358,0.633420,-0.522762,-0.093264,-0.847361
0.238682,0.748917,0.006315,0.004761,0.993093,0.117235
0.424720,0.222385,0.159153,0.829412,0.542752,0.132271
0.115972,-0.393256,0.903406,0.881133,-0.046808,-0.470545
-0.563518,0.753015,0.553216,0.214498,0.940803,0.262452
0.092828,-0.116877,0.567620,-0.530719,0.028365,0.847073
-0.310275,-0.161433,0.806504,-0.605720,-0.699548,0.379125
0.127860,0.304918,0.620695,-0.475362,0.733603,0.485651
-0.877988,-0.213104,0.526537,0.591464,-0.618086,-0.517822
-0.136380,-0.274134,0.788931,0.363380,0.904982,-0.221273
0.347215,0.101408,0.082569,0.194023,0.834911,0.515052
0.066569,-0.607287,0.444607,0.251181,-0.939763,0.231851
-0.655201,-0.540842,0.735596,-0.757319,0.647745,-0.083034
-0.139496,-0.709623,0.840563,0.322867,0.918233,0.229359
-0.630151,-0.356823,0.479825,-0.372988,0.776657,0.507627
0.447100,-0.071240,0.466604,0.177766,-0.872880,-0.454401
-0.377288,0.121518,0.498131,0.383962,-0.776480,0.499651
0.395027,0.654161,-0.402886,0.781364,-0.620094,0.070382
-0.466876,-0.913907,0.527152,-0.218078,0.969379,-0.112896
-0.432796,0.005956,0.347043,-0.654416,0.549567,-0.519342
-0.018057,0.051827,0.664215,-0.400525,0.197308,-0.894790
-0.373158,-0.660117,0.745246,-0.337871,-0.768252,0.543721
-0.179807,0.040609,0.654163,0.336968,0.441634,0.831512
-0.592384,-0.255105,0.480795,0.871626,0.382466,-0.306574
0.269582,-0.610304,0.690255,0.952480,0.293840,0.080251
0.387970,0.566366,-0.562488,0.933362,0.331070,0.138668
-0.590793,0.267095,0.532308,-0.216771,-0.784149,0.581482
-0.578587,-0.262454,0.730298,-0.664164,0.318285,0.676448
0.055379,0.247214,-0.093165,-0.697595,0.687977,0.200124
-0.710772,0.486463,0.528311,-0.547975,-0.281896,-0.787564
0.352747,0.304224,0.158727,0.614684,0.568483,0.546801
-0.478764,-0.740254,0.607616,0.632529,0.358709,0.686466
0.619213,-0.462716,0.601041,-0.265131,0.959226,0.097934
0.109169,0.157951,0.620175,-0.731632,0.306476,-0.608924
-0.227557,-0.265780,0.831646,-0.405278,-0.724987,0.556905
-0.694366,-0.022199,0.535359,-0.543599,-0.148150,-0.826167
-0.134855,-0.448637,0.585596,0.846804,0.239391,-0.474990
0.108404,0.025758,0.448841,0.290671,0.928615,0.230618
0.074517,-0.472154,0.931504,-0.562966,0.574016,0.594622
0.074389,-0.071783,0.045553,0.847039,0.391543,-0.359471
0.255022,-0.657334,0.597422,0.802321,-0.098809,-0.588658
0.172622,0.235999,-0.130156,-0.216775,0.766774,0.604207
0.083037,-0.714882,0.541272,0.093421,0.553283,0.827738
0.201296,0.551747,0.614238,0.292724,0.018205,0.956024
-0.206258,0.693920,0.619915,0.058404,0.303411,0.951068
0.107069,0.232364,0.220908,0.662285,-0.155541,0.732930
-0.251972,-0.234066,0.471760,-0.496618,-0.045963,-0.866752
0.420523,0.633586,-0.542313,-0.616430,0.785815,-0.050095
0.143629,0.505027,0.012441,-0.094069,-0.418584,0.903293
0.091937,0.141861,0.612157,-0.733685,0.259529,-0.627973
-0.738365,0.000309,0.398297,-0.027078,-0.959970,-0.278791
-0.701361,-0.599861,0.724267,0.934050,-0.331395,0.133148
0.401704,-0.361617,0.757237,0.654912,-0.280908,-0.701556
0.158698,-0.182704,0.694253,0.092670,-0.971720,-0.217193
0.064980,0.242264,0.126892,0.081845,0.748833,0.657685
-0.379388,-0.450417,0.500591,0.513279,0.751457,0.414557
-0.192840,0.179996,0.637299,0.095434,-0.776153,-0.623281
-0.039420,-0.490486,0.843519,-0.552364,0.539652,0.635350
0.457465,-0.408028,0.780298,-0.322190,0.482988,0.814197
0.613999,-0.087021,0.276159,-0.138782,0.865626,0.481073
0.484995,-0.152923,0.329848,0.871559,0.360111,0.332723
-0.112602,-0.391320,0.826348,0.774062,0.449103,0.446245
-0.594546,-0.107595,0.500071,-0.486255,0.167489,0.857615
0.284587,0.484143,-0.302815,0.984871,0.157457,0.072365
0.078714,0.626004,0.142408,-0.563790,-0.733845,0.378961
-0.596453,-0.356280,0.450993,0.887520,0.439655,-0.137884
0.429933,0.393565,0.117384,0.551007,-0.804447,-0.221938
-0.594608,-0.220374,0.503004,0.262894,0.911782,-0.315501
0.544951,0.689279,-0.832592,0.934469,-0.355407,0.021317
0.128815,-0.388690,0.779612,0.579055,0.337808,0.742011
0.315551,0.177523,-0.067834,0.935922,-0.289437,0.200690
0.079730,-0.554377,0.404115,-0.165913,0.913222,0.372153
-0.383775,-0.343981,0.834839,0.297836,0.095478,0.949830
0.133456,0.060334,0.385762,0.842459,-0.533857,-0.072526
-0.158952,-0.138073,0.244229,0.184512,0.144634,0.972130
0.135872,-0.530011,0.499764,0.980848,-0.080797,-0.177227
0.061738,-0.161277,0.620435,0.600168,-0.565784,0.565409
-0.697482,0.191289,0.532592,0.842456,-0.221855,-0.490966
-0.431841,-0.246596,0.487299,0.872958,-0.478731,0.093602
-0.161178,-0.032642,0.678453,-0.174596,0.390947,-0.903702
-0.138290,-0.311030,0.769962,-0.242738,0.124436,0.962078
0.399098,0.658880,-0.867502,-0.152945,0.987845,-0.027739
-0.032807,0.333384,-0.144797,-0.332354,0.781709,0.527704
0.346325,0.073407,0.092479,0.306208,0.726786,0.614833
-0.182731,-0.152923,0.648250,0.135601,0.905070,-0.403065
-0.613809,-0.051902,0.729612,-0.744097,0.651100,-0.149628
-0.259093,0.235921,0.542597,0.979123,-0.198974,-0.041565
0.357324,-0.059097,-0.158444,0.255338,0.457322,0.851856
0.538148,0.563659,-0.709177,0.969988,0.158677,0.184240
-0.733470,0.070777,0.527483,0.846229,0.255675,-0.467469
0.299465,-0.154394,-0.094962,0.972720,-0.192193,0.129915
-0.771236,-0.251470,0.505393,0.660230,-0.549152,0.512375
-0.568603,-0.443456,0.401608,0.924341,0.351943,-0.147413
0.154311,-0.492032,0.515941,-0.849750,0.229039,0.474833
0.638607,-0.248222,0.481031,0.603832,0.557155,-0.570057
-0.734104,0.139928,0.448155,-0.020470,-0.637547,0.770139
0.274542,-0.060180,-0.045080,0.843236,-0.155678,0.514507
-0.371949,-0.134591,0.545577,-0.024993,-0.091727,0.995470
-0.034971,-0.153619,0.394181,-0.435995,0.190290,-0.879601
-0.023653,0.136215,-0.084721,-0.724796,0.066786,0.685719
-0.310974,-0.474396,0.407734,-0.453875,0.710183,0.538180
-0.361521,0.059328,0.336897,-0.518824,0.717951,-0.464078
-0.018057,-0.487238,0.294986,0.946089,-0.028970,-0.322610
-0.486586,-0.315208,0.796192,-0.108157,0.579423,-0.807818
-0.547114,-0.662128,0.611187,0.248966,0.692304,0.677297
0.213631,0.159884,-0.799361,0.258259,0.270224,0.927513
-0.693031,0.214496,0.528832,-0.420350,0.134357,0.897359
-0.784780,-0.268101,0.515444,0.672148,-0.348831,0.653095
-0.797495,-0.187654,0.644276,-0.731653,0.606855,-0.310500
-0.667155,-0.401995,0.808396,0.027307,-0.666934,0.744617
0.007247,0.218750,0.232285,0.599055,-0.237906,0.764548
-0.436228,-0.015315,0.334153,-0.672625,0.707993,-0.215224
0.019392,-0.449799,0.228571,0.034311,0.532730,0.845590
-0.555760,-0.539605,0.718401,0.856506,-0.443756,-0.263587
-0.260554,-0.493965,0.632190,-0.679157,0.240386,0.693513
-0.041519,-0.127476,0.629801,0.754432,-0.486763,0.440334
0.000698,0.167542,0.620790,0.842777,0.536999,-0.036865
0.359105,0.573793,-0.239806,0.986833,-0.079422,0.140899
0.103445,-0.103806,0.636329,0.270513,-0.160758,0.949199
0.317332,0.533415,-0.335785,-0.507272,0.840397,0.190809
-0.054489,-0.644648,0.915468,0.933649,-0.345393,0.094882
-0.534970,-0.365564,0.750638,-0.236583,-0.578552,-0.780580
-0.132630,0.096071,0.102862,0.834184,-0.226458,-0.502845
0.101476,-0.040765,0.078098,0.786945,-0.206437,-0.581465
0.646172,0.283569,-0.942668,0.465109,0.515582,0.719617
-0.712487,-0.567296,0.782781,0.009347,0.099367,0.995007
0.381930,0.348931,-0.267573,0.889710,-0.451352,0.068537
0.430888,0.589649,-0.631031,0.855806,-0.422352,0.298689
0.465603,-0.378634,0.230227,0.838574,-0.085194,-0.538085
0.220562,0.416382,0.018638,0.979968,0.065380,0.188120
-0.226666,0.818224,0.105487,-0.494754,-0.648822,0.578142
-0.210707,-0.060025,0.687015,-0.232468,-0.474497,0.849006
0.070828,-0.006034,0.460998,-0.401192,-0.478699,-0.780956
-0.584437,-0.211789,0.484130,-0.478367,0.416167,0.773285
-0.379706,0.007117,-0.318590,0.121695,-0.338676,0.933000
0.337486,0.612390,-0.092810,-0.533744,-0.835902,0.128005
-0.213123,-0.039372,0.540563,0.629451,0.020205,-0.776777
-0.806269,-0.231280,0.395388,-0.664217,0.002487,-0.747536
0.053536,0.675432,-0.083278,-0.044457,-0.996632,0.068909
0.626080,-0.292776,0.530653,-0.057814,-0.542652,-0.837965
0.348932,0.618734,-0.219726,0.993486,0.113707,0.007440
-0.570449,0.037670,0.515090,-0.285126,0.388232,-0.876344
-0.055888,-0.184328,0.157190,0.868441,-0.473373,-0.147406
0.465539,-0.432703,0.779565,-0.629751,0.288810,0.721112
-0.461344,0.286432,0.368874,0.063939,0.010080,0.997903
-0.535098,-0.475633,0.747422,-0.070550,-0.238786,0.968506
0.382058,0.565904,0.490941,0.368856,0.210898,0.905244
0.193348,-0.147664,0.600095,0.748764,-0.662628,0.016653
0.238238,0.287207,0.119513,-0.367542,0.888410,0.275028
0.137653,-0.196008,0.746121,0.397294,-0.908741,-0.127857
-0.797813,-0.340655,0.572138,0.897593,0.431468,0.090341
0.449771,0.532719,-0.765799,0.999035,-0.022992,0.037423
-0.667599,-0.036199,-0.123676,0.997437,-0.012598,-0.070437
0.201550,0.289837,0.109910,0.174405,-0.915432,-0.362722
-0.173577,0.472850,0.131102,-0.429536,-0.897486,-0.100094
-0.243578,0.266863,0.501845,0.907911,-0.266421,-0.323600
0.254960,0.206605,-0.389002,-0.565081,0.744413,0.355713
-0.564663,-0.209468,0.807190,0.752254,0.141347,-0.643533
0.165057,-0.114403,0.544867,0.937029,0.151211,-0.314820
-0.064089,0.578589,0.601797,0.838481,0.191035,0.510347
-0.454857,-0.113166,0.534508,-0.568890,-0.066415,0.819728
-0.402530,-0.610226,0.396618,0.424724,0.144179,0.893768
-0.882185,0.064744,0.549101,-0.663633,0.533441,0.524436
-0.283953,-0.666538,0.533562,0.206723,0.158416,0.965489
0.548765,-0.392869,0.250544,-0.477163,-0.266418,0.837458
-0.453332,-0.536588,0.406788,-0.265317,0.199332,0.943331
-0.429998,0.255493,0.380416,-0.212947,-0.259264,0.942038
-0.675421,-0.600248,0.768827,0.917915,0.375478,0.128250
-0.414547,-0.612469,0.742502,0.972408,0.231239,-0.030847
-0.667219,0.616182,0.530582,-0.578932,0.208469,0.788276
-0.151005,-0.029547,-0.130629,0.074431,0.115614,0.990502
0.605736,-0.327894,-0.296027,0.873301,0.134858,-0.468145
0.048322,-0.389696,0.231835,0.880479,-0.194878,0.432180
0.558685,-0.287282,0.285667,0.944306,0.187510,0.270419
-0.420461,0.177832,-0.167100,0.369376,-0.475773,0.798249
-0.100077,-0.580214,0.862370,0.951621,-0.081969,-0.296140
0.184194,-0.011989,0.601230,0.776187,0.292513,-0.558543
0.640832,-0.358060,0.584177,-0.096532,0.945589,0.310714
-0.225775,-0.612856,0.519607,0.617420,-0.674621,-0.404574
-0.535478,0.087948,0.531220,0.955709,-0.100847,-0.276496
-0.014306,0.783414,0.184650,-0.228027,-0.691762,0.685178
-0.217766,-0.431620,-0.128666,0.012174,0.070631,0.997428
-0.765451,-0.529471,0.766509,-0.330393,-0.095515,-0.938998
0.299720,-0.302445,0.734011,0.058294,0.213049,0.975301
0.102682,0.265393,0.203146,0.444774,-0.854885,0.267112
-0.053090,0.713258,0.553146,0.793515,0.297166,0.531062
0.411941,0.062501,0.233515,0.971065,0.066692,0.229316
-0.270219,-0.618889,0.774905,0.589834,-0.642138,-0.489648
-0.411941,-0.542310,0.436708,-0.060097,-0.848209,0.526240
0.192586,0.166692,-0.364711,-0.268431,0.832948,0.483883
-0.280836,-0.672028,0.523273,0.787827,-0.431324,-0.439646
-0.126463,0.036820,-0.135241,-0.171463,-0.011189,-0.985127
-0.625191,-0.661045,0.518921,0.628854,-0.759022,-0.168607
0.099504,-0.683786,0.539806,0.140909,0.662713,0.735498
-0.501208,-0.356126,0.652058,-0.459736,0.195385,-0.866295
0.129641,-0.676516,0.552365,-0.623907,-0.026818,0.781038
0.125509,0.012298,0.496854,0.773578,0.632966,-0.030516
0.227619,0.443843,0.245601,0.175101,-0.713903,0.677998
0.176054,-0.613474,0.556812,0.750712,-0.387717,-0.534891
-0.510619,-0.852258,0.544465,-0.098321,-0.182848,0.978212
-0.643566,0.510364,0.510265,0.990550,-0.096213,-0.097743
0.030964,0.390392,0.608680,0.453541,0.398551,0.797156
0.517231,-0.384668,-0.287677,-0.296204,0.850005,-0.435608
-0.229146,0.413056,0.619962,0.257541,-0.445070,0.857663
0.161242,0.139156,0.315894,0.460340,0.871713,0.167942
-0.734931,0.275911,0.571239,-0.838501,0.517373,-0.171002
0.078840,-0.408415,0.747446,0.326806,0.945006,-0.012681
-0.109041,-0.253094,0.769323,0.390493,0.904944,0.169089
-0.683050,-0.058323,0.422587,0.465889,0.836576,0.288251
0.123727,0.565207,0.118945,-0.159384,0.953651,-0.255237
-0.789676,-0.147664,0.405274,-0.639772,0.026733,-0.768099
0.051945,0.252551,0.132829,0.223141,0.500391,0.836550
0.569938,0.072555,0.189806,0.969694,0.233166,-0.072989
0.400497,0.635829,-0.369915,0.900295,0.434044,0.032795
0.484804,0.645420,-0.768259,0.963053,-0.199453,0.180962
-0.811865,-0.110921,0.553311,0.936409,0.347804,-0.046577
-0.069431,-0.628480,0.859603,0.870982,0.490213,0.032900
0.008138,0.517713,0.060478,0.895602,-0.401949,-0.190615
0.146299,-0.050278,0.167171,0.801868,-0.368839,-0.470070
0.021999,-0.732362,0.540161,-0.418545,0.579918,0.698939
0.007565,-0.245515,0.256859,0.205943,0.508182,0.836265
-0.703905,-0.363319,0.442431,0.035315,-0.999373,-0.002331
-0.107706,-0.472619,0.021097,-0.620142,0.527871,0.580324
-0.403295,0.227954,0.530960,0.545312,0.810629,0.213342
-0.682986,0.503481,0.511778,0.781453,0.148506,0.606034
-0.362030,-0.787128,0.565161,0.654129,-0.114889,-0.747607
0.488619,-0.418240,0.556670,0.400573,0.193283,0.895647
0.189788,-0.116258,0.454163,0.838728,0.527257,0.136148
0.597278,-0.679998,-0.068874,0.573425,0.766307,0.289754
0.433114,-0.401454,0.185218,0.895773,-0.041328,-0.442587
0.516721,-0.260983,0.286187,0.993619,0.042159,0.104614
0.561673,-0.242960,0.441414,0.995489,0.083018,0.045940
-0.307859,0.031714,0.499125,0.695598,-0.062356,-0.715720
0.293045,0.183013,-0.041746,0.862149,-0.498663,0.089632
0.128433,0.372138,0.609555,-0.286372,0.038126,0.957360
-0.567461,-0.037979,0.377909,-0.365218,-0.346650,-0.863973
-0.069177,0.715578,0.565823,0.865652,0.083502,0.493634
-0.030838,-0.105584,0.597493,-0.404841,0.913838,-0.031693
-0.477811,0.544786,0.557403,0.669779,0.714845,0.200981
0.225139,-0.249381,0.565042,0.923125,0.369566,-0.106116
0.121376,0.475324,0.628311,0.014255,0.942817,0.333006
-0.340667,-0.414449,0.836164,-0.550673,0.308235,0.775726
-0.542791,-0.386679,0.767148,0.716346,0.103686,0.689998
-0.617498,0.406713,0.575851,-0.212551,-0.591462,-0.777814
0.315869,0.123529,0.322540,0.626378,0.586031,0.514021
0.414547,-0.272510,0.432095,0.943527,-0.153792,0.293436
-0.202125,-0.574954,0.791367,-0.129027,0.523221,0.842373
0.010618,0.588025,0.065137,-0.584758,0.810232,0.039786
-0.558558,0.260365,0.576585,0.016069,-0.451786,0.891981
-0.498094,-0.085784,0.791746,-0.095717,0.993657,-0.059022
-0.291201,-0.550355,0.742218,-0.266518,0.680910,0.682151
-0.338823,-0.252938,0.791438,-0.086306,-0.453136,0.887254
-0.228764,-0.355508,0.867147,0.377600,0.703159,0.602483
0.301691,0.502628,-0.744229,-0.076529,0.816736,0.571914
-0.857451,0.093054,0.480061,0.961021,0.021449,-0.275641
0.481816,0.462716,-0.516060,0.814375,0.561312,0.147387
-0.648144,-0.446626,0.780014,-0.442026,0.825507,-0.350929
0.056142,-0.487547,0.651868,-0.518671,0.180576,-0.835687
0.195448,-0.134978,0.649551,-0.228618,0.954144,0.193244
-0.773398,-0.226948,0.529210,0.042064,-0.730163,0.681976
0.364764,-0.071627,0.274787,0.446021,0.801167,-0.398994
0.372711,-0.077120,0.455936,0.370283,0.279092,0.886001
0.457591,0.450804,-0.476727,0.355623,0.933836,0.038514
-0.184258,0.774985,0.628548,-0.124852,-0.119404,0.984964
0.492179,0.421951,0.085880,-0.266742,0.149288,-0.952135
-0.158380,-0.255802,0.730700,0.957217,-0.264746,0.116811
-0.063072,-0.675123,0.576845,0.874997,-0.442358,0.196725
-0.732071,-0.132426,0.529446,0.837066,-0.102278,-0.537456
0.528739,-0.399674,0.538079,-0.138445,-0.342943,-0.929098
-0.617434,-0.489633,0.708657,-0.308913,-0.933253,-0.183334
-0.377861,-0.259668,0.254045,-0.064234,-0.080619,0.994673
0.545777,0.527847,-0.694347,0.984045,-0.157541,0.082683
-0.367243,-0.879485,0.716604,0.068810,-0.755592,0.651418
-0.697611,-0.539371,0.751939,-0.696466,0.446083,-0.562090
-0.290057,-0.800279,0.592550,0.813847,-0.479817,-0.327763
-0.771236,-0.119894,0.408018,-0.841676,0.460312,-0.282302
0.222659,-0.434637,0.413056,-0.626765,0.396691,-0.670672
-0.039230,0.879563,0.012606,0.954161,-0.035353,-0.297199
0.227557,-0.146040,0.238150,0.930385,0.317329,0.183538
-0.412005,0.436726,0.140752,0.021634,-0.783040,0.621595
-0.557922,-0.166924,0.438836,0.881296,0.424511,-0.207623
0.337742,-0.292235,0.700781,0.840104,0.526027,-0.132365
0.303917,-0.085087,-0.060549,0.827058,-0.236866,0.509773
-0.411813,-0.204131,0.458278,-0.515435,0.781796,-0.350888
-0.033698,0.125155,0.380700,0.589588,0.703881,0.396152
-0.630087,-0.027848,-0.166107,0.481102,0.006724,0.876639
0.251081,0.541151,0.107758,-0.451317,-0.886932,0.098305
-0.383965,0.531869,0.578027,-0.141738,-0.981219,0.130843
-0.575662,0.149134,-0.137039,-0.340870,0.867972,0.361154
-0.808305,-0.376083,0.621996,-0.727680,0.650431,0.217765
-0.305888,-0.202507,0.801112,0.561300,0.634844,-0.530957
-0.768757,0.030709,0.540610,-0.197732,0.359916,0.911791
-0.295905,-0.221071,0.818709,-0.651643,-0.734574,0.189112
0.131549,0.384127,-0.161448,-0.294219,0.794589,-0.531097
-0.009156,-0.385674,0.850591,0.923310,0.097784,-0.371398
-0.296351,-0.708771,0.699598,0.952814,-0.254704,-0.165139
0.141912,0.321704,0.106055,0.272958,0.735340,0.620298
0.463505,0.662747,-0.697517,0.987802,0.086111,0.129741
0.301501,-0.372370,0.399125,0.566785,0.104971,-0.817151
0.214840,-0.333153,0.586684,0.975309,-0.022252,0.219722
-0.628688,-0.505570,0.732710,-0.593109,0.536762,0.600090
-0.232706,-0.832302,0.571358,0.826792,-0.456716,0.328369
0.005786,-0.537438,0.658988,-0.082117,-0.087452,0.992778
0.235694,-0.195312,0.585525,0.903980,0.299630,-0.305028
-0.166900,0.695776,0.625922,0.115592,0.055866,0.991725
0.019328,-0.007814,0.645459,-0.422412,-0.373939,-0.825674
-0.531283,-0.508587,0.740421,-0.575689,-0.600329,-0.555147
0.070512,-0.016321,0.559744,0.853303,0.416291,0.313967
0.466301,-0.411741,0.786944,-0.322190,0.482988,0.814197
-0.059448,-0.068070,0.564073,0.012533,0.161208,0.986841
0.021681,-0.336711,0.875307,-0.597842,0.791822,0.124908
0.478320,-0.333694,0.224243,0.779070,-0.329004,-0.533672
-0.553155,0.012067,-0.142834,0.158462,0.890170,-0.427184
-0.208928,-0.385674,0.853855,-0.590131,-0.597623,0.542763
0.301755,0.224628,0.177649,0.014968,0.264256,0.964336
-0.100267,-0.547959,0.034626,0.601769,-0.550101,-0.579019
-0.555316,-0.368812,0.770175,0.268019,0.445768,0.854082
-0.379514,0.071164,0.367502,0.876140,-0.303107,0.374838
0.385872,0.542388,-0.086258,0.823693,0.563863,0.059903
-0.607135,-0.473933,0.759129,-0.349365,0.209377,-0.913294
-0.058303,-0.177985,0.627720,-0.136979,0.914347,0.381060
0.415055,0.223932,0.218496,0.718873,0.682823,0.130286
0.502417,-0.153388,0.317810,0.890583,0.366276,0.269636
-0.472470,-0.192991,0.829896,0.771432,0.541950,0.333442
-0.700789,-0.525757,0.720104,0.674801,-0.437946,-0.594010
-0.085008,0.262607,0.305203,-0.579410,0.430139,-0.692289
0.085388,0.545173,0.575922,0.911228,-0.302458,0.279612
-0.051182,0.053760,0.657734,-0.460530,-0.263330,-0.847685
0.270599,-0.159422,0.471854,-0.652389,0.756695,-0.042444
-0.434957,-0.014078,0.344252,-0.629241,0.526850,-0.571389
-0.600394,0.661354,0.514357,-0.288428,0.080807,0.954086
-0.260618,-0.507038,0.717195,0.437550,-0.487500,-0.755575
0.024161,0.562500,0.143236,0.369729,-0.739433,0.562618
-0.527276,-0.505957,0.405676,-0.113876,0.742804,0.659754
-0.232642,-0.636603,0.749361,0.809959,-0.510300,0.289067
0.376526,0.604270,-0.829044,0.976749,-0.004915,0.214331
0.367942,0.400526,0.053855,0.955155,0.296039,-0.006336
-0.077186,-0.481976,0.810856,0.809573,-0.493771,0.317461
-0.051310,0.342048,0.090918,-0.260451,0.952142,0.159974
-0.021999,0.136524,0.595814,0.925218,0.309286,0.219803
-0.261635,0.103960,-0.330156,0.053386,-0.101070,0.993446
0.384918,0.607906,-0.266816,0.998964,0.040224,0.021278
0.163912,0.309715,0.060099,0.505219,-0.794232,-0.337563
0.065742,-0.410117,0.440539,0.461274,-0.603229,-0.650647
-0.032745,0.250696,0.130322,-0.176388,0.749108,0.638534
-0.390832,-0.388228,0.836991,0.922170,0.373668,0.099872
-0.288530,0.205677,-0.168259,-0.116350,-0.027400,0.992830
-0.190552,-0.364867,0.715516,0.770422,-0.636456,0.037069
-0.650305,-0.225324,0.681741,0.887418,0.186336,-0.421626
-0.015705,-0.434715,0.739499,0.363269,-0.714918,0.597434
-0.525813,-0.531482,0.532166,0.219340,-0.536623,-0.814817
0.419696,-0.000000,0.383562,0.043734,0.907731,0.417268
-0.690043,-0.101408,0.715918,-0.695475,0.642121,-0.322482
-0.793616,-0.265624,0.491178,-0.119227,-0.990947,0.061714
-0.243960,-0.901377,0.670482,0.816235,-0.573402,-0.070498
0.176627,0.245049,0.172848,0.982129,-0.184006,0.039560
0.357833,0.575417,-0.209626,0.920947,0.361364,0.145850
-0.210835,-0.813736,0.652791,0.947086,-0.230939,-0.222924
-0.242880,-0.189588,0.544584,-0.371571,0.414496,0.830739
-0.087614,-0.303450,0.579399,-0.425650,0.734940,0.527907
0.384409,0.581991,-0.467100,-0.673252,0.734894,0.081619
-0.179045,0.190440,-0.129896,-0.122589,0.436902,0.891116
-0.246122,-0.734374,0.531670,0.995861,-0.001380,-0.090875
-0.087360,-0.236617,0.257947,0.320566,0.424704,0.846679
0.103827,0.088026,0.390232,-0.451324,0.776588,0.439566
-0.278166,-0.555770,0.634555,0.710051,-0.549802,-0.439939
0.355035,0.281249,-0.058775,0.949390,-0.311638,-0.039243
0.421860,-0.363475,0.184484,0.896666,-0.002143,-0.442702
0.546732,-0.021736,0.269418,0.069484,0.831447,0.551243
0.239445,0.278619,0.061589,0.232797,0.693321,0.681990
0.114891,-0.076655,0.545861,0.197546,0.980034,0.022566
-0.495676,-0.393256,0.730960,-0.443464,0.591989,-0.672970
-0.185211,-0.166615,0.755511,-0.784972,-0.602248,-0.145318
0.058685,0.777768,0.070411,0.805494,0.552793,0.213541
-0.923766,-0.280940,0.531552,-0.334755,0.809630,0.482119
-0.453904,-0.667387,0.569347,-0.071844,0.826492,0.558345
0.446273,-0.346611,0.558184,0.479140,-0.875605,-0.061161
-0.022508,-0.644336,0.829210,0.189240,0.971297,0.144123
0.282299,-0.238706,0.698439,0.576400,0.733249,-0.360705
-0.563644,0.172494,-0.136613,-0.622459,0.698309,0.353424
-0.429871,-0.419321,0.807687,0.828701,-0.292242,-0.477336
-0.380977,-0.601563,0.385525,0.318504,0.324709,0.890573
-0.570195,-0.159884,0.823297,0.329801,0.551677,0.766083
-0.172242,-0.336557,0.750780,0.842322,-0.525817,-0.118362
0.382248,-0.078822,0.518425,0.510832,0.850117,0.127871
