0.762056,0.516465,0.586813,-0.339727,-0.438440,0.832079
-0.224886,-0.575551,-0.982756,0.074771,0.006995,0.997176
-0.642282,0.033332,0.296602,-0.710524,0.507425,-0.487520
0.460713,0.433069,0.570199,0.173774,0.984780,-0.003311
0.354845,-0.122623,0.845821,0.964797,0.116843,-0.235614
-0.056704,-0.337445,-0.999124,-0.104792,0.071754,0.991902
0.453264,0.436510,0.685512,0.393412,0.913502,0.103642
-0.036154,0.099816,-0.220402,0.189350,0.152053,-0.970065
0.660335,0.899579,0.558813,-0.356842,-0.590668,0.723723
-0.138062,0.037763,0.655404,0.468793,0.847493,0.248973
0.387793,0.561201,0.480998,0.597994,0.396570,-0.696517
-0.156305,0.210850,0.186271,-0.125365,0.965921,0.226451
0.635069,0.167359,0.703220,-0.602976,0.576581,0.551339
-0.214141,-0.503688,-0.987218,0.306139,-0.016758,-0.951839
-0.605373,-0.414069,-0.149430,-0.382578,0.914679,-0.130370
-0.362242,-0.107467,-0.142861,-0.576956,0.816703,0.010851
-0.176524,0.082133,0.744386,0.714243,0.616732,-0.330905
-0.568982,-0.334516,0.152386,-0.524284,-0.602971,-0.601292
-0.134857,-0.393861,0.259378,-0.630806,0.496602,0.596213
-0.517982,-0.703097,-0.072327,0.058836,0.359855,0.931151
0.525195,0.005364,0.715263,0.826957,0.099415,-0.553407
0.156164,-0.194121,0.580654,-0.090873,0.515547,0.852029
-0.105633,0.186982,0.633151,-0.475602,-0.138319,-0.868718
0.094838,-0.048817,0.178881,-0.098183,-0.501329,0.859668
-0.081970,-0.515183,-0.951362,0.193195,0.772837,0.604483
-0.287107,-0.293954,0.793626,0.490767,-0.577856,0.652097
0.348623,0.023630,-0.046379,-0.132582,0.664248,0.735661
0.202452,-0.606706,-0.453354,0.628404,0.700756,-0.337712
-0.006221,-0.283191,0.702864,0.031468,-0.092119,0.995251
-0.492575,-0.278760,0.340286,0.769237,0.180124,0.613049
0.458262,0.700720,0.450562,0.796832,-0.005068,-0.604179
-0.035823,0.179990,0.167057,-0.528497,-0.635577,-0.562790
-0.225263,-0.336458,-0.099123,0.116180,0.498263,0.859207
0.083762,0.435229,0.650094,-0.211028,-0.328909,0.920482
-0.207872,0.032673,0.665887,0.839330,0.523791,0.145492
0.508652,0.512767,0.136210,-0.272528,0.448267,0.851343
0.458403,0.802273,0.543841,0.549055,-0.814235,-0.188574
0.383267,0.021398,0.503661,-0.339822,0.453380,-0.823995
-0.342492,-0.660668,0.093485,-0.012978,0.765649,0.643128
0.446523,0.744980,0.473334,0.684022,0.343071,-0.643752
-0.740608,-0.201881,0.104898,0.582300,-0.081936,-0.808835
0.315862,0.521077,0.197164,-0.184537,0.982625,0.019842
-0.241291,-0.172119,0.759385,0.071879,-0.779829,0.621853
0.502993,0.414326,0.723256,0.349267,0.904084,0.246260
-0.353476,0.261519,0.036471,-0.034048,-0.611829,0.790257
0.013906,-0.315224,0.752707,0.449378,-0.148268,-0.880952
-0.537732,-0.013600,0.284531,0.570249,-0.108700,-0.814248
-0.653217,-0.022569,0.295179,-0.701681,0.275680,-0.656996
0.118878,0.309696,-0.173078,0.819455,-0.451126,-0.353523
-0.094225,-0.337481,0.712526,-0.085946,-0.861366,0.500661
0.303043,0.422819,-0.364317,0.639473,-0.295804,-0.709630
0.763705,0.470887,0.560920,0.342483,0.521555,-0.781464
-0.822671,-0.099631,0.349728,-0.542385,-0.233521,-0.807023
0.720009,0.777196,0.598281,-0.509348,0.804834,0.304642
-0.209190,-0.067781,0.220375,-0.051101,0.318437,0.946566
0.013906,-0.467517,0.585745,0.732661,0.499142,0.462672
-0.729624,-0.682706,-0.050266,0.369224,0.558068,0.743125
-0.599291,-0.480953,-0.126055,0.712539,0.058028,0.699229
-0.800565,-0.367684,0.280234,-0.324530,0.821990,-0.467988
-0.470704,0.215903,0.166509,-0.149643,0.610308,-0.777902
-0.099928,0.376618,0.461838,-0.003144,0.738492,0.674255
-0.480509,-0.070637,0.309631,0.031452,0.213069,0.976531
-0.337733,-0.015137,-0.507219,-0.076077,-0.242003,0.967288
-0.148997,-0.265288,0.741867,-0.109695,0.303146,-0.946609
-0.114681,0.338069,0.542253,-0.724378,-0.265597,-0.636188
0.057271,0.040764,0.221470,0.226696,0.534963,-0.813894
0.215462,0.414398,0.199135,0.875921,-0.459176,-0.148054
-0.219702,-0.132946,0.330897,-0.628150,-0.567345,0.532491
-0.433419,-0.144514,0.313188,-0.002776,0.133428,0.991055
0.648836,0.885706,0.549069,-0.226769,-0.721965,0.653714
0.422578,0.729567,0.574578,0.894951,0.365688,0.255605
0.381524,0.448556,0.510367,0.337263,-0.054801,-0.939814
0.806129,0.546264,0.633097,0.204035,-0.321101,0.924805
-0.387839,-0.360362,0.320688,0.970639,-0.049031,-0.235490
0.805706,0.753840,0.577206,-0.333122,0.380712,0.862605
-0.460192,-0.292305,0.222072,0.704471,-0.095156,-0.703324
0.554891,0.077264,0.741621,-0.228636,0.885399,0.404714
-0.493470,-0.186066,-0.214599,0.572035,0.292151,0.766436
-0.209049,0.346048,-0.278318,0.325376,-0.789252,-0.520780
0.060525,0.252402,0.612788,-0.113457,-0.477435,0.871311
0.230735,0.141002,-0.126493,0.515751,0.849776,-0.109004
-0.569975,-0.185664,-0.170423,0.880660,-0.461217,0.108245
-0.038179,-0.007011,0.329529,-0.745150,-0.666628,0.018946
0.147021,-0.345498,0.783799,-0.120159,-0.931959,0.342073
0.580723,0.597993,0.700510,0.756002,0.376172,-0.535682
-0.296630,-0.758121,-0.989024,-0.179283,0.050330,0.982509
-0.600517,-0.629696,-0.077336,-0.443623,-0.168494,-0.880232
0.782325,0.638960,0.608627,0.392086,0.062590,0.917797
0.629839,0.165089,0.402965,-0.511104,-0.657800,0.553238
-0.304642,-0.660777,-0.563493,-0.053126,0.185870,0.981137
-0.193211,-0.462210,-0.989298,-0.224339,0.163911,0.960627
-0.202449,0.326903,0.599978,-0.485250,-0.503079,-0.715153
-0.236294,0.322875,0.622121,0.501717,0.648887,0.572036
-0.549893,-0.435156,0.171518,-0.692048,0.481759,-0.537567
0.304124,0.357509,0.798607,-0.167223,0.831100,-0.530386
-0.042046,0.320861,-0.062473,0.597386,0.124182,-0.792281
-0.277728,0.232963,0.188981,0.451461,0.604501,-0.656324
-0.252462,-0.177720,0.681296,-0.065912,0.736387,0.673342
0.400000,0.475425,0.808132,0.955783,0.286522,0.066211
-0.201223,-0.469678,-0.520275,0.548675,0.817423,0.175428
-0.585904,-0.218063,-0.171354,0.406011,-0.809652,-0.423815
0.465192,0.222237,0.450397,0.233614,0.911534,0.338423
-0.535232,0.033554,0.140343,-0.496559,0.832400,0.246047
-0.408058,-0.545605,-0.288226,0.445369,0.192249,0.874464
0.716476,0.731984,0.542609,0.963222,0.022588,-0.267754
-0.476266,-0.782905,-0.046215,0.155652,0.475213,0.865994
0.732783,0.761381,0.589030,-0.293987,0.949683,0.108044
-0.927693,-0.315626,0.190185,0.644935,0.167077,0.745751
0.493427,0.782432,0.490687,-0.058708,0.628574,0.775531
-0.769738,-0.085500,0.339464,-0.538756,-0.054161,-0.840719
-0.139854,0.122916,0.719697,0.842994,-0.444629,-0.302763
-0.027479,-0.317787,0.725171,0.176809,-0.667391,0.723414
-0.799385,-0.312880,0.144120,-0.200973,0.598471,0.775527
0.077542,-0.121926,0.384133,0.196006,-0.446597,0.873002
0.117417,0.279640,-0.077117,0.791969,0.422344,0.440920
-0.612350,-0.738169,-0.041781,0.327075,0.484177,0.811538
-0.612632,-0.335139,0.186271,0.667756,0.469140,0.577936
-0.094884,0.274807,0.265317,-0.550161,0.824131,-0.134652
-0.322741,-0.279785,0.572827,0.744610,-0.371985,0.554241
0.241009,0.328952,0.475743,-0.464010,0.769626,0.438601
0.118878,-0.828338,-0.493205,0.288317,0.107903,0.951436
-0.130662,0.077997,0.166810,0.147202,0.793839,0.590044
-0.620267,-0.229998,0.410929,0.888174,-0.005170,0.459479
0.568041,0.232525,0.479547,0.364605,-0.912149,-0.187210
0.447280,0.499148,0.527172,0.913056,-0.367610,-0.176612
-0.798395,-0.087368,0.357337,0.702779,0.287613,0.650677
0.598022,0.425454,0.350002,0.130068,-0.562728,0.816345
0.086354,-0.850451,-0.483598,-0.114727,0.113418,0.986901
-0.204146,0.225202,0.176308,0.097148,0.977184,-0.188876
-0.615178,-0.117864,0.364481,0.206080,0.977003,0.054741
0.681547,0.221652,0.236578,0.089808,0.575959,0.812530
0.684329,0.195035,0.385283,0.181300,-0.723058,0.666571
-0.432524,-0.472093,-0.853567,0.537698,-0.685336,-0.491116
0.470000,-0.067305,0.834928,-0.660758,0.750533,-0.009942
-0.261890,-0.033844,0.488826,0.621136,0.271557,-0.735151
0.060525,0.055335,0.794282,0.834480,-0.528436,-0.156202
0.050815,-0.271549,0.718685,-0.014723,0.999878,-0.005157
-0.171671,0.179550,0.796308,-0.321173,-0.772626,-0.547628
0.181004,0.295272,0.694872,0.940059,-0.110576,-0.322587
0.052748,0.169520,0.589304,0.861119,0.193159,-0.470280
-0.023849,-0.203638,-0.016546,0.870514,-0.427022,0.244659
0.121566,0.335872,0.694133,0.678216,0.455449,0.576705
0.500637,0.686625,0.561577,0.130885,0.723145,0.678182
-0.388451,0.226154,0.168781,0.084658,-0.187175,0.978672
0.318455,0.611648,0.439723,-0.201109,0.175372,-0.963743
0.387039,0.434753,0.665394,-0.080006,-0.921205,0.380763
-0.594389,-0.793193,-0.020733,0.455480,0.608626,0.649702
0.122932,0.287986,-0.149156,0.883627,-0.462734,-0.071277
0.069857,-0.151727,0.380712,0.294395,-0.312484,0.903153
0.077398,-0.284033,0.645879,0.122448,-0.368972,0.921339
-0.446382,-0.516941,0.336727,-0.341657,-0.557564,-0.756567
0.245535,-0.143819,0.782842,-0.127041,0.676258,0.725627
-0.295922,-0.700682,-0.988586,-0.105114,-0.044551,0.993462
0.110112,0.551573,0.573073,-0.803934,0.261569,-0.534108
-0.608342,-0.349051,0.420235,0.779051,0.367433,0.508008
-0.265803,-0.345610,0.704643,0.932136,0.133648,0.336542
-0.145039,0.064999,-0.454010,0.403084,0.232693,-0.885086
-0.579776,-0.737877,-0.043177,-0.405208,-0.462315,-0.788715
0.630639,0.711153,0.509546,0.733905,0.167187,-0.658355
0.500309,0.412458,0.665394,-0.243633,-0.965995,-0.086584
0.008722,-0.134301,0.119815,-0.871087,0.416538,0.260198
0.057130,0.554868,0.604303,-0.408940,0.124374,-0.904046
-0.486965,-0.293661,0.343433,0.696373,-0.103766,0.710139
0.158661,0.403196,0.718767,0.871198,-0.000387,-0.490932
0.455197,0.312149,0.442761,0.092830,-0.650905,0.753463
-0.176901,-0.208618,0.811636,0.994651,-0.054049,0.088027
-0.513833,-0.417986,-0.085519,-0.795160,0.345358,-0.498446
0.108320,0.346305,0.467176,-0.351531,-0.259262,0.899561
-0.616262,-0.092494,0.305607,0.383785,0.743482,0.547671
-0.415838,-0.164320,0.216324,0.628069,0.271531,0.729247
-0.168135,-0.417656,-0.275773,-0.212128,-0.886368,0.411526
-0.570021,-0.032600,-0.190103,-0.697143,0.005456,-0.716912
-0.263398,-0.100875,-0.238768,-0.516140,-0.152409,0.842835
0.135850,-0.413227,-0.968223,-0.181209,0.032140,0.982919
0.395805,0.369003,0.871276,-0.615789,-0.678234,-0.401002
0.345087,0.268584,0.331417,-0.536022,0.741119,-0.404256
0.134434,0.342279,0.571485,0.905072,0.321088,0.278831
0.524866,0.305888,0.939593,-0.080245,0.815445,0.573246
-0.279235,-0.793231,-0.986315,-0.143148,0.014509,0.989595
-0.643272,-0.194633,0.472705,-0.644570,0.422745,-0.637037
0.248127,0.369992,-0.367793,-0.451715,-0.067409,0.889612
-0.581428,-0.309622,-0.334592,-0.570419,0.738298,0.359913
0.659345,0.988320,0.596803,0.299757,0.392359,-0.869597
-0.059391,-0.047389,0.280535,-0.045290,-0.998631,0.026159
-0.167051,-0.442404,0.051334,0.038795,-0.851042,0.523662
0.397408,-0.624058,-0.340422,0.630774,0.221985,-0.743537
0.371437,0.132032,0.425764,0.721976,0.294215,-0.626249
0.471035,0.308818,0.942577,-0.145963,0.782998,0.604656
-0.138298,0.230290,-0.177047,-0.044078,-0.671082,0.740071
0.055953,0.333785,0.469174,0.383459,-0.253293,-0.888145
0.072873,-0.476853,0.713238,0.561893,-0.441890,-0.699292
0.753949,0.379107,0.505249,0.787858,0.227748,-0.572198
-0.226725,-0.212205,0.626583,0.743662,0.664082,0.077217
0.503513,0.521955,0.160296,0.034706,0.404928,0.913690
-0.476502,-0.537404,-0.203460,0.567500,0.712884,0.411997
-0.264718,-0.593051,-0.985576,-0.057434,0.014468,0.998244
-0.138957,-0.499039,-0.981142,-0.173676,-0.040680,0.983962
0.197831,-0.261847,0.330049,0.803005,0.060145,0.592930
-0.120291,-0.436767,0.295972,0.948153,-0.296007,-0.115696
-0.358755,-0.055042,-0.504591,-0.181883,-0.263926,0.947239
-0.195475,0.199868,-0.226725,0.853777,0.183589,0.487196
-0.143151,-0.220077,0.403922,0.947454,0.220524,0.231733
0.037900,-0.374200,-0.989134,-0.256232,0.090077,0.962409
-0.482584,-0.516684,0.059025,-0.704360,-0.030380,-0.709192
0.396277,0.476377,0.732397,-0.551906,-0.806692,0.211299
-0.184963,0.343266,0.245036,0.885248,0.078446,-0.458456
0.679898,0.596347,0.460032,0.984706,-0.173511,0.015741
0.496347,0.723344,0.528842,0.380778,-0.889161,-0.253775
-0.013903,-0.538247,-0.965404,-0.099392,-0.097629,-0.990247
-0.655102,-0.525653,-0.011181,-0.430658,0.572745,-0.697494
0.034410,-0.388333,0.393439,0.115989,-0.966253,0.230004
-0.521705,-0.116398,0.665038,-0.193232,-0.980887,-0.022853
0.018903,0.455071,0.658989,0.684634,0.589471,0.428720
0.510959,0.224872,0.288774,0.081634,-0.105792,0.991032
0.042376,-0.266314,-0.984098,-0.241751,0.143257,0.959705
-0.659909,-0.170251,0.287214,-0.381657,-0.073700,-0.921361
0.205562,0.099228,0.241286,-0.300741,-0.363088,0.881885
-0.446805,-0.357873,-0.079909,0.126446,-0.930843,0.342845
-0.161440,0.380865,0.436384,0.019749,-0.452653,0.891468
0.431065,0.772070,0.439011,0.629775,-0.263344,-0.730776
-0.232145,-0.506287,-1.000000,-0.282142,0.118671,0.952005
0.004855,-0.037909,0.195413,0.095139,-0.769129,0.631972
0.389254,-0.062510,0.736421,0.530082,0.343660,0.775184
0.019375,-0.475097,-0.508122,-0.036016,-0.883451,0.467136
0.122227,-0.260712,0.789547,0.392331,-0.504376,-0.769208
0.480699,0.421427,0.190842,0.111934,0.501428,0.857928
-0.439970,0.293185,0.209700,-0.617696,0.510718,-0.598013
-0.280838,-0.177939,0.644729,-0.458179,-0.842004,-0.284783
0.497150,-0.010452,0.683541,-0.534692,0.542565,0.647864
-0.800611,-0.357104,0.160707,-0.170989,0.797514,0.578562
0.797645,0.228167,0.824144,0.814210,-0.299494,-0.497358
-0.519584,-0.593563,-0.137441,0.972151,0.049019,0.229173
0.771107,0.266423,0.424724,0.311468,-0.409162,0.857656
0.116853,0.439879,0.680557,-0.654008,-0.004453,0.756475
-0.286684,-0.594077,-0.982620,-0.033931,-0.010850,0.999365
0.651710,0.253537,0.549260,0.960324,-0.278883,-0.001525
-0.620221,-0.050136,0.241012,0.719569,-0.383062,-0.579209
-0.669668,-0.186285,0.292798,-0.438959,-0.326486,-0.837092
-0.008060,-0.307754,-0.993732,-0.220761,0.044011,0.974334
0.164979,-0.325583,0.638708,0.732650,-0.310491,-0.605656
-0.090359,-0.008403,0.631838,-0.701117,-0.712637,0.024150
0.631159,0.448848,0.210904,0.435207,0.413151,0.799938
-0.474286,-0.094543,0.610817,-0.812551,-0.125017,-0.569326
-0.257411,-0.462465,-0.993048,-0.025338,0.126572,0.991634
-0.145980,0.203823,0.189747,0.023581,0.999722,0.000144
-0.429319,-0.309658,0.319238,0.221794,-0.055222,0.973529
-0.603817,-0.582799,-0.084534,0.437118,0.036774,0.898652
0.840963,0.179550,0.398448,-0.377234,0.866797,-0.326124
0.626493,0.575405,0.723064,-0.569332,-0.715693,0.404530
-0.261890,0.402025,0.494957,-0.650230,0.083810,-0.755100
-0.524251,-0.079277,0.309411,0.329776,0.230734,-0.915429
-0.361629,-0.538613,0.327394,0.167663,-0.549183,0.818711
0.025172,0.099595,0.725445,0.121760,0.981873,0.145256
0.329675,-0.075762,0.344692,0.165540,-0.075159,0.983335
-0.520387,-0.344804,0.379918,-0.858453,0.163097,-0.486269
0.137072,0.038715,0.872727,0.294253,-0.946487,-0.132582
-0.066744,0.038311,0.678806,0.077914,-0.995420,0.055398
0.107235,0.361790,0.476235,-0.189265,-0.185420,0.964260
-0.347112,-0.690761,-0.551806,0.071538,0.154090,0.985464
0.360217,0.347293,-0.346061,0.286474,0.796436,0.532562
0.168371,-0.269279,-0.981579,-0.059980,-0.080189,-0.994973
-0.633703,-0.194157,0.477686,-0.727422,0.337435,-0.597491
0.140844,0.067269,0.806106,-0.082033,0.941333,0.327356
-0.233655,-0.703978,-0.982318,-0.208975,-0.109745,0.971743
-0.177186,-0.412530,-0.992063,-0.118568,0.135361,0.983676
-0.699456,-0.136461,0.410081,0.056371,-0.998081,-0.025630
0.024323,-0.762735,-0.490632,-0.044668,-0.955471,0.291686
0.528543,0.084001,0.688221,-0.360736,0.799976,0.479488
0.571482,0.622742,0.146447,0.229665,0.095339,-0.968589
-0.416873,-0.381011,0.641883,0.753262,0.526867,0.393710
0.397221,0.452727,0.463837,-0.558173,0.765119,-0.320992
-0.161253,-0.243836,0.203651,-0.496386,-0.853987,-0.155909
-0.565118,-0.460745,-0.069207,-0.372166,0.867582,-0.329841
-0.240865,0.117973,0.186271,0.419987,0.605680,0.675842
-0.382370,-0.308670,0.329666,0.685752,0.152736,0.711629
-0.263303,-0.609892,0.380904,0.714147,0.370975,0.593609
0.081924,0.121524,0.465890,0.921106,0.319625,0.222270
-0.679001,-0.270560,0.274049,-0.319214,0.643128,-0.696053
0.725668,0.771266,0.584979,-0.513207,-0.848139,-0.131450
0.238843,0.072212,0.719232,0.168515,-0.078481,0.982570
-0.616119,-0.113140,0.367465,0.120812,0.987603,0.100223
-0.647938,-0.063095,0.257407,0.207593,0.777380,0.593789
-0.339336,-0.553733,0.305826,-0.457330,0.130525,0.879666
-0.220220,-0.213706,0.724734,-0.669595,-0.176958,0.721338
-0.014752,0.482088,0.633754,0.417755,0.645796,0.639084
0.460995,-0.026634,0.680338,0.219804,-0.522027,-0.824120
-0.396087,-0.127309,-0.237536,0.247609,-0.590162,-0.768374
-0.770305,-0.467739,-0.000999,0.760427,-0.197709,0.618597
0.058640,0.224324,0.589741,0.189369,0.408098,-0.893082
0.345133,0.648954,0.584870,-0.654925,0.398977,-0.641787
0.818857,0.183284,0.416732,0.448859,-0.556906,0.698843
-0.498231,-0.038970,0.296055,0.372322,-0.369698,-0.851293
-0.406128,-0.105747,0.305333,-0.376267,-0.235068,-0.896196
0.428801,0.327965,0.804848,0.974252,0.099119,0.202507
0.402500,0.463053,0.175268,0.364665,0.817745,0.445324
0.263211,0.467005,0.572964,-0.161305,0.982556,-0.092543
0.009193,-0.170141,0.104378,0.935342,-0.289107,-0.203842
-0.375629,-0.429811,-0.835338,-0.216084,0.701302,0.679325
-0.109309,-0.262652,-0.453490,-0.273152,0.398095,0.875733
-0.372378,-0.085391,0.305498,-0.577792,-0.501953,-0.643583
-0.710158,-0.528326,-0.053961,-0.626012,0.049296,-0.778254
0.437616,0.185518,-0.101668,0.018216,0.042342,0.998937
0.291305,-0.215719,0.799072,-0.275803,0.455915,0.846211
0.776858,0.500907,0.765461,-0.511343,-0.693090,0.508089
-0.506811,-0.575149,-0.137688,0.945426,0.236952,0.223658
-0.663635,-0.381046,0.234881,0.808474,0.058940,0.585573
-0.336272,0.053650,0.240137,0.164049,0.972113,-0.167581
0.243083,-0.020520,0.409424,-0.741221,0.142805,-0.655894
0.031582,0.311673,-0.207100,-0.447720,0.734314,0.510224
0.108605,0.311124,0.632029,-0.909023,0.416679,-0.007440
-0.246757,0.107248,0.496243,0.942963,0.308012,-0.126290
-0.522130,-0.085721,0.648260,-0.715609,-0.299502,-0.631032
0.933444,0.506654,0.615990,-0.637955,0.041268,0.768967
-0.115437,0.117900,0.893638,-0.168725,0.983944,0.058197
0.135660,-0.758304,-0.495285,-0.596444,0.089983,0.797595
0.334810,0.116143,0.373486,0.967132,0.184476,-0.175000
0.100167,0.314236,-0.395848,0.166502,-0.530528,-0.831154
0.155741,0.293369,0.576823,0.900795,0.326265,0.286566
0.246573,0.604216,0.429076,0.037567,-0.299075,0.953490
-0.001696,0.306036,-0.256011,-0.064008,0.934638,0.349793
-0.035682,-0.398547,-0.990502,0.061632,-0.279653,-0.958121
0.336839,0.307828,0.088476,0.338182,0.919209,0.201710
0.348197,-0.052479,0.638051,-0.521830,0.815891,-0.249028
0.512562,0.477476,0.562754,0.851434,0.117198,-0.511199
-0.071598,0.072247,0.794885,-0.868767,0.454342,0.197023
0.324252,0.754608,0.611063,0.656811,0.227011,0.719072
-0.113078,0.305120,0.239698,-0.281933,0.490431,0.824616
0.378932,0.458915,0.723475,0.708086,0.288893,-0.644325
-0.423191,-0.253611,-0.165880,0.710845,0.532811,-0.459142
0.035305,0.579360,0.619275,0.693216,-0.719062,0.049015
-0.788827,-0.253171,0.290799,-0.436203,0.450887,-0.778735
-0.326890,-0.481905,0.284805,0.385587,0.532344,0.753613
0.806837,0.544434,0.322796,-0.587036,-0.647518,-0.485910
0.232856,0.157219,-0.149402,-0.472512,0.732066,0.490726
-0.398397,-0.336529,0.597022,-0.361361,-0.610993,-0.704348
0.106622,-0.435886,-0.969591,-0.216195,0.122634,0.968618
0.732927,0.695009,0.644182,0.882750,-0.464813,-0.068573
0.418433,0.523495,0.885810,-0.603610,-0.352052,-0.715342
0.094605,0.044791,0.219170,-0.247310,-0.560522,0.790350
0.553619,0.754059,0.483407,0.357994,0.005935,-0.933705
-0.089795,-0.382512,0.673414,0.516918,0.259447,-0.815772
0.439927,0.385622,0.836296,-0.289783,0.933128,0.212833
0.698846,0.254563,0.690575,0.990598,-0.049245,-0.127633
-0.605937,-0.205689,0.449358,0.787313,-0.287142,0.545607
-0.442657,-0.083304,0.312696,0.337364,0.315942,0.886773
-0.666932,-0.118887,0.304895,-0.411494,-0.109670,-0.904790
-0.029223,0.228496,0.070219,0.919833,0.327136,-0.216541
0.267595,0.437462,-0.377947,-0.646660,0.349255,0.678124
-0.126465,0.265143,0.250455,-0.671860,-0.315896,0.669936
0.600942,0.158464,0.682583,-0.138242,-0.721967,0.677977
-0.143859,0.157255,-0.055028,0.443305,-0.880451,0.168187
0.354845,0.644964,0.151428,-0.797085,0.435618,0.418201
-0.407917,-0.411323,0.536670,0.917801,-0.382815,0.105325
0.567618,0.143417,0.692080,0.366425,0.354080,-0.860442
0.033090,-0.406380,0.355257,-0.531268,0.267651,0.803815
0.764603,0.492121,0.586211,0.442306,0.613755,-0.653965
0.179401,0.264082,0.679189,0.742300,0.404952,-0.533858
-0.053922,-0.551608,-0.467258,0.266264,0.554542,-0.788408
0.097479,0.347588,0.601867,0.875579,0.299467,0.379053
0.464671,0.602460,0.562043,-0.273505,-0.199214,0.941015
-0.401130,0.059399,0.214654,0.384542,0.922582,0.031160
0.371532,0.683001,0.549589,0.647264,0.550754,0.526992
-0.552014,-0.407773,0.154740,-0.562151,-0.052146,-0.825389
-0.403487,0.116581,0.537519,-0.484043,-0.083765,-0.871026
-0.090785,-0.380863,0.625843,0.898882,-0.305143,0.314481
0.558898,0.013052,0.827455,0.583984,-0.740047,-0.333608
0.111620,0.146308,0.611446,0.956711,-0.027884,-0.289702
-0.385103,-0.229998,0.341079,-0.208594,0.327053,-0.921697
0.690598,0.565301,0.580052,0.180183,-0.094182,0.979114
0.054914,0.280261,-0.046872,-0.570995,-0.619100,-0.539148
0.127411,-0.521041,-0.966197,-0.292231,0.014407,0.956239
-0.128870,0.332943,0.413913,0.110123,-0.769826,0.628682
-0.117181,-0.446942,-0.981169,0.216946,-0.139115,-0.966220
-0.651284,-0.334516,0.200586,-0.666607,-0.647263,-0.369710
0.361442,-0.089272,0.755279,0.581387,0.791884,0.186839
-0.197078,-0.123428,0.705711,-0.215585,-0.813692,-0.539841
-0.138344,-0.530229,-0.983331,-0.300194,0.112242,0.947251
0.420222,0.416449,0.757961,0.702617,-0.587895,-0.400885
-0.147913,-0.365378,-0.041836,0.109170,-0.141587,0.983888
-0.224087,0.345793,0.191800,-0.416789,-0.405875,0.813359
-0.195239,-0.225495,0.477933,0.320271,0.922559,-0.215202
0.164461,0.282020,0.675357,-0.632314,0.701292,0.329194
-0.551450,0.018690,0.254451,0.110055,-0.020000,0.993724
-0.252557,-0.200746,0.251879,0.191139,0.970444,-0.147325
0.330900,0.009464,0.777121,0.338178,0.714362,-0.612636
-0.006739,0.288024,0.506289,-0.508414,-0.647784,-0.567355
0.019231,0.153374,0.528130,-0.009499,-0.894890,0.446187
0.179355,0.370357,0.762013,0.999567,0.028680,-0.006639
-0.500352,-0.534732,0.070028,0.753577,0.075383,0.653023
-0.463305,-0.226849,-0.123592,0.743014,0.579630,-0.334604
-0.286589,0.172083,-0.015724,-0.002563,-0.597472,0.801885
0.314260,0.325328,0.420399,0.579230,0.801193,-0.150271
0.231345,-0.867254,-0.445197,-0.552588,0.069412,0.830559
0.193214,0.322363,0.682966,0.993117,-0.063251,-0.098579
-0.802026,-0.242005,0.097481,-0.498398,-0.057660,-0.865029
0.399482,0.426991,0.523313,-0.472299,-0.025650,0.881065
0.017396,0.478868,0.518386,0.467240,0.623974,-0.626374
-0.597312,-0.066574,0.264551,0.495132,-0.574470,-0.651788
0.017960,0.547875,0.623353,0.802991,-0.431704,0.410899
0.796042,0.825190,0.554844,0.145264,0.656398,0.740297
0.645913,0.109078,0.455927,0.720344,-0.622738,-0.305455
0.345840,0.642803,0.107827,-0.813374,0.576532,-0.077675
0.045676,-0.323974,-0.979664,0.209931,-0.026018,-0.977370
-0.262549,-0.461770,-0.991515,-0.004074,0.045110,0.998974
-0.121706,-0.617103,0.304266,-0.517191,-0.009855,-0.855813
-0.264528,-0.264118,0.311464,-0.002074,0.742279,0.670088
-0.214328,-0.744466,-0.546112,-0.336493,-0.027964,0.941271
0.181194,-0.159927,-0.985548,-0.061782,0.026639,0.997734
-0.023426,-0.525396,0.382272,-0.300333,0.391572,0.869754
-0.245816,0.256065,0.362894,-0.077226,0.110246,0.990900
0.131416,-0.206458,-0.983906,-0.037301,0.138203,0.989701
-0.493093,-0.322765,0.233157,0.841415,0.095943,-0.531804
0.123263,-0.440758,-0.966717,0.217968,-0.112148,-0.969491
0.133726,0.314053,0.477768,-0.508692,-0.501093,0.700099
0.256188,0.365452,-0.366862,-0.343644,0.186154,0.920465
-0.246521,0.372260,0.188515,-0.237618,-0.460950,0.855022
-0.054629,0.341253,0.234717,-0.621298,-0.696445,0.359100
-0.748195,-0.012941,0.368641,0.521788,-0.624673,0.580966
0.363281,0.323167,0.322714,0.579565,-0.743560,-0.333501
0.058640,-0.506580,-0.969619,-0.060504,0.118905,0.991060
0.315908,-0.013819,0.846916,-0.591901,0.137881,0.794130
0.632149,0.596237,0.140973,-0.234064,0.084451,0.968546
-0.070798,-0.026267,0.377318,0.867788,0.495913,0.031862
0.444921,0.501052,0.507684,0.961461,-0.159028,-0.224285
0.497481,0.381853,0.196426,-0.299908,-0.813025,-0.499044
0.662835,0.586059,0.541432,0.623868,0.031586,-0.780891
0.384824,0.466639,0.609093,0.382284,0.766542,0.516017
-0.614752,-0.065768,0.246322,0.076170,0.725714,0.683767
-0.674049,-0.182734,0.106842,0.596186,0.795740,0.106586
0.621732,0.098277,0.649464,0.529916,0.683659,-0.501796
0.125950,0.355055,-0.188625,0.778448,-0.551380,-0.299998
-0.237096,-0.629917,-0.984946,-0.107570,0.081726,0.990833
-0.071221,-0.256941,-0.664874,0.911207,-0.127753,0.391639
-0.246711,-0.180464,0.475688,0.559836,0.237748,0.793763
-0.692011,-0.224653,0.106568,-0.392980,-0.337413,0.855406
0.214849,0.285789,0.873602,0.965734,-0.218312,-0.140351
-0.366391,-0.757573,-0.546249,-0.087088,0.112352,0.989845
0.459677,0.749373,0.477276,0.636643,0.630963,-0.443363
-0.229884,0.420623,0.473060,-0.631490,0.192012,-0.751233
-0.209616,-0.390529,-0.065594,0.228180,-0.077940,0.970494
-0.111902,0.061705,0.760042,0.223538,0.959393,-0.172033
0.379073,0.468726,0.771565,0.382148,0.898736,-0.215025
0.122414,-0.906462,-0.499719,0.467742,0.421138,-0.777084
-0.146782,0.299811,0.172367,0.341887,-0.171296,0.923997
-0.122647,0.350736,0.317951,-0.115601,0.992707,0.034204
0.008627,0.529608,0.619275,-0.780141,0.507769,-0.365447
-0.309921,0.149749,0.196453,0.347855,0.521338,0.779233
-0.040630,-0.166736,0.624749,0.780459,-0.062057,0.622120
0.542258,0.759146,0.499364,0.845722,0.212447,-0.489511
0.482538,0.377386,0.872945,-0.328124,0.752296,0.571301
-0.264859,-0.265324,-0.069042,0.604786,0.256009,0.754117
-0.193637,-0.473193,0.335277,-0.751923,0.105897,0.650690
-0.242893,-0.471582,-0.023552,-0.200313,-0.787827,-0.582411
-0.312091,-0.078290,0.720874,-0.437771,0.850573,-0.291346
-0.359745,-0.078509,0.562508,0.534033,-0.139262,0.833915
0.138865,0.567717,0.541295,0.556872,-0.266493,0.786686
-0.063022,-0.343887,-0.996661,-0.094514,0.040521,0.994699
-0.151026,-0.572695,-0.052620,0.331903,0.469388,0.818239
-0.239689,-0.176109,0.735080,0.854159,0.456986,-0.248148
-0.055809,0.017407,0.785469,0.538169,0.806232,-0.245691
0.335990,0.473119,0.847546,0.881636,0.226520,0.414013
0.457839,0.353810,0.876093,0.320363,-0.888425,-0.328739
0.246006,-0.171129,0.814291,-0.574062,0.740726,0.348966
0.477589,0.271257,0.423082,-0.331797,-0.034138,0.942733
0.152723,0.398803,0.053058,-0.225478,0.818887,-0.527811
0.709359,0.354360,0.489100,-0.401867,-0.573881,0.713558
0.473817,0.126869,0.608791,0.339392,0.935116,0.101840
-0.204054,-0.334626,-0.088968,-0.681065,0.730578,-0.049065
0.773323,0.424759,0.601265,-0.476335,0.017643,0.879087
-0.176996,-0.644707,-0.551915,0.003582,0.666936,0.745106
0.554750,0.802566,0.536369,-0.307467,-0.599876,0.738656
-0.104407,0.295272,0.548111,0.467632,-0.026084,0.883538
-0.042138,-0.442514,-0.954127,0.006024,0.036795,0.999305
-0.280838,-0.707712,-0.557143,-0.077498,0.202655,0.976179
-0.364270,-0.081145,0.779475,-0.228376,-0.764458,0.602867
0.307142,-0.037690,0.720601,0.880623,-0.473509,0.017087
0.038182,-0.514121,0.638516,0.186006,0.494391,0.849105
-0.823756,-0.110687,0.365029,-0.618099,0.783583,0.062852
-0.165494,0.276675,0.236031,0.794450,-0.275837,-0.541076
-0.168230,-0.501675,-0.634492,-0.656248,-0.753530,-0.039136
-0.075982,-0.624718,-0.967703,-0.113409,0.070359,0.991054
-0.197926,-0.632185,0.337795,0.963767,-0.017008,0.266202
-0.345556,0.174315,0.156163,0.696299,0.148158,-0.702294
0.671034,0.563764,0.667639,-0.841912,0.539614,-0.001133
0.299412,0.693360,0.645359,-0.613550,0.141159,-0.776937
0.524018,0.456901,0.391742,-0.079342,-0.439745,0.894611
0.489088,0.150813,0.534480,-0.158227,0.921535,0.354594
0.782561,0.793157,0.574934,0.126495,0.436046,0.890990
0.055763,-0.055004,0.177512,-0.025276,-0.536525,0.843506
0.859157,0.585364,0.593081,-0.439511,-0.011954,0.898158
-0.080885,-0.363877,-0.122387,0.501265,0.670522,-0.546931
0.489183,0.167140,0.512064,-0.054530,0.862025,0.503923
0.206600,0.140780,0.229954,-0.659321,0.351913,0.664419
-0.454867,-0.515221,-0.228613,-0.289322,-0.859063,-0.422260
0.272167,-0.214549,0.677793,0.915526,-0.362752,-0.173846
0.318078,0.194523,0.437397,0.129056,0.991543,0.013669
0.103843,0.285973,-0.088448,0.964287,0.157126,0.213219
0.443272,-0.021141,0.369846,0.868167,0.121551,-0.481156
0.042141,0.114423,0.493999,-0.337339,-0.940747,0.034609
0.174784,0.025901,0.831890,-0.612420,-0.318214,-0.723659
-0.078575,-0.446138,-0.974928,-0.270793,0.109346,0.956407
-0.348433,-0.406600,0.077445,-0.733310,-0.495216,0.465852
0.559134,0.847157,0.503852,0.814447,0.359950,-0.455096
0.255150,0.305779,-0.333415,0.768445,-0.604968,-0.208581
0.477163,0.116729,0.637558,-0.184823,0.901720,0.390822
-0.408579,-0.335908,-0.018024,0.853924,0.409976,-0.320520
-0.439736,0.218320,0.142341,0.176030,-0.311499,0.933799
0.653594,0.908146,0.558347,0.906964,0.232168,-0.351446
-0.477632,-0.246472,-0.195166,0.764398,0.478809,0.431784
-0.376854,-0.072761,0.568064,0.471961,-0.127268,0.872385
0.016593,-0.566472,0.635369,-0.550537,0.379882,0.743370
0.402405,0.599678,0.161939,0.961190,0.178314,0.210518
0.396182,0.277627,0.426640,0.997096,-0.067980,0.034317
0.398869,0.594333,0.057164,0.917695,0.338099,0.208628
-0.488050,-0.095202,0.320141,0.320722,0.933676,-0.159332
0.105823,-0.297065,0.839526,0.880281,-0.330563,0.340344
0.261467,-0.145906,0.541569,0.916367,0.254348,-0.309158
-0.066744,0.012101,0.783197,0.679765,0.700629,-0.216885
0.132219,0.410702,0.135936,0.826956,-0.389588,-0.405419
0.030075,-0.585619,-0.576275,0.121177,0.982139,0.143942
-0.611360,-0.168202,0.288829,0.231792,-0.972763,0.002218
-0.163846,0.269793,0.224508,-0.509827,0.110217,0.853187
-0.160215,0.396131,0.451958,0.081485,-0.691035,0.718214
0.559888,0.379071,0.643005,0.928431,0.351161,0.121253
0.775489,0.528730,0.316856,-0.587036,-0.647518,-0.485910
-0.677208,-0.169848,0.495997,-0.720920,0.048616,-0.691311
0.269293,0.518221,0.218541,-0.403034,0.863559,0.303034
0.394344,0.625231,0.145106,0.976361,0.070685,-0.204259
0.083811,0.106589,0.447524,0.790827,0.611997,-0.007253
-0.059391,-0.471508,0.639748,0.469904,0.263632,0.842430
0.601886,0.244385,0.559661,0.854501,-0.053885,0.516647
-0.523497,-0.091980,0.364235,-0.643182,0.710828,0.284674
-0.280179,0.070272,0.576987,0.749547,-0.052606,0.659857
-0.132737,-0.365121,-0.212629,0.797681,0.542477,-0.263483
0.011314,0.313760,0.481682,0.190337,0.622393,0.759209
-0.721799,-0.286889,0.138865,-0.159702,0.941062,0.298157
-0.599340,-0.324157,0.158216,0.240220,0.947931,0.209096
0.631818,0.657264,0.856934,0.566446,0.793584,-0.222179
-0.036953,-0.020922,0.204172,0.795412,0.075349,0.601366
-0.669291,-0.660339,-0.056726,-0.338741,-0.455294,-0.823385
0.139006,-0.106734,0.515649,-0.189964,0.153577,0.969705
0.196419,0.378557,0.174337,-0.566439,-0.680434,0.464926
-0.203864,0.467446,0.441749,-0.691285,0.423611,-0.585387
0.686590,0.971334,0.574633,-0.282641,0.417231,-0.863732
0.116004,-0.190935,0.764777,-0.365701,0.194005,0.910288
0.656658,0.499698,0.601621,0.963081,0.181356,0.198958
-0.087816,-0.503065,-0.976789,-0.013819,0.296932,0.954799
0.211126,0.304717,0.891174,0.969330,-0.214528,-0.119903
-0.713786,-0.093482,0.306702,-0.506288,-0.196908,-0.839583
0.045722,-0.276197,0.724734,-0.008426,0.954914,0.296764
0.744334,0.307464,0.753664,-0.831942,0.370855,0.412721
0.396513,0.721807,0.596037,-0.694991,0.047095,-0.717474
-0.193873,-0.163150,0.420126,0.901024,0.156183,0.404676
0.361301,0.695849,0.612131,0.728242,-0.166552,0.664774
-0.597361,-0.497463,-0.235401,0.227725,0.970438,-0.079952
-0.520102,-0.110944,0.370311,-0.017518,0.721835,0.691843
0.631111,0.814208,0.501636,0.107820,0.221623,0.969153
-0.102805,-0.560140,-0.860793,0.942120,-0.220973,0.252151
0.393072,0.358715,0.264469,0.856063,-0.473716,-0.206759
0.137403,0.186725,-0.057026,0.527251,0.735550,0.425408
-0.362006,-0.166517,0.308700,0.668379,0.682901,0.294814
0.384588,0.222163,0.451739,-0.208030,-0.602196,-0.770768
-0.211123,0.119401,0.725308,0.857937,-0.447150,0.252983
-0.246757,-0.191668,0.716304,0.983424,0.038160,-0.177262
-0.171150,0.319909,0.177430,0.066249,-0.484555,0.872249
0.466841,0.324157,0.497612,-0.298008,-0.754932,0.584183
0.030075,0.157950,0.572909,0.517012,0.649291,-0.557781
-0.285363,-0.361021,-0.873082,-0.107737,-0.978177,-0.177656
0.422296,0.019787,0.698540,0.423787,-0.193497,0.884852
-0.728068,-0.312259,0.133446,0.073157,-0.978784,-0.191392
0.813011,0.449726,0.582379,0.221181,-0.020637,-0.975014
-0.060522,-0.188703,0.456173,0.598557,-0.604602,-0.525534
-0.314493,-0.097839,0.675549,0.426034,-0.776469,0.464318
-0.372378,-0.455840,0.306510,0.662641,0.084451,0.744161
0.610796,0.536709,0.540639,0.941446,0.337149,-0.003170
-0.127739,0.020411,0.726677,-0.071256,0.982051,-0.174637
-0.086400,-0.785652,-0.517784,-0.292929,-0.196760,0.935670
-0.358755,-0.486774,-0.004831,0.343164,-0.851265,-0.396971
0.788876,0.382474,0.556076,-0.559523,-0.202939,0.803586
-0.037992,-0.422672,0.160926,0.526705,-0.322572,0.786466
-0.685647,-0.384123,0.254451,0.509441,-0.058004,0.858548
-0.333067,0.097508,0.141137,-0.090414,0.045957,0.994843
0.604242,0.461039,0.196754,-0.100467,-0.662089,-0.742661
0.062458,-0.071296,0.011318,0.993846,-0.103611,0.039169
0.555127,0.794183,0.481655,0.842976,0.468324,-0.264695
-0.093659,-0.302264,-0.044847,0.469324,0.588028,-0.658755
0.532453,0.552708,0.625542,0.717207,0.525830,-0.457293
0.229415,-0.019897,0.837008,0.218934,0.123302,-0.967918
0.297904,0.416301,-0.345184,0.526124,-0.350131,-0.774985
0.177894,0.077923,0.750298,0.702747,0.570236,0.425414
0.603961,0.284692,0.642978,-0.580307,-0.625576,0.521438
-0.780250,-0.218318,0.077856,0.047970,0.489232,-0.870833
-0.208954,-0.001007,-0.076597,0.980422,-0.193953,-0.033976
-0.077870,-0.577968,-0.944903,0.012993,-0.780928,0.624486
-0.221400,0.090443,0.181454,0.452215,0.631333,0.630016
0.488430,0.413738,0.707955,0.390948,0.896100,0.210151
-0.409991,-0.313979,-0.047091,-0.652137,0.747243,-0.127848
-0.021918,0.383464,-0.019803,-0.393085,-0.514874,0.761833
-0.656517,-0.230985,-0.234279,0.859052,-0.302154,-0.413199
0.062550,0.359705,0.467778,0.474851,0.342342,-0.810752
-0.331180,-0.715729,0.150443,0.163188,0.771452,0.615005
-0.115673,0.007451,0.575098,0.792393,0.604591,-0.081134
0.251617,0.350772,0.462742,-0.375902,0.775357,0.507464
-0.455430,-0.150958,0.230666,0.594755,0.262637,0.759795
0.643507,0.742234,0.512611,-0.367910,0.079055,0.926495
0.791140,0.569328,0.799318,-0.699289,-0.445875,0.558741
-0.030733,0.007853,-0.416732,0.517833,0.124342,-0.846397
0.205329,0.459281,0.400419,0.944375,0.294503,0.146366
0.323970,0.407113,-0.036937,0.405483,-0.378490,0.832063
0.390008,0.463821,0.838568,0.814169,0.186964,0.549703
0.767431,0.348428,0.524380,0.451519,0.734037,-0.507267
-0.834269,-0.079168,0.355093,0.384508,0.237945,0.891928
-0.028800,-0.130493,0.377291,-0.171868,0.573648,-0.800868
-0.276125,-0.674213,-0.986862,-0.157830,-0.051149,0.986141
-0.436247,-0.402244,0.316309,-0.672333,0.198899,0.713027
0.472451,0.218137,0.457733,0.299161,0.681015,0.668372
0.889276,0.808168,0.595270,-0.628927,0.582602,0.514807
-0.647276,-0.740916,-0.038661,0.325567,0.465786,0.822830
0.310160,-0.085976,0.837282,0.676373,0.518455,-0.523186
0.461797,0.390346,0.790615,-0.586540,-0.768156,0.256724
0.638700,0.537587,0.501526,0.968348,-0.065937,-0.240739
-0.166720,-0.448225,0.311546,0.819273,-0.571778,-0.043157
0.897292,0.775109,0.616127,0.578280,-0.217334,-0.786358
0.033375,-0.565960,-0.972301,0.123670,-0.095105,0.987755
-0.181758,-0.610623,0.009867,0.323068,0.722852,0.610830
-0.615978,-0.133349,0.426777,0.872155,0.271102,0.407246
-0.172612,-0.186285,0.669664,-0.704466,0.708065,0.048699
-0.292340,-0.780345,-0.982893,-0.162598,0.041118,0.985835
-0.254632,-0.295491,0.733082,-0.587903,0.399089,-0.703633
-0.123401,-0.397887,0.649026,-0.541004,0.696849,-0.470868
-0.501626,0.267668,0.204144,0.359032,-0.648135,0.671577
0.223005,-0.085464,0.543978,-0.497547,0.392814,-0.773398
-0.074049,0.424135,-0.037265,-0.078841,-0.471827,0.878159
0.119445,-0.256062,0.506727,0.119213,-0.926879,0.355927
0.026444,0.377422,0.457761,0.502860,0.497551,-0.706806
-0.640066,-0.751056,-0.023498,0.346717,0.485784,0.802372
-0.363658,0.084329,0.707846,-0.717788,0.464422,0.518741
-0.129578,-0.413227,-0.250811,-0.386964,-0.785548,0.482880
0.498562,0.393166,0.739486,-0.426150,-0.698026,-0.575462
0.567523,0.816440,0.507000,0.720280,-0.220023,-0.657865
0.840256,0.681718,0.545976,0.361223,-0.885558,-0.292070
0.495121,0.322803,0.925634,-0.007067,0.809429,0.587175
0.532548,0.896286,0.511763,-0.023646,-0.034690,0.999118
0.699364,0.296298,0.658032,0.695971,-0.133600,-0.705532
0.078483,-0.369845,0.419223,-0.173270,0.981230,-0.084649
-0.041525,-0.680364,-0.471610,-0.639225,0.171899,0.749561
-0.107235,0.038239,0.280809,0.616562,0.754645,0.224413
0.602971,0.817320,0.519070,-0.523326,-0.474001,-0.708133
-0.603394,-0.491240,-0.266412,-0.044831,-0.919695,-0.390067
-0.179778,-0.431458,-0.990776,-0.118018,0.220164,0.968297
0.503700,0.809888,0.504072,0.801887,0.581106,-0.138896
0.605232,0.072723,-0.105254,0.763810,0.569512,-0.303726
0.278105,0.332174,0.300762,-0.342310,0.198414,0.918398
0.230264,0.199466,-0.204199,-0.767191,-0.619127,-0.167627
-0.593494,-0.258918,0.399871,-0.669594,0.500901,-0.548399
0.661796,0.242005,0.645714,0.730782,0.171161,-0.660804
-0.282487,0.023521,-0.293372,-0.627749,0.387165,0.675304
0.172002,-0.109371,0.758810,0.143948,-0.973395,-0.178272
-0.167522,-0.493768,-0.544114,0.857862,0.405180,0.316073
0.774122,0.374128,0.550465,0.905236,0.151806,-0.396866
0.408864,-0.072540,0.708831,0.434216,0.581138,0.688284
-0.523779,-0.252145,0.357912,0.829393,0.188147,0.526030
0.304078,0.069137,0.797375,-0.294367,0.934986,0.197860
0.047515,-0.363108,0.749422,-0.193083,-0.708232,0.679063
-0.068629,-0.322875,0.611556,0.302184,-0.212535,0.929255
0.015885,0.435522,0.671635,0.577989,0.482589,0.658055
-0.013575,0.056506,0.233841,0.121839,0.179713,0.976145
0.177140,0.063390,-0.060147,0.815278,-0.439124,0.377481
-0.082157,0.015285,0.742251,0.658678,0.649260,-0.380270
0.564931,0.836503,0.530128,0.388564,-0.017652,0.921252
0.837287,0.766359,0.590453,-0.420594,0.628465,0.654318
-0.150505,-0.033625,0.541925,-0.262731,0.878339,-0.399367
-0.317839,-0.642584,0.075310,-0.095310,0.732908,0.673618
-0.518405,-0.313394,0.351042,0.862131,-0.043008,0.504856
0.147303,0.156743,-0.028397,0.961657,-0.113627,0.249609
-0.385152,-0.317018,-0.002860,-0.707736,0.688190,-0.159700
-0.685270,-0.216707,0.523751,0.950226,0.045437,0.308230
0.195806,0.462648,0.685484,0.398985,-0.908045,-0.127534
-0.208626,-0.258956,0.372747,0.688137,0.277947,-0.670233
0.200944,0.366916,-0.372966,0.056489,0.133697,0.989411
0.261418,0.602753,0.450535,-0.020508,-0.200876,0.979402
0.298563,0.679448,0.657840,0.545265,-0.227255,0.806871
0.034315,0.443247,-0.433291,-0.039858,0.397274,0.916834
-0.169361,-0.500869,-0.985767,0.119461,0.037635,-0.992125
-0.214518,-0.549814,-0.984344,0.072335,0.130809,0.988765
0.047797,0.381522,0.687318,-0.349403,0.352975,0.867944
-0.413668,-0.444344,0.266932,0.490032,0.870516,-0.045504
-0.456705,-0.144552,0.593300,0.878199,0.044701,0.476202
-0.039453,0.472167,-0.009566,-0.299594,-0.469370,0.830623
0.447326,0.756695,0.441064,-0.766463,0.403282,0.499899
0.459487,0.867841,0.442405,0.706589,0.663952,-0.244745
-0.808908,-0.514195,0.023908,0.763973,-0.220252,0.606493
-0.775440,-0.190825,0.083713,-0.611095,0.648553,0.453808
-0.064058,-0.227435,0.073011,0.995292,-0.082797,-0.050393
0.179873,0.267485,0.411832,-0.195348,-0.947889,0.251686
0.807685,0.654775,0.552107,-0.518375,0.684525,0.512554
0.445534,0.287510,0.786564,0.946013,-0.200496,-0.254679
-0.551355,-0.435484,-0.045641,-0.646562,0.393646,-0.653453
-0.001083,0.453496,0.475551,0.667266,0.517403,-0.535772
-0.370867,0.085757,0.541679,-0.120253,0.988678,-0.089750
0.035731,-0.541395,0.644976,0.999500,0.028434,0.013811
0.257178,0.471436,0.658332,0.246941,-0.829474,-0.500992
-0.027479,-0.327011,0.711815,0.330820,-0.418543,0.845801
0.430263,0.416887,0.449713,0.693304,0.501627,0.517397
-0.199152,0.072359,0.797320,0.630656,0.767253,-0.116603
0.634787,0.654554,0.479219,-0.525161,-0.610328,0.593047
-0.260144,-0.463638,-0.043205,-0.715679,-0.439541,-0.542777
0.668583,0.533963,0.679353,0.865689,-0.092636,-0.491935
-0.138770,-0.654409,-0.962475,-0.098314,0.070632,0.992646
-0.340889,0.058448,0.436329,0.945667,-0.269427,-0.181997
0.129109,0.039227,0.226889,-0.019583,0.526046,-0.850230
-0.223238,-0.467225,-0.061461,0.175056,0.597685,0.782386
0.617393,0.591111,0.729524,0.644317,0.502050,-0.576890
0.279851,0.504310,0.738391,-0.243506,0.947015,-0.209446
0.184589,0.621350,0.601812,0.094012,0.882359,0.461091
0.287723,0.025463,0.706258,0.331392,0.471721,0.817104
-0.063258,-0.207483,0.067811,0.971364,-0.022435,-0.236533
0.395569,0.582544,0.497147,-0.210364,0.761985,0.612475
-0.622859,-0.187970,0.290334,-0.184199,0.459301,0.868973
-0.252508,0.150116,-0.275964,0.527018,0.174767,-0.831690
-0.547819,-0.365597,0.417170,-0.774663,0.248369,-0.581559
0.715533,0.678094,0.546879,0.910864,0.374433,0.173569
-0.434785,-0.431750,0.708366,-0.116854,0.889644,0.441451
0.513836,0.479344,0.172038,-0.496433,0.569626,0.655042
0.902663,0.257088,0.235757,0.738707,0.633320,0.230690
0.495829,0.821347,0.482312,0.655937,-0.193208,-0.729670
0.778412,0.729274,0.577945,-0.269440,0.322322,0.907475
0.450577,0.756731,0.451876,0.850497,-0.209080,-0.482639
0.087344,0.087075,0.797184,-0.332239,0.771990,0.541894
-0.496960,0.280371,0.208551,-0.344962,0.625770,-0.699581
-0.220079,0.063500,0.715975,0.819383,0.254995,-0.513409
0.229415,0.393604,0.419223,0.818329,0.533508,0.213791
0.005845,-0.516794,-0.495778,0.345685,-0.382638,0.856791
0.597833,0.719829,0.494108,-0.329660,0.032864,0.943528
-0.779638,-0.484503,0.350112,-0.670883,0.013206,-0.741445
0.110961,-0.201113,-0.986616,-0.140923,0.178426,0.973810
-0.418099,-0.338324,0.595106,0.465703,0.535152,0.704793
-0.133772,0.297359,0.242928,-0.458188,0.020304,0.888624
0.769174,0.721366,0.651216,0.872015,-0.474954,-0.118357
0.636580,0.651772,0.763354,-0.185566,0.952892,-0.239922
-0.195003,0.114568,-0.168726,0.965824,-0.219745,-0.137465
-0.326749,0.145357,0.164730,0.829951,0.556100,-0.043969
0.064388,-0.575370,-0.973341,0.091858,-0.025030,0.995457
0.501344,0.665025,0.567298,0.057314,0.257003,0.964709
-0.050671,-0.588073,-0.971042,-0.110145,0.367348,-0.923538
-0.342777,-0.172556,0.601922,-0.542317,0.140973,0.828263
0.436345,-0.101023,0.458281,0.691202,-0.543408,0.476390
0.452274,0.483847,0.508533,0.800739,-0.593910,0.078025
-0.228140,-0.121414,0.473526,0.889613,0.159679,0.427892
-0.556116,-0.546778,-0.090829,0.446343,0.536292,0.716358
-0.079423,-0.600226,0.396888,0.323083,-0.702304,-0.634339
0.755457,0.548974,0.266795,0.732607,-0.566300,0.377613
0.028895,0.593198,0.611638,0.623909,-0.781408,0.011808
-0.410181,-0.180904,0.307550,0.925487,-0.335241,0.176316
-0.607634,-0.466382,0.169931,0.509130,-0.124185,0.851683
-0.480178,-0.055590,-0.524955,-0.017487,-0.408536,0.912575
0.319303,-0.022276,0.774220,-0.725511,0.657843,-0.202179
0.213341,0.148103,0.726239,0.185954,-0.380263,0.905992
-0.204195,-0.278101,0.737762,0.154229,-0.694173,0.703092
-0.497196,-0.746736,-0.068878,0.149382,0.436114,0.887406
-0.030121,0.142246,0.364974,-0.473099,0.099353,0.875389
0.375868,0.338545,0.281712,-0.828361,0.542068,-0.141354
0.176245,0.312442,0.679134,0.838078,-0.073282,-0.540606
-0.062645,-0.553074,-0.946682,-0.692608,0.065676,-0.718318
0.499506,0.511522,0.148773,0.646606,0.481754,0.591451
0.263070,0.508117,0.116339,-0.733768,0.557553,0.388225
0.010983,0.490070,0.558484,-0.386529,0.893814,-0.227360
-0.230543,-0.233584,0.714743,0.218418,-0.811199,-0.542447
0.335849,0.098607,0.280262,-0.040062,-0.721373,0.691387
-0.550411,-0.153447,-0.170368,0.544218,-0.726127,-0.420197
-0.404948,-0.074518,-0.283135,0.020457,0.388831,0.921082
-0.039405,-0.312661,-0.994088,-0.149028,0.029662,0.988388
-0.375724,-0.527410,0.002477,0.394326,0.309160,0.865406
-0.059814,0.395141,0.427242,-0.476795,-0.124619,-0.870136
-0.131416,-0.441890,0.306893,0.843256,-0.478283,-0.245284
-0.375629,-0.077373,-0.274021,-0.065687,0.667889,0.741356
-0.108789,-0.173875,-0.467148,0.627148,-0.015367,-0.778749
-0.188544,0.053065,0.524572,0.474609,0.839680,-0.263975
-0.359650,-0.579689,0.320168,0.168369,0.170645,0.970841
-0.258119,-0.484468,-0.993869,-0.065755,0.127386,0.989671
-0.433232,0.313577,0.192731,-0.656756,0.410003,-0.632906
0.481122,0.810729,0.466765,0.815296,0.417491,-0.401240
-0.274992,-0.210632,0.220347,0.175085,0.941578,0.287709
0.222297,0.215574,0.329118,0.702515,-0.611121,0.364696
0.691493,0.439475,0.424341,0.762995,0.018954,0.646126
0.493001,0.311819,0.945313,-0.142800,0.770339,0.621438
0.001604,0.097691,0.748683,0.128219,0.921792,0.365869
0.448175,0.351283,0.872070,0.292971,-0.850673,-0.436489
0.020788,-0.308159,-0.991241,-0.251434,0.043362,0.966903
-0.457505,0.255917,0.026864,0.144460,-0.596711,0.789346
0.271649,0.021546,0.706560,-0.298651,-0.358565,-0.884443
0.156164,0.195256,0.748546,0.947235,-0.284410,0.147839
-0.324580,0.059471,0.674672,0.307184,0.554189,-0.773636
-0.406269,-0.305998,0.019036,0.612269,-0.705950,0.356035
-0.356963,-0.552853,-0.003599,0.057711,0.434697,0.898726
-0.123873,-0.317749,0.729468,0.640618,0.756997,-0.128702
-0.200565,-0.245373,0.656225,0.793750,0.475848,0.378853
0.397928,0.439584,0.471665,0.478489,-0.874403,0.080419
-0.290266,0.092749,0.487129,-0.592821,0.588722,-0.549518
0.283764,0.496585,0.639803,0.314340,0.544977,0.777297
0.522226,0.744723,0.483708,-0.596963,0.010920,0.802194
-0.214518,-0.233805,0.733410,0.466549,0.087148,-0.880192
-0.695356,-0.228203,0.537217,0.950226,0.045437,0.308230
-0.103745,0.239076,0.235073,0.376046,0.722870,-0.579696
0.248598,0.674800,0.649656,-0.357249,0.348829,-0.866425
-0.565449,-0.332979,0.155507,-0.524284,-0.602971,-0.601292
-0.476407,0.053614,0.576330,-0.544198,0.674298,-0.499170
0.157436,0.586095,0.560701,0.456924,-0.534333,0.711132
-0.286353,-0.364755,-0.058997,0.236235,0.564227,0.791101
0.675655,0.862970,0.413639,-0.043286,0.687741,0.724665
-0.233797,-0.100730,0.481874,0.918274,0.095445,0.384271
-0.467735,-0.112407,0.237071,0.123342,-0.406112,0.905461
0.270469,0.554612,0.127041,0.418939,-0.603681,-0.678277
0.280841,0.316102,0.089297,0.526544,0.817032,0.234968
-0.071883,0.550292,0.730153,0.666942,-0.621825,0.410515
0.507236,0.204554,0.466136,-0.406290,0.742344,0.532780
0.524772,0.592392,0.141903,0.036601,0.158824,0.986628
0.918032,0.848730,0.547563,0.936870,-0.175429,-0.302487
0.037710,-0.385953,0.733766,-0.132890,-0.792469,0.595258
0.156636,0.222713,0.750489,0.746708,-0.210030,-0.631122
0.110630,0.598836,0.603153,-0.098863,0.793797,0.600094
0.034033,-0.444199,-0.979198,-0.226468,0.009129,0.973976
0.020929,0.140012,0.094059,0.969920,0.222976,0.097662
0.717089,0.658618,0.603619,-0.007243,0.305458,0.952178
-0.160074,-0.658692,-0.971835,-0.152988,0.012101,0.988154
-0.172707,-0.510937,0.332348,0.538850,-0.350010,-0.766247
-0.128447,-0.062400,-0.475223,0.557462,0.042005,-0.829139
-0.120717,-0.482307,-0.974025,-0.162889,0.076480,0.983676
-0.330285,-0.227544,0.265974,-0.543760,0.770962,-0.331576
-0.268487,-0.566912,0.375758,0.774949,0.250565,0.580234
0.791612,0.488899,0.582516,0.319556,0.376374,-0.869613
-0.338061,0.273672,0.151182,-0.339361,-0.049742,0.939340
0.217959,0.443356,0.721449,0.543964,-0.730812,-0.412332
-0.484091,-0.264227,-0.214271,-0.517037,-0.494704,0.698527
-0.126655,-0.331587,0.355613,0.379279,0.230561,0.896096
-0.124440,-0.315076,0.681187,0.644753,0.723483,0.246710
0.415084,0.023083,0.505385,0.072922,-0.685637,0.724282
-0.455243,-0.309146,0.006145,-0.161919,-0.956602,0.242271
0.373368,0.452399,0.723940,0.708086,0.288893,-0.644325
-0.177704,-0.589208,0.332950,-0.424555,0.039508,-0.904540
0.071883,-0.493218,-0.970221,-0.101402,0.070524,0.992343
0.050720,-0.260493,0.519235,0.453033,0.861429,-0.229569
0.642990,0.107027,0.727471,0.414933,-0.757545,-0.503941
0.701674,0.662792,0.595626,0.707003,0.185301,-0.682503
-0.352578,0.050100,0.247554,0.174549,0.909445,-0.377415
0.633752,0.623511,0.562672,0.430474,0.865622,-0.255714
-0.095074,0.303142,0.326737,0.843406,0.428433,0.324209
-0.546311,-0.293697,0.079909,0.282939,0.729256,0.623002
0.349943,0.495012,0.733164,0.139177,0.985288,-0.099185
-0.356255,-0.249180,0.819846,0.992146,0.036255,0.119714
