0.435353,0.043684,-0.273932,0.986480,0.041875,0.158444
0.418124,0.048090,-0.346512,-0.322344,0.830344,-0.454558
-0.294349,-0.104362,0.026047,-0.761311,-0.154141,0.629798
0.412709,-0.335539,-0.947243,-0.038478,0.463233,0.885401
0.568268,-0.303049,-0.936150,-0.173481,0.298660,0.938460
0.528886,-0.287462,-0.942221,-0.201692,0.367197,0.908013
0.487042,-0.270954,-0.945367,-0.100476,0.180120,0.978500
0.449488,-0.256156,-0.953536,0.105874,-0.130317,-0.985803
0.406730,-0.239056,-0.953894,-0.000497,0.168150,0.985761
0.365590,-0.222680,-0.955661,-0.174315,0.152384,0.972828
0.693380,-0.272730,-0.935073,-0.015614,0.553652,0.832602
0.647104,-0.254512,-0.933169,-0.183329,0.352189,0.917798
0.606035,-0.238267,-0.935073,0.443443,-0.159741,-0.881953
0.569605,-0.223798,-0.942525,-0.297384,0.150964,0.942747
0.528886,-0.207882,-0.946774,0.078573,0.131350,0.988217
0.490418,-0.192623,-0.951714,0.392944,-0.110103,-0.912947
0.447872,-0.175721,-0.954336,-0.143908,0.058805,0.987842
0.405464,-0.158950,-0.956847,-0.415971,-0.004997,0.909364
0.364675,-0.142771,-0.960932,0.120793,0.212948,0.969568
0.267554,-0.065098,-0.258147,0.849773,-0.513845,0.117679
0.771511,-0.270296,-0.928064,-0.054283,0.170282,0.983899
0.467774,-0.147440,-0.627974,0.865103,0.054998,0.498569
0.731496,-0.254380,-0.931292,-0.152171,0.117510,0.981344
0.687613,-0.237017,-0.930272,0.191592,-0.140528,0.971362
0.647456,-0.221364,-0.935404,-0.067263,0.044943,0.996723
0.606174,-0.204922,-0.937143,0.414823,-0.233134,-0.879528
0.565176,-0.188940,-0.941172,0.236005,0.208382,-0.949146
0.525581,-0.173287,-0.947105,-0.258409,-0.002951,0.966031
0.484722,-0.157108,-0.951714,0.190992,0.109146,-0.975504
0.443863,-0.140929,-0.953949,-0.349587,-0.028262,0.936477
0.405605,-0.125802,-0.959248,-0.243905,0.157211,0.956972
0.363128,-0.109163,-0.961649,0.114835,0.087581,0.989516
0.276064,-0.050563,-0.245480,0.668729,-0.737764,-0.092224
0.792327,-0.262996,-0.926987,-0.034781,0.278675,0.959755
0.749148,-0.245896,-0.928560,-0.053222,0.231288,0.971428
0.709343,-0.230375,-0.934742,-0.097575,0.281553,0.954572
0.664123,-0.212420,-0.934024,-0.185426,-0.040438,0.981826
0.622773,-0.196043,-0.935653,-0.212089,0.106865,0.971390
0.582053,-0.180127,-0.938109,0.003208,-0.224535,0.974461
0.541334,-0.164014,-0.942497,-0.289242,0.004910,0.957243
0.503499,-0.149019,-0.947520,-0.225041,-0.256247,0.940050
0.462850,-0.132971,-0.952018,-0.224373,0.207523,0.952151
0.423749,-0.117779,-0.958200,0.244253,-0.060138,-0.967845
0.381553,-0.101008,-0.960601,0.116078,0.267168,0.956633
0.343928,-0.086144,-0.966451,-0.193487,0.117207,0.974077
0.457435,-0.071806,-0.416305,0.128376,-0.944748,0.301615
0.874891,-0.242476,-0.937364,-0.039388,0.550381,0.833984
0.440277,-0.065756,-0.492390,-0.525406,-0.846551,0.085443
0.830585,-0.224850,-0.937778,0.271646,0.453208,0.849006
0.479588,-0.082263,-0.585944,-0.209686,0.977066,0.037058
0.779388,-0.204528,-0.930327,-0.073908,-0.134879,0.988102
0.526989,-0.102257,-0.687583,-0.037186,-0.980093,0.195027
0.741482,-0.189730,-0.935542,0.368860,0.453674,0.811247
0.281831,-0.002749,-0.450636,-0.180128,-0.952163,0.246859
0.537044,-0.106795,-0.747469,0.978971,-0.183241,0.089662
0.264530,0.003696,-0.479144,-0.771705,0.624565,0.119956
0.646894,-0.152373,-0.926849,-0.642007,0.015998,-0.766532
0.244839,0.011260,-0.503235,-0.085461,-0.988993,0.120790
0.595907,-0.132050,-0.916914,-0.721023,-0.625186,-0.298778
0.570168,-0.122054,-0.939544,0.400457,0.467127,-0.788306
0.535848,-0.108505,-0.951383,-0.294728,0.500230,0.814190
0.500194,-0.094496,-0.961815,0.018295,0.636601,0.770976
0.457716,-0.077923,-0.962035,0.040831,0.656934,0.752842
0.419459,-0.062730,-0.967251,-0.136057,0.571662,0.809130
0.378108,-0.046354,-0.970784,0.365391,0.296920,0.882229
0.338514,-0.030964,-0.974482,0.590111,0.488088,0.643070
0.288020,0.018955,-0.502518,-0.085461,-0.988993,0.120790
0.534442,-0.082263,-0.791679,0.995261,-0.033960,0.091120
0.557368,-0.092260,-0.868289,-0.611173,-0.790680,0.035948
0.558143,-0.093247,-0.919426,-0.502627,-0.796291,0.336580
0.545905,-0.088840,-0.957730,0.339534,-0.413124,-0.845012
0.507508,-0.073714,-0.962836,-0.282115,0.262144,0.922871
0.466930,-0.057863,-0.967334,-0.075119,0.352445,0.932813
0.425296,-0.041421,-0.970728,-0.216632,0.192364,0.957114
0.383944,-0.025308,-0.973764,0.011771,-0.071711,0.997356
0.343508,-0.009260,-0.976193,0.137839,0.146899,0.979500
0.274658,0.030069,-0.070598,-0.075317,-0.997081,0.012494
0.396744,-0.021822,-0.342897,-0.071366,-0.881133,0.467452
0.427758,-0.035107,-0.423315,0.949586,0.259733,0.175571
0.878548,-0.219917,-0.935459,-0.030655,0.218295,0.975401
0.461584,-0.049511,-0.509804,-0.674562,0.730180,-0.108642
0.833609,-0.202160,-0.935211,0.216585,-0.034436,0.975656
0.518689,-0.073714,-0.622399,-0.200607,-0.947137,0.250377
0.792046,-0.185915,-0.936950,0.120378,0.563466,0.817322
0.512993,-0.072004,-0.665423,0.341227,0.910985,-0.231668
0.288512,0.019481,-0.454113,-0.250884,-0.913514,0.320233
0.407363,-0.024190,-0.974399,0.391145,-0.106121,-0.914190
0.365661,-0.007682,-0.975503,-0.117395,0.398895,0.909451
0.323254,0.009089,-0.977931,-0.514172,-0.221037,-0.828716
0.405676,-0.006827,-0.016701,0.271911,-0.772735,0.573538
0.171069,0.085776,-0.018798,0.336817,0.807311,-0.484565
0.443088,-0.027741,-0.368893,-0.260306,0.950561,-0.169336
0.082316,0.121093,-0.006296,0.384566,0.699703,-0.602101
0.397800,-0.009721,-0.364671,0.252555,-0.887236,0.386042
0.853862,-0.199529,-0.933307,0.076247,0.060724,0.995238
-0.006154,0.156345,0.004604,0.526778,0.580357,-0.621040
0.813566,-0.183679,-0.938550,-0.014339,0.490811,0.871148
0.490630,-0.050695,-0.614175,0.698955,0.079845,0.710694
0.295687,0.029412,-0.434960,0.311574,0.891380,-0.329185
0.299625,0.026781,-0.488499,-0.594489,0.803703,-0.025370
0.537256,-0.072595,-0.816516,-0.822075,-0.569262,0.011575
0.547171,-0.077594,-0.880321,0.606613,0.741737,0.286089
0.563347,-0.085223,-0.952349,-0.395917,0.386807,0.832845
0.527199,-0.071083,-0.962118,-0.239997,0.250030,0.938023
0.489012,-0.056219,-0.967472,0.016960,-0.231620,-0.972658
0.448293,-0.040106,-0.969652,-0.334555,0.357097,0.872098
0.635570,-0.070820,-0.022027,0.374596,0.547983,-0.747925
0.570872,-0.045433,-0.037371,0.510743,0.698332,-0.501471
0.525862,-0.027675,-0.032431,0.422688,0.870114,-0.253451
0.447379,0.003367,-0.034390,-0.102607,-0.977211,0.185824
0.343227,0.045920,0.036975,0.472462,0.879058,0.063543
0.389148,0.023295,-0.187388,-0.387254,0.720683,-0.575022
0.383804,0.024676,-0.227072,0.879182,0.409863,0.243005
0.418686,0.009352,-0.312513,-0.292468,0.850356,0.437443
0.438798,0.000079,-0.380291,0.425028,0.368533,0.826762
0.458560,-0.008931,-0.448428,-0.712198,0.626812,-0.316039
0.307008,0.053154,-0.322089,0.973444,-0.192994,-0.123124
-0.015084,0.186731,0.004494,0.561077,0.529959,-0.635874
0.343156,0.037304,-0.409544,0.459800,0.824593,-0.329591
0.307711,0.051181,-0.416664,0.220661,-0.959103,0.177284
0.513695,-0.034713,-0.656261,0.412826,-0.029825,0.910321
0.483035,-0.023072,-0.670556,0.888412,0.170739,0.426114
-0.111220,0.224219,-0.020537,0.325865,0.622490,0.711561
0.529519,-0.043394,-0.775922,-0.721340,-0.675353,0.153517
0.605331,-0.075884,-0.915976,0.519566,-0.790573,0.324108
0.580787,-0.066611,-0.937364,-0.281626,0.959144,0.027031
0.557158,-0.057929,-0.962256,0.013751,0.307449,0.951465
0.516719,-0.041947,-0.964850,0.438845,-0.371566,-0.818140
0.476845,-0.026294,-0.970425,-0.403127,0.820485,-0.405331
0.437534,-0.011036,-0.975862,-0.083527,0.079779,0.993307
0.394705,0.005998,-0.977407,-0.282108,0.320807,0.904156
0.352650,0.022638,-0.977655,-0.389417,0.136076,-0.910954
0.359823,0.063677,-0.005689,0.720591,-0.692453,-0.035452
0.399628,0.044012,-0.181427,0.833801,0.354156,0.423497
0.425296,0.032437,-0.254145,0.880297,0.330450,0.340412
0.435353,0.027307,-0.311712,-0.224492,0.849843,0.476833
0.426844,0.030004,-0.347092,0.705819,-0.130504,0.696268
0.464398,0.013298,-0.437168,-0.412252,0.034719,0.910408
0.347517,0.061178,-0.351038,-0.522333,-0.852607,0.015113
0.869828,-0.157963,-0.951328,-0.729081,-0.043330,0.683054
0.500616,-0.003999,-0.576009,0.784257,-0.612360,-0.099781
0.822146,-0.139022,-0.948016,0.162045,-0.024256,0.986485
0.505046,-0.007024,-0.628830,-0.359643,0.849334,-0.386378
0.773902,-0.119949,-0.941834,0.057848,-0.093701,0.993918
-0.067900,0.232769,-0.005689,-0.507693,-0.838567,-0.197618
0.742467,-0.107716,-0.955136,0.023639,-0.031498,0.999224
-0.094763,0.243094,-0.020343,0.325865,0.622490,0.711561
0.691410,-0.087328,-0.947657,-0.020657,0.195557,0.980475
-0.128521,0.256445,-0.024925,0.030772,0.487030,0.872843
0.646823,-0.069504,-0.945202,-0.241359,0.758794,0.604961
-0.162769,0.269862,-0.031023,-0.192605,0.501560,0.843410
0.608003,-0.054246,-0.952018,-0.097198,0.633812,0.767356
0.571505,-0.040237,-0.961456,-0.088366,0.212044,0.973257
0.528886,-0.023269,-0.963498,-0.184570,0.227801,0.956055
0.490560,-0.008208,-0.969321,0.197750,0.636126,0.745814
0.451177,0.007116,-0.973405,-0.364259,0.265585,0.892625
0.408629,0.024019,-0.975613,-0.154586,-0.137592,-0.978351
0.370653,0.038948,-0.981022,-0.222494,0.220232,0.949734
0.326488,0.056508,-0.981105,0.101404,0.273872,0.956405
0.641760,-0.048064,-0.011264,0.229740,0.436742,-0.869756
0.691270,-0.033332,-0.017170,0.142551,-0.891505,0.429997
0.369457,0.092484,-0.097449,-0.622091,-0.684005,0.380971
0.360879,0.094983,-0.131118,0.952982,0.298929,-0.049660
0.331903,0.106295,-0.143895,0.765756,0.626707,-0.144416
0.337741,0.101889,-0.242361,-0.569920,-0.815924,0.097263
0.332536,0.103204,-0.280832,0.250998,0.967937,0.009885
0.331764,0.102415,-0.325042,0.299873,0.919698,-0.253440
0.519956,0.023230,-0.541816,0.445534,0.867101,-0.222791
0.874962,-0.126065,-0.950583,-0.307678,-0.018333,0.951314
0.521432,0.021585,-0.592622,0.949703,-0.199136,0.241679
0.828686,-0.107716,-0.948789,0.103223,0.213172,0.971546
0.497732,0.030398,-0.612547,-0.733751,0.679418,-0.000157
0.787687,-0.091668,-0.950748,-0.072702,0.071033,0.994821
0.741622,-0.073385,-0.949092,0.363337,-0.279964,-0.888598
0.699709,-0.056745,-0.952542,0.133598,-0.346300,-0.928562
-0.121348,0.288212,-0.028512,0.205266,0.596977,0.775554
0.655826,-0.039382,-0.953370,-0.108579,0.381418,0.918004
-0.159745,0.303470,-0.027629,-0.422560,0.343898,0.838557
0.617426,-0.024190,-0.958338,0.462545,-0.307806,-0.831449
-0.183164,0.312151,-0.044767,0.988234,-0.143292,0.053483
0.580083,-0.009721,-0.964657,0.267771,-0.454048,-0.849788
0.540138,0.005998,-0.969956,0.066694,0.336340,0.939376
0.500616,0.021388,-0.973792,-0.363074,0.196273,0.910853
0.339217,0.092221,-0.004696,0.224109,-0.877782,-0.423408
0.379023,0.073740,-0.093172,0.980729,-0.091770,0.172479
0.386053,0.069531,-0.145799,0.007954,-0.891778,0.452403
0.376209,0.072227,-0.180323,0.460377,0.869645,0.178243
0.432119,0.047038,-0.287786,-0.078250,-0.953070,0.292464
0.361651,0.076042,-0.252489,-0.637968,-0.749914,0.175003
0.450050,0.036778,-0.400796,0.572889,0.728856,0.374924
0.332326,0.086104,-0.311078,0.357190,0.886158,-0.295195
0.885087,-0.151452,-0.948154,-0.240022,0.264368,0.934076
0.466649,0.026781,-0.514688,0.889865,-0.164976,0.425350
0.838180,-0.132971,-0.945753,0.125277,-0.026282,0.991774
0.523119,0.001131,-0.629851,0.886224,0.104711,-0.451268
0.794999,-0.115871,-0.947409,-0.550561,-0.005408,0.834777
0.519112,0.001197,-0.675524,-0.649648,0.744850,-0.152170
0.746335,-0.096601,-0.942635,-0.323269,0.139657,0.935945
0.701115,-0.078515,-0.939765,-0.212920,-0.518543,0.828117
-0.106578,0.267955,-0.028954,0.085370,0.502892,0.860123
0.662928,-0.063519,-0.945257,0.125534,0.665162,0.736072
0.625093,-0.048656,-0.952929,-0.113669,0.470179,0.875220
-0.168255,0.292026,-0.047057,0.944212,0.103610,-0.312614
0.590000,-0.035042,-0.962035,0.168455,0.260517,0.950660
0.549352,-0.019257,-0.966506,0.108939,0.267554,0.957365
0.507508,-0.002683,-0.969625,0.286146,-0.140132,-0.947884
0.465735,0.013627,-0.972716,0.115064,0.359924,0.925859
0.426563,0.029083,-0.976800,-0.015477,0.035010,0.999267
0.388657,0.044012,-0.982347,0.109317,-0.328410,-0.938188
0.343227,0.062099,-0.980719,0.147497,0.370689,0.916970
0.458631,0.038027,-0.976606,0.035843,0.330515,0.943120
0.416577,0.054601,-0.979283,-0.090320,0.056132,0.994330
0.375436,0.070912,-0.982761,-0.103698,0.202332,0.973811
0.335421,0.086762,-0.985824,0.049145,0.295819,0.953979
0.147579,0.942610,0.199052,-0.197245,-0.251129,0.947644
0.122614,0.835013,0.190056,0.239304,0.051085,-0.969600
0.048067,0.865003,0.192843,-0.277402,-0.118034,0.953476
0.321988,0.601994,0.215500,-0.185199,-0.063542,0.980644
0.288160,0.614161,0.209236,-0.200002,-0.001527,0.979794
0.083794,0.689993,0.185640,0.147964,0.002539,-0.988990
0.047646,0.703936,0.183571,-0.140577,-0.077880,0.987002
0.010584,0.718405,0.182605,0.254316,-0.037728,-0.966385
0.147720,0.515969,0.187103,0.421467,0.318988,-0.848889
0.121559,0.523072,0.172587,0.470827,0.310851,-0.825648
0.369880,0.362464,0.434979,-0.389561,-0.606228,0.693347
0.253209,0.410410,0.444003,-0.544822,-0.610054,0.575329
0.225219,0.418960,0.432909,0.497123,0.683668,-0.534291
0.141320,0.455001,0.446294,0.086078,-0.296103,-0.951270
0.144625,0.393047,0.170435,0.832228,0.299779,0.466400
0.450684,0.205540,0.220937,-0.395388,-0.154873,0.905363
0.243152,0.271704,0.151503,-0.223522,-0.309310,0.924319
0.199057,0.290579,0.158651,-0.609280,-0.397977,0.685852
0.094062,0.202910,0.097192,0.563888,0.821689,0.082810
0.004678,0.254012,0.164142,0.609673,0.792064,-0.030542
0.010092,0.238754,0.108176,-0.232238,-0.950113,-0.208207
-0.033441,0.258090,0.116869,-0.222421,-0.948997,0.223457
-0.084075,0.281569,0.132489,0.309310,0.948270,-0.071487
0.221633,0.047695,0.126362,0.892720,-0.361237,0.269369
0.218819,-0.081277,0.127052,0.884714,0.442514,0.146501
0.168255,-0.057008,0.143389,0.412358,0.902476,0.124487
0.157073,-0.061415,0.109224,-0.090197,-0.416811,0.904507
0.118043,-0.046091,0.109362,0.054776,-0.931912,0.358524
0.081472,-0.032345,0.106575,0.194937,-0.917283,0.347263
0.025845,-0.016495,0.083256,-0.196908,0.827219,0.526247
0.078167,-0.131787,0.247844,0.951963,-0.154476,0.264393
-0.364184,0.180351,0.750854,0.883978,0.281792,-0.373063
-0.451106,0.184363,0.640190,-0.659817,-0.612711,0.435002
-0.024860,-0.133629,0.092390,0.715491,0.214130,-0.664997
-0.045043,-0.132182,0.068353,0.980962,0.145677,-0.128424
-0.107282,-0.098706,0.100973,0.079228,-0.975526,-0.205116
-0.606387,0.264338,0.707831,-0.686812,-0.571602,-0.448954
-0.152150,-0.078120,0.111239,-0.135220,0.941465,0.308803
-0.186751,-0.065953,0.106106,0.047302,0.930666,0.362801
-0.261155,-0.051155,0.053009,-0.761311,-0.154141,0.629798
0.546047,-0.307916,0.278449,-0.615796,-0.177855,0.767570
0.519323,-0.300813,0.266472,0.695319,0.538345,-0.476147
0.465312,-0.286344,0.240945,-0.347154,0.278679,0.895445
0.146664,-0.095746,0.478307,0.523917,0.837732,0.153999
0.105172,-0.077528,0.484957,0.043913,0.976406,0.211431
-0.148422,0.093405,0.744038,0.587594,0.635288,0.501141
0.045607,-0.070228,0.425872,-0.281382,-0.885350,-0.370107
-0.320511,0.171604,0.782232,0.871344,-0.489938,0.026848
-0.047084,-0.027741,0.447839,0.829190,0.309377,0.465543
0.330568,-0.245830,0.658956,-0.558996,-0.178411,0.809748
0.014451,-0.148756,0.562560,-0.626403,-0.723855,-0.289230
-0.245191,0.029806,0.827960,-0.081125,-0.816756,0.571251
-0.058265,-0.120015,0.563112,-0.555867,-0.821213,-0.128918
-0.283588,0.034805,0.792553,0.414794,0.813811,0.407010
0.244839,-0.356848,0.154511,0.991096,-0.115524,0.066204
0.043427,-0.233532,0.307536,-0.765539,-0.426035,-0.482125
-0.400119,0.072556,0.763880,0.186083,0.961911,0.200248
-0.410810,0.067952,0.733110,0.024449,-0.801158,0.597954
-0.719188,0.188835,0.730929,-0.334229,-0.307285,0.890992
-0.809136,0.232637,0.760072,0.798038,0.417663,0.434388
-0.092725,-0.259773,0.340349,-0.158817,-0.937827,-0.308637
-0.408981,-0.045038,0.646344,0.001608,0.998471,0.055254
-0.442668,-0.032542,0.643585,0.049338,-0.985393,0.162991
-0.533247,0.023821,0.714123,0.569673,-0.215474,0.793123
0.155103,-0.289040,0.572026,0.357694,0.896593,0.261105
0.101024,-0.261878,0.591923,0.786421,-0.594029,-0.169326
-0.073877,-0.145796,0.752345,-0.413540,-0.901179,0.129854
-0.177818,-0.104888,0.751737,0.375384,0.909587,-0.178154
-0.152431,-0.135997,0.679930,0.307910,-0.647554,0.697040
-0.242800,-0.081343,0.745087,-0.279704,0.951466,0.128365
-0.311369,-0.042539,0.784937,-0.081203,-0.752601,0.653450
0.037800,-0.318439,0.316119,-0.723775,-0.584951,-0.366037
-0.217132,-0.151649,0.540924,0.436070,-0.185865,0.880510
0.402933,-0.415842,0.703608,-0.158147,0.552537,0.818348
-0.051372,-0.205448,0.809222,0.845997,0.518014,0.126294
-0.098069,-0.182824,0.823352,0.489978,0.869377,-0.064070
-0.111362,-0.185323,0.797273,0.773328,-0.597656,0.211591
0.230704,-0.438598,0.401090,-0.812444,-0.140545,0.565846
-0.194275,-0.198477,0.644744,-0.676623,0.729604,0.099288
0.175427,-0.477533,0.198777,-0.490556,0.075878,-0.868100
-0.386687,-0.078383,0.793133,0.833628,-0.270167,0.481740
-0.040542,-0.341326,0.369906,0.189102,0.728575,0.658345
-0.041036,-0.397098,0.182632,-0.439802,0.174707,-0.880938
-0.534863,-0.042934,0.716441,-0.478412,0.398384,-0.782568
-0.579802,-0.021099,0.730598,0.152866,-0.701920,0.695658
-0.295122,-0.242739,0.364717,0.406766,-0.901552,0.147462
-0.632828,0.006656,0.753421,-0.513511,0.645253,-0.565646
0.235767,-0.342444,0.897505,-0.269746,-0.388017,0.881295
-0.069306,-0.238070,0.845098,-0.497615,-0.449970,-0.741557
-0.123177,-0.210644,0.866017,0.952915,0.224550,0.203791
-0.172403,-0.186441,0.881968,-0.442123,-0.022035,0.896684
-0.195752,-0.230506,0.704878,-0.131325,0.615779,0.776898
0.172756,-0.535541,0.173443,-0.421907,-0.680488,0.599108
-0.254544,-0.251026,0.560159,-0.073725,0.546768,0.834032
-0.063961,-0.439256,0.183516,0.240236,0.143807,0.960003
-0.577621,-0.081935,0.699772,0.807280,-0.546723,-0.222246
-0.643940,-0.043591,0.740009,0.756057,-0.654464,-0.007393
-0.671929,-0.034778,0.732558,-0.603150,0.769510,0.209913
-0.691762,-0.033003,0.712550,0.152232,0.887513,-0.434910
-0.682900,-0.053917,0.654320,-0.169616,0.852653,0.494180
0.151588,-0.340340,0.899630,-0.226095,-0.845108,0.484432
0.356026,-0.547051,0.478141,-0.670962,-0.732815,0.113100
-0.131967,-0.227612,0.903466,0.852802,0.126742,-0.506621
-0.118605,-0.249184,0.849320,0.192679,-0.431653,0.881221
0.244910,-0.529556,0.390493,0.277361,0.056535,0.959101
0.062343,-0.407292,0.559497,-0.328922,0.227272,-0.916601
-0.214108,-0.252210,0.713626,0.329599,0.910540,0.249562
-0.273602,-0.220049,0.743348,0.836695,0.546860,-0.029778
0.207919,-0.582106,0.167150,-0.023039,-0.940397,0.339296
0.144344,-0.548235,0.196569,0.489443,0.558055,-0.670090
-0.265586,-0.251486,0.648552,-0.579217,0.721003,-0.380344
-0.481487,-0.113832,0.825145,0.823484,0.274796,0.496348
-0.274587,-0.271480,0.570536,-0.509037,-0.605996,-0.611270
0.017055,-0.522059,0.116565,-0.599731,-0.647672,0.469940
-0.070924,-0.468720,0.179735,-0.765283,0.465258,0.444834
-0.242377,-0.350863,0.347883,0.040862,0.613467,0.788663
-0.604206,-0.097588,0.718373,-0.727464,0.630969,-0.269582
-0.702100,-0.048393,0.753780,-0.001226,0.963188,0.268825
-0.731987,-0.038067,0.748647,-0.340302,-0.930166,-0.137785
-0.772213,-0.019586,0.757367,-0.262847,-0.853083,0.450735
-0.791484,-0.018402,0.736532,-0.122378,-0.984195,0.127998
-0.846057,0.011457,0.764625,-0.247974,0.896768,-0.366492
-0.844299,-0.032937,0.618720,-0.228903,-0.144284,0.962697
-0.291184,-0.340471,0.374514,0.154334,0.932957,0.325227
-0.667218,-0.090879,0.718483,-0.610462,-0.634661,-0.473858
-0.718344,-0.064506,0.739484,0.250107,0.654628,-0.713379
-0.752383,-0.051418,0.738215,-0.311310,-0.656826,0.686779
-0.770035,-0.050958,0.716827,-0.257127,-0.956532,-0.137598
-0.825241,-0.020704,0.745721,-0.329370,-0.862083,0.385135
-0.892191,-0.023137,0.648470,0.572287,0.779754,-0.253910
0.334575,-0.499106,0.668891,0.829147,-0.133266,-0.542914
0.079644,-0.328830,0.905591,0.294993,-0.807539,0.510744
-0.010865,-0.308968,0.852549,-0.139972,-0.920953,0.363666
-0.061500,-0.307982,0.788331,-0.101110,0.895457,-0.433512
-0.125005,-0.273322,0.821558,0.587454,-0.802888,-0.101331
-0.189704,-0.237478,0.856606,-0.732875,0.576712,0.360967
-0.188298,-0.274703,0.732723,-0.346786,-0.870039,-0.350388
0.221843,-0.605914,0.158568,-0.079072,-0.916617,0.391870
-0.185907,-0.314427,0.602134,0.945136,0.263873,0.192587
0.150532,-0.566190,0.198639,-0.471184,-0.626357,0.621018
0.145679,-0.575792,0.159506,0.388723,0.848609,-0.358827
-0.276768,-0.271875,0.625619,0.319181,-0.803239,0.502922
-0.464679,-0.142442,0.812892,-0.190474,-0.408346,0.892734
-0.129506,-0.395783,0.402608,-0.509049,-0.327285,-0.796086
0.007139,-0.541461,0.091369,0.780694,0.331258,-0.529892
-0.496395,-0.169867,0.678219,0.292053,-0.260769,0.920165
0.473611,-0.517126,0.744673,0.710345,-0.486434,-0.508716
0.098562,-0.366319,0.756098,-0.490351,-0.291504,-0.821329
-0.080348,-0.283582,0.799398,-0.030827,-0.771568,0.635399
-0.035619,-0.363622,0.581795,0.696215,-0.532289,0.481616
0.087801,-0.465695,0.395378,0.953042,-0.249193,-0.172086
-0.223249,-0.250763,0.718014,0.182904,0.950709,0.250396
0.270649,-0.612425,0.134586,-0.051117,-0.368460,0.928237
0.216709,-0.585986,0.153131,0.108146,-0.819530,0.562739
0.152925,-0.552510,0.182384,0.371826,0.717151,-0.589440
-0.273463,-0.250894,0.649380,0.546058,-0.835879,-0.055922
-0.120292,-0.377105,0.419359,-0.656438,-0.061297,-0.751885
0.053834,-0.532450,0.116593,0.528872,0.542680,-0.652528
-0.424734,-0.187756,0.661551,0.343214,-0.029806,0.938784
0.014241,-0.516600,0.117310,-0.599731,-0.647672,0.469940
-0.081824,-0.458000,0.190332,0.240236,0.143807,0.960003
-0.273040,-0.327712,0.382186,0.154334,0.932957,0.325227
-0.699428,-0.056219,0.743762,0.115644,-0.583701,0.803691
-0.738949,-0.039053,0.749309,-0.417072,-0.595407,-0.686688
-0.760682,-0.034844,0.733993,0.638756,0.708170,-0.300810
-0.789232,-0.026163,0.725410,-0.188182,0.946396,0.262530
-0.799993,-0.031293,0.692873,-0.212825,-0.947570,0.238361
-0.525652,-0.105151,0.714951,-0.424387,0.898976,0.108343
-0.585429,-0.085157,0.702615,0.774733,-0.576906,-0.258782
-0.652589,-0.047603,0.743100,0.827848,-0.560317,0.026703
-0.671929,-0.045499,0.722954,-0.496199,0.866903,0.047589
-0.718205,-0.023269,0.737304,0.097130,0.787112,0.609115
-0.707023,-0.044052,0.678716,-0.509356,0.845697,-0.159225
-0.820036,0.029083,0.782508,-0.268596,0.795978,-0.542471
0.331483,-0.454054,0.670437,-0.805242,0.139964,0.576191
0.314251,-0.452804,0.650539,0.839677,0.184083,-0.510936
0.268469,-0.443071,0.620983,0.937616,-0.335498,-0.091203
0.387461,-0.536857,0.450765,0.830683,0.429473,-0.354286
-0.080558,-0.243134,0.847720,-0.182484,-0.513170,-0.838663
-0.112838,-0.231230,0.845457,0.793988,-0.150012,0.589135
0.242448,-0.493055,0.402884,0.443748,0.178045,-0.878287
-0.164175,-0.216892,0.824787,0.887918,0.431918,-0.158265
-0.205246,-0.232742,0.708355,0.255224,0.237732,-0.937200
-0.280846,-0.189861,0.756539,0.820879,0.353841,-0.448280
0.152502,-0.513969,0.199687,-0.765927,0.159424,0.622849
-0.258976,-0.252736,0.560297,0.309660,0.472594,0.825085
-0.061571,-0.435047,0.181225,0.240236,0.143807,0.960003
-0.111853,-0.183876,0.867038,-0.679830,-0.716248,0.157542
-0.162207,-0.159936,0.883596,-0.271743,0.167001,0.947769
-0.119730,-0.199398,0.796665,0.002013,0.585369,0.810764
0.316994,-0.524163,0.213265,0.385102,0.195199,-0.901994
-0.247863,-0.152899,0.782094,0.981207,-0.068268,0.180475
-0.192517,-0.213998,0.631967,-0.644811,0.756355,-0.110206
-0.049966,-0.337117,0.377081,-0.509861,-0.421419,-0.749966
0.110516,-0.462801,0.138339,0.926523,-0.079736,-0.367692
-0.556735,-0.022151,0.817639,0.774778,0.412744,-0.478917
-0.575162,-0.042737,0.712053,-0.654762,0.582681,-0.481424
-0.629312,-0.015179,0.735731,-0.464132,0.748561,-0.473538
-0.536342,-0.094299,0.573792,-0.433519,0.850907,-0.296679
-0.185414,-0.166250,0.643999,-0.422592,0.899974,-0.107065
-0.318541,-0.085552,0.758471,-0.059940,-0.810497,0.582668
-0.367276,-0.062007,0.775857,-0.443788,0.866731,-0.227662
-0.017265,-0.303181,0.359281,0.146242,0.780197,0.608198
0.026056,-0.366713,0.172863,-0.431183,0.342607,-0.834686
-0.027112,-0.341326,0.190580,-0.411547,0.219099,-0.884661
-0.517423,-0.021099,0.703746,-0.730820,0.476491,-0.488732
-0.572629,0.007116,0.730129,0.258869,-0.931200,0.256620
-0.630999,0.037896,0.761314,0.310398,-0.576108,0.756143
0.226908,-0.342313,0.586432,0.588878,0.772004,0.239234
-0.133654,-0.120870,0.907164,-0.271786,0.628862,-0.728468
-0.091740,-0.158950,0.820730,0.459996,0.883111,-0.092303
-0.293083,-0.082066,0.811871,-0.526040,0.765276,0.370992
0.497028,-0.367239,0.729577,-0.738061,0.485954,0.468097
0.479940,-0.374211,0.671706,-0.568084,0.637777,0.520117
-0.102500,-0.098245,0.872833,0.458449,0.557240,-0.692321
0.169661,-0.276215,0.570729,0.576122,0.742403,0.341937
0.139350,-0.266284,0.562753,0.352688,0.811580,0.465779
-0.121840,-0.113569,0.775857,-0.647561,-0.738169,0.189131
-0.154189,-0.120870,0.691135,-0.219994,0.830776,-0.511286
-0.144836,-0.136588,0.639859,-0.279412,0.955169,0.097883
-0.303492,-0.040763,0.782950,0.190467,-0.873329,0.448352
0.215724,-0.387562,0.175291,0.978196,-0.154702,0.138560
0.058124,-0.292329,0.316864,0.865166,0.373338,0.334823
-0.207356,-0.134878,0.542442,-0.387773,0.237358,-0.890670
-0.501812,0.034279,0.770365,-0.655586,0.715043,-0.242735
-0.416154,-0.034318,0.621894,-0.385363,0.880279,-0.276775
-0.525791,0.030333,0.714316,0.741971,-0.019349,0.670152
-0.298569,0.032174,0.795644,-0.560129,-0.769217,-0.307508
0.204261,-0.301931,0.165715,0.715672,0.379097,-0.586600
-0.388867,0.073082,0.820371,0.123527,0.596508,-0.793044
0.110377,-0.250566,0.232307,0.861192,-0.191218,0.470940
-0.362566,0.037896,0.705237,-0.268635,-0.711718,0.649070
-0.440558,0.079462,0.756291,-0.300537,0.943093,-0.142309
-0.453006,0.078804,0.730322,0.431090,0.852734,-0.294968
-0.487675,0.092418,0.731178,0.332161,-0.350262,0.875777
-0.531137,0.111754,0.741113,-0.082191,-0.087878,0.992735
-0.759768,0.198043,0.725134,-0.266117,-0.354079,0.896555
-0.251591,0.027768,0.860111,0.253041,0.355358,0.899828
-0.054748,-0.116069,0.553205,0.534438,0.820404,0.203256
-0.128521,0.029872,0.831465,-0.301842,0.682955,-0.665180
-0.180280,0.038225,0.772242,-0.334731,0.460696,0.822019
-0.003059,-0.089103,0.485565,0.298252,0.954173,0.024481
0.226908,-0.250368,0.131771,0.902281,0.125475,0.412485
-0.285067,0.054272,0.646593,0.725042,-0.677683,-0.122720
-0.617918,0.206330,0.752731,-0.261816,0.036307,-0.964435
-0.719258,0.245199,0.749447,0.206307,0.434490,0.876730
-0.821232,0.285449,0.749474,-0.206027,-0.893241,0.399591
-0.303492,0.152465,0.779555,-0.742904,-0.647991,0.167934
0.109252,-0.113438,0.215859,0.982989,-0.176572,0.050553
-0.024789,-0.081474,0.102574,0.004555,0.062861,0.998012
-0.078377,-0.056614,0.122995,-0.261165,0.955305,0.138509
-0.054186,-0.080422,0.045558,0.972144,0.214882,-0.093605
0.425296,-0.232479,0.243539,0.613044,0.086680,-0.785279
0.362776,-0.210512,0.230099,0.393911,0.306595,-0.866506
-0.203418,0.114253,0.786592,0.572639,0.814821,-0.090283
0.307851,-0.193413,0.206062,0.784493,0.072657,-0.615867
0.058828,-0.059113,0.403464,0.069207,0.968024,0.241121
-0.167974,0.138785,0.763632,0.454978,0.711773,0.535139
0.294349,-0.139285,0.199687,0.839334,-0.086531,-0.536686
-0.304617,0.198832,0.800860,0.853316,-0.423296,-0.304421
0.057984,-0.014916,0.383649,-0.221549,0.857845,0.463700
-0.360808,0.211196,0.744286,-0.661218,-0.341706,0.667853
0.031119,-0.051813,0.105168,-0.389245,0.601389,0.697725
-0.035971,-0.027215,0.094157,0.089337,0.734798,0.672377
-0.569183,0.278478,0.658101,-0.478159,-0.798542,-0.365643
-0.141460,0.012115,0.082041,-0.343754,0.797145,0.496379
-0.008826,0.079264,0.462908,-0.397253,0.569690,-0.719474
0.096663,0.012443,0.299589,0.931172,0.121282,0.343817
0.189985,-0.054969,0.103401,0.696099,0.191693,0.691881
0.020008,0.008037,0.077985,0.233839,0.747224,0.622074
0.632688,-0.193150,0.332512,0.508760,0.834276,-0.212480
0.567144,-0.169012,0.321418,-0.586165,-0.769765,0.252729
0.549773,-0.165658,0.300168,0.611541,0.662939,-0.431891
0.531418,-0.161712,0.278394,0.611267,0.343658,-0.712918
-0.273534,0.236649,0.805027,0.810603,-0.447764,-0.377399
-0.237034,0.260918,0.790373,0.731751,-0.424353,-0.533352
0.121700,0.043618,0.256206,0.170130,0.981845,0.083883
0.041528,0.069860,0.217929,0.263033,0.952785,0.151705
0.183517,0.063875,0.168254,0.208753,0.977799,-0.018201
0.518689,-0.045565,0.344434,0.365718,0.845600,0.388858
0.317487,0.052102,0.046441,0.800433,0.599409,0.004063
0.267554,0.073214,0.058556,0.657131,0.745911,0.108611
0.049404,0.172788,0.178300,-0.830732,0.233426,-0.505368
0.023736,0.181469,0.165108,0.900161,-0.004895,0.435530
0.025141,0.225403,0.157685,0.627699,0.763203,0.153346
-0.055593,0.257695,0.162266,-0.316225,-0.909612,-0.269460
-0.063961,0.257366,0.126031,-0.224525,-0.935403,0.273148
-0.099124,0.271112,0.124403,-0.224525,-0.935403,0.273148
0.203277,0.194820,0.338169,0.613968,0.445127,-0.651848
0.062766,0.229743,0.112564,0.491052,0.835239,0.247472
-0.058195,0.282621,0.166433,-0.213716,0.974487,0.068556
-0.073456,0.286370,0.140685,0.285013,0.958266,-0.022202
0.021626,0.259602,0.145652,0.557850,0.828960,-0.040363
0.235276,0.202449,0.137153,-0.220717,-0.798297,0.560362
0.220858,0.219286,0.139857,0.321118,-0.465189,0.824913
-0.005450,0.311494,0.181473,0.285723,0.937938,0.196558
0.214177,0.220601,0.143031,-0.461580,-0.473071,0.750431
-0.004678,0.309060,0.175457,-0.309673,-0.948537,0.066176
-0.001864,0.270388,0.162707,0.623433,0.761976,-0.175280
0.002074,0.266508,0.115875,-0.356713,-0.888575,-0.288428
0.266430,0.145625,0.345813,0.434669,-0.073071,-0.897621
0.081404,0.209486,0.134034,-0.595098,-0.774868,-0.213162
0.024298,0.233163,0.155229,0.627699,0.763203,0.153346
-0.070853,0.271901,0.177886,-0.589554,0.072161,-0.804499
-0.060656,0.265193,0.121229,-0.224525,-0.935403,0.273148
0.049265,0.231256,0.143224,0.435147,0.892854,-0.116011
-0.007701,0.253223,0.123520,0.304150,0.947367,-0.099945
-0.048138,0.269204,0.125893,-0.145902,-0.951104,0.272237
-0.076338,0.280188,0.115737,-0.224525,-0.935403,0.273148
0.254544,0.128723,0.104367,0.987815,0.150628,-0.039157
0.047153,0.212841,0.165246,0.995264,0.091788,-0.032011
0.020078,0.223298,0.153849,0.705417,0.625153,0.334022
-0.072752,0.260852,0.172146,-0.379582,-0.759034,-0.528946
-0.068391,0.257235,0.122443,-0.224525,-0.935403,0.273148
0.018602,-1.000000,0.442955,-0.026084,0.465272,0.884783
-0.261155,-0.888982,0.419856,0.343148,-0.478602,0.808201
-0.513343,-0.779149,0.645848,0.093566,0.633451,0.768105
-0.245683,-0.807955,0.455622,0.315174,-0.580886,0.750491
-0.435493,-0.726863,0.615188,0.331606,0.547442,0.768339
-0.486479,-0.705882,0.631304,0.083571,0.575988,0.813175
-0.355674,-0.763956,0.454628,-0.598332,0.027281,-0.800784
0.051162,-0.839985,0.422450,0.280109,0.209117,0.936915
-0.507860,-0.602494,0.950215,0.878296,-0.477956,0.012411
-0.509547,-0.603744,0.880836,0.755183,-0.642772,-0.128620
-0.396814,-0.653728,0.690748,0.049918,-0.335852,0.940591
-0.132178,-0.766718,0.416820,-0.208153,-0.023267,-0.977820
-0.378108,-0.663593,0.595980,-0.492318,0.014001,-0.870303
-0.152502,-0.678325,0.867065,0.063569,-0.058024,0.996289
-0.191532,-0.662672,0.869604,-0.550698,0.371357,0.747546
0.243011,-0.845772,0.445604,-0.506845,0.339631,0.792313
0.221141,-0.837617,0.428880,0.354065,-0.315309,-0.880465
-0.372410,-0.588748,0.944116,-0.409179,-0.268757,-0.871976
-0.349203,-0.599995,0.850700,0.714623,-0.006347,0.699481
0.008685,-0.753039,0.413757,0.029130,0.497170,0.867164
-0.472907,-0.550471,0.866679,-0.753542,0.651710,0.086310
0.232462,-0.848666,0.145597,0.077741,0.135076,0.987781
-0.052076,-0.729230,0.398689,0.102315,0.082926,0.991290
-0.399909,-0.584539,0.645351,0.221502,0.744347,-0.629987
-0.459335,-0.560402,0.669029,0.851625,-0.486140,0.195966
-0.516719,-0.536923,0.691079,-0.117396,0.253690,0.960135
-0.586131,-0.508313,0.726210,0.381996,0.345810,0.857026
-0.490066,-0.549813,0.585990,0.849612,-0.509178,0.137470
-0.670100,-0.474377,0.741913,-0.459041,-0.410116,-0.788090
-0.078027,-0.725416,0.103236,-0.095923,0.088768,0.991423
-0.709905,-0.458526,0.745942,0.283029,0.714124,0.640251
-0.750344,-0.442216,0.752427,0.483491,0.426855,0.764220
-0.431486,-0.641889,0.614746,-0.031346,-0.178661,0.983411
-0.323183,-0.689177,0.460700,0.858282,-0.040941,0.511543
-0.571786,-0.583816,0.686774,-0.797490,0.441076,-0.411657
-0.669398,-0.542973,0.752455,0.362463,0.111175,0.925344
-0.708710,-0.527255,0.756070,-0.788855,-0.150744,-0.595805
0.176904,-0.751000,0.422892,-0.237448,0.030220,0.970930
-0.398362,-0.511996,0.922176,-0.746347,-0.650700,-0.139841
0.037308,-0.695688,0.410528,-0.377692,0.040996,-0.925023
0.297865,-0.805653,0.105085,0.141821,0.085938,0.986155
-0.234291,-0.584276,0.574096,-0.272477,0.810519,-0.518474
-0.360385,-0.532121,0.666435,0.055950,-0.031915,0.997923
-0.398432,-0.517060,0.667870,0.334079,0.928658,-0.161198
-0.431555,-0.503907,0.665635,0.434234,0.835345,-0.337105
-0.494285,-0.478257,0.694915,0.277951,-0.680567,0.677917
-0.538733,-0.460368,0.703222,0.694534,-0.242505,0.677358
-0.635570,-0.421301,0.730847,-0.313453,-0.381712,-0.869507
-0.415381,-0.514561,0.452917,0.039223,-0.014484,0.999126
-0.458279,-0.497264,0.458795,-0.669598,-0.063738,0.739983
-0.754211,-0.373685,0.744148,0.287343,-0.014649,0.957716
-0.602798,-0.438006,0.538992,0.641913,0.722871,0.255746
0.310454,-0.737386,0.768158,0.854471,-0.477049,-0.205678
0.323887,-0.743765,0.720608,0.917370,-0.378929,0.121839
0.280848,-0.727718,0.655672,0.985381,-0.101550,-0.136793
-0.056858,-0.588354,0.940805,0.650521,0.660732,-0.374508
-0.187946,-0.535213,1.000000,-0.521936,-0.761535,-0.384249
0.254686,-0.720088,0.502178,0.955818,-0.293621,-0.014072
-0.217905,-0.526400,0.820785,-0.678767,0.172388,0.713833
0.181126,-0.692202,0.424189,-0.078064,-0.086556,0.993184
0.137101,-0.674511,0.430978,0.157669,-0.140022,-0.977514
0.095538,-0.658069,0.433544,-0.399741,-0.174092,0.899944
-0.382961,-0.459776,0.879981,0.816008,0.358281,0.453613
-0.384437,-0.459907,0.844905,0.825004,0.495768,0.271261
-0.130559,-0.565532,0.586569,0.317851,-0.129985,0.939188
-0.257148,-0.514167,0.639777,-0.377605,-0.297688,0.876810
-0.318964,-0.488977,0.667567,-0.218510,0.177741,0.959511
-0.370090,-0.468326,0.683932,-0.656254,0.500327,-0.564803
-0.397448,-0.457803,0.674162,-0.566138,-0.097062,-0.818576
-0.455397,-0.434258,0.698089,-0.309685,0.521108,-0.795325
-0.519393,-0.408213,0.727369,0.029421,-0.992529,0.118405
0.016280,-0.631498,0.159147,0.361876,-0.335736,0.869671
-0.540561,-0.399992,0.711473,0.527384,-0.356076,0.771412
-0.444355,-0.440769,0.569156,0.049318,0.081797,0.995428
-0.715039,-0.329948,0.747239,0.151870,0.000206,0.988400
-0.487042,-0.358426,0.487579,-0.718627,-0.375173,-0.585509
-0.735153,-0.256551,0.720939,0.444895,0.894477,0.044480
-0.760611,-0.246554,0.711115,0.117642,0.806975,0.578750
-0.820809,-0.222088,0.740036,-0.616549,-0.605175,0.503617
-0.734730,-0.322385,0.731095,0.750034,0.508063,0.423463
-0.852528,-0.276150,0.703774,-0.633487,-0.305576,0.710856
-0.882273,-0.265100,0.657687,0.943685,-0.200539,-0.263139
-0.047575,-0.526531,0.923060,0.956491,0.282650,0.072351
-0.120153,-0.497198,0.959405,0.650608,0.745497,0.144721
-0.131264,-0.493055,0.935589,0.464244,0.874295,0.141721
-0.240128,-0.450766,0.868197,-0.334593,0.909275,-0.247520
0.244910,-0.650505,0.386519,-0.376558,-0.500194,-0.779750
0.169380,-0.619988,0.425044,0.093739,0.444475,0.890873
-0.250819,-0.447543,0.808422,-0.484723,0.124782,-0.865721
-0.377615,-0.396441,0.863754,0.373046,0.747016,0.550276
-0.403916,-0.386115,0.855695,0.701690,0.570555,0.426728
-0.449136,-0.367963,0.866513,0.501330,0.791740,0.349023
0.264672,-0.662343,0.132627,-0.517117,-0.415895,0.748078
-0.534090,-0.333368,0.917458,0.977179,0.156543,0.143579
-0.335350,-0.415842,0.675321,0.573312,-0.159707,0.803621
-0.503990,-0.346983,0.813444,-0.571349,0.792176,0.214515
-0.359400,-0.407161,0.623467,0.854238,-0.365880,0.369337
-0.467632,-0.363030,0.699717,0.444361,-0.288680,0.848061
-0.223671,-0.463722,0.441271,-0.695672,0.320767,-0.642767
-0.518760,-0.342444,0.716993,-0.462077,-0.002788,-0.886835
0.047857,-0.576384,0.113060,0.508793,0.375346,-0.774755
-0.591125,-0.313046,0.757450,0.682573,0.077598,-0.726686
-0.048561,-0.537909,0.133510,-0.564601,-0.475821,-0.674404
-0.136187,-0.502262,0.187655,-0.135905,-0.161398,0.977487
-0.651536,-0.289830,0.707913,0.480240,0.858979,-0.177553
0.367770,-0.656161,0.746301,0.867724,-0.332594,-0.369372
0.342452,-0.646756,0.701097,0.810811,-0.348770,-0.470049
0.080770,-0.540145,0.878435,-0.554834,0.831793,0.016726
0.292098,-0.628210,0.606633,0.944489,0.326727,-0.034495
-0.072962,-0.478257,0.922342,0.805520,-0.009871,0.592486
-0.091248,-0.471220,0.906612,0.926309,-0.295616,0.233587
-0.233729,-0.417026,0.764377,0.843013,0.524461,0.119460
-0.088153,-0.477731,0.580636,0.240923,-0.548092,0.800969
-0.361791,-0.365135,0.822524,0.079327,0.874483,0.478526
-0.406800,-0.347114,0.831796,0.328704,0.920873,0.209634
-0.466366,-0.323043,0.856385,0.324827,0.824082,0.464085
-0.527620,-0.298379,0.884562,0.981924,-0.138804,0.128683
-0.907944,-0.186836,0.797686,0.106099,0.786768,0.608062
-0.933050,-0.176905,0.787807,0.433856,0.656031,0.617569
-0.841837,-0.215248,0.643640,0.810107,-0.520564,-0.269704
-0.906678,-0.189532,0.636106,0.728322,-0.300970,-0.615600
-0.401457,-0.351586,0.678330,-0.280571,0.662172,-0.694845
-0.466084,-0.325410,0.709569,-0.167103,-0.916867,0.362536
-0.227751,-0.423998,0.456698,-0.694440,0.136865,-0.706414
0.049404,-0.539290,0.120622,0.528872,0.542680,-0.652528
-0.573964,-0.282003,0.747846,0.657581,0.751336,0.055519
-0.619888,-0.263588,0.758499,-0.315924,-0.943831,0.096823
-0.662013,-0.246685,0.766999,0.876246,0.454734,0.159406
-0.661309,-0.248066,0.689230,0.312073,0.939411,0.141834
-0.749217,-0.212880,0.708659,0.252586,-0.376024,0.891519
-0.802103,-0.191768,0.727701,0.834963,0.550294,-0.003792
-0.860121,-0.168289,0.753035,-0.084363,-0.915055,0.394408
-0.847462,-0.174011,0.700076,0.980906,-0.097776,0.168117
-0.926227,-0.141916,0.750882,-0.088263,0.995191,-0.042471
-0.861949,-0.169275,0.636437,0.623653,-0.302649,-0.720736
0.243292,-0.574740,0.438953,0.280015,0.361961,-0.889143
0.092935,-0.515877,0.400152,0.857511,0.329828,0.394828
-0.474455,-0.283910,0.798100,0.112140,0.686562,0.718371
-0.517213,-0.267402,0.769096,-0.016927,-0.091953,0.995619
0.056366,-0.506077,0.118635,0.380412,0.912417,0.150939
-0.597173,-0.235505,0.779721,0.184285,-0.137993,0.973138
-0.509969,-0.272927,0.608592,-0.108936,-0.850822,0.514037
-0.706178,-0.192097,0.783723,0.802177,0.550994,0.230038
-0.762439,-0.170854,0.730626,0.511356,0.430816,-0.743581
-0.826436,-0.144875,0.762418,-0.400136,0.461341,-0.791869
-0.834594,-0.142047,0.733192,0.915415,0.310213,-0.256483
-0.806745,-0.154346,0.661054,-0.735965,0.674817,-0.054567
-0.870600,-0.129157,0.652637,0.557283,0.092080,-0.825201
-0.283026,-0.301602,0.795865,0.229251,-0.908988,-0.348117
-0.133232,-0.369278,0.210588,0.039171,-0.145687,0.988555
-0.650971,-0.156122,0.736504,0.584014,0.496163,0.642457
-0.744787,-0.118568,0.762942,0.978436,0.155093,-0.136418
-0.792538,-0.099363,0.776796,-0.227914,-0.291256,0.929099
0.438448,-0.646362,0.787338,0.848675,-0.120037,-0.515113
0.294068,-0.591511,0.645489,0.874761,0.265671,-0.405230
-0.826224,-0.085881,0.775002,-0.032955,0.471726,0.881129
-0.788389,-0.102718,0.655120,-0.428500,0.811797,-0.396702
0.432963,-0.586644,0.767578,0.979971,-0.021134,-0.198015
0.360456,-0.558758,0.699220,0.927287,-0.110064,-0.357805
0.275431,-0.526334,0.603431,-0.679944,0.599376,0.422403
-0.044693,-0.395257,0.877194,-0.573647,-0.365380,-0.733094
-0.220156,-0.324621,0.944558,0.157604,0.352553,0.922425
0.171489,-0.411304,0.913235,0.915775,0.196405,0.350401
0.370090,-0.492266,0.692432,0.899522,-0.136472,-0.415012
-0.134850,-0.289501,0.900458,-0.686841,-0.333973,0.645532
-0.060233,-0.320215,0.791036,-0.177689,0.553758,-0.813498
-0.145961,-0.285818,0.840020,0.930534,-0.258041,0.259849
-0.187171,-0.270230,0.739043,-0.415328,-0.843636,-0.340267
0.106862,-0.390587,0.362289,0.897789,-0.428523,-0.101701
-0.233237,-0.252736,0.636658,-0.491969,0.691089,-0.529492
-0.059319,-0.324292,0.378681,0.186193,0.730222,0.657349
-0.553219,-0.123435,0.862677,0.894551,0.151768,0.420410
-0.707444,-0.063322,0.727839,-0.543631,0.816843,-0.192959
-0.754001,-0.044578,0.740285,0.383260,0.645412,-0.660723
-0.703647,-0.065624,0.643751,0.272753,-0.857722,-0.435797
-0.837124,-0.011496,0.754608,-0.424507,-0.873123,-0.239687
-0.782202,-0.034187,0.653189,0.313279,0.919774,-0.236373
-0.864692,-0.000973,0.708686,0.116085,0.993003,-0.021656
-0.931080,0.025794,0.744507,0.401896,0.914777,-0.040765
0.189002,-0.352310,0.204738,-0.262733,-0.339612,0.903125
-0.563276,-0.050958,0.692183,-0.471094,0.658645,-0.586735
-0.635783,-0.021888,0.732613,-0.434463,0.598484,-0.673096
-0.627484,-0.025374,0.683794,-0.131313,0.864254,0.485615
0.189564,-0.348956,0.901644,-0.656085,0.369668,0.657950
0.158621,-0.336657,0.896539,-0.337372,-0.797745,0.499783
-0.111149,-0.211170,0.760210,0.980295,-0.196741,0.017755
-0.271634,-0.147506,0.742879,0.810430,-0.334763,0.480767
0.078729,-0.290750,0.298650,0.908368,0.289621,0.301640
-0.508632,-0.053917,0.691824,0.393208,0.888444,0.236759
-0.544568,-0.039645,0.691907,0.590257,-0.807083,0.014624
-0.605331,-0.015114,0.720691,-0.493705,0.536692,-0.684264
-0.570378,-0.029649,0.643944,0.170497,-0.859238,0.482329
0.367066,-0.421696,0.486310,0.630667,0.369141,-0.682637
-0.024931,-0.264048,0.832762,0.467302,0.855677,0.222364
-0.104258,-0.232611,0.842587,-0.666698,0.168130,-0.726117
-0.101093,-0.234123,0.768185,0.968109,-0.220354,0.119202
0.086466,-0.281543,0.886135,0.843739,0.530893,-0.079108
0.191251,-0.325673,0.715503,-0.737365,0.100607,-0.667960
-0.056156,-0.226100,0.815542,0.924017,0.359984,0.128860
-0.057632,-0.225968,0.782205,0.911999,-0.039312,-0.408305
-0.285488,-0.135668,0.759906,0.886338,-0.000067,-0.463039
0.061923,-0.280227,0.319486,0.865166,0.373338,0.334823
-0.410878,-0.085618,0.781183,-0.307475,-0.946490,-0.098054
0.030417,-0.267731,0.313525,0.822145,0.353227,0.446439
-0.507437,-0.048458,0.695302,-0.126297,-0.876718,0.464128
-0.554977,-0.029517,0.707886,0.431386,-0.840180,0.328639
0.065509,-0.280096,0.903604,0.507414,0.859744,-0.058052
0.349556,-0.395388,0.631580,0.731413,0.053182,-0.679857
-0.055593,-0.232874,0.813665,0.862732,0.394446,0.316396
-0.608846,-0.007682,0.729467,0.284641,-0.833309,0.473894
-0.575653,-0.021954,0.652913,0.077292,-0.990476,-0.113942
0.058899,-0.264246,0.810629,-0.324745,-0.003592,0.945795
0.222476,-0.334026,0.577794,0.788034,0.422208,-0.448044
-0.073948,-0.211828,0.800805,-0.308884,0.457320,0.833936
-0.103625,-0.200055,0.795920,-0.368089,-0.056661,-0.928062
-0.163051,-0.178878,0.673114,0.757837,0.361985,-0.542816
-0.168676,-0.177299,0.640660,0.565613,-0.818493,-0.100753
-0.302788,-0.121856,0.744397,0.840641,-0.071438,0.536861
-0.398643,-0.083316,0.769620,-0.273225,0.958194,-0.084929
0.027532,-0.261878,0.316561,0.822145,0.353227,0.446439
0.032947,-0.266482,0.189973,-0.049766,-0.254598,0.965766
-0.510319,-0.040303,0.701594,0.255046,-0.576803,0.776048
-0.566863,-0.017547,0.723837,0.134107,-0.714432,0.686733
-0.608707,-0.000645,0.730598,0.284641,-0.833309,0.473894
-0.579802,-0.013601,0.658570,0.077292,-0.990476,-0.113942
-0.578958,-0.016429,0.538496,0.117516,-0.904859,0.409171
0.509337,-0.408739,0.721629,-0.690781,0.377759,0.616539
0.381414,-0.359150,0.667346,0.347724,0.935856,0.057101
-0.016069,-0.196767,0.876614,0.410178,-0.685273,-0.601793
-0.059180,-0.180259,0.849210,0.962562,-0.220040,0.158294
-0.123949,-0.153886,0.879346,-0.244429,-0.923872,0.294473
-0.085058,-0.170920,0.804144,-0.247394,0.946097,-0.209036
-0.092021,-0.168881,0.774478,0.706220,-0.677707,-0.204858
0.122262,-0.259379,0.519371,-0.084206,0.781494,0.618204
0.062625,-0.235110,0.543353,0.935749,-0.346034,-0.068069
-0.111993,-0.163619,0.648028,-0.057699,0.973536,0.221129
-0.119097,-0.161383,0.618692,0.282090,-0.959035,0.026008
-0.277259,-0.095812,0.745721,-0.235114,0.960295,0.150179
-0.323885,-0.077002,0.756760,-0.168764,0.901091,-0.399443
-0.364113,-0.060889,0.761176,0.383605,-0.874062,0.298100
0.167832,-0.284239,0.196486,0.473903,0.011607,-0.880501
-0.345828,-0.071741,0.590185,0.233264,-0.906039,0.353103
-0.445339,-0.030767,0.658846,-0.291756,0.939892,-0.177427
-0.523048,0.001000,0.704657,0.046043,-0.508190,0.860013
-0.655193,0.055062,0.773070,-0.236372,-0.531861,0.813174
-0.778613,0.104520,0.795920,-0.443996,0.496754,-0.745723
-0.659623,0.053549,0.619769,0.046591,-0.404835,0.913202
0.516719,-0.346983,0.721905,0.714958,-0.699164,0.002208
-0.099758,-0.098903,0.899657,0.513927,-0.828561,0.222185
-0.119238,-0.093576,0.776188,-0.507210,-0.807400,0.301402
-0.048631,-0.123500,0.668174,0.421896,0.901736,-0.094216
-0.171069,-0.073319,0.756567,0.481071,0.824346,-0.298368
-0.019937,-0.136654,0.563830,0.840894,0.514972,0.166437
-0.239706,-0.046025,0.754221,-0.226616,-0.972652,0.050929
-0.058547,-0.121264,0.565210,0.318595,0.921830,0.220743
-0.316292,-0.014916,0.796969,0.222397,-0.620743,0.751810
-0.502866,0.060192,0.846782,-0.701238,0.624333,-0.344201
-0.355814,-0.001828,0.650953,0.560320,-0.824384,0.080202
-0.403635,0.017442,0.663400,0.059480,-0.790380,0.609723
-0.473611,0.045920,0.700932,-0.513247,0.615202,-0.598418
-0.549210,0.076765,0.744673,0.808335,-0.576564,-0.119027
-0.574247,0.086433,0.734655,-0.255805,0.290438,0.922068
-0.601534,0.097219,0.726983,-0.011258,0.370258,0.928861
-0.015507,-0.147243,0.072741,0.973885,-0.141068,-0.177897
-0.644573,0.114451,0.735455,0.108275,0.481276,0.869856
-0.676994,0.127144,0.733468,0.049864,-0.138813,0.989062
0.276697,-0.169078,0.698806,0.795800,0.529727,-0.293416
0.560744,-0.286673,0.271246,-0.690239,-0.130336,0.711746
0.434158,-0.236754,0.243539,0.446491,0.114325,-0.887455
-0.217975,0.028886,0.835908,0.196085,-0.662742,0.722720
0.133725,-0.114885,0.473725,0.564434,0.819877,-0.095997
-0.254053,0.043289,0.836433,0.004084,-0.976482,0.215562
0.328740,-0.194991,0.232666,0.279944,0.952321,-0.121311
0.311508,-0.188348,0.209650,0.675890,-0.191499,-0.711689
0.284503,-0.177760,0.196900,-0.766680,0.249811,0.591436
0.013889,-0.067663,0.442596,0.473146,0.818996,0.324621
-0.380005,0.093142,0.822082,0.159138,0.252598,-0.954395
-0.095538,-0.023598,0.480128,-0.643250,0.000500,-0.765656
-0.371848,0.089064,0.738270,-0.510133,0.859531,0.031165
0.142235,-0.122317,0.101194,-0.204156,0.141725,0.968625
-0.484160,0.133721,0.743459,0.436089,-0.170133,0.883675
-0.517281,0.146940,0.742658,0.072925,-0.155760,0.985099
-0.581631,0.172327,0.736697,-0.678272,-0.634641,0.370375
-0.106720,0.057035,0.827602,0.781539,0.262898,0.565757
0.381272,-0.140206,0.292468,0.071086,-0.875802,0.477407
-0.248919,0.113004,0.794540,0.609937,0.775789,-0.161644
0.141391,-0.044578,0.386436,0.022854,0.821091,0.570340
0.072542,-0.017284,0.378792,-0.200382,0.915988,0.347581
-0.189564,0.087683,0.541918,0.837831,0.337898,0.428795
0.173389,-0.058981,0.150868,0.574565,0.815064,0.074470
0.180632,-0.062138,0.100476,0.598349,0.492996,0.631612
-0.299342,0.168447,0.775719,-0.407206,-0.796486,0.446982
0.204261,-0.036620,0.117310,-0.570732,-0.664491,-0.482407
0.515384,-0.137575,0.371920,0.262889,0.708190,0.655253
-0.148493,0.129380,0.747432,0.096637,0.780036,0.618227
-0.296950,0.188769,0.792305,0.579232,0.450432,-0.679413
0.140477,0.060586,0.238958,0.155994,0.987690,0.011592
0.099828,0.025663,0.291309,0.913481,-0.009948,0.406759
-0.341256,0.205475,0.728087,-0.740966,-0.306651,0.597440
0.203066,-0.016955,0.139967,0.989035,0.036109,0.143201
0.205036,-0.018271,0.094708,-0.309476,-0.596811,-0.740298
-0.483385,0.260194,0.611628,0.833356,0.485133,-0.264886
0.575091,-0.109952,0.342364,0.893741,0.381790,0.235506
0.583388,-0.086473,0.339190,0.768846,0.504955,-0.392295
0.212771,0.057166,0.126169,0.892720,-0.361237,0.269369
-0.593445,0.355230,0.646731,-0.465329,-0.846800,-0.257680
0.229509,0.065453,0.131385,0.892720,-0.361237,0.269369
0.242167,0.087222,0.105609,0.988824,0.124241,0.082410
0.024860,0.174169,0.174988,-0.501920,0.053996,-0.863227
-0.059813,0.207908,0.185309,0.307812,0.251835,0.917513
0.172966,0.138982,0.070920,0.590097,0.759998,-0.272377
-0.106791,0.249934,0.083476,0.217722,0.952808,-0.211552
0.075918,0.213761,0.143527,-0.694172,-0.695647,-0.184935
0.026830,0.233492,0.155201,-0.462234,-0.886412,0.024772
-0.067267,0.271243,0.176644,-0.589554,0.072161,-0.804499
-0.054748,0.264995,0.119987,-0.145876,-0.958332,0.245602
0.107211,0.187585,0.122057,-0.603653,-0.768187,-0.213286
0.052919,0.209750,0.141044,-0.390230,-0.920611,0.014021
