-0.583747,-0.053351,0.426582,-0.840197,0.398102,-0.368217
0.097474,-0.085190,0.116341,-0.037270,0.990167,0.134837
-0.094916,-0.103038,0.684329,0.588972,0.776232,0.224891
-0.148399,-0.074173,0.865506,-0.432872,0.850689,-0.298245
0.426336,-0.033079,0.405673,-0.378996,0.235357,-0.894969
-0.130135,0.472278,0.392171,-0.751975,0.651725,0.098935
-0.352211,0.300741,0.592864,0.300155,0.683141,-0.665752
0.160773,-0.221362,0.907929,0.840352,0.512943,-0.175207
-0.164996,0.042223,0.476816,0.317710,0.916416,-0.243395
-0.108837,-0.329661,0.736945,0.435238,0.209149,0.875685
-0.032392,-0.047622,0.282420,0.406594,0.900496,0.154231
-0.034652,0.553640,0.428802,-0.306471,0.676435,-0.669710
-0.474879,-0.157353,0.517725,0.523646,0.212853,-0.824917
0.050834,-0.145950,0.558029,0.988509,-0.067098,-0.135454
0.067015,-0.047622,0.104736,0.403428,0.888422,0.218981
0.296826,-0.211006,0.778601,0.648487,0.744150,0.160327
-0.790831,0.008070,0.132264,-0.283938,0.338665,-0.897043
-0.040899,-0.305313,0.523215,0.934322,-0.083560,0.346496
0.150541,-0.453384,0.832386,-0.584056,0.084168,-0.807338
0.092953,-0.171289,0.846090,0.273048,-0.335783,0.901496
-0.174039,-0.397857,0.664813,0.363713,0.136290,0.921487
-0.444005,0.062715,0.303228,0.273590,0.622173,0.733518
0.557809,-0.056490,0.837291,0.857136,0.111835,-0.502803
0.454119,-0.372518,-0.947042,-0.086118,0.184610,0.979032
0.450192,-0.304542,0.836221,0.715309,-0.040330,-0.697643
-0.470359,-0.302448,0.554558,0.066262,0.164344,0.984175
-0.217347,-0.158509,0.814263,-0.474247,0.027238,-0.879970
-0.292484,-0.100614,0.327447,-0.184904,0.701987,0.687768
-0.323596,-0.275622,0.546303,-0.568003,0.301678,-0.765744
-0.414973,-0.074448,0.571773,0.720417,0.311910,-0.619444
-0.349654,-0.453329,0.511993,0.300964,-0.152456,-0.941370
-0.341026,0.118352,0.621220,0.833750,-0.079913,0.546328
-0.548826,0.104305,0.555567,0.759430,-0.362717,-0.540095
0.067491,-0.009227,-0.054361,0.799278,0.481560,0.359520
0.002767,-0.190569,0.640877,-0.689702,-0.096199,-0.717675
0.090038,-0.282342,0.676822,0.271268,0.846337,0.458396
-0.554358,-0.505935,0.486079,-0.461024,-0.321644,-0.827044
0.420031,-0.289338,0.509228,0.082874,0.996228,-0.025705
-0.157084,-0.077588,0.833214,0.026183,-0.981390,0.190229
0.105328,-0.520423,0.400163,0.940504,-0.298654,-0.162044
-0.102650,0.122263,0.502266,-0.672906,0.572205,-0.468805
0.099260,-0.123640,0.360768,0.407153,0.896651,0.173905
-0.462982,0.378192,0.637951,0.327965,0.063944,-0.942523
0.398436,-0.271049,-0.958062,-0.026779,0.223337,0.974373
0.783515,-0.388658,0.542004,0.092554,0.421326,0.902174
0.012583,-0.502245,0.788510,0.862158,0.041633,0.504927
0.144056,-0.078580,-0.979233,-0.164147,0.220766,0.961415
0.284334,-0.122098,-0.653592,-0.207429,-0.963059,0.171731
0.000565,-0.068279,0.673169,0.618036,0.759278,-0.203785
0.176239,-0.487592,0.629333,0.747061,-0.521718,-0.411959
-0.024540,-0.248299,0.502730,0.900817,0.218407,0.375269
0.482495,-0.366128,-0.950937,-0.189674,0.153036,0.969847
-0.016806,-0.270278,0.865566,-0.095141,0.961387,0.258232
-0.259883,0.384747,0.211338,-0.388697,0.341655,0.855679
-0.700109,-0.030270,0.567273,0.270492,-0.177733,0.946174
0.100390,-0.219214,0.835232,-0.480308,0.869995,-0.111414
-0.261251,0.166772,0.545738,-0.257544,-0.841769,0.474443
0.136322,-0.161539,0.831599,-0.372919,-0.721815,-0.583022
-0.323180,-0.163137,0.611128,-0.753694,-0.540234,0.374289
-0.535976,0.207811,0.376550,0.748378,0.282572,0.600070
0.658050,-0.134988,0.880037,0.824815,0.328022,-0.460524
-0.399149,0.377475,0.435200,0.351314,0.908148,0.227696
0.347809,-0.149641,0.746894,-0.328530,0.940783,-0.083638
-0.185342,0.319635,0.681060,-0.075598,0.950358,0.301836
-0.041495,0.132399,0.195818,-0.358019,-0.548545,0.755593
-0.011034,-0.139670,0.809439,0.445497,0.298083,-0.844203
-0.312710,-0.282122,0.455786,0.354884,-0.910269,0.213230
0.158095,-0.139560,0.699688,-0.235700,-0.959503,-0.154271
0.174455,-0.333902,0.686893,-0.435543,-0.681107,0.588554
-0.216156,0.253202,0.775856,-0.532175,-0.605252,0.591996
0.687915,-0.294902,0.733514,0.440624,0.863887,0.244027
-0.612956,0.425455,0.288112,0.404926,0.392208,-0.825959
0.277253,-0.312199,-0.960746,-0.085719,0.204100,0.975190
-0.442576,-0.020519,0.312088,-0.083709,-0.241014,0.966905
0.435795,-0.215082,-0.962058,-0.120795,0.177412,0.976695
-0.717004,0.255405,0.541520,0.541900,0.767201,0.343143
-0.284094,0.079186,0.313723,0.441959,0.870639,-0.216011
0.348226,-0.182802,0.799449,0.721025,0.256894,0.643528
-0.226330,-0.247693,0.779247,0.738417,0.052924,0.672265
0.421934,-0.301237,-0.953924,0.031350,0.020473,0.999299
-0.383443,-0.108657,0.744473,0.937588,-0.198195,0.285739
-0.051429,-0.570055,0.652381,-0.468653,-0.398821,-0.788229
-0.023231,-0.246151,0.558312,0.498959,-0.865504,0.044081
-0.018769,-0.232104,0.814364,0.060489,0.189695,0.979978
0.060412,-0.054287,0.245083,-0.754490,-0.656150,-0.014566
0.116155,-0.050156,-0.079468,0.241714,0.942560,0.230555
-0.251851,-0.429146,0.758903,0.417658,-0.348021,0.839311
0.247153,-0.601840,0.498209,0.535384,-0.425026,-0.729875
0.127577,-0.799488,0.523477,-0.227715,-0.206024,-0.951683
-0.007703,-0.342936,0.600371,-0.244384,-0.182952,-0.952263
-0.564174,0.062330,0.643561,0.267974,-0.745663,0.610063
0.490467,-0.311152,0.505172,-0.637070,-0.568283,0.520765
0.429014,-0.271435,-0.960524,-0.080155,0.236740,0.968261
-0.559296,0.495194,0.442768,0.907593,0.248764,-0.338218
-0.476248,0.345471,0.698175,0.469426,0.619580,0.629094
-0.157797,0.503181,0.252752,0.980717,0.194197,0.021954
0.539249,-0.153221,0.812043,-0.313311,0.949287,-0.026282
0.724738,-0.265596,0.037932,-0.177776,-0.630649,0.755432
0.539011,-0.446718,0.773252,0.848211,-0.417072,-0.326479
0.562332,-0.300631,0.671171,0.988862,0.142817,0.041892
-0.225617,0.407277,0.678921,-0.274319,0.772193,-0.573121
-0.253993,-0.413832,0.688144,0.146848,0.989153,-0.003587
-0.777090,0.477566,0.287991,0.010392,0.625283,-0.780329
0.040899,-0.037651,0.275175,-0.377455,-0.905643,-0.193231
0.545732,-0.452778,0.712928,-0.014909,0.909705,0.414987
0.044944,-0.077864,0.321170,0.697279,0.716581,0.017730
-0.099438,0.053736,0.788127,0.600735,0.678826,-0.422272
0.653291,-0.102763,0.881591,0.635344,0.422181,-0.646607
0.468694,-0.234197,0.691817,-0.538267,0.436022,0.721217
-0.092418,-0.586195,0.524002,-0.201800,-0.563952,-0.800771
-0.357565,0.072576,0.617546,-0.402609,-0.608316,0.684002
-0.673518,0.102322,0.560269,0.436339,0.583302,-0.685104
-0.149230,0.002617,0.280483,0.914908,0.243025,0.322307
-0.146019,-0.627675,0.606931,-0.115923,-0.223151,-0.967866
-0.032094,0.427714,0.621704,-0.113552,0.048618,0.992342
-0.241857,-0.296444,0.811478,-0.148578,-0.850891,0.503894
-0.593681,0.062880,0.264135,-0.128057,-0.164726,-0.977991
-0.251553,-0.100559,0.346075,-0.458495,0.801590,0.383713
0.169756,-0.177789,0.898140,0.069248,0.393094,0.916887
-0.135251,0.238714,0.212670,0.305094,0.869177,-0.389164
0.035010,0.184345,0.371727,-0.021938,0.467405,0.883771
0.183558,-0.009447,-0.325469,0.946783,-0.316452,0.058819
-0.212647,-0.302063,0.434514,0.409887,-0.907574,-0.091119
0.303429,-0.636930,0.391990,0.027956,0.432062,0.901411
-0.708141,0.017104,0.121204,-0.169881,0.255991,-0.951635
0.129301,-0.004434,-0.037731,-0.191637,-0.974445,0.117182
-0.383146,-0.397802,0.422283,-0.598502,0.490324,0.633544
-0.300513,0.621946,0.008285,0.096061,0.317461,0.943393
-0.251851,0.327953,0.612521,0.076008,-0.653928,0.752729
-0.497605,-0.317157,0.489551,-0.550669,-0.696832,0.459553
0.048098,-0.133666,0.490479,0.990177,-0.131114,-0.048573
-0.131681,0.327788,0.675025,-0.450312,0.840868,0.300267
-0.639072,0.446884,0.303107,0.345184,0.581007,-0.737074
-0.306643,-0.071529,0.726167,0.546638,-0.809005,0.216099
0.142033,-0.573856,0.845727,0.091266,0.855536,0.509636
0.029894,-0.101826,0.489611,0.984787,0.152204,0.083832
-0.289390,-0.290054,0.797875,-0.405295,-0.615620,0.675831
-0.102710,-0.088165,0.783828,-0.381868,0.318642,0.867551
0.137691,-0.740546,0.496736,0.031206,-0.635742,0.771270
-0.631458,0.253202,0.309182,-0.398032,0.464036,0.791354
0.676789,-0.270884,0.039184,-0.479872,-0.241985,0.843307
-0.018888,0.126835,0.820297,-0.536404,0.569691,-0.622675
0.266368,-0.445672,0.648022,-0.621486,0.536322,0.571063
-0.365359,0.067342,0.619363,-0.704020,-0.193361,0.683350
0.224546,-0.120225,0.756138,0.855611,-0.072068,-0.512578
-0.200453,-0.030545,0.342382,-0.662795,0.185396,-0.725487
0.176121,-0.020519,-0.157512,0.167219,0.980031,-0.107593
0.057021,0.724571,-0.012422,0.394376,-0.481824,-0.782504
0.178679,0.040350,0.399841,-0.174942,0.857814,0.483270
0.295279,-0.309940,0.869239,0.484015,-0.703930,-0.519819
0.231982,-0.133666,-0.683179,0.997469,-0.040058,-0.058737
0.485707,-0.375272,0.825948,0.398650,-0.405276,0.822696
-0.164045,0.528686,0.215577,-0.050277,-0.364106,0.929999
-0.194859,0.070097,0.858704,-0.409055,-0.843319,0.348549
-0.553704,0.300796,0.487674,0.527851,0.213641,-0.822028
0.069811,-0.052304,0.919816,-0.546156,0.765977,-0.339106
0.140547,-0.742694,0.481357,-0.731612,0.162466,0.662079
0.008954,-0.112072,0.699729,0.404915,0.911561,0.071420
0.195454,-0.585204,0.545920,-0.524063,0.702590,0.481379
0.312710,-0.169251,-0.962925,-0.028896,0.400951,0.915644
-0.339479,0.157077,0.660878,0.531951,-0.761207,0.370934
0.236860,-0.512271,0.724250,0.786544,-0.329368,0.522365
-0.054047,0.061558,0.167765,0.956020,0.160591,0.245431
0.057616,-0.107665,0.553892,0.938378,0.316600,-0.138605
-0.200630,0.386509,0.202135,-0.251495,0.071226,0.965234
-0.136142,0.181315,0.632179,0.415069,-0.459550,0.785195
-0.043280,-0.182747,0.834869,0.483308,-0.815260,-0.319005
-0.362919,-0.225934,0.773091,0.787088,0.371141,0.492694
0.351200,-0.382543,-0.956487,-0.055538,0.200365,0.978146
-0.337993,0.772441,0.204759,-0.494781,-0.248779,0.832647
-0.164758,0.131242,0.184779,-0.462861,-0.724790,0.510333
0.168387,0.765390,-0.021302,-0.082177,0.549384,0.831519
0.017402,-0.003057,0.837997,0.870238,-0.122782,-0.477085
-0.265117,-0.339687,0.636679,0.270407,0.589245,0.761361
0.290163,-0.557000,0.400930,-0.422641,0.673436,-0.606514
0.021804,-0.227036,0.546949,-0.647260,0.681492,0.341502
0.133288,-0.272592,-0.972996,-0.142238,0.185278,0.972338
0.272971,-0.083868,-0.612198,-0.446978,-0.891156,0.077791
0.105328,-0.612967,0.335056,0.857851,0.160834,-0.488082
0.153515,-0.522847,0.621422,0.776964,-0.427488,-0.462148
-0.009845,-0.382268,0.813617,0.818287,-0.571268,0.063711
0.394985,-0.442421,-0.944923,-0.086928,0.302953,0.949033
0.423421,-0.199493,-0.962481,-0.004059,0.141931,0.989868
0.214611,-0.243672,0.900522,-0.383303,0.375296,-0.843938
-0.222939,-0.693558,0.621603,0.892495,0.167756,0.418702
-0.192836,-0.045418,0.298162,-0.723580,0.658559,-0.206719
0.714924,-0.433112,0.541641,0.272282,0.519036,0.810225
0.526042,-0.210786,0.414190,0.470242,0.150833,0.869553
-0.179452,-0.609607,0.766572,-0.238470,0.970602,0.032619
0.271186,-0.288236,-0.958526,-0.017362,0.026763,0.999491
-0.796603,0.423142,0.508764,0.301468,0.697912,0.649643
-0.585294,0.055113,0.544850,0.039539,-0.248437,0.967841
-0.267675,-0.241028,0.826917,-0.099312,0.972143,0.212307
-0.027634,0.289063,0.723079,-0.486075,0.856275,-0.174711
0.655672,-0.241303,0.689900,0.757003,-0.126781,0.640993
-0.261667,-0.586746,0.663340,-0.062474,0.120033,0.990802
0.469467,-0.565098,0.394775,-0.209279,-0.153432,0.965744
-0.152146,0.035062,0.307729,0.778329,0.621478,0.089267
-0.399149,0.462858,0.388276,0.986995,0.160361,-0.011195
0.099736,-0.355441,0.889361,-0.108199,0.801776,0.587748
-0.071656,-0.089762,0.862014,0.915396,-0.401995,0.021219
0.003956,0.573801,0.250371,-0.785962,0.089935,-0.611699
-0.015675,0.377861,0.027216,-0.414430,-0.065731,0.907704
-0.278384,0.654777,0.002977,0.109129,0.454834,0.883865
0.047920,-0.800094,0.629636,-0.579777,0.458152,-0.673762
0.226806,-0.101716,0.760376,0.883908,-0.263996,-0.386023
-0.381243,0.415650,0.648264,0.463070,0.604268,0.648403
0.022755,-0.146666,0.938747,0.941520,-0.042548,0.334261
-0.163747,0.838819,0.252571,0.838040,-0.495999,0.227320
0.256076,-0.064423,-0.611916,0.135076,-0.979085,0.152142
-0.236563,0.216184,0.681645,0.295312,-0.639545,0.709770
0.176477,-0.065414,-0.983693,-0.002868,0.147497,0.989058
-0.075523,0.027020,0.751779,-0.147669,0.844880,-0.514171
-0.168445,-0.308453,0.762314,0.686103,-0.604485,0.404797
-0.206342,-0.065855,0.165847,-0.203252,0.977011,0.064328
0.198548,-0.111411,-0.226637,0.592366,0.539462,0.598401
0.283798,-0.193930,0.362705,0.721460,-0.677354,-0.143831
-0.390760,0.404798,0.644530,0.166344,0.662172,0.730656
-0.153395,-0.449528,0.315378,-0.301884,0.502130,0.810390
-0.277313,-0.421379,0.646387,0.556025,0.458091,-0.693534
0.240727,-0.423582,0.725945,-0.669125,0.081294,-0.738690
0.294446,-0.578979,0.475221,-0.265892,0.678229,0.685060
0.239776,-0.019638,-0.354087,0.949667,-0.286721,0.126185
0.108837,-0.407497,0.558635,0.644314,0.505141,-0.574187
0.007645,-0.411408,0.840621,-0.310204,0.701362,0.641768
0.355245,-0.057317,0.441376,-0.349033,-0.884608,-0.309264
0.341206,-0.121051,0.443515,0.038156,-0.182475,0.982470
-0.188732,0.246151,0.461881,0.898046,-0.014996,0.439645
0.022873,-0.305313,0.919130,0.324297,-0.939192,-0.112917
-0.080103,0.186052,0.688810,0.581594,0.523266,-0.622849
-0.185758,0.388493,0.661826,-0.539632,-0.579685,-0.610543
-0.078676,0.316440,0.180883,0.897908,0.197740,0.393269
-0.300098,-0.206104,0.506383,0.150783,0.849389,0.505769
0.259823,-0.030710,0.223549,0.226638,-0.942690,0.244891
-0.292364,0.286914,0.618354,-0.304874,0.932006,-0.196002
-0.121449,0.436362,0.259614,0.968440,0.245253,0.044433
-0.341860,-0.439392,0.662977,-0.563079,0.751287,-0.344254
0.342277,-0.355661,0.380627,-0.589529,0.178920,0.787682
0.042208,-0.093178,0.420709,-0.438848,0.882905,0.167007
-0.350605,-0.007354,0.598535,-0.031209,0.941432,0.335757
0.079806,-0.202578,0.876343,-0.485765,0.351083,0.800483
-0.657216,0.667667,0.032382,-0.213623,0.130085,0.968216
-0.158273,0.372903,0.214850,0.304975,-0.051524,-0.950966
0.242512,-0.321233,0.886354,0.776679,0.395741,0.490060
-0.167672,0.210510,0.440245,0.840535,-0.228447,0.491237
-0.252802,0.228744,0.577404,-0.575659,0.410250,-0.707327
-0.650851,0.076707,0.548503,-0.529556,-0.352259,-0.771676
-0.398196,-0.156747,0.741001,-0.733143,0.132332,-0.667076
-0.515274,-0.161539,0.308314,-0.310216,0.935726,-0.167879
-0.512478,0.455036,0.159652,-0.222253,-0.078351,0.971836
0.342633,-0.150412,0.721868,-0.293362,0.955681,-0.024755
0.488445,-0.246426,0.698033,-0.275853,0.160517,0.947702
-0.003420,-0.047787,0.158077,0.139820,0.263127,0.954575
-0.420387,0.090809,0.615972,0.334703,-0.703288,0.627184
-0.082483,0.124081,0.820156,-0.159837,-0.556765,0.815147
0.147447,-0.313961,-0.966558,-0.204079,0.153601,0.966829
-0.088671,0.824662,-0.014622,-0.054956,0.385622,0.921019
-0.338946,0.229074,0.762859,-0.059558,0.961509,0.268241
-0.392784,0.567026,0.367912,0.867281,0.366748,-0.336631
-0.292602,0.380340,0.642956,0.632254,0.519021,-0.575214
-0.947648,0.070648,0.154505,0.314966,0.752074,0.578948
-0.104375,-0.055664,0.701767,-0.315837,-0.946071,-0.072085
0.091289,-0.109979,-0.984803,-0.124612,0.214953,0.968642
0.436926,-0.291707,0.497240,0.004972,0.998478,0.054919
0.378625,-0.456634,0.407207,-0.666312,-0.167228,0.726680
-0.555073,-0.097805,0.412354,-0.642323,0.018912,-0.766201
0.080579,-0.060567,0.101204,0.412905,0.890923,0.189119
-0.228471,-0.107225,0.363290,-0.701378,0.370680,0.608822
-0.269281,-0.364475,0.735734,0.959835,0.148396,0.238109
-0.510871,0.709973,0.025904,-0.506870,0.373277,-0.777012
0.227164,-0.152340,0.821165,0.193723,0.969757,0.148468
-0.569946,-0.538821,0.499480,0.546380,-0.807782,0.221263
-0.196288,-0.067232,0.368598,0.442191,-0.232231,-0.866334
-0.754721,0.283774,0.262218,0.992644,0.008488,-0.120775
-0.086944,0.348721,0.244982,0.822664,0.271323,-0.499608
-0.015557,0.013083,0.158723,0.915448,0.391545,0.092996
-0.329843,0.072851,0.597041,0.994249,-0.076124,-0.075324
-0.683452,0.333572,0.260159,-0.094251,0.040548,0.994722
-0.372676,0.120610,0.603701,-0.390606,0.895797,-0.212070
-0.248222,0.233481,0.327790,0.889367,-0.142115,0.434545
-0.136322,0.163467,0.629676,-0.229687,0.856550,-0.462132
-0.145067,0.315559,0.534517,0.959345,-0.241202,-0.146555
-0.759599,0.369433,0.519279,0.328696,0.794307,0.510916
-0.548052,0.751453,-0.001403,0.257253,0.327653,0.909101
0.898986,0.051533,0.032665,0.292685,0.930099,0.221928
-0.051072,-0.095656,0.802799,0.913908,0.213093,-0.345492
-0.140367,-0.064258,0.342866,0.135944,0.653413,0.744695
0.416104,-0.205002,-0.963329,-0.082878,0.088428,0.992629
-0.340611,-0.596552,0.654561,-0.650142,0.608519,0.454995
0.127041,-0.005206,-0.037206,-0.191637,-0.974445,0.117182
-0.054343,-0.442587,0.501559,0.876231,-0.301623,-0.375824
0.125434,-0.026303,-0.164960,0.051789,-0.991410,0.120097
-0.392426,0.401548,0.394977,0.882923,0.227222,0.410874
0.068444,-0.469524,0.789862,-0.625872,0.627830,0.462724
-0.345131,0.081775,0.790872,0.211273,-0.907185,0.363839
0.688748,-0.212053,0.394089,0.077986,0.636092,0.767662
-0.026383,-0.159887,0.925669,0.927676,0.325720,-0.182551
0.476903,-0.166387,0.417964,-0.619331,-0.025128,-0.784727
-0.100032,-0.237668,0.741667,0.264932,-0.633498,0.726974
0.074452,-0.348280,0.712585,-0.265601,0.733146,0.626061
-0.619917,-0.157022,0.542953,0.452212,0.749354,0.483707
-0.333770,0.694384,0.285185,-0.003505,-0.657041,0.753847
0.038164,-0.372022,0.514415,-0.143326,-0.282105,0.948617
0.618133,-0.355606,0.543740,0.127599,0.044889,0.990810
-0.016211,-0.684634,0.528159,0.445740,0.127410,-0.886049
0.080639,-0.039910,0.197150,0.793506,0.608397,0.014210
-0.206640,0.157463,0.267183,-0.532779,-0.831842,0.155519
-0.451501,0.541576,0.374895,0.867281,0.366748,-0.336631
0.726940,-0.080783,0.402484,-0.102366,-0.204144,0.973574
0.260716,-0.145068,-0.213599,0.873459,-0.417611,-0.250340
-0.373925,-0.349877,0.487573,-0.020003,-0.901823,0.431642
-0.029120,-0.358526,0.919695,0.420406,-0.859135,-0.291799
-0.151492,0.090368,0.782355,0.944117,0.225028,0.240844
-0.177548,-0.278101,0.626205,-0.133154,-0.410226,0.902211
-0.134240,0.154929,0.191257,-0.126685,-0.473567,0.871599
-0.280882,-0.404798,0.691999,0.040123,-0.999140,-0.010473
-0.383503,-0.379073,0.445856,-0.796484,0.531886,-0.287595
-0.887921,0.376484,0.539804,0.659199,0.705601,0.259971
-0.080699,-0.421379,0.634056,-0.236703,-0.468722,-0.851041
-0.102888,-0.562563,0.650665,-0.463219,-0.343503,-0.816966
-0.092418,-0.023439,0.736178,0.478466,0.854481,-0.202316
-0.497903,0.738232,0.030606,0.451299,-0.740288,-0.498300
0.617955,-0.102873,0.402081,-0.103277,-0.539349,0.835725
-0.142925,0.653951,-0.010666,0.284024,0.717453,0.636075
-0.654421,-0.176247,0.564689,-0.313554,-0.630701,0.709859
0.111157,-0.314347,0.811316,0.745391,0.319589,-0.585026
-0.128172,0.476244,0.256526,0.867166,0.464763,-0.178938
-0.121212,0.687664,0.231137,-0.470026,0.573985,0.670535
-0.681905,0.118958,0.549452,-0.413996,0.312438,-0.854979
-0.105090,-0.511499,0.600371,0.916303,0.125580,0.380287
0.124543,-0.030380,-0.026873,0.001458,-0.998356,0.057300
-0.014604,-0.871044,0.521358,-0.047600,-0.099875,0.993861
-0.248282,-0.170573,0.821629,0.578730,-0.313553,0.752832
0.177132,-0.516072,0.646871,-0.554804,0.623897,0.550405
-0.254231,-0.164679,0.624328,-0.155106,-0.607867,0.778742
-0.496534,0.143912,0.499299,0.269756,0.579682,0.768895
-0.125078,-0.319250,0.640675,0.551412,0.572010,-0.607247
0.152741,-0.507919,0.389467,0.126940,0.463916,0.876737
-0.307118,-0.180544,0.829278,-0.184952,-0.476623,0.859432
-0.032512,-0.450629,0.757046,-0.487024,0.778813,0.395294
-0.208067,0.178120,0.187806,-0.350799,-0.434712,0.829437
0.511407,-0.165450,-0.038538,0.778921,-0.228923,-0.583846
-0.261547,-0.345801,0.764635,-0.454912,0.832247,-0.316892
0.109551,-0.267028,-0.971967,-0.017529,0.173533,0.984672
-0.285523,0.215909,0.746612,-0.022584,-0.892481,0.450520
0.425503,-0.222629,0.440205,0.616675,-0.022570,0.786894
0.249175,-0.061228,-0.424988,0.654792,-0.753366,0.060720
-0.074392,0.117636,0.486261,0.840559,-0.541720,-0.000780
-0.123352,-0.393340,0.565194,0.863931,0.365970,0.345961
0.236027,-0.100174,-0.668587,0.824563,0.539944,-0.168988
0.290877,-0.153497,0.452980,-0.488463,0.156039,-0.858520
0.410630,-0.011761,0.391021,0.010906,0.875797,0.482556
0.544721,-0.133390,-0.033997,-0.771317,0.112263,0.626472
0.034475,0.426667,0.280523,0.723320,-0.014988,-0.690350
-0.085041,-0.198336,0.820600,0.928304,-0.341858,0.146237
-0.264939,0.070592,0.462628,0.514787,0.855483,0.056060
-0.090395,0.256397,0.704209,-0.612884,0.029763,0.789613
-0.289746,0.099843,0.416794,0.684867,0.496622,0.533220
0.207175,-0.087779,-0.982966,0.083167,-0.225510,-0.970685
0.385228,-0.474316,0.826857,-0.298126,0.748283,0.592616
0.394331,-0.466274,0.391828,0.478148,0.326703,0.815254
0.129421,-0.059080,0.063947,0.780411,-0.625165,0.011307
-0.396412,0.156086,0.319878,-0.425446,-0.576456,0.697634
-0.021446,-0.451676,0.752969,-0.487024,0.778813,0.395294
-0.106101,-0.325144,0.897595,0.359548,0.928862,0.089107
-0.293733,-0.355827,0.510338,0.053112,0.061927,0.996667
0.113180,-0.373509,0.800478,0.844027,0.249865,-0.474537
-0.079270,-0.362437,0.922702,0.740755,-0.279756,-0.610752
-0.078556,0.073732,0.175939,0.862934,0.017491,0.505015
-0.294030,-0.056435,0.727540,-0.815550,0.186777,-0.547715
-0.229482,-0.246757,0.530157,-0.133916,0.975956,-0.171979
0.410988,-0.480321,0.731112,0.338691,0.938564,0.066232
-0.254826,0.537445,0.665822,-0.318007,0.378323,0.869335
-0.181951,-0.311483,0.759145,-0.541331,-0.468359,-0.698284
-0.318837,0.089377,0.740295,0.244873,-0.247762,0.937364
-0.668937,0.272206,0.403514,-0.047495,-0.590884,0.805357
0.143282,-0.391412,0.858765,0.874401,0.242919,-0.420015
-0.174990,0.126119,0.272854,-0.568730,-0.809083,0.148093
0.188673,-0.657807,0.624348,0.296421,-0.899015,0.322346
0.145841,0.867959,-0.039083,-0.041182,0.235448,0.971014
-0.210267,-0.170683,0.400365,-0.614286,0.533778,0.581149
-0.219310,0.453549,0.691514,0.022675,-0.658322,0.752395
0.514144,-0.038477,0.832124,0.801973,0.593630,0.066652
-0.304203,-0.361280,0.662391,0.763258,-0.621368,0.177025
0.364348,-0.273308,0.671938,0.399221,0.532493,-0.746374
-0.318302,0.371581,0.631230,0.907742,0.375266,0.187564
-0.410988,0.399565,0.430396,-0.001559,-0.998962,0.045520
0.256491,-0.090644,-0.276466,0.812738,0.562221,0.152854
-0.197477,-0.077203,0.359335,0.767575,-0.195413,-0.610444
-0.217347,-0.483240,0.683563,-0.503482,0.725589,0.469070
-0.015021,-0.440769,0.743928,0.616270,-0.780126,-0.107768
-0.223950,0.083923,0.309444,0.466917,0.881891,-0.065246
-0.238110,-0.179332,0.355742,0.878013,-0.478070,0.023284
-0.411166,0.436913,0.172265,0.616502,0.251662,-0.746051
-0.616586,0.670587,0.032019,-0.037498,-0.173462,0.984126
-0.916237,0.209739,0.300847,-0.264837,-0.125852,-0.956045
-0.139653,0.465447,0.251824,0.887159,0.446095,-0.118099
0.215623,-0.017655,-0.313602,0.978768,0.201340,0.038418
-0.095214,0.641226,0.290271,0.907841,-0.307203,-0.285396
-0.033106,-0.423527,0.829258,-0.675649,0.733334,0.075628
-0.079032,-0.350648,0.544769,-0.775882,-0.231656,-0.586807
0.616050,-0.426612,0.704613,0.724614,0.657262,0.207223
-0.047680,0.271601,0.682029,-0.259507,0.956329,-0.134500
-0.039590,-0.475969,0.756945,0.814534,0.355627,-0.458327
-0.495583,0.729694,0.034259,0.451299,-0.740288,-0.498300
-0.015377,-0.241138,0.698538,0.456571,0.580706,0.674035
-0.224604,0.237337,0.570986,-0.308132,0.468893,-0.827764
-0.188138,-0.257884,0.847907,0.046040,-0.874852,0.482198
0.244712,-0.181425,-0.966094,-0.160847,0.570946,0.805077
-0.450965,0.814857,0.047600,-0.802316,0.068510,0.592955
-0.237514,0.071143,0.397035,0.497016,0.856097,0.141682
-0.260418,0.112292,0.755149,-0.250423,0.964352,-0.085521
0.344359,-0.376098,-0.952713,-0.000012,0.169146,0.985591
-0.359052,-0.338364,0.489470,0.280800,-0.957272,0.069146
-0.292304,-0.178946,0.874931,0.575538,-0.359321,-0.734605
0.186175,-0.342991,-0.962138,-0.250430,0.141461,0.957744
-0.472263,0.307186,0.690283,-0.564001,-0.687111,-0.458018
-0.143758,-0.606577,0.334127,0.217885,0.210438,0.953017
-0.609090,0.531716,0.463394,0.378278,0.876765,-0.296966
0.472739,-0.144187,0.704996,0.367838,0.925002,-0.095220
0.247806,-0.178450,-0.732383,0.992919,0.115160,0.029169
-0.223355,-0.219930,0.812991,-0.437848,-0.340582,-0.832041
0.109611,-0.244058,-0.973198,-0.084011,0.187833,0.978602
-0.116809,-0.553970,0.627920,-0.384192,-0.586481,0.713047
-0.750854,0.347729,0.270533,0.505681,-0.632477,-0.586736
-0.036199,-0.424133,0.827745,-0.675649,0.733334,0.075628
0.034892,-0.200595,0.818824,0.895399,0.058966,-0.441343
-0.158809,0.321343,0.206858,-0.262154,0.309982,-0.913885
-0.249353,0.194095,0.313703,0.714926,-0.376954,0.588886
0.456795,-0.314402,0.733271,-0.151024,0.694468,0.703496
-0.130253,0.400611,0.607011,0.537088,0.265791,0.800557
0.092478,-0.137797,0.799570,-0.128202,0.942529,-0.308550
-0.054879,-0.088991,0.830247,-0.462182,0.851964,0.246058
-0.579167,0.394332,0.451426,0.235858,0.956500,-0.171692
-0.020553,0.108547,0.803647,0.949150,-0.314122,-0.021025
0.330438,-0.355165,0.445291,-0.059266,0.344089,0.937065
-0.402837,0.177404,0.319213,0.636691,0.734121,-0.235991
0.095631,0.074063,0.861388,0.399979,0.787826,-0.468345
-0.069693,-0.095712,0.655893,0.489439,0.818571,0.300651
-0.507660,-0.124632,0.203023,-0.489068,0.138498,-0.861180
-0.467682,0.191891,0.566768,0.543301,0.837146,-0.063332
0.519557,-0.429642,0.767864,-0.252807,-0.156213,0.954823
0.036379,-0.374445,0.718175,-0.494436,-0.182083,-0.849929
-0.078141,0.119729,0.823950,-0.619664,0.481012,-0.620197
-0.157678,-0.581128,0.324863,0.034658,0.333007,0.942287
-0.330676,-0.050817,0.881449,0.434279,0.462808,-0.772794
0.039055,-0.137301,0.665943,0.307569,-0.951409,-0.014878
0.221392,-0.194315,-0.964015,-0.417996,0.603864,0.678696
-0.041971,0.611039,0.389104,-0.310982,-0.630855,0.710853
-0.281716,-0.166221,0.839935,0.945094,0.308956,0.106505
0.105328,-0.113229,-0.983531,-0.264203,0.208291,0.941707
-0.838543,0.456413,0.460347,0.300611,0.721681,0.623546
0.398674,-0.155039,0.444403,0.305336,0.091173,0.947870
0.459413,-0.435426,0.811054,-0.655362,0.735171,-0.173277
0.489516,-0.367394,-0.950574,-0.152487,0.127799,0.980008
-0.018591,0.169692,0.824697,0.250077,-0.741788,0.622263
-0.397185,-0.611756,0.518391,-0.640551,0.185224,0.745243
-0.357268,0.146776,0.534012,0.859512,0.407132,0.309003
0.073620,-0.099568,0.831620,0.820310,-0.540550,0.186807
-0.100925,0.041727,0.572419,0.782773,0.618680,0.067094
-0.058806,0.424409,0.407954,-0.648313,-0.525791,-0.550667
-0.591421,-0.179442,0.223912,-0.124160,0.204165,0.971031
-0.021684,0.210731,0.166392,0.999927,0.002696,-0.011743
0.424492,-0.174099,0.722232,0.242297,0.898533,-0.365965
-0.040186,0.231498,0.188573,0.935316,0.308651,0.172970
0.290937,-0.222960,-0.959232,0.361771,0.309411,0.879424
-0.115560,0.573195,0.018820,0.124796,0.555706,0.821959
-0.123352,-0.379348,0.628082,0.992365,0.090637,-0.083648
-0.267497,0.268681,0.592319,0.471318,-0.836722,0.278846
0.548708,-0.154323,0.843870,0.816915,-0.359739,-0.450819
0.160653,-0.287686,0.867160,0.448963,-0.609859,0.653073
-0.111217,0.326301,0.653612,0.952742,-0.257046,-0.161892
-0.104612,0.115267,0.793980,0.024685,-0.928435,-0.370674
0.228413,-0.015672,-0.335096,0.957834,-0.266446,0.107516
-0.097832,-0.173327,0.753837,-0.358613,0.830621,-0.425988
-0.531871,0.121767,0.674198,-0.026239,0.969380,-0.244158
-0.678872,0.067838,0.555728,0.841623,0.047487,-0.537973
0.442102,-0.492330,0.390880,-0.104762,-0.248748,0.962886
0.127279,-0.001900,-0.057408,0.171475,0.978506,-0.114550
0.235611,-0.207536,-0.919574,0.488358,-0.872532,0.013971
-0.113358,0.027515,0.206172,0.793129,0.553369,0.254420
-0.423659,-0.226926,0.526484,-0.097181,0.941080,-0.323920
-0.223712,0.082932,0.856807,-0.189878,-0.777669,0.599314
-0.167138,-0.611315,0.641200,-0.691765,-0.641692,0.331198
0.106875,-0.288182,-0.969848,-0.085757,0.179643,0.979987
0.390822,-0.293855,-0.952532,0.071308,0.221714,0.972501
0.628543,-0.513427,0.711253,0.185200,0.363408,-0.913037
0.042208,-0.101936,0.739407,0.744924,0.645110,0.170063
-0.247746,0.801361,0.293157,-0.824756,0.429478,-0.367867
-0.098545,-0.585259,0.754140,-0.561315,0.825508,0.058847
-0.289925,-0.221472,0.760255,0.311607,-0.945104,-0.098385
-0.403552,0.167488,0.740759,0.530318,0.258989,0.807271
-0.199143,0.045969,0.457319,0.337328,0.650484,-0.680500
0.256729,-0.070978,-0.587051,0.706994,-0.690693,0.151991
0.176477,-0.520478,0.826231,-0.614427,0.401116,0.679401
0.579582,-0.411959,0.701242,0.945299,0.320212,0.062245
-0.296351,-0.581293,0.673088,0.223191,-0.833674,0.505147
-0.022993,-0.296995,0.938202,-0.455308,-0.863136,-0.218381
-0.105268,0.316495,0.221894,0.780870,0.483813,-0.395181
-0.627413,0.038092,0.294812,-0.545215,-0.095094,-0.832885
0.242452,-0.206324,-0.897252,-0.924112,0.375554,0.070536
0.334483,-0.071915,0.436673,-0.257622,0.417024,0.871620
-0.136322,0.336712,0.427975,0.950259,0.304747,0.064327
0.013890,-0.132123,0.820701,-0.258241,-0.890511,0.374569
-0.124721,-0.317762,0.709154,0.581614,-0.624107,-0.521743
-0.479699,-0.235299,0.541782,-0.209329,-0.922426,0.324516
-0.053036,-0.436583,0.748751,-0.506975,0.847122,0.159251
-0.704214,0.086733,0.295377,-0.221053,0.926100,0.305735
0.127815,-0.623489,0.442183,0.894482,0.365424,0.257617
-0.040364,-0.155535,0.835898,0.146246,-0.955263,0.257069
0.219965,-0.563555,0.478693,-0.458472,0.433470,0.775827
0.488504,-0.513097,-0.938868,-0.144779,-0.102061,-0.984186
-0.318659,0.128212,0.611189,-0.202328,0.907946,-0.367012
-0.250959,0.394662,0.021423,-0.062181,-0.209629,0.975802
-0.533596,0.680723,0.030263,0.021665,-0.167596,0.985618
0.411999,-0.270113,0.690223,-0.487833,0.510415,0.708164
-0.373329,-0.534911,0.653067,0.699344,0.354170,0.620871
-0.255540,-0.395378,0.697973,0.071601,0.995876,-0.055718
-0.419554,0.564657,0.016075,-0.177834,-0.064353,-0.981954
0.363395,-0.414383,0.788147,-0.405430,0.712672,0.572472
-0.153277,0.457460,0.436572,0.966732,0.117473,-0.227221
0.224188,-0.372352,0.761910,-0.227226,0.659583,0.716462
-0.148636,-0.163412,0.811881,-0.067982,-0.355294,0.932279
-0.157500,-0.251935,0.678578,0.753793,-0.638737,-0.154307
-0.638061,0.737516,0.037630,-0.196117,0.046868,0.979460
-0.033225,-0.160878,0.898806,-0.653436,0.409626,-0.636575
-0.347035,0.368717,0.454252,0.187344,0.982266,0.007454
0.243821,-0.133390,-0.966619,-0.065415,0.395468,0.916147
-0.349296,0.146666,0.457461,-0.446048,-0.870202,0.209258
0.439542,-0.522626,-0.940906,-0.096783,0.132861,0.986398
0.423778,-0.376484,0.761466,-0.085969,0.993095,-0.079828
0.419376,-0.593907,0.480933,0.586532,0.309291,-0.748544
0.468456,-0.320241,-0.958869,0.010575,0.293761,0.955820
0.125256,0.003884,-0.116926,0.535869,0.844296,0.002730
0.004492,0.254799,0.334107,0.838201,0.379075,0.392073
0.495345,-0.174154,0.815312,-0.085292,0.955049,0.283914
0.417769,-0.101440,0.434554,0.251601,0.027059,0.967453
0.242154,-0.315724,-0.959757,0.154960,-0.166766,-0.973744
-0.142627,-0.241028,0.871681,0.815268,0.560844,-0.144193
-0.265712,0.279147,0.765381,-0.554552,0.832136,0.004773
0.512360,-0.500868,-0.939231,0.103991,0.269769,0.957293
-0.298908,0.353348,0.637123,-0.402367,-0.107266,-0.909173
-0.017697,-0.106123,0.752162,0.807184,0.013998,0.590134
0.022636,0.801306,-0.025763,0.188699,0.223052,0.956368
-0.176655,-0.597047,0.657326,0.305562,-0.594955,0.743411
-0.334245,0.030435,0.491428,-0.650568,0.755536,-0.076987
-0.321217,0.358361,0.645277,0.940101,0.025331,0.339953
-0.220024,0.074889,0.505071,-0.109199,0.975942,-0.188714
-0.275409,0.788911,0.295438,-0.194124,0.179592,-0.964397
-0.274993,-0.355827,0.758943,-0.358888,0.783210,-0.507721
-0.122578,0.096813,0.747661,0.713173,0.428014,-0.555147
0.165294,-0.024431,-0.108631,0.598738,0.800093,0.036917
-0.906005,0.462803,0.468359,0.858958,0.467489,0.208913
0.507362,-0.371251,0.694663,-0.244561,-0.057344,0.967937
0.487493,-0.530063,0.382423,-0.277949,-0.003790,0.960588
-0.203069,0.044537,0.381475,0.448789,0.893525,0.014196
0.417353,-0.284215,-0.955700,-0.093786,0.268288,0.958763
-0.240905,0.311262,0.801185,-0.567104,0.398076,0.721061
0.189803,0.046300,0.859814,-0.224671,-0.932077,-0.284173
-0.467265,-0.367340,0.478410,0.754415,0.656173,0.017180
-0.211516,-0.282287,0.470317,-0.670798,0.720860,-0.174331
-0.042386,-0.032638,0.766592,0.822819,0.407885,-0.395724
0.354056,-0.187815,-0.966699,-0.035256,0.177788,0.983437
-0.273922,-0.121547,0.907828,-0.396860,0.600768,0.693960
0.150541,-0.264715,0.898947,0.493677,-0.086805,-0.865302
-0.361610,-0.023714,0.719467,0.879921,-0.471772,-0.056294
-0.586067,0.378467,0.283692,0.097795,-0.167629,0.980988
0.400338,-0.473325,-0.942077,-0.132646,0.305333,0.942962
-0.301942,-0.239706,0.518512,-0.277469,-0.957269,-0.081531
0.624795,-0.035007,-0.001423,0.493204,-0.056977,-0.868046
0.215385,-0.201807,0.900502,0.567470,0.631632,0.528223
-0.590350,-0.126945,0.512538,0.569222,0.705412,0.422352
0.338946,-0.174705,-0.962199,-0.036822,0.187656,0.981544
-0.134835,0.143636,0.614620,-0.546037,0.667850,-0.505786
-0.439960,0.087504,0.250229,-0.290095,-0.891305,-0.348454
-0.114786,0.009778,0.219028,0.728481,0.655199,0.200073
0.385170,-0.184345,-0.963753,0.036994,0.176524,0.983601
0.811356,0.069381,0.006024,-0.301699,0.747702,0.591540
-0.288794,-0.115818,0.711535,0.712435,-0.099790,0.694606
0.433951,-0.451401,-0.945770,-0.098738,0.339604,0.935372
-0.439900,0.100835,0.619020,-0.238516,-0.905059,0.352105
-0.921591,0.499766,0.486241,0.858958,0.467489,0.208913
0.187482,-0.528190,0.648345,-0.425058,0.759484,0.492453
-0.218952,-0.185336,0.805867,-0.542207,0.711734,-0.446594
-0.300455,0.124687,0.792224,0.845882,-0.369321,0.384818
0.148814,-0.017875,0.879613,-0.435245,0.789446,0.432825
-0.202415,-0.672350,0.634984,-0.093941,-0.513411,0.852986
-0.506113,0.205332,0.307426,0.055817,0.716332,0.695524
-0.520092,-0.216129,0.519299,0.816606,0.253620,-0.518490
0.216396,-0.709092,0.463233,0.302441,-0.949553,-0.082942
-0.087362,-0.385738,0.916143,0.886875,-0.262994,-0.379850
-0.315148,0.104085,0.418893,0.767647,-0.199836,0.608920
-0.027871,0.684579,0.294772,-0.518526,0.855051,-0.004264
-0.484577,0.474977,0.485958,0.320087,0.946537,-0.040144
0.083614,0.052194,0.792062,-0.498821,-0.669001,0.551013
-0.111991,-0.237502,0.909160,-0.572329,0.390284,0.721192
-0.268330,-0.236841,0.826534,0.447242,-0.774592,0.447193
-0.405277,0.395323,0.176201,0.189311,0.512419,0.837609
-0.107350,0.215523,0.408660,0.885993,-0.151034,0.438412
-0.507956,0.115212,0.609958,0.824257,-0.032717,-0.565270
0.023409,-0.098962,0.610200,0.336343,0.909273,0.245145
-0.022636,-0.259702,0.534153,0.827583,-0.544455,-0.136658
0.269281,-0.149145,0.900966,-0.643466,0.611780,-0.460083
-0.022100,0.496791,0.025359,0.350565,0.301001,0.886850
0.419138,-0.393836,0.789883,-0.210114,0.841883,0.497076
-0.223297,0.170959,0.552681,0.067446,-0.996913,-0.040195
0.344537,-0.078249,0.405693,0.975957,0.215211,-0.034516
0.577144,-0.242240,0.673673,0.270570,0.753424,-0.599286
0.123174,-0.358305,0.918605,0.922920,0.258329,-0.285455
0.344300,-0.305258,0.743625,0.390690,0.379279,0.838754
0.079330,-0.359573,0.502770,-0.428572,-0.254919,0.866800
-0.301585,-0.053957,0.318324,-0.078968,0.728189,0.680812
-0.224784,0.417908,0.653753,-0.487831,0.267166,-0.831049
-0.169874,0.575123,0.412878,0.320490,0.210020,0.923676
0.570183,-0.117691,0.853376,-0.739844,0.623319,0.253190
0.022517,-0.077037,0.907606,-0.409328,0.911500,0.040236
-0.192123,0.026193,0.108934,-0.067744,-0.959196,0.274508
-0.413011,0.030380,0.612541,0.915221,0.288883,0.280922
0.226450,-0.262401,-0.957779,0.254097,0.433714,-0.864481
0.054463,-0.420938,0.781890,0.097152,-0.372963,0.922746
-0.103661,0.103809,0.189178,0.248195,0.261600,0.932719
0.121925,-0.406340,0.836161,-0.497076,0.861962,-0.099682
-0.261785,-0.273749,0.507069,-0.617662,0.463170,-0.635584
-0.010976,0.082601,-0.997013,-0.098564,0.107067,0.989354
0.988399,-0.008456,0.039103,-0.360239,0.918381,0.163719
-0.000149,-0.334343,0.926173,-0.565523,0.694838,-0.444279
-0.129717,0.203680,0.856222,-0.392431,-0.899569,0.191763
0.103365,-0.546203,0.524325,-0.499420,0.197049,0.843654
0.003242,0.643815,0.397035,0.237236,0.969014,0.068789
0.511942,-0.093894,0.418650,0.183025,-0.490050,-0.852263
-0.203604,0.330267,0.621926,-0.355784,0.562667,0.746207
-0.151492,0.324097,0.533164,0.964682,-0.192485,-0.179828
0.395698,-0.125348,0.442627,0.289044,-0.043574,0.956324
-0.641333,-0.255295,0.220178,0.205512,0.497060,0.843028
-0.740384,0.141543,0.559341,-0.500488,0.672089,-0.545718
-0.336328,0.279753,0.675631,-0.154285,0.950818,0.268592
-0.106219,0.343598,0.450478,0.903724,-0.023752,0.427455
-0.092180,0.120941,0.521075,0.812309,0.361160,0.457949
0.651329,0.046300,-0.003582,0.288017,-0.160464,-0.944086
-0.228769,-0.237833,0.741728,0.493995,-0.366260,0.788557
0.154348,-0.319635,0.681221,0.644520,0.746038,0.167396
-0.726405,0.506211,0.475908,0.224874,0.423592,0.877498
-0.317468,0.448206,0.020233,-0.408801,-0.356192,0.840244
0.515691,-0.283554,0.497825,0.415055,0.869659,-0.267251
0.230138,-0.463244,0.631714,-0.332477,0.501113,0.798965
-0.214134,0.776241,0.273540,0.836578,-0.479397,0.265171
0.172552,-0.552098,0.645680,0.813554,-0.235380,-0.531720
-0.592968,0.322500,0.525757,-0.801262,0.536980,0.263878
0.364228,-0.346462,0.770851,0.760112,-0.020824,-0.649458
0.220263,-0.072851,-0.322280,0.997128,-0.074643,0.012816
-0.329307,0.026028,0.512619,0.894775,-0.442974,0.056144
-0.149230,0.044317,0.839208,-0.207283,-0.956553,0.205038
0.465124,-0.169582,0.767682,0.269415,0.924945,-0.268126
-0.630267,-0.446332,0.578857,0.516382,0.322262,-0.793409
0.107708,-0.127496,-0.978264,-0.221780,0.065938,0.972865
-0.116036,0.121492,0.608606,0.706521,-0.432957,0.559800
0.306405,-0.356047,0.745966,0.187796,-0.324074,0.927205
-0.380766,0.560360,0.448137,0.566539,0.808064,-0.161450
-0.745976,0.145234,0.527816,0.522970,0.690429,0.499810
-0.189981,-0.106343,0.654783,-0.220354,0.918373,-0.328687
-0.040126,0.556780,0.360505,-0.163230,0.855941,-0.490634
0.273446,-0.463795,0.705985,-0.533011,0.835245,0.135145
-0.144829,-0.201972,0.852993,-0.569269,0.015854,-0.821999
0.172314,-0.440438,0.570522,0.842488,0.480391,-0.243800
0.326036,-0.152340,0.735027,-0.533757,0.820485,0.204715
-0.214907,-0.225879,0.748388,0.502554,-0.812006,0.296792
-0.167852,0.196849,0.585598,0.792942,-0.143378,-0.592187
-0.166661,0.397912,0.630746,0.906424,0.061150,0.417919
-0.037448,0.031867,0.166433,0.866198,0.408763,0.287428
0.249235,-0.163026,0.886152,0.877974,-0.438663,-0.191669
-0.036617,0.142975,0.160540,0.981209,-0.108550,0.159515
0.616824,-0.403256,0.412051,0.286301,-0.139276,0.947963
0.218419,-0.081830,0.903549,0.381723,0.649535,0.657565
-0.241083,0.129038,0.637345,0.896305,-0.376326,-0.234556
0.274339,-0.115598,0.864173,0.905858,-0.396991,-0.147712
-0.789464,0.240808,0.295296,-0.371733,0.517397,0.770789
0.308010,-0.137742,0.317638,0.873143,0.211755,-0.439068
0.201879,-0.286584,0.427732,0.831199,-0.086428,-0.549216
0.307772,-0.606357,0.384603,-0.012718,0.212756,0.977023
-0.172312,-0.092021,0.931945,-0.725278,0.172970,0.666373
-0.233707,0.039799,0.246657,-0.147138,0.695383,-0.703415
-0.265594,0.264660,0.766794,-0.554552,0.832136,0.004773
-0.237158,0.479494,0.518714,0.720894,0.354903,-0.595278
-0.357923,0.025863,0.742313,-0.744148,-0.030465,-0.667320
0.077783,-0.131517,-0.982825,-0.199633,0.313007,0.928533
0.568041,-0.189413,0.653572,0.999480,-0.027004,-0.017606
0.362979,-0.440163,-0.948172,0.116758,0.168271,0.978802
0.106875,-0.168149,-0.976589,-0.109582,0.324468,0.939528
0.547637,-0.208032,0.865304,-0.624506,0.740381,0.248654
-0.225259,-0.274079,0.872024,0.051663,0.836032,0.546243
-0.075345,0.500041,0.321675,0.256501,0.936682,0.238400
0.523959,-0.221087,-0.008507,0.366392,0.851104,0.376005
-0.565841,0.705952,0.027862,0.119284,-0.138720,0.983122
-0.616764,0.273033,0.269605,-0.672392,0.685044,0.280364
-0.414498,-0.284491,0.525273,0.529810,0.729030,-0.433378
-0.626698,-0.408599,0.472113,0.835072,0.268824,0.479989
-0.124661,0.222795,0.416733,0.872748,-0.212549,0.439470
-0.394033,-0.279037,0.500106,-0.083360,0.177641,0.980558
-0.454415,0.340954,0.604267,0.010686,-0.523634,0.851876
0.791189,-0.485223,0.557989,0.197633,0.417562,0.886895
-0.376007,0.440934,0.201853,-0.572457,-0.175183,0.801002
-0.071240,0.153221,0.834122,-0.557230,0.622858,-0.549129
0.268866,-0.165450,0.762294,0.081237,0.546021,0.833823
-0.059163,0.246757,0.238605,0.438615,0.692249,-0.573070
-0.435259,0.160878,0.160963,-0.378460,-0.418452,0.825631
-0.196703,-0.099072,0.844375,0.550609,0.830909,-0.080123
0.589459,-0.495910,0.709618,0.522709,0.271386,0.808162
-0.565899,-0.031206,0.292733,0.206119,-0.086552,-0.974692
-0.335792,-0.117195,0.864496,-0.599669,0.646157,0.472100
0.381481,-0.042003,0.814101,-0.687881,0.108843,-0.717616
-0.379992,-0.067232,0.742979,0.954210,-0.248647,0.166309
0.846872,-0.048448,0.053614,-0.559656,0.522907,0.642925
-0.558047,-0.128267,0.211036,-0.316608,-0.123282,-0.940511
-0.420625,0.120996,0.470741,-0.259157,0.882682,-0.392059
-0.252684,0.118076,0.878745,0.071372,0.797754,-0.598744
-0.695351,0.425125,0.490479,0.880394,-0.269671,-0.390107
-0.318777,0.356157,0.390678,-0.270222,-0.597583,0.754900
0.525446,0.035227,0.368457,-0.063299,0.498963,0.864309
-0.053690,0.156141,0.865041,0.057795,0.560098,0.826408
-0.457033,0.104305,0.624529,-0.189218,-0.910548,0.367557
-0.206162,-0.269177,0.826897,0.562153,0.577779,-0.591739
0.147743,-0.230341,0.283530,0.765117,-0.343947,-0.544332
-0.277611,-0.237172,0.326660,0.992142,0.123951,-0.017027
-0.225497,-0.024375,0.353542,-0.686428,0.619514,0.380815
-0.040602,-0.176412,0.463637,-0.170416,0.636781,0.751976
-0.050478,0.591318,0.251824,0.922803,0.384135,-0.029581
0.285225,-0.140827,-0.972592,-0.023450,0.336300,0.941463
-0.216394,-0.313741,0.772869,0.501536,-0.730730,0.463136
-0.238227,0.211557,0.772849,0.600143,0.133399,-0.788691
-0.102472,-0.586195,0.667639,0.383369,-0.129420,0.914483
0.490407,-0.578979,0.391223,-0.476353,0.337993,0.811695
-0.231506,0.546203,0.429730,0.269308,0.334451,0.903115
-0.492369,0.415485,0.011474,0.094412,0.025994,0.995194
-0.363633,0.029719,0.645963,-0.787947,0.576695,0.215785
-0.207233,0.342331,0.019223,-0.209835,-0.371105,0.904572
0.011750,-0.130526,0.439075,-0.625727,0.777611,0.061529
-0.326689,0.473545,0.655348,0.245789,0.007618,-0.969293
-0.029596,-0.335610,0.874144,0.898550,-0.435431,0.054847
-0.617239,0.335665,0.160782,-0.195600,-0.274711,0.941422
-0.036437,-0.488804,0.573731,0.891987,0.354593,0.280399
0.449894,-0.591374,0.508038,-0.697958,0.214009,0.683414
0.551682,-0.554080,-0.938949,0.099718,0.228203,0.968494
-0.212767,-0.122538,0.884436,0.797264,0.549854,-0.249061
0.156311,-0.206104,-0.970574,-0.241643,0.295772,0.924190
-0.720811,0.177789,0.527150,-0.601573,0.721251,0.343376
0.290937,-0.586912,0.489672,-0.563387,0.571276,0.596858
-0.323180,-0.627730,0.692019,0.192872,0.630626,0.751739
-0.693922,0.430248,0.278465,0.228452,0.502883,-0.833618
-0.428834,0.503677,0.407248,0.998724,-0.042721,0.026913
-0.299502,-0.366128,0.786936,0.094452,-0.857286,0.506102
0.177310,-0.041727,-0.254771,0.574981,0.816504,0.052142
0.441387,-0.555513,0.413605,-0.144011,0.317067,0.937406
0.058985,-0.122208,0.516716,0.994636,0.037495,-0.096401
-0.246913,0.260583,0.591067,-0.618596,0.696671,-0.363301
0.042982,-0.203625,0.235476,0.996926,0.062602,0.047109
0.556500,-0.020850,0.387873,0.071928,0.490570,0.868428
-0.329843,-0.125403,0.855132,-0.538686,0.584325,-0.606944
-0.126386,0.455312,0.212004,0.550410,0.668707,0.499879
-0.217883,-0.361831,0.702332,0.103398,-0.848161,0.519550
-0.663166,-0.015672,0.573206,0.683241,0.533873,-0.498158
0.030845,-0.098411,0.457562,-0.525081,0.849707,0.047832
0.578869,-0.406726,0.699890,-0.705460,0.308686,0.637997
0.315744,-0.056270,0.435523,-0.139687,-0.937034,-0.320086
-0.042684,0.237007,0.717025,-0.662852,0.747461,-0.043921
-0.563163,-0.173878,0.225870,0.341708,0.071712,0.937066
0.142747,-0.729253,0.447672,-0.012739,0.632237,0.774670
-0.222819,-0.214807,0.753171,-0.292671,0.945796,-0.140764
-0.118178,0.328063,0.220037,-0.473208,-0.380126,0.794719
-0.125792,0.361060,0.436128,0.921155,0.318574,0.223571
0.276004,-0.072851,-0.554477,0.632441,-0.774558,-0.008863
-0.353401,0.310877,0.649757,-0.115887,0.958965,-0.258760
-0.254529,0.297326,0.354229,0.546960,-0.607451,0.576054
-0.101759,-0.249787,0.900058,-0.283041,0.278221,0.917867
-0.095154,-0.004269,0.820721,-0.599566,-0.418319,0.682298
-0.525090,-0.400171,0.541399,-0.164910,-0.307907,0.937015
-0.597846,-0.554851,0.484788,-0.461024,-0.321644,-0.827044
-0.028943,0.559259,0.021302,0.049409,0.319221,0.946391
0.622833,-0.076046,0.887302,-0.418078,-0.289968,0.860889
-0.087480,-0.190404,0.857735,-0.476000,0.872086,0.113530
-0.314732,-0.215303,0.510641,-0.376388,0.850138,0.368236
-0.068384,-0.361280,0.927546,0.823490,0.291972,-0.486433
-0.053512,-0.482193,0.556899,0.833788,0.434939,0.340037
-0.312174,-0.675434,0.706994,0.055299,-0.982275,-0.179101
0.546388,-0.104470,0.860480,-0.726015,-0.658888,0.196895
0.644962,-0.028727,0.905648,0.650325,0.051849,-0.757885
-0.022278,-0.024320,0.549674,-0.638167,-0.716537,0.281633
-0.489811,0.741482,0.021605,0.827482,-0.274103,-0.490042
-0.486242,0.827196,0.012543,0.997493,0.070642,-0.004214
-0.367917,0.274961,0.598595,-0.250407,-0.648461,0.718884
-0.155537,0.027515,0.304762,0.895268,0.437823,0.082505
-0.313601,-0.648277,0.715814,0.563270,0.789635,-0.243317
-0.300098,0.333737,0.636437,0.633944,0.762800,-0.127480
-0.242214,-0.392900,0.698336,-0.070576,-0.946813,0.313951
-0.033939,-0.506651,0.739427,0.935818,-0.352381,0.008457
-0.081472,-0.316661,0.914649,0.805780,0.409357,0.427956
0.051727,-0.251825,0.885748,0.136611,0.949477,-0.282542
-0.267259,0.054122,0.246940,-0.152442,0.579433,-0.800637
-0.250722,-0.520919,0.520551,-0.066683,0.177551,0.981850
0.112406,0.136475,0.640695,0.475005,0.109295,-0.873170
-0.260061,-0.594128,0.687034,-0.758434,-0.340965,0.555446
0.312234,-0.218828,0.768328,0.174486,0.431869,0.884898
-0.256491,0.256617,0.591733,-0.612514,0.716042,-0.334830
0.383385,-0.554686,0.391364,0.253608,0.143560,0.956595
-0.155537,-0.328835,0.664591,0.781562,-0.577900,-0.234931
-0.070049,-0.553419,0.742495,-0.581625,0.680868,0.445119
0.063626,-0.118352,0.338688,0.352350,0.907707,0.227854
0.207353,-0.172997,-0.978930,0.349445,-0.330585,-0.876699
-0.695469,0.231939,0.589150,0.086424,-0.638310,0.764912
0.637763,-0.439061,0.712181,0.744164,0.619034,-0.251033
0.297422,-0.293029,-0.961815,-0.123410,0.109090,0.986341
0.033939,0.347619,0.033412,0.524752,0.231172,-0.819265
0.590470,-0.039469,0.881086,-0.552994,-0.191486,0.810883
0.463458,-0.293800,0.475463,-0.346601,-0.598144,0.722559
0.260300,0.006473,0.245850,0.994181,-0.095976,0.048917
-0.217347,0.783292,0.256870,0.824747,-0.509931,0.244464
0.312830,-0.056270,0.433626,-0.212031,-0.919358,-0.331396
0.222106,-0.053846,-0.412152,0.748437,-0.651950,0.121669
0.458044,-0.219985,-0.963510,0.030939,0.260998,0.964844
-0.224784,-0.213650,0.780962,0.282759,-0.958974,0.020417
-0.692138,0.118793,0.561682,-0.313021,-0.565288,0.763196
-0.853059,-0.007354,0.136402,0.266091,-0.379561,0.886075
-0.731401,0.446553,0.283873,-0.000108,-0.534249,0.845327
0.054463,-0.059024,0.590825,0.936265,0.040357,0.348969
-0.183616,0.419065,0.641563,0.898108,0.149842,0.413461
-0.253695,0.316110,0.632401,0.033541,0.600419,0.798982
-0.169516,0.012257,0.813314,0.262598,0.930760,-0.254416
0.241916,-0.057041,0.743141,0.818236,-0.440065,-0.369909
0.427170,-0.400612,-0.950594,-0.044156,0.147128,0.988131
-0.430143,0.248740,0.434594,0.705431,0.444830,0.551809
-0.078437,-0.585975,0.634883,0.921751,0.308270,0.235254
0.019186,-0.449252,0.810045,0.735490,0.653967,-0.177147
0.592135,-0.248244,0.412212,0.357917,0.195220,0.913118
0.202713,-0.255956,-0.963571,0.336874,-0.082506,-0.937928
0.194623,-0.074393,-0.377216,0.622621,-0.775846,0.102009
-0.440851,-0.213816,0.554154,0.265361,-0.565281,0.781051
0.366073,-0.629603,0.505333,0.564856,-0.623627,-0.540395
-0.562747,-0.034071,0.305125,-0.205578,-0.087723,0.974701
0.365299,-0.069876,0.441678,0.473553,0.376629,0.796177
-0.261489,-0.644146,0.675490,-0.133634,0.828027,0.544530
0.048158,0.091966,-0.033250,0.957887,-0.010668,0.286948
-0.155655,0.202192,0.446340,0.826991,-0.248057,0.504533
0.104079,0.321729,0.188250,-0.172330,0.394121,0.902758
-0.243106,0.091305,0.303208,0.451700,0.560095,0.694450
-0.115322,-0.136034,0.871298,0.959367,-0.003712,-0.282135
0.599751,-0.124687,0.410961,0.162170,-0.578662,0.799282
-0.042862,0.719173,-0.014400,-0.037063,-0.147419,-0.988380
-0.562092,0.125623,0.725421,0.185293,-0.910260,0.370262
0.064517,-0.098135,-0.983693,-0.169036,0.180615,0.968919
-0.253517,0.140496,0.768146,0.496578,-0.442869,0.746510
