0.775464,-0.754899,-0.847123,0.226930,-0.142776,-0.963389
0.899734,0.235669,0.158036,-0.175559,-0.257539,0.950185
-0.371441,-0.648327,0.284496,-0.699705,0.708087,-0.095002
0.062495,-0.240555,0.810894,0.102790,0.817739,0.566336
0.022993,0.355946,-0.972720,-0.262420,0.115391,0.958030
0.142147,-0.171425,0.397746,-0.567592,0.820662,-0.065982
0.529086,0.108675,0.454384,-0.125319,0.346181,0.929760
0.003171,-0.572755,-0.912964,0.356344,-0.065045,-0.932088
0.071074,0.153380,-0.942323,-0.085642,0.390139,0.916764
-0.180135,-0.350315,0.740059,-0.496307,0.737139,0.458590
0.485618,-0.041517,-0.909668,-0.161918,0.373868,0.913239
-0.448209,0.108067,0.493453,0.102997,0.103556,0.989276
-0.048223,0.584017,-0.992825,0.128817,-0.036289,0.991004
-0.130470,-0.350452,0.016467,0.458938,0.805432,0.375040
0.335976,0.131266,0.132278,0.980679,0.125253,-0.150268
0.406978,0.005631,0.639941,0.902529,0.336224,-0.269064
-0.882145,-0.277252,0.264974,0.936578,0.325823,-0.129078
0.478267,-0.418087,0.525854,-0.206408,-0.380806,0.901323
0.239747,0.627703,0.577421,0.517827,0.846672,-0.122482
0.284004,0.436197,-0.959993,-0.190345,0.166921,0.967423
0.368196,-0.080388,0.495075,0.656881,0.068010,0.750921
0.611620,0.134115,-0.042453,-0.765337,0.643101,0.026091
0.620126,-0.661486,0.566697,-0.506388,0.410428,0.758367
-0.145391,-0.357370,0.505723,-0.209509,-0.092321,-0.973439
-0.207020,0.234041,0.522152,0.335076,0.868975,0.364151
-0.180495,-0.337223,0.738056,-0.079393,-0.801154,-0.593169
-0.245442,0.401533,0.281656,-0.071665,0.565937,0.821328
0.102645,-0.111255,0.137095,-0.078439,0.118645,0.989834
0.478555,-0.508039,0.570449,0.678166,0.612424,-0.406237
0.058027,-0.334511,-0.585534,0.976905,0.094549,0.191617
0.123477,0.651242,0.273112,-0.575153,0.816183,-0.055173
0.828732,-0.836645,-0.842331,-0.225009,0.127439,0.965987
-0.326174,-0.691268,0.338497,-0.121239,0.410578,0.903729
0.365314,0.001424,0.410245,0.397374,0.258921,-0.880371
0.088588,-0.119801,-0.612763,-0.258305,0.564208,0.784186
0.006992,-0.669220,-0.906753,-0.132652,0.190147,0.972752
0.297557,0.032834,0.016644,0.316066,-0.636774,0.703293
-0.185396,-0.201141,0.441328,-0.232553,-0.913281,0.334420
-0.343330,0.400854,0.279501,0.259121,0.806170,-0.531926
0.011966,-0.112067,-0.084564,0.455891,0.518006,0.723763
0.160167,-0.136694,0.599326,-0.284054,0.953729,0.098565
-0.610179,-0.211045,0.380861,0.260820,0.586200,0.767035
0.012399,-0.287835,0.523698,-0.561070,-0.101953,0.821466
0.218915,0.045521,-0.897093,-0.010412,0.365828,0.930624
0.171701,-0.399906,-0.939458,0.394454,-0.405193,-0.824757
0.118576,0.757205,0.425938,-0.610472,0.496513,-0.617089
0.057666,0.022454,-0.908933,-0.227876,0.320684,0.919366
0.285951,0.069125,-0.091460,0.788692,-0.614670,0.012043
0.092482,-0.494607,-0.923105,-0.085958,0.452666,0.887527
-0.422549,-0.354998,0.320496,-0.175329,-0.466198,-0.867133
-0.125927,-0.237433,0.312105,0.953126,-0.289172,0.089055
-0.079074,-0.314566,0.546440,0.879134,0.451790,0.151687
0.384776,0.290617,0.391560,0.908268,0.338321,-0.246146
0.219924,0.363407,-0.959917,-0.157662,0.171096,0.972558
-0.472283,-0.165525,0.355331,-0.118290,-0.029866,-0.992530
0.348231,-0.135949,-0.909085,-0.184576,-0.157701,0.970084
0.170330,-0.652261,0.376323,-0.681368,0.134662,0.719447
0.659049,-0.588563,-0.864794,-0.266663,0.176493,0.947492
-0.011029,-0.237499,0.510718,0.681628,0.217033,0.698770
0.089887,0.388238,0.549888,-0.316723,-0.646812,0.693773
0.258559,-0.137845,-0.418307,0.814884,-0.517003,-0.262055
0.175737,0.210503,0.598945,0.983257,0.081746,0.162862
-0.472283,-0.661150,0.409510,0.893139,-0.324576,-0.311372
0.428242,-0.509600,0.555364,0.984565,0.164599,0.059493
0.298709,-0.105964,-0.323691,0.985104,0.149552,0.084880
0.107331,0.185809,-0.316263,-0.420735,-0.518094,0.744688
0.423701,-0.571331,-0.894178,-0.213626,0.191745,0.957913
-0.149786,0.202226,0.553311,-0.237145,-0.971474,0.000104
-0.312260,-0.676818,-0.006883,0.101590,0.769101,0.631001
0.682981,-0.392648,-0.877496,-0.286785,0.190614,0.938840
0.384776,-0.247200,0.682736,0.314757,-0.938608,0.141220
0.342175,0.425345,0.618999,-0.170448,0.559875,-0.810856
0.156058,-0.350994,0.811097,-0.539149,0.284657,-0.792647
0.161320,0.796892,0.354342,-0.176000,-0.527808,0.830929
-0.641678,-0.427920,0.448325,-0.253411,0.961881,-0.102803
-0.059540,-0.052576,0.025644,0.164522,0.784620,-0.597749
-0.482448,-0.282001,0.357714,0.914372,0.200266,0.351876
-0.147048,-0.199647,-0.179687,-0.209504,0.843012,-0.495417
-0.331579,0.090768,0.282442,-0.184188,0.480947,0.857184
-0.000001,-0.754763,0.302775,-0.516146,-0.424474,-0.743918
0.015499,0.039277,0.704539,-0.722637,-0.174562,0.668823
0.316442,-0.408588,-0.920722,-0.133058,0.126775,0.982967
0.807469,0.410012,0.526082,0.695872,0.449047,0.560463
0.017661,0.104945,0.363545,0.658813,0.408485,-0.631748
0.293520,-0.193336,0.636898,-0.760090,0.649319,0.025465
0.129388,-0.121635,0.655406,0.144625,-0.912676,0.382239
-0.417863,-0.240281,0.557874,0.428781,-0.248955,0.868429
0.827434,-0.581371,-0.854780,-0.099550,0.094167,0.990567
-0.474375,-0.051355,0.349196,-0.302102,-0.209777,-0.929907
0.097528,0.684689,0.411360,-0.535811,0.276615,-0.797741
-0.209400,-0.023406,0.503163,-0.663568,-0.709889,0.236084
-0.307935,0.459330,0.306527,0.793494,0.157647,0.587806
0.205579,0.462249,0.583201,-0.033627,0.541051,0.840317
0.057378,0.874431,0.380506,-0.190351,0.978382,0.080841
0.073164,0.154668,0.648383,-0.506921,0.857914,-0.083751
0.146329,-0.858962,0.364686,0.151928,0.969568,-0.191978
-0.156852,-0.474596,0.521391,-0.093105,0.152915,-0.983844
0.166654,-0.171156,0.333046,0.821892,0.312325,0.476389
0.341744,0.333492,0.525220,-0.774556,0.558016,0.297795
0.392200,-0.315377,0.495481,0.734954,-0.553583,-0.391647
0.377640,0.018111,0.053938,-0.268475,-0.841439,0.468937
0.154472,-0.613187,-0.899578,0.239038,-0.114038,-0.964291
0.445253,0.344278,-0.084818,0.380708,0.922054,0.069846
-0.446984,-0.100738,0.113010,-0.097586,0.963898,0.247746
0.232899,-0.096805,-0.137475,0.860473,-0.484068,0.158950
-0.489728,-0.622954,-0.000849,0.966719,-0.222694,0.125942
0.657897,-0.274946,-0.891237,-0.180504,-0.081893,0.980159
-0.575506,-0.046469,0.353227,0.412285,0.312126,0.855920
-0.024364,-0.159827,0.528262,-0.196962,0.830778,0.520590
0.157717,-0.762294,0.332159,0.719852,0.265771,0.641232
0.268364,-0.424802,0.468024,0.934019,-0.266516,-0.237861
0.297484,-0.352758,0.826537,0.795800,0.432736,-0.423606
-0.355510,-0.316533,0.533941,-0.078859,-0.888148,0.452742
-0.178549,0.092122,0.547048,0.134634,-0.134292,0.981753
0.226988,-0.111458,-0.244159,0.363694,0.845922,-0.390055
0.109060,-0.354385,-0.669654,0.798985,-0.490464,0.347950
0.863405,0.124484,0.010788,-0.629487,0.617865,-0.471156
0.240756,0.672545,0.504684,0.210342,0.168082,0.963070
0.220862,-0.742826,0.480219,0.761193,0.645058,-0.066973
-0.211345,-0.142052,0.721805,0.548485,0.064057,0.833703
-0.498738,-0.219252,0.196522,-0.062308,-0.528797,0.846458
-0.271824,-0.341769,0.320978,0.412448,-0.886825,0.208392
0.192533,-0.585847,-0.900389,-0.252881,0.017223,0.967344
0.149932,-0.057189,-0.889234,-0.398910,0.126629,0.908205
0.262741,0.084661,0.813886,-0.732669,0.629881,-0.257771
0.176459,-0.070281,0.685271,0.853063,-0.445448,-0.271771
0.141570,0.257038,0.457452,-0.337102,0.594974,0.729636
0.250847,-0.185738,-0.653073,0.911579,-0.387202,-0.138199
-0.338284,0.083982,0.213178,-0.597336,0.403339,0.693186
-0.036330,-0.103794,0.451088,0.157165,0.980878,-0.114793
-0.265695,-0.619087,0.252247,0.815349,-0.578887,-0.009827
-0.273914,-0.291296,0.709762,0.281922,0.486610,0.826880
0.063577,-0.632519,0.532217,0.325505,0.633381,0.702051
0.357745,0.903195,0.439071,0.855195,0.396861,-0.333380
0.406545,-0.296046,-0.912406,-0.394186,-0.321717,0.860881
0.832913,-0.660132,-0.853791,0.002511,0.120862,0.992666
-0.121964,-0.280850,0.694500,0.888781,-0.234667,0.393699
-0.481078,-0.390747,0.324806,-0.431725,-0.018524,-0.901815
0.464859,-0.583611,0.540457,0.769893,0.498830,-0.398036
0.518417,-0.803674,-0.858202,-0.103862,0.103653,0.989176
0.413969,-0.205754,0.410245,0.228251,0.969822,-0.085712
-0.086499,-0.324400,0.424366,-0.556257,0.792023,-0.251550
0.203921,-0.547249,-0.898691,-0.161260,0.342231,0.925674
0.165645,-0.143887,0.690190,0.446602,0.882080,-0.149936
0.222014,-0.156908,0.165667,0.800775,0.594326,0.074406
0.383766,0.730884,0.393664,0.740227,0.470151,-0.480648
-0.732935,-0.165388,0.229734,-0.011413,-0.310338,0.950558
-0.030131,0.341222,0.283126,-0.484685,0.253442,-0.837166
-0.104447,-0.364426,0.321916,-0.402080,0.643478,-0.651358
-0.049520,0.448544,0.453015,0.763998,0.526244,-0.373329
0.494989,-0.180787,0.106545,0.948094,-0.066557,-0.310947
-0.304836,-0.520589,0.257241,0.924054,-0.028325,0.381212
-0.096231,-0.206226,0.537769,-0.636989,0.769003,0.053662
-0.337129,-0.245710,0.403552,-0.695140,0.618683,-0.366075
-0.688964,0.442573,0.238937,-0.010170,0.999004,0.043438
-0.180784,-0.375551,0.752989,0.113970,0.833297,0.540950
0.514741,-0.276577,-0.905079,-0.175958,-0.084576,0.980758
0.022056,-0.580626,-0.907387,-0.150907,0.201226,0.967851
-0.018380,-0.253374,0.146070,0.033913,-0.681379,0.731145
0.286745,0.011804,-0.906525,0.234895,0.288771,0.928136
0.166439,0.150668,-0.936897,0.021101,0.444368,0.895596
0.777769,-0.607216,-0.858253,-0.165150,0.094900,0.981692
0.175810,-0.383079,0.359413,0.976319,0.216268,-0.005501
0.185397,-0.249101,0.339232,-0.006566,0.105962,0.994348
-0.407916,-0.408858,0.409687,0.164932,0.129998,0.977700
-0.445758,-0.709925,0.262287,-0.564966,0.823214,-0.055957
0.121530,-0.649209,-0.902544,-0.190556,0.295211,0.936237
0.154833,-0.106303,-0.349500,0.166036,0.986091,-0.007456
0.569452,-0.113967,0.374472,-0.099382,0.154912,0.982917
-0.029553,0.539651,-0.987197,0.123319,-0.221638,-0.967300
-0.287898,0.584153,0.438513,0.072843,-0.685995,0.723950
0.556117,-0.672003,-0.869079,0.308772,-0.185977,-0.932777
0.283212,-0.127196,-0.701218,0.848751,-0.497677,0.178716
-0.215600,0.428939,0.263301,-0.055023,0.496788,0.866126
-0.932603,-0.387153,0.263909,0.551158,0.137159,0.823051
0.154690,-0.415710,-0.142039,0.523492,-0.609298,0.595578
0.355583,0.389662,0.607261,0.872215,-0.457024,0.174271
-0.071435,0.525541,0.424671,0.206777,-0.571554,0.794084
0.047431,-0.839970,0.364762,-0.446373,0.651507,0.613425
0.848627,0.161384,0.015376,-0.629487,0.617865,-0.471156
0.499963,-0.387762,-0.899350,-0.170688,0.212562,0.962124
-0.623153,-0.617936,0.214928,0.665378,0.527719,0.528000
-0.174728,-0.495286,0.336469,0.177306,0.563339,0.806977
-0.490737,0.393935,0.187496,0.370328,0.766210,-0.525146
-0.142868,-0.195779,0.657536,0.908427,-0.252008,-0.333544
0.401426,0.469300,0.444040,0.293589,0.424018,-0.856746
-0.182585,0.267215,0.274887,0.664423,0.454393,0.593354
0.287825,0.911605,0.388721,0.690446,0.524670,-0.498001
0.177251,0.516108,0.479204,-0.703396,0.313596,-0.637881
0.164277,-0.222034,-0.597931,-0.205140,0.415333,-0.886237
0.229078,-0.185130,0.257419,-0.439829,-0.076005,0.894860
0.218266,-0.108133,0.364002,0.272945,-0.912902,-0.303497
-0.412601,-0.236754,0.086516,-0.468730,-0.865349,-0.177377
0.432206,0.151617,0.690672,0.671638,0.551402,-0.494832
-0.534130,-0.756054,0.378960,-0.551270,0.673990,0.491771
0.263751,-0.435589,0.749262,-0.001978,0.919289,0.393577
0.315360,0.112137,-0.052341,0.933409,-0.055901,-0.354434
0.634687,-0.457090,-0.881831,-0.396780,0.239283,0.886177
0.447776,0.415234,0.645392,0.941518,-0.219450,0.255706
0.659771,0.508921,0.207347,0.949509,0.165349,0.266632
0.496360,-0.035004,0.487976,0.400773,0.116082,0.908794
0.506451,-0.238791,0.232624,0.924545,-0.374851,-0.068576
-0.384776,-0.530696,0.230520,0.002803,-0.803179,0.595732
0.308008,0.399496,0.436105,-0.030852,-0.595181,0.802999
-0.108556,-0.235126,0.378224,0.082387,-0.988893,-0.123703
0.288690,-0.006782,0.724441,-0.170928,-0.962171,0.212156
0.142435,0.395765,-0.972264,-0.105076,0.090331,0.990353
0.258993,-0.189676,-0.923308,0.012082,-0.450364,0.892763
-0.699272,-0.388370,0.524282,-0.725813,-0.282033,-0.627418
0.114755,-0.088868,0.026151,0.382131,0.900994,-0.205389
-0.134073,-0.709586,0.377185,0.230765,-0.052650,0.971584
0.272616,-0.472219,0.754662,-0.222835,0.866496,0.446687
0.110358,0.187639,0.261627,-0.292117,0.935470,0.198905
-0.300007,0.000066,0.084184,0.371555,-0.376506,0.848640
0.371514,0.811342,0.509957,0.880680,-0.172953,0.441010
-0.041159,-0.291363,-0.950004,0.007010,-0.137710,0.990448
0.324731,0.187233,0.638546,0.856424,-0.258880,0.446675
0.168817,-0.423581,0.367247,0.754771,-0.298351,-0.584215
0.336049,0.174410,0.137577,0.966666,0.167680,-0.193492
-0.014562,0.320872,-0.973101,0.245899,-0.262657,-0.933030
0.038275,-0.195237,0.488813,-0.326453,0.293460,-0.898504
-0.034744,0.178753,0.600289,0.450065,0.892771,0.020041
0.605854,-0.291023,-0.892048,-0.047439,-0.073639,0.996156
0.359835,0.371208,0.541699,0.812349,0.356776,-0.461304
0.824840,0.281732,0.583252,0.783471,0.103506,-0.612748
0.364232,0.246455,0.220733,0.472440,0.877963,-0.077341
-0.143660,-0.221964,0.366841,0.063046,-0.984563,0.163281
0.581489,-0.334714,-0.898995,0.196030,0.004574,-0.980587
0.147336,-0.404994,0.568167,-0.491483,0.558662,0.668088
0.269516,-0.252223,0.712196,-0.606426,0.703546,0.370501
0.006271,-0.302625,0.450099,0.488811,-0.527364,-0.694947
-0.052332,0.167967,-0.953326,-0.091125,0.536057,0.839249
0.196642,0.281119,-0.952717,-0.104848,0.373919,0.921516
0.090463,-0.411437,-0.525955,0.119759,0.758486,0.640590
0.264543,0.307374,-0.952869,-0.183304,0.245651,0.951869
0.320694,0.999590,0.412755,0.834503,0.301330,-0.461309
-0.114394,-0.420459,0.235311,0.916010,-0.371317,0.151820
-0.179486,0.272503,0.342528,0.697122,0.710871,0.093186
0.590284,0.662098,0.364357,-0.017631,-0.706570,0.707424
0.458878,-0.168576,-0.883707,-0.142022,-0.619128,-0.772341
0.567866,-0.871583,0.370948,0.325916,0.739835,-0.588577
0.247963,-0.766025,0.432124,0.845058,-0.507045,0.169656
-0.083326,-0.535039,-0.924931,0.126393,-0.239161,-0.962718
-0.367981,0.023067,0.496089,-0.022755,-0.862240,0.505988
0.854249,-0.646497,-0.855946,0.017969,0.136377,0.990494
-0.442802,-0.325692,-0.124241,0.787943,-0.299485,-0.538010
0.142939,-0.235669,0.844233,-0.748720,0.640153,-0.172113
0.768904,-0.412522,-0.868673,-0.388397,0.259538,0.884188
0.035682,0.159554,0.627695,0.412212,-0.707716,-0.573776
-0.112450,0.289193,-0.978577,-0.194962,0.336215,0.921385
-0.292222,0.247200,-0.147667,-0.654006,0.612585,-0.443864
0.390544,-0.492028,0.723605,0.502874,0.135971,-0.853598
-0.046493,0.214908,-0.244692,0.196652,0.972175,0.127296
0.514741,-0.604098,-0.878206,0.264776,-0.287375,-0.920494
-0.041592,-0.045860,0.857746,0.115054,-0.813747,0.569718
0.076912,0.462858,0.509400,0.484403,0.873334,-0.051388
0.266993,-0.217894,-0.775907,0.806583,-0.591117,0.002345
-0.221726,-0.203377,-0.172791,0.078420,-0.817626,0.570384
0.056296,0.519843,-0.982760,0.178861,-0.210326,-0.961130
-0.418800,-0.676818,0.333147,-0.018992,0.689529,0.724009
0.408923,-0.283156,-0.917021,0.269234,0.369097,-0.889539
0.163482,0.104402,0.159202,-0.442221,0.307148,-0.842675
-0.128596,0.562714,0.428043,0.813330,0.539838,-0.216955
-0.570677,-0.003594,0.520707,-0.276654,0.755756,-0.593545
-0.385713,-0.337223,0.021081,0.021131,0.063521,0.997757
0.349311,0.077133,0.619278,0.764763,0.111982,-0.634506
-0.344122,-0.287769,0.500704,-0.195093,0.758752,-0.621477
-0.120738,-0.239197,0.542130,0.603541,-0.735429,0.308029
0.463922,-0.750423,0.568953,-0.162831,-0.977208,0.136200
-0.076624,0.518551,0.421248,-0.399237,0.492222,-0.773516
0.268364,0.476289,0.099243,0.279364,-0.832696,0.478093
-0.741297,0.005834,0.388340,-0.643217,0.345227,-0.683440
0.551214,0.329422,-0.067375,0.579209,0.740920,-0.339933
-0.370070,-0.018657,0.632310,-0.602858,0.702894,0.377494
-0.543358,-0.379216,0.096733,-0.383488,0.840843,-0.381996
0.390471,-0.739364,-0.876482,-0.233472,0.301532,0.924429
-0.373099,0.167152,0.370974,0.838984,-0.495945,0.223928
0.148057,-0.688689,0.376374,-0.217466,-0.143750,0.965424
0.268146,0.680548,0.314615,-0.594029,-0.804135,-0.022281
0.415122,0.185063,0.694652,-0.610532,0.789333,-0.064839
-0.330787,-0.058000,0.661896,0.881175,-0.470834,0.042978
0.059540,-0.139949,0.265050,-0.441051,-0.292654,-0.848427
0.572334,-0.188997,0.437271,0.383927,0.755126,0.531399
-0.340301,-0.055561,0.201440,0.961073,-0.243542,-0.130487
0.160671,-0.246049,0.675511,0.994920,-0.098248,0.021940
0.793051,-0.745538,-0.848061,0.178923,-0.123016,-0.976142
-0.083615,-0.748660,0.358500,-0.339354,-0.081744,-0.937100
0.133209,-0.169731,0.880792,0.909101,-0.208855,0.360437
-0.224825,-0.393190,0.306020,0.521101,0.774122,0.359428
-0.253658,0.265517,0.288070,0.316779,0.385792,0.866496
0.379369,-0.498338,-0.909972,0.171277,-0.278052,-0.945173
0.100698,0.198288,-0.947799,0.209377,-0.385500,-0.898638
0.173863,0.072724,-0.907057,0.200045,-0.522098,-0.829093
0.069703,0.261381,-0.959993,0.221362,-0.326984,-0.918739
0.470843,0.723357,0.481030,0.613710,-0.770299,0.173204
0.335545,0.155008,0.843751,-0.330785,0.881532,0.336871
-0.394220,0.398142,0.213711,-0.322345,-0.788950,0.523117
0.282060,-0.341359,-0.335987,0.662876,-0.384921,0.642208
0.014056,-0.133775,-0.221469,-0.347478,0.829167,-0.437883
-0.374901,-0.331794,0.311927,-0.071570,-0.980811,-0.181348
0.272543,-0.297946,0.781206,0.964977,-0.164385,-0.204445
0.723204,-0.378739,-0.874428,0.267076,-0.081799,-0.960198
0.244793,-0.306558,0.816370,-0.692057,0.180026,0.699034
0.449577,-0.628722,0.598590,0.827710,-0.234981,0.509588
0.203633,-0.027948,0.704286,0.836626,0.389017,-0.385645
-0.603907,-0.206702,0.386287,0.451477,0.556796,0.697242
-0.069342,-0.381725,0.184479,0.988672,0.035466,-0.145844
0.487422,-0.617460,-0.878408,-0.255998,0.292485,0.921367
0.174512,-0.327455,-0.941993,0.227569,-0.000060,-0.973762
0.359186,0.270606,0.373002,0.936325,0.141204,-0.321491
0.211130,0.008885,0.746980,-0.808117,0.161622,-0.566414
0.503063,0.467470,0.450378,0.100193,-0.535063,0.838850
0.270669,-0.100196,-0.055814,-0.678007,0.730638,0.080471
-0.207742,-0.341429,-0.013247,-0.031981,-0.949426,0.312358
0.278742,-0.163218,-0.913598,0.000290,-0.603202,0.797589
0.509695,-0.350178,-0.494365,-0.764337,0.610719,0.206909
0.462120,0.266126,0.017379,-0.543381,0.303009,0.782894
-0.102645,0.483345,0.278436,-0.828015,0.497918,0.257816
0.372594,0.361440,0.582035,0.852824,0.513242,0.096299
0.289338,0.421275,0.313347,0.845680,0.113827,0.521411
0.162618,0.377112,-0.967954,0.294125,-0.159549,-0.942356
0.263678,-0.369241,-0.922345,-0.261216,0.298119,0.918091
0.032149,0.571127,0.308352,0.027602,-0.996086,0.083966
0.486052,-0.070144,-0.901961,-0.142019,0.320915,0.936400
-0.031284,0.410352,-0.984433,-0.168718,0.113912,0.979060
0.564190,0.046129,0.706923,0.779949,0.477148,-0.404981
-0.351546,0.167288,-0.149391,0.945193,-0.295735,0.138391
0.016218,-0.330846,0.709686,0.216675,-0.969392,-0.115465
0.130686,-0.054406,0.151850,0.797302,0.449345,0.402988
-0.335472,0.142665,0.191071,-0.377067,0.674370,0.634859
0.089022,-0.276780,0.483971,-0.534900,0.032850,-0.844276
-0.280616,-0.670644,0.340474,-0.700526,0.217870,0.679556
0.684424,-0.176377,-0.895395,0.183241,-0.058721,-0.981313
-0.208463,-0.344005,0.189068,-0.142734,0.820622,0.553359
-0.483456,-0.101148,0.362836,-0.432330,-0.157008,-0.887941
-0.771931,-0.042672,0.276053,0.227959,0.768006,-0.598499
0.540114,0.014587,-0.090192,0.046058,-0.784057,0.618977
-0.406472,0.518146,0.311572,-0.176395,0.871617,0.457349
0.307504,0.049591,-0.236655,0.978457,-0.143309,-0.148606
0.231025,0.265720,-0.951221,0.261054,-0.282150,-0.923170
0.140127,0.267145,0.498599,0.719810,0.685663,-0.108351
0.675702,0.352960,0.325643,0.028791,0.776313,0.629690
0.283285,-0.467065,0.418307,0.786630,-0.520499,-0.332104
0.252866,-0.599076,-0.891085,0.001489,0.226216,0.974076
0.647734,0.242248,-0.012968,0.886506,-0.109385,0.449603
0.262596,0.287023,-0.952109,-0.204119,0.305771,0.929967
-0.095797,0.442097,0.404541,0.832924,0.409617,-0.372090
-0.901102,0.018789,0.440719,0.789720,0.232309,0.567780
-0.218987,0.000476,0.559167,-0.083604,-0.096352,0.991830
0.593527,0.094635,0.456717,0.259985,0.059694,-0.963766
-0.020400,-0.464688,-0.926071,-0.074302,0.402563,0.912372
-0.039718,0.687264,0.339055,-0.002417,-0.673053,0.739590
0.496721,-0.690320,-0.873084,-0.139722,0.246121,0.959115
0.034527,-0.035207,0.688542,-0.237501,0.216737,0.946899
0.253225,-0.117565,-0.164197,-0.289430,0.948514,-0.128651
0.396237,0.563799,0.240433,0.218035,0.133039,-0.966831
-0.486628,-0.043687,0.594813,-0.680920,0.093174,-0.726407
0.204642,0.621869,0.435826,0.994062,-0.012672,0.108076
0.598716,-0.018044,0.330384,-0.264234,-0.674194,0.689669
0.355079,0.124414,0.275647,0.940221,0.338011,0.041630
0.639443,0.324470,0.549457,0.280980,0.951860,-0.122523
0.598934,0.385998,0.476264,0.899384,-0.436459,-0.024733
0.433360,-0.383961,0.781840,-0.493409,0.869797,-0.001174
0.302170,-0.137440,-0.708976,0.788130,-0.544040,0.287875
-0.476969,-0.674309,0.468252,0.884500,0.276665,-0.375653
0.290564,-0.238112,-0.927187,0.185917,0.198837,-0.962236
0.740936,-0.789158,-0.847148,-0.132287,0.100012,0.986153
0.206444,-0.154805,-0.126016,0.759666,-0.611932,0.220107
0.801989,0.491348,0.277295,0.381642,-0.363548,-0.849813
-0.111367,0.172580,0.705249,0.384920,-0.791314,0.475036
-0.040655,-0.438098,0.435902,0.974771,-0.022006,0.222122
0.110646,-0.128823,-0.522760,-0.118679,-0.983724,-0.134916
-0.354791,-0.457161,0.428169,-0.213759,0.702402,-0.678925
-0.053414,-0.145377,0.344936,0.502129,-0.807234,-0.310225
0.376127,-0.024218,-0.910403,0.009926,0.157276,0.987505
0.293159,0.118037,0.825599,-0.598651,0.786746,-0.150492
-0.566207,-0.567463,0.447007,-0.048752,0.388016,0.920362
-0.322713,-0.436673,0.531076,-0.565085,-0.736324,-0.372165
0.692567,-0.727224,-0.857315,0.159432,-0.088358,-0.983247
0.477041,0.763652,0.410777,0.891725,-0.211855,-0.399929
-0.295106,-0.359813,-0.044557,0.896252,0.061757,0.439226
-0.622577,-0.196119,0.229860,-0.005891,0.349017,-0.937098
-0.157213,-0.287566,0.700077,-0.652704,0.716035,0.247531
0.874217,0.100399,-0.895319,-0.126284,0.248880,0.960266
-0.388597,-0.341769,0.183693,0.897224,-0.434012,0.081382
0.114106,0.517603,0.168583,0.219331,0.229414,-0.948295
0.304909,0.200528,0.847579,0.028376,0.820821,0.570479
0.539971,-0.530087,0.609188,0.749932,-0.427724,0.504632
0.072081,0.617530,0.496419,-0.679445,0.724221,-0.117723
-0.163555,-0.251001,0.861016,0.283416,0.878834,0.383832
0.006992,-0.426156,0.355787,0.396394,-0.127334,0.909207
-0.230087,0.135539,0.252348,0.864325,-0.352403,0.358823
0.337490,-0.276780,0.367729,0.889426,0.332899,-0.313208
0.120378,0.230920,-0.952793,-0.183157,0.352336,0.917776
-0.008793,0.295163,0.385450,0.030997,0.275124,0.960909
-0.238306,-0.007461,0.637405,-0.391701,0.915812,0.088646
-0.009949,-0.265178,-0.947723,0.064525,0.216947,-0.974048
0.004614,0.610947,0.425355,0.233306,-0.201086,0.951385
-0.176602,0.097484,0.204634,0.046920,-0.953360,0.298166
-0.263821,-0.549353,0.252957,-0.906374,0.401349,-0.131927
-0.104159,0.354791,-0.983064,-0.183814,0.138958,0.973089
0.153535,-0.105827,0.340753,-0.711414,0.415781,0.566583
0.356016,-0.736246,-0.879651,-0.146961,0.326087,0.933847
-0.111583,-0.433891,0.054673,0.895459,-0.382788,0.227215
0.425358,-0.192794,0.428245,-0.137652,0.938504,-0.316641
0.366540,0.378942,0.234754,0.498959,-0.158790,-0.851954
0.116917,-0.391629,0.342350,0.481775,-0.455280,-0.748741
0.110575,0.237975,0.451012,0.670295,-0.395205,-0.628106
0.407770,0.032358,0.284115,0.832984,0.473522,0.286208
0.139769,-0.138524,0.753090,0.968021,-0.133263,0.212547
-0.280185,-0.086019,-0.017912,0.974923,0.187000,0.120649
-0.340950,0.714740,0.291290,0.039830,-0.368215,0.928887
-0.144381,-0.913708,0.386464,0.065028,0.729732,0.680634
-0.228934,-0.206636,0.565936,-0.133533,0.737089,0.662472
0.185540,0.227052,0.280236,-0.662006,0.671697,0.332522
-0.066820,-0.391016,0.505774,0.411150,0.245719,0.877826
-0.582569,0.418898,0.276535,0.240634,0.843843,0.479609
0.323866,-0.158945,-0.523825,0.175390,0.737233,0.652477
0.191235,-0.486467,0.113846,-0.326991,-0.074598,0.942078
-0.442731,-0.414286,0.184809,-0.465877,0.432140,-0.772149
-0.518056,-0.041314,0.481334,-0.204836,0.929652,-0.306250
0.117423,0.013635,0.871766,0.881991,-0.314577,0.350904
0.286815,0.902446,0.400078,0.785346,0.312340,-0.534487
-0.193831,-0.703884,0.157631,-0.128139,-0.988795,-0.076582
0.386938,0.301946,0.618340,0.850797,0.232438,0.471293
0.627478,0.705039,0.257748,0.994761,0.101867,0.008587
0.221077,-0.540057,0.442595,0.868516,-0.490194,-0.073416
0.174655,0.672884,0.572984,-0.639243,0.532229,0.555067
-0.484611,0.211178,0.510870,0.781302,0.085983,0.618203
0.187198,0.510482,0.595269,0.101668,-0.664931,0.739953
-0.253803,-0.111119,0.375182,-0.506431,-0.020499,0.862037
0.176602,-0.180041,0.762977,0.735747,0.674667,0.059162
0.576371,-0.640998,-0.862157,-0.289084,0.271655,0.917951
-0.188639,-0.184314,0.438589,0.574530,0.632383,-0.519622
-0.139769,-0.323927,0.711233,-0.082478,0.924548,0.372033
-0.005045,-0.325282,0.267306,0.437259,-0.833789,-0.337047
-0.030708,-0.100266,0.716075,-0.480256,-0.875763,0.048928
0.308224,0.809036,0.451418,-0.634819,0.178940,0.751655
0.483962,-0.911538,0.348942,0.031854,0.997496,-0.063149
0.367908,0.424802,-0.122796,0.302695,0.925019,-0.229597
0.213292,-0.666032,-0.893164,-0.251064,0.284283,0.925284
-0.303322,-0.028222,0.636543,-0.509943,0.859921,-0.022231
0.148634,-0.296724,0.531609,-0.217340,0.896643,0.385739
-0.352122,-0.379485,0.022450,0.015913,0.398478,0.917040
0.316369,0.078487,0.074093,0.840507,0.372758,-0.393190
0.397823,-0.035207,-0.910885,-0.168986,-0.122519,-0.977974
-0.018598,0.469168,-0.983267,-0.196294,0.245393,0.949342
0.672818,0.181196,-0.039563,-0.682114,0.649231,-0.336482
-0.055143,0.311104,0.286904,-0.436850,-0.403255,0.804082
0.153104,-0.558238,0.764144,-0.564360,0.490703,0.663858
-0.333886,-0.589172,0.204989,0.712994,-0.608533,0.348319
-0.093347,-0.362728,-0.948610,-0.148585,0.291365,0.945002
0.651986,0.104672,0.377946,0.161285,0.026019,0.986565
0.328552,-0.036225,0.799536,0.060211,-0.816042,0.574848
-0.010740,-0.558305,-0.910657,-0.447738,0.115994,0.886609
0.073018,0.305067,0.638495,0.867456,-0.313145,0.386602
0.199669,-0.301606,-0.942297,0.289023,0.127864,-0.948745
-0.157932,-0.026524,-0.410828,0.441414,0.836897,-0.323661
0.819794,-0.353503,-0.872805,-0.214449,0.231420,0.948924
-0.187702,0.225831,-0.198220,0.306989,-0.946554,0.098966
-0.436242,0.151753,0.152788,-0.453479,-0.313974,0.834133
-0.375693,0.038871,0.299149,-0.274842,0.664453,0.694956
0.575002,-0.749202,-0.863450,-0.062413,0.128733,0.989713
0.282851,-0.461500,0.415823,-0.732177,-0.235877,0.638967
0.766020,-0.105761,-0.894685,0.177426,-0.112262,-0.977710
-0.007137,0.816700,0.498549,0.817141,-0.092853,0.568910
-0.329561,0.003664,0.691914,0.918679,-0.169726,0.356681
0.711237,0.323112,0.542231,-0.192991,-0.065934,0.978983
0.381388,-0.452006,0.223725,-0.693725,0.241325,0.678608
0.343618,-0.035819,0.822328,0.060180,-0.964388,0.257556
0.210696,0.274743,-0.955100,-0.139430,0.216292,0.966322
0.320912,-0.210706,-0.607920,0.786720,0.507660,0.351216
-0.255748,0.261447,0.406011,-0.420520,0.881252,-0.215774
0.017443,0.167764,0.380151,0.543668,0.502989,-0.671884
0.181575,0.317820,-0.962706,-0.142538,0.215153,0.966122
0.159807,-0.107864,0.506382,0.981407,0.189836,0.028337
-0.697759,-0.033240,0.373813,-0.614134,0.086328,-0.784466
0.312045,-0.342241,-0.165541,-0.036271,0.383384,0.922877
-0.188857,-0.482529,0.286296,-0.379094,0.817555,-0.433465
0.863332,-0.051761,-0.882642,-0.282988,0.177440,0.942567
0.130758,0.210027,0.219162,0.865079,-0.296755,0.404443
0.139912,-0.072653,0.264492,-0.461230,-0.832557,-0.306784
-0.068982,0.362865,0.235083,0.321699,0.921813,0.216265
0.423917,-0.690660,-0.882515,-0.262411,0.339655,0.903202
0.571254,-0.176244,0.431947,0.160414,-0.839919,0.518463
0.175592,-0.005697,-0.902620,-0.185773,0.490260,0.851548
0.237657,-0.079166,0.778214,0.391970,-0.018777,-0.919786
0.105960,0.482529,0.563173,-0.028073,-0.670225,0.741626
0.362143,0.390883,0.768073,-0.734222,0.279044,-0.618912
-0.509622,-0.428670,0.398481,-0.395908,-0.888601,0.231616
-0.012111,-0.090362,-0.920316,0.510737,0.223908,-0.830068
-0.351258,0.052845,0.700458,0.817824,0.060177,0.572314
0.002234,-0.102436,0.594255,-0.275497,-0.785662,0.553928
0.565198,-0.635301,-0.871690,-0.248280,0.258898,0.933450
-0.310892,-0.444337,0.467846,0.025451,-0.707315,0.706440
0.584155,0.359676,0.495253,0.683341,-0.709118,-0.173771
-0.481872,0.008206,0.465108,0.298951,0.874200,0.382626
-0.297341,-0.515297,0.235590,0.292625,-0.927100,0.234215
0.235565,0.430839,0.345824,0.963023,-0.260663,-0.068126
0.254380,-0.125366,-0.489269,0.950243,-0.310599,0.023806
-0.550277,-0.305002,0.542764,-0.090419,-0.859332,0.503362
0.632379,0.325352,0.533104,0.151617,0.966572,0.206761
0.644850,-0.604504,-0.865935,0.265915,-0.126028,-0.955723
0.111006,0.623699,0.484351,-0.265114,0.724024,-0.636792
-0.319757,-0.725390,0.352770,0.438370,-0.837537,-0.326134
-0.002234,-0.615969,-0.911899,0.347776,-0.141961,-0.926768
0.491241,-0.443932,0.619075,-0.582120,-0.808652,0.084961
0.739062,-0.086901,0.052113,0.647895,0.496859,0.577376
-0.484323,-0.055694,0.342401,-0.507899,-0.213463,-0.834549
0.151949,-0.118716,0.582568,-0.522608,0.850172,-0.063942
0.328552,0.094565,0.626149,-0.323361,-0.026888,0.945894
0.211563,0.588695,0.560967,0.878896,0.472917,-0.062383
-0.306061,-0.028358,0.660679,0.723546,-0.581100,0.372565
-0.240396,-0.448341,0.334060,0.640933,0.553349,0.531987
0.333022,0.079303,0.898361,0.727473,-0.667990,-0.156756
0.162184,0.236687,0.534575,-0.056005,-0.955307,-0.290262
0.126722,0.747641,0.408369,0.380368,-0.479029,0.791108
0.103149,-0.337289,0.095821,0.704387,0.702000,-0.105049
-0.182728,-0.354249,-0.953706,-0.082434,0.302940,0.949438
0.040295,0.518891,0.510566,0.979898,-0.195145,-0.041446
0.286096,-0.652600,0.411792,0.872231,0.479116,-0.098294
0.132560,-0.198288,0.873591,0.931048,-0.316381,0.181803
0.116556,-0.492164,0.341235,-0.471152,0.828956,-0.301411
-0.428890,-0.607758,0.239368,0.158924,0.383748,0.909660
0.511209,-0.420256,-0.620520,0.770490,0.597136,-0.223098
0.488142,-0.038395,0.476111,0.400773,0.116082,0.908794
0.179053,-0.387219,0.266901,0.952179,0.285219,-0.109565
-0.046133,-0.202226,0.393639,-0.576728,0.081814,0.812830
0.246883,-0.738346,-0.881679,-0.157370,0.235505,0.959047
0.319396,-0.354385,-0.511555,-0.228161,0.395530,0.889662
-0.109277,-0.546839,-0.921660,-0.218023,0.307497,0.926235
-0.484035,-0.108879,0.576280,0.139287,-0.690421,0.709872
-0.077849,-0.554847,0.358323,0.913786,-0.347648,-0.210085
0.068117,0.749678,0.443584,0.484402,-0.556786,0.674792
0.492178,0.907398,0.256836,0.273939,-0.771417,-0.574346
0.282851,-0.010852,0.369884,0.860424,0.328701,0.389392
0.403085,-0.117155,-0.904750,0.246233,-0.230254,-0.941463
0.445182,-0.097687,-0.902646,-0.185511,0.276395,0.942969
0.152670,-0.677903,-0.897347,-0.218963,0.163409,0.961953
-0.062279,0.508308,0.411183,0.028875,-0.301467,0.953039
0.509911,-0.409267,-0.896181,0.176730,-0.189191,-0.965905
-0.489439,-0.072111,0.592404,-0.636369,0.155962,-0.755454
0.255532,-0.284514,-0.932258,-0.337026,-0.064486,0.939284
0.618972,-0.252901,-0.892150,-0.076911,0.084709,0.993433
0.629929,-0.604098,0.438133,0.908275,-0.407739,-0.093731
-0.094933,-0.131809,0.322043,-0.309161,0.670676,0.674250
0.356736,0.785903,0.504329,0.891467,-0.272797,0.361758
0.300151,-0.731630,-0.877597,0.115043,-0.233107,-0.965622
0.121675,-0.237164,-0.944731,-0.109145,-0.353441,0.929068
0.300368,0.455533,0.509019,0.818246,0.030345,0.574067
-0.027032,0.342514,0.311217,0.923527,0.382952,-0.021097
-0.022777,-0.799199,0.326987,-0.527135,-0.725865,-0.441870
0.170907,-0.365647,0.807319,-0.394681,0.425722,-0.814240
0.428457,-0.443186,0.638876,0.635164,0.436718,-0.637058
0.266777,0.849124,0.371912,-0.467481,-0.396082,0.790304
0.106251,-0.474799,-0.918973,-0.144014,0.575753,0.804840
0.749370,-0.289396,-0.877217,-0.118082,0.357084,0.926579
0.130325,0.298012,-0.962529,-0.123756,0.301518,0.945395
-0.150869,-0.496168,0.088772,-0.174606,0.469298,0.865605
-0.116917,-0.640998,0.344455,0.930187,-0.362124,0.060158
0.017155,0.582050,0.281580,-0.020692,-0.925417,0.378385
0.281842,0.567327,0.483083,0.359033,0.909264,-0.210556
-0.138759,0.646629,0.426369,0.882944,-0.360125,0.301196
-0.303468,0.358389,0.234627,0.732978,0.670971,-0.111990
0.100698,-0.144698,0.281124,-0.279357,-0.060835,-0.958258
0.170330,0.019266,0.077440,0.605342,-0.675233,0.421451
-0.408564,-0.502884,0.437144,-0.220440,0.536295,-0.814735
-0.460103,-0.528456,0.001230,-0.446744,0.887015,-0.116719
-0.288113,-0.575943,0.265684,-0.743744,0.317584,-0.588205
-0.168674,-0.286278,0.658093,0.638302,-0.315229,-0.702282
0.145030,-0.208532,-0.410701,-0.433183,0.838706,0.330037
0.139047,-0.181465,0.511377,0.881074,0.468930,0.061754
0.078929,0.636183,0.346762,-0.238313,-0.330819,0.913108
-0.552511,-0.310496,0.270881,-0.664406,0.381344,-0.642760
0.317163,0.862763,0.395312,0.834793,0.437616,-0.334086
0.253586,-0.596501,0.785212,-0.776496,0.170448,0.606632
-0.071723,-0.072451,-0.573440,0.958668,-0.010345,0.284338
0.148849,0.072314,0.613599,-0.091468,-0.555747,0.826305
0.006847,-0.568209,0.327367,-0.071058,0.995588,0.061288
-0.321919,-0.064716,0.563908,0.270508,0.299565,0.914924
-0.250774,-0.019199,0.142191,-0.244342,-0.818815,0.519461
0.027248,0.790648,0.466122,-0.660163,0.530123,-0.532122
-0.083184,-0.292994,-0.949802,-0.021519,0.137638,0.990249
0.657463,-0.177466,-0.563375,0.869272,-0.289847,0.400442
0.239890,0.026458,0.718914,0.016857,-0.932679,0.360314
-0.085346,-0.286481,0.325846,0.665027,0.351536,-0.658909
0.159591,0.225425,0.248723,-0.737099,0.218200,0.639589
0.286312,-0.308256,-0.928632,-0.284480,0.066380,0.956381
-0.616954,-0.344957,0.217869,0.525436,0.262063,0.809469
0.225690,-0.167897,-0.268092,0.835363,-0.522322,-0.171313
0.000072,-0.345905,0.869763,0.608171,-0.793250,-0.029701
-0.007137,-0.307374,0.882439,-0.652130,0.729308,0.206970
0.883731,0.259750,0.158416,0.026833,-0.156827,0.987261
-0.195416,0.402957,0.237644,-0.750420,0.279503,0.598955
-0.814965,-0.114646,0.243627,0.650547,-0.269142,0.710177
0.345780,-0.133030,-0.799536,0.766386,-0.636105,0.089567
0.297124,1.000000,0.403527,0.794873,0.324774,-0.512541
-0.581635,-0.250119,0.138515,0.920601,-0.030898,0.389280
-0.097528,0.017841,0.535564,-0.194566,-0.469847,0.861039
-0.158654,0.627769,0.290098,0.895058,-0.230308,-0.381876
0.672169,0.304931,0.172893,-0.220924,-0.172760,-0.959868
-0.055143,-0.406961,0.393157,0.981156,-0.192852,-0.011920
0.112450,-0.063022,0.855008,-0.429845,-0.420528,0.798993
-0.409211,0.433075,0.231483,-0.357586,-0.839955,0.408176
0.148706,-0.143274,0.862943,0.978949,0.022694,0.202841
0.324803,-0.225020,-0.924855,0.362423,0.285276,-0.887281
-0.271679,-0.207447,0.261856,0.074932,0.040004,0.996386
0.351474,-0.141104,-0.908654,-0.200857,-0.161887,0.966152
-0.467670,-0.128418,0.553437,0.147362,-0.501398,0.852576
0.304766,0.584965,0.489320,0.293896,-0.840655,0.454890
0.835003,-0.115325,-0.884138,-0.213365,0.281110,0.935656
0.284222,0.328337,0.762369,-0.503573,0.601221,-0.620441
-0.171989,-0.514349,0.089001,0.372144,0.598365,0.709555
-0.774958,-0.108949,0.374371,0.668381,-0.016624,0.743633
0.439053,-0.294890,0.489295,0.153383,0.822558,0.547606
-0.061415,0.207989,-0.959588,-0.134604,0.512524,0.848057
-0.372882,-0.084189,0.243373,-0.169253,0.951603,0.256526
-0.103151,0.172174,0.682837,0.185331,-0.753938,0.630262
0.020761,0.561766,-0.988084,-0.169543,0.276015,0.946082
-0.003820,0.108949,0.662733,0.260640,-0.951636,0.162653
0.097528,0.641814,0.275977,-0.134643,0.990793,-0.014166
0.373891,0.314019,0.393538,0.801029,0.552542,-0.230324
0.143876,0.264839,0.581351,0.964226,-0.262683,0.035573
-0.530888,-0.265452,0.561018,-0.196613,0.815987,-0.543607
0.213292,0.156432,0.470356,0.487162,0.613977,-0.621052
-0.505155,-0.064923,0.591897,-0.600640,0.253540,-0.758254
0.667123,-0.224001,0.424366,-0.164463,-0.133185,0.977350
0.255171,0.677973,0.371633,0.856276,0.198143,0.477002
-0.055576,0.024963,0.124799,-0.071462,-0.949938,-0.304155
-0.273265,-0.838409,0.355230,0.456936,0.722743,0.518510
0.076263,-0.292381,-0.946759,-0.092089,0.120438,0.988440
-0.293014,-0.435655,0.374270,0.939543,0.297084,0.170294
0.016724,0.540397,-0.986157,0.173069,-0.280064,-0.944252
0.195126,-0.298418,0.170256,0.647918,-0.222707,-0.728426
-0.426079,-0.219591,0.037788,0.734907,-0.367929,0.569684
0.689325,0.085066,0.466427,0.656631,0.252863,0.710560
-0.541051,-0.070687,0.596942,-0.600640,0.253540,-0.758254
0.126361,0.001151,0.374751,0.126000,-0.913927,-0.385825
-0.312478,0.315174,0.400205,0.228812,0.131283,0.964578
0.103871,-0.568415,0.066690,-0.290646,0.942230,-0.166515
0.154833,-0.110510,0.955075,0.926965,-0.370736,0.057366
0.734953,-0.134185,-0.892150,0.202487,-0.121102,-0.971768
-0.261804,-0.486939,0.350920,0.591726,0.405579,-0.696682
-0.534924,-0.568821,0.303180,0.202467,0.892827,0.402328
-0.278454,-0.037244,0.023515,0.495737,-0.800013,0.337971
-0.081452,-0.264093,-0.952945,-0.157578,0.004924,0.987494
0.109926,0.844719,0.363926,0.042623,-0.597922,0.800421
-0.670152,-0.297809,0.495684,0.347683,-0.398205,0.848852
-0.631442,-0.382197,0.095668,-0.367470,0.421311,-0.829134
-0.388163,-0.066211,0.474869,0.837714,0.435472,0.329545
-0.080515,-0.173123,0.499005,-0.412329,-0.071469,-0.908228
0.034023,0.226849,-0.957306,0.269154,-0.473913,-0.838429
0.182009,-0.124347,0.230266,0.506333,0.862325,-0.004652
-0.143733,0.603961,0.437043,0.896566,-0.224486,0.381806
0.750307,-0.862830,-0.840582,0.016425,0.233306,0.972265
-0.033374,0.143340,0.570550,0.440564,0.825630,-0.352475
0.570244,-0.143137,0.331601,0.876012,-0.418077,-0.240447
-0.148561,0.307510,0.397670,-0.669558,0.709687,0.219173
-0.145534,-0.646224,0.356193,0.489230,-0.872110,-0.008896
-0.051251,0.267687,-0.969399,-0.212605,0.278610,0.936577
0.823397,0.300927,0.582948,0.749651,0.122228,-0.650449
0.140922,-0.557899,0.759225,-0.318077,0.769421,0.553911
0.021698,-0.188997,0.387022,-0.314057,0.949314,-0.013047
0.112665,0.137643,0.459886,-0.331439,-0.664457,0.669810
-0.093347,-0.065395,-0.122542,0.889509,-0.452529,-0.063167
0.419304,-0.037923,0.663519,-0.772669,0.108773,0.625421
0.424638,-0.040432,0.352922,0.073795,-0.996782,0.031307
0.488214,-0.172038,0.450987,-0.326447,0.724775,-0.606740
0.232322,0.731700,0.565176,-0.864152,0.428992,-0.263071
0.424132,-0.413064,0.430958,-0.506955,0.354776,-0.785577
0.202696,0.722881,0.511909,-0.369303,0.602054,-0.707917
0.133064,0.062683,0.487824,0.974652,-0.080720,-0.208658
-0.417430,0.378466,0.225322,0.268830,0.837952,-0.474939
0.073597,-0.568482,0.550547,0.143415,-0.569755,0.809204
-0.264109,-0.010107,0.086212,0.025697,-0.989191,0.144363
0.680530,-0.454109,-0.874251,-0.287264,0.222799,0.931579
-0.046997,0.305949,0.419397,0.057224,-0.057175,0.996723
-0.241693,-0.831151,0.368236,-0.024793,0.449358,0.893008
0.424999,-0.277049,-0.605360,0.753042,0.655113,-0.061277
0.239313,0.428057,0.376627,0.860540,0.240061,0.449268
-0.318965,0.416525,0.382687,0.885825,-0.111194,-0.450499
0.314568,0.208126,-0.258129,-0.629966,-0.160432,0.759872
-0.065524,-0.479954,0.748146,-0.756734,-0.340898,0.557801
0.677358,0.655788,0.251461,-0.174191,0.248269,0.952901
-0.112232,0.196052,0.721805,0.384920,-0.791314,0.475036
0.671665,-0.068786,-0.089533,0.960543,0.252213,-0.117245
0.789952,-0.114104,0.053532,-0.593106,-0.368967,-0.715604
-0.260939,0.027542,0.336038,0.195063,0.555262,0.808477
-0.488502,-0.208942,0.102793,0.339044,0.108730,0.934466
0.211994,0.500780,0.314133,-0.600611,-0.292440,0.744140
0.656814,0.504511,0.111590,-0.778384,0.223374,0.586704
-0.174800,-0.540463,0.359387,-0.218319,0.126103,0.967696
-0.703670,-0.341835,0.215359,0.322911,0.614534,0.719775
0.835580,-0.647851,-0.847453,-0.025582,0.150969,0.988207
0.198155,-0.036631,0.747157,0.953221,-0.084782,0.290142
-0.240178,-0.328337,0.507954,0.379661,0.879927,-0.285634
-0.146687,-0.349093,0.133799,-0.333872,0.825037,-0.455898
0.343834,-0.391695,-0.920773,0.261537,-0.150128,-0.953446
0.085707,-0.184111,0.474413,0.508625,-0.673569,0.536289
-0.098466,0.107524,0.491044,0.834588,-0.459813,0.303372
0.132199,0.458651,-0.972315,-0.134938,0.207312,0.968924
-0.040149,0.782781,0.364433,0.270478,-0.658929,0.701893
-0.329777,-0.686180,0.334871,-0.146329,0.412650,0.899059
0.699415,-0.592021,-0.860991,-0.164589,0.122040,0.978783
-0.386362,0.395562,0.243805,-0.398933,-0.901661,0.166915
-0.170187,0.114849,0.685753,-0.527222,0.763790,-0.372373
0.236286,0.047148,0.718711,0.997190,-0.066513,-0.034474
0.078353,0.032358,0.309189,0.949703,-0.278461,-0.143263
0.076912,-0.090971,0.711841,-0.339688,-0.883991,0.321203
0.373891,0.359271,0.251055,0.605977,-0.343174,-0.717652
-0.384992,-0.257104,0.099471,0.064158,0.044196,0.996961
0.676133,-0.767789,-0.859825,-0.176326,0.216142,0.960308
0.227925,-0.584696,0.472258,0.913159,-0.380341,0.146563
0.577453,-0.194831,-0.896459,0.087634,-0.039694,-0.995362
0.084697,-0.129436,0.292025,0.048849,-0.987760,0.148134
0.727672,0.084661,0.048842,-0.561156,0.517542,-0.645952
0.230015,-0.187639,-0.252222,-0.433692,0.898749,0.064510
0.380955,0.274606,0.629191,0.974150,0.100228,0.202452
-0.119656,-0.371618,0.055028,0.907880,-0.322860,0.267423
0.141210,-0.253241,-0.646254,-0.680476,0.731478,-0.043505
0.131190,-0.163082,0.335201,-0.430624,-0.590886,-0.682214
0.749586,-0.123329,-0.891871,0.240777,-0.118218,-0.963354
0.043106,-0.158606,0.814722,0.119199,-0.357400,0.926314
-0.046278,-0.374057,0.276357,-0.405411,0.885188,0.228219
0.270238,0.407230,0.304778,0.776392,0.551656,-0.304782
-0.134507,0.004476,0.228212,-0.705959,-0.096369,0.701666
0.386650,0.268163,0.310076,0.999527,-0.019976,0.023384
-0.340518,0.168713,0.198524,0.902783,-0.207324,-0.376828
0.176674,-0.035956,-0.235717,0.914786,0.174325,-0.364386
0.597059,-0.797368,-0.865124,0.246192,-0.264580,-0.932409
-0.752470,-0.253444,0.443584,0.949720,0.310991,-0.036289
-0.420602,-0.135067,0.274126,0.204519,-0.963085,0.175038
-0.411807,-0.301606,0.180194,0.271598,-0.859168,0.433665
0.544150,-0.245979,-0.898691,-0.221107,-0.078094,0.972118
0.492467,-0.315514,-0.901809,-0.283090,0.198339,0.938361
0.041592,-0.081675,0.838681,-0.019461,-0.646225,0.762899
0.757947,-0.083237,-0.895369,-0.175286,0.196317,0.964746
0.562820,-0.354522,0.539214,-0.051109,0.431237,0.900790
0.564621,0.042196,-0.007238,0.372942,0.885766,0.276282
0.097671,0.157181,-0.938393,-0.256976,0.519125,0.815151
0.008505,-0.111321,-0.080710,0.502409,0.691194,0.519457
0.179629,0.080388,-0.912812,-0.126205,0.526453,0.840785
-0.041951,-0.184385,0.559851,0.234878,-0.867910,0.437680
0.126722,-0.240079,-0.947799,-0.129604,-0.251687,0.959091
-0.569668,-0.191370,0.369123,-0.465790,-0.467994,-0.751014
0.330281,-0.509939,-0.907310,-0.035716,0.402194,0.914858
0.213725,0.247270,0.471421,0.372692,0.760109,-0.532293
-0.506668,0.202358,0.306552,0.022733,-0.238979,0.970759
-0.445613,-0.122853,0.643135,0.485729,-0.795613,-0.362031
-0.014993,-0.031952,0.855058,0.127974,-0.889972,0.437690
0.171773,0.510142,0.465032,-0.261134,0.311557,-0.913642
0.140994,-0.137100,0.681671,-0.726637,-0.682474,-0.078922
0.766093,0.616781,0.580489,-0.636307,-0.269950,0.722662
0.202841,0.698323,0.496723,-0.321248,0.577748,-0.750338
0.059325,0.189200,0.457249,0.455317,0.088194,-0.885950
0.185828,0.079911,0.408597,0.863106,-0.372594,0.340912
-0.151302,0.172986,0.554401,0.255818,-0.539833,0.801959
-0.024797,0.078218,-0.671885,-0.141313,0.067362,0.987670
-0.333165,-0.290891,0.558305,-0.000793,0.997302,0.073406
0.144813,0.433075,0.508081,0.033040,-0.926797,0.374106
-0.248180,-0.165798,0.076096,0.818420,0.531219,-0.219077
0.801628,-0.207315,-0.884670,-0.261310,0.107946,0.959200
0.329562,-0.511906,-0.903888,-0.035716,0.402194,0.914858
-0.048152,0.262056,0.551308,0.308766,-0.951118,0.006100
-0.022129,-0.436876,0.739501,0.895804,-0.406484,0.179737
0.492108,0.896140,0.265126,0.273939,-0.771417,-0.574346
0.320479,-0.738892,-0.880082,-0.105047,0.218268,0.970219
0.215454,-0.494947,0.605284,0.556925,0.614185,0.559117
0.060550,-0.136694,0.315984,0.110875,-0.993219,0.034970
0.211851,-0.108204,0.564238,-0.683206,0.729972,0.019215
0.864773,0.128214,-0.896688,-0.180843,0.245619,0.952348
0.292077,0.041993,0.220100,0.959921,0.042795,-0.276984
-0.201616,-0.065735,0.723807,-0.402427,-0.147611,-0.903473
0.346069,-0.089344,-0.905003,0.165581,-0.050267,0.984914
0.306567,0.424053,0.512822,0.870631,0.482163,0.097573
0.530166,-0.311378,-0.899933,-0.230749,0.044143,0.972011
-0.111006,0.522149,0.407355,-0.009338,-0.407995,0.912936
0.235565,0.374735,-0.963213,-0.150415,0.170374,0.973832
-0.052259,-0.022317,0.048563,0.334383,0.847076,-0.413098
-0.003243,-0.122447,-0.935046,-0.155225,-0.474908,0.866238
-0.193542,-0.203514,0.668818,0.322018,0.028602,0.946301
-0.374107,-0.625058,0.184935,-0.167468,0.917622,0.360449
0.057954,-0.366732,-0.947520,-0.059284,0.161126,0.985152
0.206805,0.250864,0.540710,-0.070968,-0.802800,0.592010
-0.346139,0.011531,0.679592,0.970393,-0.048644,0.236583
-0.165141,0.238517,-0.974318,-0.130398,0.374942,0.917832
-0.363871,-0.170816,0.469951,0.815749,-0.421409,0.396191
0.299574,-0.169731,-0.408977,0.805427,0.592107,0.026400
-0.598788,-0.331658,0.278436,-0.798655,0.546632,0.251682
0.786637,0.517330,0.270957,-0.272079,0.073309,0.959478
0.250125,0.069465,-0.906854,-0.218965,-0.264270,-0.939263
-0.128308,0.512920,0.416406,0.010666,0.278284,-0.960440
0.240539,0.396647,-0.959689,-0.122051,0.235039,0.964293
0.323578,0.692758,0.511529,0.741860,-0.119280,-0.659860
0.190082,0.513670,-0.974774,0.290149,-0.159443,-0.943606
0.463922,-0.749268,0.378579,-0.214751,-0.738818,0.638772
0.477114,0.284307,0.529251,0.106856,-0.441228,0.891011
-0.105602,-0.381452,0.012512,0.264223,0.758665,0.595495
0.140706,-0.161388,0.617909,-0.458500,0.888426,-0.021841
-0.219636,-0.490400,0.098381,0.386064,0.578839,0.718262
-0.428890,0.230443,0.491754,-0.694472,-0.085044,-0.714476
0.249694,-0.611017,0.804379,-0.710380,0.201719,0.674292
0.490592,0.015875,-0.199412,0.611135,-0.050933,-0.789886
0.254668,0.791737,0.548341,0.110700,-0.832279,0.543192
0.323433,0.392237,0.488103,0.874403,0.368178,0.316012
-0.323866,0.008885,0.328609,-0.189608,-0.631769,0.751609
-0.148634,-0.102572,0.632741,0.950204,-0.250746,0.185035
0.720535,0.046332,0.041084,-0.574619,0.509752,-0.640285
-0.048511,-0.039890,0.516067,0.860851,0.508777,-0.009018
0.009946,0.021166,0.685398,-0.273051,0.098482,0.956945
0.533554,0.443389,0.445435,-0.213678,0.489895,-0.845189
-0.473726,-0.707549,0.263681,0.584374,-0.809659,-0.054397
0.359331,0.508647,0.373154,0.926160,0.114781,0.359240
-0.316803,-0.000679,0.096936,0.678635,0.552552,-0.483880
0.369639,0.355743,0.238125,0.718477,-0.249957,-0.649086
0.377713,-0.143004,-0.890552,0.233784,-0.833380,-0.500822
-0.483746,0.054269,0.177761,0.808001,-0.104567,-0.579827
-0.784905,-0.086967,0.247303,0.530692,-0.364621,0.765125
0.190298,-0.557899,0.782220,-0.503296,0.418497,0.756012
-0.490953,-0.232957,0.554122,-0.467058,0.468919,-0.749648
0.012254,0.355267,0.411792,-0.363220,-0.104982,0.925770
0.605709,-0.703073,-0.867633,-0.183894,0.133826,0.973793
0.328840,-0.361167,-0.922725,0.322576,-0.140243,-0.936096
0.266705,0.101757,-0.913598,0.160845,0.591178,0.790340
-0.004757,-0.408588,-0.934844,0.078021,0.537834,0.839433
0.466733,-0.265178,-0.905029,-0.088256,-0.262627,0.960853
0.456067,-0.022454,-0.911139,0.030471,0.402581,0.914877
-0.151445,-0.108407,0.733061,0.647713,-0.408402,-0.643177
0.100340,-0.059631,0.110753,0.707587,0.700255,0.094680
-0.586608,0.056236,0.098432,-0.866845,-0.128900,0.481626
-0.012111,-0.234311,0.266216,-0.186626,-0.326215,0.926690
0.056441,-0.788479,0.319786,-0.297056,0.758545,0.579972
0.327472,0.205344,0.174186,0.525913,0.796398,-0.298607
0.218193,-0.567058,0.393817,-0.669273,-0.420571,0.612531
0.111801,0.123395,0.569612,0.706129,0.342515,-0.619730
0.333380,0.259278,0.475148,-0.236232,0.963111,0.128888
-0.527931,0.181196,0.286980,-0.141196,-0.177033,0.974024
-0.486197,0.126111,0.133774,-0.683957,-0.409750,0.603579
-0.045917,-0.629740,0.421781,0.959210,-0.010395,-0.282503
-0.183377,-0.305068,0.703170,-0.327921,0.943303,0.051445
0.218842,0.357300,0.565530,0.271210,-0.846192,0.458698
0.215888,-0.207990,-0.493884,0.215707,-0.944022,-0.249586
0.102284,-0.125296,0.910404,0.869682,-0.493131,0.021783
0.066243,-0.324810,0.696832,-0.005173,0.764853,0.644184
0.172565,-0.255614,0.679313,0.994010,-0.023683,0.106691
0.114900,-0.768062,0.363013,-0.005810,0.811419,0.584436
0.277374,0.428330,0.625743,-0.555112,-0.812390,0.178533
0.333165,0.401193,-0.101702,0.231363,0.945268,0.230085
0.864773,-0.084392,-0.883377,-0.291148,0.222493,0.930446
