-0.044174,0.005010,-0.091145,0.227326,-0.933866,0.276074
0.315639,-0.037047,0.734925,-0.581624,0.260491,0.770622
-0.369342,0.362046,0.752324,0.369284,-0.801053,0.471108
0.552127,0.125026,0.573339,0.227092,-0.635692,0.737784
-0.218035,0.085260,0.890368,0.585782,0.698799,0.410535
0.109819,-0.226798,0.768094,0.643799,-0.756803,0.113014
0.235787,0.184651,0.856441,0.726029,0.638471,0.255415
-0.391177,0.005999,0.314924,-0.712855,-0.679391,-0.173971
-0.033665,0.426390,0.342240,0.657008,0.259263,0.707901
0.533314,0.617488,0.555264,0.224998,-0.952976,0.203007
-0.237805,0.098156,0.590077,-0.126356,0.316926,0.939996
0.416510,0.363528,0.763385,-0.085703,0.803820,0.588667
-0.468628,-0.245490,0.558424,0.844784,0.293730,0.447283
-0.461335,0.309249,0.654689,0.410651,-0.067986,0.909254
0.515031,0.601672,0.558827,0.140163,-0.982117,0.125698
0.339683,0.518277,0.477994,-0.445679,0.891420,-0.082101
-0.767066,0.187662,0.801101,-0.702766,0.711371,0.008423
0.463444,-0.435285,0.683794,0.963972,-0.262973,0.040043
-0.332487,-0.009323,0.927132,0.976721,-0.167012,0.134623
-0.435566,0.417178,0.472463,0.761967,0.265170,0.590839
-0.002569,0.661926,0.454645,0.060444,-0.353137,0.933617
-0.381146,0.090472,0.695549,-0.088714,-0.400559,0.911966
0.498331,0.548786,0.272016,0.402167,0.577669,0.710324
-0.048782,-0.091865,-0.093773,0.940415,0.313261,0.132237
-0.259978,-0.351261,0.691034,0.826717,0.463980,0.318215
0.414641,0.571342,0.093693,0.484394,-0.358997,-0.797799
-0.805265,-0.175395,0.274500,-0.263569,0.451921,0.852232
0.073734,0.281302,0.843106,-0.505005,-0.855942,-0.111054
0.268132,0.642560,0.361331,0.649094,0.220076,0.728179
0.322118,0.439644,0.816968,0.969132,0.221361,0.108544
0.273123,0.408820,0.634065,-0.568782,-0.529793,0.629131
0.398804,-0.910809,-0.074230,0.292412,0.295046,0.909639
0.090672,0.137966,-0.947917,-0.000558,0.153156,0.988202
0.560571,0.791917,-0.986826,-0.023920,0.175447,0.984198
0.383255,0.055514,0.176655,0.232923,-0.027416,0.972109
0.412240,-0.697109,0.302863,-0.357493,0.742449,-0.566540
0.194231,0.187527,0.044819,-0.326937,-0.422272,0.845457
-0.047101,0.069803,-0.342465,0.810557,-0.233823,-0.536958
0.356478,0.588237,0.521805,-0.416479,-0.716767,0.559277
0.318185,0.188965,0.622262,-0.505011,-0.819764,0.270094
0.488829,0.626969,0.098159,-0.686145,-0.043248,0.726178
0.740863,0.417852,0.573420,0.843896,-0.438851,0.308624
-0.253212,-0.458740,0.179896,0.199971,0.332357,-0.921711
0.004631,-0.661432,0.262341,0.012134,0.012058,0.999854
0.200036,-0.933993,0.506083,-0.351302,-0.715894,0.603392
-0.337861,-0.268450,0.116219,0.921762,-0.011643,0.387582
0.807758,0.724832,0.211774,-0.109677,0.347903,0.931093
-0.335029,0.297882,0.724348,-0.574281,0.233129,-0.784762
-0.072392,-0.103322,0.610442,0.452930,0.828767,0.328633
0.333251,-0.678057,0.097015,0.137244,0.418051,0.897997
0.530818,0.259599,0.747519,0.918088,-0.353750,0.178818
0.010196,0.390982,0.779655,-0.111678,-0.991394,0.068305
0.164766,0.780953,0.365459,0.326015,0.052361,-0.943913
0.033039,-0.080901,-0.305395,0.935164,0.320014,0.151854
0.185881,-0.660219,0.599816,0.993895,0.058203,-0.093725
-0.257338,0.475366,0.675925,0.814814,0.281279,0.506912
0.032799,-0.306149,0.730217,0.910587,-0.358478,-0.205729
0.018739,-0.297117,0.838833,0.722523,-0.080633,0.686628
-0.306284,-0.174586,0.801117,0.597628,0.463837,0.653984
0.120137,-0.545505,0.751260,-0.634599,0.691334,0.345458
-0.294481,-0.188560,0.803052,0.273362,0.532956,0.800769
-0.341605,-0.376513,0.103190,0.344543,-0.192090,0.918908
0.405714,0.462155,-0.963316,0.071965,0.077271,0.994409
-0.571323,-0.112894,0.506567,0.932298,-0.335374,0.135439
-0.327689,-0.191975,0.769174,0.785503,0.136005,0.603728
0.126807,0.361956,0.764224,0.228735,-0.725308,0.649314
0.739806,-0.031295,0.537655,-0.621928,0.059835,0.780785
-0.459560,-0.026803,0.400788,-0.676893,0.703047,-0.218038
-0.029585,-0.034575,-0.173543,0.459281,0.887747,-0.031080
0.162174,-0.382714,0.754791,-0.139165,-0.009683,0.990222
0.212610,0.661208,0.438053,0.947183,0.224054,-0.229441
0.499004,0.115994,0.623761,0.527432,-0.031313,-0.849020
0.377162,0.299320,0.314150,-0.207980,0.933431,-0.292321
-0.277252,0.145380,0.853684,0.854051,0.385873,-0.348854
-0.064666,0.119274,0.209291,0.951504,0.272438,-0.142894
0.873021,0.770439,-0.995759,-0.109394,0.190214,0.975629
0.576071,0.273753,0.726750,-0.482236,0.426231,-0.765359
0.184970,-0.127811,0.315924,0.427531,0.349794,-0.833583
-0.984116,-0.096673,-0.098837,0.985041,-0.009139,0.172078
0.194088,-0.717149,-0.050946,0.665160,0.080696,0.742328
0.481439,-0.118150,0.671184,0.165938,-0.525492,0.834459
0.146770,0.841073,0.497940,-0.367827,-0.871503,-0.324324
0.638408,0.470918,-0.502326,0.284764,0.785451,-0.549524
-0.062267,0.195749,0.812179,0.701912,0.706829,0.087824
-0.269959,0.269080,0.492941,0.820530,0.569513,0.048839
-0.176045,-0.487587,0.197101,-0.155205,-0.155472,0.975572
0.317368,0.349554,-0.719542,-0.288567,-0.847537,-0.445432
0.241308,-0.417627,0.628486,0.782309,-0.611680,0.117642
0.298077,0.424412,0.368620,-0.383063,-0.799895,0.461985
-0.185260,-0.483723,0.189683,-0.241402,0.175317,0.954458
0.285553,-0.429264,0.693711,-0.076236,0.721745,0.687948
0.617727,0.310912,0.457773,0.149719,0.988342,0.027633
-0.201431,0.145380,0.476220,-0.725014,-0.108247,-0.680174
0.332387,0.112804,0.776237,0.268608,0.371109,0.888891
0.101278,-0.117746,0.929325,-0.124985,0.963789,0.235564
0.668881,0.587877,0.577161,-0.636194,-0.524878,0.565473
-0.156418,-0.182269,0.415994,-0.649445,-0.356289,-0.671773
0.704488,0.425131,0.185717,-0.523303,-0.701451,0.483860
-0.228687,0.016648,0.877065,-0.121826,-0.814169,0.567704
0.222015,0.210308,0.862391,0.636783,0.727101,-0.256575
-0.377499,0.108086,0.644675,-0.739269,-0.623842,0.253578
-0.744896,-0.036732,0.276886,0.476025,0.413247,-0.776291
0.130840,0.456719,0.806616,0.094110,-0.792955,0.601968
0.274514,0.185684,0.805713,0.326612,-0.895918,0.301090
0.171915,-0.310148,0.733039,0.335291,0.927344,0.166170
0.241212,0.200692,0.833125,0.749950,-0.394232,0.531184
0.289487,0.172744,0.789959,0.752294,0.442489,-0.488116
-0.276675,0.400598,0.393000,0.086533,-0.654736,0.750888
0.347073,0.508302,0.461031,0.786631,0.612329,-0.079146
-0.201480,0.281077,0.740376,-0.607818,-0.400765,0.685525
0.427740,0.444811,-0.969057,0.185083,0.097600,0.977864
0.383304,-0.442115,0.627938,0.617777,0.781214,-0.089757
0.009188,0.062344,0.287319,0.154369,0.860002,-0.486381
0.167742,-0.791647,0.290237,0.992080,-0.054834,0.113006
0.354606,-0.078116,0.657978,0.121764,0.180139,0.976076
-0.674882,0.153737,0.685519,0.229033,-0.421661,0.877352
-0.104400,-0.062030,0.528109,0.304777,0.862550,-0.403878
0.580248,0.734718,0.126055,0.273717,-0.300480,-0.913669
-0.009288,-0.051291,-0.250200,0.267085,0.963540,0.015990
0.359551,-0.021366,0.711222,0.242691,0.834007,0.495513
-0.044558,-0.336254,0.904703,0.852128,-0.522082,-0.036185
0.562346,0.759745,0.502536,0.546837,-0.003809,0.837230
-0.842167,-0.117566,0.271275,0.163182,0.143204,0.976148
-0.506540,0.016558,0.828787,-0.411629,0.263976,0.872284
-0.140678,0.504617,0.587755,0.458481,0.836099,0.301221
0.047244,-0.233088,0.684003,0.417059,0.897079,0.145981
0.187752,0.063782,-0.377924,-0.627567,0.562010,-0.538800
0.266694,-0.667184,0.353382,0.341869,-0.777290,0.528154
-0.469972,-0.525286,0.649126,-0.072458,0.590151,0.804035
0.176139,-0.673698,0.337418,-0.389721,0.829160,-0.400764
-0.099409,-0.602660,0.336096,-0.719074,-0.589285,0.368341
-0.288769,0.384422,0.387018,-0.050866,-0.612778,0.788616
0.247067,0.250882,0.257440,-0.202848,-0.761867,0.615151
-0.086885,0.237222,0.828546,0.624819,0.514591,-0.587195
-0.025218,0.408731,0.839672,0.540403,-0.732863,-0.413372
0.148979,0.497113,0.729733,0.140657,-0.845625,0.514912
-0.092690,-0.072139,-0.445760,0.026995,-0.988300,0.150113
0.354366,0.031700,0.629341,0.217026,-0.820657,-0.528603
0.002135,-0.207881,0.907702,0.852049,0.415852,0.317930
0.244091,-0.787198,-0.060508,0.584267,0.202190,0.785971
0.335890,0.457842,0.822321,0.855211,0.502257,0.127874
-0.223219,-0.383073,0.281981,-0.932844,-0.057583,-0.355650
0.175418,-0.703803,0.271823,-0.481017,-0.848861,0.219220
-0.286177,0.311002,0.502487,0.522418,-0.348619,0.778167
-0.042256,-0.201141,0.636710,-0.326992,0.276846,0.903567
0.000264,-0.053582,-0.205002,0.257539,0.965421,-0.040450
0.377736,0.410888,-0.554280,0.136896,-0.450923,0.882002
0.557982,0.484577,0.588884,0.895938,-0.209923,0.391443
-0.143367,-0.626070,0.091693,0.055238,0.321405,0.945329
-0.207959,-0.124935,0.694339,0.860126,-0.508744,0.036911
0.731121,0.341421,0.653221,0.198064,0.906399,-0.373111
0.194038,-0.259104,0.870357,0.959292,0.005325,-0.282367
-0.313244,-0.033812,0.924633,0.980437,-0.118209,0.157383
-0.059241,-0.147132,0.731620,-0.266845,0.893635,-0.360846
0.335700,0.416189,0.801617,0.844488,0.460575,0.273333
0.386998,-0.575566,0.264986,0.284664,0.688133,0.667413
0.324087,0.308980,0.716575,0.933456,0.160497,-0.320781
-0.119947,-0.394082,-0.195811,0.801008,0.063903,0.595234
0.094655,0.272045,0.901687,0.917693,0.274915,0.286813
-0.428463,-0.040192,0.732474,0.821136,0.554017,-0.137120
0.124024,-0.376469,-0.031564,0.864135,-0.040655,0.501615
-0.086021,0.529240,0.622617,-0.294397,-0.902633,0.313982
0.074741,-0.184022,0.815356,0.875737,-0.329585,0.352787
-0.075655,-0.142279,0.815065,-0.668027,-0.714727,-0.207138
-0.108814,0.165330,0.315279,-0.230703,-0.641662,0.731468
0.106989,-0.170677,0.773141,-0.886352,0.233824,-0.399632
-0.561485,0.158545,0.410479,0.850147,0.521150,-0.075182
0.464498,0.428366,-0.970556,0.150723,0.023038,0.988308
-0.016534,-0.097796,0.303153,0.430418,0.901496,-0.045220
0.344528,-0.966031,0.375892,-0.498894,-0.852593,-0.155530
0.498954,0.299589,-0.651512,-0.249663,-0.272867,0.929092
-0.179501,-0.232459,0.195666,0.976989,0.087234,0.194632
0.768217,0.630384,0.217257,-0.822671,0.510673,0.249850
-0.018549,0.395296,0.788395,-0.040453,-0.923349,0.381826
0.554045,0.296084,0.603686,0.061710,-0.561000,0.825512
-0.586152,-0.009593,0.726863,0.578929,0.704835,-0.409937
0.185594,0.528162,0.488104,0.232159,0.555801,0.798240
-0.071718,-0.048594,0.103481,-0.140692,0.989447,-0.034654
0.679150,0.836445,-0.992034,0.052769,0.202767,0.977804
-0.009575,0.439734,0.560585,-0.431744,0.336073,-0.837050
0.105501,-0.394621,0.753501,0.231676,0.968030,0.096145
0.268565,-0.516074,0.427701,0.783442,-0.149253,-0.603276
-0.054971,-0.557817,0.382019,-0.044648,-0.941018,0.335398
-0.077237,0.326729,0.242202,0.969271,0.129419,0.209198
-0.381052,0.549505,0.360993,-0.671041,-0.680157,0.295110
0.705639,-0.574083,0.369361,-0.778920,0.582704,0.231820
0.121959,0.769765,0.055413,-0.009338,0.523905,0.851726
-0.051421,-0.133652,0.674458,0.035005,0.937724,0.345613
0.062361,0.349419,0.750470,0.567480,0.501058,0.653382
0.747916,0.627014,-0.950594,-0.305424,0.606607,0.733992
-0.498380,0.033857,0.500278,0.744744,-0.602508,0.286950
0.210692,-0.197052,0.507373,-0.327233,0.778720,0.535269
-0.058090,0.547528,0.665670,-0.649281,-0.710061,0.272486
0.302972,-0.853385,-0.073392,0.427364,0.370622,0.824621
0.765671,0.662286,-0.981537,0.040002,0.157419,0.986721
0.318902,0.259419,0.662025,0.314305,0.923710,-0.219027
-0.507261,0.129024,0.596285,0.930837,0.003456,-0.365419
0.486383,0.679226,0.488072,0.056209,-0.260492,0.963838
-0.362432,0.112804,0.650819,-0.722275,-0.658433,0.211625
-0.553231,-0.269619,0.597252,-0.581799,-0.560894,-0.588989
-0.075511,0.031745,0.398596,0.942972,0.100875,0.317218
0.213571,0.224057,0.836801,-0.521803,0.143727,-0.840871
0.760010,0.698682,-0.983198,-0.227284,-0.072387,-0.971134
0.445879,0.132799,-0.589448,0.822302,0.049345,0.566907
-0.232240,0.317922,0.719026,0.023748,-0.276668,0.960672
0.089617,0.160612,0.534866,0.010292,-0.983632,0.179897
0.309931,-0.003932,0.731249,0.984915,0.066322,-0.159826
-0.292369,-0.413269,0.320358,-0.846541,-0.427742,-0.316870
0.569402,0.083507,0.357155,0.169839,0.863945,-0.474081
0.586820,0.816361,0.111720,0.230147,0.464966,0.854891
-0.282197,-0.418076,0.363573,-0.043682,0.985348,0.164867
0.327877,-0.975916,-0.180121,-0.291517,-0.048783,-0.955321
0.550302,0.714633,0.523998,0.381529,0.384469,0.840606
0.019794,0.213813,0.339934,0.888366,0.024809,-0.458465
0.232814,0.845971,0.522321,-0.558941,-0.130327,-0.818901
-0.302781,-0.641347,0.084711,0.178886,0.629180,0.756394
0.296493,0.074791,0.797393,-0.259440,-0.249420,-0.932996
0.234012,-0.757588,0.275967,-0.142419,0.153681,0.977803
0.302732,-0.434701,0.768610,0.998012,0.044961,-0.044166
0.048732,0.078700,0.768400,-0.220050,-0.972201,0.080021
0.624683,0.789176,-0.985552,0.005144,0.174965,0.984561
0.116874,0.110377,0.857796,-0.411684,0.848159,-0.333381
0.343043,0.813260,0.077149,0.495290,-0.389545,-0.776494
0.447080,-0.458426,0.690679,0.822555,0.549950,0.144768
-0.206038,0.375256,0.796425,0.837607,0.433103,-0.332920
0.048539,0.449844,0.529125,0.977201,-0.183323,0.107106
-0.025412,-0.690503,0.584014,-0.168903,0.783870,0.597511
0.366557,0.671542,0.491087,-0.055041,-0.283710,0.957329
-0.094371,-0.439195,-0.222481,0.947987,-0.105800,0.300213
-0.102288,0.294646,0.754936,-0.685847,-0.693232,-0.221455
-0.259978,-0.465345,0.183121,0.151538,0.280000,-0.947964
0.111787,0.266518,0.821289,-0.023340,0.784838,0.619261
0.500636,0.446025,0.290657,-0.158973,0.243023,0.956905
0.044555,-0.834019,0.344481,0.796789,0.504217,0.333005
0.396069,0.191751,0.787057,-0.098060,0.928183,-0.358972
0.102285,-0.214936,0.784880,0.717078,0.696441,-0.027721
-0.203015,0.004471,0.879726,-0.182189,-0.609932,0.771226
-0.454329,0.093977,0.834915,-0.451788,0.037703,0.891328
-0.048925,-0.056323,0.151887,0.243628,-0.963379,0.112009
0.135060,0.809126,0.455903,0.198073,-0.960848,0.193747
-0.264585,-0.057671,0.530915,0.092516,-0.964250,0.248319
0.401347,0.373683,0.124040,-0.277894,0.260911,0.924500
-0.309884,0.185730,0.813550,-0.106573,0.981184,0.160999
0.058471,0.075285,0.835850,-0.128746,0.919351,0.371778
0.567721,0.566085,0.234413,-0.831083,0.294321,-0.471886
-0.411859,-0.390083,0.720526,0.870382,-0.262689,-0.416448
0.045996,-0.191930,0.933324,-0.438688,-0.740290,0.509434
-0.483073,0.024915,0.402304,0.942453,0.303635,0.139958
-0.434078,0.034486,0.823692,0.462214,0.687541,0.560041
0.121241,-0.026847,0.544702,0.010746,-0.983568,0.180216
-0.047244,-0.042439,-0.580789,-0.699760,-0.713287,0.039463
0.303019,0.563659,0.090403,-0.651516,-0.451847,0.609395
0.241499,0.116399,-0.405561,-0.398331,0.888786,-0.226697
0.366653,0.713464,0.594640,0.232636,0.642968,0.729707
0.679870,0.357507,0.537349,0.451190,-0.028919,-0.891959
-0.372412,-0.251960,0.822983,0.950011,0.309274,0.042764
0.182808,0.658017,0.377053,-0.372771,-0.394096,0.840078
-0.315452,-0.379119,0.811502,0.971251,0.235647,0.033805
-0.162800,-0.569634,0.371183,0.440406,-0.856682,0.268586
0.089377,-0.299049,0.151016,0.915479,0.347010,0.203673
0.303452,0.421491,0.375569,0.407227,0.767026,-0.495819
0.043691,-0.402664,0.802004,0.316772,0.891605,0.323567
-0.017108,-0.048639,-0.130780,0.283234,0.957993,-0.045032
-0.037265,-0.398935,0.149355,-0.007044,-0.975092,0.221688
0.218512,-0.563388,0.524030,0.358373,0.607204,0.709135
0.429995,0.368561,0.824079,0.408797,-0.830061,-0.379321
0.233005,-0.305250,0.136762,0.109411,-0.128634,0.985638
0.411953,-0.681247,0.301347,-0.323559,0.560565,-0.762283
0.498187,0.305160,0.795603,-0.450294,0.191890,0.872017
-0.051804,-0.659051,0.260036,0.290830,0.950455,0.109788
-0.282867,-0.069309,0.657559,-0.467678,0.539436,0.700204
0.494781,0.625710,-0.973942,0.026539,0.044808,0.998643
0.579958,0.859046,0.096805,0.156957,0.398469,0.903652
0.246443,-0.843409,-0.360041,-0.561720,-0.827237,-0.012256
-0.149605,0.643818,0.663702,-0.522195,0.352980,0.776349
-0.852199,0.204512,0.585868,0.159224,-0.816732,0.554614
0.327830,0.242165,0.266679,0.446986,0.572948,-0.686975
0.485566,-0.639055,0.634533,0.880805,-0.454446,0.132893
-0.248314,-0.500932,0.759370,0.601143,0.628049,-0.494147
0.456438,-0.536025,0.226674,-0.092644,0.838207,0.537426
-0.297697,0.407562,0.526852,0.307463,-0.157869,0.938373
-0.297216,0.800004,0.375715,-0.788908,0.276513,0.548785
0.034383,-0.173283,0.931180,0.558935,0.794827,-0.236310
-0.205510,-0.312574,0.244169,-0.937795,-0.007274,-0.347112
0.406291,0.156658,-0.671620,0.701751,-0.317912,-0.637556
-0.114716,0.682865,0.266905,0.100419,-0.022202,0.994697
0.410465,-0.607333,0.322261,-0.197089,0.405330,-0.892672
-0.379948,-0.050572,0.891851,0.265602,0.918395,-0.293268
0.264532,0.513019,0.601445,-0.477539,-0.759884,-0.441059
0.020945,0.008650,0.056880,0.575153,-0.675171,-0.461890
-0.277396,0.065759,0.850298,0.952599,0.150259,0.264531
0.004965,-0.157242,-0.299831,0.985279,-0.095941,0.141496
0.560524,0.409225,-0.700435,-0.239170,0.748750,0.618201
0.248121,0.236953,0.256150,0.243377,0.690790,-0.680865
-0.115533,0.198805,0.558263,0.578229,0.746059,0.330222
0.501547,0.466829,-0.968267,0.076347,0.083956,0.993540
-0.320970,-0.480937,0.431603,-0.147431,-0.963844,-0.221968
0.366890,-0.783918,0.487765,-0.072184,-0.983923,0.163353
-0.087075,0.021635,0.810163,0.889661,-0.453430,0.053891
0.204260,0.206623,0.700983,0.868388,0.447151,-0.214380
0.463300,0.441711,-0.773270,0.131882,0.991069,0.019720
0.761498,0.421671,0.559359,-0.643644,0.759195,-0.096670
0.300573,0.385141,0.824289,-0.231562,0.201167,0.951793
0.563787,0.632900,0.580612,0.823922,0.566674,0.005729
0.025456,-0.111860,-0.871244,0.286764,0.954234,0.084877
0.538352,0.475725,0.228302,0.794820,-0.154519,0.586843
0.010533,-0.184741,0.907251,-0.741692,-0.663052,-0.101265
0.141252,0.327267,0.735990,0.750612,-0.634276,0.185137
0.933967,0.595201,0.241879,0.592116,0.803558,0.060768
0.560621,0.551662,-0.975442,0.076900,0.075119,0.994205
0.292413,0.444767,-0.960849,0.283615,0.096912,0.954029
0.081457,-0.206803,0.778140,-0.596126,-0.792553,0.128430
-0.038656,-0.183527,0.881177,-0.655091,0.707379,-0.265464
0.434268,0.379749,0.804665,-0.291272,0.911090,-0.291678
0.458022,0.272899,0.854345,0.328954,0.054146,0.942792
-0.135353,-0.243243,0.592415,0.737710,-0.664734,-0.117955
-0.119226,0.522545,0.583385,-0.486348,-0.865635,-0.118920
0.755212,0.058615,0.527045,0.690821,-0.496017,-0.526055
0.046524,0.375570,0.775560,0.053285,-0.845962,0.530575
0.535473,0.822067,0.516500,0.204460,0.059296,0.977077
-0.060969,0.314462,0.907025,0.144905,-0.939538,0.310275
0.129302,0.432814,0.699773,-0.700945,0.300151,0.646982
-0.344437,-0.281481,0.145808,0.893918,0.177050,0.411782
0.159535,0.193099,0.502003,-0.235313,0.948409,0.212479
0.609710,0.414168,0.395306,-0.642072,0.759061,0.107564
-0.863666,-0.056278,0.145518,0.323235,0.287806,0.901491
0.383735,0.781312,0.549297,0.703107,-0.112808,-0.702079
-0.306191,0.028151,0.865923,0.946437,0.020679,0.322225
-0.086501,-0.088001,0.780913,0.983044,0.070336,0.169342
-0.706410,-0.140527,0.651883,0.839432,0.460153,0.289161
0.395398,-0.485880,0.646771,0.917546,-0.129456,-0.375967
-0.324089,-0.011255,0.278644,-0.635300,-0.699181,-0.327933
0.171582,0.824807,0.513291,-0.125177,0.762671,0.634558
0.283105,-0.417492,0.695162,-0.076236,0.721745,0.687948
-0.305901,0.353239,0.709190,0.341474,-0.468027,0.815075
0.495404,-0.036418,0.163674,0.330885,-0.092906,0.939087
-0.248411,-0.528791,0.756807,0.591879,0.531059,-0.606346
-0.476258,-0.390083,0.684213,0.951275,-0.266452,-0.155177
-0.035200,-0.054661,0.252957,-0.562333,0.815819,-0.134984
0.077907,0.135270,0.855216,0.177644,-0.939382,0.293265
0.243324,0.684303,0.560681,-0.492988,0.396216,-0.774581
-0.702186,0.044910,0.694081,0.560928,0.677753,-0.475405
-0.265926,0.316214,0.156208,0.854831,0.140905,0.499409
-0.260311,0.127048,0.857022,0.777449,0.537276,-0.326968
0.162941,-0.061715,0.296977,-0.603522,0.375054,0.703631
0.108284,-0.205679,0.803343,0.528674,0.822676,-0.209064
0.400386,0.729640,0.490652,0.235052,-0.328245,0.914880
0.436667,0.713959,0.104996,0.385992,-0.154385,-0.909492
0.920195,0.667543,-0.854136,0.755834,0.396270,-0.521234
0.665475,0.639415,-0.979409,0.060777,0.094019,0.993714
0.307676,0.328077,0.083937,0.880224,-0.358732,-0.310671
0.227293,-0.150861,0.500504,-0.317185,0.772084,0.550708
-0.561535,-0.082159,0.513710,0.951472,-0.215878,0.219314
-0.050557,-0.038664,0.890723,0.554170,0.362636,-0.749260
-0.365982,0.028645,0.804213,-0.244847,-0.968682,-0.041297
0.079059,0.265081,0.690615,-0.115066,0.980528,0.159140
-0.743025,-0.093347,0.654914,0.537148,0.590022,-0.602782
0.019601,-0.087102,-0.496457,0.252076,0.966095,-0.055837
-0.004967,0.569410,0.776495,-0.573432,0.747031,0.336334
-0.376204,-0.590034,0.714350,-0.576842,0.669813,-0.467550
0.067639,0.125340,-0.948707,0.081375,0.130213,0.988141
-0.338005,0.079464,0.698887,0.443818,-0.176560,0.878551
0.122346,0.134146,0.838736,-0.456823,0.867195,0.198209
0.141109,-0.230797,0.805326,0.530981,0.845372,-0.058356
0.870382,0.697109,-0.857038,0.265964,0.118953,0.956615
-0.284259,0.112040,0.848363,0.828915,-0.018860,-0.559057
-0.236127,0.765586,0.122879,0.644463,0.445551,0.621410
-0.466469,0.055964,0.812566,-0.146897,-0.985064,-0.089838
-0.198695,-0.079688,0.974781,0.337464,0.885480,-0.319443
0.104494,0.546899,0.601993,0.183195,-0.479711,0.858089
0.550205,0.236054,0.794281,-0.735009,0.362439,-0.573062
-0.034480,0.524432,0.648368,-0.730242,-0.651569,0.205439
0.076132,0.425760,0.776866,-0.599007,0.286942,0.747566
0.015714,0.048685,0.087759,-0.621680,0.782536,-0.033914
0.311419,0.343668,0.108044,-0.303379,-0.867134,0.395018
-0.761931,0.130013,0.536623,0.163197,-0.730907,0.662678
-0.184349,-0.069938,0.664702,0.784617,0.616985,0.060881
0.283105,0.432455,0.772061,-0.261153,-0.953659,0.149443
-0.139430,-0.321830,0.648561,0.184538,-0.831128,-0.524568
-0.324186,-0.501202,0.565051,-0.165695,-0.553790,0.816004
0.162941,-0.015793,0.564906,0.003584,-0.991414,0.130710
0.104157,0.471726,0.588206,0.335084,0.175841,-0.925634
0.386904,-0.888881,-0.623245,0.410862,-0.909729,0.059880
0.273940,-0.802026,0.287190,0.579763,0.015000,-0.814647
0.357869,0.288985,0.768529,-0.717671,-0.655315,0.235607
-0.205270,-0.395430,0.705981,0.824524,0.279610,0.491913
0.404850,-0.071375,0.605557,0.843876,0.497915,0.199883
-0.028961,-0.036193,0.092080,-0.013000,-0.997131,0.074574
-0.821198,-0.062299,0.584998,0.560110,0.736888,0.378514
-0.029105,-0.402934,0.776205,0.694897,-0.658720,-0.288454
0.053290,0.170632,0.476091,-0.126054,-0.967603,0.218758
-0.632556,0.255600,0.634452,0.741792,0.605648,-0.287986
-0.508506,0.078026,0.810357,-0.606004,0.576877,-0.547696
0.467667,0.652445,0.579096,-0.590223,0.689329,-0.420075
0.053626,-0.606524,-0.016262,-0.694652,0.031208,-0.718668
0.473139,0.433758,-0.816323,0.192021,0.916727,0.350341
0.711638,0.117117,0.454790,0.232811,0.971987,-0.032248
0.323463,0.115454,0.740488,0.066479,-0.994755,0.077739
0.598627,0.473524,-0.665250,-0.175787,-0.984322,0.014473
0.575064,0.129339,0.642095,-0.540296,-0.229831,0.809480
-0.014422,0.066793,0.293091,0.915655,-0.367576,0.162676
-0.209541,-0.586125,0.394822,0.175521,-0.778382,0.602755
-0.098208,-0.033093,0.074891,-0.290065,0.953546,-0.081318
-0.021765,-0.145425,0.837156,0.964960,0.207998,-0.159968
0.761835,0.597133,0.196762,-0.191623,0.554736,0.809659
-0.481729,0.014176,0.465497,0.967097,-0.047729,0.249889
0.188279,-0.085978,0.302621,0.565894,-0.085221,-0.820062
0.530772,0.200737,0.579693,0.184488,-0.396036,0.899511
0.788658,0.616185,0.194763,-0.113363,0.451070,-0.885260
-0.041486,-0.101795,0.757387,-0.300251,-0.940346,-0.159995
0.434795,0.294287,0.813969,-0.317360,-0.783321,0.534501
0.289056,0.632810,0.103835,0.463211,0.123638,-0.877581
0.217698,-0.351396,0.476510,0.196400,-0.900614,-0.387714
0.447800,-0.547033,0.683117,0.954229,-0.029616,-0.297606
-0.165873,-0.108580,0.408480,-0.480004,-0.204146,-0.853183
0.680925,0.533689,0.206340,0.168930,0.976574,-0.133291
0.415792,0.497787,0.506599,0.874553,0.420427,0.241657
0.044508,0.553414,0.775173,-0.564699,-0.696359,-0.442944
-0.456584,0.138685,0.590851,0.969138,0.020993,-0.245624
0.211266,-0.546943,0.640644,-0.567205,-0.792263,-0.224942
0.732993,0.361731,0.650174,0.282313,0.874153,-0.395165
0.151521,-0.212374,0.687551,0.206618,0.965656,0.157534
-0.110445,0.158231,0.785702,-0.216808,-0.681558,0.698909
-0.332774,-0.339175,0.786734,0.482361,0.799018,0.359025
-0.353315,0.012649,0.698113,-0.739623,-0.279423,0.612275
-0.527462,0.184247,0.646530,-0.635415,0.766317,-0.094904
-0.071912,0.502640,0.623149,0.317906,0.913546,-0.253710
-0.120907,-0.255510,0.588803,0.619921,-0.758309,-0.201659
0.218225,-0.662106,0.114058,0.657336,-0.048407,0.752041
0.387912,-0.933365,-0.188764,-0.291517,-0.048783,-0.955321
-0.218418,-0.165779,0.431313,-0.644495,-0.424021,-0.636264
0.648583,0.425985,0.616312,-0.336823,-0.782337,0.523927
0.041676,-0.015389,0.184249,0.630295,-0.773396,0.067736
0.214482,0.372515,0.731249,-0.126446,0.739026,0.661704
0.162030,-0.707039,0.288254,0.172157,0.982988,-0.064011
-0.683520,0.225405,0.687632,-0.685422,0.697176,-0.210100
0.512009,0.228460,0.753791,0.827786,-0.476920,-0.295497
0.677518,-0.144975,0.527077,-0.717492,0.428452,0.549212
0.434892,-0.406618,0.687148,0.918765,0.175009,0.353897
0.622908,0.136843,0.659236,0.519807,0.593289,-0.614661
-0.151237,-0.216194,0.161594,-0.822636,-0.396353,-0.407645
-0.062937,-0.009907,0.422122,0.993914,-0.024223,-0.107463
0.140725,-0.825616,0.561762,0.091235,-0.872637,0.479772
0.065287,-0.820269,0.115235,0.159379,-0.202735,0.966176
0.086402,-0.333603,0.215435,-0.661179,0.731954,0.164577
0.128344,0.385770,0.787024,0.939667,-0.287264,-0.185753
0.675503,0.341062,0.632372,0.999557,0.026927,0.012669
-0.093794,0.748287,0.266953,0.128209,-0.076380,0.988802
0.319720,-0.313068,0.752501,-0.113072,-0.965140,0.236051
0.521797,0.639685,-0.978038,0.096429,0.102269,0.990072
0.206515,-0.008874,0.570405,0.132866,-0.989773,0.051924
-0.395544,-0.552290,0.683826,0.073361,0.961847,0.263568
0.374043,-0.445934,0.600735,0.664676,0.543304,-0.512862
-0.232961,-0.039069,0.684987,0.886687,0.462235,-0.011130
0.449288,-0.706769,0.275725,0.284605,-0.481455,0.828976
-0.443292,-0.423558,0.701612,0.839119,0.035863,-0.542764
0.736496,0.410168,0.192489,0.756229,0.250465,-0.604471
0.948459,0.594213,-0.861746,0.637185,-0.167209,-0.752354
0.038077,-0.232819,0.711287,0.971398,0.056210,-0.230709
0.598050,0.647548,0.210581,0.197774,0.173931,0.964693
0.035871,0.384916,0.523869,0.975031,-0.058574,0.214205
-0.178444,-0.478690,0.195117,-0.302908,-0.143360,0.942176
0.221391,0.248456,-0.951626,-0.233051,0.458262,0.857720
0.353022,0.414886,0.087517,0.890779,-0.185805,-0.414716
0.970725,0.617083,-0.851556,0.865028,0.152781,-0.477895
-0.085637,-0.050661,-0.283126,0.007042,0.999685,0.024107
-0.300429,0.057986,0.935662,0.877614,-0.305564,-0.369356
0.098976,0.066433,0.433586,0.806549,0.268733,-0.526556
0.118025,-0.705017,0.249909,0.515744,0.499329,-0.696188
-0.277206,-0.293747,0.816742,0.019407,0.893680,0.448286
0.660340,0.359619,0.645804,0.914266,0.240350,0.326114
-0.253882,0.027117,0.955189,-0.004601,0.545037,0.838399
-0.006502,0.565680,0.330291,0.105483,-0.225660,0.968479
-0.124123,-0.078430,0.925488,0.458060,0.865857,0.201179
0.185017,0.009818,0.597075,0.192499,-0.981207,0.013269
0.053243,0.704029,0.390501,-0.615839,-0.786980,0.037486
-0.397079,-0.520927,0.602880,0.419246,0.907872,0.000913
0.046524,-0.046932,0.494119,-0.272900,0.960281,-0.058184
-0.307292,0.071960,0.704417,0.849744,0.525414,0.043297
-0.568013,0.012649,0.801956,0.925169,0.193282,-0.326656
-0.314588,-0.007526,0.264373,-0.726225,-0.601513,-0.332834
0.288432,0.694458,0.554651,-0.395145,0.512938,-0.762073
-0.031697,-0.128035,0.923940,0.137575,0.506766,0.851036
0.152816,0.110288,0.757500,-0.495428,0.212094,0.842358
-0.647769,-0.158904,0.673006,0.966110,0.221468,-0.132601
-0.100657,0.542360,0.630776,-0.108261,-0.504608,0.856534
-0.136071,-0.081216,0.921521,0.633282,0.772279,0.050394
0.242459,0.239693,0.581885,0.887633,-0.328357,-0.322939
0.465555,0.825841,0.114752,0.051623,0.480655,0.875389
0.326919,-0.621486,0.634936,0.892226,-0.350458,0.284802
0.230943,0.580508,-0.768674,-0.345890,0.938273,0.002147
-0.151811,-0.015839,0.632582,-0.717158,0.570127,-0.400798
0.288432,0.345061,0.324857,0.746577,0.427684,-0.509617
-0.194521,-0.501472,0.481493,0.183515,0.864631,0.467692
0.071669,-0.186269,0.964284,0.389664,-0.883449,-0.260153
0.007413,0.010357,0.172494,-0.546827,0.820792,-0.165169
-0.026706,-0.029768,-0.094693,0.748493,-0.600737,0.280844
0.175659,0.207657,0.688373,0.644387,0.712356,-0.278053
-0.067928,-0.446518,0.800392,0.739781,-0.146374,0.656733
0.190008,-0.488666,0.592512,0.281392,-0.955147,-0.092266
-0.367183,0.409045,0.509292,0.562047,0.823569,-0.076402
0.155745,-0.857833,0.239606,0.813722,0.485262,-0.319965
-0.301967,-0.024196,0.847170,0.198773,-0.957864,0.207331
0.347744,0.525151,0.487894,0.607510,-0.789606,0.086335
0.552557,-0.698860,0.107060,0.214726,-0.273711,-0.937537
-0.968282,-0.039698,0.104948,0.803006,-0.577634,0.146694
-0.064282,0.611243,0.092693,-0.386634,-0.471320,0.792699
-0.084579,-0.488801,0.071666,-0.545390,-0.478983,-0.687841
-0.427936,-0.573993,0.163271,-0.145859,-0.092198,0.985000
-0.050413,-0.089439,-0.093773,0.940415,0.313261,0.132237
0.515272,0.488621,0.601251,-0.523850,-0.072824,-0.848692
0.510471,-0.373323,0.681456,-0.251858,-0.849005,0.464497
-0.179358,-0.085260,0.609072,0.319755,0.944791,-0.071598
0.392229,0.389544,0.698758,-0.740683,0.614257,-0.272171
-0.048445,-0.126508,0.497537,0.837577,0.545406,0.031580
-0.191929,-0.474197,0.186878,-0.241402,0.175317,0.954458
0.298652,0.161601,0.813485,-0.115489,0.955631,0.270984
0.692251,0.339984,0.480445,-0.308037,0.887807,-0.341925
-0.071048,-0.198176,0.698919,0.706282,-0.586306,-0.396749
-0.104927,-0.072454,0.410350,0.813747,-0.580697,0.024642
-0.329991,0.153962,0.748099,-0.692385,-0.425180,-0.582945
-0.039087,-0.044910,-0.274548,0.372420,0.927717,0.025377
0.373753,0.258476,0.289463,0.845653,-0.471371,-0.250359
0.371164,-0.602076,0.561310,-0.460164,0.348814,-0.816442
0.015330,-0.175664,-0.298090,0.258635,0.499977,0.826517
-0.070377,-0.081575,-0.280337,0.732495,0.667425,-0.134147
-0.038847,0.054930,0.881854,0.844312,-0.220648,0.488316
0.198455,0.216463,0.049011,-0.319929,-0.409719,0.854269
0.544974,0.462560,0.620665,-0.342485,0.487083,0.803402
0.212610,0.683988,0.388324,0.299894,0.511788,-0.805069
0.104013,-0.117432,0.930325,0.492299,-0.867303,-0.073664
-0.013125,0.022265,0.193989,0.954629,-0.227379,0.192305
-0.028004,0.077801,0.686954,0.574836,0.719529,-0.389670
0.298605,-0.566939,0.086421,0.578663,-0.041142,0.814528
0.169517,0.836939,0.445906,0.030210,-0.847461,0.529998
-0.383881,-0.000966,0.310893,-0.615237,-0.732572,-0.291242
-0.284692,-0.125744,0.919392,0.874565,-0.134491,0.465883
0.139381,0.613219,0.369571,-0.444696,-0.540510,0.714208
-0.073447,-0.036597,0.223255,0.816335,-0.571288,-0.085015
0.328454,0.666240,0.533930,0.259479,-0.122054,0.958005
0.180650,-0.660668,0.543976,0.793644,0.012835,0.608247
-0.083859,-0.118824,0.783445,0.801890,0.596251,0.038162
0.788851,0.661387,0.205357,-0.473147,0.134646,-0.870633
0.034430,0.290962,0.857199,0.664832,-0.746199,-0.034429
0.615085,0.877693,-0.992631,0.073783,0.220005,0.972704
-0.430525,-0.360473,0.563713,-0.642725,-0.464212,-0.609435
-0.240207,0.307497,0.353704,0.614965,-0.441453,0.653405
-0.474533,-0.069668,0.737489,0.643580,-0.066948,-0.762445
0.053243,0.046079,0.098579,-0.599552,0.788409,0.137653
0.229742,0.000562,0.624052,0.081140,0.995976,-0.038053
0.251287,-0.548695,0.773318,0.194294,-0.818073,0.541300
0.508312,-0.778032,-0.106464,-0.775490,0.616744,-0.135065
0.146290,0.195165,0.646675,-0.576641,-0.757062,0.307152
0.551213,0.460269,0.537623,0.987485,-0.020633,0.156358
-0.333878,0.010402,0.913684,0.603255,-0.456092,-0.654266
0.240204,-0.343083,0.539590,0.971225,0.160612,-0.175857
0.029632,0.045539,0.251667,0.532650,0.807031,-0.254920
0.426398,-0.952012,-0.549636,0.410862,-0.909729,0.059880
-0.087842,0.290917,0.664670,0.610326,0.789309,-0.067037
0.003767,0.143808,0.213871,0.939754,0.328009,-0.096290
0.354560,-0.338051,0.714528,-0.536071,-0.826818,0.170294
-0.056268,-0.043113,-0.464513,0.094727,-0.975197,0.200044
-0.117405,0.053582,0.066942,0.929595,0.364786,-0.052766
-0.016197,0.073218,0.701934,0.791242,0.559290,-0.247246
-0.184299,-0.329514,0.789379,0.819246,0.566262,-0.090466
0.198838,0.135405,0.859876,-0.095418,0.199931,0.975153
0.935695,0.572914,0.246072,0.592116,0.803558,0.060768
-0.789428,0.226619,0.824111,-0.548292,0.711690,-0.439173
0.379177,0.382670,-0.619359,-0.100328,0.814344,0.571646
0.141012,-0.847453,0.525852,-0.691605,0.716317,-0.092582
0.264582,-0.857833,-0.071941,0.231981,0.000027,0.972720
0.485279,0.011480,0.590157,-0.779948,0.578323,0.239213
0.467667,0.285076,0.364379,-0.176306,-0.935982,0.304720
0.158337,-0.514727,0.654479,-0.581731,0.473840,-0.661109
-0.306958,-0.529599,0.676151,0.275544,0.879379,0.388288
-0.033952,0.518007,0.658623,0.839198,0.510279,0.188048
0.199462,0.592955,0.433441,0.944147,0.304434,0.126118
0.674446,0.448406,-0.505003,0.171819,0.846871,-0.503278
-0.119516,0.038754,0.062379,0.932425,0.342522,-0.115159
-0.557935,0.158770,0.410737,0.850147,0.521150,-0.075182
-0.062841,-0.122509,0.720607,0.649397,-0.585159,0.485667
0.232861,0.592820,0.649851,-0.309849,-0.066067,-0.948488
0.132998,0.158275,0.043851,0.425768,0.158134,-0.890907
-0.827437,-0.139404,0.223207,-0.519352,0.769049,0.372610
0.028432,0.363663,0.714641,0.198561,0.562037,-0.802925
0.311226,-0.035879,0.667508,-0.445541,0.057880,-0.893388
-0.525063,-0.537418,0.562165,-0.477615,0.645006,-0.596533
-0.443052,-0.046393,0.781623,0.502750,0.854089,0.133320
0.672671,0.675586,0.199519,0.117221,-0.119052,0.985944
0.207476,0.354991,0.806632,-0.369357,0.018347,0.929106
-0.096626,-0.197636,0.910927,0.913066,-0.037890,0.406047
-0.081700,0.278516,0.832399,-0.588529,0.005094,0.808460
-0.008614,0.457752,0.832125,0.398817,-0.339200,0.851991
0.180409,-0.890319,0.242831,0.756331,0.289019,-0.586883
-0.488305,-0.111365,0.737054,-0.731484,-0.050951,0.679952
0.172683,-0.423828,0.141035,0.064845,0.039690,0.997106
-0.144468,0.649929,0.269178,0.048079,0.007648,0.998814
0.346833,0.089394,0.781687,-0.239373,-0.067452,-0.968582
0.112411,-0.696075,0.317730,-0.642675,0.753071,-0.140901
0.530578,0.338546,0.448550,-0.345631,-0.906249,0.243417
0.466036,0.367527,0.267969,-0.704251,0.486028,0.517501
-0.295872,0.082025,0.914394,0.241731,-0.897927,0.367821
0.660867,0.605581,0.584353,-0.246197,-0.128110,0.960716
-0.186604,-0.168475,0.416671,-0.640449,-0.375544,-0.669919
0.316503,-0.412414,0.704046,0.012500,0.713509,0.700535
0.296013,0.527218,0.465352,0.585663,0.738806,0.333412
0.060966,0.747209,0.369313,-0.268502,-0.255046,0.928902
-0.223219,-0.371975,0.099998,0.125094,0.173269,0.976898
0.098495,0.342814,0.794039,0.878920,-0.215068,-0.425729
0.589699,0.870729,0.093790,0.021782,0.336762,0.941338
0.077140,-0.189684,0.951465,0.630701,-0.773239,-0.065710
0.271204,-0.684303,0.114316,0.672832,0.256410,0.693939
-0.068936,-0.231740,0.957495,-0.153327,-0.836676,0.525799
0.645848,0.736515,0.515371,-0.090823,-0.043372,0.994922
0.512056,0.215924,0.677279,0.223629,0.971345,-0.080499
-0.127720,-0.127586,0.524675,0.660471,0.576673,0.480860
0.469779,0.417717,-0.544186,0.381058,-0.305720,0.872542
-0.378843,-0.547797,0.550555,0.147161,0.947717,0.283153
0.325718,0.277258,0.718381,0.871705,0.391166,-0.295162
0.206325,0.357732,0.291366,-0.105891,0.747313,-0.655981
0.193030,-0.187661,0.888401,0.769806,0.226319,0.596807
0.396646,0.033677,0.774641,-0.502118,0.101330,-0.858842
-0.164865,-0.320617,0.096128,-0.141804,-0.385526,0.911735
-0.575403,0.215025,0.689034,-0.543420,0.076655,-0.835954
-0.175615,0.392824,0.766772,-0.697187,-0.568705,-0.436469
0.068119,0.481432,0.584578,0.474046,0.702933,-0.530250
0.527749,0.353374,0.124185,-0.670933,0.533467,0.515035
0.017539,-0.766305,-0.276950,0.829967,0.142031,0.539428
0.187128,-0.620903,0.544444,0.279515,0.698509,0.658753
0.539986,0.230393,0.801101,-0.217272,0.471441,0.854714
0.173980,0.214172,-0.955609,-0.045355,0.326545,0.944093
-0.086404,0.555930,0.353785,0.053053,-0.127953,0.990360
-0.220340,0.013548,0.194037,-0.417664,0.889467,-0.185487
0.277106,0.701962,0.569953,-0.161565,0.555570,-0.815621
-0.470980,-0.092224,0.813405,0.116964,0.620373,0.775537
0.301867,-0.473164,0.581402,0.746844,-0.054047,-0.662799
-0.205317,0.580239,0.624310,-0.537370,0.830499,-0.146646
0.033853,-0.785491,0.214209,0.605536,0.712778,-0.353941
0.329461,0.343938,-0.964542,-0.010156,0.102144,0.994718
-0.231953,0.031610,0.829545,0.980414,-0.196942,-0.001078
-0.034386,-0.077576,-0.226399,-0.142815,-0.989749,-0.000655
0.503034,-0.049269,0.488862,0.625937,0.702195,0.339301
0.005685,-0.046393,0.075923,-0.589005,0.807280,-0.037039
0.365019,0.457213,0.432022,-0.702672,-0.567729,0.428877
-0.051804,-0.317787,0.665847,-0.553874,0.744098,0.373553
-0.054444,-0.037092,-0.372909,0.315147,0.949014,-0.007374
0.568491,0.529600,0.202035,-0.687659,0.652029,-0.319347
0.665568,0.635372,-0.984069,0.060777,0.094019,0.993714
0.416176,0.397587,0.753662,-0.211339,-0.611325,0.762639
-0.016821,-0.062389,0.067329,0.354143,-0.923843,-0.145248
-0.085684,0.325695,0.646481,0.607345,0.793235,0.043707
0.434506,-0.072948,0.660381,-0.250574,0.318094,0.914346
-0.031027,-0.441441,0.201051,0.085387,0.568566,0.818194
-0.416993,0.091550,0.773770,0.926515,0.284174,0.246609
0.061496,0.493159,0.763144,0.819189,0.548788,-0.166617
0.357869,0.190986,0.612313,0.409918,0.808805,-0.421665
0.486717,0.186134,0.793910,0.881342,-0.020199,-0.472046
0.485806,-0.144256,0.427007,-0.010977,0.745991,0.665866
0.529284,-0.416863,0.653254,0.921632,-0.040616,-0.385934
0.033519,0.077037,0.754194,0.072368,-0.929168,0.362504
-0.096003,0.005909,0.631340,0.020131,-0.724019,0.689486
-0.616192,-0.141426,0.271017,-0.266799,-0.397739,0.877851
0.265733,0.620454,0.473753,0.886627,0.291928,-0.358708
-0.220914,-0.115903,0.700934,0.938171,-0.312270,0.149410
0.676224,0.132709,0.437134,-0.421686,0.906697,0.009017
0.586630,0.263148,0.788153,0.907423,-0.342832,0.243003
0.095183,-0.601537,0.263986,0.052621,0.370050,0.927520
0.051755,0.453214,0.783799,0.984816,0.172881,-0.015792
0.171965,0.400328,0.728089,0.895782,-0.184308,-0.404480
0.500395,0.311496,0.400353,-0.510244,0.854750,0.095154
0.456341,0.418211,0.624294,0.531629,-0.264087,0.804754
-0.266790,-0.163847,0.677683,0.097623,0.582380,0.807034
-0.881998,0.094246,0.157773,-0.383872,0.645942,-0.659849
-0.239533,-0.371661,0.276273,-0.932844,-0.057583,-0.355650
0.177340,-0.337377,0.373989,0.888193,0.456253,-0.054273
0.245913,-0.361326,0.526561,0.992966,-0.023998,-0.115946
-0.077670,0.287502,0.240638,0.906070,0.088603,0.413746
-0.016341,-0.166049,-0.039917,0.917317,0.394251,-0.055641
0.223407,0.325650,0.809793,-0.455225,0.884010,-0.106285
-0.006649,0.596415,0.335935,0.112661,-0.235110,0.965417
0.361279,-0.378086,0.680166,-0.399286,-0.409048,-0.820518
0.140101,-0.214531,0.827046,-0.406706,-0.912647,-0.040822
-0.446939,-0.006672,0.406610,0.882032,-0.395842,0.255594
0.473522,0.231785,0.724154,0.715293,-0.391297,-0.579001
-0.856326,-0.313518,0.306733,-0.153869,-0.406316,-0.900684
0.483791,0.416189,0.289173,-0.209898,0.134508,0.968427
0.579958,0.460987,0.587142,0.816641,0.064926,0.573483
0.392229,0.827234,0.555457,0.518864,-0.710876,-0.474800
-0.016628,-0.111860,0.625858,-0.440302,-0.886811,-0.140358
0.126279,0.452900,0.770609,-0.487415,-0.870668,0.066054
0.429371,0.705511,0.104722,0.005900,0.478504,0.878066
-0.083622,0.383613,0.678972,0.844667,0.145000,-0.515279
0.340211,0.499944,0.102642,0.385572,0.266002,0.883503
0.867646,0.670643,-0.649384,0.435781,0.298287,0.849188
-0.054203,-0.140302,0.895238,0.349613,0.819957,-0.453257
0.032271,0.134146,0.515871,0.005607,-0.999977,0.003914
0.417664,0.278516,0.552071,0.755306,-0.230192,-0.613616
0.255944,0.210982,0.880951,0.991543,0.126829,0.027507
0.427453,-0.335040,0.700306,-0.068599,0.528176,0.846359
0.235931,0.270742,-0.961381,0.011844,0.159954,0.987053
-0.099362,0.461481,0.090307,0.986916,-0.023576,-0.159504
-0.334502,0.057761,0.641547,0.861323,0.503000,-0.071512
0.073300,0.069848,0.309748,-0.347649,-0.930746,0.113369
0.566953,0.416144,-0.562584,0.652757,-0.293564,0.698376
-0.058857,0.191526,0.221433,0.959744,0.265122,-0.092746
0.469779,0.564647,0.625825,-0.241389,-0.015785,-0.970300
-0.879456,0.185370,0.229383,0.913831,-0.404981,-0.030041
-0.339156,-0.073712,0.692953,-0.293985,0.249150,-0.922766
0.341889,0.521647,0.470979,-0.510984,0.859165,-0.027040
0.009909,-0.092719,-0.262196,0.677664,0.723278,-0.132816
0.285216,0.799555,0.567631,-0.265094,-0.070617,-0.961633
0.655973,0.150098,0.448244,0.053798,-0.972250,0.227676
0.348034,0.345555,0.110511,0.092866,0.841892,0.531596
0.080019,0.165375,0.502084,0.238963,0.961963,-0.132375
-0.125611,-0.618162,0.350753,-0.051327,-0.626721,0.777551
-0.059578,-0.428771,-0.250458,0.941619,-0.131863,0.309784
-0.089234,-0.120172,0.946030,0.980342,0.193293,0.039600
0.021619,0.451192,0.721639,0.806885,-0.228929,0.544544
-0.011543,-0.171890,-0.816662,0.392534,0.919542,-0.018953
0.411282,0.483274,-0.548378,0.590244,-0.280245,0.757017
0.324087,-0.320752,0.702595,-0.712815,0.620469,0.326976
0.238716,-0.043832,0.519434,0.683403,0.240724,0.689212
-0.695373,-0.134461,0.655495,0.862060,0.314664,0.397291
0.026607,-0.027521,-0.311699,-0.630962,-0.363660,-0.685302
-0.064425,-0.148570,0.816226,0.787298,0.613414,-0.062335
0.275378,0.398216,-0.912733,-0.497011,0.844419,-0.199843
0.086355,0.244816,0.688631,-0.060866,-0.981713,0.180374
0.692635,0.644178,0.199229,0.070153,0.120072,0.990283
-0.084246,-0.085439,0.067958,0.980350,0.194683,-0.031827
0.561338,0.628541,-0.978264,0.108743,0.160065,0.981098
0.172636,0.181551,0.497456,0.093581,-0.983533,0.154612
-0.021045,-0.410663,0.185394,0.086902,0.932975,0.349294
-0.406821,-0.526588,0.574597,-0.023474,-0.998654,0.046255
-0.392041,-0.243782,0.118944,0.898008,0.029181,0.439009
-0.067018,-0.012514,0.620311,0.948065,0.309896,-0.071676
-0.058667,0.088001,0.899898,0.918631,-0.170348,0.356508
-0.399765,0.054391,0.818064,-0.554089,-0.701090,-0.448841
0.134436,-0.581092,0.784090,-0.729022,0.527749,-0.435899
0.825323,0.761362,-0.640999,0.779848,-0.207094,0.590720
-0.550882,-0.419739,0.602090,0.239047,-0.481908,0.842983
-0.665524,-0.198310,0.596527,0.643819,0.387880,0.659580
0.083809,-0.221001,0.935420,0.109171,0.760076,-0.640598
-0.019270,-0.715980,0.579451,0.181383,0.975975,0.120720
-0.213094,-0.021006,0.183282,-0.385251,0.910271,-0.151619
-0.320106,-0.346184,0.751663,0.008306,0.951517,0.307484
0.550829,0.529779,-0.975442,0.078259,0.110469,0.990794
0.427836,0.416728,0.548652,-0.387077,0.489517,0.781374
-0.721959,-0.588910,0.099611,0.043778,0.728019,0.684157
-0.119707,-0.083597,0.868116,0.379552,0.692858,0.613097
-0.274997,0.419290,0.475140,0.859598,0.410536,-0.304223
-0.327543,-0.351216,0.105835,-0.274262,0.131228,-0.952659
0.159968,0.201052,0.877549,0.395938,-0.884130,0.248088
0.561532,0.389454,0.491813,0.941056,0.210545,-0.264735
0.616719,0.560064,0.207453,-0.593020,0.111294,-0.797459
0.721333,0.295006,0.537575,0.535565,-0.169193,-0.827372
0.596418,0.751432,0.508034,0.191482,0.014915,0.981383
-0.288339,-0.358585,0.732362,0.905508,0.218432,0.363788
0.103870,0.090248,0.028887,-0.588773,-0.072447,0.805045
0.027040,0.409540,0.788959,0.354993,-0.908958,0.218573
0.042444,0.117836,0.376634,0.988005,0.147326,-0.046266
0.383255,-0.895981,-0.183524,0.317619,0.059286,0.946363
0.033469,0.380199,0.556086,-0.026596,-0.750973,0.659797
-0.314635,0.380603,0.464594,0.831787,0.540654,-0.125793
0.464114,-0.741502,0.272887,-0.459600,0.188230,-0.867950
0.421214,0.280492,0.719704,0.050961,-0.218224,0.974567
0.441561,0.357238,-0.548330,-0.358544,0.483330,-0.798648
-0.219092,0.403383,0.372554,0.318974,-0.576593,0.752194
-0.296065,-0.512031,0.557505,-0.458708,0.861196,0.218927
0.097104,0.546000,0.611023,-0.540372,-0.572536,0.616604
0.031888,-0.116263,-0.320068,0.988683,0.040063,0.144571
-0.195338,0.069084,0.880129,0.377627,-0.327355,0.866162
-0.753487,0.233089,0.577209,0.126410,-0.824480,0.551592
-0.284692,0.039833,0.836689,0.893184,-0.178184,0.412884
-0.280996,0.461976,0.396854,0.021039,-0.692635,0.720981
0.258680,0.695626,0.514113,0.393097,0.776888,-0.491854
0.403699,-0.854193,0.497892,0.970735,-0.004774,0.240105
0.206132,0.150368,0.216225,-0.270272,-0.780775,0.563332
0.431339,0.560289,0.112785,0.779776,-0.299609,-0.549712
-0.698636,0.026488,0.311990,0.071374,-0.419404,0.904989
-0.248508,-0.282784,0.671684,0.898601,0.209592,0.385471
0.228014,0.614882,0.651560,0.928321,-0.240073,0.283873
0.760297,-0.035519,-0.785073,0.911832,-0.190017,0.363945
-0.115916,-0.068500,0.324502,-0.955676,0.235412,-0.176819
-0.166544,0.302060,0.119799,0.817958,-0.073249,0.570595
0.063128,-0.205545,0.689018,-0.598765,-0.800723,0.017998
0.079636,-0.293478,0.160401,0.915479,0.347010,0.203673
-0.170190,0.653524,0.266373,0.170594,-0.038830,0.984576
-0.112701,0.189909,0.314441,-0.224491,-0.595760,0.771151
-0.204406,0.543978,0.625455,-0.535600,0.747216,-0.393448
-0.050413,-0.425266,0.766417,0.954608,-0.297866,0.000156
0.754445,0.389814,0.544782,-0.850122,0.366524,0.378091
0.543199,0.301476,0.762870,0.811660,0.187398,-0.553254
0.815387,0.709825,0.223578,0.829659,-0.149299,-0.537937
0.392613,0.682550,0.541203,-0.686256,0.461918,-0.561858
0.692778,-0.585720,0.388711,-0.759604,0.524836,0.384122
0.162464,-0.503358,0.745503,0.988371,-0.130925,0.077342
0.050074,-0.784951,-0.312780,0.811986,0.306398,0.496789
-0.064666,-0.093392,0.414188,0.639039,-0.751450,0.164170
0.650885,0.402350,0.592931,0.969180,-0.245965,-0.013875
-0.590903,-0.005998,0.602670,0.831952,-0.405540,0.378672
0.304650,-0.946171,-0.579789,0.410862,-0.909729,0.059880
-0.117451,0.317922,0.667363,0.139566,0.892556,0.428795
0.228398,0.409270,0.363008,-0.256380,-0.711966,0.653738
0.342946,0.348071,0.726782,0.907217,-0.419283,0.034061
0.602944,0.405900,0.381519,-0.630289,0.753812,-0.185751
0.247594,-0.090113,0.324212,0.562481,0.581242,-0.588024
-0.231233,-0.295590,0.628567,0.409936,0.797867,0.441997
-0.378650,0.098156,0.830529,-0.767778,0.495228,-0.406529
0.398468,-0.260766,0.625632,0.858594,0.180997,0.479642
0.473329,0.272090,0.843526,-0.694480,-0.713231,0.094867
-0.132858,-0.077082,0.833963,0.551474,0.817269,-0.167175
0.724306,0.130238,0.398983,0.262226,-0.964954,0.010099
-0.122732,0.088270,0.454032,-0.770503,-0.636064,-0.041798
0.473856,-0.709824,0.293253,-0.271943,0.532581,-0.801502
-0.397223,-0.316798,0.744294,0.699921,0.685466,0.200614
0.458549,0.629530,0.482202,-0.060547,-0.314088,0.947461
-0.375677,0.032914,0.276692,0.474692,0.804455,0.357098
0.467907,-0.823190,0.283384,0.274277,0.163438,0.947660
-0.066968,0.504482,0.658478,0.484184,0.796295,-0.362601
-0.042640,-0.052504,-0.618489,0.999879,0.003091,-0.015261
0.577943,0.515401,-0.974862,0.100115,0.138399,0.985303
-0.746671,0.176698,0.688309,0.955472,-0.211494,-0.205774
-0.065530,-0.246343,0.946030,0.756536,0.405833,0.512789
0.294191,-0.469164,0.578532,0.875407,0.033350,-0.482235
0.162080,0.833794,0.516274,-0.140360,0.873475,0.466198
0.262517,0.611153,0.653447,-0.309849,-0.066067,-0.948488
-0.445164,0.053987,0.842429,0.974334,0.211597,-0.076817
-0.224370,0.452226,0.672942,0.652777,0.307937,0.692140
-0.431055,0.066703,0.796812,0.914290,0.170912,0.367238
-0.365552,0.097077,0.704046,-0.627154,-0.586628,0.512392
-0.167601,-0.241671,0.599123,0.754915,-0.655296,0.026273
0.117258,-0.858012,0.363621,0.213288,0.976988,0.001777
0.130983,0.145784,0.452888,0.551394,0.595654,-0.584090
0.568634,0.309339,-0.599478,0.530729,-0.487560,0.693262
0.442472,-0.503044,0.608233,0.469062,0.866065,0.172952
0.576071,0.666240,-0.718704,0.572018,0.789815,0.221333
0.663219,0.065040,0.350189,-0.154563,-0.771271,0.617456
0.236988,0.818023,0.501584,-0.795737,0.231038,-0.559843
0.495885,0.658781,0.118993,0.598415,-0.427049,-0.677885
0.093504,-0.036328,0.264970,0.740027,-0.028902,-0.671956
-0.225665,0.369594,0.660977,0.119898,0.170257,0.978078
0.148355,-0.115365,-0.340305,0.821668,0.384681,0.420574
0.657892,0.558177,0.184233,-0.072000,-0.973644,0.216411
-0.127914,0.096403,0.418461,0.874676,0.484497,0.014300
0.670943,0.262205,0.608217,-0.408464,0.828783,0.382460
-0.078821,0.056503,0.452613,0.943501,0.312680,0.109708
-0.121388,-0.121161,0.826707,0.805191,0.587029,0.084050
0.601986,0.153243,-0.651415,-0.660082,0.530544,0.531803
0.152625,-0.125070,0.762160,0.131697,-0.672275,0.728493
0.438489,-0.476669,0.726266,-0.658216,-0.211397,-0.722539
0.305083,0.340792,0.077020,0.877842,-0.393013,-0.273741
0.014373,-0.205140,-0.287690,0.989049,-0.072776,-0.128396
0.207666,-0.516254,0.508373,-0.227560,0.314326,0.921637
0.691050,0.395970,0.185572,-0.499045,-0.816857,0.289308
0.481009,0.605716,-0.976748,0.004910,0.050098,0.998732
