-0.194763,-0.307899,0.216737,-0.537499,-0.477743,0.694879
-0.140671,-0.128675,-0.508508,-0.532936,0.836307,-0.128726
0.510961,0.233253,-0.183127,-0.167405,-0.026236,0.985539
0.004220,-0.219458,0.970433,-0.366396,-0.923712,0.111848
-0.622848,-0.590944,0.125287,0.629790,-0.151294,0.761889
0.465853,0.113932,-0.265697,0.361980,-0.766282,0.530832
-0.300056,-0.335073,0.583638,0.550765,-0.031340,0.834072
0.428062,-0.141487,0.692621,-0.234779,0.694846,0.679756
0.710035,0.400758,0.456685,-0.574082,0.214809,-0.790118
-0.358121,-0.724020,-0.045531,-0.361145,0.923749,-0.127521
0.140897,-0.427785,0.457186,-0.640636,0.181798,0.746013
0.312878,0.088723,0.506793,0.143230,0.561524,-0.814970
0.155751,0.535498,0.688853,-0.260792,0.863535,-0.431619
-0.258473,0.544003,-0.006502,-0.776485,0.064277,-0.626848
0.075109,-0.049456,0.627940,-0.120275,0.035480,0.992106
0.199638,0.908006,0.713842,0.877545,0.429845,0.212480
-0.237523,-0.713930,-0.037444,-0.162224,0.138172,0.977032
0.325387,-0.164920,0.772005,0.441735,-0.605124,0.662341
-0.163021,0.501105,0.658962,0.628298,-0.670192,0.395074
0.173722,0.319689,0.684421,-0.089848,0.123981,0.988209
0.314865,0.007917,0.237716,0.585997,-0.809807,0.028622
-0.246777,-0.228226,0.885243,0.429934,-0.645393,0.631367
-0.344758,-0.602624,0.092534,-0.251435,0.402174,-0.880361
0.118274,0.304912,0.591709,0.957170,-0.183128,0.224252
-0.202394,-0.185026,-0.329586,-0.625997,0.770364,-0.121109
0.350537,0.076515,0.128571,-0.301466,0.761159,0.574244
-0.038357,-0.499594,-0.929884,-0.155256,-0.014743,0.987764
0.547217,0.104409,0.140637,-0.448763,0.635885,0.627903
0.171826,-0.138576,-0.313169,-0.052488,-0.124514,0.990829
0.310304,-0.060757,0.757449,-0.730775,0.461600,-0.502884
-0.286285,-0.501220,-0.944457,-0.007294,0.667355,0.744704
-0.215760,-0.521592,0.069307,0.412767,-0.489212,0.768306
-0.445672,-0.463312,0.624948,-0.607059,0.379132,-0.698382
-0.311931,0.238392,0.671886,-0.112857,0.552198,0.826039
0.484546,0.363494,0.662133,0.830375,-0.086062,-0.550518
-0.219866,-0.138878,0.974978,-0.643184,0.086044,-0.760862
-0.491364,0.770056,0.781209,-0.784915,0.544495,-0.295693
-0.046664,0.137480,0.853783,-0.595406,-0.732069,-0.331009
0.126674,-0.723644,-0.272668,0.571558,-0.054618,-0.818742
-0.290305,0.559763,0.734125,-0.271779,0.670832,-0.690015
0.165008,-0.749647,-0.057193,0.874647,-0.212293,-0.435803
0.335501,-0.331634,0.414793,-0.429158,-0.848816,0.308765
0.650343,0.641399,-0.260360,-0.165522,-0.032301,-0.985677
-0.054068,-0.089406,-0.958529,-0.257858,0.151894,0.954168
0.348007,0.068541,0.495488,0.118960,-0.330280,0.936357
-0.143967,0.084755,0.013134,0.136820,0.108615,0.984623
0.109155,0.591207,0.705593,-0.703277,0.358572,-0.613863
0.263168,-0.108377,0.949892,0.253022,0.618941,0.743567
0.400834,-0.195570,0.840213,-0.729605,0.463079,-0.503225
-0.407834,0.598843,0.703814,-0.549660,-0.094219,0.830058
0.228401,0.422039,0.560622,0.804104,-0.510175,0.305186
0.345524,-0.178110,0.632469,0.129957,0.403257,0.905812
0.651878,0.158002,0.703944,0.206317,0.485445,-0.849575
0.131596,-0.327551,0.024795,0.445420,0.716890,0.536348
0.619188,0.452955,-0.282017,-0.718080,0.117174,-0.686026
0.434067,0.099835,0.492026,-0.562594,0.341847,-0.752747
0.029552,0.113480,0.881539,0.093648,0.845386,-0.525883
0.067164,0.339909,0.159092,-0.231399,-0.928070,-0.291790
-0.016143,-0.379821,0.845680,-0.333661,0.687223,-0.645287
-0.249533,-0.045675,0.899686,0.008556,0.715920,0.698130
0.449960,-0.136460,0.780125,0.743982,0.247526,-0.620662
-0.225149,-0.211937,-0.372950,0.846483,-0.525554,0.085204
0.249712,-0.334884,0.157620,-0.238200,-0.862225,0.447022
-0.460121,-0.430315,0.650228,-0.568187,0.362138,-0.738931
0.250886,0.031426,-0.590383,-0.271621,-0.123247,0.954480
-0.000115,-0.259633,0.359315,0.988053,0.038773,-0.149159
0.237341,0.637206,0.691198,0.036235,-0.402241,0.914817
-0.419031,0.620726,0.717142,0.795876,0.335627,-0.503921
0.179319,0.242323,0.643532,-0.180623,-0.676748,0.713714
0.467253,-0.112460,0.811228,0.558998,0.301153,-0.772546
0.458856,0.265490,0.484473,-0.456631,0.313199,-0.832703
-0.100306,-0.577150,-0.927927,-0.075326,0.083819,0.993630
0.065403,-0.034111,0.460518,0.975421,-0.005498,0.220280
-0.283711,-0.157775,-0.969107,-0.609529,0.386044,0.692419
-0.404086,0.297844,0.681623,0.436372,-0.197613,-0.877798
0.671836,-0.163219,0.826255,0.240018,0.082058,0.967294
0.224471,-0.627946,-0.023485,0.753016,-0.148685,-0.640984
-0.176340,-0.195723,-0.471387,0.846495,-0.505579,0.166843
-0.516740,-0.691139,0.562255,0.975635,0.052030,-0.213139
-0.047793,0.428991,0.464724,0.233407,0.538187,0.809862
-0.108568,-0.473402,-0.216883,-0.486731,0.472605,0.734668
0.407382,0.233894,0.244250,0.374511,0.261174,0.889680
-0.202981,-0.204000,-0.070698,0.528012,-0.808155,-0.260938
0.592459,-0.091332,0.197053,0.496477,-0.411223,0.764464
0.232102,-0.061890,0.945007,0.218141,0.330969,0.918082
0.417226,0.117524,0.486672,-0.575197,0.602912,-0.552853
0.519179,-0.146779,0.705900,-0.655970,-0.474337,-0.587118
-0.460978,0.635542,0.744428,-0.069476,-0.926248,0.370455
-0.017586,-0.401969,0.025750,-0.700075,0.194090,0.687186
0.670527,0.359108,0.500744,-0.463935,0.232841,-0.854722
-0.378531,0.475252,0.660467,0.863975,0.263728,0.428946
-0.516018,-0.384924,0.164963,0.225610,-0.348493,0.909754
-0.200002,-0.201278,-0.711804,0.990581,-0.073028,-0.115827
-0.582888,-0.173349,0.573497,-0.640217,0.212254,-0.738289
0.157512,0.453559,0.639634,-0.817623,0.505752,-0.275149
0.246959,-0.162387,0.682755,-0.059736,-0.875608,0.479315
-0.310983,-0.066236,0.620855,-0.523995,-0.730263,0.438343
-0.214586,-0.519663,0.076069,-0.356025,0.649298,-0.672056
-0.144149,-0.047036,0.028807,0.350389,0.351135,0.868292
-0.249894,0.569212,0.422735,0.976944,-0.177959,0.117946
0.425127,0.340552,0.679569,0.073234,-0.516513,0.853142
-0.475970,0.655081,0.594637,0.561549,-0.557169,-0.611739
0.587807,0.176936,-0.488193,-0.496204,-0.418160,0.760870
0.380741,0.114689,-0.248310,-0.253615,-0.749649,0.611314
0.956791,-0.130033,0.624867,0.477039,-0.322390,0.817617
-0.386658,0.576771,0.676495,0.940478,-0.111068,0.321193
0.362048,-0.702251,-0.225892,0.717498,0.015745,-0.696382
-0.301863,-0.164465,-0.825559,0.006258,0.949719,0.313041
-0.184288,-0.131092,-0.501747,-0.676689,0.704721,-0.213212
0.815328,-0.011622,0.860787,0.106105,-0.473964,0.874128
0.134214,0.545211,0.684388,0.330866,-0.806889,0.489344
-0.163834,0.487838,0.676124,-0.550146,0.767032,-0.330153
-0.443776,-0.461988,0.804888,-0.563076,0.279646,-0.777652
-0.301276,0.718426,0.757400,0.057910,-0.831971,0.551788
-0.271340,-0.730560,-0.040840,-0.300070,0.003463,0.953911
-0.169704,-0.116428,-0.602077,0.988802,-0.140040,-0.051577
0.007833,-0.047527,-0.286611,-0.621045,0.783250,-0.028678
0.018173,-0.521327,-0.168667,0.425124,0.875583,-0.229400
0.535477,0.350795,-0.210623,0.494246,0.736373,0.462034
0.794017,-0.579682,0.190600,-0.293246,-0.727388,0.620414
-0.152546,-0.260238,0.759794,0.230203,0.239857,0.943120
-0.400655,-0.423476,-0.527351,-0.740521,-0.644365,0.190846
-0.349859,-0.425100,0.771197,-0.311342,0.717784,0.622778
0.053707,-0.029576,0.767687,0.500318,0.708872,-0.497174
0.777132,-0.306349,0.600912,0.473655,-0.632425,-0.612935
0.721728,-0.460249,0.021447,-0.090872,0.001984,-0.995861
-0.260595,-0.211861,-0.725423,-0.011444,-0.982516,0.185828
0.432623,0.342026,0.666160,0.303962,-0.898803,0.315849
-0.061250,-0.072245,0.342930,0.135220,-0.535319,0.833756
0.030679,0.303096,0.920131,-0.701090,-0.247680,0.668676
0.571239,-0.032713,-0.197457,-0.734520,0.581102,-0.350431
-0.157333,0.574882,0.569647,0.417915,-0.346262,0.839911
-0.101750,-0.307823,0.790412,-0.345913,-0.633782,-0.691856
0.726923,-0.172251,0.637806,-0.262964,0.141551,0.954365
-0.269805,0.446378,0.172840,0.840335,-0.531485,-0.106585
0.430275,-0.308842,0.433475,0.892040,0.447955,0.060002
0.008329,0.047904,-0.282131,-0.614683,-0.268950,0.741506
0.658109,0.000812,-0.180652,-0.632962,0.349504,-0.690801
0.382053,0.425854,0.650374,-0.063932,0.555901,0.828787
0.029552,0.253850,0.649791,-0.208291,-0.218661,0.953311
-0.232193,-0.000625,0.878094,0.098754,0.536540,0.838077
-0.130287,-0.358769,0.835425,0.128273,0.826805,0.547668
-0.508522,-0.276981,-0.282276,0.530941,0.047039,0.846102
0.024856,0.650433,-0.079190,0.751793,0.212161,0.624336
-0.463687,-0.038305,0.656973,0.810172,-0.401047,0.427532
0.244159,-0.365044,0.165529,-0.228141,-0.850488,0.473942
0.099041,-0.199540,0.672614,0.837439,-0.499508,0.221782
-0.362412,-0.308049,0.623379,-0.909782,0.051978,-0.411818
-0.360334,-0.212429,0.911866,0.185991,0.934931,0.302179
-0.059398,0.591134,0.716560,0.606615,0.415721,-0.677639
-0.013477,-0.115484,0.814285,0.574413,0.809386,0.122243
-0.193272,0.275052,0.447999,0.757580,0.625520,-0.186542
-0.040570,-0.153353,0.744881,-0.539473,-0.839884,0.059688
-0.151011,0.084340,0.010093,0.136820,0.108615,0.984623
-0.314551,-0.038722,-0.036700,0.095426,-0.857625,0.505345
-0.653008,0.000168,0.596416,-0.733639,-0.095062,-0.672858
-0.128027,0.565620,0.276275,0.165530,-0.246564,-0.954885
-0.170109,-0.094167,0.719115,0.016591,-0.514444,0.857364
-0.023638,0.724738,0.750801,0.595762,0.238187,-0.767029
0.272017,-0.348640,0.209135,-0.531745,-0.560650,0.634759
0.351033,-0.341157,0.002733,0.445862,-0.846729,0.290272
0.699378,-0.090312,0.149662,0.626110,-0.534004,0.568179
0.005621,-0.099609,-0.951525,-0.242107,0.132254,0.961194
-0.193319,0.089556,0.870136,-0.701618,0.600632,-0.383370
0.289040,-0.083925,0.817908,0.476077,-0.564551,0.674265
-0.100259,0.385602,0.219907,-0.022556,0.728409,0.684771
-0.171556,-0.270443,0.664914,-0.645031,0.374917,-0.665862
-0.574310,-0.851768,0.583509,0.967129,0.216380,0.133568
0.009368,-0.361415,-0.103225,-0.315705,-0.446941,-0.837003
-0.240954,-0.288282,0.829958,0.550450,-0.485182,0.679414
0.228445,0.298485,0.483712,-0.638704,0.577617,-0.508346
0.272830,-0.051232,0.563695,-0.825212,0.390444,0.408140
-0.522792,0.726627,0.743846,-0.373532,0.895321,-0.242641
-0.033841,-0.428539,0.377786,-0.846167,0.461484,-0.266521
-0.013477,0.171985,0.701857,-0.473414,-0.330973,0.816294
0.503239,0.163028,0.268981,0.431253,0.611126,0.663736
0.807744,0.115671,0.375069,0.643922,-0.203714,0.737472
0.409865,0.377856,0.184696,0.946663,0.321701,-0.018355
0.525724,0.344294,-0.205965,0.438177,0.676398,0.592019
0.186906,-0.133814,0.682318,0.064385,-0.688350,0.722516
0.292063,0.382239,0.506195,-0.350334,0.778789,-0.520341
0.075335,-0.022395,0.460551,0.902889,-0.178067,0.391259
0.775867,-0.316024,0.565507,0.774569,-0.460057,0.434040
0.376588,0.475744,0.365202,0.448544,0.225538,0.864836
-0.527940,-0.736835,0.556530,0.879185,0.008351,-0.476407
0.083735,-0.107925,0.913920,-0.651250,0.524635,0.548298
0.214900,0.594762,0.685424,0.135114,-0.280514,0.950293
-0.184919,-0.031617,-0.969608,0.123442,-0.150570,-0.980862
-0.026662,-0.191905,0.933458,0.865538,0.485855,0.121608
0.688228,-0.009543,0.848963,-0.603798,0.212766,0.768218
-0.495338,0.710226,0.758128,-0.597243,0.525816,0.605655
-0.054476,-0.374456,0.840051,0.346258,0.808812,0.475320
-0.016683,-0.256987,-0.604972,0.422583,-0.741260,0.521495
0.449916,0.043444,0.506082,-0.248374,-0.211468,-0.945300
0.284253,-0.152181,0.788989,-0.101427,0.834951,-0.540897
-0.339340,0.277585,0.006146,0.153461,0.022503,-0.987898
-0.347015,0.054367,-0.987125,0.246029,-0.120778,-0.961708
-0.011989,-0.007730,0.766700,0.152996,-0.939615,0.306129
-0.339023,0.096319,-0.991314,-0.183016,0.153769,0.971010
-0.198376,-0.197877,-0.400754,0.968107,0.090036,0.233801
-0.181171,-0.022355,0.538107,0.129019,-0.069321,0.989216
0.300868,0.031578,0.912545,0.395756,-0.875499,-0.277271
-0.257795,-0.357069,-0.437001,0.518759,-0.342059,-0.783508
0.530828,0.497476,-0.230291,0.156736,0.091614,0.983382
-0.440568,-0.716765,0.407466,-0.486255,0.127736,-0.864430
0.184332,-0.059924,-0.249199,0.304659,0.828926,-0.469111
0.511818,-0.157095,0.485508,0.093237,0.724037,0.683430
-0.178374,-0.269271,0.674684,-0.604948,0.584960,-0.540241
-0.320195,0.508741,0.009236,0.694719,0.653005,0.301580
0.012799,0.409224,0.659496,0.261236,0.957678,0.120867
-0.368687,0.532134,0.732863,0.000140,-0.585443,0.810714
0.203069,-0.118546,0.457736,0.071849,-0.635282,0.768931
0.207269,-0.073267,0.937793,-0.349632,0.729371,0.588027
-0.278384,-0.191377,-0.570828,-0.649699,0.743103,0.160280
-0.198194,0.327060,0.471711,0.198321,0.858869,-0.472243
0.223027,0.757091,0.708537,-0.603731,0.139169,-0.784946
-0.535163,-0.672507,0.407515,-0.072251,0.059773,0.995594
0.005982,0.142656,0.885825,-0.334404,-0.798541,0.500506
0.671566,-0.110305,0.617087,0.184672,0.909850,-0.371577
-0.071860,0.041894,0.842510,-0.006300,-0.908654,0.417503
0.169431,0.719107,0.703054,-0.469812,-0.590841,-0.655884
0.425397,0.199651,0.279575,0.263302,0.240517,0.934250
-0.177379,-0.428578,0.080080,-0.819512,0.333325,0.466149
0.032305,-0.436968,0.263303,0.065917,0.483346,-0.872944
0.351934,0.189900,0.510805,-0.472070,-0.038984,-0.880699
-0.044136,-0.183778,0.656488,0.770532,0.023490,-0.636968
-0.398489,-0.725684,0.612898,0.839820,-0.419386,0.344700
-0.545819,-0.365837,-0.524278,0.307399,0.951572,0.003974
-0.113625,-0.459531,-0.224614,-0.486731,0.472605,0.734668
-0.566409,-0.802824,0.609145,-0.190608,-0.166733,0.967403
-0.281589,0.096130,-0.180167,0.158464,0.335874,0.928482
-0.188937,0.354838,0.034128,0.611553,-0.446278,-0.653328
0.161891,0.485043,0.642901,0.952035,0.158879,-0.261509
-0.314551,-0.419810,0.696342,0.752397,-0.063691,-0.655624
-0.197020,-0.159817,0.936499,0.903922,-0.391938,0.171200
0.183114,0.591927,0.678711,0.890980,0.069038,0.448764
0.053120,0.520002,0.647786,-0.527742,-0.848830,-0.031256
0.121482,-0.110040,0.889464,0.018051,-0.122630,0.992288
-0.364578,-0.589772,0.566590,0.421334,0.390640,-0.818461
0.564330,0.569288,-0.236696,-0.618808,0.068516,-0.782548
0.738029,0.050663,0.835830,0.384392,-0.655554,-0.649993
-0.353381,-0.158456,-0.732297,-0.016240,0.962586,0.270491
-0.475923,-0.450915,0.662860,0.572803,-0.121355,0.810660
-0.102968,0.895835,0.750154,-0.436142,0.524297,0.731364
0.381510,-0.731089,0.174619,-0.127137,0.390458,0.911800
0.399481,0.102103,0.686669,0.786744,-0.270811,-0.554703
-0.095428,-0.209215,-0.951768,-0.005451,0.305580,0.952151
-0.275223,0.600543,-0.088231,-0.451698,0.246409,0.857468
0.221448,-0.050097,0.831802,0.722166,0.486426,-0.491799
0.010859,0.169492,0.901983,0.689859,0.617670,-0.377595
-0.387562,-0.012870,0.626015,0.187259,-0.382645,0.904719
-0.252647,-0.454013,0.327565,-0.285487,-0.910114,-0.300315
0.246190,-0.007163,0.812021,-0.227064,0.519354,0.823841
0.047746,-0.212429,0.707502,0.795362,-0.433391,-0.423760
0.357578,0.470189,-0.200094,-0.561376,-0.066248,-0.824905
-0.198646,0.376230,0.576295,0.014982,-0.464678,0.885353
-0.044588,-0.363118,0.829764,-0.435509,-0.801498,-0.409796
-0.280191,-0.331256,0.802802,-0.350266,0.847084,0.399703
-0.245964,-0.028706,0.656649,0.395599,0.262024,-0.880253
0.332205,0.250258,0.452075,0.635224,0.699456,-0.327494
-0.226822,0.381937,0.200919,-0.575991,0.405679,0.709689
0.383406,0.151236,0.525588,0.192784,-0.324296,0.926103
0.028469,-0.300868,0.711772,0.443222,-0.365096,-0.818693
0.739338,-0.124365,0.630706,0.474514,0.695745,-0.539236
0.295721,0.381369,0.508201,-0.350334,0.778789,-0.520341
-0.377492,0.553375,0.455310,-0.383445,0.700505,-0.601883
0.308634,0.363454,0.486446,-0.440229,0.871639,-0.215510
-0.113851,-0.484929,0.627002,0.112298,0.623044,0.774083
-0.195893,-0.660336,-0.047359,0.944145,0.271003,0.187478
0.603204,0.755730,-0.267994,-0.378638,-0.479051,-0.791924
-0.296536,0.857853,0.781872,0.235723,-0.075841,0.968857
-0.021877,-0.198671,0.900576,0.544798,0.834176,0.085710
-0.134531,0.574351,0.689403,0.838840,-0.301247,0.453428
0.442825,0.189183,0.422185,-0.063926,0.939165,0.337465
-0.069377,0.537161,0.685165,-0.521808,-0.807843,0.274055
-0.185641,-0.122400,-0.693349,0.597425,-0.799548,-0.061698
-0.590067,-0.850898,0.583864,0.898495,0.186154,0.397560
-0.630071,-0.501257,0.144001,-0.337495,0.527221,-0.779831
0.161078,0.210159,0.621357,0.087275,0.265890,-0.960045
0.289490,0.507908,0.356209,-0.411949,-0.283535,-0.865971
-0.054385,-0.102255,0.712629,0.996297,0.044273,-0.073709
-0.113129,-0.237638,0.836428,0.137895,-0.870417,0.472610
0.193498,-0.166733,0.880503,-0.324043,-0.900633,0.289581
-0.408330,-0.433114,-0.304208,0.434307,0.174986,0.883605
-0.164286,-0.184761,-0.164575,-0.709904,0.683301,0.170689
-0.247364,0.660412,-0.082101,0.396828,-0.281533,-0.873651
0.026121,0.006104,0.547893,0.100259,-0.844326,0.526367
0.770901,-0.138804,0.617362,0.032021,-0.036758,0.998811
0.319922,0.034337,0.914939,0.693112,-0.610749,-0.382859
-0.318974,-0.148629,0.890418,-0.058856,0.718548,0.692983
-0.158912,-0.480016,0.052793,-0.655827,-0.046529,-0.753476
-0.111999,0.176332,0.890159,0.015502,-0.999836,0.009336
0.039936,-0.037853,-0.274237,-0.612566,0.762062,0.209818
-0.377988,-0.582026,0.230599,0.503634,0.206073,-0.838979
-0.749816,-0.119187,0.621680,-0.651157,-0.110676,-0.750830
0.628671,0.742085,-0.227542,0.893913,-0.203014,0.399630
0.694277,-0.061588,-0.221379,-0.543435,-0.227056,-0.808161
-0.162930,-0.710641,0.038625,-0.048116,-0.581618,0.812038
-0.056689,-0.142204,1.000000,0.541033,0.702439,0.462452
0.263483,0.079689,0.479782,0.006930,-0.849071,0.528234
0.395912,0.419845,0.683240,-0.623575,0.621146,0.474692
-0.117103,0.110834,0.413920,-0.705107,0.491593,-0.511038
0.220092,-0.261147,-0.718905,-0.492987,0.195832,-0.847711
-0.341776,-0.554510,0.096658,-0.352049,0.489524,-0.797764
-0.088836,0.132301,0.697652,-0.065848,-0.491167,0.868573
-0.543334,-0.743751,0.597710,-0.637438,0.768636,0.053579
-0.607360,-0.350001,0.671514,-0.005021,0.219544,0.975590
-0.522023,-0.257366,0.714635,-0.509738,0.458666,-0.727868
0.345116,0.005499,0.261346,-0.815963,0.566298,0.116236
0.067026,-0.357182,0.751642,0.501457,0.782028,-0.370098
0.687368,-0.103350,0.628943,-0.110982,-0.455194,0.883448
-0.049193,0.660675,0.246337,-0.339210,-0.205294,-0.918036
-0.383092,-0.012644,0.628101,0.137452,-0.400405,0.905971
-0.171917,-0.128712,-0.262349,0.955699,-0.292135,0.036000
-0.507439,-0.534782,0.634410,0.319507,-0.605983,0.728491
-0.405668,0.093750,-0.995455,-0.148832,0.169501,0.974227
-0.078317,0.089480,0.657523,0.855476,0.282338,0.434104
-0.263530,-0.296332,-0.036457,-0.397899,-0.343679,-0.850624
0.266327,0.485080,0.685019,0.071333,-0.346070,0.935493
-0.381871,-0.555343,0.527384,0.818060,-0.512099,-0.261788
-0.111233,0.570420,0.429237,0.283394,0.365817,-0.886491
-0.470370,-0.294102,-0.412415,0.398351,0.400475,-0.825189
-0.155933,-0.149272,-0.037686,0.920301,-0.388455,-0.046362
-0.019890,-0.276037,0.320092,0.902317,0.383738,-0.196390
-0.251746,-0.522272,-0.918659,-0.056305,0.433068,0.899601
-0.104324,-0.456055,0.668910,-0.488597,0.871437,-0.043243
-0.555526,-0.216170,0.463446,-0.528400,-0.219553,-0.820116
0.312878,-0.145265,0.964691,0.138873,0.587732,0.797048
-0.204877,-0.184308,0.952981,0.949498,0.136206,0.282668
-0.144824,-0.044579,-0.219260,-0.697679,0.701586,-0.144987
0.064769,0.314663,0.667923,0.446765,0.186979,-0.874894
-0.045445,0.269800,0.937777,0.262751,-0.797087,0.543704
-0.259961,0.880606,0.786190,0.368387,0.156756,0.916361
0.172865,0.047073,0.467457,-0.154092,-0.723870,0.672509
-0.177740,-0.324377,0.425776,0.585150,0.683884,-0.435777
-0.176070,0.607498,0.747307,-0.108282,0.810276,-0.575958
0.623614,0.640871,-0.252855,0.447580,0.113736,0.886981
-0.300733,0.585161,0.300489,0.409529,0.251715,0.876884
-0.171782,-0.125424,-0.272717,0.955699,-0.292135,0.036000
-0.269851,-0.094960,-0.978278,0.209651,-0.227431,-0.950958
0.848018,-0.291458,0.263951,0.761755,-0.219373,0.609594
-0.388601,-0.823650,-0.225892,0.812353,-0.577802,-0.078911
-0.025895,0.614792,0.569938,0.287064,0.567969,-0.771366
0.140715,-0.303135,0.517242,0.943482,0.244509,0.223736
-0.329314,0.779843,0.568871,0.413919,-0.745972,-0.521725
0.001421,0.366744,0.487675,-0.784249,-0.324181,-0.529019
-0.321187,-0.484401,-0.951169,-0.050668,0.431483,0.900697
-0.085631,-0.085814,-0.318620,0.499582,-0.865120,0.044553
-0.386975,0.162348,-0.245673,0.581925,0.629026,-0.515450
-0.193680,-0.138273,-0.383706,0.971919,-0.216533,-0.092124
0.126357,-0.407185,0.424272,-0.688343,0.617779,-0.380174
-0.541123,0.179017,0.517679,-0.061627,0.151618,-0.986516
-0.493985,-0.764122,0.574047,0.392669,0.532944,0.749521
-0.234902,0.729954,0.255960,0.142932,-0.540776,0.828934
0.635219,0.806111,-0.268528,0.377809,0.580860,0.721014
-0.279558,0.119980,0.856582,0.610668,0.791756,-0.014375
-0.193137,-0.191868,0.970514,0.207143,0.514395,-0.832159
-0.227362,-0.197460,0.964999,-0.529020,0.360468,-0.768245
-0.302902,-0.236957,0.191392,0.730260,-0.483871,-0.482275
-0.378531,0.340552,0.655614,0.457721,-0.889042,0.009789
0.377131,0.306575,0.657199,-0.555970,0.660924,-0.504059
-0.048650,-0.435457,-0.018212,-0.697492,0.599053,0.393242
-0.396455,-0.908991,0.583266,0.381758,0.164083,0.909581
-0.077143,0.141787,0.182156,0.624127,-0.391528,-0.676144
0.857817,-0.360887,0.225585,-0.729539,0.409927,-0.547479
-0.127939,-0.121909,-0.157684,-0.113594,0.940676,0.319726
0.397403,0.613394,0.646168,0.176798,0.646286,0.742332
0.790180,-0.295576,0.568660,0.293565,-0.890243,0.348263
-0.205420,-0.351551,0.758678,-0.600288,-0.619504,0.505835
0.261542,0.497363,0.566073,0.501119,-0.036542,0.864606
-0.224835,0.282838,0.031201,0.777053,0.063068,-0.626268
-0.216796,0.533837,0.128118,-0.686331,0.633601,-0.357071
-0.300056,-0.707580,0.561722,0.402249,0.409272,-0.818958
-0.547581,0.717331,0.702035,0.822246,0.243701,-0.514315
0.188397,-0.004441,0.917219,0.349888,0.428991,-0.832794
0.520353,-0.406620,-0.025184,-0.288507,-0.843616,-0.452854
0.301681,0.561350,0.482516,0.315633,-0.641546,0.699138
-0.008737,0.615699,-0.096626,0.651784,0.400238,0.644195
-0.199007,-0.622654,-0.919694,0.069039,-0.066050,0.995425
-0.765797,-0.244327,0.501715,0.037255,0.523510,0.851205
0.130510,0.202221,0.415246,0.211397,-0.566172,0.796719
-0.232284,-0.191868,-0.782567,0.987737,0.033293,-0.152535
-0.440389,-0.084001,0.485831,0.459172,0.606694,0.648910
0.553629,-0.476805,0.260214,0.820205,-0.547495,0.165872
-0.134622,0.802559,0.770906,0.000383,0.203083,0.979161
-0.246551,0.207135,-0.984651,0.180340,-0.074603,-0.980771
0.025308,-0.204869,0.693705,-0.362556,0.675802,0.641751
-0.045988,0.311260,0.955165,0.938523,0.209611,0.274294
-0.128074,0.563694,0.685310,0.834410,-0.027657,0.550450
-0.604199,-0.385717,-0.286999,-0.680163,-0.297010,-0.670196
0.575798,0.208041,0.474622,-0.194247,-0.236476,0.952023
0.542206,-0.423741,0.295022,0.827590,-0.383200,0.410185
0.578506,0.073152,0.628021,0.795715,-0.571553,-0.200413
-0.175888,-0.442825,0.750445,0.315688,0.067070,0.946490
0.018716,0.220175,0.920859,0.869837,-0.493244,-0.009718
0.386115,-0.233970,-0.730825,-0.565752,0.414850,-0.712618
-0.303533,-0.563959,0.247922,0.026980,-0.910344,0.412972
0.620861,-0.090803,0.628571,-0.033339,-0.259742,0.965102
0.071135,0.645821,0.425129,0.743126,0.132576,0.655887
-0.311616,0.099496,-0.744881,0.134443,-0.679081,0.721647
0.573631,0.303475,0.508783,0.037516,-0.316906,0.947715
-0.201264,-0.116730,-0.787743,0.959840,-0.260118,-0.105103
0.086262,0.518907,0.687543,-0.434282,0.416443,-0.798733
-0.053933,0.675190,0.241112,-0.335762,0.127155,-0.933325
0.143832,0.058979,0.839081,0.305924,-0.485657,0.818870
-0.139406,0.212729,-0.980186,0.306490,-0.149272,-0.940097
-0.258382,-0.707619,0.574451,0.250229,0.005161,-0.968173
-0.510917,-0.013587,0.525491,0.523461,0.413186,0.745161
0.491138,0.300942,0.673034,-0.794362,0.596757,0.113445
-0.029778,0.169113,0.892181,0.296973,0.800453,-0.520656
0.382414,-0.190657,-0.600152,0.410244,-0.190756,0.891803
0.266238,0.287562,0.677482,-0.276199,0.163242,-0.947136
-0.150920,0.366933,0.030570,-0.286872,0.349400,0.891978
0.839034,-0.605874,0.020833,0.608417,-0.048000,0.792165
0.001241,0.543096,0.713438,-0.238415,0.947438,-0.213351
0.281770,0.116919,-0.195727,0.597229,-0.766091,-0.237534
-0.305972,-0.118695,-0.978375,-0.321095,0.173635,0.930993
-0.077231,-0.171194,0.981286,-0.495021,0.807447,-0.320911
-0.221087,-0.107849,-0.461634,-0.461407,0.883338,-0.082565
0.541212,0.048623,0.458480,0.317481,-0.616948,0.720125
-0.646642,-0.176975,0.581810,-0.679223,0.126133,-0.723013
-0.226640,0.196251,0.232313,0.870009,0.316366,-0.378150
-0.411899,-0.444149,0.254763,0.373041,0.606748,-0.701924
-0.236349,0.597030,-0.027335,0.363218,-0.823079,0.436594
-0.247816,-0.199730,0.905703,-0.572950,0.807372,0.140990
0.136788,0.736530,0.704704,0.460354,0.862679,-0.209425
-0.260008,0.087173,0.676398,-0.334659,0.218642,0.916624
0.435919,-0.208007,0.354463,0.187751,0.928521,-0.320310
0.377492,-0.237901,0.438667,0.075172,0.451298,0.889202
-0.259239,0.683580,0.263271,-0.509532,-0.394196,-0.764844
-0.189389,-0.181699,0.875942,-0.207593,0.623805,-0.753507
-0.491003,-0.526240,-0.260764,0.814487,0.398229,-0.421930
-0.266192,0.091104,0.856355,0.667834,0.741866,0.060274
0.371848,0.531038,0.555414,0.250967,0.458346,0.852605
0.149520,0.485043,0.653528,-0.616353,-0.638377,0.461069
0.002371,-0.612262,-0.375942,0.825121,0.219625,-0.520519
-0.101929,0.378119,0.023146,0.855948,0.099925,0.507314
0.035375,0.047149,0.868890,-0.169272,0.823086,0.542104
0.155390,-0.868361,-0.178824,0.758611,0.075108,0.647200
-0.121256,-0.052365,-0.059522,0.980386,0.164974,-0.107829
-0.385619,-0.322487,-0.554103,-0.320087,0.548892,0.772180
-0.224835,0.320709,0.559975,0.592323,-0.417944,0.688823
-0.014200,0.017405,0.781548,0.184050,-0.704126,0.685808
0.805305,0.111286,0.379954,0.643922,-0.203714,0.737472
0.413208,0.641552,0.665642,-0.354977,-0.876959,0.323935
-0.243029,-0.418486,-0.928881,-0.427559,0.164336,0.888924
-0.178057,-0.197310,0.828907,0.217018,0.927097,-0.305605
0.353155,-0.683051,0.165157,-0.127137,0.390458,0.911800
0.448425,0.393162,-0.218015,0.240214,0.383339,0.891823
-0.330896,-0.169644,0.522111,-0.685656,-0.619649,0.381982
-0.117056,0.627378,0.692217,0.188279,-0.692698,0.696219
-0.242263,-0.119187,-0.837221,0.882653,-0.468112,0.042371
0.197425,0.398756,0.655792,-0.628038,0.264613,0.731811
-0.371983,-0.177317,0.809255,-0.613789,-0.713435,-0.338046
-0.202350,0.078783,0.862469,-0.028969,-0.954389,0.297156
-0.061294,-0.331406,-0.807832,0.741034,0.671446,0.005387
0.378801,0.155545,0.518504,0.192784,-0.324296,0.926103
0.586228,0.210800,0.474218,-0.194247,-0.236476,0.952023
-0.220770,-0.270971,0.823602,-0.683197,0.183603,-0.706775
0.419709,-0.104824,0.801783,0.877107,0.103041,-0.469111
-0.342636,0.070543,0.340585,-0.017269,0.795176,0.606133
0.106986,-0.359450,0.800634,0.430699,-0.695934,0.574608
0.146946,0.906873,0.727235,0.369552,-0.332108,0.867834
0.305159,-0.408433,0.130479,0.390471,0.762669,-0.515625
-0.546993,-0.662906,0.406803,0.144286,0.686897,0.712288
0.423997,-0.024321,0.436888,-0.301321,-0.037892,-0.952770
0.015238,0.154903,0.230874,-0.151451,0.589751,0.793257
-0.109742,0.124629,0.320917,0.943889,0.324960,-0.058955
0.172592,-0.070658,0.763595,-0.623227,-0.781248,0.035206
0.060299,-0.366859,0.745140,0.044718,0.803492,0.593634
-0.016774,0.175010,0.897664,0.439046,0.781143,-0.443908
0.510644,0.344861,0.673924,0.203421,-0.288006,-0.935774
-0.237972,-0.514371,0.069550,0.132516,-0.502392,0.854425
0.314143,0.481905,-0.222398,0.183539,0.864250,0.468385
0.293915,0.115293,-0.218678,-0.683897,0.540790,0.489726
-0.127170,0.121076,0.256252,0.975410,0.201013,0.090388
-0.472222,-0.610372,0.054201,-0.493492,0.861102,-0.122347
0.349994,-0.132529,0.637580,-0.547832,-0.606089,-0.576659
-0.023683,0.685884,0.748569,0.127834,0.444818,-0.886451
-0.616165,-0.371886,-0.041633,0.449575,0.887505,-0.101082
0.385663,-0.254115,0.223240,0.217542,0.085866,0.972267
0.398216,-0.190885,-0.604552,-0.301254,0.319788,-0.898322
0.089828,-0.648583,0.063016,0.089078,-0.235957,0.967672
-0.218648,0.059433,0.870815,-0.729044,0.049383,-0.682683
-0.071904,0.088345,0.868939,0.798102,0.009213,0.602452
-0.252421,-0.519324,0.642383,0.846498,0.532230,0.013142
-0.431854,-0.433944,0.811795,0.295796,-0.480824,0.825417
-0.331301,-0.256496,0.594766,0.859565,0.290759,0.420247
-0.523693,-0.684147,0.558600,0.980981,0.168604,-0.096170
0.422236,0.032143,0.212791,-0.166814,0.985581,-0.028339
-0.148120,-0.165109,0.669735,-0.665389,0.704344,-0.247301
-0.060525,-0.417918,0.619723,-0.253201,0.345362,0.903667
0.381105,-0.143678,0.763433,0.143853,-0.607451,0.781223
0.291297,-0.392029,-0.751027,-0.604036,0.183008,-0.775660
0.018804,0.066499,0.818086,0.874911,-0.408128,0.260698
0.318839,0.645974,0.494226,0.996814,-0.030915,0.073524
0.604965,0.040536,0.762543,-0.558777,0.759514,0.333027
0.573135,-0.007352,0.795345,0.056038,0.527639,0.847618
-0.540625,-0.272256,0.719859,-0.509738,0.458666,-0.727868
0.159138,-0.710680,-0.067803,0.873029,-0.025852,-0.486982
-0.187176,-0.194172,-0.455779,0.955170,-0.124639,-0.268542
0.098680,0.187407,0.656374,0.374836,0.632026,0.678263
0.026978,-0.286127,0.397923,0.941079,-0.138788,-0.308396
0.322180,-0.780298,-0.048847,-0.686431,0.528317,0.499693
0.235715,0.444904,0.562530,0.748541,-0.477291,0.460304
-0.228718,0.094091,0.836735,0.450722,0.891265,-0.049962
-0.279648,-0.530510,-0.044205,0.902517,0.366624,-0.225943
0.180540,-0.249467,0.598664,-0.223744,0.328158,0.917742
-0.180405,0.161063,0.184955,0.110693,0.208453,0.971748
0.010633,-0.293119,-0.934397,-0.118597,0.432341,0.893877
0.095428,0.066575,0.562110,0.065623,-0.724939,0.685680
-0.085405,-0.027687,-0.963316,0.251819,-0.114593,-0.960966
-0.462287,-0.317952,-0.151263,-0.496349,0.172755,-0.850761
-0.397359,0.670880,0.744234,0.928591,0.347199,-0.131039
0.614809,-0.366820,-0.067366,0.372634,0.474924,0.797240
-0.152411,0.108981,-0.975771,-0.246082,0.053712,0.967760
0.393250,-0.080146,-0.142109,-0.886682,0.396080,-0.238571
0.137780,0.871044,0.726410,0.119478,-0.102652,0.987516
-0.025534,-0.212239,0.887669,-0.500132,-0.865016,-0.040196
-0.481115,0.725834,0.762883,0.841521,-0.373998,0.389831
-0.052671,0.402006,0.670365,-0.082304,-0.961113,0.263604
-0.324078,-0.077348,-0.980477,0.179017,-0.035165,-0.983217
0.509244,-0.419017,0.306408,-0.618460,0.373737,-0.691251
-0.014020,-0.776254,-0.362533,-0.696658,0.467395,0.544252
0.325927,-0.401517,-0.750137,0.610606,-0.139325,0.779583
-0.317575,-0.388213,-0.962006,-0.166701,0.155481,0.973672
0.608217,0.314926,0.642529,-0.221393,0.932767,-0.284483
0.645920,-0.015024,0.837560,-0.655311,-0.309869,0.688875
-0.287594,0.007578,-0.980057,0.136064,-0.135574,-0.981380
-0.427023,-0.205208,-0.492527,-0.589659,0.797743,-0.126128
-0.023277,-0.344974,-0.931226,0.002474,0.296012,0.955181
-0.177470,-0.596578,-0.924983,0.110086,0.030170,0.993464
-0.557829,-0.432055,0.679439,-0.457634,-0.192099,-0.868141
-0.225918,-0.075837,-0.793048,0.986367,-0.065248,-0.151072
-0.080078,0.831659,0.759583,-0.135794,-0.011489,0.990670
-0.131596,0.555643,0.695824,0.951117,0.121914,0.283749
-0.318026,0.593401,-0.026300,-0.197124,0.441879,0.875148
0.055785,-0.217038,0.709637,0.729922,-0.472082,-0.494320
-0.446438,0.285862,0.011807,-0.161937,0.301824,0.939510
0.286918,-0.016157,0.686459,-0.164491,0.687939,0.706882
0.066260,-0.283368,0.620645,-0.401902,0.138906,-0.905085
0.046032,-0.068390,0.428784,0.953831,-0.242254,-0.177538
0.098046,0.057770,-0.161971,0.145958,-0.536719,0.831041
0.418535,-0.169076,0.700094,0.564119,-0.787667,0.247689
-0.318208,0.038833,-0.986769,-0.246533,0.218482,0.944186
-0.387832,0.526314,0.666645,0.938998,-0.192928,0.284713
-0.414021,0.633803,0.739608,-0.645126,0.363857,0.671879
0.210882,0.271048,0.433798,-0.806924,0.590152,-0.024386
-0.272740,0.733393,0.767752,0.164268,-0.707192,0.687674
0.016683,0.070543,0.507893,0.803251,-0.549703,0.229376
0.467300,-0.132679,0.204040,-0.332834,0.700347,-0.631456
-0.459534,-0.733167,-0.266004,0.975132,0.027117,-0.219960
0.141754,-0.344294,0.811746,0.497961,-0.576255,0.648046
0.018399,-0.039061,0.771682,0.119513,0.919097,-0.375470
-0.342636,0.412929,0.500016,-0.114257,0.110536,0.987283
0.535658,0.402650,0.670106,-0.083438,0.263873,0.960942
-0.145728,0.777765,0.770437,0.032616,0.184689,0.982256
0.012799,0.630666,-0.088409,0.717229,0.407441,0.565309
0.152998,0.298561,0.461909,-0.608619,0.769634,-0.192990
-0.117960,0.141750,0.309659,0.816691,0.459192,-0.349512
-0.448020,-0.675040,0.600104,0.930357,-0.079232,-0.357992
0.153086,-0.167602,0.963236,0.358264,-0.667028,-0.653239
0.290167,0.090728,0.953951,-0.470715,0.482799,-0.738466
-0.097371,-0.284351,0.592340,-0.540735,0.406857,0.736256
-0.147172,-0.179621,-0.956572,-0.352159,-0.263820,-0.897988
0.299964,-0.611090,-0.241872,0.530793,0.469958,0.705265
-0.328592,-0.398758,-0.957672,-0.178730,0.218792,0.959263
0.065086,0.154751,0.859460,-0.112401,-0.707798,0.697415
0.665244,-0.129279,0.833484,-0.046991,0.172657,0.983861
-0.280958,-0.312169,0.708731,0.037999,0.426168,0.903846
0.784851,-0.342026,0.606751,0.818036,-0.513266,-0.259567
-0.315273,-0.502618,0.089801,-0.426873,0.473592,-0.770383
0.029505,-0.568116,-0.153431,0.707374,0.162305,-0.687953
0.382954,-0.110571,-0.577944,-0.263032,-0.307019,0.914633
-0.491998,0.550956,0.006437,-0.662852,-0.682827,-0.307206
-0.575889,0.746999,0.695452,0.946082,0.309550,0.095435
0.599547,0.439462,0.663831,0.065614,-0.560533,0.825529
-0.049689,0.789329,0.771229,0.483912,-0.195847,0.852920
-0.191646,-0.765557,-0.931582,-0.005650,0.127185,0.991863
-0.284615,-0.115219,-0.977129,-0.359121,0.278572,0.890747
0.164421,0.223575,0.626112,-0.179171,-0.390346,0.903066
-0.050773,-0.179093,-0.953288,-0.223719,0.174902,0.958832
-0.056915,0.322827,0.950377,0.704332,-0.204006,0.679925
-0.610069,-0.768166,0.441659,0.921297,-0.381484,0.075380
0.442825,-0.272371,0.503316,0.494805,0.609111,-0.619799
-0.333018,0.766616,0.784363,-0.664299,0.728903,-0.165554
0.161891,-0.305025,0.182739,-0.148260,-0.539006,0.829151
-0.388058,-0.496420,0.783586,0.171061,0.621257,0.764708
-0.411808,-0.906986,0.584366,0.381758,0.164083,0.909581
0.288136,0.222934,0.806036,0.924524,-0.374718,-0.069579
0.118908,-0.707506,-0.274448,0.681993,0.387617,-0.620192
0.023636,0.640380,-0.088684,0.738103,0.407352,0.537836
0.264160,-0.059546,0.560541,0.825314,-0.421534,-0.375720
-0.439576,-0.283860,0.767881,0.508178,0.137141,0.850263
0.564782,0.197951,0.478359,-0.048791,-0.334526,0.941123
0.070008,-0.093676,0.858619,-0.647869,0.761635,-0.013295
-0.564873,0.682256,0.756090,0.797507,-0.453890,-0.397450
-0.233910,0.247008,-0.218840,0.845061,0.213161,-0.490342
0.432667,-0.302870,0.215816,0.087990,0.023102,0.995853
0.207451,-0.260314,0.412367,-0.105973,0.691338,0.714718
-0.261948,0.648467,0.764824,-0.882861,0.459373,0.097640
0.209212,0.789481,0.706903,0.734594,0.223100,0.640780
-0.131053,-0.132792,-0.001747,0.956496,-0.216021,-0.196086
-0.328140,0.662073,-0.104665,-0.332312,0.331129,0.883132
0.566001,-0.426158,0.439330,0.544409,0.197006,-0.815358
-0.177605,0.758641,0.775370,-0.064061,0.023091,0.997679
-0.141980,-0.143565,-0.072688,0.875224,-0.479015,-0.067289
0.787921,-0.019523,0.869537,0.559864,-0.354322,-0.749005
0.349046,0.392520,0.494759,-0.136743,0.336618,0.931660
-0.218648,-0.228452,0.878174,0.376781,-0.692410,0.615309
0.041788,-0.300831,0.299890,0.832920,0.538572,-0.127216
-0.089740,0.216925,-0.972989,-0.149468,0.117391,0.981773
-0.450051,-0.773193,0.556497,-0.171034,-0.023763,0.984979
0.190924,-0.144511,-0.522968,-0.608493,0.769734,-0.192994
-0.334553,0.436136,0.660823,0.798993,0.433961,0.416278
0.090054,-0.259596,0.868001,0.985157,-0.148302,-0.086437
0.407065,0.050323,0.941756,-0.630950,0.293345,-0.718228
0.000610,-0.003988,0.805842,0.104724,-0.797230,0.594522
0.182075,0.133171,0.591838,-0.746174,-0.047718,0.664039
0.698791,-0.029537,0.861547,0.644033,0.007739,-0.764959
0.543695,0.143981,0.153188,-0.448763,0.635885,0.627903
0.134980,-0.323507,0.341685,-0.511235,0.321374,-0.797093
0.294232,0.172212,-0.220975,0.819914,-0.508000,-0.263965
-0.479175,-0.855094,0.556659,-0.535278,0.573012,0.620592
-0.219957,0.348299,0.221832,-0.613527,0.531029,0.584459
-0.233006,0.838275,0.774787,0.086559,-0.317195,0.944402
0.145320,-0.352647,0.808301,0.430699,-0.695934,0.574608
0.718479,0.130714,0.692152,-0.118479,-0.396113,0.910526
-0.443459,-0.394486,0.771067,0.624244,0.402614,0.669494
0.070008,0.027684,0.896921,-0.478450,0.542715,0.690323
0.602212,0.310543,-0.235289,0.938963,0.279298,0.200850
0.004311,-0.125800,0.951444,0.781376,-0.271164,0.562068
-0.295676,0.187974,-0.991330,-0.204903,0.015326,0.978662
-0.570291,-0.756450,0.383738,0.065116,-0.578280,0.813235
-0.019981,-0.242890,0.359606,0.990871,0.000313,-0.134814
0.151416,0.007502,0.904345,0.668088,0.428445,-0.608353
0.082470,-0.153316,-0.513522,0.142378,-0.799643,0.583351
-0.085584,0.712683,-0.076440,-0.190629,0.836472,-0.513786
-0.235040,-0.549371,0.073400,0.412767,-0.489212,0.768306
0.497281,0.485797,-0.223029,0.309765,0.238511,0.920412
-0.182345,-0.202110,0.863731,-0.373871,0.868005,-0.326785
0.144824,-0.388742,0.759600,-0.293086,0.420929,0.858440
0.276035,0.157812,0.660774,-0.212577,0.425245,0.879760
0.560266,-0.089177,0.824977,0.266898,0.062998,-0.961663
0.009143,-0.082338,0.651991,-0.022480,0.490214,0.871312
0.118095,-0.159289,0.698800,-0.641619,0.764783,-0.058592
-0.328863,-0.270708,-0.451849,-0.233992,0.424987,0.874433
0.394198,0.067671,0.741436,0.985459,0.083947,0.147727
-0.132362,0.303814,-0.020315,-0.728521,0.062344,-0.682180
0.452173,0.130184,0.489891,-0.680115,0.637769,-0.361515
0.137827,0.380387,0.628732,0.967218,0.250665,-0.040691
0.160312,-0.198292,0.204510,0.287937,0.351025,-0.890996
0.552274,0.080483,0.485993,0.395466,-0.089415,0.914118
-0.296264,-0.545742,-0.100718,-0.263543,-0.754200,-0.601438
-0.378484,0.102557,-0.992576,0.155261,-0.175499,-0.972160
0.357399,0.133360,0.657377,-0.566090,0.543524,0.619777
0.537238,0.349510,0.508847,0.164631,-0.137301,0.976752
0.059894,0.576128,0.704849,-0.440948,0.202065,-0.874491
-0.125274,0.673224,0.252823,0.345231,-0.507450,0.789500
0.030228,0.126179,0.888073,-0.005118,-0.883631,0.468157
-0.462243,-0.043407,0.507440,0.958183,0.163904,0.234566
-0.069104,0.012718,0.253130,0.432243,0.685483,-0.585900
0.720918,0.256383,0.468751,-0.618683,-0.131562,-0.774547
-0.297889,-0.032976,0.630900,-0.599782,-0.388113,0.699736
0.018173,-0.286921,0.713438,0.477340,-0.353214,-0.804604
0.315725,-0.946823,-0.222948,-0.236332,0.212213,0.948216
-0.167130,0.664758,0.286854,-0.209454,0.425334,0.880466
-0.307011,0.590944,0.671692,0.390834,0.883698,-0.257542
0.499899,-0.033733,0.799728,-0.296221,0.147417,0.943674
-0.113942,-0.065103,0.735241,0.113390,0.830102,-0.545961
0.717484,0.652550,-0.250218,0.116314,0.119748,0.985967
-0.376183,-0.057278,-0.985556,0.236053,-0.080320,-0.968415
-0.293284,-0.509043,-0.123718,0.635572,0.605052,0.479542
-0.131100,-0.146172,-0.021738,0.996735,0.080336,0.008029
0.306151,-0.141032,0.740255,0.832703,0.547631,-0.081890
-0.134440,-0.426763,-0.930596,0.119481,0.157579,-0.980252
-0.213456,0.646767,0.284444,-0.178542,-0.534455,0.826124
-0.228718,0.774249,0.750299,-0.638502,0.502836,-0.582642
-0.196524,-0.369164,0.292029,-0.557422,-0.217257,-0.801299
-0.132274,-0.611883,-0.182658,0.910426,-0.011137,-0.413523
0.323579,0.580815,0.694886,-0.100590,0.977822,0.183699
-0.402055,-0.683317,-0.306538,0.860745,0.046377,0.506919
0.755730,0.012604,0.861531,0.436183,-0.233991,-0.868903
-0.124235,0.137252,0.241355,0.875416,-0.470216,0.111998
-0.188350,0.334391,-0.369230,0.204434,0.310551,-0.928313
0.008602,-0.231818,-0.943276,0.183323,-0.275573,-0.943638
-0.182119,0.016572,0.025054,0.165185,0.326854,0.930527
0.723310,0.408772,0.645133,0.005069,-0.235795,0.971790
0.020656,0.282044,0.911300,-0.431295,-0.499637,0.751231
-0.176296,0.865374,0.775903,0.405708,0.066692,0.911566
-0.037589,-0.269384,-0.941222,-0.119554,0.393342,0.911586
0.627227,0.128636,0.687866,0.627198,0.466798,-0.623475
-0.197607,0.509760,0.706822,-0.608376,0.470918,-0.638839
-0.110825,-0.171722,0.006729,0.945761,0.299474,-0.125901
0.282040,-0.400458,-0.748795,-0.581704,0.245187,-0.775567
0.102877,-0.151729,0.628829,0.006514,-0.946365,0.323034
0.047297,0.431411,0.708893,-0.546820,0.122625,-0.828222
0.377809,0.535424,0.544690,0.836870,0.099275,0.538324
0.461022,0.335526,-0.192977,-0.158835,0.137213,0.977724
0.598781,0.627000,-0.247630,-0.633822,-0.103071,-0.766581
-0.198376,-0.144322,-0.394025,0.994415,0.087230,0.059413
0.544599,-0.079918,0.685246,0.978499,0.084489,0.188154
-0.297710,0.200219,-0.992026,-0.223190,0.041272,0.973901
-0.107303,-0.513843,-0.118672,-0.418912,0.684967,-0.596098
-0.458991,-0.204717,0.440009,0.053705,-0.975871,-0.211640
0.748821,0.371807,0.483049,0.682912,-0.148058,0.715339
0.174987,-0.374605,0.014751,0.390929,0.518754,0.760308
0.737263,0.684221,-0.261589,0.130548,0.333103,0.933809
-0.451994,-0.651796,-0.294504,0.811481,0.121584,0.571590
-0.061925,0.119828,0.902355,-0.719750,0.529083,0.449479
0.268675,-0.084453,-0.307831,0.199293,0.777936,-0.595901
0.609212,0.271311,0.224744,0.483533,0.383166,0.787007
0.026617,0.597595,0.598632,-0.246688,0.905631,0.344931
-0.243302,0.492828,0.466228,0.309766,0.810140,0.497713
0.240411,0.024888,0.928558,-0.077491,-0.401598,0.912532
-0.144419,0.092428,0.867661,0.011663,-0.777432,0.628859
-0.177561,0.244930,0.019183,0.913508,-0.184757,0.362446
-0.033435,0.044806,0.402986,-0.441592,-0.492957,0.749660
0.743538,0.651189,-0.246725,0.140021,-0.337446,-0.930873
-0.112586,0.178071,0.621680,0.772644,0.596772,-0.216529
-0.188714,0.611655,0.749944,0.125245,-0.759856,0.637913
-0.468835,-0.393655,-0.056384,0.487525,0.439134,-0.754639
0.021740,-0.324224,0.611199,0.966786,-0.255527,-0.005628
-0.360243,0.485647,0.650519,0.820328,0.369434,0.436555
0.415148,-0.512974,-0.077653,-0.303150,0.137467,-0.942975
0.160717,0.920479,0.720118,-0.436184,0.522191,-0.732843
-0.197698,-0.620691,-0.928299,-0.146268,-0.099778,0.984200
-0.345345,-0.183439,-0.491282,-0.575583,0.811958,-0.097100
-0.441020,0.358656,0.631207,-0.678796,-0.334539,0.653697
0.571013,-0.005802,-0.194368,0.617369,-0.094963,-0.780921
-0.171691,-0.107207,0.805228,0.960930,-0.218546,-0.169855
-0.052985,-0.428011,-0.926180,0.002486,-0.216601,0.976257
-0.275675,0.652172,0.730987,0.361501,0.200728,-0.910508
0.046619,-0.472193,0.650940,-0.264657,-0.933858,0.240552
0.818671,-0.440936,0.566040,-0.289579,0.170175,0.941905
-0.440433,-0.250487,0.693996,-0.238994,-0.164490,0.956988
0.270888,0.509382,0.559118,0.477486,0.065723,0.876178
0.491725,0.360924,0.508831,0.125556,-0.084471,0.988484
0.437319,-0.569440,-0.132501,0.804811,0.512369,-0.299595
0.299920,0.158002,0.519992,-0.082846,-0.460760,0.883650
-0.151507,-0.093828,0.900624,-0.065999,0.066737,0.995585
0.396411,0.403404,0.692266,0.392025,0.131038,-0.910574
-0.229845,0.675379,0.290104,0.286341,0.547957,-0.785972
0.665065,-0.049078,0.827872,0.338255,0.282628,-0.897611
-0.457817,-0.691630,0.522078,0.017411,0.733528,0.679436
0.620227,-0.305214,0.520267,-0.135820,0.445056,0.885143
0.416413,-0.111969,0.779462,-0.579640,0.168292,0.797305
-0.045266,-0.151653,0.742956,0.979381,-0.138236,-0.147319
-0.258291,0.603720,-0.080484,0.537075,-0.217055,-0.815130
-0.545051,0.197686,0.517889,-0.061627,0.151618,-0.986516
0.314639,0.611655,0.525734,0.894517,0.292985,0.337637
-0.589073,-0.142393,0.571491,0.672489,-0.043121,0.738850
-0.127892,0.511045,-0.282551,-0.057258,-0.603486,0.795315
-0.253551,-0.284503,0.824297,-0.593801,0.505548,-0.625957
0.028105,0.533797,0.708990,0.507856,-0.488310,0.709672
0.677075,-0.060944,0.818604,-0.361921,-0.320645,0.875328
-0.058359,0.061209,0.861628,0.942864,-0.134341,0.304893
0.156338,-0.170740,0.944571,-0.615602,0.603401,0.506894
-0.292245,0.771490,-0.109468,-0.735329,0.598655,0.317653
0.766475,0.696996,-0.269078,-0.127200,0.404714,0.905553
0.545547,0.071186,-0.190923,0.810200,0.453733,0.371083
-0.247320,-0.114084,-0.976078,0.193628,-0.266500,-0.944185
0.472131,-0.114691,0.805034,0.558998,0.301153,-0.772546
0.441651,-0.731013,0.179310,-0.121791,0.253789,0.959561
0.686376,-0.221725,0.307783,-0.722958,0.274929,-0.633834
-0.212599,-0.121191,-0.738896,-0.774046,0.630064,0.062232
0.652738,-0.288434,0.314188,-0.329438,0.598178,-0.730516
0.724214,-0.397699,0.548297,-0.472710,0.211398,0.855486
0.064182,0.401439,0.681057,0.480785,-0.705336,0.520910
-0.261273,0.640532,0.606412,-0.390348,-0.085381,0.916700
0.509966,-0.129127,0.804581,-0.127828,-0.593496,0.794621
0.042915,0.215829,0.873791,0.745391,-0.508579,0.430975
-0.284750,-0.308882,0.175573,0.844451,-0.371143,-0.386207
-0.520444,-0.234992,0.716009,0.522097,-0.146182,0.840265
-0.123783,-0.173914,0.060007,0.959023,-0.280639,0.038940
0.569340,0.341572,0.666791,-0.247770,0.624357,-0.740802
-0.317125,-0.344748,0.797027,0.788236,-0.612223,-0.062188
-0.188350,0.315115,0.037735,0.689575,-0.542704,-0.479540
-0.293014,-0.108303,0.617524,-0.331244,-0.903109,0.273260
-0.630027,-0.604324,0.133682,0.625053,-0.179515,0.759660
0.670527,-0.191868,0.611118,0.882606,-0.280114,0.377548
-0.617879,-0.221612,0.480348,-0.540110,-0.524244,-0.658369
-0.575167,-0.655877,-0.137208,0.843355,0.470427,0.259712
-0.026843,-0.270065,0.728820,-0.738163,-0.220099,-0.637709
0.184376,-0.254457,0.087035,0.820730,0.271991,-0.502417
-0.180675,-0.189826,0.889011,-0.386585,0.761990,-0.519541
-0.171013,-0.350681,0.747340,0.997153,-0.044342,0.060985
-0.054882,0.302907,0.947676,0.826815,-0.325131,0.458985
-0.022643,0.209213,0.905703,-0.087417,-0.601712,0.793915
0.615578,0.715063,-0.254229,0.900419,-0.035391,0.433583
-0.395328,0.563353,0.677256,0.910197,0.346608,0.226725
-0.001377,-0.193718,0.359380,-0.150893,0.988215,-0.025737
0.206591,-0.019257,0.828842,0.790968,-0.227056,-0.568168
0.836369,-0.340439,0.018018,-0.608402,0.155988,-0.778148
0.000880,0.465465,0.452027,0.292863,0.424637,0.856688
0.252873,-1.000000,-0.218743,0.218705,0.916083,0.336094
0.068969,0.159930,0.887022,0.127492,-0.683565,0.718668
-0.344984,0.347694,0.637046,0.880102,0.231913,-0.414290
-0.231336,-0.229245,0.940899,-0.688400,-0.668612,0.281181
-0.194220,0.301622,0.212095,-0.792136,0.109918,0.600365
-0.248312,0.024282,-0.978569,0.122804,-0.055341,-0.990887
-0.427114,0.073152,0.348365,-0.170978,-0.944428,0.280753
-0.552591,-0.058374,0.552146,-0.473717,-0.306686,-0.825552
-0.192820,0.065556,0.815951,-0.435629,-0.899043,-0.044155
-0.264026,0.702175,0.599570,-0.006774,0.125075,0.992124
-0.142071,0.167676,0.220344,0.460540,0.887381,0.021407
-0.151463,-0.498687,0.043752,-0.103218,0.967452,0.231046
0.482920,-0.074211,0.660709,0.053821,-0.988537,0.141057
-0.480032,-0.684525,0.422848,-0.369236,-0.717369,-0.590802
-0.030544,0.172288,0.898651,-0.015664,-0.928837,0.370157
-0.087301,0.845115,0.773396,0.367072,-0.136740,-0.920087
-0.085496,0.144546,0.885566,0.027739,-0.839442,0.542741
0.186228,0.142580,0.591159,0.600220,0.392057,-0.697156
-0.605508,-0.062305,0.559344,-0.742458,-0.164772,-0.649312
0.583925,0.420904,0.665869,0.194620,-0.178604,0.964481
-0.294864,0.634673,0.225391,0.737655,0.659486,-0.144718
0.050411,-0.134797,0.890661,-0.363952,-0.820276,-0.441233
-0.287370,0.019331,0.654175,0.203244,0.797673,-0.567812
-0.492811,0.627605,0.696584,0.842941,0.489262,0.223770
-0.450685,-0.555947,0.628846,-0.344776,0.435110,-0.831751
-0.529701,0.703725,0.671223,0.735871,0.638640,0.225019
-0.510917,-0.078028,0.682270,0.902300,0.020595,0.430616
0.009368,0.378006,0.470870,0.937054,-0.096482,0.335592
-0.322135,-0.557684,0.740190,0.704505,0.343090,0.621259
-0.207630,-0.209481,0.210834,0.581253,-0.810511,0.072229
0.287053,0.392746,0.509430,-0.350334,0.778789,-0.520341
0.661496,0.372036,0.511435,-0.175568,0.055671,0.982892
-0.003273,-0.250261,0.265131,0.932197,0.339322,-0.125975
-0.413252,-0.153771,0.574014,0.941329,-0.154049,-0.300280
-0.195306,-0.320900,-0.951088,-0.525940,0.257988,0.810450
0.746969,-0.397358,0.550011,-0.399462,0.182015,0.898499
0.651382,0.202825,-0.201404,0.689482,-0.156739,-0.707140
-0.101929,-0.016535,0.884418,-0.678284,0.556925,0.479339
-0.500530,0.716348,0.766668,0.841521,-0.373998,0.389831
-0.172592,0.813179,0.748617,0.370084,-0.089187,-0.924707
-0.093171,-0.324642,-0.924773,0.018044,0.388785,0.921152
-0.187314,0.317648,-0.599198,0.368728,-0.682574,-0.630977
0.471679,0.406694,0.671158,0.490155,0.505139,-0.710340
-0.144598,-0.238770,0.821693,-0.169230,0.770430,-0.614654
-0.162208,0.392105,0.132776,-0.433218,-0.536240,-0.724409
0.420114,-0.169229,0.763805,-0.580265,-0.194070,0.790967
0.230297,0.077724,0.668489,-0.114136,-0.152163,-0.981743
-0.100080,0.224332,-0.976612,-0.164921,0.141551,0.976097
-0.186501,-0.131205,-0.455132,0.771695,0.448082,0.451341
0.513174,-0.458209,0.290380,0.808435,-0.538323,0.237994
0.009685,-0.758113,-0.912302,0.225137,-0.133282,-0.965168
-0.449646,-0.296937,0.680717,0.603577,-0.475416,0.640058
