-0.662039,0.215204,0.203858,0.079224,0.659125,0.747849
-0.617550,-0.428259,0.729336,-0.236890,0.625472,0.743416
0.289612,0.579741,0.359921,0.552608,-0.277647,-0.785835
-0.059957,0.219811,0.673991,0.065910,0.163965,-0.984262
-0.234384,-0.220372,0.784541,-0.593749,0.117227,-0.796065
-0.317634,-0.441833,0.422524,0.889801,-0.114164,-0.441837
0.085577,-0.398748,0.837077,0.893214,0.252508,0.372034
0.142799,-0.205242,0.728353,0.810931,-0.238734,-0.534225
-0.110736,0.120319,0.641261,-0.154192,-0.692875,0.704379
0.036793,-0.016967,-0.102017,0.125029,-0.550191,0.825625
0.311293,-0.037388,0.726246,-0.093344,-0.378116,-0.921040
-0.169185,-0.205865,0.765882,-0.173832,0.979430,-0.102471
-0.132674,-0.048034,-0.318038,0.886928,-0.398769,-0.233114
0.054077,-0.457957,0.779742,0.619040,0.785186,0.016477
-0.123673,-0.009245,-0.792361,0.980220,-0.127686,-0.151215
0.129503,-0.240731,0.829890,0.717591,-0.424840,0.551882
0.469509,-0.162468,0.836820,-0.717401,-0.064514,0.693667
0.082407,-0.426206,0.657719,0.508507,0.749735,-0.423459
0.309197,-0.277839,0.868613,0.005761,0.955404,0.295247
-0.070798,0.229836,0.008908,0.650613,0.025155,-0.758993
0.009128,-0.403418,-0.810107,-0.290190,0.829256,0.477624
-0.259748,-0.035769,-0.297833,-0.002989,-0.435638,0.900117
0.224924,0.139246,0.719597,0.076569,0.249581,0.965322
-0.117793,-0.199639,0.393986,-0.360532,0.339843,0.868633
0.023088,-0.350310,0.170965,0.944589,-0.328211,-0.005431
-0.715066,-0.396943,0.666101,-0.176780,0.773715,0.608371
0.117588,-0.277464,0.737343,0.952854,-0.285600,0.102478
0.117487,-0.154625,0.729523,0.653960,0.231847,0.720127
0.366470,0.634281,0.357252,0.401293,-0.580656,-0.708380
0.032958,0.133270,0.455605,0.423422,0.597595,0.680877
-0.331237,-0.244341,0.591089,0.439719,0.500370,0.745840
0.234844,-0.459576,0.443689,0.451005,0.347453,0.822114
-0.560482,-0.058059,0.219053,0.496984,0.821583,-0.279298
0.018026,-0.412259,0.827993,-0.666075,-0.544570,0.509693
0.263532,-0.060113,0.716600,0.184272,-0.433925,0.881903
0.040679,-0.001962,-0.089117,0.379526,-0.558786,0.737372
-0.105981,-0.233881,0.652194,-0.463731,0.828347,-0.314315
-0.003553,-0.089312,0.211725,0.817092,0.516445,-0.256213
0.203549,-0.579180,0.450525,0.630455,-0.259362,-0.731613
-0.253151,-0.313389,0.748862,-0.301059,0.501373,0.811165
-0.613663,0.134577,0.218139,0.876227,-0.343079,0.338413
-0.265322,-0.293590,-0.084318,-0.328551,0.560910,0.759891
-0.171793,-0.325095,-0.086589,0.835268,-0.165368,0.524387
0.054128,-0.103259,0.385159,0.862930,-0.504927,0.020003
-0.478816,-0.226847,0.709319,0.898686,0.422535,0.117594
-0.115286,-0.134326,-0.080923,-0.087906,-0.991626,0.094604
0.530925,0.816330,0.406370,-0.132094,-0.191929,0.972478
0.201094,-0.616474,0.447364,0.889508,-0.095953,-0.446730
0.030912,-0.377703,-0.571494,0.830967,-0.550617,0.079467
0.136407,-0.215266,0.716787,0.993711,-0.102671,-0.044690
0.097390,-0.209414,0.553748,-0.802494,-0.595945,-0.029198
-0.681215,-0.493758,0.737601,-0.585342,-0.806950,-0.078775
0.238526,-0.495812,0.702740,0.872448,-0.186940,-0.451539
0.737721,0.028173,0.470214,-0.176750,-0.159195,0.971296
0.087622,-0.400055,0.831622,0.872495,0.201939,0.444941
-0.062054,-0.394577,-0.386681,0.942407,-0.311545,-0.121691
-0.145099,-0.235500,0.323212,-0.409409,0.876440,0.253449
0.009588,-0.089189,-0.038969,0.300681,-0.928449,0.218113
0.022424,0.300689,0.674599,0.076732,-0.447895,0.890788
0.298457,0.610871,0.355848,-0.366402,0.185445,0.911789
-0.313851,-0.462565,0.425872,-0.494699,-0.181420,0.849918
-0.274066,-0.053202,-0.410538,-0.110169,0.993725,-0.019344
-0.338754,-0.368988,0.753029,0.730415,-0.390443,-0.560400
-0.162845,-0.095413,0.631803,0.938781,0.218316,0.266513
0.130936,-0.227469,0.623093,0.537128,0.728775,-0.424714
-0.065992,-0.131089,-0.183279,-0.237706,0.963682,-0.121707
-0.352918,-0.323848,0.355052,-0.202224,-0.286221,0.936580
-0.182583,-0.289418,0.478970,-0.573195,0.801809,-0.168968
0.168623,0.070324,0.970127,0.902293,0.358830,-0.238976
-0.160390,-0.016778,-0.995950,-0.035927,-0.202215,0.978682
-0.597044,-0.120755,-0.136713,0.392529,0.704934,-0.590752
-0.220782,-0.197210,-0.147108,0.796052,0.457392,0.396352
0.236634,-0.191172,0.736734,0.783843,0.292324,-0.547847
-0.530873,-0.358777,0.355099,0.111892,0.914730,0.388265
-0.785584,-0.204060,-0.171550,-0.561612,-0.752758,0.343435
-0.165810,-0.028484,-0.505051,0.787911,-0.043180,0.614273
-0.719158,-0.491267,0.666897,0.178681,-0.692265,0.699173
-0.086497,-0.151699,-0.048193,-0.072145,0.902097,0.425459
-0.017361,-0.113407,0.468178,0.669621,-0.212151,0.711758
0.302396,0.468854,0.385300,-0.014406,0.964277,0.264505
-0.289561,-0.507206,0.427418,0.269696,0.098565,-0.957888
-0.175218,-0.317996,0.443619,0.527355,-0.845863,0.080076
-0.544219,-0.211468,-0.126295,-0.458247,0.347420,-0.818113
-0.425737,-0.861656,0.743781,-0.380188,-0.677168,0.630000
-0.189383,-0.000404,-0.995762,-0.545999,-0.365520,0.753844
0.191634,-0.611929,0.436876,0.861956,-0.181291,-0.473461
0.152821,-0.338604,0.733316,-0.558326,0.256803,-0.788876
0.069264,0.115089,0.431913,-0.382735,-0.823752,-0.418267
0.494311,-0.023751,0.721517,0.062298,0.912381,0.404574
-0.668635,-0.682656,-0.154342,0.322966,-0.468839,0.822121
-0.303059,0.012982,-0.281375,0.076201,-0.133711,0.988086
0.466032,-0.063039,0.870556,-0.022180,-0.925891,0.377139
0.690419,-0.127790,0.448441,-0.025717,-0.312075,0.949709
0.656311,-0.264327,0.824201,-0.172587,-0.160160,-0.971886
-0.464447,-0.374591,0.758741,0.791714,0.135365,0.595706
0.071667,-0.434300,0.683987,0.979622,-0.069176,-0.188561
-0.076730,-0.094916,-0.179276,-0.237706,0.963682,-0.121707
0.115032,0.415185,0.353109,0.228894,0.239380,0.943560
-0.021656,-0.128474,-0.554450,-0.217180,0.657043,-0.721892
0.161719,0.098902,0.575146,0.810767,0.245434,0.531431
0.682749,-0.379322,0.880811,-0.139018,0.506790,0.850787
-0.177929,-0.312516,-0.080689,0.046725,-0.854862,0.516747
-0.485566,-0.327460,-0.140763,0.024775,-0.090118,0.995623
-0.538238,-0.476885,0.700259,-0.165925,-0.921791,0.350385
-0.121526,-0.176851,0.115198,-0.272573,0.736640,0.618922
-0.768658,0.242910,0.228183,0.794631,0.147368,0.588935
0.049373,-0.532982,0.814532,-0.784495,0.436481,-0.440515
0.337885,0.095290,0.517998,-0.187318,0.341594,0.920991
-0.616118,-0.625999,0.755300,0.798592,0.085234,-0.595807
-0.280611,-0.165582,0.815164,-0.296953,-0.387414,0.872771
-0.657589,-0.547552,0.745467,0.337291,-0.547632,0.765725
-0.177929,-0.084768,-0.383825,-0.734661,0.677716,0.031218
-0.068242,0.031846,-0.136385,-0.706865,-0.691056,0.150942
0.401242,0.742614,0.400939,-0.350781,-0.010659,0.936397
-0.111810,-0.087943,-0.283131,0.782387,-0.617106,-0.083971
-0.530617,-0.082963,-0.122526,-0.412724,-0.195544,0.889619
-0.417198,-0.332815,0.346951,-0.459777,0.868022,-0.187464
-0.164787,-0.207733,0.211163,-0.029049,0.972708,0.230207
-0.377004,-0.190798,-0.561801,0.036242,-0.757335,0.652020
-0.643374,-0.217881,0.328175,-0.526333,0.842476,-0.114924
0.065686,-0.618404,0.590528,0.778718,0.036229,-0.626327
0.080004,-0.129907,0.456448,0.653337,0.739597,-0.161698
-0.181969,-0.041621,-0.508867,-0.102236,-0.989802,-0.099198
0.054896,-0.376023,0.741861,0.704750,-0.679501,0.203975
0.072743,-0.383369,0.776722,0.569998,0.679699,0.461639
-0.007441,-0.357032,-0.105201,0.966454,-0.254131,0.037213
-0.098565,-0.246334,0.708710,-0.592853,-0.733824,-0.331704
-0.708266,-0.362575,0.691830,0.097098,0.989495,0.107102
-0.180128,-0.055319,-0.283599,0.214303,0.727182,-0.652135
0.185754,0.469289,0.321034,0.924602,-0.313868,0.215867
0.420367,0.569841,0.391012,-0.589537,0.424459,0.687227
0.253816,-0.046789,0.894787,0.934803,0.244908,-0.257221
0.070798,-0.098651,0.299987,-0.076895,-0.991196,0.107787
-0.399196,-0.175419,-0.125967,-0.297575,-0.454775,0.839421
-0.534658,-0.471904,0.705807,-0.258185,-0.938430,0.229541
-0.739510,-0.113719,-0.124562,-0.086361,-0.640878,0.762769
-0.484647,-0.111290,0.236167,0.500008,0.865842,-0.017615
0.114673,0.174548,0.917918,0.999426,0.002361,-0.033803
-0.139271,-0.267877,0.538624,0.870577,-0.160061,0.465270
-0.160799,-0.403916,-0.094432,-0.069765,0.188218,-0.979646
-0.586152,-0.240854,0.690402,-0.095893,-0.501151,0.860030
-0.105060,-0.243159,0.393400,-0.281027,0.736138,0.615731
-0.704584,-0.350559,0.681248,0.409898,0.186547,0.892851
0.311805,0.757370,0.231859,0.853978,0.452266,0.257247
-0.171537,-0.068393,-0.508914,0.978715,0.055724,0.197512
-0.542584,-0.492264,-0.157152,0.221605,-0.399430,0.889577
0.014651,-0.378203,0.212848,0.867536,-0.477758,-0.138307
-0.095241,-0.115214,-0.051237,0.575941,0.812488,0.090307
-0.016082,0.084519,0.655589,0.016828,0.137332,0.990382
-0.744010,-0.355725,0.661442,-0.052969,0.997172,-0.053320
0.019304,-0.094604,0.263933,0.976352,-0.183619,-0.114106
-0.656311,-0.146468,0.715172,0.180511,-0.503633,0.844849
-0.584669,-0.121378,0.292378,0.291101,0.477298,0.829124
-0.446191,-0.317684,0.754317,-0.331011,-0.065489,-0.941352
-0.083991,-0.003767,0.652803,-0.528488,0.680720,-0.507268
0.155327,-0.770879,0.412879,0.505970,0.789233,-0.348002
0.154099,-0.178033,0.790207,0.790238,0.612782,-0.004663
-0.223543,-0.226722,0.751531,0.406222,0.675648,-0.615210
-0.191838,0.053886,-0.989465,0.431252,0.438706,-0.788390
0.666692,-0.421349,0.884065,-0.139018,0.506790,0.850787
0.017617,-0.360582,0.178784,0.939896,-0.341182,-0.013795
0.355271,0.703204,0.322814,-0.671191,-0.741223,0.009582
0.173839,0.480621,0.358961,-0.599633,-0.115925,0.791834
-0.382782,0.029854,-0.279759,0.296377,0.495010,0.816778
0.099128,-0.030664,0.719550,-0.277047,0.107420,0.954833
-0.739869,-0.090994,0.254966,0.358696,0.611203,-0.705527
0.195674,-0.774677,0.455278,0.703211,0.422443,-0.571871
0.192656,-0.214706,0.837241,0.499445,0.663729,-0.556793
-0.295798,-0.114777,0.329135,-0.446860,-0.234914,0.863210
-0.001610,-0.151324,0.173798,0.804204,0.571568,-0.162989
-0.485208,-0.196961,-0.122198,-0.283487,-0.954814,-0.089243
0.195162,0.985182,0.180423,0.837838,0.545917,-0.001556
0.071002,-0.437412,0.754527,-0.023898,0.474951,0.879687
0.595612,0.291785,0.379845,0.158094,0.016444,0.987287
-0.053463,-0.024126,0.701570,0.441870,0.023879,0.896761
0.226970,-0.199078,0.852880,0.654028,0.189457,-0.732361
-0.695634,-0.657067,0.704262,-0.443200,0.411383,-0.796453
-0.504436,-0.297637,0.675934,-0.716817,0.257292,-0.648054
-0.648129,-0.169878,0.320145,0.058129,0.897999,0.436140
-0.004577,-0.196899,0.181477,0.464149,0.862018,-0.203691
0.057809,-0.173428,0.473375,0.841479,0.537687,-0.052977
0.223032,-0.390591,0.424655,-0.057030,0.272080,0.960583
-0.588555,-0.324409,0.695225,-0.017911,0.388255,0.921378
-0.747999,-0.227469,0.679446,0.537937,0.693445,-0.479331
-0.155736,0.128039,-0.992625,0.010333,-0.071721,0.997371
-0.182378,-0.194347,-0.301626,0.176230,-0.148885,0.973024
0.462863,0.116707,0.910426,-0.341590,-0.242751,0.907958
0.036383,-0.121315,0.361794,-0.804053,-0.420812,-0.420019
0.320600,0.654080,0.369801,-0.180878,0.036066,0.982844
-0.776278,-0.469850,0.729804,0.892586,0.450318,0.022465
-0.000793,-0.103010,0.490981,0.081162,-0.469746,0.879063
-0.602772,-0.114342,-0.126225,-0.543376,-0.554038,0.630702
-0.056020,-0.215266,0.770728,-0.428842,-0.902719,0.034534
0.036486,-0.232139,0.642666,0.023847,-0.984796,0.172072
0.175424,-0.150329,0.708781,0.735048,0.674143,0.072363
0.169798,-0.160414,0.870907,0.973638,0.024163,0.226814
-0.582367,-0.437100,0.730858,0.238244,0.505457,0.829309
-0.066349,-0.138187,-0.088134,0.210642,0.940758,0.265714
-0.595919,-0.477383,0.734791,0.203491,-0.021432,0.978842
0.069929,-0.374716,0.845271,0.264003,0.952927,0.149104
-0.692362,-0.504592,0.184590,0.134296,0.075694,-0.988046
0.010560,-0.168571,-0.145188,0.000245,0.660151,0.751132
0.182072,0.359586,0.373711,0.739006,-0.159383,-0.654575
0.063179,-0.201755,0.859436,0.397146,0.867975,0.298152
-0.529492,-0.165582,-0.125991,-0.309837,0.590741,0.745001
0.083787,-0.423840,0.473305,0.252428,-0.967356,0.022404
0.228964,0.144912,0.716975,-0.011888,0.173967,0.984680
0.227787,0.194907,0.385253,-0.498831,0.307267,0.810404
-0.041344,0.181273,0.262879,0.358012,-0.304539,-0.882657
0.093350,-0.120131,0.364838,0.558617,0.574000,-0.598724
-0.209072,0.058557,0.615485,0.521352,0.140188,0.841748
-0.381350,-0.186688,-0.121074,0.237507,0.130897,-0.962526
-0.092121,-0.300687,-0.357931,0.810820,0.584788,-0.024362
0.268747,-0.066960,0.722289,0.104620,-0.630298,0.769272
0.574800,0.261215,0.386775,-0.166968,0.070069,0.983469
0.286185,-0.143479,0.724794,0.458481,0.346711,0.818283
-0.074991,-0.196961,0.027029,0.747318,0.503720,-0.433339
0.027077,-0.342837,-0.547028,0.549111,0.832770,-0.070513
-0.281430,-0.148149,-0.505777,0.810678,-0.243044,-0.532663
0.055355,-0.425894,0.402554,-0.085130,0.996116,0.022475
-0.587225,-0.304236,0.700797,-0.204393,-0.083835,-0.975292
-0.386771,-0.855741,0.763845,-0.418951,-0.281412,0.863300
-0.176447,-0.170501,-0.046906,0.785129,-0.021022,-0.618975
-0.265066,-0.030664,-0.437438,-0.043484,0.996636,-0.069471
0.215873,0.572207,0.330633,0.941644,0.112928,-0.317102
-0.210248,-0.047848,-0.008955,0.383150,0.729301,0.566847
0.219708,0.087133,0.935992,-0.337740,0.764497,-0.549068
0.182991,0.400927,0.306168,-0.668314,0.463409,-0.581901
0.221038,-0.086573,0.885376,-0.591306,0.196930,0.782033
-0.352561,-0.318929,0.629625,0.468258,-0.366074,0.804192
-0.049270,0.017839,0.481312,-0.374937,0.684178,0.625558
-0.166423,-0.014973,-0.519964,0.701850,0.677642,-0.219564
0.069111,-0.436416,0.836820,0.961684,0.023759,0.273129
0.007798,-0.397503,-0.114355,-0.625111,-0.769087,-0.133196
-0.122855,-0.072005,-0.798237,0.805617,0.588573,0.067551
0.046202,-0.109111,0.484098,-0.734752,-0.469502,0.489599
0.201503,-0.256170,0.841221,-0.335509,0.941900,0.016086
-0.368975,-0.475329,0.206199,0.016639,-0.249014,0.968357
0.395003,0.147091,0.910192,0.054693,-0.619611,0.783002
0.180537,0.113781,0.702857,0.014940,-0.761986,0.647421
-0.278463,-0.288236,0.767755,-0.510831,0.087483,0.855219
0.003299,-0.320299,-0.387196,0.966130,-0.256564,-0.027694
-0.157066,-0.250630,-0.062896,0.651636,0.645774,-0.397928
-0.602158,-0.272484,-0.146453,-0.240681,-0.172817,0.955095
0.580067,-0.328891,0.853770,0.079101,0.680287,0.728665
0.180179,0.109860,0.377878,-0.725597,0.626021,0.285670
0.083225,-0.368490,0.460779,0.918051,0.294812,-0.265083
-0.238628,0.096100,0.624662,0.475581,0.376332,0.795108
-0.101532,-0.111228,-0.156590,-0.203512,0.978556,-0.031808
0.125413,0.094792,-0.118429,0.654471,0.126192,0.745482
-0.136407,0.101952,0.641097,-0.225772,-0.742354,0.630823
0.198844,0.733336,0.311599,0.977733,0.208788,-0.021110
0.224719,-0.055940,0.907359,0.823779,-0.068225,-0.562791
0.023345,-0.103570,0.330540,-0.236854,0.961355,0.140348
0.072792,-0.339227,0.806572,0.835030,0.532188,-0.139644
-0.090843,-0.102947,-0.147061,0.181446,0.980982,-0.068929
0.454272,0.070137,0.394337,-0.381216,0.051677,-0.923041
-0.111962,-0.201818,0.202617,-0.172763,-0.983941,0.044862
-0.353737,-0.100956,0.323048,-0.181455,-0.010099,-0.983347
0.442510,0.708246,0.399136,0.325679,0.542091,0.774643
-0.315230,0.183015,0.620729,-0.697730,-0.694201,-0.176799
-0.109355,-0.106310,-0.312583,-0.153960,-0.915096,-0.372688
-0.097338,-0.198829,0.396046,-0.326713,0.491548,0.807241
-0.771624,-0.232325,0.354513,0.290211,0.578387,0.762395
-0.499066,-0.154685,0.701687,0.559130,0.195628,0.805670
0.011787,0.110918,0.662168,-0.065579,-0.722206,0.688562
-0.335890,-0.186876,-0.552390,-0.048990,-0.645148,0.762485
-0.364936,-0.034648,0.273274,0.516047,-0.799198,-0.308186
-0.398327,-0.042243,-0.132663,0.489310,0.184222,0.852430
0.344430,-0.241042,0.836094,0.375364,0.920495,0.108589
0.175270,0.207982,0.970735,0.806123,-0.590991,-0.029923
-0.095241,-0.221928,0.424678,-0.302635,0.876909,0.373421
0.262100,0.228590,0.383520,-0.766428,0.515036,0.383831
0.360334,-0.010303,0.734276,0.556961,0.458318,0.692632
0.074276,-0.357283,0.762558,-0.616688,-0.758916,-0.209150
0.063281,-0.053139,-0.159142,-0.152821,-0.911753,0.381251
0.032037,-0.380443,0.453007,0.915614,-0.060684,-0.397452
0.428448,0.061171,0.403140,-0.431892,-0.280512,-0.857194
0.294879,0.845281,0.208681,0.968534,0.248818,-0.005524
-0.677175,-0.505587,0.194587,0.134296,0.075694,-0.988046
-0.047583,-0.112037,-0.320215,-0.261816,-0.810783,0.523530
-0.720180,0.065841,0.232257,-0.316856,-0.916646,-0.243642
-0.672777,-0.200385,0.209852,-0.417541,-0.883400,0.212754
0.264913,-0.377891,0.697192,0.911859,0.170231,-0.373542
-0.558793,-0.550041,0.740340,-0.301565,-0.575627,-0.760074
-0.264759,0.107867,-0.610896,0.660011,0.682707,0.313524
-0.618930,-0.625438,0.751694,-0.023059,-0.586452,0.809656
0.455550,0.775799,0.401337,0.234107,-0.457390,-0.857898
-0.174504,-0.076301,-0.533215,-0.016412,-0.983042,0.182647
-0.148066,0.046043,0.005045,0.715873,0.560168,0.416819
-0.322646,-0.311521,0.348286,0.041363,-0.070577,-0.996648
0.518038,-0.070137,0.444953,-0.434960,0.586962,0.682851
-0.134361,-0.126856,-0.211514,-0.357247,0.920713,0.157039
0.021350,-0.391589,-0.051190,0.965589,0.027931,0.258570
-0.284242,0.195031,0.248762,-0.255611,-0.286555,-0.923336
-0.396947,-0.265760,0.660388,0.633905,0.101831,0.766678
-0.400629,-0.118949,-0.101057,-0.356799,-0.428856,0.829926
0.168725,-0.157425,0.859693,0.955974,-0.216338,0.198270
-0.689448,-0.416057,0.397614,0.057946,0.301460,0.951716
0.020122,-0.122124,0.284301,-0.659646,0.714977,0.231678
-0.509395,-0.015720,0.708781,0.065353,0.831587,0.551536
-0.591010,0.165271,0.226615,-0.474672,-0.492349,-0.729575
0.150571,0.261962,0.423133,0.642931,0.678346,0.355648
-0.761805,-0.319552,0.716015,-0.300084,-0.518223,-0.800871
-0.448850,-0.058805,0.747551,0.668896,-0.731995,-0.129466
-0.174759,-0.090371,-0.448793,0.051549,0.996446,0.066615
-0.302037,-0.293527,0.728493,-0.591344,0.654694,-0.470838
-0.170156,-0.407277,-0.091271,-0.069765,0.188218,-0.979646
-0.090230,-0.116147,-0.040093,0.753119,0.531869,-0.387204
-0.725908,-0.225103,0.352547,-0.112178,0.406695,0.906651
0.074174,-0.379012,0.601203,0.773789,0.315550,0.549254
-0.106235,-0.154685,0.031852,-0.739633,0.629044,0.239261
0.057554,-0.061918,0.859880,0.841665,-0.237786,-0.484827
0.523868,-0.061980,0.737764,-0.185371,0.466406,0.864929
0.586152,0.177847,0.700891,0.716373,-0.347463,-0.605045
0.300402,-0.113656,0.721891,-0.077947,0.039457,0.996176
0.136457,0.100458,0.705995,0.004758,-0.215430,0.976508
-0.058679,-0.140055,0.092512,0.551812,0.410300,-0.726056
-0.039401,0.043178,0.689911,-0.404643,-0.870598,-0.279862
-0.058730,0.273605,0.678884,0.140038,-0.464175,0.874603
-0.186418,-0.243034,-0.060297,0.912045,0.408078,0.040579
-0.749124,-0.666719,0.706556,-0.436777,0.346432,-0.830187
-0.201759,0.028920,0.608555,0.802790,0.593689,-0.055332
-0.128838,-0.202939,0.116439,0.127667,-0.898231,-0.420573
0.035668,-0.107182,0.304669,0.402537,-0.912744,-0.069729
-0.669812,-0.081281,-0.111663,0.008244,-0.838319,0.545118
-0.248089,0.214271,0.248224,0.133689,0.009460,0.990978
-0.113498,-0.231953,0.552647,-0.696729,0.451487,-0.557430
-0.099486,0.200325,0.254849,-0.051102,0.680040,0.731392
-0.491344,-0.095413,0.298278,-0.394200,0.688677,0.608548
-0.187593,-0.164836,-0.171129,0.750757,-0.631031,0.195357
0.461021,0.586216,0.411451,-0.696669,0.466048,0.545391
-0.815244,-0.148896,-0.126599,0.005427,-0.807550,0.589774
-0.728464,0.052207,0.247662,0.387015,0.324448,0.863107
-0.548260,-0.575817,0.757173,0.424984,0.418545,0.802626
-0.683465,-0.117142,0.260796,0.732042,0.600645,-0.321466
-0.491140,-0.257978,-0.130205,-0.576318,0.553648,0.601108
0.126997,0.272359,0.302141,0.409079,-0.349593,0.842876
0.001202,-0.400492,-0.084575,0.802210,0.586427,-0.112082
-0.144538,0.069390,-0.991033,-0.106013,0.107090,0.988581
-0.606504,0.014476,-0.116204,-0.014356,-0.388670,0.921265
-0.154254,0.114279,-0.992321,0.033076,-0.037470,0.998750
-0.426299,-0.417800,0.208822,0.458642,0.054258,-0.886963
0.180384,0.468854,0.373781,-0.581793,-0.195800,0.789417
-0.270946,-0.204060,0.220340,0.245035,-0.967703,-0.059231
-0.252691,0.088380,0.625341,-0.246261,-0.603832,-0.758117
0.120708,-0.133207,0.716179,0.635200,0.743246,0.210014
-0.122855,0.047536,-0.904456,0.935228,-0.338391,-0.104117
0.429879,-0.012421,0.722711,-0.003970,0.410817,0.911709
-0.002019,0.248327,0.661395,-0.173716,0.195683,-0.965158
0.077037,-0.426517,0.781357,0.830443,-0.064881,-0.553312
-0.304032,-0.334185,0.741744,0.948830,0.185600,-0.255489
-0.128634,-0.013168,-0.987030,-0.233717,-0.760332,0.606030
-0.288384,-0.473399,0.428214,-0.391203,-0.101980,0.914637
0.001406,-0.148212,0.689630,0.171207,-0.816249,0.551748
0.018026,-0.147091,0.263558,0.857998,-0.511320,-0.048892
0.672521,-0.053202,0.459421,-0.043403,-0.200946,0.978640
-0.473907,-0.245338,-0.135074,0.405285,-0.482818,-0.776293
-0.027742,0.489027,0.320870,0.886511,-0.248598,-0.390252
0.235561,0.183390,0.388015,-0.569646,0.548032,0.612506
-0.804250,0.059241,0.257144,-0.383670,0.091278,-0.918948
0.006316,-0.093608,-0.770002,0.187486,0.283792,0.940378
0.084606,-0.230769,0.889309,0.409098,0.457909,-0.789277
0.471146,0.801014,0.397638,-0.131005,-0.340672,0.931010
-0.593516,0.021823,0.214487,0.513322,0.147036,0.845506
-0.159009,-0.249634,0.324897,0.276221,-0.819178,-0.502643
-0.076372,0.198269,0.664087,-0.156905,-0.420733,0.893512
-0.383907,-0.165706,0.740457,0.427611,0.011385,0.903891
-0.013577,-0.290976,-0.376567,-0.200701,0.969126,-0.143225
-0.728874,-0.272671,0.682442,0.495184,0.758147,-0.424271
-0.831044,-0.120194,-0.122736,0.386641,0.537879,-0.749130
0.263737,0.737572,0.336697,-0.604287,0.355490,0.713067
-0.516555,-0.293653,0.674155,-0.650556,0.104238,-0.752271
-0.461890,-0.114465,0.307034,-0.480653,0.054640,0.875207
0.138350,-0.220932,0.769324,0.989443,0.144086,0.015529
-0.148526,-0.300749,0.692463,0.806334,-0.051238,-0.589237
0.064152,-0.056003,0.709296,0.243343,0.509440,-0.825382
0.232544,-0.483921,0.450970,0.977507,0.101325,0.184968
-0.664851,-0.568844,-0.124001,0.665218,-0.147927,0.731849
-0.287668,-0.531799,0.726948,0.821610,-0.567792,-0.050687
-0.070389,0.063786,0.625762,-0.546560,0.120593,0.828691
-0.096827,0.143542,0.006825,-0.006849,-0.357634,0.933837
-0.011019,0.042866,0.662964,-0.646530,0.476931,0.595429
0.242310,0.113346,0.889684,0.721300,0.404106,-0.562517
-0.197770,-0.064409,-0.519192,-0.326465,-0.931388,0.161051
-0.131190,0.077857,-0.350557,0.980158,-0.147789,0.132096
-0.150571,-0.004016,-0.723319,-0.662845,0.282161,0.693558
-0.338651,0.106124,0.279783,-0.454965,0.473236,0.754357
0.667510,0.014289,0.460054,-0.225562,0.210834,0.951142
0.298203,-0.057996,0.733316,-0.297290,-0.902359,-0.312037
-0.107208,0.027115,0.732263,-0.310449,0.432754,0.846372
0.208560,-0.148896,0.743009,0.147072,0.417729,0.896589
0.148987,-0.641752,0.428097,0.534176,-0.032183,-0.844761
-0.644141,-0.236995,0.309937,-0.376901,-0.741435,-0.555175
-0.743448,-0.384490,0.386939,-0.036298,0.396203,0.917445
0.459436,-0.097158,0.730226,-0.144508,0.363546,0.920300
0.457953,-0.064595,0.919159,-0.269985,0.792288,0.547164
-0.495180,-0.442331,0.758156,0.357512,-0.540994,0.761256
-0.544475,-0.375898,-0.137533,-0.382279,0.340429,-0.859052
-0.518754,-0.356909,0.351704,0.090852,0.708840,0.699494
0.499630,-0.038819,0.719737,-0.095691,0.831178,0.547710
-0.727545,-0.273543,0.355403,0.325105,0.708174,0.626735
-0.098769,-0.209600,0.307245,-0.250362,0.921174,0.297921
0.219913,0.133954,0.469020,0.221796,-0.895291,-0.386343
0.213725,0.015222,0.892072,0.133397,-0.243210,0.960757
-0.396640,-0.101454,0.324968,-0.215316,0.439214,0.872198
0.224566,-0.493260,0.452538,0.860291,-0.073338,-0.504500
0.708829,-0.177847,0.445702,-0.360490,-0.677292,0.641344
-0.022781,-0.002334,-0.034778,0.173360,-0.790832,0.586967
0.412645,0.722753,0.388039,-0.330800,-0.406710,0.851562
-0.702641,0.009682,0.237852,-0.396211,-0.446196,-0.802450
-0.283322,-0.361080,0.736547,0.871058,0.007711,-0.491120
0.535118,-0.048657,0.741300,-0.415887,0.659567,0.626107
-0.558333,-0.146654,0.706978,0.163636,-0.584775,0.794520
0.245378,0.016967,0.569340,0.339924,0.640709,0.688435
0.152720,0.089438,0.623117,0.890074,-0.427208,-0.158938
-0.308685,-0.338541,-0.091599,0.573231,0.312948,-0.757278
-0.519931,-0.092239,0.219614,0.591086,0.806569,0.008031
0.371379,0.708807,0.341637,0.650934,0.724705,-0.226026
0.371890,0.599041,0.389959,-0.551775,0.190606,0.811920
-0.486742,-0.498303,0.199363,-0.151003,0.255109,-0.955048
-0.485925,-0.243532,-0.132944,-0.603041,0.575485,0.552411
-0.803329,-0.095539,-0.116649,-0.153666,-0.480136,0.863630
-0.086906,0.000031,-0.991057,-0.024243,-0.265385,0.963838
-0.024315,0.389658,0.344868,0.738910,-0.101484,-0.666118
0.415304,-0.082963,0.734932,0.099022,0.614484,0.782690
-0.640715,-0.511751,0.769722,-0.025761,0.142558,0.989451
-0.703203,-0.266693,0.164128,-0.262335,0.006665,0.964954
0.073917,-0.077171,0.643345,-0.116530,0.198819,0.973084
-0.750402,-0.124364,-0.121776,-0.128508,-0.750268,0.648524
0.327861,0.428322,0.391434,-0.415801,0.258953,0.871810
0.506123,0.148149,0.391972,0.179854,0.193239,0.964527
-0.009231,-0.368116,-0.083241,0.959838,0.219569,-0.174645
0.566005,0.193351,0.701078,-0.080509,0.408093,0.909383
-0.109815,0.052267,-0.980194,-0.377915,-0.585397,-0.717280
-0.096315,-0.238551,0.155396,0.816574,-0.551250,-0.171261
0.250440,-0.210473,0.714704,0.972859,0.164241,-0.163002
-0.090129,-0.089747,-0.101900,0.794516,-0.594965,-0.121497
-0.721101,-0.386172,0.691971,0.944531,-0.326419,0.036229
-0.554140,-0.484792,0.721329,-0.278560,0.960218,0.019640
-0.007798,0.345142,0.040982,-0.334198,0.361957,0.870229
0.018536,-0.309653,-0.348520,-0.222386,0.939860,0.259246
0.499630,-0.657006,0.897854,0.289700,-0.339165,0.895009
-0.536039,-0.562182,-0.164082,0.245522,-0.274711,0.929652
-0.075350,0.015348,-0.774615,0.496653,0.140127,-0.856563
0.304391,0.770009,0.203952,0.850298,0.524629,0.041930
-0.357623,-0.244031,-0.591370,0.995268,0.064161,0.072970
-0.582828,-0.435856,0.742259,-0.273179,-0.291210,-0.916826
-0.557618,-0.517106,0.197888,0.000855,-0.240707,0.970597
0.389482,0.665349,0.348145,0.946376,0.157372,-0.282147
0.157679,0.296765,0.374811,0.274232,0.382747,0.882214
0.218430,0.719080,0.356667,0.630359,0.757174,-0.171278
-0.066809,0.190611,0.255130,-0.146920,0.366378,0.918794
-0.158753,-0.054509,-0.300760,-0.130003,-0.939365,0.317321
-0.100611,-0.083958,-0.222798,0.391238,-0.870760,-0.297843
-0.795300,-0.070696,-0.116204,-0.036047,-0.705787,0.707507
0.161515,-0.208605,0.809100,0.866738,-0.143462,-0.477686
0.018997,-0.111788,0.340630,0.928853,-0.267039,-0.256754
0.261026,0.867136,0.181477,0.690180,0.670077,0.273219
-0.163099,-0.400616,-0.091201,-0.069765,0.188218,-0.979646
-0.605788,-0.380319,0.355965,-0.088927,0.642400,0.761192
-0.062771,-0.183576,0.736289,-0.674845,-0.321244,-0.664369
-0.064457,-0.379634,-0.743383,-0.507518,0.665942,-0.546760
-0.221804,-0.224979,-0.076381,-0.707759,0.091849,0.700457
-0.361151,-0.235625,-0.606377,-0.376705,0.910562,-0.170207
0.038377,-0.410889,0.418825,0.410466,0.911500,0.026193
-0.390197,-0.128723,0.755230,0.812689,0.581433,0.038374
-0.113498,-0.041061,-0.309937,0.738454,0.629321,0.242160
-0.681880,-0.213024,0.177239,0.110941,-0.516759,0.848912
-0.017258,-0.399495,-0.598417,0.932525,-0.312953,-0.180159
0.731584,0.083149,0.468833,-0.170099,-0.299046,0.938956
-0.077293,-0.087694,-0.200066,0.872628,-0.448037,-0.194380
-0.152259,-0.003704,0.620307,0.657804,0.746098,-0.103108
-0.732248,-0.425396,0.642455,0.939172,0.098279,-0.329086
0.382475,-0.022258,0.420628,0.272345,0.149362,-0.950536
-0.256219,0.122436,-0.635455,0.204578,0.401438,0.892746
0.296566,-0.036639,0.888700,0.866725,0.486162,0.111508
-0.130474,-0.088566,-0.280345,0.506778,0.851211,-0.136442
-0.303214,0.161037,0.621244,0.668824,0.620094,0.410070
-0.137582,0.049030,0.423531,-0.662268,0.728098,0.176846
0.235152,0.184199,0.429501,0.594535,0.766930,-0.241550
-0.606709,-0.374217,-0.118194,-0.575329,0.190752,-0.795368
0.232389,0.602342,0.337095,-0.516922,0.556878,0.650137
-0.050600,-0.347073,-0.576504,0.883913,-0.463304,-0.063619
-0.147862,-0.215078,-0.029183,0.995737,-0.091524,0.011465
-0.308481,-0.193537,0.222143,0.131366,0.277610,0.951670
-0.575054,-0.120008,0.298231,0.333210,0.438319,0.834774
-0.157884,0.061048,-0.989535,0.101507,-0.017353,0.994683
-0.305260,-0.134140,-0.097264,-0.623771,-0.623988,0.470690
-0.113191,-0.117142,-0.275873,-0.265855,0.942970,0.200323
-0.109099,-0.163466,0.446451,-0.800278,0.597718,0.047841
-0.436475,-0.058556,0.323516,-0.241388,0.677190,0.695087
0.193680,0.529122,0.340021,0.875280,-0.476805,0.080885
-0.256066,-0.264763,0.785712,0.045810,-0.821848,0.567862
-0.023906,-0.101952,0.232116,0.986025,0.003022,-0.166570
0.207998,-0.606075,0.453849,0.620491,-0.130925,-0.773207
-0.755260,-0.198829,0.343041,0.285232,0.754694,0.590830
-0.143361,0.388974,0.016072,0.477819,-0.201791,-0.854968
-0.579708,-0.321171,0.217859,-0.117163,0.295269,0.948203
0.234435,-0.034834,0.884275,0.811874,0.206916,0.545936
-0.145969,-0.025121,0.607805,0.578735,0.789829,-0.203066
0.302958,0.760173,0.363269,0.134011,0.987072,-0.087919
-0.579811,-0.206986,0.189039,0.409785,0.399294,-0.820147
0.114111,0.013294,0.399277,-0.733068,0.606914,-0.307028
0.144333,-0.161661,0.716249,-0.205805,-0.148681,-0.967232
-0.147451,-0.034337,-0.788217,0.669815,0.669203,0.321737
-0.729641,-0.083709,0.278776,-0.589678,-0.735822,-0.332935
-0.513283,-0.018771,0.286619,0.003055,0.565779,0.824551
-0.683567,-0.632600,-0.147623,-0.371519,0.388281,-0.843334
-0.856101,0.164587,0.257518,0.161605,0.193952,0.967609
0.372197,0.326526,0.414799,0.643710,-0.319212,-0.695515
-0.136151,0.226598,0.634963,0.806965,0.014046,-0.590433
-0.191737,-0.247330,-0.066923,-0.563970,-0.100626,0.819642
0.337016,-0.056315,0.886523,0.222019,0.750770,0.622135
-0.104139,-0.065467,-0.314011,0.965737,0.086129,0.244816
0.375368,0.640818,0.358283,0.873533,0.078464,-0.480400
-0.760476,-0.058805,0.285706,-0.165164,-0.867383,-0.469432
-0.003656,-0.123494,0.222564,0.831009,0.412198,-0.373519
-0.552556,-0.307848,0.783417,-0.615796,-0.074064,-0.784417
-0.670578,-0.323039,0.688225,0.935216,-0.337913,-0.105764
-0.470686,-0.097095,0.755838,-0.448184,0.142531,0.882506
0.044412,-0.229336,0.719363,0.272992,0.722817,0.634832
0.186367,-0.498365,0.659148,-0.596977,0.366180,0.713814
-0.313031,0.160105,0.637234,0.816272,0.196215,0.543323
-0.337782,-0.144786,0.282101,0.643850,0.692867,0.324641
-0.645113,-0.627306,0.719995,-0.644439,-0.558270,0.522526
-0.670374,-0.356846,0.697613,-0.697660,0.493810,0.519059
-0.259134,-0.036888,0.649923,0.260786,0.380021,0.887454
-0.630436,-0.309778,0.695483,-0.511827,-0.484160,0.709663
-0.189282,-0.213585,0.735166,-0.653323,0.677498,-0.337884
0.128787,0.358279,0.347256,0.357159,-0.314991,-0.879328
0.610799,-0.074371,0.466000,-0.101127,-0.012435,0.994796
0.020531,-0.145160,0.411474,0.219947,-0.844134,-0.488938
-0.129247,0.001215,-0.985344,-0.536035,-0.649034,0.539835
-0.462964,-0.194719,0.217859,-0.703452,0.391919,0.592921
0.833652,-0.234630,0.432053,-0.423775,-0.873579,-0.239323
0.542431,0.167138,0.660412,0.114619,0.287833,0.950797
0.021451,0.181957,0.661301,-0.162655,-0.540457,0.825499
0.343305,0.002834,0.727370,0.457197,-0.522933,-0.719383
-0.559305,-0.484917,0.710700,0.086389,0.736028,0.671416
0.295594,-0.105999,0.409508,-0.294613,0.809689,-0.507551
-0.357266,-0.316252,0.625318,0.468258,-0.366074,0.804192
0.586561,0.281886,0.386260,-0.306085,-0.033184,-0.951426
-0.181662,-0.068891,0.547661,0.953467,0.273640,-0.126580
0.309402,0.525137,0.376239,-0.267086,0.383474,0.884088
0.020735,0.197708,0.435214,0.659195,0.082368,0.747447
0.257089,-0.015908,0.893055,0.730768,0.118455,-0.672270
-0.256271,-0.322541,-0.062451,0.448180,0.748731,0.488402
0.113804,0.303366,0.347747,0.473200,0.797529,0.374205
-0.604867,-0.329640,0.351189,-0.184375,0.221421,0.957590
0.563601,-0.017962,0.737015,0.558624,0.808030,0.187153
-0.021400,0.482677,0.292519,0.750428,0.475948,-0.458619
-0.399657,-0.307911,0.354326,0.355370,0.254694,-0.899357
-0.150827,-0.021760,-0.732356,0.951254,-0.307525,-0.023343
-0.264145,0.090931,-0.628033,-0.087882,0.069062,0.993734
-0.130168,-0.205740,0.696747,-0.326634,0.928740,-0.175366
-0.608090,-0.000031,-0.123041,0.018524,-0.346529,0.937856
-0.069264,-0.151138,0.045079,0.814790,0.549517,0.184794
-0.411214,-0.243843,0.749213,0.312510,0.036388,0.949217
-0.309197,-0.437038,0.425545,-0.488299,0.402935,0.774085
0.369129,0.486973,0.398715,-0.402163,0.287934,0.869114
0.624351,-0.404974,0.872265,-0.139018,0.506790,0.850787
0.234332,-0.149270,0.406277,-0.394452,0.891740,0.221828
-0.003861,-0.317498,-0.389959,0.895820,0.009121,-0.444323
-0.676049,0.357967,0.198286,0.713586,0.294027,0.635879
0.085372,-0.197273,0.517693,0.524976,0.843432,0.114118
0.060417,-0.159916,0.580297,0.846541,0.499517,0.183987
0.176498,-0.323974,0.588397,0.926236,0.042233,-0.374570
-0.223799,-0.176291,-0.138399,-0.522389,-0.154762,-0.838545
-0.183708,-0.081095,-0.342807,0.301063,0.919985,0.250975
0.625476,-0.408896,0.871352,-0.139018,0.506790,0.850787
-0.244713,-0.283379,0.597668,0.545215,-0.239423,0.803379
-0.205440,-0.198269,0.132593,-0.105358,0.727918,0.677522
0.125975,-0.250070,0.753380,0.796420,-0.604544,0.015539
-0.561709,-0.188993,0.311061,0.270408,0.596599,0.755612
-0.178338,-0.358279,-0.092933,0.457553,-0.008825,0.889139
-0.338498,-0.300314,-0.106957,-0.664753,-0.224697,0.712471
-0.106491,-0.173988,-0.760099,0.175948,-0.086273,0.980612
0.045230,-0.393519,0.870392,0.940058,0.168273,-0.296605
-0.314974,-0.074122,-0.289265,0.117025,-0.217799,0.968952
0.099384,-0.066276,0.848011,0.648440,0.319082,-0.691168
0.022424,-0.387853,0.666312,0.901729,0.171491,0.396833
0.060213,-0.066339,0.702717,-0.279927,-0.460851,0.842174
-0.181560,0.009184,-0.625177,-0.701028,0.707880,-0.086408
0.016952,-0.180462,0.666522,-0.151919,-0.902894,0.402123
-0.313083,-0.327149,0.613822,-0.422467,-0.479129,-0.769387
0.069214,-0.070323,0.378065,-0.806215,0.520364,-0.281492
0.062667,-0.324720,0.372798,0.666689,0.671842,0.322729
0.406100,-0.055131,0.891744,-0.635232,0.488202,0.598447
-0.568817,-0.023565,0.277395,0.350661,-0.144861,-0.925231
-0.196849,-0.088938,0.014995,-0.563801,-0.233197,0.792306
0.215668,-0.611492,0.458064,0.741578,-0.174790,-0.647696
0.079287,-0.416990,0.819425,0.994169,-0.060797,-0.089056
-0.462043,-0.074619,-0.114191,-0.252004,-0.127100,0.959343
0.424100,0.066339,0.904433,0.429426,0.248041,-0.868372
0.468334,0.685024,0.395156,-0.244226,0.356385,0.901856
0.137993,-0.202814,0.719690,0.909636,-0.357891,-0.210894
-0.459436,-0.334059,0.345242,-0.137136,0.611686,0.779124
-0.081435,0.100831,0.626886,-0.532181,-0.339390,0.775627
-0.068855,0.024002,-0.616632,-0.143835,-0.972333,0.184063
-0.568305,-0.254179,0.697075,0.092198,-0.275263,0.956938
-0.800721,-0.337297,0.154904,-0.502003,0.218686,0.836761
0.067680,-0.356474,0.492736,0.854830,-0.184142,-0.485136
-0.507095,-0.109797,0.745959,0.929393,-0.176165,-0.324338
-0.202219,0.038135,-0.997870,-0.361019,-0.180658,0.914892
-0.038121,-0.374030,-0.451063,0.947713,-0.147834,0.282816
-0.695430,-0.344954,0.378393,-0.404351,0.302551,-0.863113
0.023446,-0.158423,0.703583,0.256542,0.820500,0.510849
-0.136151,-0.148773,0.548808,0.872380,0.325051,-0.365097
-0.276725,0.119945,-0.640371,0.329383,0.296378,0.896475
-0.581907,-0.246397,-0.140506,-0.161465,-0.353947,0.921222
-0.659584,-0.188556,-0.134817,0.129934,-0.476933,0.869282
-0.202322,-0.051146,-0.618107,-0.591971,0.774838,0.221804
-0.155429,-0.029417,-0.394688,-0.686329,0.682390,0.251590
-0.479124,-0.079788,0.692392,0.602844,-0.252910,0.756713
0.615248,-0.101516,0.454294,-0.101531,-0.164635,0.981115
-0.151287,-0.070137,-0.437953,0.635518,-0.640832,0.430640
0.488584,-0.240980,0.826050,0.490556,-0.334062,-0.804834
-0.003145,-0.394577,0.188360,0.997235,-0.072175,0.017707
0.196492,-0.584597,0.437344,-0.412335,0.004293,0.911022
-0.084503,0.216636,0.453990,-0.473110,-0.055769,0.879236
0.216640,-0.767455,0.456214,0.691287,0.438436,-0.574366
-0.474266,-0.372786,0.733784,0.447632,0.859064,-0.248262
0.428192,-0.011673,0.911972,0.234002,-0.389845,-0.890654
-0.385850,-0.227906,0.737203,-0.261456,0.088810,-0.961121
0.188361,-0.664912,0.442027,0.769192,-0.192210,-0.609425
-0.545549,-0.430999,0.714306,0.632906,0.130457,0.763159
-0.157679,-0.146033,-0.035410,0.143142,-0.717095,0.682118
-0.296975,0.166952,0.610896,-0.548776,-0.732919,-0.402088
-0.459334,-0.268249,-0.133131,-0.095080,-0.182322,0.978631
0.296413,0.749587,0.342526,-0.317314,0.934157,-0.163285
0.568869,0.694612,0.401173,0.870515,0.412845,-0.267886
0.151031,-0.203997,0.765297,0.949986,-0.310687,-0.031628
-0.542276,-0.206986,0.300713,0.199319,0.555810,0.807061
-0.007542,-0.398374,-0.399464,0.869397,-0.431196,-0.241287
0.012503,-0.193226,0.654442,-0.688980,0.059118,0.722366
-0.202527,0.056128,0.617638,0.499348,0.147706,0.853718
0.280049,-0.133393,0.742096,0.315667,0.943233,-0.103271
-0.095600,-0.202502,0.399394,-0.330992,0.530261,0.780556
0.165145,0.307662,0.369099,-0.114900,0.134051,0.984291
0.182634,-0.680603,0.451696,0.808234,-0.134894,-0.573202
-0.473857,-0.718208,0.763096,0.303000,-0.057622,0.951247
-0.315282,-0.034586,-0.098318,0.627927,-0.086628,0.773436
0.196236,0.977087,0.174406,0.827720,0.560483,-0.027192
-0.018026,-0.161784,0.287579,0.589810,-0.797078,-0.129581
0.375777,-0.032532,0.729102,-0.309524,0.091886,0.946442
0.113548,0.193537,0.281539,0.424018,0.129815,-0.896302
-0.275600,-0.005821,-0.281609,-0.013711,-0.309814,0.950698
-0.131906,-0.200448,0.718216,-0.004150,0.967882,0.251370
-0.167600,-0.206425,0.734065,-0.225567,0.944624,-0.238338
0.153589,-0.237742,0.732029,-0.757028,0.122715,0.641755
-0.041037,-0.157302,0.119763,-0.451866,0.093034,0.887221
-0.025645,-0.395138,-0.613331,0.912471,-0.400590,-0.083209
-0.053616,0.022881,0.472556,0.082854,0.922712,0.376481
-0.285828,-0.045606,-0.752795,-0.153151,0.977270,-0.146588
-0.763953,-0.525449,0.392674,-0.167476,-0.097448,0.981048
0.179106,-0.174486,0.410912,-0.465813,0.629959,0.621426
-0.034134,-0.115586,0.485198,0.705458,-0.203168,0.679007
0.338804,-0.080097,0.725543,0.260965,0.419267,0.869547
-0.183350,0.014662,0.614314,0.686956,0.722894,-0.074274
-0.008872,-0.115337,0.252180,-0.715561,0.691413,-0.099607
-0.158957,-0.282072,0.576012,-0.686186,0.332516,-0.646979
-0.184833,-0.094044,-0.496295,-0.055483,0.922745,-0.381396
0.245378,0.694861,0.351727,0.486716,0.774533,-0.403987
-0.436322,-0.351243,-0.547848,-0.698059,-0.253841,0.669536
-0.639282,-0.428883,0.713416,0.336951,-0.778720,-0.529206
-0.092992,-0.023877,-0.792080,0.607669,0.061966,-0.791769
-0.635550,-0.413380,0.199808,-0.165902,-0.056963,0.984496
-0.092377,0.085328,-0.986819,-0.120620,0.032968,0.992151
0.607527,-0.057498,0.470050,-0.060953,0.018168,0.997975
-0.556237,-0.109609,0.703138,-0.286240,0.746453,-0.600729
-0.025593,0.192230,0.675653,-0.028127,-0.063143,0.997608
-0.200786,-0.256794,0.748908,0.914682,-0.033711,0.402765
-0.115286,-0.168634,-0.564306,0.103015,-0.464149,0.879746
-0.687299,-0.146593,-0.126435,0.205085,-0.070656,0.976190
-0.074531,0.027612,-0.111194,0.836021,0.291818,-0.464663
0.045281,-0.046913,0.489108,0.911772,0.109232,-0.395904
-0.668840,-0.443389,0.200791,-0.216077,0.034939,0.975751
-0.091151,0.216139,0.458134,-0.480745,-0.068027,0.874217
-0.559407,-0.501976,-0.153593,-0.802862,0.327762,-0.497980
-0.151339,0.041808,-0.506877,0.761578,-0.556098,0.332797
0.113958,-0.344768,0.730554,-0.786047,0.444546,-0.429544
-0.046151,-0.213834,0.472298,-0.142511,-0.988128,-0.057390
0.369333,0.063786,0.722313,-0.054224,0.174623,0.983141
-0.241645,0.052828,0.637258,0.696531,0.470993,0.541305
0.665516,-0.046104,0.462465,0.095898,-0.197898,0.975520
0.385646,-0.239424,0.829211,0.167617,0.597199,0.784384
-0.001610,-0.085016,0.237805,0.950490,-0.240774,-0.196462
-0.524789,-0.278585,0.215728,0.766552,-0.332463,-0.549423
0.341874,0.765713,0.208822,0.838149,0.544465,0.032609
-0.013269,-0.033962,-0.012233,0.667331,-0.160081,0.727354
-0.646851,-0.289606,0.706603,-0.211573,-0.338695,-0.916800
0.077855,-0.382748,0.756377,0.898099,0.308894,0.313052
-0.123163,0.053514,-0.569270,-0.586452,0.495609,0.640661
-0.054128,-0.117766,0.110492,0.852937,-0.467916,-0.231414
-0.440668,-0.108613,-0.120419,-0.204423,-0.267480,0.941629
0.394902,-0.177226,0.817809,-0.612460,0.785227,0.091172
-0.413925,-0.600972,0.749143,0.063874,0.943992,0.323726
-0.574084,-0.165084,0.306964,0.220167,0.559217,0.799252
0.310731,0.464870,0.387454,-0.010478,0.834941,0.550240
-0.009384,-0.163714,0.558430,0.171105,0.942903,-0.285758
-0.709748,-0.662360,0.693820,-0.414747,0.332401,-0.847051
0.257702,0.228590,0.445117,0.265625,0.652874,0.709365
-0.817647,-0.125734,-0.144767,0.350775,0.747141,-0.564568
-0.285520,-0.505774,0.428190,-0.338900,-0.162851,0.926621
0.301117,-0.024500,0.719527,-0.024998,0.263573,0.964315
-0.488941,-0.180401,0.696419,0.980009,0.167914,-0.106710
0.373628,-0.271612,0.802615,0.147132,0.931850,0.331675
-0.064866,-0.188930,0.149707,0.508735,-0.860686,-0.020218
-0.343817,0.224356,0.649642,0.992712,-0.084252,0.086170
0.174861,-0.276904,0.607337,0.770044,0.581692,-0.262042
-0.274679,-0.369672,-0.125546,0.499102,0.864555,-0.058674
-0.744062,-0.263953,0.346998,0.371254,0.797615,0.475374
0.083429,-0.414251,0.492081,0.952690,0.123441,-0.277747
0.565084,0.091741,0.880249,-0.509212,0.185680,-0.840373
-0.296463,-0.162096,-0.119271,0.400297,-0.624449,-0.670690
0.214594,-0.166205,0.845857,0.959280,0.090320,-0.267626
-0.356958,0.226101,0.644656,0.940945,-0.127117,0.313791
0.121220,-0.218255,0.846793,-0.399991,0.915890,-0.033934
0.386208,-0.078292,0.899236,-0.514440,0.544453,0.662512
0.556134,0.666158,0.378674,0.836902,0.475941,-0.270324
0.033725,-0.407900,0.398855,0.825521,0.392762,0.405282
-0.549385,-0.076550,0.283131,0.582200,-0.595959,-0.553061
-0.626447,-0.433988,0.722594,0.010095,0.715734,0.698300
-0.559357,-0.287924,-0.136362,-0.080308,0.014384,0.996666
-0.447828,-0.107680,0.318693,0.614144,-0.114303,-0.780873
-0.799493,-0.362015,0.729360,-0.446673,-0.381961,-0.809067
0.216589,0.738381,0.325014,-0.718257,-0.691320,0.078630
-0.721153,-0.431684,0.761832,0.672710,0.638247,0.374302
-0.537367,0.052144,0.203203,-0.322685,-0.197277,-0.925720
-0.027332,0.353920,0.256277,0.760461,0.283631,-0.584168
-0.482958,-0.203560,-0.107261,0.229684,0.972939,0.025195
0.481578,-0.042431,0.918738,-0.559857,0.395148,0.728298
-0.076321,-0.182206,0.092582,0.285290,0.948903,0.134881
-0.111298,-0.260715,0.411217,-0.319759,0.890959,0.322407
0.498812,-0.117205,0.746637,-0.339686,0.513044,-0.788289
-0.325919,0.057373,-0.279478,0.109059,-0.007829,0.994004
-0.012964,-0.175979,0.674529,0.250804,-0.897630,0.362434
-0.515787,-0.337171,0.722453,0.840016,0.537225,-0.075915
-0.569021,-0.160600,0.671369,-0.428304,0.120620,-0.895548
-0.552556,-0.207856,-0.133201,0.269312,-0.175812,0.946869
-0.663521,-0.654764,-0.152703,0.292229,-0.455195,0.841070
-0.208867,-0.351866,0.681646,-0.371767,-0.157668,-0.914839
-0.279742,0.198394,0.605698,-0.420458,-0.907272,-0.008537
-0.257241,-0.126234,-0.558851,-0.508905,0.850550,0.132588
-0.426811,-0.175979,-0.127606,0.076489,-0.545727,0.834465
0.269821,0.687015,0.364510,-0.339927,-0.130509,0.931352
-0.037663,0.124864,0.649502,-0.394074,-0.582505,0.710910
-0.174861,-0.031285,-0.706088,0.937364,-0.311185,0.156565
0.196696,0.220621,0.378885,-0.225982,0.222115,0.948471
0.031781,0.099212,0.471362,-0.293533,0.567485,0.769284
0.071975,-0.150266,0.501539,0.760008,0.636502,0.131352
-0.154867,-0.008810,-0.944982,0.980605,0.164065,0.107226
0.204265,0.571833,0.316867,0.891564,-0.354807,0.281471
-0.051673,-0.189553,0.160804,-0.510659,0.859289,-0.029160
0.187800,0.141302,0.375537,0.534575,-0.362979,-0.763201
-0.017002,-0.154874,0.731537,0.122264,0.580034,0.805364
-0.479124,-0.054633,0.692556,0.539201,-0.024517,0.841820
-0.063128,-0.180524,0.092816,-0.750073,0.461043,0.474162
-0.581089,-0.093920,0.267234,0.821701,-0.466884,-0.326842
0.006725,0.068581,-0.081204,-0.344106,0.545212,0.764418
-0.438469,-0.025868,0.724443,0.789394,0.613577,0.019509
0.085066,0.525014,0.365049,-0.091176,-0.372099,0.923704
0.083634,-0.149643,0.297295,-0.043301,0.987241,-0.153230
0.259696,0.598916,0.341613,-0.555138,0.399297,0.729647
0.184629,-0.096783,0.285589,0.179337,-0.980383,0.081780
-0.139833,-0.203997,0.073384,-0.500030,0.764042,-0.407687
0.052646,-0.436789,0.391059,-0.366849,0.927721,-0.068964
-0.051878,0.006381,-0.991923,-0.263943,-0.026244,0.964181
0.320753,0.407217,0.402624,-0.145850,-0.141148,0.979186
-0.169491,0.006132,-0.416274,0.534826,-0.839952,-0.091881
-0.318094,0.221679,0.624358,0.229635,-0.827815,0.511850
0.678300,0.050213,0.456448,0.135226,-0.104641,-0.985274
-0.561351,-0.528749,0.203203,-0.052422,-0.260429,0.964069
0.549589,0.707811,0.386330,0.159420,-0.579751,0.799046
-0.375573,0.004702,-0.279034,0.010550,-0.271336,0.962427
-0.213826,-0.070758,-0.296218,0.047671,-0.598613,0.799619
-0.711897,-0.266879,0.682934,0.344668,0.709614,0.614534
0.166526,-0.272733,0.656408,-0.584049,-0.807185,0.085672
0.122293,-0.545808,0.742681,0.850550,0.012791,-0.525739
-0.458463,-0.069886,0.719901,0.740034,-0.670102,0.057553
-0.067014,-0.195156,0.728681,-0.416395,0.750459,0.513251
-0.274526,0.157800,-0.289428,0.188866,0.098466,0.977054
-0.122702,-0.061108,-0.745397,0.751035,0.405168,0.521330
-0.351435,-0.351243,0.210765,0.595067,-0.181890,-0.782823
0.503209,-0.082028,0.751413,-0.361068,-0.381466,-0.850949
0.069111,-0.428322,0.647676,0.235209,-0.944604,0.228908
-0.051725,-0.153504,0.488335,0.679426,-0.066079,0.730762
-0.460458,-0.266444,-0.126833,0.229384,0.702695,-0.673501
-0.014804,-0.076922,-0.059290,0.244612,-0.925103,0.290429
0.202731,-0.181894,0.744882,-0.269747,-0.900808,0.340268
-0.449975,-0.137689,-0.119178,-0.003307,-0.262877,0.964824
-0.641839,-0.485103,0.753310,-0.247685,-0.797859,-0.549611
-0.822045,0.145970,0.253140,0.223831,-0.163585,0.960802
0.040526,-0.008996,-0.050651,0.986680,0.142035,0.079302
-0.517476,-0.161349,-0.145001,-0.390107,-0.064368,0.918517
0.083787,-0.389347,0.727510,-0.679037,0.651293,-0.338713
-0.113855,-0.084768,-0.338336,0.408280,0.889984,0.203066
-0.437856,-0.062416,0.289007,-0.214152,0.912636,0.348188
0.403084,0.551972,0.400775,0.844781,-0.432387,-0.315257
-0.034849,-0.401363,-0.751624,0.377322,-0.772985,0.510022
0.104139,-0.565794,0.745654,0.855180,0.492946,-0.160222
-0.766919,-0.668959,0.711777,-0.436777,0.346432,-0.830187
-0.821227,-0.158981,-0.183326,-0.423313,-0.858342,0.289922
0.167242,-0.107618,0.290716,0.179337,-0.980383,0.081780
-0.258775,0.086761,0.624826,0.248721,0.598012,0.761918
0.573112,-0.084393,0.752631,-0.283887,0.422897,0.860562
0.329549,-0.078292,0.414143,-0.149734,0.912758,-0.380069
-0.472680,-0.339476,0.344306,0.155875,0.059039,0.986011
0.315589,-0.258475,0.877744,0.425932,-0.892450,0.148711
-0.055970,-0.046850,0.635478,-0.141348,-0.560894,0.815732
-0.564368,-0.076176,0.266274,0.833085,-0.530468,-0.156761
0.211117,-0.358342,0.434441,0.024904,0.278835,0.960016
-0.771420,-0.119136,0.328339,0.901031,0.228893,0.368446
-0.118305,-0.148149,-0.011226,0.893742,-0.100213,-0.437243
-0.066708,-0.184820,0.138914,-0.257570,0.963890,0.067631
-0.322442,0.188930,0.651258,0.831584,0.072198,0.550686
0.042060,-0.387541,-0.108877,0.980887,0.145175,0.129557
0.133032,-0.228776,0.793461,0.922316,-0.373385,-0.099586
0.267878,0.696293,0.365868,0.130145,0.191142,0.972896
0.067168,-0.407652,0.477051,0.086881,-0.994598,-0.056810
-0.123877,-0.128351,0.038618,0.459005,0.883585,0.092696
-0.052441,-0.335678,-0.400681,0.948413,-0.302479,-0.094967
0.270025,0.113595,0.512754,-0.308475,0.448923,0.838637
-0.152361,-0.024375,-0.995364,0.107351,0.088039,-0.990316
-0.050139,-0.299691,0.792361,0.603242,0.230017,-0.763670
-0.137737,-0.091617,-0.449167,-0.279154,-0.960044,0.019718
0.486385,0.251751,0.383263,0.071726,-0.037693,0.996712
0.423435,-0.041247,0.722477,-0.009422,0.146786,0.989123
0.070185,-0.362947,0.879546,0.958459,-0.222134,-0.178919
0.382935,-0.050025,0.772601,0.177157,0.981979,-0.065828
0.083582,0.486224,0.352313,-0.174736,-0.230187,0.957330
-0.173992,-0.203499,-0.521018,-0.731341,-0.634420,-0.250303
0.411214,0.728170,0.391036,0.357999,0.512227,-0.780679
-0.155071,0.024624,-0.648167,0.996325,-0.084993,0.010640
-0.131855,0.047662,-0.787889,-0.200565,0.585893,-0.785177
0.052185,-0.384739,0.753029,0.360584,-0.794252,0.489023
-0.369181,-0.293653,0.753193,0.031596,-0.233727,0.971789
0.182737,0.492076,0.332412,0.927320,-0.367797,0.069299
-0.138299,-0.274911,0.536704,-0.871948,-0.027308,-0.488836
-0.779550,-0.394140,0.384129,0.419665,0.280325,0.863307
-0.017054,-0.044050,0.096937,-0.646728,0.022941,-0.762376
0.177111,-0.579678,0.443970,0.283582,-0.063534,0.956841
0.206668,-0.410827,0.644164,0.998223,-0.048347,-0.034841
