0.579865,0.173210,0.756886,-0.663292,0.257035,-0.702835
0.111994,-0.214981,0.912970,-0.416674,0.034681,0.908394
0.272825,-0.554745,0.651590,0.911675,-0.401834,-0.085897
-0.282971,-0.711636,0.738142,-0.368450,0.632131,-0.681656
-0.505757,-0.571454,0.558119,-0.297579,0.897411,-0.325730
0.807791,-0.444936,0.238490,0.326424,0.165324,-0.930653
-0.474913,-0.801905,0.780431,-0.463383,0.517530,-0.719333
0.287914,-0.421360,0.878287,-0.292804,0.935520,-0.197658
0.069133,-0.420015,0.020812,-0.353791,0.205016,0.912579
-0.134292,-0.139651,0.862515,0.972372,0.175949,-0.153412
0.073874,-0.241318,0.118772,-0.501894,0.855574,0.126868
-0.391928,-0.596800,0.621895,0.321781,0.878423,0.353314
-0.083352,-0.277921,0.548767,-0.064364,-0.995712,0.066446
0.734487,-0.280116,0.537296,0.515618,0.602298,0.609405
-0.378777,0.663917,0.560176,0.247254,0.567097,-0.785663
-0.050305,-0.097667,0.837910,0.202435,0.973704,0.104506
-0.132823,-0.476017,0.509803,0.489721,-0.868091,-0.081189
-0.013051,-0.555241,0.930800,0.816171,-0.404855,-0.412260
0.505225,-0.039895,0.822803,-0.329480,0.383367,0.862828
0.606504,0.149138,0.614123,0.805288,-0.580326,0.121381
-0.047434,0.775992,0.628108,-0.599910,-0.479795,0.640238
-0.107854,-0.365358,0.050549,-0.342627,-0.939381,-0.013085
0.134828,0.262699,0.779870,-0.605793,0.078892,0.791702
0.370766,-0.584056,0.564955,-0.106318,-0.593219,0.797990
-0.201254,-0.104393,0.188866,0.974801,-0.199227,0.100361
0.213073,-0.181776,0.747078,-0.265862,0.305584,0.914295
0.927898,0.121668,0.396881,-0.078074,0.409769,0.908842
0.467238,-0.084499,0.809773,-0.511852,-0.464449,0.722700
-0.718263,-0.386102,0.869248,-0.839648,0.336379,0.426428
0.117068,-0.425042,0.976933,-0.480446,0.866110,-0.137931
-0.411557,0.001593,0.879430,-0.541315,0.766463,-0.345705
0.489134,-0.146235,0.751275,0.066588,-0.630153,0.773610
0.544214,-0.101420,0.180637,0.065042,-0.997369,0.032011
-0.530928,-0.231548,0.867170,-0.425396,0.878062,-0.219192
-0.338652,-0.409537,0.906819,0.152687,-0.919677,-0.361776
-0.086357,-0.311480,-0.128560,0.950747,-0.307086,-0.042165
-0.441933,-0.793975,0.768586,0.287512,-0.474690,0.831869
0.576126,-0.055400,0.766445,0.389119,-0.792624,-0.469398
0.244184,-0.383412,0.099446,-0.406191,-0.731291,0.547926
0.417900,0.069701,0.855532,0.017568,-0.168123,0.985609
-0.767599,-0.884739,0.723783,0.666076,-0.145889,-0.731478
0.350736,-0.373500,0.814470,-0.062594,0.328222,0.942524
0.697567,-0.314029,0.566555,-0.438240,-0.523253,-0.730858
0.355342,-0.713760,0.597353,-0.053650,-0.789316,0.611639
-0.126615,-0.401961,-0.518781,0.458194,0.886535,-0.064137
-0.217677,-0.803250,0.832778,0.332719,0.666965,0.666675
0.301866,0.093065,0.811249,0.993721,-0.074961,-0.083067
-0.117601,-0.250239,-0.240630,0.979426,0.199900,-0.027636
0.640217,-0.162590,0.184938,0.197049,0.976675,-0.085304
-0.307206,0.144536,0.847760,0.353375,0.035037,-0.934825
-0.671461,-0.754823,0.740968,-0.299140,0.953989,-0.020516
0.372367,0.209954,0.750569,-0.550281,0.812314,-0.193224
-0.165136,-0.603243,-0.986389,0.081043,0.057184,0.995069
-0.331708,0.032603,0.853392,-0.568300,0.734638,-0.370597
-0.116000,-0.317781,0.920867,0.203095,0.632231,0.747687
-0.207397,-0.256682,0.390169,-0.112649,0.984120,-0.137181
0.334980,-0.310277,0.883753,0.999256,-0.032913,-0.020099
-0.180625,0.477433,0.719315,-0.586704,0.800888,-0.119819
0.300464,-0.354455,0.809254,-0.448728,-0.768945,-0.455376
0.150984,0.345039,0.836788,0.863164,-0.432726,0.260186
0.733085,-0.298099,0.035088,0.806723,0.451317,0.381459
0.513970,-0.312401,0.446381,-0.045344,0.877490,0.477447
-0.153119,0.067153,0.760357,-0.234163,-0.908136,0.347070
0.529526,-0.535913,0.751878,0.893713,0.407831,-0.186952
0.409020,-0.585897,0.427574,-0.295516,-0.735856,0.609251
-0.612243,-0.419095,0.851064,0.760212,-0.493105,0.422995
0.045699,-0.519983,0.774300,0.992231,0.015387,-0.123454
0.178023,-0.266664,0.530251,-0.505157,0.856668,-0.104579
-0.010447,0.819674,0.457041,0.956861,0.232476,0.174278
-0.093700,-0.350420,0.916171,0.134831,0.750420,0.647063
0.670061,-0.684166,0.251852,0.237634,0.141759,0.960955
-0.095571,-0.391554,-0.629521,-0.188917,0.926281,-0.326059
-0.713589,-0.817339,0.731097,-0.620165,0.715207,0.322297
-0.497212,0.113738,0.867377,-0.438827,0.851941,-0.285704
-0.237974,-0.437715,0.264674,-0.697294,0.709329,-0.103120
-0.245185,-0.309569,0.848446,-0.312186,0.792408,-0.524051
-0.124812,-0.359057,0.851729,-0.308120,0.559798,-0.769213
-0.033747,-0.357145,0.582390,0.927459,0.173105,0.331444
-0.404746,-0.222344,0.890028,0.977867,-0.207666,-0.025522
0.028342,0.089879,0.867772,0.191641,-0.964238,0.183082
0.258271,-0.613438,0.691011,-0.477326,0.122083,0.870204
-0.019328,-0.360261,0.348524,0.882884,0.272451,0.382474
0.153454,-0.401112,0.809295,0.748707,0.662900,-0.001152
-0.015522,-0.226663,0.779974,0.992196,0.078381,0.096967
-0.440933,-0.904775,0.789408,0.066753,0.491069,0.868559
-0.078212,-0.174980,0.696684,-0.087605,-0.563110,0.821726
-0.439930,-0.513611,0.841879,0.797418,0.598701,0.075378
-0.244584,-0.233601,0.986638,-0.246056,0.604049,0.758011
0.401343,-0.545117,0.768960,-0.339059,0.862213,-0.376335
0.160397,0.082941,0.500930,0.655790,-0.514493,0.552483
0.083287,-0.692874,0.788494,0.022909,-0.995722,0.089510
-0.789899,-0.790435,0.766923,0.900968,0.169146,0.399558
-0.118270,-0.119757,0.884854,0.057528,0.869718,0.490185
0.355811,-0.409041,0.827125,0.591405,-0.464599,-0.659080
-0.218413,-0.770399,0.787642,-0.505812,-0.856660,0.101433
-0.000767,-0.298595,0.637168,0.658491,-0.742168,0.124804
-0.061922,0.368048,0.472689,-0.656271,0.738210,-0.156056
-0.002770,0.291444,0.396943,0.081828,-0.483100,0.871733
-0.200855,0.647775,0.575699,0.387860,0.702811,-0.596340
0.290251,-0.072180,0.733653,-0.636633,0.669569,-0.382590
0.051774,-0.284931,0.922903,-0.013500,0.102128,0.994680
0.322096,-0.601685,0.545401,-0.476583,0.865683,0.153169
-0.332576,0.219370,0.753208,0.861168,0.470533,0.192322
0.503889,-0.366916,0.482726,-0.616422,0.019180,0.787183
-0.172813,-0.047188,0.899213,0.058317,0.126053,0.990308
0.466370,-0.358278,0.248049,-0.201371,0.645871,0.736410
0.105851,-0.677865,0.854847,-0.732474,0.408799,0.544395
0.078613,-0.829729,0.826605,0.437759,-0.184136,-0.880035
0.013654,-0.455344,0.948734,0.728792,0.666238,-0.158081
0.306206,0.173422,0.812018,0.895262,0.420365,0.147646
0.706979,-0.399554,0.085980,-0.207400,0.978137,0.015277
0.339320,-0.560338,0.097119,-0.447802,-0.031696,-0.893571
0.018927,0.049028,0.829577,-0.098529,-0.963995,0.246995
-0.306004,0.420227,0.718774,0.291341,-0.841335,0.455276
-0.497946,-0.368403,0.870017,0.269684,0.952553,0.141116
0.429183,-0.287762,0.395946,-0.798817,0.436676,0.413769
-0.194110,-0.315728,0.833297,-0.663290,0.669517,-0.334354
0.679407,0.166059,0.526324,-0.396415,-0.125720,0.909423
0.364822,0.094127,0.876937,-0.047055,-0.964061,0.261481
0.419436,0.326064,0.502011,-0.101956,-0.363826,0.925870
0.184565,-0.608694,0.931964,0.656338,0.334534,-0.676246
-0.468238,-0.512903,0.843874,-0.508736,-0.853348,-0.113956
-0.346930,-0.910015,0.703417,-0.725305,0.217827,0.653057
0.053310,-0.528833,0.966252,0.041005,-0.012245,0.999084
0.394066,0.938546,0.481833,0.033085,-0.182027,0.982737
0.306540,-0.130660,0.536091,-0.590206,0.759839,0.272583
-0.018927,-0.581932,-0.984227,-0.029742,0.040946,0.998719
-0.535066,-0.557648,0.732490,0.653815,0.284192,-0.701257
0.691558,-0.033807,0.797180,-0.723772,0.667185,-0.176119
0.101446,-0.477008,0.987178,0.430352,-0.487942,0.759414
-0.273358,-0.177458,0.454069,0.592617,0.570101,-0.569025
-0.669258,-0.429573,0.889488,0.233734,0.134892,-0.962898
-0.345929,-0.800630,0.752190,-0.231260,-0.113210,0.966283
-0.630270,-0.846083,0.720936,-0.098538,-0.933010,0.346096
-0.209599,-0.137173,0.900190,-0.562255,-0.271200,-0.781230
0.307141,0.401749,0.522854,0.667673,-0.083220,0.739789
-0.221551,-0.664909,0.754496,-0.341657,-0.551154,0.761249
0.191975,-0.546108,0.485303,-0.573643,0.753550,0.321087
0.185633,-0.445149,0.664724,0.279065,-0.642291,0.713852
-0.749307,-0.506602,0.762643,-0.765856,0.216325,0.605531
0.047102,-0.499522,0.969265,0.085695,-0.078999,0.993185
-0.538138,-0.673900,0.739077,-0.130909,0.726467,-0.674618
0.715058,-0.257319,0.255697,-0.072741,-0.119676,0.990145
-0.112728,-0.110482,0.874401,-0.524826,0.778815,-0.343518
0.050973,-0.603597,-0.983271,-0.249840,-0.047702,0.967111
-0.450612,-0.295621,0.929283,0.721198,-0.408812,0.559237
-0.042092,-0.337180,0.444386,0.992878,-0.087998,-0.080315
0.617119,-0.607632,0.480357,0.477495,-0.352983,0.804613
-0.068732,-0.349853,-0.526594,0.829336,-0.513295,-0.220747
0.147044,0.431272,0.582577,0.409322,-0.777535,0.477383
-0.006174,-0.031753,0.635838,0.130545,0.990890,0.033078
0.177088,-0.421502,0.047183,0.766690,0.357187,-0.533482
-0.503288,-0.224681,0.659612,0.633237,0.630719,0.448559
-0.469640,0.068569,0.858317,0.421536,-0.247041,0.872512
0.385319,-0.600057,0.412279,-0.079535,-0.616118,0.783628
-0.730681,-0.792913,0.721164,0.337481,0.443316,0.830408
0.046968,-0.082375,-0.097659,0.307396,-0.943814,0.121342
-0.432986,-0.774081,0.723970,0.390363,-0.193612,0.900073
-0.718263,-0.931467,0.726526,0.622518,-0.206572,0.754850
-0.174950,0.302559,0.859730,-0.448588,-0.267976,0.852618
0.038889,-0.796878,0.816631,0.733200,-0.036040,-0.679057
0.324365,-0.280258,0.879742,0.688606,-0.438454,0.577564
-0.657776,-0.842402,0.716447,0.347358,-0.073813,0.934823
-0.023266,-0.580162,0.475619,-0.467033,-0.824936,-0.318373
-0.061120,-0.480831,0.585508,-0.465433,0.884870,0.019401
0.130621,0.665333,0.416913,0.435623,0.155405,-0.886612
0.276097,-0.107650,0.681182,0.503601,-0.788371,-0.353352
-0.115466,0.739601,0.607847,0.581053,0.432847,-0.689217
-0.100576,-0.425820,-0.741238,0.989528,0.070101,0.126174
0.002236,-0.362739,-0.982108,0.516780,0.568788,0.639858
0.034482,-0.491947,-0.968538,-0.417090,-0.089859,0.904412
0.166540,-0.442671,0.348607,-0.352938,0.921830,0.160199
-0.579331,-0.951149,0.712021,0.922199,0.380284,-0.070238
-0.148179,-0.604092,0.775506,0.213811,0.259433,0.941796
-0.124477,-0.525435,0.761832,0.857923,0.078755,0.507706
-0.846046,-0.667316,0.780556,0.038184,0.970708,0.237209
-0.028674,-0.569826,0.482685,0.917692,0.390403,0.073670
0.277765,-0.529329,0.776171,-0.705356,-0.641343,-0.301915
0.427247,-0.490814,0.859148,-0.328108,0.485492,0.810335
0.185299,-0.427874,0.885935,0.103433,0.801894,0.588445
-0.151651,-0.283019,0.019316,0.856641,0.444089,-0.262586
0.134359,-0.624695,0.823613,-0.534377,0.831979,0.149170
-0.529591,-0.550922,0.746828,0.915515,-0.348318,0.201264
0.175085,-0.537187,0.925439,0.673985,0.152526,-0.722828
-0.081082,-0.739743,0.775880,0.288191,0.793307,0.536293
0.822546,-0.000177,0.201043,0.256484,-0.182769,0.949111
0.585272,-0.294984,0.226458,-0.271433,0.488393,-0.829335
0.229963,-0.784276,0.712810,-0.400388,-0.332215,-0.854004
0.470710,0.127898,0.841214,0.483796,-0.735791,0.473871
0.166540,-0.475734,0.956610,0.150457,0.943658,0.294742
0.642287,-0.281815,0.561942,0.215291,0.624815,0.750504
-0.439196,-0.387306,0.739908,-0.614839,0.776332,-0.138858
0.450814,0.939113,0.483682,-0.407598,0.906890,-0.106838
0.300065,-0.482460,0.844020,0.385414,0.898063,0.211990
-0.153519,-0.389996,0.749904,0.923159,0.283487,0.259641
-0.018994,-0.356933,0.312864,0.853477,0.467255,0.230757
-0.144241,-0.801763,0.495527,0.839642,-0.412582,0.353239
-0.883366,-0.427449,0.801856,0.032527,-0.679652,0.732814
-0.254263,0.203582,0.829224,-0.659363,-0.276304,-0.699211
0.221284,-0.169316,0.609447,-0.355668,0.920121,-0.163945
0.858866,-0.045418,0.465707,0.361699,-0.143725,-0.921150
0.102247,0.644872,0.633282,-0.365084,-0.625029,0.689965
0.477117,0.078834,0.851148,-0.539121,0.351366,-0.765435
0.303602,-0.195228,0.876376,0.366827,-0.929437,-0.039804
0.988851,-0.204361,0.477115,0.548295,-0.262974,-0.793862
-0.402344,-0.637155,0.645605,0.316275,0.942675,0.106463
-0.392195,-0.258381,0.915152,-0.426835,0.493186,-0.758010
0.415630,-0.419165,0.746163,0.702672,-0.189361,0.685853
0.034884,-0.410103,0.614268,0.829068,-0.286602,0.480109
0.758388,0.324011,0.402700,0.200927,0.231976,0.951743
-0.001702,-0.428652,0.284665,0.666148,0.745062,0.033612
0.355676,0.329958,0.770061,0.545487,-0.527590,-0.651224
0.270822,-0.072817,0.891254,-0.410092,-0.428662,-0.805030
0.797109,0.087614,0.215818,0.358472,-0.099573,0.928215
0.097773,-0.301639,0.411905,-0.541053,0.838373,-0.066269
0.086091,-0.426670,0.893935,-0.709949,0.459852,-0.533393
-0.000902,-0.625615,-0.985994,-0.024314,0.102565,0.994429
-0.109123,0.134199,0.907692,0.079130,0.813667,-0.575920
0.242581,0.709795,0.642925,0.811493,0.584359,-0.001867
-0.076209,0.896775,0.529046,0.787497,0.608893,0.095383
0.052642,0.074445,0.876147,-0.546142,0.795073,0.263793
0.519111,0.059223,0.843957,0.395201,-0.123960,0.910192
0.332110,0.088746,0.847947,0.500939,0.619411,0.604475
0.877559,-0.370810,0.198134,0.265078,-0.921549,-0.283691
0.642222,0.190909,0.752273,-0.473707,0.669086,-0.572648
-0.512900,-0.261354,0.930447,-0.581925,0.690981,0.428846
0.260007,0.017169,0.855699,0.753482,0.611319,-0.241980
-0.158527,-0.382350,-0.539644,0.904200,0.425387,-0.038316
-0.029474,-0.394740,0.121037,-0.716850,0.662883,0.216129
-0.221551,-0.569401,-0.991688,-0.212445,0.167463,0.962717
-0.293119,0.099791,0.837827,-0.511765,-0.628719,0.585500
0.037288,0.197210,0.881654,0.005476,0.020335,0.999778
-0.498814,-0.247549,0.905801,-0.554343,0.649212,-0.520795
-0.592016,-0.953060,0.699802,-0.586864,-0.776563,-0.229217
-0.122609,-0.106376,0.882423,-0.788425,0.610730,0.073449
-0.101711,-0.247053,0.381191,0.132641,0.859988,-0.492775
-0.398737,-0.843110,0.762248,-0.418743,0.508176,-0.752603
0.228829,-0.040391,0.846867,0.955603,0.121763,0.268321
0.532197,-0.078481,0.830305,-0.040074,-0.976279,0.212774
-0.299394,-0.523098,0.541307,0.528791,-0.848320,0.027060
-0.367359,-0.925944,0.716322,-0.204852,0.878148,-0.432309
0.057717,-0.321250,0.005621,-0.655600,0.534736,0.533147
-0.109523,0.429856,0.234085,0.128516,-0.088800,0.987724
-0.071335,-0.484796,0.587045,0.421748,-0.906574,0.015891
-0.214206,-0.814436,0.760834,-0.276680,0.499236,-0.821104
-0.042628,-0.192396,-0.162100,0.133125,0.507385,-0.851374
-0.028274,-0.403023,0.912700,-0.423324,-0.489390,-0.762426
-0.168675,-0.292364,0.935871,0.958321,0.155918,-0.239398
0.403012,-0.548232,0.280571,0.064053,0.508334,0.858774
0.393597,-0.322242,0.832487,0.733334,0.394214,-0.553910
-0.113730,-0.324578,-0.473250,0.897710,-0.435812,-0.064684
-0.546683,-0.356508,0.912077,0.985837,0.076204,-0.149390
0.096306,0.512903,0.618092,0.378981,0.809002,-0.449320
-0.135027,-0.401182,-0.591118,0.964852,0.259261,0.042936
-0.075341,0.042869,0.377201,-0.695492,-0.105123,0.710802
-0.152252,-0.252151,0.943975,0.963020,-0.178182,0.202097
-0.222486,0.332578,0.849527,0.601819,-0.069000,0.795646
0.441868,-0.352968,0.827437,-0.107930,0.893967,-0.434942
-0.159861,-0.373429,-0.451867,0.563558,0.786610,0.252282
-0.025269,0.317498,0.867502,0.500936,-0.765332,-0.404142
0.649164,0.023257,0.759692,0.261035,-0.180504,-0.948303
-0.055712,-0.330171,0.108361,0.243274,0.968562,-0.052019
0.031345,0.021063,0.883607,0.985533,0.091349,-0.142756
0.013721,-0.480406,0.946115,0.981991,-0.187148,-0.025857
0.372100,-0.270275,0.772742,-0.772052,0.214981,0.598097
0.435658,-0.384191,0.855491,0.609348,0.784375,-0.115982
-0.515504,-0.377960,0.912472,-0.267335,-0.617809,0.739489
0.305205,-0.671068,0.709610,0.362547,-0.270021,-0.891991
0.755250,-0.295834,0.025384,0.932133,0.300561,0.201967
-0.199118,-0.374137,0.840175,0.481746,0.058635,-0.874347
0.064260,0.729335,0.680372,0.851469,-0.318034,0.416959
0.015657,-0.687989,0.764471,0.992449,-0.053799,0.110226
-0.152985,-0.793692,0.754164,0.069310,0.176398,0.981876
-0.166338,-0.229283,0.882090,-0.603145,0.265056,-0.752304
0.823414,-0.233106,0.249483,0.005855,-0.438578,0.898674
-0.147710,-0.301639,0.537130,0.232823,0.972349,0.018195
0.876489,-0.381430,0.232734,-0.450682,-0.135454,-0.882348
0.000301,-0.155722,0.789990,-0.701866,0.708974,-0.068846
0.846847,-0.008461,0.209002,0.423872,0.104326,0.899693
0.054245,-0.116287,0.906653,0.559241,0.604727,0.567058
-0.784357,-0.432122,0.726401,-0.661108,-0.716919,-0.221275
-0.104716,0.580657,0.518220,-0.881758,0.312017,-0.353764
-0.075274,-0.668661,-0.983251,-0.100215,0.192585,0.976150
-0.817005,-0.712769,0.761001,0.862102,0.374174,0.341723
-0.075274,-0.574073,0.542263,0.177970,0.026374,0.983682
0.820611,-0.326985,0.437092,0.114402,-0.522154,0.845144
-0.064993,0.918014,0.613416,-0.366969,-0.184051,-0.911844
-0.136362,0.354526,0.437923,0.212044,-0.877530,0.430091
-0.074339,-0.374279,-0.097098,0.873186,-0.389128,0.293473
-0.322295,-0.881058,0.771744,-0.268492,0.379284,-0.885469
-0.159260,-0.343835,-0.375622,0.600726,0.779115,-0.179185
-0.465968,0.062055,0.849922,0.423375,-0.740779,0.521537
0.199854,-0.072321,0.895660,-0.245827,0.394236,0.885521
0.513436,0.372296,0.527529,0.358037,-0.195394,-0.913034
-0.579997,-0.448972,0.856925,-0.765265,-0.643612,-0.011526
0.280703,-0.440334,0.691157,0.907571,0.126451,-0.400406
-0.094368,-0.622288,-0.984747,0.030400,0.040156,0.998731
0.477184,0.024107,0.784836,0.809968,-0.558792,-0.178051
-0.143705,-0.392474,0.698430,-0.542742,0.838279,0.052145
-0.082751,-0.318985,0.114990,0.711097,0.699199,0.073903
-0.013719,0.817480,0.596542,0.932205,-0.059697,-0.356974
0.120340,-0.235017,0.876334,0.497872,0.593120,0.632718
0.023334,-0.122376,0.857839,0.506153,0.757963,-0.411462
0.703777,0.271549,0.408102,-0.565632,-0.178091,-0.805198
0.208933,-0.450671,-0.958335,0.090553,-0.022187,0.995644
-0.313349,0.718432,0.569880,0.124607,-0.694575,0.708547
-0.244182,-0.326631,0.989797,-0.245566,-0.026513,0.969017
0.199987,-0.040391,0.639766,0.828157,0.186069,-0.528710
-0.057917,0.197918,0.916316,-0.379903,-0.253380,-0.889647
-0.305270,-0.703919,0.767671,-0.191567,0.504155,-0.842098
-0.512167,0.043718,0.477718,-0.479425,0.464837,-0.744364
-0.271288,-0.263762,0.917791,-0.688985,0.640907,0.338435
-0.202857,0.201812,0.829910,-0.328144,-0.080202,0.941217
-0.358413,-0.878297,0.707303,0.216932,0.972081,-0.089434
-0.079012,-0.283656,0.908939,0.605475,-0.419740,-0.676179
-0.105051,-0.418741,-0.621770,-0.388937,0.902301,-0.185958
-0.009379,-0.472619,0.961244,-0.455683,0.836009,0.305682
0.739894,-0.278842,0.544923,-0.570615,-0.711260,-0.410497
-0.493007,-0.514319,0.812558,0.116147,-0.959206,0.257747
-0.052108,-0.435732,0.600636,0.824781,-0.523795,0.213012
0.328506,0.248610,0.795767,0.410954,0.170644,0.895543
0.427647,0.705264,0.412217,-0.475775,0.534374,-0.698629
-0.431919,-0.836596,0.804017,0.969899,0.008795,0.243349
-0.472511,-0.879854,0.786436,0.571983,0.091555,0.815140
-0.195113,-0.769125,0.763598,-0.465880,0.022105,-0.884572
-0.276429,-0.503770,0.252143,-0.704273,0.656332,-0.270607
0.018126,0.091649,0.755016,0.843193,-0.521541,0.130463
0.157260,-0.188219,0.922987,-0.303346,-0.219466,-0.927263
0.053777,-0.382916,0.903661,0.418039,-0.446293,0.791244
-0.037620,0.204927,0.752169,0.137376,-0.293768,0.945954
-0.255064,0.920351,0.612024,0.402192,-0.389487,0.828578
-0.016390,-0.744557,-0.979032,0.031200,0.263565,0.964137
-0.158060,0.036284,0.764638,-0.311750,-0.949676,0.030454
0.184633,0.129810,0.615203,0.940815,0.278399,-0.193292
0.284642,-0.591632,0.707262,0.897639,-0.370502,-0.238689
0.220618,0.100499,0.805056,0.003926,-0.965595,-0.260021
-0.332042,-0.177387,0.949960,-0.420074,0.423912,0.802394
0.328438,-0.004921,0.743857,-0.292121,0.879143,0.376527
0.331242,-0.571171,0.797450,0.961937,0.054521,-0.267777
-0.391527,-0.837021,0.694606,0.252989,-0.873580,-0.415758
-0.186967,0.359906,0.843272,-0.496071,0.008560,-0.868240
-0.579730,-0.586605,0.756159,0.085127,-0.603895,0.792505
0.787497,-0.020638,0.206197,-0.358172,0.082703,-0.929986
0.179759,0.425891,0.558139,0.292214,-0.688382,0.663883
0.262142,-0.586888,0.844893,-0.416425,0.817278,-0.398304
-0.544079,0.196361,0.573725,0.669899,-0.614829,0.416197
0.009447,0.306666,0.869996,0.948693,0.246646,0.197857
-0.760723,-0.325215,0.850025,0.293900,0.942740,-0.157682
-0.003905,-0.356225,0.128789,-0.798518,0.595146,0.090394
-0.776413,-0.725796,0.759525,-0.537991,-0.211266,-0.816047
-0.075408,0.520903,0.498166,0.992718,-0.078620,0.091271
0.732951,-0.373429,0.055287,-0.175883,0.869564,0.461436
-0.178689,-0.351836,-0.452095,-0.667690,-0.743911,-0.028035
0.340188,-0.107721,0.878391,0.855264,0.156395,0.494029
0.416164,0.041099,0.511590,0.385621,-0.905103,-0.179120
0.620858,-0.095260,0.575076,-0.352380,0.581852,-0.732991
0.044164,-0.338242,-0.002982,-0.568782,0.594340,0.568549
-0.386721,-0.747531,0.722432,-0.283830,-0.426380,-0.858860
-0.180158,-0.262275,0.549453,-0.142821,-0.986894,-0.075111
0.012317,-0.595667,0.968974,-0.184295,0.534252,-0.824991
-0.063723,-0.623562,-0.985038,-0.085296,0.143839,0.985918
-0.332576,0.093915,0.783527,0.339901,-0.835415,-0.431913
0.773410,-0.004425,0.208670,-0.358172,0.082703,-0.929986
-0.632338,-0.814719,0.701713,0.652335,0.620152,0.435742
-0.432186,-0.297037,0.912887,0.146702,-0.746960,0.648482
-0.028140,-0.575277,-0.984643,0.013486,-0.014494,0.999804
-0.585137,-0.369960,0.858857,0.772058,0.479581,-0.417048
0.268218,-0.484159,0.627464,0.044265,0.993524,0.104648
0.594887,0.114800,0.738994,0.679666,0.102822,-0.726279
-0.084955,-0.345464,-0.400621,0.406823,-0.878607,-0.250089
0.586474,-0.380297,0.096849,-0.031136,0.998230,-0.050668
0.823681,0.170378,0.210852,-0.339936,0.125450,-0.932044
0.131957,-0.013912,0.577839,0.978360,-0.112981,0.173343
-0.460626,-0.535346,0.762455,0.932532,-0.121291,-0.340106
0.256401,0.576764,0.578089,-0.311448,-0.918052,-0.245317
0.099576,-0.411731,0.778207,-0.365329,0.915469,-0.168674
-0.438728,-0.398138,0.830076,0.992616,-0.035146,-0.116098
-0.140233,-0.108146,0.887680,-0.089806,-0.987590,0.128840
-0.511766,0.654147,0.558950,0.094215,-0.623673,0.775987
-0.216410,-0.017877,0.636794,0.684068,0.710801,-0.163746
0.813266,-0.216893,0.184772,0.836261,0.053652,0.545701
0.629001,-0.267868,0.250668,0.141622,-0.434034,0.889695
0.482659,0.036568,0.847012,-0.353842,-0.037781,-0.934542
-0.654503,-0.050940,0.736355,-0.729726,0.289553,0.619402
0.513102,-0.698113,0.395696,0.066651,0.308830,-0.948779
0.562106,-0.267514,0.567553,0.169814,0.017082,0.985328
-0.256800,-0.517859,0.236287,-0.643156,0.758485,-0.105123
-0.412091,-0.847782,0.705350,0.670652,0.604789,-0.429484
-0.268283,0.362030,0.829141,0.257943,-0.542057,0.799774
-0.428447,-0.948104,0.738454,0.207231,0.942242,-0.263127
0.057516,0.465609,0.784171,0.998625,-0.043786,0.028818
0.286378,-0.582357,0.836996,-0.518887,0.796596,0.310148
0.100511,-0.507593,0.615453,0.498198,0.866480,-0.031807
-0.298594,-0.772311,0.732594,-0.751292,0.261715,0.605859
-0.468505,-0.100287,0.803975,0.567604,-0.757206,0.323212
0.411757,-0.729052,0.091965,-0.185972,0.002015,0.982553
-0.326034,-0.509151,0.536153,0.640393,-0.647659,0.412837
-0.492339,-0.297745,-0.111935,-0.042652,0.849794,0.525387
-0.109590,0.354667,0.834980,0.431469,0.359279,0.827498
-0.431517,-0.936352,0.689723,0.097038,-0.477398,0.873313
0.358347,0.132075,0.844643,0.076121,0.825609,0.559084
0.486465,0.230627,0.812807,0.760627,0.303093,0.574091
-0.081751,-0.773160,0.761624,0.197664,-0.959363,-0.201376
-0.056847,0.135261,0.823343,0.749621,-0.262896,-0.607415
-0.416229,-0.465326,0.869081,0.088973,-0.316612,0.944373
0.563441,-0.417466,0.832341,-0.405917,0.171891,0.897600
0.275296,-0.048533,0.814989,0.811584,-0.581464,0.056833
-0.416964,-0.003575,0.783361,0.926210,-0.376492,0.019731
0.252530,-0.127332,0.682387,-0.322416,0.901916,0.287393
0.428514,-0.131792,0.780140,-0.582207,0.800816,-0.140455
0.048971,-0.298170,0.144478,0.637024,-0.761130,-0.121987
0.263678,-0.399200,0.754871,-0.233003,0.838563,-0.492464
0.593285,-0.761408,0.387571,0.119379,0.409351,-0.904533
0.545416,0.160890,0.854348,0.139200,0.889184,-0.435860
0.319158,-0.611809,0.740469,0.977060,0.118952,-0.176644
-0.361952,-0.457822,0.823634,-0.041977,0.405194,0.913267
0.025671,-0.321746,0.953659,-0.298523,-0.269445,0.915578
0.232901,0.407271,0.545214,0.202419,-0.736914,0.644968
0.103183,-0.400050,0.933523,0.952517,0.255174,-0.166127
-0.181827,-0.443520,0.207880,0.957625,-0.269799,0.100815
-0.235171,-0.079118,0.743441,0.317213,-0.469192,-0.824157
0.316821,-0.088676,0.882090,-0.565118,0.294496,-0.770658
0.050173,-0.321604,0.635527,-0.571734,0.752470,-0.326970
0.182296,-0.775355,0.838887,-0.074587,0.987489,-0.138935
-0.044830,-0.402740,0.948672,-0.024298,-0.925015,0.379154
-0.062389,0.678006,0.582370,-0.078589,0.916025,-0.393347
-0.322028,0.131367,0.848218,0.047938,-0.243681,0.968670
-0.414226,0.383624,0.752065,0.932517,-0.360133,-0.026776
0.174150,-0.084145,0.645460,0.960885,0.052976,-0.271834
0.459960,-0.149846,0.850025,0.754276,0.458861,0.469589
-0.363286,0.010018,0.831759,-0.342895,0.920791,0.185922
0.901460,-0.267372,0.242688,-0.664412,-0.600201,0.445327
0.342058,-0.079047,0.899961,0.144325,-0.069807,0.987065
0.410021,-0.671705,0.539104,0.940296,-0.048064,0.336947
0.131356,0.721406,0.642634,0.205579,0.287224,-0.935542
-0.022131,-0.328330,0.664765,0.870661,-0.491535,-0.018547
0.223020,0.592693,0.649928,0.975032,-0.167576,0.145705
-0.558233,-0.033807,0.704685,-0.605496,0.775914,-0.177011
-0.122008,-0.377394,-0.722951,-0.545991,-0.836650,-0.043707
-0.423973,-0.837375,0.676610,-0.243666,-0.042417,0.968931
-0.251994,0.116783,0.862951,-0.580663,0.735023,-0.350104
-0.326835,0.329746,0.671851,-0.412106,0.693186,-0.591322
0.199787,-0.007399,0.801461,-0.149025,0.700246,0.698174
-0.365289,-0.805798,0.762559,0.559019,-0.615981,0.555036
-0.079681,-0.274948,0.211725,0.057638,-0.998167,-0.018446
0.666924,-0.570888,0.260435,0.237634,0.141759,0.960955
0.277965,0.091154,0.862681,-0.006921,-0.842110,0.539261
-0.089360,-0.324578,0.578110,-0.026112,0.851492,0.523717
-0.752644,-0.613084,0.797180,-0.430523,0.889002,-0.155964
0.033215,0.773514,0.697287,0.997839,-0.058032,0.030828
-0.612712,-0.919714,0.690429,0.808153,0.291969,0.511511
0.488535,0.201741,0.773552,-0.337701,0.082302,0.937648
-0.077478,-0.363163,0.710046,-0.097051,-0.990180,-0.100623
0.164069,-0.422139,-0.975396,0.778988,0.390261,-0.490790
0.064060,0.410740,0.769064,-0.045159,-0.380049,0.923863
-0.089094,-0.275089,-0.315670,-0.720572,-0.689992,0.068461
0.319826,0.668165,0.436925,-0.349134,0.407356,-0.843899
0.055780,-0.057666,0.759505,0.386984,-0.642220,-0.661662
0.010850,-0.538674,0.913324,-0.170871,0.984361,0.042848
-0.225090,-0.092003,0.893727,-0.115628,0.524066,0.843792
0.086826,0.260505,0.846991,0.242791,-0.754437,0.609818
0.186301,0.604871,0.437860,0.426977,0.133441,-0.894362
-0.661848,-0.837304,0.716675,0.095669,0.007598,0.995384
-0.399071,-0.172785,0.872469,-0.643541,0.729062,0.233074
0.228896,-0.710432,0.541161,0.288408,0.577246,-0.763943
-0.479853,-0.837516,0.769396,0.359385,0.309144,0.880495
-0.502954,-0.687423,0.755951,-0.075192,0.996639,-0.032512
-0.100843,-0.195441,0.863658,0.852390,0.291449,-0.434153
0.529860,-0.671139,0.401785,-0.148808,-0.265992,0.952420
-0.423973,-0.590711,0.841443,0.584978,0.481804,-0.652430
0.241581,-0.132217,0.675156,-0.372409,0.870051,0.322990
-0.686216,-0.922900,0.705288,-0.168512,-0.864465,0.473608
-0.308810,-0.606853,-0.986513,-0.020469,0.203107,0.978943
0.024536,-0.251018,-0.174693,0.961634,-0.208912,0.177810
-0.221149,-0.506106,0.221180,-0.695592,0.703592,0.145292
0.365024,0.135898,0.797180,-0.142908,0.606355,0.782247
0.091966,-0.451591,0.963114,0.255173,-0.707917,-0.658589
-0.245985,-0.231761,0.948588,-0.076453,0.777342,0.624415
0.103649,-0.364721,0.775049,-0.253760,0.908714,0.331429
-0.754914,-0.765726,0.730827,-0.739471,-0.335762,-0.583478
-0.618785,-0.395519,0.740262,0.782792,-0.603294,0.152555
0.038156,0.625544,0.200981,0.565069,-0.039232,0.824110
-0.320894,-0.353464,0.433019,0.985659,-0.096233,0.138619
-0.215675,-0.012709,0.785938,0.698207,0.022162,0.715553
0.627133,-0.116571,0.240090,0.453360,0.486904,0.746585
-0.108522,-0.275160,0.024615,0.751185,0.540777,-0.378524
-0.189638,-0.263832,0.891982,0.765143,0.458026,0.452515
-0.241980,-0.576835,0.679333,0.814695,-0.573979,-0.082584
0.334312,-0.502000,0.762975,0.598146,0.510429,0.617805
-0.055313,0.186661,0.869165,0.968645,0.004469,-0.248407
-0.201054,-0.246274,0.375581,-0.540009,0.840478,0.044564
0.253999,-0.274311,0.891005,-0.397129,0.720161,0.568908
0.755784,-0.607278,0.250709,0.207591,0.213276,0.954683
-0.017592,-0.700025,0.805139,0.795152,0.316488,-0.517271
0.241112,-0.568693,0.693588,0.166460,-0.747025,-0.643619
0.132758,-0.572091,0.492846,-0.333581,0.941024,-0.056548
0.967888,0.082728,0.443596,0.945796,0.261583,0.192467
0.387990,-0.308153,0.828039,0.196889,0.941393,0.273888
-0.166872,0.329675,0.843293,-0.387017,0.349244,-0.853374
0.054779,0.232256,0.810043,0.593676,-0.731544,0.335249
0.166605,-0.529966,0.923382,-0.157599,-0.221880,0.962254
0.598558,0.148996,0.872531,-0.044868,0.903380,-0.426487
-0.071136,0.000248,0.766861,-0.082776,-0.879925,0.467846
-0.049572,0.160961,0.882859,-0.329310,0.215965,-0.919192
-0.457756,-0.102836,0.801752,-0.640988,0.739452,-0.205776
0.439798,-0.037205,0.811789,-0.517210,0.781631,0.348636
0.176085,0.021558,0.782280,0.938168,-0.070138,-0.338999
0.502889,0.902722,0.459015,0.186730,-0.307919,0.932908
0.288515,-0.090587,0.757489,0.507666,-0.847433,-0.155349
-0.457421,-0.895926,0.686190,0.338547,0.602071,0.723116
0.176220,-0.272682,0.065948,0.800082,0.338613,0.495187
-0.199585,0.284222,0.836373,0.123395,-0.786554,0.605067
0.246921,0.296400,0.669192,-0.445152,0.894518,0.040947
-0.201588,-0.455768,0.290504,-0.311254,0.950171,0.017214
-0.824547,-0.750434,0.757718,0.958496,-0.165936,0.231841
-0.535400,-0.810613,0.780161,0.185605,0.981440,0.048227
0.435992,-0.386385,0.247758,0.002699,0.659934,0.751318
-0.080815,-0.447060,0.863637,-0.087045,-0.090496,0.992085
0.057917,-0.483876,0.376682,0.436389,0.869224,0.232410
0.535000,0.182555,0.793772,-0.719765,-0.165671,-0.674160
-0.245385,-0.338242,0.673846,0.413871,0.654587,0.632634
-0.116666,-0.092853,0.597186,0.572447,0.818813,0.043003
0.428447,-0.081525,0.733674,0.574782,0.296405,-0.762738
-0.436525,-0.599349,0.708820,0.350162,0.822107,0.448917
0.459559,0.322029,0.779101,-0.485167,-0.874117,-0.023085
-0.302333,0.712273,0.585466,0.094829,-0.789757,0.606045
-0.286310,-0.099862,0.491579,0.198400,0.974384,0.105896
0.032547,-0.127969,-0.044855,-0.077975,-0.996498,0.030189
-0.097439,-0.148147,-0.127375,0.986141,0.078790,0.146010
-0.358213,0.604446,0.554461,-0.008466,-0.798836,0.601490
-0.010514,-0.066728,0.894579,0.380424,0.020913,-0.924576
0.807659,-0.179794,0.530563,0.663497,-0.593677,-0.455324
-0.033213,-0.386881,0.348420,0.950612,0.191781,0.244042
0.151184,-0.320684,-0.968766,-0.119901,-0.301989,0.945741
0.577595,-0.001027,0.662001,0.903290,-0.255727,-0.344487
0.217079,0.503274,0.401681,0.374720,0.202377,-0.904781
0.380179,-0.467946,0.846368,0.394176,-0.655820,-0.643836
0.037086,-0.354597,0.200066,-0.290446,0.946044,0.143674
-0.220615,0.063471,0.548497,0.379486,0.528128,0.759652
-0.141168,-0.351694,-0.598516,0.960102,-0.206961,-0.188071
-0.403077,-0.075366,0.485365,0.698035,0.687973,-0.198596
-0.195981,-0.304117,-0.487069,-0.573131,0.819461,0.002312
-0.396201,-0.332012,0.885020,-0.085469,-0.932792,0.350135
0.511501,0.357782,0.786416,-0.590711,0.791611,-0.156247
-0.466168,-0.349853,0.887368,-0.871757,0.446378,-0.201953
-0.480120,-0.484584,0.840757,0.738784,0.484581,0.468380
-0.286911,-0.153669,0.881965,-0.128198,0.707065,0.695431
0.071804,0.732380,0.658406,-0.411573,-0.909722,0.054893
-0.308408,-0.639563,-0.980445,-0.133754,0.308307,0.941837
-0.233567,-0.040674,0.885249,0.730378,-0.334765,-0.595382
-0.001568,-0.352544,0.293102,0.988118,0.151252,-0.027316
0.003039,-0.504407,0.895411,-0.172471,0.088587,0.981023
0.207798,-0.276505,0.912492,-0.104325,0.982728,-0.152844
0.037755,0.389146,0.804432,0.847100,-0.334538,0.412923
0.759723,0.165634,0.407936,-0.253957,0.146452,-0.956064
0.070068,-0.414209,0.893873,0.788990,0.472818,0.392350
-0.167339,-0.324578,0.546502,0.179625,-0.890780,-0.417427
-0.410355,0.058869,0.842877,0.787020,0.042579,0.615457
-0.190706,-0.401112,-0.398128,0.783662,0.606328,-0.135056
0.232033,-0.233035,0.875378,-0.613670,0.758012,0.220970
-0.494743,-0.418599,0.847054,0.149490,-0.988690,0.012011
-0.101245,0.650536,0.232131,-0.691967,0.440732,-0.571785
0.490271,-0.424829,0.847137,0.507216,0.552273,0.661609
-0.051974,0.545754,0.564976,0.009244,-0.078494,0.996872
-0.370297,0.073100,0.895307,-0.572115,0.806708,-0.148005
-0.131087,-0.015045,0.727585,0.494069,0.557908,-0.666809
0.113596,-0.335127,0.821410,-0.473409,-0.875437,-0.097442
-0.765062,-0.684803,0.719564,0.803505,0.444984,0.395434
0.045833,0.581719,0.639745,0.996048,0.081978,0.034165
0.101781,-0.421856,0.293019,0.810190,-0.274195,-0.518083
-0.288981,0.127898,0.892065,-0.233064,-0.964523,-0.124005
-0.840103,-0.417679,0.696206,0.989870,0.130887,-0.055012
-0.003171,-0.334277,-0.020521,-0.486407,0.866296,0.113753
-0.016724,-0.425254,0.866401,0.407028,-0.011863,-0.913339
0.019595,-0.466034,0.592781,0.103385,-0.871498,0.479378
0.042496,0.053984,0.869144,-0.214334,0.778890,0.589399
-0.124078,-0.265319,-0.289943,0.935339,0.096931,-0.340213
0.197250,-0.319339,-0.977868,-0.079777,-0.798731,0.596376
-0.213338,-0.755744,0.829307,-0.481531,0.578100,0.658732
0.338185,-0.065879,0.881633,0.803614,-0.427107,0.414469
-0.073872,0.879075,0.619900,-0.430509,-0.042726,0.901575
-0.060788,-0.289603,0.416124,0.506228,0.858435,0.082603
-0.075541,-0.278983,0.198654,0.101447,0.972810,-0.208206
0.824282,-0.168820,0.159357,0.710444,-0.224772,0.666893
-0.096371,-0.342986,-0.305799,0.502039,0.852999,-0.142656
0.331109,-0.530178,0.092007,-0.299377,-0.378992,-0.875636
-0.062790,-0.152041,0.923257,0.822779,-0.540802,-0.174835
0.365892,-0.318772,0.910435,0.407046,-0.052288,-0.911910
0.698569,0.049170,0.748345,0.545742,-0.469910,-0.693794
0.105919,-0.409183,0.771558,0.138871,-0.829170,0.541472
0.400141,-0.168608,0.238677,-0.486732,0.332367,0.807852
-0.367292,0.052143,0.744896,0.880919,-0.272413,0.387005
0.047102,-0.251867,0.111374,-0.669536,0.728790,-0.143481
-0.003505,0.507381,0.567698,0.829133,0.461232,-0.315916
-0.032746,0.307374,0.418264,-0.289818,0.582783,-0.759190
-0.142704,0.538107,0.224380,0.195932,-0.167500,0.966206
0.045165,-0.342915,0.928223,-0.654471,0.250456,-0.713400
-0.269285,0.146660,0.934998,-0.633390,0.715439,-0.294899
-0.109857,-0.445644,0.624160,-0.060082,-0.551224,0.832191
-0.441933,-0.066162,0.406482,0.777473,0.625479,-0.065668
-0.564842,-0.486354,0.753624,0.384264,0.585785,0.713580
0.099309,-0.508514,0.952973,0.932887,-0.317300,0.170420
-0.008244,-0.563808,-0.985495,0.030872,0.001757,0.999522
0.042763,-0.487274,0.380651,0.487470,0.854959,0.177254
-0.136896,-0.004779,0.095851,-0.169448,0.709154,-0.684389
-0.629869,-0.762186,0.734028,0.319096,-0.638497,0.700357
0.147845,0.447485,0.568821,0.439420,-0.660994,0.608274
0.828822,0.173917,0.404071,-0.061547,0.243965,0.967829
0.169810,0.584127,0.617489,0.371589,0.904871,0.207679
0.002371,-0.368403,0.162786,0.780639,-0.535809,-0.321733
0.022800,0.641545,0.652920,0.994364,0.085852,-0.062199
0.280502,-0.686998,0.552487,0.440479,0.563634,-0.698781
0.665455,0.080888,0.415895,-0.575582,0.245377,-0.780062
-0.347331,-0.427803,0.543614,0.901097,-0.103180,0.421163
0.595086,-0.596234,0.078499,-0.173471,0.506787,-0.844438
0.559702,0.242238,0.760523,0.745877,0.396449,0.535252
0.493142,-0.522815,0.277537,0.166003,0.477914,0.862578
0.398872,-0.025028,0.838264,-0.216718,0.914138,-0.342614
0.009781,-0.575135,0.941856,0.751143,-0.293259,-0.591424
0.379378,-0.057595,0.737082,-0.523895,-0.344574,-0.778976
0.054111,-0.291940,0.965296,0.202893,-0.201922,0.958156
0.546217,-0.145952,0.755286,0.626344,0.011374,0.779464
0.007379,-0.163723,0.772825,-0.700730,0.526433,0.481503
-0.152519,-0.280329,-0.179951,-0.573662,-0.219110,0.789242
-0.057917,0.237070,0.818335,-0.402025,0.264138,0.876702
0.233368,-0.164714,0.617655,-0.437699,0.897590,-0.052454
0.477319,-0.302135,0.564436,0.033057,-0.208890,0.977380
0.111461,-0.517364,-0.971904,0.261445,0.383997,0.885547
0.160597,0.041169,0.797201,-0.501192,0.779845,-0.375031
-0.502153,-0.583985,0.702939,0.859943,0.510389,-0.000458
0.402277,0.062268,0.201895,0.861465,0.338440,-0.378597
0.067397,-0.522390,0.544008,0.533005,0.717472,-0.448486
-0.005241,-0.314737,0.706555,0.400731,-0.904857,-0.143696
0.742565,-0.376332,0.071392,-0.281346,0.878861,0.385288
0.198452,-0.547241,0.910975,0.917685,-0.284315,-0.277522
-0.021331,-0.340225,0.756554,0.923575,0.331908,-0.191956
0.220618,-0.650678,0.805035,-0.430506,-0.589013,0.683907
-0.742029,-0.740663,0.768711,0.302431,0.950480,-0.071578
0.068065,-0.392687,-0.995304,0.066770,0.343849,0.936648
0.380580,-0.135191,0.197988,-0.505279,0.820169,0.268358
-0.203591,-0.099225,0.185125,0.983596,-0.177389,0.032746
-0.094234,0.737052,0.607556,-0.260558,0.706570,0.657928
-0.325500,-0.824773,0.756263,-0.456861,-0.389946,0.799512
-0.179089,-0.419590,0.236682,0.761889,-0.647148,0.026932
-0.533464,-0.575773,0.690575,0.511055,0.859459,-0.012337
-0.346129,-0.078764,0.713621,-0.482155,0.579013,-0.657473
-0.521447,0.189989,0.590433,0.774132,0.621706,-0.119170
-0.055513,-0.281107,0.478030,0.322175,0.900045,-0.293465
0.205930,0.118482,0.469385,-0.688648,0.499807,-0.525316
0.790968,-0.131368,0.447710,0.296062,0.185612,-0.936961
-0.640885,-0.629155,0.779080,0.711390,-0.299175,0.635939
-0.821077,-0.751779,0.773386,0.961937,-0.144207,-0.232123
-0.209534,-0.427944,0.883794,0.329765,0.929970,-0.162517
0.503956,-0.119544,0.808797,-0.581817,-0.356039,0.731249
-0.422104,0.116995,0.492659,-0.571741,0.618034,-0.539580
0.397872,-0.675033,0.563272,0.052386,-0.346690,0.936516
0.239176,-0.510779,0.867253,-0.247240,0.947019,0.205008
-0.067863,-0.644731,0.753644,-0.086957,0.327605,0.940805
-0.402142,-0.222415,0.866318,0.917349,-0.013007,-0.397870
0.443202,0.092428,0.847449,0.363556,0.726831,0.582704
0.082285,-0.427661,0.017466,-0.351404,0.343264,0.871025
0.026137,-0.376544,0.538834,0.968391,0.106661,-0.225482
-0.282038,-0.433467,0.374271,0.984197,0.007680,0.176910
0.019662,-0.365783,-0.979905,0.635536,0.462237,0.618410
-0.110191,0.874402,0.613520,0.852814,-0.442556,0.277224
-0.785092,-0.736769,0.752709,0.944351,-0.062306,0.322985
0.001368,-0.530320,0.762767,-0.601207,0.307549,0.737539
-0.316686,0.343410,0.661918,-0.276662,0.660343,-0.698144
0.456890,-0.669227,0.706119,0.698496,-0.376745,-0.608413
-0.538672,0.237920,0.582577,0.937263,0.185453,0.295204
-0.267684,0.835676,0.622456,0.256960,-0.476328,0.840883
0.036819,-0.743354,0.809212,0.434712,-0.382848,-0.815140
-0.105385,-0.515169,0.535904,-0.699905,0.245979,0.670542
-0.129017,0.097525,0.867232,0.676277,0.713206,-0.184353
-0.672329,-0.803179,0.717195,0.594581,0.726258,0.344996
-0.032480,-0.345888,0.067610,0.524415,0.850840,-0.032549
-0.256066,-0.343127,0.596043,0.891650,0.402086,0.208054
-0.514304,0.095543,0.873819,0.512422,-0.595396,-0.618811
0.020663,-0.352260,0.174818,0.751137,-0.623635,-0.216499
0.881363,-0.371164,0.194664,0.265078,-0.921549,-0.283691
-0.345461,-0.338596,0.808547,-0.388498,0.920948,-0.030390
-0.498547,-0.567702,0.524267,-0.359052,0.932310,0.043354
0.330708,-0.281320,0.905032,-0.010968,0.343123,0.939226
-0.392128,0.001664,0.831011,0.940350,-0.266412,0.211580
-0.742029,-0.373429,0.704145,0.208102,0.904532,0.372176
-0.032746,-0.584693,-0.984477,-0.088077,0.131010,0.987461
0.008980,-0.347234,0.953451,0.818342,0.132950,-0.559142
0.017592,-0.656271,0.817857,0.498719,0.374965,-0.781460
0.082885,-0.356154,0.953160,-0.351434,0.222324,-0.909432
-0.018593,0.246770,0.761354,0.996311,0.081247,0.027618
-0.839903,-0.777408,0.770290,0.314158,0.365404,0.876233
0.003907,-0.274381,0.527592,-0.299590,0.894520,0.331781
-0.328304,-0.123297,0.520339,0.429205,-0.839331,0.333625
0.092366,-0.303409,0.705496,0.335771,0.609695,0.718004
-0.734285,-0.813728,0.717195,-0.171778,0.318284,0.932302
0.027339,-0.396439,0.917293,0.339092,-0.940742,0.004632
-0.339385,0.808418,0.577195,-0.037348,-0.864072,0.501981
-0.158193,-0.499451,0.872697,-0.551018,-0.611408,-0.567943
0.204326,-0.329109,-0.977577,-0.115576,-0.859009,0.498744
0.078079,-0.688555,0.829349,-0.243069,0.942832,-0.228003
0.905999,-0.054126,0.451472,0.407159,-0.454310,-0.792353
0.293321,-0.631350,0.709111,0.893123,-0.085441,-0.441623
0.059653,0.533010,0.764513,0.387643,0.665649,-0.637686
-0.647161,-0.833481,0.731056,0.432901,0.588587,-0.682760
0.147578,-0.145740,0.468117,0.637067,-0.049742,-0.769202
0.168675,-0.542143,0.464813,-0.469643,0.671949,0.572643
-0.109256,-0.444016,-0.662209,-0.348634,0.934656,-0.069799
0.013053,-0.400474,0.929450,0.498704,-0.817849,-0.287085
0.598558,-0.444016,0.092755,-0.093493,0.931148,-0.352452
-0.085021,0.026302,0.762331,0.550847,0.484470,-0.679600
-0.092099,0.117278,0.905614,0.273568,-0.504635,0.818843
0.171880,-0.752204,0.818792,0.244155,0.715820,0.654210
0.558168,-0.133067,0.029498,0.058199,0.480842,0.874874
0.199987,-0.322312,-0.963176,0.454540,0.736151,0.501474
-0.164268,-0.361464,0.963842,0.219217,0.917512,-0.331838
0.250460,-0.020709,0.869913,0.873326,0.259848,0.412045
-0.689154,-0.960990,0.697391,-0.113676,-0.933412,0.340324
0.909671,-0.231194,0.464335,-0.316234,0.559944,0.765806
0.091632,0.442600,0.855657,-0.091365,0.188111,0.977889
0.263946,-0.085207,0.894766,0.118640,-0.634860,0.763464
0.511167,0.011292,0.754787,0.898298,-0.290711,0.329466
0.035617,-0.322666,0.166256,0.688657,-0.690925,-0.219942
-0.525987,-0.742787,0.700155,-0.658010,0.519987,-0.544643
-0.131621,-0.260717,0.093150,0.906485,0.419403,0.048854
-0.236104,-0.070339,0.706659,-0.677648,0.542498,-0.496476
0.346396,0.818825,0.471692,-0.575348,0.280856,-0.768177
0.312281,0.109632,0.880054,-0.204851,-0.885500,0.417045
-0.135626,-0.350136,-0.357314,0.720831,0.679008,-0.139109
-0.106452,-0.365783,-0.353740,-0.114857,0.724176,0.679983
-0.242314,-0.395235,0.931361,-0.033004,-0.923658,0.381794
0.470775,0.138306,0.855636,0.092198,0.959387,0.266602
0.165538,0.002584,0.812911,0.386266,0.872842,-0.298236
-0.686416,-0.500301,0.631184,0.241024,-0.879875,0.409545
-0.035216,0.801833,0.509429,0.963901,0.254372,-0.078669
0.697167,0.036072,0.779413,0.722408,-0.550016,-0.419058
-0.203658,-0.293356,-0.447897,0.688524,0.720023,-0.086608
-0.591081,-0.272895,0.871118,0.327968,-0.904729,-0.271851
0.536135,-0.348437,0.862120,0.443206,-0.362521,0.819845
-0.157258,-0.165422,0.122721,0.904282,0.388099,0.177913
0.758655,-0.422847,0.102543,-0.317989,0.946879,-0.047983
0.290583,0.560197,0.564498,0.802063,-0.594989,-0.051800
0.210669,-0.633899,0.835188,0.161410,0.516667,0.840834
0.396068,0.069701,0.845329,0.519339,-0.249731,-0.817265
0.383383,-0.494354,0.081803,-0.018216,0.657393,0.753328
-0.274693,-0.469787,0.407957,0.990787,-0.059948,0.121438
-0.326767,-0.021558,0.842316,0.234631,-0.818978,0.523664
0.053043,0.489114,0.602569,0.661449,0.524705,-0.535882
-0.896118,-0.665617,0.792380,-0.549445,0.834962,-0.030793
-0.456553,-0.247124,0.850192,0.036401,-0.400947,0.915378
-0.447140,-0.349782,0.913698,0.840607,-0.307009,-0.446235
-0.231497,-0.032461,0.838367,-0.274530,-0.799886,0.533681
-0.165737,-0.509151,-0.987822,0.269474,0.220718,-0.937372
-0.599825,-0.159121,0.690076,-0.446361,0.419135,-0.790625
0.284976,0.798081,0.464460,-0.146870,-0.051220,0.987829
0.657042,-0.302559,0.557640,0.056155,0.702389,0.709575
-0.602897,-0.870296,0.810812,-0.458554,0.888356,-0.023491
0.587342,-0.310985,0.522022,-0.708296,0.703667,-0.056300
0.006643,0.451025,0.219995,0.201640,0.100123,0.974329
0.326769,-0.106800,0.040554,-0.032519,-0.194108,0.980441
-0.126615,-0.127828,0.376308,0.959408,-0.271170,-0.077483
0.462764,-0.018797,0.784109,0.847320,-0.527214,-0.063996
-0.090228,-0.038055,-0.005829,0.597569,0.788001,-0.148210
-0.474246,-0.312188,0.903016,0.796400,-0.025953,-0.604213
0.215809,-0.240540,0.875669,0.119591,0.991313,-0.054743
0.421838,-0.322737,0.854950,0.771357,0.174072,-0.612134
0.081951,0.519062,0.854223,0.191590,-0.541453,-0.818609
0.092700,-0.125420,0.466808,-0.215197,-0.228829,0.949383
0.728678,0.293568,0.409640,-0.265174,-0.211930,-0.940621
0.458758,-0.350207,0.463213,0.838576,-0.344323,-0.422176
0.178156,-0.405430,0.908232,0.932388,-0.358131,-0.048930
0.235171,-0.574852,0.838575,0.786380,-0.104023,-0.608922
-0.296992,0.145881,0.892169,0.290699,0.934059,0.207432
-0.119537,0.884668,0.550721,0.860053,0.056134,0.507107
-0.211135,-0.458317,0.200108,-0.760540,0.634496,0.137820
-0.727743,-0.802967,0.762975,0.234896,0.959559,-0.155147
0.549823,-0.047966,0.835749,0.202397,-0.979302,-0.001958
-0.119205,-0.430847,0.851397,-0.049147,0.449620,0.891867
-0.203925,-0.427874,0.241441,0.775215,-0.622846,0.105376
-0.808058,-0.810967,0.780451,-0.124712,0.581037,0.804265
-0.167339,-0.268718,0.952329,0.876427,0.145151,-0.459138
0.404012,-0.145244,0.737477,-0.447373,-0.355825,0.820516
-0.147111,-0.490602,0.567158,-0.612267,-0.740937,0.275938
-0.144840,0.077631,0.114491,0.193466,-0.693798,0.693696
0.328506,0.873482,0.466434,0.621253,-0.461006,0.633654
-0.219548,-0.714680,0.762165,0.964443,0.195675,0.177655
0.847383,-0.065312,0.188409,-0.673872,0.443288,-0.591094
-0.097239,-0.316294,-0.201459,-0.110632,-0.901153,-0.419147
-0.158727,-0.144607,0.353241,0.892201,-0.441915,0.093217
0.471510,0.845658,0.464564,-0.222029,0.738150,0.637054
0.165338,-0.089455,0.149091,0.649660,0.243291,-0.720244
0.226691,-0.393961,0.049593,0.491340,-0.029222,-0.870477
0.123277,-0.711140,0.771558,0.103351,-0.919775,0.378592
-0.408751,-0.234026,0.877456,0.887694,-0.290052,-0.357589
0.500619,0.116216,0.737893,-0.346264,-0.936664,-0.052559
0.740829,0.062197,0.211787,0.123483,-0.123961,0.984574
0.151785,-0.084286,0.467515,0.044415,-0.421992,0.905511
0.483993,-0.420157,0.485241,-0.483891,-0.119250,0.866965
0.171948,-0.716309,0.806656,0.032264,0.580915,0.813324
-0.216009,-0.423343,0.579710,0.921964,0.325669,0.209574
-0.434121,0.351835,0.753395,0.998007,0.009227,-0.062420
0.356412,-0.398350,0.922093,0.439193,-0.401919,0.803474
0.150049,-0.600411,0.822782,-0.374292,0.665964,0.645288
-0.096638,-0.706538,-0.981817,0.092043,0.166261,0.981777
0.096306,-0.375766,0.940422,0.994337,0.106250,-0.002402
-0.316152,-0.611455,0.665305,-0.497473,0.762851,0.413011
0.046634,-0.440830,-0.974648,-0.217141,-0.208361,-0.953643
0.464300,-0.025594,0.766674,-0.479309,0.786462,-0.389539
-0.574856,-0.000036,0.709423,-0.568083,0.810956,0.140115
0.141303,-0.430989,0.963114,-0.361685,0.802052,-0.475286
-0.397201,-0.339800,0.892148,-0.109571,-0.709446,0.696190
0.571586,-0.100570,0.711169,0.929452,-0.017059,0.368549
-0.053642,-0.280541,0.521690,0.449580,-0.885207,0.119530
-0.318422,-0.552055,0.831572,-0.595331,0.736427,0.321335
0.372569,0.287337,0.493220,0.175692,-0.598265,0.781800
0.028808,-0.476583,0.952745,0.901043,0.430612,0.051919
-0.408352,-0.781727,0.776586,-0.208199,0.604440,-0.768964
-0.053777,-0.688839,0.779579,-0.388167,0.334592,-0.858705
-0.510097,-0.339729,0.891545,-0.754492,-0.031975,0.655530
-0.166204,0.767284,0.613769,0.272846,0.596158,-0.755084
0.139567,-0.317002,0.172553,0.002897,0.930035,0.367459
0.023201,-0.365571,0.007242,0.188618,-0.704375,-0.684309
0.024937,0.777054,0.645377,0.661068,0.056142,-0.748222
-0.061187,-0.499451,0.610320,-0.390660,0.839335,-0.378024
-0.329239,0.011505,0.598620,-0.546960,0.750748,-0.370422
-0.109390,-0.398988,-0.705350,0.407461,0.900682,0.150821
-0.280768,-0.326419,0.536631,-0.165700,0.966944,0.193813
0.220885,0.117137,0.870120,0.498574,0.563349,-0.658833
0.031280,0.568338,0.640140,0.978332,0.200845,0.050278
-0.016724,-0.685582,-0.983438,-0.007378,0.169329,0.985532
-0.106118,-0.424546,-0.714701,-0.693986,-0.690050,-0.205461
-0.460960,-0.713689,0.734713,0.005225,-0.309686,0.950825
0.228227,-0.579454,0.685712,-0.127579,0.579684,0.804792
-0.013519,-0.060852,0.830408,0.817857,-0.558666,-0.137848
-0.185698,0.149067,0.889530,-0.684463,0.703616,-0.190878
-0.058717,-0.142271,-0.133776,0.968812,-0.235293,0.077720
-0.236839,-0.632978,0.798053,-0.599341,0.484132,0.637500
0.453952,0.943573,0.477094,-0.145842,0.835033,-0.530518
-0.190172,-0.702432,0.801149,0.888735,0.451383,-0.080019
-0.044229,-0.533647,0.845246,0.316718,-0.333933,0.887794
-0.112059,-0.361039,-0.106678,0.851568,-0.460890,0.249825
-0.145308,-0.191476,0.315067,0.854329,-0.483725,0.190082
0.562907,-0.027293,0.750735,0.075383,-0.148800,0.985990
-0.495210,0.186024,0.578463,-0.754089,-0.619671,-0.217618
-0.779149,-0.881483,0.758382,-0.560513,-0.821596,0.103952
0.332910,-0.559560,0.706992,0.340380,0.367416,-0.865533
-0.388257,-0.564374,0.533930,0.812827,-0.543239,-0.210247
-0.145109,-0.408262,-0.612231,0.872944,-0.258293,-0.413827
