0.317093,0.355167,0.362804,-0.673965,-0.408641,0.615453
0.211515,-0.060370,-0.184477,0.054644,-0.930035,0.363385
0.122312,-0.155215,0.781445,0.967086,0.249111,-0.051844
-0.142369,-0.307665,0.504737,0.324038,0.478913,-0.815868
-0.226430,-0.009100,0.475735,0.062421,-0.925518,0.373523
-0.451210,0.435862,0.250401,-0.697711,-0.190306,0.690640
-0.480417,0.387678,0.728699,-0.166606,-0.386509,0.907112
0.082789,-0.081656,-0.400403,-0.392270,0.898356,0.197690
-0.342875,0.347792,0.169100,-0.556769,-0.375860,-0.740769
0.570284,0.522850,0.273384,0.869138,0.072941,-0.489162
-0.174666,0.431412,-0.095587,0.754291,0.512949,0.409791
-0.514550,0.059689,0.726368,0.102492,0.972048,-0.211231
-0.156741,0.175499,0.696374,-0.702337,-0.711748,0.011771
-0.238923,-0.537721,0.484300,0.114815,-0.011590,0.993319
-0.462701,0.355368,-0.092660,0.635576,-0.231665,-0.736461
-0.131924,0.087910,0.578085,0.488333,0.805727,-0.335165
0.319266,0.149723,0.259760,-0.514655,0.463966,0.721017
0.910380,-0.484607,0.389424,0.690744,-0.431366,-0.580341
-0.375254,0.027018,0.903752,0.081658,0.083694,0.993140
0.610979,-0.311072,0.672961,0.662000,0.396481,0.636049
-0.216110,0.482642,0.173068,-0.123705,-0.008790,0.992280
0.038710,-0.221398,0.190661,-0.112748,-0.735597,-0.667970
-0.147841,0.364708,0.744291,0.269356,0.641169,0.718574
-0.445529,0.665678,0.580747,0.102095,0.007661,0.994745
0.550355,0.190773,0.300799,0.283849,0.192973,-0.939250
-0.202408,-0.916098,0.834670,0.498382,-0.471386,-0.727606
-0.575132,-0.072476,0.852759,-0.649292,0.429906,0.627377
-0.050785,-0.467890,0.706162,0.930996,0.004713,0.364998
-0.574089,0.067587,0.709668,0.678115,0.734818,0.014246
-0.407048,0.456707,0.734189,-0.063227,0.571176,-0.818389
-0.122272,0.032951,0.687677,-0.378429,0.297068,0.876665
-0.159039,0.413494,0.170307,-0.019182,-0.022655,0.999559
-0.126826,0.564900,0.170819,0.112370,0.039895,0.992865
0.085545,-0.098693,-0.009226,0.464791,0.870287,-0.163004
-0.221669,0.457107,0.979067,-0.532446,-0.817329,0.220168
-0.188286,-0.344424,0.837084,0.320038,0.746783,0.583001
0.415321,-0.706686,0.682038,0.078267,0.704259,0.705616
-0.483591,0.193418,0.743365,-0.423053,0.288646,-0.858900
-0.399403,0.496032,0.744903,-0.041599,-0.339944,0.939525
0.635712,-0.682233,0.729212,-0.670319,0.636911,0.380810
-0.420293,-0.349836,0.257461,-0.271952,-0.960370,0.061084
0.099040,-0.316563,0.327337,-0.581655,0.745405,0.325651
-0.380392,0.520524,0.290795,0.466843,0.073704,-0.881264
-0.235080,0.461036,-0.085947,0.358849,0.132163,0.923991
0.241012,-0.716186,0.801286,-0.084910,-0.879015,-0.469172
-0.451754,0.059810,0.747383,0.673013,0.696796,-0.248051
-0.076605,0.014952,0.886837,-0.132647,-0.767891,0.626696
-0.155405,0.176702,0.640123,0.735560,0.660569,-0.150332
-0.678123,0.367835,0.134890,-0.124950,0.968530,0.215262
-0.539451,-0.387717,0.466889,-0.664373,-0.566298,-0.487766
-0.588711,0.217951,0.560277,-0.200034,-0.205172,0.958066
0.080866,0.591197,0.208733,-0.506157,-0.442361,0.740352
-0.266456,0.565141,0.854412,-0.140957,-0.287458,0.947364
0.063194,-0.737112,0.762215,0.808261,-0.588306,0.024715
-0.051787,0.326465,0.566362,-0.710453,0.503723,0.491446
-0.507073,0.250822,-0.107111,0.743570,-0.066221,-0.665371
-0.530679,0.405436,0.535641,-0.603509,0.235568,0.761764
0.435543,-0.229816,0.473040,-0.262076,0.800504,0.538990
0.341954,0.581737,0.201739,-0.500457,-0.474498,0.724151
0.137687,-0.163112,0.750822,0.905862,-0.097324,-0.412239
0.121310,-0.196143,0.667885,0.016656,0.395152,0.918465
-0.590716,0.032189,0.822831,0.169935,0.659007,0.732688
-0.504900,-0.366150,0.467931,-0.134015,0.863296,0.486580
-0.665964,-0.273190,0.324443,0.748272,-0.237455,-0.619438
0.909043,-0.370039,0.337423,0.396895,0.857949,0.326186
-0.702063,0.215866,-0.144695,0.044262,-0.278116,0.959527
-0.275147,0.547864,0.631426,-0.444593,0.895030,0.035479
0.860367,-0.364988,0.377288,0.838498,0.444443,-0.315263
-0.042722,0.441233,0.646158,0.120939,0.127535,0.984433
-0.092063,0.143431,0.694969,0.379991,0.862825,-0.333378
0.158078,0.491502,0.160651,0.446767,0.703545,0.552651
-0.094236,-0.392567,0.482167,0.278184,0.423263,-0.862243
-0.375840,-0.455504,0.776617,0.574791,0.415293,0.705086
-0.462994,0.512107,0.584203,-0.006648,0.121155,0.992611
-0.181434,-0.056722,0.895038,0.952390,-0.300885,-0.049209
0.599406,-0.395213,0.586534,0.924702,0.083079,-0.371515
-0.468885,0.152530,0.620612,0.890241,-0.387094,0.240060
-0.183397,-0.138339,0.833000,-0.097088,0.911739,0.399132
-0.180513,0.432335,-0.082227,0.754291,0.512949,0.409791
-0.799703,0.440592,0.165843,-0.353293,0.544328,-0.760849
-0.386619,0.638620,0.142661,0.331314,-0.265324,0.905447
0.334600,0.449130,0.384762,0.594080,0.113262,-0.796392
0.865465,-0.307784,0.364110,-0.554688,0.474857,0.683251
-0.151310,-0.635613,0.799319,0.806578,-0.048314,-0.589149
-0.606427,-0.129640,0.319268,-0.557817,0.575250,0.598270
-0.712299,0.195382,0.725657,0.422961,-0.609510,0.670523
-0.236835,0.346589,0.151573,0.536239,0.746497,-0.393941
-0.233366,-0.147558,0.835629,-0.691918,0.661868,-0.288409
-0.254800,-0.402990,0.519800,0.531926,0.257055,0.806832
0.033694,-0.615369,0.678864,0.069258,-0.079740,0.994407
-0.685184,0.490940,0.171134,-0.388718,-0.157221,0.907844
-0.117801,0.121903,0.637196,0.800513,0.551376,-0.234869
-0.167102,-0.255472,0.923097,0.210544,-0.243058,0.946886
0.271092,-0.300569,0.679128,0.554489,-0.576775,-0.599894
-0.483132,0.118937,0.245639,0.303489,-0.621643,0.722118
-0.190540,-0.476269,0.642239,0.386349,0.457941,-0.800640
-0.036120,0.224044,-0.100779,0.824810,0.505344,-0.253606
-0.036372,-0.225006,0.687908,0.068726,0.441168,0.894789
-0.157912,0.307785,0.896493,-0.009033,-0.868138,0.496241
-0.511793,-0.177262,0.524579,0.820476,-0.519258,0.239145
0.330045,0.485810,0.354718,-0.592913,0.407129,0.694766
0.059308,-0.096047,-0.402024,-0.392270,0.898356,0.197690
0.331216,-0.034996,0.660957,0.493930,0.048381,0.868155
-0.416659,-0.370320,0.763753,0.317887,0.446177,0.836585
0.084668,-0.085424,-0.436565,0.662782,-0.721706,0.199653
-0.118470,-0.059408,0.927644,0.166680,-0.873526,-0.457351
0.615658,0.111561,0.278609,0.016189,-0.623792,0.781422
0.275229,-0.475427,0.430397,0.561687,0.198419,0.803205
0.122772,0.112964,0.322872,-0.440918,0.110665,-0.890699
-0.320187,0.495350,-0.073149,0.159763,-0.085584,0.983438
-0.480039,-0.071153,0.698623,-0.668135,0.190174,-0.719326
-0.412355,-0.153772,0.853982,-0.686874,-0.631110,0.360423
-0.060980,-0.206325,0.681493,0.023632,0.383235,0.923348
-0.439638,0.011505,0.579242,0.346315,-0.645019,0.681187
-0.497127,0.275315,-0.107293,0.700822,-0.039266,-0.712254
0.328250,0.211617,-0.129599,-0.636741,0.172842,0.751456
0.650796,-0.613846,0.744655,-0.505663,0.321793,-0.800471
0.341702,0.409485,0.379834,-0.397880,-0.362785,0.842662
-0.202992,0.335164,0.884819,-0.518160,-0.586624,0.622401
0.267459,-0.134971,-0.065097,-0.324031,-0.389924,0.861953
-0.379933,-0.458710,0.782619,0.409832,0.292473,0.864001
-0.073180,0.556602,0.639676,0.218637,-0.882034,-0.417389
-0.822182,-0.006533,0.708742,0.304237,-0.708353,0.636927
0.594225,-0.383107,0.572232,0.871424,0.485677,-0.068828
0.414400,-0.107271,0.288613,0.515951,0.189573,-0.835378
-0.089182,-0.046220,0.407397,-0.427655,-0.899058,-0.093841
-0.438636,0.598854,0.576613,-0.213164,-0.006945,0.976992
0.087259,0.519322,0.181468,0.735524,0.593842,-0.326124
0.387494,-0.499719,0.645811,0.411098,-0.379468,-0.828856
-0.589966,-0.233103,0.517866,0.311179,-0.390839,-0.866264
-0.229733,-0.427884,0.554821,0.176692,-0.327382,-0.928225
-0.120183,0.237714,-0.018949,-0.193482,0.196332,0.961259
0.206417,-0.065101,0.558045,0.410291,0.596278,0.690010
-0.264702,0.230418,0.672481,-0.538541,-0.749208,0.385567
-0.490903,-0.066663,0.746524,0.734236,0.251151,-0.630731
0.002193,-0.082338,0.363002,0.247972,0.968755,-0.004928
-0.640478,0.553637,0.183468,-0.386436,0.520043,0.761723
-0.647037,0.150646,-0.150234,-0.336975,0.131259,0.932319
-0.442186,0.812154,0.225930,-0.202311,0.976677,0.071913
0.121685,0.131845,-0.145290,-0.559395,0.480338,0.675538
0.090809,-0.736030,0.697151,-0.150447,-0.916567,-0.370500
-0.190540,0.269943,0.811158,0.536074,0.836310,-0.114936
0.206124,-0.357572,0.215761,0.553011,0.346991,-0.757480
0.006079,0.413413,0.587873,0.622234,0.037717,-0.781923
0.637635,-0.411328,0.643810,-0.921441,0.313521,-0.229457
-0.093068,0.121142,0.687958,-0.116611,-0.496838,0.859973
0.906787,-0.464803,0.383141,0.626068,-0.352646,-0.695471
0.348972,0.374008,0.561087,-0.764182,0.283339,0.579436
0.168354,0.466689,0.168984,0.364124,0.800470,0.476089
0.153355,0.315602,0.622150,0.056250,0.940514,0.335067
-0.204329,0.490660,0.687214,0.616994,0.116086,0.778359
-0.405128,-0.392247,0.747086,0.760766,0.599770,0.248015
0.324280,0.451857,0.162354,0.220641,-0.929201,0.296483
-0.452213,0.469053,0.542833,0.916838,0.126721,0.378615
-0.232658,-0.230136,0.919096,-0.350731,0.806815,0.475434
-0.736448,0.086787,0.444501,0.334838,0.602638,0.724369
-0.306189,0.360178,0.144397,0.552432,0.510829,0.658690
-0.576134,0.848032,-0.120455,-0.468300,-0.839863,0.274454
0.222837,-0.071714,0.493163,-0.424638,0.800761,0.422449
0.184231,0.454582,0.216786,-0.502198,0.660739,0.557872
-0.435961,0.612082,0.566428,-0.513805,0.455213,0.727177
0.294365,-0.528861,0.630516,-0.314006,-0.361101,-0.878070
-0.409389,0.580054,-0.056334,0.045220,0.091402,0.994787
-0.166475,0.423876,-0.093818,0.754291,0.512949,0.409791
-0.320898,0.194661,0.921394,-0.728179,0.348413,-0.590223
-0.437590,-0.121782,0.912250,0.314621,-0.045291,0.948136
0.272304,-0.136654,0.389672,0.778358,0.577243,0.246877
-0.328250,-0.308906,0.840093,0.378550,0.340434,0.860700
0.329209,-0.064580,0.549844,-0.412761,0.862363,0.293186
-0.420252,-0.170888,0.885051,-0.384708,0.915514,-0.117615
-0.894087,0.025335,0.532548,0.065322,-0.996003,-0.060911
-0.654891,-0.499037,0.745151,-0.037730,-0.980481,0.192958
-0.005786,-0.112042,0.415152,-0.612626,-0.781360,-0.119025
0.146044,-0.231259,0.796723,0.714566,0.329345,0.617193
-0.223674,-0.116933,0.921609,-0.697103,0.698192,0.163016
-0.572750,-0.427083,0.391541,-0.535301,0.801736,0.265842
-0.066412,-0.076204,0.747714,-0.093001,0.995140,-0.032349
0.003404,0.053956,0.819541,0.158576,0.917846,0.363884
0.428481,-0.246892,0.301625,-0.874388,0.387519,-0.292019
-0.054628,0.411610,0.654128,0.515124,0.855528,-0.052148
0.048485,-0.484806,0.582830,0.707275,0.438701,0.554350
-0.803131,0.118416,0.240447,-0.011433,-0.698371,0.715644
-0.049615,-0.289384,0.501397,0.101552,-0.391134,0.914714
-0.183482,-0.030064,0.634402,0.458969,-0.781240,0.423097
0.388496,0.206446,0.388647,0.956668,0.166113,-0.239148
-0.380476,-0.176020,0.269201,-0.353893,-0.024419,0.934967
-0.329839,-0.057564,0.945899,-0.360779,-0.156144,0.919488
0.306608,-0.201555,0.234825,-0.400329,-0.678820,0.615581
-0.498966,0.123988,0.688900,0.042931,0.706659,-0.706250
-0.039628,0.613686,0.190066,0.720746,0.171347,-0.671688
0.404666,0.292192,0.280825,0.850005,-0.393169,0.350584
-0.217405,0.236712,0.868219,0.743911,-0.395568,0.538630
-0.128247,-0.751223,0.537575,-0.700213,-0.468677,-0.538557
-0.077107,0.541170,0.159989,0.000093,-0.276756,0.960940
0.844615,-0.091918,0.348915,0.287723,0.459161,0.840468
0.366938,-0.532470,0.616577,0.911326,-0.396683,-0.110125
-0.461447,-0.066744,0.907704,-0.150562,0.060514,0.986747
-0.617456,0.142549,0.198102,-0.596273,0.668069,0.445132
0.295285,0.409765,0.360654,-0.650014,-0.250640,0.717399
0.150555,-0.066864,-0.724268,0.322637,0.938692,0.121501
-0.033822,-0.294075,0.768316,-0.406749,-0.006548,-0.913517
-0.498298,-0.429166,0.523306,0.008027,-0.769705,0.638349
0.909209,-0.383468,0.367317,0.855572,0.332047,0.397167
0.015813,-0.103302,0.429306,-0.476407,-0.779041,-0.407593
-0.360797,0.123828,0.785628,-0.278297,-0.364634,0.888590
0.026299,-0.370721,0.478232,0.197454,-0.291251,0.936047
-0.060437,-0.259120,0.750145,0.155004,-0.374858,0.914032
-0.341161,0.810631,0.187106,0.162055,-0.805834,0.569535
0.117592,0.501083,0.196448,0.717775,0.696273,-0.001728
0.064780,0.603504,0.208535,-0.375304,-0.327189,0.867234
-0.301887,-0.257596,0.824881,0.153714,-0.855588,0.494308
-0.442061,0.391806,-0.088064,-0.608038,0.233378,0.758831
-0.208090,0.335805,0.614015,-0.235181,-0.762483,0.602751
-0.352359,-0.017437,0.594157,-0.448989,-0.737277,0.504809
-0.238589,-0.199751,0.934291,-0.409776,0.728039,-0.549584
-0.137480,0.513349,0.632616,-0.297005,0.927726,0.226082
-0.685727,0.041369,0.203327,-0.491491,0.575192,0.653904
0.483423,-0.134811,0.291490,-0.411053,-0.197672,0.889922
-0.085130,0.544376,0.167050,0.131170,0.022729,0.991099
0.042928,-0.071915,0.373320,-0.485003,0.874513,-0.000527
-0.497714,-0.324861,0.679889,0.725172,0.670243,-0.157794
0.017318,-0.577607,0.484565,0.931097,-0.360953,-0.052649
-0.767450,0.060491,0.723557,0.972684,-0.093625,-0.212413
-0.670977,0.085505,0.734966,0.250927,0.630512,0.734500
-0.692495,0.697387,0.179368,0.181307,0.283637,-0.941636
-0.356870,0.510944,0.727046,0.283285,-0.427008,0.858728
0.033151,-0.035235,0.714479,-0.104437,-0.312189,0.944262
-0.476112,-0.117894,0.538170,-0.142253,0.363013,0.920861
-0.426309,-0.045218,0.908216,0.137960,-0.438502,0.888078
0.273727,0.400104,0.360257,0.345371,0.221476,-0.911958
-0.581984,0.072797,0.350882,0.351379,-0.364037,0.862560
0.649584,-0.379579,0.628780,-0.407251,0.811523,0.419019
0.250998,-0.287701,-0.993155,-0.003566,0.094536,0.995515
-0.113206,0.574761,0.169050,0.078375,0.006052,0.996906
-0.726755,-0.082778,0.511864,0.490368,-0.084026,-0.867456
0.569241,-0.271306,0.284396,-0.376112,0.040767,0.925677
-0.325409,0.088592,0.908613,-0.381358,-0.023103,0.924139
-0.542292,-0.347711,0.687048,0.297795,0.501223,-0.812462
0.490191,-0.297483,0.598886,-0.314137,0.714577,-0.625059
-0.584073,-0.188006,0.746176,0.326708,0.305376,0.894431
-0.252168,0.235749,0.775294,-0.117847,-0.609764,0.783773
-0.026133,-0.194821,0.693679,0.141422,0.156825,0.977449
0.572625,-0.541730,0.624299,0.876576,-0.391949,-0.279269
-0.395476,-0.171249,0.885729,-0.494509,0.866252,-0.071195
0.316675,-0.304738,0.705948,-0.131134,0.903641,0.407723
-0.249412,-0.367754,0.831115,0.326211,0.442152,0.835516
-0.575591,0.543455,0.189090,-0.294048,-0.928759,0.225703
-0.323571,-0.045058,0.104582,-0.496038,0.759037,-0.421675
-0.415698,-0.479515,0.770300,-0.198717,0.420732,0.885153
0.156239,-0.358093,0.181501,0.794500,0.453166,0.404240
-0.619001,0.105829,0.714876,-0.709373,0.670840,0.216250
0.137980,-0.729495,0.676301,0.354212,0.900446,0.252449
-0.148844,-0.265934,0.577589,0.013823,0.292309,0.956224
-0.804426,-0.145074,0.279783,0.875558,-0.375329,-0.304181
-0.351438,0.189169,0.942608,-0.448593,-0.610213,-0.652997
0.581232,-0.305299,0.284760,0.446919,-0.158380,-0.880443
0.311453,0.397178,0.364870,0.457471,0.426648,-0.780187
0.329752,-0.180991,0.653599,0.784714,0.081359,0.614495
-0.601831,0.230738,-0.144298,0.574628,0.174805,-0.799529
-0.311412,0.150084,0.829908,0.287034,0.215531,0.933358
-0.004493,0.049187,0.374576,0.646820,-0.433489,0.627464
-0.605047,0.145193,0.240265,-0.443859,-0.895854,-0.020839
0.240762,0.211376,0.598522,-0.062112,-0.435848,0.897874
0.173786,0.005813,0.680931,0.502224,0.570309,-0.650014
-0.766320,0.052233,0.506209,0.548656,0.424728,0.720127
0.098329,-0.095847,-0.207560,0.819841,-0.569475,0.059659
0.307860,0.210255,0.433737,-0.077145,0.507272,0.858326
-0.770918,0.301812,0.471800,-0.456406,0.258680,-0.851339
-0.037749,-0.069350,0.350849,-0.216612,-0.975027,-0.049009
0.363804,0.372205,0.597894,-0.827833,-0.187464,-0.528725
-0.488564,0.379139,0.729642,-0.186668,-0.283859,0.940521
-0.466294,0.061453,0.760396,0.866215,-0.470346,-0.168660
0.199649,-0.395173,0.613866,0.007243,-0.665715,0.746171
-0.537572,0.431532,-0.126689,-0.322378,-0.432187,0.842191
-0.508450,0.265333,0.551018,0.240717,-0.044101,0.969593
-0.307026,-0.317526,0.828866,0.299641,0.407571,0.862613
-0.111074,-0.004249,0.464492,0.084227,0.943243,-0.321246
-0.471058,-0.211015,0.712214,0.398061,0.634425,0.662611
-0.692161,0.092600,0.679823,-0.722830,0.500204,-0.476773
-0.556290,-0.303816,0.697168,0.324019,-0.632921,0.703152
-0.233491,0.010022,0.695729,-0.312422,0.817374,-0.484038
-0.558169,0.823940,-0.157393,0.343075,0.919847,-0.190214
-0.191920,0.376814,0.931480,-0.786124,-0.594660,0.168488
-0.059182,-0.060330,0.372973,-0.208203,-0.961076,0.181617
0.490943,-0.007456,-0.062005,0.326833,-0.111263,0.938510
-0.336648,0.566745,-0.076671,0.508469,0.253408,0.822948
-0.050326,-0.482322,0.708577,0.930996,0.004713,0.364998
-0.360922,-0.297122,0.590569,0.292880,0.653459,0.698006
-0.773465,0.701315,0.181865,-0.023559,-0.516355,0.856050
-0.167520,-0.608434,0.766167,0.865569,-0.486828,0.117423
-0.494330,-0.175138,0.335340,-0.413941,0.186842,0.890923
-0.589548,0.420709,0.156765,0.040802,0.490846,0.870290
0.011927,-0.081857,0.478530,-0.032500,0.991682,-0.124540
-0.107984,0.037802,0.502439,0.839383,0.515427,-0.172547
-0.039756,-0.482281,0.653020,0.789602,-0.390665,0.473191
-0.631747,0.834803,-0.170373,0.326779,0.863365,-0.384470
0.296537,-0.233744,0.664941,0.833899,-0.162141,0.527563
-0.737326,-0.316523,0.331107,-0.678262,0.115466,0.725691
-0.801667,-0.006894,0.737512,-0.560138,0.240007,0.792870
-0.510079,0.367795,0.161544,0.001810,0.460739,0.887534
-0.419416,-0.445322,0.516758,0.575716,-0.700095,0.422395
0.191876,0.582418,0.203310,-0.323044,0.130255,-0.937377
0.878794,-0.157059,0.348931,0.276751,0.526779,0.803687
-0.251666,-0.367474,0.546074,-0.324299,-0.070455,0.943327
-0.336273,0.347631,0.715571,-0.305221,-0.588754,0.748471
0.043890,-0.004249,0.067164,0.898706,0.436418,0.043200
-0.693413,-0.010021,0.531358,-0.347192,0.078176,0.934530
0.052078,-0.344704,0.313034,0.764638,-0.632929,-0.121364
-0.514884,0.010383,0.825410,-0.358986,-0.390639,-0.847661
0.130835,-0.062374,-0.442914,-0.067698,-0.993648,-0.089891
0.489689,-0.238635,0.667091,0.964608,0.026009,0.262403
-0.406966,-0.333881,0.734255,0.999907,0.011555,0.007302
-0.608013,-0.297282,0.718845,-0.018822,-0.630157,0.776239
0.629278,-0.532991,0.705848,0.677452,-0.601468,-0.423432
-0.269088,-0.379339,0.545991,0.078782,0.090016,0.992820
-0.711922,0.093122,0.759487,0.899053,0.195492,-0.391773
-0.145878,0.536118,0.581805,-0.126367,-0.755775,0.642522
-0.211892,0.361701,0.909787,0.350809,-0.336429,0.873927
0.129833,-0.073438,-0.812166,0.598704,-0.800419,0.029733
0.143787,-0.332558,0.373138,0.910352,-0.327905,-0.252464
-0.492407,0.374168,0.562079,-0.424191,0.175557,0.888393
0.421504,0.166800,0.300451,-0.364734,0.653884,-0.662876
-0.654223,0.041249,0.742869,-0.639566,-0.591669,-0.490798
0.302762,0.357653,0.344483,-0.471208,-0.473717,0.744013
0.400280,-0.373327,0.745333,0.734872,-0.371198,-0.567604
-0.038879,0.030386,0.738339,0.573593,0.570051,-0.588245
-0.429152,0.140584,0.810215,0.999044,0.042859,-0.008648
-0.265370,0.422072,0.938342,-0.587083,-0.615923,0.525331
-0.406046,-0.359937,0.541411,-0.422975,0.019223,0.905938
0.133467,-0.080454,-0.882191,-0.118875,-0.988496,-0.093512
-0.401785,0.631003,0.578564,-0.122282,-0.133541,0.983470
-0.521320,0.251303,0.744291,0.111491,0.401718,0.908951
-0.239925,-0.092199,0.719324,-0.228999,0.646874,0.727402
0.534269,-0.377334,0.293110,0.149507,0.017834,0.988600
0.351647,0.510302,0.389276,-0.325281,-0.206567,0.922780
-0.758759,0.029184,0.506688,-0.530859,-0.363379,-0.765600
-0.538490,0.691815,-0.159973,0.869836,0.075629,-0.487509
0.092188,0.511626,0.192811,0.796453,0.430129,-0.425033
-0.571539,0.663634,0.197755,-0.420740,0.769414,-0.480603
-0.517893,-0.363465,0.761041,0.977399,-0.153855,0.144980
-0.420671,0.779003,0.239769,-0.520036,0.574161,0.632377
0.231025,-0.060250,0.390731,-0.717458,-0.690871,0.089167
-0.152605,0.233504,0.126507,0.756376,0.346792,0.554645
-0.464456,0.406559,0.252220,-0.655925,-0.201675,0.727385
-0.440222,0.009621,0.791961,-0.344255,0.201512,-0.916996
0.243684,0.421952,0.562608,0.191106,0.611278,-0.767996
0.129290,-0.367874,0.373353,-0.585860,0.711057,0.388799
-0.197142,-0.859898,0.800063,-0.754009,-0.145875,-0.640461
0.280411,0.117494,0.280345,-0.635181,0.771157,0.043151
0.039503,-0.212779,0.665950,0.899586,0.349319,-0.262148
0.047860,-0.131724,0.159030,0.986542,0.163356,-0.007047
0.168648,-0.153772,0.715852,0.497306,0.813276,0.302107
0.261902,-0.031388,0.457861,0.643969,-0.675951,0.358321
-0.606093,-0.129480,0.494072,0.719705,0.693073,0.040928
-0.574714,0.773953,-0.194398,-0.525608,-0.416377,0.741867
-0.265997,0.014792,0.714793,0.890343,0.013912,0.455079
0.195304,-0.989737,0.351973,-0.627006,-0.748097,-0.217286
-0.929641,-0.089433,0.518180,0.153451,-0.183885,0.970896
-0.268879,-0.199311,0.918749,-0.773312,0.051052,-0.631967
-0.404375,-0.278241,0.608476,0.454421,0.813878,0.362082
-0.237337,0.320653,0.491708,-0.458963,0.229471,-0.858310
-0.499678,-0.143028,0.182956,0.503221,-0.388639,0.771835
-0.584534,0.136936,0.203046,-0.725610,0.463958,0.508165
-0.004325,-0.411448,0.172738,-0.323017,0.267437,0.907820
-0.004868,-0.324261,0.754460,0.266622,-0.855261,0.444344
-0.376256,0.618777,0.568544,-0.335063,-0.466260,0.818739
-0.481544,0.653531,-0.072091,-0.201851,-0.097825,-0.974519
-0.598111,0.170248,0.294168,0.925601,0.228133,0.302022
0.000938,-0.562254,0.461516,0.384865,0.551168,0.740333
0.075141,-0.066223,-0.275335,0.597389,0.782956,-0.173513
-0.362470,-0.219674,0.654541,-0.204579,-0.762519,0.613769
-0.475403,0.093803,0.319698,0.869533,0.367707,0.329702
0.013097,-0.709934,0.729245,-0.419091,-0.895328,0.150833
-0.020243,-0.103343,0.887002,0.924194,0.381205,0.023421
0.468299,-0.068147,0.627738,-0.706139,0.586006,0.397447
-0.071884,-0.056442,0.382877,0.953808,0.167741,0.249226
0.389208,-0.193097,0.703186,0.172202,0.592846,0.786689
-0.819423,0.330273,0.482068,-0.340928,0.132521,-0.930702
0.317178,-0.208450,0.234643,-0.400329,-0.678820,0.615581
-0.495080,0.093963,0.672713,0.060710,-0.861176,0.504669
-0.057721,-0.154333,0.937284,0.287962,-0.804131,-0.520049
-0.704735,-0.249498,0.684866,-0.302042,0.913009,0.274198
0.952076,-0.172131,0.344268,0.625081,0.615813,0.479634
-0.156741,-0.743406,0.563336,-0.704574,-0.304227,-0.641110
-0.573212,0.082859,0.244614,0.281174,0.458974,-0.842783
-0.171154,0.432735,-0.091090,0.754291,0.512949,0.409791
-0.250539,0.340536,0.794259,-0.071942,-0.894987,0.440254
-0.413609,0.516396,0.279882,0.573454,0.161371,-0.803188
-0.578475,0.309027,0.543726,0.936746,0.083076,-0.340008
0.699179,-0.296560,0.305379,-0.145976,0.220899,0.964310
-0.313126,0.027059,0.918220,-0.047808,0.287158,-0.956689
-0.429986,0.227011,0.629689,-0.719168,0.104683,-0.686905
0.367649,0.135894,0.310356,-0.532057,0.547181,-0.646149
-0.679543,0.197788,-0.149771,0.135187,0.184765,-0.973441
-0.437172,0.085465,0.913788,0.359997,0.131154,0.923689
0.351186,0.320051,0.352717,0.987597,0.140065,0.070949
-0.342248,-0.093883,0.894806,-0.548002,0.004482,-0.836465
0.184983,0.086547,0.187635,0.410019,0.601453,-0.685667
-0.641146,-0.332919,0.692372,-0.142014,-0.516807,0.844241
0.117926,-0.078810,-0.247177,0.990589,-0.089915,0.103196
-0.382483,0.650927,-0.083483,0.274235,0.438392,0.855925
0.215192,0.159666,0.560955,-0.184073,-0.778219,0.600410
0.227348,-0.590916,0.617570,-0.106426,-0.037511,0.993613
0.046312,-0.090235,0.249971,-0.354313,0.934850,-0.022759
0.091311,0.602782,0.214422,0.319529,0.285738,-0.903468
-0.165891,0.254109,0.120091,0.806311,0.537126,0.247705
-0.104934,-0.235589,-0.039105,-0.426809,0.651159,0.627556
0.378762,-0.556162,0.409679,0.570662,0.397587,0.718519
-0.526334,0.103143,0.825576,-0.399490,0.387181,-0.830963
0.361088,0.322537,0.371947,0.934498,0.071125,-0.348790
-0.256638,-0.902550,0.821822,0.470829,-0.497334,-0.728683
-0.099920,-0.069751,0.041601,-0.227793,-0.952010,0.204420
-0.473939,0.149042,-0.085170,0.663153,0.255861,-0.703394
-0.040674,0.301853,0.716348,-0.320318,-0.400497,0.858486
0.858447,-0.203719,0.353065,-0.123218,0.061682,0.990461
-0.478160,-0.196143,0.649730,-0.394502,-0.658985,0.640395
-0.673109,0.035637,0.516460,0.980597,-0.097909,-0.169833
0.310576,-0.621302,0.453529,-0.446819,-0.453647,-0.771075
0.330255,-0.342499,0.339837,-0.628154,0.326773,-0.706146
-0.263322,0.028782,0.751104,0.151353,-0.926347,0.344925
-0.207129,0.373166,0.914648,-0.591774,-0.690520,0.415916
-0.004409,-0.208450,0.860100,-0.688180,-0.697063,0.201276
-0.169818,0.247616,0.750277,-0.492171,-0.859468,0.138137
-0.332680,0.110519,0.786719,-0.292121,-0.352926,0.888880
-0.497755,0.277239,-0.096248,0.809079,-0.155381,-0.566787
-0.380351,-0.116812,0.767308,-0.124449,-0.872050,0.473330
0.905659,-0.348232,0.339506,0.603358,0.796962,0.028481
-0.249996,0.022970,0.746309,-0.229099,-0.949033,0.216447
0.245691,0.061092,0.497065,0.171958,-0.650016,0.740210
0.345504,0.242163,0.587873,-0.445575,-0.114492,-0.887893
0.019113,-0.182834,0.953025,0.792920,0.513434,0.328120
0.775972,-0.198749,0.346897,-0.333769,0.207663,0.919497
-0.590300,0.425519,0.147390,0.018839,0.430749,0.902275
0.281204,0.610078,0.175929,0.321993,0.130494,0.937706
-0.765695,0.006093,0.763455,-0.706018,0.556756,0.437677
0.208755,-0.217630,-0.998479,0.057293,-0.024460,-0.998058
0.082411,-0.210815,0.669985,-0.113286,0.639230,0.760626
-0.208006,-0.197506,0.769771,0.290081,0.625002,0.724725
0.030185,0.441754,0.174920,-0.192432,0.252139,0.948365
-0.593641,0.043454,0.823162,0.120158,0.668195,0.734219
-0.671605,0.169767,0.754989,0.634798,0.235671,0.735861
-0.481169,-0.501884,0.607963,-0.439887,0.830209,0.342420
-0.098291,0.081776,0.547132,0.995413,0.029136,0.091124
-0.521361,0.434058,0.149242,-0.028931,0.683035,0.729812
-0.679752,-0.262206,0.713322,-0.407434,-0.465265,-0.785828
0.422800,-0.362062,0.751219,-0.813761,-0.125037,0.567591
-0.107231,0.046140,0.522066,-0.785407,-0.586117,0.199003
-0.494789,0.296801,0.552324,0.047752,-0.142330,0.988667
-0.627985,-0.065061,0.542568,0.571423,0.157801,-0.805342
-0.284465,0.638740,0.597447,0.411181,-0.564166,0.715994
-0.347554,0.487693,0.582169,0.110561,0.785726,0.608614
0.418536,-0.062775,0.636171,-0.191821,-0.979411,-0.062925
-0.400782,-0.225206,0.654277,0.422066,0.681463,-0.597886
-0.522865,-0.005170,0.822203,-0.213511,-0.416784,-0.883575
-0.258309,-0.065702,0.560922,0.681964,0.621382,0.385759
-0.499343,0.720316,0.243126,-0.392492,0.439403,0.808007
-0.903696,-0.019963,0.719837,-0.453297,0.859566,-0.235939
-0.099836,-0.037762,0.422973,-0.188936,-0.965353,0.179989
-0.504439,0.407360,0.767010,0.254916,0.935599,0.244279
0.254672,0.209894,0.597629,-0.014067,-0.289021,0.957219
0.363470,0.533192,0.169811,-0.629734,-0.309429,0.712523
0.525370,0.442196,0.446403,-0.572769,0.585153,-0.574048
-0.760888,0.017598,0.719655,0.884253,0.280314,-0.373524
0.324323,-0.290227,0.701681,-0.206985,0.931956,0.297684
-0.452131,0.533713,0.758627,0.552647,0.831792,-0.051985
-0.260147,0.086507,0.787364,-0.268810,0.782059,-0.562250
-0.091729,0.039246,0.797483,0.085381,0.414459,0.906054
0.321607,-0.230337,-0.993518,0.145390,-0.009447,-0.989329
-0.313169,-0.207769,0.798525,0.803296,0.589557,0.084482
-0.208381,0.404314,0.730286,-0.134589,0.497837,0.856764
0.883430,-0.284093,0.364176,0.530866,-0.274513,-0.801763
-0.354154,-0.407600,0.722664,0.740541,0.671984,0.005961
-0.287431,-0.322055,0.743696,0.193956,-0.448152,-0.872663
0.348388,-0.194580,0.711850,-0.507578,0.691866,0.513504
-0.480707,0.643189,-0.077101,0.149767,0.240773,0.958957
0.208172,0.397058,0.359646,0.439318,0.234387,-0.867215
-0.257516,0.084222,0.579590,-0.176915,0.327993,-0.927966
-0.094988,0.195863,-0.189884,0.248140,-0.537167,-0.806151
-0.382774,0.440472,0.751153,0.933404,-0.184294,0.307886
-0.240009,-0.207247,0.541213,-0.704890,-0.062379,-0.706568
-0.761097,0.020484,0.704046,0.845864,-0.416214,0.333586
0.427979,-0.235508,0.723524,-0.885898,0.458882,-0.067909
-0.572835,0.824542,-0.168389,-0.347613,-0.889139,0.297651
-0.508409,0.278482,-0.096447,0.758482,-0.104999,-0.643180
-0.037833,0.561092,0.626333,-0.320721,0.863029,-0.390279
0.461990,-0.542812,0.662263,-0.078019,0.599379,0.796654
-0.221751,-0.143790,0.930654,0.954727,0.145739,-0.259337
-0.741837,0.339413,0.472991,0.016228,0.121740,0.992429
-0.420671,0.849115,0.246647,-0.508978,-0.277317,0.814884
0.072050,-0.313958,0.768581,0.932598,0.178916,-0.313447
-0.670684,-0.397258,0.727525,-0.434015,-0.278781,-0.856687
-0.202365,0.109998,0.788770,0.380103,0.468074,0.797764
0.062107,-0.518320,0.535756,-0.059162,0.975660,0.211156
-0.425934,-0.326585,0.547347,0.496771,0.063623,-0.865547
0.085295,-0.307304,0.262488,0.879076,0.475253,-0.036892
-0.150223,0.242725,0.458969,-0.078224,-0.682230,0.726941
-0.610229,0.189850,0.182014,-0.593559,0.599103,0.537367
-0.079614,-0.309989,0.720415,-0.142051,-0.917046,-0.372623
-0.304728,0.029585,0.136279,0.822053,-0.081039,0.563614
-0.086716,-0.053476,0.395063,0.951125,0.082395,0.297610
-0.795651,-0.036077,0.670365,-0.279257,-0.613335,0.738807
0.089263,-0.816042,0.858844,0.718158,-0.677597,0.158469
-0.628694,-0.080373,0.228790,0.279977,0.004071,0.959998
-0.241055,-0.982763,0.832206,0.364299,-0.505638,-0.782059
-0.411059,0.452017,0.334629,-0.720710,0.152763,0.676196
-0.597777,-0.135533,0.509979,0.795779,0.580895,-0.171164
0.293990,-0.965405,0.329718,-0.661187,0.645311,0.382629
-0.171698,0.232823,0.131219,0.756096,0.322465,0.569505
-0.062735,0.219274,0.500422,0.876413,-0.354374,0.326068
-0.068501,-0.136374,0.280544,0.297344,-0.934951,-0.193528
0.103511,-0.369638,0.757833,0.875197,0.426220,-0.228838
0.216903,-0.139501,0.611402,-0.285011,-0.942192,0.176188
-0.300508,0.025576,0.585360,0.027850,-0.310771,0.950077
-0.034490,-0.076524,0.550819,0.800275,0.556870,0.222387
0.004032,-0.151527,0.635047,0.716963,0.354144,0.600455
-0.804592,0.065180,0.516493,-0.268130,0.292646,-0.917859
-0.071507,0.449411,0.578234,-0.657704,0.597771,-0.458361
0.375335,0.381024,0.341176,0.968484,0.195147,-0.154777
-0.271888,-0.183155,-0.071330,-0.278424,0.765563,0.579995
-0.566316,0.616933,0.567866,-0.358010,-0.130325,-0.924578
0.037624,-0.089273,-0.100018,0.321974,-0.939974,-0.113057
0.087927,-0.065221,-0.449462,0.607908,-0.790939,0.069741
-0.267836,0.259761,0.714810,0.649583,-0.729904,0.212796
-0.325953,0.256274,0.504010,0.207779,-0.274855,0.938766
-0.748773,-0.232381,0.223598,0.068189,0.952276,-0.297525
0.083623,-0.216507,0.771888,-0.404784,-0.046602,-0.913224
0.136142,-0.055199,-0.802890,-0.388838,0.921255,0.009766
-0.763604,0.117775,0.723491,-0.158513,0.345352,-0.924990
-0.151894,0.159505,0.616594,0.868581,0.476164,-0.137237
-0.411478,0.107191,0.518130,0.293579,0.066603,-0.953612
-0.451588,0.549748,0.750327,-0.242060,-0.961383,0.130953
0.507573,-0.416218,0.298550,-0.064025,-0.042416,-0.997046
0.429234,0.326625,0.488533,0.827467,0.463625,-0.316780
-0.107272,-0.294557,0.797516,-0.682521,-0.082145,-0.726235
0.266538,0.434900,0.344781,-0.370571,0.080994,0.925266
-0.136144,-0.238515,0.338167,-0.650757,-0.359935,-0.668553
0.186697,0.078329,0.388631,0.956629,0.249794,-0.149880
0.177211,-0.185681,0.719241,0.560234,0.735771,0.380498
-0.170361,-0.060289,0.917922,0.536212,-0.814615,0.221085
0.253795,-0.512587,0.210966,0.332786,0.724475,0.603647
-0.174791,-0.206485,0.917558,-0.378677,-0.650965,0.657912
-0.441143,-0.321414,0.530730,-0.457100,0.405399,0.791651
-0.572750,-0.205924,0.754625,-0.231640,-0.391996,0.890327
-0.261986,-0.246572,0.730898,0.763797,0.164223,0.624215
-0.227851,-0.031427,0.649697,0.465186,-0.775562,0.426737
-0.298210,0.712138,0.603515,0.096188,-0.685940,0.721272
0.517724,-0.227331,0.641264,0.368363,-0.617131,0.695311
-0.707619,0.164837,0.762777,-0.576219,-0.561378,0.593992
0.561762,0.376013,0.281387,0.039103,0.177673,0.983312
0.015772,-0.084462,0.475983,-0.054697,-0.974699,0.216727
-0.023502,0.529463,0.165247,-0.118835,0.081763,0.989542
-0.544424,-0.049868,0.841118,-0.205138,-0.333636,-0.920112
-0.470849,0.330675,0.730386,-0.085483,0.162730,0.982961
-0.907957,0.040327,0.530978,0.324700,-0.094125,-0.941122
-0.316928,-0.066223,0.878669,-0.323291,0.232597,-0.917268
0.161836,-0.438908,0.207493,0.895633,-0.250405,-0.367613
-0.412773,0.325944,0.239587,0.913422,0.230581,-0.335401
0.445026,-0.273751,0.726665,0.889530,-0.041029,0.455030
0.119054,0.017718,0.807520,0.681472,0.649106,-0.338020
-0.107481,-0.130041,0.822004,-0.194408,0.738385,0.645750
0.218742,0.284616,0.048976,-0.931326,-0.134128,0.338587
-0.227142,0.105668,0.589114,0.049895,-0.629246,0.775603
-0.089141,0.114207,0.748888,0.906015,0.322381,-0.274240
-0.139778,-0.630682,0.740058,0.920803,-0.368375,-0.128146
0.248282,0.448769,0.134691,0.376130,-0.814982,0.440829
0.840772,-0.087108,0.352387,-0.272341,-0.425914,-0.862802
-0.009966,0.237112,0.574976,-0.256054,-0.266158,0.929299
-0.676659,0.506816,0.183220,0.317392,0.139573,-0.937967
-0.078696,0.029705,0.951355,-0.550164,0.328034,-0.767928
0.090393,-0.119257,0.007126,-0.460703,-0.886776,0.037162
-0.018154,0.060009,-0.178376,-0.375079,0.132749,0.917439
-0.560594,0.500041,0.158518,0.218153,0.475466,-0.852256
-0.567571,0.494509,0.593462,0.162448,0.485426,0.859053
0.199022,-0.853443,0.292763,0.949642,0.096800,-0.298010
-0.223758,0.214142,0.670828,0.445288,0.691337,-0.569009
-0.399278,0.007697,0.559070,-0.355520,-0.934446,0.020411
0.195470,-0.386394,0.606078,-0.163031,-0.861557,0.480770
-0.362136,-0.120620,0.411845,-0.581271,0.610584,-0.537877
0.336020,-0.182313,-0.994329,-0.147100,-0.030361,0.988655
0.848920,-0.326786,0.365383,0.908551,-0.037093,-0.416123
-0.488521,0.922834,0.237074,-0.251146,-0.135782,0.958378
-0.537488,-0.341378,0.695961,0.588019,0.806304,0.064086
-0.420543,0.801852,0.231618,-0.486264,0.055608,0.872041
0.552778,0.474786,0.289654,-0.156610,0.311757,0.937166
-0.210553,0.232583,0.857223,-0.625561,0.399824,-0.669936
-0.249786,-0.174697,0.704972,-0.499947,-0.406246,-0.764865
0.093859,-0.080133,-0.585129,0.894863,-0.439276,0.079097
0.205958,-0.181311,0.210453,-0.508036,0.100806,0.855417
-0.117717,0.069311,0.582119,0.849304,0.496244,-0.180067
0.391714,-0.184678,0.704988,-0.223660,-0.384195,-0.895752
0.490903,-0.288262,0.632815,0.849663,0.026193,0.526676
-0.357622,0.514110,0.141338,0.702827,0.340595,0.624523
-0.409764,-0.256794,0.752492,-0.131200,0.140161,0.981398
-0.137730,-0.263088,0.347493,-0.630452,-0.339512,-0.698041
-0.456015,-0.139181,0.733577,-0.399550,-0.662987,0.633095
-0.139401,0.421952,-0.093289,0.642865,0.640812,-0.419625
-0.585746,-0.010463,0.829280,0.071208,0.419697,0.904867
-0.395726,-0.270423,-0.073530,-0.450112,0.541141,0.710328
-0.282458,0.409244,0.520528,-0.222713,-0.910963,0.347196
-0.287849,-0.074681,0.878404,-0.273625,0.363289,-0.890590
-0.572416,-0.290507,0.709965,-0.355305,0.884415,-0.302602
-0.818964,0.007015,0.522016,-0.096844,0.152299,0.983578
-0.397608,-0.174737,0.405794,0.464486,0.290897,0.836440
-0.249327,0.330594,0.815886,-0.100132,-0.615657,0.781627
-0.456392,0.238314,0.218357,0.718075,-0.537004,-0.442713
0.170777,0.111681,0.201508,0.428884,0.480362,-0.765056
-0.395769,0.287942,0.610972,-0.866373,0.301531,-0.398092
-0.190459,0.314559,0.565171,0.084983,0.162447,0.983051
-0.079655,-0.833641,0.747846,-0.716392,-0.199579,-0.668544
-0.888781,-0.039364,0.696523,-0.519828,0.793324,-0.316885
-0.198940,-0.287982,0.793317,0.461323,-0.846721,-0.265038
-0.496628,-0.269663,0.759321,-0.275154,0.956377,0.098152
-0.252961,-0.014231,0.891136,0.058827,-0.579620,0.812761
0.229980,-0.003968,0.681013,-0.352140,-0.381533,0.854652
-0.067289,-0.682955,0.604210,0.392026,0.358081,-0.847404
-0.327875,0.253748,0.503133,0.207779,-0.274855,0.938766
0.423216,0.435981,0.201739,0.570335,0.071895,-0.818260
-0.056176,0.242123,0.800956,-0.703930,-0.710249,0.005341
-0.182895,-0.122344,0.824716,0.209995,-0.971909,-0.106281
-0.206208,0.539405,0.621455,-0.525419,0.810654,0.258408
-0.742046,-0.403351,0.727277,-0.175014,0.252588,0.951614
-0.398526,-0.309068,0.757106,0.693688,0.540087,0.476553
-0.280538,0.438228,0.825840,-0.588232,-0.586248,0.557042
0.321064,0.524854,0.523372,-0.486274,0.156258,0.859721
0.309030,0.385313,0.555862,-0.140252,-0.048069,0.988948
0.275856,0.023491,0.678682,0.285209,-0.195087,0.938401
-0.466587,0.161550,0.829461,0.529848,0.848048,-0.008708
-0.438718,-0.008940,0.772499,0.434406,0.062905,0.898518
-0.386660,0.102983,0.772847,-0.254029,0.012283,0.967119
0.248573,-0.067425,0.497941,-0.470793,0.704222,0.531437
-0.027179,0.045459,0.739083,0.580677,0.356582,-0.731890
-0.449874,0.970617,0.243522,0.266406,0.263430,-0.927164
-0.198856,0.208932,0.834207,-0.520383,0.719278,0.460262
-0.011136,0.135894,0.767275,-0.011936,0.207467,0.978169
-0.645073,0.090476,0.722614,-0.497149,0.775341,-0.389473
-0.446197,-0.307665,0.806974,-0.061420,-0.997704,0.028524
-0.176002,0.007938,0.704294,-0.396974,0.222189,-0.890530
-0.456267,0.325704,0.734503,-0.090841,0.168595,0.981490
-0.464790,0.035517,0.221482,-0.593840,0.789874,-0.153144
0.022706,-0.108234,0.829296,-0.409365,-0.779563,-0.474027
-0.305146,0.337529,0.790357,0.007289,-0.847998,0.529949
0.360295,0.530747,0.168538,0.609492,0.277042,-0.742810
-0.228980,0.409284,0.932059,0.625015,0.740585,-0.246760
-0.494077,0.501643,0.580251,0.018824,-0.961693,0.273482
-0.048946,-0.049507,0.961639,0.844610,0.173756,0.506402
0.021077,-0.520924,0.444402,0.262108,0.525059,0.809699
0.273183,-0.021646,0.496883,0.430943,-0.422876,-0.797160
-0.190668,-0.412691,0.690487,0.637714,0.401031,-0.657643
-0.286135,0.286660,0.691165,0.245933,-0.596381,0.764099
0.100086,-0.325102,0.319797,0.878597,-0.385032,-0.282522
-0.320396,-0.251423,0.973495,-0.596930,0.544074,-0.589626
0.895130,-0.169005,0.360109,-0.400457,0.617994,0.676548
0.250161,-0.531388,0.680897,-0.749155,-0.055106,0.660098
0.136101,-0.367874,0.620563,0.131407,-0.419453,0.898216
-0.033195,-0.393810,0.160866,-0.332853,0.261367,0.906033
0.067664,-0.098733,0.158964,0.981051,0.193602,-0.007546
-0.498005,0.094564,0.289787,0.842427,-0.465992,-0.270495
0.545635,-0.291990,0.619273,0.954864,0.275227,-0.111735
-0.232907,0.368837,0.907571,-0.591228,-0.678021,0.436735
-0.380685,-0.341737,0.701318,-0.654011,-0.755994,-0.027250
-0.139444,-0.620981,0.786686,0.393461,-0.802280,-0.448926
-0.632496,-0.293032,0.336844,-0.561121,0.134090,0.816800
-0.300717,0.457829,0.137039,0.791709,0.334145,-0.511414
-0.703358,0.238314,0.747995,0.369638,0.009504,0.929127
0.071132,-0.248456,0.716315,0.915481,-0.303771,-0.263853
-0.492366,0.292071,0.553944,0.041171,-0.125419,0.991249
-0.327039,0.030626,-0.091718,0.040029,0.077384,0.996197
-0.479664,0.189209,0.746176,-0.519123,0.337976,-0.785037
-0.927386,0.057685,0.634848,0.310854,0.895721,0.317890
-0.244648,0.415297,0.847154,0.786622,0.611880,-0.082639
-0.511291,-0.295798,0.834240,-0.860305,0.149354,0.487411
-0.490025,0.574361,0.566792,0.159831,-0.566441,-0.808455
-0.408637,0.249098,0.721474,-0.488645,0.630753,-0.602807
-0.423134,0.678386,0.255907,0.532523,-0.486559,-0.692589
0.101924,-0.087428,-0.599944,0.950980,-0.220136,0.217204
0.004407,-0.060971,0.404339,-0.320385,-0.938221,-0.130750
0.477867,-0.320412,0.292283,0.501297,0.282006,0.818030
-0.460822,0.119819,0.611700,0.863587,-0.153448,0.480283
-0.139151,0.095367,0.785198,0.096035,0.579635,0.809198
0.018906,0.535356,0.606260,0.357496,-0.660009,0.660745
-0.201363,0.284855,0.875362,-0.632290,0.774389,-0.023057
-0.234996,0.595646,0.744969,0.440141,-0.360139,0.822542
-0.186990,0.424678,0.642140,0.952616,0.299304,0.054214
-0.119681,0.556523,0.633757,-0.281606,0.931990,0.228237
0.279408,0.428405,0.113990,0.635611,0.530450,-0.560911
-0.501223,0.552794,0.573439,-0.141014,0.477468,0.867260
-0.293740,-0.124349,0.872584,0.213482,-0.545006,0.810798
-0.605590,-0.166319,0.747565,0.473841,0.400076,0.784483
0.328584,0.315362,0.362423,0.954924,0.228111,-0.189963
0.309448,-0.196023,0.677723,0.926640,0.239340,0.289922
0.147255,-0.275034,0.792606,0.857311,-0.443691,-0.261068
0.408091,0.469815,0.189917,-0.707204,0.062816,0.704213
-0.474442,-0.035075,0.354685,-0.503051,0.232908,0.832282
-0.097329,-0.025735,0.415797,-0.245288,-0.967755,0.057310
-0.471058,0.558046,0.774004,-0.154737,-0.987521,-0.029291
-0.557669,0.611762,0.560624,0.268484,0.217859,0.938325
0.271261,-0.148160,0.569090,0.118851,0.316221,0.941211
-0.459401,0.541009,0.756907,-0.616814,-0.769899,-0.163696
-0.572750,0.199671,0.280064,0.951682,0.145376,0.270495
-0.682006,-0.474624,0.737744,0.143737,0.382133,0.912860
-0.482255,0.543615,0.747962,-0.616814,-0.769899,-0.163696
-0.366438,-0.292953,0.839382,0.031530,0.357945,0.933210
0.122856,-0.066464,-0.447494,0.599692,-0.764815,0.235430
-0.172200,-0.321373,0.716579,0.378179,0.777115,0.503063
0.066534,0.590877,0.204881,-0.383729,-0.432440,0.815934
0.124985,-0.360138,0.364126,-0.585860,0.711057,0.388799
-0.435084,0.032751,0.361001,0.297000,-0.150528,-0.942938
0.026093,-0.074280,0.709271,0.326099,0.165003,-0.930824
-0.654641,-0.137857,0.759487,-0.489563,-0.015808,-0.871825
-0.094570,0.526176,0.684750,-0.367465,-0.540577,-0.756800
-0.702606,-0.049226,0.282428,-0.364889,0.797388,0.480653
-0.379558,-0.175899,0.268969,-0.353893,-0.024419,0.934967
-0.049365,-0.248776,0.759884,0.339248,-0.111163,0.934106
-0.632162,-0.380221,0.491162,-0.245070,0.930308,-0.272886
0.075434,0.138540,0.765191,-0.543819,0.423003,0.724796
-0.181643,0.144633,0.764001,0.092025,0.566884,0.818642
-0.694165,-0.335564,0.500620,0.232612,-0.484992,0.843015
0.568362,-0.399863,0.618595,0.520183,-0.399424,0.754898
-0.405712,0.270304,0.318292,0.933686,-0.356454,0.034216
0.315339,-0.240399,0.557995,0.583741,0.194790,0.788228
-0.846457,0.042332,0.528696,0.491558,0.060166,0.868764
0.543921,0.130402,0.311397,0.011270,-0.413943,0.910233
-0.160210,0.486411,0.560310,-0.042634,-0.210309,0.976705
-0.149680,-0.102461,0.889912,-0.322944,-0.486211,-0.811977
-0.581525,0.533233,0.163412,-0.345251,-0.731794,0.587605
0.113997,-0.079972,0.251525,0.104458,-0.989460,0.100291
0.032861,-0.076966,0.393624,0.448311,-0.889567,-0.087684
0.484719,-0.385553,0.306619,0.219227,-0.152840,0.963628
0.500177,-0.259560,0.683229,0.972653,0.055064,0.225642
-0.939336,-0.230297,0.641098,-0.054793,-0.575893,0.815686
-0.422968,0.116171,0.827394,-0.635248,0.728410,-0.256669
-0.556917,-0.508017,0.530548,0.853954,0.171292,0.491347
-0.425934,-0.059929,0.901900,-0.238104,0.401020,-0.884584
0.403330,-0.122785,0.498867,0.392286,-0.531508,0.750740
-0.028893,0.557926,0.649118,-0.423881,0.220804,-0.878391
0.221667,0.403592,0.246151,-0.728502,0.104213,0.677071
-0.074182,0.533433,0.657518,-0.203949,-0.446859,-0.871046
0.749232,-0.241482,0.329734,0.732870,0.328176,-0.595988
0.284506,-0.137136,-0.996428,-0.066833,-0.073534,0.995051
-0.402955,0.035196,0.252650,0.873201,-0.026848,-0.486620
-0.079321,0.142068,0.668943,-0.620252,-0.708229,0.337193
-0.572082,0.242966,0.280973,-0.813188,0.518644,-0.264071
0.575632,-0.336888,0.583360,0.833777,0.544183,0.093168
-0.152980,0.116572,0.936556,0.763460,0.486805,0.424440
-0.432745,-0.267978,0.751533,-0.338515,0.130288,0.931897
-0.486432,-0.380100,0.737959,0.815941,-0.548308,0.183297
0.112451,-0.264050,0.779279,0.690915,0.011559,-0.722844
-0.374376,0.484607,0.746772,-0.567453,0.262114,-0.780572
-0.930811,-0.067466,0.701863,-0.647229,0.564559,-0.512218
0.115710,-0.038162,-0.414937,0.254026,0.964733,0.068996
-0.613488,0.372084,0.472561,-0.675312,-0.199593,0.710011
-0.864381,0.030186,0.536666,-0.248301,0.494288,-0.833082
-0.220290,-0.049146,0.947106,0.062141,-0.135835,0.988781
0.289519,-0.242042,-0.995784,0.084490,-0.058283,-0.994718
-0.482755,0.087710,0.297624,0.818481,-0.226473,-0.528013
0.041174,-0.470335,0.446188,-0.408005,0.746543,-0.525552
-0.464247,0.629400,0.562476,0.280063,0.146455,-0.948744
-0.079739,0.528983,0.164437,0.070720,0.357835,0.931103
-0.670225,0.451896,0.173614,-0.006506,-0.266949,0.963689
-0.063403,0.460595,0.566263,0.549993,-0.642176,0.533964
0.668845,0.339052,0.281056,-0.091734,0.358891,0.928861
-0.368820,0.316283,0.781792,0.162011,-0.720168,0.674619
-0.153857,0.197146,0.674548,0.910960,0.369123,0.184121
-0.909337,-0.222240,0.637345,-0.059242,-0.523760,0.849803
-0.161296,0.065742,-0.189636,-0.312170,0.283775,0.906654
-0.669391,0.235189,0.159212,-0.387867,0.256479,0.885312
-0.320187,0.621463,0.586187,-0.633976,-0.061287,0.770920
0.276608,0.481640,0.357000,-0.541978,-0.072121,0.837292
-0.304144,0.211737,0.638668,0.460508,0.602080,-0.652252
-0.530804,0.247535,0.553382,-0.001754,0.101057,0.994879
0.021956,0.515394,0.165677,0.133009,0.522008,0.842506
-0.596818,-0.240318,0.517551,0.413080,-0.336456,-0.846264
-0.598029,0.045178,0.221664,0.353128,0.342889,-0.870475
0.094736,-0.330675,0.334116,-0.607020,0.704497,0.367709
0.334768,-0.135212,0.606740,-0.585974,0.794599,0.158891
-0.273268,0.196666,0.659469,0.350135,0.785277,-0.510632
0.339697,0.750661,0.188132,-0.211988,-0.077758,0.974174
-0.299131,0.182315,0.824468,-0.144637,-0.617797,0.772921
-0.443734,0.359056,0.559037,-0.388906,0.912233,-0.128775
-0.905032,0.036920,0.506109,0.332314,-0.364722,-0.869796
0.127660,-0.273149,0.802311,-0.532968,0.433215,-0.726822
-0.593934,0.073760,0.506192,-0.217007,0.683745,-0.696707
-0.135183,0.252505,0.466211,0.125859,0.810369,-0.572242
0.217530,-0.986249,0.341772,0.192886,0.791350,0.580138
0.345757,0.036480,0.466542,0.102830,0.835631,0.539581
0.077775,0.343382,0.604524,-0.183392,0.719614,0.669719
0.808476,-0.230418,0.352519,0.091339,0.002109,0.995818
0.499007,-0.312315,0.542552,0.687670,0.242886,-0.684190
0.354572,0.191454,0.257660,0.431341,-0.008006,-0.902154
-0.637135,-0.069429,0.607550,-0.338339,0.939349,0.056122
0.061814,0.246132,0.491807,-0.125979,0.484212,0.865834
-0.264661,0.357452,0.724995,-0.059331,-0.322996,0.944539
0.665755,-0.628757,0.743365,0.845956,-0.287984,0.448802
-0.556249,-0.045097,0.580334,0.372469,-0.908760,0.188207
-0.074098,0.709893,0.165925,0.423886,0.520763,0.741030
-0.008879,-0.436983,0.179451,-0.323017,0.267437,0.907820
-0.437172,0.623387,0.148614,-0.374225,-0.628532,-0.681838
-0.450458,0.187486,0.727690,-0.512620,0.427501,-0.744623
-0.253504,0.450494,0.158402,-0.696290,-0.271597,0.664390
-0.079823,0.318007,-0.099903,0.788010,0.498356,-0.361499
-0.855647,-0.117132,0.661023,0.434633,0.486794,0.757711
-0.157993,0.093162,0.886473,0.466326,0.836557,0.287599
0.017483,0.410006,0.171630,0.041590,0.628675,0.776556
0.455846,-0.405636,0.302667,-0.235046,0.351673,-0.906135
0.348179,0.352683,0.490980,-0.612644,-0.710192,-0.346836
-0.069671,-0.040086,0.858314,0.982149,0.179136,-0.057387
-0.207965,-0.156578,0.536434,-0.722933,0.364687,-0.586832
-0.235373,-0.331636,0.834538,0.497304,0.672224,0.548456
-0.018947,0.514712,0.162304,0.082123,0.264229,0.960957
0.313585,-0.385072,0.727046,-0.491776,0.323435,0.808422
0.784703,-0.257676,0.367747,0.173709,0.914457,0.365504
-0.843782,0.129360,0.528134,0.259732,0.514036,-0.817500
-0.173580,0.074802,0.950214,0.875729,0.444949,0.187402
-0.562598,0.021006,0.301923,-0.743184,0.647007,0.170466
0.154609,-0.268299,0.803303,0.680199,-0.162469,-0.714796
-0.395935,0.572277,0.554655,-0.487163,-0.214573,-0.846540
0.197058,0.085785,0.201062,0.459927,0.657114,-0.597217
-0.328209,0.061654,0.925577,0.688369,-0.321223,-0.650356
-0.009129,-0.075804,0.333488,0.221882,0.899668,0.375988
0.212726,-0.397338,0.692720,-0.285753,-0.053141,0.956829
-0.414109,0.425319,0.530548,-0.657925,-0.297425,-0.691862
-0.392969,0.169807,0.822666,0.279924,0.815613,0.506377
-0.348304,-0.145875,0.761785,0.021423,0.765695,0.642847
-0.790054,-0.149643,0.220572,0.235098,0.767965,0.595784
-0.243269,-0.434217,0.813968,0.941498,-0.087346,0.325503
0.161000,-0.121983,-0.654343,0.823620,0.567066,0.009337
0.080363,-0.117093,0.116090,0.980196,-0.171625,0.098793
0.268711,0.688126,0.174226,0.130392,-0.047237,0.990337
-0.254925,0.546541,0.850626,0.898069,-0.220687,0.380486
-0.609393,0.597010,-0.113494,-0.853532,0.134766,0.503311
-0.565942,0.309910,0.733131,0.205792,0.257593,0.944084
0.357622,0.211617,0.580267,-0.316348,0.599307,0.735361
0.006913,-0.176862,0.557284,0.751469,0.637785,0.168892
-0.501766,0.452658,0.165562,0.308434,0.404208,-0.861095
0.153355,-0.412892,0.829627,0.869805,0.488413,-0.069940
-0.199065,0.515874,-0.089899,0.358849,0.132163,0.923991
-0.659071,-0.303856,0.511318,-0.458184,-0.356023,0.814442
0.835759,-0.262407,0.360175,-0.173130,-0.248397,0.953061
-0.178050,-0.162631,0.749153,0.263396,-0.506477,-0.821038
0.851468,-0.355368,0.330148,0.227872,0.103366,0.968189
-0.356995,-0.387556,0.551084,-0.353872,-0.100354,0.929894
-0.628488,-0.381264,0.696721,-0.757877,-0.060300,-0.649604
-0.040674,0.623507,0.157509,0.960133,-0.022120,-0.278667
-0.153232,-0.298645,0.798294,-0.176791,0.185220,0.966664
0.343416,-0.603062,0.630731,0.497595,-0.256289,-0.828683
0.166141,-0.249699,-1.000000,-0.154191,0.004670,0.988030
0.519897,-0.259921,0.279882,-0.011985,-0.028373,0.999526
-0.344629,0.353243,0.518510,0.429566,-0.247533,0.868447
-0.659112,-0.314720,0.508871,0.306917,0.371459,-0.876253
