0.229626,-0.444545,-0.065877,-0.042364,0.944527,0.325691
-0.032863,0.119617,0.791183,0.107092,0.887220,-0.448745
0.420846,0.475972,0.742638,0.978849,-0.113724,0.170063
-0.611787,-0.130495,-0.087391,0.227997,0.037444,-0.972942
-0.693355,0.347381,0.098526,-0.688737,0.724582,0.024929
-0.278953,0.833834,-0.387379,-0.493614,-0.321536,-0.808059
-0.178632,0.601843,0.186245,0.616489,0.424888,-0.662881
-0.513960,0.464757,0.374128,-0.636014,0.734195,0.237582
0.201866,-0.060026,0.023328,0.265797,0.963401,0.034778
-0.728181,0.065007,0.057463,0.397661,0.097040,0.912387
0.455672,-0.043706,-0.929261,-0.091734,0.115312,0.989084
-0.058913,0.345915,0.602847,0.574040,0.083380,-0.814571
0.308607,0.438060,-0.990729,-0.196850,0.180006,0.963767
0.444541,0.260718,0.630886,0.360203,0.093018,-0.928225
0.311794,0.460865,0.767578,0.718860,0.571700,-0.395473
0.301773,0.618079,-0.516891,0.454001,-0.221983,-0.862906
0.191705,-0.545641,-0.237284,0.395519,0.559073,0.728699
0.196093,-0.030190,-0.049603,0.928972,-0.156029,0.335657
0.101269,0.096935,0.849956,-0.415346,0.142547,-0.898425
-0.501120,-0.161210,0.586951,0.997446,0.068581,0.019963
0.262743,0.010483,0.450661,0.987743,0.144882,-0.058077
-0.202189,-0.156773,-0.004409,0.150538,-0.335542,0.929919
0.335444,-0.114468,-0.927346,0.094020,-0.132900,-0.986660
-0.017435,-0.402699,0.542990,0.069132,0.646304,0.759942
0.626708,0.120662,0.536768,0.447782,-0.030650,0.893617
-0.002147,0.100868,-0.690767,-0.097460,-0.217280,0.971232
-0.408003,0.002532,0.619801,0.878102,-0.001876,0.478470
0.173599,0.189664,0.833606,0.578515,-0.709743,-0.401977
0.768089,0.340350,-0.000529,-0.183343,0.064383,0.980938
-0.084963,-0.139281,0.846605,-0.236975,-0.444630,-0.863798
0.240757,-0.032200,-0.818793,-0.208009,-0.978103,-0.006883
-0.299000,0.861157,-0.330319,0.809109,0.034855,0.586624
0.172860,0.007009,-0.558559,0.906464,-0.301859,0.295304
0.538348,-0.234230,0.381030,0.543925,0.770394,-0.332624
-0.248330,0.284404,0.512508,0.351358,0.935905,-0.025067
0.199141,0.164014,0.859630,0.040638,0.914793,0.401874
0.220803,0.169204,-0.969518,-0.173132,0.150967,0.973260
0.160297,0.365122,0.403603,0.762323,-0.340450,-0.550416
0.098821,0.731062,0.094899,0.686795,-0.451324,-0.569754
0.299046,0.442034,0.748885,0.542835,-0.718082,0.435532
0.283574,-0.199119,-0.920922,-0.000831,0.094476,0.995527
0.679639,-0.248372,0.533367,0.689813,0.437459,-0.576877
-0.160111,0.195357,0.492480,-0.578959,-0.778484,0.242422
-0.169672,0.807471,-0.429072,0.634119,0.196282,0.747908
-0.125054,0.661807,-0.316085,-0.330824,0.273156,0.903295
-0.363385,0.212262,0.554780,-0.735358,-0.654240,0.176689
-0.301540,0.149451,0.606953,-0.240903,-0.701785,0.670420
-0.144131,-0.111329,0.827913,-0.589418,-0.137063,-0.796116
-0.376596,-0.228790,0.083411,-0.394066,0.918425,-0.034754
-0.673586,-0.144890,0.189369,0.179785,0.403860,-0.896981
-0.190179,-0.673772,0.312180,-0.349396,0.854199,0.385055
0.695481,-0.185603,-0.302960,-0.899847,0.364200,0.240071
0.014019,-0.281891,0.759164,-0.003432,-0.029232,0.999567
-0.607444,0.324699,-0.066658,0.016493,0.501832,0.864808
-0.528186,0.253229,-0.069858,0.022208,-0.739752,0.672513
-0.396549,0.626699,-0.035571,0.222712,-0.549171,0.805488
-0.192535,0.001947,0.693261,-0.436479,0.733822,-0.520569
0.088567,-0.780856,0.415468,-0.290174,-0.336387,-0.895903
-0.935706,0.195942,0.035596,-0.714065,0.550539,0.432455
0.084595,-0.260843,0.852198,-0.524338,0.092913,0.846426
0.377429,0.202930,0.829827,0.599000,0.799634,0.042238
-0.015127,0.029020,0.535407,-0.016715,-0.516325,0.856229
-0.007781,0.062749,-0.221892,0.654442,0.211073,0.726053
-0.183113,-0.405041,0.492027,0.753319,0.264626,0.602066
0.309163,0.023664,0.367628,-0.218768,-0.876806,0.428196
-0.194106,-0.433915,0.388563,0.035553,0.950079,0.309976
-0.265375,-0.079317,0.230054,-0.423973,-0.536556,-0.729627
-0.177108,0.096769,0.421766,0.585237,-0.554046,0.592057
-0.013094,-0.024625,-0.975060,-0.262796,0.165486,0.950554
0.558348,-0.073208,0.513289,-0.236008,0.669188,-0.704619
-0.330501,0.334910,-0.590251,0.826685,0.155629,0.540715
-0.008753,0.030696,0.280161,0.911397,-0.135095,0.388721
-0.489896,-0.192425,0.162036,-0.392191,-0.405567,0.825652
0.142885,0.350811,0.411689,0.597865,-0.046768,-0.800231
0.264590,0.349389,0.116589,0.166848,0.599623,0.782697
0.537287,0.434083,0.055901,0.011755,-0.158052,0.987361
-0.097480,-0.195774,-0.636151,0.755478,0.510369,0.410824
-0.393316,0.030777,-0.372667,0.806739,0.491240,0.328413
-0.646982,0.018058,0.365890,0.999482,0.016708,0.027501
0.246715,0.071535,0.751228,0.073075,0.521089,0.850368
0.181451,-0.074296,-0.046102,0.348101,-0.710245,0.611864
-0.172905,-0.245526,0.435370,0.493200,-0.797359,0.347810
-0.344957,0.970376,-0.381333,0.619787,-0.516746,0.590625
0.103809,0.108109,-0.973725,-0.214306,0.246101,0.945255
-0.339599,0.259379,0.638922,0.504059,-0.370263,-0.780276
0.701532,-0.247618,0.568812,0.686874,0.685144,-0.242447
-0.757327,0.212387,-0.015670,0.370759,0.373418,-0.850351
-0.267822,0.638833,0.161003,0.516286,0.587401,-0.623225
-0.090136,-0.018556,0.869001,-0.112277,0.771275,0.626521
-0.211149,-0.693147,0.256733,-0.199850,-0.537218,0.819424
0.258447,0.022367,0.181685,-0.445794,0.868513,-0.216684
-0.318353,-0.281388,0.510064,-0.079249,-0.584837,0.807271
-0.003580,-0.511790,-0.902255,0.222632,-0.013960,0.974803
0.047181,-0.722565,-0.156443,0.836706,0.547510,-0.012478
-0.009168,0.429941,-0.568132,0.565985,0.323452,-0.758313
0.262559,-0.236447,0.849074,0.522671,-0.500720,-0.689996
0.037206,0.249296,0.121930,-0.525648,0.468523,-0.710056
0.629617,-0.592299,-0.099735,0.980258,0.070945,-0.184557
-0.011015,0.013747,-0.611034,0.427987,0.136823,0.893368
0.031662,0.093127,-0.781711,0.646111,0.619029,0.446480
0.001040,0.575605,-0.034437,-0.632185,0.190872,0.750939
-0.203621,-0.913755,-0.127951,-0.055977,-0.225092,0.972728
-0.018359,-0.050278,-0.084419,0.056196,-0.022956,0.998156
0.123254,0.269338,0.572289,-0.577436,0.215268,-0.787546
-0.265375,0.011111,0.780476,-0.045728,0.666240,0.744334
-0.329391,-0.185312,0.019700,-0.260243,0.959852,-0.104676
0.128520,-0.338215,0.903791,0.056536,-0.974896,-0.215364
-0.259786,0.615568,0.145434,-0.575480,-0.760674,0.300328
0.221820,0.605986,0.081496,0.088071,-0.467357,0.879671
0.416088,-0.320513,0.845724,-0.797809,-0.023638,0.602447
0.035774,-0.459818,-0.922635,0.263082,0.029652,0.964318
-0.187039,0.539450,-0.215846,0.075184,0.794667,0.602371
-0.250085,0.442118,0.242096,0.179752,0.225785,-0.957450
0.291980,0.183054,0.839804,-0.188754,0.974186,-0.123825
-0.581626,-0.585980,0.250661,0.884076,0.372881,-0.281726
0.023903,0.637704,0.075047,-0.774387,0.130799,0.619045
0.088197,-0.375039,0.914271,-0.410352,-0.871294,0.269178
-0.420013,0.478608,0.062149,0.436714,0.879371,0.189704
-0.526246,0.407386,0.342663,0.458560,-0.471128,-0.753499
-0.352994,-0.322689,0.271369,0.938836,0.340033,0.054443
0.081778,0.567864,0.073082,-0.038621,0.767845,0.639470
0.557839,0.451701,0.503414,-0.480557,-0.603620,0.636167
-0.216229,0.778513,0.094218,-0.151104,-0.718400,0.679021
0.160481,0.167528,0.898803,0.945043,-0.017020,-0.326502
-0.658021,0.349095,-0.016954,0.388418,0.751160,0.533751
0.353964,-0.164808,0.684771,-0.233724,-0.587390,0.774820
0.210966,0.035717,0.812621,-0.529418,0.658163,-0.535293
-0.336088,-0.084423,0.344930,0.208143,-0.657145,0.724456
0.185332,-0.224982,0.828719,0.732599,-0.602644,-0.316416
0.174755,-0.281472,-0.928228,0.033344,-0.035056,-0.998829
-0.279369,-0.150161,0.086484,0.167484,-0.861400,0.479519
-0.585829,0.083253,0.430608,0.150931,0.981240,-0.119946
-0.304404,-0.558572,0.087744,0.816686,0.039875,0.575702
0.267131,-0.072370,0.577806,0.759400,-0.644880,0.086259
-0.619592,0.102084,0.377201,-0.472813,0.865706,0.164319
0.176278,0.539284,-0.001839,-0.477788,-0.869186,-0.127413
-0.454192,0.190543,-0.330117,0.822742,0.202310,0.531194
0.066719,-0.799183,-0.128883,0.953666,-0.292793,-0.069241
0.118590,0.176273,0.875979,0.797968,0.600292,-0.053830
-0.412022,0.203224,0.637158,0.643213,-0.194526,0.740565
-0.029676,0.017890,0.730168,0.880926,0.472664,0.023628
0.228794,-0.146062,-0.919536,0.238538,0.057661,0.969420
0.634096,0.355917,0.414460,0.834151,-0.423252,0.353625
-0.614789,0.623729,-0.257010,0.888563,-0.078885,-0.451922
-0.228101,-0.741605,0.250057,0.000372,-0.611007,0.791625
-0.091059,0.057934,0.883033,-0.741394,-0.649227,-0.169823
-0.179095,-0.208076,0.170198,0.861346,-0.132314,0.490485
-0.256875,-0.669671,0.425142,-0.286454,0.062035,0.956084
0.038545,0.152005,-0.663207,-0.277091,-0.180512,0.943735
-0.157017,0.344199,0.299736,-0.671832,-0.648602,-0.357711
0.273228,0.373200,-0.987605,0.203620,-0.212531,-0.955704
-0.532250,0.093336,0.311349,0.157608,0.937545,-0.310112
0.279555,0.021529,-0.357098,-0.731109,0.669076,0.133478
0.167133,-0.242765,0.848394,0.895793,-0.327706,0.300274
-0.072400,0.309301,0.505882,0.204791,0.919837,0.334605
0.009954,-0.803576,0.324247,0.874387,-0.474844,0.099854
0.540565,0.215148,-0.231918,-0.579630,0.423817,0.695995
0.218772,-0.513422,0.105983,0.664072,0.327227,0.672258
0.478535,-0.220504,0.768459,-0.551569,0.833054,0.042336
0.027229,-0.266074,-0.926968,-0.460801,0.242115,0.853840
-0.214243,0.896852,-0.406374,-0.214786,-0.430693,0.876567
-0.598808,-0.097101,0.367905,0.445203,0.746521,-0.494471
-0.061684,-0.159912,-0.975135,-0.321120,0.065151,0.944795
0.282927,0.091244,0.901575,0.706161,0.518333,0.482357
0.090322,0.000441,-0.969140,-0.256454,0.209291,0.943625
0.506571,0.474172,-0.115405,0.864944,-0.000716,0.501869
0.631881,0.234564,0.534475,-0.481031,0.308945,0.820465
0.241126,0.390146,0.732662,-0.182015,-0.963399,-0.196805
-0.077573,-0.002824,0.003980,0.774495,0.477506,0.414904
0.391978,-0.375918,0.091498,0.915349,0.326632,-0.235472
0.246808,0.155185,-0.966217,0.248358,-0.182637,-0.951295
-0.225052,0.796591,0.104018,-0.360265,0.860502,-0.360202
-0.550541,0.261974,0.244665,-0.099934,0.926133,-0.363717
0.354889,0.494760,0.733417,0.953331,-0.024302,0.300946
0.059514,-0.575687,0.447890,0.938563,-0.219911,0.265969
-0.455902,0.286161,0.444263,0.426854,0.459836,0.778683
0.105148,0.137526,0.731049,0.324131,-0.728070,0.604031
-0.874968,0.226404,-0.001209,-0.038848,0.986465,0.159306
0.071616,0.228664,0.743192,0.990225,-0.004078,0.139419
0.053326,-0.014457,-0.969795,-0.230372,0.201992,0.951908
-0.037665,-0.578576,-0.927069,-0.134254,0.105232,0.985344
0.399507,0.222933,0.093437,0.139479,0.084141,0.986644
0.624628,-0.266993,0.520872,-0.584485,-0.452974,0.673196
-0.083809,-0.322188,0.709888,0.914447,0.260488,0.309730
0.285237,-0.181210,0.331704,0.677592,0.528834,0.511081
-0.770120,0.403621,-0.029450,-0.700144,0.668574,0.250615
-0.159419,-0.332734,0.355788,0.811190,0.442080,0.382801
-0.194522,-0.464545,-0.147651,0.656204,-0.058284,0.752329
0.113786,-0.384413,0.545963,-0.507007,-0.361644,0.782405
0.060392,-0.012281,0.147777,-0.315381,0.934883,-0.162874
-0.557146,0.297710,-0.050661,0.854792,-0.251219,0.454113
0.490774,0.450445,0.493715,-0.351847,0.628412,-0.693760
0.313920,-0.382111,0.705555,-0.285513,-0.952174,-0.108841
0.166070,0.288168,0.739690,0.848541,0.371689,-0.376598
-0.400568,0.042161,0.676055,-0.763172,-0.461081,0.452738
-0.425740,0.623476,-0.112382,0.983351,-0.102533,0.150023
-0.134892,-0.714195,0.430835,-0.465767,0.204628,0.860923
-0.383339,0.166106,0.500668,0.536449,-0.652513,-0.535210
-0.601441,0.097103,0.375110,-0.023251,0.994999,0.097144
-0.172443,-0.187907,0.186119,-0.755503,-0.327421,-0.567459
-0.349899,0.426008,0.250460,0.102063,-0.566955,0.817402
0.532714,0.265657,0.474468,0.728593,-0.235156,-0.643315
-0.756217,0.333906,0.003477,0.942319,0.327586,0.068718
0.323711,0.673816,-0.510618,-0.438274,0.168390,-0.882928
0.209396,0.510411,0.500768,0.591808,0.801424,-0.086506
0.248425,0.440193,0.763975,0.361685,-0.748936,0.555229
-0.295304,-0.200335,0.511122,-0.273941,0.958562,-0.078200
0.173091,-0.281431,0.886409,0.788327,-0.112566,-0.604872
0.246484,-0.218454,0.847311,-0.170691,0.971177,0.166376
-0.454885,0.018058,0.480841,-0.367050,-0.817037,0.444663
-0.229348,-0.108022,-0.220254,0.909084,0.329517,0.254920
-0.043578,-0.349974,0.536440,0.243954,-0.183980,0.952175
-0.849379,0.174851,-0.070538,-0.637483,-0.643662,0.423456
-0.100158,-0.034123,0.816425,-0.058522,-0.278389,0.958684
0.327729,0.128403,0.789873,-0.679987,0.574996,-0.454969
0.727952,0.130160,0.002595,-0.515131,-0.806771,-0.289415
-0.383477,0.024083,0.333266,0.145033,0.460212,0.875882
0.065149,-0.042117,0.615846,0.898674,0.208880,0.385688
0.444725,0.197490,0.613553,-0.590284,-0.463116,0.661126
-0.043347,0.035089,0.900970,0.038048,-0.980560,0.192496
0.156418,-0.247327,-0.933972,-0.202439,0.079329,0.976076
-0.336366,0.733195,-0.136340,-0.323182,-0.441287,0.837150
0.316598,0.404541,0.541983,-0.050027,0.123548,0.991077
-0.027366,0.197155,0.824789,0.092233,-0.897541,0.431176
0.429251,-0.050234,-0.932863,-0.100096,0.108116,0.989086
-0.151890,0.711728,-0.313264,-0.191770,-0.007918,0.981408
0.417613,0.701392,-0.073586,0.012637,-0.358134,0.933585
-0.145423,-0.013788,0.950069,0.119672,-0.891831,0.436252
0.189673,0.070615,0.262174,0.998490,-0.054599,-0.006029
0.058868,0.241552,-0.333216,0.783003,0.224112,0.580242
-0.262927,0.564894,-0.045069,-0.419764,-0.456593,0.784424
0.230042,0.162382,0.478877,0.911083,0.398467,-0.105604
-0.042423,0.174516,0.882983,-0.485819,0.872241,0.056357
0.269071,-0.012575,0.161809,-0.714398,0.696401,0.068267
0.145240,-0.191672,0.867187,-0.603884,0.685624,0.406501
-0.476132,0.477645,0.414183,0.939638,-0.028463,0.340984
-0.177571,0.029398,0.711324,0.156599,-0.986006,0.057173
-0.023440,0.469610,0.626275,-0.518244,0.286677,-0.805754
0.298677,-0.091495,0.788311,0.001424,-0.819850,0.572577
-0.298676,0.787174,-0.338330,0.887033,0.047110,-0.459296
0.084595,-0.335536,-0.927321,-0.357711,-0.038666,0.933031
-0.414146,0.558616,0.422875,-0.233450,0.543179,-0.806510
0.337384,0.207910,-0.962691,0.210905,-0.166906,-0.963152
-0.685965,-0.051616,0.177554,0.655520,0.227314,0.720154
-0.735202,0.398891,-0.204610,-0.739632,0.424753,-0.522043
-0.447771,0.489363,-0.134526,-0.497188,0.159632,0.852831
-0.345834,0.400523,0.251493,0.100403,0.534644,-0.839092
0.322649,0.079319,-0.946542,-0.119768,0.177952,0.976724
-0.286852,0.192762,0.622900,0.784838,0.548799,-0.287835
0.630033,-0.537566,0.256153,0.069548,0.373569,0.924992
-0.264774,0.043793,-0.042902,-0.055578,0.876130,-0.478860
-0.027735,0.055008,-0.986119,-0.270766,0.229320,0.934932
-0.196369,0.034126,0.409548,-0.642399,0.555366,-0.528102
-0.343802,0.344786,0.195012,-0.226463,0.226309,0.947364
-0.510404,0.087061,-0.267213,-0.394713,-0.491888,-0.776046
-0.342324,0.068061,0.735861,0.927369,0.316555,-0.199450
-0.605458,0.151418,0.065373,-0.747338,0.661955,-0.057459
-0.108980,-0.285405,-0.507469,-0.370334,0.875434,0.310594
-0.374794,0.408099,-0.271017,0.958234,0.237094,0.159921
-0.664303,0.074339,0.080136,-0.232988,0.476127,-0.847950
0.168981,-0.294319,0.749591,-0.661356,-0.680555,-0.315362
0.666151,-0.164137,0.257791,-0.686156,0.627381,0.368216
0.665090,0.274318,0.623000,0.313016,0.900514,-0.301821
0.154154,0.205985,0.539186,-0.673693,-0.456927,-0.580823
0.382371,0.145099,0.429500,-0.147968,-0.796758,0.585903
0.054018,-0.416341,0.825822,0.372060,-0.074582,-0.925208
-0.135493,-0.341520,0.609900,0.685064,-0.714011,0.144487
-0.320662,0.050446,0.548331,-0.141184,-0.925433,0.351626
-0.230779,-0.079067,-0.225192,0.820400,0.566375,0.078498
0.765918,0.122628,-0.005290,-0.165909,-0.019228,0.985954
0.175447,-0.241677,0.857967,0.774722,-0.601721,0.194263
0.090138,0.159997,0.730445,0.542843,-0.741687,0.393982
-0.103207,-0.167654,0.153092,0.326142,-0.936836,-0.126370
0.172907,0.381358,0.538431,-0.457802,-0.467415,-0.756268
-0.528047,0.273524,0.215040,-0.060376,-0.998136,0.008892
-0.415209,0.395001,0.157955,-0.419858,0.824357,-0.379677
0.201774,0.453918,0.486258,0.807454,0.133831,-0.574550
-0.638529,0.199331,0.098929,0.440293,0.897709,-0.016150
0.048153,0.142422,0.055045,0.343949,-0.285052,0.894675
0.507356,-0.657243,0.375211,0.699285,0.344114,0.626567
-0.898570,0.237410,-0.045472,0.998884,-0.047235,0.000114
-0.075309,-0.180038,-0.970424,-0.305301,0.086087,0.948357
0.651187,-0.146688,0.271747,0.625944,-0.575134,-0.526702
0.224130,-0.074127,0.806273,0.061715,0.063471,0.996074
-0.098543,0.432954,0.272805,-0.448183,-0.156182,-0.880193
0.614189,0.253479,0.604938,0.348460,-0.628209,0.695650
0.312534,0.322273,-0.097846,0.828616,-0.108493,-0.549204
0.057990,0.265614,0.158181,0.538807,-0.235451,0.808857
0.260526,0.678796,-0.478146,0.652727,0.553328,0.517470
0.715110,0.249965,0.595188,-0.037199,-0.993238,0.109975
0.088797,0.267833,0.701927,-0.638465,-0.644801,0.420232
0.215354,-0.271932,0.667867,0.205185,0.969242,0.135900
0.071939,0.068733,-0.974455,-0.242948,0.167477,0.955472
0.081500,0.177906,0.771986,0.935531,-0.321861,0.145559
-0.345696,-0.170749,0.063988,0.260258,-0.943437,0.205409
-0.013786,-0.051407,0.521577,-0.489421,0.117550,-0.864088
-0.466755,-0.097729,0.111248,-0.204941,0.887266,0.413229
0.649893,-0.322732,0.508502,0.905744,0.088387,-0.414505
-0.439181,0.144933,0.639829,0.776107,-0.146736,0.613291
0.428097,0.387636,0.661519,0.073074,-0.645562,0.760204
-0.707858,0.290638,0.032246,0.844632,0.208701,0.492991
0.240157,-0.844587,0.265751,0.913190,0.332742,-0.235300
-0.580333,0.228999,0.219423,-0.237336,0.873887,-0.424257
-0.614465,0.378472,0.315531,-0.280715,0.617688,-0.734616
0.404218,0.552466,-0.996649,-0.157638,0.110413,0.981305
0.257015,0.037640,-0.023681,-0.542954,0.400264,-0.738235
0.659870,0.220379,0.036554,0.582154,-0.370899,0.723554
-0.333317,0.308297,0.349817,0.162569,0.884269,-0.437767
-0.043623,-0.112793,0.373447,-0.517217,0.706227,-0.483456
-0.532944,0.229668,0.133140,-0.170845,-0.733695,0.657650
-0.466893,-0.229584,0.312332,0.952992,0.128516,0.274390
0.715711,-0.288125,0.594332,0.960659,-0.269483,0.067177
-0.545783,0.213851,-0.009094,0.110843,0.725442,0.679300
0.036005,-0.383534,-0.896788,0.561384,-0.310846,-0.766957
0.272950,-0.495554,0.452223,-0.372292,-0.413861,-0.830733
-0.584120,0.156858,0.096360,0.755285,0.594079,-0.276795
-0.642871,0.158783,-0.231238,0.698868,0.254783,0.668333
0.061130,-0.495595,0.569820,-0.458937,-0.887390,0.043771
-0.129165,-0.145224,0.826301,0.008956,0.502195,0.864708
0.099328,-0.551375,0.202091,-0.762278,0.307979,0.569281
0.314289,-0.506097,0.534853,0.631007,-0.669492,-0.391931
0.269302,0.289256,-0.126943,0.791589,-0.195079,-0.579078
0.024643,0.149745,-0.515027,-0.288058,0.534147,-0.794802
-0.224498,0.478230,-0.086812,0.338166,0.379911,0.860995
-0.034525,0.142966,0.936340,0.765544,-0.287392,-0.575629
0.235353,0.079989,0.922534,0.760572,0.638290,-0.118811
0.562136,0.404875,-0.024084,0.973547,0.152900,-0.169786
-0.752754,0.342610,0.040761,0.711420,0.625863,0.319651
0.597931,0.450989,0.058748,-0.573311,-0.042744,0.818222
0.272812,0.505515,0.775891,0.238828,-0.510503,0.826044
-0.350268,-0.192760,-0.417231,0.796508,0.372538,-0.476225
-0.348006,0.270635,0.451896,0.403552,0.569685,-0.715964
-0.812151,0.346794,-0.066986,-0.792085,0.607293,0.061614
-0.551835,0.115096,0.357728,0.000215,-0.979460,0.201640
0.720146,0.333865,0.548306,0.918253,0.344843,0.194666
0.149766,0.333068,0.583927,0.058725,-0.473453,-0.878860
-0.409574,0.194394,-0.043557,0.808723,0.572392,0.135405
0.174939,0.445298,0.710770,0.340126,-0.464732,0.817520
-0.881387,0.248333,-0.068170,0.905185,-0.163510,-0.392306
-0.289530,0.247871,0.429173,-0.034916,-0.611987,0.790097
0.006767,-0.548990,0.125809,0.440485,-0.550624,-0.709074
0.111661,0.188911,-0.057287,0.973100,0.127658,-0.191780
-0.109119,0.014541,0.964303,0.647394,-0.427636,0.630879
0.692294,-0.174641,0.545333,0.797630,0.312032,-0.516161
0.157063,-0.270132,0.874191,0.870392,-0.204364,-0.447944
-0.262188,-0.127691,0.568585,-0.475268,0.782062,0.403112
0.024919,0.484258,0.493765,0.240208,-0.580145,-0.778288
0.106164,-0.093127,-0.036226,0.422809,-0.636178,0.645376
-0.353824,0.050403,0.529034,0.930070,-0.232341,0.284582
0.045935,-0.108944,-0.955989,0.281837,-0.147046,-0.948127
0.545970,0.680888,-0.096612,-0.537396,0.106640,-0.836561
-0.141313,-0.342567,-0.225570,0.831658,0.453079,-0.321037
0.046952,-0.199663,-0.951354,-0.314784,0.111661,0.942573
-0.015912,-0.554011,0.495780,-0.127654,0.919912,0.370766
-0.079743,0.109072,0.671823,-0.144763,-0.255262,-0.955973
0.351148,-0.745579,0.370022,0.118833,-0.701339,0.702853
-0.134939,0.375793,-0.055246,0.591030,0.368946,-0.717330
-0.077435,-0.064882,0.767175,0.249295,0.580160,0.775414
-0.323664,-0.261218,0.261343,0.799852,-0.061894,0.596997
-0.512759,0.153846,0.152135,-0.693405,0.278989,0.664345
0.602226,-0.035421,0.544754,0.279520,-0.635378,0.719836
-0.025473,-0.039563,0.741554,0.531975,-0.653437,-0.538538
0.423894,-0.376252,0.199748,-0.157742,0.835249,0.526760
0.120391,0.132880,0.825091,-0.603526,0.298752,0.739259
-0.299645,-0.671012,0.271470,0.264473,0.289502,0.919915
0.518396,-0.574977,0.102028,0.721160,0.645579,0.251310
-0.162605,0.067226,0.726464,-0.635035,0.771540,0.038166
0.007044,-0.036133,0.839602,0.819035,0.572364,0.039752
-0.213736,0.208370,0.675828,0.545949,0.272236,-0.792355
0.275768,0.043834,0.870034,-0.686580,-0.722381,-0.082301
-0.240248,0.159662,-0.140824,0.621496,-0.188249,0.760464
-0.145747,-0.539072,0.399899,0.295344,0.954249,0.046698
-0.422969,-0.264986,0.272780,0.288948,-0.310245,0.905681
-0.632664,-0.086683,0.407129,-0.177920,-0.952291,0.247965
-0.024225,-0.527148,0.539741,0.173748,-0.973936,0.145810
0.580380,0.067727,0.556972,-0.201541,-0.307659,-0.929907
0.545278,-0.330389,0.171130,-0.150268,0.581842,0.799299
0.340246,0.580292,-0.460033,0.582667,-0.308984,-0.751684
0.078775,-0.390731,-0.234287,-0.470081,-0.552773,-0.688088
-0.686750,0.356377,-0.190956,-0.653512,0.546865,-0.523317
0.115634,0.248793,0.492253,0.732898,0.540365,0.413358
0.395858,0.514091,-0.544754,-0.441919,0.447828,-0.777275
-0.321678,0.391988,-0.076987,0.450863,-0.843012,-0.293348
0.411377,0.638498,-0.111097,-0.201588,0.359137,-0.911253
-0.067781,-0.259839,0.551556,0.641103,-0.345234,0.685420
0.290595,-0.793953,-0.065424,0.059066,-0.478177,-0.876275
-0.554468,-0.123589,0.016224,0.434078,-0.399061,-0.807667
-0.475854,0.216446,0.168989,0.418299,0.784911,-0.457100
0.521536,-0.303232,0.560650,-0.606571,0.600346,-0.521207
0.173830,0.143761,-0.642373,0.747019,0.257020,-0.613110
0.064317,0.226197,0.414183,0.339127,0.505539,-0.793362
-0.365095,0.245613,0.603350,0.114578,0.873678,0.472820
0.026120,0.001695,0.613780,0.827819,0.482570,0.286081
0.599871,-0.046510,0.039552,-0.330671,0.507512,0.795668
-0.106487,0.561295,0.174808,-0.437265,0.206070,-0.875405
-0.194707,-0.155642,0.191082,0.763282,0.131417,0.632558
0.385974,0.248668,-0.020003,0.947029,-0.048547,-0.317458
-0.121682,0.271682,0.002041,-0.120105,-0.156171,0.980401
0.290132,0.376337,0.745535,-0.521342,0.494562,-0.695422
0.023026,-0.092917,0.668220,0.925530,-0.364436,-0.102862
0.189165,-0.225860,0.571382,0.090151,-0.994151,-0.059476
-0.031476,0.279130,0.626552,-0.173789,0.449163,-0.876384
-0.810165,0.283106,0.092102,-0.591768,-0.016676,0.805936
0.054527,-0.207364,0.384557,0.430998,-0.147480,-0.890219
-0.268931,0.130370,0.688903,0.495470,0.568042,0.657144
-0.376411,0.036470,-0.366797,0.806739,0.491240,0.328413
0.576870,-0.250088,0.440836,0.837872,0.522752,-0.157168
-0.434147,0.121415,-0.182517,0.497015,0.674419,-0.546017
-0.813953,-0.080155,-0.123794,-0.569036,-0.164417,0.805707
0.165470,0.087311,0.860864,0.262866,0.184620,-0.947004
-0.334564,-0.186066,0.035647,0.371235,-0.912555,0.171547
0.198078,0.265657,0.713339,-0.592101,-0.542906,0.595541
0.010138,-0.343780,0.761733,0.773456,0.624234,-0.109992
-0.584305,0.049399,0.406676,0.817814,-0.053415,-0.572999
-0.240940,0.715830,0.062905,-0.025277,-0.763867,0.644878
0.090645,0.145896,-0.480791,0.448911,-0.082482,0.889762
-0.055541,-0.076178,0.535584,0.340467,-0.665355,-0.664368
0.459875,0.009270,-0.927699,-0.112351,0.131232,0.984965
0.166117,-0.554680,0.523013,-0.099388,-0.954208,0.282152
0.374057,-0.048017,0.193400,0.560654,0.802543,0.203939
0.437704,0.384331,-0.039274,0.519998,-0.803742,-0.289139
0.243021,-0.336039,0.560096,0.453958,0.557317,0.695212
-0.014064,-0.810733,0.351077,0.993671,0.058824,0.095700
-0.780236,0.274612,0.038292,0.182417,-0.328972,0.926553
0.060207,0.132671,0.511878,0.029250,-0.263247,0.964285
-0.611925,0.204312,0.100693,-0.046545,-0.807198,0.588443
0.277153,0.464673,0.759844,-0.228293,0.673499,-0.703051
0.450128,-0.100324,0.697645,-0.638610,0.500147,0.584833
-0.168426,0.556355,-0.016249,-0.693630,-0.643032,0.324633
-0.373732,0.066932,0.088727,0.231798,-0.313127,0.920989
0.738020,0.619711,-0.200378,-0.714231,-0.091201,-0.693943
0.273274,0.710556,-0.085502,0.537270,-0.166992,-0.826713
-0.199048,0.197574,0.303288,0.212624,0.664424,0.716472
-0.074201,0.262225,0.687240,0.179370,0.080261,0.980502
0.393778,0.320850,0.062376,0.185735,0.461151,0.867665
0.339185,-0.322942,0.081471,0.951313,0.137071,-0.276070
0.372394,-0.245151,0.598589,0.180983,0.932540,-0.312433
0.133370,0.149660,0.851090,0.831043,0.464059,-0.306622
0.109767,0.730853,-0.498249,-0.238953,0.658659,-0.713492
-0.066857,0.540204,-0.237637,-0.256573,-0.382770,-0.887500
-0.275490,0.002198,0.691372,0.895753,-0.243908,0.371666
0.249856,0.143257,0.453004,0.968894,0.208942,-0.132620
0.320663,0.083628,0.430457,-0.461698,0.830052,-0.312807
0.236738,0.248374,-0.150699,0.767699,-0.189221,-0.612236
0.196786,0.007260,-0.952085,-0.310885,0.363763,0.878081
-0.187408,0.722148,-0.365361,0.709248,0.652024,0.268014
0.624444,0.107815,-0.021665,-0.507331,0.446644,0.736969
-0.263111,-0.578657,0.240156,0.338414,-0.907370,-0.249311
0.979863,0.192384,0.090389,0.728961,-0.230210,-0.644686
0.106903,0.037515,-0.031692,0.641166,0.760870,0.099913
0.181129,-0.244272,0.590049,0.711348,-0.701321,-0.046192
-0.244220,0.605608,0.167956,-0.569384,-0.628690,0.529670
0.809289,-0.170455,0.342587,-0.547459,0.627498,0.553656
-0.600194,0.533885,-0.267490,0.807846,0.581756,-0.094578
-0.311332,0.522545,0.264693,-0.052611,-0.785320,0.616850
0.113508,-0.090992,-0.947071,0.391916,-0.237410,-0.888841
0.406112,-0.369849,0.216602,-0.270083,-0.777338,-0.568156
-0.367404,0.155644,0.151001,0.243523,0.825822,-0.508640
0.136602,-0.037178,-0.561532,0.932033,-0.087372,0.351683
0.350592,0.502795,0.704421,0.837970,-0.174119,0.517193
-0.122329,0.436719,-0.004283,0.559014,0.484533,0.672853
-0.119651,0.660175,-0.299156,-0.402741,0.448373,0.797973
0.478996,0.048270,0.740396,-0.384838,0.773256,0.503959
-0.229948,-0.465593,-0.186547,0.846519,0.493950,0.198541
-0.274335,-0.268459,0.344703,0.175796,0.960759,0.214563
0.244498,-0.236613,-0.925910,-0.105051,0.022225,0.994218
-0.010323,0.492752,0.434009,-0.735857,0.427425,-0.525188
0.332487,0.394917,0.652273,0.503334,0.807727,-0.306973
0.123947,-0.089653,-0.352311,-0.572613,0.557053,-0.601503
0.243437,0.536311,-0.086081,0.450679,0.084627,-0.888665
-0.295489,0.668294,0.177579,0.534679,0.473590,-0.699879
-0.298815,0.407511,0.631213,-0.666255,0.284787,-0.689202
0.129212,-0.225735,0.853206,0.504582,0.288230,-0.813831
-0.270778,0.049064,-0.041970,-0.055578,0.876130,-0.478860
0.098682,0.230005,0.772566,0.885608,0.070115,0.459110
-0.229070,-0.478480,-0.254188,0.402027,0.855083,0.327425
-0.634650,0.124010,0.131049,-0.418068,-0.169020,-0.892553
-0.682500,0.150329,0.032750,-0.524050,0.686231,0.504439
-0.308052,0.384706,-0.401209,0.558329,-0.113674,0.821795
-0.004825,-0.229040,-0.237133,-0.214943,-0.792755,-0.570385
0.087643,0.345330,0.601386,-0.478925,0.159989,-0.863154
-0.217939,0.221258,0.440559,0.069344,0.449975,0.890345
0.371516,0.279464,0.743922,0.229160,0.320483,0.919117
-0.388096,-0.247871,0.481446,0.863625,-0.463526,0.198231
0.232813,-0.187488,-0.923844,-0.050859,0.095810,0.994100
-0.480704,-0.362568,0.309661,0.165196,0.588055,0.791771
0.644998,0.240048,0.552261,0.787791,-0.355358,0.503096
0.426204,0.081117,-0.947021,-0.170342,0.234599,0.957051
0.192167,0.309551,0.417282,-0.717408,0.037461,0.695645
-0.387449,-0.046051,0.312583,0.973472,-0.201951,0.107552
0.191982,0.268543,0.729437,0.608110,0.724625,-0.324223
0.270688,0.141166,-0.958106,-0.226348,0.188102,0.955711
-0.640562,0.359850,-0.072377,-0.631218,-0.551473,-0.545382
0.480844,0.404247,0.368812,0.508393,0.765309,-0.394765
-0.038451,0.038687,0.606248,0.533729,0.834939,0.134199
-0.388790,-0.433665,0.304270,-0.497423,0.246602,-0.831720
0.041639,0.008976,0.685703,0.478227,0.828219,0.292152
0.128196,-0.300637,0.261116,0.593468,0.766373,0.245903
-0.059051,-0.664524,0.393929,0.952568,-0.154819,0.262003
0.550173,0.276034,0.520796,0.699314,0.059128,-0.712365
0.505232,-0.196065,-0.076508,-0.355460,0.694829,0.625189
0.246669,0.061743,0.457514,0.981600,0.177155,-0.071252
-0.663056,0.045172,0.039728,-0.498003,0.380202,-0.779384
0.152214,0.161503,0.904144,0.482048,0.795669,-0.366797
0.022194,0.423413,0.411437,0.288413,0.201551,0.936053
0.044134,0.238582,0.817030,0.451083,-0.796933,-0.401773
0.331979,0.037765,0.959012,-0.731517,-0.679052,0.061416
-0.054247,0.011906,-0.986497,-0.179151,0.095127,0.979212
-0.020484,-0.599999,0.389847,0.106478,0.883443,-0.456280
-0.441168,0.214313,0.638418,0.802246,0.164859,0.573779
-0.039191,0.028936,0.728706,0.571485,0.798127,0.190783
-0.359922,0.195523,0.316740,0.188470,0.509736,0.839433
0.046674,-0.482373,0.547953,0.965115,0.114150,0.235631
-0.284081,0.471702,-0.096334,0.814180,0.254871,-0.521681
-0.292163,0.101956,0.699458,0.165647,0.621428,0.765760
-0.115032,-0.125474,-0.000403,-0.089321,-0.416365,0.904799
-0.102330,-0.100952,0.585238,0.326645,0.546133,0.771390
-0.282002,0.269131,0.630659,-0.731886,0.311760,-0.605927
-0.103945,0.206863,0.667565,-0.545949,0.503594,-0.669577
0.339185,0.499071,0.549742,0.536647,0.371795,-0.757482
-0.452760,-0.289632,0.327875,0.489696,0.150945,-0.858728
-0.140203,-0.070907,0.494999,-0.415186,-0.811432,0.411336
0.218172,0.255277,0.438468,0.182869,0.681751,0.708360
0.069029,0.172049,0.765688,-0.613337,0.714438,-0.336743
-0.076741,0.136229,-0.403325,-0.125160,0.432785,0.892767
0.652758,-0.342233,0.333594,0.010135,-0.764799,0.644190
0.794140,0.146731,0.029172,0.219520,0.700731,-0.678813
0.066074,0.560332,-0.297519,0.955151,-0.246738,-0.163729
-0.099789,-0.492499,0.527472,-0.710026,-0.677487,-0.192024
0.106534,0.435884,0.519889,0.701542,-0.015257,-0.712465
0.009584,-0.563762,0.486610,-0.324925,0.018696,0.945555
0.197940,-0.126562,-0.385968,0.871040,-0.431231,-0.235223
-0.822682,0.164474,0.009120,-0.418569,-0.868889,0.264256
-0.226946,-0.692688,0.262930,-0.158609,-0.558793,0.813999
-0.534652,-0.213098,0.124172,-0.610997,0.235416,-0.755819
0.031201,-0.245695,0.742688,0.435033,0.827399,-0.355186
-0.029445,-0.255403,-0.962842,0.240151,-0.107534,-0.964761
0.460474,-0.118527,0.338179,0.930450,0.163377,-0.327981
0.240434,-0.031947,-0.097897,-0.002297,-0.991198,0.132366
-0.415487,0.303820,0.573322,0.798971,-0.249533,0.547155
0.080530,0.496307,0.379897,-0.225645,-0.964847,-0.134738
0.201590,0.349179,0.483940,0.910303,-0.395887,0.120923
-0.127317,0.353825,0.699937,-0.636002,-0.733691,0.239162
-0.132675,0.148991,0.426124,0.898262,-0.108063,0.425966
-0.132768,0.337839,0.682252,-0.560429,-0.801410,0.208955
-0.190088,0.032409,0.672780,-0.600464,0.395969,0.694731
0.002888,0.019062,0.831087,0.979525,-0.198050,-0.036154
-0.153737,-0.189077,0.497771,-0.207361,0.770301,0.603024
-0.118495,0.175060,0.658294,0.147787,-0.967346,0.205914
-0.200941,-0.081493,0.532863,0.317347,0.530709,0.785900
-0.842774,0.218916,0.032498,0.600001,0.405494,-0.689618
-0.177062,-0.186232,0.487391,-0.517309,0.522460,-0.677810
0.850259,0.347506,0.009120,-0.033270,0.025672,0.999117
-0.240386,-0.047054,0.239073,0.065103,0.917374,0.392667
-0.485646,0.440655,0.339413,0.595318,0.252484,-0.762790
-0.437703,0.270510,0.284545,0.314994,0.838401,-0.444818
-0.506801,0.080198,0.326061,-0.297040,-0.866203,0.401822
-0.818479,-0.036759,-0.129286,0.362053,-0.181497,0.914317
-0.538994,0.139743,0.125154,0.111761,-0.380790,0.917883
-0.015403,-0.297458,0.758332,-0.521178,-0.089368,-0.848756
-0.126717,0.460740,0.162842,-0.653642,-0.172191,-0.736955
-0.381353,0.079151,0.527044,0.794563,0.253489,0.551736
-0.707951,0.057559,0.182693,-0.587594,-0.167568,-0.791615
-0.484676,0.449231,0.414133,0.929712,-0.241634,0.277938
0.031847,-0.434500,0.708704,0.996134,-0.009340,0.087349
0.104087,-0.414039,-0.932158,0.177183,0.057111,0.982519
0.027136,0.642056,-0.309611,-0.503251,0.214125,0.837191
-0.289161,0.675323,-0.123567,0.026871,-0.030788,0.999165
0.918756,0.157946,0.082554,-0.595017,-0.266896,0.758104
0.106302,0.515179,0.470588,-0.100417,-0.062395,0.992987
0.089813,0.481494,0.425268,-0.556150,-0.728307,0.400332
0.159280,0.538656,-0.191913,0.863920,0.320054,-0.388855
-0.553405,0.401696,0.352916,0.151619,0.853929,-0.497811
-0.360614,0.365206,0.007784,0.548030,-0.728159,0.411641
-0.281864,0.511374,-0.119587,0.180928,-0.931699,0.314964
0.132815,0.419270,0.705630,-0.703386,0.587230,-0.400510
0.062932,-0.790186,-0.097267,0.993987,-0.076205,-0.078626
0.066350,0.612514,0.453634,0.411192,0.495067,-0.765395
0.709199,0.390940,-0.233405,-0.586447,-0.036165,0.809180
-0.304542,0.299718,0.582491,0.897749,0.342682,0.276795
-0.136601,0.467478,0.187328,0.495453,-0.033655,0.867983
0.598532,-0.574139,0.266935,0.251970,0.632320,0.732586
0.468049,0.581002,-0.128530,0.146501,-0.502367,0.852153
0.018729,-0.424457,-0.942184,0.061783,0.262056,0.963073
0.702687,0.267080,0.613125,-0.132846,-0.957598,0.255653
0.117249,-0.038685,-0.631893,0.723846,-0.040158,-0.688792
0.595761,-0.201255,0.466759,0.768690,0.557920,-0.312795
-0.094893,-0.265823,0.614259,0.989172,-0.116508,0.089241
-0.033277,0.215861,0.596347,0.674178,-0.108723,-0.730523
-0.952564,0.410860,-0.105857,0.813569,-0.357891,0.458279
-0.475900,0.056136,0.518201,0.817636,0.527799,0.229999
0.173923,0.540038,-0.208187,0.086623,0.656073,0.749710
-0.015033,-0.080489,-0.980149,-0.256280,0.252656,0.932998
0.457612,-0.606067,-0.274493,0.646045,0.679682,0.347359
0.004180,0.798348,-0.400277,0.187702,-0.979220,-0.076785
0.027645,0.790104,-0.311173,0.288375,-0.607570,0.740066
-0.744023,0.224062,-0.013780,-0.167935,0.039669,0.985000
-0.176646,-0.020651,0.842046,0.987268,0.008777,-0.158826
0.468974,0.241427,-0.952588,0.239652,-0.187121,-0.952656
0.581027,0.300931,-0.044212,0.637067,0.760139,0.127806
-0.131890,0.025212,0.559844,0.178473,-0.221915,0.958593
-0.504352,-0.506225,0.288978,-0.756022,0.085606,0.648924
-0.115216,-0.531581,-0.265827,0.267361,0.833430,0.483645
0.036605,0.177070,0.862804,-0.270052,0.926319,-0.262689
-0.155907,0.277081,0.560877,-0.679321,0.102360,0.726667
0.314890,0.371484,-0.985086,-0.140342,0.182321,0.973172
0.087042,0.692688,0.081673,0.862660,-0.166744,-0.477508
0.425695,-0.793074,-0.053407,-0.507255,0.506831,0.697005
0.757327,0.360478,0.544729,-0.623338,-0.378504,-0.684240
0.717975,0.182510,-0.009346,0.595189,-0.053616,-0.801795
0.108104,-0.259295,-0.940899,-0.292391,0.121991,0.948486
0.240481,0.002910,0.238166,-0.294764,-0.932049,-0.210709
0.528695,-0.237075,-0.001335,-0.426851,0.347201,-0.835015
-0.271009,-0.338591,-0.467036,-0.490911,-0.869627,0.052490
-0.730490,0.287374,0.065071,0.296362,0.658903,-0.691387
-0.216600,-0.084967,0.259781,0.161246,0.907411,0.388079
0.089906,0.046763,0.736062,0.428317,-0.545057,0.720734
0.175816,0.386966,0.597481,-0.549722,0.535922,0.640775
0.146903,-0.333278,0.773347,0.989872,0.141108,-0.015577
-0.234150,0.094593,0.630130,-0.813420,0.581629,-0.007526
-0.437102,-0.278124,0.318529,0.621700,-0.454308,-0.638039
-0.652062,-0.219751,0.032624,0.751664,-0.196403,0.629625
-0.124223,0.765457,0.013629,0.398636,-0.916214,0.040515
-0.203528,0.402324,0.286585,-0.714833,-0.075594,-0.695198
-0.811690,0.412826,-0.126187,-0.472456,0.864353,-0.172276
0.172075,0.203433,0.824386,0.038318,0.657240,0.752707
0.213737,-0.296829,-0.037032,-0.401716,0.463900,-0.789570
0.153000,-0.218954,0.427308,-0.343615,0.848756,0.401923
-0.263527,0.063837,0.706638,-0.619237,-0.336967,-0.709224
0.431838,0.044503,0.859252,0.560817,-0.660135,-0.499706
-0.290409,0.074549,-0.358937,0.035926,0.324289,0.945276
0.145332,0.083462,0.202973,-0.151042,-0.797198,0.584519
-0.112861,-0.027220,0.936516,0.467613,-0.866348,0.175442
-0.206715,0.526729,-0.243482,-0.051758,0.905372,0.421453
0.708138,-0.681764,0.218340,0.424447,0.336483,-0.840609
0.186255,0.275490,0.431213,0.751076,0.326812,-0.573654
0.209996,0.292564,-0.987177,-0.151699,0.365982,0.918175
0.207548,-0.376712,0.432019,0.002065,0.781803,0.623522
0.367221,-0.274903,0.815292,-0.607119,0.074803,0.791082
0.021501,0.644817,0.469329,0.340682,0.370489,-0.864103
-0.073601,-0.236697,0.606928,0.862262,-0.496195,0.101465
-0.262604,0.144389,0.691447,0.358385,0.716166,0.598888
-0.488741,0.485596,0.423202,0.925341,-0.098627,0.366083
0.051431,0.179371,-0.044615,-0.347931,-0.049304,0.936223
-0.083393,0.043834,0.946719,-0.760473,0.493052,-0.422587
-0.160804,-0.233602,-0.287467,-0.563047,-0.276251,-0.778886
-0.280939,0.613643,-0.126489,0.362876,0.247009,0.898503
-0.310269,0.574936,0.439426,-0.144047,-0.835473,0.530317
0.567400,-0.115053,0.602544,0.753174,0.504682,-0.421929
0.019931,-0.512459,0.486459,-0.211301,0.702693,0.679392
-0.430775,0.251429,0.444615,-0.430632,-0.373531,-0.821602
-0.248330,0.230422,0.199093,-0.075159,0.981457,-0.176333
-0.032677,0.513800,0.636050,0.135964,-0.587266,0.797893
-0.894366,0.240423,-0.036403,0.989113,-0.131049,0.066941
-0.284588,0.128028,0.698425,-0.024221,0.228980,0.973130
0.156556,-0.309173,-0.927825,-0.056414,-0.081057,0.995112
-0.687259,0.277288,-0.042146,0.578927,0.815350,0.006893
0.242374,0.457851,-0.179217,-0.643598,0.029229,0.764806
0.441954,-0.571795,0.261418,0.926921,0.132844,-0.350956
-0.511558,0.001613,0.455674,0.689864,0.525005,-0.498456
0.388191,-0.319468,0.185615,0.516878,0.686832,0.510979
-0.008475,0.080617,0.765336,0.888483,-0.048761,-0.456312
-0.301262,0.510871,-0.280187,-0.320734,0.329113,-0.888152
-0.191936,-0.255612,0.164126,0.922204,-0.201426,0.330102
0.576223,0.163176,0.584734,-0.621458,0.494228,-0.607888
0.137711,-0.283982,0.849628,-0.232976,-0.619879,0.749314
0.196508,-0.331309,0.833606,0.775295,-0.626882,0.077050
-0.973534,0.089362,-0.029727,0.752434,0.301470,0.585627
-0.027319,0.447265,0.477844,0.901246,-0.365923,0.232067
0.017206,-0.358509,0.349968,0.890856,-0.391324,0.230738
-0.439366,-0.088105,0.025847,-0.565791,0.009873,0.824490
-0.326342,0.457182,-0.593853,0.857581,0.078496,0.508324
0.324127,0.176692,0.894470,0.300867,0.438220,0.847020
-0.350037,0.195357,0.478247,-0.159887,0.822454,0.545898
-0.178632,-0.462076,-0.180098,0.639131,0.184992,-0.746518
0.246946,-0.205147,0.849754,-0.072151,-0.992132,-0.102317
0.320294,0.082875,0.750220,0.791867,0.026246,0.610129
-0.454792,-0.026551,0.086182,0.937501,0.322741,0.130116
-0.312580,-0.094968,0.676937,-0.410912,0.464370,-0.784545
-0.028936,0.147653,0.843658,0.968191,-0.038613,0.247217
-0.070505,0.595064,0.022698,0.058611,-0.947311,0.314907
0.571928,-0.667873,-0.056909,0.863938,-0.502742,-0.029352
-0.168748,-0.088021,0.771835,-0.256406,0.841959,0.474722
0.043810,0.043624,-0.977025,-0.241476,0.066993,0.968091
-0.206808,0.199791,-0.018365,-0.373326,0.519210,0.768797
-0.283111,0.493043,-0.100491,0.337250,-0.343402,0.876548
0.365281,0.457351,-0.991284,-0.107171,0.211801,0.971419
0.077805,-0.331309,0.825746,-0.494432,0.517295,0.698529
-0.114847,0.020944,-0.683562,-0.232752,0.972536,0.000687
0.186717,-0.493084,-0.061469,0.330373,-0.662428,-0.672342
0.153462,-0.399936,0.685905,0.437999,0.062298,0.896814
0.213553,-0.509405,0.479557,-0.270395,-0.668170,-0.693134
-0.156139,-0.300303,0.191787,0.984052,-0.177486,-0.011866
-0.311192,0.525515,-0.266356,-0.308874,-0.019012,-0.950913
0.085518,-0.501538,0.546996,0.944244,-0.327670,0.032192
0.186531,-0.203765,0.718050,0.854448,-0.503819,0.126828
-0.064687,-0.005334,0.877718,0.902573,-0.430535,-0.001130
-0.032308,0.045591,0.363623,0.226992,-0.857921,0.460920
0.289116,0.465008,0.077566,0.302853,0.325769,0.895631
0.356506,-0.065341,0.359642,-0.113830,-0.055092,0.991972
-0.441721,-0.160203,0.333720,-0.414632,0.359628,-0.835911
0.244914,-0.075259,0.523844,-0.639877,0.746601,0.182057
0.388191,0.319678,0.590301,0.437030,0.608912,-0.661990
-0.319368,-0.200335,0.458420,0.032001,0.944250,0.327670
0.459551,0.148866,-0.050284,-0.219500,-0.093450,0.971127
0.185377,-0.022239,0.101474,-0.154539,-0.931014,-0.330653
-0.015496,-0.428809,0.429979,-0.238548,0.901272,0.361669
0.095865,-0.288294,-0.927976,0.112549,-0.379794,-0.918199
0.015958,0.125517,0.658496,-0.051897,0.245379,0.968037
-0.156185,0.522923,0.185489,0.601140,-0.065139,0.796485
-0.358397,0.328507,-0.128253,0.192739,0.384626,0.902726
-0.203805,-0.205481,0.196146,0.937067,-0.175109,0.302064
0.278216,0.313568,-0.974103,-0.137211,0.223442,0.965011
-0.027828,-0.572507,-0.191813,-0.366731,0.454942,0.811502
-0.225376,-0.024249,0.507268,0.701330,0.540947,-0.464233
-0.784393,0.285867,0.044640,0.332569,-0.394492,0.856606
-0.219325,0.464842,-0.426401,0.497422,-0.012999,0.867411
-0.415948,0.125264,0.476760,-0.179844,0.285567,0.941333
0.656360,-0.749303,0.098627,-0.668548,0.146063,0.729184
-0.117618,0.757591,-0.293689,0.467006,0.073227,-0.881217
0.043118,0.065050,0.852777,-0.299675,0.502319,0.811092
-0.013325,0.275156,0.625318,0.978234,0.206447,-0.020907
0.301495,-0.154597,0.143318,-0.267274,0.248318,0.931076
0.313874,0.385710,0.627762,0.550336,0.457589,-0.698386
0.390130,-0.018012,0.683310,0.418971,0.895278,-0.151463
-0.042285,-0.310930,0.677239,-0.701527,-0.465534,-0.539573
-0.515577,0.307921,0.280917,-0.566812,0.091490,-0.818752
0.326898,0.374538,-0.978536,-0.201452,0.175371,0.963671
0.267131,-0.138990,0.659101,0.267791,0.949817,0.161667
0.054618,0.553679,-0.344678,0.864352,-0.311125,-0.395092
0.356413,0.530915,0.576294,-0.722815,0.151469,0.674237
-0.456363,-0.227743,0.085124,-0.111943,0.992231,-0.054277
-0.320893,-0.151124,0.553722,0.510954,-0.323380,0.796461
-0.006812,0.311980,0.658395,0.801843,0.535051,-0.266025
0.131938,0.366922,0.738204,0.530548,0.429086,-0.731029
-0.072262,0.643688,-0.052954,-0.075196,0.735182,0.673686
-0.491604,0.455341,0.131125,0.001730,-0.999992,0.003610
0.113693,-0.358300,0.867087,-0.601195,0.736584,-0.309852
0.098589,-0.337965,0.853584,0.580655,0.754082,0.306919
0.466063,0.571503,0.374632,0.249449,0.920642,-0.300321
-0.508649,0.180794,-0.121249,0.237024,-0.498014,0.834147
-0.099744,0.338718,0.705504,0.775898,0.626955,-0.070067
-0.176000,0.515054,0.260537,-0.542482,-0.428074,-0.722819
0.230734,-0.316748,0.721552,0.631711,0.700194,0.332670
0.729384,-0.409059,0.567351,0.963252,0.226125,-0.144959
0.622180,-0.306162,-0.055800,0.699346,-0.156244,-0.697498
-0.613773,0.546522,-0.226653,-0.863273,0.074024,0.499280
0.676497,0.141375,-0.012470,-0.507051,0.207029,0.836683
0.164962,0.006759,-0.956770,0.347297,-0.273144,-0.897094
-0.463938,0.011027,0.522736,0.174816,0.954446,0.241810
0.034019,0.524302,0.618667,0.320101,-0.600224,0.732985
-0.331100,0.097563,-0.130948,0.118690,0.360685,-0.925105
0.226301,-0.034626,0.080917,0.786385,-0.589572,-0.184400
-0.063116,-0.310470,0.546895,-0.626897,0.401495,-0.667685
0.152537,-0.388512,0.828643,0.850695,-0.125028,0.510575
-0.615666,0.247455,0.224210,0.405636,-0.808645,0.426090
-0.345511,0.089193,0.692254,0.539771,-0.712209,-0.448783
0.209256,0.171965,0.421615,0.782404,0.361407,-0.507178
0.235353,-0.188786,0.876080,0.041253,-0.943056,0.330067
-0.207685,-0.022073,0.856632,-0.933110,-0.147766,0.327827
0.533776,-0.763616,-0.007104,-0.656332,0.669637,0.347582
0.011940,0.159368,-0.659932,0.268675,0.171636,-0.947816
-0.014155,-0.082121,0.684141,0.881259,-0.239539,0.407435
-0.083438,0.603935,0.180602,-0.443284,0.338866,-0.829861
0.270456,0.195523,-0.965613,0.211735,-0.209356,-0.954640
-0.321078,0.118445,0.314599,0.918292,-0.394450,-0.033898
-0.489527,0.102209,0.216173,0.346893,0.862096,0.369400
0.303527,-0.556940,0.459176,0.392233,0.919468,-0.027039
0.020162,0.138111,0.054062,0.327354,-0.467481,0.821158
0.271704,0.105138,0.896738,-0.409757,-0.481042,-0.775047
-0.143484,0.660509,0.084948,0.967182,0.231576,0.104550
0.099883,0.358637,0.461872,-0.575913,-0.520456,-0.630436
0.179281,-0.077100,-0.563270,0.817053,0.110085,-0.565955
0.140020,-0.386839,-0.934551,0.008837,-0.138964,0.990258
0.111846,-0.026466,0.485099,0.968871,0.231738,-0.087098
0.273597,-0.446049,0.615846,0.725623,0.589078,0.355610
0.540474,-0.430526,0.237914,0.232114,0.555854,0.798216
0.539734,-0.346625,-0.105101,-0.099115,0.339554,0.935350
-0.367635,0.074045,0.545636,0.698990,0.017353,-0.714921
-0.109165,0.300849,0.289533,0.871595,0.438763,-0.218652
-0.022886,0.050696,-0.025746,0.104757,0.506200,0.856030
-0.071430,-0.338591,0.588109,0.871237,-0.335971,0.357870
-0.383339,0.316541,0.565184,-0.742404,0.364938,-0.561833
0.262975,-0.363321,-0.107016,-0.348986,0.568272,0.745168
0.194199,-0.074255,-0.435420,0.967342,-0.235286,-0.094283
-0.612526,0.165396,0.100617,0.684771,0.719900,-0.113281
-0.131013,0.280511,0.235294,0.797385,0.555476,-0.235846
-0.469896,0.008935,0.554831,-0.131981,-0.980640,-0.144662
0.201590,0.501622,0.497393,0.846622,0.528785,-0.060140
0.749752,0.228079,0.014082,0.521468,-0.513423,-0.681519
-0.301032,0.791110,-0.033430,-0.665715,0.645447,0.374462
0.340246,-0.090029,0.928379,0.964243,-0.260932,0.046360
-0.603196,0.526103,-0.258949,0.905422,0.410331,-0.108807
0.355997,-0.859106,-0.201688,0.126585,0.853039,0.506262
0.208841,-0.034042,-0.318101,0.565703,0.817037,0.111488
0.290595,-0.130577,-0.020254,0.909057,0.285953,-0.303062
-0.938984,0.152968,0.011210,-0.630833,0.775862,-0.009438
0.132076,0.075343,0.013906,0.956009,0.290363,-0.041664
-0.062561,-0.160791,0.738002,-0.151371,0.903384,-0.401229
-0.320384,0.108568,-0.004988,-0.161860,-0.632180,0.757726
0.488465,0.145561,0.516967,-0.670370,0.538089,0.510944
0.622689,0.106517,-0.014133,0.348812,-0.116190,-0.929962
0.209025,-0.275741,-0.924449,-0.090932,-0.025840,0.995522
0.138913,-0.401443,0.845824,0.331264,0.915044,0.230127
0.421585,0.353782,-0.043834,-0.537330,0.738525,0.407256
0.217616,-0.247117,-0.163925,-0.424925,0.214237,0.879512
-0.526014,0.342695,0.016501,-0.051066,-0.950434,0.306704
0.674882,-0.061658,0.540421,0.144308,-0.711323,0.687891
-0.070921,0.695492,-0.264542,0.591458,-0.096919,-0.800490
0.028014,0.309091,0.692984,0.453011,0.189681,-0.871092
0.074988,0.202805,0.786875,0.972274,0.233395,0.014474
0.179188,0.150539,0.861418,-0.397270,-0.546367,-0.737333
-0.045425,-0.291139,-0.958962,0.326881,-0.089207,-0.940846
-0.259646,0.133718,0.679632,-0.394020,-0.758269,-0.519401
-0.348744,0.038938,0.444892,0.198733,-0.489795,0.848885
-0.526246,-0.062578,0.358106,-0.476294,0.821256,-0.314136
-0.089674,-0.196568,-0.635420,0.309420,0.735488,0.602758
-0.508002,0.410275,0.047059,0.149269,-0.273172,0.950314
0.070091,0.034376,0.601864,0.777367,-0.290312,0.558049
-0.103253,0.399560,0.251115,-0.711994,0.136298,-0.688830
-0.523752,-0.138152,0.312709,-0.143377,0.354955,0.923824
0.396458,0.473084,0.710064,0.848736,-0.362751,0.384784
-0.511511,-0.219291,0.097090,-0.149214,0.882418,-0.446176
-0.023994,-0.167319,0.806525,-0.693441,0.441739,-0.569216
0.355165,0.444001,0.714221,0.656910,-0.505819,0.559121
-0.104316,0.455759,-0.014662,0.501909,0.685097,0.527948
-0.594696,-0.161251,0.303917,-0.130870,-0.895964,0.424406
0.181959,0.266076,-0.977277,-0.165374,0.287948,0.943259
0.193045,-0.024206,-0.355284,0.043443,0.993077,0.109137
0.513777,0.375417,0.023026,-0.703279,0.076350,-0.706803
0.076004,-0.450736,0.511551,0.977536,-0.162287,-0.134484
0.311425,-0.218454,0.846782,-0.255477,0.893388,-0.369580
0.235862,0.145518,0.795969,0.760048,0.610281,-0.223351
-0.451374,0.258669,0.663509,0.940696,0.056766,0.334467
0.063948,-0.281722,0.715153,-0.282333,0.523449,-0.803921
0.195492,0.527066,0.500869,0.767842,0.632002,-0.104842
-0.114200,-0.022198,0.879229,-0.124118,0.991159,0.046881
-0.173506,-0.430023,-0.216727,0.918979,-0.391482,-0.047111
0.109305,0.548280,0.454012,0.467383,0.222320,-0.855644
0.788781,0.123632,0.008842,0.240058,0.822596,-0.515468
0.142515,0.239041,0.412193,0.419285,0.352609,-0.836581
0.278723,-0.190081,-0.921451,0.053140,0.014615,0.998480
0.030508,0.366838,-0.045699,0.880601,0.463996,0.096176
0.186347,-0.090154,-0.218567,-0.650125,0.743306,0.157588
-0.843467,0.147653,-0.096108,0.273004,-0.825119,0.494619
0.064826,-0.012866,0.712860,0.426257,0.365359,-0.827537
0.051478,0.092248,-0.380451,-0.386465,-0.184445,0.903673
0.708138,0.184978,0.508754,0.159651,-0.223921,0.961442
-0.637837,-0.108775,-0.211286,-0.791386,0.220280,-0.570249
-0.029999,0.274068,0.575715,0.873345,0.449920,0.186657
