0.105120,-0.160097,0.604746,0.990224,-0.031201,-0.135950
0.192508,-0.095007,0.221223,-0.719599,0.693471,-0.035714
0.117775,-0.163714,0.436353,0.804631,0.538885,-0.249343
0.541356,0.216123,0.296869,-0.507902,-0.058813,0.859405
-0.220769,0.752368,0.593072,0.862992,0.450397,0.228884
0.261237,0.335937,0.931458,0.924032,-0.244940,-0.293547
0.486783,-0.630240,0.240992,0.162761,0.033947,-0.986081
-0.373884,-0.679227,0.160737,0.674177,0.094335,-0.732520
0.033839,-0.454979,0.734878,0.630387,-0.503866,-0.590535
0.591626,0.142836,0.556068,-0.017993,-0.417044,0.908708
-0.863092,-0.077409,0.152986,-0.165109,0.234460,0.958002
-0.338919,-0.606953,0.150453,-0.646736,0.048495,0.761171
0.043895,0.348376,0.951398,-0.509368,0.710333,-0.485770
-0.333066,0.204262,0.337091,-0.487150,-0.399840,0.776411
0.703425,-0.141342,0.336634,-0.090424,0.038195,0.995171
0.225321,0.332755,0.361869,0.724810,-0.483032,0.491254
0.133532,0.174321,0.594671,0.318511,0.463090,-0.827102
0.383338,0.034787,0.800697,0.913985,-0.212222,0.345824
-0.541755,0.720354,-0.018454,0.787391,0.595403,-0.159723
-0.399044,0.367421,0.630971,0.104278,-0.991369,0.079462
0.022786,-0.410429,0.635427,-0.396549,0.480421,-0.782269
-0.702523,0.338348,0.329150,0.005606,0.947766,0.318916
0.233175,-0.126829,-0.399082,0.769074,-0.607242,0.199457
0.138985,-0.148092,0.240459,0.799875,-0.593308,0.090472
0.503639,0.438490,0.689552,-0.108549,0.906097,0.408908
-0.541904,0.638196,0.015331,-0.510617,0.471370,-0.719083
0.053348,-0.128131,0.924964,-0.519057,0.796403,-0.310359
-0.595027,-0.530677,0.224137,-0.697748,-0.181826,-0.692883
0.103319,0.183048,0.597985,0.346291,0.672681,-0.653898
0.178151,-0.208264,-0.539975,0.875271,-0.480226,0.057303
0.167197,-0.223211,-0.495620,-0.592087,0.780313,-0.201356
-0.268789,0.176249,0.195056,0.776778,0.594197,-0.208675
0.441213,0.247414,0.718881,0.277013,0.165169,0.946564
0.134183,0.229575,0.661328,0.807323,-0.108443,0.580061
0.151090,-0.079386,-0.020302,0.383246,-0.688364,0.615855
0.194457,-0.179866,0.860440,-0.189085,-0.932077,0.308997
-0.202710,-0.044816,0.611316,0.094101,0.529570,0.843031
-0.736637,0.812685,-0.025748,0.578155,0.506689,-0.639533
-0.008478,-0.406765,0.339377,-0.334838,0.823685,0.457631
0.145688,-0.070611,-0.013693,-0.303691,0.686946,-0.660210
0.216467,-0.106675,-0.202083,0.880380,-0.459040,0.119222
0.256984,-0.188544,0.830121,0.401123,0.636131,-0.659120
-0.311206,-0.644560,0.160014,0.556751,0.031533,-0.830081
-0.159842,0.350257,0.593567,-0.252964,-0.107183,0.961520
-0.165945,0.011306,0.643254,-0.670307,0.701101,-0.243199
-0.541955,-0.393264,0.217567,-0.484293,0.829578,-0.277956
0.100118,-0.400690,0.830083,0.851652,-0.214048,0.478406
-0.080108,0.130927,0.581835,-0.704526,-0.537690,0.463177
0.137184,0.087245,0.632951,-0.778761,0.270524,-0.565994
0.190256,-0.097707,0.085625,-0.102362,-0.994408,0.025989
0.032440,-0.080302,0.680201,0.308507,-0.234098,0.921966
0.149439,-0.040476,0.546469,-0.387335,0.918449,0.080143
0.060001,0.173742,0.081854,0.883910,0.213366,0.416147
-0.130380,0.240520,0.836444,-0.763019,-0.007520,-0.646332
0.334668,0.632410,0.682182,-0.403406,0.051276,0.913583
-0.197758,-0.508353,0.161233,0.176210,0.303032,0.936548
0.143786,-0.153492,0.862250,-0.109951,-0.608852,0.785627
-0.544756,0.378944,0.335720,-0.505301,0.810591,0.295995
-0.039741,-0.056339,0.814771,-0.362126,-0.900448,-0.240954
0.376536,0.324269,0.746039,-0.267482,-0.762141,0.589571
-0.087411,-0.389359,-0.030319,0.365717,0.680853,0.634579
0.201811,0.086088,0.347014,-0.856385,0.233837,0.460354
-0.184953,0.292785,0.742820,0.818600,0.553050,-0.155013
-0.004927,-0.269642,0.797764,0.609294,0.631285,0.479834
0.106171,0.369784,0.970595,0.637189,0.621814,-0.455343
-0.046545,-0.210000,-0.323798,0.385791,-0.909761,0.153295
0.065054,0.366553,0.940790,-0.492514,-0.785334,0.375074
0.214316,0.179239,0.921917,-0.172337,0.985036,-0.002221
0.462023,-0.070129,0.493315,0.468715,-0.310882,-0.826837
0.533102,0.119115,0.530567,-0.047653,-0.606453,0.793690
0.224771,0.207637,0.736078,0.868401,-0.470161,0.157571
-0.085210,-0.417999,0.741697,0.835496,0.404277,0.372164
-0.709625,0.319399,0.367277,-0.193674,0.015374,0.980945
-0.272091,0.144476,0.077474,-0.318049,-0.454038,-0.832283
0.236726,-0.119549,0.834463,0.359723,-0.712697,-0.602214
0.031189,-0.428799,0.591738,0.479822,-0.694649,0.535942
-0.250132,0.032714,0.799288,-0.537462,-0.790743,-0.293018
0.299454,0.176201,0.730365,0.109331,-0.183537,0.976914
0.191307,0.330103,0.712368,0.008203,-0.940177,0.340587
-0.750894,-0.052530,-0.005980,0.759023,-0.147062,-0.634237
0.347724,-0.137919,-0.785709,-0.756496,0.309381,-0.576192
-0.228122,-0.301753,0.728727,0.960235,0.030223,0.277553
0.158444,-0.046310,0.778872,-0.663823,0.320904,0.675544
0.203913,0.375135,0.740211,0.313363,-0.880362,0.356044
-0.071254,0.048287,0.798221,0.796971,0.074458,0.599411
0.469475,0.101516,0.619677,0.522015,0.780460,-0.344068
-0.035239,0.000940,0.946541,0.629786,0.700598,-0.335457
0.218319,0.640172,0.145273,0.268935,-0.395833,-0.878061
-0.317459,-0.382416,0.125695,0.849806,0.485061,0.206265
-0.220518,-0.540609,0.472099,-0.730051,-0.484230,-0.482232
-0.180851,0.275379,0.208311,0.401351,-0.228594,0.886940
-0.253682,0.708252,0.625333,0.979040,-0.113949,0.168807
0.096717,0.314433,0.694485,-0.733657,-0.538817,0.414034
-0.172698,-0.536511,0.566942,0.982349,0.012815,0.186618
0.082461,-0.188834,0.416794,0.797357,0.595981,0.095019
0.397594,-0.339842,0.619144,-0.030042,0.669661,0.742059
-0.154189,0.452086,0.375162,-0.437405,-0.891439,0.118376
-0.238725,0.719197,0.612973,0.916513,-0.016039,0.399683
-0.647299,0.191437,0.392378,0.636496,0.749936,-0.180190
0.231774,0.169162,0.671155,-0.644107,0.710446,0.283534
-0.454617,-0.667318,0.137389,-0.181555,0.058592,0.981634
0.026488,-0.143608,0.612383,0.949651,-0.237468,-0.204380
-0.504839,0.151901,0.409747,0.216487,0.190713,-0.957477
0.381088,0.389359,0.775996,-0.140794,-0.111012,0.983795
-0.096065,-0.031075,0.849566,-0.282849,0.837627,-0.467308
-0.098317,0.262698,0.491601,0.295422,-0.481828,0.824965
-0.176750,0.080591,0.905348,0.829812,0.006192,-0.558008
0.167397,0.012705,0.507104,-0.559145,0.791479,0.246814
-0.296901,-0.126154,0.433477,0.184438,0.807402,0.560433
0.397545,0.060871,0.510075,-0.051399,-0.654038,0.754713
0.097667,0.078759,0.891369,0.934402,-0.320398,0.155688
-0.014181,0.707239,0.711492,0.917274,0.047796,0.395379
0.170048,0.293556,0.842938,0.996051,0.034820,0.081666
0.482831,-0.215400,0.519045,0.194190,0.436244,0.878625
-0.634844,-0.155228,0.120705,-0.087475,0.320156,0.943318
0.153641,-0.059811,0.467167,-0.735018,0.609558,-0.296963
-0.146337,0.326921,0.505885,-0.434829,0.322837,-0.840654
0.317160,0.267086,0.121696,-0.268846,-0.942992,0.196184
0.145387,0.569923,0.158128,-0.086124,0.701209,0.707735
0.302204,0.120609,0.245010,0.090422,-0.716822,0.691368
-0.191305,-0.776187,-0.435933,-0.130056,0.187979,0.973524
0.290949,-0.058557,-0.986497,0.356444,-0.056593,-0.932601
-0.251481,-0.539114,-0.435743,-0.160429,0.472004,-0.866877
-0.408397,0.301222,0.598461,0.159701,0.364333,-0.917473
0.336419,-0.354259,0.709778,-0.137587,-0.911692,0.387154
-0.670560,0.798510,0.019521,0.943564,0.090363,0.318624
0.060601,0.377016,0.430315,0.717111,-0.107166,-0.688670
0.100318,-0.097081,-0.296545,0.321041,-0.885108,-0.336922
-0.186054,0.156674,0.060772,0.136595,0.171059,0.975746
-0.089063,-0.247559,0.686372,-0.297343,0.921073,0.251418
-0.325612,-0.434633,0.190885,0.363727,-0.218109,0.905611
-0.156891,0.820207,0.605774,0.667547,-0.509685,0.542772
0.166997,-0.548950,0.654529,0.412514,0.910649,-0.023440
-0.723282,0.824449,-0.078598,0.575772,0.756746,-0.309551
0.046645,0.342687,0.419117,0.804012,-0.201534,-0.559418
0.167397,0.277115,0.933934,-0.163213,0.446450,0.879798
-0.063802,-0.032521,0.846919,-0.139021,-0.975266,0.171840
0.182602,0.282949,0.100118,-0.165894,0.751056,-0.639057
0.426858,0.460042,0.531176,0.190083,0.716565,0.671121
-0.605281,-0.206769,0.117868,0.155193,-0.767927,0.621452
0.296202,0.617511,0.642512,0.966863,-0.193253,-0.166819
-0.025485,0.420168,0.654891,0.123551,-0.848835,0.514018
0.158893,0.112847,0.678259,0.455671,0.887667,-0.066417
0.029838,0.206769,0.903938,0.488225,0.500568,0.714890
0.013781,-0.273884,0.774853,0.016057,0.646585,0.762673
0.223620,-0.130060,-0.995505,-0.093804,0.390681,0.915734
0.044145,-0.421229,0.604765,-0.308870,0.795881,-0.520742
-0.086361,0.440901,0.386417,0.291174,0.775392,0.560343
-0.051446,0.399002,0.661594,-0.270447,0.274361,-0.922813
0.195158,-0.202430,-0.541403,-0.511992,0.723229,-0.463469
0.111824,0.294810,0.832273,0.851070,0.080205,0.518891
-0.291648,0.129143,0.362878,-0.187980,-0.959293,0.210762
-0.263237,-0.413274,0.469414,0.288360,0.915442,0.280740
0.480080,0.318483,0.710939,0.373947,-0.852320,0.365669
0.163445,0.073937,0.652739,0.365097,0.922955,-0.121899
-0.356025,0.188833,0.380799,0.841869,0.142204,-0.520610
0.187805,0.389070,0.735774,-0.551532,0.644204,-0.529918
-0.529399,-0.056821,0.387103,-0.140868,-0.866982,0.478015
0.540755,0.284588,0.311991,-0.258601,0.883871,0.389741
0.610184,0.304260,0.700865,0.071009,-0.397441,0.914876
-0.103719,-0.299294,0.808981,-0.679318,-0.724730,0.115298
-0.151388,-0.721077,-0.474175,-0.024957,0.405277,0.913853
-0.670310,0.014874,0.048754,-0.704009,0.645905,-0.295261
-0.310257,0.375569,0.849090,-0.306413,0.888024,0.342818
-0.197709,0.538970,0.753276,-0.018644,-0.998499,0.051490
0.396794,-0.012030,-0.990382,-0.296430,-0.116004,-0.947983
-0.593727,0.175333,0.071684,0.019263,0.111311,0.993599
-0.289047,-0.496396,0.154795,-0.739848,0.669850,-0.062663
-0.063301,0.040524,0.947570,0.778761,0.601620,-0.177722
0.868345,0.241677,0.262627,0.565398,0.234845,0.790679
0.225022,-0.108508,-0.512208,0.795117,-0.604518,-0.048436
0.228322,-0.098575,-0.782795,0.214753,-0.143148,0.966121
-0.866943,0.879704,-0.054449,-0.446269,0.748878,-0.489925
-0.089413,0.430100,0.692142,-0.395119,0.911650,-0.113026
0.027837,-0.359707,0.136855,-0.021763,0.988341,0.150695
0.373034,0.616161,0.672755,-0.164319,-0.197497,0.966434
0.390992,-0.618187,0.486669,0.967907,0.182852,0.172397
-0.071305,-0.268967,0.731812,-0.181795,-0.843862,0.504825
0.005377,-0.400015,0.162261,0.196626,-0.971667,-0.131151
-0.458269,-0.003881,0.402643,0.110417,0.151658,0.982246
0.109422,0.157204,0.855831,0.944346,0.321429,0.069963
-0.101267,-0.348666,0.492192,-0.365620,0.845262,0.389685
-0.056849,-0.548323,0.509522,-0.662248,0.062706,-0.746656
0.106421,-0.098141,0.451265,-0.721184,0.651147,-0.236434
0.178401,0.187387,0.622743,0.967411,0.245290,-0.062839
0.239928,0.176876,0.727470,0.056412,0.347086,-0.936135
-0.332666,-0.218582,0.149634,-0.560542,-0.439953,0.701594
0.533803,-0.232034,0.600537,0.478112,0.004886,-0.878285
-0.176750,-0.080013,0.398454,0.041337,0.269544,0.962100
-0.039991,0.217232,0.337053,0.188933,0.696221,-0.692517
-0.604431,-0.174128,0.121600,0.021620,-0.786343,0.617412
-0.273541,-0.654685,0.603946,-0.320475,-0.507322,0.799950
0.100419,0.282756,0.868972,-0.424206,0.895600,0.133980
-0.244328,-0.411393,0.509637,0.008018,0.420859,0.907091
0.534052,0.447120,0.704902,0.204614,0.755223,-0.622713
0.339420,0.249488,0.732765,0.254442,-0.959746,0.118941
-0.678013,-0.007160,0.116154,0.015122,0.841335,0.540303
0.068205,-0.119067,0.807572,0.544316,0.815423,0.196993
-0.452166,0.305465,0.326484,0.470433,0.705614,-0.529908
0.045246,-0.464671,0.766588,0.985494,-0.117634,0.122324
-0.165695,-0.046744,0.177992,-0.420414,-0.106969,-0.901005
0.487282,0.271522,0.304582,-0.082455,-0.868312,0.489117
-0.418101,-0.127119,0.359983,-0.387501,0.346735,0.854177
0.086262,-0.424363,0.739621,0.441802,0.862918,-0.245321
0.005177,-0.062077,0.886836,-0.537277,0.426436,-0.727658
-0.103318,-0.071189,0.552125,0.581096,-0.779877,-0.232637
0.184054,-0.194378,-0.497791,0.692904,-0.684554,0.226429
-0.253983,0.284492,0.844690,0.757194,0.521089,0.393858
-0.213765,-0.417468,0.159557,0.317870,0.526015,0.788839
-0.135682,0.300017,0.781709,-0.781762,-0.615713,0.098722
0.237876,0.200694,0.723642,0.088913,0.093229,0.991667
-0.450217,-0.234541,0.374305,-0.254901,0.035567,-0.966313
0.339270,0.401316,0.625200,0.670737,-0.013293,-0.741576
-0.207462,0.584147,0.284204,0.923478,0.293213,0.247416
-0.340369,0.491044,0.647197,-0.612314,0.768707,-0.184826
-0.135332,0.489260,0.370534,0.417447,-0.234381,-0.877954
0.157543,-0.190907,0.999962,0.900919,-0.291001,-0.321970
-0.196158,0.003785,0.649120,0.157330,0.742858,0.650699
0.100918,-0.241195,0.926087,0.842666,-0.424059,-0.331794
-0.743340,0.093272,0.079702,0.817630,0.575574,-0.013979
-0.084711,-0.414527,0.409500,-0.010540,0.872511,0.488481
0.094215,-0.247222,0.603984,0.696396,-0.306049,-0.649127
-0.482980,0.213423,0.419479,0.270234,0.157164,-0.949881
-0.165444,0.427063,0.705664,-0.563712,-0.211619,-0.798402
0.104721,-0.158844,0.606174,0.983943,-0.171793,-0.048398
0.022335,-0.427690,0.607926,0.623630,-0.591752,0.510798
0.002477,-0.188062,0.629504,-0.592579,0.787848,-0.167768
0.205664,-0.098190,-0.049745,0.969666,-0.238004,0.055689
0.627642,0.301367,0.328464,-0.664070,0.728510,-0.168176
-0.235625,0.123213,0.340500,-0.200245,-0.728714,0.654887
0.178301,0.325812,0.900853,-0.771952,0.635506,-0.014887
0.054699,0.415491,0.691837,-0.467773,-0.595423,0.653192
0.252884,0.085702,0.793270,-0.106289,-0.982902,0.150351
0.207564,-0.902606,0.465548,-0.166065,-0.041376,-0.985246
-0.209263,-0.429667,0.682601,-0.083889,-0.783241,0.616033
-0.047595,0.257347,0.875524,-0.448831,0.890840,-0.070385
-0.197008,0.235457,0.205321,0.032285,-0.546344,0.836939
0.130430,-0.218582,-0.483983,0.615900,-0.786500,0.045665
0.523047,-0.072732,0.334159,-0.020200,-0.444251,0.895675
0.149439,-0.051759,-0.123448,0.931476,0.208306,0.298262
-0.520095,0.314963,0.293098,-0.368671,-0.801720,0.470453
0.084012,-0.213857,-0.332635,-0.175091,0.966607,0.187118
-0.537703,-0.558159,0.221833,-0.368058,-0.394651,-0.841893
0.067655,-0.045153,0.131980,0.663899,0.201888,0.720055
-0.118125,-0.083822,0.628780,-0.002498,-0.792306,0.610119
0.454969,-0.358116,0.271178,0.053038,-0.792431,0.607651
-0.335367,-0.284685,0.553497,0.813799,-0.070011,0.576914
0.144187,-0.152480,0.273196,0.914063,-0.404690,0.026744
0.298652,0.597888,0.670507,0.564384,-0.166936,-0.808457
0.103469,-0.668427,0.384684,-0.331848,0.564007,0.756157
-0.215015,-0.248813,0.326141,-0.129102,-0.144915,0.980985
-0.495335,0.168776,0.628533,-0.598596,0.311522,-0.737995
-0.063101,0.361009,0.945837,0.387792,-0.921370,0.026349
0.095016,-0.147272,0.764436,0.885716,0.314355,-0.341596
0.140135,-0.259516,-0.651101,-0.852051,0.522839,0.025468
0.354326,0.471806,0.343795,-0.123444,0.542561,0.830897
-0.110822,-0.564138,0.194751,-0.059972,0.928711,0.365923
0.071307,-0.116993,0.867125,0.502769,0.775469,-0.381931
-0.229623,0.258022,0.824103,-0.710315,0.526335,-0.467359
-0.408248,0.517948,0.675611,-0.266301,0.611544,-0.745049
0.267039,0.180781,0.799097,0.310862,0.162814,-0.936406
-0.207512,0.062028,0.422050,0.307995,-0.508542,0.804067
0.136184,0.176153,0.602651,0.502681,0.082597,-0.860517
-0.160343,-0.423447,0.568637,-0.240959,-0.654169,0.716939
-0.282144,0.335021,0.698770,0.626140,0.355748,-0.693824
-0.542405,-0.588679,0.131351,0.141067,0.269143,0.952713
0.403548,0.186423,0.627200,0.223508,0.867951,-0.443515
0.705325,0.416745,0.335968,0.732148,-0.258268,0.630283
0.258186,-0.293701,-0.425249,0.948316,0.095201,-0.302710
0.369233,-0.378800,0.249467,-0.090351,-0.911601,0.401025
0.299153,-0.619151,0.197037,-0.403052,0.177572,0.897785
0.280745,-0.152431,0.798031,-0.485449,0.733047,-0.476426
0.506191,-0.715774,0.253142,-0.104065,0.152813,0.982761
-0.896805,0.102432,-0.050735,0.300702,0.864254,-0.403289
0.055150,-0.572190,0.343395,0.886874,-0.256524,-0.384253
0.110272,0.412164,0.685038,0.932695,0.343170,0.110969
-0.681214,0.341530,0.362345,-0.258570,0.602761,-0.754865
0.147189,-0.104409,0.130685,0.345886,0.901433,0.260350
0.030339,-0.398520,0.173040,-0.043039,0.992439,0.114946
0.332417,-0.296690,0.570561,0.706190,0.693118,-0.144510
-0.142736,-0.401557,0.681249,-0.731973,0.606231,-0.310966
0.235576,-0.506473,0.489449,-0.413570,-0.475606,0.776376
0.083361,-0.510668,-0.407805,-0.642709,0.126924,0.755524
-0.220569,-0.127215,0.606936,0.473541,-0.879504,-0.047239
0.271991,0.376678,0.342310,-0.377714,0.069417,-0.923316
0.144387,-0.398375,0.696713,0.100060,-0.073657,0.992251
0.166296,0.738965,0.655119,0.064103,-0.194524,0.978801
0.301203,-0.399870,-0.975375,-0.095814,0.025618,0.995070
0.175800,-0.162605,-0.364668,0.883398,-0.449786,0.131530
0.032890,0.461874,0.697208,0.307859,0.739184,-0.599023
0.019984,-0.372436,0.636151,-0.125400,0.199831,0.971773
0.015382,-0.042550,0.489659,-0.152283,-0.975318,0.159892
0.253233,-0.208746,-0.761617,-0.874177,-0.478494,0.082811
0.395094,-0.333623,0.569970,-0.033322,0.152652,0.987718
0.207613,-0.392348,-0.985240,-0.300314,0.160154,0.940299
0.322112,0.435597,0.647082,0.544064,0.829738,-0.124613
-0.308056,0.139943,0.364421,0.693207,0.688621,0.212757
0.057701,-0.493021,0.740059,-0.394580,-0.658102,-0.641256
0.046795,-0.276102,-0.314714,0.829854,-0.549264,0.098244
0.082661,-0.463224,0.526529,0.828875,-0.489904,-0.270110
0.129180,0.489260,0.852956,-0.675946,0.587991,-0.444256
0.198660,-0.157156,-0.338463,-0.724435,0.688550,-0.033056
-0.341619,0.263759,0.603241,-0.618962,-0.116103,-0.776792
0.259236,0.193076,0.809324,0.127974,0.245043,-0.961029
-0.049946,0.285504,0.718462,0.877139,0.358403,0.319646
-0.644049,-0.020612,0.114687,0.267410,0.952616,0.144962
-0.358677,-0.714665,0.145064,0.371464,0.132009,-0.919015
-0.130830,-0.015549,0.087320,0.970803,0.014483,0.239442
-0.418402,0.615197,0.006685,-0.445813,-0.893702,-0.050472
-0.371232,-0.621321,0.148663,0.738218,0.084891,-0.669199
-0.003976,0.034353,0.768664,-0.525842,0.544403,-0.653541
-0.592525,-0.287722,0.099318,0.082369,0.043763,0.995641
-0.827876,0.068007,-0.055630,0.300702,0.864254,-0.403289
0.166046,0.120754,0.718291,0.855746,-0.476867,0.200741
-0.182952,0.246257,0.671098,0.216957,-0.720305,0.658855
-0.030087,0.070707,0.722176,0.871376,0.116422,0.476602
0.147589,0.220028,0.791746,0.800097,-0.595300,-0.073908
0.221869,-0.106290,-0.531462,0.860780,-0.496810,0.110626
0.123327,0.155179,0.885560,0.961213,0.240283,-0.135401
-0.167995,-0.665678,0.528358,-0.505147,0.725492,-0.467427
-0.340670,-0.381307,0.536414,0.124979,-0.740256,0.660607
-0.559962,0.076445,0.333454,-0.378727,0.652885,0.655978
-0.246880,-0.390034,0.227051,0.558665,-0.828971,0.026483
-0.592277,0.646585,-0.047650,-0.323884,-0.318073,-0.891027
-0.362179,0.212266,0.185934,-0.181473,-0.436658,0.881134
0.156942,-0.084593,0.265579,0.725401,-0.688322,0.002272
0.125478,-0.475856,0.629904,0.817356,-0.448044,-0.362195
-0.150889,0.224609,0.583264,-0.216775,-0.418337,0.882044
-0.069504,0.658880,0.542413,-0.181227,-0.686137,0.704537
0.611636,0.292447,0.301554,-0.216944,0.934639,-0.281756
-0.188005,0.561438,0.225585,0.278357,-0.743327,0.608261
-0.100367,0.043176,0.311134,-0.359098,-0.918740,0.164213
-0.399994,-0.369543,0.245962,-0.697261,-0.410403,0.587705
-0.190356,0.568236,0.270416,0.995571,0.074816,0.056922
0.700173,-0.350980,0.339224,-0.366402,-0.102529,0.924791
-0.025985,0.469203,0.681896,-0.340901,-0.532886,0.774480
0.089164,-0.141776,0.373600,0.973489,0.228345,-0.013294
-0.524847,0.723584,-0.000228,0.662992,0.742123,-0.098460
0.226722,-0.160290,-0.224194,-0.716734,0.695862,-0.045490
0.037642,-0.271859,-0.336920,0.894681,-0.296522,-0.334098
0.212967,-0.094188,0.140893,-0.725461,0.678385,0.116193
0.284396,-0.102818,0.961892,0.085126,-0.986871,0.137260
-0.149788,-0.089029,0.399863,0.091158,-0.039601,0.995049
-0.409748,-0.059425,0.147197,-0.093737,0.432111,0.896935
0.574619,-0.248475,0.069780,-0.503845,-0.855478,-0.119571
-0.103869,0.169258,0.777501,0.624110,0.678064,0.388221
-0.107320,0.463031,0.198998,-0.497978,0.107531,-0.860497
-0.100068,-0.287433,0.612078,0.725737,-0.682851,-0.083788
0.029188,-0.158940,0.813286,0.868890,-0.392384,-0.301771
-0.308805,-0.123068,0.626495,-0.656664,0.372353,-0.655855
0.154692,-0.102481,0.183020,0.761539,-0.646745,0.042179
-0.195857,-0.418433,0.699703,-0.008352,-0.667542,0.744525
0.112474,-0.069984,0.469129,0.710387,-0.700728,0.065805
0.008279,0.203876,0.943075,0.891343,-0.356835,0.279601
-0.649351,-0.101083,0.396739,0.963945,0.124921,-0.234958
0.002826,0.457390,0.198789,0.080826,0.207243,0.974945
-0.435260,0.173405,0.297060,-0.499903,0.555442,0.664515
0.135483,0.187917,0.762512,0.955106,0.280259,0.096065
0.087013,-0.144621,0.375486,-0.575803,-0.815595,0.057062
0.323613,0.511921,0.614173,0.954539,0.034212,0.296115
0.155092,-0.416456,0.155176,0.441684,0.896918,0.021313
0.907612,-0.206721,0.072541,-0.288906,0.702808,-0.650072
0.062552,0.543068,0.730613,-0.288662,-0.827931,0.480837
0.397295,-0.334973,0.627257,0.041043,0.582748,0.811616
0.001326,0.541670,0.698636,0.761177,0.301822,-0.574033
0.124129,-0.168583,0.903919,0.496433,0.543149,-0.677159
-0.294450,-0.397073,0.542355,-0.394939,-0.914943,0.083075
0.249632,0.361828,0.359964,0.766635,-0.159774,0.621886
0.457970,0.188255,0.744077,0.450575,-0.849602,-0.274150
0.159894,-0.270268,0.459682,0.789559,-0.221836,-0.572176
-0.030838,-0.857959,0.463320,-0.304510,0.650850,0.695462
-0.161593,0.186712,0.059267,-0.111124,-0.103457,0.988407
-0.170897,0.315879,0.793174,0.566486,0.630189,0.530994
0.488332,0.456956,0.678658,0.438909,-0.179312,-0.880458
0.027788,-0.429233,0.415594,-0.261052,-0.951639,-0.161971
0.157642,-0.095152,-0.026225,0.383246,-0.688364,0.615855
-0.144535,0.394084,0.515369,-0.451499,0.424092,-0.785044
-0.153840,0.508691,0.376095,-0.352046,-0.024088,0.935673
-0.714729,0.256913,0.368096,-0.283550,0.348806,0.893271
0.162945,0.208119,0.603298,0.789047,-0.543618,0.286156
0.092165,-0.138497,0.754761,-0.661621,-0.749719,0.013384
0.848737,-0.252140,0.068237,0.298239,-0.722918,0.623252
0.543007,0.515151,0.685210,0.207984,0.239699,-0.948308
0.446165,0.102191,0.831092,0.774376,0.142154,-0.616550
0.575970,0.263373,0.302411,-0.355456,0.893462,-0.274547
-0.199709,-0.619344,0.536128,-0.511982,-0.647263,0.564734
0.119326,0.605168,0.755066,0.080434,-0.710743,0.698839
-0.002926,0.561389,0.755771,0.094874,-0.746212,0.658913
0.132932,-0.199055,-0.334559,-0.371742,0.838114,-0.399216
0.063652,-0.127842,0.530262,0.990662,0.133567,0.027373
0.222770,-0.149876,-0.241011,0.812805,-0.582133,0.021663
0.039492,-0.273692,-0.418412,-0.493825,-0.074051,-0.866402
-0.443063,-0.295774,0.367315,-0.420169,-0.301333,0.855953
-0.225721,0.885152,0.616382,-0.250463,0.527060,-0.812081
0.190107,0.671223,0.618801,0.554787,-0.716251,0.423316
0.111874,-0.210096,0.419041,-0.542291,0.420717,0.727267
0.015382,0.442974,0.766055,0.438338,0.022736,0.898523
0.013482,0.501169,0.181115,-0.166775,-0.109742,-0.979869
-0.146486,0.240664,0.196142,0.130042,-0.232801,0.963791
-0.357726,0.340083,0.838063,0.292533,-0.933342,-0.208078
0.072056,-0.079964,0.526663,0.941942,0.278970,0.186871
0.214467,-0.136376,-0.336425,0.661506,-0.747951,0.054583
-0.197408,-0.455944,-0.428049,-0.137388,0.475778,-0.868769
0.033189,-0.283190,-0.159119,0.494798,0.850081,0.180381
-0.323562,-0.248716,0.541860,0.354801,-0.329726,0.874870
-0.709126,0.005472,0.087263,0.896735,0.412599,-0.160092
0.176800,0.299197,0.915308,0.260519,-0.719774,-0.643471
-0.034589,0.126058,0.425802,0.460798,0.756073,-0.464777
-0.570167,0.023071,0.376247,-0.656489,0.722080,0.218227
-0.072205,0.185362,0.741030,0.944362,0.142894,0.296246
-0.577069,-0.549914,0.224309,-0.697748,-0.181826,-0.692883
0.497788,0.343121,0.727680,0.935214,-0.185570,0.301560
-0.667959,-0.185217,0.127714,0.077088,0.259300,0.962715
-0.325663,-0.415684,0.500267,-0.318612,-0.794477,-0.517003
0.054849,-0.197994,0.851166,-0.232449,0.570342,-0.787831
0.427107,-0.123743,0.799402,-0.749554,0.643277,-0.156090
-0.143285,0.432077,0.084025,0.160329,0.509826,0.845205
-0.106420,-0.244859,0.695437,-0.344169,-0.890867,-0.296486
-0.239327,0.579374,0.215091,0.485998,-0.480874,0.729771
0.206914,0.427690,0.902948,-0.747457,0.290684,0.597336
0.187555,0.328656,0.494553,0.585670,-0.597806,-0.547375
0.166346,0.672814,0.773387,0.192557,-0.805668,0.560197
-0.116974,-0.010246,0.772777,0.026069,0.995500,0.091104
0.030989,-0.420168,0.439114,0.238538,0.953317,0.185165
-0.202710,0.431643,0.672050,0.348249,0.031825,-0.936862
0.121027,-0.495142,0.799535,0.447911,-0.431165,0.783245
-0.510191,-0.250886,0.308067,-0.211045,-0.899165,0.383356
0.132532,0.177647,0.318771,-0.253402,-0.617000,0.745049
0.239627,-0.183337,-0.843224,0.691523,-0.717215,0.086012
-0.797663,-0.098382,0.150967,-0.195597,0.327045,-0.924545
-0.022934,-0.397025,0.402796,0.142890,0.970731,0.193040
-0.481078,0.086521,0.101489,-0.094787,-0.200886,0.975018
0.442314,0.123213,0.844919,-0.492684,-0.622594,0.607980
0.185555,-0.624310,0.599890,0.825831,0.557031,-0.087867
-0.200860,-0.449772,0.326427,-0.040307,-0.592142,0.804825
0.097618,0.125479,0.064409,0.771620,0.017360,0.635847
-0.093314,0.179962,0.752914,0.922301,0.088254,0.376261
-0.037190,0.044623,0.054849,-0.008175,-0.413874,0.910297
-0.443362,0.467370,0.511846,0.091210,-0.640233,0.762746
-0.136483,0.200019,0.764188,0.519654,0.665284,0.536056
0.266038,0.633422,0.130133,-0.258577,0.362569,0.895367
-0.171598,-0.531448,0.536090,0.658210,0.506222,-0.557224
0.037091,-0.422579,0.291175,0.826299,0.560654,0.053834
-0.398043,-0.426436,0.224175,-0.592347,-0.224938,0.773646
-0.090863,-0.287867,-0.333263,-0.651748,0.083461,-0.753830
0.589627,0.504737,0.319970,-0.327562,0.364217,0.871808
-0.234823,-0.423158,0.569189,-0.368114,-0.884621,-0.286248
-0.236574,-0.503918,0.609507,-0.190753,-0.568774,-0.800068
0.239928,0.446445,0.645483,0.107888,0.558615,-0.822380
-0.278143,0.683132,0.625409,-0.082036,-0.847790,0.523949
0.339520,0.340999,0.704731,-0.667676,0.533382,0.519339
0.063002,-0.106820,0.533709,0.947894,0.303448,0.097036
0.023636,-0.100456,0.784928,0.939885,0.341475,0.003375
0.047245,-0.008414,0.750229,-0.281393,0.787365,0.548521
-0.259234,-0.576674,0.553878,0.878214,-0.176581,0.444476
0.176901,-0.068923,0.239697,0.600118,-0.769266,0.219291
0.438262,0.481931,0.671326,-0.299042,0.204225,0.932130
-0.454418,0.146308,0.297593,-0.361573,0.803670,0.472630
0.742292,-0.265350,0.075988,0.249142,0.513556,-0.821090
-0.340319,0.407150,0.668984,0.794487,0.451615,-0.405997
0.392143,-0.335021,0.617525,0.200291,-0.619488,-0.759025
-0.599329,-0.072780,0.116001,0.950217,0.267419,0.159918
-0.770952,0.316024,0.354670,-0.457262,0.047553,0.888060
0.352375,0.635496,0.667822,0.590022,-0.054128,-0.805571
-0.170396,0.389696,0.091948,-0.339886,-0.022215,0.940204
0.246781,-0.135556,-0.404148,0.739653,-0.672157,0.033445
0.633295,0.296979,0.289975,0.195608,-0.890785,0.410170
-0.588724,0.035076,0.389236,-0.449164,0.834784,0.318414
-0.244178,-0.311492,0.729755,0.978032,0.044437,0.203664
0.067704,0.450206,0.708197,0.347222,0.705219,-0.618144
-0.350974,-0.647019,0.155443,-0.688204,-0.023142,0.725148
-0.062251,0.143560,0.929135,-0.061823,-0.799060,0.598064
0.177751,0.006292,0.588672,0.938955,-0.335141,-0.077750
-0.432158,-0.156433,0.561400,-0.633076,-0.757879,0.157589
0.595978,-0.417324,0.248629,-0.379856,0.603676,-0.700917
0.209915,-0.123551,0.840234,-0.231774,0.818388,0.525854
0.118977,-0.144090,0.348461,0.973947,0.198662,0.109362
0.127130,-0.233770,-0.460597,0.656206,0.722203,-0.218670
0.489184,-0.552759,0.583359,0.661412,0.240088,-0.710557
0.081011,0.437284,0.410471,0.997915,0.054078,-0.035224
0.141635,0.661435,0.649082,-0.086495,-0.161963,0.982999
-0.287496,0.346110,0.780586,-0.031695,-0.983293,0.179247
-0.103968,-0.505509,-0.447322,-0.113268,-0.384524,0.916140
0.408999,0.119500,0.797955,0.590560,-0.039541,-0.806024
0.091014,-0.136376,0.412109,0.819171,0.573479,0.008935
0.462271,-0.144042,0.181496,-0.426619,-0.053660,-0.902838
0.178751,0.152720,0.717967,-0.811129,0.584634,0.016530
0.173500,0.149345,0.759522,0.416513,0.894080,-0.164736
-0.246179,-0.019069,0.599966,0.263820,0.961394,0.078234
0.040193,-0.458547,0.477641,-0.291641,0.951437,0.098557
-0.039491,-0.684964,-0.447494,-0.287925,0.084700,0.953900
-0.363679,0.122924,0.618134,0.744345,0.661105,0.094288
0.254284,-0.270124,-0.541822,0.404426,-0.296768,0.865083
0.030089,0.187821,0.329607,-0.132100,-0.728806,0.671857
-0.465121,0.262120,0.604156,-0.330315,0.554360,-0.763922
-0.228621,0.525566,0.692333,0.710866,0.085967,-0.698054
0.141685,-0.370989,0.180011,0.033027,-0.998521,-0.043196
0.395493,-0.509800,0.230022,0.476927,0.850294,-0.222578
-0.767901,0.798269,-0.038813,0.678580,-0.377499,0.630098
-0.080409,-0.572286,0.220747,0.226618,-0.954224,0.195192
-0.268239,-0.149972,0.448503,0.708162,0.596500,-0.377749
0.114825,0.624744,0.736040,-0.038249,-0.650534,0.758513
-0.514143,0.146260,0.299764,-0.301142,0.852234,0.427798
0.136834,-0.239025,-0.300031,-0.074171,-0.996545,0.037375
-0.336667,0.420795,0.628780,-0.638202,0.247354,-0.729050
-0.393642,0.110243,0.353927,0.506250,-0.854782,-0.114273
-0.277592,0.387045,0.624533,0.238778,0.970448,0.034868
0.302604,0.360092,0.542641,0.084027,-0.414141,0.906326
0.717731,0.262168,0.573798,-0.343401,-0.262631,0.901721
-0.203011,0.558786,0.341129,0.953662,0.276511,0.118618
-0.033288,-0.198476,0.756018,-0.525383,0.583295,0.619467
-0.685416,-0.010487,0.150986,-0.120471,0.689693,-0.714010
0.142636,0.088595,0.831245,0.941550,0.109145,0.318703
0.066754,0.218534,0.975832,-0.636645,-0.340201,-0.692059
0.073007,-0.674646,0.393864,-0.331848,0.564007,0.756157
-0.253432,0.173067,0.652834,-0.214242,-0.709585,0.671259
-0.019633,-0.192546,0.388722,0.400071,-0.856526,-0.326047
0.014332,0.268099,0.854517,0.191536,-0.442079,0.876288
-0.108720,0.399195,0.403900,0.191834,0.609127,0.769522
-0.238226,-0.150021,0.609869,-0.653883,0.704914,-0.274833
0.052948,0.282033,0.863678,0.091181,0.944407,-0.315882
-0.331366,-0.397797,0.329988,0.889715,0.454558,-0.042236
0.856990,0.268774,0.273520,0.652250,0.022256,0.757677
0.509092,0.502953,0.669593,-0.485187,0.043873,0.873309
0.353276,0.196066,0.729336,0.339796,-0.320269,0.884289
0.020885,0.224994,0.770587,0.263805,0.375869,-0.888329
0.329015,0.431836,0.350080,0.050773,0.427462,0.902606
0.048447,-0.343844,0.787061,-0.662422,-0.449034,-0.599638
0.078609,-0.132326,0.947189,-0.435355,-0.897766,-0.066945
0.000776,-0.010246,0.296793,0.453997,0.835100,0.310637
-0.087462,0.465153,0.647597,0.562738,0.719937,0.406222
0.031488,-0.054893,0.760208,0.930025,0.234790,-0.282713
0.906361,0.279670,0.261332,0.623520,0.145085,0.768227
0.178052,-0.088354,0.214291,-0.593554,0.799813,-0.089401
-0.373983,0.528121,0.669022,-0.086271,-0.508556,0.856696
0.167647,-0.303874,-0.482765,0.954655,0.162357,-0.249548
0.059551,-0.514669,0.522701,0.690539,-0.530681,-0.491461
-0.428007,0.380632,0.247981,-0.034010,0.709360,0.704025
-0.044143,-0.138883,0.186410,-0.150598,-0.498650,-0.853621
-0.009128,0.082857,0.692447,0.429026,-0.685346,0.588420
-0.437011,-0.240568,0.126952,-0.442821,-0.568064,0.693695
0.193308,0.346737,0.421269,0.003708,-0.727993,0.685574
0.268590,-0.115354,-0.237450,0.782401,-0.621003,-0.046953
-0.083610,0.323980,0.089110,-0.574020,-0.641278,-0.509180
-0.072605,0.179624,0.854251,0.230713,0.550655,-0.802216
0.047096,-0.232323,-0.278529,-0.503960,0.816799,0.280826
0.004278,-0.456137,0.836596,0.890515,0.151776,0.428891
-0.147137,0.244377,0.495486,0.131913,-0.666660,0.733597
-0.318509,-0.405800,0.532624,-0.254129,-0.591747,0.765019
0.100918,0.372387,0.155195,-0.333019,0.051057,0.941537
0.132232,0.165642,0.750838,0.642645,0.717278,-0.269294
0.289148,0.541139,0.161214,-0.192831,0.419218,0.887171
-0.059450,0.367180,0.669536,0.809396,0.430537,0.399395
-0.045343,0.332755,0.089224,0.740849,0.671341,-0.021049
-0.018783,-0.069454,0.902129,0.317609,-0.759323,0.567938
0.311557,0.593163,0.622191,0.918096,-0.151470,0.366273
0.204563,0.494805,0.641712,-0.663274,0.033142,0.747643
0.461772,0.306044,0.338348,0.269891,-0.225237,0.936177
0.263237,-0.191775,-0.984326,0.195696,-0.425750,-0.883425
-0.580222,0.384586,0.345052,-0.207693,0.927371,-0.311203
-0.516494,-0.217811,0.124971,0.251684,0.588572,-0.768269
-0.006427,0.628312,0.698846,0.943301,-0.154864,0.293598
-0.108370,0.575420,0.387389,-0.005690,-0.098580,0.995113
0.510093,0.443263,0.332007,-0.228337,0.370425,0.900360
0.060201,0.138979,0.892873,-0.628935,0.149671,-0.762916
-0.621539,-0.119211,0.346366,0.716085,-0.186326,-0.672685
-0.099266,-0.217521,0.170298,0.135471,-0.632410,0.762696
0.181653,-0.129674,0.834368,-0.299871,0.656351,0.692301
-0.646649,-0.031123,0.107888,0.542649,0.831752,-0.117134
-0.157842,0.211880,0.401348,0.574224,0.811482,0.108462
-0.096366,0.255032,0.807934,0.086193,0.926031,0.367474
-0.438010,-0.011933,0.397159,0.195636,-0.016752,-0.980533
-0.086060,-0.302862,-0.068504,-0.423432,-0.868194,-0.258737
0.092666,-0.518478,0.793803,0.133354,0.831092,-0.539910
0.338420,0.288542,0.626285,0.607515,0.193544,-0.770367
-0.094464,0.296593,0.753847,0.873305,0.031692,0.486142
0.108021,0.076541,0.773349,-0.054729,0.119707,0.991300
0.005377,-0.352957,-0.048259,-0.047693,0.928450,0.368383
0.283095,0.257877,0.724594,-0.155048,0.987835,0.011965
-0.363128,-0.399870,0.428639,0.361872,-0.893521,-0.265838
0.354076,-0.490610,0.240897,0.836630,0.535457,0.115484
-0.230273,0.595284,0.252381,0.969595,0.094708,-0.225645
0.090664,0.187869,0.927725,-0.124771,0.954110,-0.272226
0.112373,0.444468,0.194961,-0.157687,0.645514,0.747292
0.215217,-0.183916,0.808620,-0.552361,-0.824971,-0.119670
-0.045594,0.280297,0.628990,-0.367212,0.844197,-0.390497
0.386090,0.098382,0.268264,0.273725,0.465421,-0.841700
0.343121,-0.089848,0.823970,0.558737,-0.344662,0.754335
-0.414201,-0.512644,0.161004,0.549636,-0.391603,0.737935
0.086963,0.336708,0.913861,-0.087517,-0.876379,0.473603
0.812521,0.323015,0.291822,-0.504235,0.234497,-0.831119
-0.222469,0.790072,0.534604,0.905907,0.422881,-0.022480
0.624190,-0.012512,0.513788,-0.268996,-0.241504,0.932372
0.065153,0.165449,0.721566,-0.212103,-0.658301,0.722255
0.722932,-0.321376,0.242420,-0.711700,0.428052,-0.557005
0.098517,0.098286,0.865563,0.946326,-0.320023,0.045309
0.308807,0.571515,0.638398,0.890571,0.454727,-0.010366
-0.639897,0.346641,0.361678,-0.704829,0.541942,-0.457728
0.125678,-0.134881,0.691552,0.976174,0.169224,-0.135824
-0.301252,-0.466647,0.515902,-0.111698,0.159262,0.980897
-0.537053,-0.208843,0.127123,0.074557,-0.831326,0.550762
-0.185804,0.263615,0.757808,0.679877,0.677528,0.280576
-0.041041,-0.363902,0.749334,-0.310958,0.164166,-0.936138
-0.366280,0.657144,0.629580,0.000828,-0.992928,0.118714
0.331517,0.663316,0.672050,-0.600156,-0.057315,0.797827
-0.096215,0.231118,0.470157,0.006738,-0.704070,0.710099
0.478329,-0.101709,0.516645,-0.234901,0.349812,0.906892
-0.218618,-0.393939,0.767045,0.075408,0.208945,0.975016
0.145938,-0.132904,0.139960,0.730285,0.640901,0.236495
-0.351024,-0.515923,0.285594,0.964917,0.260851,-0.029872
-0.283845,0.713025,0.615449,0.049928,-0.659251,0.750264
0.149689,-0.360044,-0.432544,-0.354185,-0.149787,-0.923102
-0.451515,0.445818,0.197817,0.343473,-0.661742,-0.666426
0.411050,-0.544948,0.249714,0.306550,-0.296239,-0.904582
-0.100367,-0.109713,0.464386,-0.094580,-0.662429,0.743130
0.275342,-0.348859,-0.497791,-0.765207,-0.482450,-0.426263
0.404998,0.398954,0.318675,-0.471818,0.092917,-0.876786
0.103469,-0.105181,0.664013,0.387745,-0.921767,0.000397
-0.638895,0.078180,0.086254,-0.597245,0.539293,0.593685
-0.286596,0.098575,0.414851,0.241194,-0.161636,-0.956922
-0.549508,0.113040,0.611507,0.666217,-0.278878,0.691652
-0.092614,-0.088209,0.571246,-0.032675,0.982189,0.185031
0.245579,-0.102095,-0.288394,-0.739100,0.672761,0.033521
0.437412,0.063523,0.264798,-0.125264,-0.211803,0.969251
0.061001,-0.103397,0.609012,0.700857,0.712543,-0.032886
-0.282144,-0.218245,0.539575,0.894096,-0.297043,-0.335199
-0.040692,0.368723,0.924297,0.416153,-0.837821,0.353373
-0.260284,-0.530050,0.606441,0.226156,0.495070,0.838904
0.161094,-0.165015,0.849090,0.438786,0.874127,0.208251
-0.001124,-0.366023,0.172736,0.317104,-0.925151,-0.208667
-0.232824,-0.967937,0.432487,0.307959,-0.262656,-0.914425
-0.242427,-0.533136,-0.433210,-0.160429,0.472004,-0.866877
-0.486131,0.241677,0.600480,-0.477897,-0.042886,-0.877368
-0.740139,0.964417,-0.031614,-0.104909,0.537910,0.836449
0.315810,-0.315397,-0.975547,0.137916,-0.013905,0.990346
0.174401,0.101420,0.301154,0.798680,0.463957,-0.383214
0.344172,0.279622,0.517559,-0.059670,-0.365174,0.929025
0.385640,-0.548082,0.220100,0.213100,0.976710,0.025039
0.103719,-0.310672,-0.613221,-0.469385,0.460503,-0.753402
-0.321262,-0.455606,0.523101,-0.480098,-0.707129,0.519109
0.406999,0.506569,0.576617,0.793621,-0.214178,0.569468
-0.296150,0.538005,0.730917,0.002850,-0.979514,0.201356
-0.284845,-0.316651,0.602422,-0.034882,-0.035608,0.998757
0.122978,0.201273,0.779348,0.954736,-0.252926,0.156552
0.512844,0.299872,0.681839,-0.658418,-0.383085,0.647867
0.363830,-0.179817,0.829969,-0.210442,0.661075,0.720204
-0.058400,0.227116,0.818542,0.108718,0.808046,0.579001
0.291099,-0.286227,0.820618,0.678908,0.293923,-0.672825
0.059551,-0.426967,0.407900,0.280852,0.955803,0.086969
-0.174098,-0.212555,0.456007,-0.156230,-0.307054,-0.938781
0.197509,0.192691,0.949303,0.274309,0.945550,0.175182
0.024737,0.301994,0.788108,0.867303,0.081818,0.491011
0.173199,-0.190907,-0.394016,0.189583,-0.974234,-0.122171
-0.031438,-0.313999,0.706235,-0.475720,-0.584268,-0.657512
-0.194106,0.129867,0.062029,0.213383,0.278433,0.936452
0.121177,0.532605,0.166546,0.113136,0.673170,0.730782
0.160694,-0.434054,0.482822,-0.029701,-0.149169,0.988366
0.241478,-0.137629,-0.991316,0.139966,-0.437079,-0.888466
0.332767,0.040332,0.773406,0.810516,0.450994,-0.373722
0.173450,-0.008028,0.458959,0.845495,-0.492587,0.206143
-0.357277,0.682650,0.633618,-0.044259,0.996383,-0.072534
-0.153640,-0.148574,0.181934,-0.246247,-0.969041,-0.017946
0.187005,-0.521419,0.718348,-0.563402,0.288681,-0.774107
-0.569116,0.011210,0.120477,0.543803,-0.409156,-0.732714
0.493236,-0.728792,0.257904,-0.104065,0.152813,0.982761
-0.207012,-0.062028,0.831302,0.813184,-0.255345,0.523001
0.742041,-0.268099,0.062600,-0.155629,-0.679514,0.716966
-0.565065,0.195439,0.657062,0.998989,-0.028639,-0.034667
-0.716179,0.070996,-0.008456,0.954000,0.006080,-0.299744
0.569818,0.549191,0.697608,0.162948,0.401248,0.901359
-0.339369,-0.307394,0.092253,0.433691,0.836735,0.334345
0.075657,0.097707,0.742344,-0.079130,0.753219,-0.652993
-0.562013,0.336515,0.333663,-0.570503,0.672715,-0.471148
-0.362679,0.208553,0.602480,0.041146,-0.030689,0.998682
0.057850,-0.366843,0.636589,0.346154,-0.132683,-0.928748
0.093966,-0.063089,0.144340,0.571543,0.599641,0.560151
-0.055047,-0.485307,0.712729,0.247778,0.534214,0.808221
0.333068,-0.243557,0.573246,0.821508,0.035337,-0.569101
0.366531,0.343940,0.533138,-0.046524,-0.342300,0.938438
-0.241177,-0.094911,0.548221,-0.574690,0.743175,0.342669
-0.192155,0.527543,0.313762,0.976598,0.188973,0.102695
-0.390491,0.376534,0.615544,0.262683,-0.946020,0.189852
0.034190,0.149490,0.905824,0.494349,0.224456,0.839785
0.083361,0.374750,0.764303,0.746261,0.213183,0.630593
0.477128,0.050698,0.512036,-0.168004,-0.679440,0.714238
-0.514193,0.399243,0.330407,-0.557353,0.637369,-0.532088
0.128930,0.038307,0.775577,0.250552,-0.265872,0.930879
-0.030588,-0.233529,0.256494,-0.208028,0.592990,0.777873
0.341821,-0.600878,0.200960,0.556624,-0.048536,-0.829345
0.662108,-0.381596,0.305744,0.556823,0.781949,-0.280185
-0.035140,-0.698609,0.545364,-0.041395,0.932044,0.359973
-0.603082,-0.108942,0.134646,0.427474,0.011906,-0.903949
0.315259,0.268195,0.722918,0.108220,0.988699,0.103740
0.046946,-0.071382,0.888588,0.706527,0.481018,-0.519077
-0.066153,-0.055134,0.817628,0.174352,0.903546,0.391416
-0.180951,0.205178,0.771578,0.669192,0.712953,0.209475
0.422354,0.421615,0.736174,0.598489,-0.740901,0.304757
-0.500937,-0.394952,0.199246,0.631264,-0.771664,-0.077720
-0.206763,0.639305,0.622762,0.888529,0.229852,0.397094
-0.127028,-0.026060,0.494191,-0.791150,0.588180,-0.167709
-0.043994,0.126877,0.752133,-0.516941,-0.127380,0.846491
-0.275942,-0.269449,0.174278,-0.631503,-0.740799,0.228956
-0.178549,0.274945,0.587091,0.468101,0.684844,-0.558453
-0.468274,0.232709,0.608041,0.338256,-0.026916,0.940669
-0.273391,0.275234,0.846957,0.754629,0.604476,0.255233
0.312959,0.523589,0.539708,0.861896,-0.485687,-0.145753
0.270190,0.220752,0.699360,0.789810,-0.551902,0.267592
0.266439,-0.225284,0.518473,-0.809267,0.284902,0.513728
-0.411499,-0.380150,0.396492,-0.106829,0.907661,0.405882
0.017383,0.660953,0.655081,-0.283129,0.884694,0.370344
-0.068003,0.377643,0.671479,0.937198,0.227464,0.264423
-0.281643,-0.146790,0.628095,-0.494274,0.494479,-0.714971
-0.400295,-0.402232,0.396378,-0.115834,0.911160,0.395437
0.184305,-0.093706,0.092919,-0.270984,-0.958014,0.093688
-0.390290,-0.405511,0.448598,0.310890,-0.884130,-0.348801
0.143087,0.295918,0.423840,-0.113268,0.884809,0.451977
-0.205761,0.242689,0.586920,-0.287992,-0.461948,0.838847
0.088413,0.378462,0.749905,0.459608,0.012451,0.888035
-0.381387,-0.688146,0.139560,0.466253,-0.065422,-0.882229
0.334368,0.550686,0.524834,-0.285337,-0.145383,0.947336
0.067005,0.527350,0.494115,0.517014,-0.130082,0.846035
0.054348,0.008703,0.357774,0.753764,0.104509,0.648782
0.672461,0.350401,0.334863,-0.166402,0.853540,-0.493740
-0.540404,0.323160,0.325341,-0.132200,0.613056,-0.778900
0.343572,-0.517562,0.217319,0.913121,0.396772,-0.093715
0.031989,-0.351896,-0.008285,-0.617989,0.780773,0.092104
0.109972,-0.288542,0.639160,-0.705900,0.567647,0.423653
-0.672509,0.265157,0.384094,0.545414,-0.580860,-0.604256
-0.352674,0.375714,0.344481,0.724365,0.681378,0.104971
0.285297,-0.065404,0.827645,0.260666,-0.673755,-0.691453
0.536053,-0.303151,0.617030,0.672980,-0.141169,-0.726064
-0.430607,0.100938,0.567952,-0.249202,0.588357,-0.769243
-0.361328,-0.151997,0.173193,0.134120,0.968127,-0.211522
0.275792,0.039174,-0.094576,0.899141,-0.286934,0.330475
-0.117624,-0.699959,-0.455854,-0.215005,0.316219,0.924001
-0.474127,0.012656,0.395940,-0.132098,0.055315,0.989692
0.116725,-0.158940,-0.291175,-0.003678,0.349458,0.936945
-0.068603,-0.553145,0.541613,-0.360900,0.869273,0.337810
0.041544,-0.476001,0.773501,0.995083,0.079466,0.059126
-0.468123,0.064728,0.407843,-0.382622,-0.373530,0.845030
-0.765400,0.763361,-0.043746,-0.615093,0.291837,-0.732456
-0.171297,0.508064,0.207645,-0.398574,-0.059105,-0.915230
0.069806,0.354596,0.932144,-0.459586,-0.863092,0.209409
0.525049,-0.666450,0.251619,0.059880,0.110773,0.992040
0.103519,0.217425,0.623486,0.437794,0.850626,-0.291156
0.161043,-0.077843,0.263807,0.802331,-0.596765,0.011721
0.112874,-0.390564,0.199931,0.288284,0.681254,-0.672894
0.183204,-0.092066,0.084501,-0.102362,-0.994408,0.025989
-0.736088,0.060534,-0.014912,-0.750191,0.419185,0.511368
-0.274441,-0.073214,0.511389,-0.114221,0.621650,0.774922
0.020185,-0.005955,0.681610,0.993904,0.105036,0.033495
-0.220818,0.151708,0.072751,0.118381,0.190154,0.974591
0.164046,-0.800583,0.459873,-0.253345,0.636212,0.728733
-0.181251,0.417757,0.770740,0.977479,-0.190910,-0.089935
0.667660,-0.300210,0.343033,-0.303841,-0.010699,0.952663
-0.011979,0.075143,0.401901,-0.280346,-0.872788,0.399560
0.053948,-0.422483,0.252343,0.929450,0.365910,0.047253
0.130331,0.351173,0.820923,0.895695,-0.144974,-0.420374
-0.165545,-0.946626,0.468881,0.395804,-0.312088,-0.863678
0.339070,-0.100311,0.586330,0.149163,0.924270,0.351391
0.001427,-0.101083,0.891198,0.014417,-0.490196,0.871493
0.439913,-0.167426,-0.981946,-0.161505,0.018720,0.986694
-0.132931,-0.345050,0.674031,-0.694872,0.073232,-0.715395
0.478129,0.431306,0.691894,0.485454,0.762060,-0.428485
0.252082,-0.385357,0.671726,0.883737,0.398286,-0.245716
0.160843,0.338348,0.922621,-0.031092,0.438503,0.898192
0.003127,-0.758347,-0.440561,-0.257292,0.053350,0.964860
-0.061750,0.142258,0.855641,0.362282,-0.503952,-0.784081
-0.150538,-0.410959,0.610498,-0.034053,0.383851,0.922767
0.280845,0.092259,0.297193,-0.194520,0.980100,-0.039582
0.583873,0.298956,0.702198,-0.142000,-0.165235,0.975978
-0.606083,-0.170801,0.361069,0.668576,-0.586720,0.456908
-0.301653,0.240857,0.518797,0.859409,0.473917,-0.191884
-0.134082,0.264386,0.799821,0.573888,0.818824,0.013408
-0.304703,0.225814,0.340158,0.558853,0.625062,-0.544959
0.066504,0.708445,0.126095,0.258911,-0.064839,-0.963722
-0.431307,0.455413,0.617506,-0.805270,0.093293,0.585523
-0.097466,-0.275572,0.606384,0.649477,0.131287,-0.748961
0.025486,0.764904,0.621353,-0.860503,-0.198447,0.469205
-0.175049,0.334539,0.799193,-0.276414,0.352030,0.894243
-0.065151,-0.771028,-0.441876,0.023321,0.345230,0.938228
0.084761,0.050360,0.960406,-0.359853,0.857691,-0.367248
0.137685,0.189798,0.799021,0.904841,-0.410682,-0.112266
0.407149,0.318290,0.651310,0.829450,-0.104459,-0.548727
-0.300702,0.189267,0.183077,-0.560723,0.313663,0.766293
-0.394343,-0.612449,0.335378,-0.037734,0.387581,0.921063
-0.131081,0.153106,0.807439,0.998390,0.026007,0.050410
-0.309556,0.325330,0.216272,0.029696,-0.463282,0.885713
-0.527898,0.723440,0.015826,-0.099906,0.076835,0.992026
-0.274892,-0.171042,0.146397,0.154722,0.468918,-0.869585
-0.060951,0.415684,0.659347,0.289491,-0.388988,0.874576
0.192508,-0.519394,0.657005,-0.435841,-0.157877,0.886068
0.048697,-0.425520,0.394454,0.290080,0.955544,0.052820
-0.508490,0.041055,0.404662,0.086618,-0.030869,0.995763
0.151541,-0.666787,0.541936,0.704233,0.567060,-0.427199
-0.386739,-0.322871,0.225032,0.894214,0.151608,0.421184
0.372234,-0.011548,0.789061,0.799866,0.490854,-0.345363
0.002927,0.482365,0.704978,0.694383,0.543778,-0.471315
-0.378135,0.393746,0.626133,-0.678212,0.710173,0.188897
0.197259,0.540705,0.646625,-0.300616,0.212181,0.929844
0.078809,0.528748,0.635141,0.025313,0.684488,0.728585
0.202061,-0.092886,-0.041632,0.998601,0.043763,0.029686
0.034740,-0.809696,0.451417,-0.116584,0.765176,0.633178
0.031688,-0.248957,-0.417860,-0.613586,0.376174,-0.694266
0.023735,0.207975,0.936943,-0.010282,-0.901536,0.432582
-0.281744,-0.491044,0.746039,0.397544,0.891609,-0.216776
-0.320411,-0.373448,0.228060,-0.180200,-0.910492,-0.372198
0.009630,0.423350,0.721223,0.777965,0.432264,0.455981
0.261086,0.029965,-0.043803,0.150621,0.631572,0.760546
-0.738388,0.859309,-0.025234,0.619984,-0.023309,-0.784268
-0.073605,-0.241098,0.658643,0.958157,-0.117878,0.260846
-0.023634,-0.308696,0.521235,-0.611204,0.702888,-0.363838
0.090515,0.272583,0.768911,0.650743,0.351792,0.672886
-0.041041,-0.071768,0.681191,-0.753951,0.587560,0.293821
0.192207,-0.188014,-0.690543,0.783746,0.617365,-0.067840
0.366032,0.417468,0.538870,-0.345012,0.161624,-0.924578
0.363330,-0.647164,0.446313,0.880416,0.255209,-0.399671
-0.201460,0.253731,0.756970,0.708394,0.674573,0.207675
-0.271089,-0.198380,0.603070,-0.037847,0.080884,0.996005
-0.200009,0.292495,0.557725,0.850517,0.437006,0.292654
-0.651802,-0.057689,0.135979,0.046737,-0.780184,0.623802
0.253633,-0.014778,0.709778,0.895759,-0.375256,-0.238326
0.199860,0.550879,0.633332,0.309543,-0.420674,-0.852770
0.116675,0.429329,0.869296,0.679546,-0.399594,0.615257
-0.263887,0.352233,0.684658,-0.067907,0.497559,0.864768
-0.528949,0.296497,0.498819,-0.028066,-0.600613,0.799047
-0.008677,-0.346737,-0.043612,-0.207772,0.930602,0.301348
-0.164194,0.249825,0.497543,0.888720,0.445771,0.107073
0.891655,0.314770,0.259351,0.656490,0.087333,0.749262
-0.588674,0.061353,0.110555,-0.125998,0.500829,0.856327
-0.143786,0.396157,0.516607,-0.451499,0.424092,-0.785044
0.177602,-0.182662,-0.452274,-0.689356,0.724414,0.003674
0.255484,-0.152624,-0.409442,0.833020,-0.508666,0.217571
-0.021334,-0.488489,0.491982,-0.603366,0.795400,0.057339
0.230174,-0.360478,-0.422507,0.904120,-0.420367,-0.076539
-0.378786,0.030737,0.410033,-0.099566,-0.369688,0.923806
0.121128,-0.395193,0.191247,0.255923,0.905175,-0.339355
0.097216,0.151178,0.887331,0.885829,-0.437905,-0.153446
-0.346571,0.284733,0.501143,-0.480330,-0.283879,0.829877
-0.425955,-0.304742,0.272244,-0.814029,-0.580075,-0.029492
0.356376,-0.078180,-0.982879,0.171014,-0.194289,0.965922
0.509643,-0.226586,0.614649,-0.446000,0.163255,0.880018
-0.550009,-0.285311,0.310238,0.548612,0.768351,0.329639
0.350075,-0.273643,-0.983031,0.056043,0.014993,0.998316
0.141386,-0.330489,0.473318,-0.424044,0.269544,0.864600
0.322263,-0.036571,0.408719,0.225911,0.965607,-0.128711
0.334718,-0.534823,0.198065,0.818494,0.158359,-0.552259
0.426106,0.170174,0.838006,0.540405,0.317156,-0.779342
0.107322,-0.210627,0.596347,0.818872,-0.128369,-0.559438
0.215318,-0.195873,0.873429,0.298812,0.944622,-0.135649
-0.140284,0.241291,0.195799,0.130042,-0.232801,0.963791
