0.122476,-0.126628,0.806620,-0.019273,-0.852060,0.523089
-0.472283,-0.127671,0.910970,0.987211,0.159150,-0.009281
-0.097438,0.438249,0.477818,0.027713,-0.874456,0.484312
0.112839,0.092027,0.871801,-0.457160,0.884600,0.092128
-0.499629,-0.199479,0.816270,-0.439527,0.895284,-0.072678
0.223950,-0.444398,0.495962,0.658857,-0.027391,-0.751769
0.769953,0.154560,0.275661,-0.267595,0.960474,0.076695
-0.322626,-0.224283,0.258105,-0.058215,0.997314,0.044459
-0.119100,-0.261282,-0.162647,-0.987577,-0.000875,0.157133
0.078164,0.216050,0.912543,0.292617,-0.082038,0.952704
-0.386213,0.404065,0.674212,0.511424,0.781037,-0.358366
-0.692283,-0.048150,0.604273,0.250801,0.757418,0.602840
-0.365043,0.687962,0.764968,-0.039067,-0.961588,0.271701
-0.169425,-0.709328,-0.973116,-0.230200,0.252093,0.939924
-0.188616,-0.043877,0.243412,0.963182,-0.248030,-0.103733
0.038135,0.318916,0.856292,-0.133875,-0.990994,0.002771
0.186721,-0.372069,0.482255,0.606029,-0.149500,-0.781267
-0.096616,-0.362585,0.770011,-0.544764,0.779716,0.308666
-0.242073,-0.537884,0.745839,0.961757,-0.014803,-0.273504
-0.171979,0.117561,0.845751,0.791127,-0.587925,0.168706
-0.664279,-0.241480,0.692109,0.879616,-0.475681,-0.002025
-0.298906,-0.166024,0.431862,0.059236,-0.988620,0.138284
-0.508444,-0.032204,0.707902,0.024758,0.783604,0.620768
-0.224448,0.003335,0.784097,-0.560504,0.780310,-0.277402
-0.137304,0.166128,0.727468,0.600292,-0.653826,0.460610
-0.103700,0.184992,0.379858,0.907777,-0.416291,-0.051419
-0.447658,-0.041271,0.726823,-0.597752,0.651766,-0.466791
0.566840,0.327254,0.300156,0.442986,-0.232344,0.865898
-0.283502,-0.423762,0.713059,0.701046,0.691289,-0.175082
-0.121491,-0.495050,0.767262,0.772601,-0.629611,-0.081718
-0.161683,-0.138927,-0.025310,0.889273,0.415140,-0.191972
-0.046618,-0.153517,0.082281,0.183101,-0.981053,-0.063323
-0.083355,0.474205,0.739051,0.915788,0.325508,-0.235324
-0.436703,-0.415529,0.708338,0.007230,0.617029,0.786907
-0.260606,0.090464,0.947977,0.690475,0.594186,-0.412538
-0.689317,0.140698,0.874265,0.112827,-0.963431,-0.243045
-0.231860,-0.025430,0.819001,0.549966,-0.642306,-0.533836
-0.265548,0.641584,0.787946,0.742623,0.591836,0.313435
0.093567,-0.791141,0.622682,0.778257,-0.625510,0.055253
-0.014002,-0.363731,-0.980302,0.021797,0.216595,0.976018
-0.718721,-0.267014,0.849941,0.340602,-0.371946,-0.863508
-0.194383,-0.500782,0.726747,-0.546554,0.806168,0.226653
0.277490,0.108181,0.738862,-0.356486,0.066928,0.931900
-0.370975,0.325795,0.717799,-0.632379,0.072263,0.771281
-0.039206,-0.425638,-0.981724,-0.070952,0.188149,0.979574
0.571533,0.166232,0.514238,0.791672,-0.270536,0.547782
-0.734454,0.218864,0.907879,0.518730,-0.776178,0.358423
-0.495758,0.013966,0.539624,-0.220320,0.837543,-0.499980
-0.048431,0.344763,0.759186,0.364024,0.506293,-0.781764
0.565191,-0.171860,0.303492,0.470509,-0.079968,-0.878764
0.030969,-0.002293,0.782979,-0.091922,0.673572,0.733383
-0.317189,-0.107764,0.453267,0.456899,0.888319,0.046189
-0.499219,-0.299948,0.809085,-0.495913,-0.019461,0.868154
-0.019934,-0.646795,-0.965078,0.234670,0.095123,-0.967410
-0.263818,-0.038979,0.757783,0.179660,0.855081,-0.486373
-0.034759,-0.292027,-0.984549,0.117706,-0.186704,-0.975339
-0.014085,-0.590724,-0.966405,0.016932,0.207305,0.978130
-0.549790,-0.152058,0.893698,-0.089903,0.004917,0.995938
-0.166049,-0.414799,-0.731980,0.912613,-0.405862,-0.049116
0.082777,-0.473163,-0.970519,-0.116902,0.201549,0.972477
0.088789,0.404065,0.748834,-0.081685,-0.955264,0.284252
-0.468578,-0.473059,0.823854,0.450227,0.871152,0.195935
-0.337122,-0.182804,0.387025,-0.445942,0.893410,0.054346
-0.035501,0.335175,0.760551,0.784181,0.150642,-0.601970
-0.802323,-0.355706,0.849505,0.357188,0.663562,0.657345
-0.411500,0.025743,0.799416,-0.700724,-0.709358,0.076147
-0.374763,0.058260,0.931199,-0.411730,-0.035260,0.910624
0.069351,-0.466076,0.619592,-0.015062,0.505178,0.862884
0.353760,0.381970,0.561559,0.401239,0.082529,-0.912248
-0.262086,-0.271391,0.653604,0.033051,0.546986,0.836489
-0.165062,-0.137780,-0.053710,-0.776957,-0.589073,-0.222106
0.129559,0.351120,0.491507,-0.884697,0.154845,0.439698
-0.453833,-0.222720,0.922174,-0.257139,-0.414903,-0.872774
0.138375,0.138301,0.870322,0.228393,0.971726,-0.059872
-0.241907,-0.113288,0.212433,0.978211,-0.142254,0.151219
-0.220164,0.408129,0.897130,-0.485528,-0.442212,0.754130
-0.279055,0.340177,0.882930,-0.095100,-0.186650,0.977813
0.594678,0.192600,0.286790,0.013994,-0.067830,0.997599
0.142904,-0.867014,-0.962120,-0.144398,0.219583,0.964848
-0.294293,0.022512,0.941019,0.833077,0.205488,-0.513573
-0.439996,-0.494737,0.815910,0.812149,0.342338,0.472460
-0.229389,-0.552996,0.758446,-0.480133,-0.872556,-0.090099
-0.310106,-0.098176,0.482577,0.938740,-0.304062,-0.162215
-0.144799,-0.448984,-0.982255,-0.193015,0.302853,0.933287
-0.293964,-0.156123,0.531073,-0.684241,0.706191,0.181956
-0.210774,0.298176,0.877166,0.950842,0.067265,-0.302283
-0.264065,-0.069620,0.818015,0.406154,-0.909697,-0.086550
-0.676221,0.048775,0.564119,0.609938,-0.743190,0.275035
-0.694096,0.154351,0.871801,-0.678297,0.733543,0.042752
-0.194961,-0.024388,0.759887,-0.140492,0.866415,0.479153
-0.379951,-0.252944,0.551170,0.919366,-0.376784,0.113136
0.016473,-0.106826,0.128048,-0.626303,0.759475,0.175905
-0.060951,0.399270,0.779775,-0.506558,-0.575950,-0.641623
-0.523186,-0.514122,0.823778,0.806466,-0.385476,0.448353
-0.131045,-0.329338,0.611136,0.815645,-0.424382,-0.393222
-0.601763,0.153830,0.635840,-0.526824,0.775747,-0.347381
-0.170496,-0.410109,0.699029,0.895460,0.355870,0.267409
0.574415,0.300469,0.506237,0.792318,0.103203,-0.601317
-0.754633,-0.316311,0.847439,0.294685,-0.693841,-0.657074
0.366855,-0.200938,0.574963,0.431378,-0.326217,-0.841128
0.127747,-0.010526,0.884143,0.869242,0.439772,-0.225873
-0.270819,0.103075,0.677037,0.582943,0.478824,-0.656434
-0.056092,0.538822,0.504797,-0.273897,-0.189908,0.942823
-0.000248,0.256488,0.753896,0.546638,0.819361,-0.172726
-0.660242,0.168213,0.908353,-0.624843,-0.605501,-0.492889
-0.217033,-0.195414,0.247469,0.773232,-0.609437,0.175209
-0.420805,-0.220636,0.592652,0.807357,0.461251,0.367998
-0.234907,0.057217,0.854169,0.774567,0.165157,-0.610548
-0.298656,-0.341115,0.658476,-0.107796,-0.610189,0.784888
-0.020014,0.260552,0.869545,-0.543242,0.512810,0.664766
-0.350135,0.210943,0.812820,-0.424791,0.888077,0.175703
-0.143812,-0.089317,-0.005233,0.799827,-0.580759,0.151641
-0.226753,0.061490,0.808801,0.915910,-0.187909,-0.354683
0.365043,0.025430,0.715770,-0.656041,0.442862,0.611134
0.050984,-0.008755,0.750294,0.711418,0.599812,0.366209
-0.089201,-0.324752,-0.558317,0.919414,-0.305427,0.247774
-0.215552,0.603127,0.938630,0.174294,0.574524,-0.799715
0.251627,0.239291,0.742161,0.680685,0.705715,-0.196553
0.064163,-0.039083,0.827949,-0.629836,-0.244706,0.737174
-0.380776,-0.312454,0.716339,0.767847,-0.376410,0.518389
-0.221482,0.373111,0.959485,-0.409735,0.845813,0.341639
-0.607527,0.185722,0.842794,0.904862,-0.243363,0.349283
0.459929,0.210005,0.292382,-0.273750,0.417275,-0.866569
0.816653,-0.102866,0.324442,-0.558372,0.358622,0.748071
-0.337534,0.579156,0.619838,-0.036046,-0.995888,0.083111
0.166130,0.203960,0.731468,-0.154606,-0.824573,0.544221
-0.323943,-0.131110,0.495526,0.885755,0.441187,0.144197
-0.488428,0.439291,0.681947,0.197116,0.884502,-0.422850
-0.703813,0.035227,0.674667,-0.421308,0.403816,0.812054
0.172803,0.101199,0.859402,0.327242,-0.863131,-0.384600
0.066798,0.305159,0.720984,0.621740,0.773664,-0.121998
-0.648051,-0.238666,0.814943,0.699378,-0.714732,0.005326
-0.079071,-0.285357,-0.637186,0.870871,-0.479662,0.107278
-0.336547,-0.180823,0.367137,-0.443511,0.847755,-0.290876
-0.294786,0.151537,0.954594,-0.499182,-0.861383,0.094001
-0.452353,-0.437936,0.739317,-0.604274,0.372443,-0.704371
-0.070259,0.001146,0.600937,0.984425,-0.006261,-0.175695
0.001977,0.303700,0.870303,0.765161,-0.575990,-0.287687
-0.232848,0.096613,0.901054,0.776269,0.489378,-0.397385
0.105675,-0.662845,-0.966993,0.160691,0.149045,0.975687
-0.326580,0.046899,0.771604,0.214492,0.570505,0.792791
-0.307223,-0.440542,0.736700,-0.314308,0.906983,0.280344
-0.118113,-0.099114,-0.068138,-0.715246,-0.682889,-0.148610
-0.507044,0.047525,0.933891,0.965895,-0.255922,0.039381
-0.162674,-0.290255,0.696186,-0.498730,0.703127,-0.506835
-0.529611,-0.170297,0.897736,0.134297,-0.187931,-0.972958
-0.295610,-0.055550,0.572802,-0.190919,0.916077,0.352637
-0.306072,-0.267848,0.766087,-0.004220,0.990152,0.139929
-0.689154,-0.133507,0.966784,0.564973,0.715392,0.411120
-0.054197,-0.381761,-0.978292,-0.003228,0.273076,0.961987
-0.530599,0.268161,0.762086,0.758008,-0.243261,-0.605184
0.248249,-0.070558,0.552383,-0.269243,0.788745,0.552620
0.078493,-0.140594,0.790354,-0.136668,0.983201,-0.120984
0.569886,0.204169,0.525727,-0.725691,0.687899,-0.012966
-0.320485,-0.018134,0.716832,-0.346212,-0.709679,0.613591
-0.192653,-0.200938,0.022864,0.619748,-0.784801,0.000483
-0.468000,-0.430849,0.740663,-0.645929,0.465896,-0.604745
-0.344701,-0.674414,0.834983,0.257335,0.718069,0.646649
-0.521703,0.069098,0.811038,-0.121324,0.191481,0.973969
-0.099663,-0.436894,0.679616,-0.670912,0.063630,-0.738802
-0.188207,-0.171965,0.144883,-0.621114,-0.783678,-0.008090
-0.094309,-0.717353,0.625450,0.340887,0.539138,-0.770147
-0.676138,0.235748,0.951276,0.815965,-0.080996,0.572400
-0.419324,-0.295883,0.620104,-0.193601,0.935739,0.294807
-0.790791,-0.186555,0.857354,0.241863,-0.381671,-0.892093
0.300798,0.048046,0.583134,-0.458571,0.664656,-0.589868
0.101063,0.190412,0.696053,-0.131076,-0.991285,-0.013181
-0.342476,-0.135383,0.477079,0.821255,-0.043896,-0.568870
-0.107651,0.435748,0.903196,-0.221332,0.002489,0.975195
-0.139363,-0.373736,0.670534,0.068775,0.997456,0.018760
-0.507783,0.145909,0.601031,0.795781,-0.570892,0.202029
-0.129233,0.361438,0.780666,0.978902,0.200334,0.040209
-0.121737,-0.460552,-0.835760,0.866649,0.490954,0.088787
-0.595832,0.194685,0.924658,0.469966,-0.663970,0.581615
-0.217528,-0.006045,0.901035,0.624107,-0.778929,0.061313
-0.036818,-0.185201,0.773594,-0.070850,-0.738272,0.670772
-0.619060,-0.064304,0.959049,0.786832,0.373577,-0.491260
-0.222716,0.472225,0.814014,0.038523,-0.900991,0.432124
-0.401945,-0.404065,0.731202,0.938255,-0.330834,0.101131
-0.141341,0.367379,0.669700,0.995679,-0.034142,0.086358
-0.008977,-0.626993,0.625621,0.064591,-0.550581,0.832279
-0.441316,0.128296,0.915330,0.123288,-0.221540,0.967326
0.070668,-0.179364,0.773670,0.979066,-0.072857,0.190057
-0.180957,-0.364565,0.649566,0.230864,0.912456,0.337826
-0.238861,-0.378426,0.713097,0.521770,0.426502,0.738818
-0.132855,-0.304325,-0.356975,0.292623,0.934962,0.200543
-0.553661,0.025638,0.915178,0.977411,0.200069,0.068121
0.355984,-0.472746,0.373545,0.363756,0.799448,-0.478085
-0.715838,0.114643,0.658685,0.912183,-0.396070,0.105120
-0.120996,-0.227619,-0.548686,0.890175,-0.433352,0.140690
-0.254344,0.131214,0.870038,0.112637,0.851757,0.511686
-0.060705,0.109328,0.433265,0.983277,-0.147632,0.106639
0.053372,0.006983,0.699958,-0.382171,0.589066,0.712002
0.097850,0.046587,0.561142,0.917825,0.185361,-0.351053
0.452680,-0.455133,0.548914,0.813404,-0.510982,-0.277977
-0.548227,-0.062637,0.464623,0.230201,-0.937264,0.261809
0.362738,0.100677,0.713154,-0.219607,0.131968,0.966622
-0.502265,-0.567587,0.704679,0.887820,-0.235378,0.395440
-0.327322,0.010943,0.428848,0.983723,-0.046481,0.173578
-0.135328,-0.332777,0.596424,-0.169022,0.519430,0.837630
-0.698542,0.139239,0.941531,0.073158,-0.851856,0.518642
0.060539,0.485357,0.773898,0.572646,0.005552,0.819784
-0.884276,0.090464,0.745478,0.577831,-0.798858,-0.167142
-0.404004,0.155602,0.916942,-0.027669,-0.603130,0.797163
0.197924,-0.630224,-0.964338,0.155473,-0.076703,-0.984858
0.350711,0.294112,0.541103,0.697880,0.690038,0.191863
0.603903,-0.373319,0.270049,-0.393247,-0.748651,0.533739
0.088213,-0.620323,-0.970576,-0.056732,-0.094417,0.993915
-0.162754,-0.272225,0.643916,-0.605671,-0.717143,-0.344773
-0.080225,0.150703,0.504342,0.330169,0.921733,-0.203461
0.161683,0.417405,0.508797,0.808645,0.542072,-0.228586
-0.067871,-0.451902,0.327778,0.574333,0.810852,0.112521
-0.140350,-0.358416,0.302923,0.734001,0.625735,-0.264004
0.016968,-0.509953,0.806298,0.593699,-0.109984,-0.797135
-0.005931,-0.685461,-0.966651,-0.091864,0.077011,-0.992789
-0.439420,-0.159666,0.834623,0.107587,0.928667,-0.354970
-0.625238,0.252215,0.676734,0.655575,-0.708183,0.262103
-0.113912,0.139031,0.722993,0.418536,-0.550827,0.722092
0.325261,-0.251902,0.573105,0.340713,0.350904,0.872228
-0.548390,-0.226681,0.830850,-0.273316,0.955972,0.106840
0.148751,0.167066,0.795397,0.327461,0.753506,0.570085
-0.123137,-0.120896,-0.014617,0.753686,0.619410,-0.219745
-0.134421,-0.276394,-0.428051,0.118920,0.992602,-0.024489
-0.269911,-0.339552,0.713552,0.169203,0.028358,0.985173
-0.081788,-0.330485,0.677909,-0.581757,0.439903,-0.684138
-0.456633,-0.139969,0.904277,0.950654,-0.120103,-0.286064
0.302857,-0.372173,0.555777,0.451081,-0.657229,0.603801
-0.443291,0.264513,0.860501,-0.569876,0.048134,-0.820320
-0.037476,-0.320271,-0.983771,0.136260,-0.400210,-0.906237
-0.354255,-0.486712,0.802980,0.435116,-0.900264,-0.014063
-0.510419,0.004690,0.919330,0.939280,0.032910,0.341569
-0.315048,-0.687962,0.796951,0.873223,0.287341,0.393594
-0.173628,0.619489,0.828954,0.817746,0.508594,0.269487
-0.174204,0.556957,0.719884,-0.307523,0.839692,0.447601
0.029898,-0.285774,0.672051,0.494021,-0.836108,0.238468
-0.485462,-0.028661,0.842054,-0.614483,0.614934,0.494234
-0.140599,-0.375195,0.318223,0.715383,0.522879,-0.463492
-0.132116,0.126628,0.510636,0.330440,0.935926,-0.121866
-0.182028,0.322043,0.714139,0.554486,-0.804852,0.211561
0.161930,-0.721313,-0.964471,-0.006731,0.217426,0.976054
-0.316202,-0.163418,0.357259,-0.534278,0.842195,0.072489
-0.332756,-0.522251,0.766333,-0.699318,-0.482667,-0.527244
0.027181,0.290568,0.733364,0.456044,-0.707957,0.539277
-0.504324,0.904638,0.642153,-0.528594,0.834652,-0.154744
0.413146,0.203752,0.489440,0.775557,-0.274919,0.568270
0.092909,-0.172903,0.775338,0.979066,-0.072857,0.190057
-0.284490,0.565607,0.541292,-0.909031,0.203843,-0.363469
-0.091838,-0.011881,0.778258,0.153018,0.715155,0.682011
0.058973,-0.296925,0.477155,0.751516,0.612640,0.244737
-0.711555,0.210214,0.678895,0.682022,-0.694098,0.230376
-0.372951,-0.298801,0.588898,0.773115,0.622504,0.121577
-0.180133,0.007400,0.874133,-0.272048,0.959447,0.073832
-0.459436,-0.306410,0.835153,0.999008,-0.028353,0.034328
0.513795,0.301094,0.292686,-0.382124,0.474803,-0.792808
-0.105675,-0.112976,-0.107458,0.994152,0.042029,-0.099477
-0.344371,-0.571860,0.783206,0.581030,0.742516,0.333278
0.140104,-0.342678,-0.976832,-0.292598,0.297923,0.908641
-0.108146,-0.282230,-0.250616,0.999381,-0.034810,0.005114
-0.033688,-0.301407,0.659974,0.178708,0.879296,0.441477
-0.725312,0.009484,0.573882,-0.442903,0.891157,0.098368
-0.427971,-0.415320,0.725344,0.920090,-0.391483,-0.013256
-0.359526,0.127462,0.951219,0.093482,-0.129808,0.987123
-0.536448,-0.172069,0.761859,-0.259544,-0.962845,-0.074613
-0.229389,-0.458260,0.749839,-0.104907,0.850298,0.515739
0.318343,0.397811,0.553540,0.437570,0.402200,-0.804219
-0.196112,0.609171,0.512001,-0.193001,-0.496374,0.846382
-0.637263,0.157165,0.948584,0.278437,0.111513,0.953959
0.546082,0.317561,0.286259,-0.275923,0.299111,-0.913454
-0.324685,0.262741,0.904751,-0.324563,0.902400,0.283430
-0.223211,0.359562,0.939939,-0.287483,0.901079,0.324668
-0.723663,0.114539,0.884882,0.378169,0.893472,0.242273
0.236636,-0.203231,0.576063,0.030189,0.753630,0.656606
-0.172308,0.577384,0.763603,0.705597,0.208887,-0.677125
-0.094804,-0.523189,-0.896504,0.990739,-0.030858,0.132229
-0.702742,-0.041584,0.678952,-0.404310,0.106723,0.908374
0.484145,-0.346014,0.538031,-0.521159,0.335936,0.784564
-0.355243,0.572069,0.638153,0.176640,-0.617869,0.766183
-0.081296,0.236998,0.717874,-0.705620,-0.173176,-0.687103
0.543778,0.259927,0.481193,-0.533610,0.781501,0.323288
-0.640639,-0.030328,0.807019,-0.072833,-0.225628,0.971487
-0.135245,-0.242731,-0.253820,0.915847,-0.159971,-0.368284
-0.298823,0.235852,0.853126,0.835547,0.186327,-0.516859
-0.159378,-0.348098,-0.379763,-0.420720,-0.872455,0.248630
-0.001730,0.394685,0.768608,0.556511,0.817585,-0.147818
-0.224777,0.655758,0.762655,0.654263,0.753416,-0.065611
-0.207398,0.373528,0.887783,0.897962,0.194091,0.394961
0.203359,0.327671,0.533728,0.171668,0.978380,-0.115337
-0.193229,0.284315,0.439522,-0.355488,0.585559,-0.728525
-0.370480,0.712454,0.641850,0.028606,-0.468996,0.882737
-0.205749,-0.142262,0.137015,0.193613,0.980445,0.035243
-0.102299,0.272955,0.651632,-0.613462,-0.785927,0.077354
0.359277,-0.001668,0.690650,0.968960,-0.087254,-0.231309
-0.566264,0.253257,0.933910,0.767615,-0.214099,0.604094
-0.200807,0.565190,0.748986,0.795358,0.593361,-0.123804
0.002306,-0.396144,0.617146,0.216181,0.169027,-0.961611
0.434147,-0.267014,0.583077,0.974637,-0.203608,-0.092875
-0.105346,0.610109,0.705703,0.900002,0.258023,0.351313
-0.839635,-0.110578,0.650267,0.815036,0.174598,0.552477
0.137880,0.055133,0.890418,0.930024,0.306550,-0.202687
-0.269748,0.416988,0.876976,0.156456,-0.976924,0.145398
0.128818,0.051381,0.705229,-0.150702,0.928015,0.340702
-0.070012,0.173111,0.858283,0.153930,-0.947019,0.281889
0.247344,-0.799479,-0.957627,-0.114518,0.286266,0.951282
-0.362572,-0.646795,0.762465,0.159922,-0.352624,0.921998
0.356806,-0.339135,0.584234,-0.666457,0.341050,0.662963
-0.083767,0.060657,0.768343,0.846355,-0.412125,-0.337397
-0.225928,0.544138,0.528495,-0.604621,0.307725,-0.734669
-0.217694,0.419072,0.742369,0.973920,0.202695,0.101953
-0.323697,0.436373,0.838964,0.976683,0.143067,0.160069
0.270899,-0.943825,-0.952925,-0.310736,-0.001490,0.950495
0.227082,0.054924,0.694062,0.003237,-0.729584,0.683884
-0.289598,-0.442835,0.724377,-0.405629,-0.902647,-0.143855
-0.527552,0.651485,0.891177,-0.029562,-0.835400,-0.548847
-0.256815,-0.505159,-0.983942,-0.108778,0.264229,0.958306
-0.255827,-0.556123,0.784059,0.293685,0.856745,-0.423954
0.150151,-0.516102,-0.969116,0.207925,-0.344822,-0.915350
-0.554319,0.150078,0.874436,-0.454255,-0.877494,-0.153806
-0.456800,-0.278061,0.855932,-0.800712,0.029908,-0.598302
0.255169,0.152163,0.736454,0.370860,0.203581,-0.906100
0.417429,0.028140,0.275149,-0.099115,0.757282,0.645523
-0.202620,0.282856,0.746104,0.863518,-0.261076,-0.431481
-0.310355,-0.635331,0.817484,-0.297269,0.954470,-0.024859
-0.530187,0.042731,0.601657,-0.820272,-0.043451,-0.570321
-0.700025,-0.000313,0.962784,-0.348302,0.927671,-0.134583
-0.373117,0.163106,0.814564,0.712391,-0.614275,-0.339361
-0.291573,-0.599792,0.823456,0.010066,-0.481095,0.876611
-0.262418,0.490464,0.915444,-0.585498,-0.411337,0.698566
-0.285727,-0.232100,-0.991544,0.060447,0.088978,0.994198
0.141916,-0.205836,0.793349,0.977191,-0.018733,-0.211535
-0.142575,-0.425013,-0.986368,-0.072181,0.248704,0.965886
-0.254757,0.185826,0.962898,0.945368,-0.140875,0.293995
-0.246602,-0.538614,0.761517,-0.022462,0.719981,0.693630
-0.110863,-0.467848,-0.829958,0.950228,0.275543,0.145404
-0.137962,0.274935,0.943901,-0.770644,0.059642,-0.634469
-0.442716,-0.001980,0.690270,-0.249037,0.912739,-0.323863
-0.315706,-0.025847,0.801767,-0.497445,0.851899,0.163756
0.077176,-0.867535,-0.962082,-0.125538,0.060433,0.990246
0.351618,0.087858,0.735847,0.693627,-0.351430,0.628791
-0.406062,0.233663,0.941038,0.730014,-0.485667,-0.480840
-0.416029,0.742991,0.794828,0.155561,-0.980512,-0.119991
-0.175769,0.449713,0.752683,0.994375,0.083148,0.065609
-0.582406,0.022929,0.526884,-0.716162,0.542905,-0.438595
-0.485711,-0.107348,0.458234,-0.164939,-0.904945,0.392263
-0.138621,-0.378426,-0.765707,0.735879,-0.672385,0.079878
-0.266289,-0.677853,0.761783,0.986884,0.104433,0.123101
-0.282597,-0.328921,0.685682,-0.734426,0.660045,-0.157984
-0.422700,0.086608,0.963694,0.085652,0.903124,0.420751
0.074459,-0.401146,-0.977818,0.209103,-0.360727,-0.908929
0.278641,-0.797186,0.401168,0.221157,0.366667,0.903684
-0.236553,-0.387389,0.724756,0.002183,0.870237,0.492628
-0.522115,-0.146222,0.795454,-0.167354,0.747949,0.642312
0.075530,0.247004,0.882019,-0.375530,0.368481,0.850411
-0.689400,-0.094528,0.755034,0.606301,0.771823,0.191540
-0.157483,0.611777,0.934744,-0.131343,-0.784207,0.606439
-0.122066,-0.459823,0.753100,0.693087,0.375432,-0.615370
-0.316367,0.414695,0.708660,-0.574180,0.358434,0.736099
0.093484,-0.049297,0.713969,-0.469563,0.753545,0.460088
-0.249898,0.196456,0.980605,0.769828,-0.627747,-0.115321
0.101309,-0.018030,0.833106,-0.162422,0.223138,0.961160
-0.227990,-0.600313,-0.976302,0.160787,-0.068419,-0.984615
-0.730666,0.030745,0.796515,0.880672,-0.472398,0.035443
-0.287127,-0.036165,0.822792,-0.371653,0.926423,-0.060114
-0.499629,0.218030,0.772533,0.566975,-0.757579,-0.323439
-0.248332,-0.295571,0.663728,-0.123834,0.973725,0.191112
0.371880,0.079729,0.708167,0.601174,0.382142,-0.701824
-0.412570,0.078583,0.728131,-0.513604,0.857119,-0.039464
-0.349147,-0.161751,0.404296,0.118011,-0.976040,0.182807
-0.633802,-0.038666,0.949380,-0.400778,0.026419,-0.915794
0.364385,-0.296196,0.582016,-0.565714,-0.445421,0.693951
-0.459024,0.643252,0.634588,-0.399054,-0.385000,0.832185
0.396013,-0.132673,0.499090,-0.022197,0.977921,0.207795
-0.092333,-0.037520,0.798203,0.179086,0.896887,-0.404378
-0.327897,-0.336217,0.711827,0.294302,-0.159265,0.942348
-0.260686,-0.289943,0.720187,-0.628245,0.374349,0.682035
-0.344371,-0.358103,0.651519,-0.292155,-0.850875,-0.436643
0.032535,-0.448671,-0.976415,0.054741,0.449230,0.891737
-0.298327,-0.003127,0.706442,0.697095,0.570594,-0.434143
-0.041926,0.247525,0.592424,-0.679910,-0.652221,0.335158
-0.477557,-0.197811,0.392959,-0.738443,0.505613,-0.446158
-0.490733,0.116311,0.895423,0.341630,0.870383,-0.354574
-0.194795,-0.566649,0.839419,-0.239022,-0.005739,-0.970997
-0.480028,0.147368,0.852671,0.155850,-0.854560,0.495418
-0.221565,-0.019906,0.761954,-0.239734,0.822365,0.515988
-0.264806,-0.037103,0.905547,-0.368263,-0.903195,-0.220504
-0.650030,0.260135,0.889148,0.969015,-0.246329,0.018208
-0.315048,0.423241,0.498654,-0.709120,0.639636,-0.296673
0.176016,-0.800000,-0.961153,-0.171301,0.199829,-0.964740
-0.001648,-0.456696,0.801615,0.367693,-0.081403,-0.926377
-0.555473,0.057113,0.838528,-0.082398,-0.882060,0.463875
-0.166049,0.396978,0.885546,0.180856,-0.983182,0.025374
-0.491970,-0.191558,0.916942,0.935153,-0.281388,-0.215196
-0.190595,0.352579,0.884143,0.961849,0.207656,0.178115
-0.253110,-0.573945,-0.979600,-0.065799,0.191839,0.979218
-0.280456,-0.558729,0.593296,0.833462,-0.206158,-0.512680
0.492379,-0.203127,0.540420,-0.371955,0.823719,-0.427945
0.496004,-0.264409,0.524855,-0.183593,-0.727355,-0.661247
-0.127833,-0.252215,-0.504000,0.919330,0.372236,-0.127566
-0.207066,-0.128713,0.135461,0.193613,0.980445,0.035243
-0.796391,-0.329442,0.872692,0.888390,-0.437722,0.138429
0.084177,0.040750,0.694650,0.605203,-0.731332,-0.314457
-0.084096,-0.137259,0.092917,-0.198673,0.972699,0.119937
-0.693929,0.210422,0.674800,-0.617699,0.658719,-0.429578
-0.341818,-0.443669,0.685853,0.911187,0.404082,-0.080357
-0.017380,-0.486503,-0.974254,0.008677,0.408155,0.912871
-0.298493,-0.136842,0.738805,-0.812581,0.442664,-0.379158
-0.036489,-0.880771,-0.964642,0.053413,0.286874,0.956478
-0.683963,0.091506,0.881242,-0.297889,-0.877376,-0.376129
-0.315626,-0.212923,0.328594,-0.076309,0.965472,-0.249079
-0.645500,0.166962,0.909908,-0.562498,-0.588743,-0.580498
-0.432500,0.166128,0.917472,0.200720,-0.598193,0.775807
-0.489745,-0.134758,0.429189,0.151942,-0.962721,0.223791
0.119759,-0.519020,-0.970633,-0.180361,0.273309,0.944866
0.014827,0.060969,0.482577,-0.383565,0.901692,0.199572
-0.463800,-0.429286,0.742483,0.404481,-0.909312,0.097709
-0.228153,-0.758207,0.770466,0.914545,-0.398779,0.067697
0.599702,-0.300990,0.525765,0.641328,-0.362637,-0.676160
-0.303352,-0.049088,0.708698,-0.561377,-0.731655,0.386700
-0.504241,0.010318,0.743033,-0.377641,-0.853286,-0.359569
-0.951897,-0.112038,0.694365,0.846787,0.452204,0.280114
-0.101804,0.345388,0.654116,-0.699747,-0.616619,0.360743
-0.143975,-0.571443,-0.971562,-0.136466,0.055813,0.989071
-0.094146,-0.301511,-0.230008,0.998170,0.056991,0.020220
0.664526,-0.036060,0.297596,-0.363985,0.115062,0.924271
-0.483898,0.061178,0.770523,-0.413685,-0.843835,-0.341771
0.086401,0.112976,0.651708,-0.230086,0.952326,0.200336
-1.000000,-0.086608,0.803720,0.199098,-0.945204,-0.258745
-0.272136,-0.455029,0.747507,0.018858,0.658330,0.752493
0.235648,0.096509,0.654609,0.546021,0.835549,-0.060984
-0.546165,0.095883,0.941759,0.212226,0.915152,-0.342721
-0.060705,0.126420,0.928601,0.716793,0.695918,0.043669
-0.372210,-0.095258,0.587191,-0.385515,-0.900968,-0.199084
0.237129,-0.058260,0.544629,-0.411111,0.735365,0.538726
-0.817724,-0.344763,0.871649,0.965897,-0.179456,0.186653
-0.691705,-0.024700,0.677833,0.485733,0.380621,-0.786887
-0.268431,0.018551,0.663652,-0.062359,0.986638,-0.150523
-0.233424,0.181240,0.954897,0.835901,-0.498151,0.230466
-0.744749,0.150495,0.702461,-0.651202,0.718209,-0.245177
-0.090933,0.205419,0.627782,0.447209,0.828451,-0.337155
-0.173215,-0.164252,0.050885,0.808414,-0.579032,-0.105774
-0.669550,0.009276,0.964225,0.315910,-0.920398,0.230368
-0.116876,-0.275873,-0.348917,-0.513753,-0.842207,-0.163538
-0.552919,0.056696,0.889831,0.797591,-0.431568,-0.421423
-0.484803,0.578635,0.747924,0.942152,-0.216809,0.255625
-0.214562,-0.005315,0.737610,0.137002,-0.956742,0.256660
-0.050080,-0.356227,-0.981477,0.100656,-0.296136,-0.949827
0.257720,-0.069828,0.712452,-0.088649,0.994794,0.050257
-0.392884,0.868786,0.664885,0.571159,0.609377,-0.549943
-0.371717,-0.182074,0.723524,0.943299,-0.193295,-0.269860
-0.186229,0.479208,0.843931,0.935870,0.224199,0.271814
-0.785027,-0.156123,0.674383,0.609595,-0.784054,0.116846
-0.182523,-0.403960,0.706537,0.550273,0.826841,0.116333
-0.703484,-0.074414,0.973477,0.790926,-0.124271,0.599160
-0.099087,-0.240542,-0.150324,0.775689,0.615671,-0.138770
-0.073635,0.240542,0.833561,0.893241,-0.077957,-0.442768
-0.675150,-0.007921,0.975562,0.563489,-0.725459,0.395207
-0.076518,-0.254508,-0.295018,0.980653,0.190145,-0.046535
-0.486782,-0.250026,0.400182,0.827135,-0.378044,0.415849
-0.280127,0.671287,0.867744,0.647148,-0.619675,0.444075
-0.223128,0.095258,0.841050,-0.251068,0.959899,-0.124736
-0.769378,-0.281709,0.865563,0.300960,0.766054,0.567965
-0.446670,0.903700,0.652467,-0.230577,-0.969235,-0.086123
-0.251461,-0.203231,0.313635,0.732887,-0.672223,-0.104842
-0.086567,-0.214695,-0.134588,0.610854,0.744384,-0.269722
-0.285315,0.141949,0.979164,-0.579253,0.780357,-0.235602
-0.728358,0.145805,0.926535,-0.623243,-0.499123,-0.602033
-0.139692,-0.616884,-0.972775,-0.422967,0.136833,0.895754
-0.524423,0.189474,0.808971,0.928641,-0.277766,0.245910
-0.132855,-0.175404,-0.143442,0.951542,0.306515,-0.024839
-0.240507,0.434497,0.927445,0.799831,0.018271,-0.599947
-0.231694,0.324336,0.990729,0.030592,-0.752963,0.657351
0.116381,-0.199375,0.681322,-0.742337,0.500757,-0.445173
-0.097109,0.513497,0.765195,-0.662124,0.025678,-0.748954
-0.135574,0.419281,0.887328,-0.776063,0.109353,0.621103
-0.509514,-0.090776,0.729743,0.984826,0.067542,-0.159862
0.493121,-0.150391,0.508380,0.572882,-0.443670,-0.689176
-0.082201,0.298906,0.874948,-0.514731,0.691448,-0.506904
-0.614118,-0.245545,0.897983,-0.418876,0.406461,0.811993
-0.460587,0.003127,0.789880,-0.353124,0.925467,-0.137168
-0.113171,-0.260552,-0.608804,-0.104471,0.985297,-0.135184
-0.297257,0.540907,0.828006,0.312171,-0.473261,0.823755
-0.447492,-0.177071,0.339988,-0.306122,-0.917568,0.253691
-0.581914,0.119020,0.916051,-0.188482,0.980593,-0.053968
0.572274,0.410735,0.293918,0.457440,-0.368156,0.809450
-0.399804,-0.195727,0.355458,-0.511932,-0.660283,-0.549501
0.052136,-0.115373,0.777405,0.472920,0.863453,-0.175489
-0.182440,-0.526003,0.765935,0.712813,0.411538,-0.567922
-0.601598,0.194059,0.939010,0.552929,0.544020,0.631119
-0.326580,0.030537,0.713931,0.596982,0.705657,-0.381655
-0.106251,0.586034,0.781557,0.955380,-0.211798,0.205890
0.406638,0.185826,0.490559,0.850498,-0.463908,0.247875
0.118935,-0.219489,0.617108,0.878045,-0.415322,0.237791
-0.142246,0.294945,0.928942,0.977053,-0.211673,-0.023720
-0.218765,-0.271183,0.628370,-0.437646,0.421089,0.794450
-0.583314,0.127879,0.638740,0.659530,-0.726073,0.194517
-0.428630,0.496613,0.693550,-0.207454,-0.788265,0.579311
-0.534799,0.262324,0.801103,0.767018,-0.641092,0.026166
-0.032781,-0.052110,0.489497,0.775473,0.395993,-0.491764
-0.085579,-0.375612,0.761593,-0.328284,0.500920,0.800817
0.089530,0.237103,0.554127,-0.312568,0.490045,0.813731
-0.255335,-0.586555,0.799928,-0.416059,0.668890,0.616021
-0.509266,0.141532,0.954764,-0.257760,0.938594,-0.229348
0.587431,-0.202918,0.523281,0.772442,-0.275845,-0.572052
-0.378222,-0.209901,0.425132,-0.090812,0.964013,-0.249864
-0.167945,0.106722,0.782789,-0.238881,0.494546,-0.835680
-0.832139,0.127879,0.694631,0.869371,-0.493448,-0.026531
-0.265135,0.472746,0.506408,-0.672456,0.680848,-0.290255
-0.211928,-0.137259,0.127479,-0.124067,-0.986054,-0.110925
-0.312494,-0.140073,0.534865,0.726633,-0.672396,-0.141027
0.072564,-0.312663,0.367459,0.172601,0.411651,0.894848
-0.302035,-0.097447,0.452774,0.708918,0.691820,-0.137187
-0.318260,-0.208963,0.492796,0.597149,-0.741882,0.305001
-0.026193,0.190099,0.624730,-0.456167,-0.872448,0.175346
-0.345359,0.455862,0.703864,-0.502376,-0.549103,0.667910
0.555307,0.328713,0.299037,-0.510877,0.343095,-0.788220
0.018944,-0.616988,0.628882,0.031421,0.210371,0.977117
-0.365292,0.588119,0.868293,0.105306,-0.959271,0.262127
-0.007168,0.354664,0.893338,0.769402,0.461926,-0.441185
-0.281114,0.258989,0.964490,0.068865,0.699167,0.711634
-0.329710,-0.206149,-0.990141,-0.172920,0.140382,0.974880
-0.345688,-0.352267,0.678042,-0.707398,-0.703196,0.071438
-0.232519,0.391662,0.888409,0.733914,0.679185,0.008857
0.087635,0.182178,0.649528,-0.123466,0.981729,0.144793
-0.143070,0.247421,0.619118,0.992752,0.064924,-0.101137
-0.143812,-0.353413,-0.624654,0.162134,-0.966127,0.200774
-0.456387,0.049818,0.801047,0.072545,-0.955408,0.286240
0.569803,-0.626472,0.385811,0.414168,0.746143,-0.521282
0.693022,-0.132256,0.574641,-0.450312,-0.829125,-0.331318
0.020344,-0.307869,-0.981458,-0.117095,0.114412,0.986508
0.236307,-0.782178,0.396296,0.602347,0.751592,-0.268863
-0.263406,-0.629911,0.828082,0.460668,-0.399065,-0.792800
-0.164979,0.450756,0.775812,-0.521031,0.331160,0.786676
0.021085,0.232100,0.427634,-0.366729,0.881307,0.298007
0.269170,0.093486,0.721514,-0.617174,-0.758989,0.207442
-0.103863,-0.318291,-0.625393,-0.787378,-0.609405,0.093067
-0.183428,-0.451798,0.740132,0.591634,0.741689,-0.316017
-0.145375,0.261699,0.899310,-0.494937,0.834586,0.241875
-0.505807,0.095154,0.934725,-0.931468,0.046864,0.360793
-0.341076,-0.048359,0.497251,-0.012250,-0.951466,-0.307511
-0.045467,-0.391037,0.788799,-0.665135,0.340298,0.664675
-0.119017,0.082856,0.799378,0.827794,-0.049089,0.558880
-0.650113,0.214487,0.940185,0.725478,0.566857,0.390327
-0.534223,-0.042209,0.620786,0.314733,0.795449,0.517885
-0.313484,-0.138822,0.487753,0.940713,-0.338842,0.015656
0.108063,0.107035,0.583381,0.389712,-0.920923,-0.005161
-0.075859,-0.270870,-0.319683,0.899440,0.433203,-0.057810
-0.153283,0.372903,0.835608,0.537064,0.805345,-0.250961
-0.168520,-0.216467,0.118246,0.199639,0.925499,0.321862
-0.296927,-0.000313,0.851894,-0.609355,0.778203,0.151945
0.107897,0.143929,0.717097,0.039591,-0.553842,0.831680
-0.356972,0.373736,0.867630,0.904230,0.398045,-0.154688
-0.010626,0.031371,0.490862,0.175589,-0.984452,-0.004816
0.177167,-0.833768,-0.961608,0.054098,-0.187360,-0.980801
-0.296518,0.745909,0.883953,0.423003,-0.740318,0.522492
-0.583560,0.057947,0.610359,-0.213175,0.957942,-0.192105
-0.453833,-0.526003,0.639176,0.814026,0.579489,-0.039434
-0.346264,-0.392600,0.776305,-0.464301,-0.135938,-0.875183
-0.413887,-0.120896,0.592765,-0.433952,0.878694,-0.198956
-0.695247,-0.167692,0.623687,-0.475068,-0.871851,-0.119107
0.062514,-0.398228,-0.978880,0.134840,0.295051,0.945919
-0.457295,-0.019698,0.623611,0.259993,0.962501,-0.077426
0.254344,-0.905263,-0.954157,0.135068,-0.049806,-0.989584
-0.332676,-0.189786,0.536666,-0.043404,0.974008,0.222315
-0.433408,-0.145492,0.807000,0.575556,-0.810048,-0.112062
-0.751750,-0.044711,0.643575,-0.553830,0.827696,-0.090507
0.277736,0.283168,0.548648,0.557853,0.568566,-0.604593
-0.097109,0.234393,0.410970,-0.368351,-0.868503,0.331693
-0.335805,-0.085565,0.503052,0.820041,0.570044,-0.050825
0.417346,-0.443564,0.393016,0.317522,0.822546,-0.471803
-0.010048,0.380719,0.901907,-0.161698,0.327040,0.931074
-0.022568,-0.542783,-0.964831,-0.579850,0.013811,-0.814606
-0.494687,-0.237415,0.826091,0.092122,0.416429,0.904489
0.061693,-0.136321,0.167463,0.540413,0.741866,-0.396974
0.141255,-0.911829,-0.959845,0.136800,0.299131,0.944355
-0.291327,-0.196040,0.252209,0.386007,-0.915427,0.113978
-0.106334,-0.140281,0.073143,-0.284068,0.937218,0.202305
-0.081296,0.477332,0.511773,0.185675,0.841097,-0.508016
-0.307718,-0.073788,0.515091,-0.476332,0.868573,0.136707
-0.129067,-0.346639,-0.987184,-0.117835,0.161628,0.979791
-0.321721,-0.582595,0.794790,0.487996,-0.553861,-0.674609
-0.120420,-0.144033,-0.111819,0.991671,-0.094794,-0.087199
-0.617001,0.024909,0.605373,-0.295613,0.948458,-0.114194
0.187380,-0.029703,0.729003,0.524342,0.758866,0.386248
-0.250720,0.017196,0.820669,0.510535,-0.734260,-0.447456
-0.521127,0.020740,0.885906,0.601905,0.377570,-0.703670
-0.139692,-0.240646,0.597638,0.944267,-0.033511,-0.327470
-0.394120,-0.299948,0.625886,0.349003,-0.909903,-0.224218
-0.648629,0.287546,0.727335,0.571343,-0.808371,-0.141784
-0.146283,0.435748,0.842585,0.910496,0.331010,0.247849
0.068610,-0.025847,0.528268,0.972102,0.089125,0.216966
-0.637509,0.079208,0.843855,0.702017,-0.361061,0.613846
0.078823,-0.270870,0.364331,0.041582,-0.256086,0.965759
-0.052055,-0.458468,0.784135,0.751643,0.077676,-0.654980
-0.129067,-0.097030,-0.065161,-0.755748,-0.638078,-0.147314
-0.314555,-0.268682,0.657548,-0.187377,0.566647,0.802372
-0.279548,-0.501928,0.557293,0.969069,0.215319,-0.120594
-0.355818,-0.315998,0.772021,0.310451,-0.287412,-0.906098
-0.227082,0.187910,0.989042,-0.361860,-0.232674,0.902729
-0.086238,-0.000521,0.788230,0.557206,-0.605231,-0.568522
-0.574501,0.373945,0.884579,0.431857,-0.883670,0.180629
-0.101968,-0.169880,0.084329,-0.277975,0.958212,-0.067519
-0.368834,-0.096717,0.568460,-0.589362,-0.804326,0.075582
-0.127503,-0.411881,-0.900883,0.988043,0.068925,0.137913
0.139855,-0.161126,0.420733,-0.568385,0.715397,0.406381
-0.345442,-0.135175,0.527964,0.362501,-0.908708,-0.206986
-0.037806,-0.690568,0.637337,0.851293,-0.443617,-0.280187
-0.420475,0.897134,0.631384,-0.616544,-0.291444,0.731391
-0.750928,0.194268,0.700489,0.783759,-0.620958,-0.011560
-0.392637,0.548828,0.845789,0.217886,-0.781589,0.584504
-0.567498,0.043252,0.709532,-0.272444,-0.948903,0.159242
0.081047,0.378947,0.888560,-0.131263,-0.972976,0.189966
-0.323531,-0.221053,0.317579,0.019996,-0.927370,0.373611
-0.028910,-0.510787,-0.962936,0.674314,0.213063,0.707039
-0.078084,0.175925,0.886949,-0.459243,-0.886073,0.063019
-0.364551,-0.286920,0.657908,0.889675,-0.428418,0.157909
-0.782473,0.041793,0.758541,-0.572772,0.777686,-0.259109
-0.342230,-0.227097,0.618473,-0.526020,0.850236,0.020020
-0.086730,-0.145076,0.577598,0.983803,-0.089666,0.155214
-0.502595,-0.071079,0.471259,-0.117135,0.951013,-0.286101
0.395601,0.473580,0.304364,0.145660,-0.207540,0.967321
-0.390742,-0.242731,0.539662,0.858056,-0.477242,-0.189685
-0.224036,-0.029703,0.280192,0.890924,-0.445857,-0.086406
-0.588585,0.167275,0.864312,0.963748,0.105335,0.245143
-0.011860,0.005315,0.817010,0.990030,0.046349,-0.133015
-0.149575,0.008963,0.774125,0.247303,-0.968937,-0.001594
0.409521,-0.379677,0.561597,-0.143854,-0.826588,0.544113
-0.622518,0.243773,0.703674,0.133222,-0.878256,0.459258
0.132938,-0.722564,0.408998,0.183331,0.423958,0.886933
-0.649042,0.215737,0.662610,-0.665835,0.555285,-0.498319
-0.333085,-0.659614,0.811758,-0.335720,-0.927603,-0.163843
-0.060868,-0.888275,-0.965078,0.038158,0.307667,0.950729
-0.205832,0.429078,0.836632,0.956546,0.267212,0.116697
-0.140680,-0.356227,-0.985781,-0.213275,0.215507,0.952927
-0.327651,-0.093174,0.494900,0.838996,0.213003,0.500716
0.043735,-0.505576,-0.970785,0.110071,0.484128,0.868046
-0.431184,0.470974,0.808801,-0.110020,0.395331,0.911926
-0.113005,-0.251485,-0.491184,0.944241,0.240176,0.225219
0.063009,-0.212611,0.499564,0.897926,0.401126,-0.181182
0.158634,-0.542991,-0.965931,-0.038905,0.205672,0.977847
-0.339839,0.040021,0.826432,0.251017,0.960748,0.118124
-0.131045,0.187181,0.860956,-0.537761,0.265237,0.800289
-0.103534,-0.261073,-0.987070,-0.101554,0.339300,0.935180
0.511161,-0.203022,0.509404,-0.524318,0.478999,0.704025
-0.388354,-0.215216,0.560839,0.940701,-0.339222,-0.002988
-0.537353,0.082960,0.904448,0.001554,-0.811489,0.584365
-0.381847,-0.278061,0.553729,0.983834,-0.179030,0.004254
-0.224611,-0.201668,0.194347,0.957907,0.227927,0.174539
0.063422,-0.603127,0.635612,0.527016,-0.452680,0.719260
-0.318426,-0.226993,0.309673,-0.768657,0.391298,-0.506016
-0.099334,0.289526,0.629830,-0.355907,0.934379,0.016331
-0.128984,-0.396769,-0.758787,0.991282,0.095294,-0.090990
-0.077013,0.373632,0.910571,0.951368,0.296461,-0.083722
-0.306977,0.121939,0.967979,0.147001,0.983641,0.104120
-0.402355,-0.290776,0.812517,-0.731240,0.478542,0.486092
-0.170579,-0.465555,0.740644,0.409302,0.781542,-0.470813
-0.441233,-0.218447,0.773935,0.881808,0.423310,-0.207900
-0.307718,-0.053986,0.676525,-0.246718,0.960236,0.130682
0.046206,-0.361126,-0.979259,0.042733,0.268703,0.962275
0.149000,-0.659927,-0.966670,-0.156603,0.126117,0.979576
-0.526315,0.326733,0.931312,-0.133597,-0.860260,0.492041
-0.324768,0.527566,0.839457,0.880411,0.042880,0.472268
-0.331439,-0.355915,0.703162,0.241806,0.898916,0.365349
0.191912,0.196665,0.697361,0.234945,-0.971979,-0.007634
0.291078,-0.294737,0.578565,-0.245763,0.111194,-0.962931
-0.765999,-0.025847,0.634740,-0.306963,0.951299,0.028344
-0.466600,-0.032308,0.632730,-0.215164,-0.976578,-0.000450
0.040523,-0.312246,0.660695,0.714238,-0.699294,0.029172
0.516678,-0.099844,0.270447,0.569137,0.296492,0.766926
-0.033606,0.180511,0.752796,0.189488,0.402792,0.895463
-0.242402,-0.419802,0.746028,0.225734,-0.887751,0.401176
0.406309,-0.317770,0.554108,0.943665,0.322880,0.072422
-0.306647,-0.310578,-0.989876,-0.086616,0.023665,0.995961
0.531174,0.094216,0.518637,-0.704419,0.380360,-0.599266
-0.711638,0.127566,0.690251,0.890475,-0.230208,0.392503
0.337039,0.246899,0.547985,-0.704490,-0.534663,-0.466722
-0.738242,0.220532,0.903595,-0.349194,-0.936898,-0.016901
0.030556,0.372069,0.909813,-0.285232,0.931317,-0.226477
-0.104109,-0.383846,0.709134,0.819931,-0.567849,0.072531
-0.243390,-0.513392,0.837144,-0.247148,0.430220,-0.868233
-0.326002,0.301199,0.478899,-0.092138,-0.597558,0.796514
-0.625072,-0.020427,0.683976,-0.094512,0.838774,0.536214
-0.540070,-0.269515,0.901357,-0.255813,0.550484,0.794687
-0.323531,-0.104534,0.535169,0.233754,0.919582,-0.315798
-0.388847,-0.453257,0.771755,0.152496,0.251662,0.955725
-0.412899,-0.239708,0.746313,0.626355,-0.499618,0.598382
-0.581994,0.024075,0.884674,0.484423,0.874497,-0.024271
-0.131621,0.797186,0.525007,-0.796273,0.548154,-0.255884
-0.387200,-0.019281,0.864634,-0.255464,-0.820059,0.512095
-0.054197,-0.632413,0.633432,-0.536706,0.841525,0.061506
0.103039,-0.128400,0.780400,0.994585,0.052462,-0.089712
-0.492875,-0.151433,0.797596,0.416920,-0.798875,-0.433562
-0.225270,0.033976,0.737345,-0.206024,0.978172,0.027077
-0.483320,-0.150287,0.402893,0.600656,-0.766927,0.225911
-0.117288,-0.023241,0.583115,0.817757,0.499420,-0.286098
-0.317272,0.437415,0.567342,0.864843,-0.489548,0.111307
-0.312084,0.109432,0.893395,-0.590964,0.714954,0.373634
-0.386130,-0.195935,0.570261,0.834520,-0.455185,-0.310457
0.149080,-0.575717,-0.966443,-0.000497,-0.130206,0.991487
-0.514207,-0.520688,0.722273,0.949307,-0.283724,0.135343
0.075198,0.227619,0.755545,0.555284,0.671191,0.491083
-0.537436,0.159041,0.903822,0.006592,-0.826408,0.563033
0.575652,-0.218864,0.539453,0.877702,-0.457436,-0.142798
-0.149904,0.201772,0.556327,0.455474,0.889887,-0.025393
0.131621,-0.790516,-0.961855,-0.040984,0.191004,0.980733
0.100733,-0.821261,-0.959693,-0.188051,0.051856,0.980789
-0.596902,0.332673,0.880844,0.882010,-0.306125,0.358253
-0.040855,-0.711204,0.634475,-0.719383,0.532666,0.445819
0.380610,0.239396,0.305521,0.260385,-0.529524,0.807344
-0.059634,-0.092861,0.610871,0.869129,0.357457,-0.341817
0.054360,-0.331944,-0.980814,0.032557,0.114046,0.992942
0.019768,-0.082543,0.693986,0.993364,-0.110984,0.030179
-0.386705,0.601251,0.628673,0.147368,-0.710108,0.688498
0.808665,-0.105680,0.322432,-0.579423,0.386553,0.717528
-0.326251,0.023241,0.916430,0.832557,0.398785,-0.384473
-0.229882,0.139135,0.867364,-0.232932,0.826346,0.512733
-0.310272,-0.112871,0.450157,0.741523,0.596870,-0.306415
-0.214481,-0.559771,0.758636,0.716929,0.422664,-0.554408
-0.316119,0.047525,0.717287,0.771776,0.530126,-0.351180
0.072564,-0.415008,-0.980131,-0.192887,0.386214,0.902016
-0.365951,-0.216988,0.402590,0.177736,-0.983802,-0.023302
-0.314472,-0.135800,0.444147,0.637687,0.683143,-0.355909
-0.094475,0.424805,0.669567,0.922939,0.307964,-0.230958
-0.354996,0.608442,0.626607,0.833539,0.237963,0.498584
-0.367104,0.157582,0.737118,0.890456,-0.438103,0.123102
-0.404746,0.640438,0.879934,-0.040054,-0.746512,0.664165
-0.221153,0.573111,0.918060,-0.175684,-0.547139,0.818397
0.438430,0.264617,0.489914,-0.388208,0.544256,-0.743693
-0.145046,-0.338614,-0.983771,-0.234760,0.094381,0.967461
-0.569723,-0.220219,0.790866,-0.201001,0.975934,0.084571
0.329790,-0.352788,0.576916,0.297310,-0.053388,-0.953287
-0.122479,-0.250547,0.707826,0.131934,-0.935731,0.327109
0.072398,-0.525899,-0.970860,-0.019216,0.329794,0.943857
0.014827,-0.052110,0.790221,-0.334982,0.942221,0.002625
-0.247098,-0.084627,0.954689,-0.398623,0.517464,0.757186
-0.434974,-0.518499,0.611743,0.945295,-0.152640,-0.288303
-0.121159,-0.268890,-0.254711,0.886876,0.028641,-0.461119
-0.446009,-0.252215,0.813085,0.544484,-0.362336,-0.756472
0.026439,0.601772,0.785443,-0.452517,-0.685793,-0.570014
0.003294,-0.671496,0.393831,-0.045388,0.868089,0.494330
-0.009143,-0.375404,0.797046,0.470018,-0.056156,-0.880869
0.087306,-0.295154,0.361734,0.227854,0.449616,0.863671
-0.086155,0.057426,0.757403,-0.662175,0.621730,0.418302
-0.078906,-0.395623,0.316820,0.729226,0.501097,-0.465974
0.062763,0.101511,0.863933,-0.333182,-0.306753,0.891567
-0.533565,-0.063575,0.503432,-0.272893,0.901574,-0.335698
-0.438184,-0.102553,0.592121,-0.695535,0.718196,-0.020613
-0.476486,-0.158729,0.833788,-0.626966,0.688883,0.363805
-0.526811,0.057217,0.594453,0.844220,-0.450711,0.290091
-0.137550,-0.325482,-0.329693,0.850318,0.463885,-0.248534
-0.261015,-0.483689,0.712168,-0.716238,0.557299,0.420026
-0.220082,-0.215425,0.198726,0.962675,-0.067856,0.262018
-0.099746,0.273788,0.908827,-0.213749,-0.974967,-0.061251
-0.343876,0.124544,0.895765,-0.728147,-0.674609,0.121265
-0.048926,0.141324,0.838225,0.882371,0.352624,0.311572
0.096943,0.286295,0.861753,0.466554,0.009038,0.884446
-0.078576,0.281813,0.893926,0.377830,0.845739,-0.376790
-0.136479,0.239291,0.990464,-0.412574,0.820667,-0.395333
0.720204,0.019281,0.503223,0.501109,0.452706,-0.737528
0.072152,-0.330797,0.622114,0.917836,-0.377264,0.123487
0.005270,-0.461073,-0.977249,0.006671,0.138548,0.990333
-0.290915,0.479625,0.837902,-0.048801,0.217845,0.974763
-0.255252,0.309745,0.963239,0.895342,-0.397400,-0.201085
-0.541060,-0.161438,0.894115,-0.184867,-0.399752,-0.897788
-0.257228,0.042939,0.735639,0.295669,0.905703,0.303780
-0.166791,-0.134237,0.051739,0.606449,-0.785107,-0.125805
0.047360,0.136321,0.576442,0.828255,-0.558245,-0.048538
-0.372210,0.441688,0.813939,0.231556,0.265258,-0.935959
-0.730995,0.002084,0.625697,0.186340,-0.806605,-0.560951
-0.600610,0.172173,0.874929,-0.430819,-0.901648,0.037762
-0.457458,-0.043460,0.681417,0.096040,-0.981427,0.166064
-0.360680,-0.226472,0.553198,0.914427,-0.398274,-0.072112
-0.157400,-0.192705,0.088386,0.994356,-0.105295,0.012986
0.228153,-0.845961,-0.955276,-0.206522,0.221593,0.953019
0.192734,-0.252944,0.551094,0.928719,-0.325561,-0.177460
-0.102217,0.345597,0.925283,0.761310,-0.161878,0.627856
-0.096284,-0.033246,0.623915,0.491956,-0.791334,0.363000
-0.275019,0.676081,0.739829,-0.498086,-0.634768,0.590745
-0.060868,0.507348,0.955125,-0.645273,-0.347209,0.680492
-0.234990,0.485044,0.503488,-0.675064,0.725205,-0.135526
-0.825139,-0.243252,0.653718,0.833011,-0.326185,0.446873
0.368914,0.228765,0.549937,0.924944,-0.236305,0.297723
-0.095380,-0.808025,-0.970538,-0.053308,0.151661,0.986994
-0.913847,0.031475,0.775926,0.819453,-0.426286,0.383114
-0.112429,0.256905,0.639271,0.566462,0.724053,-0.393532
0.186146,-0.559666,0.490578,0.572431,-0.090444,-0.814949
-0.201220,0.575091,0.821882,0.460362,-0.474818,0.750076
-0.108888,-0.258572,-0.543662,0.961151,-0.256816,0.101164
0.157234,0.360083,0.555417,0.395794,-0.782281,0.481024
-0.245368,-0.255133,0.269992,0.292695,0.912182,0.286800
-0.506383,0.174570,0.858416,-0.295467,-0.955314,0.008627
-0.807182,-0.242001,0.856539,-0.359676,0.520342,0.774518
-0.151388,0.035227,0.330584,0.310048,-0.942105,0.127706
-0.360267,0.395310,0.590130,-0.436277,0.840138,-0.322229
-0.441067,-0.027931,0.651955,0.753058,0.570853,-0.327157
-0.280207,-0.223241,0.297198,-0.324673,-0.928790,-0.178706
0.036569,0.097968,0.732890,0.779703,-0.619468,-0.091224
0.192817,-0.663054,-0.965912,0.049626,-0.199935,-0.978552
-0.054034,-0.309640,-0.984814,0.101781,-0.310535,-0.945097
-0.184745,0.444294,0.849790,0.789514,0.197703,0.581017
-0.638663,0.072225,0.800838,-0.350849,0.708309,0.612539
-0.209044,-0.375195,0.294032,-0.675247,-0.737575,0.004953
-0.408616,-0.201668,0.558640,0.877659,-0.455235,-0.149922
-0.087638,0.110474,0.896030,0.271808,-0.919209,-0.284912
0.088955,-0.022303,0.843116,0.803453,0.529124,-0.272932
-0.470803,0.114539,0.959239,0.049742,0.993468,-0.102702
-0.172228,-0.043564,0.293994,-0.733852,0.678323,-0.036598
-0.483320,0.104221,0.553824,0.249229,0.906448,-0.340937
-0.482828,0.371652,0.869924,-0.411416,0.891433,-0.189959
-0.460095,0.038353,0.908334,-0.324602,0.901835,-0.285179
-0.655959,0.102866,0.926762,-0.176698,-0.971516,0.157905
0.208303,0.128088,0.720889,0.805973,0.216583,-0.550907
-0.336134,0.567900,0.850870,0.168432,-0.714569,0.678985
-0.606952,-0.014278,0.843230,-0.088121,-0.714676,0.693882
0.103614,0.335800,0.884996,0.508111,0.825642,-0.245231
0.006011,0.124857,0.923217,0.287248,0.065248,0.955631
-0.097521,-0.181761,-0.080821,0.883963,0.458994,0.089071
0.008319,0.404898,0.710746,0.662085,0.730339,0.168071
-0.451692,0.011360,0.662230,0.314803,0.944774,-0.091113
-0.173379,-0.317040,-0.988264,0.165810,-0.228519,-0.959316
-0.202620,-0.794372,-0.974102,-0.046318,0.128112,0.990678
-0.590068,0.154247,0.818527,0.614435,-0.779242,-0.123501
-0.376493,0.188848,0.551625,-0.757791,0.584462,-0.290099
-0.105841,0.025951,0.459409,0.932308,0.297458,-0.205718
-0.001318,0.078999,0.508816,-0.276678,-0.934742,0.222949
-0.774649,-0.315268,0.852008,-0.153440,0.691721,0.705676
0.064985,0.355706,0.740397,0.292718,-0.718193,0.631281
-0.126596,-0.510057,-0.921302,0.978836,0.162202,0.124781
-0.317518,0.371235,0.497270,0.982175,-0.161591,-0.096022
-0.102051,-0.284419,-0.197531,0.558179,0.828373,0.047277
-0.541473,0.306931,0.922724,0.820026,0.489179,-0.297089
-0.066634,-0.340177,0.620767,-0.297780,0.641457,0.707008
-0.107734,0.324440,0.733686,0.570807,0.801182,-0.179688
0.138867,0.250443,0.714841,-0.355022,-0.883263,0.306278
0.309199,0.016154,0.730368,0.436841,-0.552031,0.710234
0.315211,-0.154039,0.467960,0.264773,0.963363,0.042747
0.110039,-0.118499,0.743127,-0.415966,0.870498,0.263068
-0.333168,-0.189786,0.486843,0.984946,-0.066040,0.159751
-0.144634,0.160083,0.866037,-0.406784,0.718727,-0.563878
-0.177991,-0.288796,-0.419880,-0.162525,0.986614,-0.013354
0.484308,-0.415216,0.546961,-0.575800,0.778483,0.249837
-0.216211,0.411777,0.751773,-0.125488,-0.834786,0.536083
-0.017627,0.269724,0.848842,0.722647,-0.023098,-0.690831
-0.087801,-0.411256,-0.986444,-0.029541,0.187795,0.981764
-0.468990,0.050443,0.738843,0.107616,0.928947,0.354227
-0.078247,-0.270036,0.582584,0.372663,-0.483129,-0.792281
0.344618,0.450130,0.315228,0.141926,-0.157283,0.977302
-0.013673,-0.694945,-0.966746,-0.148628,-0.087165,0.985044
