-0.598834,-0.384890,0.333205,-0.711953,0.067526,-0.698973
0.228848,0.697148,0.637734,0.258085,-0.359380,0.896793
0.077593,-0.245731,0.505613,-0.830194,0.389161,-0.399163
-0.507700,0.728802,0.254961,0.920147,-0.342146,0.190436
-0.067959,0.874825,0.376435,-0.493134,-0.084034,0.865885
0.339080,-0.271961,0.536444,0.978678,-0.199586,0.048528
0.031836,0.042967,0.306813,0.783074,0.437213,0.442312
-0.286985,0.465104,0.730371,0.914764,0.402655,0.032796
0.401694,-0.011993,0.873733,-0.702972,0.098008,-0.704432
0.447747,0.042501,-0.992441,0.239976,-0.229588,-0.943240
0.025414,-0.173736,0.685902,-0.215767,0.954359,0.206505
0.121322,0.141997,0.730692,0.114192,-0.868455,0.482437
0.288168,0.099369,-0.406446,0.131439,0.726892,0.674056
0.184402,-0.185348,0.767474,0.042453,-0.999095,0.002438
0.292858,-0.213357,0.623163,0.381974,0.924131,-0.008824
0.475590,0.462392,0.400817,-0.662791,-0.132270,-0.737030
0.171219,0.467181,0.725224,-0.293548,0.756916,-0.583873
0.367979,-0.788424,0.232445,-0.426743,-0.333693,0.840559
-0.016963,0.058180,0.612323,-0.360513,0.436837,-0.824138
-0.077973,0.763422,0.658754,-0.421793,-0.601447,0.678492
0.146714,0.607229,0.638634,0.781728,-0.055934,0.621107
0.498109,-0.225138,-0.976648,0.086571,-0.057509,-0.994584
-0.185668,-0.696513,0.259223,0.190607,0.187908,0.963514
0.590554,-0.227552,-0.972000,0.071959,0.155119,0.985272
0.276507,-0.282131,0.794815,0.635622,0.039065,-0.771012
0.485899,0.110513,0.595403,0.969752,-0.179225,-0.165710
-0.246382,0.329675,0.759529,-0.058891,0.381495,0.922493
0.265184,0.484087,0.742433,-0.065331,-0.972629,0.222992
0.291252,-0.090682,-0.987777,-0.133239,0.064394,0.988990
0.171008,-0.367897,0.588665,-0.124139,0.613219,0.780097
0.159094,0.016907,0.929091,0.811889,0.058721,-0.580851
0.008852,-0.335439,0.777124,0.923254,-0.053258,0.380480
0.318292,0.457011,0.239795,0.517396,0.235800,-0.822618
-0.086465,-0.060511,0.282656,0.781012,0.098625,0.616680
0.494223,0.024620,0.665316,-0.633311,0.529690,-0.564222
-0.680968,0.025170,0.383222,0.824998,0.514970,-0.232773
0.112830,0.617992,0.642526,0.254402,0.011804,0.967027
0.024907,-0.276835,0.879716,0.408636,0.339792,0.847088
0.392104,0.270859,0.659638,-0.266867,0.520342,0.811188
0.572385,0.015636,-0.986619,-0.055749,0.160953,0.985386
-0.494095,-0.255647,0.620107,-0.572573,0.486133,0.660178
-0.284027,-0.542989,0.447843,0.071517,-0.177601,0.981501
0.213300,-0.587865,0.723809,-0.729275,0.488621,0.478966
0.024780,-0.285902,0.835440,-0.556355,0.539973,0.631584
-0.483448,-0.111234,0.379572,-0.393799,-0.918525,0.035131
0.367430,0.012458,0.780453,-0.743713,0.392006,0.541500
0.494095,-0.074029,0.778475,0.341281,-0.071942,0.937204
-0.798424,0.279037,0.410531,-0.360392,0.845657,0.393678
0.195978,0.578159,0.607836,-0.111682,-0.505162,0.855768
0.064791,-0.085386,0.666313,0.918586,-0.257427,-0.299886
-0.155756,0.075766,0.794670,0.847939,0.002599,0.530088
-0.154446,-0.138862,0.164705,-0.097035,0.927489,0.361037
0.358641,-0.440061,0.770530,-0.297166,-0.944999,-0.136636
-0.500306,-0.062842,0.653897,-0.296069,0.544277,0.784924
0.121068,-0.630070,0.277365,-0.226642,-0.306292,-0.924564
0.495152,0.388787,0.492779,-0.082317,0.105725,0.990982
-0.133321,0.363786,0.634018,0.373998,-0.900311,0.222631
0.248115,-0.143863,-0.218663,0.426924,0.896148,-0.121055
-0.040286,-0.198992,0.440284,0.095283,0.653162,0.751200
0.158291,0.257044,-0.101788,-0.145234,-0.511256,0.847068
0.525530,-0.046909,0.511531,0.180087,0.757653,0.627320
0.181824,-0.127506,-0.031892,0.964171,-0.233505,0.125893
-0.099520,-0.009873,0.767265,0.374921,0.697001,0.611248
-0.193865,-0.218315,0.900576,-0.517871,-0.589762,-0.619670
0.533599,0.100258,0.503329,0.118542,-0.161713,0.979692
-0.144263,-0.647824,0.575026,0.832939,-0.173121,-0.525587
0.099563,-0.466207,0.753144,0.903060,-0.175626,-0.391968
-0.796734,0.171533,0.056467,-0.155552,0.155107,0.975574
-0.266747,-0.439723,0.457557,0.002524,0.267669,0.963508
-0.400131,0.235942,0.491540,0.506120,-0.501348,-0.701778
0.300125,0.266240,-0.750571,0.629473,0.620273,-0.468001
0.140250,0.114496,0.684647,0.239908,-0.487843,0.839317
0.136194,-0.073096,0.365917,-0.103995,-0.981884,-0.158396
-0.013203,0.366880,0.731609,-0.719291,0.398723,0.568893
-0.301139,0.591465,0.210123,-0.365753,0.304319,0.879554
-0.442339,0.183567,0.282495,-0.287384,-0.939741,-0.185198
0.207935,-0.283825,-0.511178,-0.738074,0.656302,0.156569
0.279718,0.263104,0.465550,-0.790228,0.447119,-0.419075
-0.097619,0.637145,0.648043,-0.495032,-0.081606,0.865034
0.046708,-0.592398,0.470552,-0.488769,0.263284,-0.831737
-0.265606,0.520912,0.589662,-0.243336,-0.394629,-0.886034
-0.099732,-0.137167,0.264579,0.904769,0.033090,-0.424615
-0.229017,0.726429,0.481553,0.458613,0.751540,-0.474196
-0.592158,0.134539,0.537939,-0.298765,0.174422,0.938252
0.117266,-0.441545,-0.976551,-0.144049,0.184331,0.972251
-0.105478,-0.336879,0.712390,0.308635,0.293189,0.904867
-0.052792,-0.298403,0.138682,-0.233521,0.641687,0.730552
0.004922,-0.098648,0.375599,0.253738,-0.953426,0.163082
0.521897,-0.145769,-0.979639,-0.045065,0.104627,0.993490
0.568414,-0.180643,-0.980572,0.053073,0.254367,0.965650
0.396033,-0.418619,0.737608,0.976945,0.136799,-0.163906
-0.001415,-0.333108,0.603348,0.071732,0.300107,0.951205
0.027442,-0.289843,0.757117,0.601536,-0.403950,0.689187
-0.237467,-0.379042,0.723407,-0.070030,0.784707,0.615899
-0.663942,0.201831,0.332626,0.647222,0.738323,0.189691
-0.299195,-0.139668,0.534707,0.100966,0.718651,0.688001
-0.109111,0.592058,0.613963,0.332445,0.587082,-0.738116
0.308068,-0.070299,0.843369,0.871014,0.289804,0.396671
-0.837167,0.553328,0.259272,0.149283,-0.965678,-0.212558
-0.199864,0.063944,0.739763,0.749441,-0.647807,0.136688
-0.138390,-0.277470,0.882193,0.824766,-0.188414,0.533162
0.469168,0.588118,0.462012,0.128768,0.984312,-0.120620
-0.063777,-0.824739,0.260140,-0.107112,-0.215575,0.970595
0.230327,-0.138862,0.365129,0.505672,0.845787,0.170117
0.020682,-0.513666,0.579498,-0.711594,0.304599,-0.633130
-0.286647,0.434212,0.733780,0.914764,0.402655,0.032796
0.251072,-0.191237,-0.985526,-0.114675,0.138615,0.983685
-0.233623,-0.212424,0.918460,0.632441,0.555138,0.540222
0.469717,0.056104,-0.989273,-0.154898,0.215482,0.964144
0.163572,-0.518116,0.857055,-0.516865,-0.476874,-0.710944
-0.770074,0.277470,0.356091,-0.506276,-0.797762,-0.327505
-0.190232,0.593118,0.274068,-0.766583,0.542770,0.343149
-0.117350,0.329378,0.511097,0.068628,-0.616550,0.784319
0.315757,0.243273,0.626315,0.199554,-0.113195,0.973327
0.141728,0.271622,0.060391,0.906155,0.404155,-0.124665
-0.011978,0.611381,0.612516,0.971529,-0.029511,0.235075
0.013204,-0.636891,0.473142,0.099457,-0.034025,0.994460
0.303378,-0.187381,-0.394818,0.986848,0.159192,0.028088
0.385428,-0.292809,0.822397,0.910527,0.374568,-0.175039
0.389062,-0.064198,0.769163,0.736780,0.433991,0.518467
0.391174,-0.143820,0.360143,0.100817,0.994818,0.013186
-0.619325,0.104580,0.063769,0.102298,0.249996,0.962828
-0.669265,0.494979,0.287787,0.675501,0.358749,-0.644202
-0.328094,-0.082504,0.833124,-0.535832,0.524280,0.661827
0.112914,0.309886,0.063720,-0.585709,-0.425660,0.689753
-0.132475,0.640705,0.325228,0.987002,0.110453,-0.116738
-0.422059,-0.191576,0.254527,-0.169654,-0.732488,0.659302
0.362613,0.502182,0.717038,-0.224166,-0.469829,0.853821
-0.485730,0.068351,0.610714,0.894782,-0.203290,0.397541
0.200668,-0.111403,-0.006465,-0.441433,-0.890384,-0.111142
0.421510,0.307174,0.499147,-0.566864,0.784453,-0.251594
-0.471365,-0.389805,-0.106951,0.560026,-0.244069,-0.791708
0.019203,0.475571,0.672344,0.733641,0.647666,-0.205669
0.294463,-0.051740,0.858101,-0.263652,0.919512,0.291523
-0.043919,0.550065,0.241404,0.012111,0.259690,0.965616
0.096986,-0.423959,0.735389,0.825621,-0.553055,0.111718
0.494433,0.276325,0.663080,-0.618997,0.238307,0.748367
0.313476,0.658079,0.191724,-0.401114,-0.321339,-0.857817
-0.044891,0.127377,0.148992,-0.599896,0.684592,0.414076
0.481632,-0.281030,-0.714304,-0.183147,-0.925290,0.332108
0.536769,0.197297,-0.429798,-0.019463,0.472334,0.881205
0.818070,0.263401,0.337836,-0.577091,-0.178991,0.796824
0.308153,-0.459427,0.783042,0.159559,0.800213,0.578101
-0.253227,-0.769524,0.261282,0.144381,-0.019466,0.989331
-0.451169,0.349675,0.355254,0.569255,0.421083,0.706143
0.359613,0.066909,0.914873,-0.482204,-0.866190,0.131123
-0.706445,0.578669,0.270626,0.315419,-0.615858,-0.721962
-0.098760,-0.218315,0.551915,0.408212,0.214233,0.887394
0.092000,0.052375,0.438322,0.948848,0.315386,0.014830
0.181571,0.013771,-0.310592,0.836338,0.542210,0.080913
0.391132,0.567990,0.234778,-0.499522,-0.175446,-0.848349
0.122632,-0.378364,0.592814,0.211235,0.776021,0.594283
0.130279,-0.051654,0.413539,0.623292,0.758670,-0.189544
0.114097,0.144158,0.887661,0.126503,0.685870,-0.716644
0.239580,0.006440,-0.353276,-0.347743,-0.748759,-0.564300
-0.169698,-0.477774,0.485123,-0.629438,0.339841,0.698796
0.790144,-0.000255,-0.240712,-0.393179,-0.412473,0.821752
0.402539,-0.142294,0.885635,-0.178615,-0.541378,0.821588
-0.049454,-0.384255,0.555984,0.785730,-0.278406,-0.552376
-0.326024,0.370566,0.259368,0.962757,-0.212336,0.167369
0.260325,-0.223315,0.750024,-0.679292,-0.558852,0.475654
-0.166149,-0.445019,0.761588,0.197973,0.639701,0.742691
0.532332,0.067290,-0.992103,0.069826,0.212138,0.974742
0.165220,-0.218229,0.893178,0.785157,-0.601610,0.146952
-0.068720,0.366286,0.728972,-0.516979,0.738490,0.432857
0.489913,0.305225,0.262649,-0.447961,0.589405,0.672259
0.191373,-0.061358,0.623645,0.937141,0.210564,0.278260
-0.145658,-0.637061,0.314822,-0.749040,-0.588817,-0.303700
-0.448634,-0.286241,0.345862,0.169966,-0.672176,0.720619
-0.160530,0.078265,0.711811,-0.492934,0.554369,-0.670590
0.494012,0.303234,0.504117,0.121453,-0.036838,0.991913
0.068086,0.113225,0.844833,-0.196440,0.720271,-0.665298
0.464140,0.318022,-0.464232,-0.093186,0.646349,0.757331
0.373852,-0.219120,0.866207,-0.400421,-0.892005,0.209737
0.358600,-0.245986,-0.914471,0.922910,0.358351,-0.140793
0.179585,0.008898,-0.349078,0.730484,0.514945,0.448581
-0.118618,0.218060,0.608141,-0.080228,0.093016,0.992427
0.130532,-0.070046,0.869230,0.455552,0.643507,-0.615119
0.088662,0.527692,0.100453,-0.100440,-0.581950,0.806998
0.840632,0.411966,-0.413748,-0.444743,-0.275297,0.852300
-0.112069,-0.323235,0.827592,0.851306,0.524069,-0.025092
-0.137292,-0.246876,0.890460,-0.770531,0.262288,-0.580937
0.439593,0.092970,0.607562,0.920516,0.038048,-0.388848
-0.018991,0.563668,0.724677,0.483148,-0.873967,-0.052430
0.054905,-0.352262,0.858310,0.246643,0.960779,0.126773
0.546782,0.130260,0.637187,-0.222116,0.775172,0.591415
0.547374,0.315056,0.256827,-0.369472,0.314509,0.874400
-0.145150,0.495911,0.616649,0.269923,0.759685,-0.591626
0.038892,0.098098,0.880376,-0.759158,-0.605311,0.239329
0.356909,0.307894,0.652305,0.788545,0.595104,0.155076
-0.213723,-0.562821,0.472563,0.158777,0.054762,0.985795
-0.025625,-0.035764,0.893033,-0.358482,0.785007,-0.505228
0.240974,0.511802,0.739651,0.120916,0.950823,-0.285158
-0.299533,0.247170,0.551208,0.783151,0.615926,0.085496
-0.198386,0.125768,0.793174,-0.403022,-0.676136,-0.616777
-0.109787,0.364252,0.802888,-0.033914,0.294890,0.954929
-0.504996,-0.133396,0.673084,0.898547,0.438802,-0.008123
-0.105055,-0.075766,0.591479,-0.182946,0.825182,-0.534420
0.203161,-0.312937,-0.980106,-0.114229,0.186236,0.975842
-0.442212,0.275519,0.595918,-0.393546,-0.817621,-0.420258
0.476140,0.492818,0.400769,0.837036,-0.248801,0.487307
0.198471,-0.462647,0.687719,0.807406,-0.468991,-0.357972
0.182289,0.274757,0.820901,-0.074982,-0.808953,0.583072
0.348290,0.063646,0.879941,0.294860,0.929328,-0.222277
0.140545,0.690411,0.678134,-0.710935,0.379712,-0.591938
-0.686630,0.243316,0.421210,0.503244,0.066965,0.861546
0.120603,-0.224883,0.927707,0.803888,-0.330619,0.494423
0.177810,-0.047714,0.210525,-0.070883,-0.994319,-0.079411
0.750091,0.243400,0.330487,-0.478556,0.128547,0.868596
-0.092507,0.125725,0.737110,0.824674,-0.348283,0.445659
-0.449268,-0.285776,0.631365,-0.837410,0.465380,0.286645
0.213469,0.508708,0.782286,0.472787,0.719699,-0.508434
-0.313349,0.075003,0.818376,-0.527846,0.730030,-0.434091
-0.242115,-0.576169,0.492859,-0.191079,0.088974,0.977534
0.416229,-0.168652,0.904822,-0.142836,-0.037956,0.989018
0.228764,-0.116742,-0.033067,0.872699,0.440200,0.211234
0.242031,-0.163736,-0.416819,0.963100,0.255946,0.083253
0.413313,0.567015,0.737206,-0.229833,-0.434655,0.870777
-0.104760,-0.188060,0.881148,0.637847,-0.472892,-0.607885
0.713374,0.247213,0.319792,0.622234,-0.231581,-0.747793
-0.026681,-0.201873,0.783605,0.005771,0.918153,0.396183
0.330249,0.603627,0.287031,-0.021405,0.599171,0.800335
-0.051102,-0.339634,0.163337,-0.220048,0.727679,0.649663
0.096816,0.188779,0.794509,0.213153,0.976817,-0.019853
0.270845,0.284885,0.332513,-0.293360,-0.151067,-0.943991
0.242453,0.286495,0.816125,-0.701001,-0.711949,0.041551
0.302238,-0.078436,0.951719,-0.311070,0.893677,0.323384
0.016457,0.501208,0.749316,0.874025,0.446593,0.191405
0.323489,-0.245731,-0.975908,0.447671,-0.037418,-0.893415
0.590257,0.356582,0.679919,0.273689,-0.789658,0.549122
-0.047046,0.734479,0.705780,-0.799361,0.048672,0.598876
0.289098,0.072503,0.229342,-0.391547,-0.184279,0.901517
0.277732,0.904657,0.050532,0.240941,-0.326894,0.913831
0.151615,0.294503,0.828332,-0.423045,0.330213,0.843796
-0.268606,0.120428,0.215173,-0.015118,-0.571589,0.820401
-0.046369,0.076655,0.182862,0.041334,-0.746937,0.663609
0.440691,-0.273105,0.898195,-0.583224,0.628255,-0.514922
-0.282591,0.193482,0.767747,0.053686,0.686641,0.725011
0.240003,-0.119115,0.302695,0.574197,0.805235,0.147968
0.075480,-0.552142,0.797131,0.462975,-0.871756,-0.160297
0.085282,0.049239,-0.009553,0.849801,0.444484,-0.283324
0.433762,0.258739,0.656229,-0.267278,0.735447,0.622639
0.174219,-0.614094,0.632490,0.943548,0.252030,-0.214935
-0.590257,0.193651,0.412445,-0.221059,0.421054,0.879685
0.202442,-0.061148,0.160298,-0.544523,-0.824647,0.153139
-0.572047,0.092970,0.542427,0.339182,-0.199604,-0.919301
-0.093225,-0.606551,0.582762,0.072066,-0.322442,0.943842
0.243383,-0.379805,0.794011,-0.548428,-0.119653,-0.827593
-0.427382,-0.307683,0.186931,-0.495701,0.831535,-0.250661
0.558569,-0.045341,-0.983515,-0.041285,0.164768,0.985468
-0.695629,0.275858,0.028836,0.792576,0.377814,-0.478623
-0.493673,-0.303742,0.632072,-0.215617,0.488921,0.845261
-0.232355,-0.597991,-0.072164,-0.246372,0.060716,0.967272
-0.424932,0.410695,0.338882,-0.542458,-0.578940,-0.608742
-0.458478,-0.258910,0.711956,0.486816,0.844490,0.223264
-0.686250,0.011059,0.389961,0.491854,0.869331,-0.048409
0.156263,0.291792,0.827737,-0.289507,0.149918,0.945363
-0.114096,0.871307,0.360417,0.391316,-0.108542,-0.913833
0.231004,-0.162168,0.745859,0.191857,0.969364,-0.153378
0.202611,0.406755,0.342211,-0.307860,0.436817,0.845230
0.247058,0.386584,0.698800,0.373289,0.907715,-0.191596
-0.023639,-0.325226,0.868458,0.899515,-0.435438,0.035602
0.645141,0.090597,-0.988838,-0.117088,0.183398,0.976041
-0.756892,0.076867,0.433497,0.493313,0.005626,0.869834
-0.681264,-0.587271,0.159687,-0.153249,0.917135,0.367937
0.026470,0.324717,0.752517,0.985864,0.155809,0.061614
0.042610,-0.367050,0.834958,-0.293888,0.944314,-0.147989
-0.084648,0.283995,0.521278,0.662865,-0.511748,0.546557
0.704207,0.286029,-0.443903,0.192317,0.136499,0.971793
0.213808,-0.250985,0.579321,0.698890,0.065998,-0.712178
0.149334,-0.290267,0.860015,0.881727,0.435378,-0.181667
-0.578258,-0.110174,0.602158,-0.447076,-0.826159,0.342906
0.014724,-0.077334,0.743575,0.906994,0.003786,-0.421126
-0.254790,-0.439637,0.697481,0.856120,0.389577,0.339541
0.175360,0.467774,0.776850,0.448585,0.054231,-0.892093
0.232524,-0.216196,-0.984030,-0.097202,0.056128,0.993681
0.442931,0.145090,0.793769,-0.775765,-0.480755,0.408734
0.389442,-0.253909,0.852408,-0.463549,-0.851833,0.243934
0.209455,0.838171,0.051642,-0.220074,0.882064,0.416569
0.323574,-0.284843,0.892985,0.244279,0.832567,-0.497152
0.302364,0.547268,0.270819,-0.090891,0.988980,-0.116863
0.022878,0.504893,0.248368,-0.317866,0.422246,0.848923
0.555105,-0.014026,0.482663,-0.095691,0.194489,0.976226
0.429030,-0.624476,0.463283,-0.650430,0.336622,0.680901
-0.223820,-0.373914,0.742401,0.090057,0.873640,0.478166
-0.252128,0.349718,0.387275,0.256842,0.958480,-0.123886
-0.535247,-0.079538,0.358953,0.206883,-0.861331,0.464014
0.401441,0.368871,0.428865,-0.771407,0.115822,-0.625713
-0.105562,-0.693716,0.262488,-0.356012,0.140009,-0.923933
-0.218243,-0.432137,0.674258,0.969711,-0.170721,0.174686
0.329278,-0.317429,-0.975490,0.225650,0.034304,-0.973604
-0.017090,-0.452520,0.791566,-0.366796,0.070155,-0.927652
-0.262775,0.114666,0.607594,-0.608407,0.719206,-0.335535
0.144813,-0.195136,0.718952,0.189819,0.973375,-0.128492
0.366120,-0.209882,0.518350,0.994272,0.064825,-0.084975
0.215117,-0.119285,0.029190,0.575258,-0.816303,0.052227
-0.402877,-0.122463,0.683489,0.186656,0.034418,0.981822
0.466506,0.024789,-0.356187,0.513342,0.213900,0.831100
-0.146080,-0.198229,-0.081090,-0.080847,0.084413,0.993146
-0.356825,0.574007,0.627650,0.150384,0.346579,0.925887
-0.463844,-0.354592,0.645437,-0.796476,0.351551,0.491973
-0.409257,-0.005805,0.763920,0.740689,0.549175,0.387022
-0.743752,0.259247,0.353244,0.590697,0.710622,0.382222
0.231595,0.160515,0.775837,-0.642791,0.763362,-0.064010
0.061242,-0.050299,0.638827,-0.625820,0.772553,0.107291
-0.708219,0.268909,0.381485,0.517085,0.801262,-0.301002
-0.116040,-0.051019,0.443501,0.009522,-0.879425,0.475943
0.150010,0.094835,0.046962,0.027549,-0.372371,0.927675
0.444325,0.393915,0.234086,-0.040261,0.481844,0.875332
0.350192,-0.339252,0.846569,0.238968,0.089599,-0.966885
-0.192471,-0.258147,0.426952,0.464784,-0.366981,-0.805792
-0.211653,0.712106,0.216154,0.328009,0.888832,-0.319980
0.246298,-0.103988,0.042491,0.961542,-0.256955,-0.097007
0.296322,-0.011145,-0.993374,0.029506,0.265710,0.963601
-0.033019,-0.125049,0.899096,0.818459,-0.361165,-0.446860
0.256480,-0.126912,0.156647,0.890378,0.430327,-0.148476
0.432748,-0.547269,0.464071,0.934935,-0.011427,-0.354634
0.095464,0.252977,-0.407379,0.503021,0.629580,0.592114
-0.647380,0.382813,0.356846,-0.002007,-0.154911,0.987926
-0.067706,-0.301920,0.542298,0.486184,-0.101518,0.867939
0.015780,-0.635875,0.471533,0.073813,-0.047735,0.996129
-0.178317,0.076698,0.762537,0.902799,-0.367754,-0.222958
0.140504,-0.524895,0.771414,-0.800226,0.308143,0.514477
0.402455,-0.275521,0.882354,0.965924,0.247289,-0.076414
0.195598,-0.020044,0.428496,0.352700,-0.927458,0.124194
-0.027568,0.327555,0.418347,0.388377,0.233227,0.891498
-0.511629,-0.152084,0.684390,0.951394,0.192174,0.240663
0.598877,-0.163228,-0.977613,-0.115316,0.065917,0.991139
-0.008598,-0.215136,0.871321,0.376539,0.573009,0.727928
-0.027188,0.524428,0.674901,0.974028,0.104911,-0.200657
0.473984,-0.448537,0.786050,0.659790,-0.179755,-0.729634
-0.618607,-0.381203,0.131912,-0.313252,0.413100,0.855115
0.391724,-0.286537,0.846763,0.807476,-0.093864,-0.582385
0.053510,-0.703844,0.277558,-0.056724,0.022616,0.998134
-0.192471,-0.902496,0.281788,0.422627,0.031556,0.905754
-0.462196,0.404296,0.422883,0.466698,-0.883765,-0.033955
0.116505,-0.257469,0.857313,-0.006060,-0.964235,0.264978
0.481294,0.095131,0.660571,-0.682701,-0.636958,-0.358055
0.028202,0.224712,0.782962,0.394506,-0.269539,0.878473
0.164459,0.005381,0.689939,-0.640164,0.603670,-0.475155
-0.586793,-0.071783,0.054296,-0.325193,0.072373,0.942874
-0.637958,0.347218,0.369118,0.452674,0.209100,0.866812
0.006528,-0.326073,0.873267,0.832544,-0.033519,0.552943
0.437565,0.023391,-0.352906,0.180895,0.697277,0.693601
-0.216173,0.367176,0.740230,0.839046,-0.060784,0.540654
0.179078,0.462349,0.716716,0.357504,-0.766759,0.533171
0.139870,-0.027204,0.670510,-0.088699,0.917656,-0.387350
0.150010,-0.404382,0.817604,0.840616,0.433704,0.324446
-0.507996,-0.234883,0.692544,0.853872,0.411119,0.319193
0.240130,0.186830,0.483451,-0.208341,0.664529,-0.717631
-0.194414,-0.315141,0.138940,-0.604232,0.545180,-0.581105
-0.737161,0.292597,0.344672,-0.731575,-0.497371,-0.466283
0.546316,0.322938,-0.719997,-0.207093,0.045260,0.977274
-0.281281,-0.149456,0.557271,0.298017,0.417641,0.858348
-0.194710,0.155684,0.746856,0.985271,0.104653,0.135239
0.295097,0.715199,0.620637,-0.199763,0.099725,-0.974756
-0.332404,-0.856393,0.258725,0.326950,-0.504109,0.799361
0.218371,-0.143227,-0.160603,0.506130,0.861223,0.046129
0.231214,-0.417899,-0.975827,-0.095515,0.114317,0.988842
-0.039018,0.534387,0.663997,0.953882,0.272767,-0.125331
-0.015104,-0.672995,0.303548,0.118309,0.075789,0.990080
0.218413,-0.156871,0.442890,-0.041142,-0.937407,0.345797
0.160277,0.238611,0.875744,-0.018583,0.660175,0.750882
-0.377569,0.668206,0.389671,-0.646952,-0.000890,0.762531
0.265269,0.390144,0.705233,0.636243,0.443390,0.631348
0.475210,0.282977,0.623307,0.073388,0.569411,0.818770
-0.329108,0.169032,0.339236,0.842591,0.360481,-0.400116
-0.043961,0.468664,0.598717,0.077979,0.983575,-0.162786
0.365782,0.107886,0.586622,0.951990,0.300514,0.058363
-0.387836,0.127971,0.027148,-0.485340,0.273768,-0.830359
0.290112,0.223102,0.712551,0.800178,-0.544397,-0.251688
0.192429,-0.037121,0.674917,0.542851,0.830896,-0.122166
0.120097,-0.391796,0.879169,0.384460,-0.861360,-0.332038
-0.856476,0.440951,0.346264,0.836100,-0.344013,-0.427308
0.058115,-0.062503,0.622439,0.273139,-0.957415,0.093549
-0.157910,-0.263570,0.718711,-0.372526,0.059626,-0.926104
-0.014724,0.603500,0.382434,0.249999,-0.189547,0.949512
0.309209,-0.399933,0.791003,0.574920,0.192883,0.795149
0.190782,-0.004576,0.667632,-0.146384,0.824486,-0.546621
0.240721,0.352091,0.023980,0.096355,0.872358,0.479279
0.004584,-0.420188,0.068240,-0.179944,-0.586053,0.790040
-0.080550,-0.106445,0.885281,-0.778385,0.411925,0.473745
0.320870,-0.113225,0.960114,0.302417,-0.924051,-0.233824
0.148953,0.071104,0.728441,0.920434,-0.334550,0.202183
-0.821070,0.366455,0.373203,0.286661,0.398182,0.871365
-0.689756,0.208399,0.339155,0.717426,0.689364,0.100388
0.108098,0.654265,0.648413,-0.369421,0.603316,-0.706779
-0.095591,-0.595026,0.238396,-0.351482,0.339184,0.872591
-0.192725,0.616636,0.244604,0.868197,-0.452313,-0.204079
-0.149545,-0.310777,0.568626,-0.465821,-0.799123,-0.380017
-0.101591,0.561167,0.362620,0.736841,0.044313,-0.674612
-0.130490,-0.190898,-0.080028,-0.080847,0.084413,0.993146
0.255001,0.050467,-0.788092,-0.222231,0.390307,0.893462
0.035427,0.513411,0.579385,-0.233016,0.727458,-0.645374
-0.038257,0.583415,0.643153,0.825421,0.040657,0.563051
0.204386,0.864698,0.039564,0.472339,-0.842996,-0.257397
0.346051,0.050171,-0.776255,-0.672545,-0.254228,0.695019
0.123434,-0.017841,0.496880,0.954298,-0.248318,-0.166291
-0.349304,0.381413,0.233539,0.943126,-0.297052,0.149242
-0.517714,-0.077800,0.360932,0.206883,-0.861331,0.464014
0.241397,-0.153312,-0.078581,0.872753,-0.462945,0.154869
-0.064326,0.785584,0.690646,0.648560,0.205532,-0.732890
0.461690,-0.642061,0.484657,-0.464528,0.284570,0.838590
-0.241312,-0.669054,0.272492,0.470988,-0.480257,0.739948
0.291844,0.572736,0.014925,0.984007,0.088831,0.154398
0.560852,0.055595,-0.992457,-0.034436,0.167704,0.985236
-0.543148,0.571634,0.288575,0.709979,-0.223955,-0.667663
-0.321714,-0.187890,-0.064605,-0.053216,-0.654418,0.754258
0.062763,-0.566635,0.795410,0.462975,-0.871756,-0.160297
0.016837,-0.088055,0.370034,-0.187318,0.973931,-0.127950
0.113548,0.530361,0.737351,0.397726,0.112438,-0.910589
-0.684053,0.128989,0.428383,0.213738,-0.187779,-0.958674
0.584976,0.190856,0.474042,0.315644,0.023606,0.948584
-0.508714,-0.282216,0.392454,-0.541820,-0.603430,-0.585067
-0.147136,-0.440274,0.055196,-0.025724,-0.566388,0.823737
0.015147,-0.346116,0.755637,0.992560,-0.065334,0.102744
-0.301434,0.169160,0.628968,0.677827,0.644434,0.353915
0.192514,0.271706,0.829168,0.330702,0.901536,-0.279052
0.573146,0.257807,0.279005,-0.112872,0.538134,0.835268
-0.038595,0.596847,0.239683,0.265259,0.680488,0.683062
0.059805,-0.426248,0.321850,0.439505,0.154101,-0.884923
-0.194541,0.307851,0.689167,0.747705,0.663241,0.032380
-0.679785,0.233908,0.340072,-0.559517,-0.715632,-0.418105
0.838943,-0.497988,-0.472563,-0.536216,-0.842960,0.043486
0.243932,-0.133439,0.791051,0.975140,-0.202846,-0.089192
-0.318165,0.294801,0.767345,0.839485,0.529736,0.121019
-0.056171,0.298190,0.239506,0.996225,0.078542,-0.036984
0.344234,-0.577694,0.452346,-0.454111,0.509000,0.731234
-0.119970,-0.660113,0.288124,-0.876725,0.293934,-0.380730
-0.088239,-0.533286,0.516485,0.903284,-0.416063,0.104741
0.218962,-0.302344,-0.000129,0.893532,0.413545,0.174874
-0.624691,-0.497225,0.170945,-0.550036,0.834478,-0.033266
-0.218074,-0.413153,0.459712,-0.291978,0.264894,0.919010
-0.428143,0.769778,0.252855,-0.284770,-0.419753,0.861808
-0.279760,0.034832,0.807778,-0.635117,-0.319754,0.703124
-0.069354,-0.211196,0.083213,-0.547193,0.826323,0.133301
-0.303293,-0.240053,0.249027,0.505811,-0.805324,0.309205
-0.168895,-0.267257,0.804625,0.814569,-0.218517,-0.537334
-0.013795,0.026611,0.597462,0.823834,-0.353452,0.443136
0.431481,-0.247172,0.869536,0.899306,0.416187,-0.134299
-0.130913,-0.118777,0.156165,-0.017310,0.914528,0.404152
-0.237256,-0.582737,0.324697,0.803171,0.266876,-0.532629
-0.252002,-0.673037,0.485542,0.165255,-0.334845,0.927669
-0.104083,0.191152,0.762360,0.787311,-0.616492,-0.008873
0.508165,0.056782,0.656116,-0.638254,-0.739752,0.213069
-0.033821,0.296241,0.765255,0.845985,0.199590,0.494443
0.834042,-0.174669,-0.479060,0.014303,-0.067954,0.997586
0.007922,-0.450825,0.727219,0.837712,0.271217,-0.474003
-0.749667,0.139624,0.426791,0.303486,-0.133426,0.943448
-0.014386,-0.412349,0.513188,0.717610,-0.476041,0.508351
-0.560133,-0.042205,0.519959,0.627600,0.403450,0.665842
0.397089,-0.077716,0.591190,0.906224,-0.152186,0.394459
0.187274,0.298317,0.813358,0.472284,0.881200,0.020832
0.137673,-0.065469,0.411094,0.769113,-0.558855,-0.310075
0.217188,0.715962,0.639117,0.095499,-0.278511,0.955673
0.219131,0.419254,0.101676,-0.123757,-0.219382,0.967758
0.111182,0.317894,0.692206,0.286861,-0.608026,0.740280
-0.548134,-0.565957,0.144762,-0.444107,0.104568,0.889851
-0.112787,-0.143989,0.745215,0.029997,-0.582282,0.812434
-0.027864,-0.092504,0.394673,-0.770730,0.276690,-0.573949
0.273972,-0.330226,0.790649,-0.720705,0.656939,-0.221397
-0.586919,-0.408662,0.341262,-0.288712,-0.211086,-0.933857
-0.254241,0.358363,0.715751,0.924769,0.201797,0.322615
-0.584680,-0.571126,0.370662,0.004857,-0.349896,0.936776
-0.146080,-0.200814,0.792081,0.987599,-0.142463,-0.065977
0.457887,-0.417815,-0.968059,0.099009,-0.045503,-0.994046
-0.232651,-0.377685,0.439770,-0.049031,0.118651,0.991725
-0.213554,-0.136193,0.865917,0.384777,0.917749,0.098405
-0.308152,0.247849,0.753176,0.750340,0.656440,0.077957
0.495279,-0.195305,-0.739088,-0.375432,-0.888884,0.262556
0.004458,-0.455444,0.295973,-0.271400,-0.178148,0.945836
-0.021864,-0.315945,0.720930,-0.603679,-0.641749,0.473001
0.453831,-0.354506,-0.970585,0.064956,0.125570,0.989956
0.400934,-0.248951,-0.909453,-0.443103,0.891687,-0.092491
0.365908,0.075215,0.860819,0.482240,-0.869301,-0.108444
-0.116336,-0.117209,0.876291,-0.489137,0.362584,0.793270
0.424256,0.073858,0.787931,0.770876,-0.458166,-0.442532
0.430425,0.375694,0.623388,-0.233405,0.262733,0.936212
-0.170839,-0.107124,0.794059,0.699576,0.615522,0.362941
0.513953,-0.157931,-0.977307,-0.005295,0.255540,0.966784
0.344868,-0.278571,-0.968285,0.435748,0.275380,-0.856907
0.377063,-0.143904,0.814114,0.691775,-0.248366,0.678057
0.340094,0.069918,0.898549,0.582059,0.810689,0.063167
0.216892,-0.199119,0.874248,0.854058,-0.472736,0.217039
-0.078311,-0.504005,0.215542,-0.262202,0.736688,0.623331
0.464056,0.468028,0.225192,0.289660,0.105713,0.951274
0.529290,-0.269334,-0.971710,-0.089854,0.030306,0.995494
0.087183,0.048392,0.459535,0.888844,0.445005,0.109209
0.122927,0.079622,0.577471,-0.339117,0.679315,-0.650792
0.501574,-0.008602,0.659445,-0.575519,0.795612,-0.189155
-0.239664,0.566082,0.583068,-0.052773,-0.004086,0.998598
-0.011809,0.442731,0.716861,-0.727884,-0.049985,0.683876
-0.221370,-0.716302,0.455306,-0.631515,0.319781,-0.706349
-0.019879,0.940548,0.087973,0.792742,0.215971,0.570014
-0.458774,0.246493,0.488131,0.396644,-0.424404,-0.813975
-0.174641,-0.765711,0.277204,0.111813,0.620745,0.775998
0.165093,0.400483,0.847695,0.668079,-0.689512,0.279722
-0.310434,-0.761854,0.268117,0.167179,-0.015848,0.985799
0.028709,-0.545321,-0.088665,0.196386,-0.278948,0.940011
0.331010,-0.127040,0.922127,0.844549,-0.233622,-0.481827
0.089676,-0.265562,0.550966,-0.085095,0.637756,0.765524
0.213850,-0.643757,0.764482,0.268336,0.891196,-0.365739
0.374823,-0.024450,-0.701599,0.952203,-0.291230,-0.092163
0.190654,0.617314,0.625913,-0.375986,0.383081,-0.843732
0.027062,-0.032799,0.089180,0.848861,-0.244981,0.468423
0.387710,-0.037714,0.755975,0.314429,0.809461,-0.495891
0.313560,-0.410188,0.758484,0.634538,0.661572,0.399604
0.213259,-0.181364,0.142414,-0.813245,-0.581110,0.030734
0.123054,-0.543837,0.799527,-0.468830,0.786660,0.401703
0.548682,-0.063605,0.503265,0.180087,0.757653,0.627320
0.213934,-0.098734,0.016163,-0.511929,0.538964,0.668914
0.199527,-0.074961,0.908488,0.743337,0.449240,0.495615
0.310011,-0.092758,0.953617,-0.421540,0.898810,0.120190
-0.266409,-0.399001,0.180787,-0.502074,0.490123,-0.712532
0.396371,-0.419933,0.290826,-0.214496,0.220952,0.951405
0.127364,-0.435950,0.929718,0.231658,0.845931,0.480350
0.206583,-0.079453,0.920502,0.913768,0.160616,0.373135
0.361684,-0.708462,0.240551,0.375749,0.264507,-0.888172
0.443860,-0.256494,0.924603,-0.593345,0.643919,0.483022
-0.044806,-0.881986,0.266541,0.005490,-0.500906,0.865484
-0.228679,-0.152549,0.544035,-0.184522,0.403460,0.896198
0.658871,0.175516,-0.435427,-0.383140,0.203621,-0.900968
-0.554344,0.319716,0.598942,0.040768,0.999054,-0.015150
0.273254,-0.420739,0.401782,0.483645,-0.734495,-0.476030
-0.085704,-0.046019,0.257084,0.880619,0.087110,-0.465749
0.225384,-0.065172,0.928335,0.912346,-0.380210,0.151872
0.399202,-0.301115,0.772363,0.766246,0.638095,0.075509
0.468661,-0.432349,0.743703,0.908602,-0.264277,-0.323421
0.692207,0.199203,-0.449178,0.301562,0.080049,0.950080
0.343347,-0.362516,0.724581,-0.146778,0.198902,0.968966
-0.333798,-0.313064,0.719595,-0.104785,-0.955350,0.276274
-0.105900,-0.266749,0.698527,-0.683989,0.137211,-0.716472
-0.342248,0.425145,0.256248,0.821779,-0.566045,0.065363
-0.419735,-0.286792,0.365033,-0.764088,0.313324,-0.563913
0.033272,-0.509344,0.474525,-0.055830,-0.277392,0.959133
0.014978,-0.494597,0.688459,0.436383,-0.374249,0.818234
0.124533,0.180643,0.852150,0.678720,0.502078,0.535963
0.466760,-0.057461,0.768037,0.006066,0.068819,0.997611
-0.512855,0.430738,0.360642,-0.128179,0.736556,0.664120
0.146165,-0.226197,-0.771800,-0.010828,0.015971,0.999814
0.608847,0.276876,-0.710444,-0.159792,0.007024,0.987126
0.242834,0.419382,0.690678,0.105005,-0.259926,0.959902
0.287112,-0.006568,0.833044,-0.456862,-0.351489,-0.817149
-0.673786,0.235687,0.013317,0.833148,0.313752,-0.455439
-0.432072,0.584007,0.389109,-0.548397,0.071620,0.833146
0.247228,0.123395,0.464762,0.823514,-0.348229,0.447841
0.468872,-0.364210,0.752597,0.893191,0.109811,-0.436063
0.226736,0.287978,0.340362,-0.358453,-0.192407,-0.913505
0.071889,0.562650,0.244379,0.200088,-0.749046,-0.631582
0.277183,-0.420018,-0.973882,0.071251,-0.167754,-0.983251
-0.421383,-0.170219,0.646820,-0.529072,0.681244,0.505954
-0.269324,0.715030,0.494355,0.458613,0.751540,-0.474196
-0.286266,-0.029196,0.544984,0.907739,-0.271195,0.320098
-0.571286,-0.587610,0.382627,0.455291,0.582107,-0.673692
0.235398,0.175981,0.361880,0.281907,0.513025,0.810761
0.009570,-0.610577,0.472193,0.354644,-0.195594,0.914314
0.227877,-0.143227,0.567580,0.812732,0.576708,0.082911
0.137165,-0.229035,0.861575,-0.471292,0.856886,0.208878
-0.178528,-0.826773,0.282479,0.381835,0.008110,0.924195
0.215666,0.212847,0.353839,-0.383902,0.388046,0.837878
-0.646027,-0.575576,0.408408,0.366355,0.666057,-0.649732
0.286901,-0.339295,0.735083,-0.725503,-0.066554,-0.684994
-0.456957,0.501419,0.324825,-0.706682,-0.382982,-0.594917
-0.615396,0.439637,0.283155,0.753031,-0.083036,-0.652725
-0.038807,0.500360,0.757985,0.689923,0.712131,-0.129906
0.186007,-0.488919,0.210203,0.602611,0.733143,0.315217
0.009696,0.203737,0.910965,-0.478055,0.000525,0.878330
-0.315546,0.035552,0.795828,0.733458,0.442594,-0.515897
0.404187,-0.381584,-0.970199,-0.144973,0.031739,0.988926
-0.120180,-0.117844,0.198237,0.837624,0.546204,0.006868
0.470943,0.522818,0.234488,0.437390,0.274088,0.856485
-0.175106,-0.242340,0.706729,-0.022187,0.251824,0.967519
0.084184,0.116149,0.746100,0.283847,0.797131,0.532928
0.432622,0.283613,0.518013,-0.230715,0.000598,-0.973021
0.296407,-0.279208,0.849802,-0.632004,0.403927,-0.661373
-0.526713,0.077800,0.550854,0.104979,0.899450,0.424227
0.361050,-0.034323,-0.707356,0.967301,-0.250436,-0.040142
0.380104,-0.165854,-0.980202,-0.083288,0.317311,0.944657
-0.321757,0.172423,0.617775,0.789398,0.542429,-0.287440
0.166867,-0.716344,0.247097,0.767515,-0.132320,0.627225
-0.652830,0.454129,0.281788,0.848249,0.160836,-0.504585
0.415848,0.418365,0.692496,-0.082911,-0.770693,0.631790
0.200837,-0.081360,0.583534,0.776700,0.617041,-0.126484
0.285802,-0.644138,-0.524542,0.641397,0.149494,0.752503
0.388724,0.051909,0.843047,0.552776,-0.810230,0.194848
-0.739527,0.370228,0.366577,0.775275,0.153537,-0.612679
0.376598,0.006737,0.802695,0.642231,-0.157218,0.750215
0.510193,0.434594,0.415275,-0.804876,0.032491,-0.592552
0.118491,-0.414679,0.752533,0.939460,-0.213201,-0.268253
0.409426,0.044832,0.814902,0.815282,-0.567457,0.115357
-0.469844,0.305225,0.257519,-0.687249,0.097993,-0.719782
-0.445888,-0.258020,0.618161,-0.879654,0.343590,-0.328868
0.355261,-0.252850,0.579144,0.971504,0.055703,0.230384
0.120012,0.700792,0.673454,-0.580419,0.602110,-0.548249
0.560978,0.181448,0.298594,0.399743,0.094238,-0.911770
0.125251,0.421839,0.715542,-0.272077,0.829124,-0.488393
-0.452310,0.150176,0.656390,-0.205599,0.312344,0.927454
-0.542388,-0.023984,0.661118,0.631130,-0.291650,0.718760
0.444283,-0.028985,0.663064,-0.189329,0.901678,-0.388755
-0.220821,-0.256494,0.436505,0.439719,-0.279596,-0.853506
0.084311,0.029492,-0.017691,0.851280,0.467392,-0.238469
-0.392441,-0.264460,0.278266,-0.594129,0.730964,-0.335711
0.290872,-0.311581,0.355431,0.920682,-0.066874,-0.384543
-0.718487,0.229331,0.074351,0.113935,-0.017340,0.993337
-0.113336,-0.324125,0.818119,-0.570364,-0.616110,0.543224
0.049285,-0.018984,0.228939,-0.304524,-0.949427,-0.076509
0.058580,0.068986,0.445576,0.719644,0.604408,0.341764
0.373133,0.291961,-0.104957,-0.017918,-0.459446,0.888025
-0.170458,-0.030298,0.467706,-0.743113,0.402933,-0.534254
0.515898,-0.423577,-0.963235,-0.090614,0.301613,0.949115
-0.155291,0.723802,0.212905,0.167395,-0.941255,-0.293287
0.630395,-0.221196,-0.528804,-0.049844,-0.707598,0.704855
0.449649,-0.254799,0.929332,-0.449795,0.729311,0.515549
-0.240172,0.032671,0.290328,0.722014,0.690928,-0.036260
0.148616,0.469045,0.721220,-0.254425,0.704115,-0.662941
0.189218,-0.259122,0.803644,0.087685,0.503796,0.859361
0.300210,0.215899,0.080141,-0.190970,0.860489,-0.472323
0.061665,0.148904,0.023079,0.730328,0.502008,-0.463258
0.066692,-0.574729,0.826691,-0.437733,0.893771,0.097795
0.381541,-0.441587,0.434832,0.736133,-0.036972,-0.675826
-0.459746,-0.060215,0.602335,0.824619,0.465678,-0.321166
0.164290,0.168609,0.585657,0.575006,0.343706,-0.742451
-0.330672,0.623925,0.405031,0.789059,0.088593,-0.607895
0.428354,-0.049791,0.625961,0.476184,-0.874444,-0.092721
0.120984,-0.351625,0.866255,-0.263672,0.836153,0.480963
-0.535543,-0.622400,0.389060,0.608427,0.742558,-0.280045
0.028709,-0.370566,0.527389,-0.655056,0.745295,-0.124245
-0.380231,0.694012,0.268214,-0.620109,0.236728,0.747947
-0.149249,-0.550066,0.459359,0.456801,0.185071,-0.870104
-0.283140,-0.111234,0.260703,0.885436,-0.102385,0.453343
0.339164,0.031484,-0.255492,0.903867,-0.403454,-0.142304
-0.009823,0.513199,0.246840,-0.164928,-0.010540,0.986249
-0.051608,-0.012967,0.707195,0.850669,0.367074,-0.376324
0.148700,-0.310140,0.901557,0.953792,-0.119860,0.275527
-0.630944,0.210602,0.398485,0.784524,0.491643,-0.377902
0.270635,-0.344125,0.746743,-0.307655,-0.795014,-0.522781
0.244186,-0.107377,-0.198784,0.585881,0.809807,-0.030922
-0.107379,0.068859,0.654492,0.888072,-0.347644,0.300785
-0.167121,-0.633926,0.250410,0.250163,0.421203,0.871784
0.015147,-0.201916,0.854756,0.324116,0.762197,0.560360
-0.072395,0.746556,0.381582,-0.453836,0.430644,0.780114
0.125125,-0.153990,0.711280,-0.013827,0.998222,0.057977
0.396329,-0.009408,0.779230,0.762100,0.647166,0.019514
0.486914,0.386541,0.248979,-0.468181,0.502546,0.726811
-0.142784,-0.508708,0.788832,-0.235062,0.894311,0.380728
0.616326,0.236917,-0.435765,0.117656,0.430008,0.895126
-0.127194,-0.035086,0.654202,0.778664,0.548939,0.303889
0.526755,0.175685,0.288896,0.462992,0.181752,-0.867528
0.113336,0.123268,0.728682,-0.043344,-0.930826,0.362882
0.090563,-0.020636,-0.031667,0.745163,0.631539,-0.214222
0.166107,-0.579516,0.698028,0.610553,-0.757216,-0.232054
-0.547373,-0.097081,0.646386,0.987711,0.016433,-0.155427
-0.009781,0.810246,0.701148,-0.428072,0.597365,0.678166
-0.311617,0.367685,0.465615,0.812303,-0.252031,-0.525969
-0.097493,-0.538583,0.504568,-0.502133,-0.320980,0.803016
-0.509433,0.374719,0.372592,0.570642,0.821173,0.006533
0.257494,-0.255605,-0.982309,0.217768,-0.104111,-0.970432
-0.423875,-0.188821,0.581041,0.804025,0.076832,0.589611
0.422609,-0.725582,0.476905,0.365315,-0.291255,-0.884147
0.266452,-0.138905,-0.990945,-0.176388,0.126398,0.976172
0.035976,0.735454,0.690405,0.292310,0.536053,-0.791961
0.339249,-0.160431,0.895912,0.450247,0.353400,-0.819992
0.030737,-0.176405,0.067242,0.375881,0.341563,0.861422
-0.212328,-0.855502,0.284811,-0.366364,0.486062,0.793424
-0.387540,-0.116573,0.561034,-0.586981,-0.789856,-0.177707
0.438241,-0.283021,0.899337,-0.151021,0.988528,0.002294
-0.165262,0.218017,0.726575,0.292302,0.619575,0.728482
-0.413862,-0.028053,0.682894,0.894033,0.271698,-0.356208
0.002430,-0.001483,0.297613,-0.418621,-0.662834,0.620812
-0.314954,-0.623290,0.464328,-0.388876,0.867808,0.309330
0.275155,0.459129,0.698977,0.195675,-0.470668,0.860339
0.593341,0.528496,0.200328,0.193678,0.168941,0.966410
0.392315,-0.073393,-0.433803,-0.472871,0.768432,-0.431167
0.235482,0.237001,0.753321,0.975971,0.161798,-0.145950
-0.287280,-0.898386,0.253032,-0.234166,-0.335239,0.912568
0.445466,0.138269,0.797082,0.948323,0.004430,-0.317275
0.239538,0.818975,0.039387,-0.567854,0.285142,-0.772163
0.228680,-0.125090,-0.990913,-0.108313,0.163217,0.980627
0.265269,0.211068,-0.819245,0.450048,0.464126,-0.762918
0.278661,0.217848,0.658545,-0.305408,-0.870288,0.386426
0.321292,0.196364,0.447039,-0.727719,0.667218,-0.158884
-0.413059,0.150472,0.743687,0.566201,-0.052531,-0.822592
0.522235,0.027501,0.662372,0.943821,-0.311627,-0.109961
-0.064622,0.382092,0.408006,0.380166,-0.832249,-0.403529
0.601200,0.072546,0.501126,-0.008665,0.101140,0.994834
0.144263,0.098098,-0.134597,0.464105,-0.177814,0.867749
0.230158,-0.093818,-0.036766,0.801092,0.566219,0.194031
0.094535,-0.073605,0.333639,-0.137743,0.964822,0.223932
0.206456,-0.236621,-0.054505,0.178752,0.753839,0.632277
-0.161163,-0.660706,0.334765,0.711388,0.702663,0.013835
-0.303885,-0.036824,0.811654,0.052774,0.424468,0.903904
0.161375,0.061740,0.756280,0.252831,0.913991,-0.317327
-0.283521,-0.469724,-0.058895,-0.148737,-0.004080,0.988868
-0.664026,0.235348,0.416256,0.206151,-0.674646,0.708769
0.387372,-0.090470,-0.985944,-0.085226,0.180911,0.979800
0.013626,0.496673,0.405803,0.600088,-0.246218,-0.761099
0.579357,0.159795,0.291454,-0.390778,-0.158311,0.906769
-0.198724,0.698970,0.267603,0.931107,0.352826,0.092489
0.248072,-0.135557,0.517257,-0.493882,0.867729,-0.055919
0.211357,0.047290,0.790987,-0.619701,-0.755707,0.211841
0.141940,0.168440,0.752131,-0.204145,0.195227,0.959276
0.310857,-0.268104,-0.977741,-0.293162,-0.062736,0.954002
0.150982,0.764820,0.672280,-0.738530,0.088389,-0.668402
-0.286393,-0.727404,0.281080,-0.277379,0.664741,-0.693672
0.265522,0.489554,0.758821,0.575582,0.776987,-0.254943
-0.216934,-0.278698,0.706954,0.156784,-0.692141,0.704528
0.108098,0.568075,0.194200,0.553899,-0.826446,-0.100908
0.361219,-0.430061,0.761427,-0.328370,-0.867978,-0.372543
-0.466506,-0.160007,0.625108,0.082524,0.944540,0.317860
0.602425,0.406881,-0.715977,-0.207093,0.045260,0.977274
0.179078,0.078944,-0.139471,0.472198,-0.168581,0.865222
0.140039,0.035976,0.894159,0.816299,-0.344748,-0.463470
-0.551598,0.259798,0.282721,0.255510,0.341808,0.904368
0.122125,-0.014705,0.316945,0.559665,0.666279,-0.492795
0.547374,-0.206026,-0.974653,0.086606,0.237095,0.967618
-0.547204,0.437942,0.359227,0.186011,0.970378,0.154163
0.028879,0.180727,0.642703,0.989016,0.141529,0.042621
0.428228,-0.128819,-0.984818,-0.102228,0.228885,0.968071
0.343304,-0.167423,-0.486410,0.970744,-0.191249,0.145189
-0.320827,0.187719,0.696098,0.933564,-0.289203,0.211707
-0.013330,-0.473114,0.512062,0.813617,-0.074997,0.576544
0.286098,-0.574050,0.830937,0.448136,0.621487,0.642595
-0.317616,0.850544,0.264692,-0.029915,-0.160140,-0.986641
0.378119,-0.072462,0.483531,-0.520699,0.805577,0.282698
0.313054,0.423408,0.688218,0.030231,-0.312383,0.949475
0.040454,-0.599475,0.266718,0.107922,0.644459,-0.756985
0.124955,0.101530,-0.337997,0.672760,0.628182,0.390873
0.573272,0.021865,-0.986860,-0.082082,0.153704,0.984702
0.396540,-0.402178,-0.970617,-0.130927,-0.010649,0.991335
-0.262522,0.097631,0.828364,0.893165,-0.440395,0.091155
0.255086,-0.371796,0.845363,-0.399141,0.354524,0.845576
0.330883,0.032713,-0.993020,-0.060070,0.134483,0.989093
-0.163487,-0.367728,0.756264,-0.124888,0.549460,0.826134
0.563767,-0.396628,-0.446846,-0.344807,-0.925242,-0.158227
0.297294,-0.657952,0.232413,0.277865,0.227673,-0.933250
0.128800,0.015891,0.906285,0.851626,0.105153,-0.513493
0.020428,-0.121192,0.875149,0.310902,-0.950374,-0.011333
0.572216,-0.414806,-0.438789,-0.141561,-0.874424,0.464050
0.250185,-0.300818,0.841117,-0.080351,0.628289,0.773819
-0.781947,0.235518,0.434366,0.754807,0.018300,0.655692
0.427510,0.452137,0.716620,0.100823,-0.683072,0.723358
0.249340,-0.215052,0.925086,-0.388078,0.879887,0.274215
-0.798550,0.531844,0.346360,0.491386,-0.491644,-0.718906
0.231004,-0.315268,-0.980395,-0.133550,0.144365,0.980471
-0.297083,-0.307090,0.310689,-0.345668,0.276876,0.896578
-0.049116,-0.577228,0.263839,-0.439721,0.775562,-0.452933
0.379809,-0.020086,0.657290,0.353256,0.653187,-0.669744
-0.217018,-0.404975,0.637428,0.064159,-0.600492,0.797053
-0.768807,0.285139,0.423992,-0.331728,-0.725623,-0.602850
0.005767,0.865418,0.050227,-0.683366,-0.701849,-0.201044
0.198386,-0.343151,0.768182,-0.422867,0.724488,0.544335
0.081311,0.329378,0.807215,-0.521573,0.401891,0.752626
-0.167543,0.521886,0.611422,-0.005582,-0.992781,0.119807
-0.492448,-0.384381,0.410193,0.868294,0.387469,0.309732
0.584764,-0.076063,0.487134,-0.793143,-0.551116,0.259221
-0.031244,-0.261452,0.803001,-0.192403,0.903834,0.382184
-0.354543,0.420992,0.550613,-0.265215,-0.451944,0.851709
0.156558,0.230306,-0.427900,-0.493062,-0.722756,-0.484265
-0.432833,0.468917,0.295088,-0.785598,0.608153,0.113958
-0.073368,-0.504301,0.502959,0.478607,0.210705,-0.852372
0.225849,-0.132082,0.101161,0.833536,0.552301,0.013457
-0.500602,-0.316073,0.219065,0.116495,-0.719355,0.684805
0.411158,-0.623586,0.254961,-0.501453,-0.177540,0.846773
0.655577,0.058857,-0.988211,-0.070850,0.168560,0.983142
-0.141517,-0.755456,0.269436,-0.578071,-0.039745,-0.815018
-0.227243,0.403788,0.763357,0.669826,0.130981,0.730874
0.348797,-0.007798,-0.994934,-0.076729,0.204958,0.975759
-0.129898,0.110174,0.781370,-0.801091,0.555882,0.221919
-0.797579,0.242976,0.437148,0.754807,0.018300,0.655692
0.335615,-0.315310,0.241130,-0.023494,0.401610,0.915509
-0.137756,-0.194754,0.814227,0.948090,0.272156,0.164490
0.262564,0.222594,0.233314,-0.030974,-0.102220,0.994280
-0.262945,-0.639264,0.300878,0.728052,-0.502433,0.466370
-0.223778,-0.564388,0.271350,0.818431,-0.007724,0.574552
0.323278,-0.272215,0.713596,0.891345,0.426445,-0.153783
0.351374,-0.270520,0.806571,0.757396,0.169194,-0.630654
-0.436086,0.385524,0.454936,0.277862,0.939098,0.202206
-0.605848,-0.499004,0.163450,-0.644746,0.708596,0.286695
0.297210,-0.163610,0.913490,-0.146527,0.826435,-0.543632
0.337897,-0.038010,-0.987536,-0.020761,0.249971,0.968031
0.207428,0.692190,0.637959,0.171955,-0.151530,0.973381
-0.517164,0.656341,0.259239,-0.644510,-0.108428,-0.756869
-0.669138,0.203271,0.335939,0.441397,0.817950,0.368953
0.070284,-0.414001,0.925408,-0.011427,0.886729,0.462149
0.318842,0.019068,-0.997684,-0.021248,0.155215,0.987652
0.378034,0.337768,0.446911,-0.683459,0.137436,-0.716934
-0.357500,0.251155,0.230065,0.234275,0.267805,0.934556
-0.165262,0.065045,0.214256,0.810262,0.231298,0.538495
0.100535,0.756854,0.081122,-0.355295,0.323829,-0.876869
0.309589,-0.511336,-0.513686,0.339551,0.028131,0.940167
0.348840,0.667783,0.630335,-0.220671,0.272927,-0.936384
0.429748,-0.292470,0.253128,-0.168665,0.191895,0.966813
0.443015,0.014746,0.763759,-0.222130,-0.505636,0.833661
0.228722,-0.051485,-0.144890,0.492767,0.080614,0.866419
-0.226144,0.351328,0.382579,0.149427,0.988723,0.009940
-0.043792,-0.089581,0.398356,-0.782543,0.318573,-0.534918
-0.181528,-0.374761,0.446460,0.217423,-0.003805,-0.976070
0.151235,0.066147,0.037763,-0.013380,-0.335999,0.941767
0.093225,-0.277767,0.851861,0.568546,-0.392032,0.723233
0.602130,0.359887,0.700232,-0.720814,0.472163,0.507434
-0.508250,0.710962,0.243350,0.252519,0.026750,0.967222
0.028371,-0.096233,0.373814,-0.176257,0.963382,-0.202058
0.194795,0.486460,0.732236,0.258128,0.861183,-0.437874
0.482181,-0.019153,-0.414648,-0.684425,0.620829,-0.382276
-0.114519,0.020508,0.673968,0.992919,0.024361,-0.116267
0.389484,0.048094,-0.995674,-0.097194,0.098779,0.990351
-0.228552,-0.209416,0.944916,0.512001,0.819028,0.258938
-0.105689,-0.436205,0.569446,0.131941,-0.715104,0.686454
0.207428,0.475528,0.729695,0.027391,-0.984210,0.174875
-0.691827,-0.003729,0.403969,-0.269260,-0.804749,0.529035
0.060692,0.789524,0.082891,0.256543,-0.352775,0.899853
-0.456704,0.679138,0.250651,0.788813,-0.063975,-0.611295
-0.005683,0.569430,0.607916,-0.157963,0.418340,0.894449
0.345037,0.040341,-0.262778,0.907492,-0.411500,-0.084419
0.077804,-0.235985,0.870710,0.177715,-0.440337,0.880069
0.523079,0.084411,-0.413989,-0.755668,0.180637,-0.629552
-0.062467,-0.121574,0.413812,-0.570809,-0.642251,-0.511557
-0.176754,0.209119,0.719756,-0.673968,-0.179908,-0.716519
0.224286,0.037501,0.792242,0.622705,0.753713,0.210130
-0.011260,-0.084368,0.628711,0.412212,0.506026,0.757641
0.422904,-0.242595,0.885442,0.619623,0.784541,0.023707
-0.075818,-0.437392,0.191997,0.263890,0.598206,0.756645
-0.059341,-0.576296,0.277671,-0.335513,0.615886,-0.712822
0.239326,-0.069326,0.053733,0.861190,0.499616,-0.093465
-0.562541,0.286282,0.292161,-0.418279,-0.616804,0.666780
0.175867,-0.355947,0.776738,0.545443,-0.838136,0.004535
-0.171641,-0.048096,0.457027,0.826993,-0.068976,0.557965
0.264001,0.884274,0.049664,0.240941,-0.326894,0.913831
-0.363289,-0.565829,-0.051079,0.439861,-0.008207,-0.898028
-0.142616,-0.444511,0.536781,-0.687116,0.711287,-0.148130
0.315588,-0.005552,0.924041,0.765675,0.628424,0.137206
0.480998,-0.008772,0.636093,-0.485169,0.873801,-0.032920
-0.024146,-0.650706,0.471163,-0.218934,0.465212,-0.857698
-0.034667,-0.395440,0.568690,-0.455354,0.353734,0.817022
-0.071889,-0.396712,0.537280,0.898742,-0.435362,0.052177
0.286647,-0.491801,0.806475,0.038381,0.682593,0.729790
-0.024779,0.945251,0.087105,0.792742,0.215971,0.570014
0.661703,0.219162,0.296761,-0.549610,0.536970,0.639994
-0.313983,0.311665,0.728248,0.399821,0.024821,0.916257
0.382301,-0.104115,0.904870,0.671994,0.735869,0.083196
0.248157,-0.108903,0.795201,0.791572,0.416641,-0.447017
0.517967,-0.207339,-0.967641,-0.178023,0.165654,0.969983
0.443818,0.387177,0.221847,0.008592,0.444851,0.895563
0.234257,-0.021526,-0.323796,0.885532,0.457233,-0.082284
0.086296,0.084919,0.382096,0.912291,0.407563,0.040222
0.925598,0.124921,-0.456576,0.470220,-0.108448,0.875861
0.170290,0.086741,-0.139840,0.455750,-0.171759,0.873379
0.421087,-0.020340,0.787642,-0.588685,0.451734,-0.670363
-0.561020,-0.662825,0.408505,-0.299823,-0.657525,0.691207
-0.499377,-0.228782,0.707211,0.805614,0.523892,0.276628
0.120942,-0.030002,0.460356,0.771171,0.632603,0.071476
0.216596,0.647993,0.619801,0.018848,-0.439165,0.898209
