-0.116092,-0.142335,0.147600,0.658484,0.751550,0.039648
0.770816,-0.068215,0.380453,-0.012472,0.272003,0.962216
0.149819,0.939411,-0.347400,-0.726645,-0.118274,-0.676756
0.894150,-0.270279,0.579568,0.188818,0.981773,0.021660
0.183172,0.899830,-0.488019,0.438613,-0.251845,-0.862666
0.001124,0.280489,-0.244463,-0.755435,0.044745,-0.653694
0.376479,0.297717,0.155988,-0.727022,0.146238,-0.670861
0.120543,-0.702935,-0.134805,0.760487,-0.264857,-0.592883
0.060592,-0.261665,-0.647045,0.201487,-0.454635,0.867589
0.492734,0.009979,0.381324,-0.212958,-0.861817,0.460349
0.451175,-0.029643,0.610288,0.300224,-0.771741,0.560608
0.130945,0.383265,0.080624,-0.000526,0.733152,0.680065
0.096573,-0.320616,0.379490,0.528251,-0.414867,0.740835
0.038448,-0.641085,0.290349,-0.688703,-0.045542,0.723611
-0.520618,0.188345,0.755722,0.839479,0.432564,0.328882
0.707490,-0.131326,0.259370,0.261441,-0.285506,-0.922028
0.646360,0.023467,0.351659,0.323604,-0.132545,-0.936863
0.102094,0.797727,-0.317291,0.462626,0.884428,0.061361
0.082363,-0.063173,0.610844,-0.106660,-0.966760,-0.232376
-0.125103,-0.128931,-0.544404,-0.110396,-0.984253,0.138056
0.245320,-0.363390,0.593271,0.092275,-0.444398,-0.891064
0.008419,0.308221,-0.244408,0.751002,-0.248817,0.611626
-0.431175,0.272002,0.171413,0.756884,0.465839,-0.458390
0.246125,-0.259901,0.390156,0.271982,-0.917427,-0.290436
-0.153039,-0.594529,0.835105,0.351967,0.303938,0.885291
0.321194,0.155067,0.383805,0.748280,-0.621366,0.232338
-0.354391,-0.323809,0.716058,0.806949,0.541191,0.236529
0.137219,-0.994664,0.232131,-0.156465,0.162347,-0.974250
-0.103760,-0.617596,0.396619,-0.415769,0.586687,0.694935
0.267572,0.400492,-0.027331,0.777041,-0.415924,0.472455
-0.265645,-0.361835,-0.093215,-0.015383,0.003649,0.999875
0.398090,-0.016744,0.342734,0.561744,0.506037,-0.654500
0.498255,0.082166,0.575494,0.944026,-0.096370,0.315480
-0.436323,0.194899,0.645952,0.605708,0.562236,-0.563036
0.196365,-0.079014,0.579087,0.076254,-0.770495,0.632869
0.368759,-0.114603,0.824513,-0.582010,0.149147,0.799387
0.062739,-0.011114,0.727891,-0.633144,-0.153791,0.758602
0.219206,-0.380239,0.849159,-0.489507,0.837303,0.243530
-0.055447,0.073427,0.933949,0.994260,-0.082773,-0.067797
-0.318730,-0.106325,0.810514,0.252056,0.523043,0.814183
0.591452,-0.442299,0.331624,-0.189759,-0.365033,0.911451
0.275456,0.540495,0.125250,0.438093,0.893581,0.097919
-0.148052,0.095107,0.551626,-0.051801,-0.432205,0.900286
-0.248377,-0.329440,0.926783,-0.215625,0.797554,-0.563395
-0.446780,0.204186,0.644730,0.642619,0.570286,-0.511678
-0.063059,-0.344145,0.704152,-0.556074,-0.829090,0.058237
0.336799,0.048426,0.645452,-0.422288,0.857493,-0.293903
0.051100,-0.254900,0.839827,0.945681,-0.323575,0.031410
-0.017750,-0.274060,0.435190,0.965539,0.214636,-0.147196
0.738805,-0.074140,-0.183209,0.114201,0.605421,0.787669
0.334548,-0.238471,0.454689,0.861341,0.322374,-0.392641
0.795965,0.107334,-0.227779,-0.098140,0.558703,0.823541
0.242800,0.086115,0.277054,0.592341,-0.042052,-0.804589
-0.285593,-0.223597,0.671006,-0.202477,-0.953724,0.222293
-0.166658,-0.455072,0.483464,-0.596977,-0.402259,0.694123
-0.622930,0.271245,0.129602,0.131559,0.482540,0.865937
-0.175291,-0.399777,0.872398,-0.628331,-0.622789,-0.466190
-0.102903,-0.126200,-0.189930,0.081839,-0.994518,-0.065090
-0.696497,-0.380659,0.573680,0.249051,0.842797,0.477144
-0.102903,-0.311120,0.961096,-0.114627,-0.795709,0.594733
-0.169178,-0.430744,0.952855,-0.638599,0.595506,0.487405
0.234327,0.066073,-0.393563,-0.256701,0.903495,-0.343223
-0.115984,-0.151326,0.390453,0.816236,0.122115,0.564665
-0.102206,-0.557806,0.535016,0.732923,0.175106,0.657390
-0.033568,0.110066,0.831272,0.936346,-0.018957,-0.350567
-0.200869,0.376962,0.136638,0.038798,-0.079317,0.996094
-0.294976,0.031534,0.723817,0.960097,0.277571,0.034162
0.008688,-0.227252,0.771184,0.641940,0.440302,-0.627732
0.619602,0.198681,0.365584,0.114572,-0.121131,0.986002
0.573327,0.147209,0.513221,0.680610,-0.718740,-0.142066
-0.233309,-0.239606,-0.692856,-0.192287,0.487808,0.851510
-0.013191,-0.408727,0.785071,0.928811,-0.361243,0.082539
-0.059790,-0.111577,-0.195671,0.089237,-0.995137,-0.041711
0.002466,0.426879,-0.218391,0.999445,0.032329,0.007979
-0.002145,0.050989,0.790738,-0.000737,0.248161,0.968718
-0.063436,-0.197168,0.854918,0.915752,-0.098156,-0.389570
0.342376,0.048300,0.459651,0.493133,0.501781,-0.710659
0.706365,0.115275,0.330179,-0.557657,0.069716,-0.827138
0.615635,-0.044517,0.444504,-0.693669,0.344105,-0.632784
-0.073248,-0.292632,0.675672,0.968645,-0.217461,0.120153
0.428010,0.250195,0.438801,0.379089,-0.774217,0.506833
0.079630,-0.147125,0.532646,0.139015,-0.969833,0.200246
-0.566948,-0.180193,0.738427,-0.133349,0.990530,0.032677
0.521796,-0.295783,0.543330,0.778871,-0.265342,-0.568290
-0.486728,0.271665,0.815495,-0.551841,-0.195376,-0.810741
0.060431,0.398097,0.826994,0.555994,0.565271,0.609377
0.473054,-0.289522,0.740815,0.970123,-0.044844,-0.238432
-0.439917,-0.037416,0.757462,0.800148,0.599673,0.012482
-0.084938,0.051031,0.871806,0.928241,-0.251238,-0.274314
-0.047831,-0.339398,0.988668,0.884140,-0.127575,-0.449467
0.723148,-0.244144,0.624028,0.375390,0.034381,0.926229
0.468390,-0.081283,0.574717,0.372604,0.804923,-0.461807
-0.579388,0.271330,0.118991,0.152848,0.428187,0.890670
-0.514396,-0.062291,0.623732,-0.588046,0.306651,0.748443
0.446888,-0.338852,0.497463,-0.313607,0.701657,0.639787
0.211859,-0.216748,0.441486,0.271518,0.718562,0.640270
0.167086,0.019896,0.465558,-0.541171,-0.831609,-0.124741
-0.474180,-0.368138,0.505963,-0.717430,-0.198062,-0.667882
-0.062150,-0.203092,-0.785053,0.869037,0.486979,-0.087322
0.077591,-0.321751,0.885860,-0.568056,0.065200,0.820403
-0.009813,-0.025315,0.810681,-0.179890,-0.483674,0.856563
0.041020,-0.478728,0.276424,-0.825250,0.120553,0.551752
0.189338,-0.007584,0.399915,0.984043,0.072407,0.162534
0.118020,0.372718,0.452059,-0.113177,-0.733741,0.669936
-0.421094,-0.127628,0.738742,-0.583083,0.715371,-0.385044
-0.356214,-0.110947,0.800348,-0.298052,0.719562,0.627212
-0.105207,-0.040862,0.870028,0.996545,-0.063616,-0.053391
0.264195,-0.048341,0.489112,0.127400,0.425366,0.896009
-0.759397,-0.277716,0.589197,-0.618162,0.741939,-0.259619
0.086922,-0.294649,-0.135453,0.674489,0.607427,0.419639
-0.119526,-0.162461,0.456077,-0.351338,-0.934913,-0.049992
0.012654,0.106998,0.739686,-0.629215,-0.648290,0.428729
-0.158721,-0.267421,0.888305,0.219099,0.834715,0.505220
-0.439327,0.177336,0.175598,0.390330,0.842743,-0.370710
0.368330,0.440198,0.466114,0.952957,-0.072793,-0.294236
-0.393694,-0.099309,0.759629,0.804796,0.562052,0.190789
-0.030511,-0.326666,0.794867,-0.461694,-0.885161,-0.057696
-0.867499,-0.418265,0.626546,0.038237,-0.026131,0.998927
0.186282,-0.023509,0.506944,0.844795,0.526446,0.095791
-0.064830,-0.204647,0.440004,0.836774,0.441965,0.323228
-0.430962,-0.435534,0.825920,0.063931,0.823029,0.564391
-0.060379,0.143470,0.821384,0.851110,-0.489665,0.189314
-0.224623,-0.066955,0.714040,-0.795180,0.294181,-0.530233
-0.267199,-0.134771,0.702281,-0.082638,0.995022,-0.055691
0.467745,-0.289187,0.198800,0.012423,0.544973,0.838361
-0.242695,-0.161747,0.874287,-0.112056,0.172415,0.978630
0.231646,0.180235,-0.037905,0.494654,-0.194798,0.846978
0.500025,0.214353,0.339142,0.218973,-0.936912,-0.272484
0.027667,0.561630,-0.240649,0.687393,0.413205,0.597288
0.435305,-0.510368,0.545108,0.800080,0.013418,0.599743
-0.177920,-0.385197,0.881823,0.864758,-0.501332,0.029316
0.202744,0.403727,0.004611,-0.706473,0.289345,-0.645891
0.330097,-0.100737,0.505444,-0.217232,-0.099520,0.971033
-0.041236,-0.480703,0.824532,-0.446793,0.647273,-0.617588
0.164350,-0.614908,0.444115,-0.609907,0.308015,-0.730164
0.009169,-0.292842,0.876676,0.511812,0.806046,-0.297217
-0.184514,-0.355407,0.856103,0.975402,-0.141858,0.168725
0.317549,-0.079771,-0.050422,0.169714,0.307590,-0.936261
-0.241406,-0.075652,0.610696,-0.638263,0.669752,0.379542
0.143064,-0.199731,-0.645971,0.222368,-0.602824,0.766261
0.568395,-0.137251,0.568754,0.598298,0.664120,-0.448313
0.455518,-0.308053,0.725965,0.931464,-0.193660,-0.308012
0.290577,-0.313683,0.793756,-0.563319,-0.517113,0.644411
-0.450425,-0.186454,0.532016,-0.700959,0.539005,0.467043
0.150087,-0.068677,0.845974,0.856863,0.073570,0.510268
-0.229827,-0.010273,0.840604,0.510577,0.250654,-0.822486
-0.241730,-0.076871,0.600344,-0.699391,0.680502,0.218564
0.103973,-0.693313,-0.139508,-0.684941,0.163040,0.710122
-0.089173,-0.092628,-0.831827,0.174778,0.013638,0.984513
0.570755,0.244102,0.600641,0.791451,-0.586793,-0.171110
0.226714,-0.081451,0.793682,-0.193779,-0.978398,-0.072022
-0.588772,-0.297422,0.534164,-0.408256,-0.401008,-0.820073
0.048043,-0.135528,0.846160,-0.546491,-0.761653,0.348184
0.493162,-0.126074,0.584197,0.323734,0.532900,-0.781801
-0.164566,-0.117418,0.117177,0.125991,0.991584,-0.029796
-0.243284,-0.179647,0.945652,0.688852,0.635726,0.348331
0.327632,-0.497594,0.234168,-0.146284,-0.475275,0.867592
0.783257,0.129352,0.327679,-0.211142,0.555603,0.804192
-0.069762,-0.495115,0.858825,-0.103533,0.956601,-0.272387
0.282804,0.062837,0.393563,-0.639160,0.767767,0.044812
0.265321,0.025274,0.640416,-0.261805,0.794995,-0.547212
-0.678159,-0.504233,0.606011,-0.548094,-0.560984,-0.620395
-0.113304,-0.182839,-0.678172,0.965073,0.251899,-0.071972
0.034370,-0.385827,0.816051,0.818580,-0.303276,-0.487802
-0.366615,-0.503981,0.686338,0.958634,-0.181817,-0.219008
-0.371174,-0.042459,0.702670,0.671488,-0.336544,0.660183
0.248485,-0.162293,0.432320,0.513113,0.300187,-0.804116
0.456483,-0.302464,0.572180,0.126080,-0.691538,0.711252
0.203068,-0.105359,0.731094,-0.131419,-0.427003,0.894649
0.026168,-0.360448,0.603085,0.958383,-0.284221,-0.026830
0.143064,0.063090,0.491315,0.920115,-0.353153,0.169327
-0.429620,0.144982,0.738093,0.984950,0.138499,0.103400
-0.026008,-0.394693,0.635490,0.580091,-0.793073,-0.185821
0.268806,-0.020063,0.816588,-0.479830,-0.681354,0.552738
0.631400,-0.418937,0.338493,-0.239955,-0.154838,0.958356
-0.157114,-0.396248,0.913118,0.315953,-0.856640,0.407851
0.509785,-0.173134,0.777887,-0.943596,0.329418,0.033321
0.371226,0.225698,0.717632,0.861091,0.375863,-0.342417
-0.075876,-0.264607,0.423932,-0.211339,0.926649,0.310897
-0.059574,0.421626,0.252611,0.212940,-0.636590,0.741222
0.362003,-0.135234,0.569680,0.016289,0.065852,0.997696
-0.159045,-0.243934,0.819217,0.877274,0.449654,0.167933
-0.205536,-0.232126,0.939560,-0.029599,0.466118,0.884227
0.288702,0.088468,0.291812,0.822667,-0.002970,-0.568516
0.222155,-0.300951,0.610047,-0.204219,0.964747,-0.166005
-0.223765,-0.414693,0.896082,-0.233922,0.713694,0.660243
-0.686845,-0.002668,0.877916,-0.679124,0.569654,-0.462910
0.100700,0.223472,0.282942,-0.605756,-0.339100,0.719771
0.170412,-0.390743,0.847271,-0.780251,0.371623,0.503095
0.090620,-0.116452,0.138286,0.039448,0.958657,0.281817
0.093893,0.804870,-0.470984,0.639610,0.723250,-0.260402
0.126814,0.795206,-0.451281,0.377022,0.922598,-0.081658
0.393370,0.272716,0.137397,-0.732985,0.175873,-0.657116
0.152607,-0.198638,0.794682,-0.493897,0.464013,0.735362
-0.090944,-0.607891,0.383009,-0.721204,0.198012,-0.663819
0.025202,0.396080,0.112769,0.374397,-0.139342,0.916739
0.917476,-0.049559,0.193782,-0.443561,0.858745,0.256537
0.094482,-0.715918,-0.132286,-0.336663,0.653989,0.677463
-0.159526,-0.311288,0.400100,0.500794,0.244979,-0.830175
-0.417236,-0.304565,0.906766,-0.354529,0.920972,0.161616
-0.007402,0.185277,-0.219743,0.919354,0.133446,-0.370109
-0.371013,0.153260,0.144897,-0.702750,-0.710989,0.025237
0.737034,-0.054056,-0.200893,0.067738,0.484604,0.872107
-0.040271,-0.461585,0.718095,-0.334600,-0.897826,-0.286272
-0.031316,-0.290909,0.227205,-0.420895,0.323353,0.847520
0.374496,-0.484527,0.873102,-0.355086,-0.619972,0.699677
-0.497401,-0.466963,0.838642,-0.195619,-0.465862,-0.862963
0.573543,-0.164268,-0.633860,0.429203,0.180130,-0.885064
0.227411,-0.095065,0.752963,0.536172,0.740009,-0.406086
0.157756,-0.131242,-0.615306,-0.300573,0.680589,-0.668172
0.016621,-0.039308,0.656155,0.868980,0.115305,-0.481226
-0.033516,-0.088720,-0.836568,0.088196,0.076098,0.993192
0.030135,-0.909830,0.254055,0.380363,-0.454802,0.805282
-0.171161,-0.383474,0.929024,0.775892,-0.387828,0.497576
-0.322592,0.008887,0.770628,0.997154,0.074576,-0.011044
0.665127,0.171033,-0.214966,0.546709,0.006147,0.837300
-0.017214,-0.480409,0.699448,0.577485,0.761122,0.295303
-0.053139,-0.398811,0.722909,0.974930,0.070292,0.211115
-0.153737,-0.599823,0.869436,0.850226,-0.454434,0.265717
-0.429728,-0.672052,0.646656,0.436433,0.235774,-0.868296
-0.246715,-0.118427,0.467984,0.118125,-0.895841,0.428387
0.868998,-0.262085,0.614566,-0.735364,0.370556,0.567387
0.043432,-0.349314,0.843771,0.993800,-0.099984,0.048622
0.116037,-0.210193,0.780646,0.060419,-0.075668,0.995301
0.019734,0.172588,0.620454,0.091418,0.002417,0.995810
-0.291919,0.079855,0.716651,-0.607263,-0.175533,0.774868
0.073516,0.094225,0.567347,0.877013,-0.212861,0.430743
-0.411282,0.066998,0.650248,0.906021,0.416305,-0.076260
-0.023435,-0.399315,0.360751,-0.535496,-0.137139,-0.833329
-0.188320,0.289229,0.816051,0.839937,0.538730,-0.065391
-0.809747,-0.363642,0.591715,0.809465,0.499898,0.308007
-0.440990,-0.206370,0.790608,0.260401,-0.876603,0.404671
0.061665,0.811845,-0.433672,-0.162504,-0.976066,-0.144526
-0.194222,0.213345,0.797848,0.894118,0.026325,-0.447056
0.261835,-0.604403,0.416043,0.896826,-0.346222,0.275380
0.058232,-0.075358,0.814218,-0.573025,-0.435851,0.694029
-0.113144,-0.142923,-0.678598,0.417456,0.908659,-0.008308
-0.152074,0.190529,0.672876,0.223947,0.736744,-0.638010
-0.120007,-0.437887,0.830272,-0.338583,-0.417197,-0.843391
-0.023003,-0.149519,0.618825,0.473592,-0.879847,-0.039745
-0.790660,-0.282001,0.563032,0.991003,-0.113179,-0.071440
0.624590,-0.239269,0.246315,0.651946,0.598604,-0.465446
-0.262107,-0.123174,0.746500,0.932236,0.328065,-0.152674
0.329615,0.138091,0.624917,0.724337,-0.413369,-0.551782
0.759450,-0.071661,-0.193652,0.307783,0.439250,0.843996
0.022038,-0.213513,0.939134,0.473002,-0.878476,0.067442
-0.103600,0.468687,0.521461,0.896295,-0.195850,0.397866
-0.069121,-0.260824,0.938468,-0.596838,0.201237,-0.776716
0.105367,0.108553,0.277479,-0.018639,0.748516,0.662855
-0.681216,-0.031450,0.864158,0.700637,-0.512655,0.496280
-0.225268,-0.041408,0.578716,0.881179,-0.472596,0.013311
0.085688,-0.253513,0.820328,0.452039,-0.890318,-0.054724
-0.566251,0.120486,0.700300,-0.232610,-0.468468,0.852309
0.168052,-0.352171,0.798108,0.878034,-0.269310,-0.395637
0.607538,-0.308557,0.614288,0.216286,-0.933058,-0.287441
0.187195,0.298010,0.264036,0.040780,0.863717,0.502325
-0.248164,-0.216496,0.540164,0.770873,0.399721,0.495961
-0.038340,0.115359,0.910192,0.981183,-0.177107,-0.076895
0.048043,-0.340742,0.246167,-0.355683,0.487484,0.797401
-0.365168,-0.143007,0.334771,0.185182,-0.946815,-0.263153
0.018071,-0.618647,-0.158544,0.727428,-0.341933,-0.594921
0.549681,0.110738,0.519406,0.679704,-0.705790,-0.199656
0.728080,0.292213,0.370491,0.532896,-0.376606,0.757753
0.355353,-0.106536,0.568717,0.755141,0.233862,-0.612430
-0.251971,-0.249900,0.289164,0.833885,-0.551903,-0.006301
-0.688668,-0.015861,0.881250,-0.338480,0.705229,-0.622963
0.175344,-0.298262,0.652952,0.243611,0.630129,-0.737287
0.260012,-0.636168,0.419043,-0.629496,0.651255,-0.423795
0.096197,-0.251791,0.726280,0.213519,0.970074,0.115614
-0.277656,-0.078720,0.723965,-0.690389,-0.334102,0.641669
-0.389299,-0.021618,0.889249,0.985766,0.134056,0.101461
0.673816,-0.328011,0.551552,0.000416,-0.870921,0.491422
-0.172879,-0.306792,0.868825,0.917860,-0.395856,-0.028832
-0.097166,-0.531670,0.406081,0.442720,0.050815,0.895219
0.007506,0.323432,0.112714,0.105809,0.256509,0.960733
0.652634,-0.281749,0.606325,-0.454798,0.476702,0.752273
0.220172,0.879829,-0.387286,0.681361,-0.616073,0.395223
0.255777,0.033257,0.453189,-0.326506,0.793882,0.512976
-0.140599,-0.093930,0.195448,0.856675,-0.243273,-0.454892
-0.092819,-0.160991,-0.461818,0.371827,0.925138,-0.076576
0.190412,-0.294607,0.752444,0.390070,0.237465,-0.889638
0.271863,-0.633479,0.415691,0.878887,-0.420708,0.224861
-0.752210,-0.425492,0.618491,0.768128,0.555903,0.317729
0.251702,-0.496754,-0.081827,0.889808,0.079419,-0.449371
-0.262643,-0.071745,0.628898,-0.237201,0.968323,-0.078012
0.277227,0.160991,0.305514,0.905270,-0.395198,0.155899
0.154754,0.268851,0.310995,0.431943,-0.879066,0.201664
0.043003,0.380954,0.471780,0.081173,0.994933,0.059328
0.074321,0.478393,-0.273869,0.887176,-0.345347,0.306029
-0.306342,-0.227715,0.871417,0.439842,-0.889031,-0.127137
-0.279747,-0.038173,0.770628,0.918366,0.315185,0.239295
-0.741701,-0.270741,0.588493,-0.711537,0.688150,-0.142003
0.167623,-0.108342,0.198245,-0.347368,-0.688429,0.636711
-0.144995,-0.346247,0.917839,-0.498079,0.827924,0.257798
0.044506,-0.407845,0.656174,0.715478,-0.689133,-0.114833
0.181726,-0.309271,-0.100993,0.005990,-0.234451,0.972110
0.451980,0.129100,0.637305,-0.768104,0.227028,-0.598727
0.583836,0.175487,0.378490,-0.057566,-0.848405,0.526208
0.426187,0.004602,0.495648,-0.185509,-0.384440,0.904319
0.029169,0.144982,0.665525,-0.823294,0.387300,0.414953
-0.117274,-0.226874,-0.093623,0.507467,-0.462233,-0.727199
-0.048259,-0.360743,0.704059,0.700229,0.703063,0.124022
0.230252,0.339483,0.199633,0.956126,0.248903,-0.154502
-0.495846,-0.161327,0.757685,0.007712,0.857179,0.514961
0.027078,0.162714,0.272887,0.064138,-0.399318,0.914566
0.183493,-0.054728,0.789090,0.515091,0.704313,-0.488493
-0.034910,0.165571,-0.256055,0.481526,0.162486,-0.861238
0.402433,-0.161999,0.392508,0.135037,-0.888941,0.437664
0.405277,0.230824,0.377935,-0.040187,-0.948356,0.314653
-0.144618,0.252338,0.700893,0.976960,0.069766,0.201699
-0.044133,0.525410,-0.188745,0.734625,0.287297,0.614644
0.069117,-0.337969,0.850678,0.861682,-0.422664,0.280818
0.261302,0.908066,-0.399007,-0.693404,0.186746,-0.695928
-0.561584,-0.480325,0.542849,0.945148,-0.238631,0.223047
-0.130355,-0.154856,-0.757833,-0.030195,-0.991181,0.129028
-0.096789,0.051577,0.865417,0.810046,-0.224653,-0.541625
-0.070138,0.105444,0.270258,-0.413776,-0.250210,0.875320
-0.420024,-0.041913,0.949263,0.192590,0.417469,-0.888048
0.292616,0.947815,-0.404970,-0.726220,0.014057,-0.687318
-0.295621,0.093511,0.699911,-0.237619,-0.167487,0.956810
-0.524051,0.258262,0.813440,0.997492,-0.016089,0.068933
0.403775,-0.108847,0.226502,0.048330,-0.358002,0.932469
0.195236,-0.176033,-0.621676,0.162777,-0.585497,0.794164
0.276903,-0.138889,0.746574,0.876128,0.461345,-0.139857
-0.313690,-0.120569,0.119158,0.367234,-0.900200,0.234048
-0.217707,-0.131536,0.189764,-0.021517,-0.969827,0.242842
0.095768,-0.247673,0.853715,0.051702,0.961028,0.271575
-0.017695,-0.271413,0.895767,-0.009786,-0.991972,0.126075
-0.171858,-0.089981,0.159303,0.979447,0.126423,0.157167
-0.278301,0.423265,0.688597,-0.820526,0.571180,-0.022139
-0.115880,-0.206747,0.521017,-0.388643,0.911728,0.133073
-0.545554,0.041114,0.852418,0.662440,0.426338,0.615962
-0.088692,-0.175025,-0.613066,0.275075,0.957332,-0.088601
0.152768,-0.464232,0.650841,0.777656,0.569198,0.266956
-0.062470,-0.414441,0.727928,0.950274,-0.179177,0.254706
0.098985,-0.082838,0.724150,-0.605977,0.663983,0.438085
0.251058,0.713145,-0.402266,0.949487,-0.187635,-0.251531
-0.481688,0.187714,0.802367,0.864494,0.445242,-0.233259
-0.370048,-0.224059,0.722095,0.818349,-0.066204,0.570896
-0.068905,0.233346,0.607936,0.297207,-0.661246,-0.688783
-0.576492,-0.178722,0.750574,0.200891,-0.976042,-0.083572
-0.226233,-0.182839,0.795756,-0.594499,-0.759269,-0.264728
0.004181,-0.390113,0.628713,0.774041,-0.583408,-0.245960
0.042467,0.812055,-0.447504,0.534071,-0.842338,0.072353
-0.085207,-0.239983,0.616343,0.101802,-0.903226,0.416916
0.545282,-0.053342,-0.190690,-0.265852,-0.037776,-0.963273
0.062899,-0.353306,-0.672950,-0.349163,0.344000,-0.871636
-0.893237,-0.422298,0.626954,-0.186056,0.200329,0.961900
-0.335889,-0.268220,0.922802,0.734530,0.667556,-0.121798
0.198561,0.257254,0.318810,-0.275542,0.549393,-0.788824
-0.186553,-0.157251,-0.822180,-0.581464,-0.343345,-0.737573
0.000322,-0.298893,0.876065,0.650052,0.759451,-0.025838
0.029546,0.355029,-0.254981,0.851962,0.111478,0.511598
-0.116682,0.621967,0.134694,-0.463918,-0.187315,-0.865848
-0.365437,-0.535032,0.736297,-0.673607,0.730330,-0.113452
0.457986,-0.124939,0.461929,-0.487648,0.820222,-0.299057
0.170464,0.037838,0.523665,-0.631793,-0.020346,0.774870
0.043327,0.320364,0.514554,0.156961,0.821297,0.548484
0.335353,0.293431,0.451059,-0.446341,0.547221,-0.708046
0.748993,0.149857,-0.243315,0.535343,0.517559,0.667488
-0.040431,-0.243975,0.600344,0.806467,-0.496746,-0.320708
0.555739,0.239900,0.586401,0.948440,0.031528,-0.315385
0.356102,-0.108217,-0.609492,-0.372372,-0.653063,-0.659430
-0.072927,-0.043047,0.365954,0.856301,-0.444131,0.263622
-0.194650,0.553352,0.193967,0.998232,0.051998,0.028798
0.647274,-0.372045,0.335346,0.446385,-0.063859,-0.892560
0.130728,-0.734784,0.317995,-0.332304,-0.134749,-0.933497
-0.308329,-0.247631,0.413599,-0.282949,-0.847786,-0.448552
0.119899,0.256581,-0.282646,0.835885,0.271332,0.477154
-0.035014,-0.235572,0.888786,0.421584,0.589204,-0.689279
-0.103921,-0.132629,0.293589,0.903806,0.365454,-0.222661
-0.066493,0.066577,0.885897,0.950693,-0.091246,-0.296407
-0.280336,-0.145486,0.096771,-0.489816,0.775206,-0.398918
0.182583,-0.519990,0.845289,-0.549080,0.473222,-0.688892
0.193737,-0.039601,0.622028,0.411187,-0.804958,0.427747
-0.328009,-0.210866,0.710744,0.776580,-0.391697,0.493453
0.078340,0.318095,0.274443,-0.371214,-0.305420,-0.876880
-0.162046,-0.367087,0.941171,0.847636,-0.471179,-0.243935
0.370100,-0.168175,0.458040,-0.362830,0.548297,0.753475
-0.279479,0.195908,0.192486,0.067795,-0.454281,0.888275
-0.476003,-0.366583,0.796756,-0.553033,-0.598692,-0.579416
-0.114001,-0.147293,-0.646545,-0.627093,-0.752034,0.202973
0.608019,-0.196537,0.594419,0.587114,0.515155,-0.624430
-0.029009,-0.287548,0.846252,0.838148,0.300001,0.455529
-0.192772,-0.124855,0.874343,0.101849,-0.013836,0.994704
-0.495630,-0.121368,0.892156,-0.701420,-0.342240,-0.625205
-0.491395,0.203975,0.208207,-0.221617,-0.494658,0.840357
0.323125,0.177126,0.396341,-0.508925,0.563701,-0.650567
-0.116040,-0.176747,-0.995463,0.366269,0.324944,0.871928
0.491820,-0.206244,0.203837,-0.214607,-0.353483,0.910491
-0.128748,-0.466753,0.791071,-0.543430,0.295442,-0.785746
0.225212,-0.687892,0.290645,0.636894,0.023803,0.770584
0.236582,-0.194227,0.422191,0.627709,0.561837,-0.538814
-0.119578,-0.334692,0.803459,0.441853,0.839900,0.315173
0.110087,0.803736,-0.402581,0.373035,0.917823,-0.135817
-0.067510,-0.210739,0.752796,-0.483519,-0.715134,0.504770
-0.083812,0.021912,0.127102,0.956751,0.244317,-0.157912
0.250092,-0.271749,0.805329,0.651199,0.689400,-0.317282
-0.182102,0.330574,0.092178,-0.665869,-0.427462,-0.611470
-0.161509,-0.193890,0.704337,-0.443112,0.896041,0.027601
0.187732,-0.322296,0.795960,0.908865,0.109435,-0.402477
0.736501,-0.183596,-0.137582,-0.179595,-0.965701,-0.187527
-0.037269,-0.145444,0.781183,0.408210,-0.026529,-0.912502
0.458470,-0.332255,0.729316,0.920744,-0.260819,-0.290179
0.592899,0.233682,0.622102,0.240720,0.871895,0.426443
0.034746,-0.260152,0.292367,0.882834,-0.136949,-0.449277
0.813180,0.084351,-0.677487,0.308879,-0.879000,-0.363253
0.239315,0.081536,-0.354363,0.078770,-0.940700,0.329969
-0.400773,-0.441669,-0.653729,-0.347310,-0.213145,-0.913206
-0.043756,-0.194857,0.207281,0.863464,0.451497,-0.224902
0.107459,-0.264607,0.386601,-0.411974,-0.222521,-0.883608
0.393963,-0.212672,0.492519,-0.653980,-0.639822,0.403655
-0.635639,0.338474,0.112195,0.108300,0.419197,0.901413
-0.201726,-0.241329,0.398396,0.480247,0.166283,-0.861228
0.411282,-0.248345,0.476668,0.688278,0.500548,-0.525095
-0.548715,-0.209059,0.483427,-0.605814,-0.686796,-0.401623
-0.002682,-0.376710,0.246722,-0.160195,0.503487,0.849022
-0.029869,-0.152965,0.222076,0.564912,0.549517,-0.615554
0.949916,-0.274985,0.585234,-0.576645,-0.813343,-0.077162
0.490803,-0.113721,0.219984,-0.166520,-0.138231,0.976301
-0.051316,0.230824,0.829364,0.838857,-0.343115,0.422601
0.026112,-0.407046,0.821013,0.745480,-0.411601,-0.524256
0.124510,-0.119771,0.176228,-0.466427,-0.808698,0.358406
-0.486836,0.308221,0.205670,-0.551793,0.283868,0.784183
0.310525,-0.203134,0.861084,0.540078,-0.532041,-0.652110
0.527694,-0.342213,0.553218,-0.880799,-0.013091,0.473310
0.775376,-0.256413,0.607677,0.336319,-0.524585,0.782113
-0.444904,-0.471796,0.792904,0.375249,-0.824742,0.423071
-0.440185,0.103259,0.705337,-0.430357,-0.342875,0.835003
-0.052658,0.185950,0.301644,0.873189,-0.442301,-0.204723
0.221782,-0.011744,0.633564,0.240505,-0.855769,0.458058
0.180332,-0.116662,0.567439,-0.511587,-0.308099,0.802093
0.067134,-0.137040,0.716465,0.851042,-0.165898,-0.498203
0.126225,0.799912,-0.428746,-0.409154,-0.898409,-0.159544
-0.393963,0.048132,0.641712,0.960551,0.232186,-0.153075
-0.394123,-0.190445,0.878213,0.118296,-0.568997,0.813786
-0.125636,-0.324902,0.599178,-0.778836,0.435004,-0.451869
0.691778,-0.188260,0.619084,0.798565,0.557494,-0.226925
0.173413,-0.299733,0.795848,-0.180359,0.730326,0.658858
0.869214,-0.254774,0.595845,0.270537,0.761882,-0.588511
-0.351278,-0.007500,0.862862,-0.400457,-0.907369,-0.127732
-0.297015,0.367004,0.673802,-0.587125,0.807071,0.062617
-0.653656,0.042585,0.778535,-0.057161,0.317173,0.946644
-0.231486,-0.237673,0.844493,-0.575704,-0.630475,-0.520640
-0.277656,-0.270152,0.645526,-0.522903,0.838809,-0.151564
0.174218,0.595916,-0.363825,0.910723,0.052932,0.409612
0.186926,0.555495,0.169839,0.029047,0.992629,0.117657
0.129550,-0.602344,0.845104,0.786799,-0.493646,0.370487
0.576384,-0.078089,0.366862,-0.330363,0.247393,0.910855
-0.214703,-0.096788,0.623917,0.096213,0.987101,-0.127961
0.501740,0.179478,0.378842,0.978520,-0.086583,-0.187089
-0.500402,0.037249,0.820291,0.942259,-0.269290,0.199075
0.913398,-0.349146,0.603603,0.862165,0.170929,0.476921
0.168801,-0.154016,0.652026,0.268752,0.868285,-0.416957
0.158076,-0.305237,0.757629,0.545607,0.144863,0.825426
0.240817,0.724910,-0.357862,-0.305546,-0.902257,-0.304260
-0.835111,-0.308557,0.604270,0.108154,0.291423,0.950461
-0.184835,0.200950,0.851178,0.720195,-0.288297,0.631034
-0.105904,-0.296624,0.939838,-0.179682,0.240794,0.953799
-0.375946,-0.279606,0.601011,0.025080,-0.998670,0.045054
-0.042951,-0.196832,-0.671413,0.778912,0.626386,-0.030620
-0.137435,0.357214,0.533775,0.973376,-0.163111,0.161042
-0.259210,0.580916,0.182912,0.804999,0.589635,0.065623
-0.176097,-0.382550,0.955707,0.522178,-0.058363,-0.850837
-0.010779,0.518856,0.112843,-0.571526,-0.407396,-0.712311
-0.246017,0.110780,0.764166,0.876386,0.402269,-0.264815
0.324628,0.417593,0.155933,0.448912,-0.387363,0.805250
-0.338357,-0.177924,0.811495,0.427656,0.681962,0.593328
-0.243232,0.137755,0.761684,0.991998,0.124087,0.023294
0.856827,0.093637,-0.226668,0.220250,0.453828,0.863441
0.224462,0.346373,0.735520,0.827329,0.119002,0.548967
-0.192772,-0.320616,0.839290,0.959460,-0.260158,0.108421
-0.248969,-0.024097,0.855585,0.568380,0.822715,-0.009123
0.549625,-0.472089,-0.116917,0.278085,0.624003,0.730266
0.344736,-0.037207,0.277479,0.149336,0.950483,-0.272546
0.525442,0.163008,0.161636,-0.001176,0.153136,0.988204
0.153681,-0.136956,-0.055848,0.233948,-0.203261,0.950765
0.363610,-0.291204,0.219984,-0.695687,-0.581927,-0.421165
-0.131966,-0.124687,-0.348530,0.876425,0.449390,0.172995
-0.407689,-0.085401,0.917839,0.890156,-0.443230,-0.105691
0.314011,-0.065862,0.580272,0.100996,-0.935464,0.338685
0.010455,0.765289,-0.431857,0.927257,-0.374380,0.005753
0.220708,-0.216706,0.803718,0.847746,0.469910,-0.245991
0.023432,-0.152797,0.516221,-0.285875,0.946550,-0.149394
0.164566,-0.148847,0.477316,0.174031,-0.949320,0.261735
0.195933,-0.569024,0.818254,0.791270,-0.543780,0.279634
0.073408,0.813273,-0.382286,0.028800,0.989044,0.144781
0.618423,-0.298262,0.576365,-0.019021,-0.919546,0.392521
-0.183120,0.258430,0.111047,0.908054,0.089796,0.409115
0.003700,-0.205067,0.725131,0.227651,0.941133,0.249888
0.213417,-0.547259,0.851844,-0.530837,0.293824,-0.794908
-0.228966,0.200026,0.860233,-0.510830,0.221832,-0.830568
-0.654886,-0.344440,0.733723,-0.509230,0.838714,-0.192987
0.364307,0.176202,0.347289,-0.360489,-0.246909,0.899491
0.299050,0.713860,-0.362677,-0.171125,-0.979180,-0.109189
0.340285,-0.221160,0.453652,-0.660168,-0.660737,0.357219
0.531769,0.102376,0.583531,0.814764,0.503114,0.288159
0.329131,-0.171201,0.488556,-0.686421,-0.702724,0.187097
-0.302107,-0.103763,0.874639,0.928157,0.204522,0.310958
0.557294,-0.072123,0.461595,-0.393366,0.149562,-0.907135
-0.133036,-0.575537,0.819550,0.302983,0.743479,0.596188
0.140972,-0.224396,-0.158414,-0.688572,-0.057848,-0.722857
-0.076413,-0.290909,0.690171,0.855034,-0.444202,0.267585
-0.592097,-0.353768,0.547774,0.094034,0.482691,0.870728
0.611344,-0.046828,-0.601474,-0.303860,0.311253,-0.900439
0.739662,0.316498,0.367306,0.532896,-0.376606,0.757753
-0.374499,-0.350112,-0.671598,-0.303242,-0.266915,-0.914768
-0.139526,-0.288388,0.931135,0.852942,-0.521917,0.009594
0.401896,-0.135485,0.447578,-0.210299,0.810475,0.546722
-0.030619,0.189815,0.272295,0.299011,0.205855,-0.931781
-0.275244,-0.035022,0.756000,0.917173,0.357294,0.176450
-0.333851,0.199227,0.209244,0.032501,-0.451507,0.891675
-0.241943,-0.122251,-0.698467,-0.212287,0.184836,0.959567
0.140328,-0.454148,0.628490,0.442487,0.677620,0.587398
-0.214006,-0.595285,0.831438,-0.760333,0.534397,-0.369208
-0.639229,-0.264396,0.804218,0.896998,-0.321780,0.303071
0.660411,-0.236118,0.604900,0.371722,0.046570,-0.927175
0.447100,0.020358,0.637157,0.234968,-0.442460,0.865459
-0.103224,-0.234563,0.668376,-0.579029,-0.811926,0.074178
-0.449568,0.063258,-0.731538,-0.223128,-0.375915,-0.899390
0.472786,-0.267001,0.743723,0.970071,-0.110379,-0.216286
0.210304,0.564823,0.181042,-0.235005,0.962338,0.136669
0.522385,-0.447005,-0.116862,0.305975,0.656440,0.689541
-0.242051,0.257674,0.219891,0.207933,-0.431422,0.877861
0.164995,0.222169,-0.011869,-0.525030,0.346659,-0.777285
0.154538,-0.287926,0.756333,-0.809555,0.582882,-0.069775
-0.112499,-0.228093,0.820328,-0.118720,-0.543127,0.831215
-0.095503,-0.140696,0.232224,0.636629,0.770808,0.023651
-0.114859,-0.095317,0.881101,-0.760035,-0.056848,0.647391
0.331062,-0.217883,-0.060736,0.070863,-0.017115,0.997339
0.071798,-0.290405,0.677265,0.752478,0.651983,-0.093251
0.447958,-0.054433,0.464929,-0.298893,-0.525516,0.796552
0.230039,-0.146578,0.727557,-0.386328,-0.218297,0.896157
-0.125368,-0.348221,-0.644823,0.168856,0.243013,0.955213
-0.159045,-0.380701,0.586068,-0.059365,0.264265,-0.962621
0.091801,0.258598,0.332327,-0.196779,0.855082,0.479701
-0.180063,0.283851,0.812606,0.839937,0.538730,-0.065391
0.448763,0.127755,0.624750,-0.670051,-0.437544,-0.599655
0.762667,-0.153175,0.251130,-0.224363,0.223429,0.948547
-0.152074,-0.195319,0.722002,-0.205824,-0.977477,-0.046634
0.112767,-0.029223,0.267610,-0.374392,0.870376,-0.319807
0.360982,-0.099225,0.828031,0.642594,0.030553,-0.765597
0.143224,0.649363,-0.415877,0.438068,-0.087626,0.894661
-0.121722,-0.150360,-0.311773,0.990499,0.130453,-0.043521
-0.326775,-0.371289,0.707114,0.983225,0.164775,-0.078213
0.123545,-0.075863,0.209040,-0.124896,0.877756,-0.462543
0.267736,0.464821,0.181116,-0.454806,0.377952,-0.806414
-0.500991,-0.239647,0.763166,-0.504200,-0.755468,-0.418390
-0.114698,-0.131788,0.140508,0.615285,0.785134,0.070638
-0.047189,0.310658,0.449078,-0.544292,0.723139,-0.425225
-0.544052,-0.371331,0.565995,0.159699,0.793704,0.586967
0.120007,-0.323557,0.744871,0.875186,0.420629,-0.238998
0.045419,0.433224,-0.266536,-0.954202,0.145275,-0.261520
0.317872,0.175067,0.335586,0.762795,0.535600,-0.362320
0.638692,-0.067669,-0.609436,-0.358782,0.299895,-0.883933
0.271434,-0.399021,0.775146,-0.220047,0.889660,0.400104
0.164727,-0.259144,0.876416,0.046935,0.934726,0.352255
-0.331762,-0.184856,0.923857,0.997736,0.060288,-0.029813
0.034370,0.323432,0.851011,-0.662991,0.087650,-0.743479
-0.579870,0.141747,0.881861,0.007472,0.359539,0.933100
0.350957,0.221917,0.650267,-0.297731,-0.954636,-0.005187
-0.122635,-0.431542,0.862047,0.579095,0.808427,-0.105331
0.297604,0.263136,0.449022,-0.207244,0.649346,-0.731710
-0.159205,-0.238387,0.831568,0.632371,0.584875,-0.507965
-0.893453,-0.386626,0.636249,-0.186056,0.200329,0.961900
0.645127,-0.485703,0.321421,-0.056021,-0.356275,0.932700
0.164350,-0.590369,0.842178,0.781475,-0.492817,0.382660
0.028204,-0.707053,-0.136786,-0.180543,0.634151,0.751835
-0.500723,-0.352171,0.694115,0.546305,0.000536,0.837586
0.163440,-0.356121,-0.130009,0.124289,0.793987,0.595094
-0.412889,-0.004096,0.805311,0.746297,0.095761,-0.658689
0.713869,0.215194,0.354640,-0.506641,0.431867,-0.746194
-0.101240,-0.171747,-0.599048,-0.452254,-0.886584,0.097132
0.377392,-0.166579,-0.606362,-0.624743,-0.012113,-0.780737
0.546676,0.172336,0.382101,0.061464,-0.645486,0.761295
-0.130732,-0.335280,0.904526,-0.726777,0.371461,0.577765
-0.152395,-0.640244,0.392212,-0.741166,0.668711,-0.059144
0.105580,-0.035946,0.271702,0.513361,-0.832123,0.209839
-0.015980,-0.428475,0.685209,0.999804,-0.005818,0.018938
0.423883,-0.322885,0.468391,0.845483,-0.209722,-0.491096
-0.623519,0.024938,0.882823,0.557354,-0.643253,0.524959
0.293045,-0.323389,0.663099,-0.273794,0.426939,0.861835
-0.063115,-0.560621,0.381898,0.840843,-0.202717,0.501886
0.245965,-0.183974,0.669358,-0.644066,-0.429023,0.633339
-0.094053,-0.054140,0.891971,0.821142,0.108277,-0.560359
-0.047886,-0.332170,0.683061,0.583873,0.535400,0.610278
0.169927,-0.236916,0.817421,-0.453067,0.881329,-0.134125
0.194379,-0.325574,0.826365,-0.771162,0.618907,0.149211
-0.244302,-0.205067,0.897211,0.409712,-0.135602,0.902080
-0.316102,0.328768,0.791867,0.375054,0.863716,0.336642
0.300068,-0.305532,0.653322,-0.268351,0.061931,0.961328
-0.822190,-0.190529,0.531035,0.073239,0.772490,0.630789
-0.389888,-0.152881,0.874121,0.814023,0.481202,-0.325286
-0.539708,0.044812,0.848881,-0.569887,-0.719419,-0.397071
0.035927,0.088553,0.014277,0.274297,-0.169540,0.946582
0.374656,-0.151117,-0.605418,0.604565,0.183744,0.775074
-0.162262,0.168638,0.838401,0.042338,-0.799052,0.599769
0.552201,-0.238387,0.568976,0.818940,0.499673,-0.282248
0.036890,0.359945,0.847345,-0.481825,-0.149183,-0.863475
-0.066545,-0.138595,-0.507703,0.331452,0.942761,-0.036638
-0.420934,-0.297548,-0.668506,0.332584,0.245036,0.910684
-0.130624,0.020904,0.833846,-0.415484,0.870016,-0.265416
-0.479436,0.063006,0.883138,-0.116637,-0.535466,0.836464
0.038019,-0.494065,0.700633,0.655571,0.695180,0.294874
-0.363718,-0.357255,0.754055,-0.592102,-0.738964,-0.321476
-0.203444,-0.194311,0.815180,0.718648,0.692888,0.058747
0.174594,-0.572722,0.849233,-0.746401,0.495686,-0.444051
0.082739,-0.302800,0.642471,0.111296,-0.845347,0.522496
0.715319,-0.055820,0.373843,-0.109324,0.435172,0.893686
0.136738,-0.380323,0.603974,0.934696,0.315856,0.163029
0.418682,0.165949,0.652415,-0.160248,0.075750,0.984166
-0.283714,-0.340784,0.917969,-0.535228,0.056754,-0.842799
-0.505818,-0.415534,0.825865,-0.455522,-0.506252,-0.732262
-0.370421,-0.369440,0.802552,0.509403,0.713354,0.481284
-0.182691,-0.176579,0.858177,-0.289722,0.787730,-0.543638
-0.023969,0.383222,0.107640,-0.027005,0.038622,0.998889
0.308165,-0.174773,0.182727,-0.370644,-0.836637,0.403312
0.058608,0.437342,0.247167,0.111735,0.313999,0.942826
0.321358,-0.225488,-0.591327,0.861238,-0.249333,0.442835
0.442597,-0.273724,0.415599,0.077359,0.214935,0.973560
-0.026328,-0.752054,-0.113899,0.233070,-0.872042,-0.430372
-0.148320,0.200067,0.725891,0.108036,0.776807,0.620402
-0.045203,0.178807,0.752666,0.598689,0.784995,-0.159229
0.031316,-0.106452,0.848456,0.745237,0.623953,-0.235167
0.431014,0.214396,0.339160,-0.342370,0.909630,0.235277
-0.133304,-0.190781,0.477391,-0.043640,0.998088,0.043764
-0.247896,-0.206076,0.859807,0.962643,0.196149,0.186667
-0.133200,-0.080905,-0.375361,0.929143,0.326671,0.173147
0.133144,0.767726,-0.393304,0.826462,0.560822,-0.049390
0.321571,-0.179268,0.180579,-0.406403,-0.789748,0.459493
0.284463,-0.155696,0.833309,-0.174599,0.857271,0.484358
0.083276,-0.194016,0.453170,0.641917,0.481651,-0.596620
-0.419164,-0.144015,0.890490,-0.482993,-0.273926,-0.831674
-0.557297,-0.305741,0.722113,-0.605842,0.272989,-0.747283
0.362969,0.241665,0.363251,0.084321,-0.944046,0.318852
0.421844,-0.337465,-0.618880,0.239110,-0.532933,0.811670
0.479060,-0.374903,0.741797,0.913023,-0.290387,-0.286470
-0.031961,0.288515,0.255018,-0.044116,0.363574,0.930520
0.254435,-0.147377,0.184579,-0.035320,-0.546366,0.836801
-0.192235,-0.220572,0.781164,0.683184,0.730168,0.010678
-0.449192,0.015064,0.795571,0.382796,0.854612,-0.350863
0.921923,-0.050989,0.197282,-0.212871,0.878431,0.427837
0.131161,-0.075358,0.781238,-0.241695,0.962319,0.124602
0.283393,-0.169226,0.176968,0.321760,0.365575,0.873399
0.099522,-0.241329,0.817217,0.270445,-0.962734,0.001749
0.167892,0.561713,0.142378,0.323889,0.941391,0.094222
-0.117647,-0.243723,0.838382,0.864523,-0.493806,-0.093568
-0.183012,-0.121914,0.552663,0.462327,0.107886,0.880122
-0.047618,-0.394567,0.580309,0.240930,0.373299,0.895880
-0.250469,0.554571,0.150007,0.784648,-0.090745,0.613265
-0.625823,0.028426,0.814014,0.897539,0.041088,-0.439016
0.311867,0.065779,0.418080,0.801468,-0.587180,-0.113439
-0.039465,0.277338,0.123898,-0.054454,0.271821,0.960806
0.605234,-0.481460,0.318291,0.267272,0.323556,-0.907677
0.286021,-0.058635,0.600456,0.126619,-0.276108,0.952750
0.164566,-0.141999,0.806385,-0.620706,-0.770428,0.145483
0.171698,0.715204,-0.422117,-0.331054,0.023904,0.943309
0.043969,-0.490535,0.704022,0.655571,0.695180,0.294874
0.132391,-0.125318,0.763592,0.835230,-0.183666,-0.518321
-0.344683,-0.233639,0.729205,0.845294,-0.059681,0.530957
0.486299,-0.439526,-0.089086,0.417259,0.478871,0.772384
0.118076,-0.610958,0.847826,0.803352,-0.514508,0.299846
0.331651,-0.232463,0.450152,0.791426,0.443205,-0.420968
0.824655,0.345155,0.354103,0.710810,-0.403791,0.575936
0.150516,-0.395071,0.732112,0.759300,0.586469,-0.281988
-0.610755,-0.164814,0.496685,0.587376,0.548611,0.594993
-0.509841,-0.175655,0.442597,-0.526870,-0.643696,-0.555035
0.637835,0.038972,0.361547,0.290988,-0.142225,-0.946096
0.372352,0.052333,0.638619,-0.069295,-0.863252,0.499995
-0.031100,0.625286,-0.266240,0.494607,0.772046,0.399134
0.746257,-0.000104,-0.202744,-0.033215,0.372274,0.927528
-0.060379,-0.438853,0.531757,0.970646,-0.231995,-0.063440
-0.264090,0.361836,0.742797,-0.668215,0.711904,-0.216058
-0.140812,-0.346793,0.594382,-0.581138,0.456719,-0.673562
-0.446243,-0.004391,0.777313,0.146908,-0.841978,0.519125
-0.031853,-0.186033,0.644915,0.653627,-0.233207,-0.719990
0.176093,-0.244816,0.774369,0.572551,0.815792,0.081663
-0.699717,0.003299,0.898674,-0.294075,0.634679,-0.714634
0.205693,0.386752,0.187912,-0.539135,-0.036551,-0.841426
-0.617726,0.108217,0.784368,0.264810,0.058537,-0.962522
0.568500,-0.145402,-0.128139,0.516835,0.852902,-0.073756
-0.112126,0.042627,0.799663,0.952347,-0.304837,0.010498
-0.205212,0.190193,0.791793,0.740402,-0.031483,-0.671427
0.038500,0.037753,0.724594,0.842889,0.178249,-0.507705
-0.075984,0.050149,0.795274,0.924497,-0.345606,0.160813
0.590434,-0.174394,0.500500,-0.341311,0.897078,0.280638
-0.117863,0.456081,0.836864,-0.285361,0.041939,0.957502
0.376964,-0.448140,0.545904,0.650588,0.104362,-0.752226
-0.075339,-0.399021,0.950670,-0.519941,-0.799335,-0.301205
0.494769,-0.315867,0.748019,0.943229,-0.156398,-0.293018
0.400341,-0.195193,0.841919,-0.105070,0.932010,0.346867
0.254383,-0.059896,0.724965,-0.266136,-0.805632,0.529271
-0.407152,-0.102964,0.794682,-0.204173,0.975347,-0.083737
0.223978,-0.179563,0.317014,-0.306587,0.944995,-0.113973
0.332885,-0.437425,0.451022,0.768619,-0.499959,-0.399080
-0.001501,-0.748692,0.311903,-0.178981,0.666361,0.723830
0.433050,-0.271833,-0.627157,0.898242,0.329510,0.290835
-0.159150,-0.388853,0.955929,0.574344,-0.443130,-0.688306
0.265749,-0.307758,-0.617417,-0.511832,0.705069,-0.490821
0.343502,-0.136956,-0.061607,0.312226,0.201953,-0.928294
0.006809,-0.194773,-0.101381,0.366407,0.860139,-0.354834
0.300124,0.014349,0.462058,-0.389343,0.112378,0.914212
0.086064,0.578983,-0.275109,0.890736,0.086553,0.446204
0.350742,-0.199688,0.865362,0.294263,0.605535,0.739416
-0.211057,-0.157125,-0.989242,-0.113398,0.645233,0.755523
-0.124405,0.648228,-0.208225,-0.652616,-0.591973,-0.472927
-0.029064,0.331709,0.257462,-0.064463,0.416111,0.907026
-0.079950,0.058468,-0.277665,-0.588875,0.530680,-0.609595
-0.127567,0.380281,0.472187,0.973926,-0.140980,0.177743
0.045900,-0.210571,-0.100900,0.731794,0.472611,-0.491036
0.262640,-0.130024,0.751148,0.810828,0.531422,-0.245251
0.251647,0.286162,0.178116,0.122545,0.287342,0.949956
-0.303557,-0.123595,0.655285,-0.633639,0.757508,0.157111
0.200224,-0.033383,0.283127,0.377680,0.883446,-0.277273
0.283606,-0.165234,0.444449,0.647594,0.381789,-0.659439
0.264892,-0.227672,0.852085,0.827287,0.465601,-0.314343
0.251755,0.265531,0.452115,-0.035721,-0.652010,0.757369
-0.131910,-0.169646,0.450985,0.157280,0.986700,0.041051
0.354816,-0.075065,-0.055551,-0.280263,0.328876,-0.901827
-0.230629,-0.114267,0.519499,0.352664,-0.843140,0.405886
-0.195131,0.013425,0.580179,0.480110,-0.567026,0.669310
0.009813,-0.198092,0.878009,-0.329320,-0.142696,0.933373
0.792427,0.104771,-0.220947,0.163599,0.588913,0.791465
0.125528,-0.221454,0.828568,0.434386,-0.900713,-0.004899
-0.040379,-0.674489,0.207040,0.940478,0.122321,-0.317078
0.073837,-0.033803,0.829179,-0.872480,0.368336,-0.321102
0.282536,-0.196159,0.841753,-0.203529,0.338526,0.918682
0.481203,-0.334271,0.755203,0.936611,-0.251893,-0.243535
-0.074429,-0.281119,0.947041,-0.363585,0.836202,0.410575
0.056733,0.168176,-0.248093,-0.250070,0.056874,0.966556
-0.123440,-0.108678,0.828809,-0.475708,-0.721244,0.503497
0.553058,0.104603,-0.092826,-0.209592,-0.519550,-0.828335
-0.004613,-0.278094,0.345919,0.753147,0.337858,0.564467
0.435839,-0.506586,0.528905,-0.712958,0.597511,-0.366975
-0.330633,0.263556,0.825476,0.840445,-0.511026,-0.180290
0.208321,-0.387214,0.395082,-0.555365,0.201714,0.806772
0.424524,0.332549,0.517684,0.792717,0.123349,-0.596980
0.259907,-0.513645,0.441338,0.748481,0.257480,0.611130
-0.064185,-0.468938,0.781664,0.933257,-0.357383,-0.036162
0.188160,-0.222043,0.773795,0.515203,0.849466,0.113899
0.309291,0.910419,-0.398489,-0.726220,0.014057,-0.687318
-0.408654,-0.053425,0.729298,0.846340,0.272720,0.457529
0.619173,-0.368180,0.332309,-0.618911,0.125013,0.775449
0.545766,-0.117208,0.367714,-0.319425,0.492282,0.809707
-0.089926,-0.134099,-0.169117,-0.057866,0.989156,0.134989
0.053192,0.001156,0.831272,-0.200800,-0.135630,0.970198
-0.064241,-0.327927,0.776091,0.187728,0.979876,0.067837
0.241354,0.114141,0.167988,-0.130603,-0.031106,0.990947
0.243177,-0.374062,-0.087568,0.871112,0.385968,-0.303633
0.532790,-0.199479,0.209429,0.534816,0.506326,-0.676465
-0.051424,-0.220697,-0.841234,0.932803,0.359653,0.023001
0.542065,-0.439358,0.505129,-0.536253,0.445121,-0.717147
0.705239,0.233514,-0.252074,0.742639,0.582945,0.329640
0.083276,-0.634194,0.471002,0.432601,-0.722784,0.538925
0.475895,-0.138973,0.452152,0.386434,-0.844867,0.369956
-0.372620,-0.021408,0.824643,0.203874,0.976545,0.069252
-0.034425,0.124603,0.733131,0.127222,0.906655,-0.402233
0.181994,-0.325070,0.584068,-0.273455,0.896076,0.349672
0.139418,-0.234731,-0.072439,0.515915,0.274180,-0.811577
0.354708,0.134478,0.673932,0.831205,0.020709,0.555581
0.493431,-0.157335,0.366862,-0.404128,0.863349,0.302175
0.121938,-0.073005,0.896508,0.828350,-0.506728,-0.238879
0.198348,0.385744,0.194208,0.778128,0.348500,0.522556
-0.339483,-0.396752,0.610159,0.885121,-0.357529,0.297883
0.362913,0.491628,0.174635,0.454214,-0.313803,0.833797
0.171109,-0.433265,0.424450,-0.671806,0.511712,-0.535563
0.227840,0.032543,0.163395,-0.065187,-0.282974,0.956910
0.171537,0.028551,0.690949,-0.598340,0.610482,-0.518941
-0.647486,0.069476,0.869750,-0.611521,-0.499323,-0.613774
-0.815111,0.066283,0.782257,0.180668,0.432352,0.883420
0.115556,0.782349,-0.299978,0.628693,0.774941,-0.064900
0.006809,-0.324188,0.351974,0.586285,0.435100,0.683344
0.404848,-0.369146,0.785331,0.339621,0.834743,0.433430
-0.111160,-0.245488,0.596641,0.920801,0.369063,0.126170
-0.394391,-0.089182,0.821606,0.918482,-0.318247,-0.234756
0.284198,0.038215,-0.375750,-0.148966,-0.950572,0.272436
0.491928,0.104855,0.364306,-0.201747,0.296384,-0.933517
-0.075287,0.343768,0.243834,0.861286,0.197884,-0.468004
0.015227,-0.217042,0.268869,-0.536022,0.762658,0.361984
-0.603519,-0.255698,0.821865,-0.733614,0.668616,-0.121504
-0.025955,-0.058551,0.641286,-0.478044,-0.023772,0.878014
-0.083652,-0.420324,0.678172,0.607779,0.106252,-0.786966
0.467048,-0.302968,0.732761,0.962545,-0.119555,-0.243339
0.319908,-0.313893,-0.056274,-0.003739,0.087066,0.996196
0.601424,0.002332,0.372084,-0.206471,0.637951,0.741881
0.070940,0.802055,-0.497778,0.227048,0.927795,-0.296050
-0.378197,-0.048720,0.936319,0.077643,-0.779240,0.621897
-0.083760,-0.256034,0.609788,0.958093,-0.170345,-0.230306
-0.115880,-0.145066,0.160118,0.562029,0.826003,0.042934
-0.085688,0.492469,0.134657,-0.334729,-0.508198,-0.793531
-0.111533,-0.193050,-0.741204,-0.061269,-0.998117,-0.003082
0.606681,-0.335154,0.616140,-0.467585,0.592676,0.655820
0.100596,-0.668438,0.297237,0.353177,0.071215,-0.932842
-0.200171,0.109771,0.824439,-0.493363,0.647782,-0.580493
0.439753,-0.286162,0.479353,0.616486,-0.010284,-0.787299
0.327632,-0.447804,0.540627,-0.683813,-0.717089,0.134847
-0.129766,-0.272673,0.926524,-0.408450,0.907261,0.100233
-0.307953,-0.200529,0.925580,0.655187,-0.503341,0.563363
-0.262696,-0.043215,0.805551,-0.546386,-0.746672,0.379399
0.141990,-0.162125,0.400674,0.178517,0.938399,-0.295868
-0.262804,0.224900,0.671006,-0.255637,-0.609832,0.750170
0.134646,-0.058341,0.778757,-0.173685,0.867572,-0.465996
0.209074,-0.360448,0.839716,-0.554832,0.831266,0.034027
-0.325753,-0.129603,0.445837,-0.289415,0.954697,0.069223
0.337496,-0.481879,0.636971,0.490547,0.145282,-0.859219
-0.099951,0.281960,0.448800,0.735589,-0.472848,0.485102
0.064293,0.521041,-0.260888,0.920281,-0.081075,0.382767
0.618800,-0.241749,0.224909,0.631992,0.385101,-0.672521
0.530911,-0.079518,-0.616158,0.316013,0.179130,-0.931691
-0.199422,-0.398474,0.897693,-0.522055,0.594056,0.612009
-0.024990,-0.484779,0.723687,0.544747,0.831323,0.110244
-0.677194,0.051283,0.903785,-0.498935,0.470433,-0.727844
-0.402969,-0.140612,0.810662,-0.012248,0.974701,0.223176
-0.376214,0.024643,0.622806,-0.717949,0.349571,-0.601954
0.310577,-0.335028,0.660321,-0.175641,0.235471,0.955879
0.860957,-0.282422,0.624972,0.839755,0.423877,0.339321
-0.190252,0.400954,0.234686,0.545890,0.438349,-0.714040
-0.091157,0.201286,0.385434,0.533120,-0.743051,0.404547
-0.569252,-0.254270,0.804255,-0.778379,0.063547,-0.624570
-0.544052,-0.416962,0.826272,-0.673948,-0.302166,-0.674159
0.499865,-0.133427,0.592771,0.514465,0.497402,-0.698510
0.054910,-0.218513,0.293626,0.885478,-0.130413,-0.446006
-0.286826,0.170949,0.878953,0.119844,0.213650,0.969531
-0.040058,-0.214521,0.349067,0.922745,0.274454,0.270586
-0.447905,0.102964,0.853640,-0.066657,0.356654,-0.931855
-0.621320,-0.177881,0.499370,0.587376,0.548611,0.594993
-0.480402,0.068594,0.783386,-0.843422,0.507957,0.174983
-0.258137,-0.249059,-0.979316,-0.036453,0.141349,0.989289
0.488871,-0.065148,-0.173561,0.156502,0.085672,0.983955
-0.438414,-0.083132,0.879453,0.854950,-0.418122,0.306977
-0.055983,-0.300153,0.651118,0.645918,-0.713242,-0.272167
0.247520,-0.156242,0.579364,0.446673,0.745531,-0.494639
0.828301,0.071283,0.350937,0.263968,0.504919,0.821813
-0.078933,-0.161915,0.745019,-0.238823,0.796108,-0.556035
0.838918,-0.274144,0.635194,-0.105600,0.530373,0.841162
0.142848,-0.147293,0.473650,-0.639381,-0.288009,0.712911
-0.361843,-0.101199,0.953892,-0.070177,-0.272851,0.959493
-0.313742,0.071199,0.790256,0.320572,0.620902,-0.715342
-0.413213,-0.028215,0.828439,-0.145587,0.945058,0.292692
-0.474180,0.201118,0.638749,0.658866,0.500183,-0.561883
0.217223,-0.148595,0.692819,0.473573,0.859945,-0.190325
-0.492036,-0.150402,0.872732,0.848012,-0.488641,0.205195
0.662394,-0.012668,-0.205189,0.192206,0.277039,0.941439
0.255240,-0.507931,-0.092104,0.890957,0.209698,-0.402770
-0.112446,-0.199941,0.616528,0.958489,0.111078,-0.262603
0.144779,0.389777,0.242223,0.267514,0.258493,0.928234
0.515362,0.117041,0.356992,0.154862,-0.436740,0.886158
-0.027883,-0.709490,0.272406,0.718972,-0.309251,-0.622449
