0.676785,0.125359,-0.511831,0.883838,0.242555,-0.399997
-0.312861,-0.476995,0.525244,-0.135004,0.726612,0.673654
-0.089690,0.338499,0.718373,0.860117,-0.294637,0.416398
0.650661,0.016616,0.720526,0.311342,0.944394,-0.105765
0.704529,-0.045911,0.608054,0.937716,0.034569,-0.345679
0.473713,-0.272137,0.734014,0.950125,0.182676,0.252770
0.266435,0.669018,-0.054603,0.510558,0.204923,0.835067
-0.154240,-0.165132,0.697904,0.942828,-0.088586,0.321291
-0.351188,-0.211810,0.764805,0.783243,0.331328,0.526072
0.503227,-0.023313,0.888760,0.777749,0.618758,-0.110655
-0.337619,0.075820,0.525229,0.410104,-0.840592,-0.353865
-0.201782,0.365799,0.211651,-0.409685,-0.565763,-0.715591
0.415133,0.350715,0.847006,-0.790597,0.491040,-0.365835
-0.065235,0.282309,0.201491,-0.276658,0.516013,0.810673
-0.199808,0.063600,0.507939,0.452549,0.817437,0.356366
-0.148267,-0.351586,0.439805,-0.452146,0.742046,0.494906
-0.007010,0.364878,0.417688,-0.040832,-0.906195,0.420883
-0.250384,-0.400205,0.508712,-0.717185,0.302298,-0.627903
0.681495,0.221062,-0.605113,-0.126859,0.989493,-0.069359
-0.216921,0.191821,0.730181,0.663427,-0.554369,0.502533
0.645547,-0.032874,0.565468,0.937372,0.346049,0.039801
0.568995,0.170246,0.049894,0.997196,-0.069067,0.028821
0.035316,-0.382924,0.724626,0.035737,0.221425,0.974522
0.828824,0.543865,0.665404,-0.462907,0.815859,-0.346541
0.597906,0.084766,0.967500,0.922797,0.152716,-0.353727
0.123459,0.611197,0.806173,0.466372,-0.527612,0.710016
0.660179,0.526126,0.833475,0.858578,-0.043900,-0.510800
0.422728,0.423109,0.895504,0.236089,0.969240,-0.069544
0.106247,0.230367,0.814046,-0.392248,0.559663,-0.730013
0.075717,-0.027045,0.816794,0.273623,-0.961810,0.007250
-0.556792,0.264314,0.410989,-0.644143,-0.629742,0.434171
0.606664,0.232823,0.321732,0.977730,-0.208383,0.024928
-0.347443,-0.028680,0.715357,0.187461,0.902855,-0.386925
0.799712,0.047290,0.757156,-0.186255,0.956745,0.223492
0.615727,0.141411,-0.111552,-0.758765,-0.634600,-0.146825
0.155912,-0.349080,0.152043,-0.016324,0.029625,0.999428
0.690101,0.194735,-0.357991,-0.177369,-0.983568,-0.033663
-0.773130,0.366052,0.272671,-0.270608,-0.568946,0.776577
0.728984,0.194376,0.578614,0.783934,0.578191,-0.226146
-0.314026,0.485838,0.596364,-0.253459,-0.650148,0.716286
0.614714,0.198108,-0.145270,0.985496,-0.073817,-0.152799
0.296965,0.129856,0.655749,-0.202308,0.956792,0.208853
-0.318785,0.054807,0.028267,0.471429,-0.482928,-0.737926
-0.382933,0.215592,0.753442,0.307675,-0.951109,-0.026990
-0.073337,0.215645,0.498344,0.892997,0.173543,-0.415258
0.301573,0.213089,0.899975,-0.137726,-0.950113,0.279851
-0.129028,0.396729,0.627007,0.485514,0.678880,0.550816
-0.234489,0.146422,0.415579,-0.087377,0.750558,0.655003
0.274333,0.687884,0.600805,0.048055,-0.932664,0.357532
-0.480545,-0.225615,0.620442,-0.544699,0.818743,-0.181557
0.052577,0.183333,0.789789,-0.556068,0.657540,-0.508360
0.624182,0.181595,-0.761508,0.878720,-0.472817,0.065541
0.620130,0.216821,-0.126911,0.866397,0.256751,0.428294
-0.539375,0.187627,0.577143,-0.460826,0.394753,-0.794864
-0.893578,0.292638,0.295664,-0.355018,-0.833145,-0.424066
-0.225172,-0.633895,0.740015,-0.684135,0.653187,0.324510
0.632636,0.734303,0.877471,-0.880347,0.388148,0.272634
-0.361618,0.176278,0.761508,0.975628,-0.054676,-0.212508
-0.707616,-0.000615,0.401260,0.293738,-0.954565,0.050233
-0.204060,-0.016719,0.814803,-0.153597,-0.961104,-0.229538
0.531833,-0.392894,0.765102,0.826164,-0.351734,0.440154
0.391997,0.187015,0.471384,0.359311,-0.929235,0.086126
-0.056020,-0.434255,0.644208,0.066717,0.705553,0.705509
0.518619,0.124950,0.899039,0.823518,0.183659,-0.536739
-0.363796,0.123568,0.107214,-0.507126,0.620249,-0.598427
0.057744,0.228273,0.750843,0.031186,0.967051,0.252666
0.627371,0.071320,0.456204,0.693580,0.706990,0.138244
0.506469,0.198467,0.192460,-0.013509,-0.979032,0.203257
-0.471027,0.419479,0.237987,-0.464610,0.746399,-0.476472
0.563021,0.023927,0.895207,0.890437,-0.365559,0.271088
-0.676124,0.600563,0.271155,0.657056,-0.368444,0.657668
0.439032,0.236914,-0.977987,-0.206247,0.181902,0.961444
0.573855,-0.153989,0.895786,0.896551,0.074030,-0.436710
0.490165,0.510533,-0.093995,-0.196895,-0.528732,0.825636
0.159559,-0.319274,0.722843,0.297082,-0.931198,-0.211217
0.793939,0.078784,0.804316,0.997951,-0.022940,-0.059732
0.709340,0.360326,0.436017,-0.763879,0.643665,0.046736
0.677088,0.531443,0.523447,-0.498813,-0.797475,0.339439
-0.470926,0.142128,0.570087,0.329783,-0.606068,0.723827
0.720023,-0.214775,0.778025,0.876101,-0.360408,0.320239
-0.087561,0.055368,0.499354,0.244605,0.857962,0.451741
-0.321418,0.760175,0.287064,0.297025,0.530661,-0.793835
-0.057389,-0.045296,0.366665,-0.255554,-0.170409,0.951658
0.153381,0.458179,0.352925,-0.652648,-0.345618,0.674239
-0.768980,0.278424,0.357723,0.005592,-0.524135,0.851617
0.882389,0.541054,0.418327,0.786105,-0.617044,-0.035986
-0.005443,0.685429,0.859409,-0.073796,0.869542,-0.488314
0.645040,0.665439,0.845625,0.934811,-0.353693,0.032098
0.336760,0.001635,0.847229,0.930744,-0.215387,0.295506
0.073034,-0.293918,0.714852,0.017814,0.873808,0.485944
-0.176215,0.554702,0.162054,-0.135191,0.990720,-0.014026
-0.171354,0.169734,0.074195,0.771240,-0.428936,0.470323
0.695771,0.640389,0.869287,-0.689262,-0.531717,0.492133
-0.154698,0.382515,0.589026,0.082083,-0.966327,0.243872
0.133586,0.544427,0.719279,-0.055082,0.357456,0.932304
0.733388,0.306084,-0.955364,-0.013260,0.084492,0.996336
0.011163,0.565695,0.672266,-0.464643,0.665282,0.584385
0.625347,-0.194426,0.941327,0.581974,0.693994,0.423884
0.872973,0.083792,0.746045,0.788053,0.570613,0.231027
-0.042148,0.118457,0.322787,0.422324,0.580620,0.696077
0.344507,0.902862,0.813853,0.569407,-0.812755,0.123307
0.229022,-0.082925,0.338294,0.178931,-0.725729,-0.664305
0.245224,0.308334,0.778055,-0.689505,0.423067,-0.587875
0.364352,-0.135326,0.773644,-0.701747,0.146194,-0.697265
0.554514,0.009764,0.131040,0.877451,-0.234105,-0.418657
-0.101689,-0.080725,0.653387,0.549323,-0.766360,0.333071
0.619170,0.152351,-0.770762,0.916255,-0.369556,0.154611
0.224921,-0.259868,0.430551,0.117983,0.707933,0.696355
-0.221173,-0.059406,0.650298,0.106883,0.987567,0.115270
0.496648,0.401484,0.844273,0.383711,0.888897,0.250256
-0.147000,-0.673415,0.628700,-0.296946,-0.146514,0.943587
0.637751,0.553220,0.529982,-0.342982,-0.921091,0.184270
0.639926,-0.207207,0.792300,0.458505,-0.694961,0.553898
0.109588,-0.498058,0.820997,0.871186,-0.451566,-0.192674
-0.283851,0.558537,0.761582,0.021406,0.208792,0.977726
0.322583,0.605368,0.691205,-0.160936,-0.078295,-0.983854
0.041138,0.532516,0.831781,0.760304,0.300784,0.575731
-0.148267,0.528784,0.162456,0.479778,0.868586,-0.123979
0.334128,-0.042125,-0.133030,-0.566875,0.782098,0.258794
0.609701,0.221574,0.014081,-0.801877,0.596121,0.040415
-0.252309,0.151430,0.665761,0.416742,0.644090,-0.641463
0.510418,-0.417127,0.757839,-0.712953,0.547138,-0.438563
-0.089081,0.722955,0.281271,0.489200,-0.395958,-0.777110
0.619423,0.236914,-0.331001,-0.047012,-0.978570,0.200475
-0.494924,0.140899,0.521694,0.641826,-0.328660,-0.692851
0.393616,0.249539,-0.405582,0.160025,0.943092,-0.291497
0.411134,0.638956,0.875540,-0.741414,0.325813,-0.586644
0.583679,0.067588,-0.013354,0.973063,-0.169353,0.156420
0.516950,0.359917,-0.971080,-0.208478,0.140663,0.967859
-0.487532,0.054345,0.397591,-0.412417,0.906813,0.087196
-0.087969,-0.024130,0.810986,0.647874,0.747462,0.146833
-0.113333,-0.435993,0.562096,0.091861,0.179503,0.979459
0.299700,0.155009,0.470077,0.598386,-0.779125,0.186810
0.313875,-0.189418,0.401735,-0.818964,0.006301,-0.573811
-0.218237,-0.855163,0.240750,-0.277232,0.510012,0.814267
0.049085,0.028527,0.618451,0.901410,-0.087609,0.424010
-0.496849,-0.200614,0.643688,0.010000,0.939721,0.341796
-0.695923,0.181645,0.337804,0.207777,-0.973712,-0.093352
0.025088,0.194170,0.743639,0.312767,-0.949050,0.038484
0.191656,0.613906,0.804509,-0.331777,0.744351,-0.579538
0.165683,0.786196,0.739331,0.981403,0.087332,-0.170942
0.565552,-0.075152,0.874634,0.830514,0.188924,0.523979
0.579121,0.226788,-0.430729,-0.794413,-0.607374,-0.002079
-0.356908,0.244939,0.164713,-0.545405,0.781846,0.302076
-0.093992,0.271881,0.800633,-0.344909,0.162919,-0.924389
0.092425,-0.274643,-0.138140,-0.107819,0.494898,0.862236
-0.018858,0.613344,0.823805,0.103738,-0.862008,0.496166
0.782296,0.681085,0.603716,0.909486,0.400659,-0.110935
0.570768,-0.132873,0.882492,0.929062,0.352086,-0.113487
0.056477,0.023057,0.623353,0.961317,0.238104,-0.138479
-0.086702,-0.062935,0.844838,-0.664610,0.117917,-0.737828
0.615777,-0.301278,0.691086,-0.577080,0.720930,0.383717
0.359492,0.206952,0.731414,0.940889,0.304271,0.148818
-0.306279,0.128682,0.187737,-0.242127,0.615944,-0.749658
0.114044,-0.167688,-0.133951,-0.107819,0.494898,0.862236
0.545352,0.184560,0.519659,0.628269,-0.772017,-0.096269
0.213581,0.053733,-0.263773,-0.138465,0.886671,0.441183
-0.617902,-0.202505,0.585729,0.940109,-0.159130,-0.301450
0.020227,0.366258,0.828097,-0.365858,-0.035106,-0.930008
-0.239247,0.417638,0.566032,0.437669,0.889920,0.128407
0.195911,0.387168,0.338547,0.380626,0.444943,-0.810648
-0.192466,0.379039,0.293926,-0.150598,0.147882,-0.977472
0.500443,0.375051,0.940243,0.937709,0.325082,-0.122567
0.533807,0.417127,0.916135,-0.460706,-0.209998,0.862352
0.286585,0.597087,0.590734,-0.348599,-0.861675,0.368775
0.585654,0.131494,0.380048,0.878461,0.471256,0.078896
-0.448194,-0.881187,0.279548,-0.168008,-0.944254,-0.283120
0.623928,0.170246,-0.541197,0.977564,-0.005387,0.210568
0.867504,-0.021013,-0.946928,-0.169300,0.065454,0.983389
0.779004,0.169120,0.759740,0.859326,0.508889,0.050906
0.202289,0.208437,0.532983,0.786707,0.439000,-0.434018
0.398427,0.579550,0.859409,-0.754065,0.619261,-0.218867
0.297419,0.055010,0.878288,0.775643,0.119082,0.619836
0.586361,0.278375,0.348053,0.923668,-0.291851,0.248316
0.493660,0.128835,0.539117,0.906865,-0.178738,0.381639
-0.012884,-0.259509,0.637063,-0.347605,0.872358,0.343748
-0.904715,0.258179,0.331179,0.584463,0.787808,-0.194323
0.227755,-0.389162,0.745124,-0.541000,-0.423950,-0.726350
0.395742,0.134917,-0.977749,0.167208,-0.004144,-0.985913
0.367541,0.354347,0.132436,-0.635114,0.233826,0.736177
0.249930,-0.258332,0.427714,-0.012532,0.820205,0.571933
-0.168619,0.762933,0.625195,-0.207481,-0.965482,0.157471
0.463636,0.827251,0.814432,0.539044,0.840688,0.051727
0.426678,0.383077,0.718417,0.165182,0.838757,-0.518847
0.653192,0.026636,0.883814,-0.557389,0.508152,-0.656582
0.166595,0.065029,0.581257,-0.718845,0.637903,-0.276300
0.523328,0.331799,0.857315,0.704664,0.706316,-0.067576
0.026048,-0.391205,0.137323,-0.041382,-0.166576,0.985160
-0.056020,-0.177557,0.602855,-0.676079,0.419304,0.605889
-0.509960,-0.476330,0.396001,0.098802,-0.339847,0.935277
-0.886792,0.370960,0.273161,0.888086,-0.445430,0.113561
-0.271802,0.534457,0.478039,-0.349022,-0.765581,0.540434
-0.373261,-0.210940,0.559838,-0.661364,0.749770,-0.021026
-0.162188,0.764572,0.635221,-0.347479,-0.900090,0.262863
0.542719,0.894939,0.067837,-0.164272,0.595168,-0.786632
0.569097,0.145143,0.158534,-0.723042,-0.673950,-0.151661
0.135356,0.556444,0.728547,-0.119689,-0.632357,0.765376
0.042504,-0.249130,-0.144468,-0.062239,0.445201,0.893265
0.558769,-0.064674,0.885522,0.910733,0.377943,-0.166507
0.677292,-0.020195,0.561814,-0.243019,0.958286,0.150434
0.393162,0.293967,0.750397,0.798541,-0.433156,0.417981
-0.193427,-0.267996,0.563463,-0.475837,-0.756858,0.448047
0.495736,0.426226,0.892771,0.920357,-0.111757,-0.374772
-0.540590,-0.177813,0.586753,-0.542450,-0.839388,0.034289
0.564084,-0.371113,0.712134,-0.620111,0.686618,0.379497
0.118750,-0.547903,0.234229,-0.522681,0.708320,-0.474434
0.505303,0.368405,-0.207240,0.784853,0.619447,-0.017067
0.604791,0.283333,-0.071150,0.857473,-0.389820,0.335829
0.061388,-0.558231,0.623784,-0.283940,0.737561,0.612684
0.707415,-0.113854,0.696508,0.978949,-0.204100,0.001553
0.142090,-0.491770,0.616164,0.820113,-0.443417,-0.361656
0.452246,0.405725,0.870356,0.497412,0.285480,-0.819196
0.679974,-0.256903,0.702613,0.794325,-0.522723,-0.309528
-0.382071,0.191565,0.354530,0.969310,-0.013347,0.245479
0.158496,0.446574,0.702910,-0.506451,-0.736158,0.448976
0.218389,0.237628,0.744679,0.994920,-0.055912,0.083709
0.243299,0.169937,0.283692,-0.272219,0.956890,-0.101282
-0.045844,0.394632,0.842728,-0.779470,0.358426,-0.513768
0.080627,0.288344,0.113215,-0.754320,0.073200,-0.652413
0.745133,0.064059,0.866851,0.674258,0.147655,0.723584
0.257881,-0.442895,0.169244,0.607125,-0.608588,-0.510902
0.701896,-0.187883,0.683125,-0.943150,0.322427,-0.080680
0.455889,0.057668,0.913180,0.963028,0.267668,-0.030505
0.315092,0.145295,0.450292,0.940065,-0.007984,0.340902
-0.631926,0.286862,0.353624,0.005378,-0.448030,0.894002
-0.240867,0.435584,0.483653,0.969878,0.011106,-0.243339
-0.730956,-0.013702,0.413113,0.380594,-0.837627,0.391829
0.384859,0.404295,-0.987033,0.272223,-0.044863,-0.961188
-0.191251,0.302096,0.124534,-0.441913,0.885547,0.143245
-0.007263,0.077966,0.447069,0.111490,0.887218,0.447676
0.553352,0.044631,-0.965732,-0.241320,-0.023205,0.970168
-0.441510,0.209560,0.518887,0.528347,0.029459,-0.848517
0.410173,0.221574,0.892890,0.998754,0.047578,0.015028
-0.305216,-0.229191,0.754630,-0.598234,-0.251804,-0.760730
0.555376,0.189212,0.295204,0.951690,0.296645,-0.079292
0.265625,0.421626,-0.995574,-0.336711,0.164395,0.927146
0.791711,0.282924,0.650461,0.897974,-0.235603,0.371664
-0.372452,0.047290,0.762399,-0.563811,-0.354099,-0.746145
0.107156,-0.505572,0.826107,0.735940,-0.410480,-0.538422
-0.334075,-0.131238,0.614129,-0.236230,0.970099,-0.055706
0.421412,0.073570,-0.976888,-0.147007,0.102556,0.983804
-0.078853,-0.615132,0.563968,0.883577,0.444030,0.148758
0.380301,-0.113243,-0.130000,-0.437494,0.857954,0.269285
-0.038857,0.008079,0.795211,0.755717,0.271043,0.596178
0.573855,-0.328373,0.694517,-0.500334,0.686139,0.528090
-0.191251,-0.270349,0.543811,-0.685521,0.706254,-0.176826
-0.295800,0.279295,0.064614,0.766481,0.641902,-0.021672
0.673596,-0.010531,0.467255,0.782402,0.619369,0.065024
-0.416601,-0.323262,0.564384,0.763751,0.188223,0.617459
-0.470014,0.215236,0.423035,0.823483,0.448479,0.347480
-0.228667,-0.877352,0.248073,0.510784,-0.646502,-0.566687
0.613752,0.264723,0.867148,0.617791,0.708665,0.340777
0.434270,0.155674,0.604251,-0.507279,-0.725002,-0.465876
0.718654,0.326432,0.649956,0.559876,0.787383,0.258005
0.382631,0.414059,0.890647,0.106734,-0.772304,0.626222
0.631524,0.091256,-0.959523,0.211649,0.290053,-0.933313
0.561096,0.563190,0.855547,-0.134670,0.497171,-0.857138
0.514772,0.016257,0.718477,-0.389883,-0.920862,0.002109
-0.367897,0.235482,0.341666,-0.320810,0.735285,0.597023
0.057287,0.416259,0.742569,0.037589,0.998970,0.025400
0.611018,0.218304,0.412949,-0.210421,0.921921,-0.325247
-0.174391,0.510174,0.460467,-0.011515,-0.894985,0.445948
0.528239,0.439725,0.912749,-0.593345,-0.441972,0.672757
-0.378020,0.501686,0.587734,-0.438902,-0.857333,0.268969
-0.132520,-0.554908,0.287331,0.651220,0.705505,-0.279600
0.619117,0.204908,-0.864489,0.973676,0.169131,0.152803
0.625952,0.277710,0.880189,0.612290,0.700175,0.367228
0.616892,0.039008,0.481871,0.816448,0.559577,0.142431
-0.027668,0.656799,-0.021092,-0.100856,-0.724406,0.681956
0.015823,-0.577098,0.639811,0.978602,0.072662,-0.192508
0.715211,-0.311248,0.902960,0.585505,0.808595,-0.057945
-0.206439,-0.615900,0.582357,0.989532,0.126948,0.068637
0.186239,0.311963,0.074804,-0.654168,-0.181094,-0.734350
0.887654,0.019786,-0.945308,-0.099499,0.101533,0.989844
0.628737,0.152251,0.126985,-0.641735,0.753891,0.140803
-0.114903,-0.203067,0.727032,0.687009,0.096115,0.720264
-0.013391,0.503528,0.164505,-0.609430,0.013822,-0.792720
0.104776,0.338599,0.671999,-0.383444,0.475998,-0.791452
-0.491935,-0.205420,0.572152,0.069011,0.823689,-0.562826
0.206847,-0.350203,0.151167,-0.158646,-0.006733,0.987313
-0.131407,-0.696831,0.578762,0.565977,0.765979,-0.304870
0.682051,-0.264876,0.698944,0.805406,-0.530169,-0.265031
0.775108,0.219836,0.745510,0.915048,0.389190,0.105918
-0.546668,0.404704,0.342736,-0.522773,-0.592563,-0.612844
0.602866,0.140234,0.198298,0.591104,0.799548,-0.106394
-0.419790,0.106952,0.558561,0.415481,-0.748146,0.517353
0.369973,-0.133794,0.378667,-0.869022,0.043140,-0.492889
-0.341114,-0.743253,0.246261,0.812089,-0.567310,-0.136644
-0.220363,-0.903118,0.282771,-0.146538,0.798898,0.583343
0.136166,0.323212,0.606598,0.458658,0.888432,0.017959
-0.140570,0.747649,0.257624,-0.553029,0.788302,0.269702
0.864314,-0.039570,0.841525,0.694985,0.594137,0.404966
-0.421968,-0.354756,0.385277,0.136926,0.069074,0.988170
0.744373,0.214469,0.380880,-0.537395,-0.843271,-0.010060
0.528644,0.054754,0.674509,0.805258,0.589563,-0.063050
-0.736119,0.593149,0.284613,0.137149,-0.630539,0.763944
0.249578,-0.281698,0.428843,-0.010233,0.817148,0.576338
0.461309,0.053222,0.854047,-0.710702,0.507672,0.487002
0.699974,0.187015,0.861533,-0.645828,0.733036,-0.213459
0.165331,0.148210,-0.276859,-0.082040,0.583661,0.807842
0.139105,0.200152,0.636439,0.879299,-0.394037,0.267521
0.584841,-0.114416,0.673588,0.803643,0.186738,-0.565054
0.256209,0.322035,0.231941,0.382651,0.753829,0.534154
0.455941,0.193609,0.552768,0.903229,-0.193081,0.383272
0.324863,0.075511,0.576103,0.404130,0.750563,0.522814
-0.025591,-0.004500,0.504761,0.642796,0.621602,0.447689
-0.551730,0.149539,0.582817,0.405277,-0.330093,0.852519
0.432450,0.271216,-0.007115,0.102690,-0.960335,0.259251
0.100373,-0.564213,0.638281,0.409390,0.409347,0.815374
0.568034,0.192127,0.166496,0.732678,0.548238,0.403260
-0.762905,0.185633,0.343672,0.149775,0.921521,0.358283
0.520544,0.335122,0.647787,0.593965,-0.784255,0.179305
-0.633749,0.134611,0.377063,0.138109,-0.153554,0.978441
0.079363,0.542177,0.681015,-0.104299,0.834075,0.541702
0.762451,-0.143099,0.742748,0.964315,0.259996,-0.049987
0.067970,0.296523,0.832553,-0.662834,-0.142423,-0.735096
0.396097,0.373007,0.141274,0.467412,-0.297213,-0.832581
-0.135406,-0.474898,0.562185,-0.166376,0.371175,-0.913536
0.525658,0.214316,0.217415,-0.117398,-0.992795,-0.023996
0.662660,-0.134561,0.974986,0.913171,-0.198460,-0.355993
-0.723008,0.114213,0.373067,-0.304258,-0.032878,0.952022
-0.800926,0.174181,0.291431,0.620408,0.331383,0.710830
0.102650,0.038702,0.472662,0.231438,0.850204,0.472853
0.418374,0.102455,0.823329,0.867440,0.369477,0.333218
0.009189,-0.317945,0.141081,-0.176505,0.048048,-0.983126
0.105336,-0.305878,0.821027,0.129358,0.972986,-0.191220
-0.342934,0.135173,0.139700,0.814969,0.273228,-0.511051
0.630106,0.195912,-0.537602,0.913988,-0.405627,0.009637
0.313977,0.290850,0.833162,-0.736983,0.143082,-0.660594
0.027111,0.237575,0.804703,-0.052727,-0.869321,0.491428
-0.488595,0.062882,0.406354,0.617753,-0.782233,0.080578
0.843456,0.182157,-0.952171,0.130600,0.113561,0.984910
0.516796,0.297596,0.536964,0.923844,-0.250244,0.289640
-0.099968,0.401228,0.712758,0.776836,0.627113,0.057056
0.594816,-0.082363,0.918631,0.816552,0.537141,-0.211477
-0.746246,0.533028,0.212201,-0.327039,-0.944102,-0.041424
-0.144216,-0.161197,0.880457,0.904230,0.025775,0.426267
-0.187555,0.205622,0.820388,0.309497,-0.162352,0.936938
0.257930,0.282668,0.448153,0.939938,0.059123,0.336185
-0.383236,-0.304549,0.385678,0.357505,0.053640,0.932370
0.463030,0.182004,-0.414405,0.202780,0.977233,-0.062412
0.594665,-0.117128,0.862335,0.965654,-0.253393,0.057480
0.318584,0.709509,0.844511,-0.139027,0.227532,0.963795
0.368403,0.663292,0.558219,-0.149287,-0.951037,0.270631
0.634562,0.302096,0.924632,-0.756895,0.115660,-0.643220
0.440905,0.205725,-0.975833,-0.137193,0.268338,0.953506
-0.135913,-0.426635,0.475707,0.580876,-0.789542,-0.198005
-0.234538,0.411607,0.628166,0.318289,0.943950,-0.087462
0.105994,0.284303,0.722309,-0.120155,0.783636,0.609489
-0.076829,-0.659511,0.583292,0.786436,0.177941,0.591486
0.435083,0.344683,-0.978106,-0.120471,0.109813,0.986624
-0.912715,0.278222,0.324332,0.862283,0.484196,-0.148401
0.214137,0.789825,0.835509,0.770416,0.597139,-0.223347
-0.007974,0.482668,0.161342,0.686740,0.045853,0.725456
-0.262587,0.125050,0.353921,-0.457582,0.219214,-0.861721
0.232971,0.327352,0.836505,-0.674562,-0.217140,0.705561
0.631524,-0.267996,0.835896,-0.840595,-0.042706,-0.539978
0.476497,0.342178,0.642990,0.593965,-0.784255,0.179305
0.032986,0.391717,0.255841,0.619541,0.769105,0.156991
-0.147609,0.202608,0.647773,-0.091573,-0.900607,0.424877
-0.055464,-0.092792,0.556778,0.058376,0.971126,0.231316
-0.115913,0.546932,0.747946,-0.584770,0.686460,-0.432222
0.568590,0.498978,0.965019,0.374316,-0.841476,0.389623
0.335799,-0.494326,0.777104,0.852563,0.090064,0.514805
-0.332963,-0.144222,0.575390,-0.758683,0.646473,-0.080450
0.652534,0.190850,0.477370,0.321477,0.945512,0.051579
-0.027062,-0.083281,0.492566,-0.836477,0.330986,-0.436755
0.303192,-0.082925,0.905500,0.324770,-0.060095,0.943882
-0.286382,0.741923,0.634270,0.083737,-0.843208,0.531026
-0.042352,-0.742638,0.599275,0.662806,0.607514,0.437739
0.674811,-0.020142,0.575583,0.805206,-0.586542,-0.087246
0.973622,0.531596,0.479776,0.912402,-0.398188,0.094701
0.642865,0.116513,0.830489,0.305805,0.943227,0.129638
0.371491,0.223671,0.145790,-0.447353,-0.159994,0.879930
0.456043,0.463652,0.624527,0.944049,0.075988,0.320932
0.181684,0.360073,-0.061183,0.926916,0.269985,0.260643
0.328102,0.390541,0.877961,0.080045,0.840532,-0.535816
0.819155,0.005420,0.806158,0.348559,0.909358,-0.227102
0.491280,0.298108,0.927484,0.926363,0.138250,-0.350341
-0.126951,0.398417,0.621140,0.485514,0.678880,0.550816
0.594967,0.151995,-0.159693,0.981832,0.189187,0.014650
0.404855,0.153527,-0.974377,-0.285805,0.053975,0.956767
0.559174,0.501686,0.964544,0.121428,-0.882369,0.454621
0.538720,-0.012575,0.908798,0.842087,0.535508,0.064197
0.059870,-0.305213,0.786893,-0.112556,-0.965044,0.236686
-0.205274,0.180216,0.815843,-0.290989,-0.145558,-0.945589
-0.703515,0.292126,0.356253,0.108378,0.641843,-0.759139
0.522061,-0.118098,0.065802,0.904260,0.019249,0.426547
-0.369565,0.462831,0.764018,0.462136,-0.206368,0.862463
0.060578,-0.174743,-0.154316,-0.059106,0.434728,0.898620
0.580388,0.171473,-0.166941,0.993278,0.091773,0.070546
0.285674,0.809508,0.062178,-0.576675,-0.624228,0.527053
-0.185479,-0.010531,0.847006,0.403564,0.857285,0.319685
0.346834,0.134458,0.441959,0.997161,0.059658,0.045934
0.056428,0.608642,0.820864,-0.060977,0.839367,-0.540134
0.530062,0.372137,-0.103516,0.920012,0.362219,-0.149586
-0.312660,-0.345142,0.708688,-0.583745,0.018322,-0.811730
0.069589,-0.034100,0.769351,-0.553609,0.357017,-0.752367
-0.019213,0.636504,0.830207,0.128747,-0.819451,0.558502
0.081996,-0.000868,0.782065,0.438282,-0.888895,0.133322
0.065287,-0.136811,0.360337,0.325037,-0.084952,0.941878
0.130650,-0.428067,0.493709,-0.099205,0.822857,0.559522
-0.411539,0.423261,0.556169,-0.010755,0.834888,0.550314
-0.168112,-0.371113,0.458654,-0.008906,0.999203,0.038912
0.335342,0.240799,-0.404379,-0.330671,-0.882852,0.333509
-0.703160,0.499234,0.273265,0.002802,-0.251137,0.967947
-0.039769,0.391052,0.292738,-0.528215,-0.725111,-0.441817
0.662710,-0.015543,0.035827,0.895328,-0.440094,-0.068596
0.767006,0.124130,0.802088,0.882228,0.312140,0.352481
0.479130,0.240799,0.213404,0.452598,0.891515,0.018859
0.059617,0.055266,0.565557,0.420054,0.730588,-0.538327
-0.191251,-0.396984,0.706980,0.667448,0.668642,-0.327767
0.578009,0.208078,-0.020974,-0.205111,0.975139,0.083864
0.437966,0.479500,0.534245,0.926749,0.056608,-0.371391
0.300510,0.216462,0.928583,0.902462,-0.335003,0.270805
-0.031768,-0.147648,0.807391,-0.745988,0.251755,-0.616540
-0.231958,0.592843,0.706727,0.891063,-0.445596,0.086325
-0.864769,0.460890,0.293867,0.001645,0.101297,0.994855
-0.302178,-0.733283,0.241641,0.911747,-0.006541,-0.410700
0.465508,0.418762,0.855963,0.209614,0.975785,0.062492
0.485913,0.449285,0.950893,-0.255639,0.966556,0.020448
0.644382,0.195553,0.469008,0.248503,0.964662,-0.087599
0.228213,0.060071,0.708599,0.001122,0.943306,0.331923
-0.391033,0.184151,0.348662,-0.400858,-0.600112,-0.692227
-0.102752,-0.471525,0.573608,-0.311007,-0.518552,-0.796479
-0.701846,-0.098109,0.389035,-0.507114,0.065284,-0.859403
-0.434372,-0.132514,0.576623,0.574837,0.312539,-0.756229
-0.106853,-0.097803,0.845640,0.895280,-0.209244,0.393308
0.076526,0.431287,0.866762,-0.544654,-0.832838,0.098652
-0.333417,-0.393814,0.546024,-0.648870,0.354931,-0.673047
0.202947,0.293253,0.791631,0.431526,-0.720779,0.542460
-0.141432,0.549488,0.536577,0.518086,0.842499,-0.147591
-0.066400,-0.061706,0.774847,0.049930,0.997789,0.043875
-0.096371,-0.626328,0.261619,0.905829,0.398959,-0.142495
-0.393261,0.325461,0.403235,0.803559,0.248017,0.541092
-0.024377,-0.039929,-0.019325,0.321743,-0.337256,-0.884726
-0.145230,0.436451,-0.116453,0.508156,-0.205988,0.836269
-0.255143,0.198058,0.813882,-0.376443,0.078396,-0.923117
0.086350,-0.173825,0.780342,0.321681,-0.710994,0.625307
0.592640,-0.351892,0.701974,-0.618560,0.704175,0.348599
0.147559,0.459049,0.703964,-0.444786,-0.553369,0.704236
0.528390,0.388547,0.860627,0.778628,0.539328,0.320722
0.009593,0.190492,-0.137887,-0.801073,0.598527,0.006803
0.711009,-0.238905,0.939025,-0.518807,0.112253,0.847489
0.197682,0.136655,0.553629,-0.822190,0.221897,-0.524181
0.646561,0.221115,-0.939441,0.743735,-0.666669,-0.049105
0.083664,-0.606339,0.656997,0.653461,0.729648,0.201503
-0.317064,0.080725,0.094366,-0.337553,0.574175,-0.745909
0.265424,0.299132,0.446400,-0.569579,-0.821319,0.031849
0.637346,0.230267,-0.459219,-0.838927,0.421186,-0.344680
0.409564,0.073005,-0.972164,-0.147794,0.142213,0.978740
-0.264207,-0.629907,0.223044,-0.680949,0.671673,0.291830
0.033088,-0.061862,0.360560,0.163157,-0.318766,0.933685
0.725489,-0.315798,0.750813,0.982776,-0.104946,-0.152113
0.614006,0.236093,0.117285,0.879797,-0.475309,0.006181
-0.147711,-0.038958,0.864296,-0.662752,-0.615572,-0.426416
0.857380,0.090236,-0.949824,0.013772,0.045732,0.998859
0.339594,0.697495,0.602974,-0.180018,-0.850827,0.493646
0.298736,0.775665,0.794647,0.674365,-0.716397,0.178904
0.387995,0.293100,0.767286,0.229543,-0.730000,0.643747
-0.390325,-0.117433,0.783774,0.850337,-0.200672,0.486476
0.592387,0.501228,0.793161,-0.608957,0.739743,-0.286273
0.633143,0.552353,-0.007115,-0.170465,-0.636458,0.752238
-0.116321,0.149184,0.344236,0.367776,0.709247,0.601423
0.466674,0.329396,0.891419,0.799082,-0.482789,-0.358306
0.001241,0.359355,0.676173,-0.222324,-0.819210,0.528647
0.340861,0.901585,0.764791,0.608487,0.730468,-0.310096
-0.287800,0.333384,0.052345,-0.271520,-0.945170,0.181469
-0.444699,0.301022,0.544153,0.955197,-0.073873,-0.286605
-0.021744,-0.080828,0.839475,-0.085198,-0.637480,0.765742
-0.549048,-0.155930,0.602454,0.758930,0.474320,-0.446145
0.634914,0.208743,-0.014601,0.665069,-0.744937,0.052461
0.522265,0.356544,0.917057,-0.696446,-0.409913,-0.589011
0.762145,0.171778,0.697087,0.980427,0.079235,-0.180236
-0.418625,-0.235482,0.805876,0.938160,0.218169,0.268809
0.737084,0.306134,0.814818,0.961459,-0.256890,0.097998
-0.218237,-0.538701,0.728102,0.821858,-0.251110,0.511364
0.340558,0.192127,0.844288,0.314161,0.946341,0.075770
0.843100,0.035226,0.730686,0.855015,-0.515623,-0.055517
0.463382,0.326176,0.636855,0.554221,-0.823930,0.118231
0.790447,0.069376,-0.949185,0.160492,0.176173,-0.971188
-0.195707,0.273416,0.147260,-0.310255,0.825588,0.471325
0.477610,0.185124,-0.977586,0.221351,-0.176344,-0.959118
-0.165380,0.116566,0.422203,-0.004761,0.861766,0.507283
0.557756,-0.056136,0.879625,0.896722,0.418864,-0.142976
0.607878,0.265082,-0.409414,0.731877,0.651641,-0.199299
-0.095765,0.728375,0.288460,0.421680,-0.474907,-0.772431
0.752476,0.271625,0.566419,0.912875,0.193073,0.359696
-0.613345,0.265288,0.274438,0.234498,0.246896,0.940241
0.545250,0.212678,0.135006,0.600699,0.788600,-0.131418
0.023518,-0.155880,0.737371,-0.511742,0.643594,0.569129
-0.367693,-0.530469,0.274319,-0.419062,-0.086546,-0.903823
-0.134445,0.344786,0.499785,-0.416486,0.855088,0.308812
0.171406,0.358435,0.886072,0.457740,-0.435683,-0.775019
0.878644,-0.031185,-0.943036,-0.153851,0.053999,0.986617
-0.087462,-0.412936,0.710886,0.930040,-0.334202,0.152754
0.613548,0.191718,0.396907,-0.471283,-0.782953,0.406050
-0.360505,0.275510,0.226743,-0.451710,-0.142782,-0.880666
0.747059,0.036094,-0.952795,-0.054082,0.016315,0.998403
-0.304913,0.176790,0.546678,-0.378336,0.621300,-0.686184
0.030860,0.272802,0.128351,0.680073,0.058488,0.730807
-0.614256,-0.017793,0.588729,0.835093,-0.506899,0.213712
-0.166137,0.680420,0.573147,0.025148,-0.573631,0.818728
-0.211198,-0.601533,0.250613,0.796261,-0.483039,-0.364200
-0.009139,0.366616,0.308498,0.439388,0.123949,-0.889705
0.408551,0.224591,-0.977794,-0.186116,0.225398,0.956324
0.482319,0.527302,0.648129,0.562648,0.755583,-0.335441
0.468092,0.259612,-0.443266,-0.166549,-0.960004,0.225063
0.217780,0.471624,0.359773,-0.766136,-0.356091,0.535009
-0.238438,-0.416974,0.232298,0.253509,0.085824,-0.963518
-0.172367,0.303937,0.718878,-0.513481,0.496172,-0.700108
0.790701,0.154959,-0.951250,0.110775,0.001309,0.993845
-0.089789,-0.004091,0.753205,-0.724884,0.600074,0.338310
0.342026,0.158741,0.877278,0.760869,0.386964,0.520900
0.533860,0.301993,0.577351,0.294161,-0.931171,0.215381
0.024884,0.133335,0.643940,0.793235,-0.125606,0.595820
0.191353,0.364928,0.355020,0.592205,0.368186,-0.716751
0.005595,0.156136,0.041041,-0.085575,-0.937338,-0.337750
0.740375,-0.207311,0.758017,0.810756,-0.584971,-0.021992
0.742553,0.217689,0.794290,0.975743,-0.178444,0.126817
-0.263295,0.546982,0.756933,0.067565,0.185727,0.980276
0.603221,0.193047,-0.966698,-0.493352,0.334923,0.802765
-0.138950,0.638956,0.723646,0.264816,0.958276,-0.107607
0.723363,0.389161,0.533503,0.879611,0.295978,0.372399
0.691315,0.567842,0.745080,-0.291590,-0.561009,0.774754
0.444347,0.453426,0.793874,0.022481,-0.607179,0.794247
0.054858,0.622699,0.830905,0.188998,-0.822705,0.536131
0.365264,0.458896,0.853527,0.344721,-0.205829,-0.915861
0.700379,0.195912,0.868054,0.889689,-0.389016,0.239000
0.071313,0.020348,-0.013324,0.476676,-0.434906,-0.763961
0.272309,-0.448465,0.174368,0.707539,-0.616277,-0.345820
0.726200,0.292382,0.386109,-0.656172,-0.740307,0.146233
0.492041,0.136299,0.300625,-0.150971,-0.014319,-0.988434
0.080880,0.660584,0.837782,0.441434,-0.695376,0.567088
-0.811609,0.639980,0.286321,-0.053211,0.297247,-0.953317
0.040276,0.513291,0.721997,-0.345201,-0.936732,0.058050
0.381870,0.434866,0.896796,-0.056000,0.758095,-0.649735
0.861326,0.225562,-0.952854,0.112849,0.106819,0.987854
0.370885,0.573365,0.818353,0.544812,0.601250,-0.584532
-0.398072,-0.074487,0.508400,-0.324933,0.595855,0.734421
0.459687,0.435584,0.793325,-0.023931,-0.605012,0.795857
-0.152568,0.529602,0.294431,0.913581,0.365222,0.178840
0.039314,-0.247086,0.622625,-0.269720,0.907829,0.321088
0.625347,0.551482,0.840931,0.110919,-0.469674,0.875844
0.044932,-0.040441,0.781456,-0.636091,0.416688,-0.649430
0.027315,0.059101,0.670425,0.962867,-0.165996,-0.212915
-0.159710,0.392435,0.567087,0.011591,0.928202,0.371896
-0.381311,0.471525,0.469008,0.624615,0.761516,-0.173062
0.067769,-0.640847,0.654932,-0.768285,0.628338,-0.122184
0.399895,0.145501,0.658170,0.227678,-0.933009,0.278669
0.031265,0.602966,0.819556,-0.145888,-0.842611,0.518385
-0.543730,0.363240,0.247776,0.465962,0.776928,0.423393
-0.005542,-0.001788,0.507999,0.753053,0.445478,0.484211
-0.593095,0.037064,0.386762,-0.228624,0.584028,0.778873
0.537302,0.135838,0.895533,0.716246,0.338617,-0.610188
0.004835,-0.597290,0.210790,0.208246,0.419518,0.883537
-0.051564,-0.197903,0.812159,0.859334,-0.045933,0.509348
-0.649697,-0.005520,0.389124,0.271421,-0.882009,-0.385215
0.261070,0.165185,0.511920,0.910784,0.170004,0.376259
0.290436,0.237422,-0.986216,-0.348559,0.038539,0.936494
0.446980,0.128068,-0.974778,-0.289481,0.018585,0.957003
-0.131661,-0.109561,0.650862,-0.298736,0.954295,-0.008786
0.718555,-0.118098,0.675742,0.940200,-0.308506,-0.144388
-0.092524,-0.414009,0.692289,0.923536,-0.376778,0.071545
0.535630,0.568404,0.719695,0.962765,-0.242831,0.118815
0.767664,0.232873,0.566136,0.954965,-0.258243,0.146122
-0.152977,-0.164723,0.882908,0.904230,0.025775,0.426267
-0.432447,0.003220,0.554357,0.941581,0.318341,0.109932
0.297624,0.714879,0.729944,-0.286016,0.920721,-0.265456
-0.200973,0.421676,0.634686,0.492589,0.788951,0.367304
-0.186897,0.689928,0.580470,-0.207974,-0.504528,0.837973
-0.244714,0.487167,0.469661,-0.178322,-0.775173,0.606059
-0.204415,-0.468457,0.285415,0.424447,0.611752,-0.667535
0.194898,0.236146,-0.194792,-0.648818,0.142298,-0.747521
0.397667,0.182771,-0.240052,0.062557,-0.945881,0.318428
0.619979,-0.145448,0.959850,0.888058,-0.271122,-0.371277
0.274182,0.323262,-0.988845,0.393891,-0.184687,-0.900412
0.471383,0.372545,0.756562,-0.112693,0.971106,0.210366
-0.355289,0.400308,0.682367,-0.456243,-0.856672,-0.240738
0.525050,0.284459,-0.975031,-0.169177,0.001197,0.985585
0.383592,-0.245757,0.919032,0.529199,0.184408,0.828216
0.701948,0.183998,-0.547079,0.973838,-0.198851,0.109988
0.243552,0.361043,-0.237660,-0.205706,0.783491,-0.586368
-0.702705,-0.007873,0.398809,0.506127,-0.798683,0.325486
0.594006,-0.267996,0.667974,0.578830,-0.726666,-0.370017
-0.242334,0.585635,0.118266,0.865299,-0.496184,-0.071121
0.567326,0.335225,0.936901,0.405539,0.868991,0.283537
0.537809,-0.007514,0.927514,0.888329,0.459043,0.012317
0.667014,-0.006647,0.667291,0.860945,0.295092,0.414360
-0.324100,0.021471,0.082676,-0.579950,0.626835,-0.520323
-0.094650,-0.371269,0.694681,0.929659,-0.219552,0.295856
0.440194,0.178834,0.614990,-0.283520,0.953400,0.103174
-0.394475,-0.106902,0.788720,0.844946,-0.351016,0.403551
0.276867,0.166717,0.277305,-0.299659,0.953403,-0.035035
-0.439536,0.178734,0.531542,0.781877,-0.162900,-0.601774
0.176014,0.313395,0.637895,-0.557109,0.807048,-0.195711
0.489711,0.208693,0.527160,0.971637,-0.226928,-0.066526
0.337317,0.314365,-0.984359,-0.165880,0.166778,0.971941
0.693494,0.023313,-0.956612,0.213675,0.014116,-0.976803
0.992608,0.210584,0.538731,-0.156911,0.550824,0.819739
0.302939,0.188444,0.844838,0.324230,0.875808,-0.357541
0.153078,-0.407260,0.755195,-0.524608,-0.491256,-0.695308
0.729083,0.178425,0.814774,-0.371157,-0.524779,-0.766061
0.256311,0.512371,0.865232,-0.480960,-0.146730,-0.864377
-0.348200,0.295449,0.221440,0.397052,-0.268807,0.877549
-0.379744,0.704703,0.267932,-0.355979,-0.307920,0.882306
0.494065,0.302352,0.571796,-0.657411,0.752131,-0.045929
0.483836,0.168405,0.536785,0.975031,-0.130529,0.179656
-0.205172,0.699130,0.286767,0.758865,0.459054,-0.461945
0.553300,0.229858,0.902128,-0.560003,-0.494807,0.664502
0.686810,0.132514,-0.724730,0.932409,0.361404,-0.000048
-0.050856,-0.534610,0.760305,-0.172062,-0.949689,0.261698
-0.021694,0.597190,0.556823,0.712870,0.007033,0.701261
0.261373,-0.134508,0.805163,-0.710948,-0.261884,0.652664
-0.042757,-0.121677,0.807956,0.819488,-0.085269,0.566717
0.099817,0.570654,0.077685,0.338124,0.006184,0.941081
-0.510921,0.467637,0.257431,-0.540089,0.556694,-0.631185
-0.592588,-0.125921,0.642871,0.585556,0.595102,0.550434
0.517000,0.546065,-0.016191,-0.331420,-0.858479,0.391376
0.081996,-0.248721,0.639306,0.430709,-0.842427,-0.323739
-0.016985,-0.105470,0.832152,0.077325,-0.685135,0.724300
-0.082299,-0.091001,0.834975,0.850391,-0.187239,0.491707
0.044833,0.615032,0.830043,-0.085486,-0.831615,0.548734
0.224971,0.808232,0.724923,0.243815,0.192561,0.950513
0.541452,0.238190,0.477222,0.742743,-0.656364,0.132359
-0.343240,-0.169632,0.560819,-0.831052,0.417912,-0.367018
-0.329823,0.476739,0.594834,-0.559903,-0.712538,0.422846
-0.274942,-0.430523,0.635444,0.795015,-0.448101,0.408847
0.471129,0.297905,0.831276,-0.732460,0.048701,0.679066
0.420754,0.210939,0.233308,-0.082128,-0.979584,-0.183497
0.854392,0.155574,0.721670,0.810350,0.533953,0.241301
0.650306,-0.079960,0.579609,0.915440,-0.366385,-0.166528
-0.425562,0.492126,0.029752,0.981393,0.012991,0.191569
0.455132,0.363805,-0.979413,-0.149810,0.117656,0.981689
-0.391237,0.631954,0.440191,0.566446,0.821998,-0.058807
-0.347947,0.204705,0.344711,-0.164185,0.506906,0.846221
0.220821,0.429243,0.675104,0.707615,-0.350028,0.613809
0.016481,0.540133,0.828558,-0.272960,0.392323,0.878394
0.579628,0.219274,0.055761,-0.433470,0.897717,0.078788
0.580135,0.190541,-0.433567,0.951894,0.305263,-0.026693
0.460447,0.492946,0.838510,0.813045,-0.442726,0.378088
-0.103308,0.130367,0.818517,-0.456964,-0.308301,-0.834347
-0.196619,0.222597,0.654457,0.267601,-0.792702,0.547734
-0.109232,0.644632,0.191287,0.388055,-0.902071,0.188897
-0.419638,0.107567,0.366918,-0.032205,0.883925,0.466519
0.431081,-0.183845,0.082349,-0.921387,0.208797,-0.327795
0.320509,0.798774,0.772782,0.795638,-0.583892,0.161341
-0.012529,-0.363141,0.763751,0.904627,0.310010,-0.292478
-0.319594,-0.393455,0.551075,0.744930,-0.174635,0.643881
0.410831,0.077711,-0.965792,-0.144922,0.116154,0.982601
0.579829,0.200511,-0.279682,0.622381,-0.763923,0.170482
0.710301,-0.143099,0.736242,-0.641298,-0.696498,-0.321911
0.736830,0.179754,0.623754,0.964011,-0.259376,0.058362
0.367594,0.469378,0.486283,-0.573769,0.720136,0.390120
0.148369,0.072393,0.573400,-0.750780,0.624594,-0.214970
0.436903,0.624899,0.679797,0.192419,0.794934,-0.575374
-0.354631,0.572036,0.474117,0.324479,0.823936,-0.464589
0.274840,0.346780,0.876253,0.309843,0.021946,-0.950535
-0.329013,0.543762,0.755670,-0.371876,-0.003610,-0.928275
0.389667,0.411657,-0.984760,-0.246581,0.167530,0.954532
0.077944,-0.138905,0.790889,0.862323,0.185193,0.471278
-0.025542,-0.003835,0.806738,0.415439,0.816732,0.400450
0.284358,0.680623,0.587348,0.051637,-0.777874,0.626296
0.800268,0.147446,0.774936,0.825152,0.444413,0.348742
-0.202743,-0.041205,0.528244,0.208379,-0.442402,-0.872272
0.614664,-0.117075,0.678416,0.510814,0.530271,-0.676670
-0.300306,0.075511,0.371864,0.126861,-0.383706,0.914700
-0.420096,0.257770,0.119558,0.098922,0.228798,0.968435
-0.154240,0.393814,0.621363,0.450439,0.736570,0.504548
0.187355,0.388294,0.071447,0.590891,0.241017,0.769908
-0.070500,0.189930,0.318658,0.349071,0.522238,0.778086
0.688126,0.314518,0.700712,0.919973,0.367864,-0.135373
0.019618,-0.312475,0.668033,-0.041481,0.650832,0.758088
-0.395084,0.002300,0.084087,0.556632,-0.633591,0.537330
-0.127307,-0.027197,0.212394,-0.427027,0.018262,0.904054
0.495835,0.018557,0.695156,0.810299,0.581104,0.075721
0.862695,0.108743,0.839743,0.944883,0.236184,0.226745
-0.520541,0.284406,0.258723,0.026452,0.711989,0.701693
0.224161,0.181748,0.523595,-0.639709,-0.767979,-0.031331
-0.238234,-0.202914,0.641935,0.680525,0.248588,-0.689267
0.406731,0.129856,0.660131,-0.332353,0.885351,-0.325108
-0.028935,0.527146,0.579044,0.251864,0.570556,0.781685
-0.251905,-0.376686,0.702702,-0.157204,-0.637278,0.754429
0.037136,-0.154398,-0.147721,0.117898,0.356314,0.926898
0.076072,0.180010,0.670632,-0.594494,0.135074,0.792674
0.107156,-0.411554,0.488347,-0.165332,0.841270,0.514713
0.534518,-0.050051,0.786403,0.981508,-0.177129,0.072577
0.623724,0.393814,0.471295,-0.386600,-0.900220,0.200363
-0.473104,0.043508,0.442152,-0.454313,0.848115,0.272583
-0.174493,-0.171984,0.738678,-0.037818,0.423237,0.905229
0.665547,0.024336,0.823582,-0.358946,0.901377,0.242233
-0.229272,-0.327914,0.523669,-0.726700,0.564718,-0.391153
0.590969,0.079755,-0.027999,0.977461,-0.103249,0.184145
-0.312101,0.309969,0.328862,-0.031901,0.606459,0.794474
0.578463,0.214622,0.423436,0.400186,0.909246,0.114558
-0.302432,-0.228373,0.760409,0.712150,0.210987,0.669573
0.094653,0.500819,0.781189,-0.273030,0.671414,-0.688955
0.179404,0.372342,0.425055,0.324338,0.945181,-0.037904
0.386833,0.285583,0.017914,0.720829,0.396318,0.568628
-0.415083,-0.089162,0.796786,0.874496,-0.333739,0.351958
0.810141,0.210275,0.404201,0.662629,0.683140,-0.306991
-0.053943,-0.375307,0.461492,0.882494,0.276929,-0.380152
0.103917,0.526687,0.788646,-0.478814,0.755134,-0.447784
0.789233,0.408692,0.513866,0.952710,-0.296762,0.065385
0.313470,0.178272,-0.231956,0.248543,-0.743044,0.621379
0.030504,0.438445,0.809159,-0.301184,0.878514,0.370813
0.161280,-0.343404,0.461061,-0.107344,0.879339,0.463940
-0.044781,-0.512527,0.575851,-0.689845,0.058988,-0.721550
0.011417,0.144375,0.646926,0.786810,-0.207195,0.581378
-0.093284,0.176840,0.046106,0.430049,0.800674,0.417108
-0.367897,-0.106952,0.057038,0.788516,-0.425004,0.444538
0.604587,0.531493,0.811253,0.878743,-0.412420,-0.240253
0.717643,-0.268252,0.834663,-0.328333,0.925705,-0.187798
-0.299496,0.429602,0.313028,0.806709,-0.244372,-0.538055
0.173888,0.550000,0.357010,-0.514742,-0.393443,0.761737
-0.585956,-0.291412,0.591477,0.628782,-0.553454,-0.546188
-0.196010,-0.076534,0.652645,0.040933,0.999127,-0.008350
-0.540491,0.409407,0.362996,0.074059,-0.046973,0.996147
-0.320355,0.109969,0.747234,-0.635709,0.661269,-0.398244
0.164722,0.104193,0.583486,0.847793,-0.419140,0.324913
0.466269,0.270705,0.783165,0.460800,-0.506265,-0.728944
-0.001748,-0.085225,0.553763,0.451699,-0.799128,-0.396689
0.345975,0.620602,0.820373,-0.669804,-0.323019,0.668597
0.572792,0.223312,0.095005,-0.413371,0.901093,0.130980
-0.235552,-0.314213,0.376068,-0.007686,0.067971,0.997658
0.495177,0.036247,0.932103,0.746236,0.665035,0.029325
-0.008833,0.197750,0.310607,0.342087,0.374901,0.861641
-0.208312,-0.365082,0.460675,0.552482,0.793229,-0.256028
-0.443435,-0.049898,0.258990,-0.664335,0.745399,0.055120
0.793587,-0.015440,0.874471,0.638138,0.762095,0.109505
0.442422,0.298620,0.733167,0.851141,-0.456410,0.259326
-0.069993,0.508639,-0.029262,0.085204,-0.697124,0.711870
-0.474723,-0.185786,0.586040,0.257218,0.858005,0.444596
0.014859,0.596728,0.817299,-0.020720,-0.731768,0.681239
0.074400,0.598007,0.802801,0.160775,-0.849909,0.501802
-0.225728,0.166820,0.057885,0.762096,0.610108,-0.216745
-0.533353,-0.163803,0.638964,0.352981,0.782994,0.512177
0.615168,-0.173467,0.863405,0.914192,0.289898,-0.283217
0.237273,0.154551,0.529121,0.885148,0.458230,0.080863
-0.611422,0.211504,0.390758,-0.350472,-0.073206,0.933708
0.376249,0.226535,0.717050,0.971426,-0.028207,0.235659
0.286131,0.050510,0.693492,-0.683832,0.718623,-0.126309
-0.737488,0.185480,0.379647,0.877534,-0.466806,-0.109663
0.643217,0.707771,0.864430,0.940501,-0.280820,0.191304
-0.511530,0.160277,0.432334,-0.501147,-0.007510,0.865329
-0.136623,-0.712423,0.279444,0.803511,-0.539181,-0.252297
-0.476899,0.077096,0.546381,0.289983,-0.704836,0.647392
0.169836,0.014981,0.548817,-0.614117,0.731981,-0.295066
0.667113,-0.016719,0.697949,0.803510,0.580813,-0.130489
0.581247,0.309101,0.374909,0.978179,-0.119182,0.170179
0.353215,0.345398,-0.988934,-0.280568,0.155124,0.947216
0.777991,0.373519,0.533711,0.981810,0.023412,0.188415
-0.025137,0.118713,0.323381,-0.397571,-0.578833,-0.711962
0.108067,-0.012167,0.801687,-0.249554,0.946785,0.203275
0.846543,0.256185,-0.952453,0.076627,0.214140,0.973793
0.163103,0.248519,-0.184885,-0.547647,0.518803,-0.656449
-0.434221,0.393967,0.713946,-0.328312,-0.779970,-0.532782
-0.030198,-0.392332,0.668093,-0.698123,0.244250,-0.673027
-0.198238,-0.704089,0.601860,0.606495,0.781390,0.146950
0.613651,0.212578,-0.724745,0.871288,0.485674,0.070551
0.527327,0.377454,0.913403,-0.553113,-0.228176,-0.801250
0.511938,0.427046,0.980081,0.777104,-0.559245,-0.288711
-0.217931,-0.087883,0.652793,-0.356250,0.626400,0.693332
0.327341,0.232873,0.874396,-0.145017,0.306455,0.940774
-0.145078,-0.782414,0.255262,0.830536,-0.547286,0.103385
0.319446,0.765286,0.111611,-0.170675,0.579613,0.796818
0.582715,0.318097,0.378563,0.924198,-0.285049,0.254177
-0.661393,0.020807,0.379113,-0.414439,0.691158,0.592065
0.006911,-0.098468,0.712996,-0.641440,-0.401666,0.653620
-0.565957,0.012678,0.531245,0.019898,0.562387,0.826635
-0.367946,0.685993,0.270799,0.242940,0.443122,-0.862915
-0.387692,-0.889263,0.299808,0.391802,0.880439,0.267055
-0.131256,0.200614,0.321168,0.346075,0.549692,0.760309
-0.333822,-0.686964,0.274854,-0.615651,-0.167758,-0.769956
-0.142699,0.337884,-0.033451,0.586271,0.296780,0.753796
0.719970,0.238496,0.341221,-0.168050,-0.952440,0.254199
0.737386,0.066106,0.567444,-0.936356,0.351004,-0.005845
0.102094,-0.444733,0.518931,-0.888765,0.213271,-0.405725
0.657243,-0.273007,0.876090,0.146165,0.976750,0.156827
0.474776,-0.400919,0.789789,-0.626889,0.489873,-0.605834
0.861682,0.527913,0.654204,0.375530,0.849562,-0.370434
0.217984,-0.295500,0.443801,0.130450,0.749628,0.648876
-0.201529,0.100103,0.454095,0.306659,0.849161,0.429982
-0.084425,-0.638089,0.248949,-0.467047,-0.793139,-0.390894
0.082045,-0.654958,0.646540,0.765713,-0.640179,0.062084
-0.397160,0.379754,0.086969,0.283366,-0.953472,-0.102931
0.523480,0.446780,0.700771,0.861086,-0.507868,0.024492
-0.694807,0.047240,0.412459,-0.545714,0.670732,-0.502309
-0.430373,0.107055,0.369309,-0.060926,0.907772,0.415016
0.018101,0.124641,0.402121,-0.226738,-0.857865,0.461148
-0.041237,-0.746267,0.600389,0.808114,0.500161,0.311113
0.161329,-0.022698,0.931405,0.890750,-0.218988,0.398256
0.280056,0.624131,0.815056,0.602917,0.736475,-0.306751
0.635674,-0.017587,0.540632,0.781551,0.617412,0.089334
-0.063717,0.611197,-0.015849,0.098468,-0.656766,0.747638
0.005493,0.573824,0.552411,-0.582105,0.041094,-0.812075
-0.144976,0.345195,0.486936,-0.049493,0.557863,0.828456
-0.018706,0.546218,0.730478,-0.373768,-0.918765,-0.127157
-0.313825,-0.553529,0.257445,-0.325480,-0.916093,0.234171
0.003014,0.344122,0.639767,0.379877,0.924944,0.013106
-0.012529,-0.608589,0.231674,0.444706,0.479895,0.756265
-0.875909,0.490544,0.248295,0.284169,-0.747767,0.600076
0.430778,-0.191412,0.093801,0.861358,0.044992,0.506002
0.593299,-0.260226,0.673158,-0.588827,0.702286,0.400097
-0.269067,-0.212372,0.752061,-0.559635,-0.391492,-0.730440
-0.377161,-0.049387,0.749744,0.942195,0.251152,0.221791
0.001948,-0.020604,0.527828,-0.163813,0.940997,0.296125
-0.342783,0.638192,0.506795,-0.187322,-0.814961,0.548406
-0.206136,-0.826125,0.242696,0.408924,-0.553315,-0.725688
-0.707616,0.306901,0.396135,-0.611530,-0.765492,0.200131
0.351188,0.174540,0.934346,-0.266197,-0.899318,-0.346939
-0.252968,-0.365440,0.637895,-0.570446,0.363864,-0.736338
0.200973,-0.256083,0.676945,0.495760,-0.734421,-0.463517
0.701797,0.204449,0.807718,-0.889220,0.457343,0.011224
0.654407,-0.150613,0.917695,-0.666101,-0.706359,-0.239512
-0.176619,-0.338037,0.431561,-0.415254,0.893816,0.169285
0.625751,0.208998,-0.500483,-0.376478,-0.854793,0.357202
0.434171,0.555523,0.858607,0.811747,0.383973,-0.440036
0.645294,-0.245654,0.870936,-0.109302,-0.393986,0.912594
-0.059716,-0.616820,0.568320,0.897373,0.298753,0.324758
-0.704934,0.036452,0.371032,0.965366,0.073089,-0.250453
0.431891,-0.210940,0.093920,0.861343,-0.017537,0.507721
-0.691315,0.559611,0.271928,0.391004,-0.146090,0.908721
-0.223806,-0.755725,0.265986,0.483643,-0.205034,0.850912
-0.417614,0.580318,0.485822,-0.299561,-0.897222,0.324430
0.707214,0.273210,0.552100,0.938469,-0.195980,-0.284374
0.298989,0.516106,0.113943,-0.599432,0.223340,0.768635
0.602764,0.038549,0.962880,0.874956,-0.083092,-0.477020
-0.937675,0.565745,0.302705,0.286328,-0.308983,0.906943
-0.068424,-0.397699,0.467656,-0.176378,0.159216,-0.971360
0.806498,0.235123,0.777446,0.938269,0.253660,0.235175
-0.188720,-0.623926,0.571707,0.939877,0.312055,0.138757
-0.526112,-0.007873,0.711777,0.246868,-0.493563,0.833938
-0.273270,0.836965,0.177324,0.459642,0.209928,-0.862937
0.395390,-0.430061,0.774579,0.244578,-0.294950,0.923681
0.349671,-0.097700,0.823047,-0.533921,-0.487996,0.690499
-0.579473,-0.353527,0.613267,0.799211,-0.568864,-0.194051
0.208921,0.095144,0.950269,0.817941,-0.545354,0.183197
0.743159,-0.191668,0.740846,-0.625772,-0.749550,-0.215834
-0.431130,0.424743,0.561947,-0.239349,-0.806352,-0.540841
0.523025,0.054601,0.672088,0.825819,0.544429,-0.147039
0.076477,-0.189162,0.689111,-0.390316,-0.188972,-0.901079
0.364049,0.613959,0.557165,-0.067469,-0.961191,0.267507
-0.348151,-0.210019,0.376914,0.323661,-0.078980,0.942871
0.815206,0.135326,0.825112,0.785373,0.614318,-0.076174
0.333265,0.671780,-0.078859,0.121175,-0.168711,0.978189
-0.127761,-0.040643,0.843976,0.476263,0.498832,0.724113
-0.116268,-0.763754,0.581228,0.327372,0.942938,0.060787
0.522822,0.203323,0.452416,0.439619,0.889926,-0.121515
0.340861,0.083078,0.781649,0.838853,-0.009107,0.544282
0.550111,-0.024539,0.912437,0.809305,0.581527,0.082773
0.025443,0.283997,0.671346,0.314820,-0.464248,0.827866
0.189227,0.534357,0.375667,-0.541740,-0.346903,0.765622
0.396249,0.205931,0.322505,-0.734947,0.665933,-0.128005
-0.368097,-0.412015,0.519837,0.386435,0.648716,-0.655619
0.345063,0.901841,0.784353,0.897646,-0.247516,-0.364648
