-0.097189,0.377945,0.514407,0.876460,0.202583,-0.436782
0.250208,-0.435664,0.562550,0.032595,0.353681,0.934798
0.114334,0.784941,0.657163,0.001407,-0.882987,0.469396
0.259212,0.248456,-0.021912,0.963932,0.265697,0.015473
0.238562,-0.248267,0.670556,0.800343,-0.507864,-0.318629
0.351791,-0.086516,-0.009930,0.189248,0.077696,0.978851
-0.022996,0.064651,0.116829,0.288779,0.642259,0.710007
-0.045697,-0.208696,0.599948,0.849346,-0.431226,0.304395
0.475211,0.807876,0.742965,0.795510,0.417140,0.439497
0.252527,0.201953,0.144243,-0.872690,-0.411386,-0.263009
0.241960,-0.446692,0.775675,0.766574,-0.602115,-0.223209
0.159680,0.141210,0.839771,-0.547242,-0.742129,0.387002
0.418704,-0.062507,0.731048,0.926891,-0.248773,-0.281045
0.239911,-0.241904,0.254007,0.755708,0.300454,0.581921
0.576793,0.615815,0.679563,0.904786,0.089414,0.416373
-0.155528,0.321487,0.623433,0.825721,-0.535226,0.178097
0.464426,0.525268,0.403319,0.984599,0.172472,-0.028590
0.350713,-0.508128,0.113899,0.525527,-0.062554,0.848474
-0.057559,-0.233018,0.715616,0.105911,0.784323,0.611245
-0.453212,-0.072086,0.863951,-0.718724,0.577275,-0.387542
0.239857,-0.437303,0.142051,0.455347,0.684258,0.569604
0.487558,0.463391,0.607653,-0.048933,0.804154,0.592404
-0.057235,0.510334,0.762521,0.296095,-0.740476,0.603344
0.277061,-0.346817,0.767904,0.972750,0.192345,0.129460
0.018359,-0.017327,-0.026926,-0.638402,-0.187219,-0.746587
-0.758500,-0.102584,0.413629,-0.302366,0.344463,-0.888774
-0.483838,-0.454630,0.605526,0.722937,0.047399,0.689286
-0.228534,-0.462570,0.705262,0.843653,0.519744,0.134593
0.359016,0.352237,0.713250,0.031952,-0.561477,0.826875
0.285903,-0.234467,0.273130,0.239251,0.969703,-0.049343
-0.369045,-0.562886,0.505660,-0.138984,-0.313134,-0.939484
0.537380,0.390864,0.337551,-0.412344,-0.900810,-0.136064
-0.213113,-0.371896,0.591874,0.953827,-0.155845,-0.256761
-0.357614,0.284562,0.603421,-0.403008,-0.319274,-0.857700
0.610924,0.411657,0.599275,-0.356727,-0.032314,-0.933650
-0.277169,-0.543414,0.748304,0.980154,-0.149800,0.129842
0.033187,-0.138375,0.792583,0.110657,-0.986513,-0.120611
-0.348556,-0.691368,0.419099,0.392732,0.693533,0.603965
-0.195321,-0.053749,0.467762,0.951499,-0.218551,-0.216530
0.265144,-0.495590,0.568041,-0.552823,-0.443905,-0.705220
-0.481574,-0.192187,0.689743,0.190833,0.964415,-0.182991
-0.412774,0.188281,0.827160,0.802231,-0.309224,0.510692
0.774242,-0.024512,0.373127,-0.324528,0.924791,-0.198606
0.665166,0.485949,0.707107,0.912459,0.406915,-0.042877
-0.416278,-0.156710,0.528016,0.027667,0.866894,0.497724
-0.096757,-0.205104,0.197986,0.897472,0.008967,0.440981
-0.092606,0.374732,0.381483,-0.162957,-0.985694,-0.043037
-0.168253,-0.176244,0.905690,-0.007050,-0.822750,0.568360
-0.048392,0.691305,-0.976536,0.212961,-0.104733,-0.971431
-0.022134,0.496597,0.752689,-0.661881,0.310989,0.682056
0.028658,0.327789,0.258826,-0.689639,0.712579,-0.128954
-0.179738,-0.137744,0.708540,-0.099940,0.932199,0.347876
0.217750,0.478765,-0.549743,0.980072,-0.188876,-0.061520
0.342894,-0.051543,-0.015877,0.199488,0.097491,0.975038
-0.233872,-0.236294,0.943609,-0.798907,0.577939,-0.166536
-0.344189,-0.754946,0.419728,0.783958,0.596913,-0.170602
-0.354865,0.116698,0.871851,-0.044116,-0.771672,0.634489
0.013668,0.615754,-0.969699,-0.074726,-0.145883,0.986476
-0.215216,-0.174605,0.801352,0.858149,0.329022,0.394113
-0.355674,-0.160429,0.633309,-0.635128,-0.389158,-0.667210
-0.051303,-0.238375,0.736497,-0.229680,-0.648541,0.725701
-0.006713,0.313547,0.452720,-0.632114,0.527782,-0.567343
-0.194997,0.001449,0.777020,0.754289,0.315690,-0.575664
0.346939,0.021361,0.664543,0.882869,0.467209,0.047511
-0.078532,-0.670005,0.687768,-0.591094,0.733223,0.336142
-0.539590,-0.075867,0.354199,0.045693,-0.938178,0.343125
0.038740,-0.126842,-0.038212,0.706113,0.084889,0.702992
0.623271,0.083742,0.461142,0.902907,0.341602,-0.260896
0.068179,-0.579583,0.564264,-0.098268,0.825777,0.555370
-0.001590,0.237870,0.815982,-0.438352,0.845637,-0.304542
0.303804,0.524197,-0.944174,0.116605,-0.332417,0.935896
-0.129324,-0.408694,0.771052,-0.191008,-0.980618,0.043641
0.173860,0.162319,0.329976,0.994840,-0.101279,0.005922
0.012967,-0.493636,0.552153,0.795303,-0.071561,0.601974
-0.224760,-0.385003,0.714835,0.844191,-0.477780,0.243040
-0.490525,0.202205,0.840639,-0.484422,0.629124,-0.607897
0.322622,-0.377379,0.585904,0.845570,-0.298291,0.442758
0.356321,0.230940,0.645898,0.935692,0.294548,-0.194220
-0.293668,0.672149,0.764800,0.287721,-0.225545,0.930777
0.423071,0.326339,0.728183,0.346962,-0.785588,0.512317
0.242822,0.079962,0.506984,-0.416078,-0.284892,0.863548
0.196290,0.324891,0.494655,-0.294180,-0.892997,0.340610
-0.226000,-0.215942,0.446100,-0.848037,0.294875,-0.440321
-0.297711,-0.493384,0.704025,0.636522,-0.259019,0.726464
0.352170,-0.483112,0.594760,0.702678,0.317611,-0.636685
0.294962,-0.105482,0.525303,0.839864,-0.075276,-0.537552
0.125765,-0.328482,0.654906,0.722542,-0.680989,0.119110
0.054484,-0.708759,0.672227,-0.633397,-0.513961,-0.578491
0.180492,0.010144,0.804977,0.659117,0.715975,0.230098
-0.293399,-0.564334,0.610497,0.653031,-0.493028,-0.574869
0.174831,0.201576,0.741554,-0.074547,-0.705496,0.704783
0.631251,0.504852,0.699120,-0.456766,-0.115050,0.882116
0.109536,-0.153245,0.790608,-0.286442,-0.548693,-0.785422
0.325641,-0.089918,0.646875,0.958357,-0.285566,0.001765
-0.055078,-0.050410,0.792583,0.810291,0.482781,-0.332191
0.247944,-0.158475,0.523328,0.810820,-0.234838,-0.536118
0.590382,0.042596,0.516643,0.484927,0.743429,0.460607
0.527026,-0.551985,0.021174,0.132030,0.166200,0.977213
0.394710,0.498487,0.776239,-0.003203,-0.193003,0.981193
0.159194,0.000441,0.337291,0.805726,-0.547713,-0.225424
-0.063058,0.768432,0.832109,0.724955,-0.056020,0.686514
-0.203408,0.276118,0.615077,0.849479,-0.523240,0.067866
0.117730,0.015059,0.686140,0.429293,0.606384,0.669333
-0.103119,0.381538,0.532292,0.768568,-0.591582,-0.243587
-0.568220,-0.602078,0.496044,0.836463,-0.542399,0.078314
0.443560,0.308318,0.301347,0.657034,0.583979,-0.476733
0.290001,0.530687,0.797684,-0.634999,-0.377995,0.673718
-0.136495,0.065659,0.858025,-0.618991,-0.781857,0.074504
0.629471,0.678008,0.635892,-0.012409,-0.672139,0.740321
0.124200,0.046250,0.501601,-0.601332,0.798703,0.021771
0.349096,0.511530,0.809188,0.064958,-0.973767,0.218077
0.215701,0.296661,0.739883,0.016466,-0.713724,0.700233
0.222979,0.228607,0.260454,-0.599717,0.767399,0.226799
-0.426523,0.316887,0.901262,-0.489538,-0.862902,-0.125512
-0.440865,-0.386579,0.690850,0.877160,-0.172054,-0.448316
0.722211,0.021992,0.361818,0.156229,0.978238,0.136537
-0.162699,-0.015816,0.548506,0.956293,-0.268992,0.114661
0.210416,-0.269881,0.769380,0.970435,-0.174412,-0.166840
-0.304397,0.468243,0.762543,-0.414488,0.659399,-0.627210
-0.145014,-0.552616,0.649197,0.634641,0.343196,-0.692421
-0.208154,0.696409,0.777346,0.019143,-0.784198,0.620215
-0.238401,0.018967,0.197790,0.286848,0.698766,0.655320
0.063326,0.348330,0.144894,0.952482,-0.021143,0.303862
0.129756,0.196976,0.856028,-0.455353,-0.882026,-0.121180
0.787075,0.428229,0.485343,0.961420,0.247222,0.120639
0.834417,-0.016068,0.510435,-0.078427,-0.996810,0.014784
0.107540,-0.219093,0.722301,0.588059,0.409881,-0.697269
-0.195482,-0.714555,0.672400,-0.141055,0.553881,0.820561
0.085433,-0.030309,0.344931,-0.105845,0.668328,0.736298
-0.256140,0.062318,0.912050,0.895546,0.409255,0.174668
-0.276199,-0.088091,0.764540,0.451296,-0.875308,0.173689
-0.371795,-0.518904,0.495306,-0.001502,0.213510,0.976940
0.074057,0.256081,0.793582,-0.237376,-0.836617,0.493684
-0.318956,-0.756962,0.506354,-0.771411,0.182283,0.609670
-0.202383,0.446440,0.829157,0.911956,0.193114,0.362000
0.266600,-0.347827,0.582171,0.880425,0.469827,0.064144
-0.241744,-0.246376,0.523285,-0.592116,0.628398,0.504495
-0.069852,0.185004,0.306795,0.949031,0.243907,0.199623
0.576524,0.075362,0.500320,-0.017538,0.892099,0.451499
0.231552,0.475992,0.713554,0.913503,0.401644,-0.064770
-0.115466,-0.406931,0.292795,-0.026367,-0.827053,0.561506
-0.605803,-0.630813,0.555604,0.951573,0.301131,-0.061877
-0.202599,0.078323,0.731765,0.877907,-0.210560,0.430051
-0.281428,0.525016,0.750280,-0.596657,0.754178,0.274253
-0.315612,0.120478,0.875368,0.931594,0.223474,-0.286692
0.056857,-0.299874,0.457409,-0.907660,-0.164771,-0.386010
-0.455477,0.110272,0.861498,-0.415983,-0.408818,0.812297
0.448090,0.562885,0.658552,0.155669,-0.973221,0.169139
-0.361929,0.157719,0.890496,0.599843,0.759615,0.251344
0.228049,0.602772,0.803501,0.855343,0.487834,-0.174372
0.252096,0.398550,-0.066603,0.078373,0.910922,0.405067
0.400533,0.056080,0.878319,0.145361,0.208719,0.967113
-0.150783,0.450347,0.938834,0.133835,0.972127,-0.192503
0.390451,0.005544,0.821690,-0.120620,-0.711826,0.691921
0.175800,0.698424,0.644292,0.569154,0.389499,0.724123
0.216348,0.133774,0.871721,0.334042,0.866009,-0.372081
-0.303319,-0.819155,0.471170,0.015448,0.563274,0.826126
-0.417411,-0.903528,0.571818,0.345893,0.766631,0.540958
0.297496,-0.014556,0.544729,-0.854292,-0.124599,0.504639
0.401667,0.077316,0.868010,0.725723,0.369967,0.580043
0.199849,-0.097290,0.800310,0.618610,-0.011239,-0.785618
-0.036260,-0.027600,0.717005,0.894534,-0.391323,0.216043
0.325857,0.220290,0.731895,-0.760274,-0.556127,0.335717
-0.252905,0.719975,0.806431,-0.297563,-0.553680,0.777750
0.600248,0.285885,0.493440,0.486082,0.520312,-0.702139
0.228696,0.522936,0.097859,-0.174593,0.024758,-0.984329
-0.383335,-0.594960,0.536785,0.879317,-0.317992,-0.354517
0.399078,0.638374,0.810078,0.895541,0.342220,0.284414
0.366296,0.722811,0.661439,0.386946,-0.350462,-0.852906
-0.144853,0.299244,0.810816,0.442115,0.874846,-0.197935
-0.364086,0.433585,0.752754,0.643979,-0.602444,0.471543
0.551397,0.724826,0.702245,0.765978,0.508393,0.393464
0.195158,0.671897,0.543123,0.272772,-0.959830,0.065741
-0.398970,-0.183868,0.301043,0.158106,-0.649044,0.744140
-0.301810,0.575740,0.792214,0.092533,-0.590075,0.802028
0.270591,0.543604,-0.938270,0.107949,-0.367832,0.923605
0.697949,-0.365847,0.428823,-0.735320,-0.003103,0.677713
0.213490,0.188342,0.004851,-0.608111,-0.504913,-0.612588
0.168253,0.520478,0.756965,0.302232,-0.949271,-0.086831
0.224381,0.480530,0.647266,0.890423,0.412763,-0.191766
0.004448,-0.181726,0.831913,0.224476,0.963787,0.143959
-0.045534,-0.044737,0.803870,0.574256,0.720670,-0.388412
0.116113,-0.179205,0.724732,0.315325,0.701504,-0.639110
0.183241,-0.333585,0.693107,-0.597300,0.748206,0.288825
0.407651,0.734530,-0.939963,-0.111228,-0.069364,0.991371
-0.340146,-0.574101,0.599666,-0.415442,0.641501,0.644891
-0.435958,-0.387398,0.660528,0.350348,-0.203857,0.914165
-0.212843,-0.357845,0.291753,-0.462261,-0.623384,-0.630641
0.081012,-0.215690,0.839185,-0.055757,-0.981483,-0.183256
-0.451811,-0.426465,0.666388,-0.444353,-0.873242,0.199999
-0.440595,0.279080,0.868378,0.436014,0.553457,-0.709632
-0.373791,-0.067486,0.782121,-0.794365,0.129376,-0.593503
0.475966,-0.391997,0.632962,0.063869,0.046606,0.996869
0.310111,-0.021171,-0.007912,0.237437,0.087617,0.967443
-0.070553,0.544486,0.812379,0.222054,0.151469,0.963197
-0.270321,-0.633711,0.470866,0.624229,-0.197785,0.755790
-0.184860,0.688154,0.832782,0.100521,0.888540,-0.447652
0.065754,0.039635,0.660680,-0.282122,0.911481,0.299350
0.391583,0.166603,0.806345,0.979531,-0.114001,0.165901
0.066400,0.504160,-0.970003,0.314556,0.160558,-0.935562
-0.384143,-0.069377,0.630748,-0.328087,0.024016,-0.944342
0.129000,0.628670,-0.961712,-0.260235,-0.071438,0.962899
0.412881,-0.405733,0.698208,0.361662,0.856159,-0.369042
0.516081,0.880278,0.647027,0.499583,0.720272,0.481275
0.092227,0.342155,0.118132,0.956832,0.103120,0.271733
-0.228426,-0.524890,0.680779,0.893282,-0.442734,0.077676
0.110452,-0.196283,0.381288,0.898375,0.306722,0.314394
-0.221094,0.230749,0.730723,0.944223,-0.327832,0.031128
-0.350822,0.252677,0.954592,-0.852612,0.101320,-0.512628
0.424958,-0.200883,-0.007478,-0.148329,0.091665,0.984681
0.231931,-0.138059,0.842289,-0.497874,0.217020,-0.839657
-0.291727,0.315943,0.826335,0.388025,0.881692,0.268432
-0.329200,-0.854379,0.483867,-0.695274,-0.673684,-0.250488
0.039657,0.611658,0.785117,0.045805,-0.171717,-0.984081
0.866066,0.009263,0.424178,0.221264,0.312193,-0.923893
0.188742,-0.036736,0.602010,0.831012,0.351385,0.431217
-0.011944,-0.139255,0.629619,0.834405,-0.526743,0.162203
0.786914,0.656523,0.571622,0.904256,0.054331,-0.423519
-0.110076,0.178198,0.835820,-0.742901,0.413385,-0.526508
0.043917,0.245179,0.793799,-0.012861,-0.700754,0.713287
-0.091204,0.149527,0.832348,0.813537,-0.086332,0.575069
-0.016149,-0.380152,0.547638,-0.420707,-0.859285,-0.290920
-0.167336,0.287839,0.627752,0.825721,-0.535226,0.178097
0.237861,-0.456648,0.371477,0.762225,0.449761,0.465541
0.914647,0.026780,0.417992,-0.045642,-0.980669,0.190276
-0.356861,0.422874,0.728335,0.753321,-0.514873,0.409162
0.223465,-0.166729,0.031006,0.853604,-0.103993,0.510436
-0.013507,0.535223,-0.978403,-0.055367,-0.119271,0.991317
0.143018,0.084752,0.544404,-0.561636,0.783912,0.264664
0.436444,0.400440,0.269071,0.807374,0.381113,-0.450445
0.251556,0.161815,0.005654,-0.687127,-0.420475,-0.592500
0.314480,-0.173598,0.568019,0.878195,0.047059,-0.475982
0.461677,0.058222,0.842072,0.814694,-0.427541,-0.391767
0.659665,0.420541,0.632137,0.836534,-0.440713,-0.325550
-0.090018,-0.248267,0.714270,-0.448878,-0.015792,0.893454
-0.383119,0.599497,0.825901,0.766520,-0.131273,0.628661
-0.193973,-0.116636,0.709539,0.193610,-0.811922,0.550724
0.377348,0.287398,0.698447,-0.136908,-0.648245,0.749022
-0.199364,-0.630435,0.538131,-0.521330,-0.789307,0.324360
-0.337719,0.413359,0.782772,-0.408038,-0.268496,-0.872591
-0.528483,-0.803150,0.400063,0.080819,-0.910482,0.405574
0.576578,0.374040,0.379855,0.059092,0.987649,0.145112
0.655622,-0.100630,0.544187,-0.554909,-0.560953,-0.614335
0.443344,-0.676874,0.307880,-0.111095,-0.367111,0.923519
0.748848,-0.344487,0.444863,0.737042,-0.176988,-0.652261
-0.263527,-0.567801,0.680345,0.684255,0.537400,-0.492946
0.261369,-0.439004,0.571774,-0.071556,0.443166,0.893579
-0.568059,-0.044549,0.625387,-0.389919,-0.576318,-0.718207
0.937023,-0.000063,0.394723,-0.071590,0.976705,-0.202291
-0.423288,-0.076434,0.847823,0.786150,-0.554907,0.272114
0.104251,0.156775,0.045744,0.411464,0.530011,0.741476
-0.461948,-0.469503,0.605483,0.069706,-0.501518,0.862335
0.244063,0.499937,-0.942416,0.014193,-0.380118,0.924829
0.265952,-0.470951,0.157093,-0.767032,-0.500651,-0.401261
0.299274,0.302646,0.325331,0.485672,0.447941,-0.750647
0.529560,-0.141336,0.573663,-0.206738,0.720136,-0.662317
-0.038472,0.059484,0.789414,0.983068,0.150975,0.103846
-0.117948,0.013548,0.842180,-0.411359,0.763538,-0.497788
0.156552,0.127348,0.349164,0.996341,-0.077312,0.036446
0.227348,0.399937,0.822298,-0.266789,0.479534,-0.835985
0.346993,-0.570951,0.126944,0.761127,0.463113,0.454105
0.651524,0.154379,0.488947,0.922831,0.156101,-0.352159
0.312970,0.198047,0.845805,-0.645933,0.399765,-0.650353
-0.214299,0.393889,0.465743,0.288692,0.936943,-0.196963
-0.358424,-0.606680,0.513799,-0.502171,-0.541378,-0.674340
-0.439626,-0.405229,0.797250,0.929975,-0.367508,0.009240
0.408568,-0.283238,0.802546,0.855686,-0.454894,-0.246722
0.231985,0.509515,0.813529,0.889281,0.396725,-0.227574
0.569892,0.751481,0.654841,0.952229,0.268905,-0.144741
0.020084,0.063832,0.096057,-0.824296,0.322928,-0.465031
-0.119080,-0.433270,0.610670,-0.429346,-0.891614,-0.143826
0.143612,-0.628104,0.052473,0.082192,0.338458,0.937385
-0.400372,0.591493,0.816806,-0.585671,0.391425,-0.709771
0.066561,0.681915,0.605787,0.314196,-0.903038,0.292923
0.202814,0.544990,-0.959736,-0.538639,-0.174874,0.824189
0.218882,0.147512,0.492463,-0.282352,0.704569,0.651045
-0.473541,-0.913295,0.571123,-0.514687,-0.756772,-0.402981
0.219043,0.365785,-0.019220,0.227491,0.969105,-0.095301
0.472461,-0.390044,0.687225,0.222795,-0.969398,-0.103099
-0.056480,-0.089162,0.757855,0.242778,0.965851,0.090499
0.245465,0.485949,-0.949166,-0.086289,-0.385429,0.918694
-0.118379,0.471204,0.682341,0.819210,-0.514685,-0.252970
0.222872,-0.252551,0.512692,0.708039,-0.285451,-0.645909
0.489500,0.568747,0.665997,0.338162,0.937928,-0.077054
0.504974,0.312666,0.667083,-0.095863,0.980016,0.174293
0.165610,0.405607,0.846022,0.361053,-0.896199,0.257813
0.179954,0.164397,0.454847,0.855496,-0.469372,-0.218670
-0.141940,-0.595463,0.709994,0.833591,0.446748,-0.324871
0.609576,0.098363,0.523154,-0.011701,0.846540,0.532197
0.560618,0.414809,0.701790,0.318524,0.748283,0.581906
-0.246975,0.008317,0.199722,-0.142597,0.917101,-0.372280
0.147979,0.088405,0.578872,0.853168,-0.505784,0.127622
0.079880,0.091873,0.065301,0.591791,0.451808,0.667572
-0.171812,0.090674,0.806844,0.500717,0.769439,-0.396542
-0.412558,-0.750346,0.343911,0.753845,0.323778,-0.571740
0.442106,0.166793,0.347037,0.550104,0.811393,-0.197552
-0.332812,-0.605607,0.660766,0.487637,0.756214,-0.436291
0.685386,0.301323,0.493548,0.342625,-0.557836,0.755928
0.779419,0.043479,0.495154,0.153538,0.927837,0.339920
-0.247459,0.693636,0.839402,0.268158,0.208163,-0.940616
-0.305206,-0.794014,0.431644,0.895448,0.416171,0.158036
0.543149,0.960996,-0.934645,-0.172862,0.081074,0.981604
-0.208154,-0.727474,0.526432,-0.106526,0.409913,-0.905883
-0.227779,-0.439381,0.683991,0.975516,0.217969,-0.029275
-0.361498,-0.332578,0.752993,-0.440823,-0.458089,-0.771900
0.109697,0.206743,0.801309,0.945103,0.326634,-0.009472
-0.257381,-0.187082,0.667517,-0.712173,0.556006,-0.428563
-0.289894,0.471329,0.755141,-0.521514,0.843362,-0.129477
-0.709702,-0.099560,0.406553,-0.532588,0.680277,-0.503560
-0.209771,0.005356,0.771833,-0.035316,0.383850,0.922720
-0.381502,-0.501828,0.749129,0.661869,0.474158,0.580606
0.392391,0.036231,0.400888,-0.792525,0.378161,-0.478433
0.537865,0.571708,0.717483,-0.369979,-0.612935,0.698159
-0.438224,-0.556396,0.497325,-0.592180,0.129851,0.795275
-0.018359,-0.342029,0.756661,0.854225,0.312146,0.415771
-0.086944,0.052930,0.875823,-0.439403,-0.861011,-0.256096
-0.141078,-0.203340,0.218345,-0.816524,-0.272503,-0.508951
-0.498397,-0.484246,0.599622,0.657877,0.311371,0.685744
-0.136872,-0.115816,0.766407,-0.800168,0.450105,-0.396405
0.227294,0.513548,0.665520,0.601642,0.796075,-0.065513
0.758984,-0.260555,0.449334,-0.572345,0.191340,0.797377
-0.171488,-0.438374,0.078107,0.034153,0.589574,0.806992
-0.203894,0.008381,0.196228,0.332910,0.744629,0.578531
0.245086,-0.542030,0.556277,-0.796894,0.420590,0.433663
-0.154072,-0.327347,0.260845,-0.738880,-0.367187,-0.565005
0.256517,0.301765,0.782577,-0.349010,-0.753191,0.557580
0.297010,0.178891,0.717743,0.401879,0.639123,-0.655756
0.432723,-0.151607,0.812617,0.932750,-0.189645,-0.306613
-0.001645,0.033208,0.111056,0.345602,0.622511,0.702167
-0.063489,0.138941,0.320382,-0.706586,-0.557781,-0.435450
0.327150,0.133964,0.119825,0.691248,0.705170,0.157834
0.308171,0.071266,0.845827,-0.238110,0.935766,-0.260089
0.168899,0.207057,0.448227,0.906230,0.419016,-0.056323
0.060738,-0.389476,0.562376,0.323478,0.938566,0.120231
-0.586176,-0.346629,0.696971,-0.546989,-0.781341,-0.300516
0.434341,-0.668367,0.085943,0.676391,-0.214354,0.704662
0.432022,0.516950,0.413282,0.198681,-0.623690,0.756001
0.600087,0.973913,-0.931671,-0.210310,0.053499,0.976170
-0.438170,0.150473,0.364683,-0.634613,0.600008,-0.487089
-0.333136,0.459987,0.754989,-0.268450,0.552210,-0.789303
-0.225838,-0.263327,0.896704,-0.280425,0.703952,0.652544
0.063705,0.248960,0.401669,0.087153,0.959121,0.269243
-0.099291,-0.038374,0.771117,0.937623,0.339254,0.075952
-0.390290,-0.843289,0.528798,0.388309,0.843579,0.370931
-0.641927,-0.476874,0.497498,-0.764302,0.377273,0.522979
0.056425,-0.170761,0.735759,0.570345,0.230335,-0.788449
0.231661,0.104789,0.807386,-0.467479,-0.882800,-0.046119
-0.401505,-0.886515,0.543297,0.244772,0.848007,0.470074
-0.003802,-0.107184,0.696103,-0.607612,0.209280,0.766165
0.248806,0.541777,0.806301,0.972882,-0.015209,-0.230803
-0.078748,0.349653,0.320643,0.055911,-0.939243,0.338669
-0.061656,-0.040201,0.692630,0.788169,0.432882,0.437496
0.361335,0.124953,0.766602,0.786153,0.044613,-0.616420
-0.105761,0.666099,0.835712,-0.268881,-0.340935,-0.900814
0.352222,0.447259,0.815113,0.616242,-0.176106,-0.767615
0.304342,0.085571,0.027468,0.367949,0.925814,-0.086495
0.413851,-0.683428,0.304646,-0.103781,-0.260738,0.959815
-0.506807,-0.636105,0.633092,0.082032,0.843551,0.530748
0.169600,0.529741,0.772310,-0.542438,-0.127534,0.830359
-0.368723,-0.095085,0.871678,0.442320,-0.462396,-0.768468
0.191492,0.626088,-0.946019,-0.634872,0.221794,0.740098
-0.098967,-0.045684,0.779777,0.457528,0.674301,-0.579644
-0.180223,0.652363,0.773569,0.488890,-0.709104,0.508092
-0.056804,0.232955,0.830806,-0.204148,0.527268,0.824810
0.391690,-0.177001,0.597691,-0.284537,-0.318079,-0.904359
-0.105006,-0.572338,0.656773,0.257258,0.730588,0.632503
0.282560,0.075741,0.848627,-0.303933,0.933538,-0.190084
0.291078,0.244739,0.557210,0.368827,-0.862611,-0.346221
-0.265684,-0.693510,0.355567,0.057562,-0.080989,0.995051
0.758660,0.051040,0.556993,-0.544174,-0.450978,-0.707456
0.227994,0.193257,0.611994,-0.605888,0.793191,0.061219
-0.284016,0.186642,0.876822,-0.668456,0.738417,-0.088919
0.496347,0.661499,0.727554,-0.319978,0.945445,0.061213
0.281319,0.027095,0.730224,-0.479921,0.849602,-0.218753
-0.103713,-0.116636,0.698490,0.211968,0.258498,0.942469
0.312593,-0.338122,0.608739,-0.490866,0.139297,-0.860027
-0.308927,-0.570195,0.745439,0.317420,0.804177,0.502538
-0.149381,-0.339383,0.753275,0.936947,-0.006375,0.349413
-0.322406,-0.596598,0.368178,-0.510849,0.545852,-0.664138
0.150243,0.106301,0.539260,-0.120395,-0.952649,0.279221
-0.091041,-0.205671,0.762413,0.221152,-0.203925,0.953680
0.451271,-0.018210,0.871678,-0.124550,0.924460,-0.360363
-0.306447,0.016698,0.783771,-0.563941,-0.602780,-0.564470
0.776831,0.782295,0.599123,0.785631,-0.357142,-0.505207
0.194295,-0.414808,0.155660,0.539028,0.725780,0.427426
0.530747,0.316383,0.657337,-0.333821,0.940084,0.069324
-0.324940,-0.193825,0.874456,0.635205,-0.752729,0.172956
0.311676,-0.375550,0.737430,-0.353152,-0.815660,-0.458238
0.692341,-0.605103,0.037887,0.274218,-0.177445,-0.945155
0.185183,0.343605,0.807039,0.365403,-0.882467,0.296197
-0.256140,-0.428734,0.661939,0.723536,0.646588,0.241702
0.104089,0.438752,0.025580,0.905726,-0.277884,0.320065
-0.067750,0.393950,0.775740,0.579380,0.200496,-0.790013
-0.278787,0.350032,0.350640,-0.175423,0.952353,-0.249500
-0.427278,-0.640013,0.411024,0.491583,0.533944,0.687931
0.481465,0.677568,0.800897,-0.030591,-0.910646,0.412054
-0.163670,0.361625,0.855659,0.514696,0.857365,0.003780
0.457094,-0.478135,0.043943,0.797446,0.069891,-0.599329
0.001159,0.302646,0.229133,0.723529,-0.686625,-0.071083
0.209231,0.555072,-0.702159,0.979537,-0.200923,-0.011679
-0.375624,-0.798172,0.512692,-0.300712,-0.463532,-0.833493
0.056049,0.672024,0.604137,-0.393269,0.899698,-0.189429
0.302995,0.762886,0.651824,0.060189,-0.927776,0.368252
0.159249,0.235601,0.252097,0.510885,-0.858446,0.045458
-0.404416,0.050157,0.767188,0.502695,0.862428,0.059289
-0.413368,-0.577505,0.631508,0.458948,0.386652,-0.799917
0.517321,0.829490,0.670208,0.425650,0.724151,0.542612
-0.440057,0.420164,0.788503,0.985157,0.032009,0.168645
0.385168,-0.028419,0.555604,-0.164680,0.004563,0.986336
0.266870,-0.635350,0.409526,0.868981,0.405456,0.283687
0.293181,0.505104,-0.944760,0.133870,-0.333884,0.933060
0.221740,0.190990,0.463573,-0.807727,0.433103,0.399999
-0.053785,-0.297164,0.718915,-0.211281,-0.087002,-0.973546
-0.400696,-0.342912,0.659095,-0.413545,0.063693,-0.908253
-0.412989,-0.333270,0.759548,0.877739,0.037025,0.477706
0.478015,0.119975,0.570863,-0.310377,0.905201,-0.290305
-0.043862,-0.146566,0.848388,0.721000,0.385331,0.575916
-0.189874,-0.450725,0.602053,0.713170,0.324991,0.621104
0.251664,0.024765,0.838859,-0.503718,0.785920,-0.358605
0.178173,0.141587,0.372692,0.944770,-0.327693,0.005275
0.120212,-0.145557,0.830568,0.659261,0.748744,-0.068971
-0.393579,-0.438941,0.641470,-0.335803,0.904738,-0.262080
0.445016,-0.667423,0.655948,-0.624488,0.742221,-0.243152
-0.093198,0.189540,0.824165,0.887828,-0.425010,0.176430
-0.043161,0.145558,0.755966,0.869414,-0.345975,0.352732
-0.061602,0.359862,0.415886,-0.379602,0.922322,-0.072286
0.302294,-0.383302,0.272631,0.615788,0.497305,0.611141
0.222602,0.223440,0.254420,-0.540249,0.810768,0.225359
0.254199,-0.534972,0.579350,-0.078393,0.873194,0.481027
-0.142264,-0.523440,0.675635,0.893338,-0.124006,0.431937
0.145121,0.094392,0.554432,-0.236612,0.960019,-0.149597
0.241635,0.123504,0.875954,0.371382,0.925218,0.077766
-0.392284,-0.067486,0.808407,-0.503583,0.437329,-0.745082
-0.476776,-0.480718,0.718763,-0.230720,0.968145,-0.097277
-0.191331,-0.403781,0.328088,0.009371,0.888365,0.459043
-0.089856,-0.328985,0.050519,0.121296,0.519697,0.845696
0.285956,-0.027661,0.868856,0.201620,-0.537606,0.818737
-0.564770,-0.789099,0.570689,0.712104,0.585968,0.386715
-0.094600,-0.202015,0.705024,0.824704,0.070536,0.561149
0.450030,-0.491807,0.663024,0.620922,0.283251,-0.730907
0.429003,0.598172,0.773005,-0.825309,0.508123,-0.246325
0.258728,0.026716,0.883203,-0.272303,-0.216853,-0.937457
-0.115089,-0.217391,0.205431,0.898140,-0.001544,0.439707
-0.170194,0.408948,0.887219,0.794516,0.607243,-0.000753
-0.112501,0.022811,0.149040,-0.161909,0.831893,0.530792
0.240612,-0.491367,0.793473,-0.720714,0.623568,-0.302878
0.514032,-0.124575,0.592807,-0.142759,0.800967,0.581439
0.199740,0.526716,-0.812574,-0.443536,0.896176,0.012017
0.391960,0.263830,0.799507,0.871866,0.380413,-0.308442
0.551127,0.690107,0.688788,-0.591639,-0.769348,-0.240970
-0.069367,-0.587964,0.719067,0.638447,0.526088,-0.561797
-0.184860,0.628545,-0.992468,-0.083873,-0.057784,0.994800
-0.310436,0.068053,0.883203,0.127829,-0.866859,-0.481887
-0.004342,0.148835,0.769793,-0.214336,0.862620,-0.458199
0.619389,0.468052,0.683796,-0.349467,-0.342540,0.872089
-0.021757,0.247952,0.825879,0.936513,0.059451,0.345557
-0.381771,-0.158160,0.696385,-0.009953,0.878407,0.477809
0.093684,-0.205671,0.799269,0.869264,0.483779,-0.101674
-0.487989,-0.246565,0.822081,-0.626418,-0.683065,-0.375530
-0.157307,0.307372,0.662373,0.884192,-0.401356,0.238994
0.223249,0.236863,0.209620,0.562890,-0.825425,0.042746
0.240612,-0.150409,0.491768,0.899557,-0.170108,-0.402320
0.211280,0.604916,-0.933777,-0.670861,0.274430,0.688937
0.170140,0.094076,0.037822,0.323297,0.452879,0.830891
0.241528,-0.424826,0.140163,0.309363,0.354285,0.882483
0.191923,-0.318021,0.776500,0.763241,-0.410061,-0.499313
-0.126627,-0.164902,0.728140,0.792786,-0.034720,0.608510
0.200334,0.481853,-0.354178,0.983385,0.150714,0.101190
0.553178,-0.423251,0.683036,-0.616755,-0.126506,-0.776923
0.524116,0.761184,0.666714,0.442470,0.624912,0.643199
0.602782,-0.085193,0.386714,0.673177,-0.056758,-0.737300
-0.680479,-0.641524,0.386714,0.926628,-0.071622,0.369094
-0.032810,0.224512,0.817783,0.003489,-0.996093,0.088245
0.434286,0.603150,0.810100,-0.928589,0.324314,-0.180394
0.472622,0.081538,0.557839,-0.279510,0.275543,-0.919756
0.314102,0.029174,0.822754,0.918770,0.205749,-0.336941
0.525354,-0.451984,0.016116,-0.678317,-0.134267,0.722398
0.440003,0.540579,0.527126,-0.412298,0.823140,0.390450
-0.261263,0.583680,0.893101,0.890497,-0.229715,-0.392741
0.028765,0.320037,0.231911,0.832021,-0.551978,-0.055323
0.161352,0.346755,0.273672,-0.231498,-0.650924,0.722985
0.185884,0.353245,0.853944,-0.013992,-0.676103,0.736675
0.590164,0.605735,0.600100,0.966408,-0.170867,-0.191989
0.726957,0.275047,0.414909,0.852968,0.034427,0.520826
0.082414,0.010019,0.531598,-0.706311,0.677834,0.204122
-0.080258,0.184877,0.315564,0.579636,-0.675568,-0.455664
-0.463566,0.598299,0.852989,-0.549091,0.425607,-0.719275
0.557867,0.153435,0.386736,0.653936,0.406894,-0.637813
0.238832,0.588784,-0.856441,0.537824,-0.838322,-0.089227
-0.396760,0.367234,0.590050,0.543983,0.305856,0.781367
0.006388,-0.152237,0.770270,0.722334,0.428457,-0.542824
0.374006,0.725457,-0.939898,-0.059800,0.053558,0.996773
0.052598,-0.226716,0.249710,-0.137334,0.627507,0.766404
0.241313,-0.172338,0.644900,-0.686121,0.313707,0.656373
-0.061711,0.149527,0.330128,-0.864435,-0.335549,-0.374378
0.665704,0.290800,0.448054,0.928392,-0.017910,0.371170
-0.431160,0.082042,0.737256,0.332432,0.930519,-0.153697
-0.076754,0.500252,0.627036,-0.753530,0.640424,-0.148492
-0.225461,0.007750,0.198941,0.328623,0.746107,0.579078
0.208637,0.737682,-0.953746,0.298509,0.028897,-0.953969
-0.411641,0.064461,0.628599,0.198763,0.623079,0.756483
-0.288276,0.749779,0.825945,-0.511426,-0.037258,0.858519
0.278463,0.565406,0.824078,0.750774,0.589191,0.298651
0.666137,-0.607120,0.045440,0.152970,-0.128239,-0.979875
0.755425,0.352868,0.480221,0.015674,-0.127998,0.991651
-0.328284,-0.369124,0.631681,0.167870,0.329726,-0.929032
-0.662362,-0.456773,0.502860,-0.764302,0.377273,0.522979
-0.076429,0.126717,0.809253,0.946564,-0.169891,0.274141
0.303966,-0.288532,0.683101,0.268547,0.540636,0.797242
-0.378212,-0.135980,0.446078,0.139265,0.907869,-0.395448
0.335507,0.189288,0.728270,0.904186,0.293119,-0.310691
0.456069,-0.716257,0.230956,-0.206640,0.941119,0.267573
-0.084895,0.680656,-0.981681,0.248626,-0.169319,-0.953686
0.427277,0.177947,0.712924,0.395539,-0.914206,-0.088182
0.279865,0.314366,0.049043,-0.784726,0.605144,0.134187
-0.089478,0.435414,0.766775,0.651220,-0.012103,-0.758792
0.371094,0.307184,0.838794,0.764452,0.613593,0.197777
0.210686,0.513863,0.650087,0.974097,0.112846,-0.195960
0.587900,-0.112097,0.571492,-0.323576,-0.585962,-0.742932
0.595180,0.947070,-0.929675,-0.232104,0.081704,0.969253
-0.133637,-0.565596,0.643229,-0.129043,-0.878750,0.459506
0.235866,0.511217,-0.941916,0.187783,0.413049,-0.891138
0.189659,0.641083,-0.953247,0.536507,-0.119606,-0.835377
-0.209608,0.132199,0.739036,0.880546,0.304950,-0.362829
-0.182057,-0.735602,0.112380,-0.196280,0.618146,0.761163
0.476882,0.851922,-0.932887,-0.099319,0.171962,0.980084
-0.312053,-0.422557,0.680128,-0.341893,0.573070,-0.744782
0.168684,-0.223314,0.610518,0.971394,0.178349,0.156798
0.229127,0.418022,0.847975,-0.639075,0.597544,-0.484277
0.493813,0.168368,0.178364,0.475750,0.767471,-0.429709
0.137249,0.487145,0.829960,0.029993,0.431999,0.901375
0.078317,0.734090,0.618897,-0.215567,0.940952,-0.261036
-0.223196,-0.214870,0.450116,-0.848037,0.294875,-0.440321
0.381931,-0.214367,0.782555,0.865079,0.113782,-0.488562
0.454345,-0.329301,0.618376,-0.573872,0.012114,0.818855
-0.385059,-0.788532,0.472342,0.519294,0.760227,0.390371
0.333567,0.202144,0.604528,0.841044,0.512261,0.173882
-0.243470,-0.822747,0.472559,-0.285968,-0.063185,0.956154
-0.278517,-0.081285,0.752732,0.778302,0.289401,0.557219
-0.123070,0.032074,0.477052,0.984017,-0.080746,0.158713
0.290756,0.257088,0.213245,0.189000,-0.962355,0.195325
0.137680,0.076371,0.537263,-0.678303,0.469891,0.564896
-0.006876,-0.032261,-0.023279,-0.638402,-0.187219,-0.746587
-0.009410,-0.427851,0.385976,0.843633,-0.515251,0.150996
-0.276899,-0.318967,0.717808,0.899941,-0.320230,-0.295903
-0.302294,-0.761689,0.633830,-0.260831,0.632621,0.729217
0.294261,-0.228166,0.691784,-0.552159,0.206011,0.807886
-0.314696,-0.492880,0.736106,-0.609721,0.279625,0.741653
-0.213006,-0.596786,0.699380,0.160810,0.896485,-0.412861
0.390288,0.419912,0.747545,-0.085568,-0.806406,0.585139
0.151592,0.320164,0.788524,0.482729,-0.784169,0.389938
0.389372,0.221866,0.855442,0.066903,0.290848,0.954427
0.561157,0.387083,0.336379,0.134590,0.981035,0.139481
0.105977,-0.409137,0.780841,-0.224968,-0.537014,0.813022
0.191546,0.776685,0.796295,-0.532227,0.132124,0.836228
-0.114550,0.126025,0.832152,-0.698516,-0.113381,-0.706555
0.720809,-0.226654,0.570016,0.368440,0.842132,0.393783
0.477583,0.172464,0.668233,-0.759111,0.365801,-0.538461
0.516945,0.712162,0.538283,-0.043980,-0.853835,0.518683
0.642304,0.230813,0.293924,0.367589,0.809054,-0.458595
0.303911,0.250787,0.579957,0.840050,0.523816,0.141181
0.528914,-0.503024,0.661049,0.058773,-0.985050,-0.161932
0.289624,-0.177630,0.700249,0.170317,0.801794,0.572816
0.269241,0.288531,0.451418,0.874696,0.090780,-0.476095
-0.177742,0.450599,0.741619,0.117547,-0.712136,0.692131
0.302618,0.339824,0.553260,0.740183,0.669002,-0.067567
0.515003,0.580404,0.653690,0.279643,0.932302,0.229375
-0.134068,0.047196,0.412891,0.892722,-0.450072,-0.021990
0.270698,0.497039,-0.946626,0.002815,-0.339585,0.940571
-0.033080,0.501008,0.799355,0.684333,0.728622,-0.028273
0.100154,-0.095779,0.365030,-0.029702,0.608884,0.792703
0.275389,0.651417,0.789067,0.890451,0.440504,-0.114249
-0.131427,-0.113107,0.753383,-0.607467,0.638556,-0.472472
-0.451756,-0.922180,0.592655,0.490161,0.791196,0.365719
-0.026717,-0.064334,0.687269,0.711785,0.687153,0.145544
-0.121398,0.008696,0.138404,-0.244742,0.842215,0.480390
-0.111315,-0.271833,0.728422,-0.261117,0.924055,-0.279179
0.505513,-0.586956,0.647027,-0.609102,0.343347,-0.714918
-0.213222,-0.613107,0.681365,0.353881,0.735346,-0.577957
0.265251,-0.519281,0.578525,-0.509993,-0.611036,-0.605428
0.283746,0.329742,0.647656,0.811455,0.569041,-0.133161
-0.055563,-0.183428,0.017722,-0.618305,-0.282176,-0.733536
0.307416,0.429995,0.476509,-0.759883,0.253080,0.598772
-0.018738,-0.273283,0.880859,-0.277707,0.947246,-0.160011
-0.133206,0.698047,0.834171,-0.296560,-0.133512,-0.945636
0.148896,0.643793,0.785051,0.362470,-0.599882,0.713272
-0.210688,-0.103717,0.875368,-0.596618,0.793034,0.123063
-0.323593,-0.317580,0.726989,0.773540,0.378438,0.508350
0.414822,-0.180403,0.798053,0.881314,0.253744,-0.398622
0.334430,-0.055891,0.594153,0.985838,-0.131428,0.104159
0.479956,-0.258222,0.853467,0.775832,-0.145787,-0.613865
0.152239,0.386832,0.824208,-0.291783,0.843184,-0.451556
0.010703,-0.219913,0.705718,0.240033,-0.630147,-0.738444
-0.361552,-0.924952,0.552826,-0.584751,-0.548027,-0.598108
-0.563962,-0.030434,0.647396,-0.325504,-0.454261,-0.829273
0.458657,0.373976,0.720782,0.816641,-0.576040,0.035726
0.595502,0.247825,0.344562,-0.416150,-0.858403,0.299941
0.147979,0.347386,0.516947,0.469368,0.802372,-0.368638
0.410077,0.084248,0.775045,0.534642,-0.663837,-0.522952
-0.430568,-0.173409,0.813334,0.982371,-0.168532,0.080896
0.357344,0.318652,0.781861,0.955592,0.294496,-0.010812
0.661984,-0.038374,0.525650,-0.576961,-0.456651,-0.677190
-0.215216,-0.251165,0.646246,0.511570,0.579646,-0.634276
0.797050,0.145747,0.516751,0.969722,0.192026,0.150883
-0.306554,-0.011783,0.805476,0.086986,-0.978639,0.186278
0.124363,0.536421,0.808146,0.282700,0.667761,0.688604
-0.247298,0.668116,-0.985110,-0.082305,-0.235306,0.968430
0.482813,0.545494,0.443322,0.495455,0.455109,-0.739865
0.152239,0.120542,0.578069,0.721397,-0.666120,0.189397
0.138759,0.128292,0.038060,0.396753,0.460771,0.793900
-0.295177,0.022307,0.756075,0.193001,-0.630476,0.751832
0.821369,0.040518,0.548658,0.248451,0.875877,-0.413657
0.138113,0.719344,-0.962298,-0.335756,0.013107,0.941858
-0.054808,0.498487,0.798010,0.748760,0.411457,-0.519675
0.236674,-0.082987,0.000033,-0.804271,0.024621,-0.593753
-0.150245,0.675993,-0.986847,-0.033804,-0.284752,0.958005
-0.085973,-0.045620,0.369176,-0.619043,-0.284930,-0.731847
0.213113,0.595589,0.774199,-0.018032,-0.310710,0.950334
-0.348880,-0.428040,0.726295,-0.099559,0.790423,-0.604416
0.331356,0.200945,0.674658,0.160480,-0.903445,-0.397535
0.568867,0.480592,0.677262,-0.028129,-0.690961,0.722345
0.324076,-0.697354,0.656621,-0.505609,0.329878,0.797208
0.216348,0.472906,0.778431,0.732553,0.617476,-0.286512
0.090880,0.112729,0.695886,0.329893,-0.757547,0.563288
0.540399,0.503593,0.422116,-0.101969,-0.873795,0.475485
0.235165,-0.101638,0.644943,0.546515,-0.658476,-0.517427
0.038039,-0.286705,0.253139,-0.332089,0.662204,0.671717
0.177150,0.372023,-0.075133,0.573036,-0.804229,0.157627
0.356105,-0.570636,0.611365,-0.190885,0.657139,0.729199
-0.244008,-0.029427,0.812726,0.211993,0.873665,-0.437914
-0.044833,-0.332326,0.359669,0.931451,0.016533,-0.363492
0.735906,-0.101134,0.389124,-0.520835,0.742369,0.421448
-0.125441,0.043227,0.877972,-0.215419,-0.934634,0.282937
0.209393,-0.405166,0.640667,0.844583,-0.213317,0.491096
-0.471113,0.065910,0.612103,-0.517449,0.634292,-0.574387
0.536840,0.376055,0.569995,0.137766,-0.547977,0.825071
0.276791,0.416193,0.703287,0.786006,0.594293,0.170324
0.445933,0.265407,0.387604,-0.638652,0.137545,-0.757103
-0.009355,0.499873,-0.979358,-0.110391,-0.049394,0.992660
0.100855,0.118463,0.152491,0.996865,0.060838,-0.050585
-0.353894,-0.420982,0.685033,-0.020424,-0.519621,0.854153
-0.296039,0.125142,0.904257,0.775049,0.438841,0.454661
0.484323,0.109704,0.553455,0.431413,-0.891528,0.138059
0.059822,0.354001,0.280987,0.006687,-0.965084,0.261856
0.438115,0.065155,0.562723,0.202783,0.072488,-0.976537
-0.516082,-0.443164,0.627601,0.726963,0.013585,0.686542
0.038254,-0.376056,0.650695,0.059682,-0.952145,0.299763
0.123338,0.081348,0.450159,-0.553826,0.828567,-0.082178
-0.418111,0.072716,0.852143,0.719427,0.345246,-0.602685
0.049309,0.401450,0.291731,0.140113,0.944049,-0.298562
0.132666,0.059924,0.671706,0.818477,0.573375,-0.036552
0.342247,-0.295337,0.750106,-0.510751,0.806015,-0.299121
-0.375948,0.112793,0.886633,-0.102338,-0.405717,0.908252
-0.356212,-0.593888,0.664652,-0.145199,0.934373,0.325368
-0.267626,0.585003,0.848822,-0.086598,0.025385,0.995920
-0.236515,-0.110713,0.814961,0.972644,0.185348,-0.140032
-0.377942,-0.582168,0.664847,0.887007,-0.330167,-0.322813
-0.199311,-0.164146,0.821647,0.689521,0.659917,0.298447
0.128191,0.324323,-0.093756,-0.730320,0.602765,0.321414
0.525949,-0.222180,0.630010,0.931270,-0.306273,0.197314
0.344028,-0.202458,0.711861,0.747614,-0.011426,-0.664035
-0.185399,0.532450,0.774242,0.544796,0.826945,-0.139135
0.631522,0.477882,0.647049,-0.292241,-0.098620,-0.951246
0.351144,0.730561,-0.939507,-0.017309,0.076753,0.996900
0.202329,-0.313863,0.684664,0.628724,-0.105116,-0.770491
0.153426,0.137178,0.585644,-0.705777,0.700744,-0.104102
0.011889,-0.459105,0.016594,-0.480979,0.206401,0.852090
0.791066,0.677631,0.597083,-0.675402,0.093565,0.731490
-0.423989,0.140012,0.873718,0.792869,-0.250228,-0.555648
0.276090,-0.051166,0.506506,0.901709,0.207362,-0.379371
-0.108565,-0.257151,0.729051,-0.562356,0.815424,-0.137260
0.209554,0.550913,0.741749,0.900967,0.424235,0.091015
-0.105870,-0.256586,0.394289,-0.710567,-0.144855,-0.688557
0.168037,-0.036296,0.843873,0.838928,0.387146,-0.382516
0.188472,-0.201702,0.721325,0.480682,-0.642609,-0.596656
-0.405171,-0.575174,0.516165,0.983235,-0.161284,-0.085069
0.011134,0.616761,0.641514,-0.169767,0.893150,0.416487
-0.525842,0.266351,0.439740,0.278710,-0.925365,0.256944
-0.292428,-0.494140,0.731374,0.998819,0.036144,0.032471
-0.098051,-0.167171,0.721715,-0.540288,-0.016500,-0.841318
0.144367,-0.451859,0.415821,0.783745,0.313447,0.536185
0.609522,0.273536,0.680041,0.648993,-0.760101,0.032492
0.111800,0.071581,0.445405,0.515420,-0.856521,-0.026712
0.177633,0.120542,0.492788,0.466913,-0.871991,0.147050
0.475049,0.419534,0.767774,-0.086246,-0.960297,0.265314
-0.370987,-0.188910,0.688875,0.307523,0.743324,0.594053
-0.059177,0.622999,0.784292,0.507204,0.532011,-0.678018
-0.251989,-0.390232,0.480199,0.969540,-0.137704,0.202560
0.399509,0.813926,-0.939333,-0.112348,0.020509,0.993457
0.169439,0.183681,0.301303,0.978884,-0.204043,-0.012320
-0.181678,-0.411404,0.634329,0.405933,0.857579,0.315875
0.370177,0.296283,0.805172,0.635981,0.613665,-0.467914
0.502331,0.150410,0.479461,0.290992,0.786149,0.545246
-0.288330,-0.425961,0.689526,0.296565,0.771693,0.562618
-0.096919,0.438311,0.569843,0.968061,-0.205749,-0.143267
0.444046,-0.083112,0.790890,0.985800,0.143180,-0.087739
0.845200,0.274480,0.566891,0.991066,-0.041427,0.126772
-0.408676,0.436673,0.630466,0.897135,-0.440041,-0.038883
-0.229451,-0.430813,0.712165,0.943895,-0.298050,0.142224
-0.249294,-0.003528,0.205952,-0.142597,0.917101,-0.372280
0.163562,0.592628,0.769771,0.161406,-0.433571,0.886546
0.107540,0.231128,0.130612,0.917648,0.205248,0.340288
-0.128299,-0.692375,0.674506,-0.147112,0.264337,0.953144
0.764106,-0.197039,0.442974,0.181291,0.923467,0.338144
0.550374,0.500189,0.590397,-0.284319,0.874293,0.393413
-0.415686,0.187650,0.809383,0.592575,-0.345685,0.727569
-0.681935,-0.794770,0.383979,0.891624,0.398167,0.215568
0.688728,-0.300377,0.426913,-0.700460,0.105767,0.705811
-0.197315,0.671456,0.877408,0.977367,-0.211118,-0.013512
0.332649,-0.514114,0.006913,0.156032,-0.385915,-0.909243
-0.261047,-0.463830,0.728986,-0.590063,0.411217,-0.694785
-0.509935,-0.200692,0.654754,-0.187396,-0.026429,0.981929
0.273610,0.893637,-0.940701,0.035026,-0.089654,0.995357
-0.242985,0.570952,0.753405,-0.376941,0.922065,-0.087817
0.095408,-0.126906,0.365682,0.071825,0.576158,0.814177
0.122637,0.073975,0.453024,-0.503430,0.845887,-0.176165
-0.402690,-0.951858,0.595238,-0.464730,-0.812902,-0.351021
0.555333,0.536737,0.566413,-0.203039,0.554228,0.807221
0.567681,0.681160,0.664977,0.960876,0.276484,0.016558
-0.441189,0.493068,0.819607,-0.880859,0.457831,0.120321
0.222010,0.494833,-0.337508,-0.421295,-0.899006,-0.119575
-0.257111,-0.047762,0.781535,-0.139013,0.990276,0.005386
0.014585,-0.450094,0.019112,0.471884,-0.220251,-0.853707
-0.176018,0.585128,0.796881,0.963241,0.107879,-0.246028
0.084462,-0.155199,0.708844,0.657398,0.217925,-0.721344
-0.312971,-0.585948,0.721911,0.976600,-0.095935,0.192479
0.521850,-0.427915,0.688593,-0.874561,0.287664,-0.390375
-0.932602,-0.156333,0.319796,0.200233,-0.206165,0.957811
0.067695,-0.282419,0.257849,-0.090484,0.634861,0.767310
0.025584,0.581223,0.780211,0.985080,-0.128958,0.113961
-0.593455,-0.479143,0.403992,0.610703,-0.333038,-0.718420
0.059606,0.159609,0.746850,-0.659561,0.536553,-0.526394
-0.442645,-0.224197,0.705979,-0.165863,0.610950,0.774099
-0.570593,-0.326843,0.673920,0.931777,-0.143052,-0.333658
0.127705,0.344740,-0.039167,0.829614,-0.440845,-0.342632
0.013883,-0.458159,0.025450,-0.479459,0.185064,0.857829
0.175800,0.075741,0.877538,0.747806,-0.538300,0.388612
0.358315,-0.374039,0.258956,-0.042914,0.220170,0.974517
0.333836,0.163390,0.759070,0.915462,-0.094279,-0.391204
0.363222,-0.500757,0.571839,-0.330155,0.446400,0.831700
-0.104252,0.317518,0.873067,-0.353580,-0.904011,0.240302
0.124363,-0.310335,0.407790,0.830367,0.276296,0.483892
0.095355,0.499937,-0.968375,-0.333550,-0.044667,0.941674
-0.284232,0.530751,0.742661,-0.687509,0.710584,0.149673
0.413312,0.174922,0.725731,-0.224883,0.878702,0.421082
-0.248754,-0.332387,0.550025,0.606665,-0.581492,-0.542056
-0.176826,-0.025771,0.830329,-0.031990,0.997056,0.069682
-0.232740,0.112854,0.733110,0.935880,0.297201,-0.189208
0.413474,-0.258222,0.787331,0.943284,0.277329,-0.182495
0.161027,0.307624,0.776326,0.552994,-0.704936,0.444143
0.343542,0.456459,0.792041,-0.042282,-0.982471,0.181559
-0.178282,0.521236,0.781036,0.479424,0.873869,-0.080653
-0.605586,-0.823251,0.445775,-0.748965,0.429141,-0.504866
0.598145,0.540327,0.560813,-0.337771,0.388719,0.857210
-0.195051,0.597858,0.844893,-0.745112,0.392061,-0.539533
0.304181,-0.401701,-0.008107,0.079561,0.228178,0.970363
0.460760,0.454757,0.411827,0.764933,0.466886,0.443729
0.168954,0.060367,0.359843,0.980137,-0.193812,-0.042057
0.226754,-0.326464,0.778193,0.166057,0.881306,0.442409
-0.431591,0.013673,0.873175,-0.499777,-0.697105,-0.514069
-0.152293,-0.007247,0.827464,-0.012412,0.903874,0.427619
0.706091,0.622369,0.647548,-0.505833,0.092217,-0.857688
0.212466,0.525835,-0.570168,0.889270,-0.457359,-0.004583
-0.295554,0.282104,0.819021,0.795197,0.447045,0.409649
0.566764,0.502395,0.670339,0.206913,-0.229122,0.951152
0.185507,-0.206050,0.764670,0.932378,0.266602,-0.244122
0.715903,-0.254568,0.597148,0.371844,0.793680,0.481460
0.182864,0.655892,0.593458,0.743431,0.270342,0.611739
0.284232,-0.516319,0.578047,0.261241,-0.584971,-0.767829
-0.353356,0.102332,0.924096,0.878636,0.298663,0.372557
0.488636,0.534783,0.672270,0.499961,0.863983,-0.059769
0.658803,-0.337114,0.414866,0.840912,0.173694,-0.512539
-0.121829,-0.374291,0.742075,0.787515,0.372282,0.491148
-0.230043,-0.012855,0.754338,0.834654,-0.169221,-0.524135
0.459036,0.277945,0.246389,0.347832,0.903247,-0.251313
-0.303480,0.024765,0.761913,-0.082216,-0.345806,0.934697
-0.157416,0.327094,0.553563,0.823444,-0.553340,0.125523
0.114820,0.192942,0.828007,0.698425,0.625864,-0.347127
0.002561,-0.697794,0.572860,0.903875,-0.239303,-0.354603
0.392339,0.459799,0.793365,-0.179526,-0.840928,0.510500
0.172080,-0.295085,0.798834,0.755387,-0.214340,0.619233
0.444855,0.510586,0.410134,0.943235,0.079767,0.322405
-0.192086,0.499873,0.758267,-0.006423,-0.583632,0.811993
-0.391907,0.497227,0.794754,0.589185,-0.255121,0.766664
0.147548,0.069503,0.557210,-0.186566,-0.949101,0.253773
0.123769,-0.318084,0.595976,-0.328275,-0.160139,0.930909
0.220661,-0.346692,0.797337,-0.275506,0.841129,0.465401
0.436389,0.498487,0.829634,-0.570284,-0.703990,-0.423290
-0.249294,0.646817,0.837101,-0.002268,0.386222,0.922403
0.197154,-0.749464,0.069533,0.435121,0.122834,-0.891954
0.689429,0.278639,0.328913,0.611951,0.690867,-0.384993
0.573613,0.340644,0.649892,0.052662,-0.557909,0.828230
-0.260562,-0.574291,0.564460,0.076320,0.408762,0.909444
0.402744,-0.481285,0.730896,0.632382,0.758245,-0.158614
0.260022,0.143164,0.881076,0.593909,0.702252,-0.392573
0.607743,-0.496282,0.036237,-0.054792,0.020740,0.998282
-0.266762,0.130688,0.805281,-0.011230,0.958792,0.283888
-0.076969,0.510398,-0.984047,-0.163349,-0.048415,0.985380
-0.445502,0.121046,0.871938,-0.592475,-0.059949,0.803355
0.136062,0.621865,-0.964425,0.352968,0.083748,-0.931880
-0.085703,-0.092060,0.377424,-0.851011,0.367876,0.374764
0.391853,-0.103655,0.750345,0.939897,-0.024922,-0.340549
0.240773,-0.072023,0.816112,0.803233,0.569882,0.173352
0.326127,-0.018841,0.636543,0.956426,0.009893,0.291808
-0.043810,0.161436,0.788329,0.740138,-0.538831,0.402315
0.367859,0.858348,0.609411,-0.621897,0.740801,-0.253886
-0.307740,-0.572211,0.557861,-0.329234,0.475865,0.815572
0.176286,0.137870,0.399281,-0.450279,0.891698,0.046081
0.160326,0.056207,0.865839,0.978007,0.198576,-0.063796
0.105492,-0.017391,0.703331,0.958285,0.172251,0.228077
-0.304344,0.230813,0.839337,-0.335261,-0.803970,0.491153
0.179360,-0.424826,0.393942,0.633515,0.319287,0.704780
-0.219367,-0.491115,0.699510,-0.264796,-0.117758,-0.957087
-0.276684,-0.513547,0.696906,0.391075,-0.204428,0.897368
-0.682421,-0.631884,0.380246,0.926628,-0.071622,0.369094
0.373682,-0.409262,0.702680,-0.604002,-0.689336,0.399996
0.118216,0.281916,0.759331,0.382028,-0.885158,0.265611
-0.119942,0.494706,0.815916,-0.056083,-0.897194,0.438062
0.274634,0.610775,0.674028,-0.624618,0.657300,0.421674
0.095355,-0.025519,0.731352,-0.786010,0.613107,0.079297
0.285148,-0.371960,0.733740,0.808165,-0.551291,-0.207235
0.631522,0.237870,0.459080,0.887301,-0.460199,0.030233
-0.109858,0.317391,0.471105,-0.634560,-0.670861,-0.383770
0.284016,0.208066,0.275886,-0.507398,0.616203,0.602362
-0.828217,0.037302,0.338615,-0.443482,0.490457,-0.750184
0.339606,0.448457,0.698013,-0.161574,0.213148,0.963567
-0.182379,-0.047953,0.598841,0.711911,-0.695318,-0.098572
0.197422,0.193700,0.236708,-0.287016,0.953409,0.092911
-0.328445,-0.469691,0.664239,-0.037108,-0.082330,0.995914
-0.172459,-0.098488,0.451613,0.897151,-0.441700,-0.004536
0.457255,0.348709,0.361384,0.154955,0.972523,-0.173746
0.212358,0.461626,0.594456,0.954666,0.018597,0.297099
-0.587685,-0.000694,0.252488,0.286735,0.703018,0.650806
0.154288,-0.487902,0.413889,0.750297,0.458313,0.476449
0.628933,0.215187,0.570190,-0.002995,-0.865722,0.500517
0.826706,0.189477,0.626385,-0.179506,0.977768,0.108382
-0.080150,0.074606,0.799377,0.952451,0.168938,0.253567
0.166041,-0.704536,0.066343,0.283891,0.697430,0.658025
-0.106301,-0.144613,0.731135,0.857657,0.002264,0.514217
0.223088,0.535223,0.744853,0.118666,-0.894132,0.431795
-0.557168,-0.649149,0.310680,0.405142,0.225849,0.885919
-0.007629,-0.417138,0.760090,-0.097842,0.980008,-0.173240
0.432614,0.006491,0.810599,-0.753625,-0.521610,0.399967
-0.134338,0.362823,0.315412,-0.068095,0.982907,-0.171045
-0.078695,0.476748,0.618463,0.899369,-0.428288,0.087778
-0.189983,-0.593761,0.678956,0.797206,0.171574,-0.578814
-0.094924,0.494202,0.600556,0.899104,-0.110459,-0.423568
0.132612,0.422999,0.032439,0.973041,-0.097333,0.209088
0.148410,0.526464,0.730962,0.345452,0.917114,-0.198907
-0.196453,0.435162,0.860413,0.642724,0.766096,-0.001822
-0.312593,-0.560932,0.367309,0.652264,0.342508,0.676195
0.251719,-0.527600,0.193276,0.820113,0.521764,0.234898
-0.392824,0.035602,0.871938,0.845452,0.329607,-0.420203
