0.023680,-0.201903,0.435220,0.774797,-0.329423,-0.539601
-0.319383,-0.152797,0.168218,0.444587,0.730314,-0.518637
-0.097741,-0.174647,0.284505,0.437632,-0.864176,-0.248351
-0.061876,-0.174863,0.284161,-0.135251,0.851626,0.506399
-0.033147,-0.174142,0.279457,-0.210072,0.959850,0.185900
-0.108378,-0.314970,0.245841,0.376022,-0.744818,-0.551230
-0.069325,-0.315835,0.249018,-0.793515,0.545809,0.269122
-0.057526,-0.307686,0.200972,-0.486076,-0.364894,-0.794092
0.029968,-0.300259,0.153098,0.767615,-0.629457,0.120627
0.162956,-0.299755,0.144774,0.069894,0.436841,0.896819
0.098054,-0.268243,-0.037513,0.941318,0.039742,-0.335173
0.075926,-0.259446,-0.088711,-0.821202,0.511773,-0.252421
0.099684,-0.197360,-0.453383,0.052831,0.714296,0.697846
0.164273,-0.201832,-0.430825,-0.029514,0.178214,0.983549
0.449424,-0.225628,-0.303702,0.056176,0.032992,0.997876
0.611055,-0.178757,-0.279543,-0.304365,0.507269,0.806251
-0.243380,-0.285261,0.374072,0.085235,-0.587598,0.804651
-0.237172,-0.276680,0.324893,-0.613480,0.787881,-0.053723
-0.201459,-0.276824,0.324474,0.542239,-0.778319,-0.316538
-0.143391,-0.280213,0.341294,-0.535154,0.842409,0.062908
-0.380869,-0.242068,0.129949,-0.295345,-0.884744,0.360555
-0.358745,-0.240338,0.119064,0.960359,0.107875,-0.257049
-0.241982,-0.246971,0.152974,0.408891,0.605418,-0.682846
0.004191,-0.277473,0.319130,0.207622,0.949417,-0.235584
-0.056981,-0.263484,0.241359,0.784303,-0.581389,0.216461
-0.045183,-0.255336,0.192993,0.959066,-0.203560,0.196866
-0.056129,-0.248846,0.155339,0.825275,0.552851,-0.115229
-0.045259,-0.245240,0.133913,0.534100,0.008771,0.845376
-0.004347,-0.246250,0.138371,0.250403,0.082954,0.964581
0.023367,-0.245169,0.130638,0.079931,-0.054208,0.995325
0.121030,-0.254687,0.181591,-0.476854,0.251986,0.842089
0.145485,-0.247981,0.141868,0.759694,0.640495,0.112386
0.209302,-0.252668,0.166297,-0.257884,0.889917,-0.376222
0.123669,-0.223031,-0.001976,0.982354,0.162469,-0.092655
0.114818,-0.216036,-0.042709,0.997737,0.042391,-0.052189
0.107370,-0.208970,-0.082456,-0.812896,0.137264,-0.566003
0.105351,-0.203129,-0.116663,0.777473,0.394754,0.489597
0.106592,-0.173854,-0.287522,-0.748565,0.168949,0.641176
0.024609,-0.147750,-0.435036,-0.634875,0.328636,0.699237
0.071888,-0.149480,-0.427032,-0.546726,0.237872,0.802812
0.429778,-0.172411,-0.309144,0.572046,-0.087757,0.815513
0.570063,-0.178107,-0.282154,0.212098,-0.313846,-0.925481
0.485056,-0.279420,-0.299712,0.566075,0.339358,-0.751262
0.715318,-0.288289,-0.257749,0.561826,-0.068932,-0.824378
-0.452916,-0.389530,0.399487,-0.616710,-0.387634,-0.685134
-0.438397,-0.387078,0.384662,-0.633955,-0.735955,-0.237637
-0.403926,-0.387150,0.383283,0.813227,0.096976,0.573810
-0.416269,-0.376550,0.321445,-0.423311,0.844831,-0.327213
-0.380016,-0.372223,0.293248,0.459248,-0.803977,0.377773
-0.466889,-0.356071,0.200996,0.338876,-0.035858,-0.940147
-0.302695,-0.368907,0.270246,-0.548713,0.242453,-0.800082
-0.270242,-0.368762,0.268399,0.516217,-0.009230,0.856408
-0.246256,-0.367321,0.258623,0.274716,-0.162322,0.947725
-0.174052,-0.367826,0.257687,-0.604161,0.294277,-0.740534
-0.048831,-0.371214,0.272291,0.466687,0.378472,-0.799351
-0.084464,-0.361479,0.215920,0.574578,0.533055,0.621057
0.636054,-0.232550,-0.270579,-0.180750,0.120678,0.976098
-0.484587,-0.328670,0.342526,0.128452,-0.840982,-0.525595
-0.449808,-0.328886,0.342255,0.050304,-0.419926,0.906163
-0.413630,-0.329247,0.343067,0.154111,-0.591017,0.791801
-0.368682,-0.330617,0.349150,-0.361226,0.563566,0.742906
-0.352533,-0.328454,0.335409,-0.010701,-0.940583,0.339394
-0.308902,-0.329751,0.340826,-0.309547,0.592992,0.743331
-0.340114,-0.292111,0.121329,0.674561,0.600078,-0.429970
-0.144708,-0.314826,0.245940,0.522660,-0.814531,-0.251727
-0.085554,-0.422916,-0.048176,0.272810,0.557419,0.784129
0.204023,-0.460413,0.165756,-0.624866,-0.055149,0.778782
-0.484047,-0.421473,0.308073,-0.649702,0.372336,-0.662762
-0.392823,-0.429046,0.349421,0.857223,-0.505295,-0.099225
-0.418288,-0.421402,0.304453,-0.505681,0.276918,-0.817070
-0.398571,-0.419527,0.291795,-0.516862,0.162145,-0.840573
-0.362939,-0.419887,0.291992,-0.582423,0.114590,-0.804769
-0.403926,-0.400057,0.176222,-0.287455,0.199999,0.936680
-0.256112,-0.415561,0.262267,-0.282253,0.212427,-0.935526
-0.185624,-0.416066,0.261282,-0.396309,-0.081268,-0.914513
-0.091140,-0.415057,0.250767,0.780224,0.092242,-0.618661
-0.202544,-0.394433,0.132559,0.086083,0.757684,0.646919
-0.153171,-0.391837,0.114532,0.180627,-0.728469,-0.660838
-0.066918,-0.399120,0.154132,0.372191,-0.626080,-0.685199
-0.036175,-0.362633,-0.066129,-0.369312,0.675462,0.638247
0.112880,-0.368979,-0.035739,-0.513291,0.392436,0.763234
0.146959,-0.363427,-0.069576,-0.045312,0.519058,0.853537
0.111326,-0.329247,-0.273386,0.814939,-0.267335,-0.514205
0.268768,-0.306677,-0.416640,0.059171,0.457218,0.887384
-0.025154,-0.364941,0.234242,0.914789,0.334689,0.226150
-0.028338,-0.349726,0.143075,-0.842449,0.482624,-0.239487
0.206662,-0.353981,0.157407,0.491952,0.437585,0.752664
0.242991,-0.354485,0.158466,0.429736,0.522504,0.736421
0.004116,-0.312878,-0.078220,-0.278413,0.600406,0.749666
0.033617,-0.311724,-0.085830,-0.130460,0.509445,0.850556
0.128176,-0.321027,-0.035198,0.915389,0.156211,-0.371028
0.158449,-0.320017,-0.041798,0.884638,-0.125948,0.448946
0.160548,-0.255913,-0.423954,0.842310,0.096679,0.530252
-0.457730,-0.535981,0.371757,0.278679,0.844485,-0.457365
-0.411535,-0.537496,0.378776,-0.610149,0.485175,0.626358
-0.360451,-0.522426,0.283175,-0.669931,0.090943,-0.736832
-0.301141,-0.521272,0.273497,-0.547819,0.341023,-0.763936
-0.254482,-0.523002,0.281944,0.290991,-0.085532,0.952895
-0.235230,-0.516369,0.240005,-0.672385,0.232834,-0.702629
-0.276141,-0.506201,0.179276,0.065432,0.636003,0.768907
-0.068552,-0.520767,0.258426,0.840499,-0.468511,-0.272138
-0.110008,-0.510456,0.197179,-0.492203,0.791859,0.361519
-0.481796,-0.478079,0.309083,-0.514236,0.428707,-0.742813
-0.458583,-0.476636,0.298863,-0.561563,0.315659,-0.764857
-0.415260,-0.478079,0.304921,0.415488,-0.186785,0.890214
-0.330410,-0.475555,0.285761,-0.422137,0.018711,-0.906339
-0.302695,-0.474834,0.279949,-0.551472,-0.102451,-0.827878
-0.285926,-0.472671,0.265494,-0.788474,0.048500,-0.613153
-0.275989,-0.455364,0.159008,0.035073,0.542183,0.839528
-0.057450,-0.476060,0.274876,-0.638001,0.122124,0.760290
-0.049765,-0.463152,0.195406,0.905000,-0.424676,0.024997
-0.261158,-0.423204,-0.038104,0.198766,0.034592,0.979436
-0.473722,-0.596337,0.391139,-0.320471,0.355211,0.878136
-0.357272,-0.598284,0.397197,-0.490030,0.146495,0.859308
-0.323264,-0.576867,0.261775,-0.382407,0.527950,-0.758310
-0.277771,-0.578310,0.268252,-0.025829,-0.175606,0.984122
-0.238646,-0.578886,0.270173,-0.729974,0.330473,-0.598269
-0.177161,-0.578310,0.263228,-0.525980,0.133251,0.839994
-0.142846,-0.578382,0.261381,-0.494881,-0.868956,0.002987
-0.020884,-0.581122,0.272438,0.265536,0.362382,0.893404
-0.122115,-0.533747,-0.019683,-0.410777,0.583806,0.700309
0.174598,-0.565978,0.167750,-0.087984,0.060851,0.994262
0.251535,-0.567421,0.172183,-0.271511,0.087095,0.958487
0.224052,-0.532953,-0.042364,-0.512606,0.212123,0.832009
0.162719,-0.478872,-0.378099,0.012532,0.422174,0.906428
-0.181430,-0.470867,-0.042413,0.010397,0.263040,0.964729
-0.146958,-0.470867,-0.044236,-0.136167,0.346566,0.928090
-0.103176,-0.471805,-0.039901,-0.225994,0.334464,0.914910
-0.058460,-0.473103,-0.034483,-0.452182,0.648169,0.612705
0.214580,-0.508076,0.165805,0.326860,0.240323,-0.914006
0.256349,-0.509374,0.171469,-0.356342,-0.298201,0.885492
0.301454,-0.511177,0.180261,0.343997,0.173515,-0.922799
0.280027,-0.476421,-0.031011,-0.442304,-0.017849,0.896687
0.256813,-0.624098,0.173415,-0.153285,0.081759,0.984794
0.153171,-0.589415,-0.042733,0.397203,-0.359448,-0.844409
0.011100,-0.558047,-0.235388,-0.113629,0.328922,0.937496
0.158918,-0.558336,-0.241988,-0.075026,0.394726,0.915730
-0.406257,-0.647100,0.357573,-0.326772,0.645696,0.690142
-0.110781,-0.638015,0.282929,0.317822,0.230498,0.919706
-0.124214,-0.622728,0.186048,0.224566,0.524805,0.821066
-0.139818,-0.592299,-0.007567,0.122045,0.497663,0.858741
-0.292910,-0.700173,0.284308,-0.086656,0.496812,0.863521
-0.394998,-0.683300,0.178906,0.904418,-0.059046,-0.422543
-0.247497,-0.657196,-0.000129,-0.529988,-0.239719,-0.813417
0.012033,-0.624171,-0.232235,-0.084684,0.253289,0.963677
-0.258675,-0.789083,0.014425,0.360621,0.356113,0.862053
0.247265,-0.762691,-0.202191,-0.296996,0.357237,0.885537
0.020264,-0.684382,-0.224059,-0.174669,0.267252,0.947664
0.187642,-0.687770,-0.211574,-0.292751,0.334017,0.895952
0.385062,-0.423204,-0.620942,0.043308,0.287531,0.956792
0.176772,-0.560066,-0.238220,-0.075026,0.394726,0.915730
0.040212,-0.571603,-0.245189,0.001766,0.255832,0.966720
-0.645446,-0.530646,0.420149,-0.220448,0.972365,0.076877
-0.590481,-0.521272,0.454749,0.104083,-0.994308,0.022777
-0.574180,-0.516873,0.477726,-0.190319,0.981722,0.000859
-0.595991,-0.514421,0.506613,0.894518,0.445186,0.040582
0.171262,-0.493222,-0.241544,-0.167483,0.277959,0.945880
-0.205572,-0.450894,0.280270,0.457533,0.356191,0.814734
-0.900707,-0.444908,0.320682,-0.481940,-0.530972,0.696995
0.123049,-0.188275,0.922483,-0.364171,-0.112762,0.924480
0.250677,0.329680,0.614551,0.786362,0.489680,-0.376628
0.506948,0.442025,0.780560,0.906436,0.248436,-0.341545
-0.125223,0.371286,0.541509,0.739236,0.673444,0.001950
0.324586,0.657485,0.646123,0.271776,-0.695382,0.665267
0.200294,0.648976,0.659963,0.485062,0.853226,0.191626
-0.066918,0.596914,0.239439,-0.548427,-0.112275,-0.828626
-0.029579,0.602105,0.269582,-0.693962,0.131423,0.707916
0.218072,0.628281,0.367054,0.941535,-0.329280,0.071324
0.169707,0.696496,0.651221,0.156860,0.656147,0.738150
-0.070026,0.649409,0.258869,0.914884,0.026613,-0.402839
0.401055,0.747404,0.685328,0.453356,0.500418,-0.737598
0.221953,0.730892,0.648807,-0.213065,-0.626448,0.749778
0.311854,0.747260,0.775363,0.601530,0.183212,-0.777557
0.170328,0.743078,0.631593,0.078377,0.994935,0.062933
0.250445,0.752667,0.672769,0.003501,-0.420934,0.907085
0.201535,0.749134,0.674640,-0.000590,-0.429661,0.902990
0.518514,0.795860,0.573179,-0.252806,0.640431,0.725215
0.437313,0.788939,0.565323,0.045927,0.748253,0.661822
0.387162,0.795645,0.686929,0.542055,0.407094,-0.735153
0.309139,0.789083,0.679911,0.008951,-0.599863,0.800052
0.240352,0.783675,0.675773,-0.006441,-0.410756,0.911723
0.175920,0.778555,0.673754,-0.147824,-0.476654,0.866573
0.349354,0.800332,0.775290,0.637112,0.028293,0.770252
0.450741,0.832275,0.555103,-0.158267,0.794984,0.585621
0.076703,0.797015,0.474106,0.109313,0.506662,0.855186
0.280648,0.831194,0.691362,0.215484,0.830431,-0.513761
0.180966,0.822541,0.678852,0.221584,0.303476,-0.926716
0.381878,0.851528,0.220599,0.437525,-0.321790,-0.839657
0.312011,0.845976,0.215575,-0.108285,0.067872,0.991800
0.405480,0.878425,0.517473,-0.336744,0.833848,0.437379
0.375439,0.876838,0.525920,0.459392,-0.808588,-0.367621
0.435834,0.898976,0.732144,0.551616,-0.658803,0.511565
0.302927,0.892487,0.775142,-0.544921,-0.092336,-0.833388
0.388711,0.949740,0.753002,-0.209868,0.176875,-0.961598
0.436223,0.988174,0.750072,0.336365,-0.622380,0.706755
0.394302,0.985579,0.754480,-0.284249,-0.169787,-0.943597
0.745980,0.191232,-0.748188,0.572807,0.107825,0.812567
0.597313,0.133545,-0.715508,-0.526560,0.564231,-0.635907
0.599721,0.263340,-0.636137,-0.329278,0.488747,0.807900
0.592343,0.348717,-0.660837,0.871251,0.240116,-0.428096
0.553375,0.362633,-0.586908,0.555864,0.111023,0.823826
0.344459,-0.342659,-0.619686,0.652788,0.379732,-0.655494
0.331808,-0.043841,-0.599320,0.487318,0.476853,-0.731528
0.283206,-0.061580,-0.984948,0.099613,0.077178,0.992029
-0.634344,0.264278,-0.580308,0.937862,-0.292738,-0.186333
-0.536757,0.251946,-0.599985,0.086353,-0.111775,0.989974
-0.532487,0.297736,-0.567355,0.404830,-0.044870,0.913290
-0.943092,-0.300188,0.339201,-0.740737,0.144032,0.656173
-0.709182,-0.564104,0.348239,0.470597,-0.842688,0.261564
-0.715706,-0.191015,0.392271,0.628701,0.132066,-0.766351
-0.616333,-0.480603,0.468072,-0.097057,-0.782724,0.614755
-0.632638,-0.507787,0.394045,-0.484692,0.857307,-0.173489
-0.642882,-0.511897,0.350111,0.802007,-0.243855,0.545271
-0.646223,-0.430631,0.351539,-0.395537,0.328727,-0.857606
-0.529540,-0.668662,0.122117,-0.641792,-0.384658,0.663431
-0.497011,-0.326796,0.342082,0.173162,-0.269922,0.947184
-0.530701,0.114220,0.283052,0.758003,0.640479,0.123364
-0.541727,-0.700461,0.414362,-0.165594,-0.863797,-0.475850
-0.550266,-0.483919,0.420764,-0.229143,0.927630,0.294952
-0.550422,-0.454211,0.426133,0.438609,-0.898088,-0.032556
-0.543357,-0.397967,0.468294,-0.765524,0.600149,-0.231935
-0.573555,-0.381381,0.340112,-0.361000,0.359463,-0.860503
-0.465648,-0.211349,0.114261,-0.207423,0.975099,0.078468
-0.451826,0.175152,0.265691,0.316971,-0.681002,0.660126
-0.445382,0.311437,0.325804,0.315242,-0.381381,0.869006
-0.473798,-0.614796,0.385918,0.355596,0.358154,0.863295
-0.474030,-0.428108,0.424853,-0.784342,0.605905,-0.132990
0.086795,0.118186,0.932481,0.873174,-0.485996,-0.037085
0.084156,0.132824,0.920833,0.899355,-0.373965,-0.226516
0.088733,0.182001,0.963043,-0.614839,0.608424,0.501790
-0.019330,-0.341938,0.142557,-0.792836,0.597844,-0.118291
-0.022358,-0.322036,0.129481,0.153243,0.173234,0.972886
-0.014440,-0.250794,0.200627,0.936893,-0.332787,-0.107163
-0.006366,-0.179550,0.270862,-0.256077,0.914590,-0.312968
0.017312,-0.037135,0.458739,0.484974,0.847391,-0.216169
0.029191,0.161595,0.957896,0.390818,0.378118,-0.839219
-0.058924,-0.188996,0.328316,0.716956,-0.685599,0.126210
-0.062573,-0.172555,0.311545,-0.694157,0.718458,0.044319
-0.037729,0.031800,0.519099,0.320164,0.831952,-0.453156
-0.000310,0.223464,0.798217,0.023818,0.997962,0.059200
-0.111558,-0.087179,0.043263,0.581310,0.259764,0.771104
-0.058460,-0.588477,0.216462,0.978275,-0.113749,0.173320
0.033617,-0.070017,0.918321,0.802399,0.132012,-0.582004
-0.060943,-0.532593,0.218013,0.830317,0.532895,-0.163084
0.029812,-0.032304,0.906180,0.042345,-0.432481,0.900648
0.027405,-0.015503,0.896305,0.379387,-0.507346,0.773735
0.027172,0.012835,0.903471,-0.723203,0.299295,-0.622414
0.026163,0.036775,0.904259,0.510313,0.439094,0.739444
-0.073831,-0.458465,0.162776,0.788213,-0.495263,-0.365286
-0.064591,-0.347346,0.250053,0.972513,0.228628,0.044129
-0.047045,-0.079608,0.885986,0.711574,-0.336649,0.616709
-0.044718,-0.040741,0.909923,0.742570,0.128068,-0.657411
-0.049376,0.105855,0.923049,0.139286,0.133196,0.981253
-0.150143,-0.316555,0.233676,-0.030184,0.896285,0.442450
-0.140130,-0.239471,0.311225,0.451716,-0.879368,-0.150543
-0.153014,0.116672,0.334793,0.085978,0.987520,0.131953
-0.129261,-0.617464,0.270444,0.488850,0.869568,-0.069839
-0.041302,-0.108452,0.910465,0.022692,0.398646,0.916824
-0.223507,-0.545428,0.255224,0.555962,-0.634185,-0.537323
-0.227933,-0.400778,0.268227,0.410443,0.232783,0.881674
-0.230728,-0.347634,0.266996,-0.330958,0.233561,-0.914284
-0.222265,-0.279564,0.329227,-0.613480,0.787881,-0.053723
-0.235386,-0.206158,0.276920,-0.214736,-0.968521,-0.125915
-0.279093,-0.146525,0.056758,-0.703189,0.484836,-0.520057
-0.313484,-0.725771,0.286426,-0.160722,-0.256937,-0.952970
-0.295549,-0.611336,0.403304,0.517724,-0.247814,-0.818871
-0.325596,-0.549178,0.267513,-0.535207,0.420915,-0.732382
-0.317289,-0.450533,0.332478,0.377124,0.296079,0.877561
-0.329557,-0.402942,0.282412,-0.653011,0.154482,-0.741425
-0.320549,-0.335881,0.343166,0.077634,0.807433,0.584829
-0.323501,-0.316196,0.333808,0.002999,0.999934,0.011087
-0.379007,-0.499279,0.012012,0.818745,0.397662,0.414151
-0.378154,-0.361913,0.048287,-0.896628,0.389955,0.209745
-0.323345,-0.130012,0.377323,-0.320945,-0.014786,-0.946983
-0.347799,-0.030069,0.279358,-0.415838,0.534413,0.735854
-0.419842,-0.726132,0.216462,-0.107213,-0.985547,0.131158
-0.389412,-0.566556,0.396236,-0.285025,0.171099,0.943126
-0.399192,-0.510456,0.362843,0.991052,-0.127398,-0.039807
-0.397249,-0.470867,0.380672,0.912491,0.277440,-0.300644
-0.401210,-0.455220,0.365970,0.951554,-0.045649,-0.304074
-0.398571,-0.414407,0.387248,0.756374,0.301229,0.580654
-0.399888,-0.388231,0.386238,0.813227,0.096976,0.573810
-0.409749,-0.394866,0.338364,-0.639924,0.525919,0.560274
0.342985,0.239400,0.837595,-0.042582,-0.922928,0.382609
0.211088,-0.485146,0.171740,0.434476,0.226713,-0.871683
0.209690,-0.457600,0.170804,0.827086,0.105273,-0.552129
0.283054,0.050044,0.857813,-0.244085,0.178259,0.953229
0.277928,0.168734,0.862098,0.914824,-0.211800,0.343856
0.263878,0.297808,0.807378,0.885537,-0.436028,-0.160323
0.188960,0.019542,0.188461,0.463084,0.822338,-0.330625
0.241129,0.304946,0.651590,-0.710369,0.634965,0.303637
0.183913,0.029637,0.156890,-0.700657,0.655008,-0.282921
0.164505,-0.029925,0.000043,-0.269104,-0.962919,0.019242
0.236784,0.342516,0.633760,0.999629,-0.024305,-0.012285
0.231269,0.347130,0.596279,0.983635,-0.121229,-0.133285
0.224284,-0.152365,0.870570,0.882670,0.082216,-0.462746
0.211088,0.068792,0.854538,0.789923,0.561263,-0.246993
0.206042,0.158854,0.849539,0.238855,0.338274,-0.910230
0.123750,-0.238824,0.171789,0.898504,0.103426,-0.426607
0.120566,-0.220363,0.156447,-0.742323,-0.669753,0.019704
0.116605,-0.206446,0.135169,0.800374,0.322998,0.505048
0.185079,0.198803,0.722367,-0.777896,0.507948,0.369955
0.088425,-0.239112,-0.063592,0.961475,-0.248313,-0.117921
0.100148,-0.148832,0.043164,0.118574,-0.864414,0.488599
0.157288,0.154745,0.522793,-0.595166,0.743252,-0.305538
0.146186,0.133978,0.441599,-0.445261,0.865901,0.227945
0.179876,0.348717,0.735936,-0.182960,-0.851299,0.491747
0.166524,0.319079,0.638415,-0.484589,0.496125,0.720439
0.163965,0.337396,0.626840,-0.336216,0.941275,0.031003
0.158217,-0.200750,0.875446,-0.196681,-0.042205,0.979559
0.155502,-0.095832,0.891158,0.006993,0.976288,0.216364
0.151541,-0.089702,0.867639,0.120781,0.098090,0.987821
0.148281,-0.019974,0.868378,-0.649589,0.302083,0.697697
0.146883,0.002379,0.866507,-0.648717,0.009650,0.760969
0.082138,-0.150778,0.405989,0.467338,0.871650,-0.147723
0.132753,0.133545,0.816859,0.788726,-0.565076,-0.242075
0.080816,-0.091361,0.415716,0.939161,0.314951,-0.137050
0.057218,-0.139818,0.251013,0.956514,-0.284244,-0.065472
0.114354,0.161667,0.708157,0.199296,-0.979847,-0.013419
0.108455,0.164047,0.671759,0.106033,-0.994341,0.006553
0.103176,0.168805,0.639646,0.924634,-0.376583,-0.056894
0.092387,0.150346,0.565274,0.091658,0.928910,0.358784
0.090989,0.174430,0.563328,0.263056,0.458101,0.849085
0.092538,0.211998,0.584926,0.156360,-0.527947,-0.834759
0.019022,-0.111768,0.016321,0.489735,0.806113,0.332177
0.113577,0.332997,0.756869,-0.723330,-0.616858,-0.310289
0.069950,0.205365,0.439579,-0.138507,-0.906269,0.399364
0.072822,0.427315,0.525896,0.481652,0.145729,0.864161
0.021813,0.014854,0.501811,-0.153419,-0.852762,0.499258
0.053489,0.186905,0.747215,-0.750254,-0.654183,0.095726
0.024301,0.176810,0.565298,-0.350956,-0.657770,0.666460
0.024144,0.236155,0.581675,0.048478,-0.373434,0.926389
0.097817,-0.169382,0.914873,0.175403,0.480050,0.859527
0.016535,-0.633616,0.277511,-0.005512,-0.007037,0.999960
0.089667,-0.185246,0.860793,-0.106386,-0.384655,0.916909
0.096888,-0.116382,0.925044,0.108098,0.169974,0.979502
0.090833,-0.120276,0.886651,-0.301373,-0.926374,0.225845
0.092619,-0.080545,0.909776,-0.684250,-0.648540,0.333463
0.087492,-0.079031,0.878426,0.864626,0.000302,0.502416
0.087340,-0.050836,0.886183,0.924450,-0.353741,-0.142334
0.089278,-0.012113,0.909726,-0.244647,-0.656735,0.713335
0.088193,0.010816,0.909185,0.941012,0.332818,-0.061059
0.084545,0.020623,0.890321,0.926039,0.257064,0.276351
0.667494,0.356576,-0.464021,-0.793859,0.494631,0.353734
0.664779,-0.176088,-0.275726,-0.155011,0.077332,0.984881
0.617575,0.308408,-0.461805,-0.666599,0.666501,0.333800
0.720829,0.269974,0.808954,0.810747,0.420613,0.407155
0.718967,0.413543,0.857813,0.258304,0.955002,-0.145776
0.715706,0.423348,0.833852,0.026351,-0.819364,0.572668
0.604691,-0.003173,-0.311287,-0.017566,0.969050,0.246239
0.496078,0.020623,-0.356083,-0.001168,0.163310,0.986574
0.546542,0.271921,0.749899,0.443402,0.645511,-0.621860
0.441037,-0.252235,-0.303899,0.027126,-0.049727,0.998394
0.437853,-0.193971,-0.307420,0.762259,0.016137,0.647071
0.438398,-0.152437,-0.285183,0.264562,-0.310936,0.912867
0.436223,-0.125469,-0.291487,0.259811,-0.033691,-0.965072
0.513937,0.076075,0.862616,-0.416153,-0.110618,-0.902541
0.508502,0.133400,0.843062,0.375721,-0.599995,-0.706286
0.488084,0.284468,0.743300,0.545979,0.606863,-0.577602
0.374737,-0.101817,-0.288951,0.850078,-0.074418,0.521373
0.467667,-0.026680,0.878303,0.101958,0.542372,0.833929
0.460990,0.081194,0.868403,0.204840,-0.239964,-0.948925
0.457417,0.089055,0.844417,-0.103633,0.757001,0.645143
0.402452,0.149409,0.881159,0.289662,0.947250,-0.137165
0.394458,0.162389,0.826759,-0.153026,0.631715,0.759947
0.393838,0.247764,0.853725,0.297043,0.372201,-0.879336
0.360996,-0.010888,0.880027,-0.022778,0.510321,0.859682
0.276298,-0.246178,0.168095,0.289285,-0.633355,0.717758
0.349273,0.245385,0.886011,0.830012,-0.546027,0.113732
-0.616177,0.260888,-0.570827,0.881122,-0.349402,-0.318658
-0.577829,0.315691,-0.553465,-0.005934,0.017072,0.999837
-0.538235,0.253822,-0.570655,0.619855,-0.421047,0.662193
-0.538700,0.160658,-0.594395,-0.178025,0.423014,0.888463
-0.251146,0.001659,-0.675712,0.173217,0.422929,0.889453
-0.126621,0.273579,-0.577550,0.049612,-0.060771,0.996918
-0.131976,0.123955,-0.565779,0.224342,-0.079298,0.971279
-0.070334,-0.106721,-0.630276,-0.778207,0.505659,0.372428
0.013042,0.482766,-0.677805,-0.100370,0.092954,0.990599
0.001012,-0.027040,-0.693468,-0.312504,-0.906391,-0.284247
-0.000623,-0.056749,-0.686154,0.093334,0.928632,0.359069
-0.004736,-0.007572,-0.641185,0.837492,-0.381842,0.390901
-0.014440,-0.087468,-0.575358,0.939789,0.076609,-0.333058
-0.017155,-0.088621,-0.555041,-0.701628,-0.585041,-0.406749
0.092619,-0.068431,-0.990120,0.069234,0.185855,0.980135
0.089823,-0.143784,-0.982338,0.004932,0.167155,0.985918
0.088582,-0.188852,-0.981772,-0.138294,0.053201,-0.988961
0.086871,-0.222382,-0.975295,0.014249,-0.479004,0.877697
0.050073,-0.063816,-0.636014,-0.195118,-0.972939,-0.123768
0.150996,-0.232405,-0.980614,-0.278088,-0.092960,0.956047
0.260149,-0.094534,-0.984505,-0.001759,0.278992,0.960292
0.309528,-0.114219,-0.973940,-0.282374,0.486065,0.827046
0.309291,-0.179045,-0.984111,-0.212954,0.220462,0.951865
0.305955,-0.165634,-0.955003,-0.310067,-0.950706,-0.004203
0.336698,0.400779,-0.728142,0.496315,0.111225,0.860988
0.670365,0.541679,-0.728807,0.834406,-0.232504,-0.499707
0.786740,0.439646,-0.735825,-0.217082,0.960946,0.171632
-0.488236,-0.527329,0.370772,0.760679,0.474406,-0.443066
-0.495301,-0.666643,0.399216,-0.332796,-0.315134,-0.888784
-0.506170,-0.232766,0.091580,0.130395,0.617325,-0.775826
-0.512847,0.189645,0.275098,-0.061914,0.530520,-0.845409
-0.507260,-0.279276,0.090546,0.072674,0.602402,0.794878
-0.513700,0.125469,0.266380,0.261562,-0.231367,0.937046
-0.515410,0.123955,0.281698,0.980761,0.082183,-0.177069
-0.518746,0.120710,0.312654,-0.309539,0.574281,-0.757883
-0.520532,0.139169,0.335458,0.950638,-0.305262,0.055693
-0.535283,-0.366743,0.336541,-0.488076,0.406588,-0.772314
-0.536373,-0.452408,0.321421,0.730191,-0.359374,0.581095
-0.537458,-0.522497,0.311447,-0.682572,0.454488,-0.572307
-0.549337,-0.448298,0.447878,0.850906,-0.525211,-0.010602
-0.550887,-0.441736,0.465856,0.927434,-0.293500,0.231782
-0.552128,-0.507932,0.458197,-0.719370,0.693618,-0.037436
-0.554071,-0.658061,0.436550,0.780360,-0.059131,0.622529
-0.649639,-0.399264,0.347673,0.406475,-0.470636,0.783122
-0.651345,-0.406764,0.361045,0.116711,0.811053,-0.573212
-0.651814,-0.543409,0.327036,0.521251,-0.515731,0.679941
-0.652587,-0.673637,0.296301,-0.743243,-0.243321,0.623205
-0.565329,-0.235867,0.091506,-0.021599,0.912458,-0.408599
-0.571461,0.178757,0.271256,0.015653,-0.365305,0.930756
-0.578213,0.210629,0.348633,0.985251,0.122613,0.119359
-0.579611,0.186329,0.355381,0.914846,0.244493,0.321373
-0.580312,-0.609100,0.133002,-0.597861,-0.466889,0.651595
-0.609036,-0.469209,0.457064,-0.517634,0.722296,-0.458632
-0.610823,-0.439429,0.482430,0.390081,-0.560340,0.730655
-0.612220,-0.481179,0.483316,0.739008,0.507219,0.443391
-0.613538,-0.502380,0.490852,0.830251,0.555421,0.046811
-0.660040,-0.492068,0.423991,0.295336,-0.954905,0.030560
-0.665010,-0.435823,0.490039,0.987809,0.108891,-0.111250
-0.624331,0.230675,0.281895,0.306820,0.877790,-0.367895
-0.691716,-0.617103,0.290145,0.513749,0.597539,-0.615637
-0.694431,-0.680776,0.299158,0.575247,0.636831,-0.513358
-0.770515,-0.385780,0.345653,-0.222863,-0.237132,0.945569
-0.812360,-0.355134,0.351514,-0.367301,-0.431116,0.824154
-0.811583,-0.627344,0.268547,0.563463,0.699953,-0.438835
-0.808944,-0.184598,0.367300,-0.665529,-0.158853,0.729272
-0.853892,-0.357225,0.343043,-0.482565,-0.407308,0.775391
-0.854048,-0.538722,0.292903,-0.619539,-0.601192,0.504718
-0.887586,-0.278122,0.342550,-0.462464,0.124757,0.877817
-0.951247,-0.322324,0.313540,0.530746,0.253558,-0.808713
-0.953341,-0.302495,0.336517,0.607445,0.194629,-0.770149
-0.954194,-0.384193,0.322652,-0.597248,-0.446412,0.666342
-0.923143,-0.286992,0.333389,-0.646607,-0.121186,0.753135
-0.924072,-0.355927,0.324154,-0.546461,-0.401976,0.734707
0.497319,0.076003,0.868526,0.118344,0.260643,0.958154
0.682865,0.218416,-0.459564,0.117330,0.180259,0.976596
0.605620,0.058047,0.877589,0.543823,-0.383863,-0.746261
0.783556,0.320017,0.824641,0.347481,0.690643,-0.634247
0.171570,0.014783,0.143666,0.082099,-0.990816,0.107442
0.134464,0.118474,0.457557,0.375613,0.925906,0.040165
0.121111,0.197000,0.577833,0.819170,-0.485809,0.304877
0.113889,0.194261,0.634992,0.971959,-0.196172,-0.129664
0.112103,0.181786,0.645384,0.925261,-0.345925,-0.155652
0.169632,0.743438,0.667302,0.244795,-0.477270,0.843972
0.164586,0.255192,0.604972,-0.526419,0.799660,-0.288837
0.159383,0.422772,0.680502,0.763920,-0.160473,0.625039
0.155578,0.337179,0.692766,0.927926,0.260883,0.266259
0.154412,0.307109,0.696780,0.932634,0.263042,0.246989
0.153171,0.277978,0.700400,0.950285,-0.034049,-0.309515
0.151076,0.180343,0.695253,-0.517512,0.841539,0.154895
0.137103,0.158783,0.801197,-0.447479,-0.434900,-0.781424
0.134852,0.097275,0.807723,0.800685,-0.494564,-0.338097
0.223119,0.367465,0.570568,-0.661303,0.669234,-0.338828
0.333826,-0.003100,-0.011950,-0.400816,0.911049,0.096624
0.308983,0.383401,0.264681,0.027217,-0.349376,0.936587
0.255723,0.316123,0.670011,0.625482,0.617451,-0.476998
0.224829,0.045284,0.858503,0.709759,0.566181,-0.419144
0.342365,-0.065907,-0.090952,0.232353,-0.616721,0.752108
0.329557,0.475339,0.502106,-0.012168,-0.169995,0.985370
0.286855,0.402220,0.823508,0.870192,0.455766,0.187200
0.271796,0.037930,0.866777,0.330039,-0.617141,-0.714291
0.384442,0.832275,0.557368,-0.636725,0.590773,0.495548
0.440961,0.828022,0.567047,-0.078044,0.834268,0.545808
0.438009,0.783531,0.579656,-0.482473,0.678931,0.553419
0.120253,-0.099798,-0.263117,-0.254191,-0.832063,-0.493010
0.116064,-0.292256,-0.270604,0.754126,-0.244033,-0.609707
0.099916,-0.037135,-0.088367,0.960262,-0.146633,0.237479
0.098907,-0.084222,-0.089795,0.942368,-0.201844,-0.266837
0.097353,-0.113354,-0.084426,0.838555,-0.487544,-0.243160
0.096268,-0.156403,-0.084746,0.818693,-0.167067,-0.549391
0.093548,-0.133184,-0.056968,0.953802,-0.089402,0.286825
0.091221,-0.126694,-0.036897,0.875428,-0.481568,0.041451
0.075148,0.426305,0.207719,0.666953,-0.353300,0.656013
0.090368,-0.184670,-0.042733,0.980412,0.194613,-0.030288
0.074684,0.354052,0.195135,-0.825518,-0.378878,0.418297
0.058147,0.384554,0.719190,0.916440,0.366568,0.160519
0.160236,-0.057615,-0.183844,0.964137,0.015713,0.264938
0.150996,-0.049466,-0.107428,-0.509764,-0.850700,0.128259
0.149058,-0.055091,-0.092159,-0.146321,0.760697,0.632400
0.145874,-0.027833,-0.062459,-0.499694,-0.861221,0.092761
0.143699,-0.034828,-0.047289,0.235747,0.964099,0.122211
0.141680,-0.042760,-0.032489,-0.142990,0.776043,0.614257
0.125612,0.503029,0.210158,-0.605237,0.249081,-0.756073
0.139898,-0.053792,-0.019757,-0.447325,0.894265,-0.013758
0.138733,-0.094822,-0.019412,0.989107,-0.147172,-0.002683
0.136094,-0.081122,0.004057,0.829687,-0.402534,-0.386764
0.130194,-0.022354,0.062718,-0.751883,0.586767,0.300625
0.124835,0.015215,0.112735,0.020854,-0.964002,0.265074
0.099215,0.319079,0.379564,0.561121,0.386624,-0.731892
0.110862,-0.203417,0.177010,0.770457,0.631467,-0.087437
0.109308,0.235579,0.679196,0.989095,-0.104735,-0.103546
0.108687,0.168085,0.670109,-0.084197,-0.995807,0.035778
0.103484,0.158639,0.709536,-0.147042,0.987142,-0.062677
0.183994,-0.050115,0.032501,0.968924,0.212648,-0.126362
0.181430,-0.034972,0.055625,-0.759850,0.449801,-0.469369
0.178947,-0.021271,0.077986,0.208264,-0.977860,0.020369
0.176071,0.007788,0.107144,0.242443,-0.955771,-0.166500
0.173977,0.002524,0.121600,-0.025010,0.999173,-0.032060
0.037573,0.060932,-0.004365,0.593755,0.719303,-0.360636
0.020804,0.491203,0.225081,-0.573069,0.026418,-0.819081
0.019719,0.449668,0.224244,0.480323,-0.340151,0.808448
0.014364,0.500866,0.277930,-0.813988,0.521236,0.256393
0.027793,-0.165056,0.025433,0.477454,0.678811,-0.557901
0.013663,0.088045,0.194692,0.727950,0.685610,0.005296
0.009006,0.108596,0.235818,0.636262,0.755306,-0.157109
0.010867,-0.067349,0.183438,0.208211,0.687677,0.695520
0.012109,-0.217262,0.141622,-0.532090,0.760335,-0.372521
0.005902,-0.119195,0.212891,-0.158192,0.974084,0.161665
0.080195,0.504111,-0.250336,0.273612,0.497745,0.823035
0.092619,0.011393,-0.457298,0.199149,0.176457,0.963951
0.093780,-0.105999,-0.491505,0.607482,-0.669224,0.427908
0.076314,0.398976,-0.241150,0.645469,0.455256,0.613280
0.093548,-0.181713,-0.505566,0.654253,-0.746831,-0.119149
0.084156,-0.119411,0.019695,0.034442,0.779198,0.625830
0.077944,-0.125180,0.068727,0.948749,0.220688,0.226214
0.074992,-0.092732,0.098476,0.987209,-0.108484,-0.116833
0.072121,-0.062229,0.127954,0.944533,-0.293058,-0.148239
0.071035,-0.110254,0.126058,0.790499,0.468201,0.394840
0.069405,-0.128786,0.135859,0.757470,0.378743,0.531782
0.067695,-0.141982,0.147089,0.513670,0.798333,0.314337
0.065212,-0.115878,0.173784,0.999527,-0.009915,0.029102
0.063274,-0.133833,0.183635,0.992696,-0.072276,-0.096599
0.061331,-0.142270,0.196539,-0.197842,0.980230,0.002813
0.059545,-0.152292,0.209542,-0.426279,-0.867169,-0.257495
0.056906,-0.135420,0.232765,0.128374,-0.981716,0.140549
0.038431,0.633401,0.543996,0.045763,-0.314845,0.948039
0.054499,-0.116382,0.256702,-0.268409,0.906367,0.326275
-0.084696,0.157773,-0.444812,0.152615,-0.085463,0.984583
-0.087260,0.079175,-0.441094,0.130535,-0.214636,0.967932
-0.103953,0.108667,-0.290995,-0.522857,-0.205893,0.827181
-0.045804,0.011827,-0.292177,0.687283,0.686406,0.237672
-0.053413,-0.043482,-0.240214,-0.334002,-0.936988,-0.102447
-0.092770,0.640251,0.243847,0.824569,-0.162019,0.542066
-0.101465,0.405321,0.262637,0.226495,-0.298592,0.927115
0.035555,0.249495,-0.446462,0.235486,-0.045326,0.970820
0.029736,-0.045428,-0.462938,0.024604,-0.168533,0.985389
0.003803,-0.043338,-0.248563,0.297895,0.906121,0.300339
-0.043088,0.577806,0.276822,0.436953,-0.319555,-0.840807
-0.015449,-0.645659,-0.223813,-0.157281,0.247649,0.955998
-0.044951,0.481613,0.270936,0.819152,-0.383688,0.426350
-0.026784,-0.339342,-0.062115,0.411860,-0.728944,-0.546820
-0.045804,0.424575,0.264459,-0.702511,0.417898,-0.576055
-0.028257,-0.376334,-0.059110,-0.541618,0.635629,0.550115
-0.058460,0.468200,0.378530,0.690112,0.366480,-0.624050
-0.214499,0.435464,-0.274692,0.100273,-0.182627,0.978055
-0.219081,0.262042,-0.277475,-0.489270,-0.191953,-0.850746
-0.228165,0.105422,-0.233910,0.542503,0.055932,0.838190
-0.237324,-0.064537,-0.195172,0.007963,0.419540,0.907702
-0.253084,0.322397,0.042179,0.212545,-0.531034,0.820260
-0.255804,0.159288,0.025630,0.514448,-0.047771,0.856190
-0.158918,0.296582,-0.286611,-0.454217,0.017451,-0.890720
-0.160311,0.258653,-0.284321,0.530885,0.022078,0.847156
-0.184226,-0.097923,-0.160104,0.122725,0.989851,-0.071643
-0.196337,0.188204,0.015509,-0.483745,0.081566,-0.871400
-0.338403,0.363210,-0.264398,0.408931,-0.102959,0.906739
-0.354320,0.031079,-0.204432,-0.208792,-0.224159,-0.951924
-0.371942,0.375180,0.051463,0.186959,-0.451441,0.872495
-0.361773,-0.055884,0.328316,0.956967,-0.063372,-0.283192
-0.369227,-0.154096,0.371536,-0.216465,0.976290,-0.001177
-0.368449,-0.376117,0.304921,-0.222597,0.861457,-0.456446
-0.371089,-0.290308,0.352130,0.046196,-0.998517,-0.028791
-0.294853,0.218489,-0.215391,0.053396,0.169570,0.984071
-0.302538,-0.005409,-0.201797,-0.165914,-0.232143,-0.958427
-0.303780,-0.058119,-0.205688,0.089214,0.352960,0.931375
-0.319540,0.383256,0.054739,0.186959,-0.451441,0.872495
-0.320004,0.308769,0.040209,0.113894,-0.570601,0.813291
-0.302771,-0.153879,0.367029,-0.245759,0.772454,-0.585592
-0.303391,-0.375612,0.317012,0.371771,-0.911205,0.177461
-0.457962,-0.006346,0.227766,0.879477,0.403335,-0.252667
-0.459900,0.002091,0.247713,0.281388,0.001917,0.959592
-0.463549,0.160730,0.325041,-0.081807,0.996456,0.019581
-0.465103,0.155033,0.338413,-0.007303,0.764367,0.644740
-0.466733,-0.624891,0.140316,-0.525040,-0.511686,0.680081
-0.479621,-0.374242,0.331567,-0.197598,0.278175,-0.939986
-0.480706,-0.599798,0.280540,0.223587,-0.522226,0.822976
-0.397406,0.293914,-0.265432,0.074856,0.725817,0.683802
-0.458739,0.190223,0.288150,-0.196546,0.926296,-0.321474
-0.392592,-0.207601,0.088970,0.336344,0.186410,0.923106
-0.399348,0.154169,0.248403,-0.290364,0.547664,-0.784699
-0.400746,0.136141,0.257268,0.029601,-0.359282,0.932759
-0.392980,-0.428900,0.035136,0.919735,0.268571,-0.286283
-0.403774,0.230891,0.310979,0.025077,-0.487943,0.872515
-0.400514,-0.144865,0.180187,-0.468602,-0.742814,0.478163
-0.411379,-0.716974,0.129727,0.737560,0.552245,-0.388627
-0.423026,-0.162749,0.383849,-0.647911,0.251925,-0.718850
-0.421936,-0.404528,0.310462,0.649731,-0.574586,0.497694
-0.423490,-0.581339,0.278496,0.026086,-0.328521,0.944136
-0.428925,-0.393712,0.378185,0.833008,-0.490572,0.255806
-0.430555,-0.388520,0.395374,-0.628621,-0.494663,-0.600121
0.128408,-0.158278,-0.969557,-0.169663,0.187731,0.967456
0.120177,-0.120205,-0.980343,0.089730,-0.430419,0.898158
0.110786,-0.056317,-0.983126,-0.069755,0.307208,0.949083
0.178635,-0.038866,-0.583214,0.306377,0.918930,0.248397
0.097898,-0.214450,-0.975714,0.061184,-0.356137,0.932429
0.087492,-0.142487,-0.977314,-0.097222,0.280398,0.954947
0.143466,-0.057181,-0.591760,-0.356276,-0.931539,-0.072815
0.142538,-0.118691,-0.626754,0.016641,-0.998614,0.049922
0.133843,-0.068863,-0.633157,0.163362,0.986559,0.003710
0.129261,-0.078598,-0.655838,-0.078725,0.996467,0.029245
0.123826,-0.074704,-0.674283,-0.085723,0.995299,0.045072
0.096268,-0.058336,-0.770697,-0.251658,-0.950177,0.183937
0.126389,-0.054370,-0.552357,0.756195,0.559223,-0.339764
0.121807,-0.059561,-0.573733,-0.523992,-0.849098,-0.066825
0.070879,-0.117032,-0.648524,-0.017033,0.979985,0.198343
-0.548328,0.194117,-0.587672,0.866337,0.148276,0.476943
0.289883,0.135275,-0.696792,-0.095921,0.566640,0.818363
0.260538,-0.218849,-0.975640,-0.023840,-0.038498,0.998974
0.251454,-0.169238,-0.982486,-0.121798,0.230755,0.965359
0.324511,0.020118,-0.741859,-0.484211,0.456100,0.746668
0.292678,-0.223392,-0.971749,-0.000410,-0.203670,0.979040
0.282742,-0.161090,-0.975960,0.469599,0.860296,0.198414
0.274047,-0.115446,-0.983865,-0.084249,0.275262,0.957670
0.264963,-0.062734,-0.989775,0.036804,0.073960,0.996582
0.518126,0.189933,-0.618677,-0.419363,0.775362,0.472174
0.736200,0.614797,-0.736367,0.214657,-0.386032,-0.897163
-0.346402,-0.316628,0.351711,0.665177,0.365079,0.651350
-0.441037,-0.417508,0.300513,-0.505681,0.276918,-0.817070
-0.515486,0.201183,0.339176,0.775088,0.431896,0.461199
-0.505005,-0.300620,0.094806,0.072674,0.602402,0.794878
-0.479001,-0.707312,0.129062,0.538868,0.640745,-0.546870
-0.473021,-0.448082,0.305709,-0.587428,0.269688,-0.763018
-0.631316,-0.506850,0.449775,0.137932,-0.972338,0.188501
-0.639234,-0.503100,0.416209,0.488898,-0.871089,-0.046720
-0.648009,-0.458394,0.500678,0.903158,0.252730,-0.347034
-0.651037,-0.500505,0.458813,-0.268339,0.958441,-0.096873
-0.697307,-0.274661,0.382963,-0.655286,-0.091895,0.749770
-0.674634,-0.502668,0.469279,-0.626443,0.772319,-0.105325
-0.757082,-0.256057,0.373777,0.629902,0.105731,-0.769444
-0.255960,-0.469714,0.259682,-0.522575,0.142254,-0.840642
-0.221953,-0.280935,0.315116,-0.535215,0.810901,0.236613
-0.198199,-0.599798,0.232913,0.967298,-0.034650,0.251264
-0.182672,-0.250721,0.309945,-0.652858,0.665350,-0.362059
-0.140438,0.348861,0.613788,0.654285,0.754182,0.055859
-0.136558,-0.234352,0.297434,0.009892,0.781888,0.623340
-0.153327,-0.379867,0.144404,0.180412,-0.951619,-0.248741
-0.218773,-0.065474,0.050577,-0.589933,0.460017,-0.663599
-0.113965,0.270479,0.507967,0.254983,-0.159095,0.953768
-0.101077,-0.199523,0.294849,0.393202,-0.906836,-0.151792
-0.100845,-0.296799,0.241015,-0.659112,0.685639,0.308983
0.053722,0.047520,0.873082,0.711632,0.423070,0.560885
0.046657,0.080689,0.862714,-0.038422,0.998271,0.044481
-0.042852,-0.161235,0.354593,-0.340792,0.817011,-0.465139
-0.056830,-0.192457,0.279383,-0.163216,0.928390,0.333845
-0.069249,-0.394866,-0.059307,0.220240,0.617014,0.755505
0.104962,0.157340,0.800384,0.900423,0.334668,-0.277912
0.091529,0.177819,0.756573,0.334337,0.927468,-0.167395
-0.038971,-0.353837,-0.071965,-0.435950,0.741727,0.509694
-0.011024,0.511321,0.526413,-0.078601,-0.151399,0.985343
0.036644,-0.073623,0.393552,0.933682,-0.352477,0.063226
0.035403,-0.108811,0.369098,0.032331,-0.861978,0.505914
0.025462,-0.138737,0.311471,0.573729,0.733047,-0.365344
0.047202,-0.068936,0.293125,0.902735,-0.388007,0.185794
0.047045,-0.119123,0.265001,0.298268,-0.843056,-0.447541
0.043709,-0.128425,0.245398,0.910111,0.347319,0.225981
0.039980,-0.138015,0.225648,0.377702,-0.924129,0.057681
0.023211,-0.144577,0.155018,0.840550,-0.529964,0.112308
0.097428,0.167796,0.624772,-0.799015,0.586049,0.134615
0.092306,0.179694,0.611030,0.925535,-0.378195,0.018794
0.089591,0.162604,0.591082,-0.810837,0.584911,-0.020574
0.085862,0.159216,0.574312,-0.580420,0.812458,0.055001
0.086483,-0.081194,0.443963,0.728752,0.655829,-0.197002
0.009707,0.695414,0.564338,0.137752,0.772576,-0.619799
0.015061,0.586602,0.526093,0.482262,0.047861,0.874719
0.043785,0.214234,0.434752,-0.317425,-0.907368,0.275543
0.215433,0.060427,0.869659,0.594249,0.211758,-0.775904
0.177550,0.249712,0.822893,0.186157,0.545102,-0.817441
0.074992,-0.160873,0.191540,0.722902,0.687479,-0.069179
0.065913,-0.107658,0.184817,0.963753,0.266792,0.001571
0.059313,-0.083790,0.171962,-0.031755,-0.915331,0.401448
0.053181,-0.166498,0.101628,0.984155,0.171845,0.043695
0.034005,-0.209979,0.002259,0.529580,0.795744,0.293832
0.021813,-0.114004,0.005707,0.221102,-0.553590,0.802902
0.117614,0.191376,0.552763,0.805889,0.447319,0.387877
0.114278,0.182723,0.534219,0.781143,0.599788,0.173407
0.113188,0.145587,0.510701,0.884179,-0.455144,0.105224
0.112027,0.109821,0.486715,0.940436,0.337356,-0.042093
0.104418,0.146596,0.476889,0.743460,0.644456,-0.178725
0.101935,0.125324,0.455562,0.419978,0.899181,-0.122848
0.094017,0.123305,0.422291,0.892604,0.445683,0.068000
0.253473,0.037136,0.870964,0.605700,0.274434,-0.746869
0.243148,0.105927,0.866827,0.599702,-0.240982,-0.763076
0.213727,0.245745,0.828188,0.006975,-0.424013,0.905629
0.195792,0.217263,0.742610,0.940929,-0.253631,-0.224329
0.070803,-0.091001,0.089906,0.979343,-0.184925,0.081798
0.066686,-0.095688,0.071534,0.958337,-0.242530,0.150896
0.050850,-0.126189,-0.006852,-0.348496,0.888098,-0.299721
0.135937,0.133400,0.464698,0.509716,0.843120,-0.171287
0.130346,0.146236,0.450169,-0.554514,-0.808222,-0.198219
0.121964,0.147822,0.417144,0.833563,0.305109,-0.460523
0.118779,0.131959,0.396778,0.893235,0.203561,0.400868
0.115287,0.119989,0.377175,0.939281,0.342527,-0.020659
0.112568,0.102466,0.357031,0.631691,0.775094,-0.013997
0.106436,0.123305,0.344717,0.310005,0.841873,-0.441754
0.105891,0.077444,0.317751,-0.289098,-0.955778,0.053945
0.100925,0.086819,0.302901,-0.735760,-0.676066,-0.039902
0.247417,0.218705,0.779427,0.904691,-0.259368,-0.338026
0.278629,0.191015,0.886011,-0.148315,-0.757433,0.635844
0.258287,0.232550,0.830059,-0.374264,-0.419657,0.826930
0.145329,0.057615,0.299281,0.368494,0.918655,0.142424
0.134852,0.078094,0.269754,0.958618,0.265584,0.102551
0.132985,0.046006,0.245423,0.829888,0.479221,-0.285716
0.128408,0.047231,0.228726,0.724311,0.689282,0.016233
0.124759,0.035911,0.208581,0.088348,0.968761,-0.231728
0.297104,0.237813,0.819445,-0.417684,0.342338,0.841632
0.227000,0.363210,0.617482,-0.626441,0.775194,-0.081519
0.176540,0.844751,0.678187,-0.127244,-0.240463,0.962282
0.164273,0.130156,0.252491,0.026536,0.193702,0.980701
0.158530,0.091001,0.209763,0.288206,0.706007,-0.646909
0.159307,0.031439,0.180113,0.012312,-0.977083,0.212501
0.155270,0.023363,0.160559,0.177237,0.553100,-0.814044
0.152005,0.011827,0.140981,0.234055,0.971566,0.035755
0.353235,0.187770,0.826094,0.700710,-0.435979,0.564737
0.212562,0.330690,0.359912,-0.648117,0.589489,-0.482128
0.287788,-0.556100,0.177182,-0.343345,-0.094719,0.934421
0.191987,0.524301,0.382741,-0.728184,0.563548,0.390079
0.193698,0.020840,0.122019,-0.658422,0.752590,-0.009458
0.159847,-0.019974,-0.030322,-0.598223,0.627482,0.498393
0.035555,0.088188,-0.453112,0.277075,-0.019426,0.960652
0.181895,0.088765,-0.104177,-0.647741,0.760889,0.038472
0.153171,-0.093308,-0.314217,0.020219,0.995736,0.090004
0.157829,-0.070017,-0.439715,0.852576,0.519972,0.052375
0.153095,-0.073334,-0.459613,-0.705921,-0.634464,-0.314851
0.168622,-0.049322,-0.490987,0.992950,0.097936,-0.066779
0.517893,0.942674,0.737685,0.235951,-0.764769,0.599547
0.086639,-0.051414,-0.990933,-0.038908,0.266894,0.962940
0.199754,-0.107225,-0.985663,0.186773,0.963483,-0.191875
0.195868,-0.154311,-0.971158,-0.594861,0.247773,-0.764689
0.191755,-0.134194,-0.943403,0.470322,0.700333,0.536965
0.187794,-0.175512,-0.927076,0.536283,0.803018,-0.259929
0.176152,-0.087972,-0.841301,0.147419,0.964628,-0.218540
0.160392,-0.070522,-0.744125,-0.531033,-0.723481,-0.441111
0.156663,-0.054370,-0.717626,-0.231775,-0.970512,0.066230
0.143234,-0.028555,-0.985219,-0.139024,0.217348,0.966143
0.139121,-0.121430,-0.978472,0.115933,0.808427,-0.577067
0.134928,-0.202192,-0.969335,0.233700,0.379533,-0.895175
0.265352,-0.059634,-0.989529,0.036804,0.073960,0.996582
0.261083,-0.154240,-0.983003,-0.083037,0.259703,0.962112
0.256813,-0.227791,-0.973571,0.064926,0.007854,0.997859
0.240973,-0.093020,-0.854083,0.534043,0.817636,-0.215103
0.237092,-0.075208,-0.826944,0.686683,0.723655,-0.069204
0.233055,-0.112056,-0.809976,0.733327,0.624430,-0.268921
0.229018,-0.107514,-0.786335,0.426254,0.894092,0.137503
0.225218,-0.052495,-0.753852,0.960661,0.125894,0.247548
0.213415,-0.045789,-0.682927,0.496141,0.851788,0.168232
0.193698,-0.080328,-0.573979,0.838056,0.452727,-0.304467
0.189813,-0.064248,-0.548983,-0.266374,-0.938907,0.217941
0.186012,-0.066412,-0.526130,0.054001,-0.998078,-0.030412
0.256581,-0.004254,-0.607250,-0.393219,0.484245,0.781592
-0.314029,-0.315835,0.345727,0.065689,0.987755,0.141512
-0.196958,-0.260672,0.325238,-0.565336,0.824482,-0.025001
0.177706,-0.090857,-0.484117,0.698139,0.620917,-0.356459
0.174209,-0.054153,-0.455525,0.268968,0.922981,0.275251
0.170485,-0.062446,-0.434789,-0.802339,-0.588695,0.098436
0.154801,-0.093308,-0.349335,-0.061856,0.990443,0.123276
0.150764,-0.095832,-0.327073,0.016387,0.998296,-0.055997
0.214035,-0.032809,-0.364185,0.983302,0.175558,0.047920
0.210155,0.013196,-0.333919,0.991313,-0.093001,0.093003
0.206117,0.014638,-0.311114,0.916523,-0.226478,0.329687
0.201692,-0.092515,-0.305721,0.373995,0.908910,0.184416
0.171726,-0.076002,-0.126365,0.810312,0.548423,-0.206461
0.089203,-0.002740,0.913470,-0.749874,-0.548209,0.370345
0.247498,-0.090352,-0.041871,-0.633558,-0.672321,0.382869
0.382736,0.796726,0.545892,0.062051,0.855545,0.513997
0.093240,-0.156259,-0.975393,0.264165,-0.483829,-0.834342
0.156663,-0.077444,-0.534232,-0.206201,0.964726,0.163659
0.161477,-0.054009,-0.690512,-0.088825,0.994968,0.046348
0.155734,-0.077517,-0.720631,0.185626,0.979731,-0.075300
0.199986,-0.066339,-0.759196,0.807274,-0.088062,0.583570
0.191291,-0.060282,-0.785867,-0.301259,-0.938500,-0.168701
0.186865,-0.089991,-0.817143,0.622889,0.781814,-0.027851
0.180345,-0.107658,-0.847089,-0.063567,-0.954163,0.292458
0.163187,-0.231829,-0.971010,-0.049976,-0.359150,0.931941
0.140671,-0.100374,-0.981427,-0.422435,-0.126224,-0.897561
0.205653,-0.122368,-0.958573,0.859906,-0.507924,0.050746
0.198896,-0.128281,-0.986352,0.092344,0.609785,0.787169
0.159615,-0.071892,-0.316261,0.060390,0.997272,-0.042456
0.153251,-0.082347,-0.344262,-0.252836,0.961437,0.108230
0.185079,-0.060571,-0.426860,0.915815,0.341864,-0.210743
0.175062,-0.038722,-0.450181,0.605085,0.737105,0.300912
0.169551,-0.054874,-0.478058,-0.052458,0.980421,-0.189799
0.160316,-0.045284,-0.504261,-0.616953,0.785802,0.043402
0.137411,-0.007211,-0.039015,-0.585971,0.626446,0.514008
0.138031,-0.078454,-0.073000,-0.399876,0.536739,0.742974
0.128095,-0.118762,-0.129198,0.878955,0.186810,0.438795
0.118547,-0.096121,-0.152297,0.880220,-0.443975,0.167627
0.179255,-0.010167,-0.064824,-0.162548,-0.932889,0.321396
0.176384,-0.051702,-0.095607,-0.669038,-0.714221,-0.205611
0.167846,-0.039444,-0.119790,-0.489277,-0.859317,0.148936
0.153791,-0.049178,-0.174264,0.924582,0.336580,-0.178500
0.294540,-0.034468,-0.022219,-0.539186,0.202203,0.817553
0.141448,-0.098428,-0.783035,-0.287616,-0.950913,0.114201
0.194319,-0.045357,-0.741736,0.483899,0.814478,0.320104
0.581165,-0.634482,-0.622026,0.833747,0.539462,-0.117672
0.553450,-0.628714,-0.593681,0.766598,0.554989,-0.322977
0.525811,-0.628209,-0.605378,0.751347,0.659439,0.024856
0.947210,-0.112056,-0.580013,-0.073900,-0.165340,0.983464
0.456100,-0.489760,-0.544206,-0.400011,0.265412,0.877239
0.473722,-0.461421,-0.589790,0.837286,0.545932,0.030185
0.503143,-0.440294,-0.542235,0.148971,0.595542,-0.789391
0.526200,-0.416282,-0.541053,-0.167292,-0.626867,0.760954
0.660121,-0.262764,-0.598409,0.064084,-0.012648,0.997864
0.825244,-0.095255,-0.565877,-0.082147,-0.002579,0.996617
0.459592,-0.433516,-0.518594,0.417111,0.781376,-0.464188
0.469761,-0.399552,-0.629069,0.113473,0.437735,0.891915
0.638613,-0.231973,-0.578264,0.466524,-0.080172,0.880868
0.721682,-0.116382,-0.711396,0.542333,-0.348962,0.764265
0.777889,-0.085809,-0.574004,0.137623,0.547259,0.825571
0.344459,-0.553360,-0.527139,-0.247828,-0.256811,0.934146
0.401988,-0.475555,-0.609195,-0.146539,0.524534,0.838684
0.435602,-0.457744,-0.524652,-0.214134,-0.672956,0.708009
0.307893,-0.506489,-0.602669,0.253317,0.701719,0.665899
0.400045,-0.405753,-0.618677,0.300006,0.320390,0.898525
0.434981,-0.389386,-0.520860,0.469110,0.393489,-0.790634
0.458351,-0.365013,-0.519677,0.380860,0.339722,-0.859962
0.614779,-0.188852,-0.572354,0.453441,0.160206,0.876770
0.730998,-0.066844,-0.569005,-0.036997,0.335338,0.941371
0.821832,0.037352,-0.608013,0.104762,0.152150,0.982790
0.303159,-0.452192,-0.610328,0.218964,0.415441,0.882872
0.336309,-0.431785,-0.540388,-0.496341,0.124309,0.859182
0.372563,-0.375902,-0.624513,-0.503130,-0.437009,0.745576
0.588543,-0.162460,-0.556076,-0.399187,0.224782,-0.888889
0.646147,-0.067276,-0.719646,-0.498478,0.304980,-0.811484
0.680847,-0.062086,-0.569768,0.237052,-0.312491,-0.919867
0.749008,0.012691,-0.584002,-0.228095,-0.359566,-0.904812
0.765626,0.058624,-0.719276,-0.411075,0.098903,-0.906220
0.745359,0.091506,-0.590282,0.900709,-0.184292,-0.393395
0.814222,0.166931,-0.603901,-0.738580,-0.075828,-0.669887
0.145253,-0.550475,-0.548294,0.257330,-0.058650,0.964542
0.321326,-0.349438,-0.620253,0.249607,0.448166,0.858396
0.345393,-0.325930,-0.611486,0.635419,0.508964,-0.580688
0.378154,-0.307109,-0.536694,-0.711050,-0.028748,0.702553
0.515486,-0.161162,-0.541595,0.140419,-0.978078,0.153772
0.559274,-0.107514,-0.576885,0.109905,0.697162,0.708439
0.594987,-0.039659,-0.719572,0.328180,0.319427,0.888968
0.649872,-0.004182,-0.615180,-0.394448,0.519815,0.757762
0.720208,0.070883,-0.618553,0.558260,-0.039686,-0.828717
0.241831,-0.357729,-0.607176,-0.773686,0.566395,-0.283914
0.269313,-0.334799,-0.578806,-0.485755,-0.872637,0.050465
0.240589,-0.279781,-0.976699,0.086396,-0.427143,0.900047
0.306187,-0.281439,-0.646455,-0.694311,0.140011,0.705925
