-0.444398,-0.602115,-0.975591,0.225762,-0.100582,-0.968976
-0.058501,-0.412256,0.429977,0.830203,0.073029,-0.552657
0.172891,-0.142571,0.770734,0.191041,-0.975311,0.110774
0.248995,-0.208875,0.795720,0.811613,0.582333,-0.046618
0.237661,0.119764,0.875727,0.827554,-0.120287,-0.548347
-0.009819,0.074858,-0.991711,0.037948,-0.142997,-0.988995
0.352260,-0.767641,0.204468,-0.439528,0.065875,-0.895810
0.132672,0.580015,0.080672,-0.260184,-0.529544,0.807396
-0.018177,-0.192710,-0.204588,0.782179,0.610833,-0.122793
-0.344529,-0.255312,-0.989306,-0.030955,-0.157443,0.987043
0.348865,0.412904,0.540833,0.426977,-0.237319,-0.872565
0.593054,0.053285,-0.306797,0.038296,0.145456,0.988623
0.168608,0.002616,0.629426,0.202577,-0.950525,0.235509
0.264769,0.241675,0.431229,-0.637491,0.737507,-0.222911
-0.078088,-0.681058,-0.954978,0.205745,0.009440,-0.978560
0.635415,0.217812,0.526939,0.913395,0.319188,-0.252645
-0.207051,-0.449639,-0.968514,-0.276452,0.032416,0.960481
-0.001044,-0.656018,0.239154,-0.120333,-0.180195,-0.976243
0.062731,0.247202,0.562102,0.059486,0.535469,0.842458
-0.134343,-0.660601,-0.958198,0.182648,0.036133,-0.982514
0.439906,-0.227333,-0.934643,-0.132511,0.114616,0.984532
0.132255,-0.437413,0.547094,-0.331183,0.935639,-0.122059
-0.078402,-0.016605,0.389030,0.123317,-0.961242,-0.246589
-0.001253,0.551154,-0.140801,-0.587254,0.209756,0.781752
0.534239,-0.029007,0.717642,-0.260243,0.108275,0.959453
0.149491,0.323675,0.681803,-0.227303,0.865801,-0.445783
0.002090,0.804673,0.595695,-0.334734,0.122571,0.934307
0.164951,0.450933,0.779262,0.350357,-0.492419,0.796726
0.563856,-0.482969,0.181649,0.288999,-0.033936,0.956728
-0.132044,0.197061,0.547611,0.879059,-0.153884,-0.451193
-0.193366,-0.338368,-0.756045,-0.197017,0.958532,-0.205912
-0.850771,0.234328,0.289663,0.281899,0.022737,-0.959175
0.094803,-0.264893,0.518411,0.833313,0.291560,0.469661
0.431810,0.611463,0.234384,-0.225798,0.037415,0.973455
0.402507,-0.219163,0.450868,0.568572,0.612188,-0.549502
0.603552,-0.703277,0.176819,-0.213172,0.313744,-0.925269
0.499556,0.167025,0.167377,0.281037,0.340372,-0.897310
0.340925,-0.038941,0.721101,0.212182,0.073890,0.974433
0.556386,0.319735,0.550792,-0.584939,0.611471,-0.532869
-0.631602,0.722792,-0.118817,0.256794,0.716630,0.648459
-0.024235,0.527583,0.097051,-0.770974,0.163156,-0.615613
0.183077,-0.120469,0.758351,0.182706,0.853085,-0.488737
-0.068634,-0.584012,-0.955196,0.035926,0.234641,0.971418
-0.048524,-0.068861,-0.984019,0.115044,0.262964,0.957922
-0.408096,-0.264482,-0.990379,-0.233307,-0.033017,0.971842
0.409768,0.190067,0.519425,0.458998,0.376449,-0.804740
0.808515,-0.231271,0.524037,0.333988,-0.150076,-0.930553
-0.002246,0.052932,0.671328,0.790531,0.612376,-0.007536
-0.165788,-0.362881,-0.830705,0.249816,-0.952577,0.173749
0.830974,-0.271065,-0.259509,-0.058860,0.365630,0.928897
0.516271,-0.105833,0.716787,0.062362,0.234938,0.970008
-0.031340,-0.580779,-0.957204,0.177600,0.106827,0.978287
0.285400,-0.136517,-0.955932,-0.086400,0.116973,0.989370
-0.151005,-0.235386,-0.617778,0.835543,0.243138,-0.492698
0.500079,-0.220513,0.473866,-0.137845,0.386565,0.911903
-0.098511,0.758530,0.616109,0.778203,0.066570,0.624474
0.262888,-0.149273,0.725295,0.756662,-0.278297,0.591619
-0.358632,0.592007,0.256408,-0.151655,-0.781893,0.604685
0.533507,0.349538,0.676615,0.685131,0.553688,-0.473313
0.020005,-0.087847,0.827206,0.795115,-0.535706,-0.284273
-0.372995,0.765702,0.291034,0.794516,0.602720,0.073981
-0.220527,-0.647259,-0.955733,0.147959,-0.180244,-0.972430
0.320659,-0.307155,0.674031,0.827834,0.559912,-0.034492
-0.024341,0.010787,0.720644,-0.122452,0.744353,-0.656463
0.263567,-0.494842,0.191906,-0.280650,0.169247,-0.944770
-0.458241,0.320677,0.226850,0.309430,0.529854,0.789625
0.401516,-0.114709,-0.953248,-0.134501,-0.086696,0.987114
-0.032646,-0.046877,0.808740,-0.428495,0.897958,-0.100315
-0.011544,-0.094430,-0.030899,0.411115,0.897472,-0.159775
0.318830,0.207818,0.562897,-0.317112,-0.585229,0.746289
-0.096474,-0.140103,0.966725,-0.280827,0.486163,-0.827516
0.780675,-0.247024,0.513681,0.333988,-0.150076,-0.930553
-0.135283,-0.257075,-0.972808,-0.052677,0.155230,0.986473
0.367773,0.188714,0.249173,-0.332946,0.701160,0.630493
-0.065918,-0.160911,-0.312701,-0.573534,-0.809801,0.123618
0.608305,0.134813,-0.304491,-0.091235,-0.129415,-0.987384
0.421886,0.314092,0.590745,0.205217,0.898677,-0.387641
-0.373362,-0.342483,-0.982945,0.067728,-0.306626,-0.949418
-0.496526,0.261074,0.453293,0.179758,-0.539195,0.822774
-0.350274,0.015136,0.383782,0.806071,0.159444,0.569936
0.033430,0.553798,0.759086,0.538197,0.527640,0.657222
0.011909,-0.221984,-0.974636,0.018942,0.118414,0.992784
0.247845,-0.702453,0.215282,-0.018288,0.038574,0.999088
-0.548708,-0.535401,-0.984555,-0.013147,0.207118,0.978228
0.156804,-0.167611,0.478975,-0.185422,0.915677,0.356588
0.232176,0.330140,0.615492,0.608929,-0.670896,-0.423207
0.352887,0.271888,0.761273,0.118596,-0.680017,0.723542
-0.526352,0.199825,0.219018,-0.095077,-0.009271,0.995427
0.112929,-0.337546,0.591481,0.231523,-0.249771,0.940219
0.550483,0.287466,-0.298011,0.352418,0.074802,0.932849
0.179734,-0.274945,0.489530,0.623474,-0.029831,-0.781274
-0.082424,-0.780162,-0.949909,-0.054962,0.202935,0.977649
0.193733,-0.237854,-0.959550,0.742203,-0.167430,-0.648923
-0.079290,0.875327,0.589990,0.247533,-0.368995,0.895863
0.277096,0.160266,-0.215441,0.557369,-0.475125,0.680879
0.082371,-0.311505,-0.969826,0.132937,-0.049034,-0.989911
0.087177,-0.302924,-0.968355,0.128511,-0.095704,-0.987079
-0.001462,-0.044761,0.254858,0.929160,0.356668,-0.097210
-0.280909,-0.443645,-0.975173,-0.149764,0.148753,0.977468
0.616559,0.195356,0.549977,-0.178172,0.786510,0.591318
0.485298,-0.636090,0.644156,0.270124,-0.238225,-0.932889
-0.141656,-0.458045,0.563732,0.873925,-0.193584,-0.445848
-0.348707,-0.383687,-0.980798,-0.155108,0.118514,0.980763
0.327867,0.230742,0.770734,0.804429,-0.594019,-0.005948
-0.455784,0.598061,0.105002,0.145025,-0.320418,0.936109
0.548081,0.616577,0.492869,-0.104719,-0.949421,0.296030
-0.110107,-0.033651,0.655863,0.861297,0.042330,0.506335
-0.100653,0.883498,0.070137,-0.028021,-0.935701,0.351679
-0.466440,-0.621279,-0.975650,-0.208734,0.113335,0.971383
0.211648,-0.206582,-0.957184,0.652756,-0.285711,-0.701626
0.020475,0.047582,-0.988531,-0.167346,0.082418,0.982447
-0.169131,-0.025305,-0.994037,-0.115540,0.367411,0.922854
0.171742,0.289640,0.575360,0.121897,0.954478,0.272235
0.340141,0.270066,0.458759,-0.598763,0.587738,0.544102
0.123897,0.004733,0.575857,-0.618736,0.418101,0.665099
-0.474903,0.018135,0.316994,-0.181513,0.790436,0.585033
0.675739,-0.151447,0.438962,-0.762287,-0.560395,-0.323847
0.336746,-0.287699,-0.939811,0.386799,0.569578,-0.725236
0.137217,-0.104246,-0.975769,-0.106800,0.014487,0.994175
0.232123,0.053814,0.176441,-0.033496,0.121984,0.991967
0.651659,0.196474,0.568105,0.772795,0.628167,-0.090516
0.516845,0.208817,0.535884,0.355860,0.561869,-0.746771
-0.026169,0.005438,0.891629,0.092851,0.126980,0.987550
-0.098460,-0.211815,-0.985450,-0.054191,0.127573,0.990348
0.419483,-0.050815,0.724719,-0.678632,0.510459,-0.528101
-0.078767,-0.376752,-0.968952,0.165434,0.156327,0.973752
0.680387,0.074623,0.542880,-0.213481,0.794376,-0.568676
0.675948,0.193417,0.550851,0.618737,-0.605791,0.500182
-0.243927,-0.666010,-0.962074,-0.065989,0.063601,0.995791
0.274379,-0.254723,-0.939215,0.134646,0.174904,-0.975335
0.224759,-0.210697,0.892622,0.958625,0.253907,-0.128723
-0.150482,-0.079089,0.665643,0.874174,0.336734,0.349900
-0.050352,0.073270,0.922299,-0.640465,0.738135,-0.212039
-0.170698,0.511125,0.463272,-0.462218,0.834625,0.299592
0.204754,0.283351,0.495075,0.187281,-0.446463,0.874984
0.111100,0.029831,0.840226,-0.529944,0.078467,-0.844395
-0.180152,-0.173490,0.560253,0.867440,-0.106325,0.486049
-0.040636,-0.227920,-0.975094,0.109367,0.239462,0.964726
-0.418596,0.507128,-0.099894,0.494518,0.187029,-0.848806
-0.006268,-0.164203,-0.980083,-0.159231,0.164660,0.973413
-0.253539,-0.615047,-0.964519,-0.109979,0.208124,0.971900
-0.126299,0.587598,0.202898,-0.853012,-0.334851,0.400307
0.320188,0.371581,0.615413,0.128766,-0.695218,0.707171
-0.257873,0.339663,0.189282,0.250261,-0.186430,0.950060
0.579787,0.160323,0.560452,0.088937,-0.722347,0.685788
0.337582,-0.144923,0.623920,-0.494161,-0.869149,0.019623
0.390389,0.418545,0.630480,-0.524459,-0.455907,0.719091
0.623401,0.309215,0.517954,-0.611965,0.707160,-0.354152
0.351946,-0.229626,0.467307,-0.507326,-0.379833,-0.773529
0.090937,-0.182836,-0.972827,-0.079492,0.236005,0.968495
-0.028728,-0.565731,-0.957641,-0.165890,-0.237611,-0.957090
0.329329,0.228686,0.768369,0.804429,-0.594019,-0.005948
0.484252,-0.729199,0.620482,0.735889,0.231662,-0.636239
-0.134081,-0.285936,-0.674051,0.552387,-0.826428,0.109016
-0.460851,-0.424424,-0.985529,-0.128546,0.215864,0.967925
0.039018,-0.437472,-0.965135,-0.053001,0.146563,0.987780
0.190233,0.495490,0.178608,-0.358893,0.037052,0.932643
-0.075110,0.201823,0.752984,0.803662,-0.154560,-0.574664
0.284774,0.306981,0.179761,0.449973,-0.536858,-0.713658
0.248838,-0.010140,0.904350,0.990749,-0.108118,-0.082013
0.352887,-0.169023,-0.943310,-0.110194,-0.600722,-0.791827
-0.050979,-0.092961,-0.045291,0.711878,0.688899,-0.136554
0.089214,0.207524,-0.012533,0.283066,-0.267752,0.920968
-0.438495,-0.352711,-0.990300,-0.130500,0.105050,0.985867
0.061478,0.437355,0.762684,-0.453123,0.804559,-0.383881
-0.383181,0.380692,-0.101027,0.113610,0.276426,0.954296
-0.064665,0.226569,0.078128,0.280557,-0.564774,0.776092
0.115487,-0.449464,0.489669,-0.405065,0.310408,-0.859982
0.386368,0.267951,0.530636,0.523246,0.739831,-0.422924
-0.239488,-0.624393,-0.962968,-0.019807,0.136200,0.990483
-0.147036,0.389333,0.198565,-0.417950,0.557068,-0.717630
0.119353,-0.345364,-0.967302,-0.261831,0.151218,0.953193
-0.246173,0.070097,0.462337,0.631270,0.364689,-0.684470
0.707914,-0.247905,0.502370,-0.428606,0.151058,0.890774
0.282581,-0.039765,-0.965871,-0.229672,0.336581,0.913216
-0.169549,0.428361,0.427194,0.587144,-0.112441,0.801635
0.290938,-0.011490,0.706749,-0.199202,-0.155621,0.967523
-0.266440,-0.026892,0.368337,0.065508,0.548001,0.833909
-0.598119,-0.490198,-0.982747,-0.096913,0.261001,0.960462
0.294386,0.328846,0.174633,-0.228499,0.822564,-0.520746
0.354662,-0.225862,0.747478,0.888783,-0.072952,-0.452485
0.219274,-0.141513,-0.963346,0.570374,-0.282732,-0.771192
-0.552050,0.311624,0.224644,0.266262,0.607881,0.748054
-0.018073,-0.015546,0.373346,0.434895,0.900391,-0.012757
0.205067,-0.425893,0.513561,0.316561,0.457037,-0.831208
0.169131,0.195062,0.536361,0.863849,0.080038,-0.497352
0.116322,-0.382043,0.509765,0.815519,-0.460531,0.350486
0.307339,-0.568847,0.557172,-0.178955,-0.295104,0.938557
-0.067172,-0.072212,0.087987,0.343523,0.936982,0.063694
-0.561870,0.834182,-0.168192,-0.385270,0.051337,0.921375
-0.140454,-0.421424,-0.961696,0.117143,-0.183042,0.976101
-0.146357,-0.648199,-0.955654,-0.206734,0.068844,0.975972
-0.067746,0.080148,0.654830,-0.625994,-0.694772,-0.354153
0.421468,-0.122586,-0.278730,0.159553,0.474604,0.865618
-0.121807,-0.494783,-0.962511,0.152227,-0.011432,-0.988279
-0.207260,-0.543570,-0.966089,-0.155749,0.214763,0.964168
-0.111256,-0.242028,-0.547353,0.075371,0.975006,-0.209004
0.540768,-0.770757,0.181848,0.431641,-0.032250,0.901469
-0.058606,0.119942,0.050240,-0.744345,-0.532799,0.402587
0.140454,-0.447347,-0.961160,-0.054547,0.042209,0.997619
-0.091511,-0.183248,-0.616605,0.463924,-0.829557,-0.310821
-0.440062,-0.319852,-0.989982,-0.205096,0.167575,0.964290
0.249465,0.622925,0.659958,0.932212,-0.187620,-0.309482
-0.233846,0.224687,0.468122,-0.604853,0.454004,0.654242
0.280649,-0.102248,-0.954620,-0.102260,0.168596,0.980366
-0.050770,-0.084261,0.829730,0.569362,0.519361,0.637253
0.154297,0.407201,0.028057,0.139228,-0.619766,0.772337
-0.057822,-0.126701,-0.282706,0.835713,0.514605,-0.191742
-0.113920,-0.382396,-0.959092,0.850800,0.005233,0.525464
0.302900,-0.728141,0.213711,0.335673,0.269044,0.902740
0.287857,0.441587,0.618216,0.642831,0.247728,-0.724844
0.437086,-0.239148,0.730980,-0.578455,0.517295,-0.630711
0.284932,-0.811726,0.237286,-0.733462,-0.021838,-0.679380
-0.079916,-0.267949,0.603526,-0.298843,0.904171,-0.305234
-0.170122,-0.368817,-0.973225,-0.193750,0.278061,0.940820
0.713189,0.045055,0.187334,0.166406,0.150801,0.974458
-0.646069,0.627568,-0.102517,-0.492246,-0.165755,-0.854529
0.017080,-0.569492,-0.961994,0.124775,0.200840,0.971645
-0.447323,0.732550,-0.132015,0.488647,0.702365,0.517598
0.433586,-0.092608,-0.942654,0.486901,0.137839,-0.862512
0.061843,0.230742,0.580906,-0.593331,0.003319,0.804952
-0.154035,-0.065510,-0.991115,-0.157126,0.269120,0.950203
-0.256882,0.591300,0.264498,-0.182101,-0.546089,0.817695
-0.043928,-0.045055,-0.368556,0.962745,-0.016466,-0.269909
0.692192,-0.772343,0.159744,-0.188470,0.312202,-0.931133
-0.492192,-0.403732,-0.989465,-0.029491,0.058778,0.997835
0.105510,-0.293402,0.579713,0.512522,0.080130,0.854927
0.653069,0.327201,0.473230,0.825638,0.167260,-0.538837
-0.114182,-0.306274,0.633223,0.974696,0.188721,0.119802
-0.318464,-0.635915,-0.970224,0.142392,-0.140096,-0.979846
0.331053,-0.109536,0.493644,-0.711315,0.702499,-0.022928
-0.383704,-0.245790,0.777970,-0.353259,0.577515,0.735992
0.456726,0.144864,0.152986,0.254691,0.133173,-0.957809
-0.635832,0.418486,0.298011,0.104021,0.066411,0.992355
-0.165474,0.726790,0.518928,-0.715673,0.534123,0.450027
0.658762,0.460926,0.470348,-0.238822,-0.451418,0.859759
-0.409192,0.282587,0.219058,0.245226,0.281746,0.927622
-0.363332,-0.391388,-0.980679,0.338303,-0.030326,-0.940549
0.466231,-0.123879,-0.922121,-0.341273,0.890273,0.301575
0.676051,0.338956,0.523242,-0.744736,0.602253,-0.287506
-0.040377,-0.119000,-0.986126,0.032437,0.166613,0.985489
-0.097519,0.929700,0.614339,-0.493368,0.789028,-0.366091
-0.060433,0.359943,0.513184,0.806724,0.026750,-0.590323
-0.038131,0.529522,-0.146685,0.543455,-0.033891,-0.838754
0.411805,-0.199059,0.728932,-0.440953,-0.244354,-0.863627
0.454531,-0.582365,0.632110,-0.203764,0.690658,0.693882
-0.343431,-0.424953,-0.977101,-0.131893,0.296941,0.945743
-0.073961,-0.354240,-0.974458,-0.084562,0.210925,0.973838
-0.056307,-0.177429,0.894690,0.719474,0.654164,0.233295
-0.077148,-0.525172,0.503742,0.136282,-0.870422,0.473068
0.717212,0.161970,0.521512,-0.664671,-0.450944,-0.595703
-0.216766,-0.562028,-0.965552,-0.046609,0.246669,0.967978
-0.096214,0.214283,0.077929,0.222141,-0.601035,0.767730
0.662002,0.199531,0.584941,-0.572723,-0.108189,0.812578
0.402769,0.438589,0.636224,-0.674688,-0.388543,0.627559
0.426483,0.217223,0.509804,-0.355311,-0.446739,0.821083
0.304258,0.016077,0.903078,0.922408,0.049321,0.383054
-0.325725,-0.595062,-0.969230,0.006462,0.213964,0.976820
0.238130,-0.484673,0.197591,-0.105444,-0.189003,-0.976299
-0.052807,-0.159500,-0.284773,0.835713,0.514605,-0.191742
-0.102533,0.016606,0.712872,0.928588,0.283826,-0.239099
0.679238,0.068979,0.513283,0.372947,-0.924757,0.075731
-0.342178,0.439472,-0.112217,-0.332189,0.025470,0.942869
-0.163540,-0.177310,-0.981156,-0.276693,0.158937,0.947724
0.337947,-0.952447,0.203256,-0.397123,0.508176,-0.764232
0.060173,0.125408,0.573253,0.849917,0.448459,0.276631
-0.412746,-0.659310,-0.968991,0.221554,-0.081471,-0.971739
0.091669,-0.118941,-0.974140,-0.126287,0.115099,0.985294
0.123636,0.249846,0.839272,0.611153,0.335027,-0.717111
-0.493392,0.370874,0.209120,0.320552,0.550116,0.771116
0.133299,0.599825,0.283421,-0.200254,-0.525142,0.827118
-0.145522,-0.623099,-0.962134,-0.185686,0.078381,0.979478
-0.288587,-0.556444,-0.969767,-0.150273,0.101099,0.983462
0.454637,0.586245,0.677649,0.487460,0.471977,-0.734588
-0.386994,-0.455634,-0.986265,0.411873,-0.195083,-0.890114
-0.037869,0.334784,0.743403,-0.717933,0.459787,-0.522655
-0.027683,0.087201,0.782005,0.614319,0.158462,-0.772983
0.240272,-0.215871,-0.952155,-0.365542,0.444203,0.817962
-0.522591,-0.448170,-0.987914,-0.036730,0.107563,0.993520
0.544739,-0.012784,0.566395,0.036710,0.250028,0.967543
-0.266910,0.003146,0.449874,0.270451,0.918366,-0.288895
0.020737,-0.184129,0.157737,0.922830,0.339742,-0.181551
0.087647,0.776047,-0.117306,0.367438,-0.117662,-0.922575
-0.019379,-0.143100,-0.208166,0.782179,0.610833,-0.122793
-0.376026,-0.333726,-0.988650,-0.150073,0.308301,0.939377
-0.158161,-0.041939,-0.990538,-0.137539,0.404160,0.904289
0.205484,0.232035,0.493227,-0.196139,0.391431,-0.899061
0.535597,0.063101,0.460906,0.278369,-0.767257,0.577778
-0.462575,-0.129699,0.244004,-0.002744,0.106711,0.994286
0.331627,-0.862277,0.223471,0.368606,-0.156000,0.916402
0.432437,-0.491080,0.187791,-0.050202,0.164455,0.985106
0.005797,-0.196297,0.165389,0.348540,0.799160,0.489758
0.072238,-0.503306,0.533598,-0.677349,0.735555,-0.012566
-0.276364,-0.102895,0.298290,0.913833,0.077691,0.398590
-0.044763,0.137810,0.762585,0.218626,0.071204,0.973207
0.314703,0.531933,0.036226,-0.204209,0.542210,-0.815051
0.420215,-0.264541,-0.933312,-0.157703,0.058824,0.985733
-0.316167,0.255489,0.206417,0.281806,0.102452,0.953986
-0.298094,0.032711,0.422086,0.828163,0.522061,-0.203957
0.355185,-0.656018,0.626942,-0.535428,0.752723,0.383047
0.133455,0.178957,0.543099,0.999137,0.022661,-0.034796
0.370958,-0.308449,-0.940805,-0.283513,-0.476545,0.832181
-0.742962,0.281764,0.300098,0.132747,-0.364787,0.921579
-0.030609,-0.053048,0.713726,0.312293,-0.879857,0.358224
0.077723,0.725027,-0.126331,0.527789,0.035507,-0.848633
0.784958,-0.294342,0.521969,0.263725,-0.025077,-0.964272
0.599321,-0.133107,0.441784,-0.439400,-0.694122,-0.570195
0.758789,0.030008,0.465736,-0.271653,0.264200,-0.925420
-0.090937,-0.631859,-0.955991,0.113002,-0.023083,-0.993327
-0.053382,-0.202175,-0.454684,-0.668012,-0.743200,0.037615
-0.016819,-0.155856,-0.982389,-0.083272,0.152600,0.984774
-0.229563,-0.111007,0.945894,0.051714,-0.998438,0.021148
-0.231757,-0.717677,-0.962173,-0.160979,0.154478,0.974793
0.279133,-0.169845,-0.949571,-0.275813,0.603175,0.748403
-0.423661,-0.303101,-0.991691,-0.203314,0.201614,0.958131
0.103631,0.001911,-0.978115,0.284992,-0.054986,-0.956952
0.191957,0.174842,0.577964,-0.274510,0.704951,-0.653979
-0.238965,-0.389978,-0.977399,-0.088689,0.240054,0.966700
0.041056,-0.286406,-0.969448,-0.003650,0.041310,0.999140
0.352469,-0.361939,0.494459,-0.223736,-0.973617,-0.044864
-0.054426,0.188538,0.755250,0.913302,-0.131253,-0.385555
0.122486,-0.073035,-0.974120,0.288506,0.037379,-0.956748
0.105198,0.351947,0.585855,0.201705,0.880688,0.428607
-0.234004,-0.606525,-0.964797,-0.142874,0.173348,0.974442
0.082371,-0.022366,0.618633,-0.023094,0.438454,0.898457
-0.573570,-0.488141,-0.986583,0.295580,0.104679,0.949565
-0.152154,-0.073505,0.929495,0.253530,0.953295,0.164167
0.564744,0.428714,0.479651,-0.329694,0.616422,-0.715071
-0.035988,-0.362762,-0.465100,-0.168801,0.328016,0.929469
-0.132463,-0.350184,-0.845493,0.025337,-0.981255,0.191040
0.136799,-0.391388,0.496626,0.893562,-0.413760,-0.174211
0.313921,-0.914122,0.213453,0.301281,-0.405807,0.862873
0.753148,0.154328,-0.321029,0.070929,0.163234,0.984034
-0.102899,0.071507,0.695141,0.127268,0.957659,0.258248
-0.090729,-0.492315,-0.958476,-0.069967,0.001198,0.997549
0.664509,-0.187656,0.510023,-0.308401,0.888668,0.339351
0.770803,-0.345658,0.517934,0.219188,-0.044031,-0.974689
0.054688,0.091845,-0.987914,-0.214097,0.101330,0.971543
0.078664,0.864512,0.140106,-0.201507,-0.700268,0.684850
0.391695,-0.564027,0.599511,0.482482,-0.651240,-0.585745
0.211178,-0.384629,0.517100,-0.752109,0.153618,-0.640886
0.054635,-0.713211,0.606488,-0.647365,-0.013171,0.762066
-0.144999,0.833064,0.633143,-0.476137,-0.379360,-0.793335
0.127554,0.047406,0.530219,-0.732720,0.476091,-0.486270
0.051293,-0.211991,-0.973682,-0.063151,0.245099,0.967439
-0.558109,-0.450287,-0.991314,0.039253,0.096872,0.994523
0.397754,-0.120353,-0.952334,-0.069436,-0.006318,0.997566
0.291303,-0.365231,-0.949651,-0.074000,-0.142030,0.987092
0.409977,-0.079030,-0.947663,0.408955,0.308779,-0.858727
0.324158,0.375577,0.177475,-0.235340,0.735971,-0.634793
0.679185,-0.323851,0.489867,0.569648,0.238954,-0.786385
-0.431392,-0.447347,-0.983402,-0.116347,0.301043,0.946486
0.534918,0.378105,0.200076,0.242195,-0.255523,-0.935975
0.007573,0.837355,0.577566,0.011921,0.220192,0.975384
0.279864,0.325790,0.742389,0.324665,0.857428,0.399262
-0.159415,-0.614871,-0.960881,-0.108005,0.111076,0.987926
-0.090364,0.594063,0.205800,-0.431699,-0.846559,0.311407
0.022095,-0.052696,-0.982985,-0.108811,0.182979,0.977077
-0.276731,-0.433475,-0.972986,-0.133821,0.126024,0.982960
0.596240,0.026482,0.439180,-0.295260,0.625477,-0.722219
0.314600,-0.109948,0.728197,0.496297,0.365041,-0.787677
-0.060068,-0.418369,0.559498,-0.285435,-0.505461,0.814270
0.109793,-0.310919,-0.966785,0.229279,-0.038472,-0.972600
0.204596,-0.288993,-0.947862,-0.401522,-0.136003,0.905695
0.541552,-0.157442,0.471978,-0.390651,0.770776,0.503286
-0.198642,-0.191595,-0.614359,0.278605,0.496045,-0.822386
0.080752,0.109125,0.830585,0.656961,0.247808,0.712034
-0.254374,-0.052872,0.760339,0.894444,-0.369674,0.251618
0.169757,-0.199000,0.810787,-0.728531,-0.085405,-0.679668
-0.318464,0.032241,0.221821,0.066841,0.839224,0.539663
-0.166518,0.656899,0.186499,0.759336,0.561497,-0.328832
0.224080,-0.270007,0.494121,0.162724,0.669786,0.724505
0.043928,-0.416841,0.572160,0.483066,0.091907,0.870747
-0.379630,0.771756,0.203932,0.857848,0.220385,0.464248
0.376234,-0.081382,0.726507,-0.190392,0.404115,0.894674
-0.087333,-0.184188,-0.976863,-0.129974,0.141769,0.981330
-0.566362,0.088084,0.327012,0.101663,0.868030,0.485992
0.183547,0.037062,0.456394,0.465125,0.832121,-0.302047
-0.313502,-0.455342,-0.976505,-0.118094,0.203736,0.971877
0.091355,-0.715034,0.456235,0.212616,-0.162043,0.963606
-0.235361,-0.460103,0.531868,-0.019584,-0.020341,0.999601
-0.100915,0.549156,-0.104982,-0.411746,0.446667,-0.794326
0.525778,0.025010,0.546379,0.152467,0.799897,0.580448
0.045181,-0.594473,-0.959490,0.063289,0.190924,0.979563
0.358579,0.018311,0.755111,0.216180,0.862666,-0.457246
-0.465396,0.293461,0.176064,0.360141,0.699210,0.617579
-0.744006,0.263953,0.288391,-0.107432,0.142409,-0.983960
-0.146148,-0.302807,-0.744596,-0.252491,0.921584,-0.294842
-0.210917,0.378399,0.132592,-0.145777,-0.891006,-0.429950
0.248421,-0.006435,-0.971535,-0.126188,0.201433,0.971340
0.109584,0.200060,0.676456,0.213942,0.698661,-0.682716
0.041787,0.078913,-0.021676,-0.290416,0.141637,-0.946360
-0.017550,0.106481,0.645666,-0.534051,0.027597,-0.845002
0.431757,-0.074151,0.497441,0.463738,0.309188,0.830271
0.412275,0.307216,0.167556,-0.397761,-0.327512,0.857043
0.187516,-0.029771,0.645328,0.833696,0.384440,0.396430
0.608149,-0.268654,0.483387,0.275863,-0.069598,0.958674
0.458449,0.442469,0.192920,-0.387597,0.645173,-0.658423
0.267538,0.145099,0.252492,-0.213086,0.973236,0.086057
0.268112,0.047701,0.177614,0.150592,0.228962,0.961716
-0.085244,-0.349126,-0.966745,0.278207,0.092100,0.956095
0.515645,0.562145,0.533737,-0.495678,0.845750,0.197510
-0.427736,-0.487025,-0.979725,-0.153077,0.138418,0.978472
0.019326,-0.195708,0.596191,0.775826,-0.630671,0.018662
0.446540,-0.164260,-0.922955,-0.754291,-0.325642,0.570090
-0.016557,0.428304,-0.148215,0.366605,-0.212617,0.905756
-0.422408,-0.554152,-0.976207,-0.170227,0.245316,0.954381
-0.019849,0.109419,-0.185346,-0.245050,-0.555392,0.794664
-0.548811,0.155503,0.261854,-0.283879,0.532686,0.797282
0.497519,0.515297,0.513879,-0.560916,0.803484,0.199465
-0.026482,0.134224,0.788107,0.693250,0.710381,-0.121500
-0.498354,-0.512829,-0.984297,-0.131947,0.071663,0.988663
-0.301019,0.009610,0.278372,0.199506,0.902529,-0.381626
0.344894,-0.313798,-0.942594,0.359472,0.538182,-0.762325
0.066023,0.127584,0.836648,0.080188,-0.156998,0.984338
-0.208776,-0.218574,-0.981772,0.125741,-0.170264,-0.977343
-0.043719,-0.104834,0.946470,0.933846,0.109649,0.340454
0.307444,-0.822542,0.213851,-0.705394,-0.017630,-0.708596
0.186211,-0.181896,0.847362,0.763789,0.486644,0.424033
0.111830,-0.403909,-0.964499,-0.073968,-0.025056,0.996946
-0.500758,-0.467038,-0.990916,0.123493,-0.115942,-0.985549
0.517473,-0.554503,0.172744,-0.277809,-0.032370,-0.960091
-0.350692,0.552683,0.431885,0.251285,0.491052,-0.834101
-0.122120,-0.282174,0.725752,-0.607108,0.419537,0.674839
0.299975,-0.522116,0.194212,0.100673,0.252003,0.962476
0.549596,0.134813,0.539601,-0.540956,-0.058497,0.839014
-0.516010,0.189362,0.266704,-0.060859,0.547374,0.834673
-0.421312,-0.604114,-0.970403,0.411629,-0.180469,-0.893304
0.638392,-0.117002,0.473906,-0.439663,0.594342,0.673390
-0.130844,-0.711388,-0.957045,0.212663,-0.051000,-0.975794
0.596240,-0.205818,0.490563,0.393267,-0.507230,-0.766850
0.141239,-0.401968,0.519743,0.531774,-0.789500,0.306440
0.136485,0.406318,0.715118,0.108567,0.972413,-0.206461
0.072238,0.268773,-0.004522,0.028303,-0.451959,0.891590
-0.009037,-0.377163,-0.968514,0.123715,0.104953,0.986752
-0.126403,0.439294,0.482473,0.315603,0.948596,0.023661
0.023609,-0.089904,-0.986344,0.185026,-0.121854,-0.975150
-0.479081,0.183953,0.236312,-0.717681,-0.501731,-0.482909
-0.158736,-0.304393,0.540137,-0.105761,-0.325123,0.939739
0.536276,0.489199,0.512746,0.282596,-0.934504,0.216430
0.589032,0.351007,0.196557,0.091856,0.242545,0.965782
0.243824,0.167495,0.843684,0.928374,0.241967,0.282087
-0.499609,0.329964,0.455142,0.620876,0.346837,0.703006
0.217133,-0.307333,-0.958655,-0.025659,-0.080111,0.996456
0.307601,0.508362,0.635887,0.413383,0.432151,0.801474
0.448472,0.515357,0.242514,0.068275,-0.321253,0.944529
-0.180517,-0.314151,0.792957,0.808793,-0.162640,0.565157
0.231444,-0.197236,-0.948875,-0.529369,0.405273,0.745333
0.353827,-0.249962,0.694445,0.784147,0.486163,-0.385693
0.131627,0.551743,0.773319,-0.383824,-0.274391,-0.881697
-0.169601,-0.283938,-0.979844,-0.153566,-0.020554,0.987925
0.078716,-0.225687,0.542046,0.950138,0.024271,-0.310883
0.751893,0.135871,0.558583,-0.718546,-0.635784,0.281904
-0.086811,-0.093255,0.680571,-0.668799,-0.675733,-0.309987
-0.205328,-0.486261,-0.968296,-0.260150,-0.048340,0.964357
-0.086028,0.210934,-0.151137,0.337261,-0.180859,0.923875
0.110630,-0.049464,-0.977499,0.216865,-0.049829,-0.974929
0.017759,-0.428655,0.527654,0.401155,-0.598613,0.693352
0.260225,0.448054,0.421052,0.965498,0.058511,-0.253750
0.413163,0.294579,0.526939,0.804785,-0.286566,-0.519809
-0.370227,-0.438941,-0.977618,-0.193657,0.291298,0.936825
0.029408,-0.090728,0.870539,0.667419,-0.527516,0.525622
-0.383285,0.073446,0.344484,0.693600,0.443922,-0.567320
-0.007678,-0.347773,0.543894,-0.452074,-0.835603,0.312085
-0.167406,-0.543629,0.481897,0.845585,0.132420,0.517156
0.245129,0.090903,0.650437,-0.046107,-0.063933,0.996889
0.379265,-0.195062,-0.942495,0.204643,-0.125567,-0.970749
0.332620,0.253373,0.750996,-0.230922,-0.451210,0.862023
0.139724,-0.609405,0.458521,-0.211637,0.253815,-0.943816
0.069001,-0.062747,-0.980123,0.188373,-0.067583,-0.979770
-0.370749,-0.357707,-0.982647,0.103226,-0.222605,-0.969428
-0.208671,-0.501426,0.532902,0.098911,-0.088531,0.991150
0.368765,-0.577899,0.185545,0.450312,0.035957,0.892147
0.019587,-0.030360,0.495234,-0.104296,0.963869,0.245110
-0.165318,-0.470213,-0.965394,0.200301,-0.064955,-0.977579
0.361923,0.247613,0.570232,-0.524548,0.698161,-0.487258
0.274641,0.109538,0.825795,0.868074,0.017445,0.496127
0.508645,-0.014312,0.703291,-0.317488,0.182504,0.930534
-0.166309,0.706568,0.606408,0.750324,0.539693,0.381766
0.094959,-0.525526,-0.961358,-0.191652,0.078842,0.978291
0.514130,0.086202,0.555343,-0.179404,0.135032,-0.974464
0.346932,-0.544687,0.190236,0.115179,-0.054558,0.991845
-0.201097,0.310743,0.151714,0.058202,0.904064,0.423416
-0.062157,-0.194768,-0.454605,0.559794,0.814399,-0.152921
0.204805,-0.101189,0.839808,0.995403,0.044975,0.084560
0.507287,0.465511,0.637318,0.294015,-0.800287,0.522585
-0.174093,-0.611404,-0.961319,0.153143,-0.082437,-0.984760
0.256987,-0.156913,0.683294,-0.326598,-0.176790,0.928482
-0.023818,0.053636,0.891092,-0.680990,0.664511,-0.307697
-0.069104,0.520530,0.532484,0.818544,0.443494,-0.365102
0.130479,0.461866,0.796217,-0.221107,-0.099020,0.970210
0.143588,0.447819,0.036226,-0.081630,-0.624244,0.776953
-0.233115,-0.725495,-0.961974,-0.192268,0.210033,0.958603
-0.038496,-0.188009,-0.627300,-0.644911,0.686918,0.335012
0.425177,0.219810,0.167735,0.113455,0.284650,-0.951894
-0.052389,0.134578,0.811741,0.030568,-0.985019,0.169717
0.095429,-0.258133,-0.969508,-0.065725,0.208039,0.975910
-0.343013,0.347068,0.203057,0.166597,0.231249,0.958525
0.313294,0.077267,0.841697,0.842571,0.514506,0.159243
0.037869,0.608700,0.784410,-0.441359,-0.346632,-0.827676
0.367459,-0.291874,-0.936412,-0.029190,-0.278567,0.959973
0.273911,0.321676,0.172168,-0.053287,0.656537,-0.752409
0.165056,-0.280295,0.551507,0.461730,-0.461689,0.757396
-0.347140,-0.462806,-0.977936,-0.123179,0.026441,0.992032
-0.065083,-0.181307,0.882903,-0.649440,-0.663998,-0.370587
-0.059911,-0.470389,-0.961637,-0.184605,-0.144406,-0.972146
0.201045,0.069568,0.181808,-0.079285,0.108837,0.990893
0.195091,-0.171197,0.876363,-0.697773,0.286538,0.656512
-0.035048,-0.337839,-0.973006,0.000898,0.073879,0.997267
-0.054061,-0.144982,-0.286522,0.835713,0.514605,-0.191742
-0.140977,-0.110594,0.906735,0.756023,0.616836,-0.218959
-0.151684,-0.296753,-0.627657,0.997758,0.002718,-0.066875
-0.636145,0.535871,0.291750,-0.363224,0.201560,-0.909638
0.068373,0.732140,0.599471,-0.137556,0.059245,0.988721
0.372265,-0.489434,0.174613,-0.260302,-0.453363,-0.852470
-0.156229,-0.308921,-0.638391,0.995922,-0.058843,-0.068390
-0.045077,0.468862,-0.150044,-0.469516,0.050859,0.881458
-0.071298,-0.206819,-0.976584,0.053333,0.161151,0.985488
-0.120032,-0.413842,-0.954978,-0.280458,0.325692,-0.902922
0.279291,0.006437,0.667154,0.889465,-0.315489,-0.330635
0.263411,-0.374695,0.516424,-0.646689,0.560666,0.517152
0.498877,0.168318,0.512985,0.499167,0.097721,0.860978
0.113085,-0.317267,0.179304,0.013205,0.300566,0.953670
0.095691,-0.783219,0.606965,-0.385517,-0.187683,-0.903411
0.205067,0.233388,0.642605,-0.210709,-0.588131,-0.780835
-0.444345,-0.539397,-0.975968,-0.259285,0.230579,0.937872
-0.116270,-0.367347,-0.959708,-0.622131,-0.175552,-0.762978
0.577070,-0.296399,0.500581,0.000535,-0.057086,0.998369
0.049934,0.373636,0.707028,0.283375,-0.958771,-0.021354
-0.266754,0.462984,-0.103889,-0.010822,-0.291181,0.956607
-0.275634,-0.268597,0.275928,-0.637154,0.262044,0.724823
0.033848,-0.672652,0.597881,-0.669926,0.235629,0.704044
0.401777,-0.205232,-0.936631,-0.192484,0.094232,0.976765
-0.020319,-0.350536,0.561943,-0.658142,0.301720,-0.689793
0.012276,-0.338311,0.571385,0.936801,0.185438,-0.296678
0.129068,-0.189184,-0.972152,0.059757,-0.083728,-0.994695
-0.084408,-0.781278,-0.952056,-0.054962,0.202935,0.977649
-0.022147,-0.042233,-0.229096,0.952570,0.047458,-0.300596
0.080752,0.559618,0.770635,0.210069,0.610092,0.763976
-0.058083,-0.211110,-0.510123,0.133185,-0.988538,-0.071095
0.636511,-0.848640,0.157280,0.135290,-0.300503,0.944137
-0.219900,0.669185,0.184372,0.603079,0.744336,-0.286810
0.023976,-0.556855,-0.960802,0.032602,0.104658,0.993974
0.058344,0.479794,0.240725,0.398333,0.285903,-0.871545
-0.203656,0.519061,0.239731,-0.469363,-0.599458,0.648343
0.095952,-0.056752,-0.976068,-0.249517,0.009539,0.968323
-0.240272,-0.014782,0.372233,-0.060307,0.337845,0.939268
0.030035,-0.257780,-0.969727,-0.030171,0.296373,0.954595
0.089527,-0.690580,0.456911,0.047985,-0.086675,0.995080
-0.378742,0.439178,0.420098,-0.228651,0.214157,0.949661
0.373465,0.437179,0.223591,-0.682374,-0.040275,0.729893
-0.157064,-0.664422,-0.958198,0.074271,-0.040819,-0.996402
0.617394,0.037415,0.563056,-0.111272,0.083228,0.990299
0.013425,-0.035121,0.880120,0.331688,0.305405,0.892586
0.148133,-0.282115,0.544033,-0.419401,-0.690667,0.589136
-0.106556,0.543923,0.156941,0.833480,0.540421,-0.115131
-0.013999,-0.031124,0.155371,-0.542627,0.797751,0.262963
-0.367093,0.207583,0.206794,0.289690,0.203245,0.935292
0.334291,-0.346539,0.491597,0.435606,0.870378,0.229541
-0.045390,0.189008,-0.173798,-0.656123,0.206690,-0.725797
0.067746,-0.008376,0.532862,0.722667,-0.614373,-0.316701
0.154400,0.137694,0.524335,-0.606073,0.401536,-0.686618
0.084879,0.351653,0.548108,0.117377,-0.386192,0.914920
0.449466,0.530934,0.507578,-0.444588,0.735214,0.511665
-0.390963,-0.330434,-0.986662,-0.040003,0.303600,0.951959
-0.021886,-0.185187,-0.978672,0.155374,-0.198219,-0.967765
-0.201410,0.677472,0.486608,0.545681,0.472778,-0.691891
0.005589,-0.291050,-0.971854,-0.234686,-0.118269,0.964850
0.184070,-0.097252,0.700548,0.589917,-0.632315,-0.502170
-0.137529,-0.206701,0.241937,0.515932,-0.243473,0.821301
0.524837,0.516297,0.699017,0.642279,-0.015338,-0.766318
-0.449413,0.769288,-0.125993,-0.431710,0.790465,0.434502
0.394620,-0.299632,-0.936929,-0.096402,-0.165172,0.981542
0.119196,-0.091727,-0.977956,-0.121350,0.157890,0.979972
-0.107130,-0.679352,-0.954958,0.161228,0.147183,-0.975880
0.299138,-0.314562,0.475277,-0.481981,-0.690782,-0.538994
0.267329,0.159971,0.819911,0.795890,0.441449,0.414345
-0.022407,0.215989,0.757198,0.392962,0.367233,0.843043
-0.138679,-0.323086,-0.823648,0.876774,-0.479333,0.038817
-0.173935,-0.130169,-0.983502,-0.153757,0.045472,0.987062
0.184279,-0.563263,0.484858,-0.229110,-0.422836,0.876766
0.454584,-0.050286,0.700985,0.087715,0.641269,0.762286
0.600262,-0.173195,0.487959,-0.018031,0.682275,0.730873
0.113241,-0.383042,-0.964956,-0.397670,0.194887,0.896592
0.617707,-0.170609,0.477365,0.288317,0.693508,0.660242
-0.334082,0.362646,-0.089796,0.050213,-0.249180,0.967155
-0.069731,-0.281410,-0.972092,0.118177,-0.014007,-0.992894
0.154453,0.198354,0.664490,-0.402922,0.264706,-0.876119
-0.170698,0.654136,0.475735,0.432442,0.661438,-0.612775
0.402560,-0.619691,0.182623,-0.334396,-0.424132,-0.841600
-0.256517,-0.716619,-0.965890,-0.061426,0.149405,0.986866
-0.177748,-0.403615,-0.958476,0.323773,-0.267250,-0.907606
0.049099,-0.024011,0.839888,-0.076168,-0.526118,0.846993
-0.200889,-0.016958,0.203892,-0.300097,-0.947870,-0.107160
-0.135283,0.011198,0.828041,-0.105949,-0.246788,0.963260
-0.035936,-0.345775,0.588121,-0.452808,0.487788,-0.746343
-0.317837,-0.613519,-0.968713,-0.026380,0.149242,0.988449
0.246749,-0.324380,-0.951082,0.315833,0.397759,-0.861416
-0.400366,0.309685,0.422662,0.542868,0.553378,0.631717
-0.216035,0.551565,0.248199,-0.466766,-0.699356,0.541324
0.003969,-0.371873,0.564626,-0.563889,-0.212740,-0.797979
0.502899,0.146392,0.531848,-0.236375,0.249832,0.938995
0.662054,0.494667,0.590288,-0.496866,0.118237,0.859735
-0.010656,-0.234916,0.847660,-0.330251,-0.850550,-0.409267
-0.200313,0.294814,0.191330,0.435313,-0.856193,-0.278273
0.366206,-0.148039,0.633660,0.527765,0.849132,-0.020962
0.006425,-0.390389,0.556814,0.591274,0.507480,0.626785
-0.107861,-0.374811,0.829234,-0.632168,0.170459,0.755849
-0.303787,0.388274,-0.106553,0.109321,-0.226812,0.967784
0.177018,0.304689,0.363348,0.457114,-0.263143,-0.849590
-0.190598,-0.322614,-0.748074,-0.216370,0.932348,-0.289676
-0.173518,-0.205348,-0.981335,-0.120466,0.259234,0.958272
0.444607,-0.332667,0.181053,0.117188,0.081912,0.989726
-0.166362,-0.736841,-0.958576,-0.049220,0.107715,0.992963
-0.124941,-0.400499,-0.963783,0.226956,-0.196395,0.953897
0.097414,-0.544569,-0.960663,-0.140305,0.144120,0.979563
0.162863,0.456460,0.782780,0.350357,-0.492419,0.796726
0.133037,0.274886,0.543894,-0.139760,0.210735,-0.967501
0.006947,0.293402,0.514992,0.970812,0.148874,-0.188042
-0.268738,0.233034,0.461960,0.526090,-0.294946,-0.797644
0.290207,0.149684,0.884274,0.977153,0.192250,-0.090619
-0.305511,0.081382,0.209319,0.859278,0.064481,0.507428
0.140768,-0.004202,-0.975630,0.211650,-0.046584,-0.976235
0.232959,0.070038,0.701581,0.375741,-0.891630,0.252615
-0.329799,0.151331,0.381655,0.945819,0.317992,0.065628
-0.404439,0.314915,0.420615,0.487536,0.614614,0.620128
0.108645,0.886025,0.160997,-0.135463,-0.564962,0.813921
0.163281,0.617634,0.073099,-0.172918,-0.627874,0.758863
0.114652,0.149978,0.265452,-0.463602,0.621802,-0.631218
-0.323844,-0.657310,-0.966984,-0.159672,-0.003855,0.987163
0.471508,-0.141925,0.714064,0.265449,0.373535,0.888824
0.332829,-0.012491,0.818520,0.644967,0.206575,0.735761
0.218595,0.695048,0.521313,0.756372,-0.608101,0.241070
0.898669,-0.268538,-0.254818,-0.154436,0.327861,0.932017
-0.187255,-0.084673,0.376944,0.698567,0.098470,0.708737
-0.031079,-0.119648,0.021299,0.611198,0.787603,0.078217
0.036302,-0.575018,0.547234,0.871630,-0.471840,0.132772
-0.029250,-0.088257,-0.063617,0.342009,0.939595,-0.013800
-0.022251,-0.657017,-0.951638,0.038862,0.147989,0.988225
0.107444,0.229743,0.592633,0.203850,0.466488,-0.860717
0.616298,0.135107,0.494658,0.708752,-0.440010,0.551418
-0.103631,0.354064,0.408032,-0.337964,-0.662916,0.668074
-0.463097,-0.146862,0.241420,0.011166,0.224830,0.974334
-0.102533,0.025834,0.748273,0.102652,-0.806464,0.582304
0.009402,-0.677707,0.233847,0.116753,0.168571,0.978750
-0.149386,-0.080029,0.886679,0.901687,0.376151,0.213239
0.081589,-0.190653,0.528092,0.923194,0.160023,0.349437
0.626796,-0.194827,0.421807,-0.673750,0.431216,-0.600095
0.494960,-0.033770,0.722313,-0.060943,0.553542,0.830588
-0.086340,-0.339310,0.230031,0.105769,0.063136,0.992384
0.133195,0.086672,0.513740,0.567301,-0.627871,0.532868
-0.263881,-0.410139,-0.975034,-0.182954,0.224856,0.957062
-0.318569,-0.239148,-0.989902,-0.078368,-0.104479,0.991435
-0.368138,0.609052,-0.068786,-0.349794,-0.502749,0.790499
-0.247166,-0.680999,-0.960881,-0.135428,-0.032693,0.990248
0.099348,-0.345950,-0.966407,0.276275,0.002624,-0.961075
-0.286497,-0.069684,0.946868,-0.678617,0.715842,0.164466
0.011074,-0.284643,0.569178,0.962508,0.044116,0.267641
0.071873,0.185011,0.505113,0.148483,0.426438,-0.892246
0.432280,0.111595,0.541071,0.792898,0.597903,0.117581
-0.451659,-0.632740,-0.976982,-0.264531,0.140216,0.954129
-0.185218,0.003321,0.197571,-0.172958,-0.981829,0.078080
0.278820,0.238383,0.581383,-0.100305,-0.993771,0.048551
0.069992,0.120588,-0.022769,0.410845,-0.303249,0.859795
0.118517,0.481851,0.796814,-0.568265,-0.273909,0.775918
0.225803,0.188538,0.475695,0.039454,-0.912529,0.407105
-0.130321,-0.679177,-0.955196,-0.287474,-0.059308,0.955950
-0.452077,-0.013666,0.329974,-0.146131,0.507518,0.849159
0.641891,0.078443,0.460807,-0.052210,-0.957158,0.284821
0.657301,0.306099,0.189103,-0.475975,0.301333,-0.826224
0.174093,-0.239323,-0.968315,0.551933,-0.160935,-0.818211
0.665658,0.118414,0.575559,0.861409,-0.227494,-0.454115
0.181196,0.247553,0.490841,-0.409914,0.515922,-0.752193
-0.066649,-0.044701,0.098681,-0.119985,-0.992752,-0.006822
0.232123,0.240265,0.660614,-0.319869,-0.521310,0.791151
0.138314,0.022072,0.568920,-0.674529,0.232593,0.700650
-0.329381,0.448524,0.430474,-0.002614,0.090070,0.995932
0.344006,-0.290286,-0.937406,0.273672,0.562978,-0.779846
0.073440,0.307392,0.667889,0.665854,0.712572,-0.221086
0.596396,0.469567,0.213910,-0.047065,-0.002401,0.998889
0.086498,0.528347,0.171233,0.118316,0.822960,-0.555642
0.722904,0.117296,0.479154,0.602461,-0.109649,0.790581
0.402612,0.023484,0.474363,0.958763,-0.033627,0.282211
0.402298,-0.181191,-0.935617,-0.122467,0.354307,0.927075
0.322069,0.380692,0.460608,-0.193906,-0.348137,0.917170
0.292296,0.237033,0.656460,0.264250,-0.141819,-0.953970
0.027318,-0.001615,0.153145,-0.588790,0.767651,0.253057
-0.328493,-0.581779,-0.970701,-0.095343,-0.200130,-0.975119
-0.513816,-0.530581,-0.982210,-0.018845,0.112030,0.993526
0.024811,0.147863,0.628850,0.496446,-0.582597,0.643524
-0.090781,-0.567376,0.443931,0.851884,0.523594,-0.011919
-0.241316,-0.533284,-0.968097,-0.116785,0.128331,0.984831
0.248733,-0.277178,-0.947981,0.202663,0.145699,-0.968349
-0.220527,-0.114650,0.915303,0.719972,-0.117371,0.684006
0.376129,-0.512300,0.186638,0.295563,0.276627,0.914396
-0.007208,-0.372696,0.559120,-0.653147,-0.179075,-0.735752
0.393367,0.147685,0.510421,0.277029,0.334949,-0.900591
0.084096,0.073329,0.152410,-0.477378,0.704982,0.524510
-0.210081,0.540691,0.250564,-0.271617,-0.669938,0.690947
0.205589,-0.278707,0.881273,0.549068,-0.700867,0.455313
0.061375,-0.410550,-0.967938,-0.190015,0.156077,0.969296
-0.305876,-0.500778,-0.972688,0.088519,-0.035587,-0.995439
-0.502272,-0.042468,0.242434,-0.000134,0.231710,0.972785
0.306137,0.189478,0.188209,-0.461925,0.574791,-0.675455
-0.220371,-0.615106,-0.964380,-0.095520,0.079396,0.992256
-0.140037,-0.716619,-0.957840,-0.098224,0.055466,0.993617
-0.199843,-0.335841,-0.693710,-0.549428,0.835475,0.010511
0.187464,0.298575,0.742310,-0.064318,0.266684,0.961635
-0.088795,-0.479853,0.566177,-0.414938,0.788094,0.454680
-0.703682,0.469332,0.305346,-0.031434,-0.131560,0.990810
0.925151,0.034358,-0.314132,0.121564,0.157791,0.979961
0.157378,-0.110243,0.862488,0.694308,0.543396,-0.471866
-0.330583,0.393916,0.143167,0.241538,0.922093,0.302330
0.068895,-0.564084,-0.958516,-0.063885,0.235747,0.969712
-0.374980,-0.492901,-0.975968,0.186107,-0.188452,-0.964287
-0.153983,0.564732,0.188348,0.921963,0.163854,-0.350907
0.577488,-0.174313,0.470746,-0.078031,0.996221,-0.038143
-0.044660,-0.063924,-0.248099,0.991794,-0.126190,0.020525
-0.061478,-0.373577,0.576175,0.245339,-0.282351,0.927408
0.195821,-0.392623,-0.958476,-0.151282,-0.183151,0.971375
-0.163437,-0.250022,-0.977161,-0.181397,0.188633,0.965149
-0.250144,0.223513,0.485236,0.714107,0.211619,-0.667285
0.099400,-0.615752,-0.957224,-0.065812,0.100601,0.992748
0.022409,-0.499192,-0.966487,-0.001212,0.109556,0.993980
-0.313345,-0.025305,0.375056,0.773748,-0.054165,0.631173
0.043614,0.464923,0.785583,0.286334,0.213863,-0.933957
-0.026378,0.137929,0.847242,0.491311,0.337644,0.802876
0.699974,0.356356,0.178111,0.098981,-0.347260,0.932531
0.231341,0.031183,-0.097826,-0.132262,0.262123,-0.955928
0.097467,0.146100,0.831360,0.177690,-0.108375,0.978101
0.368295,0.587598,0.216554,-0.505454,0.013275,0.862751
0.551006,-0.604996,0.643261,0.201026,-0.282949,-0.937832
0.564430,0.457281,0.576354,0.375903,-0.397394,-0.837123
0.077358,-0.102601,0.522427,0.976423,0.208568,0.055660
0.518047,0.221631,0.546399,0.708570,-0.628217,0.321360
0.586786,-0.262953,0.491140,0.146211,0.180915,-0.972570
-0.455628,-0.383277,-0.995547,-0.008103,0.097411,0.995211
0.584278,0.381162,0.581641,-0.668102,0.561758,-0.487922
-0.029824,-0.455283,-0.963207,0.111432,0.248544,0.962190
-0.224706,0.195475,0.177137,0.740798,-0.405860,0.535252
0.099609,-0.451286,0.516304,0.820386,-0.527766,0.220067
-0.199687,0.478854,0.498733,0.371009,0.914637,-0.160595
-0.398956,-0.648728,-0.967640,0.101395,-0.176305,0.979099
0.013215,0.000089,0.135931,-0.645098,0.753056,0.129441
-0.345626,0.369405,0.204707,0.113120,0.506695,0.854672
-0.292714,-0.274357,-0.984237,0.201378,-0.016434,-0.979376
0.688692,-0.390918,0.528608,0.312858,0.073077,-0.946985
0.581771,-0.871976,0.154914,0.070251,-0.459856,0.885210
-0.061949,-0.155268,-0.309441,-0.573534,-0.809801,0.123618
0.588770,0.356003,0.565441,0.833312,-0.537026,0.131128
0.361765,-0.225570,-0.936035,0.155344,-0.036666,-0.987180
0.670098,0.396208,0.180795,0.803572,0.005687,0.595180
-0.115801,0.983131,0.611080,-0.492122,0.841121,-0.224347
0.463934,0.611463,0.696652,0.629983,0.693149,-0.350237
-0.316427,-0.702807,-0.966407,-0.138394,0.049115,0.989159
0.317628,0.165907,0.469911,0.767995,0.044861,-0.638882
0.104413,-0.350889,0.567051,-0.657890,0.551813,-0.512527
0.159520,0.789684,0.121262,-0.603347,-0.655071,0.454813
0.064247,-0.164849,-0.974736,-0.046444,0.210768,0.976432
-0.461792,0.445526,0.429182,-0.006924,0.368028,0.929789
0.179838,0.135342,0.651113,0.024567,-0.107839,0.993865
0.173309,0.136576,0.156822,-0.557280,0.706204,0.436709
0.322278,0.121293,0.758967,0.906486,-0.143081,-0.397255
0.370070,-0.229626,-0.934782,-0.177282,0.040488,0.983327
0.169287,-0.213989,-0.970880,-0.267773,0.049307,0.962220
0.570176,0.629274,0.245157,0.249185,-0.430887,0.867320
0.069783,0.253079,0.824483,0.053364,-0.253748,0.965797
-0.054688,0.630036,0.564308,0.488151,0.651773,-0.580431
-0.185270,-0.296046,-0.675383,-0.487126,0.870620,-0.068770
-0.220267,-0.095842,-0.989862,-0.232143,0.190298,0.953885
-0.055576,-0.133930,0.972271,0.466282,-0.417199,0.780081
-0.211701,-0.322322,0.799259,-0.831699,0.497984,0.245538
0.692922,0.466100,0.594979,-0.194941,-0.473222,0.859104
-0.124262,-0.042233,0.143525,0.638360,0.337961,0.691577
0.124680,-0.376812,0.574485,0.177951,-0.433151,0.883580
0.404074,-0.785804,0.194748,0.341261,0.138941,0.929643
-0.069887,0.075268,-0.994235,-0.105257,0.186124,0.976872
0.246384,-0.412608,-0.954401,-0.361060,-0.010251,0.932486
-0.718778,0.258017,0.302543,0.147562,-0.242400,0.958889
-0.210969,-0.626510,0.529165,0.227092,0.016671,0.973731
-0.016036,-0.097781,-0.016270,0.959324,-0.131705,0.249702
-0.274536,-0.628156,-0.966030,0.144810,-0.212445,-0.966384
0.163437,0.006789,-0.973961,-0.250527,-0.047089,0.966964
0.341290,-0.318677,0.462973,0.210593,0.391583,0.895719
-0.092869,-0.052226,-0.987358,-0.025731,0.104993,0.994140
0.176548,-0.110124,-0.264399,-0.378321,0.096178,-0.920664
0.142021,0.843468,-0.106493,0.350574,-0.187993,-0.917473
0.271716,-0.299573,-0.946073,0.300931,0.233934,-0.924508
0.187413,0.551859,0.060099,-0.183720,-0.440658,0.878674
-0.540768,0.493961,-0.119453,0.741851,-0.415322,-0.526464
-0.122016,-0.349007,0.760836,0.352766,0.933654,0.062026
-0.137738,0.695988,0.264856,-0.712231,-0.312794,0.628400
-0.067902,0.389684,0.524235,-0.784292,-0.148990,0.602236
0.597181,-0.704923,0.178648,0.068921,-0.227272,0.971389
0.604440,0.440294,0.591719,-0.237834,0.401242,-0.884556
0.031235,-0.220278,-0.974875,-0.100636,0.173057,0.979757
-0.007573,-0.014782,-0.986424,0.021237,0.101385,0.994621
0.431654,-0.429360,0.553396,-0.019988,0.508138,0.861044
0.333142,0.179603,0.226453,-0.697227,0.631433,0.339362
0.326300,-0.247670,0.703330,0.733796,0.626245,-0.263365
0.025543,-0.481616,0.585438,0.856504,-0.102590,0.505843
-0.271560,-0.490786,-0.973722,-0.093311,0.084383,0.992055
-0.024706,-0.458280,-0.959987,0.167147,0.240056,0.956261
0.310108,-0.077326,0.823012,-0.524986,0.151610,-0.837498
-0.232018,-0.724261,-0.960722,-0.192268,0.210033,0.958603
0.823296,-0.236973,-0.268453,0.019740,0.336655,0.941421
0.037034,0.100251,0.898526,0.644648,-0.432383,0.630456
0.148133,0.463807,0.569973,0.585513,0.552539,-0.593191
0.305249,-0.144100,-0.951221,0.030850,0.452423,0.891270
0.505303,-0.149859,-0.929535,0.034789,0.132365,-0.990590
0.400940,-0.677826,0.595714,0.288380,0.564642,0.773315
-0.024653,0.119237,0.836429,-0.142475,0.985998,-0.086654
0.320397,0.153270,0.518709,0.839925,-0.541150,-0.041009
0.486133,0.079383,0.544530,0.758143,0.643447,-0.105808
0.654846,0.317326,0.197134,-0.356914,0.555250,-0.751205
0.487282,-0.008141,-0.294215,0.054388,0.197850,0.978722
0.107861,0.531874,0.042070,-0.391248,-0.445954,0.805016
0.167564,0.015900,0.803671,0.705888,0.546179,-0.451011
0.293393,0.589949,0.709393,-0.029098,0.999349,0.021314
0.709899,0.509948,0.215679,0.012671,-0.219736,0.975477
-0.065135,-0.079853,0.866682,0.789976,0.540268,-0.289911
0.451503,0.095548,0.159466,-0.023500,0.342117,0.939363
0.038652,0.794212,0.592395,-0.328108,0.184473,0.926453
0.557848,0.381456,-0.302663,-0.257498,-0.188502,-0.947714
-0.143902,-0.114768,0.367542,-0.065285,-0.034488,-0.997270
0.166729,-0.321558,0.532147,-0.724381,-0.683703,0.088445
0.097102,-0.262014,0.575638,-0.600400,-0.457520,-0.655893
-0.128022,-0.222160,-0.574664,0.495792,0.832879,-0.245975
-0.331001,-0.432063,-0.976505,-0.070228,0.222713,0.972351
0.147820,0.057282,0.176640,-0.641650,0.463511,0.611100
0.190599,-0.205526,0.849966,0.739515,0.666554,0.093935
-0.169182,-0.745717,-0.959033,-0.098152,0.148028,0.984101
0.135231,0.349009,0.012910,0.094216,-0.585737,0.805006
-0.284618,0.492668,-0.087908,-0.047401,-0.451580,0.890971
0.082059,0.028950,-0.983820,0.283962,-0.118389,-0.951499
-0.136380,-0.360529,-0.856784,-0.231246,-0.972777,0.015186
0.195665,0.736077,0.104485,-0.445968,-0.586277,0.676308
0.070253,0.548157,0.246768,0.398833,0.311556,-0.862476
0.073440,0.291463,0.671765,0.499788,0.821086,0.275735
0.395874,0.309215,0.216474,-0.020272,-0.287100,0.957686
-0.057822,-0.167200,-0.301609,0.756842,0.595618,-0.269127
0.824237,0.122586,-0.315901,0.026699,0.155026,0.987550
-0.338730,-0.616399,-0.968236,0.172562,-0.031493,-0.984495
-0.013371,-0.000146,0.877993,0.144608,0.798292,0.584653
-0.131209,-0.703336,-0.960583,-0.169704,0.028164,0.985092
0.473022,-0.189713,0.474582,-0.272630,-0.184419,0.944279
0.570227,0.389214,0.204687,-0.378393,0.178542,0.908263
-0.196135,0.035180,0.870559,0.898319,0.119610,0.422749
