0.526266,0.145315,-0.978385,0.226473,-0.149410,-0.962490
0.005928,0.563475,0.835955,-0.557655,0.647643,0.519210
0.099187,0.662322,0.794679,-0.373592,0.822844,0.428201
0.212719,0.314420,-0.248631,-0.569170,-0.323837,-0.755761
-0.035030,0.478874,0.878341,0.859211,-0.151044,0.488818
-0.153078,-0.232096,0.340914,-0.504409,0.326635,0.799301
-0.153592,0.394466,0.724494,-0.019927,-0.575917,0.817265
0.546283,-0.040750,0.554247,-0.608060,0.071799,-0.790638
0.306028,0.251672,0.027574,0.605776,0.776841,-0.171914
0.325121,0.290241,-0.682448,-0.768983,-0.638467,0.032021
-0.080298,0.143231,0.923650,-0.127601,-0.407025,0.904460
-0.089178,-0.128840,0.818247,0.880697,-0.398836,0.255545
0.576359,0.211261,-0.985196,0.015740,0.406129,0.913680
0.035440,0.015457,0.832549,0.838815,0.407277,-0.361268
-0.636103,-0.800029,0.076018,0.443394,0.754414,0.484006
0.114277,0.401008,0.918183,-0.511309,0.219650,-0.830853
-0.089127,0.724198,0.499386,0.493445,0.607340,-0.622616
-0.316806,0.030187,0.124087,-0.360961,-0.453642,0.814810
0.315935,0.131020,0.602549,0.852691,0.363024,-0.375674
-0.017117,0.666973,0.511376,0.669267,0.648221,-0.363169
0.061822,0.129954,0.952165,0.261592,-0.876823,0.403425
0.378910,0.457408,0.504010,0.861902,0.477169,-0.171564
0.324505,0.022046,0.578192,0.881341,-0.355640,-0.311061
0.348885,0.433860,0.896658,-0.400722,0.780648,-0.479595
-0.695794,-0.791889,0.050515,0.887141,-0.460647,0.028018
0.313522,0.235391,-0.272934,0.510029,0.850241,0.130232
-0.457900,0.323432,0.339857,0.471922,0.439532,-0.764265
0.184233,0.386035,0.900709,0.678059,0.010494,0.734932
0.132035,-0.383613,0.735337,-0.489936,-0.201953,-0.848044
0.097801,-0.043561,0.834073,-0.727619,-0.414467,-0.546614
0.079426,0.204186,0.961431,-0.815711,0.463960,-0.345481
0.158057,0.350276,-0.985250,0.056992,0.123568,0.990698
-0.519388,0.431776,0.310912,0.924612,-0.276959,-0.261509
0.157133,0.198856,0.790879,0.298934,0.748414,0.592043
0.355762,0.336515,0.452913,-0.408331,0.841105,-0.354695
-0.403598,0.456439,0.084048,-0.372551,-0.211433,-0.903605
-0.019940,0.179911,0.174449,-0.364043,0.931306,-0.011903
-0.286832,0.002471,0.266822,-0.529904,-0.138576,0.836659
0.185567,-0.067788,0.827567,0.709718,-0.597874,-0.372621
0.212052,0.173757,0.845776,0.970547,-0.211485,0.115378
0.141735,0.152534,0.961753,0.583395,0.099928,-0.806018
0.647805,0.121911,-0.974443,0.189159,-0.440133,-0.877782
-0.237816,-0.077818,0.310159,0.124519,-0.494420,-0.860258
-0.459286,0.729480,0.224059,0.485983,-0.700897,-0.522077
0.111608,0.395775,0.232357,0.805471,0.320810,0.498294
-0.419099,0.218577,0.246319,0.587287,0.282902,-0.758327
0.288423,0.266353,-0.429649,0.808892,0.587740,0.015983
-0.049452,0.170656,0.937074,-0.417475,0.691257,-0.589812
0.059871,0.390929,0.828427,0.954775,-0.067831,0.289490
-0.188082,-0.052524,0.319192,0.745399,0.551186,-0.374933
-0.541715,0.476160,0.068903,-0.716746,0.190440,0.670826
0.298894,0.826727,-0.058795,0.263214,-0.363772,0.893526
0.423769,0.682915,0.578263,0.872015,-0.342158,0.350025
-0.535299,0.612075,0.186888,-0.386390,-0.733249,0.559507
-0.335335,0.606696,0.250871,-0.240963,0.550798,0.799098
-0.336105,0.332348,0.531951,-0.114863,0.302040,0.946350
0.107142,0.161159,-0.168284,0.922134,-0.164821,0.350004
-0.094875,-0.067885,0.567528,0.255311,0.111050,-0.960460
-0.078348,-0.133734,0.564911,-0.041454,-0.383912,0.922439
0.210768,-0.074474,0.554803,0.383832,0.531028,0.755435
0.104422,0.366799,0.027126,-0.375328,-0.895986,0.237355
0.593707,0.251381,-0.986074,0.105561,0.320221,0.941443
0.079324,0.191346,0.286000,0.105205,-0.968621,-0.225176
0.178895,0.031350,0.511950,-0.177681,0.891893,0.415879
0.252445,0.523839,0.526216,0.604969,0.703700,0.372584
0.362230,0.448299,0.880080,-0.066908,-0.683546,0.726834
-0.118844,0.397761,0.297614,-0.209543,-0.741866,0.636967
0.291144,-0.072488,0.614198,0.965312,0.153608,0.211132
-0.125003,0.134848,0.563800,-0.458568,0.199300,0.866023
0.556292,0.172012,-0.967990,0.566895,-0.166715,-0.806744
-0.497215,0.600736,0.229095,0.476109,-0.420855,-0.772141
0.450253,0.394757,0.418555,0.651566,-0.204923,0.730390
0.222265,-0.084941,0.873502,0.849922,-0.308004,-0.427511
-0.075217,0.215815,0.323422,-0.319764,0.779475,0.538674
0.264609,0.230255,0.392836,0.978787,-0.204829,0.004664
0.304694,0.232048,-0.462519,0.359610,0.928940,0.088045
-0.445377,0.464386,0.090643,0.254625,0.964944,0.063637
0.465291,0.176955,-0.978600,-0.308549,-0.155046,-0.938487
0.331537,0.243677,-0.173338,0.356081,0.926913,0.118484
-0.244181,0.969038,0.470979,0.018493,0.392839,0.919421
-0.715913,-0.764173,0.057988,0.933581,-0.357213,-0.028737
0.221752,0.043948,0.516663,-0.524698,0.780130,0.340720
0.351092,0.771780,0.636601,0.270466,-0.952713,-0.138516
-0.384402,0.379009,0.550806,-0.634891,0.591473,0.497065
0.117253,0.370288,0.759640,-0.574961,0.483462,-0.660063
-0.467293,0.568805,0.242950,-0.211565,0.705125,0.676786
0.028768,0.322754,0.749926,0.040744,0.968217,0.246769
-0.541150,0.319410,0.123281,0.559580,0.604238,-0.567245
0.223548,0.050635,0.494762,0.425118,-0.889802,-0.165915
-0.076039,0.384388,0.903397,0.943661,0.319274,-0.086999
0.532527,0.380124,0.248058,-0.592845,0.803632,0.052062
0.359253,0.145169,0.362708,0.839704,-0.285963,-0.461651
-0.343650,0.393158,0.553315,-0.156767,0.521424,-0.838774
0.056894,-0.058678,0.849952,0.652069,-0.395317,-0.646940
-0.052531,0.353716,0.901013,-0.747517,-0.602971,-0.278649
0.388355,0.060325,0.589680,0.305471,-0.116410,-0.945059
0.046014,0.519042,0.185974,0.773631,0.087570,0.627556
0.279853,0.146671,-0.963689,0.085733,0.297496,0.950866
0.331948,0.412685,0.886424,-0.427265,0.701012,-0.570988
0.078297,0.193526,0.967775,-0.823867,0.509619,0.248057
0.179871,-0.087218,0.842245,-0.630363,0.693385,0.349085
-0.038365,0.748764,0.547813,0.783193,0.606773,-0.135777
-0.136911,0.350276,0.892518,0.532225,0.814159,0.232125
0.068083,0.640953,0.817548,-0.020761,0.501795,0.864737
-0.052070,0.239946,0.524191,-0.045124,0.164684,0.985314
-0.509123,0.370433,0.497916,0.850966,-0.522797,-0.050399
-0.139579,-0.058145,0.331416,0.221901,-0.974338,0.037765
-0.033182,0.151855,0.924994,-0.672519,-0.557369,0.486887
-0.311212,0.368301,0.519316,0.756210,-0.102304,-0.646281
0.473658,0.194253,-0.973296,-0.604010,0.016235,-0.796811
-0.083737,0.112462,0.915441,0.462789,0.418049,0.781705
-0.022044,-0.056740,0.812637,-0.677811,0.253712,-0.690074
0.085123,0.442146,-0.164556,0.763972,-0.191070,0.616311
-0.941489,-0.701764,0.065265,0.192658,-0.839002,-0.508880
-0.226012,0.709419,0.754855,-0.249088,0.630929,0.734768
-0.183976,0.328326,0.843213,0.137015,0.596924,-0.790511
0.560962,0.019382,-0.956592,-0.498633,0.185679,-0.846692
0.139272,0.631311,-0.126238,0.522627,0.669642,-0.527674
-0.182077,0.321058,0.852694,0.261106,0.245427,-0.933589
0.147330,0.700455,0.741395,-0.455265,0.824094,0.337049
-0.151385,-0.031398,0.033022,0.309012,0.697439,0.646599
0.279031,0.168863,0.492414,0.988596,0.148857,0.022793
-0.761593,-0.947815,0.189540,0.357434,-0.092478,0.929349
0.006390,0.332154,0.895870,0.806671,0.002189,0.590996
-0.565478,0.659415,0.199667,-0.067536,-0.238399,0.968816
-0.500398,0.525245,0.111434,0.937458,0.340192,0.073772
0.286473,0.334383,0.129840,0.892915,0.430970,0.130261
0.205995,-0.067012,0.540787,0.030169,0.630177,0.775865
0.079940,0.436622,0.596455,0.760310,-0.401062,0.510957
0.269741,0.283991,-0.391349,-0.770508,-0.557180,-0.309625
-0.439988,0.636496,0.230870,-0.670739,0.285415,0.684579
0.331332,0.275317,0.652606,-0.005026,-0.976005,0.217691
0.382966,-0.000194,0.590702,-0.628798,0.473223,-0.616987
0.023790,0.145266,0.844396,0.791687,-0.187160,-0.581552
0.180846,0.115466,0.934027,0.066363,-0.989140,0.131142
0.266918,0.335837,-0.115269,0.987478,-0.157478,0.009360
0.075474,-0.011387,0.843446,0.904522,0.231842,0.357896
-0.057664,-0.028976,0.323978,0.787958,-0.613663,-0.050388
-0.180640,0.129228,0.009849,0.565336,0.788686,0.241600
0.207073,0.044723,0.512147,-0.423174,0.856169,0.296476
0.305361,0.436186,0.761271,0.560737,-0.171256,-0.810090
-0.195987,-0.198372,0.317920,0.561006,-0.275605,-0.780586
-0.028973,0.142262,0.927915,0.917915,0.320976,0.233250
0.202145,0.158785,0.954960,0.918528,-0.140003,0.369738
0.218416,0.257971,0.872319,0.958092,0.138869,0.250551
0.240024,-0.078254,0.892608,0.962443,-0.183557,-0.200027
0.079170,-0.277498,0.705370,0.893524,-0.346103,-0.286055
-0.671363,-0.866605,0.185293,-0.214474,-0.113354,0.970130
0.070137,0.332784,0.253757,-0.681194,-0.148648,-0.716853
-0.016450,0.172207,0.883951,-0.664731,-0.616031,-0.422656
0.227757,0.171964,-0.972686,-0.024670,0.213310,0.976673
0.022455,0.337436,0.719547,0.223627,0.094962,0.970038
0.440398,0.222745,0.260801,-0.670789,-0.574792,0.468675
0.138656,0.318490,0.718759,0.412746,-0.826803,0.382148
-0.572151,0.316261,0.479151,-0.552217,0.270296,0.788668
-0.940154,-0.872517,0.222070,-0.242272,-0.933859,-0.263081
-0.153643,-0.068078,0.039815,-0.709446,0.657247,0.254386
0.085585,0.269018,0.837550,0.994287,0.083120,-0.066959
0.176534,0.085716,0.828194,0.082822,-0.599554,0.796037
-0.072548,0.355219,0.376921,0.830405,-0.510777,-0.222564
0.508610,0.369512,0.248990,-0.675000,0.733284,0.081669
0.155439,0.656943,0.021857,0.866293,-0.330590,-0.374496
0.075064,-0.002132,0.823534,-0.664546,0.405436,0.627695
-0.496753,-0.568563,0.064996,0.012534,0.324650,0.945751
-0.411707,0.419081,0.533995,-0.100091,-0.874269,0.475011
-0.350733,0.555819,0.289727,0.312720,-0.717409,-0.622520
-0.075064,-0.114934,0.565467,-0.127409,-0.471067,0.872848
-0.255165,0.242223,0.526826,0.029172,-0.332394,0.942689
0.418021,0.068078,0.597351,0.289214,-0.444907,-0.847593
0.339031,0.235585,-0.756934,-0.551000,0.833620,-0.038428
0.262505,0.573844,-0.130844,-0.189529,-0.577794,0.793872
0.242949,0.465791,0.436424,0.999033,0.034371,0.027431
-0.181974,-0.190765,0.062147,-0.278395,-0.009936,0.960415
-0.192034,0.327842,0.849110,0.261106,0.245427,-0.933589
0.180691,0.233889,0.243487,-0.027572,0.962657,0.269316
0.188544,0.015457,0.509208,-0.177681,0.891893,0.415879
0.262043,0.354346,-0.103655,0.943461,-0.284520,0.170089
0.244335,0.255839,0.228396,-0.123471,-0.970465,-0.207249
0.224934,0.205931,0.743832,0.971088,-0.234046,-0.047012
-0.017579,-0.016281,0.308385,0.577748,-0.590875,-0.563093
-0.594785,0.436815,0.144519,0.707924,-0.347429,-0.614929
0.111864,0.112462,0.837245,0.575671,0.483143,0.659678
0.174995,0.456003,-0.187694,0.842762,0.519054,0.142600
-0.014191,0.053930,0.953921,-0.507407,0.033766,0.861045
-0.331639,-0.456779,0.056178,-0.615267,0.341375,0.710570
-0.309365,0.495203,0.213933,-0.628923,-0.414825,0.657553
-0.316191,0.651807,0.524478,-0.853424,-0.068607,-0.516682
0.326867,0.453145,0.762633,0.006354,-0.000729,0.999980
0.301819,0.242902,-0.115502,0.622614,0.782083,-0.026425
-0.206714,0.129034,0.149035,-0.785689,0.320631,0.529045
0.306285,0.073263,0.945802,-0.262117,0.791762,0.551731
-0.363769,-0.005524,0.261213,0.638471,0.046546,-0.768237
0.177304,0.297558,-0.967990,-0.404945,0.671450,0.620624
0.052583,0.263204,0.944458,0.093799,-0.191423,0.977015
0.466420,0.179814,-0.270622,0.889673,0.315716,-0.329856
0.242693,0.433763,0.414433,0.977943,-0.208693,0.008639
-0.054893,0.231950,0.243433,0.476960,-0.587320,-0.653884
0.028357,-0.061634,0.818641,0.295831,0.486999,0.821776
-0.225447,0.523646,0.276142,-0.483414,-0.742096,-0.464332
0.302692,0.242902,0.044654,0.189777,0.981783,-0.009287
-0.430801,-0.074959,0.050067,0.088076,0.813426,0.574961
-0.148356,-0.069871,0.311790,-0.012014,-0.806050,0.591725
-0.253984,0.244840,0.315178,0.489762,-0.830280,-0.266025
0.559833,0.228898,-0.975231,0.963763,0.233705,0.128616
-0.090153,-0.010418,0.818265,-0.125930,0.991759,-0.023582
-0.791208,-0.813984,0.180364,-0.282850,0.726117,0.626698
0.335130,0.395435,-0.207607,0.963501,-0.202029,0.175640
0.191059,0.142359,0.947361,0.879481,-0.330029,0.342919
-0.105859,0.707336,0.652821,0.531950,0.846468,-0.022822
0.495574,0.237038,0.291520,0.873510,-0.359716,-0.328001
0.065414,0.114352,0.934995,0.769523,-0.638575,-0.007504
0.025483,0.321785,0.883485,-0.791108,-0.312895,-0.525589
0.182539,0.241738,0.270568,0.398430,-0.916791,-0.027359
0.108990,0.841264,0.032592,0.779629,0.618325,0.099262
-0.413606,0.431970,0.547096,0.077997,0.980734,-0.179103
0.520569,0.281132,-0.986164,-0.415946,0.044520,-0.908299
0.240177,0.258940,0.840578,0.949533,-0.295104,0.106300
0.548233,-0.039781,0.553692,-0.585178,0.023110,-0.810575
0.343907,0.204041,-0.040873,0.716706,0.645062,-0.265003
0.493418,0.298382,0.398805,-0.528128,0.311185,-0.790092
0.195114,0.463271,-0.208234,0.239619,0.899927,-0.364301
0.069572,0.565704,0.020010,0.531522,0.738932,0.414083
-0.496753,0.177294,0.502971,-0.792435,0.026647,-0.609375
0.474273,0.071615,-0.957416,-0.579116,-0.537559,-0.612907
-0.382708,0.211018,0.509925,0.233772,-0.092312,-0.967899
-0.706008,-0.932988,0.162638,-0.721191,0.669087,0.179462
0.214566,0.117211,0.939314,-0.197158,0.720281,-0.665074
-0.049554,0.099864,0.926051,0.930405,-0.137768,-0.339657
-0.033131,0.270326,-0.074227,-0.668707,0.478642,-0.568975
0.544589,0.415447,0.232071,-0.706534,0.695763,0.129323
-0.491159,0.376199,0.342384,-0.402631,0.306185,0.862635
0.231452,0.200456,0.641440,0.934559,-0.354934,0.024920
0.164832,-0.009788,0.939637,0.770119,-0.442806,-0.459174
0.617472,-0.022822,-0.968492,0.160600,0.011647,0.986951
-0.566403,0.386956,0.155774,-0.474391,-0.318743,0.820582
-0.106167,0.543948,0.055569,-0.147194,-0.558168,0.816567
0.435984,0.556013,0.457967,0.526393,-0.200933,0.826158
-0.369313,0.376490,0.549999,-0.358424,0.634459,0.684832
0.423717,0.425089,0.494798,0.984962,0.008761,-0.172547
-0.094413,0.436573,0.048866,-0.268915,-0.254053,0.929054
0.472682,-0.025778,0.579213,-0.321697,0.704897,-0.632163
-0.180384,0.121136,0.009777,0.565336,0.788686,0.241600
0.344677,0.245518,-0.298044,-0.347441,-0.934038,0.082806
-0.054379,0.379688,-0.002465,0.045672,-0.739011,0.672143
0.161034,0.332348,-0.981271,0.049555,0.325851,0.944121
0.072446,-0.154133,0.853626,-0.565707,0.126988,-0.814769
-0.270767,0.112608,0.296699,0.770251,-0.366530,-0.521890
0.071625,0.248474,0.829431,0.831832,-0.403206,0.381419
0.202607,0.304535,-0.246158,0.692610,0.384644,0.610197
0.139323,0.222018,0.932396,0.075654,0.487458,0.869863
0.066031,0.349162,0.946985,0.080984,-0.922180,-0.378187
-0.077681,0.451885,0.648968,0.702020,0.338398,0.626622
0.189109,0.567400,0.060247,-0.844914,0.327046,0.423275
0.279134,0.615127,-0.125037,-0.100508,-0.732565,0.673236
0.324043,0.225845,-0.518958,0.522550,-0.841009,0.140162
0.084764,0.167603,0.937163,0.744462,-0.653716,0.135762
-0.546745,0.195755,0.515588,0.945112,-0.031701,0.325204
-0.433058,0.819556,0.662715,-0.308049,0.539004,0.783951
0.188698,0.409487,-0.180006,0.815303,0.556865,0.158690
-0.534067,0.239897,0.492289,0.778558,0.233760,-0.582412
-0.032463,-0.036147,0.581938,-0.242855,-0.001617,-0.970061
0.008597,0.380851,0.905906,0.210996,0.079893,-0.974216
0.175353,0.265433,-0.975751,-0.110805,0.246555,0.962773
0.276362,0.343832,0.844324,0.946135,-0.028470,-0.322518
-0.470783,0.296153,0.313654,0.250201,0.883497,0.396022
0.349655,0.264269,-0.485030,-0.052529,0.954463,0.293667
0.259168,0.323432,-0.974012,-0.472482,0.793099,-0.384390
-0.069315,0.403915,0.907878,-0.138481,-0.975343,-0.171838
0.344625,0.381287,-0.981450,-0.024510,0.122380,0.992181
0.169041,0.214119,0.262252,0.489909,-0.871751,-0.006320
0.012806,-0.009982,0.778315,0.741367,-0.537346,-0.402037
-0.286370,0.541234,0.284046,0.517927,0.785310,0.339175
0.323838,0.213732,0.034581,-0.682464,-0.729798,-0.040477
0.224934,-0.082033,0.881012,0.661003,-0.389389,-0.641445
0.422948,0.779242,0.492002,-0.589823,0.578392,-0.563536
-0.467036,-0.102530,0.032825,-0.396557,0.881527,-0.256227
0.305053,0.289514,-0.182049,0.541946,0.840210,0.018497
0.018811,0.152098,-0.064728,-0.642356,-0.490752,-0.588678
0.065056,0.066140,0.559929,0.316502,-0.274702,0.907946
0.133215,-0.509158,0.747488,0.767658,0.161901,-0.620072
-0.413709,0.798139,0.658019,0.349657,-0.259276,-0.900287
0.676753,0.136447,0.579070,-0.307853,0.948607,0.073285
0.196294,0.313112,-0.979282,-0.076609,0.626479,0.775665
0.337080,0.426204,0.885044,0.403443,-0.723675,0.559936
0.466882,0.209758,-0.252198,0.814695,0.504095,-0.286637
0.450664,0.792083,0.652140,0.975926,-0.180417,0.122547
-0.141530,-0.162807,0.569410,-0.033275,-0.215671,0.975899
0.135063,0.450576,-0.167281,0.753145,0.009873,0.657781
-0.047502,0.108392,0.884937,0.789066,-0.526594,0.316344
0.167860,-0.411765,0.714134,0.979081,0.107868,0.172527
0.280058,0.221920,0.090159,-0.389142,0.917058,0.087024
0.289193,0.243192,0.002518,0.762289,0.645873,-0.041994
0.212770,0.386278,-0.073223,0.936506,0.264109,0.230657
-0.137989,-0.291792,0.345270,-0.536703,0.317023,0.781950
0.440090,0.465355,0.431083,0.731085,-0.195884,0.653563
-0.074859,0.153891,0.840614,-0.335028,0.671208,-0.661238
-0.041137,0.412297,0.904401,0.429642,0.120482,-0.894926
0.090359,0.550393,0.808264,0.903153,0.059489,0.425176
0.086868,0.418839,0.417498,-0.349969,0.157763,0.923381
0.246337,0.301240,-0.090464,0.585721,0.788120,-0.189204
0.344933,0.278709,-0.786309,0.126908,-0.991426,-0.031112
0.558088,0.317133,-0.987544,0.163943,0.022787,0.986207
0.193625,0.183351,-0.973833,0.225378,0.323190,0.919104
0.102625,0.276238,-0.974299,-0.371152,0.264557,0.890087
-0.707342,-0.890299,0.188501,-0.519271,0.753593,-0.403058
-0.112788,0.149385,0.556362,0.716492,-0.044504,-0.696175
-0.041548,-0.013713,0.817405,-0.651202,-0.067005,-0.755941
-0.586932,0.425429,0.457214,-0.468091,0.398402,0.788775
0.124079,0.289078,0.910925,-0.110269,-0.511959,0.851903
0.195730,0.155054,-0.965195,0.221160,0.340972,0.913688
0.152924,0.340440,0.749102,0.202570,-0.797177,0.568748
0.661663,0.455034,0.389610,0.827619,0.306302,-0.470347
0.129725,0.198905,0.292326,0.683906,-0.705308,0.186585
-0.333384,0.054269,0.266231,0.787798,-0.144840,-0.598662
0.116534,0.211939,0.962560,-0.034701,-0.763996,0.644287
0.668181,0.126950,-0.971844,-0.033027,0.426575,0.903849
-0.308184,0.539102,0.299316,0.490732,0.409751,0.768952
0.488182,0.193478,-0.246749,-0.604040,-0.796575,0.024551
0.293762,0.227299,0.116380,0.996956,-0.063958,-0.044597
-0.565170,0.553396,0.136059,-0.191600,-0.686282,0.701645
0.126235,0.210340,-0.170668,-0.884227,-0.055937,-0.463695
-0.262914,-0.032562,0.283455,0.060007,0.801910,0.594424
0.235456,0.199583,0.692018,0.989740,-0.138330,-0.035760
-0.424385,0.325904,0.076825,-0.132999,-0.319640,0.938159
0.242384,0.228850,0.939171,0.773259,-0.392914,-0.497683
-0.037339,0.282925,0.881317,0.251794,-0.960086,-0.121795
-0.184489,-0.093759,0.037503,0.525306,-0.747565,-0.406448
0.346421,-0.086539,0.599555,0.896498,0.406747,0.175636
0.208458,0.375666,0.953437,0.352592,-0.493859,-0.794847
-0.198450,0.619973,0.238863,0.215119,-0.059924,0.974748
-0.445685,-0.010321,0.236462,-0.725038,0.216275,0.653869
-0.148203,0.254143,0.522811,-0.308572,0.152125,0.938957
0.376293,0.425041,0.905512,0.752608,0.459666,0.471475
0.216825,0.231175,0.878162,0.894394,0.096104,0.436834
0.329844,0.071712,-0.967381,-0.167191,0.969051,-0.181625
0.149537,-0.437058,0.574482,0.204451,-0.188275,0.960600
0.544640,0.184417,-0.204846,0.768808,0.636547,-0.061166
-0.421459,0.337097,0.504709,0.775362,-0.209863,-0.595627
0.106013,-0.188342,0.577869,0.649701,-0.475564,-0.593066
-0.307158,0.000484,0.282308,-0.245195,0.553520,0.795924
0.236020,0.245179,0.583802,0.389789,-0.906636,-0.161483
0.173814,0.093953,0.673988,0.949550,-0.313259,0.014945
0.249109,0.286849,-0.118710,0.988722,0.105417,0.106376
-0.483306,-0.136205,0.103261,-0.227632,0.943289,0.241638
-0.083942,0.799787,0.001425,-0.203126,-0.101145,0.973915
0.081992,-0.055723,0.810666,-0.838642,0.518034,0.168285
-0.286781,0.162080,0.248308,0.843069,0.069279,-0.533325
-0.760464,-0.816891,0.173482,-0.088755,0.975826,0.199717
0.197424,0.396211,0.948992,0.212647,0.714865,0.666145
-0.411451,0.516232,0.286251,-0.604820,-0.173534,0.777225
-0.095029,0.618083,0.234723,0.322638,0.512932,-0.795491
-0.679831,-0.804826,0.129697,-0.162765,0.941770,0.294239
0.014551,0.510902,0.638752,-0.266286,0.613423,-0.743508
0.059050,0.035614,0.561470,0.429406,-0.291881,0.854644
-0.438653,-0.633249,0.076771,-0.519860,0.201584,0.830126
0.496446,0.006541,-0.962632,-0.270107,0.516096,0.812827
0.158108,-0.526165,0.730354,0.981756,-0.122507,0.145421
-0.026817,0.270617,0.886926,0.719720,-0.370392,-0.587208
-0.023738,0.155684,0.903325,0.454779,-0.099726,-0.885003
0.100264,0.193284,0.837908,0.930307,-0.009512,0.366658
0.053866,0.859386,-0.016265,0.769295,0.537851,0.344821
0.201683,0.252932,0.246677,-0.012620,-0.997393,-0.071054
0.075885,0.352554,0.969048,-0.291271,-0.928707,0.229487
0.231812,0.223762,0.908487,0.932134,0.024667,0.361272
0.106577,0.297122,0.239383,-0.490171,-0.279294,-0.825668
-0.028819,0.216106,0.924367,0.990755,0.103460,0.087754
0.296738,0.490067,0.755482,-0.350357,0.196315,0.915811
0.273334,0.386908,0.357350,0.978822,0.203468,0.022562
0.101394,-0.251866,0.729835,-0.208106,0.426855,0.880049
0.190341,-0.071567,0.872570,0.985362,-0.070435,-0.155244
0.109092,0.272798,0.520714,-0.153647,-0.328026,-0.932090
0.344522,0.049472,0.430115,0.845687,-0.518826,-0.125033
-0.126030,0.601802,0.673253,0.907774,0.395600,0.139453
-0.211538,0.366993,0.556828,-0.631844,-0.537335,0.558609
0.212821,0.256081,-0.971181,0.596165,0.140758,0.790427
-0.029024,0.451109,0.587601,0.296553,0.399400,-0.867488
0.030616,0.434441,0.240207,0.207232,0.936731,-0.282118
0.319989,-0.009885,0.452017,-0.205434,0.964868,0.163790
0.532322,0.399796,0.263865,-0.668853,0.741153,-0.057697
0.206713,-0.104565,0.880582,0.922172,-0.118498,-0.368181
-0.233402,0.180008,0.332742,-0.483213,-0.738882,0.469637
0.142813,-0.389185,0.571489,0.160207,-0.269112,0.949691
0.126697,0.204574,-0.160112,0.957565,-0.221934,0.183889
0.104268,-0.081452,0.846869,0.430087,0.529682,0.731069
0.277389,0.272216,-0.476696,-0.326657,-0.911508,-0.249896
0.113147,0.515554,0.793460,-0.579561,-0.721000,0.379827
-0.437114,0.554559,0.229597,0.313543,-0.388435,-0.866492
-0.304027,0.271925,0.362529,-0.153441,0.321298,0.934464
-0.069777,0.457118,0.432822,0.781654,0.423274,0.458101
0.112737,0.198178,0.282827,-0.613841,0.714711,-0.335242
0.298535,0.062700,0.484618,0.235728,0.291352,0.927117
-0.299304,0.720515,0.512398,-0.558634,-0.257920,-0.788293
0.356892,0.557758,-0.159126,-0.258746,-0.169332,0.950987
0.199271,0.301870,0.705711,0.565073,-0.332204,0.755204
0.202813,0.284426,0.703990,0.570580,0.017286,0.821060
-0.283137,-0.424460,0.072578,0.839662,-0.251505,-0.481366
-0.382400,0.666392,0.242735,-0.098981,0.560477,0.822234
-0.330459,0.314614,0.357403,-0.071510,-0.545250,-0.835218
0.296790,0.120700,-0.975016,0.123175,-0.000898,0.992385
0.095235,-0.062991,0.547508,0.024670,0.299753,0.953698
0.190546,0.572100,0.471678,0.045113,-0.769577,0.636958
0.500911,0.520932,0.277773,0.904814,0.178088,-0.386776
0.098622,-0.243677,0.710675,-0.422005,0.805791,-0.415466
0.281290,0.225361,0.095787,-0.509471,0.857175,0.075430
0.263377,0.233404,0.398052,0.976106,-0.213241,-0.041785
0.235713,0.316213,0.824341,0.929971,-0.077737,-0.359319
0.007827,-0.038424,0.793209,-0.361262,0.463645,-0.809026
0.447943,0.244307,-0.943759,-0.457463,-0.748410,-0.480219
0.215234,0.125545,-0.968169,0.224416,0.263113,0.938301
-0.241666,0.333172,0.516484,0.628494,0.619649,-0.470139
0.487515,0.162177,-0.962649,-0.029227,-0.523296,0.851649
0.301512,0.268679,-0.170076,-0.502210,-0.861788,0.071463
-0.115200,-0.044917,0.318332,-0.204557,0.843481,-0.496685
0.322504,0.556304,0.473542,0.112132,0.644024,0.756743
-0.456771,0.623703,0.225798,-0.603469,0.468428,0.645291
0.007417,0.625739,0.810451,0.411466,-0.499959,-0.762061
0.050890,-0.283700,0.585773,-0.523761,0.612862,-0.591671
0.203582,0.004458,0.827136,0.571096,-0.236303,-0.786136
0.230529,-0.033821,0.538475,0.648478,-0.593706,-0.476435
0.299356,0.295087,0.697341,-0.500480,-0.133715,-0.855360
0.163036,0.159560,0.280730,0.357982,0.287662,0.888313
0.330408,0.017637,0.589949,0.916384,-0.386976,-0.102422
-0.068443,-0.100737,0.571148,-0.098377,-0.285235,0.953396
0.170324,0.697548,-0.066215,0.770957,-0.193740,0.606705
-0.305156,0.408324,0.542275,-0.071217,0.984791,-0.158479
0.309108,0.371208,0.923417,0.728231,0.298030,0.617137
-0.215541,0.439577,0.054744,0.170525,-0.654155,0.736887
-0.474838,0.046564,0.103422,-0.321676,-0.472227,0.820686
0.255986,0.304293,-0.099085,0.971730,-0.122165,0.202033
0.037134,0.084747,0.857229,0.624880,0.731147,0.273768
0.252496,0.443744,-0.988619,0.391480,0.196505,0.898960
0.593040,0.081645,-0.971557,0.244913,-0.289977,-0.925165
0.364129,0.184514,-0.954620,-0.637189,0.681987,-0.359004
0.246850,0.296783,-0.036159,-0.461312,-0.887218,0.005895
0.550132,0.166586,0.418197,-0.578521,-0.802502,0.145960
0.177920,0.303324,0.918434,-0.719200,-0.322390,-0.615481
0.284472,0.236215,-0.359411,0.179220,0.983766,-0.009140
-0.525034,-0.115273,0.039242,0.065820,-0.961768,0.265839
0.024149,0.381335,0.934618,-0.305565,0.536179,0.786856
-0.474632,0.214846,0.503329,-0.109477,0.232091,0.966514
0.499526,0.001938,-0.961144,-0.209596,0.647572,0.732612
0.437370,0.107617,-0.966073,0.209576,0.943481,0.256752
0.222624,0.348241,0.453110,0.975179,0.207552,0.077125
-0.487053,0.343105,0.156150,-0.136941,-0.598402,0.789407
0.268304,0.208402,0.776398,-0.366032,0.930477,-0.015244
0.229861,0.261992,0.544587,-0.182763,0.979261,-0.087435
-0.237457,0.712860,0.718382,-0.519323,-0.121799,0.845854
0.321169,0.055771,0.054494,-0.194074,0.900414,0.389345
-0.165807,0.124431,0.919545,0.516674,0.422609,0.744614
0.232838,0.200698,0.772652,0.360915,-0.930298,-0.065465
-0.074859,-0.191007,0.559947,0.120985,-0.166361,0.978615
-0.492750,0.336418,0.475746,0.966958,0.091628,0.237901
-0.074242,-0.021320,0.313780,0.566192,-0.679502,-0.466586
0.445326,0.070598,0.600452,-0.346702,0.352712,0.869133
0.670131,0.118907,0.571202,-0.045348,0.979960,0.193964
-0.399852,0.688439,0.235458,-0.001076,0.318959,0.947768
0.059563,-0.273428,0.601312,-0.684177,0.233928,0.690782
0.223651,0.178990,0.937629,0.865412,0.059089,-0.497564
0.035697,0.482460,0.664847,-0.097590,0.210473,0.972716
0.541612,-0.021853,0.549659,0.586866,0.238725,0.773692
-0.706623,-0.084843,0.162370,0.330248,-0.867050,-0.373042
0.325378,0.242611,0.157835,0.016207,-0.999153,-0.037834
0.233506,0.122396,0.971503,0.379570,0.456097,-0.804924
-0.062797,-0.074329,0.812637,-0.700879,0.448593,0.554556
0.418072,0.283506,-0.952434,-0.014542,0.874957,0.483983
0.248852,0.387828,-0.983242,0.296525,0.503902,0.811268
0.251880,0.243919,0.473631,0.488590,0.846512,-0.211416
0.231401,-0.044917,0.871226,0.163362,0.892568,0.420280
0.463598,0.237329,-0.980017,0.463498,0.316876,0.827502
-0.174584,-0.283845,0.535841,-0.147105,-0.757097,0.636525
0.355249,0.412685,-0.984963,0.024148,0.385420,0.922425
-0.716683,-0.843638,0.180758,-0.004640,0.186572,0.982430
0.062335,0.405562,0.410096,-0.231567,0.336852,0.912638
-0.348167,0.306715,0.349804,0.050094,0.964691,0.258578
-0.049504,0.401928,0.438413,0.810649,0.585187,-0.020135
0.380655,0.176131,-0.956108,0.571465,-0.415298,0.707782
-0.316242,0.599670,0.256929,-0.628368,0.449969,0.634572
0.502092,0.053833,-0.958850,-0.596036,-0.375758,-0.709610
0.226217,0.600833,0.492271,-0.254640,-0.737462,0.625546
-0.915724,-0.790726,0.078635,-0.666503,0.517033,0.537076
-0.040419,-0.099186,0.797062,-0.817401,0.571943,0.068819
0.254036,0.235779,0.449310,0.289368,0.950706,0.111461
0.044576,0.286801,0.299424,0.496861,0.806622,0.320142
0.078246,0.546710,0.849020,0.568098,-0.464674,-0.679222
0.442349,-0.042494,0.581758,-0.435280,-0.077101,-0.896988
0.095286,0.215525,0.579661,0.039385,-0.366990,0.929391
0.230990,0.400281,-0.988834,-0.437360,-0.153173,-0.886146
0.155542,0.243144,0.509297,-0.163091,-0.980752,-0.107366
-0.077476,0.482508,0.425240,0.587177,0.709450,0.389748
0.503785,0.270666,-0.976253,0.683052,-0.170922,0.710088
0.447943,0.488225,-0.982795,-0.505304,-0.221491,0.834032
0.165037,0.332202,0.060551,0.884080,-0.321453,0.339221
-0.028460,0.428239,0.914599,-0.324531,0.244093,0.913837
0.231144,0.049326,0.498149,0.486036,-0.872994,-0.040623
0.113968,0.187954,-0.112706,-0.829151,0.353474,-0.433087
0.174686,0.223762,0.908899,0.998933,-0.046166,-0.001445
-0.357662,0.677294,0.672034,0.795461,-0.257631,0.548515
-0.510560,-0.678893,0.059566,0.365533,-0.358446,0.859012
0.142197,0.498934,-0.166133,0.736215,-0.358549,0.573960
-0.106731,0.472042,0.048884,0.107305,0.154694,0.982118
-0.458516,0.727638,0.687305,-0.357229,-0.710408,-0.606390
0.473606,-0.026940,0.569374,0.751963,-0.168359,0.637344
0.510971,0.132910,-0.958993,0.432813,0.353972,0.829082
0.186029,0.280599,0.324372,-0.117707,0.084886,-0.989414
-0.056637,0.210970,0.018397,-0.618584,0.620576,-0.481912
-0.073318,0.380366,0.390417,0.835112,-0.362194,-0.414009
0.251469,0.676228,0.651011,-0.298129,0.664250,0.685486
-0.492750,0.336709,0.352887,-0.197017,0.501737,0.842285
0.076808,0.739607,-0.129428,0.800437,0.492281,-0.341994
-0.025483,0.584117,0.796471,-0.696640,-0.709235,-0.108066
0.345909,0.180444,-0.948580,-0.206506,-0.783470,0.586114
0.027280,0.269503,0.911946,0.355243,0.934712,-0.010759
0.518875,0.329441,-0.986863,0.229847,-0.012720,0.973144
0.417148,0.188003,-0.308045,-0.791279,0.461495,0.401123
0.273437,0.265384,-0.170650,-0.616998,-0.786642,0.022539
-0.030718,0.375957,0.850436,0.380212,0.460615,-0.802042
-0.149691,0.481781,0.868269,0.275717,0.498469,-0.821893
-0.067878,-0.008673,0.812010,-0.064779,-0.997325,-0.033874
0.211590,0.395242,-0.066233,0.928270,0.294736,0.226816
-0.079015,-0.027037,0.311754,-0.709590,0.616168,0.341787
-0.005620,0.521174,0.867588,0.705669,-0.386218,0.594026
-0.080247,0.017249,0.017035,-0.081461,0.683544,0.725350
0.307620,0.133976,-0.976002,-0.080048,-0.055934,0.995220
0.616598,0.138870,0.482646,0.962475,-0.096265,-0.253721
-0.341956,0.199728,0.045389,0.150646,-0.596228,0.788554
0.314035,0.251575,-0.117169,0.605022,0.796202,0.003284
-0.281751,-0.297509,0.060516,-0.251150,0.049180,0.966698
-0.133934,0.530768,0.052289,-0.471474,-0.686998,0.552944
-0.967922,-0.924363,0.089227,-0.756343,0.460855,-0.464282
0.025842,0.149481,0.889417,-0.789916,-0.311348,-0.528295
0.057818,-0.108005,0.840471,0.809417,-0.166719,-0.563071
0.052840,0.336515,0.850221,-0.447205,-0.875767,-0.181769
0.060538,0.100736,0.941608,-0.627413,0.730502,-0.269666
0.301357,0.463078,-0.993763,-0.024316,0.391867,0.919700
-0.109605,0.110718,0.565090,-0.482118,0.030839,0.875564
-0.564555,-0.670801,0.063204,-0.212424,0.353897,-0.910842
-0.061513,0.387150,0.273992,0.590061,0.757920,0.278182
0.093181,-0.230497,0.588856,0.176832,0.692882,0.699031
-0.406318,0.203072,0.366508,-0.568169,-0.036747,0.822091
0.032515,0.231175,0.734244,-0.263525,0.557057,0.787554
-0.429414,0.069532,0.108817,0.284920,0.764377,-0.578402
-0.715965,-0.872372,0.168499,0.954341,-0.032880,-0.296904
0.377473,0.353474,-0.980267,0.083912,0.412265,0.907191
0.517386,0.002907,0.591526,0.114961,-0.648757,0.752262
0.045654,0.315777,0.942952,0.792180,0.289699,0.537146
-0.271948,0.412492,0.553566,-0.051454,0.981385,0.185031
0.402213,0.629324,0.565001,0.796098,0.340261,-0.500451
-0.001206,0.315437,0.894149,0.743935,-0.169166,0.646486
0.381631,-0.136884,0.578944,0.454679,0.629742,0.629835
-0.419662,0.647882,0.670278,-0.509328,-0.691642,-0.512070
-0.067569,-0.132377,0.785216,-0.829435,0.537791,-0.151057
0.221957,0.241787,-0.216747,-0.319739,-0.864726,-0.387319
0.040008,0.386617,0.684275,0.475866,0.828081,0.296366
0.248390,0.139258,0.508473,0.889330,-0.316532,-0.329999
-0.176431,-0.107326,0.057164,0.167000,0.626760,0.761106
0.528268,0.236069,0.342796,0.971938,-0.084559,-0.219512
-0.278056,-0.029993,0.306611,0.617006,0.647823,-0.446798
-0.471964,0.349259,0.256840,0.385167,0.900897,0.200079
-0.588113,0.349840,0.479026,-0.209901,0.688567,0.694130
0.532836,0.098071,-0.963313,0.229130,0.148427,0.962013
-0.031334,-0.036486,0.359160,-0.592828,0.786803,0.171744
0.108528,0.392722,0.755912,-0.674815,0.623511,-0.394789
-0.605974,0.341215,0.471122,-0.247052,0.545645,0.800773
-0.223754,0.095746,0.135826,-0.776035,0.500253,0.384079
0.429056,0.789514,0.488615,-0.526415,0.501397,-0.686649
0.593092,0.095261,-0.958617,0.882048,0.449399,0.141536
-0.199425,0.291888,0.843410,-0.059780,0.296353,0.953206
0.194190,0.065849,0.864738,-0.661587,0.741232,-0.113480
0.145996,0.463998,-0.177586,0.865531,0.286018,0.411157
-0.283855,0.050053,0.125879,-0.794759,0.187050,0.577382
-0.041753,0.124818,0.573066,-0.165747,0.151178,0.974512
-0.196653,0.216978,0.332240,-0.378184,0.049998,-0.924379
-0.616239,0.651710,0.109498,0.618651,0.730380,-0.289511
0.214823,-0.061925,0.859093,0.838434,-0.515267,-0.177562
-0.326148,0.653648,0.521252,-0.562638,-0.277610,-0.778698
-0.301460,0.548067,0.268149,-0.558531,-0.658887,-0.503897
-0.444299,0.373534,0.349965,-0.343086,0.198389,0.918114
0.165807,0.389330,0.092776,0.884223,0.462770,-0.063204
0.041548,0.507946,0.853680,-0.613081,-0.031302,-0.789399
0.145534,0.262041,0.329462,0.025277,-0.588975,0.807756
-0.215592,0.381384,0.570790,0.210549,0.452012,-0.866807
0.062592,0.166053,-0.094730,-0.768350,-0.390497,-0.507100
-0.078400,-0.146138,0.821419,0.897684,-0.356443,0.259060
0.133318,0.415641,0.766737,-0.731420,0.619918,-0.284124
0.421408,-0.169348,0.600344,-0.319684,-0.380212,-0.867895
-0.126800,-0.056789,0.346399,-0.351666,0.725929,0.591065
-0.554700,0.717657,0.206943,-0.217128,-0.172088,0.960854
-0.054482,0.252156,0.924635,-0.166092,0.253053,0.953089
-0.059512,0.612898,0.257341,0.965360,0.169263,-0.198571
-0.515539,0.304971,0.302166,0.180776,-0.925670,-0.332347
0.585137,0.159317,0.508544,-0.491931,-0.795335,-0.354183
0.417867,-0.178167,0.603068,0.015133,0.438658,0.898527
0.262093,0.413897,0.865545,-0.031798,0.172573,0.984483
0.074037,0.111396,0.565789,0.265886,-0.248765,0.931354
-0.286832,0.319120,0.533708,-0.696014,0.209341,0.686834
0.244438,0.260539,0.485819,0.404532,0.899797,0.163457
-0.355352,0.165568,0.230063,0.481596,0.775239,-0.408742
0.408166,0.270569,-0.964119,0.204543,0.894508,0.397515
-0.276413,0.085909,0.258399,0.689884,-0.537117,-0.485351
0.003670,-0.040702,0.794320,-0.407319,0.335244,-0.849531
-0.013524,0.413073,0.585253,0.188749,0.134992,-0.972703
-0.137783,0.526359,0.055587,-0.471474,-0.686998,0.552944
-0.267996,0.734422,0.708794,0.977808,0.005050,0.209441
0.477866,0.084504,-0.971916,-0.193469,0.064828,0.978962
0.481972,0.123558,-0.975607,-0.297291,0.755200,0.584201
0.214309,0.044481,0.953061,0.948546,-0.235383,-0.211788
0.273232,0.317182,-0.958187,-0.381241,0.681671,0.624484
0.078451,0.348726,0.960373,-0.122419,-0.975286,0.183933
-0.140144,-0.129422,0.320106,-0.464860,0.624499,0.627620
0.176688,0.254967,-0.966951,0.254364,0.219465,-0.941878
0.275746,0.267613,-0.971683,0.104174,-0.491885,0.864405
-0.580773,-0.767177,0.036535,0.364826,0.290781,0.884505
-0.615674,0.358416,0.306844,-0.395152,0.310964,0.864382
-0.337645,0.250315,0.510140,0.420027,0.525164,-0.740122
0.097339,0.807055,-0.006067,0.769295,0.537851,0.344821
-0.128904,0.374794,0.926786,-0.614747,-0.768161,-0.178925
-0.227706,0.231563,0.304603,-0.139237,0.239439,0.960876
0.199990,-0.220564,0.570610,0.898143,-0.101616,-0.427801
-0.129007,0.002471,0.012931,-0.233084,0.832137,0.503209
0.393333,0.069096,-0.961144,-0.017818,0.462664,0.886355
-0.392152,0.406483,0.182031,-0.450907,0.742353,0.495576
0.306541,0.312579,0.419111,0.329104,-0.884592,0.330435
0.291760,0.200988,-0.353532,-0.032475,-0.974456,0.222217
0.396669,0.089447,0.031015,0.027943,0.942544,0.332911
-0.431981,0.665907,0.244491,-0.539170,-0.265441,-0.799273
-0.000026,0.492877,0.621995,0.664208,0.226244,0.712489
-0.349552,0.364958,0.190544,-0.527935,0.421389,0.737371
0.179511,-0.269600,0.575324,0.273585,0.046156,0.960740
-0.443786,0.393061,0.527811,-0.019485,-0.938403,0.344992
0.048836,-0.079804,0.833320,0.785372,-0.529700,-0.320325
0.506762,0.279242,-0.987490,0.307954,0.176913,0.934808
0.062181,0.530090,0.806579,0.853061,-0.127479,0.506000
-0.218313,0.540701,0.272092,0.657222,0.632545,0.409812
0.258142,0.435846,0.922395,0.306248,0.601708,0.737672
-0.111916,0.176325,0.173697,-0.135345,-0.642438,0.754291
0.080761,-0.012938,0.839127,0.789158,0.038170,0.613003
0.173146,0.286462,0.925317,0.908334,0.277638,0.312806
0.191880,0.253852,0.902537,0.996294,-0.080345,0.030722
-0.093027,0.368059,0.896766,0.988374,-0.147021,-0.038751
-0.602227,-0.802064,0.065982,0.155758,0.934199,0.320955
0.237971,0.621911,0.508527,0.323454,-0.524067,0.787865
0.206406,0.131263,0.963097,0.715037,0.590500,-0.374207
-0.672441,-0.110525,0.191870,-0.278779,0.865515,0.416133
0.198091,-0.030720,0.826653,-0.482067,0.281112,0.829811
-0.468781,0.388022,0.513025,0.155230,-0.932566,0.325922
0.399749,0.087605,0.595899,-0.277800,0.400852,0.873009
-0.272153,-0.011338,0.274099,-0.217233,0.356032,0.908874
0.322196,0.241738,-0.529138,-0.439995,-0.892705,-0.097375
0.395899,0.226766,-0.311504,0.939146,0.153925,-0.307103
0.418329,0.040120,0.598677,0.097792,0.330886,-0.938590
0.455539,0.252350,0.272880,-0.664658,-0.622605,0.413028
-0.286935,0.522919,0.425079,0.878356,0.019501,-0.477610
0.434907,0.779242,0.652893,0.953914,-0.251394,0.163858
-0.222983,0.321203,0.530052,-0.259885,-0.783748,0.564091
0.114379,0.316455,0.733670,-0.441637,0.646150,-0.622452
0.156723,-0.323772,0.715210,0.867518,0.405657,0.287847
-0.046937,0.188100,0.914635,0.058270,0.897426,0.437299
0.200298,0.228607,-0.209452,-0.789448,-0.279162,-0.546663
0.338158,0.143812,-0.009293,0.205083,0.805129,0.556515
0.096005,-0.462836,0.564821,-0.317435,0.246336,-0.915726
0.313368,0.233453,-0.415706,-0.817981,-0.564647,-0.109913
0.240639,0.457748,0.768763,-0.242420,0.750602,0.614678
-0.094311,-0.151323,0.825721,0.897687,-0.387089,0.210525
0.136192,0.352505,0.957147,0.341352,0.676568,0.652483
0.077476,0.525438,0.540070,0.814226,0.533204,0.229631
-0.161598,-0.180105,0.330860,0.725385,-0.259864,-0.637407
0.147227,0.721097,0.606581,0.640620,-0.582672,-0.500099
0.230990,0.206803,0.847353,0.982080,-0.117358,-0.147463
0.133524,-0.047097,0.544031,-0.407936,-0.257848,-0.875844
0.540740,0.715185,-0.034976,0.833913,-0.491528,0.250975
-0.352426,-0.048261,0.092830,-0.748731,0.024149,0.662434
0.265173,0.225215,0.805862,0.838447,-0.404458,0.365268
0.155439,0.426979,-0.212535,-0.341393,-0.884559,0.317816
-0.140760,-0.270327,0.534263,-0.141724,-0.761544,0.632428
0.355352,0.222599,0.204882,0.000581,0.997179,0.075058
-0.011984,0.283409,0.844862,-0.312496,0.940118,-0.136106
0.139837,0.341215,0.755052,0.520509,-0.356730,0.775767
0.109195,0.284669,0.878789,-0.241246,-0.933155,0.266499
0.131060,0.406774,0.944530,0.986504,-0.163440,-0.009894
0.336824,0.399990,0.887518,0.886837,-0.412640,0.207962
-0.431365,0.673805,0.663772,0.527413,0.720714,0.449896
-0.301973,0.608198,0.272450,0.549775,0.820687,0.155631
0.022353,0.406435,0.844719,0.711509,-0.012412,0.702567
0.186132,0.444714,-0.192731,0.941850,0.191172,0.276355
0.084148,0.334141,0.726447,0.568244,0.809738,-0.146369
0.275028,0.256904,0.510946,-0.009420,0.999855,0.014171
-0.134345,0.598653,0.227895,0.139341,0.104462,0.984719
0.142044,0.232048,0.289548,-0.639736,0.704019,-0.308373
0.355609,0.215961,0.382101,-0.481851,-0.873608,0.068033
-0.514769,0.554850,0.146078,0.149236,-0.262395,0.953351
0.198450,0.104806,0.672249,0.940941,-0.327886,-0.084385
0.179203,0.099864,0.952953,-0.088875,-0.990606,0.103925
0.546026,0.093468,-0.974228,0.211131,0.219375,0.952522
0.232684,-0.026747,0.834037,-0.418872,0.847925,0.324914
0.257526,0.244452,0.343603,-0.751095,-0.626652,-0.207759
0.054020,0.229528,0.936142,0.929670,-0.171417,0.326081
0.255935,0.290144,-0.965571,0.822129,-0.382981,0.421223
0.405292,0.563523,0.465781,0.389090,0.132427,0.911631
0.083019,0.369367,0.787546,0.668889,-0.692886,0.269252
0.044679,0.020981,-0.060641,0.832962,0.292398,0.469764
0.129931,0.522144,0.670547,0.804883,-0.442732,-0.395161
-0.218210,0.265675,0.521072,0.430134,0.370241,-0.823350
0.278415,0.289999,-0.277200,-0.705810,-0.706867,0.046595
-0.083737,-0.067012,0.321755,-0.607414,0.787125,-0.107153
0.508302,0.183642,-0.214973,0.744669,0.628251,-0.225322
0.711191,0.367041,0.462340,-0.430149,0.406782,0.805916
0.404573,0.741545,0.591651,0.980906,0.161977,0.107647
0.353607,0.250848,-0.730534,0.665023,-0.736226,0.125364
0.062130,0.329150,0.942379,-0.374677,0.752438,-0.541714
0.257372,0.613867,-0.129786,-0.100508,-0.732565,0.673236
0.004748,-0.030865,0.790037,0.215777,-0.454988,0.863959
0.523186,0.135575,-0.972346,0.184998,0.396328,0.899277
0.289810,0.232580,0.308027,0.500686,0.863861,-0.055297
0.138040,0.150305,0.965499,-0.236886,0.076833,0.968495
0.366901,0.372904,0.905440,-0.894231,0.447016,-0.022956
-0.570201,0.466760,0.063957,-0.716746,0.190440,0.670826
-0.203121,0.259327,0.529532,0.409675,0.483327,-0.773668
-0.036158,-0.067691,0.821975,0.758777,-0.627912,-0.173158
-0.032566,0.271925,0.843930,-0.250104,0.956889,0.147684
-0.265840,0.264318,0.522596,-0.260068,0.143098,-0.954928
0.040163,0.490842,0.805504,0.108898,-0.554408,0.825090
0.606283,0.080919,-0.973851,0.244743,0.325817,0.913205
-0.204045,0.184950,0.013612,0.623751,0.492783,0.606712
0.114020,0.358901,0.947415,-0.415441,0.868921,0.269044
0.206559,0.228462,0.925890,-0.700702,0.275195,0.658243
0.145174,0.409002,0.763655,0.284714,-0.806683,0.517881
-0.179819,0.199050,0.492719,0.154240,0.844621,-0.512665
-0.382554,0.413024,0.535285,0.262520,-0.963178,0.058067
-0.015218,0.048939,0.858716,0.837298,0.533270,0.120641
-0.051094,0.581209,0.222213,0.358331,-0.620775,0.697308
-0.321631,0.225215,0.271429,-0.076230,0.947012,-0.312022
0.066236,0.255306,0.525481,-0.209107,0.413414,-0.886207
0.162111,0.338017,-0.982741,0.080431,0.324376,0.942503
0.521904,0.115951,-0.977597,-0.224965,0.045367,0.973310
0.061924,0.366944,0.961359,0.022007,0.983894,-0.177393
-0.533554,0.348532,0.480460,0.142126,0.914137,0.379675
-0.353505,0.683109,0.707270,0.117057,0.993016,-0.014704
0.405497,0.044336,0.078295,0.946493,0.315022,0.070082
0.375113,0.269599,0.906121,0.981980,-0.107023,-0.155762
-0.573741,0.540411,0.195777,-0.324667,-0.941939,0.085684
0.084148,-0.137756,0.557330,-0.051004,0.683734,0.727946
-0.305669,0.267516,0.515714,0.191899,0.540510,-0.819161
-0.315164,0.610088,0.252126,-0.595635,0.532563,0.601329
0.404573,0.211891,-0.963725,0.851509,-0.429752,0.300409
-0.033387,-0.022919,0.838499,-0.051388,0.357951,0.932325
0.146663,0.046807,0.831079,-0.274171,0.553037,-0.786753
0.371674,0.300223,-0.980106,0.145000,0.485195,0.862300
-0.075679,0.286026,0.874578,-0.339029,0.940292,0.030166
0.056381,0.205737,0.794517,0.956661,-0.034557,0.289146
-0.078297,0.182479,0.169574,0.127531,-0.900929,0.414804
-0.033593,0.450480,0.863215,-0.687063,0.499518,-0.527661
0.256910,0.380705,0.861584,0.415865,0.130980,-0.899945
0.027023,0.347805,0.884865,0.929111,0.285172,0.235437
-0.046834,0.466421,0.895135,0.903737,0.397586,0.158699
-0.030154,0.337339,-0.020297,-0.123270,0.718555,-0.684458
0.184387,0.174484,0.909742,0.858393,0.512695,-0.017478
0.316396,0.538036,0.638394,-0.014918,0.019856,0.999692
0.248082,0.357205,0.869631,0.443338,0.201063,0.873513
0.124542,0.313645,-0.978637,-0.035137,0.321089,0.946397
0.208510,0.303566,-0.241695,0.692610,0.384644,0.610197
0.405805,0.226378,0.224919,-0.658502,0.675813,0.331137
-0.356122,-0.453339,0.061250,-0.563365,0.251763,0.786915
-0.391793,0.409439,0.545680,-0.618004,0.353713,0.702110
-0.187107,0.122444,0.158265,0.454009,0.428134,-0.781394
-0.602022,0.534257,0.160541,0.939869,-0.341183,0.015516
0.464983,0.121572,-0.974640,-0.482556,0.104388,-0.869622
0.264968,0.292809,0.442769,0.971574,0.227266,-0.066286
-0.311674,0.021901,0.279279,0.456376,0.345960,-0.819776
0.120641,0.057418,0.841134,-0.544156,0.648604,-0.532172
-0.134857,0.420632,0.264385,0.453752,0.818011,0.353507
-0.276465,0.274542,0.362816,-0.375357,0.488787,0.787524
0.387687,0.216833,0.628805,0.649670,0.741917,-0.165793
0.187261,0.400862,-0.058455,0.916021,0.326059,0.233649
0.296225,0.751817,0.547974,0.639190,0.325937,-0.696564
-0.116432,0.318200,0.404719,-0.421793,0.884178,0.200796
0.079324,0.206561,0.808873,0.853062,-0.283443,0.438115
0.247928,0.179281,0.916140,0.742331,-0.247844,0.622509
-0.133061,0.770908,0.288097,0.876901,0.450168,0.168503
-0.086663,0.289175,0.721357,-0.078645,-0.157293,0.984415
0.012908,0.716009,0.603122,-0.352533,0.709913,0.609708
-0.025893,0.008044,0.812243,0.176432,0.407656,0.895929
-0.523957,-0.688487,0.044941,-0.033272,-0.575538,0.817098
-0.153232,-0.134654,0.337473,-0.556118,0.425751,-0.713771
0.605153,0.194496,-0.927844,0.946364,0.117261,0.301074
0.128596,0.271247,0.748152,0.654731,-0.740393,0.152138
-0.530936,-0.074765,0.213323,-0.563863,0.673575,0.477866
0.177817,0.321446,-0.980034,-0.052854,0.332673,0.941560
0.430544,0.022337,0.594931,-0.127435,-0.637105,0.760170
0.099084,-0.080677,0.554785,-0.076160,0.550822,0.831141
-0.057407,0.692170,0.622962,-0.629977,-0.556292,-0.541911
-0.031694,0.616096,0.237358,0.363917,-0.746345,0.557256
-0.028460,0.081209,0.002106,-0.532777,-0.688919,-0.491467
0.479919,0.374697,0.278132,-0.826949,0.559843,0.052258
0.058280,0.173612,-0.095734,0.805840,0.273812,0.525022
0.286371,0.267419,-0.486428,-0.226822,-0.965834,-0.125368
-0.592630,0.342281,0.305482,0.264342,0.022332,0.964171
0.039187,0.159124,0.846511,-0.578213,0.479751,0.659931
0.351760,0.238686,0.605882,0.867457,0.407310,-0.285686
0.473555,0.037019,-0.971450,-0.129962,0.251752,0.959026
-0.219596,0.314178,0.348747,0.012864,-0.979462,0.201218
0.065414,0.022046,0.833266,0.948481,0.201635,0.244392
0.313676,0.285832,-0.631978,-0.565863,-0.824274,0.019281
0.131932,0.209662,0.953527,-0.134589,-0.989772,-0.047303
-0.055919,0.586345,0.651979,-0.137523,-0.898291,0.417326
0.392923,0.837533,0.654363,0.895933,0.208569,0.392178
0.350938,0.776771,0.493203,0.550808,0.057333,-0.832660
0.079683,0.068757,0.805629,-0.540859,0.726703,0.423526
0.339646,0.449607,0.912108,0.722023,-0.646678,0.245949
-0.247620,0.304293,0.369196,0.314895,0.561538,-0.765190
0.031693,0.517686,0.842245,-0.803611,0.322554,0.500169
0.366336,0.232096,0.612030,0.800984,0.476812,-0.362044
0.086047,0.371402,0.233576,0.635795,0.399771,0.660264
0.179254,0.413703,-0.207355,-0.642008,-0.713716,0.280063
0.109914,0.334964,0.943006,-0.303388,0.639221,0.706649
0.306285,0.535275,-0.154430,0.666963,-0.282024,0.689654
0.062078,0.571906,0.555806,0.912867,0.401100,0.076108
-0.333641,0.613577,0.256194,-0.447214,0.614933,0.649505
0.240537,0.200213,0.702270,0.993477,-0.027609,-0.110638
-0.564914,0.578690,0.175041,0.636506,-0.770227,0.040131
-0.553314,0.318926,0.286860,-0.454275,-0.803308,0.385139
-0.303872,0.399021,0.555735,-0.271314,0.784256,0.557970
-0.075936,0.089447,0.572743,-0.267141,-0.096578,0.958806
0.547977,0.233840,-0.989318,0.508396,-0.299325,-0.807427
0.289912,0.369997,-0.973331,-0.135033,0.641880,0.754822
0.463187,0.465064,0.545931,0.722389,0.456973,-0.518970
0.030205,0.438221,0.875617,-0.032751,0.265677,0.963506
-0.922396,-0.844607,0.221658,-0.192160,-0.949682,-0.247342
0.126697,0.308072,0.415903,-0.015536,-0.079787,0.996691
0.067775,-0.233356,0.714493,-0.704195,0.697077,-0.134880
-0.199579,0.241109,0.516843,-0.136053,-0.831825,0.538104
0.572613,0.039975,-0.964245,0.494064,0.104164,0.863163
-0.207945,0.219595,0.336326,0.166924,0.377332,-0.910910
0.035492,0.198759,0.274601,-0.116621,0.854166,0.506754
-0.445325,0.397422,0.527776,-0.019485,-0.938403,0.344992
0.385736,0.444568,0.897286,0.428776,-0.820643,0.377751
0.264250,-0.045499,0.445833,-0.808770,0.567982,-0.152606
-0.416327,0.541961,0.295750,0.261941,0.964359,-0.037384
-0.055508,-0.097005,0.830094,-0.697848,0.550705,-0.457966
0.596017,-0.024760,0.537472,0.785074,0.106059,0.610254
0.352529,0.244161,-0.413268,0.939223,-0.341762,-0.032539
-0.844894,-0.871499,0.157316,-0.362843,0.773826,0.519171
-0.263171,0.510224,0.284655,0.387556,0.824119,0.413071
0.052327,0.467245,0.912036,-0.425950,0.386704,0.817940
-0.230118,0.332832,0.539730,0.302661,-0.939212,0.162103
0.278723,0.385163,0.753869,0.986393,-0.008167,-0.164203
0.214464,0.211454,0.715264,0.993100,0.112957,-0.031517
-0.317063,0.044723,0.102400,0.378411,0.567339,-0.731390
-0.068288,0.584892,0.224722,0.017158,-0.709067,0.704932
0.202813,0.480327,0.916445,-0.617295,0.250520,-0.745779
0.520774,0.069338,-0.965965,0.321948,0.239282,0.916021
0.256756,0.273234,0.799285,0.854485,-0.276327,0.439885
-0.103857,-0.248910,0.556237,-0.620282,-0.587287,0.519947
-0.900172,-0.837630,0.160560,-0.657666,-0.751390,-0.053738
-0.587497,0.324837,0.350611,-0.687725,0.313873,0.654613
0.432905,0.293681,-0.965177,-0.574428,0.367355,-0.731493
0.126697,-0.302936,0.604072,0.000999,-0.835078,0.550131
