0.932600,0.194644,0.498880,0.458231,0.846725,0.270336
0.189226,-0.721900,0.444946,-0.077024,0.978462,-0.191520
-0.020535,-0.239076,-0.162823,0.901125,0.379809,-0.209089
-0.354463,0.080750,-0.043903,0.625775,0.645165,0.438369
-0.285382,-0.472744,0.781186,-0.450657,0.892140,-0.031553
-0.508869,0.311894,0.304195,-0.513320,-0.777370,0.363590
-0.379573,-0.307507,0.004906,-0.250545,0.965682,0.068454
-0.545369,-0.352412,-0.371411,0.881589,0.471226,-0.027348
-0.263816,0.180268,0.574368,-0.247272,-0.866436,0.433758
-0.257001,0.240387,0.641148,0.996297,-0.066000,-0.055106
-0.238893,0.801162,0.406570,0.261319,0.950908,0.165791
0.168314,0.727318,0.327405,0.967630,-0.245269,0.059457
0.233384,0.164673,0.733342,0.979503,-0.021977,-0.200228
0.662346,-0.590462,0.518642,-0.303160,0.950819,0.063539
-0.833087,-0.500373,0.325198,0.367236,-0.622094,0.691475
-0.205937,0.314230,0.620856,0.736629,-0.511703,0.442197
0.427281,-0.064135,0.758804,-0.671508,-0.232587,0.703548
-0.381533,0.167944,0.530362,-0.580676,0.747731,0.322046
0.673827,-0.021846,0.439155,0.610257,-0.665672,0.429496
0.542942,-0.165887,0.508531,0.734852,0.486319,0.472743
-0.322441,-0.494772,0.795250,-0.637275,0.656251,0.403998
-0.583368,-0.661315,0.741799,-0.510659,0.856624,-0.073639
-0.602131,-0.821230,0.754852,-0.788051,0.178159,0.589266
-0.256631,-0.093074,0.052267,0.587547,-0.761676,-0.273198
0.725449,0.172890,0.515265,-0.631040,0.537999,0.558878
-0.650301,0.170650,0.247205,-0.310372,0.749844,-0.584297
-0.637697,-0.585231,-0.774936,0.978917,-0.200356,-0.039738
0.245799,0.388633,0.697173,-0.238955,-0.042550,0.970098
-0.105490,-0.182132,-0.081819,0.697761,0.456408,0.552106
-0.377243,-0.331312,0.828617,-0.175575,-0.923239,0.341764
0.502242,0.405060,0.360312,-0.643918,0.723706,0.248233
0.299849,-0.360907,0.800283,0.839432,0.516180,0.170036
-0.587846,-0.463035,0.747521,0.727944,-0.324388,0.604045
-0.456312,0.170463,0.272759,-0.552778,-0.765506,0.329297
0.121267,0.122202,0.390208,0.864394,-0.288102,-0.412093
-0.832432,0.273337,0.269312,0.417409,0.805009,-0.421579
-0.363705,-0.291353,-0.034114,0.321583,-0.941586,0.100001
-0.518857,0.293222,0.293831,0.334126,0.668179,-0.664753
0.563483,0.180359,0.360932,-0.132730,0.245180,0.960349
-0.562360,-0.709114,0.355601,-0.029280,-0.414644,0.909512
-0.195390,-0.284915,0.337447,-0.248323,0.433391,-0.866318
-0.209487,0.928771,0.228040,0.093538,0.993929,-0.057926
-0.865667,0.179516,0.307504,0.302031,-0.953234,0.011105
-0.501399,-0.416826,-0.456160,0.922574,0.339450,-0.183386
0.096248,0.217703,0.227879,0.147828,0.410408,0.899840
-0.334389,-0.267553,0.856951,0.097715,-0.095528,0.990619
-0.035475,-0.159819,0.196305,-0.608907,0.073078,0.789868
-0.369118,0.877895,0.306907,-0.222544,0.919826,0.323102
-0.244397,-0.437549,0.287029,-0.661860,0.256204,-0.704486
0.172240,0.583083,0.487849,-0.441297,0.397490,0.804524
-0.436335,-0.274739,0.707858,0.950523,0.194238,0.242441
-0.657673,-0.511672,-0.824021,-0.952601,0.290276,0.091054
-0.460420,0.296960,0.410017,0.175734,0.380385,-0.907978
-0.634147,-0.193522,0.307826,-0.320306,0.042891,-0.946343
0.542760,0.040050,0.732584,-0.251492,0.664891,0.703329
0.095690,-0.140030,0.642848,0.939461,-0.308830,0.148449
-0.209857,-0.362491,0.129250,-0.159372,0.954898,0.250542
-0.525022,0.466300,0.306424,0.549880,-0.478831,0.684363
-0.707341,-0.477411,0.547528,-0.061360,0.798741,0.598538
-0.257377,0.431014,0.272850,-0.500248,0.668958,0.549770
-0.095314,-0.487867,-0.036044,0.955775,-0.034852,0.292026
0.198752,0.213966,0.713672,0.167898,-0.238174,0.956600
-0.368935,-0.307228,-0.036159,0.321583,-0.941586,0.100001
0.221806,-0.592980,0.596774,0.905949,-0.422111,0.032852
-0.005134,0.703234,0.308446,0.295906,0.953367,0.059421
0.681576,0.223304,0.606425,0.766522,0.617631,0.176002
-0.686334,-0.780901,-0.973642,-0.463665,0.282384,-0.839806
0.420746,-0.493280,0.392529,0.831018,-0.412749,-0.372890
-0.227127,-0.472460,0.091655,0.723868,0.505655,0.469392
-0.504760,-0.652169,0.689543,0.945032,-0.101189,0.310927
-0.333552,0.403846,0.529144,0.870538,-0.341773,-0.354053
-0.552183,-0.197351,-0.356244,-0.333826,0.942176,0.029401
-0.087564,-0.557135,-0.031724,0.956477,0.291241,0.018187
-0.101473,-0.014284,0.218572,0.674877,-0.689590,-0.262690
0.044626,0.038740,0.708846,-0.627789,0.767371,0.130470
0.332150,-0.451366,0.556628,-0.010242,-0.701914,0.712188
-0.788182,-0.811430,0.475532,0.799727,0.599866,-0.024450
0.307974,0.083086,0.413602,0.349068,0.841353,0.412645
0.134241,-0.340646,0.519562,0.889647,-0.185688,0.417192
-0.254762,-0.340646,0.801523,0.858607,0.293625,0.420213
0.474705,-0.761392,0.379224,-0.143086,0.911865,0.384746
0.544902,0.561146,0.317937,0.516002,0.655685,-0.551198
-0.810774,-0.497576,0.355739,0.264702,0.325050,0.907896
-0.837566,0.285006,0.365781,0.956371,-0.152461,-0.249220
-0.285382,0.395071,0.276091,0.034639,0.988500,0.147201
-0.176251,0.223116,-0.177208,0.847172,-0.485484,-0.215881
-0.290607,0.178867,-0.191387,0.925539,-0.367636,-0.090666
-0.560588,-0.556104,0.384257,-0.558384,0.825714,-0.080026
0.309467,-0.326179,0.706502,0.880354,0.066637,-0.469613
0.145540,-0.664488,0.339722,0.607875,-0.721410,-0.331746
-0.467702,-0.525860,0.764687,-0.005386,-0.836095,0.548558
0.726384,0.147033,0.576505,0.045491,0.983385,-0.175737
0.195578,-0.585328,0.592982,0.937902,-0.277263,-0.208484
-0.319734,-0.661879,0.216182,0.247662,0.674259,0.695729
0.169249,-0.324122,0.829536,0.495968,0.529308,0.688366
0.042666,0.029965,0.304333,0.308683,-0.521751,-0.795293
-0.636204,0.063577,0.561661,-0.059045,0.904643,-0.422059
-0.289023,-0.136765,0.168890,0.439112,-0.075340,-0.895268
-0.093821,0.238426,0.465904,-0.490466,-0.832544,0.257514
-0.044061,-0.076642,0.232590,0.853877,-0.335325,-0.398059
0.204068,0.102971,0.423621,-0.747208,-0.613817,-0.254773
-0.068989,-0.425133,0.226064,0.818984,-0.015899,0.573596
-0.139187,-0.335979,0.255662,0.965854,0.115116,0.232107
0.463314,-0.351944,0.125297,0.476597,0.819638,-0.317882
-0.515495,-0.571978,0.737984,0.928452,0.293701,0.227413
-0.714436,-0.665799,-0.961899,-0.479487,0.810014,-0.337595
-0.401795,-0.362121,0.783737,0.781343,-0.237138,0.577295
-0.936053,0.302931,0.266416,-0.445975,-0.670575,0.592820
0.400581,-0.175317,0.633036,0.262206,0.813581,-0.518974
-0.320857,-0.071508,0.505015,-0.072327,0.887115,0.455846
0.872761,0.087941,0.537026,0.498745,0.719391,0.483456
-0.330469,-0.362867,0.103834,-0.161649,-0.984754,-0.064250
-0.060585,0.687644,0.310170,0.833491,-0.467916,-0.293849
-0.157767,-0.045554,0.343261,-0.580498,-0.639475,0.504078
-0.540423,-0.296493,0.489320,-0.506500,0.097570,0.856702
0.663274,-0.125655,0.383590,-0.155742,-0.364595,0.918050
-0.236090,0.071605,0.437846,0.270782,-0.816103,0.510541
0.182411,-0.479371,0.060839,-0.440648,0.165827,0.882231
-0.191373,-0.370610,0.792125,0.638247,0.405268,-0.654522
0.458084,-0.292009,0.470500,0.806483,-0.301941,-0.508347
0.615851,-0.410005,0.627590,-0.642471,0.745517,-0.177298
-0.525580,-0.127985,0.550561,0.005757,-0.696737,0.717303
-0.761670,0.023059,0.483093,0.998897,-0.040046,-0.024497
-0.610159,-0.696698,0.773212,-0.219066,0.020571,-0.975493
0.401419,-0.190718,0.944113,-0.116465,-0.906383,0.406086
-0.212940,0.113239,-0.141728,0.905986,-0.295530,-0.303069
0.502618,0.277912,0.352429,0.712487,0.250800,0.655333
-0.106983,-0.079166,0.165052,-0.718382,0.624238,-0.307008
0.544902,0.146189,0.535969,-0.245660,0.048730,0.968131
0.304521,0.094379,0.653580,0.542285,0.038780,0.839299
-0.373226,-0.308533,0.498167,-0.030300,-0.538469,0.842100
0.660756,0.199122,0.559133,0.725948,0.603726,-0.329415
-0.085604,-0.614268,0.690968,-0.400675,0.234502,0.885702
-0.391619,0.005977,0.455540,0.900869,0.352255,-0.253675
0.123507,-0.680921,0.540680,-0.548438,0.835932,0.020806
-0.703233,0.229834,0.302678,0.557481,-0.824154,-0.099923
0.304612,0.594752,0.471120,0.954080,0.082871,0.287860
-0.803772,-0.237212,0.539922,0.070451,-0.983681,0.165557
-0.215270,-0.550412,0.532108,0.073236,-0.041642,0.996445
-0.128731,-0.455474,0.682259,0.867188,-0.224471,0.444519
0.304145,0.591676,0.489550,-0.353243,-0.723337,-0.593299
-0.889006,-0.686613,-0.983546,-0.074561,-0.196778,-0.977609
0.109689,-0.402633,0.503131,0.951520,0.069273,-0.299684
0.848956,-0.236745,0.787230,-0.505631,0.768735,-0.391642
0.269605,-0.798359,0.537118,0.581697,0.759987,0.289909
0.483291,0.002986,0.538704,-0.209986,0.706023,-0.676341
-0.507096,-0.716675,0.785438,-0.494267,0.260937,0.829223
-0.964525,-0.397220,0.489435,0.746166,0.516254,-0.420378
0.906367,0.107171,0.532959,0.613244,0.572946,0.543750
-0.615481,-0.270163,0.463491,-0.673548,0.484228,0.558441
-0.217606,0.189043,0.318075,0.965828,-0.258895,0.012229
0.015777,-0.638820,0.370009,0.821455,0.495558,0.282196
-0.486932,-0.048916,-0.035170,0.430118,0.902035,0.036498
0.467514,-0.086818,0.687406,0.817167,-0.346320,-0.460761
-0.795743,-0.104931,0.369825,-0.659011,0.198803,0.725384
0.218450,-0.360155,0.741684,0.869648,-0.228904,0.437397
0.458460,0.421025,0.329473,0.788248,-0.612716,-0.056952
0.145443,0.031834,0.257546,0.299428,0.510296,0.806189
-0.489826,-0.520071,0.385245,-0.194655,0.837053,0.511324
-0.042568,0.675132,0.393242,-0.175002,0.970767,-0.164274
-0.234785,0.052466,0.498581,0.957060,0.189745,0.219163
-0.537905,-0.609134,0.614077,0.406421,0.878726,-0.250325
0.741694,-0.536406,0.535441,0.938895,-0.296501,0.174824
-0.346623,-0.374069,0.512966,-0.560699,0.491181,0.666602
-0.227036,0.099798,-0.157906,0.978743,0.204631,-0.013749
0.343637,0.168878,0.666977,0.974511,-0.039860,0.220769
-0.035195,0.296863,0.517815,0.823958,0.409548,0.391617
-0.777169,-0.663092,-0.981455,0.002239,0.583823,0.811878
-0.801812,-0.604558,-0.990142,0.189636,0.168905,0.967217
-0.132560,-0.783983,0.504418,0.542103,0.768103,0.340797
0.277354,-0.685217,0.254858,0.234089,-0.971017,-0.048254
-0.150765,-0.001960,-0.119506,0.828018,0.371296,0.420150
-0.369773,-0.948754,0.407650,-0.106882,0.993934,-0.025913
-0.815817,-0.268112,0.588685,0.769542,-0.527003,-0.360657
-0.885456,-0.601755,-0.986304,0.023365,0.250407,0.967859
-0.641805,0.364263,0.359990,-0.393965,0.855150,0.336911
-0.423264,-0.380605,-0.285030,-0.447833,-0.894053,0.010700
-0.158514,-0.288926,0.251686,0.694106,0.653800,-0.301268
0.175129,-0.774462,0.370515,-0.002491,0.999226,0.039270
0.665519,-0.130788,0.430515,0.152710,0.133696,0.979186
-0.006723,-0.315068,0.346777,-0.657509,0.752782,-0.031627
-0.240198,0.264380,0.596521,0.672819,-0.738503,0.043903
-0.206216,0.701086,0.169166,-0.166935,0.952986,0.252885
0.686243,-0.177277,0.756851,0.963713,-0.251059,0.090700
0.705097,0.143392,0.543139,0.386254,-0.840062,0.380924
0.710607,-0.385829,0.326462,-0.534699,0.404757,-0.741801
-0.176160,0.041543,-0.180472,0.943041,0.287964,-0.166581
0.302276,-0.204632,0.959785,0.815597,-0.562305,0.136434
-0.333176,0.174200,0.591511,0.654728,-0.751784,-0.078441
-0.883593,0.082243,0.487597,0.721935,-0.686695,0.085207
-0.152725,-0.510829,0.178243,0.871842,-0.319602,-0.371143
-0.126122,0.599237,0.301093,0.817810,-0.518148,-0.250419
0.425971,0.349517,0.341629,-0.391051,0.833589,-0.390138
-0.849799,-0.081684,0.410569,-0.205380,0.864263,0.459204
-0.593823,-0.420279,0.375892,-0.714326,0.081900,0.695004
-0.586912,-0.138816,-0.032849,0.821287,-0.569655,-0.031323
-0.212193,0.762793,0.419278,0.368787,0.871038,0.324484
0.379015,-0.134896,0.948870,-0.270687,0.960889,-0.058483
0.274084,0.213031,0.681408,-0.330320,0.740312,-0.585515
-0.080095,-0.593727,0.390576,-0.608310,0.135611,-0.782028
0.111837,-0.682226,0.324739,0.593875,-0.804404,0.015734
0.007094,-0.466112,0.384647,0.953484,-0.040220,0.298747
0.145540,0.242158,0.695127,0.367929,-0.871910,0.323112
-0.537341,-0.046585,0.572185,0.135680,-0.308562,0.941478
0.151888,-0.705097,0.351947,-0.403488,0.233613,0.884659
0.748697,-0.123598,0.783507,-0.032632,0.029001,0.999047
-0.469103,-0.638820,0.730148,0.437934,-0.589964,-0.678348
-0.529968,-0.525301,0.783232,0.920054,0.108179,0.376561
-0.199401,0.142178,0.565498,-0.140652,0.048073,0.988891
-0.362582,0.361277,0.551182,0.776516,-0.422184,-0.467743
0.274460,0.449309,0.412614,0.832620,0.377377,-0.405377
0.501684,0.023247,0.438627,-0.330855,0.080035,-0.940282
-0.220033,0.946509,0.236680,0.031501,0.995426,-0.090189
-0.069639,0.280619,0.559730,0.972760,0.229692,0.031290
-0.023429,-0.323563,0.416865,-0.377066,0.327585,-0.866320
0.831594,-0.290237,0.324624,0.781129,-0.099614,0.616372
0.314134,0.183721,0.350384,0.247992,-0.620088,0.744306
0.173357,0.018296,0.718084,-0.368896,0.927782,0.056009
-0.792758,-0.237212,0.522089,0.310338,-0.912989,0.264843
-0.683348,-0.443617,0.338734,0.839390,0.517907,0.164915
-0.140685,-0.527632,0.071570,0.868794,0.262219,0.420046
-0.691467,0.446603,0.354911,0.915903,0.383277,-0.119252
0.241412,-0.419714,0.066630,-0.600186,-0.040867,0.798816
-0.310213,-0.983664,0.511749,-0.713916,0.623314,-0.319068
-0.500931,-0.170930,-0.318902,-0.465673,0.876229,-0.123981
-0.033702,-0.231423,0.436742,0.153979,-0.202349,0.967132
-0.573283,-0.802746,0.761470,-0.717203,0.455661,-0.527251
-0.023150,-0.904595,0.386233,-0.283271,0.949165,-0.137274
-0.416262,-0.077576,0.634966,0.961309,0.212881,-0.174835
-0.448095,-0.221435,0.513265,0.711555,0.363568,-0.601256
0.198285,0.210883,0.368171,0.258605,-0.530235,0.807449
0.098955,-0.710795,0.337539,0.789328,0.603610,0.112317
-0.488516,-0.085234,0.556812,-0.735786,0.381519,-0.559520
0.511860,0.304892,0.366447,0.828502,0.122226,0.546485
-0.333084,-0.279126,0.815518,0.139461,0.770021,0.622589
-0.532486,-0.125278,-0.254513,0.844180,-0.535083,-0.032364
0.288465,0.486556,0.503108,0.757729,0.478700,0.443501
-0.561243,-0.692681,0.764250,-0.297763,-0.914979,-0.272307
-0.934560,0.096248,0.351051,0.878283,0.406244,-0.252160
0.543785,-0.628922,0.288224,0.442841,-0.874458,-0.198029
-0.485627,-0.333552,0.814301,0.412325,0.866658,-0.280876
-0.112675,0.515871,0.516643,-0.436029,-0.455001,0.776436
0.594291,0.572257,0.322694,-0.460806,-0.838697,0.290250
0.289023,-0.429521,0.827100,-0.613941,0.562443,-0.553836
-0.469753,0.063200,0.194512,0.429796,0.573766,-0.697186
-0.694271,0.103154,0.265313,0.813714,0.012217,0.581137
-0.306196,0.665981,0.385084,0.673780,-0.655219,-0.341627
0.071417,-0.149927,0.394482,0.983286,-0.175306,-0.049153
0.170650,0.327483,0.543736,0.229895,-0.853629,0.467404
-0.005043,-0.105302,0.462686,0.945951,-0.196216,0.258216
-0.572724,-0.435492,0.382257,0.473434,-0.081941,-0.877010
-0.131535,-0.316470,0.021888,0.037238,-0.997467,0.060606
-0.347090,0.266899,0.465743,-0.018903,0.219162,0.975505
-0.414957,-0.005789,0.542656,0.800677,0.489397,0.345553
-0.582524,-0.305080,-0.281928,0.783211,0.558644,-0.272942
-0.050597,0.035845,0.649673,0.252280,-0.574002,0.779023
0.019977,-0.633218,0.189365,-0.366400,0.555655,-0.746323
0.186707,0.458830,0.724840,0.157394,0.772973,0.614606
0.570856,-0.805265,0.488194,-0.674672,0.738009,0.012683
0.464619,-0.608570,0.620604,-0.353070,0.935231,-0.026177
-0.286317,0.281741,0.482059,0.927912,0.372770,-0.004586
0.512977,0.397499,0.153172,-0.729042,0.632339,0.262002
0.421863,0.639936,0.392805,0.907478,0.011624,-0.419940
0.483291,0.434278,0.266347,-0.467785,0.766915,0.439339
-0.310213,-0.329165,0.209220,-0.533802,0.842782,0.069088
-0.722555,0.027259,0.565590,-0.350405,0.919890,0.176118
-0.237771,-0.308624,0.791711,0.820609,0.381069,0.425896
0.120241,-0.375283,0.851321,-0.667650,0.001226,-0.744474
-0.846904,0.534446,0.322625,0.256153,0.829263,-0.496699
0.387602,0.152258,0.344134,0.140539,0.471321,-0.870693
0.192963,0.411783,0.350384,-0.497188,-0.847843,-0.184299
-0.203601,-0.320481,0.015454,0.025405,-0.998156,-0.055130
-0.227406,0.426717,0.670240,0.732231,0.477847,-0.485284
-0.522595,-0.256722,-0.460044,0.986097,0.071214,-0.150139
-0.513911,-0.219287,-0.348132,0.039941,-0.951175,0.306058
0.525393,-0.142737,0.419438,-0.098635,-0.764717,0.636773
-0.029497,-0.220592,0.440833,0.169458,-0.552426,0.816155
-0.595128,-0.853811,0.431641,0.463250,0.622564,-0.630725
0.089901,-0.088311,0.276274,0.702477,-0.674695,-0.226526
0.331871,-0.171585,0.961141,0.375389,-0.922102,-0.093862
-0.392923,-0.350634,0.463261,0.997824,0.062664,-0.020523
-0.399179,-0.313017,-0.159629,0.807136,-0.590365,-0.000407
0.802655,0.246175,0.569083,-0.125846,-0.944012,0.304966
-0.149084,0.799761,0.204761,0.978345,0.162233,-0.128537
-0.187921,0.352970,0.682925,0.869514,0.170354,-0.463601
-0.740759,-0.393858,0.331679,0.829664,0.507144,-0.233374
-0.585043,-0.273246,-0.356589,0.935647,0.324412,-0.139000
-0.400205,-0.421772,0.536590,-0.537433,0.742100,-0.400566
0.677189,-0.005043,0.682649,0.878673,0.303976,-0.368147
0.046586,-0.303587,0.818873,0.874881,-0.168381,-0.454127
0.254853,0.570485,0.398780,0.327220,-0.902888,0.278785
-0.000279,-0.292852,0.820390,0.579288,-0.807582,0.110618
0.507285,-0.617344,0.636988,-0.394465,0.915048,0.084172
-0.124065,-0.816843,0.442074,-0.545010,0.838356,0.011076
-0.684749,-0.485251,0.311479,0.963849,-0.007093,0.266354
-0.536594,-0.418319,0.760413,0.591743,-0.594143,-0.544825
-0.518390,0.047611,0.571473,0.173308,-0.745738,0.643303
-0.484413,-0.349888,0.654821,-0.767015,0.590826,-0.250225
0.262699,0.275673,0.712270,0.878000,-0.070045,0.473507
0.725170,-0.230768,0.393196,0.885711,0.323510,0.332952
0.661782,0.411037,0.284432,-0.938720,-0.215401,0.269084
-0.822444,0.276699,0.219606,0.590643,0.803085,-0.078707
-0.646101,-0.507843,-0.765101,0.947984,-0.317101,0.027819
-0.641338,0.078790,0.563407,-0.105582,0.937716,-0.330969
-0.073935,0.040420,0.227075,0.814791,-0.556784,0.161577
0.139005,-0.727786,0.501706,-0.535656,0.832469,0.141662
0.197254,-0.222461,0.263590,0.056758,0.397109,0.916015
-0.445947,-0.398433,0.492262,0.922387,0.377435,-0.082128
-0.003265,0.179055,0.687130,0.672013,0.689993,0.268901
0.582713,0.162810,0.318236,0.782451,-0.236952,-0.575868
0.210325,-0.710795,0.453472,0.033388,0.952027,-0.304188
-0.500561,-0.597835,0.780267,0.607968,-0.158625,0.777954
0.115290,-0.700710,0.443085,-0.326582,0.912519,-0.246280
-0.052466,-0.373602,0.827353,0.963225,0.266782,0.032027
-0.678584,-0.471622,0.360794,0.753885,-0.181414,-0.631464
-0.797612,-0.587847,0.326485,0.607954,0.719998,0.334655
-0.199499,-0.382656,0.737961,0.935929,-0.346194,-0.064709
0.391898,0.107541,0.725231,0.127514,0.969065,0.211312
0.615384,-0.063668,0.460733,0.457235,-0.856247,-0.240370
0.028848,0.014376,0.633288,0.864802,-0.364272,0.345578
0.686613,0.088128,0.434146,-0.287966,0.949987,0.120832
-0.287433,-0.485439,0.813381,-0.540595,0.752139,-0.376886
-0.581311,-0.128452,0.445865,0.704474,0.605879,0.369630
-0.439976,0.345312,0.436375,-0.236327,0.898043,-0.371036
-0.335791,-0.496362,0.300564,0.891094,0.205543,0.404604
-0.372758,-0.357916,0.403812,0.968496,0.194650,0.155330
-0.578325,-0.754110,0.776131,0.184369,0.493721,-0.849852
-0.253172,0.404125,0.477118,-0.294284,-0.396834,0.869436
-0.879855,0.036500,0.393862,-0.507287,0.441216,0.740263
0.252614,0.309376,0.688440,-0.668099,0.281685,-0.688692
-0.059001,0.707154,0.318465,-0.734285,0.642033,0.220498
-0.639001,-0.724515,0.666311,0.898068,-0.438859,-0.029601
-0.320202,-0.116692,0.142279,-0.195844,-0.184774,0.963070
-0.324686,0.880043,0.305436,0.210683,0.899307,0.383222
0.041543,0.451924,0.342502,0.273365,0.824913,0.494763
0.698658,0.000746,0.771627,0.807531,0.588207,0.043659
-0.327295,-0.233760,0.048889,-0.464662,0.857598,-0.220486
0.364172,0.129575,0.351534,-0.008328,-0.562346,0.826860
-0.295741,-0.237492,0.829191,0.570415,0.632031,-0.524560
0.065252,0.419065,0.379247,0.326805,0.489079,0.808703
0.691097,0.442774,0.323889,0.976275,0.210313,0.051540
-0.816467,-0.670932,-0.981248,0.020938,0.383656,0.923239
-0.426626,-0.670186,0.710868,-0.405434,-0.027596,0.913708
0.325615,-0.530526,0.676100,0.870643,0.190661,0.453464
0.173357,-0.692590,0.634598,-0.143646,-0.761771,0.631721
-0.903661,0.317962,0.149495,-0.277649,0.956382,0.090803
0.087285,-0.228717,0.548424,0.746779,-0.477986,0.462440
0.636762,-0.171955,0.375892,-0.080542,-0.082518,0.993330
-0.841953,-0.530156,0.334873,0.954178,0.101127,0.281632
-0.683815,-0.681667,-0.981202,-0.154408,-0.076004,-0.985079
0.235720,-0.219378,0.774729,-0.079825,0.958722,0.272911
0.711820,-0.426068,0.675526,0.937904,0.121084,-0.325075
-0.464619,-0.165050,0.517562,0.575876,0.577259,-0.578912
-0.199590,0.430922,0.237554,0.891497,-0.401847,-0.209171
-0.535569,-0.054984,-0.109786,0.180621,0.983027,-0.032171
0.163090,-0.690630,0.610217,0.246049,-0.968188,0.045510
0.591020,-0.705940,0.282939,0.426368,-0.871240,-0.243210
-0.181197,-0.788092,0.410132,-0.592102,0.404160,0.697187
0.455189,0.081776,0.559247,0.223536,-0.956183,0.189066
-0.317683,0.472277,0.453724,-0.603599,-0.403746,0.687501
-0.010267,-0.430638,0.379913,-0.302586,0.832158,0.464710
-0.379015,0.139284,0.458573,-0.724100,-0.657328,-0.208802
0.193898,-0.653851,0.584158,0.860827,-0.478327,-0.173725
-0.150856,0.573004,0.453748,0.354599,0.856522,-0.375005
0.561055,0.549477,0.247964,0.682454,0.690847,-0.238719
0.342235,0.256164,0.342479,0.495415,-0.123626,0.859814
0.569363,-0.116971,0.285972,0.568147,0.681986,-0.460548
0.679986,0.054050,0.514391,0.248824,-0.842713,0.477411
-0.717797,0.547797,0.381499,-0.480484,0.755522,0.445333
-0.898436,0.048078,0.484449,0.819654,-0.520755,0.238710
0.403008,0.156463,0.760114,0.016928,0.990004,0.140020
-0.364542,0.064038,0.489044,-0.825681,0.273203,-0.493569
-0.679610,0.026324,0.551136,0.013618,-0.993737,0.110908
-0.442215,0.561522,0.396183,0.856067,-0.514377,0.050644
0.292755,0.161317,0.358519,0.243451,-0.759252,0.603546
-0.792946,-0.288089,0.463675,0.754395,0.642634,-0.133824
0.445019,-0.215555,0.430239,-0.599769,0.751751,-0.274130
-0.590182,-0.533979,0.398159,-0.081645,-0.262736,0.961407
-0.245520,-0.282397,0.345076,-0.738601,0.331848,-0.586809
0.380416,-0.001214,0.488355,0.574348,0.815071,-0.076049
-0.143483,-0.357824,0.872600,0.857435,0.509056,0.075287
0.117347,-0.514379,0.503361,0.970032,0.175674,-0.167862
0.321136,-0.466676,0.363138,0.821985,-0.566561,0.057878
-0.441657,-0.537438,0.707077,-0.691147,0.056676,0.720489
0.500191,-0.058346,0.475417,0.441738,0.895452,-0.055066
0.462756,-0.841862,0.500603,-0.344488,-0.871655,0.348633
-0.536782,0.022871,0.360518,0.397433,0.539970,0.741943
-0.664585,0.488613,0.314697,-0.312649,-0.001815,0.949867
-0.272590,-0.061332,0.905507,0.789442,0.309602,0.530026
-0.205846,-0.274368,0.057024,0.485233,0.678554,-0.551465
0.028102,-0.068990,0.608976,0.788757,-0.318062,0.526022
0.353996,-0.022404,0.507520,0.094179,0.938799,0.331342
0.592610,0.143113,0.477440,0.747187,0.022205,-0.664243
0.157580,-0.522777,0.284777,0.832314,0.151588,-0.533174
0.021378,-0.617162,0.358197,-0.616383,-0.709518,0.341550
-0.426347,-0.490573,0.794813,-0.017290,-0.859522,0.510807
0.695205,-0.146845,0.681500,0.991049,-0.083442,-0.104212
0.480676,-0.106236,0.852010,-0.316132,-0.891658,-0.324048
-0.244397,-0.256346,0.781324,-0.481529,-0.838565,-0.254832
0.513535,0.092516,0.659922,0.904680,-0.398325,-0.151298
-0.457149,-0.416074,0.390484,-0.163749,0.031916,0.985986
0.283610,0.110253,0.694897,-0.121900,-0.210472,0.969970
0.087662,-0.544064,0.687590,-0.227334,0.890393,0.394359
0.556571,-0.089713,0.843554,0.148282,0.860489,0.487412
0.341022,-0.435213,0.801960,0.910270,-0.393181,0.129680
-0.027817,0.704538,0.396045,0.079204,-0.992631,0.091711
0.369585,-0.537529,0.757081,-0.702157,0.584168,-0.407090
-0.584297,0.277724,0.418473,0.613402,-0.259225,-0.746017
0.495148,-0.136110,0.884504,0.260350,0.906250,-0.333060
0.312550,0.191750,0.356796,0.830547,0.176235,0.528331
-0.748508,0.076271,0.511978,0.742826,0.662831,-0.094147
-0.684003,-0.794160,0.360105,-0.275500,-0.131803,0.952223
-0.473770,-0.696698,0.615824,0.144089,-0.965784,0.215640
-0.341768,-0.502242,0.322762,0.903349,0.368163,-0.220038
-0.754109,-0.608199,0.801455,0.854505,0.361531,0.372983
0.535198,0.152258,0.716636,0.920944,-0.358789,-0.152094
0.265309,0.222928,0.225328,0.895138,-0.151016,0.419431
0.151329,0.475639,0.402296,0.344536,0.839547,-0.420067
-0.092510,-0.789955,0.417072,-0.478970,0.864393,0.153012
-0.543688,-0.042198,-0.137270,0.344275,0.920329,-0.185658
0.597932,-0.567870,0.671251,0.972110,-0.232118,-0.033521
-0.589898,-0.610530,0.648639,-0.378758,-0.724681,-0.575656
0.272870,-0.238985,0.814231,0.398750,0.764117,0.507074
0.048546,0.099234,0.701240,0.083625,-0.737705,-0.669924
-0.701832,-0.607077,0.646433,0.002052,0.999008,0.044487
-0.620518,-0.107638,0.571726,0.114459,-0.792730,0.598730
-0.722555,-0.789955,-0.978284,0.024702,-0.077443,0.996691
-0.542850,-0.141899,-0.266508,0.921350,-0.386595,0.040720
-0.577391,-0.780998,0.720910,-0.118627,0.856162,0.502905
-0.448654,-0.852597,0.664128,0.975402,-0.169281,0.141194
-0.553215,0.299667,0.303414,-0.277977,-0.670544,0.687822
-0.119398,-0.049662,0.230200,-0.707679,0.650524,0.275698
-0.156178,0.715273,0.185022,0.825486,-0.523339,-0.211399
0.755323,-0.209208,0.724656,0.165811,0.575222,0.801016
0.260830,-0.571978,0.509542,-0.485442,0.755927,-0.439227
-0.661690,-0.649087,0.572346,-0.639765,-0.079913,0.764405
-0.602034,-0.641805,0.766686,0.860827,0.265617,0.434079
0.524088,0.047423,0.467880,-0.225452,0.302750,0.926020
-0.443429,-0.348395,-0.304700,0.428374,0.902115,0.051805
-0.780809,-0.415891,0.319017,0.858455,-0.512826,-0.008024
0.465645,-0.730116,0.457286,0.455922,0.454391,0.765287
-0.673171,-0.845691,0.615318,-0.194508,0.971397,-0.136215
0.719193,-0.248694,0.340733,0.827864,0.005661,0.560900
0.350264,-0.580753,0.574276,0.440312,-0.643170,-0.626465
-0.449964,0.117438,0.607942,0.732812,-0.574717,-0.364263
0.623600,-0.223675,0.651948,0.674690,0.393290,0.624593
0.671770,-0.292755,0.368263,-0.850858,0.509996,0.126276
-0.939511,0.132657,0.340250,0.965634,0.246876,0.081264
0.202017,0.111000,0.353234,-0.699225,0.669983,-0.249414
-0.264750,-0.298168,0.364861,0.822283,-0.567231,0.045824
0.290704,0.265776,0.694323,0.793934,0.128997,0.594162
-0.189692,-0.357824,0.298151,0.606988,-0.695127,0.385181
-0.504572,-0.023150,-0.027288,-0.797916,0.502672,0.332641
0.074870,-0.394884,0.388002,-0.760445,0.435894,0.481373
-0.179237,0.814974,0.392828,0.331898,0.921813,0.200262
0.540332,0.106515,0.664196,0.033160,-0.172608,0.984432
0.373135,-0.456500,0.664840,0.948873,-0.178599,0.260275
0.147870,0.491974,0.717188,0.319140,-0.687284,-0.652526
0.109410,-0.713501,0.323751,-0.225691,0.964409,0.137761
-0.600729,0.164582,0.442855,0.900014,0.279928,-0.334089
-0.133586,-0.198188,0.307987,0.961942,-0.122101,-0.244458
-0.776234,-0.651514,0.354865,-0.009115,0.623336,0.781901
0.036130,-0.174103,0.368653,0.886552,-0.462334,-0.016522
0.183254,0.014934,0.508003,-0.234481,0.743256,0.626570
0.699028,-0.352412,0.689750,0.948089,0.312352,0.059691
-0.565254,-0.670836,0.740007,0.182888,-0.876701,0.444912
-0.099421,-0.269326,-0.075776,0.496596,0.272574,0.824073
-0.408792,-0.808724,0.689267,-0.168772,-0.770518,0.614669
0.290425,0.546959,0.429159,0.378971,-0.539848,-0.751628
-0.762138,-0.589807,-0.990946,-0.010492,0.252130,0.967636
-0.068801,-0.510829,0.344938,-0.627279,0.258756,0.734552
0.442962,-0.336258,0.674905,-0.578540,0.809397,-0.100835
0.021378,-0.227971,0.647145,0.825368,0.352567,-0.440980
-0.709769,-0.509991,0.821401,0.836708,-0.150368,-0.526602
-0.465086,0.365197,0.400894,-0.763641,0.064003,0.642461
0.432318,-0.389471,0.660795,-0.756029,0.616567,0.219693
0.019509,0.492254,0.538267,-0.170975,-0.872483,-0.457756
-0.090271,0.290704,0.554215,0.882870,-0.466416,-0.054739
0.639007,0.010455,0.488102,-0.209505,0.935112,-0.285786
-0.734782,-0.205937,0.538106,-0.120022,0.992698,-0.012082
-0.076551,-0.295091,0.292177,0.197252,-0.629511,0.751537
-0.114173,-0.086448,0.031379,0.147365,0.844198,0.515377
-0.547608,-0.670186,0.701378,0.801812,-0.276847,0.529578
0.664306,-0.018575,0.807889,0.397206,0.885232,-0.242056
0.410194,-0.059748,0.435249,-0.394060,-0.591156,0.703741
-0.031275,-0.352127,0.520504,0.287915,-0.546494,0.786416
0.819270,0.162531,0.395540,0.975874,0.127323,-0.177368
0.168223,0.276232,0.498627,0.330444,0.479147,-0.813157
-0.546212,-0.419623,-0.596705,0.915472,0.395018,-0.076635
0.766805,0.132378,0.457263,0.899260,-0.223248,0.376154
0.235344,0.623880,0.461905,0.143004,0.834684,0.531839
-0.430455,0.011857,0.065986,0.163022,0.986197,-0.028966
-0.105581,-0.655902,0.693932,0.968902,-0.058020,-0.240548
-0.142548,-0.078978,0.349258,0.891269,0.400895,-0.211949
-0.243463,0.938389,0.210460,-0.394579,0.915823,-0.074666
-0.226290,-0.346714,0.776958,0.958101,0.280446,0.058245
0.592422,0.546491,0.334436,0.601697,0.785307,-0.145787
-0.715831,-0.599983,0.340939,0.991329,-0.131089,-0.009071
0.424666,0.271941,0.331863,0.880501,-0.224935,0.417280
-0.729181,-0.632842,0.599485,0.970409,0.107963,0.215988
0.389658,0.391242,0.485873,0.783354,0.517448,0.344390
0.373505,-0.396194,0.711604,-0.412032,0.813519,-0.410386
0.050506,0.700618,0.411442,0.399517,0.894665,-0.199902
-0.453138,0.169813,0.459308,-0.711704,0.629904,0.310964
0.057691,0.266710,0.469259,0.962476,-0.122218,0.242285
-0.413464,-0.458181,-0.440350,0.943669,0.286487,-0.165571
-0.415703,-0.092231,0.389151,0.697966,0.636103,0.328963
-0.507752,-0.181852,-0.354865,0.059075,0.997461,-0.039771
0.517923,0.386205,0.374536,0.876788,-0.238627,0.417493
-0.123786,0.156087,0.418749,-0.662032,0.720023,0.208041
0.333552,-0.251776,0.758230,0.674563,0.446346,0.587997
-0.207339,0.237116,0.484264,0.904098,-0.225078,-0.363246
-0.817777,-0.206217,0.473694,0.267157,0.827517,0.493805
0.430546,-0.012974,0.510967,0.591867,0.805270,0.035124
-0.097552,-0.184371,0.303000,0.210975,-0.568520,0.795157
-0.200894,-0.395818,0.780773,0.942816,0.326869,0.065224
-0.041264,-0.437828,0.816690,0.448733,0.880803,0.151079
-0.125466,-0.617162,0.751267,0.878526,0.043690,0.475693
-0.049013,0.091673,0.497225,-0.412698,-0.157592,-0.897131
0.385271,0.365944,0.403583,0.281455,0.947331,-0.152799
-0.546679,-0.774833,0.756621,0.799514,-0.387943,0.458560
0.618843,-0.315347,0.880069,0.925081,0.069286,-0.373397
0.652916,-0.553586,0.733526,-0.220616,0.233572,-0.946981
-0.047799,-0.651885,0.471901,0.430391,0.730286,0.530515
-0.378080,-0.842888,0.681799,0.287712,-0.920448,0.264570
0.293969,0.621082,0.276114,-0.140050,0.935504,-0.324373
0.052836,-0.718356,0.554491,0.131228,-0.955096,0.265650
-0.704817,0.285382,0.403146,-0.457992,0.798357,-0.390985
0.704259,-0.153939,0.753013,0.899331,-0.366887,0.237903
-0.195573,0.206593,-0.230522,0.183923,0.717853,0.671460
-0.882003,0.292943,0.215171,0.377104,0.921723,-0.090664
-0.313478,-0.474887,0.465283,-0.669492,0.708448,-0.223343
-0.655434,0.173636,0.501913,-0.128765,0.895443,0.426147
-0.764286,-0.362024,0.312629,0.895116,0.231009,-0.381317
-0.551437,0.596251,0.360174,0.052867,-0.946623,0.317977
-0.371642,-0.730959,0.221307,-0.636154,-0.256745,-0.727592
0.068334,0.560121,0.522043,0.192565,0.774433,0.602638
0.733574,-0.380040,0.347029,0.396193,-0.639739,0.658608
0.516709,0.126959,0.707950,0.892378,-0.433307,-0.126123
0.277445,-0.430922,0.815242,0.655610,-0.749352,0.092987
-0.561990,-0.459018,-0.541553,0.997888,-0.035385,-0.054475
-0.741039,-0.006159,0.407328,0.797959,0.599247,0.064531
0.584394,-0.532583,0.317110,0.770422,0.095730,0.630306
0.243839,0.128828,0.733940,0.403823,-0.721280,-0.562745
0.264095,0.250187,0.415164,0.080653,-0.888339,0.452049
-0.538463,-0.203140,0.064906,0.801191,0.099936,0.590005
-0.838779,0.073098,0.515218,-0.744245,0.344354,0.572293
0.395168,-0.541358,0.750187,-0.555839,0.508309,-0.657773
0.183066,-0.483382,0.549183,0.186261,0.972279,-0.141353
-0.046768,-0.005692,0.283927,0.355951,-0.572367,-0.738712
-0.598114,-0.199498,0.100089,0.796001,-0.356182,0.489405
0.852317,0.106236,0.480542,0.793046,-0.377804,0.477852
-0.219378,0.646380,0.452667,-0.068134,0.673591,0.735958
-0.068801,0.181015,0.440419,0.881493,-0.343501,-0.324001
-0.086630,-0.010268,0.260326,0.777154,0.593456,-0.209385
0.294624,-0.486374,0.543989,0.157681,-0.831726,0.532324
0.909638,0.208085,0.466363,0.973362,0.162905,-0.161335
0.244306,0.162713,0.704825,0.745015,0.429017,-0.510781
0.523712,0.159357,0.696460,-0.533589,-0.791835,-0.297119
0.158981,0.041452,0.483621,0.984420,-0.091880,0.149920
-0.334019,0.826461,0.329105,0.612384,0.744019,0.267250
0.183442,-0.715741,0.346110,0.079921,0.678376,0.730355
-0.202387,0.320111,0.466984,0.295327,-0.111343,-0.948886
0.068431,0.032301,0.655740,-0.438080,0.868570,-0.231670
-0.334389,-0.331780,-0.004240,0.448919,-0.847931,-0.281931
-0.217139,-0.426905,0.093103,0.687747,0.353221,0.634224
0.209954,0.496362,0.501936,0.475995,-0.879246,-0.018853
0.248415,0.796490,0.418450,-0.144092,-0.958109,0.247518
0.282488,0.739079,0.426310,0.041185,0.992977,-0.110911
-0.411686,0.506538,0.461492,0.846344,0.432353,0.311084
-0.234597,0.661782,0.173486,0.927219,-0.313608,-0.204732
0.552651,0.010735,0.493572,-0.440422,0.880983,-0.172911
-0.715831,-0.631350,-0.954569,-0.407458,0.906840,0.107793
-0.106516,-0.174012,0.790700,-0.263548,0.809349,0.524879
0.269138,0.232079,0.241667,-0.011626,-0.264646,0.964276
0.212473,0.214245,0.449335,-0.198299,0.563161,0.802201
-0.516429,-0.485809,-0.489481,0.945259,-0.124847,-0.301493
-0.172143,-0.810216,0.246447,-0.303379,0.495803,0.813720
0.594103,-0.613236,0.505911,0.210111,-0.935532,0.283961
0.200804,0.229931,0.195156,-0.804252,0.172660,-0.568654
0.213219,-0.241321,0.786357,0.067596,0.997573,-0.016697
0.368189,-0.657115,0.498007,-0.153717,-0.570004,0.807135
0.487678,-0.598393,0.597946,-0.794567,0.447818,0.410028
-0.553215,-0.169904,-0.066515,0.723908,0.670670,0.161737
0.356520,-0.366970,0.634346,0.883389,0.180762,-0.432375
0.652449,-0.597180,0.503131,-0.205784,0.960822,-0.185670
0.096157,0.518766,0.460664,0.410997,-0.792480,-0.450618
0.158047,-0.215458,0.510278,0.829178,-0.558308,-0.027483
-0.179892,0.812364,0.182218,0.970795,-0.176387,-0.162620
-0.566844,-0.908983,0.733687,0.152894,-0.694553,0.703008
-0.449309,0.250096,0.308469,-0.586911,-0.689085,0.425084
-0.264095,0.348583,0.558420,0.361279,-0.929321,0.076424
0.598393,0.513911,0.241552,0.740611,0.599723,-0.303032
-0.044626,-0.013629,0.611090,-0.356266,0.682904,-0.637744
0.349420,-0.177653,0.948318,0.524102,-0.842040,0.127615
-0.652631,0.300225,0.410430,-0.678190,0.733759,0.040680
0.083456,-0.426814,0.206600,0.285665,-0.168182,0.943456
-0.385174,-0.502242,0.712845,-0.635043,0.203328,0.745237
0.051440,-0.091581,0.288638,-0.787576,-0.411468,-0.458715
-0.182975,-0.346155,0.750761,0.900738,0.427577,0.076478
0.100635,-0.091485,0.225535,-0.666791,0.657647,-0.350557
-0.562639,-0.424478,-0.593602,0.915472,0.395018,-0.076635
-0.518298,-0.189225,0.535073,-0.122732,0.920109,-0.371935
-0.048449,-0.179334,-0.119323,0.859657,0.509069,-0.042881
-0.384804,-0.360531,0.458228,0.828042,0.547444,0.121043
0.118281,-0.655155,0.268737,0.745149,-0.377151,0.550009
-0.623691,-0.898995,0.720727,0.648239,0.714068,0.264374
-0.852317,-0.484693,0.519447,0.723173,0.540865,-0.429518
-0.598769,-0.850916,0.737410,0.165423,-0.815826,0.554133
-0.178120,0.194826,-0.159583,0.972065,-0.232344,0.033249
-0.158890,0.234039,0.578482,0.627119,-0.650427,0.428565
0.286038,-0.640683,0.317363,-0.329420,0.203138,0.922072
-0.079348,-0.447537,0.349029,0.954710,-0.097064,-0.281260
0.149739,-0.808906,0.379799,0.855265,-0.515027,-0.057169
0.182975,0.768861,0.452093,-0.245045,-0.096844,-0.964663
-0.686146,0.299387,0.448462,0.948719,0.314521,0.031748
0.608946,-0.648062,0.432974,-0.573955,0.739837,-0.351023
0.433253,-0.255417,0.411625,0.749123,-0.615632,0.244565
-0.151699,0.057411,0.490561,-0.345183,-0.067912,0.936075
-0.338218,-0.671582,0.575724,0.761426,0.591300,-0.265697
-0.492624,0.051155,0.123896,-0.110028,-0.979477,0.168873
-0.162155,0.350167,0.562993,0.246345,-0.239745,-0.939062
0.313108,-0.268670,0.637356,0.748548,-0.232797,-0.620872
-0.279593,-0.060773,0.547045,-0.388371,0.399831,-0.830243
0.048825,-0.246267,0.569589,0.748710,-0.527587,0.401354
0.351665,0.212940,0.662932,-0.329188,0.942094,0.063991
-0.338777,-0.434375,0.076580,0.740277,0.565455,-0.363663
-0.332805,-0.213777,0.680972,-0.585862,-0.446974,-0.676003
-0.165796,0.655246,0.419921,0.367677,0.436779,0.820998
-0.379106,0.809749,0.331150,-0.685060,-0.433787,-0.585254
0.623697,0.065349,0.670998,-0.367702,0.534922,0.760693
-0.720971,-0.669810,-0.904749,-0.665031,0.745897,-0.037033
0.759802,-0.042569,0.498880,0.462316,0.823660,-0.328402
-0.117529,0.491974,0.568440,0.226703,-0.921626,0.314978
0.311803,-0.190906,0.164225,-0.320490,-0.907369,0.271970
-0.318618,0.829258,0.216527,-0.710314,0.695901,0.105716
-0.186331,0.718726,0.206186,-0.705685,0.564290,0.428468
-0.364081,-0.435492,0.463353,-0.669235,-0.202010,-0.715064
-0.260830,0.303211,0.474475,0.085800,0.205533,0.974882
0.202296,0.126122,0.347397,0.597731,-0.795342,0.100741
-0.137882,-0.864733,0.374697,0.124462,0.665905,0.735581
0.095405,-0.081029,0.699792,-0.470249,-0.076713,0.879193
-0.053212,-0.669531,0.695012,0.974767,-0.001603,-0.223218
-0.066841,-0.526327,0.562488,-0.658303,-0.725578,-0.200435
0.351477,0.036130,0.431894,0.429074,0.900036,0.076358
-0.104555,-0.767830,0.497708,-0.509702,-0.623343,-0.592999
-0.585140,0.342138,0.303620,0.176762,-0.744747,0.643511
0.671588,0.122202,0.718865,0.135161,-0.984719,-0.109818
-0.187265,0.218820,0.505452,-0.499494,-0.860891,0.096815
0.391431,0.449776,0.448370,0.813034,0.148337,0.563003
0.027914,0.383123,0.574322,0.685205,0.151390,0.712444
0.030341,0.599425,0.446417,0.055078,0.806879,0.588143
-0.856049,-0.400860,0.523836,-0.660395,0.118775,0.741466
-0.363705,-0.916077,0.414475,-0.005388,0.999877,-0.014746
0.817777,0.169249,0.438834,0.851251,0.523614,0.034634
-0.428210,-0.556571,0.255868,0.931323,-0.042150,0.361748
-0.199590,-0.517085,0.577792,-0.660288,0.713162,0.235412
0.601573,0.107638,0.673641,-0.075908,-0.571758,0.816903
-0.592422,-0.558070,0.806487,0.734092,-0.500664,0.458741
-0.006159,0.055081,0.232475,0.137816,-0.988945,0.054730
0.454540,0.133216,0.446899,-0.226043,-0.321389,-0.919572
0.013259,-0.329443,0.781393,-0.004528,0.935724,0.352705
0.128361,-0.736560,0.334758,0.988939,-0.006024,-0.148203
-0.840272,-0.735158,-0.976538,0.200289,-0.093997,-0.975217
-0.668875,-0.738144,0.648110,-0.126743,0.989762,-0.065638
0.229834,-0.392735,0.079958,-0.566123,-0.165404,0.807556
-0.574964,0.529130,0.343284,-0.236236,0.611770,-0.754937
0.661782,-0.209766,0.632530,0.488334,0.833811,0.257466
-0.338406,-0.239173,0.561408,-0.750821,-0.519241,0.408235
-0.600541,-0.274927,0.814116,-0.677413,-0.280393,0.680067
-0.476944,0.487120,0.479853,-0.458831,0.881610,-0.110624
0.199778,0.529780,0.516000,-0.245501,-0.893982,-0.374866
-0.284072,-0.272966,0.906702,0.881040,0.371819,0.292435
-0.736281,-0.582992,-0.992256,-0.225778,-0.166432,-0.959857
-0.524925,-0.593636,0.738467,0.962693,-0.011401,0.270356
-0.086818,-0.148338,0.460963,0.866561,-0.188191,0.462229
-0.235155,-0.346247,0.805545,0.927508,0.208821,0.310038
0.271844,-0.650300,0.565108,-0.325226,0.810206,0.487642
0.472368,-0.129945,0.885262,0.602554,0.738718,-0.302033
0.069827,-0.188946,0.341997,0.909458,-0.405672,0.091193
-0.477969,-0.634056,0.653833,0.029377,0.952848,0.302023
-0.274550,-0.026512,0.601163,0.725215,-0.678798,0.115306
0.646380,-0.608666,0.485689,0.334220,-0.913746,0.231009
-0.812734,-0.220592,0.554698,0.507817,-0.627087,-0.590664
0.591020,-0.706407,0.327588,0.287949,-0.938921,-0.188450
-0.764753,-0.823190,-0.989222,0.040876,-0.138807,0.989475
0.629202,-0.603812,0.714660,0.559954,0.782367,0.272677
-0.066465,0.208740,0.517494,0.783296,-0.533477,0.319138
0.769328,-0.119398,0.749520,0.041897,-0.992693,0.113157
-0.431948,-0.532116,0.528363,0.981640,0.185517,0.044344
-0.255041,0.237583,0.544747,0.967799,-0.132167,0.214234
-0.048637,0.440347,0.596728,0.942038,0.301192,-0.147814
-0.193801,0.045463,-0.125688,0.984829,0.150279,-0.086762
0.506721,-0.701365,0.301437,0.297318,-0.943375,-0.147125
0.001122,-0.465366,0.411557,0.240604,-0.739596,0.628575
-0.533141,-0.489171,0.389473,0.259151,0.350078,0.900159
-0.311706,0.439600,0.475877,0.884772,0.199103,-0.421350
0.168502,-0.541358,0.719348,0.928705,0.264918,0.259470
0.565443,0.513723,0.227856,0.756611,0.528836,-0.384542
-0.131255,0.305735,0.509496,0.002994,-0.011302,0.999932
0.595875,0.506721,0.241139,0.926315,0.289470,-0.241137
0.159072,0.080003,0.334023,0.652016,-0.749028,0.117611
0.377801,-0.514846,0.760551,-0.555660,0.449106,-0.699676
0.854654,-0.027446,0.411396,0.876789,0.414896,-0.243108
0.333273,-0.562172,0.372468,0.860934,-0.295428,-0.414144
-0.302840,-0.370519,0.340503,0.711376,-0.698741,0.075540
0.154964,-0.277166,0.397010,0.986323,0.124818,-0.107641
0.401886,0.376776,0.411120,-0.371643,-0.927153,0.047637
-0.043503,-0.327951,-0.081337,0.717144,0.558395,0.417014
0.590650,0.484038,0.237829,0.894004,0.339829,-0.292017
0.038837,0.285006,0.421277,-0.277446,-0.696436,-0.661816
0.624347,-0.358292,0.350384,-0.269529,0.880438,-0.390106
-0.667103,-0.449497,0.778613,0.475393,-0.833366,0.281963
-0.276043,0.601476,0.429182,0.117618,-0.864805,0.488139
-0.231235,-0.562081,0.340526,-0.698013,0.457900,0.550550
-0.835982,-0.482448,0.362495,0.080641,0.472702,0.877525
-0.490197,-0.182975,-0.152528,0.809093,0.476738,-0.343642
0.057412,0.702390,0.456229,0.345847,0.720012,0.601641
-0.531837,0.421213,0.382924,0.268703,-0.189992,-0.944299
-0.737774,-0.431669,0.323567,0.190551,0.026443,-0.981321
0.716954,0.174291,0.530270,-0.711237,0.640739,-0.289130
0.846061,0.142178,0.482748,0.808361,-0.078733,0.583399
-0.752617,0.127427,0.256811,0.832220,0.102218,0.544942
0.374440,-0.174759,0.933290,0.057676,-0.814492,0.577301
-0.545933,-0.205100,0.777280,0.033621,-0.994283,0.101348
-0.171585,-0.423919,0.699608,0.890575,0.421116,-0.171865
-0.416358,0.157768,0.238978,0.845618,0.475405,-0.242737
0.592143,-0.580565,0.458366,-0.227145,-0.967432,0.111719
-0.576268,-0.245144,-0.339055,0.918514,-0.379690,0.110305
0.305450,0.573841,0.419990,0.156280,-0.963174,-0.218797
-0.352036,-0.104276,0.540956,0.315841,0.265900,-0.910792
0.378548,-0.560776,0.721692,-0.581513,0.809073,0.085104
0.685399,0.247292,0.606954,-0.579417,-0.815022,0.003942
-0.632284,0.230301,0.454690,0.601625,0.778618,0.178328
-0.370149,-0.476100,0.758505,0.905920,-0.421554,0.040014
-0.253548,-0.900487,0.394574,-0.466485,0.884146,0.026044
-0.077109,-0.311615,0.363092,0.591081,0.540817,-0.598449
-0.849047,-0.313387,0.504625,0.782781,0.371662,-0.499121
-0.854648,-0.015777,0.373617,0.966636,-0.071415,0.245999
-0.264192,-0.512977,0.336895,0.808828,0.388518,-0.441419
-0.495706,-0.349329,0.025106,0.282697,0.943472,0.173038
-0.304703,0.576553,0.401078,0.760944,-0.412083,-0.501151
-0.620518,-0.552093,0.387887,-0.338891,0.799964,-0.495187
-0.258961,-0.911410,0.388944,-0.555553,0.758885,-0.339786
0.242626,-0.574685,0.614675,-0.726662,0.679508,-0.101151
0.519136,0.465742,0.254788,-0.588034,0.808804,-0.007198
0.649554,-0.589527,0.738031,-0.095013,0.361433,-0.927544
-0.272778,-0.285473,0.336757,-0.412785,0.910529,-0.023362
-0.422888,-0.290607,-0.148346,0.749004,-0.662537,-0.006218
0.111182,-0.046398,0.686165,0.810346,0.227410,-0.540023
-0.830193,0.515216,0.345719,0.551334,-0.810932,-0.196008
-0.371824,-0.737774,0.769834,0.221691,0.951368,0.213896
0.337751,-0.674476,0.586249,-0.145010,0.871376,0.468696
-0.126310,-0.357545,0.096481,0.713366,-0.559459,-0.422037
-0.509336,-0.189043,0.683683,0.100090,0.865031,0.491633
0.764189,0.058904,0.572966,0.577095,0.470119,0.667795
-0.088032,-0.430079,0.378833,0.469406,0.455357,0.756510
-0.123130,0.635828,0.481898,-0.620421,0.765731,0.169511
0.671400,-0.434934,0.722864,0.966732,0.244157,0.076272
-0.198000,-0.875377,0.378856,-0.687311,0.271506,-0.673713
-0.365009,-0.450055,0.783370,-0.573047,0.110939,0.811978
-0.687268,-0.570668,-1.000000,-0.048414,0.105769,0.993211
-0.510361,-0.717330,0.733205,0.374954,0.815011,-0.441776
0.839811,-0.138258,0.537624,0.962134,-0.129219,0.240001
-0.340366,0.021099,0.159399,0.329155,0.919950,-0.212955
-0.894328,-0.289490,0.510737,0.922309,0.355015,-0.152678
-0.138070,0.277445,0.466731,0.427847,0.233222,0.873244
0.701553,-0.162713,0.435593,-0.281403,-0.061597,-0.957611
0.307786,-0.277542,0.601714,-0.782882,0.620425,-0.046561
0.374440,-0.726475,0.403743,-0.761083,0.484818,0.430935
-0.303211,0.699593,0.352429,-0.702909,0.702980,0.108345
-0.650768,-0.059372,0.474912,-0.328969,-0.944339,0.001482
-0.052278,0.891992,0.301047,0.857845,0.050605,-0.511411
0.411595,0.406929,0.420358,-0.287165,-0.957258,-0.034543
0.122851,-0.662158,0.534223,0.463759,-0.885245,0.035615
-0.344286,0.189134,0.573288,0.720646,-0.548916,0.423511
-0.825150,-0.054614,0.531672,0.022652,0.999303,-0.029658
-0.195294,0.961728,0.237140,0.041441,-0.985162,0.166550
0.016057,0.145443,0.476681,0.700497,0.705097,-0.110190
-0.743842,-0.662995,0.668654,0.824884,0.528833,-0.199754
0.118464,0.666636,0.474108,-0.170751,-0.965791,-0.195172
0.212752,0.225732,0.653764,0.013448,0.800805,0.598774
0.503364,0.328418,0.405697,0.948586,0.244447,-0.201071
0.425504,0.677468,0.381223,0.562442,0.753602,-0.340211
0.117535,-0.710515,0.251112,-0.365791,0.885585,0.286245
0.788929,0.173545,0.533051,0.240930,-0.056505,0.968896
0.634523,-0.652916,0.328462,0.519044,-0.840213,-0.156959
0.146754,-0.808348,0.288936,0.703184,-0.710068,0.036552
-0.118276,0.173545,0.519102,-0.599182,-0.795710,-0.088464
0.394883,-0.329723,0.646111,0.806913,0.565328,0.171161
0.615481,0.080471,0.607505,-0.527593,0.831531,0.173788
-0.108663,0.201829,0.690761,0.332518,-0.108023,0.936890
-0.885644,0.431948,0.358841,0.955873,-0.208759,-0.206704
-0.111461,-0.447628,0.328370,-0.175007,0.584902,0.791999
0.536036,0.267924,0.652109,-0.526744,-0.848984,0.042031
-0.830660,-0.607635,0.349557,0.833815,0.522486,0.178215
-0.334953,-0.339062,0.038847,0.043691,-0.994423,-0.095985
0.530623,0.587191,0.335310,0.352415,0.931261,0.092506
-0.296208,0.640683,0.455655,-0.107868,0.590436,0.799844
-0.345688,-0.139563,-0.036710,0.875089,0.089520,-0.475610
0.637418,0.020632,0.797318,-0.086069,-0.995411,-0.041812
-0.462659,-0.692869,0.734147,-0.049415,0.279613,0.958840
0.419156,-0.660568,0.568876,-0.286900,0.927895,0.238117
0.693615,-0.282208,0.639056,0.207696,0.791761,0.574436
-0.451178,-0.461257,0.376719,0.963113,-0.267063,0.033019
-0.310122,0.716396,0.377133,0.765225,-0.570051,-0.299119
0.220130,-0.573374,0.731412,-0.652911,-0.722777,0.226498
-0.164115,-0.505883,0.178495,0.956440,-0.258745,-0.135184
0.128082,-0.717797,0.495295,0.494676,-0.853267,0.165015
0.356981,-0.162810,0.451886,-0.487356,0.121294,-0.864738
-0.167289,0.609601,0.475142,0.367032,-0.830456,-0.419084
-0.198747,-0.153192,0.291924,0.992726,-0.106868,-0.055456
-0.241321,-0.230398,0.182609,0.521476,-0.498651,-0.692394
-0.482824,-0.447628,0.771857,0.142026,0.678621,0.720626
-0.566189,0.237304,0.394965,-0.284373,-0.821038,0.495004
-0.347369,0.307598,0.474246,-0.405243,0.339226,0.848943
-0.033606,-0.418877,-0.046959,-0.486197,-0.418658,-0.767032
0.602598,0.474516,0.246814,0.934578,0.218090,-0.281071
-0.287433,-0.315159,0.810003,-0.251140,-0.967949,0.001753
-0.431201,0.100823,0.403767,0.807806,-0.585941,-0.064202
0.181106,-0.652637,0.587582,-0.773029,0.628576,0.085549
-0.427372,-0.371175,0.809819,0.368341,0.849178,-0.378446
-0.211071,-0.643389,0.674101,0.156107,0.492312,-0.856306
0.423544,-0.344663,0.696391,0.182020,0.981419,-0.060709
-0.729928,-0.549198,0.347351,0.857220,-0.397563,-0.327288
-0.531272,0.438763,0.480841,0.436640,-0.488806,-0.755257
0.258682,-0.746737,0.337355,-0.112870,-0.941112,-0.318697
-0.565813,0.254204,0.052245,0.996165,0.077377,-0.040843
0.716766,-0.401795,0.318029,-0.531049,0.809960,-0.248903
0.628176,-0.619025,0.273724,-0.495595,0.777696,0.386747
-0.434375,-0.097462,-0.071709,-0.227897,-0.971893,-0.059044
-0.653941,0.001214,0.154964,-0.568970,0.787147,-0.238060
-0.350075,-0.422706,0.226225,0.492596,-0.857417,0.148948
0.447537,0.430734,0.251847,0.817216,-0.504256,-0.279077
0.204632,-0.668876,0.494330,-0.421552,0.903973,-0.071596
0.024085,0.149181,0.457286,-0.506758,-0.839022,-0.198089
-0.255508,-0.786035,0.789275,0.016184,-0.906897,-0.421041
-0.019042,-0.493656,0.066561,-0.593512,0.109568,-0.797332
0.009800,0.792570,0.417279,0.578918,-0.796171,0.175968
-0.893484,0.229931,0.307987,0.892406,-0.446634,0.064257
0.468636,-0.727877,0.358519,0.219742,-0.922136,-0.318401
-0.150394,-0.086909,0.280181,0.877375,-0.434664,0.203177
-0.594752,-0.519512,0.795388,-0.467025,0.441880,0.765918
0.724145,0.103251,0.502028,-0.402592,-0.240817,-0.883135
0.750281,-0.143392,0.385865,-0.080437,-0.264616,0.960993
-0.138070,0.139284,-0.159468,0.986134,0.151056,0.068718
0.492812,-0.138725,0.508531,0.608499,0.546149,0.575717
0.631349,-0.582245,0.512989,-0.534443,0.779265,0.327286
0.568896,-0.063292,0.869222,-0.292068,-0.929228,-0.226345
