-0.426987,-0.478076,0.325908,0.916151,0.366346,-0.162657
-0.416297,0.018349,0.598604,-0.461314,0.800229,-0.383174
0.039006,-0.621603,0.321619,-0.622998,0.118448,-0.773204
0.489703,0.533993,0.567252,0.033501,-0.960337,0.276822
-0.103397,-0.728730,0.274674,0.294605,0.955616,-0.002424
-0.639104,-0.209732,-0.075056,0.827507,-0.479644,0.291846
-0.461463,-0.312233,-0.356662,0.128343,0.862944,0.488729
-0.820103,0.293864,0.331660,0.305213,0.339872,0.889568
-0.388057,0.294881,0.127255,0.571281,0.782282,0.248341
0.012060,-0.586940,0.142748,0.928837,-0.323871,0.179916
0.210127,-0.490762,0.435126,0.046314,0.965835,0.254987
-0.001653,0.282027,-0.989693,-0.008769,0.071779,0.997382
0.132790,0.178635,-0.291962,0.986308,-0.151795,0.064459
-0.156280,-0.060648,0.731992,-0.693013,0.656581,0.297713
-0.033107,0.101378,-0.049854,0.173485,0.975080,0.138281
-0.186680,-0.111262,0.716333,-0.596338,0.255612,0.760949
-0.037517,-0.029678,-0.494772,-0.819017,0.086761,-0.567172
-0.199530,-0.097305,0.918012,-0.553557,0.404226,-0.728132
-0.376837,0.115589,-0.343197,0.723520,0.465703,0.509549
-0.369164,0.218344,0.519675,0.801363,-0.399756,0.444987
0.085370,0.040326,-0.951426,-0.167928,0.068497,0.983417
-0.173400,0.162767,0.023988,-0.567117,-0.823165,0.027899
0.019107,0.261534,-0.993883,0.154411,-0.137750,-0.978357
0.046390,0.029761,-0.966087,-0.202943,0.104536,0.973595
0.078273,-0.132262,0.752107,0.880380,-0.323913,0.346427
0.539713,-0.210794,0.357892,-0.778727,0.244294,0.577844
0.373530,0.535182,-0.058599,0.162206,-0.525948,0.834906
-0.818233,0.115633,0.644419,0.801621,-0.256418,0.540050
0.128810,0.132646,0.346189,0.878749,0.477280,0.001892
-0.130437,0.008592,0.779603,-0.077691,-0.815900,0.572950
-0.879220,0.010839,-0.020829,0.229006,0.474613,0.849881
0.460743,0.090432,0.737578,-0.139940,-0.986175,0.088745
0.145447,0.259711,0.245150,-0.466598,0.747453,-0.472865
-0.072997,-0.318598,-0.265431,0.955608,0.287849,-0.062898
-0.119074,0.128528,0.342731,0.736529,0.674299,0.053341
-0.323423,-0.600222,0.389045,-0.731034,0.422463,0.535831
0.318773,0.410281,0.367335,-0.474054,0.875494,0.093715
0.492246,0.489573,0.081706,-0.308772,0.429812,0.848482
-0.208113,-0.228314,0.571141,0.213968,-0.970462,0.111454
0.276820,0.088860,0.919608,-0.447719,0.866682,0.220024
-0.574330,-0.047708,0.373253,-0.216901,-0.847531,0.484402
0.421427,0.460724,-0.108470,-0.333786,0.626434,-0.704392
-0.682593,-0.266371,-0.018103,0.756062,-0.542732,0.365804
0.329946,-0.079823,0.801513,0.879160,-0.458615,-0.129419
0.133220,0.734372,0.160003,-0.589150,0.586260,-0.556059
0.022607,-0.049319,0.813017,-0.748783,0.355291,-0.559546
-0.321410,0.178381,0.765040,0.189173,-0.755504,0.627238
0.236210,0.317029,-0.212035,-0.669307,0.714622,-0.203328
0.225997,0.148172,0.209841,-0.773698,0.401451,0.490130
-0.656413,0.067733,0.465015,0.922013,0.033024,-0.385749
-0.055067,0.264336,0.780367,0.713927,0.519765,-0.469205
0.571357,0.479645,0.294323,-0.647767,0.628850,-0.430052
-0.013064,0.091237,-0.632981,-0.430242,-0.741518,0.514823
-0.649173,0.268536,0.644884,0.829375,-0.392726,0.397370
-0.406323,-0.514096,0.379503,-0.482843,-0.708760,0.514316
-0.041257,0.130313,-0.358191,0.623670,-0.762932,-0.170204
-0.150287,-0.076133,0.783825,-0.154784,0.975114,0.158730
-0.806967,0.164465,0.346089,-0.351643,0.090672,-0.931733
0.297343,0.620458,-0.078414,-0.634662,0.679366,0.368327
0.257260,-0.139899,0.642789,-0.318580,0.609572,0.725898
0.063553,-0.643155,-0.410057,0.999475,-0.003688,-0.032191
-0.350370,0.104982,0.432266,0.497825,-0.428042,0.754288
0.155803,0.104558,0.555315,0.986522,-0.155240,-0.051729
0.109150,0.285293,0.857767,0.600512,-0.799389,-0.019043
0.549733,0.735687,0.051284,-0.056533,-0.481959,0.874368
0.504233,-0.102735,0.514222,-0.488803,0.241529,-0.838293
0.058040,-0.250886,0.891048,-0.277773,0.938636,0.204461
0.556253,0.073248,0.737046,-0.629130,0.700505,0.336879
0.184187,0.306591,0.766570,0.639627,0.024253,0.768303
0.137823,-0.125898,0.818669,0.825039,-0.148367,-0.545251
0.160693,0.063320,0.835725,-0.550233,0.828438,-0.104562
0.031430,-0.017839,0.830305,0.646512,0.115797,0.754065
-0.286697,-0.179906,-0.286477,-0.651382,0.398827,-0.645476
-0.505237,0.338877,0.532441,0.260923,-0.682207,-0.683018
0.220053,0.321610,0.336281,-0.360812,0.883476,-0.298805
0.296190,0.067394,0.674541,-0.037194,-0.293884,0.955117
-0.202933,-0.133324,0.070435,-0.724520,-0.329994,-0.605124
-0.136047,0.773998,0.206882,0.616117,0.461471,-0.638314
0.590057,0.096839,0.728003,0.606202,-0.752257,-0.258125
-0.501067,0.397637,-0.273111,0.178697,0.086883,0.980061
0.690360,0.196538,0.546438,-0.388817,0.340871,-0.855937
-0.325247,-0.581849,-0.040545,-0.160464,-0.810603,-0.563182
0.038237,0.003457,0.804738,0.842222,0.529952,0.099060
0.083740,-0.356866,0.435292,-0.446815,-0.002544,-0.894623
0.200203,0.271462,-0.965456,-0.140211,0.115933,0.983311
-0.592500,0.390806,0.505444,-0.260067,-0.423095,0.867961
0.250114,0.560595,0.212468,0.807680,0.164961,-0.566075
0.083020,0.172314,-0.552988,0.894433,-0.034363,-0.445881
0.102056,0.091025,-0.955216,-0.157517,0.264079,0.951552
-0.217844,0.383382,0.492711,-0.678708,-0.610292,-0.408532
-0.126363,0.151184,-0.025451,0.406634,0.912209,0.050239
-0.185147,0.248468,0.711578,-0.773215,0.300114,-0.558632
-0.044183,0.116990,-0.105478,-0.171056,-0.985174,0.013087
0.156234,-0.021361,-0.939623,-0.228824,0.326222,0.917180
-0.308367,-0.048599,0.335184,0.335881,0.796105,0.503389
0.107137,-0.631912,0.316831,-0.159695,-0.206292,0.965371
0.619063,-0.283892,0.460859,-0.649468,0.103391,0.753327
0.647640,0.155682,0.508603,-0.274916,-0.842655,0.462983
0.068973,-0.286269,0.588231,0.930868,-0.087100,0.354822
0.529163,-0.098959,0.490782,0.080557,-0.658560,0.748204
0.217176,0.053265,0.819600,0.884387,0.308135,-0.350589
-0.057270,0.212023,0.854343,-0.374682,-0.525801,-0.763640
-0.840337,-0.208502,0.105378,0.681873,-0.146740,0.716601
0.372953,0.399462,0.282487,0.428204,-0.837454,0.339577
-0.298683,-0.356187,0.523697,0.888383,-0.016081,0.458822
0.613597,0.599838,-0.079345,0.159061,-0.876187,0.454967
0.350563,0.255467,-0.016408,0.160609,0.843900,-0.511897
0.308657,0.507775,0.510165,0.991170,0.108772,0.075835
-0.289093,-0.063787,0.856438,0.882328,-0.470203,0.020152
-0.802123,0.021956,-0.132308,0.460321,0.478928,0.747484
-0.218563,-0.239897,-0.117380,-0.365604,0.899475,0.239330
0.691990,0.001802,0.441476,0.196605,0.191135,0.961672
0.656080,-0.308458,0.472596,0.469512,0.134514,-0.872619
-0.066143,0.355933,-0.606018,0.141112,0.259524,0.955371
0.491766,0.660253,-0.019300,-0.173827,-0.396334,0.901500
0.240910,0.628817,-0.252996,0.790709,-0.071673,0.607982
0.756814,0.068709,0.499692,0.843386,0.186365,-0.503953
0.369886,-0.021998,0.788048,0.847101,-0.505474,-0.164062
-0.056647,0.337349,0.813615,0.821648,-0.131545,-0.554609
0.014263,-0.597207,0.204721,-0.433818,-0.064585,-0.898683
0.082253,-0.001802,-0.954850,-0.144032,0.135873,0.980201
-0.675064,0.260983,0.720589,0.801124,-0.569149,0.185118
0.308370,-0.519358,0.325077,0.875086,0.008379,-0.483894
-0.064417,-0.369720,-0.117247,-0.454908,0.810444,0.369105
0.269917,-0.209437,0.394132,0.796175,-0.343594,-0.498044
-0.536114,-0.254535,0.328368,0.287040,0.928977,0.233687
0.573563,-0.180119,0.462954,0.347536,0.393945,-0.850897
-0.161603,-0.722704,0.257684,-0.294134,0.431658,-0.852735
-0.203366,0.081139,-0.396459,-0.091478,0.905703,0.413925
0.082590,-0.273668,0.541617,0.799789,-0.172125,0.575075
-0.055307,0.193527,-0.221212,0.804047,0.127071,-0.580828
-0.749094,0.047750,0.495869,0.864105,0.171863,0.473060
-0.904153,-0.093231,0.082237,0.563170,0.781470,0.268597
0.444443,-0.368277,0.362181,0.145070,0.764894,-0.627608
0.260853,-0.724485,0.048625,-0.480221,0.372963,-0.793906
-0.702680,0.490591,0.334985,-0.432188,0.639999,-0.635306
0.648167,0.356780,0.125426,0.251374,-0.532679,0.808124
0.147220,-0.290723,0.522866,-0.627255,0.216786,-0.748034
0.038286,0.466877,0.408428,0.971185,0.214556,0.103755
0.550310,-0.217666,0.609542,-0.555715,0.766743,0.321381
0.342460,-0.193781,0.399551,-0.138215,0.934387,0.328356
-0.785964,0.342611,0.286776,0.227086,-0.216262,0.949559
0.281950,-0.350627,0.163528,-0.198529,-0.908537,-0.367623
-0.127417,0.523006,0.261940,0.209249,-0.939001,0.272933
-0.837603,0.214781,0.424154,-0.112303,-0.479849,0.870134
0.477287,0.196751,0.315169,0.964599,0.087864,-0.248653
0.034307,-0.038161,0.823656,-0.761420,0.102865,-0.640045
-0.695970,-0.069685,0.401579,0.786195,-0.595532,-0.165040
0.072567,0.141554,0.832632,0.376119,-0.879737,0.290855
0.552753,0.375152,0.133605,0.109686,0.699557,0.706108
-0.026873,0.526059,0.364874,0.540948,0.591675,-0.597742
0.225230,0.321017,0.778605,0.644681,0.697611,-0.312611
0.153453,-0.250291,0.424022,0.945938,-0.130911,0.296756
0.601420,0.116397,0.717463,0.543296,0.834202,-0.094537
0.510417,0.221910,0.349813,0.945482,0.050628,-0.321714
0.587803,0.221527,0.669920,0.967832,0.251287,-0.012459
-0.025290,0.177021,0.741801,0.854263,0.326497,0.404517
0.238750,-0.063279,0.669653,-0.119790,-0.403746,0.906995
0.504663,0.524236,0.386385,0.962751,-0.153331,0.222710
0.166496,0.281476,-0.975862,-0.084206,0.051450,0.995119
-0.200344,0.044611,0.168249,0.455883,-0.889681,-0.025279
0.211037,-0.077788,0.816407,0.931455,-0.362825,0.027365
0.154940,0.467768,0.496235,0.058765,-0.790805,0.609241
-0.282430,0.166884,0.143978,-0.110330,-0.989924,-0.088761
0.682450,0.079613,0.013548,0.801823,-0.152143,0.577869
-0.235730,-0.275535,0.620547,-0.490263,0.870559,0.042061
0.022847,0.316773,0.408828,0.942000,0.331677,-0.051252
-0.264017,-0.523431,0.203491,-0.911964,0.352846,-0.209335
-0.290293,-0.432382,0.375514,-0.632173,0.001786,-0.774825
-0.032963,0.097600,0.901156,0.547365,0.401256,-0.734428
0.538467,0.910057,0.070202,-0.400401,0.154639,0.903197
0.642750,-0.263230,0.401114,0.606401,-0.231990,-0.760565
0.283533,0.345115,-0.169911,0.333354,-0.896219,0.292689
0.281950,-0.475021,0.446231,-0.551437,-0.488195,-0.676449
-0.848390,0.065824,0.321220,-0.304453,0.610621,-0.731061
-0.403733,0.405996,0.514155,0.874953,-0.032988,0.483082
0.158200,0.194374,0.892112,-0.143919,-0.820868,0.552687
-0.019057,-0.043974,0.109866,0.494652,0.513322,0.701299
-0.081007,0.037314,0.442341,0.777572,0.609289,0.155400
0.459210,0.517491,0.441742,-0.467667,0.841522,-0.270422
0.141563,-0.189197,0.867742,0.801598,-0.371581,-0.468367
-0.049073,-0.618972,0.309617,0.815807,0.345089,-0.464082
0.256347,0.085424,-0.951625,-0.153463,0.220352,0.963273
0.144776,-0.652829,0.353969,0.988386,-0.151727,0.008437
-0.071463,-0.246135,0.288039,0.308573,0.924890,0.222174
0.693286,0.091111,0.450287,0.618509,0.532877,-0.577484
-0.360390,0.039181,0.731061,0.502910,0.621382,-0.600804
-0.505047,-0.381302,0.599734,0.482849,0.765651,0.425013
-0.517750,0.011223,0.146172,0.201059,-0.926492,0.318099
-0.310860,0.045078,0.248674,-0.531898,-0.612213,-0.585047
0.084843,0.400436,-0.991688,-0.143176,0.186709,0.971926
-0.736917,0.150632,0.529782,0.911188,-0.405356,0.073640
-0.034257,-0.247491,0.564924,-0.213677,0.050143,0.975617
-0.492290,-0.290298,0.140354,-0.300141,0.778340,0.551454
-0.120083,0.335694,0.742732,-0.473706,0.760549,0.444035
-0.095773,0.187416,0.243056,0.935383,0.341668,0.091225
-0.043560,0.094503,0.843172,0.877466,0.468289,0.103724
0.568050,0.277149,-0.099726,0.813232,-0.511376,-0.277756
0.076643,0.007574,-0.958840,-0.173540,0.090134,0.980693
-0.870590,-0.027938,0.250403,-0.466130,0.741733,-0.482240
-0.078417,0.584651,0.481174,0.473505,0.874352,-0.106312
-0.347253,-0.430984,-0.532940,0.957490,0.278314,0.075862
0.145350,0.095735,0.592819,0.612990,-0.787854,0.059405
-0.484667,0.253346,0.162896,0.253309,0.799367,0.544836
0.428427,-0.366115,0.207148,0.817087,-0.503167,-0.281412
0.276150,-0.418171,0.279262,0.561366,0.463550,-0.685558
0.448133,-0.351096,0.217255,0.935936,-0.217143,-0.277260
-0.804760,-0.149063,0.357227,0.036022,-0.763106,0.645269
-0.021360,-0.277190,0.387349,0.855074,0.503067,-0.125590
0.287130,0.120978,-0.951392,-0.237858,0.157819,0.958393
0.279890,0.070788,0.939324,0.065153,0.997503,0.027259
-0.846810,0.137058,0.378938,0.383242,0.566105,-0.729829
-0.324190,0.176726,0.767999,0.189173,-0.755504,0.627238
-0.958957,-0.066842,-0.023057,0.736775,0.674172,0.051521
0.428907,0.493393,0.389577,0.624619,-0.768695,-0.137695
0.676264,0.216819,0.555382,-0.524566,0.155492,-0.837050
0.039293,-0.206127,0.812219,-0.275072,-0.961152,0.022842
-0.037517,-0.430984,-0.082171,0.883082,0.464590,-0.065752
0.035553,0.139560,-0.749381,-0.413136,0.841259,0.348714
0.276340,0.356526,0.875422,-0.562324,-0.088637,0.822153
-0.687673,0.725930,-0.414645,0.803154,-0.223140,0.552406
-0.133027,0.041980,0.826581,0.899945,-0.350676,-0.259085
-0.554910,-0.346218,0.401579,-0.298368,0.788757,0.537438
0.332440,-0.117158,0.484964,-0.744756,-0.232626,0.625478
0.199100,-0.042957,0.854410,-0.668082,0.433739,-0.604597
-0.419030,0.216436,0.580617,-0.689525,0.336417,-0.641388
-0.175317,-0.101844,0.780600,-0.534445,-0.826942,-0.174747
0.544650,0.033241,0.685479,0.972030,-0.234852,0.001502
-0.844507,0.041388,0.318727,-0.331837,0.631943,-0.700380
0.034500,0.098110,0.792802,-0.403238,0.171100,-0.898957
-0.947594,0.146815,0.431103,-0.707836,-0.422557,-0.566051
0.197660,0.176470,0.863819,-0.616365,0.444546,-0.649979
0.151680,0.126068,0.175330,0.888443,0.414113,-0.197940
0.503417,0.415541,0.072962,-0.167631,0.639096,0.750637
-0.548054,-0.458899,0.049556,0.039002,-0.896775,0.440765
0.425790,0.783670,-0.001081,0.378315,0.440123,-0.814353
0.467120,0.140536,0.375314,0.061977,-0.858339,0.509326
-0.062787,0.220211,0.854343,-0.495741,-0.242352,-0.833970
0.188503,0.475023,0.062156,-0.000183,0.299288,0.954163
0.212283,0.069558,0.859231,0.944383,-0.261256,-0.199715
-0.598637,0.184616,0.476719,-0.112636,0.797344,0.592921
0.577877,0.131923,0.358092,-0.244501,0.742579,0.623535
0.097070,0.052289,-0.956845,-0.136069,0.047338,0.989568
0.763960,-0.079823,0.421229,0.492751,-0.851807,-0.177825
-0.397740,0.037058,-0.289003,0.924450,0.378298,0.047776
0.156380,-0.502386,0.486028,-0.308514,-0.869053,-0.386736
0.601180,0.049915,0.185238,0.709474,-0.324171,-0.625747
0.782993,0.352497,0.403242,-0.397565,-0.036020,-0.916867
-0.674970,-0.330518,-0.167883,0.173522,0.236033,0.956127
-0.037133,0.229502,0.771890,0.770204,0.148738,-0.620212
0.123247,0.048812,-0.203325,0.982464,0.106963,-0.152721
0.570207,-0.336714,0.314338,-0.721680,0.690163,0.053419
-0.868530,-0.118771,0.084332,0.609015,0.601007,0.517582
-0.648837,0.122505,0.404106,0.439984,-0.098100,0.892631
0.531993,0.379565,-0.161566,-0.213964,-0.198646,0.956430
-0.275957,0.037610,0.571607,-0.088137,-0.863332,0.496879
-0.195023,-0.717274,0.298878,0.862377,0.093317,-0.497592
0.088487,-0.654696,-0.073427,0.516145,0.840196,0.166328
-0.402680,-0.415541,0.056970,0.781986,-0.129183,0.609761
0.356893,0.737596,0.020829,-0.516778,0.520972,-0.679359
0.102056,-0.019706,0.702037,0.198084,-0.131014,0.971390
-0.530984,0.001761,0.707090,-0.552367,0.778127,-0.299014
-0.071750,0.072611,0.393833,0.911468,0.404349,0.075687
-0.159637,-0.477696,-0.543845,-0.587930,-0.759093,0.279493
0.348837,0.841030,0.194747,0.251214,0.709424,-0.658490
0.477287,-0.128912,0.363411,0.163969,-0.449584,0.878059
0.197853,0.636749,0.533771,-0.738559,0.386918,-0.552109
-0.913983,0.036848,0.296551,0.087845,0.987696,-0.129383
0.655983,-0.091237,0.431003,0.885544,0.105775,-0.452354
-0.080717,0.073502,0.361217,0.847663,-0.530534,0.000450
0.021360,-0.159967,0.768498,-0.101628,0.877544,0.468603
0.142090,-0.491821,0.523930,0.233814,0.932320,0.275882
-0.195790,-0.070066,0.020597,-0.471315,-0.550978,-0.688684
-0.372570,-0.117966,0.424022,0.902738,0.291934,0.315973
0.110877,0.059757,-0.951160,0.072322,-0.029038,-0.996959
-0.130823,0.241934,0.924528,0.968136,0.002242,-0.250416
-0.099130,-0.256272,0.232017,0.991619,0.127219,-0.022531
0.546377,0.141512,0.591655,-0.770446,0.612167,0.177946
-0.896867,-0.231794,0.150129,0.872270,-0.129184,0.471652
0.517657,0.107486,0.635774,0.903066,-0.423445,-0.071876
0.051710,0.569845,0.054842,-0.487738,0.504626,-0.712365
-0.734470,-0.149998,0.366071,-0.055595,0.729390,-0.681836
0.090163,0.521098,0.520107,-0.023892,-0.837120,0.546498
0.357660,-0.377229,0.341967,-0.118901,-0.319039,0.940253
-0.585307,0.333786,0.518909,-0.484809,-0.634886,-0.601565
0.199770,-0.035403,0.604987,-0.431098,0.535671,0.726093
0.442333,0.513291,0.394165,-0.506483,0.861397,0.038356
0.124063,0.258947,-0.981248,-0.075960,0.190362,0.978771
0.364660,-0.489700,0.356662,-0.007765,0.691424,0.722408
0.603003,0.201119,0.646214,0.984391,-0.106271,-0.140290
0.294466,0.442608,0.638368,0.982838,0.154929,-0.100136
0.581137,0.105705,0.728036,0.743632,-0.648104,-0.164233
-0.747080,0.198659,0.382861,0.328096,0.864551,-0.380663
0.256203,0.257632,0.825185,-0.598256,-0.136441,0.789603
-0.380000,-0.133705,0.887025,0.835158,-0.443083,0.325866
0.372090,0.435013,0.320622,-0.519924,0.540285,-0.661643
-0.573610,-0.258564,0.616558,0.364224,0.220510,-0.904829
-0.069210,0.213424,0.758823,-0.621715,-0.076940,0.779455
-0.357897,0.170022,0.477882,-0.432627,0.602255,-0.670912
0.746123,0.318472,0.051650,0.667359,0.006349,0.744709
0.424927,0.561444,0.440545,-0.511431,0.819763,-0.257734
-0.779780,-0.349017,0.313374,-0.345670,0.466178,-0.814365
0.122383,-0.297639,0.385454,0.970312,-0.221042,0.098158
0.132070,0.253048,0.311013,0.725571,-0.478516,0.494539
0.532857,0.633439,0.402676,0.344899,-0.130629,0.929506
0.025533,0.319277,-0.987698,-0.087971,-0.045874,0.995066
0.157626,0.721518,0.101289,-0.578124,0.723795,-0.376687
0.567953,0.170872,0.657485,0.808511,-0.535896,-0.243155
-0.026393,-0.261366,0.430438,0.932792,0.249958,-0.259654
0.157817,-0.896693,0.009459,0.929244,0.302076,-0.212734
0.228203,-0.059586,0.345691,0.414468,0.102010,0.904328
-0.063264,-0.054115,-0.209808,0.905481,0.070050,0.418565
0.169517,0.088521,0.543313,0.959023,-0.228448,-0.167588
0.148756,0.051398,0.300241,0.969910,0.057381,0.236605
-0.351567,-0.316434,0.725742,0.005263,-0.999137,-0.041207
0.073573,0.008677,-0.956213,-0.173540,0.090134,0.980693
0.540767,0.068497,0.125526,0.677062,-0.352993,-0.645742
0.216263,-0.895378,0.058200,0.462590,0.656322,-0.596030
0.547720,-0.298147,0.252232,0.495582,0.482293,-0.722352
0.440560,0.127384,0.377941,0.463483,0.792392,-0.396608
0.379140,0.388007,0.182578,0.488942,-0.821204,0.294210
-0.700573,0.156870,0.330563,0.282104,-0.035411,0.958730
-0.401433,-0.401498,0.417605,0.644478,0.033962,-0.763868
-0.576294,-0.560170,0.144011,-0.563681,0.520778,0.641135
-0.533717,-0.154791,-0.402810,0.962405,-0.218259,0.161677
0.534487,-0.029846,0.416707,-0.720821,0.039823,0.691977
-0.068780,-0.279523,0.570044,0.147139,0.857520,0.492961
0.522547,0.210156,0.017471,0.052175,0.674782,0.736170
0.386620,0.557879,-0.055939,0.169875,-0.503296,0.847252
-0.673387,0.104558,-0.216025,0.502235,0.487200,0.714421
-0.044757,0.229375,-0.988463,-0.107011,0.152764,0.982452
-0.665763,0.020641,-0.176793,0.461746,0.342052,0.818408
0.572077,0.119155,0.412817,-0.166969,-0.596810,0.784818
-0.336657,-0.481683,0.321419,0.834576,0.474762,0.279435
-0.585644,-0.125305,0.450320,0.273768,0.858090,-0.434434
-0.281663,-0.626440,0.394232,-0.688771,0.673177,-0.269123
0.511520,0.292888,-0.188530,0.974259,0.152912,-0.165640
0.104597,-0.646550,0.232117,-0.512452,0.797871,0.317483
-0.767937,0.029761,-0.143147,0.402031,0.489638,0.773709
-0.737540,0.266371,0.275704,-0.616521,0.162208,-0.770448
-0.001317,-0.752361,0.266595,0.164400,0.803010,-0.572842
0.744923,-0.043804,0.438916,0.471164,-0.850117,-0.235171
0.405127,0.918289,0.015044,0.421473,0.354367,-0.834736
-0.679907,0.217241,0.641227,-0.673823,0.694122,-0.253293
-0.711743,0.140450,-0.139922,-0.785310,-0.578899,0.219463
0.599790,0.217624,0.767401,0.981854,-0.000671,-0.189635
-0.360534,-0.647738,0.340337,0.245901,0.772225,0.585834
-0.365090,0.025903,0.859496,-0.736054,0.252316,-0.628141
0.052813,-0.622113,0.208445,-0.022284,-0.434893,0.900206
-0.708580,0.190896,0.551958,-0.234768,0.903530,-0.358493
-0.812623,0.140960,0.383326,0.088358,-0.193054,0.977202
-0.477140,0.062005,0.467842,0.938534,-0.255732,0.231854
-0.298587,-0.074266,0.813349,0.878990,0.028541,0.475985
-0.101910,0.059504,0.389643,0.919264,-0.323861,-0.223758
-0.393760,-0.101122,0.437021,-0.290605,-0.946170,0.142517
0.126700,-0.448165,0.448325,0.208244,0.867088,0.452540
-0.658283,-0.350925,0.385853,0.730558,0.568083,-0.378902
0.401960,0.483040,-0.084731,-0.218564,0.516450,-0.827955
0.095294,0.258142,0.796127,-0.669393,0.710837,-0.215928
-0.148993,0.189920,0.575497,0.940979,-0.314255,0.125708
0.504950,-0.270869,0.424686,0.598148,0.334175,0.728386
0.540670,0.469930,-0.143180,-0.479459,0.390975,-0.785658
-0.452830,-0.599201,0.274408,-0.250746,0.643818,0.722928
0.263107,0.575994,0.548267,-0.822035,0.374823,-0.428680
-0.176610,-0.649901,0.260178,-0.161432,0.307159,0.937866
0.067293,0.076685,-0.965057,-0.101015,0.100621,0.989783
-0.057127,0.020809,0.481041,0.647691,0.750274,0.132610
0.519623,0.555970,-0.089685,-0.511957,0.570443,-0.642258
0.057417,0.159882,-0.561466,0.779452,-0.113340,-0.616124
-0.316087,-0.058654,0.938359,-0.582853,0.596246,0.552062
-0.250640,0.070662,0.833896,0.481470,-0.773447,0.412271
-0.688777,-0.367770,-0.135832,-0.189323,-0.178766,-0.965505
0.408147,-0.184956,0.780401,0.250501,0.220505,0.942670
-0.348357,-0.735687,0.131078,0.913879,0.006450,-0.405935
-0.333350,-0.475531,0.303500,-0.338025,-0.644135,-0.686171
0.725600,0.268451,0.084498,0.728761,-0.653487,0.204604
-0.053147,0.455931,0.548067,-0.170490,0.982414,0.076128
-0.319587,-0.339980,-0.035758,-0.559752,0.747603,0.357446
0.730540,0.771834,0.008329,0.018126,-0.219444,0.975457
0.262580,0.130652,-0.954019,0.245362,-0.105664,-0.963656
0.086090,0.114317,0.748949,0.776777,0.484158,0.402751
0.207730,0.791307,0.164226,0.770504,-0.570530,0.284287
0.185577,0.682103,0.044801,0.335230,-0.553761,0.762214
0.559993,-0.313974,0.378871,-0.447905,0.847770,-0.284019
0.070460,0.368448,-0.985305,-0.062492,0.292497,0.954222
0.409586,-0.081478,0.471599,0.017848,0.983479,0.180139
-0.263923,-0.275025,0.629956,-0.337613,0.907888,-0.248510
-0.180254,-0.055259,0.819633,-0.722858,-0.653190,0.225432
0.132884,0.153434,-0.221179,0.985324,-0.168896,-0.024717
0.282863,-0.194630,0.438218,0.813297,-0.289559,-0.504681
0.594660,0.608961,-0.077084,-0.305002,0.813435,-0.495275
-0.003187,0.420758,0.510398,0.855263,0.409511,0.317532
-0.294273,-0.732673,0.134104,-0.816528,0.309593,0.487273
-0.419510,-0.663816,0.062123,0.259403,-0.024693,0.965453
-0.417734,-0.352326,0.409825,0.911975,0.350180,0.213717
-0.552080,0.046222,0.416840,-0.238050,0.805056,0.543338
-0.073237,-0.333786,-0.249871,0.330935,0.848898,0.412134
-0.627213,-0.087630,0.388214,-0.300524,0.241589,-0.922670
0.492533,-0.279269,0.413715,-0.020367,-0.514732,0.857109
0.050753,0.189834,-0.785055,0.982763,0.148946,0.109505
0.052000,-0.242315,0.830638,0.853512,0.307551,0.420630
0.528157,-0.508282,0.389378,-0.794700,-0.137037,0.591331
-0.636754,0.237563,0.584141,0.824472,-0.454867,0.336663
-0.898447,0.387030,0.305927,0.260926,0.377739,0.888387
0.169180,0.123142,0.666994,-0.214172,0.916127,-0.338882
0.356843,0.065780,0.651966,0.356520,-0.088051,-0.930129
-0.437153,-0.056702,0.536531,-0.166837,-0.980674,0.102197
0.285450,0.154366,-0.953487,-0.154539,0.067874,0.985653
0.753650,0.001336,0.481373,-0.349161,0.475450,-0.807486
-0.009660,0.260136,-0.989627,0.025605,-0.068656,0.997312
0.352863,0.356907,-0.219250,0.099106,-0.840979,0.531914
-0.197420,-0.370782,0.490417,0.463582,0.313526,0.828730
0.122816,-0.016441,0.620015,0.792861,0.532140,0.296984
-0.445303,-0.459409,0.079910,-0.325074,0.533367,-0.780927
0.701723,0.618293,0.058532,0.427937,0.449011,-0.784385
0.528973,0.042786,0.692228,-0.063469,-0.980910,0.183813
0.360583,-0.206254,0.395063,0.105392,0.984322,0.141434
-0.537937,-0.286142,0.460627,0.839018,-0.014392,0.543914
-0.494977,-0.046054,0.713174,0.514918,-0.772431,0.371766
-0.263107,-0.405783,0.531377,-0.361869,-0.308322,-0.879766
0.330810,-0.127343,0.411088,-0.775454,0.431029,0.461394
0.667490,-0.372265,0.436988,-0.180291,0.010808,-0.983554
0.143480,-0.290979,0.508969,-0.795214,0.602522,0.067836
0.471003,-0.403577,0.299842,0.953338,-0.138734,-0.268142
-0.630667,-0.478799,0.082337,0.256294,0.966104,0.030917
0.100377,-0.727329,0.338376,0.956706,0.183530,-0.225898
-0.594657,0.406208,0.526756,0.596990,0.379238,-0.706952
-0.439360,-0.487114,0.365339,0.963383,0.257377,-0.075174
0.836550,-0.027938,0.462223,0.920336,-0.000621,-0.391129
0.494883,0.373878,0.151592,-0.057225,0.939594,0.337474
0.065663,-0.671665,-0.044735,0.564068,0.817659,0.115153
-0.162897,-0.554528,0.254792,0.901785,0.135536,0.410381
-0.152157,0.083091,-0.417006,0.146887,-0.903203,-0.403297
-0.312107,-0.150166,0.624304,-0.428888,0.374387,0.822125
-0.289140,0.329034,0.380667,-0.246884,-0.950090,-0.190726
-0.215783,-0.062005,0.731161,0.832653,-0.544673,0.100101
-0.057127,0.643707,-0.315568,-0.330762,-0.426144,0.842020
-0.218277,0.145839,0.691331,0.769898,-0.635164,0.061841
-0.213673,-0.576334,0.239864,-0.137932,0.433100,0.890730
0.270780,0.744978,0.069005,-0.400308,0.731988,-0.551315
0.664710,-0.071974,0.329166,0.794336,-0.071856,-0.603214
-0.730060,0.138500,-0.218752,0.259748,0.042547,0.964739
0.426797,-0.475489,0.358125,-0.122764,0.031130,-0.991947
0.157577,-0.240363,0.910697,0.455540,-0.659162,-0.598321
0.172730,0.123862,-0.956712,-0.067715,0.205526,0.976306
-0.456620,0.044653,-0.189427,0.319890,0.552804,0.769466
0.098890,-0.535140,0.305561,-0.186320,0.545830,0.816918
0.282717,0.083176,0.928319,-0.266788,0.963515,0.021520
0.038910,-0.622748,-0.040146,-0.536401,-0.840019,-0.081494
-0.208447,0.265439,0.464583,-0.507772,-0.504425,0.698371
0.034403,0.020301,-0.697581,0.423183,-0.123839,-0.897541
0.414717,0.499543,0.550196,-0.253789,0.950460,-0.179491
0.202600,0.538152,-0.109467,-0.680727,0.713526,-0.165806
0.148996,-0.072358,-0.708653,0.217525,0.799775,-0.559502
0.080480,0.515497,0.688904,0.918670,-0.350187,0.182796
0.527150,0.829576,-0.022126,0.971530,-0.174325,0.160439
0.086953,0.222249,-0.383991,0.937212,0.306439,-0.166521
-0.031957,0.089795,-0.285180,-0.261648,0.964747,0.028342
-0.538417,-0.473622,0.057701,-0.062668,-0.985627,0.156881
-0.626254,0.188731,0.333023,-0.266587,-0.823667,-0.500505
-0.522593,0.215247,0.714505,0.504420,0.855278,-0.118579
-0.640830,0.173969,0.401812,0.733011,0.369243,-0.571275
-0.385803,-0.235018,0.610041,0.015628,0.984652,0.173825
0.058856,0.059926,0.833098,0.591109,-0.799936,-0.103406
-0.888570,0.046352,0.339207,-0.534475,0.541679,-0.648783
0.096686,0.319404,0.364442,0.925031,0.143845,0.351604
-0.440413,-0.515199,0.317796,0.942706,0.092831,-0.320451
0.485340,-0.088309,0.371158,0.475920,-0.344472,0.809221
0.388106,0.255638,-0.005968,-0.346217,-0.931619,0.110546
0.780550,0.154281,0.545907,-0.068540,-0.626859,0.776112
-0.604680,-0.114061,0.367767,-0.304879,0.598889,-0.740527
0.250497,0.084660,0.932341,-0.187229,-0.669778,0.718570
0.177763,0.118559,0.807431,0.915467,0.280228,0.288777
-0.568047,0.347828,0.528119,0.330835,0.707395,0.624612
0.147126,0.128062,0.052448,0.998356,-0.056389,0.010308
-0.404357,0.323052,0.539058,0.645628,0.407424,0.645887
-0.522547,0.262681,0.570509,-0.038805,0.331725,0.942578
0.037567,0.177066,0.905179,0.843061,-0.528882,0.097635
0.186873,-0.262552,0.304065,0.248907,0.530166,0.810537
0.255243,0.077024,0.606350,0.453575,0.874327,-0.172689
-0.216454,-0.195011,0.100091,0.808082,0.371028,0.457539
-0.334834,-0.706709,0.160701,0.364785,0.911909,-0.188024
-0.479297,-0.271928,0.473327,0.637099,-0.468622,0.611962
-0.853137,0.208289,0.343995,0.389198,0.625136,0.676557
-0.399037,0.246686,0.536098,0.869584,0.443037,0.218041
0.182317,-0.690460,0.215061,0.106240,-0.442831,0.890288
0.654783,0.823551,0.021029,-0.389488,0.599917,-0.698855
0.581617,0.007657,0.397623,-0.302769,-0.319783,-0.897814
0.294560,0.358986,0.879711,0.908037,0.411768,-0.076915
-0.758107,0.359199,-0.185105,-0.376244,0.320666,-0.869261
0.509890,0.537473,0.573568,-0.215385,0.944368,-0.248552
-0.386137,-0.182749,0.848890,0.873347,-0.362612,0.325235
-0.491957,-0.623895,-0.369263,0.338803,0.746954,0.572077
-0.888570,-0.121656,0.113025,0.737288,0.551305,0.390472
0.400954,0.411553,-0.134935,-0.278589,0.479081,-0.832388
0.633880,0.227001,0.394298,0.774459,-0.610119,-0.167237
0.312684,-0.143718,0.673277,-0.019679,0.822618,0.568253
-0.751107,-0.274305,-0.143911,0.025940,0.855892,0.516503
-0.106080,0.188179,0.773984,-0.133278,-0.872926,-0.469295
0.155563,0.097517,0.635076,0.342208,0.932772,-0.113267
0.452977,0.509046,0.349747,-0.257566,0.725225,-0.638520
-0.539087,0.182325,0.411354,-0.373325,0.892863,-0.251843
-0.353917,-0.306676,0.734120,-0.306392,0.922778,0.233677
-0.740127,-0.176045,0.384656,0.059202,-0.629952,0.774374
0.466257,0.082666,0.087790,-0.518769,0.540656,0.662246
-0.116727,0.019240,0.668523,-0.410606,0.820898,0.396898
-0.319493,-0.646931,0.348583,0.759959,-0.353055,0.545723
0.226523,0.242952,-0.967783,-0.063167,0.180174,0.981604
-0.124877,0.019537,0.354335,0.909602,-0.409038,-0.072882
-0.400330,0.294923,-0.536564,-0.032957,-0.476963,0.878305
0.177093,0.250376,-0.449256,0.922286,-0.332237,0.197503
0.285883,0.076897,0.928185,-0.228309,0.973577,0.004689
0.296910,-0.239218,0.441410,-0.755396,0.311179,0.576667
-0.248147,0.175579,0.113524,-0.066090,-0.995297,0.070819
0.072327,0.324707,-0.981282,0.109963,0.111120,0.987705
0.815263,0.425979,0.088687,-0.570827,0.202783,0.795635
-0.210077,-0.520290,0.221445,-0.441977,0.444555,0.779119
-0.115863,-0.605906,0.435458,0.722190,0.507084,0.470434
0.132884,0.245371,-0.505079,0.845749,-0.505580,-0.170580
0.473547,-0.394115,0.306824,0.919194,-0.188066,-0.345996
-0.069403,-0.302816,0.547004,0.416869,0.885979,-0.203129
-0.508977,0.015803,0.665597,0.468030,-0.808720,0.356258
0.193153,-0.247577,0.732259,0.272215,-0.949343,-0.156995
-0.193870,-0.048004,0.636439,0.990373,-0.137280,-0.017784
-0.182603,0.210030,0.099792,0.672009,0.678733,0.296184
-0.634214,0.021956,-0.180484,-0.430048,-0.436124,-0.790477
0.094240,0.292634,-0.987998,-0.172874,0.087624,0.981039
0.141803,-0.704419,0.192885,0.379628,0.428896,-0.819714
0.497903,0.536285,-0.085995,0.557182,-0.539306,0.631426
-0.049647,0.259245,-0.992253,-0.033667,-0.035493,0.998803
-0.523553,0.301500,0.547769,0.189460,0.136927,0.972294
0.269820,-0.315923,0.326573,0.285146,0.681284,0.674199
0.235540,0.022847,0.222409,0.717145,0.510497,-0.474443
0.081103,0.097644,-0.967783,-0.067780,0.155828,0.985456
0.082300,0.192763,0.849788,-0.478110,0.179227,-0.859819
-0.430873,-0.621051,0.010423,-0.187405,0.840276,0.508739
0.222737,0.333700,0.323946,-0.360812,0.883476,-0.298805
0.511040,0.804246,0.059131,0.660058,0.231233,-0.714741
-0.302374,-0.578201,0.382529,-0.634533,0.526109,0.566196
-0.234100,-0.255213,0.647045,-0.499010,0.626813,-0.598410
0.279313,-0.227594,-0.108071,-0.716583,0.444207,0.537763
0.024526,0.367091,0.518078,-0.456175,-0.141406,-0.878584
0.122623,0.181393,0.441709,0.884400,-0.463478,0.055008
0.497230,0.808703,-0.003541,0.486426,-0.869425,-0.086546
-0.839904,0.199721,0.416507,0.208828,-0.772809,0.599297
0.656413,-0.110286,0.517546,0.806969,-0.444305,-0.389093
-0.771054,0.087079,-0.201297,-0.256446,-0.419962,-0.870556
0.097020,0.356314,-0.984740,0.196903,-0.252697,-0.947298
-0.146693,-0.690716,0.281290,-0.498516,0.016740,-0.866719
-0.149713,-0.759021,0.225302,-0.076298,0.996772,-0.024966
0.140173,0.175325,-0.137794,0.882519,-0.434853,-0.179064
0.514350,0.133366,0.604256,0.934805,-0.355145,0.003454
0.054157,0.204133,0.624104,0.700103,-0.595735,0.393644
-0.575720,0.283723,0.566387,-0.419162,-0.044690,-0.906811
0.009997,-0.365478,0.742465,0.944561,0.243129,-0.220665
0.538513,-0.245412,0.330729,0.784823,0.391696,-0.480237
0.047683,-0.085763,0.839382,0.954997,0.276102,-0.108387
-0.534150,0.469549,-0.279761,0.418075,0.176320,0.891137
0.166160,-0.008253,-0.268556,0.878975,0.476685,0.013219
0.663893,0.139094,0.525692,-0.200059,-0.830857,0.519281
0.007313,-0.610911,0.353836,-0.289090,0.743132,0.603474
-0.603097,0.106637,-0.142881,-0.096728,-0.546061,0.832142
0.182030,0.098535,-0.951426,-0.006452,0.135031,0.990820
0.522067,0.700939,-0.015277,-0.106554,-0.318593,0.941884
0.174407,0.093910,0.522367,0.994043,0.021733,-0.106796
0.411887,-0.059713,0.630954,-0.649878,0.000333,0.760039
-0.277250,-0.143252,0.139290,0.930449,-0.363256,0.048050
0.564837,0.431704,0.111928,-0.038894,0.946205,0.321221
0.136673,0.275916,-0.975464,0.112031,-0.131326,-0.984989
0.303336,0.263572,0.717264,-0.678291,-0.664675,0.313254
-0.287127,-0.155723,0.210673,0.868841,-0.494996,-0.009722
-0.503463,-0.490591,-0.411786,-0.454159,0.035082,-0.890230
-0.034640,0.161622,0.264002,0.979182,0.178019,-0.097527
-0.308417,0.062896,0.793068,0.222863,-0.818210,-0.529966
0.116536,0.496151,0.559571,0.137321,-0.933072,0.332444
0.369646,0.594579,0.605320,0.956037,-0.286688,0.061666
0.099707,0.278420,0.918677,-0.245747,0.575174,0.780246
-0.021167,0.137058,-0.352772,-0.532687,0.813030,0.235003
0.567953,-0.302432,0.294190,-0.629633,0.171125,0.757811
0.627360,0.021531,0.449622,-0.592128,0.393100,0.703461
-0.703113,0.209649,0.700374,0.751287,-0.621329,0.222527
0.017046,-0.056065,0.531344,0.831849,0.464020,0.304488
-0.760170,0.215545,0.402610,-0.081120,-0.928461,0.362464
0.606837,0.120426,0.718295,0.543296,0.834202,-0.094537
0.058183,0.820285,0.211071,0.739700,0.207751,0.640065
0.817467,0.009736,0.388613,-0.435147,0.879243,0.193854
0.044950,0.145881,0.204522,-0.414116,0.585642,-0.696801
0.744827,0.529413,0.055274,-0.600742,0.240238,0.762493
0.653010,0.161283,0.515651,-0.225738,-0.835827,0.500435
0.080000,0.089244,0.782562,0.215680,0.467060,0.857518
0.574570,-0.466664,0.306292,0.946408,0.049777,0.319114
-0.688490,-0.065400,0.510664,0.629519,-0.575654,0.521851
0.260136,0.356314,0.035325,-0.047917,-0.711715,0.700832
-0.454940,-0.690079,0.063952,0.142099,-0.594441,0.791485
0.121043,-0.004899,-0.951824,-0.222483,0.229522,0.947534
0.222930,0.460173,0.590425,-0.025017,-0.753826,0.656597
-0.087287,-0.651048,0.213964,-0.582639,-0.020234,0.812479
-0.547047,0.226322,0.557909,-0.616506,-0.786867,0.027576
-0.262530,0.082327,-0.448491,-0.032992,0.951296,0.306508
0.364610,0.712056,-0.046929,-0.400886,-0.429841,0.809029
0.536597,0.291318,-0.175297,0.894627,-0.049996,-0.444009
0.072903,0.732080,0.178456,0.733089,-0.324955,0.597483
0.512480,0.581723,0.328235,-0.637937,0.296051,-0.710908
-0.559850,0.114273,-0.159272,-0.101927,-0.847898,0.520268
-0.450337,-0.169810,0.495803,0.578115,0.693827,0.429404
-0.227434,-0.116226,0.803109,-0.168506,0.777042,0.606475
-0.313500,-0.548632,0.343363,-0.606164,0.275150,0.746229
0.755473,0.054200,0.480442,0.841186,0.316391,-0.438524
0.145687,0.007787,-0.949464,-0.152503,0.311822,0.937822
-0.292067,-0.421522,0.499925,-0.513048,0.837367,-0.188675
-0.101527,0.018688,0.486427,-0.148286,-0.981145,-0.123958
0.821640,0.342737,0.401380,-0.397565,-0.036020,-0.916867
0.650517,0.640270,0.051683,0.573502,0.168693,-0.801647
0.009950,0.294457,-0.780401,0.540760,0.651058,0.532637
-0.207010,0.315926,0.189826,0.683059,0.336882,-0.648029
0.799343,0.361956,0.393367,-0.397565,-0.036020,-0.916867
0.067870,-0.101844,0.821528,0.421428,0.877783,0.227806
-0.431400,0.397212,0.496434,0.924111,0.146367,-0.352982
0.432167,-0.064848,-0.425218,0.863789,0.112054,-0.491236
-0.046437,-0.082920,0.229624,-0.590398,0.427250,0.684754
-0.086280,0.218262,0.859663,0.135385,0.810511,0.569862
-0.193104,-0.605142,0.317896,-0.833364,0.135551,0.535846
-0.319204,-0.010966,0.327005,-0.658217,0.561687,-0.501257
-0.327883,-0.443160,0.366437,-0.433689,-0.718418,0.543865
0.305923,0.440998,0.559106,0.556469,0.544063,-0.627963
0.225997,0.124626,-0.062222,0.103284,0.899456,0.424630
0.109967,0.172228,-0.525559,0.835548,-0.514355,-0.193130
0.255483,-0.161156,0.329067,-0.228807,-0.973182,-0.023740
0.276100,-0.329373,0.318328,-0.198746,0.498869,0.843582
0.643564,-0.183472,0.408861,0.918740,-0.331280,-0.214871
0.412030,0.493818,0.398088,0.784821,-0.613427,0.088104
-0.007790,-0.046561,0.885962,0.902497,-0.211710,-0.375072
-0.380480,0.020175,0.624171,0.370191,-0.825109,0.426795
0.155563,-0.076048,-0.700075,0.217525,0.799775,-0.559502
0.185770,0.170954,0.846098,0.791633,-0.610692,0.019302
-0.152687,-0.491440,0.320755,-0.307721,0.612218,0.728352
0.537316,0.148131,-0.109933,-0.588440,-0.686957,-0.426413
0.168653,-0.514860,0.302302,-0.233964,-0.678472,0.696374
0.410113,-0.296790,0.565822,-0.246267,0.861979,0.443109
0.524943,0.131670,0.391971,0.964383,0.264380,-0.008219
-0.479490,-0.093358,0.352074,-0.389765,0.920760,0.016885
-0.272840,0.380922,0.481041,0.593262,0.574831,-0.563568
-0.611150,0.200909,0.449622,-0.359538,0.500187,0.787747
-0.385227,-0.293100,0.738343,-0.028578,0.940127,0.339625
0.650613,-0.218981,0.475954,0.924679,-0.353116,0.142402
0.005777,0.279269,-0.104480,0.395943,0.787957,-0.471543
0.255820,0.142701,0.280525,-0.491982,0.487556,0.721279
-0.304150,0.236717,0.701970,0.170198,0.947809,0.269612
0.096397,0.329332,-0.295852,0.940240,0.164339,-0.298230
-0.638193,-0.231962,-0.246746,-0.266049,-0.940601,-0.210919
0.664183,-0.060648,0.360519,0.207871,0.303067,0.930022
-0.929183,0.221612,0.320755,-0.427101,0.776795,-0.462790
0.300986,0.390850,0.379636,-0.634320,0.773060,-0.004051
0.677320,0.376424,0.084897,0.878325,-0.171365,0.446294
0.401913,-0.308499,0.406899,-0.232985,0.854781,-0.463753
0.091700,0.411340,-0.988962,-0.126984,0.204265,0.970645
-0.012970,0.458306,0.499892,-0.912448,0.137114,-0.385535
-0.605063,-0.652998,0.013848,-0.161382,-0.068194,-0.984533
-0.228537,-0.165778,0.837354,0.039369,0.871892,0.488113
0.230887,0.347575,0.361915,0.341884,-0.828191,0.444089
-0.044373,0.105790,0.258648,0.991675,0.048971,0.119089
-0.581520,-0.018986,0.793700,-0.385351,0.912069,0.140122
0.155610,0.337222,-0.983243,0.038287,0.150480,0.987871
-0.324094,0.126918,0.732458,-0.693455,0.611653,-0.380790
0.264547,0.611082,-0.093608,-0.564111,0.612708,-0.553504
0.492917,0.509981,0.384656,0.515772,-0.758957,0.397446
0.027306,-0.110457,0.606616,0.485754,-0.694944,-0.530184
0.504903,-0.349610,0.326739,-0.607902,0.790343,-0.076248
-0.097690,0.201968,-0.991489,-0.215374,0.187594,0.958344
0.535830,-0.063704,0.455540,0.796433,0.117655,0.593171
0.110303,-0.204048,0.546272,-0.741927,0.093028,-0.663995
-0.241674,-0.176895,0.908337,0.298926,0.949487,0.095488
0.671950,0.589615,0.033729,-0.552854,-0.315719,0.771151
0.199723,0.119450,0.861225,0.685743,0.380870,-0.620237
0.444873,0.135911,0.373685,0.357267,0.828406,-0.431397
-0.321123,-0.568910,0.278564,0.154148,-0.675283,0.721271
-0.406994,-0.576844,0.069903,0.792975,0.494191,-0.356321
-0.037087,-0.081097,0.243089,0.477186,-0.225600,-0.849352
-0.452207,-0.099425,0.470169,0.371931,0.893933,-0.250101
-0.290533,0.206508,0.800117,0.725421,-0.583151,0.365649
0.344760,0.720329,0.006899,-0.498958,0.658959,-0.562863
-0.938387,-0.213466,0.198703,0.874811,0.336764,0.348276
0.002230,0.243631,0.696152,0.985719,0.157116,0.060609
0.430587,0.351138,0.164824,0.246295,-0.956222,-0.158046
0.567187,-0.338325,0.308752,0.780251,-0.595244,-0.192078
0.294560,-0.130522,0.761549,0.849040,-0.515534,0.115570
0.797907,0.017204,0.358790,0.237624,-0.724539,-0.646977
-0.509217,-0.612822,-0.408162,-0.257823,-0.676734,-0.689607
0.461367,0.524024,0.399518,-0.546014,0.834436,0.074737
-0.395967,0.153263,0.846098,0.965112,-0.139953,0.221298
0.642510,0.222969,0.471100,0.807356,-0.575261,-0.131343
0.111550,-0.107572,0.820331,0.466380,0.745072,0.476820
-0.320643,0.149234,0.822592,0.849547,0.309539,0.427148
-0.775753,-0.088267,0.197606,0.388878,0.891969,-0.230576
0.682930,0.499416,0.054310,-0.550648,-0.405734,-0.729498
0.356987,0.599670,-0.299643,0.645948,-0.278015,0.710956
0.040540,-0.007362,0.926822,0.553689,-0.320383,-0.768624
0.490617,0.515072,0.578156,0.133437,-0.917683,0.374236
0.487210,-0.152119,-0.335982,0.764677,-0.032861,-0.643575
-0.342843,-0.101080,0.380567,-0.884930,-0.086356,-0.457647
0.019970,0.514774,0.437353,0.787819,0.578125,0.212399
-0.125067,-0.334550,0.323082,0.933418,-0.283587,0.219795
-0.826000,0.044485,0.316067,0.303913,-0.636095,0.709239
-0.048017,0.786938,0.211936,-0.162766,-0.600300,0.783037
0.093810,0.335484,-0.307954,0.955276,0.058171,-0.289938
-0.792774,0.152458,0.599867,0.751644,-0.169094,0.637526
-0.083020,-0.497888,0.179952,0.291797,0.935043,-0.201368
-0.065614,0.213380,0.848192,0.713507,-0.101531,0.693252
0.378180,-0.110710,0.408362,-0.008561,-0.277315,0.960741
-0.924820,0.242442,-0.076885,0.093864,0.861087,0.499718
0.584207,0.115123,0.702336,-0.064822,0.870175,0.488461
-0.090307,0.880954,-0.094074,0.317161,0.938500,-0.136475
-0.745114,0.031713,0.271482,-0.107989,-0.903451,0.414867
0.225517,0.203243,-0.960967,-0.023724,0.000523,0.999718
0.120274,0.143887,0.116582,0.813814,0.549680,0.188569
0.220916,0.032138,0.575862,0.689250,0.195274,-0.697713
-0.076020,0.013597,0.768532,0.333160,-0.121568,-0.935000
0.112077,0.137226,-0.244319,0.941959,-0.326289,-0.079045
0.497617,0.597718,0.393899,-0.036368,-0.554605,0.831319
0.351090,0.414903,0.411853,-0.314685,0.894278,-0.318181
0.750247,0.295645,0.053479,0.932055,-0.116928,0.342932
-0.406660,0.114698,0.739839,-0.519243,0.810018,0.272502
-0.204757,-0.020428,1.000000,0.825864,-0.395000,0.402398
-0.501067,-0.088607,0.386153,-0.618399,0.784743,-0.041961
-0.356220,-0.110625,0.802011,-0.624084,0.383295,-0.680885
0.267567,0.099425,-0.047727,-0.022854,0.892112,0.451237
-0.402247,-0.412402,0.218186,0.854315,-0.380767,-0.353783
0.218997,0.049617,0.853312,0.685051,0.436891,0.582951
0.487114,-0.412995,0.406201,0.889143,0.319187,-0.327940
0.081246,-0.198066,0.736049,0.894038,0.348403,-0.281624
-0.445497,0.051525,0.713075,0.761800,-0.254644,0.595666
-0.623523,0.047071,0.515186,-0.680052,-0.387078,-0.622656
0.426607,0.014361,0.707589,0.087695,0.359780,0.928907
-0.111020,0.284573,0.812551,-0.463018,0.542856,0.700658
0.329946,0.035023,-0.512825,0.731561,-0.065064,-0.678664
-0.462613,-0.241170,0.347386,0.284274,0.901202,0.327143
0.677990,0.798648,0.004139,0.085665,-0.254193,0.963352
0.366386,0.548717,0.598471,0.790052,-0.228873,0.568713
0.732937,0.071467,0.279694,-0.554173,0.410186,0.724320
0.360057,-0.264463,0.492079,0.691219,0.537736,-0.482759
-0.659627,-0.275662,0.318095,0.804354,0.287157,-0.520150
-0.934264,0.141341,-0.057468,0.183544,0.229947,0.955739
-0.209360,-0.371248,0.191057,0.912028,-0.261654,-0.315820
0.217750,0.058442,0.642391,0.610300,0.682410,0.402306
-0.559800,-0.255721,0.573203,0.975854,-0.205633,0.073648
-0.365953,0.073546,0.788048,0.207974,0.869160,0.448673
-0.640543,0.291531,0.624836,0.938966,-0.309141,0.150911
0.353823,0.481132,0.585006,0.850475,-0.503557,0.152060
0.256347,-0.861777,-0.076718,0.080733,0.291361,0.953200
0.068683,0.019154,0.949132,-0.503219,0.033766,-0.863499
0.304103,0.478374,0.453478,-0.588570,0.436043,-0.680773
0.037423,0.187587,-0.839581,-0.057800,0.976948,0.205506
-0.032437,0.272990,-0.989427,-0.113582,-0.021174,0.993303
0.664710,0.129929,0.481473,0.522639,0.803859,-0.284007
-0.173927,-0.259711,0.549231,0.140083,0.988898,-0.049563
-0.701820,0.229207,0.700972,0.775757,-0.580864,0.246571
0.162467,0.773955,0.177558,-0.430237,0.755422,-0.494200
0.237457,0.122886,0.821328,0.260474,-0.952704,-0.156550
-0.440317,-0.285420,0.679362,-0.209216,0.818229,0.535471
-0.327690,-0.667380,0.075555,0.134476,0.606827,0.783375
-0.300744,0.106893,0.700009,0.653880,0.713753,-0.250994
-0.114473,0.158652,0.490017,0.968812,0.188631,0.160692
-0.953970,0.196751,-0.097797,0.410566,0.633138,0.656179
0.355117,-0.257122,0.486394,0.671229,0.536050,-0.511960
-0.162083,-0.614391,0.268889,-0.289079,-0.017552,0.957144
-0.063504,0.080165,0.194447,0.938696,0.338467,-0.065496
-0.297627,-0.316561,0.754002,-0.244394,-0.941094,-0.233694
0.289910,-0.381090,0.377807,0.123028,0.595092,0.794185
-0.546040,0.008973,0.572737,0.859458,0.078748,-0.505105
0.378757,0.733862,-0.046962,0.531666,0.171451,-0.829419
-0.438113,-0.512780,0.560635,0.843132,0.533886,-0.063995
-0.636803,0.040199,0.459928,0.198698,0.314886,0.928098
0.098987,0.333361,-0.964625,0.248247,0.045102,0.967646
0.136240,0.488683,-0.132076,0.151791,-0.462987,0.873271
-0.097450,-0.723341,0.231652,-0.508924,0.785983,-0.351038
-0.870927,0.250886,-0.156313,0.464940,0.875958,0.128564
-0.706373,0.078339,0.419134,-0.711810,0.305678,0.632366
0.108673,-0.180841,0.085729,-0.634002,-0.340964,-0.694108
0.091890,0.354108,0.416241,0.857583,0.404117,-0.318183
-0.242057,0.067267,0.806467,0.816224,-0.291444,0.498838
0.461560,-0.302857,0.580384,-0.544248,0.678670,0.493154
0.493396,0.782950,0.019101,0.359744,0.920957,-0.149740
0.096253,0.207823,-0.895969,-0.442881,-0.878510,-0.179097
0.299596,0.325683,0.183177,-0.047701,0.132974,0.989971
0.025150,-0.924949,0.107905,-0.279864,0.512376,-0.811879
-0.155420,0.093656,-0.408495,0.110597,-0.943033,-0.313779
0.649990,-0.135401,0.404871,0.929587,0.145376,-0.338724
-0.060820,0.102395,0.158807,0.985317,0.170674,-0.004543
0.612590,0.290852,-0.026448,0.945632,-0.084199,-0.314151
-0.329226,-0.786767,0.091015,-0.481661,-0.734340,0.478276
-0.230070,0.055982,-0.275970,-0.176187,0.980754,0.084143
0.107233,-0.634330,0.264434,0.645243,-0.762327,0.050193
0.347877,0.494030,0.381864,-0.194879,-0.923969,0.329095
0.445640,-0.006681,0.804073,-0.465672,-0.109197,-0.878194
0.641167,0.451094,0.176760,-0.623497,0.500302,0.600791
0.578213,0.466750,0.298047,-0.613826,0.676159,-0.407464
0.569200,0.295943,-0.180816,0.906187,-0.418613,-0.059898
0.310383,0.092892,0.947735,0.812093,0.534120,-0.234990
-0.743340,0.288390,-0.184407,0.548924,0.165636,0.819297
-0.645147,-0.241383,0.338941,0.989476,0.056482,-0.133219
-0.728430,0.337139,-0.181149,-0.360071,0.234462,-0.902982
-0.238797,0.190259,0.748350,-0.629170,0.380634,-0.677690
-0.389733,-0.443458,0.602993,0.008943,0.971453,0.237064
-0.176227,-0.319997,0.440113,0.902944,0.096321,0.418825
0.204180,0.384526,0.552257,0.157373,-0.814733,-0.558071
0.600797,0.662545,0.024852,0.911686,0.177323,-0.370654
0.534487,0.190937,0.035658,0.026179,0.697354,0.716249
0.514397,0.526655,0.339905,-0.632383,0.070176,-0.771471
0.226716,-0.069556,-0.551924,0.411690,-0.205107,-0.887943
-0.713517,-0.095691,0.486892,-0.657171,0.711045,-0.250083
-0.828877,0.281178,0.428476,-0.459049,0.278239,0.843717
0.266943,-0.359836,0.353237,0.788765,-0.480696,-0.383121
-0.433077,-0.272394,0.100158,-0.538455,0.534227,0.651665
-0.012920,0.165185,-0.740570,-0.084131,0.982222,0.167816
0.105077,-0.255426,0.128784,0.315465,0.441313,0.840074
-0.067580,-0.038246,-0.216457,0.924470,0.078242,0.373139
0.455087,0.506545,0.438251,0.325893,-0.922397,0.207309
-0.683263,0.109607,-0.216989,0.478536,0.389232,0.787085
0.174453,0.309178,0.136032,-0.564541,0.636435,0.525589
0.216456,0.074691,0.800316,0.989275,0.121882,-0.080502
0.113850,0.230310,-0.319425,0.953340,0.041677,-0.299010
0.132117,0.027938,-0.206516,0.938756,0.344021,-0.019655
-0.323903,0.336502,0.881872,0.498101,-0.840975,-0.211320
0.437490,-0.139686,0.425218,-0.597911,-0.222540,0.770051
-0.200777,-0.147748,0.048193,-0.755568,-0.316547,-0.573512
-0.868193,-0.250376,0.121370,0.679031,-0.266282,0.684114
0.108527,-0.725588,0.158075,0.336313,0.799364,-0.497906
0.200153,-0.601408,0.236838,-0.622462,-0.271144,0.734181
-0.069880,0.573747,0.479545,-0.502359,-0.852363,0.145302
-0.803273,0.022676,0.251667,-0.005249,-0.880376,0.474248
-0.250880,-0.007828,0.249240,-0.773617,-0.224910,-0.592396
0.252080,0.113427,-0.959305,-0.161408,0.147061,0.975869
0.602953,0.201332,0.646148,0.984391,-0.106271,-0.140290
-0.127033,-0.037780,0.153287,0.559107,0.201279,0.804292
-0.508497,-0.659109,0.256388,0.565567,0.731107,0.381598
-0.003477,0.038291,0.693758,0.598005,0.682525,-0.420178
0.032437,-0.187289,0.785687,-0.540145,0.360518,0.760441
0.428283,0.111728,0.367168,-0.301201,-0.836843,0.457134
-0.059910,0.478035,0.377641,-0.556311,-0.600456,0.574431
0.231416,0.463057,0.499294,0.250456,-0.953010,0.170423
-0.216983,-0.267560,0.136099,0.145469,0.526051,0.837919
-0.626350,0.074437,0.413349,0.324804,0.897523,0.298254
-0.025004,0.297766,-0.417605,-0.428043,-0.130715,0.894255
-0.827727,-0.314779,0.077383,-0.689377,0.210222,-0.693229
0.183420,-0.038078,0.817206,0.915467,0.027301,-0.401466
-0.089877,-0.453342,0.289602,-0.140835,0.453329,0.880147
0.179490,0.229122,-0.962996,-0.180325,0.144905,0.972875
0.301370,-0.588639,-0.236672,-0.232220,0.723445,0.650154
-0.466544,-0.318894,0.689402,0.581087,-0.568520,-0.582343
-0.244457,-0.201458,0.712875,0.947439,-0.192740,0.255363
-0.685804,-0.287033,-0.108536,-0.544721,-0.325256,0.772973
