-0.017172,-0.328228,0.645091,-0.036455,-0.998732,-0.034706
0.036875,0.153935,-0.315977,-0.608934,0.772307,0.180943
0.244910,0.263220,-0.972941,0.822853,0.568218,-0.006437
-0.124929,0.157499,-0.098657,-0.185071,-0.453308,-0.871929
0.054195,-0.139524,0.136110,0.935818,-0.170423,-0.308545
0.218294,0.066725,-0.667088,0.715816,0.696403,-0.051283
0.139044,0.000152,0.413756,-0.242619,-0.968611,-0.054120
0.021746,0.344177,-0.208067,0.859065,0.187620,-0.476242
0.055023,-0.027712,0.388384,0.339257,0.871154,0.354959
0.040482,-0.022385,0.294832,-0.488726,-0.869930,0.066096
0.429159,0.265912,-0.536914,-0.015191,-0.999264,-0.035237
0.279651,0.035852,-0.949899,0.301864,0.206969,0.930614
-0.356794,-0.576692,0.826511,0.830533,-0.543399,0.122198
-0.110409,-0.663863,0.697529,0.533188,0.064924,-0.843502
0.486923,0.064958,-0.968258,-0.014093,0.358239,0.933524
-0.206947,-0.050729,-0.192685,-0.605714,0.637156,-0.476596
0.272812,0.270421,-0.549600,0.197647,-0.972253,0.125138
0.401401,0.142946,-0.933720,-0.040520,-0.776898,-0.628321
0.728951,0.137779,-0.955250,-0.355543,0.267639,-0.895521
-0.025260,-0.073370,-0.637546,0.932315,0.320743,0.167071
0.208030,0.636495,-0.390099,-0.178853,0.621047,0.763094
0.698482,0.150468,-0.960730,-0.426708,0.635692,0.643285
0.045875,0.428368,-0.088037,0.907432,-0.413774,0.073196
0.646717,0.172645,0.097517,0.171265,-0.057201,0.983563
0.286466,0.071717,-0.645415,-0.615255,-0.168484,-0.770114
0.084068,0.225420,-0.660283,0.986540,0.163520,-0.000378
-0.408713,0.091454,0.125899,0.170804,-0.810612,0.560119
0.080478,0.084924,-0.390617,-0.830155,0.556029,0.040918
0.244074,0.168286,-0.577033,0.214899,0.084721,0.972955
0.020528,0.406547,-0.440528,0.984400,0.167899,-0.052596
-0.315330,-0.255496,0.724811,0.760109,-0.453070,-0.465791
0.166334,0.110707,-0.577664,0.857436,-0.499577,-0.123399
0.265810,0.077918,-0.950311,0.591956,-0.223812,0.774271
0.006378,-0.338617,0.632972,0.170842,-0.985128,-0.018342
-0.234523,-0.678526,0.217787,0.894147,-0.447609,-0.012112
-0.002642,-0.114546,0.320155,0.998537,-0.002123,0.054031
0.443568,-0.172147,-0.959047,0.270641,0.394181,0.878279
-0.229639,-0.102082,0.919082,0.984985,-0.047668,0.165930
-0.092212,-0.195081,0.499943,-0.381136,-0.275916,0.882386
-0.011254,0.031075,0.086348,0.996900,0.010162,-0.078014
0.351163,0.373413,-0.640174,-0.330702,-0.939470,-0.089617
0.582491,-0.181371,-0.951047,-0.387190,0.307711,0.869136
-0.032806,0.249324,0.251569,-0.231220,0.907988,0.349420
-0.049589,-0.337009,0.849260,0.896751,0.188852,-0.400215
0.180863,0.047558,-0.506744,-0.403860,0.677637,-0.614577
0.133026,0.364706,-0.986697,-0.434983,0.687048,0.582026
0.007866,-0.064857,-0.414174,0.973899,-0.144989,-0.174637
0.717731,0.068311,-0.959318,0.901866,0.426130,0.071073
-0.177388,-0.537187,0.218581,0.731893,-0.668392,0.132609
-0.022185,0.186583,-0.581598,0.688764,-0.712884,-0.131914
0.044268,0.097485,-0.208363,-0.045090,0.180436,0.982553
0.127001,-0.228364,0.833424,0.811077,0.571638,-0.124033
0.316686,-0.053691,-0.939705,0.271495,0.951341,-0.145741
0.167130,-0.107746,-0.971241,-0.405204,0.390360,0.826698
0.501266,0.283714,-0.986931,-0.009120,0.324997,0.945671
0.383207,-0.218536,-0.944999,-0.387085,-0.569190,-0.725388
-0.347350,-0.550872,0.952325,0.781784,-0.512370,0.355375
0.328026,0.230395,-0.715648,-0.434061,-0.898592,-0.064216
-0.037595,-0.023871,0.176952,0.890640,-0.399048,0.217996
0.046919,-0.277491,-0.962266,0.995665,-0.063628,-0.067847
-0.002105,0.152418,-0.053565,-0.180903,-0.969721,-0.164058
0.843470,-0.115049,-0.948793,0.134628,0.148605,0.979690
0.002919,0.159279,-0.251102,-0.722890,0.503429,-0.473275
0.035657,-0.180976,-0.642810,0.360854,0.273756,0.891539
0.077564,0.596718,0.121925,-0.935912,0.286866,0.204393
0.550321,-0.058103,-0.958315,0.226729,0.846008,0.482561
0.537620,0.124547,-0.963140,-0.052272,-0.013214,0.998545
0.360901,0.044776,-0.944636,0.444048,0.112820,-0.888872
0.351988,0.425193,-0.737709,0.955426,0.131506,-0.264325
0.768118,0.076257,-0.968586,0.025964,-0.014822,0.999553
-0.173758,-0.213241,-0.385532,-0.644492,-0.462701,-0.608718
0.358202,-0.252426,-0.954357,0.001929,0.052759,0.998605
0.381944,0.265732,-0.565275,0.234935,0.310878,0.920956
-0.291821,-0.519318,0.928390,0.917928,0.263353,0.296739
0.140267,-0.036257,0.406990,-0.725694,0.655000,-0.210578
-0.096177,0.056070,-0.148121,0.020327,0.946299,0.322653
-0.211258,0.617044,0.188224,-0.676443,-0.701437,0.224523
-0.390691,-0.485588,0.588276,-0.126293,0.036752,0.991312
-0.298930,0.263784,0.214682,0.504928,0.851168,0.143392
-0.092965,0.718210,0.203408,0.161441,-0.526861,0.834478
-0.042371,0.107654,-0.218375,0.710245,0.376445,-0.594845
0.125918,0.062220,-0.436314,0.844229,-0.533979,-0.046307
-0.293837,0.473242,0.238101,0.372534,0.913682,0.162490
-0.084276,-0.240196,0.954940,-0.426506,-0.859127,-0.282831
0.682771,-0.111370,-0.941480,0.313211,0.403451,0.859724
-0.006517,0.035370,0.089763,0.959274,-0.116782,0.257208
-0.151207,-0.243197,-0.605418,0.474890,-0.467072,-0.745871
0.580107,-0.120136,-0.937156,-0.627058,0.029569,0.778411
0.460894,-0.172811,0.347166,-0.714283,0.150360,0.683514
0.315301,0.262799,-0.754176,-0.717706,-0.389194,0.577431
0.404646,-0.117951,0.330851,0.688685,-0.037515,-0.724090
-0.016554,0.227293,0.415848,0.913975,-0.391566,-0.106420
0.106002,0.280377,-0.562630,0.368186,0.371766,0.852191
0.729022,-0.189444,-0.950753,-0.208723,0.373789,0.903724
-0.141162,-0.130722,0.910585,0.930237,0.331766,0.156814
0.442935,0.346083,-0.588226,0.770982,0.092460,-0.630109
0.055307,-0.176789,-0.962813,0.250908,0.065245,0.965810
0.085642,0.226211,0.108249,-0.863459,0.424296,0.272785
-0.229086,-0.645702,0.954606,-0.633717,-0.245037,0.733730
0.174066,0.265162,-0.600011,-0.144029,-0.940989,0.306260
0.514115,0.255956,-0.967829,-0.111403,-0.069721,0.991327
-0.074455,-0.046757,0.422843,0.916793,-0.163658,-0.364288
0.229567,0.443891,-0.142328,-0.406326,0.643009,0.649183
0.361713,0.259780,-0.969549,-0.191208,-0.328313,0.925013
0.504057,0.118399,-0.970066,0.105930,0.363516,0.925546
0.104559,-0.126169,-0.962551,-0.137594,0.189737,0.972146
0.186867,-0.034634,-0.641547,-0.624633,0.560928,-0.543317
0.100661,-0.175154,0.673752,0.857065,-0.221418,0.465203
0.161993,-0.004544,0.353967,0.068035,0.997447,-0.021685
0.171953,0.321170,-0.981982,0.330180,-0.264329,-0.906152
-0.413434,-0.193826,0.950076,-0.234012,-0.625427,-0.744365
0.849122,0.455711,-0.966423,-0.537050,-0.194220,-0.820888
0.336085,0.357295,-0.726913,0.956402,-0.250843,-0.149575
-0.040262,0.071752,-0.464804,-0.572371,0.416027,0.706621
0.360637,0.231465,-0.975398,-0.102592,0.488380,0.866579
0.413179,0.094109,-0.985394,-0.154545,0.167701,0.973649
0.783486,0.232194,-0.969181,-0.011662,0.150416,0.988554
0.304027,-0.055295,-0.933836,-0.417883,-0.906952,-0.053033
-0.118415,0.906080,0.247611,0.251388,-0.509251,0.823084
0.667769,0.139551,-0.959584,-0.861711,0.050171,-0.504913
0.405580,-0.150252,-0.962469,-0.323160,-0.335008,0.885063
-0.192577,-0.719443,0.688977,-0.334194,0.086274,0.938547
0.137865,0.356060,-0.995480,0.832872,0.460273,-0.307365
-0.028900,0.554707,-0.362183,0.067534,0.528291,0.846374
0.545476,-0.052703,0.330296,0.775473,0.205307,0.597068
-0.221853,-0.300221,0.808548,0.796629,-0.429466,-0.425373
0.480098,-0.493240,0.909003,0.351571,0.182215,0.918257
0.117605,0.418780,-0.192322,0.637656,0.198054,-0.744426
0.645381,0.179155,-0.980802,0.871897,0.461659,-0.163299
0.255586,0.203627,-0.708478,0.471157,-0.523071,-0.710217
-0.050324,-0.147761,0.591581,0.962239,-0.107627,-0.250025
0.693952,0.075881,-0.949001,0.922931,0.262970,-0.281150
0.196222,0.218772,-0.958158,0.396828,-0.355506,-0.846252
0.035667,0.325141,-0.445444,0.998929,-0.022993,-0.040152
-0.043344,-0.415365,0.597425,-0.751123,0.304601,0.585690
-0.248052,-0.609795,0.660173,0.727703,-0.547031,-0.413771
0.183838,0.081844,-0.493813,0.582533,-0.467330,0.665025
-0.523039,0.033141,0.141312,0.684289,-0.688169,0.241188
0.438110,-0.199357,0.322932,-0.520029,0.291139,0.802999
0.064112,0.263723,-0.519246,0.771281,-0.096935,0.629070
-0.376394,0.148700,0.305785,-0.390891,0.812336,-0.432799
0.500892,0.434551,-0.964156,-0.083924,0.582441,0.808529
0.070597,-0.011072,0.510549,-0.059302,-0.883361,0.464926
0.656164,0.448700,-0.986077,0.297443,-0.192001,-0.935234
0.197745,0.038033,-0.968756,-0.328357,0.606404,-0.724193
0.160884,0.623570,-0.358479,-0.346208,-0.551669,0.758816
0.543434,0.284474,-0.966285,0.446651,0.751767,0.485128
0.893002,0.164235,-0.974972,0.803934,-0.123606,-0.581731
-0.288216,-0.185134,0.614850,0.771303,-0.631282,-0.081080
0.492164,0.362681,-0.567101,0.950850,-0.296750,-0.088455
0.067411,0.258316,-0.008906,-0.721307,0.059611,0.690046
0.058849,0.016848,-0.554226,0.142396,-0.942193,0.303309
0.075588,0.283666,0.053438,-0.276347,0.233471,-0.932268
0.715639,0.502465,-0.985961,-0.250682,0.393270,-0.884589
0.093714,0.059612,0.261652,0.279041,0.602660,0.747621
-0.273161,0.147152,0.320660,-0.169151,0.473727,0.864275
0.122104,0.174342,-0.259072,0.187600,-0.683222,0.705701
0.629036,0.194172,-0.955686,-0.657662,0.595108,-0.461874
0.143328,-0.044873,-0.958949,-0.027152,-0.032224,0.999112
-0.328451,-0.507922,0.770428,0.783260,0.621692,0.001663
0.140054,0.322339,-0.989789,0.020689,0.992961,0.116620
0.070611,0.555839,0.150853,0.955794,0.112087,0.271837
0.223319,-0.041327,-0.914382,-0.292806,-0.494481,0.818384
0.293327,-0.218058,-0.957079,0.406925,0.011717,-0.913386
-0.098554,0.012517,-0.566799,0.420418,0.903003,-0.088515
0.761439,0.499223,-0.990353,0.128223,-0.553508,0.822915
0.083574,-0.013995,0.075212,0.964309,-0.010415,0.264573
0.263415,-0.122025,-0.968256,0.154412,-0.024304,0.987708
-0.234504,-0.364167,-0.327256,0.539002,0.032701,0.841669
0.509695,-0.101946,0.346276,-0.174487,0.288009,0.941597
0.062447,-0.215505,0.893152,0.893426,-0.263786,-0.363603
-0.160962,0.583127,-0.439201,-0.643893,-0.707799,0.290554
0.291465,-0.361243,0.906679,0.128274,0.031227,-0.991247
-0.067618,0.163848,-0.516739,-0.542731,0.784226,0.300720
0.450116,-0.181092,-0.940470,-0.266724,0.651656,0.710072
0.730231,0.287360,-0.963305,-0.072495,-0.073758,0.994638
-0.265237,-0.190148,0.723286,0.754562,-0.230362,-0.614466
-0.391825,0.339906,0.179385,0.937742,-0.335434,0.090130
-0.043715,0.090928,0.306620,-0.560352,-0.817196,-0.134894
-0.917282,-0.052065,-0.308470,0.028360,0.560085,0.827950
-0.511928,0.412384,-0.257940,0.161054,-0.279013,0.946685
-0.306874,-0.341220,0.754819,0.726196,-0.679887,-0.101945
0.433124,0.071272,-0.950005,-0.378391,-0.359175,0.853120
0.701992,0.119000,-0.963083,0.135325,0.625519,0.768383
0.100829,0.134205,0.139830,0.282256,0.959199,-0.016397
0.331908,-0.132529,-0.973529,0.285129,0.091754,0.954087
0.056773,0.188901,-0.986064,-0.232115,0.027675,0.972295
0.173566,0.275140,-0.194554,-0.523962,-0.179542,0.832603
-0.212779,-0.125311,0.420204,-0.275410,-0.960982,0.025736
-0.131197,0.184791,-0.537024,-0.404044,0.831096,0.382136
-0.181847,-0.651387,0.691518,-0.571124,0.231645,0.787501
-0.432602,-0.909571,0.693808,0.121672,-0.091962,0.988301
0.410816,-0.092002,-0.971279,-0.282665,0.159809,0.945813
-0.011115,0.301418,0.140139,0.926394,0.293359,0.236080
0.257302,0.203119,-0.910656,-0.673353,0.685950,0.275805
0.145470,0.014591,-0.608967,-0.400334,0.621193,-0.673685
0.371040,0.332670,-0.682537,0.998180,0.059946,0.006610
0.245681,0.370483,-0.982628,-0.201557,0.614913,0.762402
0.591669,-0.110766,0.126570,0.019736,0.468078,0.883467
-0.207185,0.125115,0.215411,0.103062,0.981468,-0.161554
0.069450,0.401050,-0.046038,0.986155,-0.160054,-0.043362
0.000205,-0.500966,0.617947,0.985582,-0.096099,-0.139261
0.407880,0.079845,-0.956455,0.205462,-0.086005,0.974879
0.224816,-0.490137,0.894745,-0.021710,-0.547383,0.836600
0.455142,-0.065877,-0.965101,0.233226,-0.099709,-0.967297
0.205855,0.094828,-0.838542,0.879278,-0.323452,-0.349642
0.699485,-0.218449,-0.943745,-0.036519,0.609621,0.791851
0.764528,0.275138,-0.985568,0.471885,0.110417,0.874719
0.319931,0.216969,-0.626512,0.909006,-0.068598,-0.411099
0.050677,0.124926,0.017132,-0.155954,-0.932290,0.326366
0.631641,0.483371,-0.989580,-0.006544,0.163226,0.986567
-0.117573,-0.360092,0.938073,0.917820,-0.041986,0.394771
0.714403,-0.080843,0.111775,0.531266,-0.431494,-0.729089
0.800750,-0.119692,-0.957355,-0.081773,-0.158892,0.983904
-0.028235,0.562166,0.176958,-0.496880,0.696165,-0.518136
-0.078581,0.244238,0.706670,0.723096,0.681066,-0.115244
-0.655504,0.548473,-0.067562,0.898032,0.368277,0.240645
-0.209257,-0.584822,0.220581,0.894147,-0.447609,-0.012112
-0.287979,0.194194,0.237199,0.684191,0.689191,-0.238536
0.364624,-0.266046,-0.955162,0.173878,0.239630,0.955167
0.418239,0.029975,-0.955493,-0.378707,0.580408,-0.720907
-0.228152,0.040675,0.313329,0.190023,-0.695869,0.692574
0.147456,0.140958,-0.973580,0.095675,-0.015204,0.995296
0.010918,-0.212140,0.147222,0.850222,0.178837,0.495116
0.053954,0.035470,0.232486,-0.670681,0.603476,-0.431282
0.309681,-0.106450,-0.961989,0.906977,0.341491,-0.246530
0.311600,0.293422,-0.982438,0.560422,0.653943,-0.508217
0.817051,0.137184,-0.974464,-0.302620,0.597981,0.742186
-0.082604,-0.340616,0.802708,0.373719,0.532447,0.759496
-0.033513,-0.152655,0.650286,0.632312,-0.767748,-0.103660
-0.033833,-0.071230,0.648846,0.802806,0.321844,-0.501915
-0.022191,-0.025836,-0.617497,0.157856,0.186341,0.969721
-0.125797,0.052589,-0.372232,-0.458692,0.787705,-0.411245
0.075439,0.337203,0.084475,0.995227,-0.019329,-0.095658
-0.030983,0.428161,-0.494434,0.003111,-0.957626,0.287997
-0.010328,0.211582,0.062292,0.938988,-0.108497,0.326389
0.446543,0.241493,-0.967817,0.824425,-0.042149,-0.564400
0.239801,-0.604601,0.996973,0.808387,0.308770,-0.501170
0.446834,0.386621,-0.524040,-0.436688,-0.201293,-0.876804
0.125017,0.145499,-0.470253,0.014736,0.756647,0.653658
-0.126852,-0.552516,0.680822,0.918800,-0.368691,-0.140974
0.420694,-0.034591,0.083620,-0.444320,-0.179552,0.877691
0.205658,0.165780,-0.633136,0.340531,0.385765,-0.857452
-0.271095,0.736247,0.231725,0.515721,-0.749621,0.414849
0.721152,-0.005682,0.102819,-0.201027,-0.006398,0.979565
0.741155,-0.080429,-0.960398,-0.369798,-0.022778,0.928833
-0.204732,-0.267248,0.652816,-0.533586,-0.289277,-0.794736
0.036773,-0.291942,0.648223,-0.580442,-0.765261,0.278320
0.380148,-0.128621,-0.942619,-0.140075,0.753025,-0.642910
0.146053,-0.266827,0.318666,-0.307456,0.341719,0.888087
0.443087,0.515691,-0.094560,-0.611097,0.785979,-0.093789
0.509530,0.333019,-0.580488,0.303587,0.899725,0.313575
0.556566,-0.016174,-0.970624,0.317958,0.397471,0.860767
0.426880,0.326751,-0.548179,-0.063249,0.528625,0.846496
0.340775,-0.313742,0.313440,-0.523245,0.401409,0.751721
0.067894,0.205393,-0.146649,0.372287,-0.824671,-0.425816
0.287773,0.253967,0.162393,-0.430045,0.013791,-0.902702
0.000376,-0.106272,0.523219,-0.624228,0.041088,0.780161
0.032217,-0.568987,0.946832,-0.436935,0.135993,0.889153
0.562975,0.497200,-0.989911,-0.171279,0.652087,0.738543
-0.122440,-0.227248,0.890805,0.939317,0.326270,-0.105980
-0.255370,-0.122216,0.795560,-0.632096,0.760467,-0.148810
-0.418654,0.022308,0.094708,0.035494,0.861612,-0.506325
0.120067,-0.302479,-0.963750,0.596064,0.251758,-0.762447
0.374431,-0.260413,-0.942113,-0.694286,0.719549,-0.014714
-0.046234,0.014423,0.281892,0.320677,0.254890,-0.912248
-0.063260,-0.023946,-0.110649,0.301869,-0.948118,0.099740
-0.429618,-0.524419,0.578352,-0.126293,0.036752,0.991312
0.119925,-0.013814,0.456609,-0.740183,-0.586929,-0.328091
-0.218795,0.075028,0.265874,-0.060085,-0.544404,0.836669
0.482129,-0.476987,0.910583,0.424859,0.170069,0.889141
0.166743,0.131233,-0.966856,0.634052,-0.566968,-0.525858
-0.166488,0.203165,0.323727,-0.430540,-0.828248,0.358666
-0.018056,-0.269009,0.802132,0.853284,0.031413,-0.520500
0.564199,0.125806,-0.972674,0.215318,0.518783,0.827346
-0.036237,-0.190510,-0.630337,0.364077,0.342549,0.866088
0.377876,0.426563,-0.120334,-0.681510,0.731749,-0.009325
-0.042873,0.561331,-0.367384,0.140172,-0.252714,-0.957333
-0.129252,-0.121305,0.477671,-0.833067,0.549559,-0.063114
0.050384,0.468496,-0.020396,-0.306303,0.902717,-0.302125
-0.375345,-0.879334,0.703108,0.257402,-0.164231,0.952246
-0.121441,0.221511,-0.206330,0.511340,0.651777,0.560106
-0.107093,-0.066402,0.310734,0.633465,0.772932,0.036030
0.493692,-0.051111,-0.967774,0.717314,-0.459674,-0.523603
-0.271746,0.158461,0.158785,-0.451252,0.891840,-0.031505
0.072499,0.088701,0.262726,0.501055,0.760880,0.412316
-0.448614,0.082093,0.092895,-0.250279,0.883855,-0.395172
-0.207523,-0.297326,0.850711,0.984953,-0.172808,-0.002060
-0.114293,-0.546472,0.940043,0.536756,0.820470,-0.196779
0.572643,-0.197127,-0.940596,0.078174,-0.158567,0.984249
0.001625,0.522910,-0.471315,0.776464,0.565711,-0.277624
-0.252119,0.485710,-0.467003,0.907440,0.412684,-0.079022
-0.892498,-0.046235,-0.299435,0.028360,0.560085,0.827950
0.014453,0.115709,0.033234,-0.503801,-0.503877,-0.701635
0.823091,-0.204823,0.907959,-0.828420,0.539499,0.150540
-0.019937,-0.159092,0.525362,-0.112028,0.791413,0.600929
0.277037,0.369002,-0.704836,-0.909143,0.026939,-0.415612
0.033789,0.137022,0.020874,-0.105622,0.994127,0.023582
-0.351813,-0.246221,0.122689,-0.462316,0.886712,0.002296
-0.091725,0.401218,-0.016690,0.979930,0.191840,0.054170
-0.490517,0.428433,-0.207868,-0.232152,-0.961253,-0.148652
0.062848,-0.303322,-0.966554,0.060905,0.718964,0.692373
0.190243,0.274349,-0.603031,-0.740959,0.644710,-0.187956
0.322726,0.259629,-0.450958,0.704997,0.522819,0.479206
-0.108200,0.044923,0.324493,-0.473659,-0.090849,0.876010
0.731509,0.122731,-0.955647,-0.372688,0.598971,-0.708758
0.066790,-0.383046,0.844412,0.404621,-0.912940,0.053126
0.169198,0.076609,-0.497222,-0.490585,0.157926,-0.856963
-0.120676,0.346226,0.150632,-0.021192,-0.494730,0.868789
0.480832,0.156372,-0.952071,0.763203,0.322288,0.560046
-0.279126,-0.193663,0.634144,-0.805899,0.406191,0.430739
-0.027014,-0.262713,0.961167,-0.495651,-0.585012,-0.641944
0.403296,0.334357,-0.982277,0.344464,-0.256693,-0.903024
0.107583,0.083230,-0.434186,-0.011671,0.995385,0.095251
0.651295,0.075662,-0.965914,-0.119380,0.172814,0.977693
0.377156,-0.317105,0.349210,0.657296,-0.333979,-0.675589
-0.096554,0.093539,-0.174646,-0.533899,0.725377,-0.434488
-0.136332,0.019335,0.951530,0.859871,-0.507380,-0.056459
0.163157,0.412262,-0.145063,-0.499712,0.673998,0.544073
0.031791,0.116732,-0.041979,0.581304,-0.767499,-0.270242
0.215201,0.118648,-0.851040,0.148267,-0.963512,-0.222849
0.739193,-0.136919,-0.961346,-0.118965,0.080086,0.989663
0.445123,0.365576,-0.588368,0.779789,-0.053258,-0.623773
-0.019773,0.193238,0.217637,0.844034,0.136133,-0.518724
0.080484,0.164534,-0.008454,0.806497,-0.576636,0.130591
-0.007298,0.147693,-0.102809,-0.006503,-0.903480,0.428581
0.145459,-0.457514,0.297223,0.813021,0.047951,-0.580256
0.213245,0.613844,-0.357574,0.187167,-0.809539,0.556431
0.718248,0.089512,-0.967155,-0.117660,0.020291,0.992847
0.166332,0.320664,0.326397,0.966288,-0.215086,-0.141512
0.482421,-0.071814,-0.944163,0.316419,0.240057,0.917743
0.669555,0.377013,-0.954506,-0.536896,0.224887,-0.813123
-0.034062,0.106112,-0.203816,0.893935,-0.214092,-0.393758
-0.178401,0.006091,-0.183760,-0.579609,0.733800,-0.354387
-0.063911,-0.068060,0.488766,0.774273,-0.079914,0.627786
0.024673,0.345002,-0.614008,0.876554,0.193729,0.440592
0.011742,0.130048,-0.275614,0.599719,-0.797763,0.062539
0.472436,0.310554,-0.571937,0.574849,-0.740684,-0.347760
0.133409,0.771580,-0.351793,0.404541,0.535600,0.741269
0.838719,0.000252,-0.961874,-0.159903,0.171667,0.972091
0.637803,0.151160,-0.959463,0.703007,0.619543,0.349209
0.569528,-0.176953,-0.963257,-0.149648,-0.103035,0.983356
0.261449,0.428121,-0.639833,0.531216,0.717778,-0.450115
0.184223,0.101336,-0.499857,0.724838,0.360313,0.587184
-0.353563,-0.349274,0.705421,-0.584502,0.766435,0.266337
0.284473,-0.237213,-0.962485,0.792494,0.523560,-0.312791
-0.426508,0.800026,0.255573,0.049021,-0.595533,0.801834
-0.202379,-0.130108,0.544138,-0.555883,0.400717,0.728300
0.261471,-0.075408,-0.950560,-0.233905,0.150110,0.960602
0.017821,0.292709,-0.017339,0.954323,0.289304,0.074637
-0.150269,0.007172,0.041649,-0.540828,0.841087,0.008761
0.041052,-0.046804,-0.536787,-0.162777,0.911328,0.378134
0.018499,-0.321269,0.782073,0.842330,0.532616,-0.082467
0.008535,-0.053912,0.424917,0.313801,-0.948041,-0.052420
-0.580087,0.029613,0.055191,-0.174583,-0.957739,0.228595
-0.334852,-0.080804,-0.327645,-0.452580,-0.375061,-0.809012
-0.178579,-0.245956,0.909234,0.987846,-0.003763,0.155388
0.514099,0.194466,-0.985224,0.021584,0.016457,0.999632
0.143973,-0.242101,0.949098,-0.128286,-0.889919,0.437705
0.332398,0.476416,0.142397,0.208691,0.959109,-0.191201
0.315488,-0.161162,-0.956498,0.165443,-0.100645,0.981070
0.336238,-0.155500,0.308471,0.771306,-0.003156,-0.636456
0.412840,0.262829,-0.539082,-0.084047,-0.995598,-0.041481
0.446449,0.048600,-0.964990,0.891388,-0.334825,-0.305483
-0.268522,0.153259,-0.104251,-0.115782,-0.643458,0.756675
-0.200083,-0.174386,0.481104,-0.078575,0.171328,0.982076
-0.079688,-0.235192,0.511316,-0.785174,0.613373,-0.085301
-0.232298,-0.350593,0.751634,0.173996,0.979952,0.097050
0.004799,0.034680,0.352508,-0.182904,-0.963885,-0.193577
0.088275,0.132062,-0.406428,0.962517,0.203124,0.179727
-0.006630,-0.468554,0.245772,0.241861,0.928408,-0.282068
-0.003045,0.060575,0.040977,0.966401,-0.219971,0.132971
0.130261,0.064784,-0.570729,-0.637666,0.768413,-0.054074
0.370708,-0.244492,-0.940199,-0.789441,0.577346,-0.208456
0.142535,-0.088538,-0.973518,-0.199903,0.171218,-0.964740
0.055107,0.267765,-0.614246,0.960452,0.200382,0.193338
0.375290,0.041854,-0.674582,0.790190,0.389018,-0.473566
0.148143,0.330754,-0.986605,0.434722,0.001933,-0.900562
0.434382,-0.545493,0.889395,0.178282,0.646659,0.741652
-0.086131,-0.265722,0.899339,0.830801,0.537592,-0.144101
0.045963,0.167803,-0.220605,-0.345774,-0.295889,-0.890444
-0.035313,0.639399,-0.362511,0.655418,0.069431,-0.752068
-0.000314,0.498471,0.124776,-0.505160,0.696241,0.509963
-0.045070,-0.013575,0.233784,-0.242447,0.420181,0.874453
0.749686,0.391587,-0.980592,-0.245335,-0.100405,0.964225
-0.047457,0.142363,-0.753762,0.037149,0.379621,0.924396
0.131058,0.461912,0.305770,0.759885,0.461454,-0.457859
0.120712,0.452365,-0.629230,0.071970,-0.996145,-0.050161
0.143172,-0.161659,-0.958403,-0.120824,-0.074805,0.989851
0.607787,-0.362335,0.869772,-0.709520,0.552756,0.437083
-0.102659,-0.176294,-0.003044,0.936222,0.142517,0.321213
0.274493,0.295932,-0.700478,0.940678,0.146636,-0.305977
0.005517,-0.190354,0.155305,0.275205,0.307342,0.910935
0.014948,-0.347726,0.147746,0.999518,0.015628,0.026814
0.024234,0.095081,-0.218039,-0.559437,0.755360,-0.341264
0.260530,0.088928,-0.972889,0.163199,-0.116993,-0.979632
-0.051872,0.139002,-0.129737,-0.726678,0.683563,0.068415
0.289747,0.614305,-0.368994,0.009038,0.999775,0.019189
-0.348363,0.453037,0.213276,-0.467835,-0.882778,-0.042820
-0.001143,-0.570097,0.934226,0.638197,0.764963,0.086812
-0.164003,0.027556,-0.131262,-0.131706,-0.897793,-0.420263
0.094849,0.101631,0.019730,0.938728,-0.295677,0.177103
0.530022,0.438755,-0.970313,-0.216504,0.725572,0.653201
0.077788,0.365950,-0.984454,-0.022302,-0.280495,0.959596
-0.265117,-0.893743,0.863617,0.847278,-0.356991,-0.393291
-0.100975,-0.231257,0.951843,0.485937,0.744796,0.457323
0.182113,0.345587,-0.540571,0.176887,-0.771695,0.610899
0.041905,-0.146284,0.684139,0.714262,-0.563346,0.415297
0.136862,-0.581123,0.380023,-0.645657,0.679995,0.347467
0.131412,0.091847,-0.676447,0.295036,0.800040,-0.522389
-0.124772,-0.304339,0.872976,0.420549,0.907023,0.021151
-0.211095,-0.605926,0.846541,0.956018,0.247842,-0.156857
-0.051020,0.155494,0.086649,0.370001,0.849638,0.375786
-0.060647,-0.178393,0.619914,-0.653285,0.734244,-0.184675
0.569149,0.132692,-0.961055,0.067155,-0.392582,0.917262
-0.150606,0.725749,0.229896,-0.235270,-0.020071,0.971723
0.182397,0.019715,0.353338,-0.575789,-0.809193,0.116938
-0.151566,0.199820,0.251627,0.128236,-0.482756,0.866315
0.438562,0.416002,-0.996535,0.171667,-0.359569,0.917192
0.314175,0.247249,-0.960817,0.090011,-0.270906,0.958388
-0.042036,0.236556,0.051868,0.946034,-0.322151,0.035206
-0.073429,-0.057106,0.511479,-0.413448,0.433133,0.800910
0.075946,0.310771,-0.983983,0.198881,0.254627,0.946367
0.119131,0.148642,-0.975898,-0.113386,0.062355,0.991592
0.035363,0.126420,-0.659056,0.061983,-0.545354,0.835911
0.328398,0.049907,-0.661240,-0.571388,0.527157,-0.628984
0.073429,0.061520,0.342459,0.856421,0.179597,0.484033
-0.044703,-0.176494,-0.624120,0.281675,0.133913,0.950119
-0.038927,0.406488,-0.405688,0.997273,0.073412,0.007610
-0.102831,0.110592,0.181288,-0.338513,0.313023,-0.887370
-0.002374,0.163011,-0.057280,-0.111967,0.972999,-0.201834
0.258245,0.501766,-0.738298,-0.529130,0.786819,-0.317707
-0.365771,0.137359,0.149331,0.012245,-0.893174,0.449545
0.142233,0.193939,-0.221065,-0.431891,0.900962,0.041697
0.382018,0.001671,-0.964819,0.147480,-0.049343,-0.987833
-0.107505,-0.217905,0.626070,0.130657,-0.873280,0.469374
0.658940,0.386273,-0.981998,0.919108,0.393791,0.012991
0.619865,-0.163982,-0.960877,-0.159771,-0.320566,0.933654
-0.151127,0.039305,0.538997,-0.045670,-0.737838,0.673431
0.166612,0.308067,0.050914,0.213074,0.768835,-0.602904
0.434656,0.343391,-0.973121,-0.545247,-0.474095,-0.691332
-0.080351,-0.147611,0.216432,0.810579,0.348529,-0.470627
0.497682,-0.006375,0.358931,-0.414240,-0.308494,0.856292
-0.779410,-0.273470,-0.241670,0.178851,0.534550,0.825995
-0.049216,-0.472517,0.910041,-0.149101,0.580163,-0.800737
-0.017464,-0.013112,-0.389154,0.447664,0.664561,0.598294
0.130584,-0.126652,-0.963826,0.010432,0.214964,0.976566
-0.093139,0.249709,0.135307,-0.787945,0.167662,-0.592480
0.097743,0.069459,-0.420926,0.832835,-0.514495,0.204156
0.397461,0.280186,-0.609058,-0.681588,0.711390,0.171357
-0.002954,0.097710,0.139287,-0.501690,-0.640822,0.581080
-0.119427,-0.376040,0.652127,-0.821578,0.456785,0.341112
-0.417277,-0.652564,0.835727,0.959130,-0.166709,-0.228643
-0.387941,-0.269078,0.052809,0.873794,-0.281646,-0.396435
0.425084,0.334536,-0.589015,-0.588570,0.391393,0.707388
0.274037,0.145158,-0.689439,-0.188816,0.603419,0.774748
0.021570,0.423343,0.095581,0.984704,0.133475,0.111996
0.395985,-0.082213,-0.968285,-0.362407,-0.330670,0.871389
0.151008,0.242546,-0.964047,0.178519,0.942705,0.281849
0.194065,0.029187,-0.974645,-0.522950,-0.056163,-0.850511
-0.766836,-0.189717,-0.281611,-0.447336,-0.662264,-0.601080
0.017149,0.180352,-0.249441,-0.753428,0.637698,-0.160277
0.380167,0.092989,-0.974746,0.138508,0.653058,0.744534
0.480420,0.174440,-0.584607,-0.875432,0.472750,0.100629
-0.079932,0.095763,0.312856,-0.245766,0.426437,-0.870489
0.200582,0.182974,-0.484740,0.879768,0.472792,-0.049763
-0.127380,-0.382701,0.819902,0.022842,0.703340,0.710486
-0.189296,0.215530,0.247088,0.024212,-0.720330,0.693209
-0.143148,-0.216577,0.943684,-0.086886,0.430571,0.898365
-0.605517,0.035227,0.119691,0.098476,-0.989487,-0.105911
0.649294,0.296108,-0.553052,-0.570049,0.744499,0.347512
-0.232990,0.368656,-0.267835,-0.330641,-0.942924,0.039630
0.279737,0.082611,-0.967773,-0.053964,0.406738,0.911950
0.020088,0.381422,-0.466459,0.998898,-0.023699,0.040508
0.429446,0.246582,-0.958629,-0.262718,-0.306727,0.914821
0.118090,0.362252,-0.991861,0.565037,-0.783649,0.258124
0.331913,0.378568,-0.974551,0.052413,0.462330,0.885157
-0.387439,0.150256,0.170949,-0.625556,0.773901,-0.098779
0.125486,-0.296019,-0.958579,-0.276973,-0.239198,0.930629
0.421182,0.150419,-0.691666,0.621311,-0.079236,-0.779548
-0.089260,0.148155,0.142429,-0.256993,-0.589801,0.765565
0.215143,0.316367,0.008465,-0.482529,-0.831948,0.273913
-0.027563,-0.195567,0.878838,0.469961,0.464172,-0.750787
0.138527,0.251365,-0.079722,0.192513,-0.058106,0.979573
-0.046766,0.203991,0.201036,0.911545,-0.279257,-0.301830
0.292792,-0.131923,-0.944925,0.386141,-0.362341,-0.848295
-0.028972,0.587085,0.012583,0.520434,0.852379,0.050983
0.198504,0.414796,-0.968068,-0.108950,0.832648,0.542980
-0.050643,0.374548,0.208325,0.992590,0.042486,-0.113840
-0.120224,0.597185,-0.405133,-0.119106,-0.742240,0.659465
-0.123215,-0.270611,0.810777,-0.024627,-0.996375,0.081432
0.215417,0.474059,-0.368513,-0.008501,-0.035436,0.999336
-0.040042,-0.076808,-0.650973,0.318204,0.911500,0.260602
0.285810,0.173269,-0.625626,0.650542,0.399992,-0.645601
0.052568,-0.354857,0.656991,0.773568,-0.633294,0.023064
-0.196197,0.197728,0.146183,-0.110093,0.991840,-0.064295
0.014976,-0.222132,0.948506,0.511634,0.605794,0.609299
0.171431,-0.043457,-0.958781,0.168770,-0.069340,-0.983213
-0.054586,0.415274,-0.030725,0.253590,-0.562064,0.787259
-0.031671,0.074520,-0.187690,0.634604,-0.727188,0.261680
0.391568,0.078472,-0.824488,-0.595743,0.800984,-0.059286
-0.050401,0.072739,-0.169938,-0.025217,0.996858,0.075088
0.243522,0.254129,-0.563688,0.426280,0.148975,-0.892240
0.092896,0.053131,0.327494,0.863130,0.384502,-0.327359
-0.239094,-0.606151,0.947295,0.915221,0.283166,0.286682
0.085833,0.174956,-0.331128,-0.059303,-0.948374,0.311559
0.249132,-0.209941,-0.948857,0.387162,-0.328615,-0.861462
0.658389,0.113610,0.078397,-0.049704,0.163148,0.985349
-0.230123,-0.586360,0.206990,0.838425,-0.544637,-0.020350
-0.179593,0.683320,-0.343204,0.104914,-0.365289,0.924963
0.108022,0.541549,0.074468,0.930806,-0.247344,-0.269112
0.042382,-0.323381,0.634801,-0.010607,0.933817,0.357593
0.001444,-0.242961,0.676737,0.526300,-0.606543,0.595914
0.570956,0.411292,-0.965151,0.726433,0.655786,0.205520
-0.017317,0.567798,-0.365161,-0.174645,0.024678,0.984322
-0.319527,0.234851,0.190046,0.795931,0.497137,0.345470
0.419911,0.176425,-0.599408,-0.501487,0.356167,0.788451
0.061592,0.212550,0.288402,0.807940,-0.253938,-0.531741
0.317102,0.116600,-0.688352,0.821900,0.180729,0.540202
-0.030913,0.308447,-0.526726,0.197232,-0.535878,0.820935
0.258857,0.016689,-0.964226,0.295785,0.285911,0.911464
-0.096593,0.133172,0.322779,0.592525,-0.236657,0.770005
-0.065185,-0.300269,0.799813,0.075465,0.511712,0.855836
0.270757,0.264302,-0.677612,0.481102,0.145802,0.864455
-0.066113,0.570871,-0.175321,0.789167,0.199266,0.580955
-0.369473,-0.601529,0.843097,-0.766524,0.467868,0.439933
-0.042301,-0.144736,0.645130,0.701033,-0.711424,-0.049286
-0.181307,-0.185976,0.577526,-0.783013,-0.359379,-0.507678
0.422718,0.030903,-0.965734,-0.701712,0.546897,0.456622
-0.051006,0.159227,0.403554,0.861915,-0.507053,0.000117
0.261116,0.197071,-0.644686,-0.456744,-0.889223,-0.025849
0.011181,0.344473,0.000827,0.937773,0.338930,-0.075550
0.785704,0.121452,-0.968776,0.152260,0.457261,0.876202
0.090798,0.170210,-0.080886,0.769401,-0.480369,-0.421032
0.052436,0.133563,-0.106098,0.020502,-0.951908,0.305697
0.322419,0.183778,-0.621230,-0.690503,0.691987,-0.210619
-0.157306,-0.036989,0.380726,-0.066046,-0.885906,0.459139
0.111070,0.330743,-0.195855,-0.649595,-0.400719,0.646104
-0.201473,0.012895,0.436916,-0.621987,0.528237,-0.578011
0.135452,0.625982,-0.363512,-0.354974,-0.731297,0.582407
-0.056223,0.124435,0.421835,-0.445165,-0.171239,-0.878923
0.152640,0.119821,-0.947244,0.716423,0.681608,-0.148827
-0.029330,0.483204,-0.470660,0.206302,0.580126,0.787968
0.282724,0.100689,-0.534953,-0.670348,-0.715296,-0.197446
0.094598,-0.229768,0.759768,0.362474,0.900029,0.241991
0.304843,-0.107477,-0.949964,0.646792,0.567557,0.509450
0.680818,-0.022195,-0.945601,0.121166,-0.275416,0.953659
0.833047,0.325016,-0.989905,0.336743,0.279539,0.899145
0.216178,0.089146,-0.772563,0.836892,0.542952,0.069385
0.332504,0.370367,-0.688861,0.479775,-0.865777,-0.142290
0.014192,0.033923,-0.637277,-0.800325,0.497110,0.335205
0.132142,-0.475145,0.886814,-0.139567,0.647167,0.749464
-0.323439,0.515937,-0.489328,-0.771911,0.335899,-0.539745
-0.153564,-0.337668,0.557264,-0.697527,0.665027,0.266826
0.495778,-0.191234,-0.960541,-0.033808,0.373470,0.927026
0.769608,0.290895,-0.954710,0.552821,0.819519,0.150920
-0.080629,0.147047,-0.165841,0.735742,-0.287556,-0.613184
0.267366,-0.147927,-0.969476,0.448976,0.120722,-0.885351
-0.212906,-0.086204,0.866738,0.995222,0.035113,0.091109
-0.010120,0.072420,-0.406465,-0.152200,-0.987558,-0.039553
-0.193669,-0.421542,0.921217,0.544448,0.226932,-0.807514
0.339093,0.102632,-0.449752,-0.298490,0.860919,-0.411973
-0.002555,0.150859,-0.273769,-0.488243,0.811362,-0.321421
-0.121583,0.679490,0.235798,-0.375842,0.292532,-0.879300
-0.084548,0.507760,-0.516414,-0.751484,-0.641795,-0.152876
-0.068885,0.063097,-0.457417,0.297823,-0.923419,-0.242071
-0.078616,-0.063227,0.287691,0.714628,0.240228,0.656961
-0.141118,0.087684,0.278269,-0.688674,0.334504,0.643300
-0.008011,0.199434,-0.433670,0.974129,-0.089020,-0.207720
-0.034921,0.002481,0.737578,-0.772620,0.541124,-0.332030
0.002523,-0.267194,0.716014,-0.605664,0.625265,0.492153
0.349707,0.434786,-0.613269,0.121973,0.814576,0.567088
0.390724,0.169168,-0.975607,-0.350094,-0.465017,-0.813138
0.258042,0.137477,-0.904046,0.816508,-0.056569,-0.574555
0.229956,0.090863,-0.967684,0.090169,-0.064859,-0.993812
0.052558,0.276109,-0.535632,0.716019,-0.518221,0.467722
0.228874,-0.223849,-0.972587,0.198085,0.979836,-0.026164
-0.025460,0.582686,-0.392691,0.978019,-0.175109,0.113210
-0.204403,-0.059925,0.498058,0.232620,0.935064,-0.267475
0.473390,0.307341,-0.960452,0.846236,0.522106,0.106253
0.160135,-0.064939,0.573713,-0.164238,-0.916548,-0.364645
0.393801,0.230779,-0.962776,-0.531874,0.610139,0.587231
-0.138355,-0.204636,-0.624275,0.218999,0.345187,0.912626
0.262905,-0.153584,-0.943560,-0.242043,-0.054227,0.968749
0.161201,0.243401,-0.424064,-0.643211,0.401165,-0.652185
0.105431,-0.032095,0.670013,-0.753969,0.613520,-0.234784
0.150339,-0.271958,0.929880,-0.106952,-0.873818,0.474344
0.239068,0.022788,-0.948849,0.567505,-0.052854,-0.821672
0.580553,0.209975,-0.964238,0.324350,0.168543,0.930801
-0.256503,0.213822,0.250282,-0.382816,-0.672254,0.633661
-0.149081,-0.011961,0.347015,0.752799,-0.584372,0.302989
-0.151739,0.156126,0.185377,0.208641,-0.155475,0.965555
0.006239,-0.207669,0.695574,0.128993,0.928612,0.347909
0.145397,0.199128,-0.465965,0.555051,0.673548,0.488110
0.208658,0.096664,-0.972623,0.229576,-0.375185,-0.898071
0.037971,0.334112,0.113213,0.827294,0.123534,0.548018
0.510755,0.170214,-0.958239,0.244812,-0.081545,0.966135
0.334954,-0.254459,-0.949709,0.298415,0.559354,0.773351
0.052070,-0.098024,0.548036,0.161253,-0.986913,0.000059
-0.578186,-0.320116,0.192713,0.137321,0.990322,-0.020127
0.281469,0.105956,-0.962869,0.277086,0.045347,0.959774
0.309650,0.057548,-0.611843,0.595881,0.740905,0.309817
-0.035001,0.131141,0.420751,0.562810,0.255404,0.786139
0.087177,-0.164342,-0.064742,0.998237,-0.047418,-0.035713
0.214251,-0.025981,-0.700000,0.037642,-0.988520,0.146328
0.303276,0.201261,-0.978479,-0.400971,0.312759,-0.861048
0.531237,0.087152,0.345711,0.956930,-0.283012,-0.064719
-0.054367,0.103138,-0.368184,-0.471997,0.839286,-0.269847
0.136180,0.114107,-0.459953,0.002564,0.704944,0.709258
-0.115848,-0.539216,0.701593,0.974702,-0.202486,-0.094628
-0.060021,-0.596572,0.933102,0.366615,0.813299,0.451816
-0.054375,-0.252104,0.490187,0.899212,-0.385071,-0.207698
0.089214,0.619211,0.147152,0.726745,-0.686423,0.025795
-0.034757,0.192267,-0.587198,0.628564,-0.776723,0.040106
0.731654,0.058483,-0.948959,0.319718,-0.521708,0.790949
0.089923,0.043842,-0.687083,-0.338704,-0.320384,0.884666
-0.218371,-0.100886,0.898982,0.851163,-0.523198,0.042261
-0.114756,0.555721,-0.480652,0.374566,0.866965,-0.328743
-0.225931,-0.656609,0.918226,-0.564580,0.704000,0.430853
0.350592,0.418006,-0.960360,0.456552,-0.716705,0.527157
-0.067106,0.165953,0.276641,-0.708948,0.300203,-0.638178
-0.018850,-0.166634,0.140173,-0.058758,0.396708,0.916062
0.740524,0.144168,-0.961563,0.366488,-0.246212,0.897255
-0.022606,-0.053603,0.349248,0.604704,0.793797,0.064958
-0.013868,0.137675,-0.207010,0.163491,0.015237,0.986427
0.323843,-0.164837,-0.957862,-0.119219,0.106556,0.987134
-0.565811,0.317609,-0.231933,-0.427843,0.486370,-0.761836
0.001357,0.089853,-0.353857,0.274166,-0.961593,0.013123
-0.312117,-0.040039,0.296346,0.424572,-0.833854,0.352741
-0.019574,0.232100,0.270688,-0.443056,0.620102,0.647437
0.461792,-0.388515,0.901958,-0.307278,0.449334,-0.838856
-0.436187,-0.091895,-0.320844,0.399559,0.117405,0.909158
0.020618,0.084136,-0.401256,0.109156,-0.933654,0.341138
0.691711,0.087562,-0.958859,0.859777,-0.310013,-0.405802
-0.185345,0.052170,-0.498613,0.046876,-0.866694,0.496634
0.038407,0.233378,0.237903,0.904969,-0.297039,0.304630
-0.452866,0.324411,0.109424,0.403346,0.914488,-0.032002
0.157911,-0.113684,0.589707,-0.170992,0.816193,0.551898
0.085960,0.124377,-0.404297,0.976801,-0.204506,-0.063539
-0.295213,-0.535681,0.848836,0.918196,-0.169223,-0.358163
-0.470663,0.227751,-0.096738,0.817457,0.571920,0.068346
-0.220976,-0.416267,0.716955,0.413234,0.769576,-0.486816
0.474376,0.373017,-0.981335,-0.198932,-0.224965,-0.953843
-0.069785,0.190803,-0.223230,0.434660,0.063051,-0.898385
0.432522,0.396347,-0.788077,0.114983,-0.214978,0.969826
0.708446,0.141966,-0.973304,0.959825,0.011007,-0.280385
0.490039,-0.146348,-0.948808,-0.063557,-0.119074,0.990849
0.508501,0.080135,-0.943669,0.419392,-0.394523,0.817595
0.783860,0.512879,-0.980941,-0.541652,0.275502,0.794173
-0.245780,-0.311239,0.751440,-0.719106,0.694791,-0.012330
0.419295,0.385276,-0.990179,0.125967,0.595514,0.793408
0.875496,0.388370,-0.977482,0.223662,-0.108198,0.968643
0.018689,0.388805,-0.211390,0.793616,0.334290,-0.508355
-0.688952,-0.070010,-0.306509,-0.305417,-0.598252,-0.740820
0.424582,0.166043,-0.969161,-0.115289,0.983317,0.140696
-0.126926,0.512204,-0.506785,-0.295967,-0.786045,0.542713
0.754903,0.248785,-0.970982,0.223480,0.094952,0.970072
-0.193410,0.546662,-0.493091,0.400294,-0.731155,0.552428
0.573740,0.175476,-0.981488,0.112802,0.162563,0.980229
0.165506,0.358580,-0.985008,-0.241517,0.362245,0.900249
0.141450,0.321676,-0.979994,-0.481217,0.523095,0.703422
0.394557,0.016658,-0.908388,0.629588,0.772018,-0.087221
-0.165890,0.105451,0.202550,0.302434,0.837214,-0.455639
0.442960,0.107241,-0.959815,-0.306452,-0.704714,0.639895
-0.053533,0.521069,-0.395475,-0.302865,-0.316801,0.898838
-0.384936,-0.486442,0.751476,-0.654066,-0.602961,-0.456766
-0.073896,-0.111587,0.568112,0.591305,0.465789,-0.658331
-0.247966,0.722186,0.224654,0.076155,-0.874234,0.479495
-0.007794,0.311518,-0.038179,0.957701,0.214287,0.192069
0.082440,0.333820,-0.665635,-0.450915,0.415245,-0.790093
0.236385,0.202154,-0.978973,-0.272202,0.526268,0.805573
0.113555,-0.354736,0.925166,0.101082,-0.646038,0.756582
0.151761,0.085233,0.360191,0.859123,-0.204050,-0.469331
-0.043664,0.509697,-0.490213,0.640650,0.604817,-0.473038
-0.168641,-0.459875,0.908748,0.326368,0.195201,-0.924868
0.181483,0.293947,-0.184041,0.843239,0.363921,-0.395613
0.113921,0.025347,-0.956207,-0.273490,0.561489,0.780983
0.812764,0.090608,-0.971511,0.284260,0.317130,0.904779
0.050134,-0.257310,0.146224,0.950689,0.102240,-0.292809
0.033697,0.093959,-0.257713,-0.442011,0.855261,0.270472
0.029809,-0.102352,0.496375,-0.605189,0.576492,-0.549002
0.415176,-0.146660,-0.957460,-0.184341,-0.266615,0.946010
0.847836,0.066383,-0.965904,-0.979301,0.199375,-0.034907
0.081114,0.134257,0.191896,0.596648,-0.776209,-0.203740
0.583362,0.271854,-0.980517,-0.165297,0.379950,0.910118
-0.001429,0.109672,-0.344146,-0.477652,0.846084,-0.236624
0.020226,-0.180674,0.606168,0.986561,-0.139696,-0.084743
0.054667,0.449685,-0.446646,0.671200,0.619575,-0.406961
0.316654,0.087347,-0.968801,-0.133004,0.194545,0.971834
0.417061,0.268547,-0.597995,0.696452,-0.674305,-0.245493
-0.008569,-0.250573,-0.958406,-0.788437,-0.288374,0.543330
-0.250615,0.284532,-0.479241,0.837073,-0.025923,0.546476
-0.065997,0.100306,-0.348515,-0.431874,0.847481,-0.308643
0.081446,-0.111444,-0.642845,-0.008445,0.506256,0.862342
0.378260,0.126307,-0.931533,-0.475554,-0.046729,-0.878445
-0.373241,-0.740367,0.838521,0.992674,0.052195,-0.108964
0.427674,0.331194,-0.950166,0.675388,-0.602833,-0.424787
0.395254,0.204059,-0.656649,-0.717942,0.694986,-0.039419
-0.003141,-0.255023,0.741506,0.991963,0.007712,-0.126295
0.548905,-0.184162,-0.956356,0.605157,0.361801,0.709144
0.126335,0.066394,0.068356,0.297390,0.907217,-0.297517
-0.018827,0.144166,-0.151359,0.908130,-0.417562,-0.030687
0.018587,0.074251,0.340845,-0.653818,0.689266,0.312145
-0.611247,0.432067,-0.215405,0.908923,-0.232076,-0.346409
0.590695,-0.218862,-0.956390,-0.352290,0.746529,0.564434
0.141505,0.434848,0.329258,0.877559,-0.277312,-0.391137
0.274905,0.191230,-0.701004,0.204523,-0.645196,-0.736133
0.507822,-0.377706,0.891789,-0.535075,0.611374,-0.583024
-0.021358,0.038772,-0.344143,0.772488,-0.062067,-0.631989
-0.081793,-0.207860,-0.598938,-0.076065,0.254029,0.964201
0.158958,0.002319,0.413288,0.018398,0.993990,0.107913
-0.209918,-0.601769,0.674650,0.793790,-0.452658,-0.406200
-0.164640,0.143387,0.598310,-0.942468,-0.264664,0.204222
0.070246,0.058438,-0.979379,0.398455,-0.084327,-0.913303
-0.048474,0.015982,-0.061545,0.876908,-0.432101,-0.210526
0.042135,0.574347,0.123165,0.394937,-0.753329,0.525852
0.540608,-0.470996,0.911207,0.530072,0.173059,0.830105
0.073315,-0.195497,0.718659,-0.111632,-0.993748,-0.001523
0.141761,0.449239,-0.616699,0.179987,0.977150,-0.113060
0.065949,0.396383,-0.667671,0.786854,-0.223777,-0.575138
-0.221234,0.326408,-0.498172,-0.565216,0.106937,-0.817982
0.667060,0.011145,-0.947894,0.424972,0.608799,-0.669898
-0.032539,0.546342,-0.468584,-0.592519,-0.775122,0.219333
-0.329387,-0.463791,0.791949,0.858803,0.354104,-0.370227
0.521124,0.281606,-0.981165,-0.712044,0.683658,-0.160016
0.458118,0.110437,-0.952227,-0.332831,-0.275535,0.901834
-0.057456,0.276204,0.103959,0.876292,-0.396667,0.273436
-0.043573,0.489352,0.215909,0.906698,-0.178638,-0.382081
0.281200,0.295900,-0.533003,0.997310,0.073081,-0.005621
-0.261477,0.017783,0.433282,0.165366,-0.427662,0.888684
0.007983,0.079131,0.205028,-0.178609,0.951706,0.249710
0.541355,0.317204,-0.971995,-0.415337,0.896033,0.156907
0.299866,0.326957,-0.985410,-0.708019,-0.185645,0.681355
0.284843,-0.086767,-0.577199,-0.289820,0.727122,0.622333
0.137374,0.157078,-0.648414,0.726447,0.508742,-0.462015
0.065362,0.136065,0.282450,0.981380,-0.080712,0.174293
-0.290383,-0.073724,0.454071,-0.533957,-0.844535,-0.040630
-0.054536,0.530522,0.122381,0.494433,-0.747661,0.443327
-0.100622,0.003150,-0.195286,-0.632571,0.699063,-0.333414
0.198055,0.276369,-0.549529,0.364068,-0.729800,-0.578659
0.084513,-0.206277,-0.637345,0.402252,-0.003679,0.915522
-0.106839,0.421669,-0.443759,0.411209,0.778905,-0.473512
-0.153487,-0.116477,0.125813,-0.181738,0.475343,0.860826
0.269031,0.380581,-0.526649,0.235959,-0.672343,0.701626
0.348189,-0.039316,0.338630,-0.441384,0.096600,-0.892104
0.559367,-0.193149,-0.960980,0.142266,0.515514,0.844989
-0.285833,-0.517076,0.812439,0.902107,0.271480,-0.335414
-0.475012,-0.091227,-0.308182,0.289581,0.257907,0.921752
0.512333,0.427334,-0.981863,-0.379603,-0.775216,0.504918
-0.183916,0.018666,0.233086,0.238570,-0.264240,0.934485
-0.123458,-0.097494,0.274875,-0.039939,-0.959073,0.280326
-0.498357,-0.305802,0.183782,0.986933,0.083743,0.137657
0.619867,0.467385,-0.989584,-0.224169,0.213433,0.950892
0.023011,0.289946,0.177751,0.970831,0.046921,-0.235129
0.403148,-0.144321,0.313702,-0.725354,-0.030081,0.687718
-0.159911,-0.272151,0.534988,0.901769,-0.431988,0.014104
0.338051,-0.442048,0.905964,-0.214511,-0.604853,0.766901
-0.153611,-0.590657,0.200663,-0.644071,0.639297,0.420086
-0.162243,0.540036,-0.456121,-0.364793,0.807340,0.463819
0.699864,0.023311,-0.964828,0.232196,-0.450620,-0.861990
0.161097,0.390957,-0.986438,-0.179847,0.803856,0.566984
-0.266227,-0.804397,0.866375,0.958118,0.054585,-0.281124
0.506042,-0.539296,0.905778,0.322992,0.550503,0.769820
-0.824859,-0.163911,-0.258082,0.214249,0.754163,0.620754
0.153063,0.186766,-0.686041,0.457875,0.848460,0.265456
-0.033948,0.091458,-0.396003,0.877770,-0.419327,0.231699
-0.007361,-0.210223,0.655301,0.808489,0.504989,-0.302212
0.299976,0.289466,-0.965619,0.210979,0.289347,0.933684
-0.233030,-0.626384,0.867509,0.850905,0.382568,0.360004
-0.257137,-0.344816,0.776169,0.992273,0.122771,-0.017917
0.122555,-0.029440,-0.974860,-0.014545,0.223109,0.974685
-0.137603,-0.177916,0.533802,-0.648033,-0.761407,-0.017655
0.046907,-0.138663,0.669501,-0.561000,0.680801,0.470945
0.012127,0.065000,-0.093150,-0.664256,0.738744,0.114108
0.221122,0.059591,-0.505775,0.830362,-0.551193,0.081764
0.708310,-0.180588,-0.948678,0.174046,-0.164023,0.970981
0.382279,-0.267588,0.901396,0.594939,-0.455655,-0.662138
-0.268909,-0.725064,0.209597,0.849018,-0.525181,0.057907
-0.054647,0.585527,-0.377050,0.682336,-0.711233,-0.169014
0.473176,0.211145,-0.978698,0.121229,-0.127443,0.984409
0.866231,0.073747,0.147992,-0.047591,-0.743119,0.667465
0.003043,0.428815,-0.013960,0.708003,-0.700937,0.086130
0.513383,-0.372857,0.894655,-0.488971,0.507314,-0.709606
-0.247565,0.292928,0.342315,0.875782,0.021574,-0.482224
0.347554,0.220443,-0.692342,0.590734,-0.248030,-0.767798
-0.224949,0.805595,0.259324,-0.277063,0.494158,-0.824041
-0.301270,-0.517484,0.944555,0.896250,-0.263215,0.357006
0.212249,0.330405,-0.563156,0.384217,-0.533627,-0.753405
0.293609,0.009575,-0.964500,0.582749,-0.007513,-0.812618
-0.279133,0.011763,0.304058,-0.445000,0.735523,-0.510863
-0.252172,0.174208,0.302821,0.188956,-0.797289,0.573259
0.589265,0.284942,-0.968698,0.192328,-0.056804,0.979685
0.203448,0.327563,-0.994323,0.615313,0.263048,-0.743099
0.218498,0.249479,-0.967466,0.556422,0.010001,-0.830840
-0.340010,-0.760276,0.842542,0.864519,0.004527,-0.502579
-0.029030,-0.621181,0.899447,-0.617720,-0.742201,-0.259922
0.598767,-0.124818,-0.945058,0.968495,-0.159232,-0.191475
-0.042678,0.081949,0.016145,-0.571449,-0.214913,0.791996
0.445985,0.104523,-0.969270,0.182016,0.603088,0.776631
0.230337,0.131435,-0.700539,0.850825,0.216234,-0.478895
-0.014105,-0.274380,0.827418,0.412040,0.800839,0.434603
0.209090,0.157617,-0.737135,0.026582,0.326186,0.944932
0.794599,0.326367,-0.982112,0.474855,0.388105,0.789865
0.380054,0.325616,-0.970567,0.937068,-0.234149,0.258996
0.008993,0.377295,-0.191572,0.939064,0.246100,-0.239986
0.624300,-0.104708,-0.964249,0.394249,0.375267,0.838894
-0.108906,-0.243295,0.951155,-0.515800,-0.631122,-0.579340
0.060812,0.094082,0.194689,0.883339,-0.467272,-0.036992
0.344777,-0.164911,-0.962640,0.309908,0.425861,0.850058
-0.177683,0.461038,0.207395,-0.368697,0.096131,-0.924565
0.152131,0.108544,-0.927946,0.942137,0.335178,-0.005719
-0.523449,0.413597,-0.167195,0.369521,0.880583,-0.296694
0.689046,-0.076343,0.090583,-0.237386,0.184709,0.953693
0.343929,-0.045332,-0.969670,0.333008,0.535247,0.776283
-0.579005,-0.015650,0.130805,-0.279234,0.618324,0.734646
-0.226786,-0.146901,0.581295,0.917414,-0.309180,0.250520
-0.252570,-0.161520,0.143063,-0.409680,0.910894,0.049349
0.787983,0.231330,-0.946606,-0.699383,0.465075,-0.542742
-0.040153,0.205503,0.174486,0.974603,-0.098652,-0.201037
0.318485,0.438949,-0.628429,-0.707419,0.665880,0.236985
-0.028639,-0.521687,0.662491,0.887357,-0.459862,-0.033526
0.529809,0.463716,-0.984385,-0.316043,0.841355,0.438450
0.174777,-0.091327,-0.601380,-0.329329,-0.031606,0.943686
0.456932,0.471834,-0.848903,0.758795,-0.563506,0.326636
-0.721404,0.017589,0.110883,-0.004651,0.998880,0.047078
0.195280,0.150913,-0.406796,-0.464395,-0.885627,-0.001662
0.134697,0.472004,-0.733327,-0.269947,0.614518,-0.741280
-0.001355,-0.198524,-0.607541,-0.720773,0.264595,-0.640684
0.117239,0.108113,-0.046033,-0.078957,0.996819,0.010870
-0.015763,0.150166,0.037135,-0.624281,-0.754780,0.201446
-0.097925,-0.042891,-0.656578,0.158854,0.872048,0.462922
0.245047,0.291663,-0.996863,0.096064,0.605577,0.789967
0.002279,0.081913,-0.249241,-0.314561,0.894968,0.316361
0.264251,0.489094,-0.663434,0.008048,0.853166,0.521577
-0.009241,0.335770,-0.449261,0.980017,-0.030533,-0.196557
0.568743,-0.074151,-0.948458,0.102086,0.356679,0.928632
0.286757,-0.004861,0.332293,0.070796,0.963003,0.260027
0.208672,0.014818,-0.959134,-0.302772,0.220192,0.927278
-0.057531,0.019806,-0.613603,0.859519,0.192042,0.473652
-0.002904,-0.271142,0.640361,0.757718,-0.118316,0.641767
0.216123,-0.278889,0.942228,0.103685,-0.728046,0.677642
0.163423,0.225391,-0.260107,-0.247314,0.881763,-0.401660
0.623402,-0.387325,0.890309,-0.583279,0.616793,0.528537
-0.162158,0.553788,-0.465992,0.282718,0.889586,0.358757
-0.339892,0.263964,0.131123,-0.269541,-0.654981,0.705938
0.359054,0.092935,-0.932949,-0.345284,0.906581,-0.242673
-0.061837,-0.020428,0.272885,-0.307181,0.389320,0.868372
