0.686572,-0.202582,0.708246,-0.341933,0.475622,0.810473
-0.178783,0.357081,0.931580,-0.582245,-0.542008,-0.605985
0.019466,0.109819,0.737925,0.860201,0.299353,0.412847
-0.297262,0.023287,0.569551,-0.169935,0.960522,-0.220273
-0.075773,0.374105,0.811469,0.466594,0.684965,0.559564
0.192785,0.058106,0.912571,-0.565235,0.602495,0.563480
0.510246,-0.207850,0.785305,0.962051,0.058977,0.266420
-0.661278,0.329265,0.613186,0.489026,-0.867422,-0.091833
0.207156,-0.371985,0.827704,-0.439787,0.726510,0.527986
0.067562,0.125301,0.880984,0.429328,-0.337983,-0.837523
0.148063,0.235217,-0.992527,0.011852,0.108242,0.994054
-0.057516,0.456782,0.864484,-0.235171,0.533328,0.812561
-0.182155,0.376931,0.738402,0.129263,0.991605,0.003129
0.060230,0.665949,0.640586,-0.060795,0.027246,-0.997778
-0.114850,-0.213889,0.835070,-0.135277,0.446038,0.884732
0.699916,0.104423,0.564516,0.055791,0.856095,0.513798
-0.111624,0.334789,0.722008,-0.184917,-0.891118,0.414385
-0.420433,-0.038705,0.549712,-0.726470,-0.679699,0.101243
0.218153,0.018019,0.765396,-0.433899,0.458054,0.775834
-0.112651,-0.106479,0.789916,-0.007011,-0.996840,0.079120
-0.542432,-0.314297,0.191005,-0.250974,0.899889,0.356668
0.053632,0.269457,0.673021,0.109879,-0.659173,0.743921
-0.080024,0.196544,0.520917,0.739181,0.654264,0.159842
-0.157008,0.193203,0.943275,0.839839,-0.538754,-0.066443
0.010375,-0.317701,0.266615,-0.466344,0.085573,0.880455
0.160454,-0.106479,0.843974,-0.040090,0.927713,0.371136
-0.477987,-0.152154,0.814348,0.798994,0.064473,0.597873
-0.226950,0.065622,0.132477,-0.484666,0.481833,-0.730025
-0.389861,0.058555,0.689468,0.321855,0.945194,0.054941
-0.088310,0.284425,0.511112,0.494356,0.834082,0.244784
0.053484,0.203675,0.860421,-0.452874,0.751819,0.479243
-0.066975,0.582501,0.700615,-0.514113,-0.664170,0.542740
0.007882,0.238236,0.187153,-0.749366,0.630273,-0.202994
-0.051944,0.099862,-0.588824,0.941129,0.335646,0.040229
-0.012574,-0.380657,0.778698,-0.783821,0.323628,0.529990
-0.310018,0.496868,0.860368,-0.437401,-0.723790,0.533675
-0.089263,-0.390614,0.294439,-0.719758,-0.625297,-0.301582
-0.335679,-0.353226,0.192382,-0.136632,0.988671,0.062140
0.767953,-0.658433,0.300039,0.138076,0.337896,0.931000
-0.253565,-0.295603,0.804314,0.420740,-0.040786,0.906264
0.132886,0.319564,-0.997050,-0.005897,-0.006625,0.999961
-0.027751,0.023223,-0.349910,0.941415,-0.285201,-0.179994
0.195573,-0.074101,0.828552,-0.759030,0.608967,0.230289
-0.106858,0.490637,0.799297,0.730711,-0.061298,0.679929
-0.278273,-0.353612,0.455729,0.879531,0.411966,0.238136
0.064702,0.102496,0.400859,0.921474,-0.386713,0.036589
-0.204663,-0.221212,0.420450,0.248877,-0.848049,0.467838
-0.196671,-0.052003,0.584055,-0.340126,-0.058207,0.938577
0.000989,0.326567,-0.987598,0.259409,0.114360,0.958973
0.026798,0.040953,0.317033,0.736075,-0.662717,-0.137838
0.209281,0.118749,0.345281,0.478373,0.162879,-0.862920
0.382602,0.642245,0.454881,0.324404,-0.265131,0.908002
0.016973,0.279735,0.515811,-0.412048,0.373518,0.831084
-0.292423,0.273376,0.598505,-0.484315,-0.831112,-0.273297
-0.195206,-0.104744,0.768611,-0.255566,0.840740,0.477328
0.009934,-0.175858,0.096032,-0.095262,0.904129,0.416504
0.341398,-0.351171,0.716602,0.315050,0.100644,-0.943723
0.158254,-0.248129,0.865173,0.003782,-0.778400,0.627757
-0.087283,-0.100247,0.364378,0.916176,-0.396461,0.058660
-0.051211,0.063951,-0.463926,0.583828,-0.811869,0.003578
-0.262729,-0.142453,0.768805,0.363507,-0.929514,-0.062178
0.003922,-0.072624,0.906865,0.016037,0.996493,0.082120
0.191831,0.101275,0.793396,-0.699773,0.566563,0.435115
-0.089775,-0.121768,0.808059,0.864052,0.503299,0.010154
0.458044,0.282241,0.668268,-0.649106,-0.527408,-0.548181
-0.567578,0.066457,0.673939,-0.208932,0.569473,-0.795014
0.778437,0.144573,0.556955,0.410354,-0.224197,-0.883937
-0.476741,-0.327980,0.201480,0.306776,0.728531,0.612479
0.310313,-0.161276,0.707540,0.346684,0.644083,-0.681885
0.050772,0.553785,0.685899,-0.696727,-0.715665,-0.048934
-0.227391,0.532329,0.911794,-0.483290,0.811358,-0.328831
0.590821,-0.025600,0.607815,0.320957,-0.797886,-0.510259
0.012134,0.199627,0.864131,0.743955,-0.533417,-0.402489
-0.093369,0.416439,0.798202,0.762752,0.495124,-0.416006
-0.108397,-0.269071,0.750645,-0.037560,0.501560,0.864307
-0.037795,0.110076,0.890400,0.201622,0.491621,0.847146
-0.132374,0.360935,0.325213,-0.245262,-0.739303,0.627119
-0.139778,-0.060868,0.795587,0.981932,-0.110236,-0.153811
0.315076,0.239328,0.864537,0.198876,-0.940727,-0.274739
-0.277101,-0.267465,0.148253,0.171149,0.763413,0.622823
0.076066,0.075964,0.112426,-0.674336,-0.729925,0.111715
-0.198139,0.157100,0.742094,-0.673707,0.636527,-0.375435
-0.135305,0.325539,-0.986751,0.022544,-0.181348,0.983161
0.279007,0.006842,0.696110,-0.252694,0.268915,0.929425
0.193666,-0.370636,0.841501,0.919974,-0.382310,0.086529
-0.075480,0.152475,0.900682,-0.296155,0.846715,-0.442002
-0.315517,0.005236,0.885648,0.752037,-0.540847,0.376729
-0.570145,0.019369,0.587076,0.790178,0.572423,0.218975
-0.052605,-0.126843,0.490301,-0.317273,0.946645,0.056582
-0.247041,0.548453,0.333905,0.224875,-0.305099,0.925390
0.393452,-0.089776,0.752994,0.598927,0.799657,0.042833
0.524250,-0.031253,0.566724,-0.415140,0.887034,0.202064
-0.039334,0.116179,0.796170,0.841545,-0.312615,0.440537
0.188974,-0.188000,0.617797,0.475894,0.871905,-0.115354
-0.126288,0.210998,-0.984330,-0.266391,-0.035013,0.963229
-0.001797,-0.387595,0.267622,0.317942,-0.757526,-0.570146
0.210749,0.661517,0.763435,0.005679,-0.107884,0.994147
0.437664,-0.379886,0.755874,0.898475,-0.200905,-0.390358
-0.046373,-0.138984,0.686146,0.625360,0.745118,0.231783
0.086036,-0.173674,0.468502,0.186846,0.890110,0.415684
0.404596,0.123310,0.497085,0.017543,0.844778,0.534829
-0.126800,-0.163524,0.630375,0.724106,0.672236,-0.154172
-0.030682,0.543121,0.630516,0.882925,-0.427522,0.194082
-0.119323,-0.656634,0.315956,0.402291,0.602489,-0.689325
-0.063308,0.253975,0.801894,0.209439,-0.102325,0.972453
0.086110,-0.103267,0.589902,0.893835,-0.155259,-0.420659
-0.272554,0.486783,0.676624,0.663634,-0.702264,0.257709
0.380842,-0.238814,0.805215,0.883100,0.339387,0.323961
-0.041753,-0.643786,0.503445,-0.299383,0.237832,0.924016
-0.261776,-0.510744,0.475162,0.839341,-0.024159,-0.543069
0.208402,-0.283718,0.571883,0.270972,0.961772,0.039615
0.332748,-0.123181,0.725100,0.996324,-0.058447,-0.062624
0.439863,-0.158449,0.733297,0.635848,0.770764,-0.040260
0.261924,-0.302155,0.703035,-0.402110,0.663248,0.631197
0.072328,-0.217743,0.589655,-0.783272,0.468635,0.408493
-0.381576,-0.342049,0.481504,0.788232,-0.357906,-0.500593
-0.322189,-0.090162,0.736530,0.147679,0.415805,0.897384
0.479307,0.748948,0.465410,-0.194652,0.144297,0.970201
-0.145129,-0.402435,0.380207,0.770789,0.234323,0.592432
0.088310,-0.231555,0.912889,-0.627818,-0.777609,-0.034193
0.168298,-0.156522,0.133643,0.356547,-0.651340,-0.669798
0.767221,0.055022,0.608010,-0.530839,0.702653,0.473803
0.155028,0.216394,-0.993852,0.056806,0.099639,0.993401
0.023865,-0.168792,0.296152,-0.690370,-0.644333,0.328974
-0.153856,-0.052838,0.859185,0.118461,0.898801,-0.422047
-0.668389,-0.340635,0.204431,0.127370,0.967450,0.218674
0.319182,-0.112838,0.677419,0.431290,0.828012,0.358308
-0.217567,0.467896,0.895064,0.981466,-0.013920,-0.191133
0.669930,-0.523528,0.364431,0.583075,-0.551908,-0.596172
0.393233,-0.475283,0.706409,0.755721,-0.546448,0.360944
0.070421,0.648476,0.753206,-0.699564,-0.564532,0.438079
0.029217,0.449716,0.684309,0.953125,0.185024,-0.239414
0.050112,0.099798,0.707381,0.995511,-0.076490,-0.055737
0.046447,0.145280,0.712062,0.923068,-0.344811,-0.170445
0.176362,0.339351,0.904321,-0.151420,0.944703,-0.290875
-0.246673,0.241255,0.577077,0.952175,-0.187613,-0.241171
-0.635836,0.124916,0.577518,-0.683658,0.441607,0.581030
0.141024,-0.085665,0.835159,-0.245472,-0.787816,-0.564880
-0.319477,-0.464491,0.388439,0.950074,-0.215996,0.225180
0.860406,-0.028105,0.698530,-0.505876,0.590477,0.628829
0.045346,0.078919,0.769971,0.776993,-0.567739,0.271944
0.396240,0.705521,0.468731,-0.291471,0.655027,0.697126
-0.291102,-0.351299,0.445006,0.918304,0.223823,0.326528
-0.052164,-0.035172,-0.112603,0.852967,0.206889,0.479212
-0.222919,-0.112646,0.720100,0.670610,0.660980,0.336732
0.141317,0.088234,0.820549,0.599851,0.641746,-0.477851
-0.030682,0.329393,0.681606,0.063145,0.986107,0.153640
-0.191393,0.541772,0.683090,-0.230623,0.962825,-0.140645
-0.064555,-0.542800,0.458043,0.430570,0.589272,-0.683643
-0.238095,-0.374233,0.432428,0.930298,0.021073,0.366200
-0.445875,0.575434,0.848673,0.977929,-0.169797,0.121756
0.345725,0.386503,0.633714,0.826951,-0.177015,0.533683
0.144250,0.202004,0.179663,-0.492290,0.857450,0.149770
-0.183401,-0.351428,0.791118,0.830986,0.443722,0.335521
-0.020052,-0.296374,0.194485,-0.092428,0.966957,0.237596
0.326955,-0.258472,0.169717,-0.028593,0.930317,0.365640
-0.334654,0.560338,0.864184,-0.516183,0.489370,-0.702903
0.361047,0.123567,0.414974,0.942899,0.226526,0.244189
0.190366,0.272797,0.867912,0.592975,0.675834,0.437754
-0.079805,-0.124081,0.726319,0.775624,0.609489,-0.164103
0.327982,0.413548,0.686994,0.788803,0.511830,-0.340324
0.397412,-0.417467,0.746211,0.033562,-0.981734,0.187275
-0.140218,0.037099,0.959757,0.889605,0.456616,0.010280
-0.436050,0.078663,0.613787,-0.348003,0.666049,0.659753
0.083470,0.180291,0.161538,0.163938,-0.538204,0.826717
0.265956,0.204895,0.887680,0.924890,-0.373060,-0.073519
0.452106,-0.115151,0.784087,0.938643,0.304793,0.161402
0.669563,-0.479266,0.327934,-0.241351,0.205565,-0.948416
0.026650,0.047699,0.636169,0.869033,-0.001357,-0.494753
-0.469775,0.524813,0.813253,0.905700,-0.402280,0.133710
0.411562,0.515048,0.753454,-0.371772,-0.572762,0.730568
-0.601232,0.007356,0.615924,0.431802,0.538468,0.723602
-0.670295,-0.189799,0.553705,0.660720,0.170247,0.731071
0.225118,0.693958,0.289793,0.297151,0.526683,-0.796434
-0.018439,-0.077056,0.431103,0.537586,-0.842896,-0.022970
-0.297996,-0.054444,0.826803,-0.537177,-0.788638,0.299150
0.429452,0.228279,0.444246,0.551247,0.816435,0.171934
0.265663,0.197315,0.676960,-0.240779,-0.204850,-0.948716
0.404964,-0.441943,0.738279,-0.100704,-0.976435,0.190875
0.623741,-0.110462,0.692594,0.445247,0.199729,-0.872848
0.395580,0.616034,0.473466,0.879984,0.471327,0.058977
0.180468,-0.245688,0.808183,-0.723833,0.593213,-0.352370
-0.043221,0.029326,-0.209642,-0.807022,-0.505449,-0.305347
0.875728,-0.799570,0.315744,0.249304,0.490591,0.834966
-0.006636,-0.173738,0.814437,0.081299,0.617302,0.782514
0.284211,-0.038833,0.824082,-0.126890,-0.589253,0.797922
-0.053045,0.033951,0.011501,0.988933,0.027122,0.145862
0.038674,-0.178878,0.246370,0.486533,0.587924,-0.646243
0.165219,0.475476,0.727184,0.363365,0.870474,-0.332026
-0.207156,0.376674,0.930961,0.403898,0.517915,0.754076
-0.001723,0.336588,0.799138,-0.409988,-0.739216,0.534294
0.066316,0.037677,0.727273,0.387962,-0.087331,-0.917529
-0.480847,-0.142453,0.767463,-0.577660,-0.567686,-0.586551
-0.040068,0.030996,-0.162386,0.721485,-0.670449,0.173083
0.147110,0.332926,0.454316,-0.606916,0.775111,-0.175661
-0.070493,-0.063438,0.391301,0.247059,0.966318,0.072054
-0.207597,0.204317,-0.994046,-0.371562,-0.003386,0.928402
0.023424,0.199820,0.170106,-0.771187,0.545713,-0.327823
0.121229,0.641795,0.740204,0.550508,0.774670,-0.311171
0.048718,0.084187,0.075045,-0.142229,-0.957501,0.250923
0.367938,-0.295538,0.693354,0.372271,-0.361008,0.855037
-0.150922,0.271962,0.463767,-0.066744,0.989059,0.131559
-0.143152,-0.160441,0.610306,-0.755937,-0.654229,0.023305
-0.397119,0.195773,0.797000,0.791718,0.563231,0.236545
0.038967,-0.091575,0.029749,-0.485273,0.433129,-0.759545
0.135379,0.320143,0.887998,0.082530,0.927198,-0.365368
-0.162727,0.053737,0.959739,0.862564,0.484637,0.145292
0.467650,-0.152218,0.744833,-0.102303,0.979223,0.175091
-0.801313,-0.028683,0.544077,-0.407277,-0.423448,-0.809208
-0.425566,0.330164,0.933152,-0.319500,-0.226539,0.920109
-0.550791,0.486140,0.795887,-0.407134,0.470154,-0.783069
-0.236849,0.057270,0.818464,-0.198528,0.787442,-0.583542
0.185819,-0.256609,0.675688,0.559504,0.745617,0.361955
-0.131933,0.324382,0.556107,0.397646,0.847855,-0.350742
-0.082371,-0.145216,0.366481,0.926672,-0.372054,-0.053425
0.037354,0.196544,0.632601,0.951425,-0.303810,-0.049901
0.197698,-0.239521,0.167615,-0.160565,0.856366,0.490771
-0.452180,0.464298,0.854485,-0.554159,-0.728164,-0.403342
0.487664,0.219221,0.469102,0.901262,-0.231526,-0.366229
0.010742,-0.191405,0.107762,-0.258844,0.897114,0.358030
-0.195499,0.601516,0.815426,-0.612028,0.786261,-0.084942
0.063823,-0.086050,0.031216,0.387742,-0.910323,0.144804
0.027236,0.001767,0.332279,0.744642,-0.659207,0.104663
0.452693,0.587897,0.453645,-0.585180,-0.510596,0.629965
0.053117,0.473035,0.429619,0.559801,0.515949,-0.648397
-0.180835,0.144573,0.869660,0.028843,0.077987,0.996537
0.595072,-0.931070,0.329382,0.154183,0.141945,0.977793
-0.126140,0.257123,0.458609,0.220973,0.925870,0.306489
-0.031857,-0.397360,0.448309,0.405971,0.230484,-0.884344
-0.079586,0.435133,0.817952,0.891760,0.407042,-0.197690
-0.363980,0.517618,0.901919,0.002278,0.996919,0.078404
0.332893,-0.188193,0.803802,0.204070,0.755192,0.622929
-0.600059,0.148107,0.595697,0.659613,0.403020,0.634417
0.133398,0.289371,0.947267,0.961300,-0.218549,-0.167746
-0.071081,-0.158642,0.733862,0.558359,0.808025,0.187962
-0.045346,-0.218129,0.112055,0.291469,-0.829780,-0.475931
-0.801899,0.016670,0.545737,-0.413208,-0.501168,-0.760322
0.377617,-0.476761,0.274352,-0.671162,0.134639,0.728982
0.053705,0.295988,-0.994365,0.124598,-0.011689,0.992138
0.240149,0.507918,0.723369,0.223397,-0.974211,-0.031740
0.580923,-0.117400,0.678391,-0.258776,0.068370,0.963515
-0.183620,0.426139,0.348656,0.655792,0.278549,-0.701674
0.605190,0.175537,0.468484,0.729242,0.507279,0.459209
-0.079805,0.354190,0.326697,0.392417,0.640990,-0.659652
-0.421460,0.384255,0.880119,0.676309,0.410759,-0.611460
-0.212727,-0.044294,0.719146,-0.711588,-0.333742,-0.618271
0.187213,0.335496,0.524220,-0.075927,-0.571510,0.817075
0.681220,0.028619,0.454616,-0.705989,0.638542,-0.306338
0.076798,0.133652,0.414815,0.976298,-0.114700,-0.183537
0.548370,-0.630553,0.306116,-0.521987,0.482453,-0.703398
-0.003117,-0.153503,0.102816,-0.485713,-0.823623,-0.292794
0.043295,0.049497,0.839452,-0.189177,0.946782,0.260415
-0.344405,0.386632,0.877645,0.777045,0.240058,-0.581870
-0.025771,-0.057013,0.826856,0.296129,0.308208,0.904055
-0.083763,0.070954,0.833057,-0.276165,0.809795,-0.517653
0.180615,-0.019304,0.824453,0.826728,0.312124,-0.468081
-0.109350,0.189285,0.859909,-0.237798,-0.968660,-0.071756
0.028849,-0.015064,0.219411,0.890479,-0.454745,0.015927
-0.223138,0.154081,0.753436,-0.727845,0.412314,-0.547940
0.663625,0.162111,0.450588,0.407509,0.557202,0.723507
0.051139,0.482093,0.731089,0.219220,-0.504488,0.835126
-0.409729,-0.125815,0.608116,0.391183,-0.426216,0.815669
0.027677,-0.611152,0.470586,0.372656,0.144301,0.916682
0.327174,-0.047185,0.552556,0.018402,0.996569,0.080700
0.043659,0.367038,0.720277,0.638836,-0.767579,-0.052070
0.379302,-0.149456,0.675140,-0.224253,-0.971854,0.072187
-0.090728,0.286995,0.550984,-0.473251,0.869273,-0.142822
-0.017705,0.128899,0.124633,0.873481,0.479818,-0.082495
-0.458192,0.481708,0.800657,-0.083378,0.564242,-0.821389
0.121081,0.125108,0.419249,0.963193,-0.153244,-0.220853
-0.335607,-0.404426,0.497721,-0.189644,0.356297,0.914925
-0.099893,0.597276,0.839858,0.672033,0.647666,-0.359027
-0.083470,0.288922,-0.985973,0.118856,0.116408,0.986064
-0.427253,-0.171683,0.843903,0.913365,-0.353845,-0.201390
-0.051578,0.054894,0.668463,0.285126,0.605793,0.742777
-0.038748,-0.072110,0.355545,0.864882,-0.501785,0.013800
0.296383,-0.339800,0.687860,0.722867,0.564332,0.398738
-0.148797,-0.506890,0.496114,-0.219047,-0.077622,-0.972622
0.690092,0.031703,0.608133,0.343293,-0.809373,-0.476512
0.134718,0.526804,0.229693,-0.551142,-0.048371,0.833008
-0.342865,0.410850,0.597269,-0.319497,-0.678251,0.661738
0.230984,0.446761,0.440307,-0.741243,0.587353,0.324923
0.430477,0.352327,0.856022,-0.418317,0.004612,0.908289
0.074966,0.477018,0.886284,0.520340,-0.235903,-0.820729
0.771913,0.193910,0.556284,-0.398603,0.411775,0.819486
0.490230,-0.817171,0.319048,-0.407613,0.539745,0.736565
-0.034568,0.098641,0.826096,0.961766,-0.212725,0.172492
-0.203343,0.260784,0.884553,0.274517,-0.630194,0.726289
0.465889,-0.859506,0.329753,-0.256637,0.452080,0.854261
0.164119,0.575563,0.474084,-0.370172,0.201262,0.906899
0.146376,-0.020718,0.101509,0.941288,0.206679,0.266946
0.129514,0.346353,0.856287,-0.118796,0.748520,0.652385
-0.520216,-0.305303,0.214059,0.276826,0.516321,0.810420
-0.054218,0.028876,0.908755,0.738503,0.465269,-0.487994
-0.100114,0.610124,0.693972,-0.322072,-0.408856,0.853877
-0.329667,0.030482,0.834064,0.967160,-0.252994,0.024386
0.448806,-0.194360,0.701427,-0.115802,-0.903596,0.412438
-0.306646,0.231169,0.690475,-0.756202,0.067189,-0.650880
-0.269549,-0.106993,0.797513,0.314098,-0.872032,0.375371
-0.051211,0.344811,0.627495,-0.660952,-0.750266,-0.015595
-0.238314,0.550381,0.908278,-0.689940,0.601997,-0.401972
0.758349,0.104680,0.660407,0.220717,-0.047229,0.974194
-0.374830,0.651559,0.841572,-0.622711,0.412640,-0.664800
-0.606877,0.207208,0.579020,-0.337736,-0.885680,-0.318599
0.575132,0.230784,0.524874,0.898579,0.312688,-0.307867
-0.210161,0.529310,0.881249,0.565898,-0.786480,-0.247404
-0.314638,0.332348,0.878317,0.863496,0.502840,-0.039079
0.024818,-0.255324,0.761933,0.509575,0.855839,0.088729
0.770519,0.170976,0.459086,0.144266,0.601998,0.785357
0.034862,-0.301063,0.373900,-0.597596,0.188876,0.779233
-0.060303,0.301256,0.583560,-0.114182,-0.938278,0.326491
-0.107592,0.665243,0.736865,-0.025862,-0.985703,0.166498
-0.223505,0.079690,-0.992845,-0.044842,0.167138,0.984913
0.038967,-0.199242,0.114794,-0.267188,0.679494,0.683300
0.499762,-0.195516,0.668268,0.881468,-0.066654,-0.467517
0.557315,0.105001,0.559658,-0.624231,0.670713,0.400599
0.428206,0.151190,0.860368,0.947530,0.215052,0.236514
-0.041681,0.445669,0.875066,0.602741,-0.716422,-0.351344
0.193959,0.075386,0.913613,0.881702,-0.075210,-0.465773
0.447267,0.438281,0.496202,0.254701,-0.226969,-0.940007
-0.017705,-0.493785,0.431474,-0.206275,0.818945,0.535518
0.377911,-0.337616,0.729410,-0.064739,0.938015,0.340495
0.187140,0.114573,0.689220,-0.038027,0.161094,0.986206
-0.254737,0.522115,0.810038,0.255523,-0.728445,-0.635670
-0.158693,0.029840,0.843903,0.798190,-0.089836,-0.595670
0.262803,-0.159027,0.686058,0.934370,-0.139862,-0.327707
-0.323729,0.414897,0.765908,-0.376333,0.313993,-0.871655
0.195866,-0.659333,0.460711,0.153776,-0.714453,0.682576
-0.390373,-0.100954,0.730753,-0.193845,0.178515,-0.964653
-0.024525,-0.141490,-0.073172,-0.447266,0.878444,-0.168192
0.074820,-0.293226,0.612373,0.629239,0.699847,0.338043
-0.684225,-0.453634,0.235258,0.012493,0.503733,0.863769
0.513544,0.235152,0.485549,0.523775,0.357621,-0.773154
0.407089,0.321363,0.616242,-0.458176,0.240959,-0.855578
0.010153,0.023737,0.702947,0.828571,-0.511779,-0.227053
0.129807,0.662802,0.266173,0.442786,0.725338,-0.527092
0.780930,-0.796679,0.326149,-0.290786,-0.260885,-0.920534
0.094322,-0.112646,0.848373,0.409115,0.756875,0.509672
0.060230,0.471301,0.235170,-0.481934,0.446886,-0.753679
-0.335679,0.617383,0.818500,-0.400356,0.415894,-0.816546
0.290149,-0.083224,0.675458,-0.566472,-0.819039,0.091019
0.756736,-0.047634,0.697718,0.427878,-0.748166,-0.507118
-0.080904,0.097421,0.917147,-0.681075,0.497506,-0.537238
-0.909748,0.075515,0.540013,0.381623,0.924303,0.005182
-0.356867,0.585327,0.812953,0.262296,-0.801814,0.536931
0.040507,0.239842,-0.993587,0.198219,0.191762,0.961216
0.266468,0.112838,0.864838,0.919439,0.293917,0.261237
-0.020712,0.076992,0.620765,0.986719,-0.027766,0.160044
-0.204370,-0.363633,0.809084,-0.682741,-0.366539,-0.632071
-0.272554,0.367102,0.760520,0.032346,-0.933460,0.357220
0.202683,0.379372,0.468449,0.712207,-0.700969,0.037471
-0.012060,0.078470,-0.090768,-0.637855,0.769994,0.015838
-0.306500,-0.534577,0.301205,0.098473,-0.387540,0.916579
0.033982,0.408024,0.223386,0.948085,-0.144973,-0.283050
0.083324,-0.070504,0.831502,0.092528,0.980861,0.171317
0.077825,0.495005,0.706462,0.303174,0.692229,-0.654907
-0.108178,-0.249799,0.842879,0.313462,-0.309256,-0.897832
-0.225411,-0.003308,0.567095,-0.648095,-0.142085,-0.748188
-0.036987,-0.004850,0.879854,-0.742948,0.285050,0.605619
-0.556436,-0.174638,0.670265,-0.490886,0.871112,-0.013929
0.052237,0.007291,-0.211303,-0.805323,-0.535979,-0.253340
-0.051211,0.048213,0.603699,0.909945,0.413014,0.037685
0.209281,-0.407445,0.745204,0.483787,0.272243,-0.831766
-0.011841,0.039797,-0.081369,0.982941,-0.030415,-0.181390
-0.303934,0.150419,0.912695,-0.239927,-0.153439,0.958588
-0.161040,-0.231169,0.134544,0.206758,0.976718,0.057210
-0.019907,0.119519,0.567696,0.928458,-0.181268,-0.324204
-0.111771,0.284168,0.437851,-0.767325,0.619302,0.166365
-0.295208,-0.032731,0.610872,-0.733626,0.676430,-0.065080
0.020345,0.020075,0.585715,-0.776339,0.567017,-0.275298
-0.402690,-0.353355,0.207681,0.009129,0.939442,0.342587
-0.184280,0.153631,-0.991344,-0.281012,0.021882,0.959455
0.465377,0.236116,0.651645,-0.819427,0.470735,-0.327028
-0.201291,0.084059,0.647493,0.267995,0.454458,0.849498
0.489203,0.422992,0.640868,0.886518,-0.355726,-0.295881
0.604091,-0.305175,0.322051,-0.017227,0.153655,0.987974
0.560980,0.196223,0.482882,-0.228261,-0.972734,-0.041054
0.124088,0.553400,0.233367,0.416119,0.403660,-0.814803
0.432676,0.700190,0.467707,-0.194686,-0.687676,-0.699427
0.552769,0.550445,0.510264,0.282766,0.048676,-0.957953
0.804758,0.000675,0.728333,-0.432820,0.726981,-0.533072
-0.163166,0.078277,0.558669,-0.354988,0.793768,-0.493878
0.450200,0.005171,0.706586,0.667490,0.695491,0.265987
0.091021,-0.180933,0.132071,0.448025,-0.841052,-0.303158
-0.660473,-0.020139,0.661485,-0.625792,-0.650810,-0.429918
0.365665,-0.446375,0.708635,-0.602048,-0.474311,0.642314
0.867078,-0.119969,0.746458,-0.572589,0.672415,0.469041
0.343159,0.410529,0.482034,-0.120392,-0.875301,0.468352
-0.057444,-0.123952,0.510971,-0.204343,0.973007,0.107249
0.029071,0.048277,-0.186164,-0.518722,-0.716781,0.465996
0.004289,0.079048,-0.217556,-0.475823,-0.859472,-0.186817
0.213535,-0.061318,0.657828,0.024599,0.879784,0.474736
0.253345,0.359137,0.672226,-0.712636,0.147635,-0.685823
0.338832,0.159734,0.834346,-0.359185,0.270991,0.893057
-0.136332,0.394276,0.649454,0.849934,0.516511,0.104065
0.275780,0.217037,0.818111,0.139169,0.754832,-0.640985
0.719930,0.000482,0.669540,-0.262726,-0.963529,0.050861
0.022399,-0.011852,0.893262,0.597037,-0.289805,-0.748037
0.764362,0.203289,0.460958,0.192641,0.390587,0.900184
-0.280913,-0.135001,0.788450,0.054696,0.998474,-0.007611
0.523810,0.141297,0.696605,-0.096044,-0.344363,0.933911
0.213828,0.322841,0.917977,0.117346,0.851938,0.510325
0.415594,0.289821,0.627796,0.880590,0.473872,-0.002587
0.652333,-0.546141,0.284563,0.585536,0.782632,0.211269
-0.127460,-0.029775,0.873777,0.141942,0.839109,-0.525117
0.529381,-0.190634,0.701604,-0.006268,0.964264,0.264870
-0.088529,-0.171362,0.828393,0.749467,0.625468,-0.216999
0.364200,0.128449,0.878723,0.377748,0.925735,-0.017914
0.090657,-0.446183,0.852736,-0.023014,0.770858,0.636591
-0.069175,0.105965,0.919955,0.957356,0.014892,0.288528
-0.147696,-0.527383,0.453256,-0.021717,-0.999764,-0.000624
0.298949,-0.039476,0.826661,0.316555,0.544789,-0.776529
0.408116,0.127550,0.793255,-0.059999,0.825342,-0.561436
-0.030537,-0.631195,0.497262,-0.460506,0.601797,0.652514
0.164633,-0.225709,0.851712,-0.537331,0.238148,-0.809050
-0.021884,0.392991,0.356146,0.903984,0.269461,-0.331970
0.319697,-0.236951,0.229552,0.407610,-0.482237,-0.775436
-0.025185,0.014229,0.600025,-0.389253,0.916917,0.088002
-0.115951,0.377509,0.679663,0.508901,0.858639,0.061301
0.448880,0.170848,0.467813,-0.594454,0.759703,0.263583
0.308040,0.531430,0.724252,0.332545,0.725033,-0.603110
0.908135,-0.636270,0.309296,-0.008111,-0.006478,0.999946
-0.023498,-0.162175,0.764424,0.799177,0.312003,-0.513781
-0.174970,0.252690,0.894410,0.852826,0.374650,0.363766
-0.047326,0.185751,-0.966028,-0.389364,0.317945,0.864469
-0.313830,-0.037741,0.631947,-0.308297,-0.636516,0.706965
0.254444,-0.018019,0.702063,-0.139951,0.160271,-0.977101
-0.651821,0.077185,0.556902,0.405814,-0.710335,0.575099
0.239561,0.240163,0.935908,-0.099735,-0.903494,0.416834
-0.109279,-0.499695,0.422658,0.910419,-0.312739,-0.270798
-0.047913,0.531494,0.876974,0.729463,0.611355,-0.306804
-0.458192,0.456975,0.875437,0.996074,-0.077484,-0.042810
-0.051139,-0.091254,0.863831,-0.181609,0.980926,-0.069301
-0.020564,0.148042,-0.811681,-0.591197,0.795402,0.133499
0.284726,0.329522,0.670848,0.429517,0.181752,0.884580
-0.109131,-0.573764,0.408950,0.299094,0.827345,0.475440
-0.066316,0.072367,0.022489,0.885980,0.348687,-0.305707
0.413249,-0.069605,0.856941,-0.554709,0.516254,0.652518
-0.264783,0.306781,0.899781,-0.219503,0.197987,-0.955311
0.101580,0.260592,0.450412,0.991503,0.095204,-0.088643
0.462958,0.583400,0.476575,0.749714,0.636593,0.180773
0.291543,0.548453,0.494135,-0.439568,0.650382,0.619502
0.173798,0.795073,0.285482,0.341277,0.392818,-0.853946
0.327834,0.138984,0.383634,-0.845944,-0.195517,0.496136
-0.160747,0.625349,0.681430,-0.270690,-0.472670,0.838636
-0.026064,0.117335,0.771756,-0.651576,-0.291587,0.700304
0.104146,-0.164681,0.104547,-0.226448,0.914655,0.334856
-0.272702,0.009090,0.649737,0.060290,-0.976563,0.206614
0.621980,0.527318,0.511695,-0.364739,-0.076105,0.927994
0.098060,-0.220377,0.876020,0.059119,-0.882840,0.465938
0.308845,0.431022,0.499329,-0.360654,0.467244,-0.807225
0.001282,0.029775,0.172155,0.967067,0.215871,0.134837
-0.073867,0.407381,0.884977,-0.117283,0.690076,0.714171
-0.069761,-0.141554,0.661750,0.151912,0.987894,0.031430
-0.437223,0.331064,0.643801,-0.365444,0.851907,-0.375106
0.005169,0.076992,0.073473,-0.671817,0.739353,-0.044941
-0.580336,0.169563,0.611101,0.802528,0.296709,0.517602
0.321089,0.592522,0.493605,-0.138337,0.501205,0.854199
0.359434,0.782417,0.305674,-0.433958,-0.129368,0.891597
-0.002895,0.082067,-0.355810,-0.774025,0.628439,0.077134
0.043807,0.225195,0.709642,0.974354,-0.162476,0.155680
0.001356,-0.114701,0.873335,0.469169,0.880483,-0.068043
-0.112065,-0.029390,0.696039,0.572349,-0.061103,-0.817730
-0.135965,0.512350,0.662598,-0.162155,0.857754,-0.487815
0.165513,-0.294318,0.894940,-0.100881,0.983171,0.152310
-0.810477,0.267594,0.594230,0.026732,-0.997280,0.068692
-0.056050,-0.382520,0.316380,-0.393213,-0.901525,-0.180656
-0.128854,-0.224424,0.138837,0.068511,-0.997427,0.021126
-0.688846,0.213825,0.581581,0.133381,0.427733,0.894010
-0.191979,-0.216780,0.444564,-0.321796,-0.155874,0.933890
-0.059422,0.029647,-0.382309,0.837206,-0.546454,-0.021775
0.216027,0.621302,0.460605,-0.139408,-0.976264,0.165751
-0.025330,0.084701,0.629439,0.949060,-0.231138,-0.214152
0.249971,-0.264061,0.624050,-0.554478,-0.826760,0.094983
-0.189561,-0.641345,0.437657,0.065872,0.627819,0.775567
-0.336265,-0.217743,0.823305,-0.473322,0.784121,-0.401399
0.354082,0.031253,0.534961,0.353656,-0.659255,-0.663559
0.101506,0.241833,0.181288,0.308498,0.006879,-0.951200
0.092122,0.479716,0.695280,0.286057,0.721168,-0.630943
0.062870,0.093052,0.724128,0.986270,0.157697,-0.049025
-0.126581,0.275945,0.892626,-0.088006,-0.606098,0.790506
0.804172,0.022259,0.686500,0.765695,0.245640,-0.594452
0.609517,0.156522,0.448433,0.058503,0.698647,0.713070
0.039847,0.212154,0.899869,-0.215775,-0.867217,0.448749
0.479233,0.020332,0.555665,-0.521326,0.634823,0.570279
0.316690,-0.236180,0.697099,0.573050,0.200314,-0.794662
-0.144984,0.017313,0.946048,0.749117,0.451967,0.484303
-0.065215,-0.434362,0.303166,0.847485,0.406951,-0.340821
0.537740,0.491215,0.670706,0.208609,-0.725592,0.655743
0.355840,0.041339,0.529149,-0.026422,0.401129,0.915640
0.121303,-0.308708,0.187401,-0.180274,0.145284,0.972828
0.374317,-0.105065,0.696958,0.814521,0.276752,-0.509866
0.376150,0.367809,0.850599,0.305967,0.029292,-0.951591
-0.014993,-0.127164,0.076193,0.158415,0.940856,0.299492
-0.255397,-0.289885,0.418772,-0.567884,-0.127722,-0.813139
0.012646,0.180163,-0.780112,-0.593382,0.723453,0.352866
0.116904,-0.390807,0.665442,0.786411,-0.425480,-0.447799
0.142784,0.310121,0.864767,-0.101521,0.780514,0.616839
0.213535,-0.798606,0.294156,0.666616,0.192790,0.720038
0.308478,0.010311,0.795870,0.919044,0.393559,-0.021672
0.185455,-0.084637,0.671413,-0.124275,0.388903,0.912858
-0.202976,-0.091382,0.830159,-0.006218,-0.964819,0.262841
-0.111404,0.185045,0.843232,0.734843,0.412698,0.538225
0.565675,-0.217358,0.722662,0.342952,0.930821,-0.126321
-0.167052,-0.530402,0.301311,-0.003238,-0.104692,0.994499
0.402471,0.672309,0.477564,-0.030209,0.591729,0.805571
-0.670955,0.088748,0.756475,-0.845847,0.193761,-0.496990
0.171598,0.169820,0.882839,-0.171277,-0.955582,0.239849
0.214562,0.718691,0.280094,0.535605,0.419663,-0.732810
0.031197,0.022195,0.410434,-0.489212,0.862876,0.126951
-0.224312,0.396846,0.565700,-0.165141,0.693586,0.701189
0.101139,-0.158770,0.857860,0.044975,-0.152325,0.987307
-0.718832,0.142582,0.630675,0.629361,0.044937,0.775813
0.066680,0.371792,0.232449,0.847012,-0.221816,-0.483083
0.181128,0.116821,0.918242,0.971046,0.192256,-0.141800
0.617362,-0.537019,0.309437,0.140494,0.846513,0.513495
0.156422,0.456654,0.704342,-0.172355,0.066204,0.982808
-0.078852,0.569717,0.859980,0.160917,-0.148262,0.975768
0.037576,-0.429480,0.735152,-0.005298,-0.727533,0.686052
-0.655486,0.028105,0.768629,0.681368,0.484653,0.548497
0.479085,0.266245,0.643854,-0.616107,0.171581,-0.768747
0.483706,0.152732,0.476752,0.048208,0.908574,-0.414934
-0.030830,0.076478,-0.153659,0.628960,-0.775169,0.059345
0.097329,-0.123438,0.609176,0.909138,-0.296405,-0.292597
-0.255619,0.132817,0.634632,0.752022,0.274749,-0.599146
-0.401518,0.256288,0.574303,-0.313343,0.918106,-0.242690
0.177170,0.181255,0.580575,-0.360396,0.926872,-0.104986
0.321162,0.609932,0.461488,-0.519018,0.027667,-0.854316
0.242494,-0.480487,0.736141,-0.300665,-0.658495,0.689916
-0.148430,-0.721967,0.467053,-0.569903,0.744858,0.346983
-0.286777,-0.158321,0.582818,-0.470342,0.412922,-0.779919
-0.625718,-0.279735,0.209306,0.608668,0.278366,-0.742991
-0.099821,0.024058,0.806081,0.101245,0.942084,0.319731
0.019540,0.016285,0.281013,-0.794035,0.607831,0.007061
-0.052678,-0.157036,0.666078,-0.500713,-0.865604,-0.004015
0.178857,0.214467,0.928082,0.374293,0.665504,-0.645762
-0.421534,0.321749,0.781366,0.913743,-0.263618,0.309158
-0.189999,0.591559,0.819895,-0.176127,-0.208099,0.962120
-0.071081,-0.257058,0.725877,0.801981,0.307871,0.511900
-0.360606,0.553528,0.804385,-0.309841,0.899616,-0.307716
-0.235676,-0.281149,0.806664,0.491063,0.159137,0.856465
-0.093955,0.179584,-0.935696,-0.527970,-0.849255,0.003760
-0.196597,-0.502200,0.304756,0.243048,0.418453,-0.875114
0.604897,0.116307,0.694997,0.149725,0.735243,0.661060
-0.350782,-0.049305,0.819401,0.837283,-0.197609,-0.509812
0.063308,0.012302,0.454952,-0.142526,0.986402,-0.081839
0.070347,-0.078919,-0.080097,0.976321,-0.188659,-0.105851
0.443087,-0.143096,0.804650,0.916649,-0.083428,0.390889
0.494851,0.064594,0.517260,-0.408654,-0.869492,-0.277463
-0.547638,0.020204,0.639102,-0.333788,0.925986,-0.176453
0.129221,0.303504,0.704978,0.050851,0.545391,0.836638
0.010668,0.641988,0.735364,-0.008442,-0.351756,0.936054
-0.585836,0.083673,0.731018,-0.591169,-0.559854,-0.580588
0.308478,0.629589,0.761191,-0.063108,-0.487858,0.870639
0.366399,0.486847,0.727343,-0.517071,-0.452683,0.726440
0.443309,-0.126650,0.798590,0.916649,-0.083428,0.390889
0.013527,-0.050975,-0.063350,0.900197,-0.357348,0.248893
-0.135233,0.372177,0.864590,-0.684175,0.642212,-0.345641
-0.347924,0.521986,0.713052,0.460179,0.881606,0.104911
0.380622,0.062795,0.399905,0.969889,-0.185949,-0.157285
-0.436930,-0.228022,0.774035,0.133235,0.938203,-0.319411
-0.051065,0.117400,0.943787,-0.150774,0.163568,0.974943
0.397558,0.119391,0.660831,-0.752106,0.611632,0.245443
-0.057516,0.523528,0.862594,0.886142,0.109416,-0.450312
-0.032224,0.146436,-0.586793,0.978586,0.203087,0.033541
0.098208,-0.097742,0.665389,0.229855,-0.197098,-0.953058
-0.453939,0.110911,0.839151,0.934630,0.193776,0.298191
-0.107151,-0.694601,0.472141,0.828429,-0.038763,-0.558751
-0.158986,-0.302284,0.263241,-0.029360,0.024352,0.999272
0.133839,0.190056,0.807406,0.407991,-0.791061,-0.455814
0.086989,0.331963,0.479401,-0.108582,0.988177,0.108245
0.121741,-0.426525,0.484472,-0.339155,0.170786,0.925098
0.423000,0.771111,0.466717,0.247475,-0.365990,0.897111
0.764948,-0.772589,0.316239,0.234351,0.473746,0.848908
0.004949,-0.053031,0.756139,0.571437,0.784689,0.240256
-0.055976,0.086885,-0.282691,-0.545876,0.837793,-0.011094
0.251585,0.220763,0.596297,-0.367094,0.930157,0.007004
0.242935,-0.021039,0.704766,-0.299553,0.155933,-0.941251
0.405991,0.368837,0.846553,0.286130,0.449392,-0.846272
-0.415229,-0.004850,0.523549,0.424770,0.741876,0.518837
-0.007368,-0.060996,0.926280,0.071665,0.869193,0.489252
0.154880,0.638904,0.760078,-0.326674,-0.332080,0.884877
0.342570,0.521537,0.453892,-0.270330,0.175134,-0.946705
-0.077899,0.397103,0.485231,0.491110,-0.680485,-0.543830
0.003849,0.015900,0.574268,0.494779,0.868894,0.014707
-0.076872,0.410272,0.869908,-0.189358,0.866249,-0.462338
-0.236923,-0.279992,0.416440,-0.363589,-0.238227,-0.900584
0.637449,0.170912,0.473271,0.719771,0.566298,0.401541
-0.035815,0.550252,0.697771,0.407833,0.721783,-0.559197
0.507973,-0.328687,0.732484,-0.751431,0.615857,0.236795
0.283918,0.327338,0.824330,0.604389,0.164815,-0.779455
0.012941,0.132303,-0.981733,-0.292137,-0.040689,-0.955510
0.418088,-0.018983,0.716443,-0.099428,-0.017600,0.994889
0.024965,0.274468,0.826485,-0.718347,-0.630015,-0.295057
-0.349902,0.544663,0.792319,0.053411,0.772085,-0.633271
0.060010,0.043651,0.386372,0.790999,-0.608878,0.059895
0.180103,0.819613,0.290164,0.304998,0.292631,-0.906280
-0.523957,-0.085279,0.668039,0.364004,-0.094610,0.926580
0.072840,0.016349,0.376833,-0.763813,0.635516,-0.112733
-0.109057,-0.016542,0.839575,0.837298,-0.456933,0.300241
-0.010668,-0.161276,0.008833,-0.360185,0.921030,0.148227
0.093442,0.513828,0.721372,-0.313079,0.877212,-0.363979
-0.037576,0.110140,-0.523284,0.901536,0.428903,0.057217
-0.081344,0.258279,0.290747,0.956685,-0.210994,0.200586
0.016020,-0.120740,0.802830,0.491497,0.846025,0.206574
0.095055,-0.259885,0.604176,0.670038,0.448430,0.591574
-0.705195,-0.305432,0.202841,-0.305619,-0.123614,0.944096
0.028556,-0.183439,0.094955,-0.258403,0.883416,0.390901
0.388760,-0.034529,0.580787,0.188583,-0.957149,-0.219777
0.027823,0.526997,0.657315,0.751755,0.652326,0.096612
0.545511,0.016606,0.521923,0.815869,0.235163,0.528257
-0.335167,0.462178,0.849451,-0.161312,-0.741811,0.650919
-0.393380,-0.028748,0.515104,0.227948,0.754655,0.615253
-0.254006,-0.004722,0.796488,0.170585,0.855329,0.489196
0.137871,0.635949,0.759036,-0.263067,-0.366683,0.892379
-0.229443,0.415989,0.827916,-0.557988,0.065851,-0.827232
-0.034349,-0.126072,0.423559,0.461354,-0.880601,-0.108137
0.262729,-0.064401,0.657775,-0.220012,0.936897,0.271697
0.269035,-0.004593,0.525633,0.770711,0.371865,-0.517417
-0.181349,0.211705,0.950306,0.840926,0.227154,-0.491166
0.391841,-0.032024,0.622408,-0.745526,-0.651628,0.139899
-0.008321,0.051938,0.534095,-0.751085,0.609211,-0.254428
0.304301,0.047956,0.825920,0.691622,0.628781,-0.355378
-0.140585,0.078598,0.947444,0.813603,-0.019477,0.581095
0.236630,0.366010,0.712363,0.559778,0.057037,-0.826677
-0.057737,-0.616870,0.325619,0.799460,-0.300534,-0.520137
-0.079879,-0.079498,0.861552,0.436917,-0.126009,-0.890632
-0.018219,0.625157,0.638042,0.165199,-0.213536,0.962866
0.465229,-0.318023,0.779228,-0.658648,-0.733685,-0.167003
-0.056050,-0.197315,0.835035,-0.349980,0.553985,0.755390
0.375931,-0.039990,0.548740,0.166757,-0.840746,-0.515109
-0.517285,0.239135,0.808289,0.481248,0.644479,0.594179
0.420433,0.003308,0.842614,-0.148542,-0.507954,0.848480
0.297848,0.091896,0.681571,0.895663,0.206570,0.393848
-0.192565,0.406225,0.827085,0.246747,-0.655294,0.713937
0.115363,0.189220,0.892467,0.692141,0.526415,-0.493790
0.064336,0.053801,0.378582,-0.817843,0.567952,-0.092537
0.427472,-0.013009,0.631770,0.849313,0.526179,0.042461
0.307380,0.255067,0.672579,0.056918,0.621738,0.781155
0.101580,0.200398,0.166431,0.282872,0.601052,-0.747476
-0.119983,0.407767,0.787814,-0.613771,-0.578390,0.537355
0.196745,0.823146,0.293485,0.229096,0.241002,-0.943098
0.076505,-0.036135,0.937763,0.008395,-0.988032,0.154021
-0.140218,0.601516,0.808572,0.842663,-0.085862,0.531551
-0.254592,0.509781,0.332491,0.087957,-0.251940,0.963737
0.367426,0.177207,0.476981,-0.066141,-0.956916,0.282732
0.064555,-0.561173,0.439565,0.142559,-0.233159,-0.961932
0.049304,0.439437,0.687489,0.817256,0.386668,-0.427294
-0.443747,0.194231,0.803395,0.218388,0.304753,0.927056
0.097400,0.203418,0.748949,0.987060,-0.051377,-0.151899
-0.596173,0.052902,0.614387,0.722759,0.507101,0.469541
0.005388,0.063951,0.085044,-0.587268,0.805842,-0.075726
0.201878,0.252433,0.426986,0.293839,0.376723,0.878486
-0.327689,0.624578,0.818835,-0.332936,-0.508681,0.793976
0.020564,0.531879,0.868141,0.844708,0.378024,-0.378901
-0.225118,-0.256737,0.156203,0.108154,0.783028,0.612511
-0.171303,-0.100183,0.758224,0.616601,0.786584,-0.033002
-0.275926,-0.481065,0.399551,-0.246909,0.853578,0.458739
0.251732,-0.460187,0.244444,0.841500,0.159230,-0.516259
0.346676,0.000289,0.678303,0.562496,0.665871,0.490117
0.378935,-0.687534,0.285093,0.360641,0.518465,-0.775327
0.302247,0.053673,0.669788,0.387986,0.921219,0.028692
-0.326736,0.395561,0.839505,0.737606,0.403739,0.541232
0.067047,0.248964,0.171431,0.087081,-0.602003,0.793731
0.012868,0.337680,0.735187,0.610864,0.354122,0.708126
-0.425418,-0.284296,0.746211,0.329260,0.900758,0.283236
-0.243302,-0.460251,0.501078,0.290718,0.288574,0.912255
-0.338612,0.210034,0.795905,0.527667,-0.572956,0.627128
-0.112138,0.507918,0.326379,0.430551,0.262750,-0.863474
0.011621,0.253397,-0.990867,0.177385,0.190253,0.965577
0.181568,-0.222690,0.799933,0.679263,0.367506,-0.635248
0.078047,0.094787,0.759266,0.079363,0.981501,-0.174236
-0.313173,0.164616,0.886072,-0.655715,-0.419188,-0.627949
-0.028483,-0.088556,0.386320,-0.395096,0.918422,0.020009
-0.030170,-0.046157,0.342473,0.798914,-0.585437,-0.137841
-0.500274,0.592651,0.868212,0.976264,0.027654,0.214811
-0.017486,-0.201490,0.843691,0.487240,0.463819,-0.739912
0.826314,-0.008640,0.717486,0.209933,0.935454,-0.284347
0.150848,-0.093759,0.470869,0.782718,-0.191585,-0.592155
0.731516,-0.835030,0.333799,0.342436,-0.107153,0.933411
0.461490,0.679376,0.460799,0.352439,-0.755208,-0.552673
-0.354742,-0.651046,0.447391,0.947034,0.085721,-0.309481
-0.060890,0.538946,0.825725,0.963343,-0.041501,-0.265044
0.106126,-0.051938,0.128096,0.825106,0.363757,0.432296
0.148430,-0.105644,0.121083,-0.038702,0.319575,0.946770
0.202757,-0.267787,0.184786,-0.002509,0.710229,0.703966
0.283113,-0.055407,0.810585,0.077842,0.948335,0.307572
-0.495144,0.075194,0.719765,-0.499439,0.586627,-0.637518
-0.336339,0.496676,0.867541,-0.311418,-0.937268,-0.156678
0.720812,0.128063,0.456966,0.146883,0.663319,0.733780
0.622201,-0.323804,0.734145,0.023864,0.830747,0.556138
0.124015,0.255645,0.171660,0.419936,0.517796,-0.745346
-0.422413,0.045257,0.883051,-0.574951,0.805260,0.144869
0.459145,0.123245,0.770289,0.013083,-0.834511,0.550835
0.430110,-0.140269,0.732802,0.812682,0.394836,-0.428548
-0.542213,-0.360229,0.224022,0.274754,0.922331,0.271690
0.479600,-0.771561,0.316574,-0.546124,-0.067132,0.835010
0.357894,0.025022,0.647511,0.861690,0.403226,0.308057
0.087356,0.691517,0.758294,-0.487486,0.298926,0.820366
0.027970,0.086500,0.722803,0.987317,0.158724,0.003300
-0.083177,0.617255,0.717963,-0.501669,-0.842911,0.194500
-0.711941,0.110654,0.625358,-0.606942,-0.512948,-0.607047
-0.020638,-0.032474,0.811645,0.605755,0.735687,0.303027
-0.209429,0.277937,0.675458,-0.527685,0.553457,-0.644386
-0.738333,-0.332477,0.226902,-0.061196,0.670298,0.739564
-0.037721,0.180612,0.033159,0.967456,0.180349,-0.177492
-0.097400,-0.143160,0.747200,-0.672159,-0.657773,-0.339906
0.618534,-0.007227,0.511571,0.066291,-0.970399,0.232232
0.430038,0.454148,0.497686,-0.218284,0.209501,0.953133
0.005095,-0.169242,0.277444,0.497531,0.616805,-0.609929
0.451520,0.504706,0.490001,-0.253172,-0.036280,0.966741
0.441548,-0.690104,0.313023,-0.676251,0.546270,0.494240
0.391107,-0.106736,0.704413,0.845462,-0.453911,0.281351
0.351883,-0.038191,0.554941,0.001347,0.981680,0.190530
0.511712,-0.156907,0.678126,0.735204,-0.256770,-0.627331
0.055023,0.171297,0.181641,-0.585014,0.810832,-0.017624
0.233549,-0.121575,0.122125,0.147988,0.468755,0.870844
0.041167,0.383484,0.450853,0.821328,0.196924,-0.535389
-0.129881,-0.151640,0.672137,-0.491930,-0.822754,-0.284747
0.349609,0.051746,0.858354,0.357909,-0.924904,-0.128274
0.065434,0.082260,0.842879,0.003289,0.864823,0.502065
-0.071961,0.503935,0.851023,0.950715,0.034829,-0.308104
-0.016973,0.485048,0.867753,-0.629919,0.587665,0.507791
0.512446,-0.240870,0.210066,-0.094761,0.430065,0.897811
0.039334,-0.012816,0.742589,-0.906487,-0.218836,-0.361099
-0.542139,-0.408795,0.282090,0.533971,0.702389,0.470664
0.095642,-0.306202,0.628096,0.966958,-0.022208,-0.253968
-0.266249,-0.231940,0.808978,-0.511124,-0.217836,-0.831444
-0.376150,0.567147,0.774706,-0.957836,0.173774,0.228806
-0.136039,0.265538,0.377787,0.582534,-0.790709,0.188237
0.447267,0.679568,0.465127,-0.517758,0.738270,0.432301
0.489132,0.158963,0.423754,-0.287645,-0.816483,0.500615
0.070714,0.123631,0.808837,-0.695198,-0.184556,0.694722
0.441255,0.801111,0.462778,0.315207,-0.327612,0.890682
-0.481873,0.050846,0.709554,0.274679,-0.854745,0.440412
0.352616,0.160890,0.872964,0.581990,0.806556,-0.103704
0.477475,0.347252,0.652952,0.932219,-0.305112,-0.194614
0.101067,0.278707,0.971098,-0.444399,0.852585,-0.274969
-0.001649,0.273825,0.975126,0.243212,0.961357,-0.128994
-0.131199,0.213503,-0.983641,-0.074369,-0.006822,0.997207
0.150043,-0.019497,0.603063,0.815591,-0.165475,-0.554463
-0.092415,0.493335,0.831219,-0.727888,-0.238172,0.643003
-0.023865,0.341599,0.844963,0.763759,0.511378,0.393909
-0.468236,0.174060,0.715225,-0.433465,0.894062,0.112966
0.263902,0.522051,0.754655,0.516028,0.000392,0.856571
-0.061917,0.041917,0.014875,-0.350389,0.936501,-0.013892
0.790976,-0.775030,0.322581,0.257374,0.377865,0.889369
0.201585,0.005750,0.819613,0.949918,-0.214676,-0.227088
-0.004070,0.080654,-0.390577,0.855082,-0.501237,0.132653
-0.101287,-0.032666,0.903367,0.964773,0.148450,-0.217199
-0.069027,0.459095,0.544130,-0.746560,0.223635,-0.626606
-0.058176,-0.149070,0.824877,0.135367,0.643134,0.753694
-0.143004,0.274917,0.411705,-0.115799,0.925962,0.359423
0.011474,0.075643,-0.163322,0.494046,-0.841554,0.218415
0.081711,0.209328,-0.993605,0.082164,0.139431,0.986817
-0.315665,-0.026178,0.844840,-0.764625,0.643795,0.029597
0.324536,-0.365818,0.689220,0.975991,-0.039983,0.214111
-0.242127,-0.167379,0.836342,-0.413211,0.517050,-0.749611
-0.078633,-0.041917,0.898474,0.824223,0.525686,0.210500
0.418234,0.534899,0.503038,-0.015588,-0.159200,0.987123
0.017705,0.020011,0.519962,-0.538463,0.841941,-0.034546
0.050186,0.026050,0.310215,0.757359,-0.643424,0.111416
-0.356207,-0.047956,0.612868,-0.611325,0.461181,-0.643113
0.101139,0.316095,0.945324,0.707664,0.619777,-0.339247
0.016826,0.065686,-0.454934,-0.242062,0.963939,0.110579
-0.430038,0.203610,0.579497,-0.806427,0.512705,0.294635
-0.107225,-0.593036,0.439936,0.775892,-0.126234,-0.618107
-0.334726,0.033694,0.564763,-0.059011,0.953025,-0.297087
0.276147,0.298429,0.650090,-0.574836,-0.508662,-0.640957
0.324389,0.393377,0.837597,-0.278740,-0.384931,0.879848
-0.189632,0.138663,0.964491,0.983281,-0.158357,0.089897
-0.205176,0.439630,0.328128,-0.496132,-0.118250,0.860157
0.214707,-0.167250,0.853655,0.700182,0.559664,-0.443306
0.554675,0.276973,0.499187,0.814902,0.568483,0.112971
0.462810,-0.317894,0.765997,0.979116,-0.076458,0.188376
-0.032662,0.357788,0.798855,0.605130,0.746954,-0.275459
0.386267,0.059969,0.384217,0.877650,-0.171286,-0.447651
-0.182595,0.062345,0.834541,0.270894,-0.755910,0.596001
0.166244,0.618797,0.725594,0.365474,0.728581,-0.579309
-0.114998,-0.381107,0.315444,0.192642,-0.975825,0.103226
0.355914,-0.215045,0.781755,0.398870,0.443082,0.802858
0.278199,0.568625,0.751422,-0.315786,0.055141,-0.947227
0.449321,0.298622,0.657174,0.635996,-0.706500,-0.310431
0.121963,0.378088,0.531834,-0.252048,-0.113537,0.961031
-0.001430,-0.056435,0.892874,0.222656,0.729258,0.646998
0.054878,0.092282,0.762463,-0.361967,0.932136,-0.010108
0.098208,0.391642,0.501148,0.667544,0.428917,0.608617
-0.089410,-0.526804,0.304862,0.119426,-0.042179,0.991947
-0.060890,0.443227,0.820690,0.846759,0.388209,-0.363721
-0.051871,0.239392,0.447585,-0.097012,-0.989396,-0.108092
-0.197550,-0.213889,0.832880,0.350863,0.771279,-0.531059
0.050846,-0.540745,0.448804,0.647597,0.610998,-0.455302
0.069468,0.042816,-0.990796,-0.135203,0.348095,0.927658
0.499688,0.005878,0.691075,0.813263,0.563136,0.146564
0.339491,0.427039,0.844009,0.269388,0.099267,-0.957902
-0.119468,0.433913,0.792990,0.472459,0.451093,-0.757164
0.246233,0.605820,0.751581,0.132389,-0.773830,0.619403
-0.795520,-0.075258,0.557079,-0.533434,-0.553562,-0.639544
0.498956,-0.001895,0.709094,-0.161212,0.606731,0.778388
0.661426,-0.038962,0.640709,-0.393129,0.843373,0.366295
0.026357,0.380529,0.666325,-0.575961,0.709983,0.405208
0.010520,-0.021874,0.804703,0.951552,0.164980,-0.259480
0.038894,0.084251,0.587623,0.949987,-0.299751,-0.087604
0.533194,-0.143802,0.754125,0.161932,0.986620,-0.018959
0.130687,0.422349,0.429318,0.383828,0.678280,-0.626589
0.071007,0.509588,0.683973,0.857553,-0.474720,-0.198099
0.076872,0.458517,0.222468,-0.119395,-0.500252,0.857608
0.318963,0.284232,0.515122,-0.296411,-0.828447,0.475202
-0.108619,-0.104038,0.728633,0.458929,0.888058,0.027139
-0.208328,-0.156907,0.138696,0.636212,0.748039,-0.188871
0.133913,0.165259,0.442674,0.934205,-0.214990,-0.284677
0.584883,0.199627,0.491609,0.797299,0.552780,-0.242382
-0.478792,0.010311,0.661750,0.880638,-0.184407,0.436430
-0.140731,0.538882,0.817528,0.355690,0.929082,-0.101445
0.233844,0.132625,0.688090,0.134305,0.508177,0.850716
0.419187,0.023094,0.693972,-0.222631,0.753441,-0.618678
-0.083324,-0.645328,0.317033,-0.103252,0.112472,0.988276
0.592215,-0.589246,0.339805,-0.758782,-0.124690,0.639299
-0.366912,-0.440722,0.375808,-0.817035,0.325858,-0.475679
0.122842,0.431985,0.672773,0.663945,0.154532,0.731639
0.477987,-0.647384,0.317281,-0.526468,0.594595,-0.607690
-0.069761,0.318601,0.491379,0.854604,-0.517933,-0.037394
-0.272995,-0.127421,0.798078,-0.324003,-0.945255,-0.038921
0.195206,-0.181512,0.881426,-0.291086,0.941079,0.172162
-0.077386,0.600424,0.726407,-0.016312,0.953378,0.301338
-0.336487,0.689333,0.817935,0.460062,0.714477,-0.527129
0.464424,0.003565,0.709059,0.423661,0.578269,0.697221
-0.385900,-0.171040,0.742112,-0.113152,0.763655,0.635631
0.037209,0.193589,0.804614,0.433528,-0.885774,-0.165703
-0.404377,-0.407253,0.240575,-0.010510,0.834892,0.550314
0.432312,-0.219992,0.711409,-0.374003,0.784919,-0.493988
-0.242127,0.687470,0.835106,0.034542,0.248694,0.967966
-0.286117,0.527126,0.922747,-0.551733,0.833284,-0.035034
0.574251,-0.859121,0.326202,-0.068119,-0.353897,-0.932800
-0.295063,0.508496,0.335353,0.214871,-0.285805,0.933888
-0.521684,0.045257,0.495124,0.366988,-0.890580,0.268676
-0.039775,0.012559,0.847437,-0.557275,0.762293,0.329171
-0.083177,0.371728,0.673710,0.420871,0.899221,0.119456
0.053851,-0.209456,0.882716,-0.132086,-0.963497,0.232865
-0.108838,-0.129541,0.752482,-0.603483,-0.792618,-0.086973
0.282159,-0.176951,0.625110,0.072055,-0.127239,0.989251
-0.007368,-0.067934,0.765449,0.865503,0.404945,0.294829
-0.004142,0.092410,0.542292,0.658170,-0.369537,0.655938
0.042561,0.133588,-0.694025,0.800190,0.593418,-0.086898
-0.581802,0.161597,0.589319,0.124947,0.886680,0.445182
0.275487,0.508303,0.454139,-0.436743,0.334600,-0.835044
-0.051578,0.052645,0.552627,0.574882,-0.803123,0.156536
0.129293,-0.134166,0.465498,0.417330,-0.435990,-0.797338
-0.055097,0.410272,0.427499,-0.266021,0.210634,-0.940673
-0.033982,0.165708,0.811469,-0.230863,0.969651,0.080493
0.639796,-0.209777,0.766739,0.945700,0.321677,-0.046641
-0.105979,0.050397,0.634862,-0.037239,0.994667,-0.096179
-0.026505,-0.015964,0.888704,-0.342217,-0.816532,-0.464932
0.164119,-0.388430,0.860580,0.794711,-0.217191,-0.566800
