0.299333,-0.104116,0.087697,-0.037265,-0.988351,0.147557
-0.537505,0.005397,0.766124,-0.050304,-0.737059,0.673953
-0.370657,-0.052670,0.826514,0.759780,0.541131,0.360434
-0.240913,-0.489987,0.503799,-0.795714,-0.604948,-0.029622
0.312474,-0.132123,-0.007785,0.084037,-0.995404,-0.045929
0.429503,0.024532,0.517921,-0.671201,-0.197875,-0.714378
0.253533,0.473301,0.496968,0.812252,0.101269,0.574448
-0.814435,-0.536664,0.525417,-0.536176,0.732158,0.420071
-0.158387,-0.372265,0.375047,-0.014697,0.901425,0.432686
0.226355,0.147946,0.753586,0.448537,-0.204350,0.870090
0.458761,-0.082530,-0.141528,0.104409,0.952377,0.286491
-0.058894,-0.404111,0.896102,0.103537,-0.954560,0.279456
-0.542894,-0.497005,0.447429,0.378121,0.683164,0.624749
-0.368672,0.577251,0.636520,-0.753338,0.570842,0.326529
-0.665123,-0.068693,0.788185,-0.469059,-0.051375,-0.881671
-0.060595,0.331613,0.265408,0.159725,0.447583,0.879862
0.508626,0.059754,-0.412865,-0.684085,0.704740,0.188070
-0.161082,0.583012,0.609366,0.947152,0.101559,0.304284
-0.415276,0.421062,0.691288,-0.019807,0.074804,0.997002
0.091176,-0.322343,0.300927,-0.669246,0.695955,-0.260300
-0.439430,-0.041413,0.753296,-0.345738,0.289909,-0.892423
-0.118022,-0.142185,0.825696,0.514840,-0.435054,0.738694
0.757527,0.075710,-0.955726,0.202740,-0.182610,-0.962055
0.184289,-0.153838,0.241525,0.678851,-0.713970,0.171491
-0.342156,-0.559772,0.697762,-0.598721,-0.759650,0.253902
0.093160,0.367630,0.267180,0.318440,0.611625,0.724231
0.274613,-0.036449,-0.809887,0.048894,0.407178,0.912039
0.261379,-0.099943,0.054053,-0.441388,-0.761943,-0.473941
-0.067779,-0.179065,0.604290,-0.668398,0.532457,-0.519359
-0.149454,-0.397492,0.839937,0.323088,0.816005,0.479322
-0.082668,-0.687291,0.793704,-0.424579,0.756226,0.497849
0.467977,-0.405768,0.591207,-0.260427,0.025013,-0.965169
0.261332,0.029761,0.057920,-0.698251,0.369128,-0.613343
0.010020,-0.340087,0.919543,-0.321069,0.714584,0.621518
-0.594980,-0.536333,0.683588,0.685811,-0.723479,0.079005
-0.470625,-0.021287,0.812698,0.143955,0.650026,-0.746152
-0.512218,0.617242,0.720572,-0.488902,0.437747,0.754555
0.776198,0.383653,-0.979677,-0.425331,0.260789,0.866650
-0.117786,0.415236,0.837399,-0.557336,-0.647907,0.519224
-0.222574,-0.125633,0.399492,0.262088,0.123819,-0.957068
0.340171,-0.113317,-0.362781,-0.388695,0.913355,-0.121239
0.172188,-0.124838,0.705836,0.106375,-0.713040,0.693007
-0.675615,-0.389612,0.656468,0.246364,0.489825,0.836287
0.359976,0.911479,0.380192,-0.505911,0.851242,0.139431
-0.501111,0.305657,0.738799,0.913514,-0.336646,0.228389
0.099589,-0.209058,0.847722,-0.448950,0.456921,0.767898
-0.049677,-0.417752,0.546677,0.079709,-0.555606,0.827616
-0.192514,-0.606715,0.754591,-0.573632,-0.320590,-0.753769
0.214586,0.363858,0.241355,-0.382042,0.533468,0.754623
-0.094107,0.421195,0.251252,-0.118183,-0.213890,-0.969682
0.294513,-0.517131,0.512010,0.418475,0.398820,0.815979
0.354587,-0.103586,0.028091,-0.432668,-0.871515,-0.230780
-0.470719,0.015328,0.215274,-0.511381,0.095390,0.854043
-0.162404,-0.243553,0.834180,0.930557,-0.064307,0.360457
0.276551,0.879168,0.378829,0.902285,0.193648,0.385204
-0.122844,-0.780051,0.869800,-0.772911,-0.341060,0.535057
0.547573,0.113253,-0.777486,-0.375908,0.898667,0.226035
0.671362,0.211309,0.076727,-0.253208,-0.589335,-0.767183
0.510563,0.306188,0.416442,-0.580006,-0.226982,0.782350
0.887082,0.314729,-0.072280,-0.189932,0.041188,0.980933
-0.377369,0.437548,0.179755,0.086607,0.084027,-0.992693
0.540436,0.296653,0.421485,-0.360787,-0.271885,0.892139
0.890013,0.450327,-0.068907,-0.191087,0.006083,0.981554
0.132107,-0.113053,0.409611,0.947359,-0.082527,0.309354
0.371839,-0.140728,-0.196246,0.813194,-0.554446,0.176934
-0.102236,-0.925249,0.885830,0.949500,-0.254291,0.183809
-0.025004,0.770385,0.788696,0.792039,0.391694,0.468242
-0.182541,0.069752,0.814317,-0.274101,0.936363,-0.219301
-0.000142,-0.319363,0.882832,0.976100,0.172951,0.131595
-0.679445,-0.474825,0.607509,-0.392862,0.811082,0.433365
-0.012525,0.902805,0.544717,-0.345346,0.176766,0.921678
0.017724,-0.024532,0.942217,0.723284,0.682994,0.101878
0.502340,0.233886,0.088617,0.604472,0.164952,0.779362
-0.415986,-0.696032,0.771235,-0.727676,-0.395396,-0.560491
-0.026138,0.769326,0.802596,-0.031042,-0.670650,0.741124
0.548518,0.008773,-0.978570,-0.404463,0.089480,0.910167
0.294702,0.240110,-0.287605,0.743451,0.476204,0.469585
0.327078,0.159863,0.723792,0.367473,0.106781,0.923884
-0.250981,0.313735,0.822204,0.171662,0.983336,-0.059850
-0.210049,0.467741,0.712207,-0.135051,0.301788,0.943761
0.341400,0.470719,-0.088310,-0.279290,0.937619,-0.207047
0.045990,-0.570828,0.646009,0.909601,0.209964,0.358526
0.324432,-0.152581,-0.037375,0.978399,-0.156171,0.135444
-0.117266,-0.193564,0.255256,0.922514,-0.224254,-0.314131
-0.501159,0.524084,0.732105,-0.282026,0.227423,0.932062
-0.093160,-0.702983,0.795203,-0.355270,0.847488,0.394396
0.570497,0.217532,0.085619,0.408327,0.014314,0.912724
-0.508721,0.495216,0.748339,-0.653525,-0.711597,0.257943
0.142269,0.475486,0.714865,0.076844,-0.127960,0.988798
0.499598,0.136227,0.408657,0.959896,-0.231064,-0.158773
-0.219833,-0.204423,0.577067,-0.785526,0.340856,-0.516495
0.119818,-0.109345,0.468826,0.821766,-0.565548,0.069684
0.476391,0.515081,0.371793,0.113672,0.885562,0.450397
0.066739,-0.252558,0.920786,0.212144,0.815961,-0.537775
-0.052795,-0.159863,0.877159,0.934090,0.354531,0.042224
-0.410740,-0.595392,0.767214,0.340739,0.862065,0.375155
-0.098738,0.314663,0.833754,0.918110,0.135383,-0.372485
0.097840,-0.099414,0.907329,0.616121,0.782799,-0.087296
0.231602,-0.299832,0.990426,0.500160,0.031338,-0.865366
0.162404,-0.220710,0.675037,0.202872,0.705311,0.679249
-0.232642,-0.473499,0.548022,0.934939,0.294585,-0.197761
-0.454460,-0.464894,0.404024,0.365010,-0.922552,-0.125162
0.303730,0.127287,-0.844605,-0.125411,-0.214742,0.968586
-0.064281,-0.504487,0.782733,-0.478981,0.358752,-0.801171
-0.031006,0.024861,0.578123,0.852972,-0.160154,0.496779
-0.334878,-0.119011,0.597731,-0.428796,0.358340,-0.829293
-0.188260,-0.073062,0.826871,0.265876,0.232618,0.935521
0.005625,0.753833,0.779003,-0.308298,-0.944155,-0.116294
0.322588,0.114114,0.307485,-0.066754,-0.476601,0.876581
-0.197004,-0.301222,0.636435,0.970391,0.062292,-0.233371
0.319232,0.236271,0.490205,-0.480120,-0.836060,0.265496
0.715366,0.113980,-0.954720,0.674233,0.052310,0.736664
-0.126247,0.340750,0.731832,0.720817,0.657238,-0.220137
0.131777,0.344127,0.535076,0.871034,0.215650,0.441356
0.158718,0.189856,0.858591,0.626864,-0.506620,0.591928
0.346931,-0.040884,-0.053252,0.726149,-0.671138,0.149267
0.050433,-0.102194,0.899458,0.533238,0.456709,-0.712092
0.725764,0.160328,-0.959712,0.187362,0.350029,0.917810
-0.612422,-0.157612,0.658189,0.620676,0.782686,0.046516
-0.131020,-0.586388,0.745733,0.048022,0.471429,0.880595
-0.047975,-0.177741,0.598719,0.748075,0.495017,0.441975
-0.484142,-0.563877,0.777554,-0.447674,-0.859434,-0.246901
0.293189,-0.494356,0.616606,-0.335519,-0.859589,-0.385401
-0.463771,-0.026518,0.795459,-0.463559,0.699022,-0.544500
0.380394,-0.120799,0.451654,0.000339,0.848725,0.528834
-0.028407,-0.293940,0.919594,0.270228,-0.540092,0.797043
-0.531929,-0.535405,0.434534,0.264941,0.817821,0.510858
0.395094,0.541564,0.374195,0.685608,0.727962,0.003632
-0.226923,0.110339,0.711867,-0.445330,-0.895187,0.017943
0.387201,0.741849,-0.513832,0.040576,0.194842,-0.979995
0.042208,0.613005,0.521584,0.490513,0.861812,-0.129140
-0.405114,0.407356,0.638224,0.950940,0.137392,-0.277194
0.045942,0.207403,0.858642,-0.363387,0.150939,0.919330
-0.122276,0.430265,0.859579,0.863088,0.012267,0.504905
0.168879,0.395241,0.753535,-0.350219,0.757295,0.551227
0.977737,0.077432,-0.934091,-0.231119,0.157140,0.960152
0.380300,-0.359883,0.556625,0.838965,-0.374955,-0.394394
-0.284303,0.345383,0.430037,0.230065,0.915099,-0.331156
0.102378,-0.256796,0.800484,0.949954,0.292851,-0.108749
0.304249,-0.051015,0.032810,0.997345,0.072370,0.008128
0.289975,0.369287,0.501959,-0.599266,0.433248,0.673183
-0.515007,-0.121529,0.698188,-0.292457,0.854884,-0.428535
0.228387,0.025590,0.848336,-0.678101,0.598340,0.426812
0.059696,-0.272819,0.819223,0.978254,0.012770,0.207018
0.608356,-0.228259,0.484975,0.614101,0.265873,-0.743096
-0.238173,-0.425167,0.392491,-0.100138,0.953657,0.283746
0.252919,0.166816,-0.809427,-0.160024,-0.012848,-0.987030
0.102756,0.677692,0.732888,0.179929,-0.325553,0.928246
0.122228,0.599498,0.752564,0.806517,-0.523350,-0.275019
-0.027981,0.310226,0.272529,0.222890,0.302355,0.926769
0.053410,0.563214,0.752394,0.416134,0.571499,-0.707263
-0.341305,-0.406760,0.640898,0.495721,0.560456,0.663438
-0.382521,-0.484227,0.747692,-0.543545,-0.838832,-0.030332
-0.489720,0.106565,0.641869,-0.213603,0.617317,-0.757161
-0.646832,-0.507400,0.625822,-0.150097,0.886013,0.438693
0.107530,0.256331,0.879595,-0.387390,0.672776,-0.630319
-0.116936,0.763632,0.523509,0.612354,-0.080560,0.786468
0.446094,0.452247,0.271490,-0.181525,-0.289082,0.939936
0.550362,0.709406,0.281081,0.969358,0.110491,-0.219400
-0.303966,0.514551,0.228442,-0.667330,0.519834,0.533332
-0.443872,0.557454,0.205444,-0.347714,0.232780,0.908245
0.371461,0.301024,-0.073319,0.498444,0.863167,-0.080598
0.183816,0.245076,0.293057,-0.333098,0.684505,0.648458
0.295883,0.196478,0.467139,-0.610456,-0.791676,0.024364
-0.034599,-0.482174,0.565023,-0.263533,0.780101,-0.567445
0.445905,0.578773,-0.873957,0.764987,0.202427,-0.611406
-0.190716,-0.760256,0.869016,0.270041,0.094571,-0.958193
0.521719,0.134374,-0.627645,0.017189,0.997091,0.074255
-0.743962,0.523357,0.613267,-0.210702,-0.972336,-0.100829
0.543555,-0.143179,-0.970751,0.278454,-0.158820,-0.947227
-0.260103,-0.510777,0.459593,-0.131659,0.973527,0.186846
-0.555892,0.620485,0.739890,-0.233543,-0.957731,0.167955
-0.145342,-0.801370,0.835406,0.092400,0.927803,0.361448
0.324195,-0.038171,0.198392,-0.189572,0.783314,-0.592016
-0.512786,0.273017,0.755545,0.569500,-0.716787,0.402351
-0.270549,0.352668,0.806242,0.308655,0.943987,-0.116708
0.372359,0.019696,-0.813993,-0.232158,0.442655,0.866117
-0.507918,0.485154,0.627866,0.055316,-0.168077,0.984221
0.708654,0.487007,0.284045,0.265376,-0.223390,0.937909
-0.587749,-0.481380,0.425505,0.329744,0.790575,-0.516004
0.743962,-0.040884,-0.954448,0.279293,-0.115646,-0.953216
-0.121615,0.182772,0.475623,0.719677,0.525441,0.453846
-0.047738,0.384117,0.539913,0.218005,-0.936512,0.274626
0.742355,0.241633,-0.084937,-0.264888,0.115937,0.957284
-0.701706,-0.604596,0.694763,-0.446911,0.865764,0.225218
-0.182635,0.410337,0.789104,-0.345776,0.666277,-0.660692
-0.139529,0.521569,0.867994,0.765371,-0.388884,0.512812
-0.057759,-0.339823,0.864758,-0.663717,0.621152,0.416713
0.115186,-0.000497,0.068277,0.284716,-0.388031,0.876566
-0.675711,0.583077,0.580798,-0.251268,-0.900298,-0.355427
0.533156,-0.123117,0.154288,0.919408,0.161637,-0.358557
0.078083,0.780581,0.765562,-0.479106,0.344800,-0.807199
-0.655528,-0.553548,0.611972,-0.366706,0.771403,0.520062
-0.000142,-0.405635,0.948009,0.958334,-0.166242,0.232292
0.457626,0.838648,0.357024,-0.146736,0.697794,-0.701107
0.895165,0.359289,-0.959575,-0.296658,0.159439,0.941580
0.432339,-0.326513,0.624936,-0.575867,0.731499,0.365083
-0.453561,0.042937,0.701424,0.091494,0.749681,-0.655444
-0.639032,-0.316649,0.644152,-0.018817,0.667413,0.744450
-0.031431,-0.825605,0.927754,0.864246,-0.194649,-0.463886
0.531645,0.398749,0.016882,0.551515,-0.832276,-0.056101
-0.190102,-0.142054,0.660948,0.888557,-0.009498,0.458669
-0.098832,-0.084781,0.826718,-0.049012,-0.177911,0.982825
-0.852484,-0.647632,0.494890,-0.297114,-0.941915,-0.156588
-0.460698,-0.092528,0.475606,0.281566,0.104519,-0.953832
0.615777,-0.014799,0.506797,0.103311,-0.315529,0.943275
-0.647729,0.038566,0.624102,-0.121519,0.862395,0.491434
0.491138,-0.040355,-0.426595,0.906299,-0.376580,-0.191858
0.111311,0.456021,0.893786,0.031688,-0.677487,0.734852
0.157442,-0.288244,0.376359,0.908793,0.352095,0.223885
-0.062579,0.251300,0.275459,0.180251,0.276762,0.943882
-0.241669,-0.211111,0.702157,-0.603012,0.703053,-0.376953
-0.329678,0.301222,0.819478,-0.468753,0.683401,-0.559672
0.436783,0.023604,0.383070,-0.292508,-0.228634,0.928529
0.839391,0.341079,-0.337995,0.199815,-0.037437,-0.979118
0.079642,-0.060748,0.771660,0.952532,-0.292050,0.085968
-0.296167,0.141060,0.838762,0.622782,-0.465723,0.628685
0.099494,-0.343132,0.960495,-0.224308,-0.341757,0.912627
0.686392,-0.141656,-0.955589,0.324328,-0.146730,-0.934495
0.002457,-0.208395,0.921229,0.116506,0.237378,0.964406
0.341353,-0.268646,0.756567,0.904048,-0.372491,-0.209637
0.682138,0.314663,-0.987547,0.301948,-0.391288,-0.869322
0.575507,0.059092,-0.396477,-0.427308,0.903895,0.019519
-0.514771,0.299898,0.744915,0.954743,-0.149651,-0.257041
0.475824,-0.567981,0.587067,0.315032,0.184064,-0.931061
-0.556222,-0.372928,0.732684,0.590615,0.472290,0.654306
0.301791,0.213164,0.451433,0.636541,0.438744,0.634287
0.799168,0.373126,-0.958911,-0.449106,0.133656,0.883425
0.395000,0.618964,0.357450,0.911976,-0.007168,0.410181
-0.406958,0.347834,0.205836,0.707837,-0.276948,-0.649820
-0.026989,-0.856724,0.931928,0.860766,-0.277354,-0.426797
-0.014983,0.610819,0.757538,-0.250831,-0.440261,0.862122
-0.229003,0.257854,0.672941,0.094221,-0.196926,-0.975880
0.273716,0.024332,0.196757,0.420997,0.132887,0.897275
-0.002648,0.740988,0.783159,0.258055,-0.268796,0.927985
0.517701,0.541099,-0.773568,-0.131205,-0.374399,0.917938
0.521530,0.066111,0.493067,-0.135004,0.156471,0.978412
0.449118,0.251896,-0.041395,-0.146998,-0.161309,-0.975895
0.243560,-0.002550,0.766857,0.180173,-0.515815,-0.837540
0.390367,-0.078491,0.368863,0.833296,-0.481171,-0.272199
-0.377464,0.196478,0.248901,0.725531,0.062095,-0.685382
0.082054,0.466482,0.565381,0.142736,0.988979,0.039330
0.076428,-0.229185,0.948247,-0.322697,0.910681,0.257927
0.517843,0.555136,-0.771200,-0.138067,-0.344149,0.928708
0.185470,-0.065646,-0.811488,0.231761,0.148140,0.961427
-0.384838,0.106631,0.226432,0.239470,-0.390943,-0.888717
0.674718,0.145099,0.092382,0.803783,0.484971,0.344581
-0.144445,0.063595,0.832902,-0.494833,0.115244,0.861312
0.332845,0.030424,0.730725,0.150385,-0.127871,-0.980323
-0.566149,0.487934,0.719431,0.619137,-0.350489,-0.702728
0.292622,-0.085973,0.446118,-0.497178,-0.816259,-0.294169
0.086874,-0.314200,0.650778,0.925904,-0.036584,0.375984
-0.632794,-0.564936,0.715666,-0.693555,0.719633,0.033312
0.891998,0.454896,-0.065858,-0.191087,0.006083,0.981554
0.401143,0.742776,0.380924,0.412506,-0.209531,0.886530
0.242095,0.010495,0.764386,-0.074275,-0.521177,-0.850210
0.249516,-0.166418,0.463800,-0.727851,-0.483407,-0.486364
-0.067968,0.621611,0.654237,0.979575,0.129320,-0.153975
-0.117030,0.510512,0.851692,0.872915,-0.202830,0.443711
0.590774,-0.255339,0.140200,-0.023595,-0.167783,0.985541
0.525736,0.804947,0.367824,-0.536380,0.548206,-0.641691
0.160986,-0.139207,0.300944,0.206587,-0.975569,0.074753
-0.390462,0.440461,0.661630,-0.801645,0.334122,0.495710
0.374203,-0.096765,0.011260,-0.353973,-0.921554,-0.159505
0.026374,0.467872,0.581905,0.076073,-0.938728,0.336159
0.309638,0.116760,0.055433,0.937923,0.149065,0.313177
-0.491421,0.032808,0.828336,-0.512316,0.551622,-0.658214
-0.633597,-0.124044,0.593387,0.385011,-0.009833,-0.922860
0.521009,0.704109,0.291029,-0.228563,-0.920715,-0.316296
0.098880,-0.530572,0.611666,0.952647,0.056553,0.298772
0.284397,0.774357,0.408163,0.539796,-0.418681,-0.730292
-0.696176,-0.577516,0.803397,0.700131,0.257247,0.666063
0.211656,-0.301553,0.837995,0.128076,0.853071,0.505832
-0.166280,-0.211242,0.833907,0.861946,-0.056373,0.503856
-0.093397,0.228259,0.820126,0.243422,0.938023,0.246696
0.329300,-0.089748,-0.086096,0.986234,-0.153064,0.062554
0.212460,-0.397160,0.705973,-0.314529,-0.646156,-0.695381
-0.124688,0.374449,0.830142,-0.214895,-0.903961,0.369696
-0.456208,-0.003411,0.840891,-0.542881,-0.820459,0.179239
-0.068488,0.268780,0.803124,0.468089,0.862058,-0.194288
0.106536,-0.103718,0.416357,-0.671213,-0.726245,-0.148467
0.369617,0.538319,0.358369,0.937367,0.140857,0.318593
-0.832255,-0.577118,0.483152,0.852156,-0.154268,0.500031
-0.411684,0.273744,0.708937,0.645611,-0.717535,0.261400
-0.358841,0.707685,0.594886,0.853933,0.339360,0.394504
0.009783,0.380078,0.261150,0.275604,0.365997,0.888869
0.135699,0.041745,0.929611,0.478501,0.321458,0.817130
-0.100629,0.388090,0.715086,0.805073,0.075779,-0.588316
-0.155315,0.178998,0.831113,-0.135946,-0.118421,0.983613
-0.048967,0.130070,0.475061,0.668943,-0.324985,0.668505
-0.283074,-0.406960,0.527648,0.797679,0.529596,-0.288507
0.164862,0.234945,0.530681,-0.576043,0.059752,-0.815233
0.167652,-0.726884,0.829989,-0.446302,0.880159,0.161666
-0.083283,0.039494,0.378778,0.583528,0.487963,-0.649143
0.098643,-0.072268,0.717931,-0.163060,0.795610,-0.583452
-0.235289,-0.390341,0.387142,-0.001563,0.784559,0.620052
-0.700714,-0.157877,0.795356,-0.593591,-0.243417,-0.767071
-0.735266,-0.472705,0.507070,0.543364,0.671979,0.503190
-0.582267,-0.495879,0.672669,-0.642035,0.681979,0.350279
-0.207969,-0.181780,0.680198,-0.562124,0.548166,-0.619299
0.007279,-0.445559,0.818643,-0.307451,-0.900890,0.306384
-0.033795,0.615652,0.495809,-0.105501,-0.192606,0.975588
-0.406059,0.455557,0.204644,0.638857,0.128882,-0.758454
-0.383136,0.490383,0.189602,0.253333,-0.389465,0.885516
0.067921,-0.361738,0.900566,-0.297068,-0.656374,0.693487
0.315357,0.345317,0.542282,0.138545,0.176725,0.974461
-0.171953,0.447612,0.708375,-0.486256,0.210254,0.848144
-0.178476,0.420797,0.862833,0.770649,0.043870,-0.635748
-0.114005,0.375708,0.272222,-0.038360,0.374169,0.926567
-0.450868,0.286324,0.688052,0.078067,0.996927,0.006427
-0.468875,0.288775,0.732854,-0.603953,-0.159273,-0.780944
-0.374296,-0.599498,0.642942,0.345851,-0.926114,-0.150664
0.692868,0.541960,-0.447634,-0.039898,-0.415314,0.908803
0.468545,0.731255,0.263143,0.198717,0.701576,0.684326
0.868223,0.375310,-0.963391,0.290451,-0.129647,-0.948066
-0.471759,0.025722,0.638428,-0.062532,-0.031684,0.997540
0.227631,0.164300,0.749464,0.501641,-0.427614,0.751999
-0.244884,-0.217863,0.848745,0.071167,0.406879,0.910706
0.546911,0.565730,-0.450887,0.495854,0.234099,-0.836258
-0.574798,0.244414,0.773926,-0.656256,0.642754,-0.395216
-0.055915,-0.282817,0.577987,0.932824,0.211624,-0.291642
0.433237,0.788261,-0.747470,-0.029160,-0.251081,0.967527
-0.469112,0.670541,0.757709,-0.566591,0.655754,-0.498960
0.245592,0.307379,0.465708,0.984476,-0.175454,-0.004712
0.365837,-0.059952,0.125907,-0.595691,0.777347,-0.202197
-0.181784,0.505281,0.886529,0.405717,0.830644,-0.381344
0.075436,-0.127619,0.667831,0.962224,-0.266817,-0.054163
0.076760,0.603072,0.753484,0.694543,0.706923,0.133678
-0.302453,-0.625850,0.789769,-0.102215,-0.987291,0.121688
-0.548235,0.153508,0.610593,-0.089365,0.438420,0.894317
-0.722314,-0.023471,0.663913,0.308862,-0.910242,-0.275797
0.093302,-0.213164,0.774216,0.686484,0.709140,0.160812
-0.118732,0.622672,0.874331,0.817798,-0.355382,0.452671
-0.068676,-0.897244,0.915369,-0.830302,0.261197,0.492315
0.395189,0.137021,0.197455,-0.734903,0.575902,-0.358127
0.279340,-0.008905,0.727437,-0.056112,0.312909,-0.948124
-0.451009,0.465025,0.621240,0.145983,0.260981,-0.954242
-0.385687,0.422850,0.218545,0.394960,-0.049610,-0.917358
0.104788,-0.233886,0.893769,0.907454,0.082783,-0.411915
0.697830,0.377363,-0.360056,0.423145,0.111100,-0.899225
-0.409274,0.440330,0.690488,-0.077919,0.006071,0.996941
-0.458099,-0.014203,0.820415,0.338605,0.780503,-0.525512
-0.177388,-0.199723,0.672379,0.861124,-0.160286,0.482467
-0.044902,-0.155097,0.542724,-0.259095,0.956396,-0.134820
0.599801,0.254810,-0.983067,-0.236683,0.588275,0.773249
0.200737,0.394709,-0.255426,0.558970,0.764522,-0.321028
0.637897,0.079948,0.385200,-0.117507,-0.336282,-0.934402
0.267334,0.034263,0.720981,0.382013,-0.027179,0.923757
-0.541239,-0.283809,0.648854,0.486951,0.427169,0.761844
0.739519,0.139338,-0.962846,0.150513,0.165318,0.974687
-0.229144,-0.110868,0.248237,0.229209,-0.476676,0.848671
0.207119,-0.159534,0.685445,0.073903,-0.860402,0.504229
-0.606089,-0.155759,0.696109,0.231914,0.972085,0.035588
-0.239495,0.070944,0.355439,-0.131237,-0.271298,0.953506
0.101763,-0.065052,0.410787,0.814658,0.375112,0.442293
0.058892,-0.263350,0.890617,0.296648,0.425893,0.854760
0.498417,-0.057238,-0.062502,-0.450265,0.831616,0.325079
0.358700,-0.198531,0.767521,-0.547660,0.830361,-0.102808
-0.337713,0.518722,0.688937,0.421212,-0.724737,0.545286
-0.277544,0.463766,0.825185,0.005017,0.299710,0.954017
0.209813,0.545403,0.716432,0.288610,-0.538873,0.791404
0.425060,-0.098355,-0.388351,-0.664341,0.659838,-0.351090
-0.619937,0.480586,0.575500,0.223875,0.884250,0.409856
0.025193,-0.192572,0.957548,0.701507,0.411029,0.582188
0.829891,0.247525,-0.960342,0.428122,-0.211509,-0.878621
0.524129,0.563479,0.316497,-0.245915,-0.246519,0.937419
-0.294417,-0.042806,0.846189,0.231621,0.791902,-0.565016
-0.468734,0.360612,0.175531,0.584552,-0.473726,-0.658698
-0.319468,-0.494754,0.757828,0.056183,0.070643,0.995918
0.565723,0.084452,-0.979404,0.407993,-0.084187,-0.909095
0.071419,-0.233953,0.843055,-0.516050,0.828209,0.218544
0.082006,-0.352999,0.628446,0.694307,0.396925,-0.600324
0.126483,-0.462178,0.782444,0.952699,0.075521,-0.294382
-0.100015,0.208197,0.831999,-0.242216,0.334494,-0.910739
0.081817,-0.185221,0.457361,-0.362480,0.930804,-0.047039
0.076050,-0.023273,0.664185,0.996089,-0.082910,-0.030553
0.299617,0.060615,0.053525,0.848059,-0.359707,0.389109
-0.568181,-0.477207,0.367006,-0.182943,0.824262,0.535840
0.427282,-0.030622,-0.210350,-0.569308,0.815222,-0.106306
-0.074632,0.722912,0.761695,0.544131,0.633906,-0.549623
0.414614,0.764228,-0.755545,-0.044556,-0.264258,0.963422
0.025618,0.304400,0.677609,0.113962,-0.956674,0.267932
-0.294891,-0.392327,0.745818,0.957350,-0.074139,0.279257
0.163870,-0.124376,0.707881,-0.149390,-0.701348,0.696988
0.124308,-0.182839,0.935539,-0.375400,0.902637,0.210525
0.036158,-0.001689,0.979558,-0.341464,-0.776056,0.530227
-0.478896,-0.527262,0.747062,-0.432949,-0.373767,-0.820277
0.455972,0.328898,-0.541225,-0.129042,-0.602142,0.787892
0.364608,0.973981,0.343447,-0.431210,0.639755,0.636216
0.485419,0.431458,-0.790297,-0.086577,-0.468805,0.879048
-0.380867,-0.202105,0.386222,0.568177,-0.044375,-0.821709
-0.095051,-0.101929,0.869391,0.645519,0.715475,-0.267210
-0.463914,-0.220314,0.685070,-0.546518,0.689182,-0.475759
-0.275133,-0.543088,0.707080,-0.093051,-0.426110,0.899873
-0.098454,-0.917438,0.891793,-0.157044,0.645560,0.747389
0.281609,0.026187,0.142465,0.983195,0.099418,0.153115
-0.356005,0.025126,0.718613,0.317296,-0.561290,0.764380
-0.076760,-0.160790,0.644578,-0.098244,0.994313,-0.041104
0.594839,0.306584,-0.371998,-0.348295,0.062530,0.935297
-0.741646,-0.293940,0.455112,0.734953,0.274198,-0.620209
0.620976,-0.274209,0.142193,-0.089942,-0.162580,0.982588
-0.058894,-0.612805,0.779462,-0.171413,0.774378,0.609062
0.123978,0.673454,0.748390,-0.652859,0.023250,0.757123
-0.353690,-0.642997,0.786822,-0.115910,0.776468,-0.619405
-0.061068,-0.173900,0.423325,-0.085981,-0.339370,0.936715
0.089332,0.015195,0.867517,0.943426,0.331395,-0.011113
0.601219,-0.069156,0.482931,-0.089094,-0.086061,0.992298
-0.426667,0.680935,0.622500,-0.401670,0.188128,0.896253
-0.094815,0.493297,0.721781,-0.802677,0.413743,0.429564
-0.453372,0.510181,0.731406,0.829756,0.106141,0.547940
-0.650093,-0.622803,0.700794,0.468395,-0.878282,-0.096055
-0.354682,0.711657,0.627287,-0.191592,0.553943,0.810210
0.279718,-0.439534,0.546114,0.908621,-0.384787,-0.162319
0.488680,0.217201,0.083268,0.743340,0.118161,0.658395
0.050433,0.066044,0.428367,-0.512411,-0.858740,-0.001043
0.391359,0.043996,0.182362,0.881930,-0.080883,0.464389
0.642719,0.505546,-0.543457,0.180648,0.029153,0.983116
-0.063336,-0.620287,0.791115,-0.162405,0.908304,0.385497
-0.166990,-0.201774,0.571378,0.450171,-0.833833,0.319481
0.348064,-0.004801,0.242172,0.403025,0.898540,0.173773
0.295835,0.074056,0.714218,-0.112009,0.225500,0.967783
0.676182,-0.291753,0.503373,-0.653988,-0.216396,0.724895
0.580091,0.095840,-0.646690,-0.017855,0.998218,0.056947
-0.180839,0.672792,0.693690,0.706206,-0.289165,-0.646264
-0.014699,0.333599,0.500426,-0.606272,-0.549733,0.574654
-0.017063,0.711393,0.752223,0.434450,0.382291,0.815541
0.141939,0.367763,0.868574,0.191725,0.362562,-0.912026
-0.643334,-0.542756,0.650063,-0.424457,0.870333,0.249714
0.471334,0.419538,0.275562,-0.422822,-0.485142,0.765414
0.619417,0.541166,0.311029,-0.696073,0.431053,-0.574174
0.584771,0.237992,-0.983169,0.326250,-0.411518,-0.851008
0.684832,-0.023735,-0.961262,-0.203030,0.089532,0.975071
-0.187314,-0.331082,0.805935,-0.146608,0.860997,0.487021
-0.913930,-0.494091,0.531277,0.335937,0.783344,-0.522990
0.300137,0.097759,0.697949,0.904151,-0.262107,0.337360
0.500875,-0.000364,0.086897,-0.706598,0.160879,-0.689085
0.074443,0.324527,0.260826,-0.394549,-0.693663,-0.602630
0.097273,0.683121,0.539079,-0.123320,0.044822,0.991354
-0.020798,0.398882,0.512368,0.412229,-0.866455,0.281643
-0.157253,0.701395,0.650489,0.681410,-0.635410,-0.363229
-0.510233,-0.472374,0.758083,-0.758727,0.178999,-0.626332
-0.599282,0.393849,0.736363,0.165998,0.720817,0.672955
-0.530131,-0.278248,0.772785,-0.467446,-0.492812,-0.733915
0.024247,-0.004005,0.399186,0.388415,0.806565,-0.445630
0.253249,-0.084716,0.709431,-0.742370,0.513186,-0.430729
0.693861,0.326249,-0.988229,-0.280490,0.446397,0.849738
-0.243323,-0.152316,0.837093,0.015634,-0.124161,0.992139
0.655669,0.038965,-0.963426,-0.162246,-0.124224,0.978900
0.531171,0.381865,0.187353,0.755105,-0.426313,0.498070
-0.147706,-0.783826,0.850329,-0.052237,-0.978085,0.201545
0.216903,0.259178,0.860959,0.089071,-0.668265,0.738571
-0.488396,0.783099,0.762836,-0.617814,0.469659,0.630655
-0.450347,-0.374781,0.624493,-0.335711,-0.037750,-0.941208
0.439854,0.579965,-0.863821,-0.668425,0.045840,-0.742365
0.543320,0.398484,0.228783,0.652782,-0.710785,0.262031
0.591057,0.625583,-0.525382,0.513958,-0.195081,0.835339
-0.174883,-0.199656,0.840687,0.873462,0.099661,0.476584
0.294891,0.658423,0.373803,0.167871,-0.414983,0.894208
-0.591246,-0.513424,0.742428,-0.110961,0.989801,-0.089342
-0.324338,-0.457212,0.412797,0.069587,0.810131,0.582104
-0.043391,-0.213693,0.846530,0.662846,0.714579,-0.223632
0.318334,0.361605,0.464448,-0.703986,0.382300,-0.598540
-0.516897,0.650083,0.716245,-0.777695,-0.403471,-0.482080
0.065274,-0.539313,0.742394,0.235540,-0.945070,-0.226636
0.176679,0.563479,0.548704,-0.531533,0.186484,-0.826254
-0.669613,-0.248319,0.318473,0.291226,-0.115580,-0.949647
0.105639,-0.093257,0.477923,0.859431,-0.498489,0.113520
0.162641,-0.271362,0.814010,-0.543632,0.637420,0.546040
0.104315,-0.406629,0.634084,0.939103,-0.124394,-0.320331
0.219597,0.389547,-0.848404,0.112338,-0.080558,-0.990399
0.504277,-0.136227,0.497768,0.567211,0.597397,0.566911
0.788155,0.298508,-0.967684,0.305889,-0.009498,-0.952020
0.501678,0.070281,-0.430224,0.920542,-0.390163,0.019366
-0.032141,0.159598,0.285868,0.161671,0.128252,0.978475
0.299711,-0.127156,0.124136,0.212310,0.970413,-0.114994
-0.767832,-0.659549,0.623812,-0.565594,0.748444,0.346315
-0.150588,-0.554144,0.742087,-0.554449,0.452465,-0.698471
-0.921208,-0.606913,0.502078,0.282537,0.150067,0.947445
0.329914,0.034925,0.876222,0.998899,0.045792,0.010213
-0.255802,-0.699740,0.805100,0.142134,0.673346,0.725537
-0.486837,0.694773,0.773108,-0.206944,-0.850861,0.482917
-0.705960,-0.618699,0.372594,0.709181,-0.629493,0.317491
0.377653,-0.387096,0.583779,-0.733518,0.416334,0.537231
0.275985,-0.147946,0.155480,0.929462,-0.150173,0.336969
-0.843787,-0.470719,0.517666,-0.648602,0.285250,0.705654
0.327456,0.823619,0.361283,0.778613,0.257253,-0.572349
0.232358,-0.096965,0.685326,-0.720265,0.499688,-0.481176
0.610010,0.136360,0.390549,0.331099,0.080894,0.940122
0.311812,0.191909,0.448264,-0.682582,-0.471331,-0.558505
0.775677,-0.114443,-0.947089,0.421321,-0.252153,-0.871153
0.375478,0.275797,0.266141,0.442254,-0.653843,0.613923
-0.250130,0.470256,0.583762,0.483883,0.140326,-0.863809
-0.410786,0.023869,0.238697,-0.579371,-0.092990,0.809742
0.065321,-0.270964,0.899782,-0.015353,0.727346,0.686100
-0.549699,0.423446,0.629297,-0.263274,-0.107554,-0.958707
-0.329300,-0.227861,0.758458,0.937547,-0.315041,0.147496
0.062863,-0.280234,0.889765,0.136524,0.173417,0.975340
0.533015,0.794618,0.243808,0.210734,0.616985,0.758235
0.052228,0.911279,0.541328,-0.317016,0.044386,0.947381
0.563785,0.146291,-0.822664,0.302681,0.875044,0.377733
0.550787,0.399543,-0.467565,0.454234,-0.495641,0.740278
-0.361157,0.006654,0.719022,-0.050815,-0.897970,0.437113
0.329630,-0.195219,0.685428,0.980662,-0.063414,-0.185150
-0.206599,-0.126493,0.405710,0.469534,0.013005,-0.882819
0.456681,0.027973,0.487513,0.532787,0.167292,0.829549
0.364608,0.132188,0.449576,0.760086,0.649019,-0.032300
0.501537,0.203033,0.406817,0.666722,0.091516,-0.739666
-0.135321,-0.028504,0.858625,0.746761,0.260586,-0.611917
0.070283,0.262621,0.500426,0.874756,0.457886,0.158562
0.115942,-0.269376,0.745443,0.945608,-0.138539,0.294333
0.629579,0.249909,-0.978399,-0.339422,0.643775,0.685818
-0.115470,-0.837389,0.840023,0.809358,-0.373093,-0.453587
0.368058,0.490383,0.330858,0.367850,0.924314,-0.101637
0.102851,-0.179594,0.782307,0.278714,0.954873,0.102648
0.761781,-0.055450,-0.950513,-0.259569,0.224665,0.939228
-0.159664,0.280432,0.875831,0.954218,0.266520,-0.135777
0.723306,0.257127,-0.355030,0.434003,-0.083792,-0.897006
-0.501536,0.705565,0.766925,-0.255919,-0.887437,0.383355
-0.087820,-0.174694,0.484822,-0.219791,0.311323,-0.924538
-0.426006,0.389215,0.226670,0.397829,-0.019157,-0.917260
0.480740,0.038767,-0.491159,0.986657,-0.116069,0.114176
0.379354,-0.036714,-0.063661,-0.664185,-0.747503,-0.009860
0.251737,-0.361671,0.843208,-0.270679,-0.821463,-0.501928
-0.246585,-0.009236,0.760911,0.395213,0.575986,-0.715574
0.056435,0.324396,0.258288,0.259536,0.238105,0.935921
-0.696933,-0.083059,0.794522,0.623001,0.289432,0.726704
0.635157,0.068760,-0.902099,-0.873663,0.180417,-0.451843
0.535425,-0.143642,0.151170,0.951911,0.127518,-0.278578
-0.294087,-0.086040,0.768100,0.597507,-0.413940,0.686760
0.088245,0.790314,0.539181,0.179207,-0.344653,0.921466
0.404593,-0.039494,-0.143641,0.101515,-0.986826,-0.125975
0.630382,-0.052537,-0.963868,-0.341042,-0.021040,0.939812
0.105024,-0.073195,0.514412,-0.481077,0.870602,-0.103036
-0.366215,-0.021287,0.775647,-0.645982,-0.672264,-0.361620
-0.367066,0.363261,0.220964,-0.632160,0.246313,0.734645
0.110791,-0.149071,0.969609,0.781479,-0.101860,-0.615560
-0.460462,0.458668,0.751491,0.772105,-0.357565,0.525358
0.081155,0.877976,0.547631,-0.531683,-0.277383,0.800232
-0.056908,-0.227332,0.926067,0.898991,0.061170,0.433675
0.006003,0.139472,0.730555,0.819234,0.572563,0.032046
-0.705015,-0.390870,0.690147,-0.502572,0.632525,-0.589350
-0.110507,0.454365,0.852407,0.934596,-0.069903,0.348775
-0.481448,-0.387096,0.776055,0.768726,0.545212,-0.334372
-0.026422,0.222234,0.854196,0.009201,-0.872501,0.488525
-0.568748,-0.072864,0.759412,0.389973,-0.367579,0.844279
-0.355957,-0.290497,0.779599,-0.724252,-0.250454,-0.642442
0.793827,0.274605,-0.079163,0.277699,-0.101891,-0.955249
0.360826,-0.032410,-0.096641,0.541448,-0.839879,0.037906
-0.479700,-0.342670,0.768628,0.740014,0.573434,0.351502
-0.240819,0.284338,0.265783,-0.251195,-0.136139,0.958315
0.221487,-0.122786,0.132210,0.406893,0.852667,0.327716
0.306045,-0.143179,0.097424,-0.340107,0.908305,0.243537
0.224700,-0.020228,-0.810875,-0.168618,-0.175556,-0.969922
0.296213,0.075115,0.110337,0.991224,0.131122,-0.016817
0.191379,0.437548,0.592518,0.607269,-0.780839,-0.146680
-0.604291,-0.371140,0.668768,0.440059,0.097991,0.892606
-0.499787,0.724965,0.185650,0.597126,0.400283,-0.695136
0.085220,0.563677,0.723706,-0.369120,0.742736,-0.558653
0.152763,-0.326184,0.410054,-0.643566,-0.630871,-0.433388
0.530038,-0.117225,0.134527,0.929514,0.324068,-0.176020
0.303824,0.221440,0.460529,0.732484,0.652569,0.193964
0.233066,-0.615388,0.553576,-0.190348,0.801744,0.566545
-0.138205,0.717683,0.691135,0.896286,0.365032,-0.251838
0.339651,0.051611,0.195121,0.065764,-0.001723,0.997834
0.193174,-0.300559,0.837484,0.111976,0.883769,0.454328
0.127192,0.211640,0.754472,0.271254,0.529867,0.803531
-0.021601,0.209654,0.473493,0.459883,-0.257082,0.849951
-0.048353,-0.017116,0.915148,0.002294,-0.661443,0.749992
0.001701,0.771048,0.780416,0.411678,0.910304,-0.043219
0.562745,-0.027179,-0.975078,0.391462,-0.131860,-0.910698
0.041263,0.187274,0.803823,-0.709690,-0.227914,0.666630
-0.668573,-0.279903,0.320824,0.194282,-0.125887,-0.972834
0.204943,0.116298,0.766311,-0.239868,-0.292187,-0.925792
0.517937,-0.140464,0.204933,-0.516127,0.438796,-0.735575
-0.135416,0.286193,0.852782,0.840465,-0.123413,0.527625
0.085409,0.357367,0.664373,0.903727,-0.375837,-0.204998
0.280711,0.795943,0.385268,0.858677,0.179424,0.480084
0.570592,0.405768,0.158887,0.821582,-0.415544,0.390291
-0.524838,0.195154,0.741031,0.943953,0.125520,0.305282
0.001039,0.016916,0.261729,0.933070,-0.296388,-0.203802
0.058373,0.241500,0.827791,0.028848,-0.926355,0.375544
0.667627,0.583475,0.295612,-0.012386,-0.357506,0.933829
0.346505,-0.103255,0.033440,-0.576792,-0.808477,-0.116942
-0.808101,-0.412654,0.514531,-0.238782,0.540727,0.806596
0.240015,0.839707,-0.746601,-0.110486,0.006697,0.993855
0.405633,-0.180919,0.785340,-0.517671,-0.283085,0.807391
0.151345,-0.044659,0.862015,0.205375,-0.025841,-0.978342
-0.872525,-0.617374,0.529727,0.770827,-0.601871,0.208753
0.198090,-0.048433,0.062213,-0.135420,0.289511,-0.947547
-0.151534,0.472903,0.262087,-0.085997,0.194745,0.977077
0.188448,-0.116231,0.813993,0.162144,-0.442677,0.881899
0.343433,-0.035390,-0.040288,-0.528652,0.847434,-0.048809
0.363615,-0.133446,0.451569,-0.040974,0.964843,0.259612
-0.084512,0.249445,0.839017,-0.405333,0.684852,-0.605543
-0.237699,0.450061,0.812051,0.407193,-0.145996,0.901598
-0.145248,0.378422,0.825577,-0.178236,-0.905187,0.385835
0.483717,-0.201509,0.561037,-0.151896,0.612715,0.775570
-0.559201,-0.316384,0.748169,0.998372,0.046981,-0.032340
-0.410360,-0.539709,0.634340,-0.688445,-0.107818,0.717230
-0.431064,-0.089681,0.482846,-0.340374,-0.259621,0.903738
-0.813395,-0.535405,0.531226,-0.511986,0.762118,-0.396291
0.389138,-0.015395,0.139604,0.745729,0.637335,-0.194146
0.337004,0.237859,0.510681,0.737142,0.341277,-0.583225
0.714326,0.104712,-0.946799,0.542338,0.012670,0.840065
0.334593,0.098090,0.722906,-0.483148,-0.047430,0.874253
-0.683651,-0.373788,0.670403,-0.569612,-0.813079,-0.120186
-0.742355,-0.398286,0.533100,0.978008,0.121153,0.169772
0.485891,0.459927,0.278815,-0.371087,-0.642467,0.670471
-0.436121,0.014665,0.226432,-0.588697,0.135298,0.796951
0.088954,-0.086702,0.644953,0.984820,-0.158238,0.071350
0.618283,0.198333,-0.482811,-0.590164,0.446615,-0.672489
0.092309,-0.017247,0.403956,0.818909,0.158056,0.551730
-0.120386,-0.138213,0.826207,0.514840,-0.435054,0.738694
0.451481,0.054523,-0.999114,-0.421728,0.222931,0.878890
0.392021,-0.092463,-0.068056,-0.443780,0.399430,-0.802194
-0.280191,-0.191511,0.748731,0.751702,-0.166812,0.638058
-0.418159,0.238984,0.225699,0.456306,-0.154468,-0.876313
0.686203,0.298442,-0.088498,0.260994,-0.106184,-0.959483
0.836887,0.523953,-0.330755,-0.279127,-0.333195,0.900594
0.399679,-0.310623,0.780706,0.399211,0.752559,-0.523723
0.417734,0.410337,-0.791881,0.003938,-0.352533,0.935791
-0.301508,-0.354918,0.377875,0.249509,0.278311,-0.927517
0.532542,0.057901,-0.818933,-0.346803,0.761748,0.547237
-0.021033,-0.301355,0.412269,0.217180,-0.396629,0.891918
0.237604,-0.207005,0.810756,-0.165481,0.520075,0.837937
-0.515716,-0.314927,0.671102,-0.537092,-0.339234,0.772303
0.071655,-0.204489,0.789496,0.949376,0.312919,0.027683
-0.400860,-0.130995,0.732190,-0.330848,0.767928,-0.548476
0.040412,0.275268,0.640949,0.882044,0.425532,0.202290
0.471049,-0.061078,-0.080065,0.339966,-0.865181,-0.368626
0.549699,0.631608,-0.451841,0.504887,0.410342,-0.759413
-0.496432,0.323998,0.748697,0.812669,0.359257,0.458805
-0.006476,-0.041480,0.786736,0.651608,0.683847,0.328269
0.515149,0.081736,-0.537051,0.960472,0.097506,-0.260741
0.166658,-0.209785,0.771030,-0.468616,0.792248,0.390822
0.055396,-0.221638,0.756397,0.733975,-0.327496,0.595002
0.682186,0.005726,0.082008,-0.012961,0.205131,0.978649
0.098265,0.312014,0.685173,0.950126,-0.295557,-0.099531
-0.446802,-0.373524,0.621427,-0.343561,-0.039879,-0.938283
-0.679869,-0.324396,0.329870,-0.064779,0.545126,0.835847
-0.252352,-0.632073,0.781166,0.379305,0.917023,0.123273
0.372453,0.087563,-0.823260,0.165806,0.131186,0.977394
0.471334,0.435959,0.273602,-0.422822,-0.485142,0.765414
-0.086118,-0.650810,0.773023,0.667121,-0.650692,-0.362697
-0.466040,0.293144,0.682481,0.153296,0.974683,-0.162768
-0.372548,0.275931,0.692617,-0.827441,0.415464,-0.377797
-0.121283,-0.731255,0.882389,-0.763191,0.064317,0.642964
0.715129,0.204291,-0.967326,0.124513,0.544038,0.829771
-0.647257,-0.363061,0.689534,-0.139206,-0.354913,-0.924477
-0.514487,0.358891,0.745086,0.988993,0.141880,0.041977
0.707236,0.015659,0.474055,-0.579880,0.773973,0.254372
-0.315876,0.252823,0.794590,0.273288,0.700577,-0.659171
-0.180554,0.487074,0.752956,-0.101690,0.944127,0.313502
0.343101,-0.101069,0.029164,-0.562253,-0.816218,-0.132891
0.056955,-0.071872,0.954329,-0.538903,-0.790486,0.291058
0.051473,-0.353595,0.819188,-0.045858,-0.838366,0.543176
0.703030,0.357699,-0.988450,0.326271,-0.328073,-0.886519
-0.784894,-0.373788,0.430309,0.461218,0.788931,-0.406036
-0.294513,-0.074983,0.392457,0.519058,-0.140476,-0.843116
0.395849,-0.043135,-0.178103,-0.472056,0.866425,-0.162698
0.053410,-0.746550,0.767402,0.717218,0.190204,-0.670388
0.055442,0.543484,0.515349,-0.654892,0.060550,0.753293
0.162689,-0.225346,0.664339,-0.561173,0.585167,0.585376
0.058232,0.682327,0.784675,-0.679039,-0.579315,0.450889
-0.305856,-0.161718,0.846649,0.054022,-0.775702,0.628783
0.582880,0.069752,-0.627730,-0.000018,0.995834,0.091179
-0.099022,0.798855,0.520068,0.609607,-0.004834,0.792689
-0.388145,-0.476480,0.724405,-0.032349,0.987204,0.156149
0.304060,0.074056,0.208681,0.787521,-0.593276,0.166836
0.024531,0.942066,0.545825,-0.334753,0.423740,0.841656
-0.209387,0.039031,0.727113,-0.471401,-0.680108,-0.561456
-0.323298,0.390341,0.179415,-0.222663,-0.153273,0.962771
0.101952,-0.050021,0.858949,0.883293,0.127730,-0.451086
0.435743,-0.003344,0.215955,-0.603927,-0.777329,0.176157
0.274330,-0.131327,0.086454,-0.641271,0.201230,-0.740458
-0.466181,0.663192,0.764438,-0.511412,0.847483,-0.142230
-0.216996,-0.471646,0.447975,0.557996,-0.829756,0.012081
0.335208,-0.251366,0.686127,0.935698,-0.352787,-0.003147
-0.835373,-0.660875,0.510903,0.065600,-0.936513,0.344443
0.444912,-0.238190,0.796038,0.816054,-0.243236,-0.524302
0.509523,-0.277981,0.139859,0.332872,-0.022521,0.942703
-0.079689,-0.786475,0.850533,-0.687459,0.720996,0.086979
-0.202770,-0.091006,0.712684,-0.443003,0.868576,-0.222088
-0.615399,0.490848,0.574887,0.147277,0.933111,0.328044
0.236942,-0.628895,0.551941,-0.187641,0.765198,0.615844
0.508578,0.057105,-0.553695,0.697431,0.666465,-0.263467
-0.551024,-0.466747,0.671272,-0.541819,-0.137196,-0.829222
0.038521,-0.265733,0.894842,-0.462283,0.059304,0.884747
0.194356,-0.140132,0.230043,-0.469240,0.882612,-0.028454
0.274849,0.382396,-0.081275,0.582419,0.812804,-0.011714
-0.241669,0.538784,0.578055,-0.426972,-0.132517,0.894502
-0.272393,-0.659484,0.805731,0.154549,0.786298,0.598206
-0.528713,0.738670,0.717386,0.989199,0.134147,0.059069
-0.627263,-0.520839,0.753007,0.442278,-0.815771,0.372703
0.239732,0.400537,0.462080,0.936298,-0.012988,-0.350965
-0.049062,0.730263,0.787248,-0.359497,0.832739,0.421080
-0.445952,0.689940,0.781575,0.918606,-0.377076,-0.118225
0.088765,0.020624,0.666349,0.983982,0.026228,0.176329
0.471003,0.698614,-0.876478,0.369594,0.744308,-0.556243
-0.446472,-0.000232,0.806957,-0.244796,0.968964,0.034408
-0.459895,-0.338366,0.497036,-0.445004,0.785417,0.430223
-0.019332,-0.001556,0.946152,0.471585,0.856002,0.211823
0.404122,0.357236,-0.856870,-0.833260,-0.076569,-0.547554
-0.882639,-0.299102,0.424279,-0.158521,0.522557,0.837738
0.115990,0.776742,0.756397,-0.251614,-0.606455,0.754257
0.118022,0.765419,0.531822,-0.276768,-0.079555,0.957638
-0.033700,-0.192307,0.518500,-0.256660,0.965653,0.040493
0.286855,0.006654,0.198511,0.939296,0.173397,-0.296068
0.123741,0.002946,0.771609,-0.427461,0.888929,-0.164568
-0.449166,-0.436026,0.760383,-0.273310,0.317745,0.907932
0.261474,0.022081,0.773585,0.075988,0.450767,0.889401
0.051377,-0.399213,0.556625,-0.307261,-0.681474,0.664217
-0.245688,-0.013871,0.636316,-0.687052,0.297278,0.663012
0.677884,0.162314,-0.903921,-0.903852,-0.088023,-0.418692
0.373399,-0.032476,-0.048789,-0.182430,-0.962755,-0.199555
-0.746846,-0.599300,0.427175,-0.614906,0.785770,-0.066757
-0.258354,0.388751,0.652022,-0.561720,0.804312,-0.193785
-0.672590,-0.175226,0.315032,-0.446223,0.020913,0.894677
0.221960,0.496475,0.686570,0.913071,0.204485,-0.352826
0.315592,0.280299,0.507104,0.599730,0.225264,-0.767841
0.290826,-0.043731,0.033474,0.993660,-0.070381,0.087676
-0.702321,0.014799,0.617679,0.121729,-0.743850,0.657168
0.290305,0.082001,0.121171,0.981440,0.190263,-0.023988
-0.029210,-0.416228,0.547154,0.017769,-0.580820,0.813838
0.451340,0.088093,0.419270,-0.178106,0.983682,-0.025439
-0.209907,0.444434,0.632057,-0.698231,-0.386023,-0.602876
0.315970,-0.069156,0.030493,0.569678,0.818412,-0.075296
0.516756,0.407621,0.426953,0.799944,-0.064749,-0.596572
-0.492415,0.062735,0.846070,0.269396,-0.798601,0.538203
-0.206788,0.077167,0.801830,0.593818,0.743921,-0.306530
-0.426384,0.014334,0.847688,0.751021,0.660112,0.014796
-0.248098,0.236733,0.597918,0.961056,0.067244,0.268048
-0.430732,-0.482901,0.729430,-0.572156,0.476330,-0.667643
0.071182,0.144636,0.869408,-0.452352,0.014078,-0.891728
-0.221534,0.322674,0.784556,-0.370067,0.929005,-0.000512
0.748074,-0.004005,-0.954448,-0.260823,0.132241,0.956286
-0.202865,-0.141987,0.415063,0.335655,0.075462,-0.938958
-0.266294,-0.756878,0.836871,0.897535,0.395612,0.194733
0.710261,0.070017,-0.958213,0.221563,-0.278187,0.934624
-0.031479,-0.449069,0.778832,-0.600129,0.278985,-0.749675
0.269840,0.854471,0.381265,0.948500,0.058603,0.311308
0.358604,0.069620,0.720299,-0.122814,-0.552109,-0.824677
0.096517,0.333068,0.853361,-0.117125,-0.855603,0.504207
0.336248,0.022279,0.728868,0.150385,-0.127871,-0.980323
0.160231,0.516271,-0.523883,0.042186,-0.120459,0.991821
-0.322305,0.316119,0.667643,-0.684907,0.383926,-0.619276
-0.330624,-0.452049,0.708238,-0.423340,0.898032,0.119674
0.026044,-0.125833,0.447532,-0.373343,0.925527,0.063367
0.340171,0.588904,-0.522810,-0.073455,-0.171368,0.982465
-0.512832,-0.512298,0.756073,0.079315,-0.952004,0.295631
-0.058279,-0.356375,0.899884,-0.561975,0.796793,-0.222048
0.285580,-0.065381,0.801370,-0.038904,0.728555,0.683882
0.115091,-0.081869,0.866802,-0.359071,0.895496,-0.262973
-0.621166,-0.203827,0.642806,0.948737,0.294989,0.113491
0.170299,-0.071671,0.496235,0.118517,0.874019,0.471216
-0.182446,0.665509,0.630881,-0.033938,-0.694138,0.719041
0.471618,0.182309,-0.117645,0.992888,0.090308,0.077574
-0.121283,0.464362,0.765749,0.580477,0.677744,0.451342
-0.288131,-0.142583,0.488995,0.065243,0.336414,0.939451
0.428606,-0.265468,0.580917,-0.102456,0.763262,0.637914
0.256653,0.603007,0.345286,0.344590,0.866546,-0.361047
0.042208,0.470984,0.664117,-0.611022,-0.791346,-0.020590
-0.033559,-0.277981,0.784794,0.466268,-0.736035,0.490762
0.340738,-0.123050,-0.159160,-0.654244,0.755566,-0.032937
0.293662,0.077565,0.100474,-0.301690,0.952627,-0.038543
-0.491327,-0.017247,0.812630,0.092131,-0.768318,0.633404
0.009358,-0.617307,0.795936,0.211071,0.849420,0.483668
0.357896,0.014069,0.192174,-0.314323,0.067656,-0.946902
0.626601,-0.266462,-0.953630,-0.307353,0.267060,0.913353
0.562792,0.038369,-0.181237,-0.674874,0.685923,-0.272130
-0.117314,-0.985369,0.891230,-0.491966,0.862309,-0.119969
0.053221,0.253882,0.666604,-0.272565,0.961348,-0.038970
-0.127003,-0.340750,0.797622,0.128512,-0.013836,0.991611
0.578863,0.590823,0.331692,-0.002922,-0.484797,0.874622
0.123505,-0.225212,0.951791,-0.330118,-0.908811,-0.255115
0.447794,0.402258,0.260656,-0.079489,-0.660495,0.746610
-0.149974,0.507730,0.596062,0.861446,-0.065448,0.503615
0.056530,0.716093,0.755835,0.576698,0.601808,-0.552491
-0.029447,0.205283,0.816940,0.288717,-0.084060,0.953717
0.394431,0.916444,0.378181,0.387160,-0.888806,-0.245217
-0.607506,-0.043731,0.765170,-0.713032,0.025485,-0.700668
0.146571,-0.025590,0.380294,0.980798,0.151848,0.122379
0.158671,-0.144107,0.972642,-0.048716,0.758544,0.649798
-0.354728,-0.562685,0.761422,0.820611,0.226361,0.524745
0.616062,0.131527,-0.376375,0.367846,0.101053,-0.924380
0.043626,-0.289834,0.896579,0.546429,-0.501519,-0.670741
-0.417356,-0.114378,0.749804,-0.270742,-0.828840,0.489615
0.406816,0.399147,-0.887108,0.908855,0.084317,0.408501
0.007610,-0.317774,0.905864,0.365236,-0.921509,0.132000
0.035874,0.420201,0.530152,-0.445736,0.874491,-0.191273
0.114761,-0.255339,0.927328,0.747930,0.564187,-0.349704
-0.356337,0.428346,0.704252,0.917651,-0.271486,-0.290195
-0.056719,0.141656,0.467889,0.179068,-0.582407,0.792929
0.468971,0.391202,-0.333430,-0.569243,0.206124,-0.795912
0.195018,0.085510,0.539386,0.298692,0.256393,0.919264
0.621308,0.398484,0.301591,0.431150,-0.005073,0.902266
0.081676,-0.359818,0.889374,0.051231,-0.307537,0.950156
-0.054308,0.467607,0.491466,-0.504562,0.051860,0.861817
0.068677,0.124111,0.867398,0.290304,0.170978,-0.941536
-0.082006,-0.469064,0.538943,0.162698,-0.862395,0.479379
-0.188590,0.227265,0.829308,-0.475879,0.179478,-0.861003
-0.676798,-0.003609,0.778679,-0.221075,-0.124151,-0.967322
-0.145767,-0.842289,0.853089,0.677862,0.708884,0.194900
0.369665,0.337836,-0.090849,0.481027,0.852962,0.202654
0.224133,-0.206807,0.153095,0.872312,0.394089,0.289423
0.387201,0.024928,0.141648,-0.675107,-0.635963,0.373873
0.283026,0.140597,0.475095,0.865193,0.387002,0.318859
0.644941,0.228987,-0.975929,0.311090,-0.734983,-0.602514
-0.174364,-0.701991,0.873071,-0.589742,0.467830,0.658286
0.272912,-0.141126,0.812426,-0.026891,0.945456,0.324638
-0.427566,-0.544742,0.437311,-0.474308,0.204652,-0.856242
0.533818,0.826664,0.313465,0.049533,-0.981493,0.184980
0.171433,-0.334394,0.942745,0.977572,0.169374,-0.125158
0.331474,-0.155163,0.076318,0.500568,0.865059,-0.033233
0.060642,-0.243288,0.824606,0.897066,-0.395315,-0.197482
0.026611,0.049756,0.985163,-0.491098,-0.753498,0.437107
0.309921,0.701063,0.274420,0.101113,-0.080133,0.991642
0.280475,-0.324992,0.692259,0.339552,0.213540,0.916027
0.542610,0.114643,-0.664287,-0.307017,0.951681,0.006572
0.414047,0.547721,0.272887,-0.579537,-0.472829,0.663754
-0.870067,-0.577714,0.528653,-0.302609,0.295931,0.906009
-0.528383,-0.290297,0.758901,0.568415,0.822541,-0.018180
0.421940,-0.024332,-0.238970,-0.449775,0.846765,0.284063
-0.340738,0.492503,0.186638,-0.122672,-0.138824,0.982690
-0.463393,-0.420003,0.760741,-0.275224,0.669014,-0.690414
0.557499,0.201378,-0.819223,-0.621562,-0.155517,-0.767773
0.115045,0.313669,0.476628,0.376588,-0.344099,0.860103
-0.307795,0.120535,0.734541,0.626281,0.205253,-0.752092
0.417450,-0.033733,-0.332186,0.849911,-0.520696,0.080791
0.149502,0.380210,0.547562,0.896927,0.205939,-0.391294
-0.243041,0.654055,0.677490,-0.186801,0.789335,0.584855
-0.320036,0.348166,0.659858,-0.388448,0.395906,-0.832086
0.251642,-0.150330,0.190913,0.916510,-0.089569,0.389855
-0.701754,-0.249380,0.310160,-0.277285,0.162860,0.946884
-0.138157,0.340948,0.787997,0.482935,0.139728,0.864436
0.088859,0.810972,0.760843,0.220629,-0.480604,0.848730
0.831734,0.168075,0.008194,0.801642,0.271857,0.532413
0.117171,0.590361,0.547903,0.415150,0.107561,-0.903372
-0.540766,-0.446553,0.662141,0.526939,-0.048725,0.848505
0.103275,-0.286987,0.890890,0.987879,-0.155110,-0.006040
0.089002,-0.012414,0.642789,0.921176,-0.268468,0.281707
-0.100393,0.010626,0.932933,-0.218712,-0.841536,0.493946
-0.103843,-0.181647,0.556284,0.000670,0.947043,0.321107
-0.194214,-0.146954,0.685837,0.832604,-0.406698,0.375988
-0.430260,-0.587645,0.625209,0.241158,0.621365,0.745485
0.276551,-0.152712,0.049436,-0.173361,0.893371,0.414529
0.245119,-0.092792,0.865814,0.747427,-0.571441,-0.338835
-0.082243,-0.749529,0.857671,0.817571,-0.024403,0.575311
0.124640,-0.253882,0.927107,0.926486,-0.058577,-0.371743
-0.417781,-0.431853,0.374979,0.082729,-0.984431,-0.155088
0.179703,0.279770,0.756244,-0.222805,-0.002004,0.974861
