0.133371,-0.177395,0.247656,0.977284,-0.208122,-0.040020
0.095868,0.154104,0.629920,-0.255823,-0.909180,0.328552
-0.427118,0.051479,0.765803,0.674758,-0.729795,-0.110006
-0.064426,0.030567,0.692491,0.957139,-0.231646,-0.173851
0.382146,0.106636,0.223790,-0.241073,-0.506197,0.828039
-0.720920,-0.052363,0.354744,-0.113637,-0.982958,0.144497
0.573775,-0.302536,0.112622,0.020541,0.422318,0.906215
-0.085478,0.312052,0.693610,-0.753084,0.634045,-0.175648
-0.182239,-0.084175,0.740926,-0.316196,0.807398,-0.498125
0.545255,0.011259,0.314378,0.369012,-0.303328,-0.878534
-0.073411,0.786341,0.376696,-0.524270,-0.116850,-0.843497
-0.322998,-0.264252,0.736828,0.254743,-0.912720,0.319451
0.234353,-0.125501,-0.525540,0.898091,0.439755,0.006905
0.265958,0.262649,0.243864,-0.066706,-0.203849,0.976727
0.289012,0.443556,0.237402,0.297407,-0.602873,0.740333
0.095814,-0.372963,0.682833,0.951199,-0.248891,0.182410
-0.019781,0.093912,0.494562,0.203768,0.191345,0.960138
0.092729,-0.472988,0.644742,0.142805,-0.010461,0.989696
0.814541,-0.061769,0.029399,0.306674,0.630603,-0.712946
0.209351,-0.003070,0.763167,0.069400,-0.979782,-0.187647
-0.233218,-0.107632,0.718938,0.046887,-0.918145,0.393460
-0.035312,0.733894,0.359474,0.752959,-0.364885,0.547642
-0.089483,-0.156372,0.630282,-0.308422,0.808092,0.501859
0.136240,0.023596,0.593201,-0.885558,0.462327,-0.045180
0.051870,0.469337,0.589591,0.224678,-0.375939,0.898994
0.375597,0.075323,-0.986172,-0.025330,0.294845,0.955209
-0.003058,-0.322065,0.487936,0.255180,0.379372,0.889359
-0.641368,0.012697,0.604286,-0.659650,0.028763,-0.751022
-0.660525,0.296673,0.475227,0.212005,-0.251766,0.944282
0.121411,0.745014,0.184832,0.601809,0.566113,0.563331
0.402981,0.299328,0.264390,0.735219,-0.014129,-0.677682
0.095001,0.166884,0.436378,0.942242,-0.214967,-0.256844
0.575723,-0.305579,0.111159,0.048888,0.423586,0.904536
-0.233813,-0.457553,0.882261,0.188774,0.340009,-0.921281
-0.212383,-0.355923,0.492919,-0.282445,-0.064936,-0.957083
0.149876,0.427623,0.223916,0.350184,0.809891,0.470582
0.201233,-0.177671,-0.980304,0.282266,-0.015204,-0.959216
0.297887,0.213244,0.633639,-0.061811,-0.947588,0.313458
0.107610,0.813948,0.189688,0.109711,0.477735,0.871626
-0.658198,0.095682,0.646836,-0.002871,-0.223737,0.974645
0.112752,-0.473818,0.499039,-0.732454,0.590691,0.338519
-0.360175,-0.617106,0.346765,-0.675515,0.080637,-0.732924
-0.143924,-0.366933,0.454593,-0.790599,0.391806,-0.470575
0.306275,0.829935,0.408469,0.483006,-0.130018,0.865910
-0.147118,-0.183757,0.515864,-0.619690,-0.672455,-0.404708
0.021836,-0.340378,0.761958,-0.243394,0.864380,-0.440008
0.053061,-0.192055,0.704478,-0.498165,-0.866821,-0.021278
-0.608465,0.003513,0.371605,-0.592872,-0.526070,0.609716
-0.434046,0.102819,0.568776,-0.059438,0.106150,0.992572
-0.920935,0.248375,0.534837,0.940604,-0.337844,-0.033534
0.429065,0.006224,-0.985341,0.022027,0.214695,0.976433
-0.013773,-0.044231,0.848321,0.616348,0.230649,-0.752938
0.314392,0.133357,0.615063,-0.160097,-0.446841,0.880172
0.161133,0.254737,0.703936,0.909152,0.404730,-0.098162
0.149011,-0.293297,0.646655,0.507853,0.612703,0.605541
0.151392,0.663468,0.188695,-0.592383,-0.229458,-0.772290
0.200475,-0.407374,0.753762,0.948561,-0.309588,0.066240
-0.207349,0.621865,0.183857,0.037531,0.238849,0.970331
0.408935,-0.126110,-0.972036,-0.025388,-0.141342,-0.989635
0.163298,-0.502918,0.284591,0.276515,0.505691,0.817200
0.066590,0.366767,0.414300,-0.581916,0.529776,0.617019
-0.605650,0.007939,0.647143,-0.593132,0.318109,-0.739595
0.328516,-0.195375,-0.971657,0.344711,0.110284,-0.932208
-0.197284,0.234046,0.713721,0.139687,-0.457802,0.878012
-0.416728,-0.372631,0.688176,0.203274,-0.770875,0.603681
-0.263576,-0.509391,0.504274,-0.496067,0.861162,0.110987
-0.031200,-0.186302,0.806421,0.636258,-0.534952,-0.555880
0.042779,0.419048,0.397005,-0.634886,-0.543621,0.548995
-0.300214,-0.324444,0.419824,0.079469,-0.974870,0.208116
0.090024,0.199801,0.629740,-0.737581,-0.656060,0.159874
-0.062425,-0.454787,0.710724,0.459989,0.860935,0.217259
0.250155,0.232331,0.714822,0.044613,0.711396,0.701374
0.036934,-0.348621,0.881701,0.375158,-0.227993,0.898485
-0.310876,0.000637,0.548720,0.539457,0.169827,0.824709
-0.025408,0.046389,0.678428,0.012634,-0.971984,0.234706
0.433016,-0.231556,0.099786,-0.053318,0.285077,0.957021
0.132235,0.679843,0.196350,0.651509,0.390155,0.650627
-0.435561,-0.194932,0.500176,0.038174,0.161784,0.986088
0.065454,0.856381,0.214493,0.809505,0.306528,0.500742
0.076331,0.012144,0.743761,0.975166,0.041375,-0.217578
-0.013718,0.592543,0.236066,-0.120357,-0.163616,-0.979155
0.351895,0.593096,0.188750,-0.026075,0.380387,0.924460
0.378899,0.691849,0.183659,-0.020462,-0.078365,0.996715
-0.152692,-0.252469,0.284717,-0.587076,-0.738806,-0.330919
0.138241,-0.193328,0.442678,0.919876,-0.318512,-0.228862
-0.090458,0.293796,0.662885,0.809439,-0.299726,0.504949
-0.258490,-0.615280,0.474469,-0.216487,0.520725,-0.825820
0.154152,0.028962,0.514817,-0.278423,-0.815743,0.506995
0.512028,0.278028,0.271395,0.217092,-0.419949,0.881200
-0.185108,-0.511549,0.646872,0.516749,-0.736949,0.435748
0.121140,-0.150065,0.413343,0.740127,-0.654505,0.154386
-0.322295,-0.555974,0.603365,-0.020341,-0.871593,0.489809
0.382417,-0.006722,0.111105,0.753064,-0.257844,-0.605319
0.095543,-0.250588,0.759539,-0.716834,0.676109,0.170367
0.099926,-0.213576,0.616453,0.949126,0.304497,0.080257
0.097221,0.217560,0.738778,0.375146,0.367219,0.851126
-0.347350,-0.545573,0.489128,-0.690993,0.695737,-0.196159
-0.204102,-0.353489,0.727080,-0.523355,-0.379858,-0.762763
0.035094,0.565434,0.379963,0.958444,0.239109,-0.155601
0.136943,-0.369035,0.818011,0.989094,-0.127677,0.073423
-0.255785,-0.191557,0.660953,0.701613,0.583344,0.409207
-0.551966,-0.064922,0.321184,-0.048367,-0.997817,0.044973
-0.032010,0.239136,0.580926,0.148233,-0.010954,0.988892
-0.258599,-0.520455,0.553215,-0.546291,-0.419682,-0.724868
-0.276944,0.158972,0.703214,-0.018903,0.068183,0.997494
-0.081148,0.636746,0.404858,-0.394017,0.295064,0.870453
-0.330574,-0.556969,0.535361,0.252157,0.273605,0.928201
-0.359201,-0.291693,0.763709,-0.130863,0.593329,0.794252
0.331601,-0.151171,-0.966241,0.426078,0.287343,-0.857841
-0.251671,0.479628,0.200105,0.028952,-0.199936,0.979381
0.073518,-0.190175,0.759087,0.097551,-0.128257,0.986931
-0.100956,-0.520013,0.532472,0.597214,0.096684,0.796233
0.451795,0.213079,0.264210,0.062115,-0.538651,0.840236
0.085640,-0.202788,0.771201,0.907029,0.398661,0.135524
-0.338691,-0.110951,0.204419,0.826873,0.229453,0.513452
0.034229,0.948217,0.212868,0.205590,-0.545469,0.812525
-0.248911,0.009101,0.706193,0.004738,-0.909812,0.414993
0.083042,-0.171254,0.562674,0.981481,-0.060047,0.181904
0.249451,0.187298,0.019343,0.145950,0.139058,0.979470
-0.218715,-0.575281,0.557295,0.710975,0.608067,0.353226
-0.023461,0.196758,0.615262,0.021534,0.991657,0.127092
0.112103,0.564273,0.628223,0.998177,-0.014416,0.058608
-0.035528,-0.051699,0.871429,-0.040974,0.876126,0.480338
-0.384583,-0.468894,0.673915,0.850971,-0.405699,0.333552
-0.380902,0.361124,0.467429,0.175519,0.263735,-0.948492
-0.050356,0.099610,0.705399,0.971354,0.234870,0.036168
0.077089,0.406323,0.658317,-0.406821,0.634858,-0.656850
-0.614146,-0.264916,0.489381,0.784812,0.581357,-0.214697
0.076224,0.135737,0.721736,-0.520101,0.110259,0.846958
0.259194,0.115377,-0.993158,-0.211664,0.293110,0.932355
-0.392917,0.214351,0.459413,0.165376,0.165500,0.972245
0.138025,-0.166607,0.399496,-0.511771,0.830889,-0.218433
0.279269,0.133689,0.034201,0.967249,0.107047,0.230153
-0.860217,0.030013,0.400959,0.597853,0.771890,0.216235
0.030873,0.373516,0.600946,0.959013,-0.159531,0.234188
0.333550,0.039363,0.596830,-0.123125,0.277951,0.952672
0.180127,-0.376062,0.853954,0.784357,0.576305,-0.229473
-0.338042,-0.390999,0.481762,0.138634,-0.615110,0.776158
0.138999,-0.325828,0.685017,0.517308,-0.785205,0.340360
-0.431988,-0.417609,0.635427,-0.663283,0.551285,-0.506103
-0.285277,-0.620757,0.643406,0.990854,-0.126793,0.046170
-0.375166,-0.810904,0.597281,0.014288,0.597681,0.801607
0.160484,-0.030843,0.886846,-0.285739,0.880678,-0.377834
-0.379982,-0.670880,0.573741,0.021019,0.501533,0.864883
-0.170226,-0.461204,0.771128,0.995341,-0.079435,-0.054642
-0.098520,-0.301209,0.862150,-0.313876,0.737520,0.597952
0.040181,0.176731,0.789181,-0.039342,0.227119,0.973072
-0.374895,-0.145307,0.506801,-0.099299,-0.124661,0.987218
-0.228077,0.271888,0.722838,-0.388122,0.915212,0.108388
0.167465,-0.335288,0.877134,0.106914,0.620934,0.776538
-0.157995,-0.293795,0.738254,-0.675345,0.174770,0.716494
0.186675,-0.253188,-0.157536,0.856892,-0.515086,0.020577
0.396866,0.078753,0.095526,0.441943,0.889459,0.116398
-0.272399,-0.309396,0.706410,0.243766,0.371286,-0.895949
-0.935277,0.060275,0.435638,-0.147631,-0.764112,0.627963
0.453851,0.317363,0.272333,0.284383,-0.368892,-0.884898
-0.245231,-0.399242,0.501566,-0.714052,-0.680146,-0.165925
-0.318884,-0.384747,0.680612,0.805343,-0.592246,-0.025830
0.304001,-0.304694,0.455496,0.312957,0.129601,-0.940883
-0.067673,0.366601,0.742533,-0.042847,0.019194,0.998897
-0.062261,-0.542143,0.837273,-0.257270,0.303448,0.917459
0.277700,-0.110785,-0.704803,0.856709,-0.512871,0.054891
0.574478,-0.134298,0.401482,-0.485138,0.519930,0.703075
-0.250644,0.333407,0.747371,0.081296,-0.535003,0.840930
0.514516,-0.151669,0.265239,-0.749944,0.318439,-0.579810
0.186730,0.691682,0.187955,0.263058,-0.154732,0.952291
0.126823,-0.218887,0.376876,0.799034,-0.600787,0.024490
0.394431,0.623081,0.411971,0.399842,0.383722,-0.832396
0.141272,0.129153,0.218555,-0.354439,0.743940,-0.566504
-0.035257,0.192553,0.719750,0.876315,-0.402544,0.264634
-0.878617,0.029737,0.434248,0.992313,-0.055809,-0.110458
0.654030,-0.135349,0.134339,0.500107,0.710328,0.495305
0.367318,0.165003,0.244099,-0.199726,-0.579416,0.790182
0.185539,0.626788,0.188443,0.590812,0.339976,0.731681
0.336742,-0.071948,0.336077,-0.322513,0.733611,0.598165
0.097112,0.486709,0.488749,-0.239317,-0.472605,-0.848158
-0.246368,-0.432436,0.754177,-0.501676,0.859146,-0.100948
-0.303353,-0.917734,0.460243,-0.656646,0.399226,-0.639871
-0.289553,-0.313988,0.225053,-0.485660,-0.467153,-0.738852
0.272884,-0.141988,-0.216551,0.976139,-0.214809,-0.031767
0.176664,0.252358,0.709876,0.892093,0.423429,-0.157728
0.299131,-0.064535,-0.967343,-0.555121,0.446547,0.701738
-0.158537,-0.310835,0.739482,-0.718781,0.102042,0.687708
-0.437022,0.381428,0.465912,0.131547,0.280559,-0.950780
-0.099602,-0.529307,0.703160,-0.441897,0.017415,-0.896897
0.242363,-0.252192,-0.974311,-0.029247,0.201474,0.979057
-0.888519,0.056181,0.434717,0.698682,0.662465,0.270153
0.049814,-0.673702,0.486763,0.260907,-0.547819,0.794872
0.273426,-0.107134,0.595837,0.988417,-0.046827,0.144358
0.099819,-0.085336,0.599213,0.420050,0.033243,0.906892
-0.334200,-0.243838,0.469107,-0.034704,-0.881933,0.470095
0.374948,-0.065475,0.364637,0.567757,-0.219890,-0.793285
0.059718,-0.197311,0.027991,-0.132659,0.987462,-0.085562
-0.047325,-0.271444,0.895674,0.938062,-0.133234,0.319825
-0.419272,-0.479406,0.635300,0.988990,0.072131,-0.129212
-0.175529,-0.306630,0.325011,0.825567,0.155051,0.542585
0.658306,-0.044674,0.136632,0.604380,0.538658,0.587003
0.417539,-0.199358,-0.971513,-0.143698,0.035926,0.988969
-0.567281,0.124174,0.630949,0.851575,0.409401,0.327432
-0.283276,-0.047440,0.689946,-0.602576,0.192141,-0.774586
-0.392268,0.338774,0.461868,0.060984,-0.073806,0.995406
-0.254323,-0.208542,0.825503,0.505781,0.862616,-0.008903
0.570744,-0.285165,0.116647,0.236956,0.700855,0.672796
0.291879,0.285497,0.208842,0.735221,-0.461975,-0.496013
-0.098250,0.140217,0.765713,0.897168,0.148166,-0.416096
0.342803,0.583137,0.190970,-0.115636,-0.309302,-0.943907
-0.170875,-0.182429,0.846733,0.788588,-0.315334,0.527914
0.019076,-0.460540,0.659762,-0.233515,0.715840,0.658061
-0.422789,0.131698,0.534440,0.183072,0.835813,0.517592
-0.354440,0.206661,0.709749,-0.666862,0.521374,-0.532414
0.255350,0.224144,0.115727,-0.087391,0.837343,-0.539648
0.298536,0.655335,0.420311,-0.094033,-0.623252,0.776347
0.735151,-0.427733,0.122623,-0.335079,0.183471,0.924154
-0.008308,0.194158,0.622338,0.670063,0.664397,-0.331047
0.223312,-0.548615,0.708377,0.281782,-0.014170,-0.959374
-0.352871,-0.028519,0.704297,-0.462702,-0.739482,0.488950
0.008577,0.406323,0.384115,0.180640,-0.283716,0.941740
0.534539,-0.183370,0.095995,0.099005,0.310226,0.945494
-0.257570,0.309563,0.755784,0.893928,0.434748,-0.109023
0.217361,0.032392,0.497504,-0.159763,-0.432147,0.887538
0.553156,0.143869,0.238918,-0.255109,0.568533,-0.782106
0.003598,-0.275594,0.863143,0.841097,0.381711,-0.383214
0.250264,0.149346,-0.997220,-0.204830,0.231773,0.950961
0.260870,-0.184255,0.635463,0.584917,-0.593606,-0.552725
-0.427767,0.211419,0.586143,-0.207484,0.154150,0.966017
0.134075,0.183314,0.252909,0.731192,0.676320,0.089163
-0.392051,-0.537938,0.556248,0.974855,-0.222012,0.019186
-0.399519,-0.662582,0.344526,-0.503620,-0.224379,-0.834279
0.241496,-0.168764,-0.332340,0.354283,0.932843,-0.065483
-0.364019,0.046168,0.790354,0.675350,-0.736424,0.039780
0.024163,0.320517,0.534819,0.906766,0.402581,0.125311
0.180830,-0.085779,0.881394,0.708319,-0.071974,-0.702214
0.165354,0.657824,0.445928,0.826853,0.019883,0.562067
0.405037,-0.330807,-0.968083,0.011033,-0.014217,0.999838
0.307357,0.281182,0.251374,-0.006970,-0.117636,0.993032
-0.053928,0.045283,0.709984,0.952654,-0.129250,-0.275219
-0.086615,0.126000,0.478982,0.334462,0.590680,-0.734325
0.089969,-0.173356,0.735276,0.377884,0.683951,0.624030
-0.261304,-0.145971,0.637142,0.335233,0.922189,0.192838
0.377275,0.471937,0.262423,0.155285,-0.418021,0.895067
-0.279703,-0.448867,0.827344,0.706543,0.649935,0.279966
0.011608,0.019779,0.608654,0.993985,0.106567,0.025251
0.276890,0.149623,0.019867,-0.191186,0.052094,0.980170
0.019725,-0.105308,0.863287,-0.520940,-0.043181,0.852500
0.186297,0.636303,0.183045,0.473657,0.221570,0.852382
-0.489678,-0.259771,0.736287,0.404667,-0.474435,-0.781765
0.601862,-0.114547,0.401518,-0.500789,0.498925,0.707308
0.045269,0.275982,0.175354,-0.478811,0.584086,-0.655426
-0.699326,-0.047274,0.349490,-0.288076,-0.955364,-0.065518
-0.411694,-0.312661,0.246428,0.581254,0.400783,0.708179
0.055172,0.159138,0.662849,-0.092276,-0.685596,-0.722110
-0.209569,-0.837736,0.437750,-0.252552,0.218461,0.942599
0.550180,-0.296008,0.113921,0.088033,0.517179,0.851338
0.356116,-0.231335,0.277876,0.313368,-0.333345,0.889203
0.123576,0.465852,0.594682,0.882226,-0.464786,-0.075176
-0.849664,-0.088490,0.409732,0.906117,-0.398956,0.140661
-0.233271,-0.754253,0.417296,-0.435573,0.700283,0.565579
0.191060,0.066139,0.089568,0.114242,-0.787305,0.605888
0.074978,-0.022544,0.580222,0.189415,0.981763,-0.016205
0.061503,-0.191060,0.727802,-0.565079,0.457691,-0.686444
0.233649,-0.131310,-0.015841,0.946696,-0.307039,0.097436
-0.214601,0.048878,0.579842,-0.524983,-0.716559,-0.459279
0.208376,-0.440071,0.712367,0.868663,0.487360,-0.088912
0.389397,0.053249,0.070180,-0.731110,0.485399,0.479443
0.541682,0.041188,0.347451,0.322618,0.855102,0.405855
0.069675,0.494952,0.640644,0.968364,0.246605,-0.038168
-0.009877,-0.471384,0.304449,0.220149,0.922506,0.317043
0.144195,0.691516,0.194274,-0.527683,0.313596,-0.789436
-0.292151,-0.545130,0.331167,-0.397972,-0.065497,-0.915057
-0.138837,-0.394761,0.502956,0.539356,0.826780,-0.159779
-0.351138,-0.293906,0.712078,0.904250,-0.411293,-0.114764
0.110805,0.151559,0.262531,-0.741238,-0.370826,-0.559513
-0.152908,0.286382,0.741053,0.527620,0.820250,-0.220924
0.313310,0.755083,0.393864,0.500484,-0.001210,0.865745
-0.101280,0.218058,0.684024,-0.242373,-0.444271,-0.862484
-0.424197,-0.414124,0.487034,-0.346323,0.685304,0.640639
-0.557486,-0.077315,0.309594,-0.034862,-0.993176,0.111296
0.252429,0.732234,0.413180,0.373076,-0.023618,0.927500
-0.373164,-0.585737,0.501476,0.245889,-0.504894,0.827418
0.134236,-0.385024,0.711501,-0.260852,0.903134,0.341034
0.059555,-0.388011,0.229332,-0.134991,-0.908595,-0.395263
-0.637470,0.230948,0.480697,0.168924,-0.213518,-0.962224
-0.461105,-0.439075,0.681370,0.099054,-0.929103,0.356309
0.484969,-0.133302,0.398738,0.198632,-0.831770,-0.518367
0.359905,0.034218,-0.984493,0.165459,0.302231,0.938765
0.038557,-0.226467,0.780516,-0.560222,0.263625,-0.785273
0.082014,-0.138115,0.739951,-0.473212,0.877301,0.080087
0.258381,-0.006168,0.329398,0.484045,0.494493,-0.721926
-0.228888,0.286825,0.709063,0.595029,0.579803,0.556569
-0.568255,0.272165,0.566845,-0.391010,0.043168,-0.919373
-0.960116,0.088324,0.488045,0.700830,0.708058,-0.086549
-0.047921,0.223092,0.618349,-0.389813,-0.911722,0.129647
0.460941,0.286438,0.277244,-0.035622,-0.163933,0.985828
-0.316395,0.152942,0.463132,-0.148445,-0.602775,0.783981
0.393564,0.020608,-0.984799,0.064215,0.248662,0.966459
-0.027682,-0.117424,0.823626,-0.507865,-0.722944,0.468428
0.566036,0.242677,0.113073,-0.371029,-0.518032,-0.770701
0.477554,0.708778,0.178333,0.360750,-0.294367,0.884990
-0.902265,-0.319963,0.435710,0.830778,-0.411530,-0.374769
-0.493357,-0.215181,0.522002,0.133267,-0.743679,-0.655120
-0.110210,-0.046057,0.774631,-0.587422,0.577060,0.567395
-0.046460,0.218833,0.631690,-0.676900,-0.684756,0.270029
0.772167,0.103649,0.064439,0.482835,0.544805,-0.685608
0.056037,0.399243,0.245796,0.326007,0.917205,0.229031
-0.322240,-0.423086,0.753617,0.235435,0.961434,0.142179
0.162485,-0.137783,0.159270,0.831608,-0.535420,0.147493
-0.010742,0.069348,0.824041,0.882142,-0.401863,-0.245624
0.087426,-0.189732,0.800536,0.892992,-0.420114,0.161461
0.031144,-0.019169,0.633242,0.821838,0.553116,-0.136544
-0.006575,0.234987,0.622555,-0.611006,-0.646831,0.456379
0.438104,0.300932,0.072851,-0.138367,0.040327,0.989560
0.104744,-0.419822,0.679168,-0.309629,-0.379877,0.871678
-0.275591,-0.114270,0.781942,-0.297878,0.834342,0.463835
0.407473,0.005007,0.377274,-0.232218,-0.228893,0.945348
0.028222,-0.511936,0.883831,0.256883,-0.965421,-0.044412
-0.278622,-0.921274,0.451181,-0.610732,0.185785,-0.769734
0.867738,-0.011867,0.053698,0.351734,0.717567,-0.601150
0.078496,0.194822,0.257133,0.866064,0.377637,0.327601
-0.289391,-0.195430,0.835865,0.489216,0.490927,0.720873
0.653921,-0.295621,0.102819,0.103086,0.586134,0.803629
-0.393240,-0.405217,0.623223,0.469995,-0.496940,-0.729489
0.225803,-0.145252,-0.244316,0.969418,-0.213382,0.121226
-0.097330,-0.095958,0.650049,-0.195572,0.660488,-0.724918
0.332359,0.407153,0.200231,0.824692,0.081901,0.559621
0.310765,0.008769,-0.978012,-0.135191,0.035824,0.990172
0.383824,-0.086940,0.514907,0.835055,-0.017089,-0.549901
-0.432639,-0.462200,0.648009,0.137476,0.675584,0.724352
-0.418946,0.114658,0.449701,-0.100494,-0.747123,0.657045
-0.371487,-0.669497,0.587984,-0.432966,-0.478332,-0.764028
0.125470,0.162679,0.599466,-0.542268,-0.839613,-0.031556
0.513597,0.027413,0.322231,0.955123,-0.293051,-0.043148
0.105338,0.789439,0.201314,-0.646759,-0.747785,0.150071
-0.142680,-0.145750,0.127497,0.353729,-0.841887,0.407557
-0.579457,0.113441,0.646276,0.786756,0.010842,0.617169
-0.011013,-0.397582,0.790932,-0.077748,0.427413,0.900707
0.363422,0.471218,0.200556,-0.031590,-0.126059,0.991520
-0.097601,-0.473209,0.800500,-0.172915,0.943128,0.283918
0.366453,0.468341,0.194942,0.194705,-0.097686,0.975985
0.011121,0.400792,0.721429,0.071905,-0.866388,0.494167
0.145277,0.153551,0.380938,0.861953,-0.023342,-0.506451
0.067457,0.310891,0.178153,-0.642162,0.603252,-0.472986
-0.013124,-0.259274,0.520323,0.376491,0.918461,0.121179
0.592120,-0.303532,0.107729,0.368660,0.716247,0.592520
0.121627,-0.250090,0.654653,0.409165,0.810173,0.419766
-0.021295,0.505076,0.297354,0.917031,-0.087143,0.389180
-0.076225,-0.044618,0.733164,-0.750079,0.352190,-0.559772
0.132235,-0.205831,0.437064,0.858342,-0.460125,-0.227009
-0.047001,-0.118198,0.824077,-0.781441,0.339567,-0.523493
0.062262,-0.101933,0.880383,0.634365,-0.433521,-0.640031
0.298752,0.631601,0.183063,-0.013690,0.137879,0.990354
-0.362179,-0.057785,0.759611,-0.669812,-0.463311,-0.580254
-0.018156,-0.074825,0.389965,0.794170,0.606690,0.034951
-0.522906,-0.104368,0.502559,0.249898,0.015474,0.968149
0.107394,0.092639,0.274716,0.785209,-0.010433,0.619143
-0.248262,-0.005173,0.705164,0.027232,-0.880242,0.473743
0.355196,-0.101214,-0.024470,0.038943,-0.989753,0.137377
0.035961,0.354154,0.550904,0.986116,0.145217,-0.080537
-0.214872,-0.412464,0.758853,0.959636,-0.280223,0.023933
-0.379711,-0.521839,0.557114,-0.604538,0.727844,0.323693
0.470195,0.087273,0.096934,0.019162,-0.989043,0.146380
0.050896,-0.188238,0.883199,0.357775,0.523695,0.773136
0.005221,0.857930,0.376154,-0.619023,0.266546,-0.738758
0.290581,-0.123067,0.600332,0.986777,-0.076836,-0.142716
0.184728,0.093414,0.533898,-0.667607,0.741500,0.066922
0.140406,-0.209869,0.373194,0.744958,-0.661537,-0.086060
0.021077,-0.426019,0.859442,0.866192,0.444268,0.228775
-0.217524,-0.433709,0.782935,-0.254357,0.535381,0.805400
-0.005981,-0.147465,0.886864,0.589390,0.692262,0.416404
0.109234,-0.234544,0.189020,0.582216,-0.812166,0.037551
0.098466,0.045172,0.527255,-0.726070,0.661285,-0.188480
0.512244,-0.355426,0.110690,0.104889,0.177575,-0.978502
0.057553,0.420321,0.681515,-0.493834,0.754600,-0.432096
0.101604,-0.235042,0.690957,0.900171,0.412127,0.140865
0.066483,-0.199414,0.663878,0.885908,0.426005,-0.183541
-0.360608,-0.431551,0.394947,0.646744,-0.165820,0.744463
0.527180,0.435369,0.076029,0.116690,0.139609,0.983307
0.094516,-0.201350,0.898562,-0.085226,-0.700796,0.708252
0.510079,-0.164172,-0.972885,-0.184581,-0.147953,-0.971617
0.073626,-0.163840,0.487882,0.857311,0.054771,0.511876
0.242470,-0.127493,-0.543466,0.642995,-0.764993,-0.036647
-0.886572,-0.233548,0.448906,0.935492,-0.255656,0.243915
-0.080012,0.488645,0.402493,-0.555159,0.224775,0.800796
0.135049,0.056015,0.349202,0.972359,0.202886,-0.115567
0.095056,-0.204725,0.882116,0.823573,0.484018,-0.295726
0.100251,-0.200243,0.600693,0.809796,0.527574,0.256703
0.134885,0.764433,0.179073,0.109553,0.247266,0.962735
0.020105,-0.379602,0.803894,-0.646673,-0.293003,0.704246
-0.184999,0.199746,0.694946,-0.129947,-0.828545,0.544634
-0.093325,0.083124,0.837273,0.744810,-0.180306,-0.642455
0.030549,0.850627,0.225342,0.142376,0.108816,0.983813
0.165787,0.614008,0.193534,0.358774,-0.099241,0.928134
0.046189,0.425245,0.629812,-0.028333,0.730921,0.681874
-0.089374,0.454234,0.404876,-0.312523,0.223509,0.923241
-0.418297,-0.697103,0.569083,0.644301,-0.641713,-0.416029
0.276780,0.190119,0.019975,-0.219319,-0.131458,-0.966756
0.072111,0.463639,0.613294,0.904286,-0.277569,-0.324381
-0.437184,-0.454123,0.694062,-0.605805,-0.746530,0.275123
0.247882,-0.219108,0.618096,0.728295,-0.579992,-0.364959
-0.244041,-0.076982,0.747660,-0.048726,0.894615,-0.444173
0.079903,0.025920,0.562422,-0.387461,0.541780,-0.745888
-0.998809,0.152168,0.498551,0.905796,0.358698,-0.225544
-0.059611,-0.020884,0.766832,0.953818,-0.299707,-0.020169
0.318721,-0.073110,-0.869208,-0.120741,0.986502,0.110609
0.116486,0.302647,0.623403,0.537164,-0.483116,-0.691414
0.143761,-0.463196,0.686209,0.013605,0.011697,0.999839
0.306437,-0.154768,-0.695759,0.985188,-0.122551,0.119941
-0.123794,-0.455285,0.619342,0.828388,0.379886,0.411655
-0.155342,-0.366490,0.496945,0.831434,0.521959,-0.190463
-0.324674,0.257116,0.587081,-0.183258,0.215302,0.959199
0.101766,0.841775,0.182521,0.184246,0.061676,0.980943
0.025137,-0.430666,0.652559,0.090894,0.974290,0.206149
0.640339,-0.050150,0.012176,0.020165,-0.696844,0.716940
-0.284737,-0.421482,0.838284,0.893883,0.447966,0.017323
0.207673,0.198639,0.698990,-0.448871,-0.823334,0.347327
0.504234,0.271556,0.273868,0.214581,-0.450743,0.866479
-0.232731,0.223867,0.719227,-0.209907,0.673954,-0.708326
-0.232406,-0.554867,0.652450,0.489000,-0.302217,0.818256
-0.373543,-0.278692,0.801457,0.087443,0.991747,0.093759
-0.392104,-0.682332,0.578741,0.149404,0.521449,0.840101
0.177367,-0.418771,0.670088,0.736725,-0.392638,-0.550520
-0.402279,-0.131421,0.356567,-0.072923,-0.487344,0.870160
0.514624,0.359299,0.284862,-0.185670,0.005016,0.982599
0.305301,-0.180382,0.484723,0.800970,0.244569,-0.546473
-0.260006,-0.253907,0.830937,-0.086691,0.711641,0.697174
0.117353,-0.557688,0.494020,-0.585906,0.094675,0.804830
-0.036774,-0.324113,0.536967,0.787213,-0.608799,0.098284
0.011770,0.382812,0.647720,0.325498,-0.861339,0.390060
0.257083,-0.124671,-0.462428,0.687598,-0.725881,0.017481
-0.329492,-0.393710,0.560436,0.914431,-0.133676,0.382030
0.605812,0.235817,0.258234,-0.294228,0.590657,-0.751369
-0.057500,-0.363171,0.864226,0.784206,0.190572,0.590511
0.189977,-0.067522,0.281071,-0.300845,-0.538792,0.786889
-0.092514,0.364665,0.725925,0.956294,-0.252570,0.147346
0.264171,-0.170036,-0.422550,0.794223,-0.597728,0.109233
0.080445,0.396918,0.585782,0.997530,0.004548,-0.070099
-0.325920,0.137949,0.470227,-0.114818,-0.681217,0.723021
-0.226994,-0.484385,0.659184,-0.115895,-0.508350,0.853316
-0.250102,0.119748,0.699586,0.155329,0.648881,0.744867
-0.095761,-0.109236,0.928096,0.258192,0.965176,0.042109
0.200855,0.112058,0.562927,-0.527044,0.768168,-0.363514
0.067890,0.378883,0.276377,0.358243,0.570256,0.739236
0.404281,0.459766,0.254191,-0.092246,-0.387718,0.917151
-0.157346,-1.000000,0.428399,0.304084,-0.269409,0.913757
0.305788,-0.237476,0.436558,0.890018,0.149432,-0.430741
0.019618,-0.457166,0.271395,-0.180301,-0.861780,-0.474160
-0.014802,0.506846,0.277623,0.999708,-0.000797,-0.024155
0.589685,0.194158,0.101050,0.643414,0.146193,0.751429
0.267689,-0.173522,-0.490554,0.992020,-0.125295,-0.014021
0.088507,0.055850,0.728380,0.805472,-0.032655,-0.591734
-0.634981,0.277475,0.479036,-0.069058,0.129320,0.989195
-0.357361,0.147188,0.746685,0.154809,0.987758,0.019182
-0.152692,0.086277,0.824095,0.685053,-0.692215,-0.227027
0.105338,-0.230837,0.783314,-0.491460,0.200267,-0.847561
-0.046514,-0.352825,0.757968,0.102316,-0.984568,0.141976
0.082717,-0.179608,0.734752,-0.059111,0.289628,0.955312
-0.060530,-0.055019,0.795265,0.984332,0.175923,0.011879
0.322671,0.487705,0.257855,-0.110179,-0.495205,0.861761
-0.045594,0.140273,0.871628,0.176068,-0.951495,0.252305
-0.883594,0.015574,0.380938,0.345844,0.930949,0.117158
0.154206,-0.517579,0.649453,0.216187,0.766727,0.604477
-0.020483,0.066361,0.692022,-0.273246,0.874172,-0.401446
0.350488,0.456391,0.248775,0.229155,0.552177,-0.801617
0.513326,0.117701,0.243124,-0.002816,-0.515687,0.856772
-0.249182,0.206384,0.525955,0.028399,0.413781,0.909933
0.179262,0.795580,0.426539,0.226416,0.540847,0.810074
0.189437,-0.115156,0.173531,0.730191,-0.654267,0.196864
0.101442,-0.261874,0.148980,-0.452002,0.876148,-0.167507
0.183158,-0.393599,0.673066,0.595391,-0.761407,-0.256456
0.057769,-0.104976,0.736666,0.806541,-0.305329,-0.506227
-0.179480,-0.390003,0.475408,0.755829,0.412429,0.508551
-0.258219,-0.574341,0.336601,-0.633066,0.034648,-0.773322
-0.923911,-0.161517,0.424824,0.932443,-0.026342,-0.360355
-0.174067,-0.512434,0.453654,0.985797,0.038848,0.163384
0.036826,-0.021659,0.666748,0.860130,0.472657,-0.191760
-0.681901,0.279522,0.476401,-0.104103,0.146405,0.983732
0.203831,-0.147686,0.129681,0.896557,-0.436240,0.076684
0.157832,-0.114547,0.193570,0.952575,-0.062954,0.297720
-0.495793,-0.551824,0.379332,-0.536019,0.152011,-0.830407
0.735206,0.193439,0.077202,-0.621907,-0.189951,-0.759704
-0.079850,-0.274985,0.557331,-0.650315,0.757455,-0.057894
-0.024759,-0.011867,0.717368,-0.742756,0.305597,-0.595755
-0.183917,-0.834140,0.442046,-0.088100,0.141904,0.985952
-0.020970,0.222096,0.175734,0.175225,-0.560358,0.809503
-0.417432,-0.092694,0.261213,-0.680050,-0.583278,-0.444207
-0.229537,-0.201018,0.706825,0.895014,-0.327226,-0.303107
-0.331655,0.662140,0.205737,-0.033808,-0.996217,0.080054
0.280840,0.724323,0.424698,0.040395,-0.421078,0.906125
-0.004410,-0.276368,0.870689,0.147656,-0.058633,0.987299
0.391724,-0.078698,0.359401,0.146041,-0.860329,-0.488370
-0.158807,-0.017454,0.668716,-0.308001,0.594758,-0.742562
0.406228,0.439628,0.188768,0.445873,0.007799,0.895062
-0.143653,0.671655,0.352848,-0.165679,0.172426,0.970989
-0.291338,-0.020774,0.697997,0.099379,-0.517623,0.849818
-0.325271,-0.112334,0.214384,0.830278,0.350892,0.433028
0.528804,-0.137672,0.394911,-0.350225,0.632661,0.690712
0.319641,0.753921,0.409624,0.856805,0.102352,0.505381
-0.604298,0.080745,0.636203,0.941887,-0.180806,0.283123
0.164109,0.207270,0.713577,0.796094,0.559523,-0.230584
0.088184,0.779978,0.213355,0.439236,0.784682,-0.437430
-0.515545,-0.462698,0.746306,-0.324760,-0.939117,0.112201
-0.026546,-0.388675,0.787574,0.344508,-0.476670,-0.808764
0.099764,-0.339548,0.685667,-0.832738,0.551282,-0.051341
-0.383229,-0.437360,0.598545,0.959714,0.242212,0.142419
-0.213735,-0.298166,0.736503,0.058074,0.840143,0.539247
0.099386,-0.349285,0.896324,0.604103,0.755258,0.254254
-0.164218,-0.402230,0.855452,-0.398243,0.501824,-0.767838
-0.006088,-0.102763,0.386986,0.919955,0.390395,-0.035714
-0.077685,-0.148792,0.488117,0.511793,0.857272,-0.056155
-0.172337,-0.644546,0.568921,0.705981,0.691079,0.154920
-0.135429,-0.009543,0.577820,-0.241839,-0.970284,0.007963
-0.379117,-0.439628,0.647937,-0.320834,0.873194,0.366874
0.043646,0.432990,0.294538,0.930617,-0.029342,0.364815
-0.533512,0.195043,0.465984,-0.126856,-0.183077,-0.974880
-0.094354,-0.193273,0.099118,0.805763,-0.086588,0.585874
0.095921,-0.265027,0.885907,0.256938,0.177969,-0.949900
0.132289,-0.093690,0.218464,0.987959,-0.104572,0.114021
-0.948697,0.220879,0.483586,0.932719,0.240434,-0.268752
0.450495,0.435479,0.085687,-0.205634,0.547853,-0.810908
-0.480208,0.526819,0.483513,0.158712,-0.358464,0.919953
0.323646,-0.253133,0.477357,0.828589,0.518686,-0.210725
-0.244961,-0.499156,0.852835,0.509583,0.834788,-0.208455
-0.149011,-0.810793,0.447480,-0.093620,0.100740,0.990498
0.210271,-0.013527,0.025752,-0.709686,0.470177,-0.524671
0.149931,0.198141,0.679547,-0.215902,-0.910316,0.353145
-0.349244,0.315926,0.448184,0.766376,0.636693,-0.085380
-0.462728,-0.402118,0.651909,0.814807,-0.453442,0.361221
0.511973,0.527317,0.074946,-0.430633,0.375774,-0.820578
0.558622,0.111339,0.245615,-0.720499,0.584797,-0.372684
-0.397516,-0.220270,0.475751,0.387905,-0.528207,0.755332
0.239061,-0.166275,-0.071497,0.273260,-0.958223,0.084480
-0.151825,0.153108,0.679674,0.157928,-0.582795,0.797125
0.565061,-0.154269,0.416285,-0.263415,0.736790,0.622698
0.039857,0.256065,0.634379,-0.669395,0.349236,0.655702
-0.449090,-0.011203,0.608564,0.789860,0.344784,-0.507193
0.098899,-0.188017,0.289285,0.605418,-0.795871,-0.007586
0.171577,0.657824,0.190230,0.192297,-0.132098,0.972405
-0.312390,0.228624,0.463078,0.777915,0.095835,0.621018
0.050194,0.635806,0.234766,-0.163936,0.017521,0.986315
-0.210272,0.447207,0.185265,-0.026760,0.178785,-0.983524
-0.197608,-0.433819,0.805248,0.960646,0.191647,-0.201074
-0.052413,-0.341595,0.492630,0.847741,0.224890,0.480375
0.128175,0.522061,0.463240,0.479021,0.701250,0.528004
-0.129638,-0.369810,0.596740,0.673983,-0.674447,0.301443
-0.311361,0.807143,0.240976,-0.359692,0.328110,-0.873479
0.552615,0.028630,0.090922,0.759916,-0.003919,0.650009
-0.094894,0.710050,0.364691,-0.005154,-0.329449,0.944159
-0.127690,-0.370031,0.444845,0.599859,-0.756602,0.260234
0.249289,-0.186468,0.419174,-0.556264,-0.828618,0.062950
-0.065239,-0.479904,0.340771,0.854702,-0.471933,0.216250
0.514355,-0.127936,0.280367,-0.703610,0.606096,-0.370918
0.249180,0.025477,0.335536,-0.352150,-0.813329,0.463127
-0.528533,0.224696,0.580619,-0.014714,-0.181601,0.983262
0.382093,-0.094022,0.356134,-0.123800,0.734806,0.666883
-0.303515,0.014080,0.718812,0.253848,-0.759283,0.599209
0.036881,0.430057,0.326419,0.461740,-0.497396,0.734434
0.021781,0.371525,0.279157,0.967710,0.111356,0.226133
0.025895,0.605267,0.221606,0.788907,-0.286009,0.543897
0.401954,-0.137672,-0.971910,0.172589,0.222785,0.959469
-0.396758,0.260380,0.458474,0.344977,0.093067,0.933986
0.244743,-0.329313,0.442823,0.169193,0.121009,0.978126
-0.492817,-0.863683,0.610857,0.533157,-0.800722,-0.273108
-0.450659,-0.307073,0.783819,-0.134373,-0.859210,0.493662
-0.026707,0.350447,0.189815,0.073351,-0.137962,0.987718
0.027248,0.867500,0.189977,-0.591108,0.149858,-0.792549
-0.204427,-0.157146,0.726231,-0.027541,0.648524,-0.760696
0.383391,-0.103925,-0.025734,-0.011041,-0.965793,0.259078
0.070217,-0.216564,0.854171,0.849424,0.519492,-0.092771
-0.438213,-0.092252,0.272658,0.815257,0.149576,0.559449
0.104202,-0.230450,0.632340,0.976684,0.213777,-0.019684
0.365911,-0.103538,-0.969762,0.364686,0.179541,0.913657
-0.209730,-0.246106,0.704586,0.909368,0.415977,-0.003671
-0.259626,0.217726,0.707926,-0.608978,0.784907,0.114312
-0.269585,-0.277807,0.854153,-0.538262,0.749628,-0.385138
-0.085262,-0.652181,0.640174,0.813363,-0.475758,-0.334805
-0.090458,0.664684,0.379927,-0.461824,0.633643,0.620657
-0.331655,-0.401233,0.547997,0.971680,0.183587,0.148774
0.041264,0.269011,0.637340,-0.404225,0.654297,0.639138
0.418837,-0.254073,-0.971820,0.127251,-0.282826,-0.950693
0.231539,-0.144809,-0.541318,-0.181199,0.982517,0.042743
0.284141,0.217394,0.404298,0.804871,-0.558784,-0.199860
0.250913,-0.174075,-0.528266,0.649911,0.749062,0.128540
-0.531347,-0.305800,0.456452,0.645848,0.145984,0.749379
0.278837,0.078145,-0.980214,-0.110652,0.427031,0.897441
0.532916,-0.302315,0.108506,0.113260,0.499102,0.859110
-0.272344,-0.593649,0.332340,0.504523,0.183814,0.843605
0.411153,-0.058726,0.349039,0.066010,-0.916871,-0.393689
0.460994,0.201848,0.249858,-0.066505,0.751545,-0.656320
-0.348702,-0.505408,0.372508,0.871789,-0.474090,0.123382
0.231593,-0.158142,0.033063,-0.009975,0.999754,0.019814
-0.568688,0.104036,0.641510,0.835020,-0.135186,0.533353
0.458018,0.521784,0.182215,0.671435,0.152954,0.725107
0.221311,-0.161959,0.386986,-0.053720,0.973504,0.222270
0.004898,-0.222649,0.163025,-0.213984,0.973933,-0.075272
0.300430,-0.117645,0.085579,-0.089317,-0.661416,0.744682
-0.522797,-0.284280,0.499147,0.107671,-0.957142,0.268859
-0.070920,0.268181,0.622663,-0.634431,-0.114662,0.764427
-0.063507,0.171531,0.709226,0.746548,-0.237912,0.621341
-0.312390,-0.433210,0.336998,-0.683341,0.438178,-0.583991
-0.025571,0.099278,0.701680,0.324417,0.100662,0.940543
-0.450659,-0.204946,0.503426,-0.482814,-0.255348,-0.837668
0.323538,-0.465962,0.704370,-0.047502,-0.855549,0.515538
-0.220338,-0.656109,0.679710,0.220065,-0.843006,-0.490828
0.127797,0.501646,0.732225,0.198766,0.803439,0.561230
0.737640,0.179608,0.079206,-0.676208,-0.139974,-0.723291
-0.579890,-0.021659,0.384260,-0.344507,-0.696993,0.628900
-0.147063,0.497054,0.389802,0.312250,-0.220226,-0.924121
-0.399465,-0.261154,0.743147,-0.739453,0.369383,0.562820
0.070704,-0.152942,0.874787,0.906419,-0.246149,0.343241
0.647589,-0.302868,0.104624,-0.201714,-0.431126,-0.879455
0.252104,0.548284,0.412584,-0.007273,0.277155,0.960798
0.030494,-0.405659,0.631816,-0.197024,0.854873,0.479973
0.007657,-0.075433,0.692256,-0.547200,0.652994,-0.523614
-0.646346,-0.059334,0.323441,-0.151697,-0.986850,0.055815
0.348593,0.283229,0.243323,0.288955,0.215650,-0.932738
-0.295723,-0.686150,0.377526,-0.024744,0.893586,0.448209
0.616851,0.093912,0.130819,0.510642,0.350000,-0.785331
0.431663,-0.205554,0.275745,0.275767,-0.554346,0.785272
0.102957,0.424747,0.204654,0.847505,0.484781,-0.216153
0.241821,0.154712,0.113163,0.135536,-0.575141,0.806748
0.926293,0.004730,0.043588,0.072969,-0.868694,0.489945
0.305030,-0.147631,-0.828734,0.806068,-0.585384,0.087066
0.042022,0.441344,0.606145,-0.295653,0.414261,0.860800
0.166545,-0.069569,-0.986713,-0.270119,0.133442,0.953535
-0.294640,0.472436,0.189815,0.295329,-0.147181,-0.943991
0.382849,0.632818,0.191548,-0.108970,0.244341,0.963547
0.416781,-0.216840,0.106736,-0.062340,0.316960,0.946388
0.122169,-0.274432,0.556518,0.647638,0.632017,0.425581
0.128933,-0.154269,0.891197,0.753995,0.580586,-0.307264
-0.338638,-0.575004,0.478531,0.273377,-0.257104,0.926910
0.327163,-0.230726,-0.975611,0.338048,-0.039585,-0.940296
0.025244,-0.509723,0.717025,0.165260,-0.970248,0.176939
-0.556133,0.658156,0.247006,-0.034558,-0.707169,0.706199
-0.420299,0.610855,0.206550,0.819239,-0.457320,0.345984
0.589576,-0.066914,0.106502,-0.728697,-0.143737,0.669582
-0.569717,0.262372,0.472303,0.496730,0.449187,0.742624
-0.135752,-0.079306,0.910712,0.148136,0.985699,0.080327
0.545742,-0.274432,0.103018,0.098675,0.406411,0.908346
0.068323,0.299162,0.530071,0.986430,-0.018004,-0.163193
-0.330412,-0.394152,0.531154,0.849211,-0.072081,0.523112
-0.674758,0.035767,0.637719,0.818447,0.307869,-0.485141
-0.010958,-0.305358,0.476166,-0.607045,-0.013490,-0.794553
0.374786,0.603718,0.187107,-0.074734,0.341930,0.936749
-0.250102,-0.367265,0.782827,-0.720855,-0.175561,-0.670482
-0.091918,0.075710,0.761001,0.976602,-0.072757,0.202372
-0.178505,0.078587,0.794922,-0.308809,0.258715,-0.915261
0.167248,0.275926,0.446740,-0.020712,0.956099,0.292311
-0.090294,0.110675,0.472068,0.415976,0.736363,-0.533604
-0.231918,-0.457110,0.843267,0.731483,0.677449,-0.077432
-0.203940,-0.376006,0.320606,-0.724848,0.362531,-0.585804
0.019996,0.367099,0.629650,-0.430834,0.743791,-0.511035
-0.212383,-0.292689,0.859622,0.717720,0.620519,-0.315964
-0.318397,-0.478023,0.537455,-0.206736,0.567490,0.797004
0.129311,0.432824,0.198065,-0.714619,-0.011753,-0.699415
0.507426,-0.118198,0.383429,-0.328522,0.499158,0.801820
-0.443894,-0.537827,0.651042,0.016931,0.998788,0.046210
0.007332,0.504136,0.666910,0.400391,-0.516400,-0.756979
-0.256055,0.194711,0.540109,-0.140398,0.360919,0.921968
0.027139,0.467843,0.619576,0.759439,0.639929,0.117236
0.374408,0.469060,0.261899,0.019715,-0.512795,0.858285
0.427551,0.035988,0.601090,0.467033,-0.007570,-0.884208
-0.003003,0.264530,0.632448,0.197496,-0.260942,-0.944936
0.180614,-0.111228,0.456507,0.616553,0.467809,-0.633259
0.092512,-0.448092,0.273308,-0.028187,0.730790,0.682020
-0.140623,0.194656,0.679276,-0.298451,0.511150,-0.806010
0.534107,0.160798,0.238611,0.108991,-0.495318,0.861847
-0.154477,-0.393599,0.672146,-0.695878,0.107952,-0.710000
-0.325271,0.122625,0.586071,-0.344605,-0.519084,0.782176
-0.436697,0.403834,0.468746,0.088093,0.162978,-0.982689
-0.210705,0.052917,0.579012,-0.491654,-0.777136,-0.392855
-0.105176,-0.663080,0.484903,-0.495223,-0.632166,0.595919
-0.239874,-0.307903,0.345447,-0.710409,0.353116,-0.608792
0.450008,0.309286,0.273128,0.304791,-0.318111,-0.897724
-0.216279,-0.485602,0.670250,-0.186500,-0.554832,0.810789
0.163244,-0.056734,0.279771,-0.466776,-0.525875,0.711038
-0.700897,-0.041797,0.645590,-0.438060,0.012896,-0.898853
0.305462,-0.145086,-0.358427,-0.237895,-0.965406,-0.106757
0.045647,0.045836,0.661025,0.645379,0.628313,-0.434406
-0.004574,-0.065530,0.390885,0.794170,0.606690,0.034951
0.201343,0.247158,0.014560,-0.373968,0.173011,0.911161
-0.221745,0.139277,0.709858,-0.272815,-0.835304,-0.477326
-0.317099,-0.793035,0.604593,0.150224,0.610192,0.777881
-0.243013,0.123897,0.719010,0.309041,-0.893115,0.326862
0.100197,0.120688,0.798875,0.464153,0.265267,0.845101
-0.227535,-0.599292,0.579626,-0.364001,-0.883351,-0.295288
0.680656,0.332633,0.080813,-0.270130,-0.147210,-0.951504
-0.047867,0.778541,0.384513,0.110303,0.218205,0.969649
0.219417,0.527040,0.408848,-0.409753,0.318298,-0.854862
0.233055,0.334458,0.251446,0.034570,0.029259,0.998974
0.097275,-0.271389,0.806277,0.295470,0.662115,0.688695
-0.378468,0.091035,0.769847,0.790302,-0.606056,-0.090108
-0.003274,0.407320,0.662560,0.593694,-0.789189,0.157190
0.030333,-0.228680,0.819130,-0.822900,0.344905,0.451526
0.390859,0.511272,0.199130,0.105296,0.044530,0.993443
0.085857,-0.241072,0.524980,-0.332356,0.924171,-0.188276
0.579565,-0.180106,0.421105,-0.444001,0.637421,0.629728
0.104364,-0.221100,0.681064,0.863357,0.498474,0.078349
-0.101118,-0.462421,0.814924,-0.094759,0.876746,0.471526
0.147278,-0.047661,-0.991642,0.248626,-0.161096,-0.955109
0.135482,0.370474,0.429915,-0.290491,0.516570,0.805463
0.192629,0.101048,0.553612,-0.512713,0.851150,-0.112555
-0.414292,0.061327,0.764070,0.726972,-0.683579,-0.065044
0.012853,0.363614,0.716826,0.358621,0.900950,-0.244297
-0.074763,-0.674200,0.320083,-0.687076,0.055994,-0.724424
-0.028709,0.439739,0.413523,0.046885,-0.078413,0.995818
-0.447683,-0.766424,0.585673,0.542710,-0.622620,-0.563746
-0.489570,-0.578933,0.703521,0.239139,-0.917041,0.319136
0.201612,-0.139996,0.771977,-0.026131,-0.844941,0.534221
0.004356,0.373130,0.700272,0.044407,0.998424,0.034308
-0.105176,-0.433819,0.307951,0.464124,0.450588,0.762600
-0.570311,0.645930,0.219006,0.439281,0.865800,-0.239631
-0.167465,-0.021991,0.762409,0.167306,-0.970299,0.174723
-0.311145,-0.100163,0.207561,0.798771,0.335564,0.499361
0.711719,-0.396365,0.114950,0.354996,-0.169143,-0.919439
-0.112428,-0.015186,0.816477,-0.427824,0.640046,0.638207
0.444705,0.196260,0.260040,0.054887,-0.802749,0.593786
0.158102,0.759730,0.191981,-0.091009,-0.968558,-0.231546
0.666098,-0.003789,0.330301,-0.331251,0.937065,-0.110373
0.231539,-0.317972,0.669925,0.742159,0.665391,0.080344
-0.595584,0.086222,0.241590,-0.244329,-0.829754,0.501808
-0.960874,0.201848,0.505429,-0.799281,0.548455,0.245656
-0.359526,0.170922,0.701409,0.274216,0.072700,0.958916
-0.981709,0.137396,0.483477,0.830728,0.470904,-0.296884
-0.033850,-0.079970,0.387022,0.794170,0.606690,0.034951
-0.034663,0.168267,0.704767,0.986049,-0.088594,0.140922
-0.180670,0.185527,0.697907,0.891287,0.096372,-0.443081
-0.327759,0.050428,0.606145,-0.226310,-0.632743,-0.740554
-0.278189,-0.645653,0.529494,0.244754,0.367143,-0.897386
-0.960279,0.118144,0.476653,-0.320233,-0.923897,-0.209441
-0.378846,-0.472103,0.589591,0.879749,-0.097911,0.465247
-0.272506,0.306465,0.731810,-0.122892,-0.626246,0.769879
0.504505,0.129817,0.120745,0.026152,-0.419120,0.907554
-0.632654,-0.217006,0.487557,-0.543453,-0.800516,0.252651
0.144519,0.180051,0.658606,0.105339,0.958107,-0.266335
0.190409,0.322785,0.243919,-0.132847,0.168638,0.976685
-0.147334,-0.606096,0.661098,-0.532416,-0.821963,-0.202262
0.145818,0.302205,0.712078,0.912792,0.394085,0.107274
-0.629408,-0.051589,0.337792,-0.157283,-0.987042,0.031798
-0.226183,-0.371580,0.744699,0.805177,0.392931,0.444179
-0.352113,0.165113,0.747859,-0.103078,-0.599589,0.793642
-0.004303,-0.253077,0.518391,0.376491,0.918461,0.121179
0.444165,0.505962,0.173621,-0.656889,-0.178689,-0.732507
-0.043322,-0.127548,0.899754,0.630191,0.731108,0.261419
0.191006,0.235097,0.721411,-0.357826,-0.909459,-0.211766
-0.490327,-0.479129,0.676009,-0.508645,0.751995,-0.419266
-0.548990,0.165777,0.482683,0.207563,0.635955,0.743289
0.415536,0.596138,0.033515,0.621149,0.067399,-0.780789
-0.275320,0.048823,0.721231,0.952995,0.297600,0.056872
-0.194145,-0.205277,0.700398,0.968681,-0.200223,-0.146860
-0.025571,-0.408315,0.467898,0.364096,0.902894,-0.228511
-0.271370,0.716135,0.176582,0.842362,0.419442,-0.338371
0.057553,0.671766,0.236553,0.706020,0.021479,0.707866
0.055497,-0.220049,0.812559,-0.339107,-0.437940,0.832595
-0.621129,-0.294957,0.474776,-0.401888,-0.900877,-0.164033
0.148849,0.126553,0.462049,0.174702,0.386952,0.905399
0.600779,-0.347846,0.110383,0.148180,0.065937,0.986760
0.079741,-0.337778,0.889084,0.194764,0.820602,0.537289
0.072164,0.695057,0.204546,-0.047127,0.350819,0.935257
0.021836,0.381207,0.390181,-0.283636,-0.322589,0.903043
-0.310389,-0.181433,0.345898,0.105374,-0.342050,0.933755
0.292746,0.524826,0.019596,0.342325,0.083516,-0.935862
-0.060043,0.180714,0.785318,0.712610,-0.046415,-0.700023
0.120383,0.574231,0.656061,-0.653003,0.688941,0.314558
0.123467,0.288374,0.728380,0.522697,0.586950,0.618286
0.193820,-0.290365,0.571285,-0.613946,-0.657063,-0.437422
-0.107018,-0.375231,0.787683,-0.384119,-0.798649,-0.463263
0.233108,-0.027302,0.798966,-0.078706,-0.411418,-0.908042
-0.027086,-0.469447,0.804201,0.258184,0.830867,0.492951
0.380035,0.659650,0.184814,-0.016530,0.059077,0.998117
-0.031740,-0.364056,0.760261,0.000439,-0.995689,0.092750
-0.249507,0.003071,0.533483,-0.265339,-0.456208,0.849393
0.292313,-0.108738,-0.811097,0.904481,-0.426494,0.004139
-0.289715,-0.734502,0.555616,0.684536,-0.421460,0.594795
0.071137,0.502255,0.598238,-0.330939,-0.115439,0.936565
0.310009,0.051866,0.604593,-0.175900,-0.268941,0.946958
0.283870,0.680673,0.415708,0.133357,-0.436326,0.889852
0.630110,0.009543,0.091644,0.966725,-0.243920,0.077105
-0.894689,0.030235,0.403215,-0.600266,-0.794034,-0.095874
0.284790,-0.168322,-0.683374,0.994850,-0.098393,-0.024323
0.093325,0.458273,0.212922,0.920031,0.151854,0.361224
-0.497849,-0.459434,0.480390,-0.310345,0.359537,0.880011
0.905457,0.126995,0.082546,-0.428959,-0.760446,0.487562
-0.531998,0.226633,0.468205,0.212054,0.061000,0.975352
0.303135,-0.080966,-0.894518,-0.419527,0.901255,0.108341
0.055172,0.384692,0.190735,0.071063,-0.504039,0.860752
0.056741,-0.290697,0.879408,-0.544562,0.472734,0.692802
-0.015180,0.757019,0.355051,0.769309,-0.265980,0.580878
-0.110426,-0.565987,0.410328,-0.545719,-0.447724,-0.708332
-0.545527,-0.344914,0.571340,0.485505,0.773761,0.406914
0.542170,-0.137396,0.401482,-0.225238,0.901047,0.370652
0.106691,-0.169041,0.731052,0.620893,0.532233,-0.575517
-0.020321,-0.446876,0.651403,0.241346,-0.902423,-0.356910
0.031685,-0.396586,0.871989,0.999091,-0.039572,-0.015875
0.258490,-0.123952,-0.438039,0.935504,-0.352692,-0.021018
0.147604,0.316866,0.439266,-0.728355,0.537838,0.424534
0.373758,-0.029681,0.229585,0.649729,-0.422609,-0.631865
0.230673,-0.589499,0.711988,0.490467,0.049058,-0.870078
0.108045,-0.244668,0.189147,0.703392,-0.710758,0.007880
0.670752,-0.309120,0.106502,0.076428,0.396969,0.914644
-0.185324,-0.536278,0.778855,0.919809,0.392128,0.013680
-0.462294,-0.427789,0.683320,0.489135,0.489169,-0.722122
0.253834,-0.627783,0.706013,-0.279614,0.031059,0.959610
0.201124,-0.270892,0.608763,0.951848,-0.243699,-0.186001
0.288741,0.213853,0.017664,0.312727,0.017280,0.949686
0.160862,-0.185306,0.179416,0.863372,-0.425210,-0.271635
-0.327759,-0.496390,0.346042,-0.639290,0.160528,-0.752023
0.034283,0.571520,0.248757,-0.432379,0.653545,0.621231
0.339773,0.303367,0.436432,-0.557964,0.333254,-0.760012
-0.128122,-0.539930,0.453654,0.903038,0.276403,0.328823
0.155126,-0.521562,0.651782,0.216187,0.766727,0.604477
0.266662,-0.578656,0.725293,0.174165,0.081363,-0.981349
-0.301081,0.109292,0.725708,0.370871,-0.295035,0.880573
-0.403632,0.012476,0.696102,-0.025235,-0.902833,0.429250
-0.015125,-0.357639,0.883957,-0.113899,0.794435,0.596574
0.282518,0.236923,0.574047,0.529168,-0.799247,0.284931
0.003274,-0.317916,0.351729,0.894868,-0.377881,-0.237524
-0.888465,-0.018838,0.434537,0.983881,-0.111399,0.139889
-0.426847,0.192222,0.576701,0.655279,-0.039314,-0.754363
0.071731,0.680673,0.195916,-0.401005,0.025395,-0.915724
-0.221636,0.245664,0.722115,-0.076387,-0.871851,0.483777
0.605594,0.297890,0.275204,-0.134957,-0.362368,0.922213
-0.184891,-0.350557,0.780462,-0.309690,0.935523,0.169970
-0.363639,-0.509557,0.537816,-0.725925,0.191072,-0.660699
-0.373381,-0.211584,0.756650,-0.384867,0.710416,-0.589226
0.034500,0.771403,0.224729,-0.409548,0.348715,-0.843012
0.353356,-0.016680,-0.977759,0.223009,0.205478,0.952914
-0.275969,-0.415507,0.492702,0.258994,-0.962867,0.076223
-0.049652,-0.035379,0.696481,0.944384,0.328699,0.009760
-0.092892,-0.294127,0.870292,0.203824,-0.298179,-0.932494
0.198961,0.357418,0.403685,0.842827,-0.100088,0.528796
0.417107,0.273547,0.077419,-0.645611,0.041111,0.762559
-0.213681,-0.264751,0.726647,-0.110178,-0.900817,-0.419987
0.251942,0.081353,0.444646,0.644675,-0.732221,-0.219649
0.052521,0.507344,0.341258,0.971726,0.236035,-0.006072
0.017831,0.841332,0.184327,0.052836,0.277499,0.959272
0.223692,0.055407,-0.991732,-0.227452,0.304975,0.924800
-0.523988,0.062488,0.591053,-0.389502,-0.774255,-0.498816
0.365262,-0.221819,-0.966476,0.087842,-0.138103,0.986515
0.011608,-0.636358,0.478043,0.053763,-0.484042,0.873392
0.191384,-0.149235,0.116972,-0.732842,0.677352,-0.064325
0.244203,0.792814,0.415347,0.106602,-0.317814,0.942141
-0.043322,-0.567093,0.693664,-0.372326,-0.429558,0.822711
0.226776,-0.160300,-0.482936,0.949334,-0.291258,-0.118040
0.276835,-0.178833,-0.464630,0.871851,-0.489666,-0.010132
0.501636,0.052253,0.311147,0.874797,-0.389174,-0.288572
-0.189924,-0.585792,0.644110,0.352702,-0.778266,-0.519523
-0.093488,-0.089319,0.730131,0.435059,-0.345629,0.831423
0.120329,-0.114436,0.664889,0.980438,-0.187015,-0.061368
0.652461,0.234323,0.250851,0.228258,-0.535194,0.813306
0.077252,0.607259,0.196476,0.228696,0.270438,0.935180
-0.260709,-0.532627,0.813787,0.562064,-0.513816,0.648133
0.447358,-0.161683,0.396915,-0.066646,0.421921,0.904180
0.192358,0.258831,0.246843,-0.251388,0.242429,-0.937034
