0.231168,0.162274,0.153170,0.773293,-0.634048,-0.001395
0.175174,0.333631,0.602428,-0.713048,0.332166,0.617436
-0.070054,0.239821,0.202747,0.757116,-0.076780,0.648753
0.711072,0.648523,0.110628,-0.098452,0.387931,0.916415
0.581763,0.283421,0.438983,0.351050,-0.066192,0.934014
0.235051,0.164302,0.650740,0.871884,0.267354,-0.410292
0.171242,0.218972,-0.448082,0.282970,0.396873,0.873167
0.237838,0.245215,-0.989814,-0.240486,0.100743,0.965411
-0.165020,0.196057,0.381749,0.751556,0.272375,-0.600813
-0.001468,0.586065,0.190586,0.364576,0.157378,-0.917778
-0.379539,-0.937257,0.217216,0.339828,-0.451575,-0.824983
0.419904,0.073573,0.713300,-0.654395,0.332815,0.678971
0.481223,0.311649,0.672177,-0.461424,-0.145208,-0.875216
0.259887,0.217230,-0.983800,0.158825,-0.069859,-0.984832
-0.316327,-0.048061,0.646324,0.106103,0.242991,0.964208
-0.219371,0.248297,0.384922,-0.588232,0.401376,-0.702055
-0.235298,0.228991,0.373605,0.032073,-0.340733,0.939613
0.338277,0.041370,-0.820488,-0.730052,0.664031,-0.161511
0.013961,0.010909,-0.985131,-0.159545,0.143495,0.976706
0.387054,0.372162,0.444886,-0.643072,0.534710,0.548218
0.314486,0.578398,0.714010,0.890028,-0.121948,0.439293
0.268546,0.087362,0.277557,0.914264,-0.182012,-0.361931
0.141527,0.101395,0.235392,-0.460616,0.868460,-0.183333
0.382973,0.327628,0.253811,0.468780,-0.733473,-0.492202
0.308463,-0.701451,0.172832,-0.336020,0.012088,0.941777
0.129333,-0.036055,-0.980138,-0.151630,0.114807,0.981747
-0.042828,-0.058889,-0.991567,-0.050182,-0.017984,0.998578
-0.183386,0.272915,0.253789,-0.621737,0.632811,0.461513
-0.535276,-0.232924,0.354830,-0.108888,-0.071633,0.991470
0.380236,0.165599,-0.975367,-0.202986,0.136075,0.969680
0.214493,0.343365,0.766760,-0.574787,-0.794451,-0.196131
-0.385710,-0.193463,0.243736,-0.034515,0.101993,0.994186
0.006645,0.378771,0.557245,-0.247511,0.161218,-0.955378
0.259338,-0.234548,0.798318,-0.236092,-0.964087,-0.121638
-0.151382,-0.022834,0.271787,0.825483,-0.560219,0.068792
0.070751,0.145117,-0.991944,-0.115573,0.099623,0.988290
0.281139,-0.196503,-0.960387,-0.092680,0.088874,0.991722
0.080407,-0.070368,-0.981314,-0.191243,0.172700,0.966230
-0.082647,-0.355896,0.037793,0.742511,0.000634,-0.669834
0.285916,0.132423,-0.982668,-0.204036,0.174261,0.963329
0.195332,0.387817,0.641619,-0.544966,-0.529713,0.649935
0.409601,0.212321,0.693038,-0.420935,0.844528,0.331038
-0.481870,0.407893,0.131843,-0.139105,-0.153229,0.978351
0.229326,0.147672,0.511839,-0.288595,0.798076,-0.528949
-0.079113,0.389032,0.395575,-0.002235,-0.487635,0.873045
0.528606,-0.237709,0.114445,0.085356,-0.841612,0.533295
-0.649055,-0.159433,0.150906,0.971770,-0.062375,-0.227535
-0.233158,0.001460,-0.260447,-0.562136,0.489565,0.666580
0.114402,0.565664,0.192073,0.023890,-0.320335,0.947003
0.692209,0.384005,0.471782,-0.022677,-0.464872,0.885087
0.290944,-0.048183,0.904973,-0.481922,0.335879,0.809282
0.025508,-0.251094,0.450034,-0.222309,0.969385,0.104267
0.303835,0.234954,-0.981359,-0.165862,0.024881,0.985835
-0.405072,0.370459,0.652205,-0.332088,-0.135692,0.933438
0.280691,-0.012046,-0.191208,0.991094,-0.116153,-0.065131
0.316527,-0.705142,0.131311,0.737967,0.353861,-0.574619
0.348083,0.729436,0.187856,0.374663,0.093819,0.922402
0.495109,0.348598,0.469852,0.160395,0.740956,0.652118
0.210363,0.018333,0.897006,-0.537930,-0.216409,-0.814738
-0.031133,0.346610,0.385389,-0.228006,-0.470668,0.852341
-0.142473,0.121268,0.660083,-0.625514,0.589830,0.510718
0.038797,-0.020846,-0.987240,-0.186252,0.127663,0.974173
0.260982,0.114131,-0.363951,0.997857,-0.061804,-0.021494
0.581714,-0.457291,0.445440,-0.697523,0.067058,0.713418
0.320758,0.472663,0.766894,-0.636717,0.413404,0.650914
0.270388,0.130598,0.104214,-0.624639,0.780373,-0.029052
0.005300,-0.053780,0.848428,-0.321276,-0.715187,-0.620717
0.344251,-0.286664,0.835689,0.082888,-0.470317,-0.878596
0.294378,-0.054752,-0.966002,-0.094979,-0.082597,0.992047
0.352412,0.020482,-0.960298,0.023650,-0.048170,0.998559
-0.145061,-0.399984,0.201061,0.161749,-0.756407,0.633787
-0.035463,0.487224,0.682031,-0.719601,0.044871,-0.692936
-0.515317,0.222381,0.142895,0.026834,0.102507,0.994370
-0.260980,-0.040964,0.214132,-0.093548,0.539419,0.836825
-0.182041,0.174969,-0.142141,-0.277546,0.106767,0.954761
-0.257098,0.383274,0.177160,0.746866,-0.321983,-0.581823
0.164323,-0.091865,-0.974479,-0.106201,0.024640,0.994039
0.326631,0.278025,0.785158,0.015502,-0.956008,0.292931
0.145809,-0.206278,-0.968310,0.107422,-0.093400,-0.989817
0.342310,0.178090,0.806373,0.633314,-0.761809,0.136232
-0.049996,-0.300455,0.262289,-0.214444,-0.613336,0.760153
0.266954,-0.021091,-0.966201,-0.270588,-0.203804,0.940875
0.030735,0.078561,-0.996738,-0.121337,0.114975,0.985930
-0.041038,0.255312,-0.251171,0.214843,0.328279,0.919824
0.081204,0.197154,0.381971,0.073960,0.297501,0.951852
0.110270,0.078765,0.456803,-0.570259,0.811960,-0.124599
-0.476545,0.342595,0.128670,0.212768,-0.105656,0.971374
-0.123011,0.120417,0.476576,0.659351,-0.158367,-0.734967
0.306124,0.728139,0.181354,-0.544942,0.396878,-0.738597
0.314685,0.366077,0.501165,0.183891,0.811268,0.555002
0.538561,-0.295870,0.417856,-0.245602,-0.373957,-0.894335
0.613618,-0.483370,0.476066,-0.091625,0.572614,0.814689
0.196924,0.079819,0.430993,-0.691350,0.635460,-0.343841
0.301446,0.208996,0.697987,-0.163662,-0.322277,0.932391
-0.470820,-0.192609,0.358580,0.043371,0.153752,0.987157
0.601822,0.433687,0.420186,0.235588,0.765786,-0.598390
0.327427,0.210294,0.799139,0.459145,0.592764,0.661677
-0.346838,-0.038125,0.644393,-0.113332,0.263272,0.958042
-0.441405,0.430687,0.177826,0.330733,0.943415,-0.024177
-0.032427,0.379096,0.555935,-0.132011,-0.525059,0.840765
-0.206829,0.438960,-0.169925,-0.046551,-0.134226,0.989857
0.710425,0.038206,0.061605,-0.259264,0.070731,-0.963213
0.490033,-0.158947,0.371984,-0.281969,0.439910,0.852627
-0.251923,0.126459,0.618561,0.604580,0.587354,0.538051
-0.535525,-0.120741,0.708373,0.193522,0.906254,0.375836
0.088968,0.355086,0.569983,0.086710,0.996203,0.007863
-0.768310,-0.216945,0.446639,-0.384449,0.675558,0.629142
-0.221959,0.382868,0.182486,0.840494,-0.164229,-0.516332
-0.044024,0.749797,0.593395,0.772150,-0.109956,0.625855
0.059453,-0.209239,0.292936,0.249104,-0.690115,0.679477
0.275216,0.680118,0.850269,0.620318,0.607638,-0.495965
0.290048,-0.250649,0.720556,-0.399669,-0.385920,-0.831463
-0.285767,-0.661217,0.108408,-0.472894,0.579028,0.664152
0.197920,0.240794,0.508133,0.934299,0.215927,0.283656
0.159247,0.513506,0.735514,0.791897,0.164025,0.588213
-0.234303,0.475382,0.024811,-0.101744,0.566262,0.817922
0.870094,-0.304671,0.474113,-0.185308,0.057525,0.980995
0.067268,0.095150,0.283416,0.166768,-0.930738,0.325445
0.421347,0.318867,0.787222,-0.054128,-0.327261,0.943383
0.298609,0.018900,-0.169637,0.984585,0.017906,-0.173985
0.260184,0.126541,-0.141297,0.977322,0.096873,0.188302
0.340218,0.277458,0.845276,0.809661,0.296178,-0.506683
-0.019536,-0.032446,0.771110,-0.180387,0.870732,0.457479
0.293731,0.537516,0.383769,0.339914,0.187732,0.921529
-0.073737,-0.020643,-0.994541,-0.174681,0.078698,0.981475
-0.318019,-0.105168,0.739997,-0.579585,0.743640,0.333287
0.056318,0.062864,0.250704,-0.500984,0.842730,-0.197033
-0.206729,0.180808,0.411265,-0.377972,0.809543,0.449197
0.290844,0.943827,0.153769,0.204429,0.332191,0.920792
0.616952,0.343932,0.467966,0.030431,-0.325869,0.944925
-0.443645,-0.152417,0.352633,0.297839,0.221009,0.928680
-0.403977,-0.958142,0.224052,-0.247367,0.363085,0.898320
0.014409,0.029891,-0.343312,-0.207548,0.811009,0.546980
0.568275,0.890938,0.180910,0.676537,0.056283,-0.734254
-0.298211,0.035610,0.665631,0.204662,0.416197,-0.885942
0.264117,0.137898,-0.183396,0.983157,0.052624,0.175026
-0.318617,-0.047777,-0.268880,0.645078,-0.422693,-0.636557
0.407859,0.430038,0.912985,0.886757,0.028429,-0.461360
-0.162581,0.071098,0.199152,-0.145389,0.132489,0.980464
0.625165,0.053376,0.787111,-0.130383,-0.674101,0.727040
-0.134857,0.346325,0.228845,0.912050,-0.292885,-0.287025
0.570316,-0.326613,0.432569,-0.577982,0.231363,0.782565
0.235298,0.196545,0.655023,0.888711,0.339927,-0.307640
0.448623,0.304834,0.492133,-0.197389,0.746043,0.635969
-0.023119,-0.264885,0.572268,-0.227150,0.295954,0.927801
-0.211507,0.696708,0.701405,0.964252,0.004112,0.264953
0.319315,0.187499,0.701050,-0.110979,-0.657795,0.744976
0.448174,0.384938,0.460287,-0.204035,0.645544,0.735964
0.334644,-0.579413,0.166707,-0.315453,0.186539,0.930426
0.529354,0.150714,0.770333,0.823003,-0.567468,0.025399
-0.042531,-0.252312,0.725550,-0.254415,0.696269,-0.671180
0.292537,0.043764,-0.709416,0.978606,0.201685,0.040656
-0.141627,0.338944,-0.245090,-0.296893,-0.243214,0.923418
0.302790,0.438475,0.632098,-0.041062,0.600358,0.798677
-0.165169,-0.050616,-0.087770,-0.011581,0.186289,0.982427
0.295423,-0.841174,0.167506,0.068457,0.605286,-0.793059
-0.180100,-0.002555,-0.264419,0.655652,0.360016,-0.663709
-0.287510,-0.094174,-0.275405,0.127286,0.309617,0.942304
0.231914,0.027824,0.274450,0.875457,-0.074647,-0.477496
0.497549,0.481384,0.169947,0.721753,-0.614092,-0.319318
0.501978,0.535731,0.855396,0.708282,0.050270,-0.704137
0.234104,-0.523524,0.520694,-0.570163,-0.655851,0.494745
-0.379041,0.316192,0.129735,0.448421,0.765921,0.460743
-0.636812,0.481142,0.143450,0.353646,0.197014,-0.914396
-0.280840,-0.188066,0.040478,0.060247,-0.491882,0.868575
0.547271,0.491564,0.204900,-0.448738,0.805552,0.386938
0.745265,0.374838,0.125430,0.065728,0.093645,0.993434
-0.145311,-0.256206,0.426599,-0.345051,0.710888,0.612844
-0.271333,-0.058362,0.692683,-0.549476,0.796156,0.253402
-0.385660,-0.933972,0.216617,0.372675,-0.682661,-0.628560
-0.382674,-0.914178,0.214531,-0.549302,0.541306,0.636596
0.258940,-0.136072,-0.964759,-0.140426,0.138129,0.980409
0.231665,-0.014073,-0.568008,0.836837,-0.523944,0.158699
0.182441,0.094704,0.481414,0.935742,-0.077991,-0.343954
0.226737,0.275267,-0.122589,0.793053,-0.070219,-0.605093
-0.346739,-0.961875,0.236746,-0.473596,0.426732,0.770458
0.086827,-0.006449,-0.982979,0.089460,-0.150376,-0.984573
-0.274070,0.043236,0.050887,-0.116115,0.955226,-0.272142
0.200209,0.052118,0.693549,0.393312,0.907457,0.147742
0.851977,0.423345,0.135350,0.302959,-0.280548,0.910774
-0.083045,0.100462,0.459954,0.508843,0.816578,0.272542
0.351367,0.671481,0.184527,-0.143021,-0.654267,0.742617
-0.027500,0.258761,0.270389,0.531792,0.376409,-0.758626
-0.499390,0.294573,0.129114,-0.634788,0.704421,0.317547
-0.470274,-0.113968,0.349881,-0.015760,0.705196,0.708838
0.101461,-0.250203,0.437451,0.006547,-0.600815,0.799361
0.578877,0.231303,0.460908,0.454885,0.303675,0.837175
-0.143120,0.368674,0.306540,0.326995,0.760522,0.560964
-0.099172,-0.003570,0.434744,-0.262158,-0.407155,0.874928
-0.678520,-0.060919,0.321764,-0.323229,0.647821,0.689819
0.196675,-0.063959,0.073345,-0.361423,0.217616,0.906651
-0.484756,0.099125,0.625263,0.138398,-0.163814,0.976735
0.353907,0.158623,0.704844,-0.250554,0.263953,-0.931424
-0.008138,-0.106059,-0.987106,-0.076109,0.151266,0.985559
-0.322100,0.059419,-0.110495,-0.333483,-0.409181,-0.849329
-0.430555,0.193787,0.036373,0.592429,0.701951,-0.395338
-0.705647,0.032812,0.183729,-0.001285,-0.139434,0.990231
0.628251,-0.198166,0.427864,-0.357983,0.365512,0.859214
0.460469,0.012291,0.716717,0.280719,0.578914,-0.765543
-0.107383,0.336268,0.266239,-0.385421,-0.275684,0.880596
0.438768,-0.267237,0.421384,-0.333396,0.421269,0.843433
0.364706,0.060431,0.800204,-0.133338,0.837502,0.529917
0.006496,0.233615,-0.252347,0.091984,0.327800,0.940259
0.264465,-0.044004,0.476554,-0.227896,-0.597715,-0.768636
-0.212104,-0.207009,-0.219569,-0.441705,-0.540907,0.715763
0.437174,0.073249,0.827345,-0.305753,0.676532,0.669940
0.286762,0.041207,-0.586472,0.927104,-0.269880,-0.260084
0.398750,0.080225,0.294445,-0.301969,0.114075,0.946468
0.267800,0.439569,0.711169,-0.534245,-0.810636,0.239690
-0.455740,-0.036380,0.251215,-0.629067,0.776572,-0.034789
0.709827,-0.442933,0.486918,0.502223,-0.581657,-0.639880
0.291044,0.116038,0.813941,0.760184,-0.615190,0.208952
0.282482,0.563555,0.386165,-0.453938,-0.247077,-0.856092
0.053829,0.127556,0.075786,-0.090254,0.042040,-0.995031
-0.745464,-0.173872,0.417368,0.144814,0.646364,0.749161
0.242914,0.144305,-0.032822,0.871241,-0.486887,-0.062291
-0.223801,0.008761,0.201482,0.268360,-0.413860,-0.869887
-0.118284,-0.026485,-0.081867,-0.005877,0.081912,0.996622
0.083792,0.698938,0.844411,0.063387,-0.601156,0.796614
-0.227931,0.113968,0.359801,0.542468,-0.363972,-0.757134
-0.397606,-0.016345,0.190808,0.135501,0.063910,0.988714
0.424832,-0.214348,0.129225,0.155408,0.918562,-0.363446
-0.790010,-0.259652,0.236635,0.061556,0.128933,0.989741
0.257995,0.069031,-0.393422,0.964007,0.264578,-0.026234
0.819027,0.134532,0.032134,-0.481635,-0.284588,-0.828878
-0.423636,0.326616,0.316682,-0.135631,-0.345516,-0.928560
0.338626,0.161990,0.035086,0.138495,-0.891169,-0.432014
0.787572,0.258355,0.102750,-0.534169,-0.101199,-0.839299
0.217729,0.175374,0.328776,0.858664,0.512538,0.000225
-0.323842,-0.890980,0.211957,-0.465969,0.530110,0.708418
0.145261,0.457496,0.650718,-0.525168,0.593710,-0.609678
0.192943,-0.051955,0.221278,0.977501,-0.019942,-0.209986
-0.117388,0.500770,0.680877,0.084540,0.560100,0.824100
-0.156160,0.477206,0.014269,-0.198886,0.473867,0.857843
-0.477042,-0.021049,0.051064,0.137367,0.526608,0.838937
0.138293,-0.803455,0.503495,-0.226076,0.477663,0.848957
0.209168,-0.333428,0.454095,0.537648,0.790310,0.293843
0.157454,0.596731,0.811988,0.006657,-0.717213,0.696822
-0.405719,0.023200,0.176272,0.043631,0.040575,0.998223
0.142971,0.005557,0.505981,-0.262983,0.774086,0.575873
0.074384,0.243591,0.384590,0.730958,-0.009472,-0.682356
-0.102655,0.263263,0.592286,-0.605780,-0.407552,-0.683324
-0.274967,-0.133354,0.769202,-0.395926,0.829407,0.394115
0.581763,-0.539543,0.488427,-0.377320,0.703347,0.602439
0.282532,0.090607,0.890593,0.507140,0.482911,-0.713867
0.514172,0.086956,0.774439,0.972367,-0.143314,-0.184294
-0.267700,0.027782,0.197310,-0.274624,0.217292,0.936678
0.547918,0.085173,0.858969,-0.150515,0.680795,0.716842
0.040540,-0.210618,0.884823,0.820987,0.489587,-0.293744
0.208024,-0.759206,0.512106,-0.001402,0.402984,0.915206
0.161188,0.635911,0.397794,0.353414,0.077795,0.932227
-0.238085,0.079940,0.377289,-0.496427,0.782604,-0.375621
0.429411,-0.110683,0.355696,-0.399750,0.457446,0.794319
0.044173,0.629259,0.205166,0.381968,0.059531,-0.922256
0.211308,0.115065,0.408823,-0.750970,0.660199,0.013464
0.305278,0.132707,0.414194,0.184985,-0.731461,0.656312
0.222109,0.967391,0.185992,-0.647587,-0.339499,-0.682181
0.268895,0.516791,0.373360,0.798824,0.030779,0.600777
0.144115,-0.667139,0.462928,0.418926,-0.472681,-0.775290
-0.259736,0.189651,0.506979,0.804338,0.305622,-0.509545
0.087026,-0.005840,0.785868,0.124218,0.952166,0.279195
0.364855,0.154283,-0.972815,0.277974,-0.180252,-0.943525
-0.267501,-0.048019,-0.081778,0.021468,0.416757,0.908764
-0.088968,0.398362,0.562837,0.084627,0.583576,-0.807637
0.132918,0.350301,0.596525,-0.336396,0.479739,0.810363
0.294079,0.218812,0.720512,0.452016,0.766943,-0.455499
0.199661,0.197072,0.375202,0.369749,0.307290,0.876846
-0.074087,0.097137,0.183263,0.204095,0.273594,0.939942
-0.722569,0.371268,0.121657,0.354154,0.079487,0.931803
0.165866,-0.252027,-0.968687,-0.198773,0.009335,0.980001
0.825249,-0.057834,0.414327,-0.025718,0.762230,0.646795
-0.010129,0.086389,0.484454,-0.419249,-0.895627,-0.148603
0.413484,0.534758,0.815650,-0.238456,-0.293815,0.925641
-0.269243,0.439853,0.288476,0.488867,0.368745,-0.790592
0.146255,0.046724,0.714032,-0.183925,0.910996,0.369132
-0.485106,0.303416,0.710237,0.518374,-0.434739,0.736404
0.087575,-0.062946,-0.983201,-0.181646,0.094594,0.978804
0.128885,0.598353,0.753711,0.139477,0.072701,0.987553
0.272579,0.352895,0.195402,-0.103103,-0.099405,-0.989691
0.335938,0.143901,0.950401,0.826292,0.334268,-0.453329
-0.426174,0.155541,-0.262023,-0.665172,-0.247740,0.704394
0.032128,0.541167,0.066266,0.128946,-0.654642,-0.744861
0.050991,-0.124189,-0.979739,0.173097,-0.182644,-0.967822
0.545430,-0.465363,0.445241,0.656166,0.683817,0.319123
0.165866,0.339634,0.404363,0.308586,-0.874529,-0.374132
-0.467287,0.225503,0.691529,0.577539,0.046541,0.815035
0.466988,0.416490,0.030758,0.727878,-0.525365,0.440664
0.203344,-0.021861,0.199441,0.980888,-0.110082,-0.160439
0.027550,-0.177320,0.402388,-0.121352,0.571848,0.811335
0.333349,-0.053010,-0.965092,-0.292496,0.066806,0.953930
-0.563745,0.271618,0.721843,-0.302469,0.299139,-0.905002
0.594256,0.065501,0.058587,-0.040524,0.144967,0.988606
0.118284,0.092553,0.226648,-0.227776,0.788945,0.570687
0.263072,0.301104,0.789530,0.636268,0.679768,-0.364799
0.448374,0.191232,0.802934,-0.302574,0.921502,-0.243482
-0.033074,-0.252109,0.816427,-0.560996,0.624222,0.543720
0.227883,-0.030783,0.662036,-0.155385,-0.769852,0.619018
0.778414,-0.248376,0.438250,-0.359380,-0.111321,0.926528
0.372521,0.168802,0.706531,-0.047879,0.223955,0.973423
0.106687,-0.062419,-0.980404,-0.250612,0.149228,0.956517
0.128437,-0.056862,0.609507,-0.085198,0.985969,0.143547
-0.197023,-0.036582,0.609751,-0.450593,-0.328977,-0.829903
0.713661,0.552076,0.164266,0.296864,0.906142,0.301293
-0.086230,-0.342513,0.502208,0.337701,0.524061,0.781868
-0.285120,0.199993,-0.235681,-0.214302,-0.128824,-0.968235
-0.623521,0.107804,0.040456,-0.118012,0.131133,0.984316
0.148446,-0.136193,-0.972992,-0.205781,0.158131,0.965738
0.345395,0.275958,0.846053,0.852670,0.303249,-0.425434
-0.338327,0.017806,0.642041,0.612517,0.241442,-0.752681
0.278252,0.144104,0.675151,0.545749,-0.080459,-0.834077
-0.068611,-0.026728,0.727858,-0.397841,0.853255,0.337163
0.012568,0.529364,-0.252258,-0.195734,-0.272895,0.941922
0.184581,0.115753,0.013715,0.907795,-0.358454,0.217760
-0.660951,-0.018210,0.681898,0.098043,0.687994,0.719064
-0.006645,0.369889,0.394066,-0.039446,-0.477898,0.877529
0.174875,0.646293,0.822352,-0.229104,0.664990,-0.710845
-0.339322,0.276403,0.148510,0.764769,-0.515232,-0.386866
-0.342607,0.364131,0.292448,0.119664,0.454909,0.882462
-0.599483,-0.023849,0.310690,0.356939,-0.587004,-0.726651
0.144961,-0.025794,0.583520,0.970996,0.225970,0.078125
0.079312,0.129623,0.509287,-0.055473,-0.373937,0.925794
-0.819674,-0.454291,0.362619,0.383742,-0.790089,-0.478018
0.043576,0.631856,-0.162890,-0.155347,0.203337,-0.966706
0.298160,0.377962,0.815339,0.948330,0.096787,0.302164
0.185875,0.420993,0.592929,0.822177,-0.475845,0.312405
0.434885,0.564894,0.372828,-0.250022,0.323567,0.912575
-0.179752,-0.255758,0.010719,-0.419306,-0.462880,0.780977
-0.233755,0.259654,-0.194625,0.969696,-0.193671,-0.148933
0.206381,0.139156,0.057988,0.416924,-0.855156,0.308030
-0.630988,0.010424,0.174408,0.192126,-0.018428,0.981197
-0.663390,-0.168560,0.400679,-0.414019,-0.213652,-0.884840
-0.074434,0.244524,0.057699,0.031249,0.242618,0.969618
0.141926,0.465324,-0.228845,0.774998,-0.109474,0.622410
0.542842,0.089431,0.454184,-0.097731,0.086075,0.991484
-0.861633,-0.303495,0.246954,0.093567,-0.037792,-0.994895
-0.378841,0.314649,0.658618,0.879663,0.224691,0.419174
0.480277,0.195775,0.457646,-0.043441,0.299376,0.953146
0.256402,0.177563,0.344067,0.460043,0.884703,-0.075240
0.711768,-0.294410,0.446883,-0.274860,0.273122,0.921876
0.374412,0.275715,0.858725,0.992064,-0.110354,0.060252
0.622974,-0.291085,0.423648,-0.580338,0.441861,0.684081
0.350571,-0.467797,0.149619,-0.327362,-0.661784,0.674445
0.086628,0.534840,0.107144,-0.097880,0.560202,0.822553
-0.393475,0.090283,0.184816,0.295329,-0.611209,-0.734306
-0.782992,0.308688,0.129225,0.259818,-0.391767,0.882617
0.065974,-0.094298,0.693970,0.802827,0.419968,0.423197
0.416271,0.471530,0.627571,0.124218,0.439540,0.889592
0.239082,0.139156,0.469896,-0.361523,0.922413,-0.135851
-0.447328,0.317731,0.690974,-0.578157,0.219543,-0.785834
0.346142,-0.758679,0.183551,-0.788429,-0.036204,-0.614059
0.397108,-0.571340,0.409134,0.309687,0.024749,0.950516
0.559465,-0.342877,0.438317,-0.532514,0.204809,0.821268
-0.435830,0.347462,0.721843,0.281383,-0.673112,0.683918
0.331957,0.047007,-0.594084,0.932505,-0.330484,-0.145652
0.247592,-0.289300,0.398349,0.004598,0.171451,0.985182
-0.181693,0.231545,-0.144271,-0.271441,0.128803,0.953797
0.164124,-0.117253,0.319078,0.901221,-0.407792,-0.146647
-0.314287,0.073573,-0.119483,0.214916,0.439692,0.872056
0.199462,0.088092,0.702492,0.130498,0.990523,0.042834
-0.100665,0.587362,-0.163112,-0.174678,0.118916,0.977418
0.642485,0.720069,0.095271,-0.013892,0.439112,0.898325
0.284922,0.066880,0.398393,0.116066,-0.157105,0.980738
-0.206132,0.241524,0.595992,-0.234236,0.116053,-0.965228
0.481971,0.441393,0.185992,-0.698604,0.674874,0.237692
0.734664,0.410042,0.479994,-0.209901,0.194306,0.958221
0.274669,0.022915,-0.885932,-0.624941,0.749211,0.219388
0.123559,0.682147,0.753379,0.767469,0.217118,-0.603201
0.367793,0.041776,-0.966357,0.056979,0.044306,0.997392
-0.241868,0.456075,0.584053,0.276012,-0.390300,0.878341
-0.635168,0.049928,0.173920,0.135860,0.546285,0.826508
0.744071,0.089592,0.058032,-0.799994,0.452199,-0.394368
0.758604,0.640250,0.121169,-0.108887,0.617176,0.779255
0.186621,0.382829,0.796453,0.591816,0.562271,-0.577585
0.275863,0.414099,0.400879,0.931937,0.140342,-0.334360
0.302392,0.020888,0.920419,-0.735172,0.432717,-0.521803
0.392528,-0.219136,0.404296,-0.231057,0.155803,0.960384
-0.396212,-0.042707,0.658219,-0.258207,-0.429105,-0.865563
0.079910,0.401971,0.714231,0.162474,-0.304613,0.938516
-0.013463,0.457414,0.421007,0.187107,0.618243,-0.763392
0.232163,0.209078,0.672644,0.875222,0.323279,-0.359831
0.546923,0.320085,0.476376,0.064288,-0.272711,0.959946
-0.587886,0.226842,0.103815,0.306944,0.400503,-0.863355
0.253117,-0.251785,0.181665,0.943820,0.280241,0.175123
-0.234601,0.648484,0.635139,0.766690,-0.250427,0.591163
0.790309,0.004542,0.046115,-0.238598,-0.079081,-0.967893
-0.319413,0.221609,-0.241118,-0.023730,0.410179,0.911696
-0.692307,0.419451,0.126273,-0.005238,-0.477265,0.878744
0.133863,0.513506,0.752602,0.543272,-0.176615,0.820770
0.336834,0.255070,-0.243581,0.668497,0.374638,-0.642463
0.269791,0.124595,-0.402388,-0.164171,0.973361,0.160053
0.459872,0.142035,0.476221,0.731779,-0.030603,0.680854
-0.097031,0.184905,0.633963,-0.150111,0.492816,0.857088
0.584003,-0.401523,0.457979,0.370925,-0.076234,-0.925529
-0.509194,-0.250933,0.249084,0.278757,-0.744394,-0.606772
-0.425826,0.138020,0.100819,0.634340,0.437093,-0.637622
0.446681,0.031515,0.497814,0.315662,-0.511290,0.799337
-0.655675,-0.043031,0.162602,-0.630623,0.715458,-0.300722
-0.484159,0.061973,0.056102,0.937572,0.293330,-0.186859
0.119677,0.037191,-0.983023,-0.181871,0.111235,0.977011
-0.222109,0.113319,0.384101,-0.499416,0.705305,-0.503119
-0.251226,0.049319,0.645392,-0.441816,-0.494917,-0.748235
-0.283726,-0.095556,0.239564,-0.010482,0.162260,0.986692
-0.541795,0.453236,0.762677,-0.639017,0.113134,-0.760827
0.298160,0.144914,0.474335,-0.207458,0.903237,0.375665
0.357888,0.443624,0.627793,-0.074963,0.876114,0.476240
-0.241220,0.047088,0.047957,-0.121138,0.966394,-0.226735
-0.123162,0.016427,0.677104,-0.350924,0.809362,0.470941
0.185377,0.332252,-0.128981,-0.601583,-0.122457,0.789368
-0.254958,-0.015737,0.657309,-0.601351,-0.005058,0.798969
0.065725,-0.169978,0.401323,-0.188800,0.702953,0.685720
-0.561705,0.492497,0.773440,-0.639017,0.113134,-0.760827
0.057114,0.649823,-0.239564,0.943120,0.254753,-0.213601
0.310256,0.494727,0.175340,0.193171,0.380399,0.904423
-0.039444,0.454939,0.643838,-0.195265,-0.971435,0.134857
0.427370,-0.404608,0.399259,-0.176099,0.452844,-0.874026
0.153423,-0.279891,0.411065,0.433139,-0.548316,0.715360
0.291044,0.052928,-0.688777,0.962465,-0.232648,0.139773
-0.007939,0.319679,0.395153,-0.056243,-0.194384,0.979312
-0.706841,-0.289707,0.228313,-0.071853,0.337177,0.938695
-0.104248,0.130638,0.654757,0.714069,-0.589036,-0.378341
0.322251,0.598028,0.792969,-0.576881,-0.236116,0.781958
-0.445735,0.063676,0.314307,0.404424,0.231588,-0.884764
0.072394,0.373298,0.132398,0.231708,-0.613554,-0.754893
-0.252570,-0.014479,0.601762,0.230975,-0.966867,-0.108710
0.555733,0.321746,0.135217,0.353462,-0.199718,-0.913880
0.031679,0.055158,-0.079293,0.506157,-0.355968,-0.785552
-0.266605,-0.005151,-0.098156,-0.012892,0.426970,0.904174
-0.267202,-0.005679,0.690752,-0.425449,0.558157,0.712358
0.231765,0.461714,0.727547,-0.123144,-0.957896,-0.259368
0.118582,-0.735682,0.496105,-0.238623,0.469617,0.850011
-0.464052,0.269064,0.701160,0.492139,-0.168414,0.854070
-0.150038,-0.094662,-0.213488,-0.137825,0.321026,0.936988
0.654829,0.063555,0.777790,-0.433522,-0.574335,0.694404
0.346739,0.887898,0.188566,-0.157338,-0.224901,-0.961595
-0.192047,0.471772,0.016333,-0.244046,0.437382,0.865528
0.257746,0.093649,0.830075,0.919615,-0.343815,-0.189998
0.083443,-0.219784,0.882759,-0.540639,-0.840117,0.043747
0.039494,0.501176,0.438361,0.081187,-0.982894,0.165313
-0.714406,0.090567,0.184439,0.103688,0.125081,0.986713
0.522385,0.657487,0.108320,-0.578692,0.045186,-0.814293
0.454496,0.407811,0.108009,-0.518608,0.644266,-0.562110
0.806286,-0.113238,0.299860,0.560952,0.571905,0.598546
-0.164622,-0.159026,0.431348,0.685741,0.155553,-0.711029
-0.559863,0.223639,0.151040,0.745230,-0.208857,-0.633254
-0.353009,0.244282,0.178558,0.728140,-0.211491,-0.651984
0.417216,0.341825,0.694547,-0.113076,-0.463347,0.878933
-0.207277,-0.026443,0.608553,-0.367692,-0.408413,-0.835465
0.547719,-0.241767,0.412885,-0.529326,0.546384,0.649060
0.086331,0.110319,-0.990790,-0.115256,0.068481,0.990972
0.019486,-0.207575,0.800714,-0.146883,0.923476,0.354425
0.135355,0.235806,-0.248641,-0.078977,0.141793,0.986741
0.232810,0.100138,0.403697,-0.512984,-0.314397,-0.798750
0.007840,-0.147956,-0.982224,-0.156354,0.173644,0.972317
0.268646,0.054510,-0.906571,-0.709938,0.676407,0.196117
-0.088869,0.075316,0.061317,-0.107145,-0.046570,0.993152
0.665132,0.722015,0.098134,0.028797,0.360364,0.932367
0.533285,0.027173,0.310246,0.155131,0.241846,0.957833
-0.059652,0.552970,0.594394,0.839925,0.011445,0.542582
-0.240724,0.006815,-0.266062,-0.617225,0.422054,0.664006
0.675584,0.384329,0.485320,-0.138804,-0.148214,0.979166
-0.132020,0.103019,0.463194,0.766229,-0.113354,-0.632490
0.449519,0.528067,0.817336,-0.463040,-0.346564,0.815774
-0.307469,0.574222,-0.029205,-0.231444,0.572722,0.786399
0.863474,0.431051,0.128137,0.135093,-0.370730,0.918863
-0.379290,0.185311,0.672111,0.745461,-0.173116,0.643676
0.166065,-0.532122,0.431925,-0.351808,0.252500,0.901374
0.352860,0.924196,0.172655,-0.061488,0.123303,0.990462
0.148347,0.525591,0.199241,0.034113,-0.207570,0.977625
-0.159794,-0.108453,0.763986,-0.207702,0.865938,0.454984
-0.055372,0.467472,-0.275560,0.718064,-0.058482,-0.693516
-0.178906,0.062864,0.060119,0.102958,-0.912865,0.395066
-0.035015,-0.235845,0.827079,-0.159188,0.464235,0.871289
0.527014,-0.255231,0.405561,0.006949,0.652266,0.757958
0.630540,0.618956,0.151106,0.013804,0.861584,0.507427
-0.446432,-0.097623,0.364683,0.394529,-0.685267,-0.612173
-0.327078,0.042058,0.647056,0.506988,0.342440,-0.791011
-0.106587,0.116077,-0.129869,-0.495218,-0.087126,0.864389
-0.347834,0.497364,0.607798,0.451123,0.260286,0.853662
0.208521,-0.273564,0.390093,-0.296024,0.323549,0.898713
0.082647,-0.211551,0.804509,0.177849,0.919044,0.351749
-0.424532,-0.938391,0.222276,-0.391292,0.674781,0.625749
0.473758,0.323856,0.471250,0.245143,-0.870901,-0.425953
0.116442,-0.190784,0.079093,-0.498094,0.194944,-0.844925
0.260534,0.054552,-0.539913,0.994250,-0.070979,0.080176
-0.327327,0.106992,-0.364195,0.605014,-0.285972,-0.743087
0.419257,-0.611332,0.187568,0.468973,0.039149,-0.882345
0.054775,0.391183,0.550254,0.605318,0.184405,0.774329
0.066521,0.117010,-0.994163,-0.187173,0.054738,0.980801
-0.674389,0.089431,0.157675,0.316657,0.253748,0.913970
0.363711,0.322316,0.255764,-0.454944,0.725159,0.516885
0.018191,-0.139356,-0.983822,-0.134546,0.162119,0.977556
0.484509,0.461794,0.836444,-0.571727,-0.410691,0.710255
0.257497,0.264925,0.379774,-0.485731,0.034907,-0.873411
-0.201552,0.532367,0.167883,-0.652784,0.288169,0.700594
-0.266257,-0.040922,-0.282728,0.465901,0.516549,0.718410
0.345047,0.506327,0.754288,-0.591829,0.626217,0.507534
0.312197,0.261276,-0.983778,-0.153127,0.046871,0.987094
-0.117189,-0.540679,0.111582,0.521207,-0.380559,-0.763883
0.328522,-0.346407,0.407137,-0.000440,0.293102,0.956081
0.458477,0.592149,0.831184,0.335618,0.342837,-0.877396
0.444591,-0.634856,0.185903,-0.509386,-0.025099,0.860172
-0.005998,0.079901,-0.105679,0.651322,0.066342,-0.755895
-0.599581,-0.165599,0.106101,0.938317,-0.155100,0.309039
-0.870194,-0.233330,0.454051,0.235729,0.480833,0.844530
-0.601672,0.432269,0.132043,-0.126015,-0.586168,0.800329
0.215390,-0.038570,0.252835,-0.770073,0.637433,-0.025811
-0.303536,0.191638,-0.172167,-0.169901,0.511623,0.842244
-0.160441,0.463984,-0.161470,0.255501,0.208739,-0.944006
0.534131,0.537191,0.171856,-0.188314,0.548534,0.814646
0.318419,0.373174,0.792703,0.451658,-0.364842,0.814184
-0.297712,-0.066677,0.648010,0.270372,0.266425,0.925158
-0.358983,0.378893,0.291960,0.119664,0.454909,0.882462
0.234452,0.110846,-0.478507,0.936189,-0.258196,0.238505
0.226737,-0.147063,0.779965,-0.498616,-0.866122,-0.034845
0.329169,-0.511518,0.123499,-0.650900,-0.024487,0.758768
0.338327,0.243145,0.837021,0.382207,0.254176,0.888433
0.172387,0.550292,0.709949,0.722579,0.670173,-0.169550
-0.360924,0.455184,0.252924,0.351627,-0.774311,-0.526120
0.362019,0.760909,0.181376,-0.303631,-0.000893,-0.952789
0.125302,0.273403,0.561106,0.640832,0.686978,0.342631
0.384615,-0.329168,0.398282,0.020764,0.443959,0.895807
0.652340,-0.402457,0.454539,-0.125186,0.263440,0.956519
0.603215,0.552319,0.189743,-0.456915,0.505222,0.732106
0.519648,0.284637,0.137147,-0.238585,0.292644,0.925979
0.235398,0.398890,0.681720,0.936185,-0.342913,-0.077258
0.199861,-0.014885,0.903553,-0.646405,-0.673441,0.358660
0.539954,0.117619,0.850403,0.053863,0.799480,0.598273
0.353159,0.806255,0.171479,-0.610767,0.072952,-0.788443
0.526765,0.127313,0.429462,-0.002699,-0.737725,0.675096
-0.500435,0.257218,0.698653,-0.629651,-0.132906,-0.765425
0.721225,0.010058,0.062804,0.071851,0.109600,0.991375
-0.019934,0.100301,0.064690,-0.260482,-0.171275,0.950165
0.332304,-0.567650,0.415237,-0.354019,-0.022428,-0.934969
-0.291093,0.064731,0.376157,-0.725546,0.686308,-0.050645
-0.090163,0.311567,-0.446927,0.361017,-0.065551,0.930253
-0.004056,0.079576,-0.103083,0.636355,0.059651,-0.769086
0.275963,0.107965,-0.278511,0.935569,-0.128627,-0.328884
-0.323842,0.202587,0.164532,-0.725442,0.030055,0.687627
-0.222855,0.482803,0.164777,0.805243,-0.227709,-0.547479
-0.412089,0.434175,0.256807,-0.457796,0.746914,0.482227
0.213747,0.001906,0.912762,-0.390195,0.768079,0.507743
0.084090,-0.399942,0.489115,-0.293089,-0.541350,-0.788060
0.303039,0.033340,-0.859169,0.949671,-0.301682,-0.084335
0.142821,0.042464,0.487517,-0.297073,0.670779,0.679561
0.094841,-0.185957,0.712745,-0.127131,0.586057,0.800234
0.417664,-0.560065,0.170879,-0.261392,0.133281,0.955987
0.251077,0.095637,-0.407315,0.824239,0.548643,-0.140074
-0.668167,-0.046601,0.169770,0.863542,-0.003978,-0.504261
0.175522,0.354762,0.791128,0.587335,0.753398,-0.295683
-0.405968,0.064164,0.194425,-0.115228,0.200416,0.972911
0.363512,0.568786,0.359113,0.265374,0.407505,0.873794
-0.174477,0.005070,0.417589,-0.304453,-0.273263,0.912488
-0.317572,0.261518,0.631832,0.796697,0.146912,0.586251
-0.279446,-0.183930,0.044584,0.060247,-0.491882,0.868575
0.454595,0.414341,0.807039,-0.059493,-0.492865,0.868069
-0.138740,0.454414,0.421695,-0.035415,-0.330731,0.943060
0.042830,-0.230045,0.429396,-0.280524,-0.346955,-0.894946
0.198318,0.171236,0.267548,0.391031,0.897879,-0.202258
-0.004753,0.409596,-0.420075,0.267171,-0.527679,0.806334
0.175174,0.077589,0.674863,-0.475701,-0.784992,-0.396857
0.645720,-0.179551,0.402232,-0.399823,0.247385,0.882577
-0.330562,-0.861980,0.199485,-0.607039,0.557750,0.566054
-0.437822,-0.112347,0.361177,-0.497328,0.705294,-0.505198
0.191548,-0.124229,0.214110,0.944244,0.173004,-0.280131
0.250181,0.149417,0.182619,0.982415,0.182666,-0.038638
0.113257,0.472785,0.746477,-0.169382,-0.220431,0.960583
0.590076,0.309946,0.666785,0.086186,-0.084852,0.992659
-0.074434,0.345880,0.571891,0.006709,0.642042,0.766640
0.062787,-0.294167,0.068352,-0.806093,0.560643,0.189457
0.079362,0.122729,0.155101,-0.456144,-0.505237,-0.732576
0.415027,0.662557,0.168793,-0.115363,0.918458,-0.378320
0.011174,0.705793,0.211624,-0.316625,-0.087367,0.944519
0.250181,0.457333,-0.113113,0.455026,-0.144714,-0.878641
-0.405868,0.155378,-0.395775,0.231443,0.017019,-0.972700
-0.206879,0.149011,0.406982,0.718364,-0.674656,-0.169685
0.309709,0.108089,-0.680389,-0.655936,0.734045,0.175857
0.364009,-0.516912,0.403231,-0.365550,-0.131505,-0.921455
-0.321752,0.369120,0.529571,0.047567,0.865608,-0.498458
-0.311399,0.270888,0.107454,-0.404008,-0.882924,-0.239213
-0.549212,0.221205,0.104680,-0.813892,0.069986,0.576785
0.556230,-0.446463,0.183174,-0.049245,0.158605,0.986113
0.247693,0.122244,-0.061894,-0.539203,0.724796,-0.428872
-0.303387,-0.000688,-0.292737,-0.491534,0.692914,0.527509
0.238135,0.900957,0.203324,-0.562388,-0.443599,-0.697810
0.147998,0.552522,0.761479,0.374978,-0.115029,0.919869
0.287112,0.102734,-0.581944,0.977247,0.203328,0.060386
0.059005,0.108574,-0.993254,-0.199198,0.051141,0.978624
0.225443,0.158623,0.648920,0.944753,0.059428,-0.322350
0.588183,-0.449545,0.449036,0.825485,-0.088833,-0.557389
-0.603464,-0.025834,0.690797,0.203169,0.399894,0.893760
-0.342308,0.210538,0.654424,0.781805,0.174043,0.598740
0.066023,-0.268170,0.437074,-0.400405,-0.910173,-0.106120
-0.465196,0.334768,0.309957,-0.061088,0.594957,0.801433
-0.310553,-0.028267,-0.297397,0.504210,-0.661160,-0.555553
0.745813,-0.150875,0.445818,0.500583,-0.465528,-0.729863
0.351218,-0.272064,0.715474,0.582884,0.811420,0.042941
0.726650,-0.171439,0.442489,0.659643,-0.331871,-0.674339
0.314884,-0.044086,0.296709,0.563946,0.268694,-0.780877
-0.115347,-0.017521,0.696655,0.007528,0.765009,0.643976
-0.069855,0.647714,0.858126,-0.549026,0.313040,-0.774969
0.596547,-0.206521,0.419054,0.649602,-0.667299,-0.364320
0.044770,0.475545,0.087171,-0.176899,0.437735,0.881530
0.084737,-0.787191,0.500877,-0.168092,0.406795,0.897921
-0.069706,0.444599,0.600919,0.211273,0.845866,-0.489771
0.050893,0.133274,-0.430816,0.066982,0.193703,0.978771
0.220914,0.090971,0.586183,0.988313,-0.149126,-0.031605
-0.035910,0.145238,0.251281,-0.519953,0.373285,0.768315
0.120674,0.109223,0.240052,-0.396428,0.878216,0.267548
-0.121220,0.017764,0.667007,0.140557,-0.945896,-0.292447
-0.382525,0.180241,-0.172211,-0.427656,0.719428,0.547297
0.461514,-0.157851,0.362597,-0.339000,0.544130,0.767464
0.019735,-0.231464,0.759126,0.958637,0.147307,-0.243549
-0.093348,0.182957,0.641930,-0.359544,0.645246,0.674082
0.389245,0.157284,0.991190,0.817220,0.112699,-0.565199
-0.369236,0.111901,0.676927,0.383363,0.418405,0.823390
-0.383172,0.307958,0.102927,-0.547640,-0.222860,-0.806488
-0.502277,0.062540,0.019440,0.817341,0.436976,0.375506
-0.400293,0.077467,0.181310,0.153330,0.257538,0.954025
0.290695,0.884774,0.185349,0.474291,0.412786,0.777596
0.518006,0.082413,0.749429,-0.840477,0.527780,0.122663
0.334794,-0.439609,0.165243,-0.557135,0.050134,0.828908
-0.124355,0.407893,0.387408,-0.149777,-0.461069,0.874633
0.383073,-0.775958,0.126784,0.214566,0.937335,-0.274527
0.284922,0.678335,0.853820,0.683085,0.612532,-0.397743
-0.380534,-0.081440,0.313375,-0.091802,-0.760852,-0.642400
-0.061244,0.239009,0.619072,0.189120,0.681672,0.706793
-0.536620,-0.252230,0.254433,-0.235463,0.746295,0.622577
0.033074,0.136599,0.173676,0.512195,0.355594,0.781798
-0.173830,-0.043558,0.713854,-0.195120,0.842303,0.502447
-0.613817,0.031027,0.181110,0.222608,0.209681,0.952092
0.422095,0.040355,0.716584,-0.452052,-0.233809,0.860803
0.031730,-0.147023,-0.981869,-0.091016,0.168650,0.981465
0.241371,0.112753,-0.041788,0.860789,-0.508052,0.030443
0.143269,0.430605,0.634140,0.757837,-0.447693,0.474610
0.517110,0.853668,0.178647,0.515621,-0.293156,-0.805105
-0.839832,-0.287231,0.240141,-0.049602,0.124585,0.990968
0.193689,-0.327710,0.399880,0.150421,-0.001762,0.988620
-0.335391,-0.079331,-0.273873,0.223524,-0.314090,-0.922705
0.195232,0.054631,0.715031,-0.291414,0.955373,-0.048381
-0.137645,-0.318746,0.247820,-0.197083,0.735510,-0.648216
0.172088,0.158217,-0.994740,0.130524,-0.139705,-0.981553
-0.246198,-0.011924,0.215153,-0.322651,0.420775,0.847847
-0.499490,-0.119077,0.351124,0.144749,-0.814135,-0.562345
0.513525,0.415639,0.802823,-0.213649,-0.172943,0.961481
0.575541,-0.408581,0.457646,-0.516032,-0.052595,0.854953
-0.441804,0.281555,0.142163,-0.157498,-0.188556,-0.969351
-0.426972,0.457333,0.619405,0.346410,0.553743,0.757211
-0.081552,0.087728,0.267504,0.261084,-0.411405,-0.873259
0.184531,0.469015,0.653004,-0.687963,0.705559,-0.169979
0.402881,0.025391,0.936020,-0.711912,-0.545535,0.442236
0.811015,-0.073492,0.423093,0.003187,0.755089,0.655614
-0.442948,-0.100502,0.352256,-0.452504,0.890959,0.037847
0.427818,0.042425,0.736446,0.423075,0.581062,-0.695251
0.236045,0.224124,0.701050,0.809454,0.195600,-0.553647
0.255506,0.076210,0.812765,0.938286,-0.203281,-0.279816
0.399348,0.094704,0.504827,0.186978,-0.158166,0.969548
0.200557,0.077792,0.677881,0.046149,0.974689,0.218749
-0.555383,0.396902,0.138790,-0.089498,-0.082862,0.992534
-0.103501,-0.016061,0.218149,-0.725298,0.665803,0.175068
-0.487793,0.244727,0.702625,0.629608,0.099943,0.770458
0.195381,-0.052765,0.072546,0.243201,-0.250598,-0.937045
-0.299704,-0.907163,0.228867,-0.553390,0.523612,0.647757
0.314884,0.468242,0.367524,-0.045181,-0.156044,0.986716
0.642635,-0.067447,0.298085,0.089132,0.608622,0.788438
-0.518304,0.198045,0.651805,0.712520,0.220289,-0.666174
-0.028942,0.195002,0.631122,0.139550,0.383652,0.912873
-0.038847,0.404081,0.403098,-0.211612,-0.641617,0.737257
-0.280442,-0.798588,0.184527,0.763913,-0.644983,0.020834
0.177762,0.012370,0.073323,-0.164950,0.401340,0.900954
-0.121717,0.723963,0.647034,0.624514,-0.155683,0.765340
0.281885,0.016912,-0.941191,0.667704,0.529450,-0.523311
0.111116,-0.769264,0.482413,-0.157995,0.405658,0.900266
0.809272,0.392238,0.490446,0.194282,0.542634,0.817192
0.404425,-0.429226,0.164311,0.333749,-0.075907,-0.939601
-0.005101,0.057876,-0.992965,-0.223670,0.145359,0.963765
-0.395764,0.127962,0.182175,0.227284,-0.579183,-0.782872
0.203095,-0.209360,0.760436,-0.450329,-0.775743,-0.442071
0.083543,-0.213457,0.744546,-0.447628,0.231924,-0.863620
0.241520,0.123541,0.167639,0.991919,0.120589,0.039441
0.206978,0.075316,0.500810,0.924880,-0.332975,-0.183642
0.022472,-0.074423,0.836643,0.558049,0.564926,0.607816
0.210811,-0.144265,0.741550,-0.391076,-0.831197,0.395186
0.537964,0.501663,0.128759,-0.540720,0.714682,0.443679
-0.623322,0.043358,0.166086,0.214230,0.537698,0.815467
-0.306671,-0.036137,-0.282262,0.503811,-0.716944,-0.481836
0.007740,0.029567,-0.992366,-0.208102,0.160738,0.964809
-0.443744,0.181699,0.654047,-0.575097,-0.249316,0.779170
0.191001,-0.002594,-0.973503,0.285316,-0.035112,-0.957790
-0.612820,0.025391,0.175429,0.134641,-0.018792,0.990716
-0.522932,0.349407,0.134706,-0.170347,0.114171,-0.978748
0.568474,0.156717,0.778478,0.753001,-0.212902,-0.622625
0.618147,0.262330,0.672311,0.109052,-0.018133,0.993871
0.168205,0.483006,0.665364,-0.343461,0.882208,-0.322093
0.337133,-0.080265,-0.961896,0.277494,-0.106939,-0.954757
0.770750,-0.379462,0.467433,0.479517,-0.337958,-0.809844
-0.341811,-0.409514,0.176450,0.062962,0.677633,-0.732700
0.229028,-0.159596,0.166596,0.955184,0.226872,0.190140
-0.037901,-0.052158,-0.989747,-0.060492,0.006480,0.998148
-0.227981,0.432999,0.586250,-0.208103,0.461171,-0.862563
0.614812,-0.157041,0.399813,0.363294,-0.270688,-0.891485
-0.426026,-0.891832,0.181066,-0.409811,0.574565,0.708470
0.409551,0.421438,-0.735780,0.449031,0.071305,0.890666
-0.059602,-0.055037,0.792392,-0.234913,0.960794,0.147275
-0.174278,0.214675,0.310179,-0.598354,0.801074,0.015891
-0.061842,0.545385,-0.153858,-0.177302,0.118084,0.977047
0.332952,0.101395,-0.969863,-0.085672,0.376788,0.922329
0.690018,0.388547,0.128049,0.108697,0.057476,0.992412
0.425778,-0.452263,0.173254,0.298192,-0.104361,-0.948783
0.352363,0.006733,0.689510,-0.516905,-0.268854,0.812728
0.290197,0.054470,-0.415637,-0.069616,0.986466,0.148455
0.310256,0.464269,0.816515,-0.836729,0.482121,-0.259702
-0.302690,-0.134247,0.241761,0.006335,0.355460,0.934670
0.308513,-0.347826,0.405672,0.088853,0.291118,0.952552
0.244506,0.235075,-0.350059,0.820733,0.221231,0.526740
0.206033,0.439772,0.182020,0.035259,0.303170,0.952284
-0.369782,0.256003,-0.295599,-0.757001,0.642566,0.118570
-0.482865,0.092107,0.629125,0.138398,-0.163814,0.976735
0.312396,-0.106423,-0.971927,-0.218058,0.069678,0.973445
-0.238931,0.122850,0.626595,0.591210,0.547472,0.592238
0.824055,-0.109507,0.445196,-0.608945,-0.297509,-0.735306
0.439266,0.518615,0.815561,-0.156173,-0.212908,0.964510
0.014757,0.328480,0.381505,-0.316064,-0.497075,0.808096
-0.260134,0.170141,0.629857,0.764463,0.122682,0.632887
0.030586,0.088416,-0.995384,-0.152356,0.171114,0.973400
-0.329766,0.285976,-0.154790,-0.393614,0.192562,0.898881
0.004056,0.627150,0.824016,-0.525254,0.448833,-0.722950
-0.659757,-0.249634,0.234349,-0.178067,0.942572,0.282578
-0.371127,0.335010,-0.364107,-0.909889,0.414743,0.009514
-0.328472,-0.856626,0.195712,0.680411,-0.522813,-0.513524
0.458976,0.068301,0.836932,-0.521794,0.155981,0.838690
0.168704,-0.082049,0.347152,-0.546102,-0.648061,-0.530838
-0.473061,0.011843,0.649386,-0.361461,-0.605175,-0.709302
0.622725,0.053416,0.879497,0.261610,-0.724659,-0.637518
-0.297015,-0.058889,0.375624,-0.499677,-0.782745,0.370990
0.046761,-0.207212,0.787510,0.554135,0.826181,0.101778
0.070901,0.023158,-0.984510,-0.132286,0.126954,0.983048
-0.036956,0.050292,0.522447,-0.423681,-0.815749,-0.393761
-0.376502,0.189405,0.677082,0.650002,-0.118961,0.750563
-0.546773,0.008761,0.173809,-0.129123,-0.106381,0.985906
-0.209616,0.312946,0.532145,-0.633597,-0.599925,0.488513
-0.341164,0.134774,0.151461,-0.508865,0.581721,0.634552
-0.190901,-0.065137,0.724640,0.260285,-0.817701,-0.513436
0.055372,0.245336,-0.251526,0.008593,0.169632,0.985470
0.003857,0.052076,-0.994541,-0.222545,0.139594,0.964877
-0.277107,0.365065,0.533055,0.091485,0.989628,-0.110752
-0.242963,-0.123214,-0.217994,-0.331385,0.212369,0.919284
0.441207,0.027621,-0.962118,0.042260,0.125829,0.991151
-0.072194,-0.269225,0.804554,-0.753757,0.551154,0.357882
0.192694,-0.064731,0.091032,0.258897,-0.188110,-0.947411
0.778911,0.312176,0.106012,-0.529624,0.168166,-0.831395
0.030735,0.336592,0.574199,-0.273952,0.954764,0.115650
0.338178,0.106465,-0.684872,-0.787279,0.593041,0.168800
0.113456,0.832780,0.812765,-0.005090,0.469482,0.882928
0.221910,0.326940,0.768092,0.667366,0.726170,0.165223
0.302392,0.484466,0.764253,-0.508800,0.845208,-0.163543
-0.337580,0.347298,-0.243293,-0.071500,-0.008301,-0.997406
-0.477789,-0.070286,0.200506,-0.522329,0.851582,-0.044493
-0.430953,0.389317,0.745745,-0.589982,-0.610064,0.528907
0.220914,-0.704981,0.478951,0.076625,-0.547425,-0.833339
0.122862,-0.189366,0.085151,-0.618063,0.421336,-0.663682
0.506955,-0.196423,0.377000,-0.234065,0.487666,0.841068
-0.350571,0.276606,0.089079,0.521478,0.588573,0.617772
0.463505,-0.665314,0.185238,0.420221,-0.069013,-0.904794
-0.224597,-0.067528,-0.281507,0.499328,0.078880,-0.862815
0.267601,0.094986,-0.197843,0.977842,0.178722,0.109008
0.157852,0.113159,-0.984532,-0.099306,0.101937,0.989822
0.429610,0.441920,0.349637,-0.675088,0.727231,0.124062
0.301297,0.083104,-0.802357,0.908812,-0.410666,0.073581
0.223453,-0.398360,0.470828,0.050119,0.856951,0.512956
0.160242,-0.114211,0.341936,0.872273,-0.485420,0.059218
-0.381529,0.223394,0.679856,-0.658563,-0.014120,-0.752394
0.383222,-0.306822,0.847562,-0.129048,0.466518,0.875047
0.404475,0.788409,0.161315,-0.646155,-0.331641,-0.687385
-0.741632,0.020603,0.173143,0.048044,0.111338,-0.992621
0.169351,-0.491524,0.416990,-0.391689,0.421016,0.818123
0.072941,0.616320,0.786556,0.198641,-0.580423,0.789715
0.148048,-0.138871,0.328910,0.933207,-0.321751,-0.160003
0.524127,0.834240,0.164599,0.949759,-0.231927,-0.210161
0.439115,-0.148808,0.371341,-0.239929,0.502770,0.830455
0.391982,0.563271,0.820421,-0.106569,-0.338895,0.934769
-0.369085,-0.072192,0.321919,-0.001713,0.961896,0.273409
0.277605,0.678414,0.865604,0.728987,0.581299,-0.361483
0.351616,-0.443948,0.164266,0.486188,0.009314,-0.873804
0.329021,0.453763,0.633408,0.265062,-0.959813,0.092201
-0.338825,0.475909,0.273030,-0.417389,0.868341,0.267899
-0.485902,0.103383,0.633474,-0.633966,0.483926,-0.603243
-0.244904,-0.148644,-0.225206,0.461671,0.147005,-0.874785
0.266556,0.215809,0.738576,0.927622,0.313745,-0.202684
0.422742,-0.365956,0.410199,0.279683,0.387690,0.878336
0.307667,0.083995,-0.494618,0.999495,0.027401,0.016097
0.044422,-0.226800,0.507778,0.856906,-0.512376,0.056419
-0.488490,0.232803,0.704623,0.631587,0.154851,0.759683
-0.610582,-0.017479,0.309980,0.356939,-0.587004,-0.726651
0.292586,0.709727,0.189210,-0.799325,0.452405,-0.395487
0.403629,0.156799,-0.969774,-0.116368,0.186932,0.975456
-0.023069,0.459930,-0.141741,-0.004683,0.095030,0.995463
-0.144016,0.573695,-0.167262,-0.240289,-0.096556,0.965887
-0.257795,-0.035894,0.322052,0.241298,-0.970439,0.004755
0.027399,0.319437,0.548434,-0.433565,0.325580,-0.840250
0.283577,0.103262,-0.692861,0.933361,-0.358740,0.011953
-0.302142,0.308485,0.129757,0.874010,0.399035,-0.277269
0.171889,-0.455305,0.512838,0.382272,0.523145,0.761700
-0.108677,0.071546,0.195579,-0.198330,0.660177,0.724453
0.336137,0.103871,-0.968975,-0.095242,0.341610,0.935004
0.065375,-0.245700,0.231419,0.019004,-0.582941,0.812292
0.259836,0.186690,0.683518,0.609081,0.497303,-0.617827
-0.376452,-0.900105,0.201238,0.526899,-0.546168,-0.651213
0.828086,0.161665,0.034220,0.789487,-0.073179,0.609390
-0.037851,0.387453,-0.279177,0.641622,0.313153,-0.700183
-0.022024,0.016182,-0.290584,-0.262789,-0.914114,-0.308767
0.098276,-0.806780,0.510153,-0.123182,0.538071,0.833850
0.265262,0.597420,0.774328,-0.129548,-0.868735,0.478034
0.250727,0.111901,-0.126140,-0.217948,0.953752,0.207016
0.208471,0.303131,-0.995273,0.369585,-0.049478,-0.927879
0.523629,0.294573,0.682874,-0.348109,-0.147053,-0.925848
0.439564,-0.617902,0.182952,0.576668,-0.058524,-0.814880
0.334943,0.585537,0.150041,0.106367,-0.300441,0.947851
-0.304034,0.226800,0.185082,0.744420,0.266645,-0.612159
0.197322,-0.005679,0.064779,0.032915,0.344856,0.938078
-0.576636,0.488400,0.148332,-0.012401,-0.178281,0.983902
-0.457979,-0.218160,0.233106,-0.367827,0.406310,0.836430
0.555633,-0.535852,0.201127,-0.106319,0.316289,0.942686
-0.529551,0.369850,0.751803,0.317903,-0.553588,0.769726
-0.342109,-0.890493,0.209094,-0.527589,0.585820,0.615195
0.231317,0.031473,0.802379,0.956635,-0.146315,-0.251876
-0.175472,-0.147144,0.254366,-0.160609,0.314882,0.935443
0.189607,-0.197678,0.379419,-0.756902,-0.098912,0.646000
0.478635,-0.104762,0.196689,-0.002985,-0.811344,0.584562
-0.587387,0.004746,0.181021,0.029642,-0.006885,0.999537
0.464998,0.447193,0.187058,-0.704041,0.665909,0.246762
-0.655276,0.565258,0.157187,0.497109,0.342037,-0.797429
0.246646,-0.183851,0.109185,0.098620,0.284393,0.953622
0.695991,-0.099407,0.408491,-0.546236,0.573336,0.610665
-0.517906,0.024782,0.667717,-0.430513,-0.501054,-0.750735
0.596794,0.272955,0.681321,0.086186,-0.084852,0.992659
0.187119,-0.064689,-0.973769,-0.190422,0.054649,0.980180
-0.017892,0.351922,0.376223,-0.105990,-0.573018,0.812660
-0.533335,0.231748,0.714653,0.471605,0.343983,0.811951
0.030685,-0.035773,-0.983445,-0.114032,0.059080,0.991719
0.123610,-0.147226,0.799427,0.760024,0.131283,-0.636497
0.055273,0.003245,-0.986418,-0.165870,0.066901,0.983876
0.288704,0.092271,-0.225228,0.917209,-0.350366,0.189660
-0.724112,-0.463212,0.368500,0.306609,-0.818384,-0.486044
0.751338,-0.446342,0.516966,-0.686442,0.435800,0.582131
-0.548216,-0.084522,0.209538,-0.450008,0.876435,0.171333
-0.208322,0.012209,0.209449,-0.298313,0.345383,0.889786
0.152826,-0.067570,0.189743,0.994594,-0.087168,-0.056434
-0.506208,-0.218527,0.357182,0.017848,-0.007498,0.999813
-0.325137,-0.026931,0.387208,0.810205,0.286236,-0.511504
0.210860,0.018212,0.688999,-0.285779,-0.799508,0.528315
-0.385760,0.150026,0.043652,0.458900,0.457359,-0.761730
0.488888,0.324304,0.684849,-0.461424,-0.145208,-0.875216
-0.021327,0.428172,0.323495,-0.502513,-0.836978,0.216677
-0.100514,-0.282731,0.735780,-0.391000,0.132535,-0.910798
