0.442221,-0.015047,-0.944295,0.037449,0.163800,0.985782
-0.178935,0.684566,0.627325,0.791326,0.590830,0.157239
0.287462,0.051067,0.848205,-0.545399,0.588869,-0.596467
-0.027385,-0.374218,0.850859,-0.496151,0.804663,0.326115
0.082434,0.056272,0.708643,0.422493,-0.680307,0.598900
0.383625,0.172345,0.318052,0.022927,-0.750954,0.659956
0.200999,0.574356,0.625538,0.683448,0.714807,-0.148155
-0.479579,-0.032997,0.221247,0.842980,-0.420204,-0.335877
0.254473,0.221348,0.584079,0.346357,-0.829476,0.438185
0.636732,0.008765,0.544559,0.855078,0.258900,0.449235
0.264514,-0.245340,0.415742,-0.551485,0.713517,-0.432154
-0.150185,-0.188261,0.903496,0.791679,0.554926,0.255542
0.680101,0.571425,0.620099,0.376763,0.837730,-0.395296
0.181328,-0.025818,0.187504,-0.235117,0.753986,0.613372
0.113852,-0.204775,-0.183533,-0.514926,-0.665624,-0.540181
0.260621,-0.079966,0.594335,0.459231,0.710240,-0.533542
0.309522,0.677746,0.660202,0.890768,-0.014808,0.454217
-0.261779,-0.045024,0.899920,-0.025898,0.948044,0.317083
-0.444543,-0.344063,0.431117,0.642267,-0.233532,0.730038
-0.240678,-0.623478,-0.088215,-0.160801,0.164106,0.973248
-0.581478,-0.337482,-0.480480,-0.074895,0.197836,0.977370
-0.629012,-0.190953,0.280772,0.039462,0.497120,0.866784
0.253176,0.515960,0.711334,-0.695955,0.324695,-0.640484
-0.290671,-0.343764,0.219854,-0.691126,0.718830,0.075028
0.620546,0.224041,0.566483,0.579813,-0.097112,-0.808942
-0.143219,0.174859,0.784540,0.983333,-0.093569,0.155889
-0.335404,-0.299548,0.783072,0.868299,0.262417,0.420944
0.013867,-0.312053,0.920621,0.645421,-0.744551,-0.170516
0.740407,0.425973,0.599492,-0.595986,0.003613,-0.802986
0.227840,0.734227,0.784013,0.943089,-0.084056,0.321743
-0.439283,-0.460855,0.370200,0.116210,0.739952,0.662546
-0.395572,-0.034972,0.245392,-0.194259,0.729727,0.655562
-0.175112,0.293745,0.431306,0.837059,0.338338,-0.429953
0.076082,0.407126,0.687998,0.621486,0.772894,-0.128029
-0.262326,0.658360,0.649193,0.116530,-0.090108,0.989091
0.490985,0.136925,0.621510,-0.385971,0.871187,-0.303415
-0.281859,-0.459359,0.392294,0.012843,0.419089,0.907855
0.338685,0.493583,0.699101,-0.352118,0.602753,-0.716032
-0.034217,0.616597,0.625048,0.418797,-0.421109,0.804535
-0.549581,-0.045981,-0.498095,0.208906,0.262044,0.942174
0.308154,-0.367637,0.040433,-0.552599,-0.420508,-0.719589
0.217048,0.136626,0.366097,0.154869,-0.985979,0.062139
0.053001,-0.839411,0.342969,0.354434,0.635771,0.685691
0.022745,-0.306130,0.915182,-0.625057,-0.498522,-0.600650
-0.007580,0.271068,-0.702526,-0.536306,-0.686098,-0.491574
-0.518984,-0.029347,-0.121807,0.415284,0.866246,-0.277772
-0.204479,-0.674694,-0.095084,0.763043,0.101697,0.638297
0.280767,-0.406229,0.774622,0.996534,0.035346,-0.075299
0.614739,0.405869,0.684272,-0.616249,0.514310,0.596425
-0.480330,-0.354175,0.481101,-0.047282,0.934919,-0.351696
-0.332194,-0.609477,0.094971,0.785111,0.375886,0.492251
0.200999,0.266221,0.566483,-0.402143,0.850983,0.337800
0.077449,-0.047896,0.074157,0.349840,-0.907056,-0.234225
0.140556,0.260478,0.845777,0.880756,0.391407,-0.266587
-0.238082,0.424418,0.468793,-0.513161,-0.718828,-0.468992
0.728114,0.563168,0.567857,0.777844,0.541810,0.318435
-0.037902,-0.184850,-0.123783,0.773496,0.569326,0.278516
-0.353983,-0.554312,0.613700,-0.758450,0.569562,-0.316786
-0.182899,-0.944297,-0.079784,0.730930,0.131264,0.669710
0.769774,0.319951,0.362936,0.881419,0.124633,-0.455595
0.430408,0.185389,0.830365,-0.531623,0.375707,0.759093
-0.023629,0.126454,0.912962,0.873930,-0.006922,-0.486003
-0.644719,-0.474676,0.476678,-0.409674,-0.143105,-0.900937
-0.188497,-0.183474,0.904098,0.632269,0.755779,0.170393
-0.089400,0.169175,0.924008,-0.405223,0.765394,0.499967
-0.188156,-0.226853,0.123049,-0.752028,0.469712,-0.462412
0.405343,0.273941,0.797262,0.487539,-0.841824,0.231600
-0.371945,-0.024801,0.467532,0.408189,0.645403,0.645629
0.437782,-0.074162,0.380513,0.948293,0.279413,-0.150562
-0.284114,-0.461752,0.677516,0.291159,0.574035,-0.765317
0.213017,0.049691,0.024945,0.997546,0.053919,-0.044666
0.066590,0.465402,0.790939,-0.690235,-0.649460,-0.319025
0.222442,0.034613,0.767227,-0.039610,0.980134,0.194339
-0.126007,0.560476,0.630920,0.945640,0.300570,0.124188
-0.147108,0.366500,-0.441882,-0.282185,0.300172,0.911190
-0.159064,0.581236,0.351494,0.786845,0.392924,-0.475906
0.403705,0.367637,0.675051,-0.614930,0.729859,-0.298608
0.162207,-0.369432,-0.051498,0.847925,0.530047,-0.008506
0.764993,0.072665,0.382489,-0.567269,0.368421,0.736527
0.113306,-0.031023,0.269687,-0.279465,0.958942,0.048276
-0.168280,0.608640,0.642606,0.714031,0.050469,0.698293
0.679142,0.389835,0.701096,0.759786,-0.637306,-0.128709
-0.050403,0.359978,-0.430816,0.508644,0.811888,-0.286565
-0.442426,-0.065546,0.069132,-0.085171,-0.125439,0.988439
-0.247302,0.051127,0.604008,0.093115,-0.825293,0.556975
0.115970,0.057109,0.608525,0.967829,0.063758,0.243398
0.270454,0.063332,-0.372214,0.246468,0.957452,-0.150131
-0.069320,0.425195,0.574331,0.116201,-0.618191,0.777391
0.185905,0.612409,0.766643,-0.382436,0.220030,-0.897401
0.793197,0.449726,-0.976269,0.116685,0.262523,0.957845
-0.028685,0.420468,0.791108,0.584150,0.552656,-0.594425
-0.261850,-0.487360,0.306234,-0.665041,-0.558011,0.496331
0.023634,0.386185,0.715662,0.289368,0.851768,-0.436757
0.282885,0.050408,-0.440132,0.924309,-0.322638,-0.203855
0.345513,0.267897,0.552162,0.885886,-0.370085,0.279719
-0.194029,-0.458402,-0.125062,0.840755,-0.539659,-0.043586
-0.253242,-0.493344,0.600188,-0.693318,0.646096,-0.319170
-0.021716,-0.255452,0.821143,0.733880,-0.316787,0.600888
0.527730,0.228887,-0.959784,-0.041068,0.185102,0.981861
0.286436,-0.135070,0.289353,-0.605123,0.546147,0.579267
-0.233642,-0.056092,-0.533888,-0.336759,-0.073127,-0.938747
0.664665,0.353337,0.774829,-0.263790,0.962623,0.061408
0.114669,-0.288180,0.859798,-0.547406,0.681832,0.485233
-0.115557,0.361714,0.855770,-0.343182,-0.858353,0.381387
-0.245664,-0.124301,0.233705,0.149110,0.092886,0.984448
-0.087349,-0.545218,0.315211,-0.278901,-0.525171,0.803996
0.503894,-0.167380,0.615093,0.062555,0.451822,0.889912
-0.059282,0.191312,0.928262,0.581277,-0.094712,-0.808175
0.317650,0.074940,-0.758024,0.995479,0.024625,-0.091729
-0.232821,-0.126694,-0.618424,0.222314,0.258178,0.940170
0.093226,-0.090556,0.213870,0.961472,0.061528,0.267928
0.675524,0.456368,-0.975196,0.063815,0.199165,0.977886
0.570278,0.237024,0.337210,0.325245,-0.608301,-0.724007
-0.288074,0.641428,-0.496307,-0.475053,-0.325837,-0.817408
0.021787,0.171807,-0.481703,0.347347,0.548680,-0.760461
0.183241,-0.631316,0.830346,0.280256,0.323792,-0.903668
-0.247440,0.062734,-0.533794,-0.188798,-0.299958,0.935083
-0.392500,-0.439376,0.087481,0.906403,0.421571,-0.026653
-0.263284,0.489574,-0.432548,0.955885,0.098211,0.276838
0.864295,0.089898,0.394175,0.694947,-0.408872,-0.591501
-0.431771,-0.393484,0.665490,-0.395340,-0.917916,0.033709
0.069662,0.297813,0.382884,0.662593,0.746245,-0.063935
-0.031620,0.630419,-0.473028,0.193714,0.835914,0.513539
0.414288,0.129446,-0.945236,0.404834,0.229233,0.885190
0.443247,0.475274,-0.970322,-0.102902,-0.089434,-0.990663
0.194033,0.442786,0.708097,-0.724885,0.449689,-0.521844
-0.026701,-0.233674,0.813992,0.324386,0.935066,-0.142919
0.596298,0.098693,0.567782,0.388408,-0.258466,0.884497
-0.417085,-0.365423,0.356575,-0.271303,0.050490,-0.961169
0.226335,0.143088,0.428031,0.346594,0.933652,-0.090368
-0.581545,-0.397493,0.369918,-0.087712,0.148263,0.985051
0.285824,0.375833,0.901708,-0.145210,0.283521,0.947908
0.093635,0.099171,0.701247,0.851350,0.426943,0.304832
0.094114,-0.048075,0.440772,-0.367339,-0.613169,-0.699346
0.275031,0.183833,0.816363,0.574476,-0.781910,-0.242060
-0.323177,-0.432973,0.674956,-0.169153,-0.922175,0.347822
-0.286778,-0.093787,0.908332,0.631757,0.322333,0.704971
-0.339572,-0.319771,0.693926,-0.571981,0.812268,0.114273
-0.277282,-0.272085,0.770332,0.847179,-0.482979,0.221402
0.543370,0.382834,-0.966408,0.053911,0.160365,0.985584
0.451784,0.062913,0.607132,0.423103,-0.304217,0.853485
0.186451,0.213510,0.685363,0.863700,-0.500681,-0.057807
0.140280,-0.548508,0.836857,0.495866,0.709655,-0.500506
0.585576,-0.138422,0.325298,-0.335720,-0.824830,0.454916
-0.197651,-0.065666,0.747410,-0.256264,0.217843,-0.941739
-0.276053,-0.165764,0.349574,-0.303176,-0.448357,-0.840869
0.169856,0.006372,0.593037,0.942511,0.061826,0.328405
-0.541865,-0.488318,0.596161,-0.775607,0.294883,-0.558102
0.558260,0.554192,-0.981049,0.054656,0.375715,0.925122
-0.504645,-0.311095,0.715869,-0.191263,0.975649,0.107370
-0.278512,0.432076,-0.207264,0.064292,-0.268853,0.961033
0.361770,0.739911,0.642004,0.994642,-0.102171,0.015791
-0.141510,0.102043,0.891414,0.580122,-0.812669,0.055023
-0.503140,-0.321207,0.374924,0.264570,-0.277940,0.923446
-0.306858,-0.041134,0.895686,-0.426617,-0.507127,-0.748880
-0.223942,0.256529,0.930896,0.301692,0.078636,0.950157
0.273256,0.112335,-0.535883,0.965262,-0.255970,0.052432
0.860676,0.296258,0.560292,-0.147463,0.249912,-0.956974
0.585781,0.582613,0.327819,-0.469994,0.618976,0.629265
0.245802,0.180662,0.809777,0.943878,-0.327192,0.045159
0.210015,0.338499,-0.455808,-0.717658,-0.463292,-0.519931
-0.258845,-0.421785,0.251508,0.421689,0.825083,0.376053
-0.605447,-0.597930,0.155756,0.250857,0.787642,-0.562753
0.373312,0.415084,0.514147,0.209835,0.890581,-0.403528
0.003620,-0.266162,0.371875,0.855490,0.281462,0.434644
0.522061,0.783529,-0.991306,-0.395599,-0.075620,0.915305
-0.236577,-0.038442,0.939741,0.459968,0.497379,-0.735556
-0.062625,0.297753,0.813992,0.721387,-0.036584,0.691566
0.233372,-0.462889,0.064371,0.127435,0.615712,0.777598
0.133452,0.030604,-0.699064,-0.019619,0.990440,0.136544
0.161661,0.684746,0.767001,-0.303485,-0.465577,0.831345
-0.158242,-0.146558,-0.046794,0.600750,0.599131,0.529284
-0.397689,-0.332934,-0.055752,0.237246,-0.311378,0.920195
0.014000,-0.365662,0.390449,-0.424546,-0.521562,-0.740090
0.109138,-0.237503,0.771856,0.464080,0.750526,0.470468
0.202362,-0.271308,0.172374,-0.691769,-0.611672,-0.383815
0.118700,-0.008287,0.052910,-0.567963,0.805600,0.168601
-0.022333,0.518174,0.816570,0.814561,0.429602,0.389785
-0.303440,0.404553,-0.211310,0.199318,-0.256135,0.945869
-0.465031,0.808119,-0.481383,-0.314463,-0.682337,-0.659946
0.210695,0.065546,-0.710901,-0.079382,0.942804,0.323757
0.464281,0.116882,0.636773,0.064445,-0.916237,0.395419
-0.103060,-0.058904,0.868097,0.561282,-0.001641,-0.827623
0.233438,0.529721,-0.664851,0.560417,-0.709439,0.427351
0.327550,-0.098154,0.287810,0.785668,-0.597414,-0.160694
0.500001,0.255272,0.836932,0.487548,-0.666070,0.564490
-0.242659,-0.222425,0.505434,0.871058,0.482152,0.093745
-0.028615,-0.020553,0.905904,0.914266,-0.216867,0.342179
-0.197581,0.655967,0.357365,0.658693,0.684733,0.311873
0.180577,0.132378,0.861887,-0.684196,0.528689,-0.502357
-0.586531,-0.272145,-0.622733,-0.188296,0.065291,0.979940
0.079771,-0.189039,0.518833,-0.685224,0.245548,0.685693
-0.568023,0.727226,-0.446888,0.574851,0.085821,-0.813745
-0.750169,-0.160379,0.153987,0.658895,-0.133737,0.740251
0.441471,-0.024801,-0.945538,-0.006222,0.077137,0.997001
0.512911,-0.123523,0.615168,0.150742,0.223202,0.963046
0.068095,-0.003979,0.531781,0.594436,0.774750,-0.215423
-0.135295,-0.126156,0.834637,0.817707,0.401237,0.412752
-0.230157,0.704849,0.355258,0.431283,0.630325,0.645512
0.418590,0.215065,0.829706,0.148115,0.930575,-0.334802
-0.718072,-0.433931,0.143411,0.660793,0.496453,0.562927
-0.017414,-0.046579,0.868473,-0.356970,-0.496540,-0.791215
0.908485,0.312951,0.331677,-0.670682,-0.298139,-0.679190
0.152986,0.617555,0.618819,0.644900,0.131533,-0.752864
0.074035,-0.169235,-0.189348,0.704325,0.533157,0.468690
-0.322631,-0.280701,0.361054,0.091875,0.963374,0.251932
0.218073,0.071948,-0.407010,-0.630859,-0.770235,-0.093567
0.742045,0.535166,-0.976890,-0.033455,-0.033455,0.998880
0.247920,0.263649,0.623844,-0.268677,0.909204,-0.318056
-0.284456,0.347473,0.447829,-0.522348,-0.774649,0.356471
0.087695,-0.485925,0.625387,-0.054549,0.839044,0.541321
-0.353912,0.023962,0.500598,0.136495,-0.216373,0.966722
0.209057,0.162593,0.619515,-0.706479,-0.047176,0.706160
0.552862,0.228468,0.730285,0.950671,0.309792,-0.015929
0.333424,0.271846,-0.492618,0.491061,0.172091,-0.853958
-0.364296,-0.236007,0.584399,0.929186,0.354859,-0.103385
-0.068365,-0.293086,0.001985,0.608924,0.785193,0.112618
0.286507,-0.018339,0.204422,0.006386,-0.999974,0.003446
-0.036197,-0.355551,0.736156,-0.520593,-0.742719,0.421132
0.358081,-0.444939,0.426187,-0.353492,0.795100,0.492808
0.245935,0.447273,0.743119,0.702759,0.032546,0.710683
0.550132,0.668891,-0.510289,-0.481999,0.048214,-0.874844
0.086874,-0.309002,0.897060,-0.297087,-0.949617,-0.099840
0.227635,0.153439,0.429442,0.346594,0.933652,-0.090368
-0.032508,-0.139079,0.720668,0.530862,-0.843249,-0.084359
-0.297295,-0.026835,0.723058,-0.708755,0.019682,-0.705180
-0.007647,-0.659617,0.679323,-0.395705,0.896240,-0.200427
0.611392,-0.203099,0.457615,-0.709232,0.666343,-0.230167
0.085506,0.080025,0.813126,0.176342,0.948153,0.264404
0.413676,0.324438,0.897888,0.066296,-0.919317,0.387892
0.350636,0.669130,0.642418,0.908883,-0.085540,0.408184
0.197310,0.474496,-0.521148,0.884641,0.400742,0.238360
-0.180848,-0.049870,-0.606003,0.428808,0.647099,0.630387
-0.373445,0.552039,-0.192999,0.141970,-0.248073,0.958282
-0.205642,0.614024,0.640630,0.779728,0.577385,0.242178
0.226748,0.029527,-0.004884,0.956944,0.284618,-0.057023
-0.130105,0.208364,0.697483,0.125445,-0.925527,-0.357301
-0.245185,0.456787,0.364159,0.267759,0.389060,-0.881441
0.127854,-0.289257,0.304578,0.804033,0.534442,0.260582
0.158314,0.276453,0.628153,0.177432,-0.900658,0.396653
0.015301,0.395698,0.756236,0.206062,-0.830286,0.517845
-0.005121,-0.078948,0.094255,-0.315974,0.899128,0.302869
-0.124298,-0.355730,-0.557544,-0.171906,0.243036,0.954663
0.260896,0.685105,0.765345,-0.295537,0.118401,-0.947966
0.141581,-0.236425,0.554251,0.652217,-0.424346,-0.628127
-0.263964,-0.087983,-0.280489,0.207513,0.286153,0.935444
0.264856,-0.323960,0.044573,0.627741,0.505183,0.592225
0.431771,-0.472343,0.445721,0.760490,-0.643631,0.085987
-0.483265,-0.318934,0.073573,0.868627,0.464516,0.172371
0.205576,0.522841,-0.566464,-0.740279,0.412001,0.531265
0.175867,-0.674694,0.849410,0.562299,0.567385,-0.601577
0.620408,0.410836,-0.969212,0.032344,0.168564,0.985160
-0.527521,0.325156,-0.591475,-0.206274,-0.520627,0.828492
-0.268883,-0.318934,0.009720,0.357959,-0.933731,-0.003255
-0.381574,-0.123822,0.256213,0.907186,0.364903,0.209428
-0.187130,-0.004817,0.059515,0.464672,0.337004,-0.818846
-0.080112,-0.220152,0.919868,-0.259203,-0.697706,-0.667848
0.043030,0.062135,0.244281,0.917338,0.195027,0.347067
0.188839,-0.031502,-0.005410,0.985503,0.145198,0.087758
-0.110980,0.382176,0.472839,0.497752,0.852353,-0.160429
0.472410,0.786280,0.447208,0.710281,0.259697,0.654261
0.351728,0.155294,-0.924422,-0.127272,0.854212,0.504106
0.137550,0.057468,0.756782,-0.400853,0.313065,0.860992
0.470155,-0.079905,0.420146,-0.556290,-0.829300,-0.052943
-0.005325,-0.132857,0.282258,-0.591584,0.786161,0.178827
-0.471384,0.309301,-0.610351,-0.025674,-0.366264,0.930157
-0.178118,0.111616,0.939045,-0.071076,0.963712,0.257308
0.548968,0.494899,0.641873,-0.472665,0.881191,-0.009450
-0.327821,0.375714,0.073837,-0.348196,0.467613,-0.812464
-0.317921,-0.542107,0.612308,-0.711744,0.673175,-0.200637
0.057573,-0.121130,0.322494,0.944336,-0.328787,-0.011370
-0.109204,-0.082478,0.507655,-0.477133,-0.282649,0.832138
-0.382462,-0.693601,-0.098283,0.726727,-0.102550,-0.679229
-0.057848,0.059982,0.769203,-0.095451,-0.765540,0.636268
-0.429858,-0.147455,0.221510,0.658714,0.719986,-0.218442
0.527455,0.663924,0.433921,-0.845072,0.534365,-0.017557
0.014000,-0.087445,0.088817,-0.190588,0.810825,0.553389
-0.202499,0.179585,0.499619,-0.270538,0.140392,0.952418
-0.123206,-0.604092,-0.162023,0.814243,-0.028640,0.579817
-0.583117,0.374877,-0.527189,-0.110425,-0.555244,0.824324
-0.047056,0.298412,0.452534,-0.407743,-0.526736,0.745852
-0.269362,-0.599665,-0.100259,-0.538538,0.553133,0.635626
0.089946,0.579143,0.795530,0.173015,-0.396056,0.901779
-0.198468,0.237563,-0.469490,0.804877,0.582522,-0.113323
0.035243,0.045861,-0.697652,0.317625,-0.914122,0.251985
-0.970358,0.387382,-0.603124,0.094561,0.973240,0.209434
0.067340,-0.175876,-0.187862,-0.549839,-0.638119,-0.538963
-0.363541,-0.070033,0.933060,0.663405,0.109167,0.740254
-0.079908,0.415503,0.366079,0.201838,0.090957,0.975186
0.148067,0.122267,0.189330,0.324819,-0.942310,0.080901
0.412308,0.381159,-0.966784,0.100634,-0.045405,0.993887
0.460801,-0.095940,0.373606,-0.802847,0.562809,0.196680
-0.312456,-0.636522,-0.104681,0.400842,-0.671500,-0.623229
0.152369,0.413348,0.758080,0.918715,0.297160,-0.260114
-0.092063,0.211057,0.704841,0.609281,0.466824,0.640977
-0.079566,-0.584827,-0.170812,0.855225,-0.517422,0.029405
0.446457,0.051127,0.610859,-0.769728,-0.513811,0.378837
0.196968,0.425854,-0.532816,-0.363248,0.850125,0.381233
0.399945,0.844856,0.431117,0.856496,0.333339,-0.394080
0.863611,0.304155,0.558033,-0.475989,-0.531300,-0.700825
0.308088,0.621743,0.716057,0.327081,-0.026376,0.944628
0.276536,0.062255,-0.294208,-0.056937,-0.998308,0.011761
-0.064539,-0.456607,0.399821,-0.411616,-0.142437,-0.900158
0.386014,0.489574,-0.968836,0.279040,0.214419,0.936035
-0.308838,0.494421,0.377803,-0.305583,-0.272498,0.912340
-0.161519,-0.100008,-0.284592,0.002776,0.499118,0.866529
-0.578948,-0.402399,0.244168,-0.166118,-0.852125,-0.496273
-0.669375,0.436503,-0.618574,0.270987,0.735092,0.621454
-0.346742,-0.089239,0.731527,0.972633,-0.156487,-0.171748
-0.405339,-0.319054,0.634684,-0.665972,0.669671,-0.328666
-0.212608,0.124301,0.947833,0.787338,0.505514,0.352922
0.214042,-0.077632,0.083209,0.720065,0.426592,0.547289
0.216160,0.346517,0.915032,0.827917,0.076567,0.555599
0.763013,0.356688,-0.971226,-0.099182,0.071903,0.992468
-0.262397,0.157089,0.390092,-0.387229,0.840634,-0.378666
0.607157,0.635444,-0.984437,0.238797,-0.121815,-0.963399
0.488254,0.693481,0.435201,-0.890054,0.438978,-0.122893
-0.024038,0.255392,-0.702169,-0.549089,-0.706789,-0.446038
0.367710,0.287343,-0.477713,0.221124,0.524895,0.821942
0.195330,0.058187,0.002569,-0.452219,0.817766,0.356030
-0.202295,-0.117001,-0.075700,-0.204918,-0.948456,-0.241744
0.178868,0.086487,0.249287,0.313231,-0.945260,0.091486
0.652439,0.431597,-0.972938,-0.165253,-0.270321,-0.948482
-0.020557,-0.143387,0.514599,0.431373,-0.071885,-0.899305
-0.234463,-0.410477,0.662291,0.574149,-0.721154,-0.387672
-0.219094,0.066503,0.966182,0.927300,0.050300,0.370924
0.583734,0.154575,0.573371,-0.470521,-0.124488,-0.873564
0.257957,-0.006910,-0.947137,0.023704,-0.133583,0.990754
-0.185425,0.039639,0.945895,0.981379,-0.060813,0.182198
-0.056685,-0.150507,0.632651,-0.637110,0.522179,-0.566939
0.224151,0.050109,0.022912,0.977582,-0.173780,-0.118888
0.080863,-0.025997,0.059365,0.167826,0.841197,0.514025
-0.408482,0.676848,-0.463035,0.344581,-0.426936,0.836056
0.438670,0.820265,0.437478,0.812342,0.518017,-0.267880
-0.725650,-0.526610,0.155907,0.266026,0.661159,-0.701498
-0.438874,-0.270051,0.697445,0.113758,-0.993477,0.007889
-0.427127,-0.126515,0.251451,-0.570547,-0.488604,0.660108
-0.232479,0.529004,0.576043,0.270132,0.958922,-0.086581
-0.314165,-0.141892,0.055601,-0.664755,0.378129,0.644297
0.023904,0.552338,0.796660,-0.658148,-0.176137,-0.731995
0.073009,-0.455590,-0.542677,0.162805,0.200095,0.966156
-0.345512,0.700602,0.344644,-0.258325,-0.150904,0.954199
0.042071,-0.083016,-0.229584,-0.161146,0.937190,0.309367
-0.380273,0.003201,-0.269555,0.315418,0.102221,0.943431
-0.341481,0.190295,0.051367,0.612145,-0.665506,-0.427059
0.057369,-0.310438,0.853907,-0.665336,0.585608,0.463024
-0.035513,0.164807,0.535695,-0.251089,0.443863,0.860197
0.213975,0.070751,-0.475248,0.843065,0.534384,-0.060617
-0.502252,0.616418,-0.473460,-0.234252,-0.463715,0.854456
0.483611,-0.120292,0.294660,-0.382866,-0.457308,0.802672
0.010586,-0.107967,0.555963,-0.801445,0.326690,-0.500958
0.244710,-0.243845,0.021143,-0.810724,-0.471696,-0.346742
0.541732,0.469172,0.709151,-0.016631,-0.310794,0.950332
-0.358009,0.155234,0.051950,-0.208014,0.573881,0.792080
-0.129013,-0.395578,0.784992,0.957329,-0.173530,-0.231105
0.268270,0.058067,-0.543712,0.167505,-0.974249,0.150935
0.143015,0.375894,0.718523,-0.137199,-0.972825,0.186517
0.646157,0.548569,0.604404,-0.413579,-0.907442,0.074172
0.099371,-0.623239,0.828784,-0.304117,0.195178,0.932426
0.352615,-0.044425,-0.946667,-0.064746,-0.239435,0.968751
0.082572,-0.041673,0.225218,0.974884,0.179115,-0.132356
0.588719,0.709157,-0.988520,0.196502,-0.132684,0.971484
0.076152,0.006132,-0.645693,-0.030552,0.576355,0.816628
-0.243613,0.176534,0.718353,0.334595,0.913051,-0.233204
0.215818,0.659497,-0.627194,0.802348,-0.588071,-0.102031
-0.019873,-0.411255,0.627043,0.297080,0.357830,-0.885269
-0.360948,-0.307686,0.411226,0.681112,-0.702157,0.207512
0.099033,-0.553893,-0.115333,0.433569,-0.337809,-0.835406
0.491260,-0.117780,0.612571,0.174571,0.216262,0.960602
0.232825,0.463428,0.725185,0.932417,-0.350118,-0.089533
-0.532986,0.409160,-0.511720,0.214533,0.591807,-0.777007
-0.443038,-0.463368,0.129410,-0.450308,0.362799,-0.815843
-0.313206,-0.379244,0.240762,0.701997,-0.685989,-0.191361
0.042550,-0.241691,0.822235,-0.294352,-0.920284,-0.257749
-0.291764,-0.006013,0.919191,-0.688606,0.601226,-0.405400
-0.238561,-0.626110,0.287923,0.737479,-0.361490,-0.570482
0.301260,-0.152481,0.230318,0.914939,-0.292968,-0.277589
0.616652,0.286565,-0.963773,0.109955,0.298222,0.948142
-0.536742,-0.492566,0.435935,-0.638294,0.344628,-0.688340
0.190686,0.071170,-0.013352,0.966699,0.242801,0.080875
0.260483,0.100847,0.516424,0.746476,0.516992,0.418920
-0.389357,-0.495378,0.672359,0.928742,-0.320018,0.187153
0.185700,-0.567535,0.575573,-0.637269,0.662904,0.392996
0.597732,0.217758,0.333992,-0.361666,0.635854,0.681827
-0.319492,-0.158165,-0.051931,-0.204429,0.716302,0.667174
-0.610912,-0.388818,-0.467476,-0.139134,0.187947,0.972274
0.162682,0.382834,0.879652,0.875199,0.017347,-0.483452
0.753450,0.502976,0.637544,0.968088,-0.223170,-0.114018
0.042688,-0.553355,0.052948,-0.207374,0.428067,0.879633
0.137004,-0.578904,0.839285,-0.478141,-0.547646,0.686633
-0.859651,-0.498489,0.123914,0.777664,-0.186909,-0.600253
-0.079566,0.474796,0.627852,-0.502604,0.763891,-0.404797
0.129559,-0.328088,0.882211,-0.234545,0.971643,-0.029969
-0.062421,0.094565,0.839661,0.232836,-0.956072,-0.178084
0.372353,0.279564,0.877488,0.104280,-0.984121,-0.143639
0.543712,-0.101803,0.318636,-0.479310,-0.635556,0.605253
0.204346,0.079846,0.827655,-0.005361,-0.145301,0.989373
0.079841,-0.497951,-0.120056,0.393472,-0.321943,-0.861123
0.433139,0.412391,-0.967594,-0.148864,-0.050611,-0.987562
-0.082980,-0.103359,0.864898,0.780786,-0.143392,0.608122
0.245935,0.483830,0.749555,0.774631,-0.194692,0.601699
0.178118,0.053281,0.150656,0.742879,-0.661758,-0.101033
0.204688,-0.110301,0.573841,-0.523842,-0.336719,0.782439
-0.103197,-0.426152,0.825603,0.957262,-0.048060,-0.285202
-0.210557,0.137763,0.043538,-0.748549,0.526980,-0.402450
0.194442,0.515362,-0.557864,0.822621,-0.450080,-0.347451
0.295453,0.861609,0.652562,0.192951,-0.243096,0.950618
0.573829,0.217340,-0.957243,-0.105314,0.126840,0.986317
-0.293606,0.155114,0.029593,0.807331,0.092264,0.582842
0.310956,-0.368176,0.769391,0.989427,0.061887,-0.131163
0.131677,0.140036,0.861303,0.761365,-0.593196,0.261613
-0.339501,-0.121848,-0.512284,0.096517,0.488294,0.867326
0.175525,-0.579023,-0.107730,0.820917,-0.395563,-0.411855
0.367847,-0.043946,0.429273,0.321280,0.413112,0.852125
0.243276,-0.366081,0.536391,0.821984,0.285294,-0.492899
-0.523015,-0.559637,0.153103,-0.365063,0.483432,0.795627
-0.025542,-0.373560,0.343797,0.676727,-0.316527,-0.664719
0.521448,0.803393,-0.981294,-0.393858,-0.040207,0.918291
-0.144924,0.128130,0.942338,-0.554889,-0.497958,-0.666435
-0.181123,-0.105154,0.422498,0.332642,-0.693552,0.639011
0.658929,0.468394,0.584286,-0.377102,0.117008,0.918751
-0.004779,-0.155055,0.795681,0.679555,0.681904,0.270577
-0.191570,-0.695337,-0.118175,-0.796344,0.565728,-0.213981
-0.412237,-0.285488,-0.615526,-0.118244,-0.015270,0.992867
0.384855,0.000329,0.330736,0.984735,0.097603,-0.144120
-0.329326,-0.148233,0.273997,0.898226,0.116307,0.423867
0.409782,0.019536,-0.940438,0.174408,0.025734,0.984337
0.606135,0.217938,-0.960593,-0.022571,-0.042974,-0.998821
0.831238,0.724714,-0.990120,0.149462,0.088674,0.984783
-0.129559,-0.170850,0.110007,-0.781481,0.401469,-0.477609
-0.396189,0.804769,-0.495196,0.040075,-0.990440,0.131998
0.115899,-0.300745,0.753357,0.305416,0.082590,0.948631
-0.307608,-0.346158,0.212515,0.676329,-0.719714,-0.156813
-0.270592,0.192509,0.452308,0.343871,0.440066,0.829515
-0.054705,-0.088282,0.914185,-0.664362,0.555384,-0.500172
0.595206,0.540073,0.577267,-0.726424,0.685599,0.047560
0.284252,0.197057,0.775375,0.894286,-0.422060,-0.148722
-0.380615,-0.549286,0.407405,-0.400274,0.681733,0.612390
0.202979,0.133933,0.220155,0.265015,0.962317,0.060935
-0.485928,-0.320908,0.082644,0.868367,0.457446,0.191527
-0.439354,-0.193407,0.478523,0.667120,-0.195745,0.718773
0.331035,0.629282,0.654745,0.615830,0.405587,0.675465
-0.252901,0.043827,0.489155,0.331805,0.442777,0.832979
0.151756,0.147695,0.434524,0.569184,0.810460,0.138505
0.636186,0.397972,-0.963736,-0.038949,0.192204,0.980582
0.143219,0.608460,-0.631183,-0.711132,0.701012,0.053595
0.392296,0.210997,-0.944709,-0.266739,0.428966,0.863040
0.585097,0.317498,-0.961628,0.045764,0.233314,0.971324
0.414564,0.604990,-0.970586,0.228010,-0.174415,0.957910
0.352482,-0.126634,0.626347,0.237763,0.962866,0.127897
-0.394684,0.422623,0.353056,-0.485904,0.067030,0.871438
0.194579,-0.001945,0.874477,0.914653,0.377532,0.144494
-0.621363,0.831873,-0.437704,0.737607,0.469864,-0.484936
0.232550,0.339396,0.927490,-0.009704,0.838853,0.544271
-0.280700,0.631137,0.361600,0.143171,0.748538,0.647451
0.263626,-0.311275,0.745923,0.863903,0.252758,-0.435644
-0.041933,-0.747988,-0.063693,-0.305212,0.407000,0.860928
-0.232754,-0.637000,0.280640,0.737479,-0.361490,-0.570482
0.241021,0.072486,0.118908,0.110121,-0.985091,0.132169
0.407665,0.242409,0.488704,-0.670077,0.716015,0.195751
-0.379727,0.019415,-0.274467,0.315418,0.102221,0.943431
0.028481,-0.016544,0.535996,0.850290,-0.119026,-0.512679
0.554913,-0.131840,0.314533,-0.386090,-0.584801,0.713402
0.377818,0.028929,-0.944502,0.056341,-0.146967,0.987535
-0.409232,-0.569509,0.435239,0.085095,-0.853515,-0.514072
-0.602854,-0.562629,-0.474288,-0.380059,0.121432,0.916956
-0.736238,-0.436743,-0.002456,-0.175018,0.095615,-0.979911
-0.067544,0.049989,0.610143,-0.560166,0.573117,-0.598122
-0.206051,0.059323,0.081063,-0.574192,-0.750362,0.327507
-0.351523,-0.649983,-0.110760,0.617230,-0.392843,-0.681690
0.346267,0.096958,-0.903289,0.608253,-0.783398,0.127737
0.289238,0.352201,0.530953,-0.277829,-0.635780,-0.720135
0.040637,-0.302001,0.817869,0.229589,0.625515,0.745667
-0.108521,-0.316899,0.646935,0.855500,0.110251,0.505930
0.320243,-0.014270,0.296975,-0.750980,0.594651,0.287088
0.145133,0.192209,-0.638447,-0.403470,-0.800061,0.443975
0.031145,0.189099,0.951974,0.942758,0.327001,-0.065403
-0.107908,-0.099411,-0.108897,-0.603976,-0.764795,-0.224279
0.006422,-0.634128,0.571546,0.229856,0.384659,0.893982
-0.128329,-0.219672,0.859083,0.416045,0.595671,-0.687083
0.014000,-0.839172,0.389866,0.588525,-0.803722,0.087572
0.237673,0.189517,0.928958,0.724967,-0.666245,-0.174760
0.461209,0.186047,-0.960104,0.177944,0.113510,0.977472
-0.134611,-0.423400,-0.101087,0.865284,-0.497540,-0.061134
0.899060,0.263948,0.563961,-0.112718,0.421822,0.899645
-0.508196,-0.385766,0.235662,0.057834,-0.943975,0.324910
0.081205,0.099650,0.845006,0.260118,0.864379,-0.430334
-0.056823,-0.186047,0.313460,-0.262241,0.963845,-0.047246
0.275098,-0.409160,0.763707,0.934398,-0.199461,-0.295152
0.427332,-0.125139,0.714947,0.805683,-0.592122,-0.016329
-0.542136,-0.471385,-0.046662,0.643286,-0.354124,0.678807
-0.234463,0.033716,0.947645,0.979483,-0.019106,-0.200619
0.140622,-0.470309,0.612703,-0.221671,-0.932490,-0.285175
0.054297,-0.558560,-0.526229,0.208243,-0.103241,-0.972613
-0.240745,0.348251,-0.515107,-0.614249,-0.681360,0.398055
0.139805,0.220869,-0.406747,0.704110,0.576033,0.415229
-0.309655,-0.402459,0.253992,-0.521114,0.829201,0.202154
0.082505,-0.002423,0.878372,0.100865,0.934640,0.340991
0.119451,0.582792,-0.508614,-0.536695,-0.736684,0.411408
-0.344216,0.670207,-0.418716,0.810800,-0.016439,-0.585093
-0.263831,0.044724,0.498829,0.046031,0.219988,0.974416
-0.630854,-0.483232,-0.469979,-0.284564,0.108615,0.952484
0.211720,0.002244,0.585434,0.101747,0.011890,-0.994739
-0.054772,0.131241,-0.223769,-0.278069,-0.391503,0.877156
0.063655,-0.274478,0.828351,-0.192324,0.981301,0.007715
-0.041112,0.024860,0.887481,0.968741,-0.202935,-0.142683
0.306245,0.265504,0.886954,0.847422,-0.464758,0.256664
-0.201611,-0.454752,0.551070,0.053419,0.928640,0.367117
-0.140826,0.198432,-0.223185,-0.430689,-0.344586,0.834127
0.046444,0.492805,0.788981,0.283970,-0.833165,0.474549
0.134478,0.399647,0.869640,0.811109,0.356119,-0.463983
0.170127,-0.232118,0.571169,0.987128,-0.138233,0.080430
-0.507921,0.529243,-0.471315,-0.557114,-0.186150,0.809304
0.202841,-0.000030,-0.460795,0.958226,-0.278174,-0.066501
-0.188839,0.154516,0.723604,0.433780,0.888903,-0.147264
0.232208,-0.452778,0.246464,-0.228482,-0.542610,-0.808313
-0.482377,0.622640,-0.709828,-0.465099,-0.194445,0.863640
-0.202020,0.622281,0.641477,-0.553230,-0.201059,-0.808400
0.076423,-0.243127,0.818471,-0.614789,0.338874,0.712179
-0.148476,0.160020,0.011075,-0.217530,0.856988,-0.467175
-0.012224,-0.232776,0.704352,0.945346,-0.003592,0.326050
-0.164866,0.116403,0.681713,0.939357,0.182724,0.290209
0.615902,-0.082597,0.420579,-0.207116,0.673841,0.709254
0.179827,-0.028929,0.018584,0.943222,-0.127026,-0.306916
0.085031,-0.060340,0.551560,-0.685580,0.159581,0.710291
-0.141443,-0.603375,-0.138142,0.876614,-0.211861,0.432046
-0.042887,0.580339,0.832058,0.896337,0.426251,0.122028
-0.022128,0.078649,0.904343,0.883788,0.467884,-0.001532
0.606202,0.181021,0.740334,0.936689,-0.145426,-0.318536
-0.370169,0.521525,-0.466892,0.164254,-0.412574,-0.895993
-0.264443,0.496635,0.542263,0.580492,0.714859,-0.389879
0.171428,-0.201065,0.693136,0.882033,-0.059509,-0.467415
0.065156,-0.664463,-0.519116,0.245242,-0.278880,-0.928484
-0.129830,-0.255931,0.936617,0.734894,0.540997,0.408965
-0.311501,-0.081282,0.924592,0.211947,-0.935591,0.282397
-0.088237,-0.320130,0.446135,0.132256,0.895075,0.425852
0.180577,0.118916,-0.723303,-0.496459,-0.046668,-0.866805
-0.250033,0.046340,0.043425,0.487045,-0.211945,-0.847270
-0.694916,-0.559877,-0.460325,-0.354945,0.088303,0.930708
-0.493511,0.545518,-0.489344,0.503761,0.440834,-0.742893
0.821813,0.631794,-0.980108,-0.041123,0.193201,0.980297
0.101626,-0.045322,-0.303204,-0.291788,0.940913,0.171878
0.713153,0.436862,0.594524,0.752386,-0.005497,0.658699
-0.084960,0.440332,0.707946,0.271128,0.961679,0.040786
0.010657,-0.083616,-0.630054,0.409404,-0.880719,-0.238166
0.383758,0.764502,0.762183,0.178599,-0.083797,0.980347
-0.189865,-0.124959,0.902988,0.591701,0.335749,-0.732914
0.036814,0.530560,-0.582818,-0.287084,0.875880,0.387837
-0.324274,0.150327,0.416062,0.553064,-0.809719,0.196152
-0.105107,0.469950,0.618123,-0.412546,0.596282,-0.688661
-0.091997,0.182099,-0.481985,0.824326,0.186443,-0.534533
0.238836,0.116642,0.304634,-0.536497,0.822953,-0.186865
0.133861,-0.243247,0.563209,0.785890,-0.361967,-0.501354
0.063859,-0.476591,0.045326,-0.254743,0.157892,0.954032
-0.259320,-0.559040,-0.107222,0.608946,-0.653889,-0.449014
-0.563175,0.768151,-0.464164,0.332217,-0.755255,-0.564998
0.410941,0.153259,-0.733785,0.750557,-0.539153,-0.382071
0.213017,-0.003500,-0.499864,0.823305,-0.565427,0.049617
-0.090767,0.373919,0.850783,-0.504424,-0.782168,0.365745
-0.429653,-0.058426,0.251094,-0.399745,-0.845657,-0.353649
-0.093977,-0.181440,0.613060,0.805477,-0.564235,0.181235
-0.005871,0.494122,0.812599,0.565105,0.824915,-0.013081
0.465920,-0.240434,0.443444,-0.450245,-0.760885,0.467261
-0.320172,0.136327,0.069358,0.753518,-0.102630,-0.649367
0.147659,0.021151,0.741934,0.421417,0.897706,0.128577
0.684332,0.559159,0.334895,-0.206301,0.107745,-0.972538
0.014617,-0.281299,0.844573,-0.718676,-0.084196,0.690229
0.320585,0.079247,-0.773418,0.386562,0.918343,0.084947
-0.197581,0.668652,0.357554,0.652086,0.541181,-0.530948
0.460867,0.283873,-0.961571,-0.183857,-0.086703,-0.979122
0.050470,-0.055793,0.633724,-0.633112,0.708753,-0.311188
-0.130105,0.265743,0.436707,-0.705946,-0.365603,0.606609
0.036060,-0.462231,0.748784,0.879059,0.423503,0.218862
-0.456153,-0.471924,0.190967,-0.124041,0.857731,-0.498910
0.219369,0.504054,-0.537332,0.821300,-0.482800,-0.303924
-0.015913,0.496275,0.797168,0.489227,0.613252,-0.620144
-0.349064,0.214168,0.730454,-0.405276,-0.030191,-0.913696
0.139668,0.109881,0.327951,0.276063,-0.626216,0.729138
0.142944,-0.647351,0.098264,-0.187333,0.261260,0.946916
-0.769907,0.365483,-0.529805,-0.536104,-0.497397,0.682048
0.009902,0.504651,0.798974,-0.486255,-0.702052,0.520267
-0.031758,0.599605,0.624935,0.286278,-0.292377,0.912448
0.403909,-0.135669,0.758946,0.312754,-0.735118,0.601487
-0.365388,-0.291411,0.781680,0.761150,0.034880,0.647637
-0.788486,-0.433631,0.387419,-0.435212,0.898936,-0.050046
0.148955,0.171807,0.418734,-0.313905,-0.949450,0.003045
-0.190753,0.614922,0.644074,0.824032,0.522238,0.219632
-0.010928,0.487001,0.827278,-0.424807,-0.771990,-0.472832
0.764926,0.359081,0.590590,-0.130395,-0.677838,0.723556
-0.496720,-0.090137,0.252863,0.766941,0.532562,0.358022
0.600670,0.231818,-0.955267,-0.027155,0.109856,0.993577
0.784251,0.497831,0.353263,-0.012633,0.185474,0.982568
-0.124436,0.059263,0.905697,0.481364,-0.870110,-0.105817
0.160156,0.034792,-0.063110,0.989240,0.145754,0.012647
-0.010106,-0.325994,0.795022,-0.707350,0.684652,0.175809
-0.348997,0.165944,0.737078,0.614174,0.384957,0.688911
0.331923,0.180243,0.878146,0.806577,0.470316,-0.358102
-0.199631,-0.316959,0.519831,0.723428,0.633970,0.273374
-0.194646,0.636042,0.617238,0.951663,0.305374,-0.032945
0.158860,0.205433,-0.404244,0.757474,0.493688,0.427206
0.445840,-0.045562,-0.926756,-0.006222,0.077137,0.997001
0.549381,0.092829,-0.950769,-0.079691,0.217027,0.972907
-0.411212,0.549167,-0.475700,0.001497,-0.064312,0.997929
0.816761,0.736082,-0.988125,0.127087,0.104432,0.986379
-0.521719,-0.503874,0.618631,0.220932,0.923356,0.314011
0.043438,0.078110,0.850614,0.001529,-0.990220,0.139504
0.262534,0.516917,0.705086,-0.713624,0.246409,-0.655762
-0.318329,-0.407066,0.686718,-0.090743,-0.849835,0.519178
-0.000410,-0.022826,0.775789,-0.078525,-0.879738,0.468929
0.120134,0.225895,0.619873,0.346328,-0.769802,0.536154
0.623551,0.355850,0.752397,-0.241578,0.937080,0.252034
-0.019260,0.603973,0.626949,-0.418993,0.386428,-0.821656
0.124645,-0.026356,-0.303091,-0.668252,0.743896,0.007554
-0.079908,-0.448530,0.241929,-0.026928,0.648112,0.761069
-0.416064,-0.589553,0.433394,-0.174578,0.846245,0.503381
0.271342,0.187364,0.778405,0.867864,-0.495896,-0.029987
0.262534,0.190594,0.557920,-0.112988,-0.654761,0.747343
-0.109071,0.303377,0.568779,0.426265,-0.668531,0.609396
-0.290805,0.417836,0.417888,0.602219,0.308954,0.736125
0.230162,0.160858,0.731884,0.900332,0.433647,-0.036783
-0.406364,-0.316660,0.644601,0.905212,-0.347738,0.244274
0.210628,0.059982,-0.361938,-0.332962,0.908739,0.251656
-0.174704,0.493224,-0.433300,0.731397,0.620000,-0.284004
0.001982,-0.316002,0.808911,-0.621313,0.699953,0.352188
0.325299,-0.016962,-0.655780,0.393275,0.804297,0.445467
0.152507,0.457205,0.751249,0.396769,-0.522265,0.754860
-0.239582,0.487839,-0.208055,0.011224,-0.156393,0.987631
-0.060099,0.312592,0.823665,0.869304,-0.046011,0.492132
-0.640692,0.520208,-0.709791,0.102423,-0.040108,0.993932
-0.066860,0.291471,0.832265,-0.587155,0.315423,-0.745491
-0.185150,-0.136566,0.240273,-0.170508,0.527947,-0.831985
-0.518984,-0.390971,0.665566,-0.735695,-0.466126,0.491405
0.674157,0.459897,-0.961816,0.129180,0.199874,0.971269
0.259049,0.298831,-0.514430,0.290588,0.701730,-0.650488
-0.356509,-0.335986,0.145952,-0.424280,0.385642,-0.819309
0.082230,-0.620306,0.820842,0.016204,0.177486,0.983990
0.255702,0.767613,0.764065,0.488778,-0.218574,0.844584
0.315599,0.233852,-0.948549,-0.173224,0.326030,0.929353
0.656470,0.442487,0.690934,-0.655926,0.277779,0.701855
0.489142,0.527627,-0.971226,0.026659,0.241700,0.969985
-0.016801,0.468992,0.831023,-0.542481,-0.751906,-0.374635
-0.591720,-0.226853,-0.620645,0.182964,0.067411,-0.980806
0.763354,0.808777,-0.990647,0.204045,-0.001160,0.978961
0.080729,-0.063632,0.400122,0.987664,-0.139702,-0.070734
-0.084823,0.283932,-0.403491,-0.136907,-0.344657,0.928692
-0.304807,-0.242229,0.804714,-0.489759,0.869298,0.066764
0.046168,-0.060520,-0.638523,0.430484,-0.888382,-0.159567
0.557235,0.012654,0.592265,0.611354,0.332274,0.718221
0.124645,-0.308583,0.457351,0.988258,-0.089950,-0.123515
0.109208,0.306788,0.843519,0.868515,0.417786,-0.266716
-0.068228,0.038920,0.730134,0.906543,0.408483,0.106400
0.199086,0.051725,-0.024173,0.927690,0.367465,0.066036
0.121501,0.355910,0.819054,0.943401,-0.012906,-0.331403
0.298183,0.010919,-0.488102,0.813100,-0.554893,0.175963
-0.275373,-0.215006,0.978207,-0.491706,-0.822726,-0.285214
-0.075193,0.385107,0.572072,-0.270380,0.352579,-0.895870
0.019261,0.073324,0.575385,-0.432967,0.512536,-0.741516
-0.668008,-0.543064,0.126756,-0.528329,-0.831230,0.172992
0.216639,0.577288,0.620005,0.683448,0.714807,-0.148155
0.280634,0.221348,0.791390,0.564507,-0.793747,0.226490
0.218619,0.016723,0.124027,-0.695983,0.692561,-0.189649
0.865183,0.702935,-0.990967,0.184126,0.120434,0.975496
-0.080041,0.060580,0.945500,-0.715579,0.526172,-0.459445
0.294836,0.532653,0.629998,-0.359679,-0.438349,0.823700
-0.477941,0.418793,0.346469,-0.633254,-0.142872,0.760643
0.617403,0.517695,0.345566,0.012480,0.099503,0.994959
0.487229,0.018997,-0.950167,0.185507,0.170200,0.967791
0.314711,-0.295300,0.797130,0.841762,0.463759,0.276339
-0.006213,-0.119933,0.765514,0.563552,0.573143,0.594909
0.094660,0.412511,0.714477,0.189617,0.927524,-0.322094
0.387723,0.315224,0.609598,0.752725,0.204386,-0.625805
-0.331990,0.156610,0.052985,0.570716,-0.647606,-0.504865
0.069870,-0.074700,0.357365,0.983351,0.063788,0.170155
-0.536813,0.290753,-0.533399,-0.394846,-0.347391,0.850539
-0.335337,0.012057,0.505904,0.238970,-0.307431,0.921075
0.000273,0.110898,0.805561,-0.752014,-0.416286,-0.511058
-0.427469,0.450983,-0.515352,-0.183777,0.456859,-0.870348
0.091588,-0.114369,0.294152,0.614707,-0.720667,-0.320584
-0.552724,-0.421605,0.204404,-0.073631,-0.884523,0.460648
0.328780,-0.245340,0.777916,0.939819,-0.146117,0.308852
-0.487366,-0.168397,-0.023119,0.504090,-0.691834,0.516971
-0.053751,0.269812,0.783656,0.890085,0.362267,-0.276607
-0.188156,0.308164,0.433714,-0.516827,-0.661753,0.543114
-0.066794,0.340713,-0.397864,-0.100019,-0.109683,0.988922
-0.132494,0.427349,-0.412486,0.809241,0.549814,-0.206962
0.528822,0.077034,-0.950054,-0.055084,0.250848,0.966458
0.739448,0.287821,-0.967857,0.163520,0.161022,0.973310
0.135091,-0.179645,0.596725,0.926190,0.084759,0.367407
-0.597252,-0.105095,0.278833,0.060531,0.164683,0.984487
0.024996,0.538397,0.599228,-0.286557,0.536471,-0.793778
-0.237056,-0.822120,-0.087236,0.891554,0.247745,-0.379149
0.264514,0.423280,0.696937,-0.633489,0.556227,-0.537869
0.174225,0.213091,0.827843,0.685956,0.726401,-0.042492
0.387994,0.572681,-0.973503,-0.431757,0.023193,-0.901692
-0.214042,0.120950,-0.520263,-0.393153,-0.096936,0.914349
0.948165,0.260538,0.563322,0.145730,0.362591,0.920484
0.054981,-0.054776,0.070581,-0.176886,0.917422,0.356439
-0.463322,-0.561252,-0.609033,-0.514376,0.139140,0.846202
0.549106,0.304035,0.728911,0.933609,-0.307198,0.184401
-0.251875,0.104137,0.703373,0.878671,-0.240873,0.412211
-0.059624,0.690669,0.815328,0.921904,0.249711,0.296205
-0.273389,-0.309540,0.386667,-0.146461,-0.967451,-0.206370
0.014342,-0.596494,0.830195,0.786393,0.303275,0.538154
0.358285,0.151165,0.323265,-0.107435,0.714876,-0.690949
-0.635977,0.307327,-0.527960,0.063134,-0.389753,0.918753
0.157017,0.300266,0.738960,0.925591,-0.321727,0.199431
-0.453009,0.536483,-0.474646,0.285062,0.342914,-0.895070
-0.130651,0.448889,-0.438890,0.564398,0.532996,-0.630373
0.345379,0.323960,-0.496476,-0.352554,0.134160,0.926125
-0.563721,-0.470548,0.213230,0.134872,0.990849,0.005286
0.300030,0.049989,0.821482,0.995350,0.074994,0.060457
-0.090696,-0.260358,0.651960,-0.326965,-0.425999,-0.843575
-0.526158,-0.174500,-0.254952,0.265913,0.171111,0.948689
0.084960,-0.000209,0.218405,0.998093,0.049682,-0.036643
0.061467,-0.554792,-0.532176,-0.150026,0.115502,0.981912
-0.193345,-0.544619,-0.112378,0.796932,-0.399491,0.453107
0.255360,0.216023,0.808779,-0.747417,0.659840,-0.077324
0.101284,-0.704431,0.805937,-0.104016,-0.766846,0.633347
0.135570,-0.402878,0.646897,0.885807,0.117709,-0.448878
0.038519,0.509379,0.798993,0.822176,-0.145878,0.550224
-0.126895,-0.315583,0.494500,-0.683328,-0.628673,-0.371260
0.156880,0.408263,-0.508934,-0.362309,0.822243,0.438917
-0.064743,-0.296378,-0.549546,-0.053623,0.487151,0.871670
-0.566589,-0.466061,-0.066064,0.593271,-0.369166,0.715364
-0.160702,-0.088641,0.885636,0.861306,-0.001013,0.508086
0.127988,0.304096,-0.442334,-0.546031,-0.546107,-0.635309
-0.077653,-0.029049,0.262799,-0.751218,-0.146952,0.643488
0.075811,0.560296,-0.622357,0.840854,-0.511132,-0.178068
0.197310,-0.109522,0.814143,0.564030,0.731123,-0.383836
-0.027660,-0.000329,0.865801,0.921091,-0.344231,0.181921
-0.244981,0.177910,0.019525,0.681285,0.729400,-0.061857
0.157221,-0.213510,0.572110,0.963757,0.127777,0.234192
0.168831,-0.269333,0.431776,-0.717204,0.696763,0.011839
0.263010,0.065486,-0.352849,-0.020838,0.979859,0.198602
-0.180986,0.112155,0.944314,0.494207,0.679695,0.542010
0.555321,0.621862,0.749988,-0.280664,0.533798,-0.797676
0.576014,0.623717,-0.986808,0.124796,-0.216371,-0.968302
0.046372,-0.177132,0.344700,-0.340912,0.915811,0.212295
-0.206118,0.017561,0.051084,-0.761795,-0.068936,0.644139
-0.079291,0.334849,0.837064,0.867558,-0.107674,0.485540
0.268133,0.173423,0.488403,0.307230,0.904461,-0.295904
0.318059,0.171388,0.508520,0.841838,-0.531788,0.092247
-0.020419,0.000150,0.587429,0.958404,0.279555,0.057540
0.157426,0.028749,0.709885,0.591694,0.804935,0.044486
-0.053338,0.033595,0.851216,0.991194,-0.078603,0.106568
0.457724,0.639753,0.429217,-0.782279,0.310756,-0.539880
-0.063788,0.236725,-0.472632,-0.645318,-0.655082,0.392979
0.078954,0.497831,0.782301,0.891475,-0.385108,0.238670
0.114603,0.611452,-0.636396,0.753830,-0.637018,-0.161081
0.228861,0.254913,0.552030,0.309086,-0.943382,0.120404
-0.141918,0.105155,-0.531800,0.089394,0.060115,0.994181
-0.435802,-0.141951,-0.260315,-0.180566,-0.276903,-0.943780
-0.131606,-0.142968,0.737869,0.082170,-0.909082,0.408434
0.048832,-0.164209,0.332167,-0.035201,-0.981500,-0.188198
-0.098208,-0.265504,-0.550506,-0.182427,-0.184810,-0.965694
-0.074101,0.076914,0.819224,-0.343588,0.727361,-0.594048
-0.777077,0.359619,-0.629941,-0.106686,0.600099,0.792780
-0.188906,-0.515900,0.630788,-0.518333,-0.806688,-0.283876
0.352891,0.237981,0.723058,-0.050909,0.860347,0.507160
0.398582,0.249648,0.856429,-0.261357,0.855554,-0.446899
-0.556755,-0.445180,-0.618744,-0.182006,-0.051785,0.981933
-0.189660,0.655488,0.389960,0.839109,0.540709,0.059418
0.015301,-0.668591,0.558974,0.259511,0.488027,0.833357
0.206393,-0.217399,0.158786,0.952301,0.234592,0.195166
0.089471,-0.682233,0.562663,-0.106029,-0.949160,-0.296399
-0.309384,-0.088103,0.047565,0.755919,-0.552553,-0.351101
-0.347492,-0.064589,0.933267,0.750665,-0.075460,0.656360
0.188022,-0.311336,0.206286,0.093473,0.689591,0.718141
0.140418,0.021151,0.705274,0.559363,0.816915,-0.140581
0.085644,0.589792,-0.654726,0.895655,-0.424498,0.132677
-0.085302,-0.209980,0.694622,0.277951,-0.760539,0.586791
0.174500,0.125139,0.365251,-0.062619,-0.989013,0.133910
-0.283498,-0.533909,0.694942,0.579316,-0.784136,-0.222540
-0.661726,-0.580698,0.100786,0.511981,0.856956,0.059169
0.002324,0.190953,0.793667,0.940089,-0.274668,-0.201964
0.427332,0.506148,-0.976006,0.027534,0.128876,0.991278
0.101968,-0.730098,0.804074,-0.128539,0.655033,-0.744587
0.450350,0.547432,-0.973051,-0.056170,0.229486,0.971690
0.241838,-0.637060,0.293267,0.109698,0.826953,0.551466
0.045076,-0.626170,0.302319,0.445581,0.147541,0.883000
-0.390244,-0.424238,0.262724,0.185689,-0.973093,-0.136419
-0.068161,-0.161815,-0.128638,0.744804,0.566908,0.351970
-0.006351,0.120053,0.872049,-0.477882,0.583193,-0.656898
-0.599645,-0.225476,-0.243322,-0.417552,-0.044441,-0.907566
0.106816,0.209861,0.446173,-0.560258,-0.827858,0.027612
0.483882,-0.262871,0.419299,-0.202625,0.933011,-0.297378
0.075877,-0.022048,0.209221,0.880596,0.364630,0.302647
0.039611,0.177731,0.414745,-0.095161,0.900059,-0.425250
-0.506283,-0.346576,0.723491,-0.313437,0.948943,-0.035546
0.781179,0.541748,-0.973427,0.064542,0.145158,0.987301
-0.242112,0.435067,0.364498,0.309182,0.032860,-0.950435
0.195809,0.301044,0.735178,0.838523,-0.511614,0.187431
0.711173,0.551201,0.602559,0.678186,0.619657,-0.395081
0.032646,-0.434290,0.785029,-0.027172,-0.764706,0.643806
-0.375221,0.465163,-0.458142,-0.446596,-0.180070,0.876428
-0.187543,0.594579,0.617445,-0.679238,-0.401781,0.614173
-0.735350,-0.185748,0.152049,0.658895,-0.133737,0.740251
-0.780699,-0.093607,0.161590,0.593991,-0.174662,0.785282
0.461551,-0.029707,0.478805,0.908503,0.114701,0.401829
0.216364,0.018697,0.016100,0.755921,-0.341685,-0.558421
0.654490,0.111317,0.567838,0.057146,-0.164805,0.984669
0.113852,0.446555,0.769824,0.733425,0.609227,0.301546
-0.129559,0.592485,0.351795,0.897512,0.439288,-0.038694
0.168831,0.349987,0.870016,0.970843,0.078285,-0.226573
0.266632,0.119036,-0.874928,-0.389708,-0.917679,0.077414
-0.113577,0.053400,0.746657,-0.514076,0.687003,0.513569
0.038932,-0.854489,0.345001,-0.239518,-0.637746,-0.732060
0.542074,0.366979,0.532872,0.937014,0.185915,-0.295704
0.633181,0.659915,-0.979205,-0.090761,0.192283,0.977133
0.587419,0.437999,0.587128,-0.512218,0.783687,0.351379
0.325433,0.273342,0.885542,-0.272169,0.836727,0.475197
-0.562149,-0.474437,-0.065048,0.503839,-0.313610,0.804857
-0.716225,-0.229067,-0.229301,0.326618,-0.071554,0.942444
-0.208439,0.574656,0.646201,0.273778,-0.137774,0.951874
-0.409165,0.386185,0.354110,-0.356609,-0.153055,0.921631
-0.349814,-0.510874,0.642305,-0.319801,0.745256,-0.585081
0.184196,0.062374,0.035032,0.231837,-0.967949,0.096571
-0.224355,0.049211,0.884545,0.776010,-0.317281,0.545106
-0.048148,0.299609,0.822574,0.901429,-0.022675,0.432334
-0.361969,-0.004159,0.572769,0.857160,-0.154046,-0.491474
-0.029777,0.541389,-0.464728,0.383603,0.459784,0.800904
-0.182966,-0.357107,-0.548567,0.031839,-0.000540,0.999493
0.778582,0.474915,0.346883,-0.278962,-0.068340,-0.957867
0.616719,0.871900,-0.985566,-0.243972,0.191771,-0.950632
-0.255769,-0.206150,0.804902,0.262746,-0.746680,-0.611092
0.582708,0.470548,0.568948,0.858341,-0.358327,-0.367222
0.502323,0.497772,0.661576,0.246394,-0.944342,-0.217963
0.501231,0.505071,0.714627,-0.345806,-0.384735,0.855802
0.122389,0.015227,0.055319,-0.546884,0.832164,0.091767
-0.165004,0.332037,-0.220532,-0.126850,-0.181751,0.975129
0.013250,-0.206509,0.045363,0.823248,0.039140,-0.566331
0.512156,0.454273,0.697125,0.886812,-0.442091,0.134613
-0.128533,-0.261376,-0.597403,-0.609953,0.465738,0.641128
-0.126824,-0.092231,0.910195,-0.368894,0.308935,-0.876628
0.107704,-0.092709,-0.230148,-0.277425,0.873986,0.398979
0.719848,0.563527,0.685288,0.482661,-0.676556,-0.556157
0.290192,-0.222126,0.387175,0.480327,-0.841894,0.245968
0.708238,0.619828,-0.984757,0.082259,0.196979,0.976951
0.838683,0.672361,-0.989988,0.103243,0.190967,0.976152
0.015984,0.052503,-0.699045,0.216352,-0.970248,0.108678
0.688705,0.199629,0.573766,-0.387452,-0.000530,0.921890
0.154487,-0.007509,0.429951,-0.191707,0.880167,-0.434228
0.308975,0.529961,-0.494669,-0.283797,-0.311310,0.906943
0.333495,0.137105,-0.865161,-0.372477,-0.924946,0.075739
-0.262943,-0.596015,-0.566126,0.788263,-0.183161,-0.587446
-0.357943,0.423999,0.450106,0.880076,-0.422560,-0.216584
-0.311843,0.731534,-0.401628,-0.041675,0.228818,0.972577
-0.052654,0.408443,0.685890,-0.448998,-0.890978,0.067522
0.115011,0.479164,-0.692289,0.275398,-0.813382,0.512411
0.582775,0.663984,-0.990647,0.007024,0.022567,0.999721
