0.369022,0.858098,-0.975244,0.110952,-0.014888,0.993714
-0.011935,0.522088,0.764703,-0.395870,-0.889733,-0.227291
-0.203010,0.763600,0.144703,0.839244,-0.239768,0.488038
0.168484,0.346157,-0.952728,-0.000571,0.207784,0.978175
0.176098,0.842968,0.700385,0.254104,0.964007,-0.078243
0.426116,0.499884,-0.475674,0.465731,0.731953,0.497331
-0.128300,0.731017,0.004468,0.012976,-0.998258,0.057554
0.576848,0.419948,0.033727,0.746276,0.650612,-0.140624
-0.131071,0.256823,-0.942520,0.144939,-0.016542,0.989302
0.138578,0.463376,0.265298,0.433510,0.614224,0.659392
-0.134390,0.385299,0.701635,0.180391,-0.272008,-0.945236
-0.180498,-0.455320,-0.921088,0.179217,0.055752,0.982229
0.115141,0.145955,-0.946551,0.144289,-0.002663,0.989532
0.670157,0.465028,0.457756,-0.096867,0.911598,0.399508
-0.385716,0.326224,0.623148,-0.134877,-0.969847,-0.202989
-0.162829,-0.233637,-0.922291,-0.077680,-0.134714,0.987835
-0.296213,0.072320,-0.047095,0.874612,-0.231586,0.425936
-0.292297,0.843795,0.660305,-0.356678,0.759541,-0.543946
0.488596,0.888875,-0.985406,-0.164963,-0.068690,-0.983905
0.315735,0.610028,0.001898,0.814787,-0.527453,-0.240658
0.560317,0.256255,0.156562,0.062753,-0.331702,-0.941295
-0.153964,0.273037,-0.943368,0.141611,0.139945,0.979980
-0.117859,0.341562,-0.948838,0.053530,0.060641,0.996723
0.502625,0.838631,-0.982812,-0.060862,0.085277,0.994497
0.469128,0.559526,0.259970,0.726320,0.595193,-0.343808
0.160599,0.484805,0.680322,-0.582752,0.500473,0.640255
0.690601,0.515582,0.430596,0.933162,0.329065,-0.144652
-0.345259,-0.490589,-0.921135,0.154063,0.129224,0.979574
0.050924,0.354109,0.510710,-0.218575,-0.549041,0.806709
-0.100405,0.276084,-0.946622,0.131327,0.118150,0.984273
0.113511,0.576102,-0.963574,0.138019,0.022965,0.990163
0.553955,0.330820,0.383324,-0.519205,0.686278,0.509361
0.233354,0.178642,0.397565,-0.260524,-0.957243,-0.125749
-0.375112,0.702512,0.734289,-0.804043,0.408711,-0.431822
-0.371086,0.310837,-0.025451,-0.595781,-0.008933,-0.803097
0.337214,0.654902,-0.968289,0.012305,0.084130,0.996379
-0.340908,0.406935,0.329097,-0.097284,0.907561,0.408495
0.070771,0.366967,-0.268033,-0.690374,-0.223310,-0.688125
0.682175,0.685678,0.524927,-0.229940,-0.700327,0.675773
-0.500448,0.234773,0.030285,0.643454,-0.284105,0.710811
-0.049235,-0.104593,-0.924530,0.066119,0.207206,0.976061
-0.321987,-0.318995,-0.928255,0.167506,-0.121210,0.978392
0.270983,0.360099,-0.953884,0.192756,0.034311,0.980647
-0.070771,-0.906483,0.803959,-0.118908,-0.351517,-0.928599
0.230583,0.667037,-0.714956,0.509356,-0.826995,0.237983
-0.526332,0.508353,0.509885,0.374510,-0.773038,0.512010
-0.114434,0.431721,-0.081635,0.286113,0.102266,0.952723
-0.107474,0.461465,-0.950936,0.095065,0.071710,0.992885
-0.129929,0.356639,0.712598,-0.126378,0.665832,0.735321
-0.187896,-0.709535,0.782598,-0.339826,0.001333,0.940487
-0.276529,0.702822,0.541996,-0.140942,0.980718,0.135382
-0.287674,0.150861,-0.937168,-0.237711,-0.267303,-0.933832
-0.199476,-0.188970,-0.919343,0.034933,0.018975,0.999210
0.472935,0.755131,0.519645,0.067883,-0.997177,-0.032101
0.210733,0.736955,0.304790,0.965248,-0.077184,-0.249676
-0.525950,0.783481,0.563711,-0.241562,0.902421,0.356768
-0.334058,0.355452,0.722288,-0.444044,0.882619,0.154301
-0.321387,0.345279,0.626095,-0.532296,0.832758,-0.152233
0.123952,0.665694,-0.189593,-0.480489,-0.862259,-0.160124
-0.116120,0.831453,0.723302,0.841468,-0.121917,-0.526373
0.448847,0.641683,0.006943,-0.065792,0.197644,0.978063
0.325359,0.593401,0.160004,0.258000,-0.949747,0.177247
0.370545,0.712995,0.266147,0.892610,0.387328,-0.230702
-0.600445,0.532364,0.559561,-0.600279,0.306809,-0.738602
-0.114271,0.180656,-0.940115,-0.048451,0.069486,-0.996406
0.313070,0.158452,0.452239,-0.364927,0.872393,0.325206
0.104321,0.889443,-0.978946,0.104255,0.121041,0.987158
-0.452706,-0.136299,-0.926700,0.179414,-0.097323,-0.978948
0.773144,0.236064,0.192870,-0.307464,-0.709057,-0.634590
-0.259563,0.059668,-0.929128,-0.075786,0.196899,0.977490
-0.129332,0.083009,0.874807,0.256307,0.839803,0.478578
-0.151953,0.301129,0.728513,-0.377435,-0.676642,-0.632217
0.038200,0.419896,0.255373,0.955846,0.035030,-0.291772
-0.552703,0.734889,0.980691,0.244126,0.087835,0.965758
0.459666,0.689655,0.009490,-0.060269,0.980806,-0.185440
0.761017,0.691565,0.205083,0.046382,-0.312819,0.948680
0.123298,0.259043,-0.951856,0.100137,0.201587,0.974338
0.653301,0.604554,-0.061925,0.318161,0.659744,-0.680817
0.159676,0.558183,0.766754,0.766464,-0.638074,0.073450
0.203774,0.777595,0.763383,-0.144578,-0.988279,-0.049005
0.317364,0.586016,0.570147,0.911231,0.060957,0.407361
0.232810,0.479848,0.690578,-0.387742,0.471308,0.792165
0.568637,0.261935,0.397258,0.412881,-0.180611,-0.892698
0.442594,0.563916,0.247852,-0.700148,-0.642527,0.311371
-0.101384,0.166197,0.508588,0.222196,0.938642,0.263782
-0.054240,0.727144,0.715286,0.546394,-0.412337,0.728994
-0.631602,0.686298,0.303517,0.441166,-0.801609,-0.403479
0.101766,0.816168,-0.983779,0.049822,0.139062,0.989030
0.370057,0.128295,0.480296,-0.410449,0.446469,0.795108
-0.244283,-0.052697,-0.926652,0.143956,0.160600,0.976465
-0.266958,-0.524929,-0.918778,-0.052675,-0.019833,0.998415
0.841004,0.609874,-0.074868,0.143941,-0.457489,0.877488
-0.041950,0.697297,0.670914,0.952954,-0.302102,-0.024747
0.639760,0.078154,0.200179,0.198972,0.371308,0.906940
0.114218,0.391908,-0.953388,0.052085,0.092083,0.994388
0.177512,0.537218,0.029530,0.930454,0.171008,0.324054
0.141024,0.296791,0.740443,0.018685,0.703106,0.710840
-0.156195,0.524980,0.779887,-0.436807,0.890061,-0.130347
-0.509147,0.807751,0.314173,-0.409885,0.624936,-0.664416
-0.054512,-0.074178,-0.928114,0.014836,0.058953,0.998151
0.547214,0.964060,0.108300,0.728382,-0.044667,-0.683713
-0.131180,-0.217526,-0.913544,0.211945,0.229612,-0.949925
-0.102579,0.209213,0.442714,0.899377,0.435416,0.039151
-0.471302,-0.173065,-0.926558,-0.119280,0.024494,0.992559
-0.115356,0.120549,0.888764,0.256307,0.839803,0.478578
0.208178,0.350185,0.719506,0.633069,-0.128125,-0.763419
-0.273267,-0.118587,-0.926110,0.037503,0.116292,0.992507
0.106877,0.891146,-0.978592,0.100167,0.132866,0.986059
0.670101,0.569544,-0.086256,-0.020451,-0.214483,0.976514
0.268916,0.513413,-0.244598,-0.432729,0.054032,0.899903
-0.040971,0.600010,0.682939,0.762181,0.628051,-0.156946
0.891358,0.607911,0.554351,0.925140,0.349215,0.148876
-0.004268,0.016550,-0.932900,-0.141783,-0.149668,-0.978518
0.130477,0.489660,-0.957161,-0.094069,0.102287,0.990297
0.404530,0.656606,-0.009490,0.521657,0.612580,-0.593818
-0.562437,0.682425,0.589574,-0.450049,0.829500,0.330733
0.393110,0.738555,0.554539,0.793085,-0.434588,0.426789
-0.422691,0.643593,0.750227,0.885085,-0.262543,0.384312
-0.098012,0.327360,-0.196666,-0.665697,-0.201986,-0.718366
-0.036023,0.511554,0.843945,0.339991,0.936767,-0.082905
-0.056304,0.607808,0.725848,0.748460,0.613027,0.252993
-0.432860,0.379051,0.373115,-0.035368,0.930901,0.363556
-0.111334,0.205546,0.435358,-0.001498,0.807960,0.589236
-0.441993,-0.246031,-0.923163,0.128961,-0.031349,-0.991154
-0.102741,0.317755,0.602235,-0.622396,-0.219190,-0.751385
-0.324324,-0.116521,-0.927218,0.004140,0.085716,0.996311
0.216445,0.653146,-0.831756,0.275545,0.953679,0.120713
0.236292,0.815393,-0.978333,0.039427,0.049556,0.997993
0.207962,0.873641,0.323463,0.284589,-0.948301,0.140479
0.774993,0.237614,0.182072,0.494093,0.699634,0.516124
-0.024062,0.494926,-0.096276,0.229003,0.372075,0.899510
0.198553,0.582350,0.036509,0.881249,-0.131457,0.454004
-0.390010,0.442049,0.434156,-0.640864,0.304868,-0.704520
-0.172942,-0.135989,-0.920546,-0.105837,-0.120868,0.987010
-0.595659,0.420309,0.549564,0.789981,0.162965,0.591078
0.336451,0.526942,0.524125,0.784017,-0.602450,0.149572
-0.620945,0.712530,0.968996,0.330934,0.417710,0.846169
0.360811,0.842813,-0.975739,0.034241,0.015946,0.999286
0.519209,0.835636,0.588537,-0.408202,-0.772611,0.486255
0.662925,0.299166,0.445873,0.903370,-0.290747,-0.315261
0.363314,0.802690,0.217909,0.428469,0.708813,0.560356
-0.172669,0.488420,0.615745,-0.022719,0.212825,0.976826
-0.111281,0.652888,0.744262,-0.073724,-0.736102,0.672844
-0.318018,-0.333815,0.669311,0.190488,-0.322891,0.927068
-0.509040,-0.268699,-0.923964,0.081724,-0.076567,0.993710
-0.498055,0.525238,0.237549,0.057811,0.483605,0.873375
0.164133,0.621337,-0.170260,0.876069,0.386376,0.288472
-0.188819,-0.405386,-0.923092,-0.060507,0.022384,0.997917
0.195018,0.625829,-0.336147,-0.576525,0.806503,-0.131040
-0.045647,-0.744855,0.774181,-0.075291,0.459934,0.884755
0.344552,0.771810,0.566540,-0.811707,-0.106354,-0.574301
-0.817351,0.601198,0.251978,-0.343335,-0.810870,0.473932
0.201381,0.500658,0.724080,0.249619,0.624816,0.739794
0.718496,0.712168,0.536621,-0.087486,-0.045681,0.995118
0.474511,0.517131,0.491424,0.760085,0.181423,0.623984
-0.179792,0.837391,0.649507,-0.443198,0.612247,0.654774
0.179576,0.627327,-0.180540,0.558034,0.628957,0.541305
-0.252494,-0.542020,-0.918471,-0.118256,0.014673,0.992875
0.175769,0.618187,0.679638,-0.079381,-0.943855,0.320681
-0.025910,0.389585,-0.953082,0.032373,-0.179742,0.983181
-0.062125,0.845912,0.636021,0.052581,-0.232914,0.971075
0.634758,0.345125,0.543081,0.363252,0.902880,-0.229902
-0.393435,0.583590,0.620790,0.124152,-0.319619,0.939377
0.173051,0.269680,0.407773,-0.017632,0.884284,0.466617
-0.202034,0.112288,0.587099,0.521503,0.533048,0.666254
0.556347,0.791846,0.540912,-0.109398,-0.863785,0.491840
-0.242325,0.589527,0.687017,0.666174,-0.443919,0.599290
0.454612,0.546564,0.496564,0.784264,0.306114,0.539651
-0.384737,-0.155043,-0.926983,-0.148265,0.033984,0.988364
0.456026,0.765149,0.106815,-0.358944,0.887489,0.289003
-0.059567,-0.247631,-0.920287,0.268258,-0.197510,0.942883
-0.145209,0.102424,0.558689,-0.397764,-0.693421,-0.600792
-0.592071,0.692133,0.490764,-0.113696,0.954032,0.277302
-0.019601,0.517802,-0.957797,-0.042606,0.095983,0.994471
0.564505,0.904727,-0.988777,-0.008258,0.211488,0.977346
0.667110,0.560559,0.163706,-0.605057,0.383547,-0.697709
-0.312797,-0.464614,-0.921465,-0.017454,0.064475,0.997767
0.155650,0.655573,-0.525681,0.990558,-0.100380,0.093374
-0.526710,0.337946,0.404543,-0.011634,0.945055,0.326705
0.153749,0.836669,0.751594,-0.000584,0.986729,0.162372
0.429598,0.784978,0.506065,0.966330,-0.209684,0.149127
0.644327,0.614108,-0.070106,0.227957,0.846581,-0.480974
0.776679,0.458676,0.587358,0.927708,-0.111697,-0.356205
-0.208612,0.513671,0.509059,-0.875770,0.310015,-0.370024
-0.273429,0.801503,0.662097,0.206468,-0.615513,0.760602
-0.279028,0.652940,0.176107,-0.605855,0.714372,-0.350162
0.170987,0.514446,-0.958434,0.033629,0.069899,0.996987
-0.468312,0.420568,0.714602,0.755612,-0.000117,0.655019
0.388434,0.601353,-0.967817,-0.020356,0.263888,0.964339
-0.322150,0.601043,0.102783,-0.256197,0.910696,0.324030
0.645090,0.461930,0.518584,-0.647473,-0.410943,-0.641797
0.657486,0.424285,0.512195,0.928698,-0.177263,0.325727
0.559666,0.817201,0.579201,0.420184,0.759738,-0.496229
0.040865,0.402185,0.257117,0.961076,-0.232307,-0.149555
0.227646,0.212879,0.437739,0.518217,0.581768,0.626895
-0.186101,0.605174,0.527308,0.807215,-0.467645,0.360155
-0.147167,0.135680,0.871459,0.256307,0.839803,0.478578
-0.388052,0.683457,0.618362,0.480101,0.009549,-0.877161
0.176370,0.660066,0.614613,0.112982,-0.355832,0.927695
0.248906,0.137074,0.485294,0.243410,0.699050,0.672370
0.449063,0.609666,0.492508,-0.727538,-0.405134,-0.553675
0.959275,0.391960,-0.088896,0.407596,0.717076,0.565391
-0.059676,0.128605,0.532094,-0.019837,0.971367,0.236754
-0.155488,0.669929,-0.092645,-0.063700,-0.991065,0.117185
-0.425084,0.591335,0.124710,-0.000541,0.629998,0.776597
-0.226395,0.837753,0.662875,0.219273,0.539484,0.812943
-0.285118,-0.488988,0.200981,-0.233774,-0.374522,0.897264
0.146842,0.465183,0.697273,0.035306,0.985226,0.167582
-0.395178,0.715990,-0.041813,0.600036,-0.796483,-0.074643
-0.201434,0.700085,0.677233,0.946015,0.309006,0.097828
-0.610560,0.668844,0.182072,-0.166814,0.963213,0.210699
0.598978,0.820609,0.586132,-0.246453,-0.875481,0.415684
0.666948,0.911957,0.131429,0.229277,-0.399603,0.887552
0.009216,-0.117451,-0.925615,0.062823,0.286503,0.956018
0.060549,0.386538,0.532400,0.875409,0.482550,-0.028355
0.540633,0.615037,-0.086232,-0.002442,0.752981,0.658038
-0.488650,0.614056,0.030685,-0.643734,0.231844,-0.729284
0.296104,0.761432,-0.975669,-0.082643,0.077979,0.993524
0.561840,0.705662,0.502623,0.387713,0.867285,-0.312242
-0.275115,0.132684,-0.930896,-0.505145,-0.358018,-0.785272
-0.347054,0.577961,0.629018,-0.399620,0.420152,-0.814725
-0.030258,0.359480,-0.951337,0.068566,0.185397,0.980269
0.669450,0.345692,0.508706,0.989620,-0.112812,0.089025
0.161362,0.587875,0.741150,0.580030,0.765677,0.278035
0.654658,0.738917,0.546523,-0.395003,0.689132,-0.607511
-0.555693,0.494410,0.530797,0.875035,-0.057223,0.480665
0.073924,0.546358,0.383866,0.985160,0.168944,0.030291
-0.107637,0.608376,0.735067,-0.615488,-0.759916,-0.209051
0.240261,0.072061,0.520919,0.081743,0.554752,0.827991
0.057230,0.115799,-0.942048,0.075893,0.183292,0.980125
-0.178271,0.178953,-0.942661,0.099141,0.223650,0.969614
0.645306,0.801192,0.581087,-0.216517,-0.854043,0.473003
0.186482,0.507888,0.133645,-0.540515,0.628018,0.559855
0.183492,0.638120,-0.614448,0.628346,0.753101,-0.194986
0.877817,0.619736,-0.076589,0.141166,-0.446816,0.883418
0.393545,0.585087,0.212958,0.851488,0.360807,-0.380508
-0.171146,0.589941,0.767320,-0.523336,0.816742,-0.243006
-0.472988,0.775167,0.913732,-0.452168,0.889425,-0.066836
-0.187840,-0.651132,0.775643,0.325255,-0.037676,-0.944876
-0.124981,0.621182,0.713353,0.206073,0.976789,0.058453
0.568255,0.759418,0.536739,0.516755,0.737285,-0.435172
0.258259,0.894555,-0.980408,-0.053167,0.070183,0.996116
-0.195071,0.062199,-0.927501,-0.015106,0.192458,0.981189
0.005141,0.282900,0.433378,0.555272,0.831631,-0.007945
-0.281856,-0.263278,-0.927643,-0.011431,-0.040346,0.999120
0.755418,0.290904,0.421401,0.271648,0.844153,0.462183
0.669832,0.390772,0.515472,0.698373,0.399092,-0.594138
-0.269025,0.227079,-0.939572,-0.058042,0.130442,0.989756
0.083821,0.125352,-0.943533,0.169250,0.193943,0.966302
0.533726,0.518112,0.287296,0.802609,0.470640,-0.366494
-0.161359,-0.110841,-0.918565,-0.021009,-0.012980,0.999695
-0.023461,0.350494,-0.951738,0.005512,0.226490,0.973998
-0.007530,0.605587,0.676172,-0.495666,-0.839543,0.222449
-0.125200,0.674885,-0.022528,-0.168616,-0.984987,0.037000
0.162504,0.527820,0.040210,0.904259,0.372103,0.209416
0.707295,0.554311,0.537022,0.725237,-0.448148,-0.522680
0.675540,0.349100,0.140459,-0.078371,-0.782010,-0.618319
-0.652318,0.712271,0.500454,0.692538,0.700256,-0.173298
0.223348,0.639513,-0.416709,0.964249,0.262581,-0.035709
-0.078982,0.297049,0.360242,-0.364424,0.903090,0.227207
-0.232538,-0.331181,-0.924460,-0.061231,0.009338,0.998080
0.506213,0.661047,0.010952,-0.154889,-0.371782,-0.915307
-0.068269,0.503447,-0.093753,0.229003,0.372075,0.899510
-0.479513,0.675712,0.154912,0.809159,0.515117,-0.282695
-0.206382,0.670703,0.699914,-0.550693,0.831324,0.075081
0.396864,0.417934,0.511912,-0.678659,0.202093,0.706102
0.410348,0.386848,0.509649,0.790150,-0.104599,-0.603922
-0.031619,0.076037,-0.939077,-0.066107,0.201207,0.977315
0.515728,0.448762,0.492626,0.043808,0.799775,0.598700
0.072620,0.603264,0.743555,-0.737805,0.658012,-0.150545
0.392513,0.668792,0.637011,0.759504,0.271985,-0.590913
-0.220520,-0.553897,0.646064,-0.097122,0.302061,0.948328
0.851173,0.624229,-0.076259,0.099561,-0.441793,0.891575
0.637261,0.256099,0.391010,0.970298,0.219285,-0.102156
-0.345913,-0.033590,-0.925615,-0.103888,-0.003148,0.994584
-0.135641,0.706024,0.800729,0.925000,-0.284753,0.251576
0.216661,0.564019,0.582926,-0.713688,0.511243,-0.478832
0.682447,0.429501,0.550225,0.198931,0.777433,-0.596678
0.197793,0.623661,-0.526695,-0.093893,-0.901835,0.421756
0.326229,0.659291,-0.001096,-0.858801,0.392432,0.329329
0.305403,0.403113,0.213854,-0.442892,0.685849,0.577458
-0.018894,-0.146214,-0.915005,-0.450556,0.064973,-0.890381
-0.213670,-0.399396,-0.922809,0.047349,0.009425,-0.998834
0.105626,0.683716,-0.203244,-0.631246,-0.688174,-0.357694
0.656507,0.541917,-0.215315,0.090210,0.926566,0.365155
0.162666,0.055744,0.434179,0.878398,0.429328,0.209986
-0.049344,0.906483,0.802568,0.132172,0.850478,-0.509135
-0.263370,0.558596,0.134188,-0.523284,0.720291,-0.455362
0.021997,0.186492,-0.948414,-0.079427,0.063428,0.994821
-0.229601,-0.336758,-0.929293,-0.103528,0.034865,0.994015
0.131018,0.703545,0.624704,-0.198059,-0.736685,0.646582
0.009054,0.282436,0.428875,0.574436,0.815510,0.070476
0.670539,0.332834,0.163965,0.259672,-0.801155,0.539186
0.125094,0.098242,0.497412,0.389431,0.553880,0.735907
-0.080286,-0.284088,-0.928562,0.081474,-0.234945,0.968588
-0.060167,0.515530,-0.952328,0.152615,0.070369,0.985777
-0.025147,0.489660,-0.958835,-0.128043,-0.022310,-0.991518
-0.927951,0.178901,0.974231,0.019202,0.539356,0.841859
-0.132432,-0.125042,-0.920051,0.010743,-0.054992,0.998429
-0.713548,0.544654,0.223237,0.306375,0.931767,-0.194796
0.711483,0.599494,0.533721,0.754573,0.471298,-0.456616
0.528071,0.764839,0.557793,-0.129923,-0.896283,0.424025
-0.119382,0.284914,-0.182237,-0.682317,-0.094336,-0.724944
0.417417,0.791485,0.440215,0.603223,0.686037,-0.406786
0.149889,0.725646,0.607658,0.563866,0.142222,0.813528
0.817407,0.545893,0.525280,-0.459777,-0.862385,-0.211890
0.117424,0.440190,-0.958057,0.053122,0.038142,0.997859
0.177130,0.553587,0.130746,0.749910,0.093500,-0.654899
0.103996,0.508869,-0.959518,-0.121505,0.135564,0.983290
0.145213,0.111100,0.474967,0.764753,0.609485,0.209000
-0.450204,0.475252,0.709085,0.924876,0.015511,0.379953
-0.099970,-0.225633,-0.915194,-0.018661,-0.229115,0.973221
-0.340257,0.715060,-0.061736,-0.093990,0.993487,0.064420
-0.411490,0.492706,0.662898,0.839871,-0.133988,0.525988
0.721543,0.320390,0.481215,-0.751280,-0.654377,0.085843
-0.042275,0.502363,-0.951667,-0.162375,0.042589,-0.985810
-0.203774,0.166972,-0.937592,0.045185,0.282635,0.958163
-0.140805,-0.507371,0.644225,-0.493020,0.734238,0.466717
-0.275822,-0.483979,0.625199,-0.636175,-0.480804,-0.603414
-0.055763,0.631200,0.703969,0.723856,-0.623664,0.295086
-0.431117,-0.130773,-0.928468,-0.080453,0.088958,0.992781
-0.493160,0.260799,0.471502,-0.038309,-0.256299,0.965838
0.176314,0.884330,-0.977531,0.033950,0.070152,0.996958
0.162882,0.569028,0.094932,0.110419,0.981738,-0.154916
-0.114978,0.371047,-0.950819,0.038000,0.307012,0.950947
0.163048,0.738452,0.587452,0.187857,0.201514,0.961302
-0.498762,-0.234412,-0.924035,-0.065496,-0.040601,0.997026
-0.343191,0.264671,-0.040941,0.486118,0.144758,0.861820
-0.302084,-0.225272,-0.921489,-0.011391,-0.084320,0.996374
0.171475,0.350494,-0.954779,0.003877,0.188036,0.982154
-0.148093,0.082234,-0.929930,0.004074,0.222520,0.974920
0.064409,0.512432,-0.957491,0.121184,0.070467,0.990126
0.167562,0.185459,-0.951290,0.060179,0.102436,0.992918
-0.190614,0.261005,-0.941435,-0.000431,0.008378,0.999965
0.129770,0.871060,-0.978875,0.061628,0.147114,0.987198
-0.155215,-0.462446,0.579483,-0.355721,-0.724234,-0.590718
0.395394,0.872350,-0.975527,0.160041,-0.136909,0.977570
0.286154,0.610803,0.411239,-0.457887,0.574262,0.678648
0.988417,0.332008,0.188909,0.327021,-0.422329,-0.845397
-0.424974,0.224652,0.457308,0.450773,0.416804,0.789353
0.838233,0.687485,0.513256,0.754461,0.620146,0.214959
0.292788,0.462239,0.731696,0.535323,-0.574150,-0.619500
0.380877,0.413131,0.313301,-0.656480,-0.290475,0.696174
0.873469,0.570422,0.557368,0.589495,0.180185,0.787419
0.415134,0.860009,0.117708,0.378474,-0.480478,0.791137
0.220195,0.392476,0.769466,-0.705836,-0.439062,0.555896
0.851392,0.633524,0.565408,0.089526,-0.297666,0.950463
0.200946,0.414010,0.691497,0.925443,-0.324741,-0.195187
0.539710,0.265033,0.567695,0.902289,-0.143130,-0.406679
-0.032216,0.495237,0.815747,0.456715,0.888576,-0.042930
0.126342,0.704010,-0.832156,-0.534937,-0.835626,-0.124790
0.395231,0.640237,0.012319,0.800211,0.438284,0.409353
0.159786,0.268493,-0.953907,0.102874,0.078649,0.991580
-0.083658,0.712065,0.735185,0.996864,-0.068745,0.039204
-0.426876,0.550592,0.160712,-0.703421,-0.587528,0.400011
-0.046952,-0.133408,-0.909936,-0.087882,0.377625,0.921779
-0.293983,0.670806,0.006920,-0.298364,0.954317,-0.016078
0.768305,0.698846,0.536951,-0.619462,0.333787,-0.710530
-0.254668,-0.201157,-0.921630,-0.083403,-0.006955,0.996492
0.013949,0.089360,0.586274,-0.210515,0.840944,0.498494
-0.581740,0.444889,0.096465,-0.837722,0.131991,-0.529906
-0.513770,0.409724,0.536031,-0.827438,0.513761,-0.226706
0.388218,0.606052,-0.233375,0.045623,0.700257,0.712431
-0.290339,0.662854,0.612750,0.252031,-0.564134,0.786278
-0.121718,0.557667,0.803511,-0.244363,0.724078,0.644979
0.313724,0.018306,0.502670,0.080810,-0.956447,-0.280499
0.196923,0.405128,0.262540,0.736391,0.399399,0.546085
-0.017809,0.599545,-0.961051,-0.027804,0.050939,0.998315
-0.012914,0.721515,-0.958481,-0.069183,0.245314,0.966972
-0.475271,0.422014,0.720190,0.803480,-0.087010,0.588939
0.214162,0.569337,0.164319,-0.758402,0.648358,0.066769
0.219326,0.533552,0.701541,-0.199018,0.879117,0.433066
0.072075,0.600734,0.139068,0.995393,-0.094156,-0.018115
0.037058,0.521521,0.742352,-0.078452,-0.991612,0.102720
-0.073380,-0.055382,-0.925804,0.140423,0.033886,0.989512
-0.252169,0.482430,0.024791,-0.062299,-0.266552,0.961805
-0.137108,0.598513,0.469710,-0.723492,0.342579,-0.599331
-0.156955,0.645711,0.680982,0.745589,0.233529,0.624148
0.429488,0.841057,0.507928,0.841639,0.100804,-0.530549
0.597621,0.659963,0.419750,0.872609,0.488347,-0.008410
-0.213670,0.586894,0.090995,0.018559,-0.984798,0.172707
0.989290,0.315638,0.183510,0.428989,-0.297400,-0.852949
0.243576,0.584932,-0.596223,0.940354,0.322940,-0.106978
0.536717,0.474943,0.481970,0.052458,0.734703,0.676357
0.591202,0.442875,0.493169,-0.256983,-0.924365,-0.281973
-0.357602,-0.281868,-0.923870,-0.167361,-0.048672,-0.984694
0.979934,0.291730,0.185208,0.535817,-0.415404,-0.735078
-0.589081,0.731172,0.915005,0.567517,-0.811742,0.137835
0.880701,0.562005,0.104339,0.452318,-0.816551,-0.358682
-0.270711,-0.099894,-0.925615,-0.209648,-0.308011,0.927996
0.473642,0.280834,0.543152,0.867909,0.054955,-0.493675
-0.163536,0.091890,-0.929175,-0.059086,0.196501,0.978722
0.190886,0.769074,0.604192,0.795880,-0.079991,0.600148
0.010687,0.393664,-0.953813,0.168247,-0.004175,-0.985736
-0.241837,-0.441688,0.618291,0.986962,0.012500,0.160468
0.091706,0.906432,0.760601,-0.317272,-0.932843,-0.170713
-0.077130,0.040407,-0.924955,0.348954,0.301822,0.887206
-0.597673,0.662493,0.987716,0.330934,0.417710,0.846169
0.635303,0.228680,0.168728,-0.454316,0.209291,0.865907
0.497023,0.697606,0.501138,0.084727,-0.857549,0.507376
0.670373,0.448297,0.542916,0.178137,0.890344,0.418993
-0.026073,0.387520,-0.949828,-0.027675,0.031762,0.999112
0.762540,0.788541,0.529288,-0.462524,-0.865091,0.194137
0.079526,0.403165,0.685768,0.456162,0.443561,0.771472
-0.254724,0.432031,0.594832,-0.533886,0.829714,0.162915
0.135259,0.564380,0.802780,0.148247,-0.952904,0.264570
-0.383485,-0.458470,0.662922,0.987380,0.157336,-0.018077
0.131074,0.363713,0.678907,-0.165338,0.814744,0.555748
0.378919,0.373680,0.487487,0.895051,0.124605,-0.428202
-0.913269,0.157265,0.959566,0.019202,0.539356,0.841859
0.194205,0.393148,0.703450,0.800141,-0.307150,-0.515202
0.168538,0.065142,0.516557,0.359349,0.685549,0.633160
0.234224,0.316000,-0.955982,0.044629,0.031116,0.998519
-0.329816,0.353748,0.765175,0.490123,0.852553,0.181474
-0.097086,0.338463,-0.949404,-0.184225,0.048896,-0.981667
-0.253689,-0.345692,-0.926511,0.021340,0.091602,0.995567
0.307633,0.020991,0.425645,-0.214232,0.861908,-0.459586
0.685543,0.548062,0.102265,0.307538,0.937621,0.162134
0.211334,0.656244,-0.815841,-0.657415,0.751829,0.050584
0.361790,0.699517,0.608365,0.993041,-0.028816,-0.114187
-0.032923,0.672252,0.040682,0.442652,0.408754,0.798110
-0.234984,0.365263,0.696260,0.050260,0.964735,0.258380
0.064027,0.398105,-0.952681,0.111647,0.147148,0.982793
0.555315,0.442875,0.296161,0.939656,0.341569,0.019434
0.219000,0.303194,-0.950607,0.080533,-0.064258,0.994679
-0.116229,-0.211329,-0.913874,-0.080573,-0.142031,0.986577
-0.562003,0.710361,0.546759,0.963115,-0.221872,-0.152259
0.049401,0.295139,-0.953035,0.017208,0.092542,0.995560
0.555206,0.543312,-0.473930,-0.323805,0.944109,-0.061712
-0.349988,-0.400996,-0.927454,-0.136064,-0.180917,-0.974041
-0.252222,0.691978,0.170472,-0.825628,0.431243,-0.363825
0.543679,0.832331,0.577031,-0.481164,-0.786946,0.386260
0.690873,0.941804,0.130934,-0.220769,0.273632,-0.936155
-0.143852,0.121428,-0.931957,0.138989,0.249178,0.958432
0.351134,0.311662,0.471502,0.871903,0.302294,-0.385231
0.059351,0.569389,-0.956406,0.042958,-0.056128,0.997499
0.225200,0.488576,0.026041,0.588731,0.210667,0.780394
-0.528887,-0.270352,-0.925379,0.076899,-0.029938,0.996589
0.076589,0.116160,-0.945655,0.199921,0.285742,0.937221
0.249125,0.838372,0.338057,0.998485,0.049328,-0.024367
-0.021941,-0.085436,-0.926417,-0.110234,-0.209643,-0.971544
0.606482,0.289200,0.408009,0.004173,-0.812324,0.583191
0.240696,0.562573,0.143807,-0.592809,0.544221,0.593634
-0.306163,0.092562,-0.035094,0.871239,-0.063836,0.486690
-0.204968,0.430586,0.626236,0.491481,-0.861767,0.125717
0.889725,0.269371,0.177097,-0.380450,0.434401,0.816427
0.045704,0.513723,-0.960344,-0.117171,-0.015848,-0.992985
0.647154,0.383078,0.443186,0.942513,-0.031504,0.332680
0.033905,0.125868,-0.943793,-0.084353,0.185782,0.978963
0.055654,0.882368,0.344163,-0.321978,0.946728,-0.005967
0.697617,0.351889,0.551734,-0.391451,0.918270,0.059545
-0.356570,0.435646,0.670466,0.633036,0.774092,-0.006844
0.424105,0.647001,-0.095451,0.264296,0.926117,0.269174
0.154021,0.259043,-0.954072,0.007854,0.011886,0.999899
0.101112,0.703958,0.609190,0.459920,0.800201,-0.384905
-0.110355,0.722703,0.723892,-0.091200,0.495805,-0.863632
-0.325250,-0.518215,-0.920452,0.123417,0.057026,0.990715
0.800929,0.537167,0.074444,-0.289817,0.853643,0.432782
0.564883,0.659187,0.470794,0.147564,0.702209,-0.696511
-0.265328,-0.017893,-0.924083,-0.022335,-0.004514,0.999740
0.160546,0.625675,-0.939714,0.530181,0.632661,-0.564489
0.022973,0.434046,0.300994,0.992793,0.116122,-0.029636
0.495666,0.408639,0.523394,-0.239899,-0.716234,-0.655330
0.238575,0.645968,-0.744993,-0.396714,0.913743,-0.087706
-0.574345,0.482017,0.537729,-0.440973,0.577690,-0.686890
-0.067508,0.476801,0.282981,0.206545,-0.964458,-0.164805
0.056905,0.240918,0.456884,0.874828,0.482094,-0.047549
0.417689,0.602437,0.510969,-0.421658,-0.377703,-0.824345
0.720507,0.752240,0.075835,0.148301,-0.862116,0.484523
0.777495,0.520849,0.077792,-0.138490,0.741862,0.656095
0.437536,0.087604,0.441252,-0.655322,0.639680,-0.401700
0.848236,0.612713,0.523488,0.033591,0.060470,0.997605
-0.162012,-0.251349,-0.921607,0.084928,-0.236339,0.967952
-0.382616,0.815290,0.092857,0.347142,-0.852826,0.390104
-0.679181,0.697038,0.295807,0.257719,0.807280,0.530924
0.193552,0.681237,-0.930708,0.883810,-0.465670,0.045081
-0.238303,0.895174,0.528534,0.499046,-0.857388,0.125854
-0.107527,-0.313573,-0.928043,0.006261,0.003925,0.999973
0.211659,0.686866,-0.963220,0.530073,0.459498,0.712660
-0.164024,0.326483,0.749920,-0.481789,-0.776470,-0.406170
-0.140098,0.698743,0.808839,0.995822,0.090007,0.015434
-0.188547,-0.077224,-0.925898,0.020014,0.334855,0.942057
-0.220305,-0.373112,-0.923988,0.026787,0.035827,0.998999
0.492619,0.125404,0.453937,-0.665990,0.364013,-0.651116
-0.663194,0.688777,0.298565,0.257719,0.807280,0.530924
-0.309588,-0.505925,-0.924295,-0.080263,-0.000688,-0.996774
0.039126,0.537476,0.756593,-0.449455,-0.889297,0.084509
-0.271959,0.350029,0.737755,0.097378,0.888213,0.448993
0.420517,0.557925,-0.226797,0.247914,0.961128,0.121536
-0.145319,-0.338411,-0.924012,-0.199983,-0.074815,-0.976939
-0.481361,0.484960,0.095192,-0.558754,0.827564,0.054146
0.333245,0.402959,0.231183,-0.631710,0.657454,0.410728
0.221718,0.724871,0.340933,0.845903,0.450224,-0.285915
-0.341180,0.398363,0.691827,-0.660034,0.472393,0.584124
-0.071966,0.467145,-0.089203,-0.288278,-0.154770,-0.944956
-0.683967,0.542950,0.510898,-0.262833,-0.907706,-0.327091
0.261412,0.669051,-0.040022,-0.762408,0.355078,0.540975
-0.055000,0.240195,0.371324,0.332291,-0.886572,-0.321829
0.504799,0.651183,0.004680,-0.154889,-0.371782,-0.915307
-0.256898,-0.017583,-0.925379,-0.026694,-0.002357,0.999641
0.781846,0.284501,0.161490,-0.552827,-0.749049,-0.365113
0.214649,0.641063,-0.622558,0.818647,0.555720,-0.144888
-0.091759,-0.189487,-0.916632,-0.230758,0.039477,-0.972210
0.210571,0.620872,-0.304884,0.805725,0.583466,-0.101857
0.106223,0.078619,0.510946,0.448887,0.561548,0.695100
-0.252604,0.251555,-0.941742,0.039079,-0.084414,0.995664
0.627961,0.426196,0.493617,0.509371,0.801978,0.312045
-0.358528,0.000955,-0.928491,-0.021903,0.063578,0.997736
0.208506,0.490899,0.219654,-0.210011,0.976902,0.039471
-0.197139,-0.595776,0.785050,0.370681,-0.347677,0.861230
0.203993,0.589889,-0.163281,-0.333328,0.940601,-0.064507
-0.508224,-0.241073,-0.921890,-0.110636,-0.042342,0.992959
-0.303770,0.442153,0.680958,0.218322,0.935166,0.278925
-0.186263,0.292298,-0.940303,0.091519,0.138245,0.986161
0.716213,0.263639,0.426210,0.811966,-0.480133,-0.331940
-0.233570,-0.515788,-0.919485,-0.016295,0.073392,0.997170
0.141569,0.770313,-0.970859,-0.041719,0.081322,0.995814
-0.199097,0.159433,-0.937144,0.083146,0.247904,0.965210
-0.172125,-0.136712,-0.922833,-0.105837,-0.120868,0.987010
0.216608,0.386745,-0.954968,-0.090969,0.142287,0.985636
-0.370814,-0.251400,-0.925898,-0.186358,0.015768,-0.982355
-0.533507,0.424131,0.249290,-0.556823,-0.461371,-0.690713
0.201108,0.418140,-0.955841,0.059335,0.036441,0.997573
-0.011390,0.375488,-0.963409,0.208070,0.035209,-0.977480
-0.026942,0.377553,0.562225,0.127552,-0.776525,0.617041
0.521330,0.475666,0.042214,0.700635,0.527834,-0.480106
0.195291,0.617774,-0.963220,0.044462,-0.321586,0.945836
-0.382888,-0.029717,-0.928091,-0.059619,0.086984,0.994424
0.426879,0.859906,-0.977979,0.175961,0.098327,0.979474
-0.108124,0.625985,0.641986,-0.228700,-0.869634,0.437531
0.361356,0.162996,0.455894,-0.238585,0.678033,0.695233
0.117753,0.835791,0.779439,-0.367376,-0.866234,-0.338634
0.686688,0.313212,0.469120,-0.359875,-0.618656,0.698394
-0.130258,-0.911440,0.795683,0.020229,0.130325,0.991265
-0.019983,0.662854,0.693383,0.820133,-0.571737,-0.022327
-0.018894,0.568356,0.733841,0.762442,0.643007,0.072280
0.291318,0.177868,0.436231,-0.053375,0.541942,0.838719
-0.246079,-0.575327,0.789176,-0.091655,-0.318546,0.943466
-0.265272,-0.573055,0.640995,-0.139105,0.120410,0.982930
0.232213,0.595931,-0.135154,0.785647,0.603536,-0.136030
-0.822080,0.523070,0.787313,-0.702436,0.107854,0.703528
-0.260868,0.311869,0.752443,-0.407870,-0.838729,-0.360798
-0.304696,0.029047,-0.921701,0.043541,0.011025,0.998991
-0.200946,-0.091735,-0.920263,-0.284812,0.346579,-0.893737
-0.464830,-0.351940,-0.925945,-0.094360,0.134021,0.986476
0.066148,0.724406,0.584694,-0.061877,-0.782649,0.619380
-0.443951,-0.256926,-0.925167,0.139113,0.024840,-0.989965
0.476197,0.794325,0.560811,-0.147081,-0.639884,0.754265
0.039069,0.751620,-0.969845,-0.104148,0.117701,0.987573
0.730188,0.353541,0.563428,-0.440670,0.897199,-0.029034
-0.000843,0.377656,-0.244786,-0.749501,-0.133980,-0.648303
-0.135857,0.693011,0.778731,0.855550,-0.512064,-0.076312
0.514586,0.693734,0.459359,-0.330435,-0.543546,0.771603
0.309425,0.053162,0.492438,-0.515635,-0.839817,-0.169787
0.658900,0.277168,0.412677,0.872784,0.224788,-0.433265
0.438515,0.651907,0.478999,0.096769,0.500392,0.860374
0.072620,0.199763,0.538295,0.828163,0.158200,0.537697
-0.183326,0.120343,-0.933796,-0.187793,-0.293224,-0.937418
-0.117749,0.479125,-0.955817,0.065620,0.044706,0.996843
0.248253,0.315897,-0.954167,-0.003714,-0.029429,0.999560
0.025910,0.341097,0.547725,-0.743483,0.591608,-0.311822
-0.257061,-0.067775,-0.919367,0.058180,0.240924,0.968799
-0.577551,0.705972,0.511417,-0.587074,0.775176,0.233337
-0.347054,0.527975,0.593417,0.764514,0.047001,0.642892
0.387999,0.801400,-0.972651,0.008481,0.034622,0.999364
0.327590,0.696884,0.629372,0.433275,0.310574,-0.846060
0.228841,0.670290,-0.545745,0.674415,-0.471762,0.567983
0.664611,0.355503,0.121102,0.459903,0.772701,0.437520
-0.133139,0.294467,-0.949263,0.148038,0.204102,0.967692
-0.007803,0.410343,0.605088,0.922625,-0.004601,-0.385671
-0.367933,-0.139501,-0.922243,-0.078705,0.029432,0.996463
-0.380333,-0.159330,-0.925568,-0.144685,0.172154,0.974387
0.060386,0.628567,-0.208502,0.384370,-0.890868,0.242104
0.211550,0.379980,-0.953105,-0.087772,0.121351,0.988721
0.234878,0.596706,-0.962748,-0.034931,0.044919,0.998380
0.309917,0.885776,0.454031,0.376968,0.901277,-0.213528
0.333514,0.651287,-0.016280,-0.827903,0.458186,0.323485
0.172835,0.519196,0.685556,-0.533708,0.835779,-0.128954
-0.313342,-0.186853,-0.925356,0.025181,0.036558,0.999014
0.072457,0.497922,0.764703,-0.036242,-0.458051,0.888187
0.251080,0.874829,0.421424,0.012479,-0.821458,0.570133
0.791739,0.524464,-0.206922,0.085512,0.975103,0.204601
0.174684,0.734786,-0.251482,0.912566,0.206283,0.353087
-0.429163,0.528492,0.629207,-0.322965,-0.921343,0.216380
0.429651,0.624590,0.297575,0.838484,0.542675,-0.049472
0.081810,0.279027,-0.953271,0.093316,0.262010,0.960543
0.019385,0.598048,0.022457,-0.287639,0.917924,-0.273275
-0.217258,-0.502673,0.206262,-0.421202,-0.427743,0.799766
-0.018187,0.598668,-0.959424,-0.027804,0.050939,0.998315
0.290721,0.687847,-0.030402,0.424532,0.840683,-0.336193
0.526279,0.269577,0.383112,0.835063,-0.437181,-0.333980
-0.605068,0.682941,0.499864,0.316647,0.947486,-0.044773
0.183492,0.713356,-0.972132,-0.254051,-0.320272,-0.912625
-0.315731,0.399447,0.688220,0.931111,-0.343034,-0.123936
0.032435,0.340270,-0.954662,0.007930,0.010413,0.999914
0.101384,0.434974,-0.290101,-0.634707,-0.282526,-0.719254
0.264349,0.073972,0.496375,0.011152,-0.848680,-0.528788
0.206492,0.638636,-0.327754,-0.050138,-0.974747,0.217613
-0.095782,0.584571,0.079183,-0.268233,-0.956620,-0.113711
0.220686,0.409001,-0.482229,-0.109347,-0.129194,0.985572
0.302848,0.895898,-0.980620,0.082768,-0.035634,-0.995932
-0.165328,0.272366,0.760837,-0.469596,-0.819832,-0.327650
-0.109376,-0.877204,0.805255,-0.028723,0.365157,0.930503
-0.314049,0.282280,0.594691,0.429675,-0.670609,0.604701
-0.635518,0.458212,0.557133,0.877315,0.025235,-0.479251
0.845083,0.516098,-0.199354,0.124339,0.968718,0.214767
-0.071421,0.555808,0.805939,-0.335708,-0.776030,-0.533927
0.639272,0.316827,0.396362,0.752414,0.625333,0.206959
0.782115,0.641476,0.574320,0.260459,0.837391,-0.480560
-0.089801,0.441997,0.680911,0.264013,0.872649,0.410829
0.089366,0.509334,-0.959966,0.039878,0.029254,0.998776
-0.217368,-0.393302,0.242594,-0.428373,-0.478623,0.766431
0.098231,0.624383,-0.158495,0.236845,0.817550,0.524896
-0.060058,0.630322,-0.959236,0.054535,-0.017161,0.998364
0.172072,0.315277,-0.953058,0.078188,-0.021418,0.996709
-0.577661,0.553123,0.514058,0.268457,0.805439,-0.528392
-0.670320,0.735354,0.573966,0.938948,-0.163122,0.302931
0.372938,0.209264,0.442219,0.817358,-0.368341,-0.443003
0.645468,0.367173,0.558429,0.018197,-0.747852,0.663616
-0.145481,0.693424,0.701800,0.786472,-0.614399,-0.063057
0.246839,0.647828,-0.541194,0.336578,-0.941468,0.018813
-0.693973,0.527355,0.223638,0.423392,0.833860,-0.354143
0.051250,0.364127,-0.952540,0.010745,0.079649,0.996765
0.073545,0.211846,0.499629,0.575130,0.545839,0.609332
0.128519,0.657690,-0.195487,-0.548094,-0.827417,-0.122370
0.067834,0.587824,-0.032972,0.255075,0.946410,-0.198102
0.297083,0.147144,0.462000,-0.037530,0.941085,0.336080
0.693376,0.788025,0.111837,0.276408,-0.423076,0.862905
0.473154,0.837701,-0.980030,0.154171,0.118782,0.980878
-0.096217,-0.765511,0.777411,-0.107007,0.437264,0.892944
0.474239,0.651494,-0.092457,0.309925,0.947548,0.078094
-0.098556,0.539284,0.782551,0.892687,0.437474,0.108286
-0.025963,0.812089,0.652029,-0.046872,-0.007695,0.998871
-0.165003,0.352508,-0.950771,0.193202,0.096160,0.976435
0.258206,0.399086,-0.960933,0.200450,0.064571,0.977574
0.544658,0.449330,0.049806,0.769420,0.624205,-0.135504
0.472228,0.532364,0.031793,0.763459,0.642429,0.066447
-0.212963,0.527252,0.799927,-0.579217,0.759608,0.295809
-0.330198,0.681495,0.549847,-0.066021,0.792473,0.606323
0.209648,0.632852,-0.753716,-0.191502,0.968194,0.161022
-0.216279,-0.680153,0.773992,-0.312456,0.009863,0.949881
-0.170223,0.493894,0.747256,0.859662,-0.430648,0.274818
0.419863,0.867548,0.123225,0.378474,-0.480478,0.791137
0.234552,0.864088,-0.980879,-0.076915,0.063763,0.994997
-0.149832,-0.735870,0.778708,-0.293231,-0.129599,0.947217
-0.293548,0.795461,0.475910,-0.023104,0.708526,0.705307
-0.189310,0.620924,0.693760,-0.488487,0.522802,-0.698612
0.643892,0.206578,0.188155,0.511942,-0.321520,-0.796581
-0.080123,0.675041,0.725566,0.823081,0.013492,0.567764
0.224599,0.731791,0.327919,0.971944,0.192618,-0.134995
0.032382,0.393767,0.538483,0.741130,0.579351,0.339232
-0.195563,0.627843,0.612750,-0.113406,0.527763,-0.841787
0.338027,0.227596,0.402351,0.092045,-0.984249,-0.150937
-0.612788,0.442669,0.559514,0.020056,0.009082,0.999758
0.163645,0.773773,-0.971543,0.016368,0.117366,0.992954
0.061309,0.563708,0.618550,0.059728,0.996997,0.049290
-0.480167,0.476956,0.542279,0.061214,0.093862,0.993702
0.023139,0.226201,-0.948131,-0.212089,0.113257,0.970665
-0.248797,0.512019,0.802591,-0.397404,0.917156,0.029895
-0.277614,0.731275,0.015266,-0.136365,-0.988303,0.068278
-0.227427,-0.527303,-0.916137,-0.031542,0.049155,0.998293
0.224871,0.638997,-0.877400,-0.747759,-0.663194,-0.032097
0.533511,0.656348,0.120042,-0.319708,0.808897,0.493429
0.115469,0.627069,0.167219,0.413400,-0.061221,0.908489
0.839156,0.661873,0.532306,0.085855,0.451605,0.888078
0.039829,0.169244,0.517429,0.854698,0.123192,0.504297
0.178328,0.637551,-0.745841,-0.393621,0.906858,0.150569
-0.032000,0.337946,-0.949758,0.008908,0.164199,0.986387
-0.316767,-0.084712,-0.923021,0.096357,-0.180394,0.978863
-0.138087,0.347809,0.624114,-0.267069,-0.556197,0.786969
-0.337483,-0.423511,-0.926912,0.038861,0.180468,0.982813
0.642969,0.439622,0.159957,0.965903,0.245873,0.081104
0.661292,0.683922,-0.303587,0.076049,0.250790,0.965050
0.310949,0.667192,0.002370,-0.820072,0.051344,0.569952
0.970748,0.320596,0.177899,-0.185147,0.370917,0.910023
-0.401702,0.516201,0.135555,0.140159,-0.848908,-0.509618
0.506323,0.882471,-0.984651,0.061486,0.161423,0.984968
0.487780,0.327412,0.162928,0.083764,0.204760,0.975221
-0.143361,0.192069,-0.939337,0.004798,0.090325,0.995901
0.227862,0.374816,0.382122,0.966862,-0.239367,0.088780
0.493163,0.265601,0.540322,0.941324,-0.263355,-0.211076
0.663576,0.801297,0.535395,-0.093891,-0.986841,-0.131641
-0.140752,0.008753,-0.923800,0.019133,0.052620,0.998431
0.647861,0.316517,0.422014,-0.224223,0.974526,0.004816
-0.417089,0.790246,0.083144,0.541223,-0.736358,0.406022
0.042929,0.423149,-0.956171,0.051537,0.066417,0.996460
0.232973,0.635744,-0.693218,0.378456,0.918535,0.114302
-0.285719,0.401152,0.701800,-0.087204,0.760142,0.643879
0.208831,0.642302,-0.829492,0.251092,0.963172,0.096192
0.117371,0.763446,-0.973877,-0.020865,0.157780,0.987254
0.225306,0.508456,0.178300,0.965064,0.231162,-0.123356
0.714417,0.766027,0.528817,0.023699,-0.408583,0.912413
-0.025963,0.439932,0.533697,-0.740113,-0.488469,-0.462202
0.016395,0.399034,0.314975,0.919168,-0.351329,-0.178039
-0.141130,-0.491622,0.637860,-0.408098,0.551186,0.727770
0.885865,0.615089,0.552087,0.827067,0.543600,0.143038
-0.157446,-0.502104,0.627392,-0.568394,0.625231,0.534803
0.565375,0.738917,0.158189,-0.084589,0.633945,0.768738
0.102582,0.347293,-0.953271,0.015753,-0.091921,0.995642
-0.163589,0.825876,0.695694,0.931546,0.208945,-0.297597
-0.150105,-0.334900,-0.927548,0.141050,0.292238,0.945887
0.240643,0.825359,0.278431,0.970015,-0.142203,-0.197104
0.057230,0.437609,-0.960037,0.171510,0.200691,0.964524
-0.333733,0.366916,0.677799,0.808260,0.561892,0.176048
0.336451,0.640702,0.477655,0.537296,-0.823158,-0.183641
-0.178434,0.324624,0.735633,0.464261,0.795772,0.388857
0.159295,0.754874,0.657806,-0.702984,-0.585057,0.404378
0.239229,-0.050580,0.851466,0.493276,0.844716,0.207684
-0.081972,0.830059,0.646371,-0.087093,-0.971156,-0.221971
0.076536,0.752756,-0.969256,-0.231252,0.060932,-0.970984
-0.092629,0.721980,0.661201,-0.266941,-0.721618,0.638757
-0.150755,0.452067,-0.071803,-0.242223,-0.047438,-0.969060
0.181590,0.837598,0.750981,0.134781,0.856815,0.497697
-0.104265,0.288735,0.604003,-0.701851,-0.078984,-0.707931
-0.103014,0.437298,-0.951715,0.022175,0.058997,0.998012
0.242816,0.686091,-0.976777,-0.182763,-0.145935,-0.972266
-0.456566,0.554569,0.043157,0.729698,0.226854,0.645042
-0.184089,0.276806,-0.943250,0.038269,0.100818,0.994169
-0.128190,0.287702,-0.176036,-0.682317,-0.094336,-0.724944
-0.439600,0.798405,0.892442,-0.485947,0.873769,0.019589
-0.306651,-0.089980,-0.923116,0.071828,-0.114767,0.990792
0.475653,0.622990,0.485766,0.119737,0.264331,0.956970
0.242707,0.779350,-0.976234,0.027133,0.092188,0.995372
0.406923,0.590302,-0.219441,0.357576,0.918317,-0.169806
0.710069,0.501949,0.499676,0.873474,-0.287691,-0.392781
0.353198,0.219024,0.432034,0.390310,-0.778803,-0.491044
-0.235963,0.721412,0.047024,0.289432,0.875260,-0.387492
0.138688,0.161241,0.464806,-0.113116,-0.968802,-0.220518
-0.250918,0.157109,-0.940115,0.078205,-0.120547,0.989622
0.051522,0.576102,-0.958481,0.122011,-0.067077,0.990260
0.413123,0.732049,-0.974961,-0.036526,0.009123,0.999291
0.604308,0.553019,0.186953,-0.558756,0.080997,-0.825367
-0.468856,0.460897,0.727381,0.801881,0.051340,0.595274
0.184418,0.599856,-0.387945,-0.365413,0.923906,-0.113451
-0.553191,0.582040,0.119098,0.798667,0.197623,0.568397
0.731874,0.725078,0.191196,0.032030,-0.333659,0.942150
-0.365106,-0.198110,-0.917410,0.024747,0.056035,0.998122
-0.221772,0.471018,0.017506,-0.025134,-0.267580,0.963208
-0.132757,0.138933,-0.939855,-0.035840,-0.039683,0.998569
0.140536,0.528440,-0.961570,-0.153381,0.033298,0.987606
-0.250699,-0.519609,0.199991,0.304462,0.332179,-0.892726
-0.315731,0.024864,-0.926723,-0.006078,0.098148,0.995153
0.237815,0.071028,0.485648,0.237639,-0.019598,-0.971156
0.161797,0.630322,-0.182827,0.475858,0.769517,0.425915
0.125907,0.494875,0.264638,-0.130312,-0.864747,-0.485007
-0.903156,0.119620,1.000000,0.019202,0.539356,0.841859
-0.548896,0.496786,0.539143,-0.607496,0.222429,-0.762545
-0.147439,-0.267150,-0.924790,-0.070369,-0.158065,0.984918
-0.592453,0.419432,0.561376,0.879822,0.380152,0.285302
0.177402,0.508869,0.682491,0.311682,-0.601701,-0.735398
-0.270492,0.340322,-0.048792,-0.442653,-0.084538,-0.892699
0.628071,0.531280,0.187165,-0.693641,0.336806,-0.636729
0.247927,0.522605,0.500973,-0.282101,-0.740935,0.609454
-0.169082,0.396349,0.729786,0.924091,0.012617,0.381965
0.004378,0.591438,-0.960579,-0.178700,0.029485,0.983462
-0.204046,0.139759,-0.933183,0.108951,-0.203213,-0.973054
-0.075826,0.906432,0.746337,-0.140088,-0.986535,-0.084399
-0.422744,-0.206475,-0.922621,-0.073806,0.069550,0.994844
-0.189473,-0.432340,-0.921230,0.065756,0.043367,0.996893
0.038090,0.145852,-0.945113,-0.052323,0.120179,0.991372
0.189148,0.079549,0.475227,-0.619410,0.194238,0.760659
-0.446726,0.311508,0.495408,-0.237942,0.379676,-0.893997
0.123680,0.605846,-0.238515,-0.607128,-0.791233,-0.073112
-0.208231,-0.719501,0.778024,0.411549,0.193832,-0.890537
0.161033,0.503189,0.222672,0.011538,0.960619,0.277630
-0.218891,-0.493481,-0.918330,0.080508,0.002761,0.996750
0.077731,-0.003433,-0.936225,0.131554,0.252596,0.958587
-0.156739,-0.424647,-0.926063,-0.133317,-0.042770,-0.990150
0.256085,0.185820,0.431704,0.451340,0.633699,0.628266
-0.684076,0.532209,0.207064,-0.342852,0.850757,0.398328
-0.693754,0.499574,0.551781,-0.491700,-0.870437,-0.023887
0.276692,0.605226,-0.229061,0.074346,0.399669,-0.913640
0.216010,0.647828,-0.859128,-0.531209,-0.842574,-0.088803
-0.201868,0.365108,0.742470,0.304486,0.626780,0.717241
0.358747,0.217423,0.431209,0.283529,-0.850110,-0.443762
0.019983,0.558183,0.667449,-0.067712,-0.958197,0.277983
-0.356351,0.479642,0.638331,0.879190,0.332760,0.341023
-0.064409,0.582815,0.718610,0.749724,0.590523,0.298658
-0.026126,0.672304,-0.107074,-0.740847,-0.101425,-0.663972
-0.274896,-0.238336,-0.924271,0.034831,-0.098150,0.994562
-0.090017,-0.097002,-0.926299,0.089384,0.129437,0.987551
0.440799,0.811314,-0.977979,-0.170768,-0.069074,-0.982887
0.058209,0.463376,0.420906,-0.179083,0.698503,0.692837
-0.317092,0.342181,0.746855,0.413651,0.909338,0.044692
0.745086,0.592678,0.559042,0.744804,0.139486,-0.652542
-0.574671,0.745578,0.952893,-0.473873,0.862305,0.178534
0.403498,0.899047,-0.978074,-0.304891,0.495801,-0.813156
0.358418,0.077535,0.473435,0.201147,-0.363664,-0.909554
-0.225688,-0.330200,-0.925851,-0.059660,-0.011031,0.998158
0.759713,0.352715,0.144844,-0.102978,0.708956,0.697694
0.203830,0.561178,0.010975,0.926834,0.253941,0.276573
-0.279085,0.872402,0.606927,-0.419310,0.897022,0.139755
-0.011825,0.419948,-0.955864,-0.072190,0.130551,0.988810
0.049564,0.168367,-0.941907,0.021247,0.039214,0.999005
-0.245206,-0.533758,-0.919414,-0.060978,0.022463,0.997886
0.184687,0.602851,-0.085431,0.925428,-0.283227,0.251724
0.463473,0.723322,0.509507,0.209845,0.864717,-0.456322
0.373589,0.561799,0.525917,-0.325846,0.834942,0.443505
-0.615725,0.351527,0.519197,0.734062,-0.558572,0.386201
-0.292025,-0.333557,0.655165,0.000486,-0.541399,0.840765
-0.184634,0.417934,-0.073312,-0.257263,-0.060374,-0.964454
-0.409641,0.296997,0.425762,0.709193,0.486219,0.510526
-0.014218,0.763858,0.722265,-0.639542,0.585486,-0.498190
0.348143,0.620098,-0.967605,0.099329,-0.009124,0.995013
-0.333132,-0.469520,-0.920829,0.015327,0.091212,0.995714
0.134662,0.894348,0.717243,0.100124,0.994515,0.030235
-0.214702,0.626243,0.119169,0.114066,-0.777584,0.618346
-0.556453,0.758437,0.329946,-0.259478,0.697155,-0.668316
-0.383758,-0.089567,-0.925120,-0.135887,-0.085490,0.987029
-0.100023,-0.298959,-0.927407,-0.017709,-0.073327,0.997151
0.226883,0.642870,-0.475250,-0.828261,-0.096878,-0.551905
0.101928,0.780021,0.639982,0.565774,0.665195,-0.487253
-0.076967,0.579097,0.644461,0.676316,0.732904,0.073811
0.431990,0.296584,0.167431,-0.112015,-0.318848,-0.941164
-0.226883,-0.235341,-0.925191,-0.070152,-0.057079,0.995902
-0.345584,-0.461671,0.610723,0.495302,0.581966,0.644974
-0.204155,-0.170845,-0.923045,0.033865,-0.017092,0.999280
0.331612,0.583641,-0.474849,0.287831,0.630008,0.721279
-0.421659,0.634298,-0.016657,-0.691518,0.720801,0.047407
0.200295,0.637242,0.208431,0.771753,0.396897,-0.496859
0.425303,0.895742,0.501821,-0.675280,-0.083289,0.732844
-0.569994,0.697452,0.150173,0.830930,-0.552147,-0.068472
-0.116827,0.418295,-0.951479,0.100609,-0.093173,0.990554
-0.270711,-0.458625,-0.924413,0.033693,0.079396,0.996274
0.304587,0.600734,0.450707,-0.397078,0.642132,0.655740
0.691690,0.196509,0.419750,-0.107612,-0.932605,0.344481
-0.275875,0.631200,0.613033,0.006222,-0.898821,0.438273
0.004540,0.397020,-0.953436,-0.051266,0.070367,0.996203
-0.095403,0.584312,0.773262,0.506687,0.852011,-0.131701
0.145319,0.300302,-0.952021,-0.145086,-0.029872,0.988968
0.003943,0.540885,-0.959047,-0.136581,0.057929,0.988934
-0.085507,0.131187,-0.940916,0.146267,0.303812,0.941437
0.088988,0.522243,0.440970,-0.684530,-0.459514,0.565920
-0.197899,-0.487181,-0.920216,0.176005,-0.021627,0.984152
0.815559,0.436679,0.605394,0.926717,0.040041,-0.373620
0.274628,0.708296,-0.964140,-0.078128,0.136554,0.987547
0.173921,0.871885,0.757606,-0.213616,-0.908921,-0.358094
0.382998,0.080168,0.417133,0.578769,-0.249452,-0.776402
-0.056523,0.545687,0.037169,-0.546305,0.548306,-0.633176
-0.175225,0.773463,0.658183,0.539022,0.368113,-0.757593
0.438678,0.501227,0.340886,0.225804,-0.363110,0.903971
-0.280389,0.003073,-0.927666,-0.049233,0.180774,0.982292
0.218131,0.614159,-0.259451,-0.523108,-0.847033,0.094305
0.082626,0.435336,-0.956713,0.004668,0.185541,0.982626
-0.275168,0.239731,0.502670,0.813220,0.548170,0.195406
0.312147,0.643386,-0.966969,-0.068475,0.119015,0.990528
-0.357220,-0.061217,-0.923894,0.017461,0.041015,0.999006
0.003671,0.574759,0.507197,0.911891,-0.330722,0.243060
0.199532,0.399912,-0.956029,-0.008269,0.087478,0.996132
-0.228187,-0.440603,-0.922031,-0.067166,0.224712,0.972108
-0.618390,0.484599,0.558995,0.933524,-0.226960,-0.277530
-0.605231,0.772069,0.593347,-0.229143,0.638540,0.734683
0.127487,0.486819,-0.955463,-0.094069,0.102287,0.990297
0.354396,0.865896,-0.974796,-0.059729,-0.135975,0.988910
