-0.407727,-0.467231,0.626431,0.972089,-0.111657,0.206341
0.510612,0.785017,0.333980,0.594886,0.704124,0.387711
-0.362104,-0.444170,0.237054,0.028522,-0.994652,-0.099268
-0.042220,-0.390098,0.496128,-0.761718,-0.488420,-0.425712
-0.222948,-0.117198,0.772416,-0.604513,0.789012,0.109654
0.382630,-0.313029,0.218239,-0.001881,-0.815973,0.578086
-0.183611,-0.017719,0.854852,-0.250550,0.932041,-0.261772
0.671854,0.371857,-0.170639,0.170269,-0.661761,0.730124
0.072721,0.060261,0.285135,0.072992,0.996388,-0.043396
0.434228,0.676873,-0.991082,0.007298,0.115953,0.993228
0.666034,0.666710,0.067092,-0.705983,0.404064,0.581653
-0.682714,0.076352,-0.345978,-0.608449,0.338268,-0.717888
0.478344,-0.465993,0.632679,0.892449,-0.136011,0.430158
-0.238952,-0.643843,0.751073,-0.663258,-0.725213,-0.184811
0.119539,0.327492,0.749025,0.881302,0.285241,0.376755
0.005170,-0.195179,-0.177279,0.856494,0.244285,0.454690
-0.213541,-0.487818,0.572708,-0.408263,0.905695,0.114184
-0.560653,-0.267622,0.071453,0.123901,-0.907881,0.400501
0.198213,0.347427,0.731972,0.097583,-0.975318,-0.198073
-0.124322,0.562150,-0.073535,-0.199456,0.939946,0.276983
0.560964,0.085668,0.736120,-0.472617,0.841332,-0.262285
-0.792669,-0.528142,0.280471,0.429260,-0.634928,0.642341
0.399775,-0.029511,0.564199,0.848654,-0.412615,-0.330962
0.203513,-0.559348,0.285758,0.983005,-0.078675,0.165866
0.022784,-0.231140,-0.176068,-0.864955,0.398126,-0.305528
-0.600145,-0.239544,0.099649,0.041543,0.999051,0.013090
0.104420,0.336548,0.780070,0.815902,-0.269019,0.511793
-0.249551,0.325407,0.642932,-0.341165,0.936434,0.081840
-0.533165,-0.039413,-0.280524,0.156138,-0.685051,0.711566
-0.109825,-0.658111,-0.144116,0.887018,-0.335471,0.317267
-0.325364,-0.365602,0.169197,-0.228528,-0.946021,-0.229825
-0.026372,0.661043,-0.496805,0.034279,0.515496,0.856206
-0.469407,-0.354788,0.307386,0.796945,-0.603966,0.010227
0.455271,-0.619153,0.550368,0.986405,0.078154,-0.144561
-0.726570,0.058045,0.596970,-0.339024,-0.788193,0.513629
-0.353737,0.183714,0.529309,0.626105,0.175661,-0.759695
-0.347762,-0.235765,0.610392,-0.663020,-0.300902,-0.685465
-0.802643,0.432638,0.511793,-0.534044,0.842175,0.074418
-0.223519,0.793746,-0.343824,0.584104,0.343302,0.735504
-0.691236,-0.457199,-0.374922,-0.227122,0.152702,0.961820
0.297981,-0.319804,0.889190,-0.238525,0.871578,-0.428320
-0.417964,-0.602541,-0.743276,0.914712,-0.239784,-0.325276
-0.302294,0.428209,0.754348,-0.667272,0.366260,-0.648538
0.279637,0.126450,-0.971287,0.032414,0.156199,0.987194
0.414377,-0.552508,0.824127,0.343696,0.766346,0.542759
0.123802,-0.155374,0.028428,0.250033,-0.967235,-0.044047
-0.110446,0.081434,0.244513,-0.388074,-0.894566,-0.221700
-0.349424,-0.399805,0.176567,-0.418682,0.907914,0.019938
-0.398374,-0.074723,0.681151,-0.186368,0.981534,-0.043107
0.500844,0.080913,0.893978,-0.439039,-0.631268,0.639332
0.380863,-0.059413,0.453638,0.982724,-0.133060,-0.128644
-0.407156,-0.814137,-0.639657,-0.700983,0.476093,0.530997
0.624255,-0.069641,-0.093739,0.935631,-0.105013,-0.336998
0.400349,-0.142605,0.864856,-0.553209,-0.832638,-0.025970
0.503806,0.778437,0.342453,-0.476981,-0.680646,-0.556067
-0.779469,-0.667101,0.511384,0.785836,0.611662,-0.091277
0.279015,0.361759,-0.979832,-0.010797,0.082246,0.996554
-0.376601,-0.632573,0.593731,-0.756578,0.379796,-0.532302
-0.513003,-0.557850,0.469997,0.848432,0.196483,0.491485
0.620202,0.048600,-0.962369,0.018001,0.174735,0.984451
-0.699653,-0.644299,-0.380529,-0.074388,-0.341264,0.937019
0.547611,-0.513550,0.716877,0.536237,0.842324,-0.054219
-0.356179,0.489577,0.710682,-0.118729,0.116882,0.986023
-0.424304,0.641433,0.060096,0.894915,0.386797,-0.222518
0.487333,0.260717,-0.147053,0.903440,-0.373182,-0.211025
-0.299281,0.440782,-0.179896,0.089502,0.411913,0.906817
-0.470758,-0.495114,-0.192338,-0.388442,-0.234993,-0.891006
0.541896,0.042215,0.679922,0.476446,-0.872854,-0.105475
0.154043,0.330229,0.758602,0.595948,0.563873,0.571746
0.697471,0.187037,-0.974313,-0.005791,0.232596,0.972556
0.242485,0.745408,-0.466686,0.186024,0.972407,-0.140783
0.247734,0.034268,-0.503818,0.323730,0.946149,-0.001265
0.493206,-0.194398,0.783702,0.955806,-0.232074,-0.180492
-0.398634,-0.432964,0.610250,0.991827,0.091968,-0.088435
-0.324483,-0.131922,-0.633195,-0.122344,0.764207,0.633261
0.134972,0.705538,-0.169162,-0.001277,-0.900342,0.435182
-0.137103,-0.498632,0.426331,0.715944,-0.681570,0.151282
-0.484269,-0.272703,-0.001495,0.028503,-0.230579,0.972636
0.556704,-0.147166,0.815708,-0.705986,0.665052,-0.243497
-0.575410,-0.294527,0.067270,0.123901,-0.907881,0.400501
-0.609552,0.992183,-0.027057,0.084611,-0.792139,0.604448
-0.190417,0.004039,0.542553,0.904791,0.099875,0.413979
-0.792564,-0.126514,0.519412,0.539504,0.755613,-0.371462
0.283744,-0.177459,0.770226,-0.652897,0.738800,0.167036
-0.167918,0.638046,-0.116062,0.169766,0.852612,0.494198
0.543038,0.652313,0.695035,-0.461332,-0.581776,0.669858
-0.518408,-0.005863,0.330740,0.418542,0.273631,0.865996
0.195771,0.384561,0.827955,0.481112,-0.869664,-0.110525
0.240874,0.261499,-0.972871,0.034196,0.209389,0.977234
-0.453765,0.261955,-0.103975,-0.590881,-0.248698,-0.767469
-0.892646,0.357264,0.257401,0.969629,0.239094,0.051507
0.451948,-0.626709,0.646902,0.801555,-0.253610,-0.541472
0.102809,0.058307,0.117432,-0.063086,-0.992503,-0.104678
0.608356,0.446254,0.622906,-0.401717,-0.672119,0.621996
0.217075,0.361759,0.087242,-0.292712,0.869611,0.397613
-0.358361,-0.614071,0.376275,0.784262,0.470662,0.404240
-0.684636,-0.538566,0.013938,0.460768,0.239004,0.854734
0.296681,0.395766,0.871780,-0.616214,0.187617,-0.764905
-0.516016,0.712378,0.042722,0.906037,0.056979,-0.419345
0.584608,-0.395374,0.725653,0.828476,-0.074608,-0.555033
0.214112,0.272313,-0.975648,0.063808,0.210116,0.975592
-0.039051,0.090750,0.980651,0.605627,0.789561,0.099044
0.014056,-0.227296,-0.242679,-0.614764,0.779393,0.120877
0.105873,0.041694,-0.961532,-0.024267,0.247209,0.968658
0.322145,0.577590,-0.127027,0.763721,-0.364314,-0.532921
0.259684,-0.045537,0.014401,0.886554,-0.266194,-0.378368
0.240614,-0.203322,-0.528526,0.894529,-0.128644,0.428099
-0.120059,-0.504429,-0.067839,0.970407,-0.234666,0.056933
-0.312374,0.112183,0.299696,-0.038463,0.982414,-0.182713
0.367768,0.782411,-0.143813,0.490383,-0.678696,-0.546714
-0.184597,0.293225,0.515371,0.703507,0.684685,0.190486
0.200966,-0.018045,-0.835395,-0.498094,-0.859041,0.118115
0.275377,0.050879,-0.245296,0.253146,0.967374,0.010207
0.108734,0.415831,0.612208,0.907666,0.376640,0.185164
0.559096,0.190749,-0.972836,-0.005848,0.203637,0.979029
-0.104836,0.382932,-0.466757,0.221239,0.118375,0.968009
0.216504,0.445147,0.895260,-0.120528,0.827126,0.548941
0.210788,-0.321824,-0.446232,0.919556,-0.070559,-0.386572
-0.015928,-0.512508,-0.252292,0.779848,0.574438,-0.248713
0.108315,0.042802,-0.962173,-0.024267,0.247209,0.968658
-0.110706,0.240847,0.883671,0.897517,-0.382332,-0.219741
0.364286,-0.007882,0.212525,-0.351183,0.936084,0.020413
-0.180804,0.142085,0.782758,0.973925,-0.080784,0.212001
0.066955,-0.314788,0.381259,0.794303,0.364974,0.485672
0.066695,-0.039283,0.886199,0.215887,0.785285,0.580275
0.294188,-0.075244,-0.916888,-0.672393,0.369075,-0.641616
-0.751045,-0.329576,0.174128,-0.315639,-0.566770,-0.761015
0.630491,0.038697,-0.969418,0.008580,0.185180,0.982667
0.139910,-0.035830,0.242822,0.885857,0.309262,0.345853
0.309725,0.477785,0.863877,0.564712,0.312550,0.763815
0.281092,0.493746,0.738487,-0.460498,0.887543,-0.014476
0.804930,0.524561,-0.988198,0.068610,0.086928,0.993849
-0.063523,-0.388078,0.816615,0.901054,0.433625,-0.008459
-0.449141,0.210489,-0.362942,0.168119,-0.472861,0.864950
0.275533,-0.069771,-0.841483,0.859369,0.511197,0.012792
0.143183,0.091792,0.704274,0.619530,0.762119,-0.188038
-0.782326,0.408535,0.493458,-0.366095,0.821043,-0.438022
-0.789291,-0.594983,0.568703,-0.367417,-0.386286,0.846042
0.139079,0.078763,-0.964416,0.052665,0.233877,0.970839
0.031880,0.405082,0.924898,-0.124549,-0.039519,0.991426
-0.013745,0.204561,-0.165174,-0.160589,-0.560825,0.812211
0.397854,0.512313,-0.303647,-0.456160,0.281861,0.844081
-0.234223,0.679479,-0.152785,-0.133864,0.798592,0.586797
0.451427,0.651987,-0.990210,0.030893,0.137283,0.990050
0.566527,-0.644690,0.685815,0.920179,0.168658,-0.353307
-0.151705,-0.433225,-0.152803,0.561740,-0.097673,-0.821528
-0.621709,-0.313224,0.003916,0.144742,-0.204484,0.968109
0.444307,-0.524560,0.807537,0.385188,0.921623,-0.047338
-0.328276,-0.560195,-0.682023,0.875133,0.177425,-0.450181
-0.003663,-0.051010,0.922762,-0.578078,-0.809824,0.100056
-0.711451,-0.024103,-0.349111,-0.516099,-0.267685,-0.813625
-0.362053,-0.398306,-0.199601,0.258598,0.430504,0.864751
-0.402687,-0.255114,0.003685,0.039971,0.437986,0.898093
0.816728,-0.638436,0.341118,-0.517594,0.851923,0.079522
-0.533114,0.102542,0.462396,-0.391490,-0.900297,-0.190266
-0.231261,-0.032312,0.290866,-0.458928,0.010882,-0.888407
0.467847,0.512834,0.772630,-0.750569,0.433593,-0.498641
0.502404,0.231206,0.884348,-0.512928,0.682987,-0.520032
0.343448,0.407361,0.829432,0.384350,0.890019,-0.245236
-0.866350,0.316287,0.244940,0.766187,0.570202,-0.296357
0.389227,0.757199,0.375314,0.424448,0.883070,-0.200078
0.090440,0.039023,0.257597,0.829878,0.539998,0.140372
-0.956039,0.101695,0.423964,-0.776608,0.596511,-0.202619
0.234689,0.148274,0.344394,0.954242,0.298818,0.011357
0.149990,0.606581,-0.281111,-0.668837,0.502285,0.548057
0.240823,-0.175244,0.731937,-0.742836,0.487501,0.458844
0.200760,0.181108,0.381615,0.520380,-0.841324,0.146217
-0.393800,0.122932,0.531445,0.463730,0.102897,-0.879981
0.050016,0.406124,0.663083,-0.623018,0.586918,-0.517084
-0.720179,0.194920,0.578831,-0.589810,0.374483,0.715462
0.092622,-0.089316,0.550065,-0.709887,0.653969,-0.261503
-0.543038,0.250880,0.109262,-0.403943,0.663313,-0.629957
0.844216,-0.557914,0.293928,-0.574054,0.499345,0.648935
-0.592089,-0.293159,-0.250547,0.467868,-0.102518,0.877832
-0.493051,0.815897,-0.096570,0.666613,0.636017,0.388727
-0.542673,0.338306,-0.163590,0.905607,-0.296495,0.303262
0.492531,0.249056,0.886573,-0.615367,0.553928,-0.560792
0.297255,-0.020455,0.072289,-0.587575,-0.806859,-0.061113
0.066175,0.065408,0.281574,0.072992,0.996388,-0.043396
-0.577751,-0.427817,0.264218,0.229184,-0.008964,0.973342
0.584452,0.053225,0.950193,0.198746,0.896559,0.395829
-0.595987,-0.408403,-0.088488,-0.305114,0.077760,-0.949136
0.086076,-0.285276,-0.259092,0.836697,-0.071116,-0.543030
0.527345,0.062085,0.921196,-0.299991,0.852497,-0.428082
-0.067006,-0.296937,-0.069779,0.994178,0.000465,0.107745
0.710516,0.686841,-0.993859,0.020776,0.110914,0.993613
0.268831,-0.152051,0.072521,0.934607,-0.277326,-0.222710
0.216088,0.130684,0.269025,0.544544,0.835301,0.075789
-0.366262,-0.442410,0.219592,0.250494,0.892502,0.375091
-0.323702,0.731596,-0.073553,0.846728,0.484119,0.220637
0.501935,-0.063973,0.826085,0.240863,0.124258,0.962572
-0.328482,-0.254462,0.060238,0.421926,0.850781,0.313290
-0.583412,0.418176,0.552611,-0.225303,-0.182936,0.956960
-0.314920,-0.603388,0.767752,0.764866,0.642912,-0.040546
-0.497311,0.239675,0.524645,-0.524369,-0.588632,-0.615264
-0.514615,0.106971,0.320914,-0.201644,0.774506,0.599567
0.198368,-0.291465,0.807555,-0.106119,-0.979220,-0.172821
0.080256,-0.387948,0.389786,0.835686,0.019390,0.548866
0.165892,-0.210098,0.713370,-0.710019,0.704109,-0.010164
-0.043311,-0.037524,0.632305,0.400370,-0.726684,0.558242
-0.477304,-0.750032,0.515976,0.560017,-0.816605,0.139775
-0.379354,-0.032247,-0.656852,0.242496,-0.541520,-0.804955
0.592454,0.710554,-0.101839,0.400774,-0.089231,-0.911821
-0.710357,0.155440,0.441586,0.458248,0.152560,0.875634
0.688429,0.155050,0.870659,0.295128,0.021419,0.955218
-0.051053,0.510163,0.740356,-0.356277,-0.792129,-0.495579
-0.061601,0.068925,0.400644,-0.275975,0.872973,-0.402189
0.380188,-0.085928,0.545882,0.968631,-0.204867,-0.140651
0.233912,0.473681,0.046407,0.400232,-0.771517,-0.494546
0.127906,0.330033,0.733272,0.882698,0.345033,0.319056
-0.615787,-0.414658,0.575859,0.861882,0.494922,0.110505
-0.211515,0.207623,0.577656,0.824749,-0.460138,0.328729
0.310661,-0.135505,0.277195,-0.820889,0.335990,0.461792
-0.306868,-0.100651,0.803372,0.373306,0.926453,-0.048241
-0.370470,0.833291,-0.054435,0.782316,0.214086,0.584935
-0.204969,0.041825,0.185254,0.026143,0.402296,0.915136
0.589647,0.148599,-0.970237,0.036336,0.167870,0.985139
0.284419,0.398307,0.704256,0.280947,-0.937130,0.207019
-0.446699,-0.294788,0.662424,0.896677,0.039376,0.440930
-0.452519,-0.495048,-0.353739,-0.377218,0.081388,-0.922541
-0.108474,-0.451400,0.544867,0.448618,-0.878275,0.165451
-0.732650,-0.772768,0.411129,-0.235509,0.943824,-0.231801
0.189066,0.096873,0.308026,0.976759,-0.201178,-0.073948
0.658603,-0.090032,0.678267,-0.569327,0.269215,0.776782
0.615473,0.187818,0.807911,0.942199,0.332739,-0.039323
0.683078,0.577003,0.683892,0.165519,-0.783531,0.598901
0.342513,-0.314658,-0.137494,0.862416,0.410337,-0.296417
0.737690,0.461369,0.655339,0.648583,0.454320,-0.610682
-0.603314,-0.383256,-0.373000,0.147067,0.406218,0.901864
0.420353,-0.328273,-0.286007,0.368459,0.453631,-0.811454
0.349373,-0.127687,0.278869,-0.567725,0.613814,0.548562
-0.001376,0.143519,0.048561,0.596282,0.530599,0.602423
0.724233,0.372053,-0.981042,0.026268,0.160212,0.986733
-0.120890,0.266646,-0.055272,0.879019,-0.288347,-0.379712
0.127491,0.232509,0.539456,-0.225768,0.974009,-0.018327
-0.017485,0.077199,0.405148,0.747229,-0.138093,0.650060
-0.435785,-0.220977,0.046799,-0.100171,-0.964019,0.246237
0.137519,0.031791,0.872795,-0.613943,0.767382,-0.184930
-0.117773,0.197721,-0.043221,0.831435,-0.187532,-0.523017
-0.601132,0.171140,0.410827,-0.264946,-0.914378,0.306133
-0.465094,-0.425146,0.394076,-0.739346,-0.645357,-0.192047
-0.473667,0.663909,-0.003560,-0.202290,0.977041,-0.066856
-0.764346,0.800065,-0.263400,0.167775,0.047064,0.984701
-0.318143,0.473095,-0.016875,0.744541,0.394520,0.538528
-0.128946,0.112769,0.165192,0.418159,0.575056,0.703174
-0.440673,-0.159088,0.786781,0.753044,0.555477,0.352661
0.656317,0.214463,0.834131,0.971076,-0.190909,0.143409
0.304841,0.412183,0.733147,0.590813,-0.802233,0.085799
-0.613656,-0.677393,-0.376969,-0.109948,-0.864783,0.489960
0.550729,-0.156482,0.751624,0.272475,-0.952408,-0.136658
-0.012236,-0.242411,0.425708,-0.279376,0.954376,0.105426
0.132324,0.370489,0.680510,0.740410,0.641217,-0.201578
0.503080,0.029446,0.685209,0.943767,-0.014126,-0.330309
-0.684794,-0.222606,0.412945,-0.227742,0.692458,-0.684569
0.472576,0.326515,-0.977517,-0.065883,0.144087,0.987369
0.859335,0.291401,-0.983160,0.019759,0.211566,0.977164
-0.034062,0.154007,0.906563,-0.708108,-0.482707,-0.515342
0.500584,0.041564,0.584261,-0.354779,0.709318,0.609098
-0.378367,0.091336,0.381882,-0.576056,-0.278089,-0.768652
-0.953181,-0.109902,0.097923,0.484666,0.184770,0.854962
-0.058798,0.764105,0.199085,0.782303,-0.520204,0.342623
0.210008,0.116092,0.235132,-0.322754,0.939520,-0.114595
-0.743928,-0.138241,0.483116,0.187788,-0.981311,0.042002
-0.354777,0.799088,-0.317087,-0.208348,0.743660,0.635265
0.145730,0.551010,-0.017676,0.061662,0.727065,0.683794
-0.441764,-0.657394,0.447247,0.843460,0.089548,0.529676
-0.490504,-0.270163,0.016341,0.172885,0.264773,0.948687
-0.578997,0.086580,0.336383,0.432050,0.269437,0.860660
-0.298707,0.311792,0.780426,-0.451427,-0.891927,-0.026060
0.671699,0.255115,0.707585,-0.456086,0.889835,-0.013399
-0.499648,-0.067296,0.715115,0.864479,0.266303,0.426331
-0.187455,0.141042,0.814444,0.848389,-0.032003,-0.528406
-0.566368,0.149316,0.540559,-0.495678,-0.284215,-0.820685
-0.794540,0.278047,0.276466,-0.730724,0.524290,-0.437222
0.086596,0.444365,0.656799,0.977487,0.192336,0.086755
0.370626,-0.009772,0.171458,0.469952,0.881142,0.052289
0.220037,0.054137,-0.218363,-0.043796,-0.998085,0.043674
0.524488,0.190619,0.879061,0.280910,-0.852259,0.441298
0.031465,0.762411,-0.031864,-0.405045,-0.803378,-0.436489
-0.171141,-0.296481,-0.096890,-0.300074,0.949382,-0.092895
0.140792,0.047557,0.667960,0.826729,0.558310,0.069354
-0.540701,0.147557,-0.186411,0.880624,-0.203171,0.428045
0.619736,0.125863,0.800185,-0.766316,0.546520,-0.337750
-0.074332,0.154594,0.462734,0.883835,-0.246764,0.397420
-0.429344,-0.426384,0.625042,0.667137,0.583625,-0.462937
0.542572,0.010359,-0.963722,-0.005714,0.160691,0.986988
-0.530723,-0.606970,-0.376631,0.122889,-0.819655,0.559521
-0.462236,-0.572703,0.272122,0.740104,-0.436949,-0.511195
0.239627,-0.027621,-0.590954,-0.381222,-0.924342,0.016141
-0.358415,0.349121,0.765011,-0.249041,-0.967073,0.052430
0.172593,0.025538,0.538388,0.937211,-0.314442,0.150868
-0.329056,0.111792,0.347936,-0.575309,-0.692021,-0.436035
0.505052,0.661434,0.383449,0.507955,0.830839,0.227352
0.956194,0.307297,-0.982448,0.024693,0.241537,0.970077
0.157319,-0.027166,0.521245,0.943200,0.229298,0.240410
0.051157,0.056417,0.332075,-0.121387,-0.984662,0.125323
0.581645,-0.299152,0.868238,0.499553,-0.791486,0.352133
-0.775571,-0.129836,0.503195,-0.061390,-0.998079,-0.008301
-0.361428,-0.656287,0.419442,-0.741810,-0.409118,-0.531357
0.663072,0.005864,0.772327,0.317971,-0.090861,0.943737
-0.410118,0.092574,-0.211118,0.363532,-0.298870,0.882338
-0.799786,-0.560065,-0.054150,0.326590,0.326674,0.886918
0.282704,-0.059544,-0.835947,0.600928,0.796152,-0.070900
-0.150925,-0.410097,-0.009025,0.849008,0.041937,0.526714
-0.888799,0.162801,0.466063,0.891581,-0.386394,0.236185
0.765856,0.418111,-0.983321,0.049095,0.105327,0.993225
0.187665,0.131075,-0.969934,-0.038255,0.134331,0.990198
-0.192599,-0.411074,0.473219,0.246791,-0.969028,-0.008923
-0.604719,0.293160,-0.150115,0.943367,0.126036,-0.306879
0.228299,-0.546189,0.781565,-0.034515,0.934525,0.354220
-0.845202,0.470880,0.314079,0.087490,0.988893,0.120149
0.095324,0.279545,-0.430657,0.879577,-0.413043,-0.236092
0.788511,0.418372,-0.984567,0.048553,0.097911,0.994010
0.477149,0.517785,-0.986792,0.045745,0.112651,0.992581
0.141832,0.284496,-0.438952,0.907146,-0.420395,0.018843
0.710671,0.775440,-0.994678,-0.003326,0.112521,0.993644
-0.427422,-0.285537,0.677430,0.889614,-0.176380,0.421280
0.046584,0.557329,0.836855,0.361401,0.493496,0.791107
-0.024190,0.101433,0.407996,-0.451530,-0.203587,-0.868719
0.238692,0.069642,0.334229,0.987632,0.154691,-0.025559
0.471538,-0.186645,0.558022,0.955173,0.257459,-0.146149
-0.824314,-0.259478,0.189277,-0.667751,-0.492557,-0.558119
0.093142,-0.191921,0.666625,-0.254667,-0.903350,-0.345115
-0.128011,-0.142280,-0.244566,0.263942,0.232001,0.936221
-0.555043,0.488860,0.030635,0.761694,-0.309893,-0.569024
0.187509,0.279218,0.471617,0.957445,-0.234405,0.168385
-0.355868,-0.021237,-0.409224,-0.123040,-0.731837,0.670280
0.505157,-0.236547,0.805223,0.993434,-0.008938,-0.114054
-0.441244,0.611010,0.040230,0.947980,-0.308979,0.076585
0.142923,0.076743,0.701907,0.870558,0.490992,-0.032490
-0.764556,-0.575440,0.050412,0.459069,0.156847,0.874446
0.243316,-0.221499,0.754953,0.263121,-0.937783,-0.226563
0.330873,0.217460,-0.972960,-0.010586,0.192373,0.981265
0.568395,0.791141,-0.996102,0.006394,0.156061,0.987727
0.156123,-0.566580,0.798138,0.949863,-0.219383,0.222780
-0.223624,0.114724,0.460562,-0.392328,-0.892919,-0.220851
0.571982,-0.427883,0.767165,0.635833,0.251339,0.729757
0.105562,0.355962,0.590526,0.901581,0.409605,0.139193
0.338514,0.414072,0.864518,0.941260,0.322836,0.099030
-0.479226,-0.393355,0.697706,0.936200,-0.324886,0.134086
-0.067475,0.613291,0.869893,-0.519594,0.852444,-0.057984
-0.394787,0.751857,-0.313242,-0.197090,0.740979,0.641954
-0.677103,-0.033680,-0.256742,0.483830,0.253514,0.837639
-0.137313,-0.741628,-0.187069,0.243753,-0.919403,0.308678
0.471380,-0.229511,-0.079623,-0.562767,-0.673265,0.479590
-0.427473,-0.460586,0.641615,-0.844131,0.487653,-0.222794
0.740341,0.372379,-0.982199,-0.018888,0.173649,0.984627
-0.333525,-0.040586,0.606868,-0.241945,0.951653,0.189261
-0.703706,-0.202605,0.152643,0.186770,0.347393,0.918932
-0.811425,-0.176417,-0.075440,0.242701,0.021407,0.969865
0.177427,0.048404,0.169678,-0.489109,0.839240,-0.237588
-0.599679,0.050684,0.581946,-0.707188,0.706463,0.028205
-0.554678,0.020977,0.460954,-0.678187,0.575176,-0.457422
-0.345786,-0.512442,0.573847,-0.666239,-0.436257,-0.604818
0.458703,0.556352,-0.984976,-0.019065,0.154817,0.987759
0.191718,-0.032052,-0.938640,0.525160,-0.714324,-0.462544
-0.640833,-0.332117,0.589085,0.837455,0.422150,0.347071
0.278704,-0.361042,0.166687,-0.244653,-0.907629,-0.341107
0.514821,0.165147,0.701408,-0.538390,-0.494593,0.682286
-0.747823,0.218046,-0.302864,0.373716,-0.470803,0.799175
-0.635064,0.619805,0.256529,0.100015,-0.389750,0.915474
0.556340,0.155375,-0.970433,0.002594,0.187098,0.982338
0.146717,0.214593,0.303541,-0.702562,0.709331,-0.057071
0.035775,0.076613,0.344002,-0.131165,-0.981396,0.140205
0.059889,0.011336,-0.449472,0.915209,-0.388706,-0.106299
0.087167,0.064821,0.118572,-0.151784,-0.977049,-0.149453
-0.578893,0.317264,0.532122,0.780475,0.067865,0.621492
-0.455325,-0.511791,0.653684,0.888462,-0.445101,0.111890
-0.608876,-0.655049,0.256653,-0.243631,0.498967,0.831670
-0.051468,0.495701,-0.134130,0.746949,-0.047105,0.663211
-0.799059,-0.150358,-0.230575,-0.401089,0.129663,-0.906816
0.536178,-0.562345,0.676380,0.955669,0.210454,-0.205926
-0.805710,0.164495,0.449294,-0.526960,0.606300,-0.595578
0.634960,0.365668,0.835324,0.993440,-0.078820,0.082847
-0.356439,-0.455569,0.256991,0.126302,0.984586,0.120991
0.200446,-0.099674,0.545152,0.932890,0.352843,-0.072230
0.032451,0.594398,0.768090,0.932715,-0.065359,-0.354643
0.733741,0.466971,-0.985759,-0.030897,0.071553,0.996958
0.714515,-0.611009,0.379622,0.949022,0.177303,0.260618
-0.054326,0.089121,0.156434,0.456931,0.752280,0.474645
0.025385,0.536483,0.825801,0.639498,0.762749,-0.096211
-0.031776,-0.421302,0.554195,0.109915,0.966184,0.233253
0.069086,0.514072,0.646421,0.912945,0.380752,-0.146833
0.257813,-0.004168,0.100344,0.124020,0.963068,-0.238997
0.066695,-0.189120,0.306869,0.968453,-0.023952,0.248044
0.026267,0.594137,0.761361,0.929180,-0.171488,-0.327440
0.486140,0.787558,-0.992488,-0.043102,0.135495,0.989840
-0.891916,0.349903,0.294622,0.407791,-0.250375,0.878077
-0.968249,-0.626254,0.338644,0.880463,-0.427965,0.204035
0.499131,-0.332768,0.648219,0.986320,0.164708,0.006639
-0.603938,-0.378306,-0.089645,-0.305114,0.077760,-0.949136
-0.066901,0.476482,0.858519,0.952203,-0.018524,-0.304902
-0.649200,-0.880976,-0.471990,-0.496807,-0.815648,0.296482
-0.581905,0.391531,-0.313224,0.590602,-0.158790,0.791186
0.055626,-0.045667,0.890311,-0.461383,-0.823832,-0.329283
-0.533010,0.756743,0.039536,0.801067,0.322491,-0.504273
0.479800,0.044756,0.644374,-0.703647,0.708707,0.051144
0.006730,-0.192573,0.593214,-0.570000,0.821132,0.029035
0.044817,0.048730,0.296171,-0.603352,-0.789902,-0.109640
-0.163345,-0.252963,-0.414725,0.108949,0.391654,0.913640
0.161943,-0.320847,0.877352,0.927706,0.372226,0.028453
-0.372912,-0.064365,0.749595,0.987656,-0.155231,-0.020942
0.849931,0.312183,-0.019065,-0.725269,-0.049274,0.686700
-0.309931,0.427818,-0.432882,0.498991,0.458515,0.735372
0.263582,0.566255,0.847162,0.603540,0.785799,0.135129
0.640624,0.195244,0.695445,0.808373,0.083163,-0.582767
0.430435,0.381824,-0.062606,0.109153,0.664217,0.739528
-0.238742,-0.402344,0.719512,0.869780,0.129161,-0.476236
0.563771,0.362932,0.583905,-0.295567,-0.779234,0.552662
-0.042480,0.058762,0.215729,0.894477,0.353411,0.273883
0.221492,0.089447,0.369155,0.910161,0.039371,0.412379
0.096936,-0.166580,0.947505,0.200078,-0.152369,0.967860
0.613085,0.281825,0.872207,0.758175,0.600603,0.253865
0.158201,0.194463,0.483792,0.741054,-0.635477,0.216812
-0.603888,0.014593,0.283176,-0.397359,0.891935,0.215772
-0.603314,0.371466,0.234865,0.987979,0.151234,-0.032020
0.497000,-0.609381,0.784129,0.816797,-0.074733,0.572064
-0.496064,-0.482410,0.443562,0.840940,0.488449,0.232888
-0.713319,0.868405,-0.027289,0.588952,0.435469,0.680810
-0.596092,0.872444,-0.020774,0.004109,0.507085,0.861886
0.390007,-0.088534,0.347580,0.878460,-0.449215,-0.162831
0.229910,0.485408,0.025010,0.259458,-0.813843,-0.519943
0.261711,-0.143192,-0.929954,0.223601,-0.506645,0.832655
0.665825,-0.236612,0.831194,-0.676504,-0.196499,-0.709740
-0.811739,0.121043,0.368870,-0.557547,0.320276,-0.765875
0.613602,-0.410163,0.852217,0.879380,-0.247996,0.406434
0.225336,0.073095,0.131228,0.115280,-0.992929,-0.028342
-0.120840,-0.541498,-0.153444,0.520483,-0.121987,-0.845113
-0.294343,0.178371,0.593606,0.625851,-0.414061,0.660957
-0.498091,0.619154,-0.018264,-0.643186,0.734647,-0.215884
0.195873,0.247101,0.487744,0.928338,-0.310289,0.204719
-0.217544,-0.100586,-0.233797,0.388710,0.649813,0.653182
0.142613,-0.028338,0.694323,0.689256,0.632208,-0.353891
0.365532,0.189056,0.825979,-0.695139,-0.082629,-0.714111
-0.574215,0.040457,0.446553,-0.722102,0.568018,-0.394874
-0.349633,-0.262931,0.304537,0.909480,-0.392211,0.137903
0.153472,0.002411,0.702102,-0.554158,-0.832316,-0.012622
-0.145470,-0.306318,-0.224736,0.006552,0.156271,0.987693
0.059835,-0.131726,0.572085,-0.829947,0.430685,-0.354539
0.478084,-0.234788,-0.194884,-0.237380,0.742123,-0.626821
0.767153,0.177394,0.794809,0.950578,0.123274,0.284963
0.185483,-0.135895,0.529523,0.872046,0.409898,0.267431
0.488424,-0.701368,0.738007,-0.278541,-0.957934,0.069120
0.380705,-0.096872,0.631824,0.881722,0.454483,0.126540
0.512537,0.165864,-0.128131,0.899490,0.214213,-0.380828
0.656368,0.723193,-0.992185,0.023195,0.120930,0.992390
0.430540,-0.007948,0.447034,0.942271,-0.329816,-0.057856
0.237391,-0.288990,0.824341,-0.085151,0.359102,0.929406
-0.587310,-0.368403,-0.005732,0.396693,-0.369531,-0.840287
-0.074176,-0.003453,-0.822490,-0.501162,-0.330633,0.799699
-0.149990,0.754853,-0.169286,0.272667,-0.643099,-0.715595
0.102340,-0.204169,0.667551,0.330110,0.834631,0.440930
-0.218996,-0.487231,0.525553,-0.025512,0.877857,0.478242
0.412506,-0.086384,0.552557,-0.599864,0.780147,0.177578
0.679701,0.682606,0.338608,0.129186,0.186113,0.973998
0.083685,0.423193,0.913826,0.271449,0.615649,0.739792
0.593234,-0.505212,0.766773,0.894690,0.319333,-0.312340
-0.422899,-0.074332,-0.449757,-0.543027,0.406356,-0.734844
0.743719,-0.133094,0.703544,0.920580,-0.268689,0.283441
-0.514250,-0.075634,0.725030,0.823634,0.226250,0.520037
-0.601081,-0.350032,0.514072,-0.162593,-0.930801,0.327373
-0.552860,0.396613,0.545063,-0.018565,-0.681682,0.731413
-0.574839,0.626710,0.011606,0.993686,-0.054456,0.098090
0.241759,0.071401,-0.225822,0.103248,0.994633,-0.006665
0.682403,0.019805,0.819339,-0.590692,0.285625,-0.754653
-0.584037,0.803453,-0.011482,-0.205872,0.785196,0.584023
-0.730779,0.330359,0.461345,-0.619387,0.428937,-0.657550
0.384136,-0.508208,-0.587892,-0.235625,-0.971611,0.021275
0.112889,-0.083257,-0.273867,0.894116,-0.068234,0.442607
0.367974,0.005212,0.289976,0.853637,-0.492837,-0.168569
-0.559407,0.406776,0.542624,-0.125347,-0.603559,0.787404
-0.224039,-0.614918,0.725795,0.792673,0.580221,0.187118
-0.284108,-0.147556,-0.485448,-0.527355,-0.304531,-0.793194
-0.749123,0.378762,0.277996,-0.452856,0.462428,-0.762288
-0.309570,-0.409055,0.513075,0.297257,0.875793,0.380297
-0.524437,0.266189,0.207950,-0.432840,-0.883442,-0.179389
0.400606,0.013356,0.544458,-0.619940,0.779888,0.086311
-0.460885,0.018176,0.398989,0.808231,0.126420,0.575135
-0.308685,-0.536351,0.561814,0.192958,0.963127,0.187491
-0.258438,-0.337524,0.103388,-0.357071,-0.906693,-0.224520
0.809453,0.251661,-0.977411,0.083020,0.214221,0.973251
0.386318,-0.090553,0.543853,0.858212,-0.453748,-0.239969
0.233078,0.110033,0.201524,-0.314004,0.947520,-0.060070
-0.423420,-0.801173,-0.425833,-0.095612,-0.809992,0.578594
0.114240,0.696418,-0.489756,0.000142,-0.980173,0.198145
0.144950,0.018111,0.213183,0.638615,-0.761997,0.107386
0.267686,-0.362736,0.187728,-0.002627,0.961953,0.273202
0.412820,0.023583,0.358439,0.862855,-0.431867,-0.262626
-0.610798,0.629381,0.247610,0.037495,-0.357907,0.933004
0.196548,0.077655,0.337879,0.974481,0.218853,-0.049893
-0.820261,0.389056,0.269292,-0.523564,-0.362851,0.770857
-0.112422,0.205734,0.804457,-0.104607,0.788711,0.605799
-0.042064,0.030294,-0.518344,-0.061018,0.994419,-0.086066
0.450127,0.667688,0.400342,-0.511424,0.164211,0.843493
0.289459,0.015440,-0.444719,-0.134810,0.988442,0.069347
-0.893216,-0.316091,0.106378,0.947980,0.044668,-0.315179
0.362729,0.014267,-0.499795,0.114914,0.615901,0.779398
-0.661255,0.018306,0.281610,0.312779,-0.866039,-0.390060
-0.154097,-0.667818,-0.180643,0.912391,0.373414,-0.167642
0.680427,0.455114,0.642808,-0.469385,-0.600464,0.647395
0.766272,0.712965,-0.147089,-0.506950,-0.699017,0.504357
-0.545116,0.243063,0.522723,0.883448,0.371624,0.285334
0.231470,0.449902,0.877156,-0.327169,-0.702259,-0.632292
0.446543,0.819870,-0.994553,0.044262,0.106186,0.993361
0.617814,-0.481042,0.769141,0.917250,0.341640,-0.204779
-0.122035,-0.620651,-0.157484,0.981413,-0.127294,0.143614
-0.180024,-0.754657,0.043808,-0.096310,0.408988,0.907443
-0.572762,0.020326,0.333179,0.427582,0.273155,0.861719
-0.685105,0.459609,0.534400,0.601539,-0.163096,-0.782017
0.450076,0.174853,0.516635,0.985933,0.039071,-0.162511
0.593079,0.002151,0.878919,0.646322,-0.714629,-0.267532
0.667075,0.398437,0.799580,0.378420,0.619074,-0.688147
0.240925,0.158502,0.324813,0.955055,-0.195585,0.222748
-0.708073,-0.401759,0.568097,0.851435,0.392948,-0.347347
-0.372392,-0.000260,0.729320,0.997722,-0.041400,-0.053262
-0.517577,0.911206,-0.042811,0.312982,-0.110196,0.943345
-0.668787,-0.636352,0.408762,0.833462,0.539109,-0.121258
0.442646,0.497394,-0.280577,-0.615981,-0.021732,0.787461
0.032036,0.740326,-0.012959,-0.476025,-0.687009,-0.549016
-0.291175,0.740847,-0.319223,0.604527,0.339414,0.720656
-0.334562,-0.363061,0.171494,-0.295100,-0.910489,-0.289700
0.929591,0.447427,-0.991206,-0.075064,-0.116820,-0.990312
-0.055160,-0.387231,0.758193,0.626012,-0.778670,0.042209
-0.656942,0.261173,0.140040,0.370743,-0.876880,0.305993
0.284108,0.546059,0.042687,-0.281568,0.841433,0.461204
-0.561589,-0.343452,-0.278103,0.119547,-0.612988,0.780996
-0.404038,-0.060716,-0.646439,-0.182685,0.683750,0.706479
-0.302605,0.379153,0.464888,-0.445112,-0.189654,-0.875161
0.450181,-0.358566,0.768891,0.813057,-0.566955,0.132287
0.886357,0.583388,-0.990263,0.170533,0.172513,0.970133
-0.218841,0.081825,0.554889,0.922747,0.291669,0.251928
-0.970381,-0.169706,0.160778,0.320699,0.940113,0.115496
0.150979,-0.351856,0.800114,0.888169,-0.398089,-0.229524
-0.710722,0.453030,0.322766,0.983426,0.133112,0.123102
0.196548,-0.215765,0.741015,-0.056676,0.963554,0.261440
-0.804308,0.030294,0.364313,-0.401288,0.340994,-0.850112
-0.680532,0.269642,0.587055,0.939389,0.088553,0.331220
0.671543,0.273290,-0.976022,0.000764,0.118770,0.992922
0.586790,0.128990,0.768339,-0.287695,-0.176873,0.941248
0.822183,0.415440,-0.985439,0.139268,0.161989,0.976916
0.220868,0.061108,-0.378180,-0.025732,-0.916094,0.400136
-0.834498,0.551596,0.267084,-0.711188,0.592186,-0.378851
0.720700,0.063844,0.822329,0.965028,-0.229895,-0.125970
-0.886981,0.304169,0.297631,-0.511185,-0.846077,-0.151143
0.776091,0.560261,-0.010449,0.548717,0.652533,-0.522599
-0.430019,-0.825667,-0.000392,0.771550,-0.477200,-0.420701
0.255111,0.364430,-0.178596,-0.593795,0.697911,0.400410
0.115175,-0.317198,0.898980,0.963251,-0.173830,0.204769
0.163034,-0.199934,0.077363,0.551916,0.795803,0.249169
-0.724543,-0.012182,0.355448,-0.519475,0.528936,-0.671098
-0.129362,0.107492,0.887107,0.917688,-0.327858,-0.224404
0.587155,0.299610,0.892145,0.760221,0.638506,0.119893
0.262177,0.567362,-0.466383,0.953151,-0.205384,0.222084
0.665825,0.363388,0.800399,-0.078421,-0.227414,0.970635
0.229650,0.115766,-0.964630,-0.007077,0.156228,0.987696
0.152901,0.093746,0.800595,-0.006023,-0.771619,0.636056
0.412766,0.154268,-0.969471,0.064823,0.126385,0.989861
0.622124,0.121499,-0.968688,0.067656,0.191578,0.979143
-0.214426,-0.045602,0.854816,-0.218490,0.915675,-0.337344
-0.121204,0.054137,0.483436,-0.631966,-0.615915,-0.470392
-0.516486,-0.657198,0.294800,-0.530750,0.778660,0.334653
-0.772922,-0.262670,-0.077914,0.236245,0.105920,0.965903
-0.276573,-0.389641,0.741549,0.955722,-0.117817,-0.269656
-0.112733,0.091792,0.455934,-0.423437,0.857353,0.292655
-0.064097,-0.407426,0.519999,0.842655,-0.522913,0.128428
0.562213,0.011271,0.867170,-0.000376,0.746611,0.665261
0.264569,0.416743,0.751535,0.511993,-0.851264,-0.114951
-0.099847,0.054397,0.475640,0.988699,-0.098345,0.113146
-0.602432,-0.667622,0.377521,-0.722877,0.648329,0.238992
0.720075,-0.702280,0.356961,-0.730603,-0.622110,-0.281422
0.244096,0.383910,0.779180,-0.624460,0.781051,0.002975
-0.105458,0.023518,0.480054,0.269461,0.896840,0.350812
0.529267,0.492118,0.764494,0.665762,-0.464252,0.584150
0.211724,0.276808,-0.972409,0.049153,0.199530,0.978658
-0.492946,-0.530489,0.266230,-0.645296,0.378632,0.663499
-0.387305,0.309577,0.688965,0.400586,-0.913443,-0.071785
0.102549,0.326580,0.891735,-0.315303,0.368905,-0.874353
0.136482,0.344691,0.896648,0.711199,0.144578,0.687963
-0.527761,-0.435700,0.502234,0.934660,0.212209,0.285269
-0.151134,-0.439283,-0.014757,-0.713211,-0.158681,-0.682752
0.656786,0.542541,0.657903,0.051770,-0.903035,0.426436
-0.179038,0.293747,0.513751,0.762936,0.611099,0.210921
-0.810908,-0.126058,0.542927,0.787955,0.265586,-0.555510
-0.116580,-0.657915,0.684017,0.632535,0.570496,0.523864
0.144899,-0.168012,0.887694,0.888945,0.405333,0.213266
0.510041,0.044300,0.746213,0.998649,-0.045342,0.025395
-0.221597,-0.124039,0.785891,-0.379982,0.920740,0.088610
-0.670709,0.125798,0.362835,0.258217,-0.910443,0.323139
0.421808,0.533421,0.038664,-0.215262,0.806838,0.550159
-0.278806,-0.133354,0.575645,0.583319,-0.031073,0.811648
0.597338,0.607883,-0.076633,-0.679892,0.414645,0.604827
-0.841305,0.093486,0.479627,0.132306,0.882657,0.451012
0.244302,0.074724,0.332912,0.998762,0.009201,-0.048877
0.236716,-0.003387,-0.824394,-0.526112,-0.849631,0.036501
0.188026,0.045342,0.017534,0.361772,-0.885864,0.290459
-0.340122,-0.170423,-0.636506,-0.122344,0.764207,0.633261
0.391568,-0.085341,0.547769,-0.599864,0.780147,0.177578
0.206475,-0.335700,-0.294925,0.358970,-0.007706,0.933317
0.414016,0.124235,0.301298,0.803926,0.526222,-0.277116
0.161372,0.213681,0.489916,0.741054,-0.635477,0.216812
-0.868117,-0.083127,0.056144,0.709588,0.280079,0.646560
0.278340,-0.134332,0.068249,0.934607,-0.277326,-0.222710
0.616203,-0.041433,0.905371,-0.674138,0.720351,-0.163194
0.489258,0.339284,0.564893,-0.039276,0.864929,-0.500356
-0.766792,0.073617,0.561475,0.604889,0.699356,-0.380802
0.112318,0.664756,-0.027947,0.315950,0.609077,0.727462
0.528852,-0.536677,0.665379,0.875142,0.444752,-0.190581
0.282548,0.105734,-0.091390,-0.812152,-0.466317,0.350654
-0.371612,-0.405862,0.214412,-0.374627,-0.865685,-0.332029
0.101509,0.355440,0.757463,0.909514,0.231245,0.345412
-0.781080,0.216157,0.184702,-0.080044,0.948573,0.306271
0.404089,-0.050814,0.475390,0.889259,-0.362117,-0.279445
0.526720,0.823323,-0.449899,-0.290425,0.041444,0.956000
0.479696,0.346515,0.571195,-0.039276,0.864929,-0.500356
-0.626491,-0.624495,0.547787,0.011182,-0.422986,0.906067
0.142403,-0.010619,0.690799,-0.601433,-0.784431,-0.151484
0.107224,0.148795,-0.966659,0.056040,0.165197,0.984667
0.290084,0.277525,-0.473575,0.594623,-0.467099,0.654402
0.466860,0.429707,-0.982199,0.067928,0.119923,0.990457
0.173113,-0.014983,0.560265,0.879291,0.412207,0.238605
-0.315491,0.129251,0.340406,-0.429058,-0.753384,-0.498319
0.207255,0.085799,-0.967478,-0.079062,0.198324,0.976942
0.232717,-0.170228,0.731670,-0.489704,0.614697,0.618334
0.280988,-0.019023,-0.423536,-0.518204,0.836699,-0.177198
-0.430800,0.778372,-0.321982,-0.146049,0.733672,0.663623
0.223934,0.152509,0.344447,0.943351,-0.331565,-0.012404
-0.651382,-0.312443,0.068818,0.123200,-0.964656,0.232937
-0.421082,0.239870,0.685583,0.807399,-0.580814,-0.103739
-0.709840,-0.964690,0.387650,-0.278407,-0.953021,-0.119337
0.700953,0.024561,0.782438,0.821612,-0.546205,-0.163138
0.482087,0.376222,0.594354,-0.477876,-0.712171,0.514244
0.291746,-0.303583,-0.510778,0.902791,0.427598,-0.046137
0.645768,0.620978,0.076366,-0.633833,0.535316,0.558294
0.311857,0.276743,0.864215,0.765212,-0.276175,0.581530
0.651433,0.153616,0.878295,0.722001,-0.636757,0.270657
-0.282183,-0.918436,0.705894,-0.780094,0.611031,-0.134518
0.395361,-0.027427,0.816615,-0.089593,0.992711,0.080607
-0.436565,-0.199934,0.063567,-0.294903,0.455228,-0.840119
-0.687182,0.113681,-0.354985,-0.557427,0.451331,-0.696832
0.218736,0.188404,0.440483,0.847175,-0.528357,0.055970
0.643377,0.386449,-0.230059,-0.654404,0.583981,0.480335
-0.064097,-0.042996,-0.670755,0.308350,-0.273604,0.911077
-0.227417,0.811857,-0.336063,0.584104,0.343302,0.735504
-0.419160,-0.444234,0.169536,-0.579069,0.795869,0.176837
-0.240563,0.106905,0.317621,-0.043239,-0.993627,0.104092
-0.400035,-0.006839,0.689731,-0.150315,0.987295,-0.051523
0.102394,-0.126905,0.931983,0.228465,0.806695,-0.545020
-0.028243,0.484105,0.744379,-0.567745,-0.762433,-0.310422
0.434434,-0.317719,0.661338,-0.419572,-0.717816,0.555607
0.103329,0.733747,0.837531,0.064133,-0.875611,0.478740
0.654135,0.780783,-0.083913,-0.643857,0.275603,0.713787
-0.074021,0.046189,0.466899,-0.909935,0.384305,-0.155973
-0.062692,0.161434,0.059241,0.557349,0.568559,0.605064
0.199095,-0.108730,0.564715,0.982439,0.178987,-0.052701
0.316481,-0.411140,-0.210923,-0.871953,0.480381,-0.094511
-0.328016,-0.434723,0.794364,0.918814,0.230840,-0.320146
-0.897114,-0.049967,0.064760,0.231271,-0.531120,0.815123
0.182466,-0.016482,0.125995,0.409113,-0.910573,0.059017
-0.254020,0.360261,0.710273,-0.297190,0.901443,0.314769
0.294759,-0.368208,-0.293252,-0.104278,-0.512263,0.852475
0.200345,-0.080912,0.882105,0.453988,-0.625534,-0.634510
-0.644106,-0.589772,0.427862,0.552704,0.833351,0.006687
0.284835,-0.675895,-0.503160,0.875725,-0.456263,0.157891
-0.118033,-0.375179,-0.264307,-0.467935,0.299933,-0.831311
0.037961,0.048534,0.329797,-0.121387,-0.984662,0.125323
0.245603,-0.063127,0.723125,-0.087950,0.312538,0.945825
0.573539,0.599935,-0.990761,0.104360,-0.034716,-0.993934
0.620618,0.548404,-0.988590,-0.026514,0.156086,0.987388
0.116526,0.537199,-0.429980,-0.574300,0.482853,0.661084
-0.335862,0.712182,-0.106752,0.561924,0.750679,-0.347452
-0.058588,-0.235309,-0.101180,-0.385252,-0.870264,-0.306956
0.286912,-0.482800,-0.324902,-0.685293,0.698628,0.205650
0.525268,-0.323192,-0.412429,-0.523566,0.777936,0.347411
0.042686,0.052053,0.344892,-0.131165,-0.981396,0.140205
-0.076828,0.501955,-0.114460,0.525706,-0.238820,0.816455
0.244822,0.126840,0.297150,-0.701185,0.709549,-0.069856
-0.030736,0.363779,-0.488474,-0.530993,-0.256817,0.807522
0.146717,-0.521368,0.792976,0.865106,0.473667,0.165017
0.274752,0.443649,0.801129,-0.138264,-0.659458,0.738917
-0.097871,-0.492117,-0.209641,-0.680198,0.471580,-0.561197
-0.133364,-0.428794,0.556972,0.051815,0.851403,0.521946
-0.440828,0.337004,0.661926,-0.394959,-0.902429,0.172129
0.239367,-0.011857,-0.858305,0.719551,0.693887,0.027717
0.236405,0.052118,-0.050270,0.166338,0.941955,-0.291637
0.613656,0.341043,-0.977838,-0.068214,-0.068917,-0.995288
-0.206840,0.162931,0.790840,0.996114,-0.079755,0.037356
-0.573539,-0.665211,0.307030,0.832224,-0.517302,-0.199503
0.202111,0.224691,0.541004,0.423352,-0.871761,0.246589
0.505002,0.281695,0.705609,-0.579140,0.482015,-0.657464
-0.628829,-0.916417,-0.444541,0.318873,0.765290,-0.559153
0.194211,-0.001759,0.680421,-0.610637,-0.791683,0.018980
0.449192,0.713551,0.370899,0.703587,0.704048,0.096340
0.270544,0.563453,-0.499297,0.894864,0.403376,-0.191067
-0.326144,-0.546123,-0.698702,0.874367,0.179152,-0.450985
-0.034529,-0.335179,0.472115,-0.882710,-0.337764,-0.326709
-0.044456,-0.035570,-0.150773,0.714182,0.248961,0.654188
0.633142,0.445342,-0.054417,0.061046,0.183369,-0.981147
0.051522,0.574202,0.884419,0.048308,0.553769,0.831268
0.884850,0.604887,-0.994482,0.217822,0.155213,0.963568
0.686922,0.678568,-0.992274,-0.010646,0.110720,0.993795
0.195666,-0.671074,0.366413,-0.657925,0.750427,0.063201
0.535242,0.553877,-0.990761,-0.005039,0.214583,0.976693
0.468938,0.245212,-0.973548,0.028614,0.111285,0.993377
0.487073,0.059805,0.943393,0.123772,-0.949733,0.287555
0.323652,-0.010814,-0.955231,0.403197,0.295937,0.865941
-0.874457,-0.175114,0.162041,-0.227378,-0.963339,-0.142397
-0.372497,0.526255,-0.742688,0.598351,-0.049281,-0.799717
0.025487,0.039153,0.709988,0.149160,0.945994,-0.287832
0.731714,-0.109967,0.694804,0.993713,-0.087759,0.069525
0.211048,-0.181693,0.605141,0.891096,-0.453714,0.009610
0.122971,0.396743,0.926020,0.248792,0.915141,0.317205
0.456207,0.349447,-0.980116,-0.037089,0.145506,0.988662
0.421497,-0.153159,0.628834,0.860321,0.500116,0.098645
-0.478449,-0.431595,0.253253,-0.110302,0.911048,-0.397273
0.582946,0.436743,-0.977945,0.018522,0.169620,0.985335
0.154357,0.124756,0.784823,0.131108,0.929966,-0.343474
-0.155759,-0.363648,0.019172,0.938562,0.326116,0.112912
0.313934,0.455636,0.829254,-0.551763,-0.810404,0.196986
-0.164385,0.250946,0.553643,0.667277,-0.700128,0.254093
0.083219,-0.120781,0.898499,-0.489860,-0.388298,-0.780552
-0.356959,0.835571,-0.059117,0.782316,0.214086,0.584935
-0.702825,-0.228990,0.007975,-0.043579,-0.533937,0.844400
0.119384,0.229055,0.574523,0.998268,-0.057359,0.013100
-0.182051,-0.222410,-0.410097,0.076081,0.492338,0.867072
-0.063992,-0.459674,0.553162,-0.337713,0.922016,0.189304
0.031671,-0.181563,0.349876,0.988042,-0.144785,0.053009
-0.630856,0.922346,-0.040675,0.210238,-0.240990,0.947483
-0.309516,0.311922,0.601563,-0.540964,0.766785,-0.345540
0.631480,0.091401,0.858803,-0.722098,0.685109,-0.095913
-0.647690,-0.875374,0.438329,-0.735812,-0.649636,-0.191191
-0.557846,-0.519218,0.469089,-0.586331,0.707151,-0.395162
0.123593,-0.053094,0.540364,-0.561172,0.647946,-0.515025
0.176076,0.031597,0.104313,-0.395378,0.917179,0.049595
-0.461091,0.179414,0.497125,0.874783,0.095415,0.475027
0.259529,0.199283,0.916710,0.268782,0.927261,0.260660
0.333575,-0.131726,-0.161668,0.873746,0.224026,0.431717
0.170151,-0.058892,-0.410809,0.607709,-0.793698,0.027081
-0.712282,0.056808,0.493512,0.517003,0.457631,0.723382
0.024345,-0.600847,-0.249568,0.448174,0.620126,0.643881
0.646599,0.539870,0.655695,0.233709,-0.881949,0.409323
0.473511,-0.336873,0.618634,0.955249,0.285217,0.078427
0.426902,0.651467,-0.990388,-0.057778,-0.162634,-0.984993
0.787626,0.410164,0.688307,0.964192,-0.248500,-0.092632
-0.129206,-0.273615,-0.097976,-0.028392,0.926033,0.376372
-0.350879,-0.372117,-0.094861,-0.011515,0.892288,0.451319
0.241289,0.068860,0.072343,0.107356,0.993604,-0.035012
0.044611,-0.046319,0.933638,0.656857,0.754005,0.003956
-0.043311,0.134854,0.823309,0.542344,0.679204,0.494515
-0.153107,0.427883,-0.678267,0.258919,-0.223938,-0.939581
0.148277,-0.206970,-0.528561,0.952491,0.189029,-0.238807
-0.400765,0.265733,-0.125728,-0.605008,0.521574,-0.601603
0.358155,-0.087426,-0.957563,-0.333748,-0.088661,-0.938484
-0.100938,0.141238,0.080941,0.544972,0.592804,0.592949
-0.161994,0.589902,-0.668761,0.243984,-0.261008,-0.933995
-0.067215,0.346515,-0.875768,0.907217,-0.193430,0.373553
-0.584763,-0.372768,0.568774,0.363400,0.931575,-0.010446
0.144224,-0.579609,-0.278246,0.792971,0.190162,-0.578822
0.355713,-0.261629,0.830892,-0.388682,-0.656839,0.646134
-0.687287,0.144170,0.357673,-0.426921,0.162558,-0.889558
-0.525474,0.083844,0.722431,0.997440,0.043207,0.056982
-0.335811,0.479544,-0.183705,0.172942,-0.102612,0.979572
0.700068,-0.051140,0.791605,0.998266,-0.050445,-0.030341
0.722672,0.105668,-0.964843,-0.064037,0.277564,0.958571
-0.327651,-0.429445,-0.212436,-0.063865,0.617510,0.783966
0.051677,0.112639,-0.255015,-0.015445,-0.737657,0.674999
0.512068,-0.431335,0.650195,0.975353,0.198788,0.095762
-0.033802,-0.103322,-0.166367,0.739079,0.188532,0.646698
-0.201175,-0.135114,-0.322641,-0.246863,0.728542,-0.638972
-0.664890,0.108730,0.343913,-0.433811,0.242124,-0.867862
0.799684,0.403323,-0.984709,0.073316,0.132535,0.988463
0.149730,0.067688,-0.964594,0.042640,0.244329,0.968754
-0.155292,-0.362084,0.015932,0.972378,0.193557,0.130452
-0.204864,-0.534462,0.648433,0.940047,-0.212516,0.266737
-0.043780,0.551206,0.877085,0.807559,0.417870,-0.416214
0.125258,0.651793,-0.016021,0.325765,0.386304,0.862929
0.044402,-0.490749,0.657404,-0.395555,0.806490,0.439444
-0.130453,0.353746,0.699272,-0.066555,0.983691,-0.167099
-0.555144,0.187753,-0.162397,0.787605,0.538582,-0.299345
0.064824,-0.386189,0.607971,0.629401,0.428809,0.648057
-0.498037,0.015180,-0.168699,-0.612165,0.782920,-0.110862
0.305983,0.546971,0.800203,0.800026,0.591615,0.099750
-0.839538,0.254462,0.279865,-0.544363,-0.834575,-0.084577
0.432722,-0.132182,0.472774,0.948083,0.288528,-0.133759
0.540336,0.347036,-0.976930,0.019685,0.122575,0.992264
-0.219206,0.109186,0.287377,0.338870,-0.540177,0.770309
0.724959,0.503779,0.652580,0.519014,0.552908,-0.651857
-0.708800,-0.009380,-0.275486,0.928615,0.359056,-0.093552
-0.077450,-0.734919,0.023052,-0.321282,-0.453130,-0.831536
0.177842,0.046646,0.010841,-0.631862,0.750707,-0.192844
0.319703,-0.081759,0.808979,0.928370,-0.115011,-0.353415
-0.918833,-0.013941,0.067732,0.272900,-0.536110,0.798819
0.281923,-0.295635,-0.319989,-0.417917,-0.596255,0.685439
-0.599574,0.223649,0.230397,0.548729,-0.366452,0.751405
-0.296164,-0.022085,0.185966,0.153784,0.172755,0.972886
0.589908,-0.393680,0.200064,-0.234616,0.966501,-0.104072
-0.795631,-0.201432,0.046193,-0.381550,0.472080,-0.794707
0.239938,0.066711,-0.301547,-0.588997,-0.753527,-0.292027
0.536854,-0.281107,0.831853,0.937205,-0.122439,0.326583
0.453505,0.529707,-0.985296,0.005924,0.119833,0.992776
0.893321,0.514203,-0.988340,0.142125,0.090888,0.985667
0.635429,-0.520455,0.778682,0.919428,-0.073318,-0.386364
0.545531,-0.360651,0.720224,0.106172,0.993929,0.028841
0.595781,0.146515,0.832814,0.885416,-0.437122,-0.157997
-0.852424,-0.700455,0.460455,0.778999,0.624534,-0.055842
0.484475,-0.230227,-0.093579,0.759320,0.565214,-0.322439
0.116476,0.333941,0.790484,-0.494743,0.866285,0.069135
0.761229,0.597199,-0.130552,0.618103,-0.667885,0.414582
0.043882,0.328665,-0.163412,0.056678,-0.701395,0.710516
0.675232,0.505343,0.661392,0.429986,0.471023,-0.770227
-0.868742,0.300261,0.292077,0.598370,0.783411,0.167991
0.168645,-0.571205,0.844794,-0.143887,-0.552614,0.820923
0.423940,-0.289967,0.694964,0.868071,0.432023,0.244561
-0.404818,0.081173,0.525073,0.537940,0.419168,-0.731381
0.428148,-0.006384,0.449045,-0.530871,0.821598,0.207735
-0.459483,-0.525211,0.486836,0.889083,0.286722,0.356821
-0.018940,0.071401,0.984496,0.776016,0.620925,0.110684
-0.767518,-0.666514,0.267583,-0.735896,0.485911,-0.471538
-0.398269,0.278828,0.533937,0.555281,0.438679,-0.706558
-0.331653,-0.405928,0.251598,0.332345,0.942396,-0.037901
-0.046584,0.612638,0.828595,0.253423,-0.967240,0.014960
-0.445243,-0.463648,0.164516,-0.478475,0.653827,0.586150
0.134921,0.264039,0.545811,0.971467,-0.035606,0.234486
0.190782,-0.214136,0.691813,0.938816,-0.330765,-0.096013
0.599105,0.259804,0.878545,0.896472,0.443040,-0.007308
0.274651,-0.548403,0.793278,0.054936,-0.848724,0.525974
-0.372287,0.207296,0.181961,0.376372,0.864530,0.333065
0.250956,-0.364690,-0.569806,0.152762,-0.253112,0.955300
-0.388710,-0.004690,-0.444381,-0.399802,0.777501,-0.485439
0.441190,0.444952,-0.981914,0.008206,0.144299,0.989500
-0.604614,-0.589446,0.031098,-0.296900,0.129484,-0.946089
0.334460,-0.047752,0.184631,0.142891,0.981714,0.125776
0.863182,0.567297,-0.991384,0.187677,0.187479,0.964173
0.351295,0.726580,-0.237695,0.732703,-0.330512,-0.594902
-0.305827,-0.151725,0.709703,-0.544219,-0.597126,-0.589293
-0.030060,-0.542736,0.741246,0.531529,0.652937,-0.539583
-0.213335,0.260717,0.799740,0.570529,0.821185,0.012333
0.037126,-0.500000,-0.261619,0.859915,0.378570,0.342389
0.600456,0.422802,0.612137,0.359387,0.668005,-0.651621
0.682298,-0.610293,0.720491,0.688935,-0.009626,-0.724759
0.225130,-0.034723,0.008669,0.340548,0.114102,-0.933278
0.182831,-0.071270,-0.706107,0.140612,-0.173220,-0.974794
0.608563,-0.296937,0.846699,-0.499461,0.274575,0.821673
-0.041024,-0.323648,-0.129110,0.935695,-0.279458,0.215358
0.703605,0.109316,-0.965039,-0.089776,0.269709,0.958748
-0.291121,-0.436742,0.687274,-0.068069,0.585822,-0.807576
-0.305878,-0.604235,0.757517,-0.714373,-0.681095,-0.160567
-0.409182,-0.407166,0.337451,-0.775965,-0.578240,-0.252024
0.553951,-0.074983,0.477206,0.493307,0.750588,-0.439620
0.554522,0.767948,0.008509,-0.848827,0.239238,0.471442
-0.184442,0.023063,0.845026,0.121848,-0.933907,0.336110
