-0.575190,-0.016399,0.969940,0.966751,-0.032727,0.253617
-0.220478,-0.217324,0.914304,-0.274180,-0.957139,0.093333
0.034165,0.545869,0.115575,0.247650,-0.763349,0.596630
0.082518,-0.458547,0.096835,0.957313,0.272585,-0.096174
-0.042005,-0.173243,-0.168135,-0.332966,-0.672270,0.661201
-0.193037,-0.453291,0.406804,0.690391,-0.719873,0.071723
0.576591,-0.619946,-0.970986,-0.496552,-0.123513,0.859174
0.055447,-0.344383,0.826678,0.878907,0.283255,-0.383783
-0.133202,-0.399818,0.752141,0.556277,0.621348,0.551800
-0.127322,0.020814,0.964069,0.544495,0.385453,0.744950
-0.075328,0.108417,0.811779,0.877035,-0.455597,-0.152452
-0.220572,0.009040,0.754011,0.245419,-0.874089,0.419212
0.109307,-0.276123,0.599228,0.618601,0.263801,0.740096
0.190890,-0.653305,-0.737343,0.759622,0.485467,0.432777
-0.399422,0.089355,0.592955,0.208077,0.547299,-0.810659
-0.332681,-0.130984,0.733563,0.834042,-0.189634,0.518085
0.376459,0.031747,0.290686,-0.383583,-0.531443,0.755270
-0.212545,0.113252,0.869868,-0.428900,0.435505,0.791442
-0.115839,-0.228327,0.842462,0.846101,-0.400864,0.351312
0.146644,-0.465415,0.825291,0.910818,-0.325117,0.254380
-0.230842,-0.383489,0.633832,0.768004,0.611952,-0.188902
0.070568,-0.403953,-0.469216,0.861033,-0.507390,0.034310
-0.107065,0.160838,0.876342,0.009251,0.987290,0.158660
0.056194,-0.557012,-0.985885,-0.091872,0.285741,0.953893
0.040606,-0.467587,-0.323662,0.480479,-0.843908,0.238661
-0.634649,-0.092158,0.746873,-0.619322,-0.735325,0.275204
-0.121815,0.087042,0.904954,0.829379,0.484410,0.278349
0.072343,-0.122714,0.643383,0.415165,0.514849,-0.750046
0.546814,-0.636695,-0.951261,0.334385,-0.310513,0.889814
-0.418556,-0.189502,0.803897,0.429363,0.611791,-0.664349
-0.293381,0.082557,0.903326,-0.173745,-0.375947,0.910207
0.153085,-0.151237,0.276973,0.009239,0.023286,0.999686
0.038179,-0.301773,-0.143142,0.835834,0.270884,0.477496
-0.104638,0.689257,0.190292,0.096077,0.217652,0.971286
0.027069,-0.212419,-0.159649,0.702520,-0.172767,-0.690375
-0.110147,-0.201346,0.592170,0.797362,0.580722,-0.164241
-0.797350,-0.081506,0.909961,-0.108690,-0.758437,0.642619
0.119950,-0.419861,0.094784,0.885830,0.457376,0.078184
0.274620,-0.562057,-0.687880,0.971400,0.081923,0.222869
-0.334732,-0.338426,0.688322,0.372149,-0.703937,0.604961
-0.918045,0.051090,0.866068,-0.705378,-0.561890,-0.432113
-0.762998,0.138903,0.618068,0.400937,-0.253650,0.880291
0.246897,-0.732427,-0.968975,0.211368,-0.246853,-0.945720
0.085410,0.089775,0.672035,0.687341,0.713685,0.134966
0.532252,-0.416358,-0.985362,-0.069824,0.267348,0.961067
0.044247,-0.066508,0.841919,-0.209480,-0.906329,0.366996
-0.109959,0.103862,0.885792,0.267528,-0.470890,0.840650
-0.184634,-0.452660,0.393735,-0.755789,0.647834,0.095362
-0.307382,-0.157054,0.893212,-0.501074,0.422196,-0.755430
0.119109,-0.412573,0.136526,0.265958,-0.963595,-0.027389
0.274435,-0.468779,-0.698838,0.946998,-0.311606,-0.078075
-0.045084,-0.170650,0.847649,-0.309938,-0.493714,0.812517
0.113133,-0.512790,-0.099127,-0.560525,0.711070,0.424490
0.498088,-0.330296,-0.992420,-0.066453,0.170899,0.983045
-0.252682,-0.207373,0.867897,0.046386,-0.562021,0.825821
-0.135816,-0.311304,0.672839,0.872547,0.460021,-0.164444
-0.109213,-0.294274,0.356497,0.828010,0.076173,-0.555515
-0.741995,0.161959,0.613363,0.434664,-0.050751,0.899162
0.259684,-0.162450,0.593196,0.424623,-0.511481,0.747049
-0.347896,-0.111711,0.798609,-0.352085,-0.208979,-0.912340
-0.208625,-0.341510,0.737423,-0.239175,-0.883785,-0.402143
0.193596,-0.371154,-0.123980,0.884202,-0.453917,-0.110207
0.204238,-0.490644,-0.838521,0.981864,0.079239,-0.172234
-0.339868,0.092228,0.753750,0.692341,0.042274,0.720331
-0.522635,0.139463,0.881128,-0.370723,-0.926258,0.067908
-0.303742,-0.199874,0.838139,-0.517115,-0.817761,-0.252704
-0.131430,-0.356858,0.727933,0.375582,0.784953,0.492734
0.478019,-0.698788,-0.965959,0.136150,0.161131,0.977497
0.430786,-0.520850,-0.966562,0.199579,-0.179565,0.963288
-0.175860,-0.399467,0.623658,-0.729983,0.538866,-0.420414
-0.472698,0.104422,0.832630,0.765190,0.628201,0.140882
0.647531,-0.640129,-0.961897,-0.572963,0.685537,0.449169
-0.431253,-0.065316,0.902964,0.327691,-0.233590,0.915453
-0.249697,-0.426029,0.531226,-0.745207,-0.409482,-0.526300
-0.049659,0.093769,0.837395,-0.240894,-0.548938,-0.800398
0.225241,-0.497372,-0.984317,0.111208,0.615610,0.780164
0.122188,-0.057887,0.785439,0.966446,0.107316,-0.233379
-0.246803,-0.378583,0.594080,0.059693,0.990861,0.120963
-0.130307,-0.100988,0.860136,-0.472853,0.089254,-0.876609
-0.032202,-0.435559,-0.268971,-0.331193,0.911523,-0.243796
-0.700271,-0.028804,0.818374,0.604028,0.790350,-0.102459
-0.212078,-0.134487,0.901436,0.910424,0.410020,-0.054885
0.000280,0.769431,0.260104,0.759330,0.315031,-0.569362
-0.776626,-0.024529,0.600153,-0.080719,-0.388963,0.917710
0.509289,-0.662556,-0.965376,0.403818,0.768054,0.497014
0.035846,-0.389586,-0.211103,0.861200,0.103638,-0.497588
-0.211798,0.793959,0.183396,-0.480825,-0.205853,0.852310
-0.057219,-0.100568,0.725098,-0.798159,0.423920,0.428059
0.229161,-0.428902,-0.894720,0.565201,0.815484,-0.124635
-0.074303,0.173243,0.401315,-0.387404,0.005319,0.921895
-0.090731,-0.550845,0.013954,0.686566,0.642481,0.340361
0.093719,-0.212839,0.780432,0.859944,0.215410,-0.462704
0.112948,-0.084168,0.644247,-0.121025,-0.463420,0.877835
0.031177,0.862079,0.152310,0.973710,-0.004179,0.227753
-0.019509,-0.439975,-0.243978,0.732788,-0.647001,0.210739
0.091386,-0.383489,-0.026782,0.855094,0.514910,-0.060679
-0.793710,0.151798,0.826939,-0.110711,0.566225,-0.816782
-0.154019,-0.438083,0.135501,-0.715993,-0.691112,-0.098580
-0.290302,-0.032238,0.866831,-0.459213,0.054950,-0.886625
-0.722767,0.165954,0.610086,0.148674,-0.382456,0.911934
-0.050312,0.034831,-0.060984,0.588591,0.790303,-0.170244
-0.246524,-0.178850,0.391101,-0.163019,0.937920,0.306155
-0.131897,0.062934,0.863856,0.379624,-0.631419,0.676163
-0.086438,-0.405915,0.271927,-0.322905,0.891228,-0.318503
0.104080,-0.413344,0.098544,-0.765652,-0.641457,-0.048065
-0.352841,-0.003784,0.776953,0.945458,0.207696,-0.250943
-0.493886,-0.369823,0.504303,-0.566110,-0.814993,-0.123719
-0.626716,-0.098465,0.890517,-0.686345,0.685839,-0.241982
0.158127,-0.402411,-0.515764,-0.028236,0.892999,-0.449173
-0.114719,0.584134,0.187236,0.311870,-0.861121,0.401508
0.176236,-0.580279,-0.978546,-0.460066,0.100527,0.882176
-0.211425,-0.342561,0.534966,0.930878,-0.363046,-0.040792
-0.032670,0.051650,-0.037680,-0.039625,-0.644649,0.763451
0.369645,-0.742098,-0.962802,0.054880,-0.207445,-0.976706
-0.281901,0.778681,0.174971,-0.267694,-0.474207,0.838730
-0.526090,0.130493,0.796377,0.718128,0.683030,-0.133273
-0.312891,-0.120190,0.730526,-0.490219,0.647813,-0.583116
-0.187995,-0.407316,0.246290,-0.147005,0.989131,-0.003130
-0.158965,0.161679,0.851751,0.491321,-0.824206,0.281583
0.100160,-0.408227,0.793602,-0.114862,0.393044,-0.912317
-0.084848,-0.262317,0.877971,-0.169711,-0.979727,-0.106454
-0.246430,-0.055715,0.902441,-0.557771,0.797859,0.228719
0.441892,-0.120120,0.300237,-0.396739,0.144151,0.906542
0.040791,0.751840,0.249869,0.009604,-0.310378,0.950565
0.163260,-0.496391,-0.646359,-0.353941,0.929060,-0.107581
0.373006,-0.712524,-0.967427,-0.004331,0.181345,0.983410
0.065808,-0.323989,0.772329,0.889865,0.202791,0.408677
-0.099599,0.796132,0.157900,0.271282,0.517739,0.811389
-0.774478,0.063705,0.592090,0.433927,-0.019452,0.900738
0.455335,0.597169,0.159489,-0.291944,0.120184,-0.948854
-0.057314,-0.479852,-0.145293,0.066786,-0.971231,0.228584
0.383552,0.079192,0.311578,-0.482247,0.096741,-0.870678
-0.291048,-0.107296,0.864358,0.001371,0.701185,0.712978
0.218146,-0.360572,0.201170,0.323257,0.508015,-0.798390
-0.141884,0.128600,0.383762,0.940816,0.319499,0.113071
-0.362458,-0.004415,0.873567,0.159519,0.528662,-0.833708
0.104920,-0.177798,0.785579,-0.606045,0.093375,0.789931
-0.746664,0.067349,0.823561,0.786852,-0.347108,0.510274
0.298890,-0.420492,0.237021,-0.126089,-0.293556,0.947590
0.406797,-0.239540,0.235955,-0.592953,0.600727,0.536222
-0.371232,-0.094611,0.820324,-0.384736,0.695574,0.606758
0.263604,-0.775668,-0.964351,-0.064681,0.146524,0.987090
-0.615794,0.036933,0.551836,0.972001,-0.226686,0.061867
-0.532252,-0.233513,0.909840,0.102778,0.752084,0.651004
-0.231494,-0.012965,0.894780,-0.457003,0.079766,-0.885881
0.134230,-0.555189,-0.578779,0.871730,-0.001652,0.489983
0.013162,-0.187470,0.851852,0.311034,0.934786,-0.171559
-0.075049,0.292663,0.774762,0.621615,0.083589,0.778850
-0.663492,0.146962,0.588812,0.132426,-0.666271,0.733857
0.028377,0.473474,0.086058,0.644000,0.581507,-0.497104
0.018951,0.036443,-0.068927,0.201036,-0.827904,0.523603
-0.604872,-0.136800,0.869586,-0.203739,-0.510109,0.835631
0.329226,-0.545869,-0.840331,-0.092606,-0.986412,0.135706
-0.221134,0.249842,0.410283,-0.062062,-0.210850,0.975546
-0.769906,-0.114864,0.904713,-0.206339,-0.803597,0.558261
0.094560,-0.063004,0.775124,0.884823,-0.013564,-0.465730
0.169234,-0.497512,-0.618289,0.850309,0.522227,-0.065225
-0.175020,-0.107225,0.803555,0.195795,0.444991,0.873869
0.069822,-0.291962,0.789239,-0.156984,-0.854380,0.495369
-0.224213,-0.057047,0.810693,-0.111221,-0.618920,0.777540
-0.557639,-0.006938,0.917099,0.368728,-0.443082,0.817140
0.054234,-0.470811,-0.325653,0.134312,-0.962950,0.233853
-0.720807,0.230710,0.611594,0.164131,-0.350841,0.921939
-0.000933,0.381667,0.079523,-0.965547,0.243820,0.090948
-0.212266,-0.365618,0.326014,-0.131855,-0.945030,0.299219
0.564362,-0.622749,-0.971589,0.324336,0.193919,-0.925852
-0.132361,-0.313337,0.620380,0.795349,-0.154969,0.586007
-0.085504,0.619105,0.180259,-0.171341,0.953003,-0.249856
-0.051898,0.086621,0.784131,0.940409,-0.282938,0.188616
-0.056100,0.177027,0.860035,-0.451068,0.572319,0.684828
-0.615233,-0.129792,0.847308,0.157611,0.864843,-0.476661
-0.420610,0.107155,0.929063,0.437344,0.245903,-0.865021
-0.107999,-0.258603,0.886034,-0.542818,0.838909,0.039760
0.478951,-0.273460,-0.994511,-0.147044,0.133598,0.980066
0.102678,-0.478309,0.272570,0.260315,0.938318,0.227587
-0.136190,0.151167,0.798970,0.205250,0.822422,0.530561
-0.488659,0.229869,0.814252,0.896570,0.260940,-0.357873
-0.553907,0.084589,0.892769,0.934713,-0.064425,0.349516
-0.120975,-0.422034,0.180400,-0.097317,-0.979500,0.176379
-0.430504,-0.007569,0.785439,-0.395462,-0.856103,0.332714
-0.287222,-0.199594,0.857622,0.801848,0.569337,-0.181371
-0.222532,-0.240521,0.927012,-0.695103,0.425242,0.579655
0.504061,0.166865,0.309687,0.440777,-0.152958,-0.884489
0.093531,-0.382508,0.850324,-0.626209,0.778480,-0.042792
-0.683655,-0.216553,0.901757,0.738279,0.674339,0.014544
-0.160084,-0.115285,0.364459,0.654485,0.047928,0.754554
-0.170075,0.142687,0.866450,-0.728177,0.173752,0.663000
-0.090825,-0.353143,-0.038706,-0.580618,0.807906,-0.100854
-0.170166,0.158666,0.802248,0.223585,0.863133,0.452781
0.266871,0.105053,0.332489,0.187334,-0.227723,0.955536
0.261926,-0.608662,-0.679917,0.663220,-0.283878,0.692498
-0.747783,-0.028593,0.797543,-0.290475,0.948303,0.127848
-0.667973,0.114935,0.833977,-0.185644,0.426899,0.885039
-0.472231,0.134557,0.384365,0.221712,0.110610,0.968818
0.046392,0.535357,0.132505,-0.065851,-0.944670,-0.321343
-0.018763,-0.150256,0.807496,0.497399,-0.795443,-0.346215
0.209839,0.603406,0.172598,0.235768,-0.835384,0.496534
-0.241575,-0.283342,0.981823,-0.629144,-0.155940,0.761485
0.253617,-0.477398,-0.770700,-0.695174,0.391950,0.602585
0.209371,-0.567874,-0.703342,0.855808,-0.400179,-0.327795
0.517502,-0.679515,-0.970322,0.238114,0.391545,0.888816
0.007468,-0.104002,0.753830,-0.170237,0.965879,-0.195187
0.014376,-0.368421,0.391664,-0.677055,-0.366557,0.638148
-0.200224,-0.227136,0.827301,0.880997,0.181749,0.436820
0.111546,0.576074,0.173201,-0.057967,-0.865677,0.497236
-0.611034,0.026491,0.578880,0.835237,0.549857,0.006026
0.007841,-0.351672,-0.183878,-0.392115,0.505064,0.768867
-0.263046,-0.350270,0.650078,-0.433462,0.865372,-0.251479
0.043124,-0.062233,0.834640,-0.842383,-0.207494,0.497330
-0.452253,0.125937,0.766136,0.901489,-0.406146,0.149541
-0.367964,-0.244726,0.956227,0.993407,0.092006,0.068386
0.112948,-0.640270,-0.348233,0.911432,-0.408156,-0.051960
-0.106598,0.064615,-0.062352,-0.085815,-0.709997,0.698957
-0.422103,0.185367,0.798025,0.820901,0.130000,0.556077
0.118360,-0.612797,-0.429565,0.102620,0.839172,-0.534097
-0.089238,-0.247319,0.580991,0.866482,-0.163381,-0.471716
0.120881,-0.513421,-0.571440,0.930186,0.126183,0.344721
-0.681042,-0.231551,0.891905,0.269736,0.610907,0.744335
0.188277,-0.592684,-0.643825,0.056716,-0.801375,0.595467
-0.261459,0.815474,0.175554,0.069696,-0.031463,0.997072
0.142910,-0.537179,-0.621687,0.981876,0.179979,-0.059387
-0.424157,-0.298129,0.739052,0.886092,-0.145331,0.440136
0.288621,-0.858155,-0.957936,0.011782,0.117658,0.992984
-0.543920,-0.091177,0.898460,-0.317941,0.614057,-0.722390
0.071688,-0.015558,0.747075,0.176278,0.795880,0.579224
0.051807,-0.114164,0.799453,0.457637,0.332807,0.824505
0.550640,0.300091,0.313608,-0.152649,-0.224012,-0.962557
-0.316717,0.046044,0.758475,-0.518069,0.291045,-0.804299
0.162326,-0.801178,-0.963667,-0.054892,0.141152,0.988465
-0.031735,-0.468218,-0.275184,-0.129191,0.991470,-0.017225
0.107626,-0.426029,0.194977,0.576625,0.802920,0.151076
-0.593110,0.216483,0.822858,-0.394238,0.593612,-0.701570
-0.012695,0.265261,0.774480,0.901620,0.431038,0.035882
0.189397,-0.197211,0.586158,-0.135549,0.305975,-0.942341
-0.230933,0.029645,0.863393,-0.618495,0.014716,0.785651
0.024178,-0.470951,-0.339506,-0.288730,0.955194,0.065107
-0.651078,0.165744,0.838843,-0.558281,0.193228,-0.806837
-0.026696,-0.133086,0.593598,0.208284,-0.753303,0.623821
-0.275554,-0.062093,0.374894,0.154220,-0.202007,0.967166
0.300944,-0.181723,0.593075,0.502838,-0.459600,0.732067
0.393634,-0.344733,0.261270,0.527843,0.058914,-0.847296
-0.356017,0.884014,0.186130,0.222311,-0.695497,0.683273
-0.127416,-0.059850,0.890357,0.977718,0.133083,-0.162344
-0.259684,-0.199314,0.790586,0.306740,-0.688206,0.657482
-0.237747,-0.130143,0.823159,0.370445,-0.131969,0.919432
-0.176515,-0.300301,0.595206,0.251870,0.111406,0.961327
0.107532,-0.402551,-0.074536,0.801320,-0.423005,-0.423028
-0.090543,0.069031,0.856296,0.945032,-0.287212,0.156279
0.177450,-0.567944,-0.974424,0.506786,0.013983,-0.861958
-0.227760,-0.233443,0.934572,0.044933,-0.205781,0.977566
-0.660974,-0.098745,0.912856,0.093611,-0.787358,0.609347
-0.273406,0.071904,0.755781,-0.537184,-0.842510,0.040115
0.416411,-0.085430,0.291953,-0.499249,0.058752,0.864465
-0.556334,-0.230990,0.681948,0.514267,-0.631412,0.580386
-0.175675,-0.423015,0.513009,0.894586,-0.419854,0.153095
-0.019321,0.671596,0.143523,0.679134,-0.157280,0.716966
0.032670,-0.340949,0.016608,0.329689,-0.285981,0.899733
-0.400447,-0.066578,0.755198,0.114487,-0.830748,0.544748
0.092506,0.171911,0.814292,0.523701,0.833640,0.175445
0.408848,-0.053402,0.294768,-0.202685,0.121631,0.971661
0.030337,0.773635,0.271565,0.292094,0.840467,-0.456396
0.258565,-0.486579,0.208791,-0.275712,-0.941510,-0.193755
0.164101,-0.361764,0.204789,0.121210,-0.724030,0.679035
0.076824,0.658701,0.234367,0.860456,0.385741,-0.332895
-0.050312,-0.039947,0.629871,-0.619436,-0.643355,0.449882
0.585923,-0.432126,-0.982145,-0.061636,0.039243,0.997327
-0.535331,0.095452,0.855733,-0.133229,0.986381,-0.096453
-0.433771,-0.256080,0.765291,-0.146766,-0.903470,0.402742
-0.231400,0.045133,0.772530,0.070782,-0.724556,0.685572
-0.672081,0.197071,0.839184,0.284506,-0.336042,0.897849
-0.632316,-0.180041,0.860176,0.759231,-0.345618,-0.551468
-0.417904,-0.236597,0.902381,-0.018009,0.787249,0.616372
-0.153270,-0.237438,0.814071,0.842290,-0.539018,0.002523
0.239243,-0.478239,0.202919,0.051277,0.997544,0.047708
-0.506206,0.055295,0.917602,0.631399,0.765291,-0.125158
-0.592270,-0.152288,0.808099,0.044192,0.997496,0.055220
0.159805,-0.477679,-0.425604,0.459048,0.714318,0.528229
0.344255,-0.617773,-0.949994,0.603076,0.535482,0.591234
-0.296836,-0.297358,0.699441,0.473655,-0.763228,0.439469
0.015401,-0.096223,0.774259,-0.190868,0.753410,0.629240
-0.529825,-0.031957,0.905980,0.916406,-0.399192,0.029072
-0.244564,-0.345154,0.625467,0.867923,-0.400319,0.294031
0.061048,0.019763,-0.062231,-0.471815,0.557674,-0.682927
0.323998,-0.281169,0.221398,-0.468291,0.485450,0.738270
0.019042,0.042049,-0.061628,-0.480416,0.780320,0.400376
-0.582844,0.111290,0.859553,0.564904,-0.031535,-0.824554
0.116682,-0.606420,-0.578095,-0.577775,0.274101,-0.768794
0.406515,-0.611466,-0.706840,0.445370,0.862953,0.238659
-0.644543,-0.044993,0.705232,0.824792,0.557050,0.097019
0.199011,-0.203868,0.786946,0.172793,-0.311629,0.934361
-0.201623,0.833065,0.175494,-0.359094,0.154114,0.920489
0.064221,-0.703904,-0.572787,0.577575,0.270548,0.770201
-0.062635,-0.070713,0.898279,0.869577,-0.467505,-0.158980
-0.139363,-0.490083,0.109925,-0.412335,-0.909340,0.055502
0.271352,-0.324410,0.200225,0.714710,0.292520,-0.635313
-0.025016,-0.144720,-0.160876,0.114903,0.582786,-0.804461
-0.043965,0.157334,0.781035,-0.573858,0.356934,-0.737079
-0.143565,-0.428061,0.310592,0.776159,-0.579986,0.247371
-0.445721,-0.055225,0.755901,0.127002,0.912112,-0.389771
0.112386,-0.628706,-0.666828,0.923761,-0.307498,-0.228277
-0.506580,0.119770,0.814312,0.905951,-0.320662,0.276459
-0.122188,-0.043451,0.832187,-0.096358,-0.510263,0.854603
-0.575283,-0.088234,0.874553,0.127124,-0.506572,0.852775
-0.334080,-0.259163,0.396308,-0.611991,0.452121,-0.648886
-0.272099,-0.446773,0.506555,-0.286045,-0.947038,0.145937
-0.233642,0.124396,0.828990,-0.035569,0.994665,0.096831
0.023149,-0.354475,0.877026,-0.565422,-0.801165,-0.196043
-0.033698,-0.228818,0.843146,-0.511176,0.646887,0.565894
0.133204,-0.269465,0.592050,-0.413543,-0.340756,-0.844315
0.196117,-0.625902,-0.967065,0.792508,-0.122714,-0.597388
-0.285168,-0.082206,0.813287,0.188814,0.971140,0.145729
0.233269,-0.761932,-0.964129,-0.123089,0.132390,0.983525
-0.551853,-0.237088,0.881228,-0.613499,-0.650424,-0.447848
0.171755,-0.433037,0.174388,0.087006,-0.979614,-0.181070
-0.242510,-0.077931,0.733723,-0.424654,0.537505,-0.728531
-0.323437,-0.087112,0.743033,0.964295,-0.220955,0.145994
-0.486511,0.064826,0.809326,0.644768,0.222232,0.731360
-0.217960,-0.382017,0.306269,0.241465,0.872805,-0.424153
-0.046859,0.039316,-0.047694,0.419394,0.834126,-0.358250
0.430786,-0.452099,-0.852254,0.783007,0.547532,0.295143
-0.017828,-0.613708,0.036011,0.812003,0.536443,0.229956
-0.052459,-0.011634,0.924900,0.819584,0.170212,0.547093
0.176701,-0.595767,-0.444243,0.995845,-0.039997,0.081805
-0.207597,-0.309622,0.834540,0.079164,-0.827285,0.556176
0.224774,-0.372416,0.205252,0.666941,0.565244,-0.485477
-0.884906,0.028103,0.862368,-0.544221,-0.765080,-0.344203
-0.458882,0.089915,0.837214,0.967831,0.246388,0.050950
-0.517407,0.206392,0.817308,-0.731530,0.488077,-0.476072
0.045833,-0.219917,0.266196,0.356718,0.591317,-0.723254
-0.462708,0.003504,0.904050,-0.254885,-0.040178,0.966136
0.014749,-0.128110,0.627217,0.489287,-0.566202,0.663335
-0.484830,-0.031327,0.821752,-0.134101,0.539629,0.831154
0.324933,-0.018432,0.295593,0.335525,0.145448,-0.930735
0.655932,0.145420,0.205815,0.859913,0.407053,-0.307990
0.112480,-0.434298,0.786263,-0.008797,0.317539,0.948204
-0.205170,-0.262247,0.787349,-0.104450,-0.973639,0.202772
-0.392141,-0.066718,0.761672,-0.075574,0.834492,-0.545812
-0.096052,0.060271,-0.039048,0.013532,-0.530750,0.847420
-0.098197,-0.407807,0.398822,-0.734332,0.667418,-0.123730
0.493419,0.326372,0.302992,-0.356476,0.425498,-0.831791
0.219826,-0.335763,0.221398,-0.468720,0.242732,0.849343
-0.115186,-0.240241,0.914143,0.275835,0.779785,-0.562005
-0.019042,-0.331628,0.784031,0.255135,0.921583,-0.292561
0.316626,-0.153550,0.273475,-0.444554,0.489322,-0.750290
-0.491553,-0.167216,0.865243,-0.185558,-0.542120,-0.819557
0.168955,-0.645455,-0.974967,-0.377495,0.296916,0.877119
-0.527489,-0.119700,0.867495,-0.709064,-0.625826,-0.324916
-0.105011,-0.085079,0.854446,0.915161,-0.323297,0.240748
0.346403,0.062583,0.311899,0.202648,-0.614233,0.762661
0.354336,-0.527858,-0.975248,0.026328,0.202888,0.978848
-0.053952,0.375990,0.057707,0.998618,-0.023493,-0.047008
0.031456,-0.435840,-0.138557,-0.354559,0.933920,-0.045629
-0.526649,-0.069101,0.787691,0.944116,-0.312843,0.103794
-0.265097,-0.342211,0.362870,0.389012,0.567510,0.725674
-0.621768,-0.216764,0.460309,-0.524487,-0.837497,0.153337
-0.122095,-0.314949,0.368400,0.946968,-0.314075,-0.067884
-0.111079,-0.438083,-0.140709,0.219185,-0.975464,0.020672
0.244658,-0.743921,-0.965074,-0.137052,0.132383,0.981678
0.363298,-0.618123,-0.967507,-0.057018,-0.137156,0.988907
-0.026323,-0.129161,-0.154623,-0.049748,-0.777304,0.627155
-0.189024,-0.449786,0.506515,-0.515599,0.849933,0.108495
0.185850,-0.544748,-0.649214,-0.523245,-0.713808,-0.465503
0.099037,-0.257411,0.797040,0.568538,0.453745,0.686208
0.398394,-0.089425,0.293039,0.600865,-0.348764,-0.719253
0.033325,0.347747,0.065710,0.973107,-0.180333,0.143326
-0.239801,-0.405915,0.634335,-0.515117,-0.732506,0.445073
-0.489032,-0.207303,0.680118,0.293477,-0.774534,0.560328
0.470271,-0.452099,-0.976294,0.384322,-0.612824,-0.690466
-0.537385,0.071764,0.872079,0.783119,-0.457834,-0.420847
0.002614,-0.079192,0.828447,-0.458490,0.078502,0.885226
-0.392608,0.086271,0.924096,-0.755239,0.556775,0.345856
0.269672,-0.166305,0.790787,0.484476,-0.817984,0.310139
0.021002,-0.021095,0.645534,-0.091091,-0.467493,0.879291
-0.217587,0.587007,0.199682,0.819572,-0.008280,0.572917
0.417810,-0.235686,-0.997185,0.054082,0.313646,0.947999
0.097545,-0.274931,0.593739,0.175929,0.100886,0.979220
0.521891,0.026071,0.288555,0.684035,0.727799,-0.049030
0.000280,-0.292032,0.797081,0.179098,0.456065,0.871739
-0.347149,-0.329455,0.717477,0.982133,0.175560,0.067769
-0.286382,-0.158175,0.990007,-0.071490,-0.219280,0.973039
-0.446747,-0.089355,0.759139,-0.013261,-0.895936,0.443984
0.517222,-0.673698,-0.970825,0.265812,0.418602,0.868399
0.378234,-0.585465,-0.710882,0.518362,0.842042,0.149218
-0.357043,-0.121101,0.870410,0.359818,0.602458,0.712444
-0.412956,0.005887,0.768066,0.238326,-0.167792,0.956581
0.041073,-0.499825,0.168698,-0.728227,0.678347,0.097626
0.050688,-0.528138,-0.377790,0.985161,-0.133366,0.108034
-0.257537,-0.250683,0.860176,-0.146929,-0.760806,0.632129
0.148604,-0.565632,-0.984739,-0.501489,0.191122,0.843790
0.561747,-0.366318,0.257530,0.185391,-0.816482,0.546797
-0.224119,0.844909,0.177243,-0.399958,0.034292,-0.915892
-0.142351,-0.443829,0.169261,-0.656532,0.742185,0.134634
-0.290769,-0.153620,0.884365,0.399143,-0.745893,0.533225
0.350975,-0.095943,0.291430,0.005394,0.252714,0.967526
-0.344722,-0.125867,0.763944,-0.131177,-0.296853,-0.945870
-0.324186,0.161609,0.787027,-0.110031,0.439183,0.891634
-0.236069,-0.407316,0.601983,-0.062800,-0.996995,-0.045358
0.082330,0.505361,0.147867,0.167160,0.223773,-0.960200
-0.452720,-0.046885,0.834419,0.972658,-0.208988,-0.101292
0.204891,-0.634803,-0.694837,0.716063,0.676504,-0.172036
0.576870,-0.422805,-0.982949,-0.048283,0.129558,0.990396
0.043312,-0.525475,-0.481783,0.854225,-0.502286,0.134191
-0.183887,-0.419371,0.627378,0.598411,-0.790456,0.130707
0.541025,0.334432,0.301584,0.398583,0.207542,-0.893341
0.111546,-0.515944,-0.538505,0.849711,-0.526697,0.024128
-0.167738,-0.241783,0.801685,-0.563703,0.822315,0.077704
-0.129934,-0.458477,0.007520,-0.554407,0.830388,0.055577
-0.205264,-0.462541,0.486066,0.576972,-0.765218,0.285558
0.322132,-0.095732,0.282865,-0.049347,-0.586385,0.808528
-0.332772,-0.073376,0.856215,0.086150,-0.315600,0.944973
-0.186315,-0.181442,0.952347,0.153800,-0.867117,0.473766
0.586951,-0.038475,0.217939,0.460895,-0.065509,-0.885033
-0.309251,0.008830,0.379338,0.052221,-0.242101,0.968845
-0.053020,0.827949,0.252383,0.717549,0.072177,-0.692758
0.176701,0.123905,0.293139,0.298442,-0.341512,-0.891236
-0.452347,-0.154881,0.910685,0.598644,0.642733,-0.478037
0.398115,0.570818,0.163590,0.056789,-0.391090,0.918599
-0.434144,0.050879,0.780392,0.977397,-0.121133,-0.173271
0.540747,0.153340,0.203060,-0.227830,-0.062054,-0.971722
0.375151,-0.521971,0.085997,0.469547,0.867152,0.166050
0.098012,-0.420001,-0.035851,0.923502,0.378287,0.063578
-0.020908,-0.087252,0.805083,-0.319492,-0.581967,0.747823
-0.186315,-0.438784,0.148691,0.805406,0.587152,-0.081082
-0.311490,0.030275,0.926589,0.635035,0.410114,0.654627
0.053861,0.115074,0.838400,0.224286,-0.476814,0.849908
-0.012134,0.117808,0.396771,-0.153180,0.099711,0.983155
-0.175581,0.104492,0.837737,0.226113,-0.036706,-0.973409
-0.524783,0.140935,0.818394,0.791152,0.256778,0.555107
-0.158874,-0.471652,0.192625,-0.491598,0.834274,-0.249637
-0.141884,-0.039316,0.889331,0.663893,0.744966,0.065351
0.393728,0.049408,0.311397,-0.551898,0.469342,-0.689295
0.667509,-0.450487,-0.984035,0.141892,-0.182357,0.972940
-0.077661,-0.220058,0.941509,0.022113,-0.948848,0.314957
-0.392608,0.051160,0.819319,0.943855,0.100793,0.314608
0.231494,-0.515033,-0.979169,-0.745415,0.194115,0.637711
-0.110894,0.789895,0.206760,0.976840,0.108869,0.184205
0.689537,-0.008900,0.266638,0.633417,-0.772955,0.036375
0.236069,-0.622819,-0.973097,-0.347942,0.082457,0.933883
0.117522,-0.128180,0.786363,0.993498,0.093109,0.065517
-0.845515,0.011844,0.839164,0.041416,0.994231,-0.098942
0.093158,-0.383068,0.185447,-0.082757,0.938718,-0.334603
-0.177729,-0.148363,0.373065,0.993810,0.099299,-0.049807
-0.367403,0.044992,0.896288,0.079408,0.238688,0.967844
-0.507887,0.093910,0.804641,0.604113,-0.279005,0.746461
-0.222441,-0.242203,0.728274,-0.367471,-0.892969,-0.259945
-0.280499,-0.174785,0.900652,0.838080,-0.523223,-0.154469
0.267900,-0.365968,-0.986589,0.120724,0.290230,0.949311
0.397835,-0.128671,0.296035,0.392943,0.098722,-0.914248
-0.071315,0.056276,-0.042908,0.246692,0.590942,-0.768070
0.032952,-0.402831,0.864439,-0.040407,-0.926936,0.373036
-0.228788,-0.293644,0.739112,0.898896,0.391720,0.196318
0.331468,-0.724087,-0.964893,0.026628,0.163870,0.986122
-0.183796,0.003995,0.864660,0.723383,-0.611744,0.320134
-0.031083,0.147453,0.797402,0.407639,-0.790309,-0.457430
-0.474285,-0.197070,0.737041,-0.388342,0.188998,0.901926
0.124242,-0.503960,-0.675695,-0.472384,-0.684655,-0.555069
-0.504808,-0.051580,0.854868,0.778068,-0.609055,0.153824
0.174834,-0.227136,0.773173,-0.098400,-0.467073,0.878726
-0.214411,-0.426029,0.619033,-0.063057,0.974975,0.213183
-0.238775,-0.399958,0.621084,0.702214,0.710575,-0.044489
0.439374,0.340388,0.301243,0.433904,0.064321,0.898660
0.644172,0.172752,0.301765,0.201572,-0.002376,0.979471
0.181090,-0.170159,0.597117,0.296095,-0.718366,0.629506
-0.175769,-0.257832,0.834379,0.124655,0.923020,0.363998
-0.188275,-0.164273,0.374533,0.819444,-0.278533,-0.500930
-0.187249,-0.370944,0.774681,-0.562369,-0.672273,0.481446
-0.020628,-0.178289,0.615555,-0.154288,0.939054,-0.307202
0.060769,-0.648820,-0.673845,0.957619,-0.143624,-0.249674
-0.066366,-0.231481,0.810572,0.926204,-0.094417,0.365009
-0.187528,0.776719,0.181827,-0.430283,0.858268,0.279700
0.141605,-0.068400,0.600032,-0.402419,0.135608,-0.905356
-0.031456,-0.301072,-0.215205,0.982665,0.164679,-0.085152
-0.131709,-0.426029,0.108437,0.662737,-0.722701,0.196172
-0.477831,-0.050389,0.895323,-0.643233,0.746071,-0.172133
-0.628582,-0.021935,0.929244,0.037155,-0.475110,0.879142
0.166061,-0.451679,0.135923,0.439801,0.886264,-0.145299
0.172687,-0.699699,-0.969719,-0.186776,0.111606,0.976043
-0.076357,0.113883,0.866771,-0.143590,0.842154,0.519768
-0.636515,-0.047656,0.527989,0.946479,-0.256347,0.196124
0.808739,-0.014507,0.222323,0.274852,0.277749,0.920496
0.071409,-0.475577,0.282060,0.041728,0.868951,0.493136
-0.167927,0.050459,0.930249,-0.656324,0.552018,-0.514311
-0.930365,0.037424,0.878212,0.880001,-0.333594,0.338103
0.431159,-0.524914,-0.972353,-0.101173,0.502153,0.858840
0.001494,-0.353143,0.813870,0.241936,-0.156979,-0.957510
0.396716,-0.241362,-0.996823,0.019275,0.213813,0.976684
-0.256978,-0.064615,0.848816,-0.790813,0.205671,-0.576467
0.507420,-0.301212,-0.991937,-0.172439,0.025570,0.984688
-0.085316,-0.008059,0.837817,0.929329,0.071090,-0.362345
-0.494353,0.051370,0.787972,-0.715063,-0.547433,0.434743
-0.078690,0.001682,-0.080971,-0.040894,-0.759639,0.649058
0.057968,0.473754,0.097740,0.191107,-0.791252,0.580860
-0.204705,0.820520,0.166586,-0.002479,-0.246591,0.969117
-0.021190,0.164973,0.393292,0.082330,-0.065970,-0.994419
-0.676094,0.069101,0.586782,0.191440,-0.653431,0.732379
-0.461682,0.002172,0.900993,-0.279799,-0.509996,-0.813398
-0.117334,-0.341510,0.563980,0.926929,-0.264140,-0.266521
-0.143377,0.639498,0.215506,-0.427700,-0.111005,-0.897079
0.080929,0.491835,0.139281,-0.120642,0.574523,0.809549
0.044620,0.644965,0.180862,0.291182,0.820796,-0.491434
0.059928,-0.466466,0.217457,-0.405481,0.868800,-0.284203
-0.058994,-0.025370,-0.078638,0.932437,0.327996,0.151590
0.052180,-0.478450,-0.436180,0.937264,-0.124149,-0.325765
-0.820777,0.111150,0.830317,-0.379293,0.179879,-0.907624
-0.112948,-0.454902,0.019363,-0.610808,0.788551,0.071419
-0.107065,-0.261826,0.868742,-0.051415,-0.977026,0.206823
-0.297209,-0.293784,0.950456,-0.409130,0.460298,-0.787869
-0.049471,-0.405144,0.833152,0.844011,0.386657,-0.371675
-0.250537,0.083748,-0.059758,0.495052,0.868501,-0.025105
0.044338,-0.421754,0.664053,0.421559,0.902539,0.087811
-0.080462,-0.436751,-0.019082,-0.275145,0.961334,0.011487
-0.136284,-0.475857,0.131218,0.305560,0.952160,0.004856
0.487818,0.174364,0.308260,-0.397406,0.123409,0.909307
0.084011,-0.580489,-0.989122,0.054019,-0.438922,-0.896900
-0.548492,0.000631,0.935879,0.915126,-0.252535,0.314277
-0.059367,0.037704,0.788072,0.940403,0.284023,0.187009
0.003733,0.320625,0.030140,-0.139384,-0.820797,0.553954
-0.745262,-0.076249,0.575884,0.652098,-0.438987,0.618110
-0.843461,0.059920,0.817730,0.441569,0.848511,-0.291627
0.230375,-0.330577,-0.990952,0.000371,0.355977,0.934495
0.826192,-0.300442,0.284514,-0.085942,0.085841,0.992595
-0.542985,-0.066368,0.820384,0.984187,-0.144697,-0.102170
-0.263137,0.673138,0.191559,0.996397,0.028457,-0.079894
0.609915,-0.645315,-0.971187,0.359448,-0.231276,-0.904051
0.331185,-0.731937,-0.966703,0.025228,0.159079,0.986943
-0.078222,0.177097,0.849761,-0.391522,0.919906,-0.022000
-0.166807,0.045834,0.875578,-0.781567,0.581531,-0.225778
0.143659,-0.493728,-0.453814,0.977002,0.041120,-0.209228
0.337720,-0.302404,-0.992802,0.014653,0.237290,0.971328
0.015122,0.630458,0.180380,0.017329,-0.878983,0.476538
-0.434890,-0.259864,0.826175,0.719983,0.576696,0.386065
0.761505,-0.007429,0.240178,0.584978,0.412374,0.698390
-0.865023,0.073096,0.594543,0.114284,0.474728,-0.872681
0.482497,-0.385311,0.248160,-0.570354,0.819396,-0.057336
-0.031735,0.091948,0.830860,0.987962,0.120637,-0.096838
-0.161674,0.262667,0.369305,0.662908,0.406702,-0.628606
0.404088,0.122293,0.308863,-0.508711,0.120147,-0.852513
0.125923,0.796202,0.258274,0.539561,0.452045,0.710302
-0.434426,0.020254,0.875377,-0.049865,0.165333,0.984976
0.044620,-0.579999,-0.985986,0.078475,0.504720,0.859709
-0.846914,0.026000,0.827522,-0.306823,0.946733,-0.097754
0.075795,-0.110099,-0.148952,0.165100,-0.642180,0.748564
0.082424,-0.223211,0.398902,-0.273863,-0.017676,0.961606
-0.146271,0.105964,0.843226,-0.163063,-0.503353,0.848555
0.092133,-0.388395,-0.139502,0.898493,-0.433268,0.070633
-0.312982,-0.369963,0.617746,0.197251,0.829190,-0.523007
-0.335014,-0.222230,0.967748,0.933061,-0.357265,-0.041942
0.087090,0.058308,0.391221,-0.232428,0.751961,-0.616873
0.036592,-0.629266,-0.686030,-0.776820,0.491129,-0.394136
0.030151,0.608732,0.182189,-0.012929,-0.746058,0.665755
0.592273,-0.293924,0.277275,-0.082980,-0.709652,0.699649
-0.142257,0.034971,0.869244,-0.175984,0.938882,0.295855
0.507235,-0.687434,-0.938975,-0.722634,0.405046,-0.560123
0.259778,-0.392109,-0.990892,0.004494,0.248172,0.968705
-0.540464,0.122853,0.898540,-0.131071,0.743107,0.656211
-0.256232,-0.177237,0.831303,-0.348665,0.935850,0.051162
0.546814,0.055365,0.212330,-0.359115,-0.302847,-0.882791
-0.158033,-0.361834,0.344654,0.982832,0.144064,0.115271
-0.511061,0.084098,0.909157,-0.267518,0.768954,0.580640
-0.481472,0.100918,0.869868,0.488990,-0.714000,0.501092
0.369830,-0.084939,0.295432,-0.225160,-0.124402,0.966347
-0.318959,0.003504,0.372481,0.021883,-0.179083,0.983591
-0.095770,0.074637,0.796598,0.968313,-0.157188,-0.194065
0.132549,-0.174925,-0.138799,-0.308790,0.170423,0.935737
0.168300,-0.230640,0.777114,-0.182872,0.948204,0.259742
-0.114534,-0.148223,0.843548,-0.129338,-0.744071,0.655461
-0.236442,0.689397,0.169220,0.597408,0.344360,0.724238
0.064316,-0.021305,0.728395,0.422575,0.115387,-0.898953
-0.300010,0.833065,0.176117,0.199400,-0.097291,0.975076
0.030619,-0.193847,-0.144931,0.778939,0.241022,-0.578933
0.127695,-0.166305,0.777014,0.019918,-0.096756,0.995109
-0.686176,-0.069872,0.573551,-0.652183,0.713458,0.256192
0.351163,-0.614619,-0.948104,0.021924,0.979159,0.201907
-0.143004,-0.417899,0.315498,0.886007,-0.463277,0.019144
-0.041911,0.175555,0.865967,-0.174558,-0.272014,-0.946329
0.187064,-0.519167,-0.409217,0.200217,0.962835,0.181278
-0.766824,0.178780,0.609744,0.624786,0.108504,0.773220
0.135910,-0.053052,0.870652,0.897240,-0.362171,-0.252572
0.340894,-0.028523,0.301745,0.171320,0.213103,-0.961892
0.851210,0.116546,0.221679,-0.278108,-0.069275,-0.958049
-0.570802,-0.096223,0.893755,0.436628,-0.223928,-0.871328
0.082518,0.080314,-0.070978,-0.508184,0.555084,-0.658507
-0.364324,-0.031537,0.765814,-0.007009,-0.591937,0.805954
0.277514,0.114584,0.292074,-0.272488,0.091543,0.957794
0.014749,-0.397786,0.814332,0.627073,0.577103,-0.523194
-0.232614,-0.219987,0.919492,0.233248,0.950890,0.203478
0.270233,-0.611255,-0.810009,0.354439,-0.884591,-0.303104
0.042472,-0.505641,-0.990329,-0.118186,0.229687,0.966062
-0.185474,-0.023758,-0.040154,0.772715,0.137146,0.619760
-0.114346,0.253627,0.397113,0.670576,0.639214,0.376476
-0.135070,-0.213470,0.958841,-0.743486,0.640971,-0.190747
0.608234,0.166936,0.201592,-0.367474,0.008903,-0.929991
-0.637264,-0.140865,0.491535,0.947536,-0.197473,0.251358
-0.319423,-0.028453,0.371315,0.040498,-0.038127,0.998452
0.110894,-0.375710,0.898178,-0.317810,-0.947012,-0.046529
-0.303368,-0.267082,0.715446,-0.419660,0.847370,-0.325346
-0.019603,0.129862,0.862609,0.309885,-0.177831,0.933995
0.023711,-0.118579,0.605582,0.958734,0.142117,0.246236
0.416879,0.192866,0.303092,0.424033,-0.058961,0.903725
-0.026696,0.736141,0.234528,0.576427,0.713304,-0.398660
0.116215,-0.549163,-0.991897,-0.191041,0.166533,0.967352
-0.394101,0.071063,0.891443,-0.226786,0.315082,0.921570
-0.120602,0.062233,0.877649,0.552408,0.248226,0.795757
-0.577335,0.041699,0.921844,0.979883,0.016303,-0.198904
0.456643,0.257412,0.306772,-0.587160,-0.371171,-0.719358
-0.110706,0.745252,0.202336,0.754888,-0.435740,-0.490177
-0.060766,0.056066,0.822174,0.808443,-0.553144,0.201128
-0.158685,-0.329105,0.559517,0.921599,-0.327773,-0.207893
-0.440212,0.093840,0.819520,0.644535,0.757087,0.106740
0.022497,-0.049618,0.753489,0.553369,0.265558,-0.789469
-0.145992,-0.457986,-0.005851,0.649864,-0.760046,0.002398
-0.229255,-0.484477,0.658744,0.082520,0.973578,-0.212923
0.392047,-0.646507,-0.959706,0.524787,0.065045,-0.848745
0.076451,0.742659,0.243536,-0.697600,0.205275,0.686452
-0.435452,0.013035,0.392186,0.339171,0.058340,0.938914
-0.105572,-0.129512,0.779648,0.871073,-0.470169,-0.142033
-0.627556,0.223702,0.842663,0.807513,0.062927,-0.586484
0.090825,-0.187960,0.616982,0.371574,0.226517,-0.900346
0.074209,-0.502698,-0.379298,-0.297527,0.950924,-0.084974
0.709045,0.009180,0.224072,-0.130847,0.362582,0.922721
-0.563522,-0.123064,0.770238,-0.122136,0.952920,0.277537
-0.628676,0.134137,0.918667,-0.598614,0.798715,0.060958
0.241017,-0.251945,0.800599,-0.647883,0.637828,-0.416440
-0.710073,0.183895,0.613082,0.130753,-0.515278,0.846990
0.598714,-0.604387,-0.968995,-0.611626,0.113817,-0.782917
-0.610288,0.202187,0.859573,0.926090,-0.278341,-0.254723
-0.385139,0.137641,0.925886,-0.457531,0.878879,0.135044
0.696257,-0.030416,0.282221,0.399979,0.880661,0.253877
-0.144870,0.029504,0.956086,-0.201269,-0.979533,-0.002308
0.574349,-0.686313,-0.971046,-0.194193,0.324248,0.925825
-0.340427,0.068330,0.915973,0.561026,0.809367,0.173707
-0.205919,-0.227977,0.908956,-0.058630,-0.883675,-0.464415
0.022497,-0.455883,-0.153979,0.234825,-0.954295,0.184872
0.395967,-0.576915,-0.959625,0.953216,0.269967,-0.136006
0.037897,0.786040,0.267945,0.156542,0.902044,-0.402257
-0.113973,-0.197981,0.817630,0.893742,0.045609,-0.446257
0.058154,-0.123134,0.846664,0.867804,-0.221426,-0.444844
-0.575375,0.046114,0.831564,0.676701,0.041863,0.735067
0.133856,-0.432336,0.805344,0.970449,0.218780,-0.101807
0.207132,-0.617212,-0.653557,0.887205,0.396614,0.235721
-0.258377,-0.322727,0.677545,0.038770,-0.872922,0.486316
-0.233175,0.273390,0.027365,0.340185,-0.733887,0.587949
-0.123120,-0.075268,0.867033,0.805808,-0.591967,-0.015765
-0.164286,-0.288247,0.694615,0.784080,0.555000,-0.277837
0.402690,0.563459,0.154080,-0.016349,-0.018806,0.999689
0.186502,-0.452520,0.197571,0.200385,0.977007,0.072830
0.224962,-0.582031,-0.895001,0.942861,0.332453,-0.022077
0.250911,-0.657439,-0.966401,-0.369932,-0.273850,0.887782
-0.009427,-0.558764,0.299091,-0.340948,0.545521,0.765612
-0.609633,0.167216,0.821993,0.883875,0.288058,0.368494
-0.713993,-0.123275,0.576286,-0.357361,0.932682,-0.048954
0.273406,-0.467587,-0.420658,-0.499786,-0.856661,-0.127852
-0.388500,0.073586,0.797342,0.097720,-0.187590,0.977375
0.188650,-0.385591,-0.991435,-0.303797,0.272293,0.912997
0.416970,0.522111,0.151245,0.201018,-0.393539,0.897061
-0.124616,-0.401990,0.384345,-0.771454,0.471897,0.426816
0.306730,0.214381,0.302348,0.166539,-0.287277,0.943259
-0.133575,-0.242904,0.611634,0.250723,-0.572110,0.780915
-0.039578,-0.544117,0.275606,-0.175047,0.495968,0.850514
-0.141790,0.059500,-0.061648,0.468444,0.870011,0.153756
0.312891,-0.800827,-0.962621,-0.105304,0.193887,0.975356
-0.005787,0.498984,0.116238,0.053450,-0.947404,0.315545
-0.064033,-0.189502,0.595589,0.867460,-0.411940,-0.278959
0.228415,-0.485107,-0.962480,0.075771,0.924858,0.372688
-0.323437,-0.224963,0.870913,-0.374019,0.055077,-0.925784
0.008587,-0.211577,0.599248,-0.105589,0.385443,0.916670
0.088771,-0.473755,-0.716069,0.086691,0.467709,0.879621
0.308690,-0.063074,0.286765,-0.383466,-0.331772,0.861906
-0.021375,0.331979,0.029839,-0.250696,0.718809,-0.648433
-0.220105,-0.473404,0.534061,0.889532,-0.027982,0.456015
-0.634276,0.053823,0.894619,-0.072648,0.940535,0.331837
0.162699,-0.132875,0.605562,0.901696,0.407502,-0.144522
-0.171288,-0.063915,0.372321,0.273287,0.226656,-0.934848
-0.459255,0.107085,0.801464,-0.417486,0.807635,0.416449
0.043779,-0.431565,0.027365,0.828215,-0.439604,-0.347574
-0.319800,-0.330226,0.668899,0.881363,0.433641,-0.187499
-0.132828,-0.155722,0.837878,-0.379161,-0.711744,0.591319
0.263140,-0.613077,-0.794969,0.618262,-0.743777,0.254063
-0.613646,0.227977,0.860035,0.965593,0.088841,-0.244412
-0.069075,-0.186208,0.809285,0.872138,-0.136373,0.469870
-0.170353,-0.469689,0.066856,0.635811,0.760213,0.133496
-0.136190,-0.281449,0.589778,-0.488586,0.052435,-0.870939
-0.137030,-0.458827,0.114931,0.780317,0.608388,-0.144811
-0.009149,-0.450207,-0.225882,-0.550739,0.787262,0.277317
-0.010826,-0.597098,0.017513,0.983115,0.121218,0.137084
-0.100251,-0.345154,0.721458,0.666464,0.744582,0.037725
-0.342480,-0.278016,0.754655,-0.079820,-0.852692,0.516279
0.127601,-0.591632,-0.983492,-0.221645,0.361202,0.905763
-0.029497,0.780083,0.248964,0.797990,0.333699,-0.501852
0.063754,0.137991,0.842703,-0.333301,0.658307,-0.674939
0.322038,-0.599972,-0.952749,0.264347,0.821560,0.505134
-0.084848,-0.372626,0.801283,0.745919,0.413876,-0.521835
-0.160551,0.695003,0.183255,0.964078,-0.249605,-0.090832
-0.256138,0.143388,0.788072,0.415973,-0.758654,-0.501408
0.125177,-0.493307,-0.555616,0.845455,-0.532076,0.045823
0.050967,0.177097,0.799614,0.819679,-0.156735,-0.550963
0.308225,-0.534866,-0.875558,-0.588904,-0.708732,0.388448
-0.045831,0.091527,-0.030341,0.558874,-0.166720,-0.812320
0.061048,-0.562759,0.265271,0.137091,0.688927,0.711749
0.540464,0.221810,0.208871,0.601845,0.143412,0.785631
0.113600,0.005256,0.751739,-0.521844,-0.671584,-0.525979
0.066837,0.482024,0.140910,-0.311255,-0.949726,0.033780
-0.411743,0.047025,0.894780,-0.374041,0.229509,0.898565
0.708392,0.258813,0.288012,0.440336,0.024989,0.897485
0.073277,-0.453221,-0.445631,0.971370,-0.232295,0.049791
-0.067395,0.091317,-0.038927,0.352886,-0.646323,0.676563
0.117055,-0.153269,-0.145052,0.262435,0.202881,-0.943381
-0.432840,-0.277805,0.911570,-0.636852,0.327572,0.697937
-0.194063,0.910225,0.174649,-0.206233,0.526740,-0.824629
-0.228415,0.128810,0.877448,-0.205486,-0.648842,0.732652
-0.156447,-0.268204,0.721921,0.726325,0.619638,0.297491
-0.321386,-0.116827,0.897273,0.358900,-0.418140,0.834476
-0.016430,0.226154,0.394217,-0.176054,0.256305,0.950428
0.231588,-0.989838,-0.960691,-0.214840,0.112648,-0.970131
-0.510035,-0.251875,0.886697,0.785326,-0.540415,-0.302018
0.695605,-0.179480,0.290204,-0.045921,-0.232135,0.971599
0.108746,0.564791,0.149435,0.150859,0.722667,-0.674532
0.537197,0.259514,0.280713,0.815482,0.440885,-0.374979
-0.182956,-0.293714,0.705775,0.781111,0.510482,0.359547
-0.041258,-0.144089,0.819299,-0.531065,0.841011,-0.103300
-0.899936,0.046044,0.840914,-0.106537,-0.504837,0.856615
0.162232,-0.558484,0.295693,-0.486639,0.828180,-0.278028
-0.439186,-0.209896,0.895886,-0.658644,-0.672135,-0.338263
0.058060,-0.436821,-0.407025,0.988440,0.149606,-0.024576
0.465137,-0.590230,-0.885230,-0.446853,0.893814,0.037665
0.342201,-0.282991,-0.992923,0.113677,0.186812,0.975797
-0.058248,-0.064335,0.756605,-0.692350,-0.592025,-0.412501
-0.217493,-0.369402,0.311759,0.487204,0.752670,-0.442855
-0.147579,0.033920,0.876885,0.161278,0.927916,-0.336098
-0.385045,-0.003925,0.763220,-0.280427,0.647154,-0.708910
0.089797,-0.459458,0.829955,-0.459111,0.061938,-0.886217
-0.178660,-0.189291,0.904492,0.897755,0.235040,0.372548
0.290022,-0.681968,-0.952367,-0.438080,-0.550895,0.710352
0.768598,0.002873,0.232980,-0.372624,-0.449475,-0.811865
0.020817,-0.219427,-0.156875,-0.249165,0.863904,0.437706
0.296557,-0.687364,-0.965396,-0.101036,0.005762,0.994866
0.009522,-0.000350,0.608658,0.396389,-0.455700,0.797003
0.315880,-0.400448,0.236981,0.602721,0.265267,-0.752569
-0.086623,-0.276194,0.364720,0.908611,0.056872,-0.413753
0.180808,-0.234284,0.807878,0.050886,0.206207,0.977184
-0.181275,-0.087603,0.926368,0.172632,0.317660,0.932357
-0.100251,0.194057,0.781457,0.149858,-0.465443,0.872299
-0.756745,-0.001471,0.595448,0.510186,0.118635,0.851843
-0.174834,0.745953,0.199139,-0.580070,0.773367,0.255778
0.280875,-0.509987,-0.765151,0.982510,-0.038614,-0.182162
-0.418744,0.072675,0.786082,0.849909,0.226663,0.475688
-0.081957,0.180111,0.784212,-0.252575,0.717328,0.649343
-0.120229,-0.451679,0.056641,-0.699492,-0.713530,-0.039828
-0.041817,0.503890,0.123256,0.320714,0.927586,-0.191642
-0.316532,-0.298269,0.694917,0.967011,0.052570,0.249253
0.505833,-0.596468,-0.971428,0.546267,0.815773,0.190018
-0.139363,-0.139814,0.380484,-0.736336,0.162753,0.656750
-0.083171,0.322307,0.801323,0.680520,0.732699,0.006717
-0.282086,-0.245427,0.696445,-0.500149,0.844306,-0.192350
-0.281901,-0.250193,0.774722,-0.657428,-0.701134,0.276044
0.122188,-0.488752,0.818314,0.858584,-0.187829,0.477025
0.081023,0.484617,0.150139,0.294397,0.547613,-0.783231
0.611219,-0.399327,-0.991113,0.006912,0.204577,0.978826
0.172875,0.732357,0.261109,-0.195243,-0.512570,0.836153
-0.048540,0.729834,0.230064,-0.545394,-0.665853,0.509102
0.115748,-0.494569,0.081152,0.917189,0.396978,0.034247
-0.000187,-0.364496,0.749527,-0.607533,-0.449354,0.654968
-0.111079,-0.414044,0.759782,0.282032,-0.884459,-0.371738
0.123869,-0.438153,-0.058793,-0.680592,-0.731970,0.031852
0.210400,-0.765856,-0.967085,-0.105618,0.131282,0.985703
-0.840288,0.028453,0.603712,0.540177,0.230838,0.809273
-0.601138,0.105824,0.834419,-0.362407,-0.316388,-0.876676
-0.208064,0.003223,0.791189,-0.650961,-0.747831,-0.130381
-0.349294,-0.177027,0.907930,-0.506300,0.839066,0.199069
-0.683937,0.117598,0.837033,-0.675755,-0.359028,0.643781
0.063475,-0.440676,-0.723750,0.249390,0.706794,0.662003
-0.039484,-0.322447,0.811155,0.849127,-0.525936,-0.048727
-0.663865,-0.055645,0.543431,0.935807,-0.137396,0.324635
-0.145337,-0.179410,0.372683,0.819921,0.570883,0.042693
0.087837,-0.410260,0.218341,0.392335,0.006896,-0.919797
0.081678,-0.473615,-0.354184,-0.548797,-0.779718,0.301434
0.169234,-0.474245,0.191961,0.245895,0.914882,0.320198
-0.515821,-0.109258,0.876161,0.855057,0.518416,0.011061
0.199572,-0.595066,-0.754594,0.843787,0.485601,0.228505
0.336974,-0.555400,-0.851550,-0.472709,-0.881146,-0.011257
0.128441,-0.404163,-0.436965,0.999398,-0.025497,-0.023536
-0.696536,0.126428,0.806631,0.563245,-0.754233,0.337472
-0.658453,0.115355,0.880745,0.797040,-0.399051,-0.453305
0.158218,-0.484897,-0.729360,0.354893,0.546872,0.758276
0.110614,-0.505011,-0.430068,-0.479011,0.545029,0.688107
0.309624,-0.521831,-0.951884,-0.105338,0.929723,0.352873
-0.210306,0.594226,0.203684,0.840071,-0.469775,0.271279
0.176982,-0.688135,-0.974143,-0.037429,0.287696,0.956990
-0.191263,-0.026421,0.916254,0.183977,0.797915,-0.574007
-0.279286,-0.103511,0.846383,-0.136380,0.807714,-0.573585
0.213385,-0.592824,-0.982447,-0.491371,0.011749,0.870871
-0.079063,-0.063985,0.837837,0.663267,0.609696,-0.433990
-0.111361,-0.259443,0.871878,0.005945,-0.993245,0.115883
0.370298,-0.552176,-0.875035,-0.502113,-0.636581,-0.585360
-0.266686,-0.365057,0.360417,0.412943,0.520841,0.747129
-0.119015,0.154040,0.388246,0.695021,0.168093,-0.699064
-0.118921,-0.451048,-0.111735,-0.622265,-0.782537,0.020549
-0.192943,0.081646,0.391020,0.038610,-0.054132,0.997787
-0.187716,0.024108,-0.103249,-0.548044,-0.819723,0.166438
-0.197236,-0.239400,0.903768,-0.156104,-0.979055,0.130699
0.171194,-0.512439,-0.721076,0.199631,0.579223,-0.790347
0.022215,-0.301002,0.607130,0.222386,0.812711,-0.538558
-0.285168,-0.096643,0.891764,0.849657,0.336808,0.405763
0.068235,-0.405845,-0.035791,0.823317,0.547185,-0.150789
0.270233,-0.527227,-0.713717,0.523601,0.700657,0.484687
-0.333986,0.040438,0.797362,0.393315,-0.045332,0.918285
0.175581,0.732147,0.228737,-0.530436,0.587166,0.611453
-0.206104,0.039807,0.837335,0.703548,-0.459188,0.542371
0.517037,0.214451,0.308099,0.049765,-0.271550,0.961137
0.412116,-0.328054,-0.995838,0.103010,-0.147807,-0.983637
-0.023802,-0.453571,-0.158001,0.122570,-0.992459,0.001100
-0.052833,-0.318172,0.393815,-0.086003,0.286380,0.954248
-0.137961,-0.249001,0.778843,0.866634,-0.428252,-0.256020
-0.608698,-0.018782,0.937749,-0.712518,0.442168,0.544798
-0.474658,-0.175906,0.891905,0.537545,0.784081,-0.310260
0.122283,-0.360782,0.868319,0.963999,0.131025,0.231384
-0.203956,-0.237508,0.846202,-0.640514,-0.697600,0.321085
-0.307943,-0.263719,0.774520,0.703765,0.647077,-0.293269
0.725100,-0.304576,0.285599,0.042007,-0.588962,0.807069
0.143565,-0.624080,-0.612579,0.897313,-0.441322,-0.007996
-0.157566,-0.030416,-0.045402,0.760270,0.360131,0.540643
-0.263419,-0.006868,0.940142,0.486460,-0.769564,0.413677
-0.171846,-0.153690,0.964954,0.952902,-0.200732,0.227342
0.154766,-0.129301,0.600072,0.867395,0.303155,-0.394618
0.303835,-0.161609,0.791752,0.176103,-0.591242,-0.787033
0.731167,-0.298199,0.293642,0.074045,-0.683461,0.726222
0.028750,0.088584,0.669823,0.436251,0.766450,-0.471423
-0.044338,-0.216203,0.604355,-0.042631,-0.648546,0.759981
0.210867,-0.673768,-0.973157,0.218546,-0.123054,-0.968037
-0.207318,-0.095943,0.701351,0.371470,0.767686,-0.522177
-0.208064,-0.395753,0.587365,0.510357,-0.785224,-0.350655
-0.508355,0.165464,0.830579,-0.486389,0.619008,-0.616647
0.403809,-0.530381,-0.950195,0.725045,-0.601715,-0.335036
-0.534864,0.038405,0.574537,-0.075616,-0.554923,0.828458
0.085410,-0.620436,-0.365706,0.581685,0.793176,-0.180317
-0.742556,0.224403,0.855170,0.858234,-0.502801,0.103081
-0.127601,-0.456374,0.035871,-0.569407,-0.807081,-0.156191
-0.154951,-0.456514,0.198275,-0.491598,0.834274,-0.249637
0.226267,-0.340599,0.573250,-0.560013,0.123700,-0.819197
-0.087652,-0.236527,0.807657,0.482573,0.501333,-0.718184
-0.195555,-0.466606,0.394800,0.934340,-0.347850,-0.077521
0.002334,-0.455603,0.274782,-0.371181,-0.896973,-0.240133
0.206759,-0.321326,0.820103,-0.275689,-0.363470,-0.889879
0.446280,-0.581540,0.105401,0.370018,0.927623,0.051010
-0.630263,-0.021375,0.532272,0.944214,-0.261862,0.199720
-0.879306,-0.002663,0.809145,0.734771,0.568792,0.369576
