-0.376482,0.756159,0.620739,-0.417281,0.758944,-0.499881
0.422806,-0.083317,-0.958049,0.023184,0.216220,0.976069
-0.241474,-0.139141,0.961792,-0.636515,0.762328,-0.117065
-0.132455,0.624507,-0.363169,0.351800,0.714199,0.605109
-0.219439,-0.010445,0.677851,-0.607998,-0.243983,-0.755520
0.013019,0.366329,0.655117,0.598561,0.796951,-0.081202
-0.205767,-0.010297,0.680845,-0.181285,0.777253,0.602506
-0.967347,0.200532,0.585281,-0.601411,-0.602883,-0.524248
-0.057690,-0.335780,0.881807,-0.118574,-0.416957,0.901159
-0.319396,0.680577,-0.360941,-0.148461,0.327385,-0.933155
-0.328260,0.018329,0.842468,0.361532,0.077647,0.929121
-0.509088,-0.713687,0.474033,0.707277,0.077319,0.702695
-0.050128,-0.828981,0.564097,-0.623436,-0.207126,-0.753941
-0.288999,-0.158652,0.655326,0.089449,0.646766,-0.757425
0.530220,-0.807007,0.431508,-0.482975,0.482062,0.730993
0.031700,0.099478,0.073831,0.998123,0.055933,-0.024951
-0.529270,0.188953,0.514435,0.626586,0.272519,0.730153
0.248085,0.076715,-0.222277,0.300112,-0.664365,-0.684508
-0.381342,0.139437,0.882382,-0.510925,0.859442,-0.017769
0.018878,0.063756,-0.160970,0.867345,-0.390487,0.308597
-0.763681,0.473197,0.661593,-0.332330,-0.830645,-0.446751
-0.098002,0.010051,-0.964925,0.109631,0.114724,0.987329
-0.153987,-0.494826,0.875645,0.143676,0.731446,0.666592
0.048025,-0.887269,0.614664,-0.321841,-0.946789,0.003065
-0.042765,0.182105,0.400472,-0.514353,-0.856438,0.044207
0.066153,0.204622,0.662846,-0.145396,-0.973236,-0.177966
-0.040965,-0.124951,0.944402,-0.456849,0.873624,-0.167543
-0.442985,-0.618595,0.442701,0.791430,-0.432235,0.432217
0.119935,0.096965,-0.431247,0.319144,0.930077,0.181948
0.002404,0.170871,-0.960225,-0.572367,0.457147,0.680745
0.846161,-0.584648,0.441987,0.871699,0.472627,0.129477
-0.024588,0.541831,-0.054806,0.600399,-0.093211,-0.794250
-0.130553,-0.643082,0.584915,0.008115,0.430721,0.902449
-0.416494,-0.135889,0.903096,0.935203,0.153172,0.319269
-0.682657,-0.831198,0.544270,-0.136809,-0.873826,0.466595
-0.441784,-0.181168,-0.085215,-0.536408,-0.472759,-0.699117
-0.449046,0.071443,0.640043,-0.630537,0.406905,-0.660947
0.297912,-0.256651,0.584480,0.466060,0.018598,0.884558
-0.206770,-0.134903,0.916987,0.120232,-0.868982,0.480015
0.192148,-0.752168,0.519169,-0.609061,-0.591518,-0.528347
0.650359,-0.601547,0.454955,-0.419800,0.314591,-0.851352
0.026642,0.356130,0.256482,-0.588570,-0.683851,-0.431200
-0.178727,0.108741,-0.034074,0.740403,-0.130463,-0.659381
0.039262,-0.077848,0.485174,-0.318799,0.922351,0.218254
-0.487105,0.513549,-0.103580,0.968577,-0.214083,-0.126598
-0.197255,0.110514,0.883879,0.713026,0.082840,-0.696226
0.095098,0.341250,0.746677,0.917679,0.388680,-0.082418
-0.285591,-0.069275,0.262661,0.444607,-0.890378,0.097732
-0.644347,0.402838,0.595325,-0.105516,0.949163,-0.296574
-0.375883,-0.385051,0.611948,0.734067,-0.106863,0.670616
-0.183584,-0.523256,0.355753,-0.150648,0.673905,0.723296
-0.181129,0.142097,0.747008,-0.643432,0.605914,-0.467827
-0.053732,0.037594,0.529265,0.708673,0.698991,0.095887
-0.272072,-0.097359,-0.091639,0.875296,-0.444080,0.191443
-0.664981,0.132440,0.707547,0.765210,-0.368768,0.527697
0.292954,-0.147566,0.224784,-0.751556,0.178607,0.635030
-0.351694,-0.616181,0.393579,-0.584658,-0.593572,-0.553035
-0.344734,0.118201,0.839021,-0.487717,0.796100,0.358269
0.043016,0.232953,-0.518543,-0.707598,0.703872,-0.062200
-0.444638,-0.660820,0.434781,0.836327,-0.126806,0.533364
0.265360,0.032470,0.253244,0.243760,0.406486,-0.880539
-0.633031,0.131356,0.701994,0.264171,-0.845684,0.463716
0.366518,-0.656681,0.589023,-0.472272,0.480982,-0.738658
0.901245,-0.567254,0.461170,0.720306,0.341366,-0.603845
-0.337573,0.691959,-0.360053,0.204342,-0.310280,0.928424
0.107116,0.058533,0.097679,-0.444387,-0.779671,0.441172
0.217538,-0.150769,0.595829,-0.536330,0.512695,0.670443
-0.616053,0.394462,0.687442,0.873396,-0.376827,0.308515
-0.195253,-0.463244,0.803232,-0.613918,0.754491,0.232050
-0.665980,-0.859234,0.512294,-0.708602,-0.421241,-0.566074
-0.611046,0.915254,0.604585,-0.556299,0.818433,-0.143873
-0.321248,0.631652,-0.142763,-0.225533,-0.893900,0.387400
0.096901,-0.093418,0.845288,0.930959,0.294021,-0.216486
0.347189,0.033455,-0.966822,0.262349,0.314877,0.912154
0.439381,-0.463441,0.383953,0.299752,0.376703,0.876495
0.206370,0.031041,-0.960452,0.141526,0.192661,0.971006
-0.053533,0.254484,0.097975,0.951856,0.239711,0.191075
-0.809755,0.173286,0.683995,0.887100,0.335186,-0.317340
-0.016274,0.514091,0.776217,0.865625,-0.379762,0.326305
-0.235715,-0.135938,-0.367538,0.797427,0.114088,-0.592532
-0.274826,-0.312820,0.838186,-0.582437,-0.765847,-0.272480
-0.155742,-0.592530,0.551772,0.976433,0.066386,0.205355
-0.276027,0.320260,0.651688,0.979195,0.202900,0.003006
-0.616404,-0.480735,0.451021,0.550359,-0.545041,-0.632483
-0.917722,0.270842,0.582426,-0.498939,-0.554786,-0.665787
-0.776302,0.220930,0.553513,0.296745,0.905687,0.302775
0.527567,-0.634509,0.384597,-0.701761,0.169071,0.692060
-0.126146,0.632539,-0.084188,-0.561019,0.053637,0.826063
-0.286743,-0.141456,-0.230528,-0.744475,0.623439,-0.238915
-0.801041,-0.038185,-0.136305,0.847670,-0.182734,0.498060
-0.226402,-0.360711,0.794790,0.453054,0.611615,-0.648589
-0.259953,0.292077,0.695954,-0.610096,0.731978,-0.303300
-0.346537,0.163677,0.906142,0.956142,-0.169252,0.239054
0.247785,0.041535,0.789951,-0.158165,-0.987392,0.006456
-0.282186,-0.215559,0.875871,-0.560730,0.653446,-0.508517
-0.778958,0.032518,0.706816,-0.451399,-0.741687,0.496124
-0.052931,0.544837,0.639991,0.851161,0.255132,-0.458729
-0.166507,-0.446196,0.353073,0.968025,-0.086982,0.235290
0.296561,-0.129385,0.227708,0.842659,-0.154694,-0.515748
-0.406429,0.429691,0.721316,0.714179,0.594818,-0.368973
-0.190846,-0.623423,0.685249,-0.510989,0.625360,-0.589759
0.126446,-0.112682,0.580929,0.387968,0.814276,0.431782
-0.071762,0.100119,0.828925,0.876666,-0.424921,-0.225606
-0.709948,0.125985,0.771134,-0.239423,0.630375,-0.738447
-0.580298,0.246847,0.694126,0.875565,0.008251,0.483030
-0.264260,-0.428803,0.772126,0.171064,0.672925,-0.719659
-0.728880,0.500542,0.682568,0.125683,-0.651500,0.748165
-0.188541,-0.385692,0.095190,0.047200,-0.982331,0.181100
0.463219,-0.255814,0.626396,0.593414,0.749335,-0.293866
0.011317,-0.429888,0.622584,0.912804,0.291636,0.285897
-0.054936,0.210288,-0.975526,0.195295,-0.225117,-0.954559
-0.116179,-0.303951,0.486375,0.371227,0.351569,0.859413
-0.970804,0.224330,0.711603,-0.256156,-0.821488,0.509452
-0.610796,0.233051,0.043474,0.998163,0.024136,0.055573
-0.548749,-0.355489,-0.133990,0.081474,0.347349,0.934190
-0.324653,-0.587407,0.381272,-0.000797,0.915279,0.402820
-0.807750,0.113323,0.696145,-0.126090,0.359350,0.924645
0.446041,-0.279218,0.484878,-0.297120,0.270924,0.915598
0.434974,-0.450286,0.601835,-0.692640,-0.306900,-0.652735
0.039611,0.141309,-0.442161,0.208842,0.977845,-0.014290
-0.112425,-0.127069,-0.483329,0.532423,-0.840382,-0.101409
0.021134,0.055726,0.329051,0.935258,0.244214,0.256227
-0.198056,-0.316466,0.896499,0.958809,0.186415,0.214324
0.314438,-0.033948,0.230598,-0.062000,-0.666480,0.742940
-0.459762,0.186884,0.684604,-0.536423,0.474254,-0.698093
0.258752,-0.016554,-0.955282,-0.049222,0.182503,0.981972
-0.025789,0.378449,0.583035,0.983609,0.135452,-0.119019
-0.727926,0.547497,0.735624,0.896450,0.383682,-0.221733
-0.279233,0.061441,0.521119,-0.025063,0.818553,0.573884
-0.085632,0.353716,0.219423,0.402268,0.856718,-0.322824
-0.262557,-0.512416,0.630504,-0.608211,0.463298,0.644542
-0.555711,-0.880272,0.585577,0.917688,0.203043,0.341499
-0.388200,-0.519610,0.627405,-0.558059,-0.412286,0.720132
0.000002,-0.093220,0.507367,0.550967,-0.816147,-0.174183
-0.035255,0.222063,0.475025,-0.755071,0.643367,-0.126280
-0.331414,0.474872,-0.507106,-0.625626,-0.756303,0.191308
-0.075066,-0.023896,0.602427,0.398122,0.908861,0.124380
-0.714658,0.236401,0.550780,-0.284702,-0.819519,-0.497326
0.062348,-0.296118,0.917422,-0.497274,-0.492956,-0.713942
-0.273123,-0.064545,0.811466,-0.591912,-0.706744,-0.387495
0.110974,-0.116722,0.853834,0.710445,0.691408,-0.131235
-0.421504,0.182351,0.801875,0.972482,-0.232626,-0.012819
-0.811207,0.492166,0.668608,0.807982,0.442655,0.388873
-0.471930,-0.096521,-0.598475,-0.062693,0.439782,0.895914
-0.748558,-0.181218,-0.185949,0.892586,0.092114,0.441367
-0.201112,0.446098,0.786104,0.984784,-0.170522,0.033506
-0.659721,0.160771,0.573322,0.845853,0.205271,0.492338
0.261607,0.125493,-0.966683,0.024619,0.127535,0.991529
-0.868495,-0.450433,0.544618,0.878324,-0.031189,0.477048
-0.432721,-0.571837,0.443606,0.830115,-0.248144,0.499333
-0.459863,-0.295970,0.714196,0.219389,-0.821766,0.525899
0.052931,0.011628,-0.040706,0.960730,0.228823,-0.156964
-0.849116,0.198167,0.635761,-0.694739,-0.677839,-0.240567
-0.740996,0.786953,0.473372,0.794897,0.182529,0.578638
0.078822,0.103518,-0.038565,0.951945,0.284728,-0.112833
0.087787,-0.278380,0.886472,-0.123814,-0.989554,-0.073839
0.117132,0.028972,0.715693,-0.622629,-0.739403,0.256157
-0.372527,0.463589,0.516367,0.581344,0.688812,-0.433102
-0.230207,-0.504631,0.334952,-0.364028,0.723424,0.586636
0.207021,-0.308435,0.437531,-0.599264,0.235921,0.765000
0.102810,0.241378,0.795086,-0.432506,0.655051,-0.619553
-0.052530,-0.018378,0.615586,0.288557,0.955533,0.060759
-0.687566,0.377907,0.713935,0.895182,0.442623,0.052292
-0.676849,0.235760,0.559240,0.294907,0.799241,0.523683
0.309080,-0.686736,0.542112,-0.416775,0.651210,0.634211
-0.316238,0.341693,0.604237,0.557034,0.820853,-0.126147
-0.709147,-0.535820,0.544235,0.501439,0.778704,-0.377067
-0.467474,-0.744580,0.453180,-0.661243,-0.253649,-0.705989
-0.058790,-0.816959,0.668103,-0.119581,-0.944031,-0.307416
-0.791526,0.096817,0.700897,0.425116,0.650930,0.628941
-0.310831,0.676685,-0.392882,0.565227,-0.819308,0.096192
-0.067153,-0.776311,0.538004,-0.568768,-0.792558,-0.219897
0.228453,-0.553311,0.504008,0.871297,-0.441811,-0.213645
-0.253443,-0.074498,-0.953071,0.123674,0.088629,0.988357
0.245881,-0.039515,0.518403,-0.040233,0.562168,0.826044
0.070658,0.017590,-0.039105,0.874587,0.276846,-0.398062
-0.140117,0.545231,-0.802171,0.798617,0.252120,0.546485
-0.349291,0.559765,0.130595,0.962704,-0.245606,0.113482
-0.731484,0.030992,0.661244,0.661430,0.655261,0.364888
-0.015825,-0.068437,0.488794,-0.442451,0.883742,0.152440
0.132155,0.284194,0.792371,0.430090,-0.648071,0.628511
-0.303670,0.100611,0.631548,0.323708,-0.691476,0.645813
0.112123,0.256898,0.691933,0.241727,-0.745387,0.621262
-0.099454,0.115294,0.830805,-0.360223,0.046113,0.931726
0.023738,0.136825,-0.306353,0.251121,0.896595,0.364767
-0.535578,-0.684569,0.461274,0.719069,-0.026877,0.694418
-0.288348,0.092826,0.616822,0.599998,0.329766,0.728874
-0.430866,0.386332,-0.385589,0.911925,0.394409,-0.113288
-0.534328,-0.596965,0.516663,-0.828967,0.007263,-0.559251
0.905753,-0.525276,0.472293,0.804108,-0.319374,-0.501408
-0.427611,0.489161,0.767722,0.280530,-0.351000,0.893365
-0.003504,0.580262,0.764258,0.784176,0.049454,-0.618564
-0.210276,-0.373916,0.507855,-0.117306,0.752157,0.648459
-0.301466,0.189742,0.472623,0.461091,-0.223308,0.858795
0.027794,0.132440,-0.949346,-0.780484,0.240821,0.576932
0.556262,-0.520053,0.386755,-0.454996,0.624419,0.634886
0.041414,-0.577601,0.570067,0.828245,-0.258005,-0.497437
0.124694,0.329671,-0.984612,0.017962,0.373034,0.927644
-0.848413,0.532026,0.673603,-0.458100,-0.845579,0.274118
0.523059,-0.395349,0.373665,0.101762,-0.359916,0.927419
-0.442236,0.564200,0.748488,0.273401,-0.392698,-0.878089
-0.441933,0.192649,0.494660,0.460280,0.048772,0.886433
-0.011619,-0.069718,0.498368,-0.483771,0.851962,0.200317
0.314038,0.034194,0.448828,-0.531893,-0.640201,0.554285
-0.186839,-0.110563,-0.628850,0.917990,-0.393456,0.049865
-0.102458,-0.816713,0.572434,0.938264,0.260729,0.227335
-0.034953,-0.280449,-0.405206,0.344441,0.733902,0.585447
-0.080323,0.647714,0.761369,-0.147528,0.816584,-0.558056
0.178577,-0.218762,-0.362803,-0.351231,0.886677,-0.300734
-0.032700,0.568683,0.849309,0.911955,0.370655,0.175937
-0.561219,0.024438,0.623733,-0.376864,0.427781,0.821570
0.269868,-0.836963,0.504791,0.028638,0.122057,0.992110
-0.504631,0.174222,0.512415,-0.651676,0.107487,-0.750843
0.493163,-0.239653,0.004204,0.216158,0.180329,0.959561
-0.280835,0.424517,0.703387,0.533345,0.464645,-0.706858
-0.101856,-0.638796,0.501501,0.918822,0.392232,-0.043808
-0.096850,0.075630,0.543504,-0.641314,-0.744402,-0.185959
0.128099,-0.269265,0.405589,-0.519871,0.095172,0.848927
0.186640,0.179641,-0.554053,-0.218855,0.826264,-0.519029
-0.289849,0.039516,0.529231,0.012859,0.815014,0.579298
-0.695427,0.156583,0.213800,0.994405,0.104546,-0.015134
-0.649806,0.035918,0.469577,-0.894134,0.445891,0.041298
-0.703591,-0.017639,-0.127410,-0.684112,0.612980,-0.395280
-0.364965,-0.367412,0.603628,0.767482,-0.252650,0.589186
-0.265210,0.504139,0.318346,0.784982,-0.324893,0.527492
0.029194,0.089624,0.715537,0.674329,0.600319,-0.429997
-0.551203,-0.411756,0.687860,-0.703653,0.164701,-0.691192
-0.362611,0.066910,-0.168386,0.486771,0.871495,0.059585
-0.148529,0.004927,0.862259,0.762208,-0.135190,-0.633058
0.236718,-0.684027,0.482789,-0.063342,0.392248,0.917676
-0.430817,-0.063608,0.633480,0.873198,-0.323569,-0.364456
-0.591414,0.218812,0.324769,0.852978,-0.308535,-0.420993
-0.838599,0.249261,0.559745,0.400091,0.866736,0.297819
-0.422904,0.504681,0.521484,-0.288659,-0.843931,0.452169
-0.006460,0.440629,0.709949,-0.796686,0.483744,0.362331
-0.181832,-0.123719,0.886194,-0.002529,0.709726,0.704473
-0.104613,-0.607410,0.624133,0.561102,0.279293,0.779204
0.251040,-0.645053,0.488916,0.245261,-0.146507,-0.958323
0.082126,-0.068584,0.834948,0.754058,0.495125,-0.431565
-0.655164,0.453341,0.640269,-0.361537,0.619995,-0.696346
-0.572837,0.329621,0.210928,-0.106744,0.570231,-0.814520
-0.167409,-0.447674,0.321410,-0.642806,-0.518879,-0.563530
-0.197457,0.518181,0.100481,0.350567,-0.009659,-0.936488
-0.106215,0.723295,0.645422,-0.342656,0.521351,-0.781524
-0.667533,0.125788,0.586726,-0.692149,-0.633552,-0.345748
0.066954,-0.261283,0.820082,0.752693,-0.647033,0.121658
-0.418799,0.397714,0.586795,0.351622,-0.530084,0.771604
-0.169414,-0.436145,0.904506,-0.707717,-0.409233,0.575903
0.048875,-0.368792,0.720567,0.377139,0.249046,0.892044
-0.483450,-0.170083,0.331680,0.809037,-0.307471,0.500920
0.172418,0.199596,0.505992,0.776747,0.550230,0.306448
-0.189244,0.195309,-0.042952,0.695748,0.073184,-0.714548
-0.794931,-0.678902,0.557517,-0.705425,-0.700237,0.109745
-0.027143,0.116575,0.127584,0.313903,0.948294,-0.046948
-0.450547,-0.639387,0.448114,0.873886,-0.282744,0.395448
0.038911,-0.233543,0.556055,0.653481,0.221305,0.723869
-0.025239,0.576814,0.634594,0.593099,0.600964,-0.535794
0.618758,-0.620320,0.465800,0.384091,0.332610,-0.861304
-0.397767,0.176094,0.487680,-0.397630,0.288147,-0.871127
0.077621,0.094354,-0.088679,0.608485,0.791176,0.061526
-0.248586,-0.062869,0.793763,-0.302035,-0.935316,-0.184279
0.165407,-0.416584,0.425834,0.807259,0.293555,-0.512014
-0.461614,0.211470,0.687407,0.546055,-0.395243,0.738652
-0.414841,0.360958,0.817854,0.457763,0.887729,0.048879
0.040564,0.149044,-0.194653,0.068315,0.986814,0.146738
-0.088285,-0.086273,-0.957980,0.067858,0.256157,0.964251
0.029145,0.144166,-0.761386,0.135676,-0.984231,-0.113495
0.061645,0.084500,0.750907,0.996171,0.078717,-0.038032
-0.720114,0.659687,0.466496,-0.592864,0.633596,-0.497060
-0.064350,-0.357311,-0.165809,0.308731,0.949440,0.057002
-0.514348,0.790205,0.447714,-0.022310,-0.947904,0.317773
-0.245331,-0.172447,0.939720,-0.618826,0.768154,0.164296
-0.144473,0.618595,0.765877,0.931372,0.259344,0.255511
-0.269917,-0.154563,-0.388600,-0.658682,-0.719146,-0.221286
-0.268016,0.390274,0.720132,0.859373,0.335619,-0.385795
-0.628875,0.298926,-0.163268,0.288657,-0.955227,-0.064956
0.050379,0.097803,0.731446,0.708024,0.634007,-0.311026
-0.559315,0.347458,0.257596,0.899568,-0.436656,-0.010397
0.539185,-0.455903,0.368077,-0.033937,-0.393075,0.918880
-0.657266,0.209253,0.753170,0.050455,0.784549,0.618010
0.112976,-0.026606,0.882521,0.677971,0.625772,-0.385701
-0.034705,0.548285,0.755729,-0.371277,-0.203062,0.906046
-0.366469,-0.102927,0.882469,0.842270,0.029261,0.538262
-0.006411,-0.099428,0.830405,0.824657,-0.527331,0.204603
0.051131,0.462456,-0.996275,0.090042,0.205507,0.974505
-0.471731,-0.084942,-0.723213,0.182953,-0.978046,-0.099775
-0.354197,0.409145,0.652872,-0.650528,-0.706634,0.278356
-0.118334,0.040550,-0.508342,-0.344792,0.792241,-0.503461
-0.175221,-0.366427,0.644220,-0.716503,0.583769,-0.381886
0.275177,0.002661,-0.958606,-0.069191,0.260901,0.962883
-0.747809,-0.446689,0.460543,0.781913,-0.525227,0.335780
-0.648305,0.259214,-0.670139,0.792640,-0.270724,-0.546288
-0.256298,0.777887,0.628293,0.147875,-0.944040,0.294823
0.152588,-0.473345,-0.089515,0.134006,0.814722,0.564154
-0.246783,0.047103,0.867812,0.024947,0.809684,0.586336
0.201012,-0.399931,-0.129272,0.112898,0.890369,0.441018
-0.308026,-0.384904,0.818655,0.998861,-0.023247,-0.041664
0.096651,0.105932,-0.506915,0.633628,0.766577,0.104283
0.461113,-0.633918,0.370723,0.198559,-0.310829,0.929495
0.047273,0.072231,0.870910,-0.486171,-0.690059,-0.536150
-0.500624,-0.457923,0.658912,0.780083,0.557878,0.283272
-0.639890,-0.624507,0.557987,0.835755,0.450210,-0.314364
-0.472431,0.479208,0.765790,-0.601543,0.252598,-0.757853
0.462718,-0.213392,0.693673,0.557509,0.701251,0.444332
-0.245279,0.495024,0.778724,0.944057,0.014905,-0.329445
0.537333,-0.185209,0.682429,0.647187,0.712219,0.271834
0.466923,-0.298778,0.347642,-0.667048,0.404211,-0.625827
0.069106,-0.607263,0.607770,-0.537269,0.608747,0.583754
-0.283791,-0.512121,0.528430,0.433361,0.642990,0.631477
-0.749661,0.629188,0.724379,0.947494,0.071831,0.311602
-0.662826,0.108445,0.713831,0.993325,0.004079,-0.115276
-0.280334,0.737732,-0.416364,0.874886,-0.480463,0.061077
-0.067153,-0.814200,0.665144,-0.319622,0.938508,0.130556
0.429665,-0.261086,0.005544,-0.077719,-0.146880,-0.986096
-0.685912,-0.592678,0.527072,0.603148,0.770744,-0.205345
-0.109268,-0.097063,-0.934637,0.118434,0.418839,0.900304
0.052433,-0.435948,0.578057,-0.110287,0.417074,0.902156
0.334369,-0.112140,0.710976,0.564236,-0.821967,0.077506
0.007713,0.577158,-0.997720,0.048108,0.077404,0.995838
0.367719,-0.023207,-0.962314,0.166382,0.287213,0.943306
-0.608592,-0.446394,0.441517,-0.491348,0.463504,0.737388
-0.965394,0.302030,0.581730,0.685027,0.471257,0.555567
-0.296808,0.414170,0.802797,0.957569,-0.287470,-0.020562
-0.184837,-0.526359,0.366406,-0.115057,0.675434,0.728389
-0.562020,-0.253843,0.393317,0.614815,0.405288,0.676568
-0.279582,0.016358,0.770838,-0.678551,-0.730661,-0.075526
-0.379838,0.463589,0.515235,0.581344,0.688812,-0.433102
-0.294256,-0.296216,0.749515,0.931649,-0.089107,0.352263
0.220943,0.085337,0.259511,0.052841,-0.533272,0.844292
-0.228603,-0.389929,0.781282,-0.160289,-0.893208,0.420103
-0.100306,-0.021038,-0.763092,-0.241778,0.968931,-0.052111
-0.256747,-0.108248,0.830405,0.282515,0.923086,0.260956
-0.080974,0.563018,0.699679,0.840409,0.058210,0.538818
-0.279432,0.566417,0.336293,0.476944,-0.617964,0.625016
0.045821,0.134509,-0.201250,0.006287,0.988567,0.150649
-0.082328,0.263648,-0.978137,0.047445,0.123069,0.991263
-0.313387,-0.262712,0.213156,0.794675,0.464469,-0.390845
-0.440482,-0.176488,0.745737,0.750674,0.031352,0.659929
-0.034705,0.387613,0.602653,0.890723,0.451877,0.049192
-0.776002,-0.512712,0.523730,0.667878,0.543925,0.508021
-0.188593,-0.358741,0.827324,-0.043862,0.376084,0.925547
-0.282739,0.510495,0.753692,-0.505896,0.569117,-0.648210
0.086736,0.295033,-0.977197,-0.007571,0.379727,0.925068
0.140869,0.220980,0.259493,0.840973,0.409260,-0.353936
0.059093,0.365590,-0.986893,0.042115,-0.253863,-0.966323
-0.739896,0.592433,0.711098,-0.532807,-0.778202,0.332445
-0.115228,-0.139831,-0.704553,0.608886,0.659943,-0.440150
0.054135,-0.589377,0.628519,0.172555,0.337914,0.925224
-0.422454,0.035771,-0.197995,-0.724437,0.436007,-0.533936
-0.378285,-0.357411,0.900050,0.100603,0.961339,-0.256331
0.029845,-0.193388,0.704849,0.965305,0.260560,0.017145
-0.663428,-0.071640,-0.217229,-0.574455,0.399877,-0.714212
-0.872550,0.060061,0.643298,-0.777518,0.114456,-0.618358
-0.819869,0.062278,0.635534,-0.026991,0.807973,0.588600
-0.702139,0.157322,0.594733,0.946888,-0.114684,0.300419
0.052781,0.128942,-0.026206,-0.272707,-0.960892,-0.048141
-0.138714,0.560308,0.732491,-0.040778,-0.481620,0.875431
-0.356453,0.725020,-0.354378,-0.356027,0.371627,-0.857402
-0.367569,-0.446985,0.601643,-0.669541,0.084175,-0.737991
-0.435273,0.483100,0.012698,0.865619,0.488814,-0.108466
0.504032,-0.174271,0.678843,0.607961,0.790888,0.069849
0.008364,-0.117806,0.869970,-0.084270,-0.883644,0.460513
0.099053,0.080755,-0.461222,0.451489,0.890578,-0.055029
-0.601082,-0.137219,0.573096,-0.630078,-0.351317,-0.692516
-0.349441,0.521088,0.838325,0.534345,0.588022,-0.607211
0.914317,-0.524833,0.484025,0.865761,-0.287840,-0.409397
-0.684310,-0.565973,0.546254,-0.291251,-0.807568,0.512842
-0.433220,0.333613,0.804312,0.969191,-0.200379,0.143236
-0.006561,0.377217,-0.988390,0.016775,0.224602,0.974306
-0.229856,0.401951,0.248666,-0.297680,0.872847,-0.386684
0.386700,-0.054592,-0.960643,0.084522,0.238536,0.967449
-0.478391,-0.479307,0.190806,-0.070328,0.605049,0.793076
-0.401823,-0.239160,-0.198291,-0.648579,0.249520,-0.719086
0.116931,-0.245369,0.863269,0.786875,-0.617092,-0.005084
0.477890,-0.719058,0.408340,-0.121123,0.590169,0.798141
0.020682,0.123276,-0.145739,-0.775474,0.545680,0.317605
-0.186139,-0.044442,0.868561,0.772125,-0.576573,-0.267182
-0.077419,0.064250,0.526898,0.714785,0.683136,0.149694
-0.737744,0.607115,0.731847,0.947338,0.311805,0.073001
-0.075919,0.692945,0.770821,0.056058,-0.928975,0.365872
-0.234862,-0.441023,0.793955,-0.378219,0.701039,0.604561
-0.514045,0.570950,0.251155,0.904694,-0.174769,-0.388566
-0.480143,0.722310,0.648207,0.294262,-0.608924,-0.736628
0.133307,-0.353863,-0.154408,-0.124752,0.310491,0.942355
0.194902,-0.364751,0.275734,-0.064122,0.885725,0.459761
-0.507685,-0.225266,-0.054440,-0.439464,-0.638332,-0.631985
-0.256447,-0.369285,0.582026,-0.517561,-0.619489,-0.590224
-0.022534,-0.327306,-0.326806,0.338462,0.857912,0.386562
0.136911,-0.041929,-0.730002,0.414440,-0.016008,-0.909936
-0.300565,-0.162544,-0.391733,-0.485056,-0.826687,-0.285148
0.078071,0.245911,0.497480,0.079603,0.992024,0.097733
0.063048,0.323709,-0.340923,-0.397873,-0.493890,0.773155
0.078621,-0.019462,0.800204,0.908296,-0.361052,-0.211283
-0.485953,0.107362,0.907291,0.010303,-0.999206,0.038479
-0.022635,-0.038874,-0.500875,0.890900,-0.452845,0.035045
-0.349841,0.090609,0.715658,0.600994,0.794217,-0.089588
-0.530171,0.483889,0.685927,-0.376924,-0.492641,0.784368
-0.010666,-0.069767,0.899336,0.846416,0.526420,0.080381
-0.030997,-0.276606,-0.380245,0.883216,0.456117,0.109032
0.431419,-0.068437,-0.958937,0.052886,0.254264,0.965688
-0.667383,-0.089623,0.458663,0.876995,-0.405610,0.257604
-0.026492,-0.283947,0.768854,-0.225206,-0.124304,0.966349
-0.487454,0.398650,0.883252,0.463384,0.885949,-0.019234
-0.335519,0.470635,0.836549,0.621070,0.366776,-0.692638
0.343533,-0.718861,0.456191,0.834489,-0.080538,0.545107
-0.014071,-0.104503,0.898727,0.695299,-0.706810,0.130299
-0.009364,0.570556,0.770386,0.810466,0.007229,-0.585741
0.382543,-0.638845,0.551738,0.784051,-0.603605,-0.144657
-0.654363,0.706642,0.621209,0.936130,0.259343,-0.237492
-0.533277,0.134509,0.930703,-0.697966,0.692739,-0.181539
-0.077771,-0.603025,0.401812,-0.586250,0.635910,0.501925
-0.455205,0.382095,-0.099698,0.567278,0.230654,-0.790566
0.082878,-0.686391,0.494956,0.362306,0.551210,-0.751599
-0.407582,-0.084697,0.744380,0.739596,0.133656,0.659646
0.212180,0.089920,0.302001,0.923067,0.157322,-0.350996
-0.394763,0.283553,-0.337337,0.549989,-0.434119,-0.713479
0.000050,0.046512,-0.958241,-0.081064,-0.024120,0.996417
-0.045069,0.091446,0.258606,0.984520,0.111000,0.135646
-0.301066,0.107755,0.617919,0.645917,-0.005269,0.763389
-0.776402,-0.567501,0.534348,0.462924,0.685749,0.561649
0.046573,0.331445,-0.985396,0.029792,0.286828,0.957519
0.069408,0.009854,-0.964455,-0.064999,0.113641,0.991393
0.493964,-0.784095,0.433754,-0.462119,0.530633,0.710545
-0.075466,0.117955,0.316205,0.925183,0.379051,0.018900
-0.941658,-0.037692,0.617292,0.583634,-0.713518,0.387638
0.138516,0.012515,0.886890,0.633567,0.445957,-0.632231
-0.214032,0.685653,-0.359983,-0.025655,-0.096260,0.995025
-0.168512,0.137022,-0.970652,0.123583,0.171844,0.977342
-0.478492,0.138057,0.711324,-0.746748,-0.495000,-0.444233
-0.004956,-0.169688,0.559449,0.884763,0.177627,0.430864
-0.336873,0.488570,0.738688,-0.400179,0.708999,-0.580670
-0.809254,0.540501,0.670801,-0.411843,-0.792510,0.449792
-0.074617,0.419738,0.658007,0.684887,-0.707561,0.174036
-0.247583,0.177670,0.844574,-0.688705,-0.106411,-0.717190
-0.249335,-0.472211,0.605751,0.449108,-0.571124,-0.687109
-0.033901,0.595487,0.850771,0.911955,0.370655,0.175937
-0.304022,-0.172546,0.931521,0.314746,0.935265,0.161907
0.094447,0.047892,0.728435,0.633147,0.678385,-0.372717
-0.493665,0.078193,0.836480,-0.326741,0.877941,-0.349943
-0.035053,-0.007933,-0.673743,-0.426845,-0.659886,0.618347
0.020783,0.079030,0.269589,0.931010,0.363748,-0.030135
0.013823,0.133228,-0.213191,-0.303285,-0.952068,0.039801
0.030848,0.082381,-0.456069,0.514625,-0.823314,0.239407
0.297961,-0.203981,0.576160,-0.548650,-0.124029,-0.826801
0.112624,-0.406533,0.285430,-0.103293,0.843228,0.527539
-0.368520,0.121403,0.645717,0.318365,-0.788856,0.525690
0.090590,0.209943,0.775938,0.753282,-0.562915,0.340136
-0.360909,0.225217,0.793641,0.972040,-0.178925,0.152065
-0.527216,-0.221078,-0.166105,0.431543,-0.604652,-0.669452
-0.541037,-0.174714,0.360505,0.826323,-0.069351,0.558910
-0.247583,-0.035770,0.263497,0.004291,0.975368,0.220542
-0.021632,-0.153380,0.624603,0.838890,-0.544253,-0.007194
-0.774599,0.506060,0.757452,-0.526709,-0.831349,-0.177300
-0.394060,0.623818,0.276326,0.381739,-0.242878,-0.891788
0.496269,-0.155893,-0.224767,0.741932,0.669066,0.043459
0.104714,0.372635,0.748122,0.854459,0.489920,-0.172853
0.175071,-0.133179,0.733587,-0.659853,0.597834,0.455179
-0.095948,-0.347260,-0.156201,0.308731,0.949440,0.057002
-0.100655,0.014042,0.782692,0.819241,-0.293513,0.492639
-0.035756,-0.768821,0.622758,0.929947,-0.192720,-0.313142
-0.585005,-0.196492,0.390184,0.656318,0.335221,0.675925
-0.675896,-0.603814,0.502058,0.845623,-0.524963,0.096615
0.494615,-0.549763,0.374222,0.886423,-0.421014,-0.192359
0.052833,0.174517,-0.834930,-0.059891,0.946298,0.317699
-0.275477,0.091249,0.823947,0.277415,0.881637,-0.381781
-0.033501,-0.352730,0.879771,-0.062809,0.200486,-0.977681
-0.019428,-0.859381,0.567456,0.477628,0.711932,0.514804
0.008765,-0.272418,0.910459,0.233710,0.825753,0.513333
0.022586,0.140077,-0.282540,-0.079561,0.992474,-0.093090
0.003755,0.283800,0.812267,0.164550,-0.226998,0.959893
-0.366567,0.096571,0.905898,0.867945,-0.492223,0.066243
-0.101908,-0.832972,0.680026,0.376700,0.860319,0.343435
0.629125,-0.614161,0.459255,0.494362,0.243557,-0.834438
0.062947,0.165796,-0.539222,-0.691550,-0.677226,-0.251246
-0.701136,0.189150,0.598997,0.569793,-0.543023,0.616816
-0.063549,0.204080,-0.976710,-0.191050,0.189348,0.963145
-0.976110,0.288431,0.702377,0.888556,0.072519,0.453000
-0.669636,0.585977,0.701733,0.052128,-0.683191,0.728377
-0.321349,0.123374,0.637728,0.334614,-0.771108,0.541688
-0.817867,0.114850,0.653533,-0.546504,-0.831271,0.101595
0.184436,0.056119,-0.269067,0.340343,0.924704,-0.170553
-0.495868,-0.274340,0.822189,0.905652,-0.129512,0.403758
0.420300,-0.093368,-0.641383,0.438692,0.894220,-0.088997
0.733636,-0.376577,0.377965,0.270226,0.939334,0.211258
-0.201311,-0.042915,-0.655013,-0.748371,0.650889,0.127610
-0.207122,-0.071689,0.744745,0.910586,0.198606,0.362475
-0.322700,-0.358790,0.131117,-0.304792,-0.948939,-0.081349
-0.333367,0.626725,-0.155870,0.101654,0.891936,-0.440586
0.202464,-0.003547,0.293472,0.902087,-0.237185,-0.360531
-0.879611,0.261234,0.578631,0.517308,0.664651,0.539103
-0.026892,0.375887,-0.986736,0.059497,0.209068,0.976089
0.266714,-0.200434,0.602722,-0.073959,-0.157861,0.984688
0.115280,0.139289,-0.625560,0.834369,0.536276,0.127419
-0.910561,0.190038,0.683055,0.868296,-0.495059,-0.031265
0.041964,0.159588,-0.642863,-0.071460,-0.995033,0.069297
0.151035,0.264584,-0.974116,0.116361,0.400830,0.908733
0.180429,0.082825,-0.270790,0.413809,0.907116,-0.076833
-0.357204,-0.051389,0.894218,-0.400744,-0.821305,-0.406033
-0.040714,-0.020398,0.613584,0.697063,0.705158,-0.129824
-0.463467,-0.308435,-0.157141,0.455928,0.187323,0.870080
-0.699883,-0.724773,0.544044,-0.070357,0.995545,0.062771
-0.128548,0.391358,0.199335,0.383957,0.861463,-0.332354
-0.373728,-0.169344,0.732230,0.081935,0.634969,0.768180
0.163454,-0.287052,0.878639,0.618421,0.136059,-0.773979
-0.817818,-0.562771,0.553061,-0.606316,-0.554656,-0.569858
0.024839,0.139092,-0.325030,-0.304211,-0.951810,-0.038892
-0.060294,-0.193289,0.742918,0.761537,-0.582585,-0.283999
-0.882368,0.072329,0.675901,0.883608,-0.466416,-0.041158
-0.086332,0.564446,0.714353,0.857057,-0.271403,0.437942
-0.429515,0.404760,-0.403013,0.986691,0.144917,-0.073750
-0.006108,0.229208,0.520231,-0.228893,-0.147407,0.962226
-0.507935,-0.808485,0.526341,-0.103233,0.934906,0.339549
-0.321547,0.071246,0.703752,-0.380882,-0.924339,0.022942
-0.333367,-0.650473,0.658894,-0.621820,-0.774964,-0.113005
-0.020080,0.082479,0.346528,0.919986,0.352625,0.171118
0.093194,-0.804395,0.551494,0.084540,0.893358,0.441322
0.298765,0.089920,0.734527,0.874162,0.043421,0.483690
-0.329158,-0.370861,0.171118,0.301424,-0.928015,-0.218935
-0.025340,0.121206,0.099263,0.051578,-0.986569,0.154987
-0.143773,-0.409588,0.303515,-0.741525,-0.259017,-0.618910
-0.420101,0.172250,0.672907,0.341012,-0.633378,0.694653
0.112474,0.271778,0.809360,-0.669873,0.528536,0.521459
-0.093344,0.096423,0.460787,0.886937,0.456968,0.067262
-0.318794,-0.127562,0.905829,0.512200,0.855783,-0.072715
-0.840201,0.248917,0.559118,0.400091,0.866736,0.297819
0.028696,0.176439,0.413127,-0.451708,0.561922,-0.692967
-0.502678,0.218861,0.149290,0.739641,-0.672537,0.025021
-0.538934,0.483593,0.225445,0.836656,-0.112327,-0.536087
-0.726875,0.582381,0.713744,0.792284,0.340709,0.506166
-0.053634,0.145841,0.330061,0.986138,0.157895,0.051002
0.040613,0.131799,-0.095799,-0.086185,0.994861,-0.053131
-0.350492,-0.100119,0.313472,-0.232647,-0.620643,-0.748784
-0.069158,-0.205804,0.677694,0.443957,-0.856484,-0.263320
-0.633181,-0.128153,0.587108,0.901917,0.002537,0.431901
0.157444,-0.338736,0.930860,-0.522930,-0.766203,0.373467
0.130902,-0.222310,0.826244,-0.809847,0.236849,0.536703
-0.383393,0.443536,0.584428,0.285750,-0.358131,0.888870
-0.251490,0.541831,0.321984,0.540591,-0.611369,0.577918
-0.483050,0.474527,-0.375893,0.989233,-0.146347,0.001141
-0.237167,-0.148059,0.954028,0.709801,-0.703309,0.039241
-0.072813,-0.122093,-0.002881,-0.587246,0.017001,-0.809230
-0.613852,-0.519955,0.545715,0.339505,0.925247,-0.169275
-0.308830,0.771285,-0.082117,0.002140,-0.116609,0.993176
-0.282739,0.290599,-0.159525,-0.527586,-0.832042,-0.171344
-0.557814,0.958219,0.598388,-0.613404,0.780808,-0.118639
-0.134759,0.179790,-0.972689,0.106809,0.192548,0.975457
0.188642,-0.380272,0.454155,0.981403,-0.100179,0.163747
-0.443587,-0.044590,0.863251,0.077781,0.947213,-0.311026
-0.036157,-0.189249,0.215941,0.647335,0.554960,0.522472
-0.530370,0.320901,0.728975,-0.228876,-0.633032,0.739518
-0.527919,-0.308681,0.816444,-0.888243,0.428959,-0.164371
-0.875806,-0.073512,-0.091865,-0.511158,-0.300607,-0.805204
-0.006460,-0.207183,0.557621,0.896768,0.247575,0.366761
-0.401221,0.182351,0.811971,0.713821,0.646987,0.268081
-0.047072,0.363471,0.588536,0.949607,0.244788,-0.195768
-0.604337,-0.857854,0.614664,-0.602404,0.029989,-0.797628
-0.793127,0.433090,0.669252,-0.082571,0.816034,0.572075
0.299865,-0.104996,0.582060,-0.111846,0.829384,-0.547369
0.558615,-0.727828,0.429802,0.454551,-0.505359,-0.733482
-0.352446,0.200237,0.948789,0.809789,-0.376702,0.449820
-0.268514,-0.163529,0.916812,-0.570037,0.807727,-0.150449
-0.585057,0.087801,0.596508,0.383475,0.723316,0.574248
0.297261,-0.735219,0.513738,0.733852,0.408069,-0.543084
0.162002,-0.286706,0.769132,0.443094,0.568805,-0.692913
-0.059441,-0.490639,0.522616,-0.606040,-0.596856,-0.525812
0.842857,-0.517639,0.441117,-0.638376,0.292235,0.712091
0.144173,0.059618,0.891712,-0.420792,0.747331,0.514228
-0.379838,0.417324,0.683682,0.608769,0.680626,0.407613
-0.700635,0.203685,0.245080,0.977271,0.177123,-0.116485
-0.046170,0.101942,-0.565419,-0.708543,0.580576,0.401122
0.300064,-0.741230,0.496889,0.573841,-0.335827,-0.746945
-0.093493,-0.119235,0.856167,0.463731,-0.662176,0.588622
0.083829,-0.618201,0.605281,-0.478127,0.640042,0.601449
0.103562,-0.244383,0.967205,-0.661763,0.625654,-0.413071
-0.039161,0.465658,-0.995196,0.016238,0.159976,0.986987
0.335571,-0.201715,0.390706,0.742200,-0.440851,0.504768
0.086485,0.045083,-0.959512,-0.020899,0.118315,0.992756
-0.146276,0.060357,0.590520,-0.704174,-0.688211,-0.174654
0.005558,-0.391407,0.051516,-0.020112,0.983182,0.181520
-0.347439,0.450434,0.839247,0.938517,0.344360,-0.024558
-0.607993,0.303459,0.692124,0.783243,0.580825,-0.221748
-0.013221,-0.136727,-0.537586,-0.871346,-0.202293,-0.447029
0.845711,-0.609923,0.436539,0.207006,0.501014,0.840317
-0.858029,0.136234,0.692699,0.713595,-0.696637,-0.074019
-0.085232,-0.778232,0.588623,0.802535,0.595525,-0.035876
-0.041212,0.050109,0.383100,0.996020,0.052478,0.072044
-0.140417,0.457332,0.121265,0.567599,-0.269209,-0.778047
0.067455,0.271137,0.491492,0.050047,0.937018,0.345678
-0.447894,0.060850,0.884958,0.996003,-0.086215,-0.023337
-0.114977,-0.492954,0.215071,-0.010681,0.942269,0.334686
-0.378887,-0.358691,0.636770,0.956994,0.092645,0.274916
0.049376,0.470734,-0.411281,0.863119,0.494074,-0.104483
-0.233661,-0.070605,0.772370,0.705055,0.677249,0.210313
-0.339275,-0.587111,0.675240,0.952281,-0.161645,0.258904
-0.544442,0.393723,0.219736,0.679526,-0.268275,-0.682842
-0.537583,-0.784933,0.535410,0.752176,0.655315,0.069242
-0.624418,-0.706888,0.503851,-0.730813,-0.055413,-0.680325
-0.400420,0.761776,-0.015362,0.912864,-0.327255,0.244097
-0.119134,0.377562,0.203339,0.383957,0.861463,-0.332354
0.143021,0.277641,0.803650,0.743197,-0.326333,-0.584094
0.825380,-0.440235,0.388339,0.734860,0.575164,-0.359399
0.133506,-0.344895,0.750646,0.751371,0.103466,-0.651718
0.055886,-0.466397,0.563209,0.717409,-0.288866,0.633940
-0.318191,-0.093270,-0.158168,0.908031,0.196815,0.369788
-0.093594,-0.703833,0.442701,-0.524957,0.664832,0.531430
-0.812408,-0.575828,0.624290,0.535540,0.347815,-0.769559
-0.226802,-0.117708,0.918762,-0.692925,-0.618696,0.370229
0.507037,-0.190974,-0.265342,-0.530574,-0.627695,0.569640
-0.503730,0.120122,0.957318,-0.752156,0.628412,0.198395
-0.865041,0.192304,0.664621,0.826497,0.500401,0.257878
-0.734388,-0.308435,0.454990,0.692126,0.710564,0.126728
-0.197555,0.541191,-0.470030,-0.016960,-0.711783,0.702194
0.115479,0.145793,-0.734736,-0.763112,-0.644724,0.044627
-0.054233,-0.090461,0.868004,-0.197849,-0.588745,0.783732
-0.030698,0.212357,0.064815,0.929932,0.367652,-0.007589
0.033501,-0.539170,0.613288,-0.424551,0.511655,0.746971
-0.668936,0.445408,0.691968,0.731257,-0.649149,0.209450
0.026792,0.123374,-0.116322,-0.009451,0.999927,0.007545
-0.176572,0.770152,-0.094476,0.312240,0.055343,-0.948390
0.225500,0.129533,0.279581,0.895135,0.444980,0.026938
0.009165,0.136431,-0.024239,0.406486,0.912991,-0.034881
0.359906,-0.700138,0.566429,-0.671138,0.740048,0.043622
0.455905,-0.566269,0.400872,0.610997,0.707888,0.354369
0.223297,-0.396482,0.448950,0.866718,-0.381876,0.320890
-0.218590,-0.419935,0.773954,0.063617,-0.949145,-0.308344
0.503730,-0.426291,0.368826,0.033128,-0.410350,0.911326
0.066404,-0.031484,0.850718,0.367988,-0.489825,0.790352
-0.463668,0.696689,0.395302,0.261049,-0.613977,0.744906
-0.565725,-0.294393,0.405119,-0.137230,0.698801,0.702029
0.566577,-0.302276,0.325761,0.799434,0.566486,-0.199999
0.137012,-0.865392,0.573113,0.114843,0.957679,0.263935
-0.561821,-0.167521,0.379810,0.713917,0.355526,0.603261
0.085333,0.089771,-0.285830,0.823087,-0.564115,-0.065586
-0.293755,0.477582,0.720550,-0.106222,0.690095,-0.715882
0.151185,-0.120418,0.563609,0.496510,0.866779,-0.046595
0.221292,-0.174271,0.575864,0.243145,0.069799,-0.967475
-0.305373,-0.416979,0.784102,0.024262,0.460177,0.887496
-0.031850,-0.356572,-0.315352,-0.100331,-0.181882,-0.978188
0.444938,-0.203587,-0.229919,0.705817,0.538426,0.460348
0.040564,-0.439988,0.574889,0.808801,-0.200001,-0.553029
0.171865,-0.537741,0.615290,-0.259025,-0.244118,-0.934512
-0.115277,-0.740836,0.627545,-0.409316,0.291863,-0.864451
-0.631378,0.292029,0.634072,0.989819,-0.140554,-0.022432
-0.070059,-0.766013,0.622270,0.863588,0.494287,0.099482
-0.047723,0.065333,0.185183,-0.811128,0.578237,-0.087831
-0.693926,-0.528281,0.546637,-0.362307,-0.837424,0.409212
-0.676397,-0.355833,-0.188229,0.845647,-0.032572,-0.532748
0.245230,-0.712259,0.492398,0.166236,-0.276709,-0.946466
-0.152337,-0.192747,-0.109742,0.800483,0.574651,-0.170307
-0.674795,0.516309,0.665648,0.252677,-0.784949,0.565693
0.027644,0.437919,-0.993368,0.029276,0.188037,0.981726
-0.013270,0.254976,0.485034,0.262576,-0.921227,0.287043
-0.553306,-0.813166,0.528256,0.428193,0.901034,-0.069200
0.126446,-0.292767,-0.003943,-0.484310,-0.149903,0.861959
-0.198108,0.301094,0.751673,0.644311,0.708256,-0.288508
0.387650,-0.435701,0.500944,0.226682,0.008581,0.973931
-0.558716,0.236500,-0.170440,-0.596308,-0.770278,-0.226029
0.248384,0.140668,-0.047512,0.966630,-0.092439,-0.238918
0.162503,-0.770152,0.574106,0.746495,0.502459,-0.436211
-0.139167,-0.291240,0.638998,-0.250858,0.582274,0.773322
0.026590,0.433090,-0.994151,0.014721,0.217616,0.975923
-0.438079,0.199448,0.493790,0.433148,0.013195,0.901226
-0.199560,-0.338490,0.649025,-0.155549,0.715901,0.680654
0.250637,0.102139,0.296048,0.774216,0.599001,0.204421
-0.540888,0.513007,0.546098,0.396750,0.917415,0.030633
0.083028,0.156977,-0.634803,0.574736,0.814191,-0.082288
0.879614,-0.455952,0.414798,-0.775575,-0.608377,-0.168404
-0.511142,-0.220585,0.802832,0.921008,-0.073848,0.382480
0.014422,-0.373374,0.709166,-0.702990,0.245898,0.667337
-0.691973,-0.020891,-0.172128,0.822493,-0.003280,0.568766
-0.300665,-0.279069,0.860205,0.984318,0.057429,0.166791
0.225149,-0.409736,0.276030,-0.310911,0.681773,0.662208
-0.081677,-0.340264,-0.076616,0.836220,0.519740,0.174950
-0.333217,0.074399,0.723700,-0.638536,-0.768920,0.032140
0.165508,-0.055824,0.519030,-0.219845,0.937532,-0.269633
-0.801190,-0.723788,0.476540,0.826851,0.560108,0.050961
-0.266112,0.251134,-0.051672,-0.533741,-0.721108,-0.441728
0.032049,-0.073463,0.497428,-0.066699,0.965214,0.252810
-0.592368,0.307105,-0.245655,0.887163,-0.143884,-0.438451
0.049728,-0.041388,0.558196,0.822081,-0.110765,0.558493
-0.457659,0.208613,0.857594,0.917806,0.376170,0.126999
-0.242326,-0.399537,0.681663,0.847550,-0.496311,-0.187973
-0.360759,0.073709,0.866176,0.296125,-0.767672,0.568322
0.082178,0.143378,0.755120,0.987002,-0.154071,0.045701
0.459612,-0.451370,0.572539,0.627035,0.616424,0.476286
0.183636,-0.111500,0.878239,0.895877,0.307248,-0.320941
-0.358305,-0.514338,0.590224,-0.102386,0.800673,0.590288
0.029347,0.130765,-0.128750,0.062527,0.988084,-0.140646
0.119786,-0.059174,0.521763,-0.239140,0.732460,-0.637428
-0.528017,-0.063313,-0.187429,-0.660202,-0.126109,0.740425
-0.415143,0.047744,0.809777,0.002878,-0.930897,0.365270
-0.820321,-0.597950,0.572034,-0.064990,0.584752,0.808605
-0.204768,0.043802,-0.482737,0.505969,0.226101,0.832390
-0.024939,0.196787,-0.480996,0.714160,-0.580356,0.391361
-0.006662,0.131898,-0.059331,-0.270759,0.962047,0.033999
-0.516148,-0.081444,-0.239023,-0.300518,-0.698514,-0.649436
-0.752864,0.081789,-0.263514,0.526507,-0.409643,-0.744972
-0.181432,0.160918,0.639120,0.592306,0.352594,-0.724466
0.613601,-0.456839,0.362960,-0.442600,0.239997,0.864006
0.087035,-0.063658,-0.740307,0.345641,0.064962,-0.936115
0.012769,-0.276655,0.916830,0.353536,0.688535,0.633192
-0.577193,-0.713490,0.486323,0.791710,0.102426,0.602249
0.068507,0.087308,-0.716059,0.303564,0.875564,0.375815
-0.291802,0.328193,0.581382,0.719984,0.675192,0.160432
-0.107416,-0.342481,0.744519,-0.844255,0.298520,0.445106
-0.080072,-0.794097,0.629999,0.421298,0.814526,0.398818
0.098904,0.294147,0.697712,0.998579,0.053239,0.002406
0.198857,-0.369235,0.847986,0.758868,0.610116,-0.227767
-0.858228,0.154316,0.667650,0.964163,0.258163,0.061160
-0.616153,0.143920,0.556907,-0.515703,-0.658155,-0.548528
-0.142871,-0.585977,0.570763,0.768527,0.565414,0.299456
0.263609,0.087111,0.269119,0.358749,0.927702,-0.103284
-0.504882,0.749015,0.415529,-0.462816,-0.881585,-0.092785
-0.181080,-0.370960,0.711533,0.529308,0.440227,0.725281
0.074867,0.318142,0.624081,0.639197,0.750590,-0.167460
-0.082078,-0.781631,0.567230,0.912807,0.363602,0.185948
-0.308979,0.040304,0.755538,0.489205,0.857516,0.159202
-0.790673,-0.343565,0.501049,0.917079,0.034409,0.397218
-0.086983,-0.081001,0.897978,-0.386591,0.765674,0.514092
0.196754,0.032174,0.260433,-0.033676,-0.195363,0.980153
-0.211878,0.600365,-0.160239,0.328374,0.853928,-0.403705
-0.719414,-0.110908,0.615917,0.903483,0.423053,-0.068890
-0.067403,0.173236,0.158290,-0.158770,0.973530,0.164410
0.265962,-0.329178,0.318590,-0.653972,0.558540,0.510249
-0.763583,-0.000443,0.684709,-0.717022,-0.682385,0.142234
-0.898240,-0.497536,0.564984,0.976824,-0.111142,0.182929
-0.345085,-0.261086,0.769689,0.831986,0.425218,0.356355
-0.654262,-0.306317,-0.209849,0.829826,-0.401951,-0.387071
0.157295,-0.340264,0.003333,-0.220430,0.604087,0.765826
-0.151484,0.395201,0.294499,-0.027808,0.114720,0.993009
0.983975,-0.522911,0.491962,0.772145,-0.448916,-0.449741
0.089538,-0.669984,0.504878,0.689891,0.097019,0.717383
0.081527,0.129138,-0.338764,0.345694,0.915803,0.204451
0.333315,-0.310012,0.571843,0.623331,0.212482,0.752535
-0.571636,-0.181907,0.381812,-0.717234,-0.323972,-0.616942
-0.644249,-0.418604,0.438436,0.530258,0.637516,0.558928
-0.198056,0.029514,0.855192,0.318168,0.823126,-0.470353
-0.189843,0.024291,0.861389,0.756836,0.185009,-0.626873
-0.694626,-0.486352,0.425398,-0.415816,0.273789,0.867258
-0.253544,0.198365,0.454381,-0.129943,0.931546,-0.339612
-0.153138,-0.615195,0.525558,0.938287,-0.173091,0.299426
0.186940,-0.090165,0.212164,0.718800,0.640290,-0.270842
-0.252892,-0.110859,0.832093,-0.275896,-0.937694,-0.211216
-0.723620,-0.413381,0.470830,0.885106,-0.145300,0.442126
-0.648305,0.726597,0.479395,-0.124070,0.857712,0.498935
-0.549351,0.181366,-0.103092,-0.857202,0.247876,-0.451401
0.147230,-0.814545,0.555271,0.545219,0.780326,0.306311
-0.378135,-0.068930,-0.148507,-0.666240,-0.518593,0.535897
-0.046723,-0.061983,0.145147,0.933342,-0.324551,-0.153428
-0.360056,0.622734,-0.689043,-0.769656,-0.037215,-0.637374
0.167008,0.074694,-0.965099,0.019725,0.158825,0.987110
-0.317091,0.340757,0.581225,0.636843,0.754904,0.156688
-0.024386,0.101843,0.198917,-0.553711,0.832647,0.010168
0.445941,-0.438461,0.332916,0.450681,0.707260,0.544674
0.401621,-0.012071,0.231625,0.860853,0.360473,-0.359153
-0.008813,-0.001379,0.140395,0.941656,-0.306817,0.138370
-0.262356,0.314594,0.682550,-0.597705,0.751172,-0.280160
-0.147829,0.041338,-0.965378,0.052044,0.272670,0.960699
-0.187890,-0.167718,0.912704,-0.489357,0.226668,-0.842111
-0.486953,0.102237,0.728087,0.269120,0.833287,-0.482916
-0.789573,0.601202,0.770038,-0.622832,0.016310,0.782186
-0.399418,0.363963,0.800708,0.809640,0.561580,-0.170622
0.125196,-0.447280,0.571338,0.433641,0.864780,-0.253204
-0.474684,0.238718,0.857002,0.938319,0.338662,0.069747
-0.085632,-0.291831,0.761595,0.992622,-0.083395,0.088014
0.020330,0.295280,-0.980696,-0.066359,0.294847,0.953237
-0.052332,-0.416880,0.784903,0.260279,0.961075,-0.092677
-0.529520,-0.053163,-0.240885,-0.416246,-0.463040,-0.782517
0.295959,-0.488076,0.515827,-0.610533,-0.527238,0.590990
0.044770,0.152936,-0.779455,0.031959,0.954679,0.295915
0.109919,-0.224921,0.816148,-0.654795,0.746367,-0.119078
-0.424108,0.364752,0.797697,0.788552,0.614895,0.009527
0.350492,0.044196,0.711254,0.837743,0.031592,0.545150
-0.735840,0.650276,0.715780,0.926026,-0.044703,0.374803
-0.201913,0.079917,-0.020131,-0.679573,0.560484,0.473326
-0.613250,-0.735711,0.561990,0.946019,-0.186099,0.265360
0.080424,0.180873,-0.886107,-0.679222,-0.733896,-0.007296
-0.910160,0.221916,0.705893,0.368845,-0.813347,0.449912
0.730531,-0.496452,0.424789,0.003157,0.579911,0.814674
0.262857,0.135297,0.272200,0.386326,0.902413,0.190795
-0.386849,0.066122,0.923131,0.810755,-0.573333,-0.118176
-0.029897,0.125838,0.103928,-0.203161,-0.977577,0.055389
-0.532024,0.240786,-0.111865,0.925987,-0.350996,-0.139103
-0.541639,-0.165304,0.363430,-0.728788,-0.069861,-0.681166
-0.228954,-0.075187,-0.954446,0.175888,0.080523,0.981111
-0.127197,-0.112584,0.926821,-0.239869,0.969470,0.050890
0.118083,-0.052128,0.884383,0.730826,0.315227,-0.605413
-0.451299,-0.166240,0.794163,0.926072,-0.094086,0.365430
-0.449697,-0.037002,0.609685,0.835773,-0.410181,-0.365014
-0.171416,0.551439,0.733796,0.235304,-0.702185,0.671989
-0.603185,0.914072,0.570850,0.827616,-0.531814,0.179515
-0.368321,0.627217,-0.159943,0.019335,-0.920602,0.390023
-0.505133,0.187722,-0.157471,-0.575659,-0.130494,0.807210
-0.070209,-0.829671,0.620791,-0.132053,0.984631,0.114296
-0.475637,0.384805,0.586081,0.170058,-0.769241,0.615912
-0.265663,-0.016949,0.882399,-0.310758,0.513766,0.799671
0.315740,-0.104405,0.609616,-0.039700,0.222662,0.974087
-0.163955,0.307943,0.571634,-0.174878,0.982489,-0.064280
-0.716660,0.397369,0.754511,0.608167,0.706745,-0.361448
-0.078770,-0.339624,0.741629,0.961379,-0.094727,-0.258412
-0.282036,-0.357262,0.579188,-0.629109,-0.457901,-0.628131
0.508990,-0.180626,0.684744,-0.632260,-0.721013,-0.283529
-0.374581,-0.490589,0.768871,0.830581,-0.514012,-0.214307
-0.228554,-0.390324,0.756164,0.881194,-0.472755,-0.000672
-0.749661,0.496650,0.724170,0.986381,0.160258,-0.037015
-0.204615,0.448069,0.260311,-0.337911,0.824162,-0.454502
0.532824,-0.270792,0.344804,-0.767821,-0.639268,0.042278
-0.852870,-0.650670,0.585925,-0.576750,-0.652485,0.491552
-0.445840,0.108494,0.892895,-0.766057,-0.638060,-0.077700
-0.408083,0.272566,0.828264,-0.638588,0.732479,0.235968
0.336072,-0.689495,0.553391,-0.576643,0.662921,0.477513
0.012420,-0.215658,0.779507,0.996686,-0.048842,0.065056
-0.390053,0.291338,0.814181,0.604208,0.128845,-0.786341
0.201663,-0.223246,0.892495,-0.659343,0.578247,-0.480517
-0.320747,-0.346324,0.891921,0.119992,-0.992724,0.010058
-0.477037,0.051636,0.820744,-0.238436,0.967886,0.079655
-0.218437,-0.048581,0.892547,0.443215,0.170789,0.879995
-0.409535,-0.522861,0.622914,0.709132,0.575966,0.406688
-0.886723,0.261086,0.574245,0.508049,0.697601,0.505212
-0.894285,0.213293,0.669722,0.779031,0.538498,0.321140
0.333468,0.029907,-0.232112,-0.624853,0.576168,-0.526867
-0.305421,-0.386234,0.772422,-0.627369,-0.496259,-0.600112
-0.526867,-0.473000,0.709026,-0.345545,-0.802986,0.485605
-0.493915,0.716052,0.638685,0.014927,-0.595573,0.803162
-0.459863,0.036215,-0.176201,0.965070,-0.179148,0.191169
0.143672,-0.064347,-0.960660,-0.053227,0.226322,0.972597
-0.380538,0.289565,0.840152,-0.717833,0.682016,0.139892
-0.096400,0.421167,0.682829,0.490093,-0.822806,0.287749
-0.100557,-0.257883,0.244767,-0.307720,0.798019,0.518145
-0.016977,-0.220388,0.697364,-0.326591,0.794078,0.512619
-0.646101,0.690334,0.456348,-0.851254,0.455460,0.260621
-0.112624,0.317107,0.129795,0.526233,0.727914,-0.439567
-0.537183,-0.419590,-0.324282,-0.061830,0.730955,0.679619
-0.479993,0.579277,0.655326,0.945259,0.172532,-0.276981
-0.100456,-0.827749,0.641226,-0.062762,0.970048,0.234665
-0.757021,0.707184,0.756112,0.910152,-0.210679,0.356703
-0.262958,-0.133869,0.947570,0.729343,-0.660911,-0.176790
-0.093995,0.550996,0.602897,-0.383687,-0.777969,0.497542
-0.580799,0.275818,0.738322,-0.611468,0.129303,-0.780633
-0.029194,0.472162,-0.995039,0.006473,0.154447,0.987980
-0.302218,0.050946,0.738723,0.780956,0.593531,0.194496
0.238820,0.058238,0.778323,-0.177365,0.967657,0.179389
-0.735889,-0.246157,0.408131,-0.321441,-0.287750,-0.902150
-0.626922,0.934716,0.680496,-0.283648,0.957921,0.043955
0.589513,-0.267047,0.687007,0.744407,0.645439,0.171077
-0.080776,0.115441,0.393979,0.897421,0.371511,0.237938
0.083129,-0.183041,0.399636,-0.076881,0.148385,0.985937
-0.078770,-0.103419,0.212077,0.768720,0.217947,0.601306
