0.484050,-0.106140,0.012087,-0.615973,-0.786757,-0.039884
0.478596,-0.068327,0.030625,0.974480,-0.201191,-0.099555
0.476126,-0.034788,0.064108,-0.270182,-0.960902,-0.060567
0.477932,-0.008184,0.116600,0.986414,0.001045,0.164277
0.477932,0.019712,0.158263,-0.131470,-0.962723,0.236391
0.482281,0.040351,0.220168,-0.510268,0.859968,0.009080
0.530858,0.170798,0.757178,-0.479056,0.402746,0.779936
0.364526,0.713871,0.411678,-0.537411,0.834300,-0.123014
0.359698,0.747812,0.429272,-0.505611,0.862341,0.026931
0.483756,-0.008184,0.099137,0.911381,-0.351677,0.213792
0.486852,0.015519,0.158814,-0.131470,-0.962723,0.236391
0.488399,0.041399,0.209549,0.184792,-0.979829,0.076075
0.475168,0.397993,0.669341,-0.810294,0.581809,-0.070148
0.363678,0.725884,0.373555,-0.886285,0.431920,0.167166
0.487552,-0.445480,-0.552505,-0.263097,0.917885,0.297099
0.496360,-0.357681,-0.352736,0.327759,-0.935201,-0.134061
0.515894,-0.321240,-0.155143,0.019895,0.940122,0.340258
0.491569,-0.106785,0.002701,0.837961,0.055193,0.542931
0.488363,-0.072601,0.033115,0.879262,-0.457026,0.134263
0.484861,-0.038981,0.059650,0.069472,0.872259,0.484085
0.515820,-0.397106,-0.380923,0.985656,-0.158527,-0.057891
0.506938,-0.352522,-0.376124,0.828115,-0.319286,0.460741
0.501741,-0.314629,-0.353706,-0.622996,0.732249,-0.275114
0.528278,-0.321482,-0.166365,-0.164035,-0.925646,-0.340986
0.499124,-0.099609,-0.026718,0.759512,-0.564940,0.322466
0.497724,-0.069134,0.011379,0.909055,-0.349160,0.227388
0.495807,-0.037046,0.048218,0.006456,-0.984275,0.176525
0.491938,0.079695,0.207924,-0.727632,0.279548,0.626421
0.478559,0.430886,0.672959,-0.810294,0.581809,-0.070148
0.372671,0.751764,0.396261,-0.748085,0.657082,0.092799
0.502995,-0.145322,-0.086631,0.718869,-0.610701,0.332073
0.503953,-0.117427,-0.032906,0.734442,-0.623019,0.269150
0.498019,-0.078970,-0.015496,-0.745965,0.633448,-0.205620
0.499124,0.055992,0.216209,-0.085497,0.971235,0.222245
0.486041,0.105172,0.197200,0.492708,0.797596,-0.347965
0.482245,0.411133,0.672881,-0.810294,0.581809,-0.070148
0.546522,-0.137502,-0.139542,-0.242755,0.961172,-0.131216
0.560158,-0.444351,-0.603294,-0.416778,0.885570,0.205090
0.558721,-0.408715,-0.562836,0.757902,-0.648607,0.069952
0.562407,-0.344218,-0.450432,-0.256922,0.965555,0.041173
0.561448,-0.309309,-0.407877,-0.077949,-0.834471,-0.545511
0.564950,-0.279639,-0.344477,0.762458,0.527708,-0.374409
0.574459,-0.258033,-0.253101,0.879582,0.160061,0.448014
0.596314,-0.253840,-0.106479,0.518903,-0.701664,-0.488269
0.621671,-0.254727,0.054957,-0.138898,0.814675,0.563038
0.548991,0.256339,0.295236,0.149474,-0.921932,0.357349
0.588132,-0.398154,-0.558405,-0.244269,0.966457,-0.079328
0.594029,-0.271739,-0.335667,-0.065138,0.411331,0.909156
0.447747,0.978393,0.418626,0.797242,-0.534836,-0.279921
0.607850,-0.274398,-0.328719,-0.151091,-0.934140,0.323347
0.432378,0.880840,0.412858,0.845970,-0.520374,-0.116387
0.570662,-0.325916,-0.448622,-0.171110,0.983190,0.063709
0.574385,-0.266659,-0.332232,0.255331,0.961468,0.101910
0.600073,-0.207885,-0.061197,0.933365,-0.325545,0.151162
0.554814,-0.023905,-0.100553,-0.585650,0.599679,-0.545343
0.553635,-0.440320,-0.584179,-0.476611,0.847543,-0.233478
0.553156,-0.405330,-0.534256,0.879563,-0.355139,0.316614
0.554851,-0.375015,-0.475786,0.959010,-0.276841,0.060483
0.582088,-0.311646,-0.186188,0.995524,0.088413,-0.033379
0.552124,-0.210142,-0.243137,0.903035,0.362684,0.230192
0.618354,0.008183,0.557513,-0.313027,0.072912,0.946941
0.553193,-0.315919,-0.180917,0.217249,0.944967,-0.244624
0.527577,-0.220866,-0.216838,0.974311,0.225101,0.006908
0.523966,-0.154513,-0.141797,-0.113729,0.993180,-0.025687
0.525034,-0.125166,-0.090301,-0.243482,0.908945,-0.338430
0.519690,-0.086951,-0.070505,-0.636623,0.758742,-0.137920
0.515378,-0.049946,-0.044469,-0.729025,0.415170,-0.544203
0.514788,0.007941,0.039907,-0.277277,0.856137,-0.436058
0.659412,0.307615,0.282965,-0.521620,0.774814,-0.357176
0.682558,-0.133229,0.005952,0.647343,0.053593,-0.760312
0.537123,0.764501,0.482157,0.292363,0.248503,0.923456
0.454455,0.958237,0.404075,0.848561,-0.458263,-0.264461
0.592997,-0.240457,-0.326542,-0.284894,-0.895190,0.342739
0.596388,-0.210546,-0.266918,0.421780,-0.875497,0.235809
0.625873,-0.150644,-0.008102,0.459725,-0.873356,0.160940
0.576854,0.005523,-0.101366,-0.373045,0.122526,0.919687
0.432341,0.926794,0.400325,0.793089,-0.558790,-0.242413
0.557873,-0.444271,-0.629251,0.785943,-0.607738,-0.113790
0.559347,-0.409039,-0.574740,0.059783,-0.593670,0.802485
0.561559,-0.272787,-0.382863,-0.009515,-0.810887,0.585126
0.535244,0.227718,0.277747,0.303874,-0.899201,0.314800
0.538450,-0.483372,-0.630719,-0.288298,0.897187,-0.334575
0.575453,-0.316726,-0.188600,-0.350519,0.306969,-0.884820
0.547590,-0.183940,-0.184745,0.279234,-0.896305,0.344480
0.445351,0.789979,0.469073,-0.371958,0.445630,0.814285
0.418999,0.860846,0.400115,0.824177,-0.563841,-0.053056
0.536128,-0.463619,-0.638297,0.775918,-0.424124,0.466979
0.538008,-0.430483,-0.582684,-0.525431,-0.593277,0.609873
0.598562,-0.393559,-0.158840,0.789766,0.033095,0.612514
0.546890,-0.334946,-0.400850,0.385815,0.918871,-0.082605
0.586068,-0.346072,-0.172868,0.865336,0.491683,-0.097167
0.571915,-0.296006,-0.194080,0.410065,0.229885,-0.882609
0.546153,-0.201516,-0.226854,0.915202,0.147517,0.375024
0.597346,-0.231507,0.049713,-0.054611,0.815430,0.576274
0.909223,0.245052,-0.273421,-0.516511,0.566871,0.641773
0.973647,0.246342,0.141745,0.372338,0.121423,-0.920120
0.946411,0.373402,0.144052,-0.255095,-0.152446,0.954823
0.974827,0.107833,0.139726,-0.347270,-0.139521,0.927328
0.946705,0.233281,0.134718,0.403183,0.148476,-0.902994
0.858435,0.356391,-0.258423,-0.466533,0.533240,0.705693
0.930416,0.314306,0.142531,-0.180227,-0.268485,0.946274
0.929641,0.171605,0.133485,0.326967,0.004621,-0.945025
0.966571,-0.467248,-0.403970,0.100924,-0.334844,0.936853
0.853054,0.160559,-0.256195,-0.128675,0.017677,0.991529
0.928167,0.091788,0.127900,-0.303029,-0.026714,0.952607
0.827845,0.258274,-0.281287,-0.607650,0.508873,0.609762
0.908744,0.178457,0.124492,-0.372616,-0.309712,0.874777
0.888768,0.263353,0.115525,0.375666,0.423839,-0.824157
0.863263,0.387189,0.124335,-0.418296,-0.182469,0.889794
0.813876,0.459749,-0.090564,-0.076938,0.369313,0.926115
0.853939,0.430241,0.123889,-0.511301,-0.262652,0.818282
0.937455,-0.459185,-0.408952,0.326531,-0.425138,0.844177
0.910697,-0.327448,-0.397074,-0.107656,0.332264,0.937022
0.823459,0.172007,-0.260442,-0.227905,0.318127,0.920247
0.810707,0.220865,-0.273421,0.725993,-0.425179,-0.540515
0.861126,0.270448,0.117518,-0.452800,-0.251603,0.855376
0.795190,0.425404,-0.088754,-0.076938,0.369313,0.926115
0.823864,0.441206,0.116102,-0.435243,-0.212882,0.874783
0.876532,-0.346233,-0.446262,0.506244,0.815650,0.280057
0.777241,0.202322,-0.319411,-0.683845,0.659428,0.312266
0.844024,0.203209,0.105613,-0.563377,-0.107559,0.819169
0.798286,0.413795,0.106190,-0.292664,-0.156767,0.943277
0.787229,0.459346,0.098482,-0.347703,-0.053642,0.936069
0.872219,-0.374935,-0.384095,0.438679,0.620127,0.650387
0.806431,-0.064458,-0.372218,0.035089,-0.315806,0.948175
0.826960,0.187809,0.107003,-0.535749,-0.226158,0.813527
0.817414,0.231024,0.106243,-0.535749,-0.226158,0.813527
0.755164,0.378804,-0.085057,-0.099763,0.345687,0.933032
0.775877,0.408070,0.087181,0.314438,0.118573,-0.941843
0.721109,0.517958,-0.108891,-0.103939,0.387912,0.915817
0.789072,0.472245,0.259367,-0.577104,0.665129,-0.473871
0.831788,-0.290443,-0.370461,0.472193,-0.881490,-0.003159
0.791873,-0.013585,-0.241118,0.010454,-0.013257,0.999857
0.809232,0.147822,0.091586,-0.323510,-0.415645,0.850047
0.779673,-0.238925,-0.449147,0.069039,0.985680,0.153847
0.728923,0.086790,-0.323003,-0.566237,0.819439,-0.088856
0.746724,0.421211,0.249561,-0.488011,0.751465,-0.444012
0.697263,0.343169,0.261412,-0.615102,0.777311,-0.132052
0.713369,-0.236990,-0.421511,-0.378148,-0.915014,0.140550
0.632286,0.529971,0.251055,-0.877600,0.477073,0.047106
0.621966,0.584714,0.422559,-0.715182,0.590612,-0.373754
0.415056,0.149514,-0.988385,0.371211,0.167106,-0.913388
0.417562,0.100173,-0.984137,0.153086,-0.168653,0.973715
0.425228,-0.007942,-0.988122,0.088959,-0.085515,0.992358
0.427550,-0.058492,-0.982380,-0.035268,0.155635,0.987185
0.432894,-0.118394,-0.991190,0.000928,0.284490,0.958679
0.434958,-0.169105,-0.984583,0.169146,-0.060712,-0.983719
0.437095,-0.217479,-0.978762,-0.201052,0.132790,0.970538
0.438533,-0.263596,-0.969690,-0.099645,0.216238,0.971243
0.437243,-0.303100,-0.947717,0.494702,0.827840,0.264482
0.444283,-0.366872,-0.964525,-0.254172,0.449803,0.856197
0.447636,-0.420326,-0.963659,-0.594752,0.534524,0.600462
0.454233,-0.528360,-0.962375,-0.482330,0.227623,0.845899
0.456593,-0.577458,-0.957472,0.927039,-0.003054,-0.374952
0.539777,-0.035756,-0.967855,0.127671,0.651107,0.748171
0.542799,-0.088564,-0.966229,0.022229,-0.015358,0.999635
0.546927,-0.144274,-0.968772,0.035734,0.085457,0.995701
0.550354,-0.196114,-0.968720,0.228022,0.102223,-0.968275
0.553819,-0.248439,-0.969139,0.019678,-0.013442,0.999716
0.556141,-0.299231,-0.964184,0.201952,-0.038805,-0.978626
0.558758,-0.348894,-0.960775,0.173729,0.369190,0.912972
0.561780,-0.402024,-0.959045,-0.403002,0.758283,0.512442
0.565982,-0.502237,-0.947089,-0.526070,0.741651,-0.416178
0.657753,-0.204661,-0.958520,0.582529,0.359497,0.728987
0.665972,-0.360343,-0.949553,0.101930,0.152142,0.983089
0.577112,-0.133794,-0.974619,0.090964,-0.071350,-0.993295
0.580134,-0.183214,-0.971211,0.107812,0.175419,0.978573
0.583857,-0.237152,-0.971787,-0.197986,0.347691,0.916467
0.589201,-0.333172,-0.959464,-0.064370,0.279085,0.958106
0.591265,-0.379691,-0.949789,0.118475,0.751466,0.649048
0.587763,-0.399685,-0.904979,0.152486,-0.827692,-0.540068
0.572800,-0.400170,-0.768898,0.921082,0.185248,-0.342478
0.444025,0.104849,-0.983875,0.006918,0.004235,0.999967
0.447673,0.053492,-0.984452,0.069782,0.114915,-0.990921
0.451027,0.001571,-0.982800,-0.062140,0.149215,0.986850
0.457698,-0.102190,-0.978526,0.093078,0.105069,-0.990099
0.464996,-0.205870,-0.980519,0.508198,-0.076699,-0.857818
0.342080,-0.377998,-0.975537,0.854024,-0.245412,-0.458711
0.345877,-0.432500,-0.976743,-0.728508,0.564617,0.387923
0.347867,-0.475471,-0.965180,0.560915,0.737948,-0.375244
0.352437,-0.533841,-0.971709,0.335411,-0.086510,-0.938092
0.383728,-0.032855,-0.988201,0.156766,-0.066774,0.985376
0.387745,-0.087999,-0.990220,-0.040301,0.244148,0.968900
0.392205,-0.135325,-0.982171,0.354411,-0.227619,-0.906963
0.396222,-0.187085,-0.982642,-0.033435,-0.279139,0.959669
0.400276,-0.234813,-0.978002,-0.697782,0.021240,-0.715995
0.405031,-0.273350,-0.959254,-0.133127,-0.147507,0.980061
0.408532,-0.337526,-0.974882,0.023650,0.260504,0.965183
0.413287,-0.375176,-0.955190,0.956989,-0.002739,0.290111
0.417193,-0.435402,-0.963004,0.586055,-0.076862,-0.806618
0.421431,-0.488289,-0.962060,-0.264235,-0.046108,0.963356
0.425338,-0.541582,-0.964000,-0.172086,-0.155042,0.972804
0.541693,-0.038336,-0.970267,-0.128463,0.789695,0.599899
0.545821,-0.095418,-0.974855,0.090877,-0.072847,0.993194
0.549986,-0.151370,-0.977923,0.138608,-0.413022,-0.900112
0.558131,-0.251905,-0.971892,0.111122,0.375954,0.919952
0.562222,-0.297537,-0.965206,-0.188406,0.206251,0.960190
0.566276,-0.354618,-0.969402,-0.107188,0.219362,0.969738
0.575085,-0.416778,-0.917250,0.602095,-0.533293,-0.594205
0.579877,-0.413311,-0.848187,0.551845,0.809585,0.200099
0.584705,-0.411780,-0.782821,0.817567,0.361048,-0.448585
-0.867465,-0.050510,0.286872,0.382179,-0.680106,0.625616
-0.849774,-0.254243,0.199087,-0.360838,-0.313715,0.878282
-0.502184,-0.374935,0.886258,0.717524,-0.684845,-0.127068
-0.557873,-0.162657,0.420540,0.649069,0.747886,0.139196
-0.615443,0.142500,0.860694,0.321896,0.074776,-0.943817
-0.598452,-0.111461,0.855187,0.441870,0.494739,0.748321
-0.527319,-0.617931,0.410000,-0.560795,0.266161,-0.784007
-0.515526,-0.716936,0.348541,-0.270351,-0.956205,0.112169
-0.583636,-0.452091,0.942709,-0.222645,-0.356089,-0.907540
-0.638551,0.058733,0.183408,0.451855,0.439181,-0.776496
-0.608108,-0.614464,0.362830,-0.048531,0.992619,0.111137
-0.671759,-0.226590,0.869635,-0.163608,0.447847,0.879014
-0.155367,-0.219414,0.102546,0.216518,0.436480,0.873273
-0.283184,0.203692,0.144419,0.390696,-0.751592,0.531475
-0.314438,-0.155159,0.608983,-0.551301,-0.113513,0.826548
-0.343260,-0.103238,0.824904,-0.072096,0.858479,0.507756
-0.338948,-0.447415,0.173497,0.347154,-0.928126,-0.134410
-0.400608,-0.163866,0.580534,0.018560,-0.978385,0.205956
-0.341122,-0.467732,0.206927,-0.069989,0.982028,0.175277
-0.523671,0.118152,0.774902,-0.522321,-0.763779,-0.379240
-0.445241,-0.391221,0.303049,0.887750,0.337230,0.313330
-0.432783,-0.488049,0.239099,-0.476224,-0.878503,-0.037976
-0.515047,-0.090660,0.826634,-0.118399,0.987485,0.104191
0.383507,-0.182166,-0.092609,0.870788,-0.472739,0.135076
0.134064,0.491352,0.475524,-0.676063,-0.736843,-0.000323
0.169888,0.342524,0.327722,-0.651498,-0.706200,0.277186
0.232102,-0.005040,0.102651,0.311754,-0.932980,0.179881
0.282558,-0.321402,-0.066520,0.020741,0.987843,0.154065
0.048153,-0.002217,-0.047353,0.402180,-0.110311,0.908891
-0.063042,-0.002782,0.036891,-0.080242,-0.994629,0.065371
0.609214,0.063651,-0.091036,0.488482,-0.126928,-0.863293
0.537934,0.189261,0.211227,0.773176,-0.604548,0.191627
0.668589,-0.062040,-0.349328,-0.621929,0.776045,-0.104684
0.608587,0.026001,-0.091639,-0.222808,-0.033201,0.974297
0.611241,0.051477,-0.089043,0.389111,-0.006273,-0.921169
0.534691,0.188777,0.227064,-0.643972,0.739074,-0.197661
0.593771,0.064779,-0.085031,-0.534827,0.723520,-0.436439
0.606081,-0.205548,-0.059965,0.889738,-0.454542,0.041935
0.390952,0.215946,0.614699,0.867281,-0.165253,-0.469591
0.547369,-0.271577,-0.387137,-0.385385,0.922072,0.035525
0.557800,0.229492,0.255539,0.361745,-0.932211,0.011113
0.710790,-0.313098,-0.339993,-0.180427,-0.530733,-0.828112
0.472367,0.113557,0.728860,-0.541705,0.414165,0.731453
0.668110,-0.069779,-0.255067,-0.596466,0.802625,0.004554
0.550797,0.242875,0.235140,-0.735905,0.404084,0.543287
0.550244,0.207320,0.249561,0.315109,-0.948972,-0.012618
0.638441,-0.098481,-0.094942,0.837716,-0.498794,-0.222340
0.626094,-0.097836,-0.032408,-0.660979,0.738957,-0.130578
0.679056,-0.075825,-0.364247,0.376751,0.722983,-0.579098
0.610836,0.086790,-0.073993,-0.522728,0.720083,-0.456328
0.660075,-0.098400,-0.261255,-0.593089,0.803071,-0.057643
0.669584,-0.067118,-0.353051,-0.214538,-0.792511,0.570877
0.540956,0.184503,0.200084,-0.801380,0.526331,-0.284193
0.654436,-0.120813,-0.272320,-0.593089,0.803071,-0.057643
0.591855,0.360341,0.227877,0.481827,0.198114,-0.853577
0.582641,0.279639,0.303390,0.259743,-0.888603,0.378045
0.652631,0.180473,-0.088518,-0.618583,0.454790,0.640719
0.584557,0.313257,0.220509,-0.065740,0.078603,0.994736
0.574164,0.337445,0.230237,0.894975,-0.368237,-0.251834
0.570552,0.239811,0.282493,0.278124,-0.931225,0.235513
0.653110,-0.090821,-0.032565,0.721301,-0.669684,-0.176770
0.564655,0.246180,0.275990,-0.459661,0.871137,-0.172722
0.645517,-0.078890,-0.030179,-0.849524,0.260094,0.458978
0.563660,0.221913,0.253205,-0.095195,-0.980896,0.169651
0.474615,0.124118,0.742809,-0.499908,0.244293,0.830911
0.589827,0.464264,0.393456,-0.695623,0.664575,-0.272853
0.601253,0.392752,0.355751,-0.458200,0.810522,-0.364838
0.598636,0.368324,0.341619,-0.533511,0.738069,-0.413063
0.650050,0.258354,0.087889,-0.383979,0.305887,-0.871202
0.649535,0.240779,0.088650,-0.001390,-0.572452,0.819937
0.776725,-0.322369,-0.353260,0.058095,0.907734,0.415506
0.715433,0.371709,0.258371,-0.504852,0.826732,-0.248271
0.809048,-0.329867,-0.354545,-0.108356,0.893601,0.435587
0.714954,0.027129,0.035213,-0.516130,-0.171374,0.839190
0.699733,0.019068,0.018878,0.541212,0.103599,-0.834480
0.650751,0.541258,0.367262,0.741861,-0.589943,0.318762
0.175122,0.525859,0.390493,-0.170189,0.979520,-0.107590
0.154888,0.617849,0.573140,0.396170,-0.437677,-0.807148
0.265825,-0.170557,-0.166785,0.246041,-0.152948,0.957116
0.234792,-0.011327,0.094732,0.083265,-0.903811,0.419752
0.355901,0.997098,0.341356,-0.747278,0.297139,0.594377
0.365411,0.714032,0.431763,-0.505611,0.862341,0.026931
0.520612,-0.190551,-0.422009,0.978482,0.196086,-0.064209
0.527798,-0.290926,-0.423976,-0.290042,-0.758887,0.583066
0.524776,-0.310598,-0.384489,-0.567718,0.818825,0.084982
0.531890,-0.378241,-0.406854,-0.178901,0.914937,0.361780
0.421579,0.122264,0.288445,0.396280,-0.825441,0.402007
0.430941,0.047366,0.249115,0.892284,-0.127553,0.433081
0.483866,-0.241505,-0.053646,0.997262,0.051855,-0.052715
-0.304266,0.009795,0.806340,0.046660,-0.596356,0.801363
-0.210283,0.017616,0.685361,0.924491,-0.081883,-0.372307
0.033484,-0.286976,-0.063347,-0.297063,0.954712,0.016680
-0.013176,0.076308,0.441359,-0.257686,-0.937137,-0.235311
-0.571694,-0.082518,0.939720,0.261607,-0.924455,-0.277391
-0.522233,0.170153,0.218490,0.675769,-0.020394,0.736832
-0.523487,0.382754,0.604604,0.264020,0.814569,-0.516499
-0.487773,-0.331559,0.208999,-0.523823,-0.677580,-0.516232
-0.467133,-0.284638,0.891869,0.804923,-0.578978,0.129936
-0.409122,0.108074,0.156270,0.249951,-0.896643,0.365453
-0.405510,0.052847,0.141745,0.508255,-0.250911,0.823845
-0.805620,-0.548032,0.469965,-0.675743,0.085543,0.732157
-0.796996,-0.699682,0.448753,0.746087,-0.446572,0.493890
-0.762425,-0.681703,0.426991,-0.130377,0.989176,0.067333
-0.761945,-0.868425,0.275466,-0.546422,0.196461,0.814141
-0.672827,-0.715001,0.307900,-0.220301,-0.426708,0.877147
-0.813065,-0.471682,0.410420,-0.587279,0.280380,-0.759269
-0.793753,-0.689766,0.459765,0.746667,-0.478835,0.461742
-0.815977,-0.469021,0.413540,-0.509783,0.248501,-0.823631
-0.836321,-0.528924,0.404730,0.594576,-0.036498,0.803211
-0.851322,-0.521104,0.414903,0.938211,0.308842,-0.156132
-0.848816,-0.581490,0.397152,0.983308,-0.024963,0.180228
-0.842292,-0.567784,0.414431,0.931344,-0.051058,0.360544
-0.838017,-0.571654,0.404232,0.894629,-0.387398,0.222624
-0.851322,-0.488693,0.426833,0.997851,0.000222,0.065517
-0.845351,-0.580764,0.422035,0.981168,-0.162847,0.103880
-0.850216,-0.512799,0.407431,0.761393,0.561714,0.323664
-0.837943,-0.575039,0.414929,0.928079,-0.234830,0.289005
-0.845314,-0.576571,0.408401,0.963756,0.002603,0.266773
-0.836027,-0.569397,0.411259,0.954746,-0.235978,0.181035
-0.829208,-0.468054,0.420383,-0.493357,0.129804,-0.860087
-0.831420,-0.684445,0.226409,-0.726141,-0.099250,0.680344
-0.837022,-0.530536,0.414510,-0.695214,-0.356479,-0.624180
-0.833520,-0.565849,0.424893,0.884420,-0.164392,0.436781
-0.799834,-0.702019,0.462912,-0.738715,0.473308,-0.479875
-0.822021,-0.674851,0.240279,-0.659781,-0.068990,0.748284
-0.808348,-0.717338,0.451454,-0.732426,0.430446,-0.527512
-0.840966,-0.510541,0.411547,0.821202,0.288271,0.492471
-0.837906,-0.551337,0.413855,0.935348,0.116345,0.334047
-0.892122,-0.063007,0.274942,-0.148352,0.983511,-0.103429
-0.849405,-0.462249,0.428669,0.997868,-0.001158,0.065259
-0.840339,-0.602371,0.420174,0.938731,-0.205138,0.276951
-0.855118,-0.464748,0.430032,0.965185,-0.135857,0.223518
-0.853718,-0.535373,0.415401,0.368700,0.328045,0.869739
-0.833668,-0.747007,0.473714,-0.553111,0.814619,-0.174537
-0.847157,-0.599065,0.413881,0.976082,-0.197795,0.090223
-0.849221,-0.548434,0.422035,0.507049,0.034917,-0.861209
-0.846236,-0.597212,0.417315,0.938731,-0.205138,0.276951
-0.785902,-0.504898,0.379716,-0.497830,-0.863930,0.076099
-0.775030,-0.557545,0.469283,0.967217,-0.197765,0.159311
-0.765890,-0.908494,0.279242,0.558645,-0.222199,-0.799089
-0.832562,-0.221350,0.220404,0.386439,0.322316,-0.864163
-0.781885,-0.707019,0.427174,-0.506566,0.593748,-0.625184
-0.789735,-0.427582,0.258580,0.174981,-0.882104,-0.437349
-0.755091,-0.908736,0.274837,0.558645,-0.222199,-0.799089
-0.786013,-0.602451,0.260285,-0.411656,0.005003,0.911325
-0.764084,-0.918733,0.259891,-0.546422,0.196461,0.814141
-0.764157,-0.499174,0.394268,-0.671574,-0.580127,-0.460913
-0.748272,-0.680494,0.437793,0.271721,-0.809379,0.520646
-0.748088,-0.526908,0.371037,0.612602,0.613303,0.498576
-0.739464,-0.726368,0.299457,0.759643,-0.221196,-0.611568
-0.738910,-0.682106,0.422035,-0.381040,0.895017,-0.231846
-0.764194,-0.523764,0.376937,0.637844,-0.371958,0.674391
-0.756086,-0.725642,0.299116,0.718346,-0.154829,-0.678238
-0.750557,-0.548193,0.363119,0.371323,0.913271,0.167495
-0.755902,-0.321320,0.388867,0.247396,-0.217975,0.944077
-0.745324,-0.630347,0.237735,-0.506439,0.156867,0.847887
-0.728001,-0.692265,0.419492,-0.101841,0.968246,0.228316
-0.802414,-0.496110,0.409555,-0.137484,0.248493,0.958827
-0.786344,-0.675253,0.454915,0.751448,-0.486972,0.445179
-0.783175,-0.928327,0.276069,-0.546422,0.196461,0.814141
-0.794932,-0.510462,0.381709,0.330078,0.049931,0.942632
-0.781111,-0.613416,0.464983,-0.727551,0.328325,-0.602388
-0.824749,-0.397589,0.226959,-0.257780,0.836547,0.483465
-0.823643,-0.505302,0.403760,0.179130,-0.136477,0.974313
-0.793863,-0.651067,0.452765,0.751448,-0.486972,0.445179
-0.790951,-0.699440,0.446603,0.746087,-0.446572,0.493890
-0.787598,-0.948241,0.272556,-0.546422,0.196461,0.814141
-0.831604,-0.566091,0.413592,0.907515,-0.372878,0.193334
-0.830867,-0.556819,0.405831,0.893715,-0.382541,0.234384
-0.842403,-0.477406,0.417761,-0.483059,0.457865,-0.746334
-0.836690,-0.579313,0.401243,0.918015,-0.391061,-0.065727
-0.817304,-1.000000,0.283988,-0.559927,0.193893,0.805536
-0.839860,-0.752973,0.459031,-0.553111,0.814619,-0.174537
-0.942762,-0.148386,0.250242,-0.168865,0.689597,-0.704230
-0.875868,-0.795381,0.478382,-0.553111,0.814619,-0.174537
-0.861015,-0.763858,0.467159,-0.553111,0.814619,-0.174537
-0.802414,-0.082920,0.240279,0.450793,0.826015,-0.338356
-0.796369,-0.479502,0.400980,-0.425683,-0.885344,-0.186976
-0.779121,-0.601967,0.461575,-0.727551,0.328325,-0.602388
-0.749820,-0.238764,0.899552,0.534859,0.704923,0.465843
-0.586805,0.083485,0.837751,0.256993,0.666836,-0.699489
-0.617728,0.379611,0.607436,-0.265652,0.000321,0.964069
-0.624767,0.383077,0.597394,0.472798,0.484415,-0.736073
-0.618244,0.299311,0.597787,-0.090707,-0.510859,0.854866
-0.701539,-0.650906,0.402055,-0.662741,0.100476,-0.742077
-0.740753,-0.066957,0.211594,-0.139241,0.703926,0.696491
-0.710089,-0.055831,0.213875,-0.197513,0.885937,0.419648
-0.679130,-0.125812,0.193712,-0.477020,0.433693,-0.764436
-0.631401,0.301648,0.606413,-0.516899,-0.177205,0.837505
-0.693098,-0.224090,0.927476,0.208447,-0.938559,0.275056
0.858804,0.463700,0.129919,-0.438867,-0.193288,0.877516
0.334599,-0.143951,-0.047143,0.364603,-0.858478,0.360665
0.455303,-0.280768,-0.416608,-0.282811,-0.949711,0.134412
0.458988,-0.337768,-0.424290,-0.154811,-0.314107,-0.936680
0.466028,-0.272464,-0.291722,0.182752,-0.923978,0.335956
0.482576,-0.009070,0.111329,0.967018,-0.093718,0.236839
0.488215,0.023823,0.200294,0.260340,0.915820,-0.305771
0.490685,-0.061153,0.155694,-0.036196,-0.960028,0.277555
0.573169,0.132825,-0.370068,0.479182,0.548726,-0.685043
0.607850,-0.258033,-0.311702,0.001587,-0.964938,0.262475
0.745250,-0.187166,-0.367367,0.152367,-0.239571,-0.958848
0.744771,0.139516,0.065051,-0.088508,-0.676093,0.731481
-0.360029,-0.026001,0.602979,0.516257,0.017715,-0.856251
-0.336405,0.073084,0.752668,0.408196,0.899066,0.158291
0.026702,0.018260,-0.043866,-0.126363,-0.931752,0.340398
0.204975,0.292618,0.364561,0.468387,0.868180,0.163943
0.198379,0.000362,0.135006,0.510548,-0.824401,0.244345
-0.822685,-0.085259,0.256325,0.105923,-0.780708,0.615854
-0.861162,-0.783690,0.449461,-0.553111,0.814619,-0.174537
0.625283,-0.281494,-0.961274,-0.029273,0.420543,0.906800
0.612494,-0.231427,-0.966596,0.126901,0.202815,0.970959
0.599668,-0.178861,-0.970870,-0.006894,-0.285046,0.958489
0.586842,-0.114766,-0.968012,-0.053189,0.112114,0.992271
0.663466,-0.438869,-0.948924,-0.428867,0.387830,0.815880
0.650567,-0.385174,-0.952778,-0.104361,-0.002757,0.994536
0.638035,-0.332689,-0.956239,0.302504,0.160025,0.939619
0.572431,-0.429919,-0.825375,0.442687,0.764307,0.468895
0.561891,-0.417343,-0.846981,0.860185,0.506287,0.061277
0.555662,-0.512476,-0.920737,-0.105628,0.797781,0.593623
0.544605,-0.494015,-0.939852,-0.645919,-0.189975,-0.739390
0.532332,-0.455961,-0.950995,-0.170433,0.714757,0.678288
0.520133,-0.419117,-0.962689,0.547753,-0.494965,-0.674519
0.507123,-0.364776,-0.966177,0.001534,-0.128228,0.991744
0.495034,-0.320757,-0.973308,0.003140,0.250140,0.968205
0.482428,-0.263918,-0.974357,-0.058367,0.180720,0.981801
0.469418,-0.207322,-0.976376,-0.587292,0.359850,0.724980
0.456776,-0.150079,-0.976848,0.423097,-0.194377,-0.884990
0.444283,-0.104205,-0.984137,-0.367820,0.169258,0.914363
0.431235,-0.046238,-0.985501,-0.129100,0.346413,0.929156
0.418484,0.007538,-0.988726,-0.134943,-0.144272,0.980294
0.406210,0.058007,-0.992475,0.280733,0.426637,0.859750
0.393789,0.115249,-0.992763,0.368662,-0.160645,-0.915577
0.519875,-0.527553,-0.675031,-0.526893,0.797586,-0.293666
0.414613,-0.546097,-0.963528,0.269737,0.006332,0.962913
0.401308,-0.484339,-0.963397,-0.329242,0.251797,0.910054
0.387487,-0.396541,-0.949448,-0.360032,-0.127320,0.924211
0.375767,-0.365098,-0.962506,0.065591,-0.276598,0.958745
0.362315,-0.296650,-0.958887,0.526670,-0.588851,-0.613085
0.450364,-0.578184,-0.956187,0.939778,0.265235,-0.215564
0.438901,-0.527715,-0.962191,0.083980,-0.489437,0.867985
0.426186,-0.463217,-0.960959,0.065951,0.177709,0.981871
0.413471,-0.395494,-0.956895,0.886763,0.357558,-0.292922
0.403372,-0.355828,-0.966413,-0.102721,-0.329050,-0.938709
0.390878,-0.293103,-0.965862,-0.557470,0.384264,0.735913
0.380743,-0.254243,-0.976193,0.294482,0.035243,0.955007
0.368690,-0.197244,-0.978264,0.225847,0.443682,0.867259
0.611683,-0.467570,-0.716380,0.715777,0.547115,0.433969
0.600811,-0.418713,-0.721361,-0.335333,0.938075,0.086989
0.583230,-0.485952,-0.872519,0.005306,-0.983444,0.181136
0.569667,-0.412828,-0.866961,0.815480,0.560639,-0.143793
0.566129,-0.441287,-0.911796,0.936889,-0.339604,0.083111
0.560195,-0.442980,-0.942237,0.742560,-0.479965,-0.467159
0.550613,-0.409280,-0.955190,0.672220,-0.737655,-0.063128
0.540514,-0.371387,-0.967330,-0.310515,-0.105295,0.944719
0.528978,-0.317129,-0.970005,0.009982,0.569256,0.822100
0.517626,-0.266256,-0.975485,-0.363592,-0.135887,0.921594
0.505132,-0.203853,-0.975091,0.030852,-0.447004,0.894000
0.493412,-0.148950,-0.978500,-0.680979,-0.512998,0.522589
0.481618,-0.090903,-0.978972,-0.106591,0.022544,0.994047
0.470193,-0.037449,-0.981594,-0.075111,0.337162,0.938445
0.458214,0.019953,-0.983587,-0.305367,0.182498,0.934583
0.446826,0.074616,-0.985631,-0.404835,-0.126314,0.905623
0.434405,0.137179,-0.984583,-0.092927,0.068250,0.993331
0.668073,-0.363728,-0.953407,0.145761,0.215342,0.965599
0.656353,-0.309309,-0.957314,-0.070147,-0.017180,0.997389
0.644485,-0.252792,-0.960041,-0.168984,0.410249,0.896181
0.633244,-0.203451,-0.966360,-0.330651,0.168297,0.928626
0.622040,-0.151450,-0.970162,0.015273,-0.152454,0.988193
0.718418,0.217720,0.273997,-0.581228,0.759492,0.292140
0.552492,-0.350104,-0.487821,0.064356,-0.991707,0.111247
0.541730,-0.337365,-0.509059,0.305341,-0.947332,-0.096586
0.532848,-0.359617,-0.544928,-0.663089,0.570333,0.484802
0.523413,-0.371468,-0.576549,-0.936916,0.256472,-0.237509
0.484677,0.058492,-0.433467,-0.075215,-0.436885,0.896367
0.656168,-0.122346,-0.412150,0.979642,-0.200656,0.006245
0.900820,0.166444,0.108970,-0.364438,-0.137320,0.921047
0.782806,0.127342,-0.254385,-0.254637,0.226006,0.940256
0.871298,0.535856,-0.098639,-0.637296,0.714126,-0.289618
0.418004,0.204418,0.680852,0.894864,-0.409474,-0.177623
0.359145,0.279800,0.584336,0.891723,-0.251334,-0.376378
0.217949,0.123714,0.188075,0.214254,-0.897664,0.385090
0.211093,0.009231,0.116338,0.806580,0.192967,0.558742
0.285211,0.675010,0.435302,-0.300621,0.951709,-0.062264
0.285617,-0.190713,0.001809,0.535925,0.055617,-0.842432
0.276108,-0.207805,-0.028868,-0.732600,0.312505,0.604680
0.259928,-0.034627,0.020530,-0.615618,-0.707720,-0.346622
0.211020,-0.143951,-0.147382,0.842982,0.028904,0.537164
0.421248,0.070988,0.260783,-0.558322,0.827492,-0.059447
0.356897,0.706212,0.434516,-0.402535,0.914555,-0.039417
0.330618,0.660741,0.348803,-0.794893,0.606383,0.021089
0.329660,-0.119281,-0.053725,0.466614,-0.745560,0.475828
0.302939,-0.242231,-0.179921,0.121159,-0.482331,0.867570
0.291072,-0.191196,-0.181913,0.391669,0.557407,-0.732046
0.530894,-0.005281,0.255513,0.747761,0.164802,-0.643190
0.403483,-0.205628,-0.161724,0.298017,-0.945126,0.133878
0.386824,-0.299956,-0.252183,0.289510,-0.898420,0.330190
0.594619,0.444350,0.391515,-0.724313,0.646689,-0.239089
0.592223,0.324787,0.319909,-0.545025,0.719199,-0.430930
0.558536,-0.303987,-0.109415,0.700600,-0.432118,-0.567833
0.511177,-0.119684,-0.128189,0.993547,-0.097909,0.057256
0.468865,-0.288266,-0.327854,-0.309935,0.950319,-0.028893
-0.174901,-0.336237,0.126091,0.312828,-0.908435,-0.277279
-0.196314,0.549804,0.471958,0.093347,0.353381,0.930811
-0.281341,0.085016,0.095519,0.262141,-0.795042,0.546983
-0.173427,-0.332850,0.125934,-0.033769,0.705699,0.707706
-0.280125,0.100738,0.100737,0.144939,-0.523244,0.839767
-0.156473,-0.346878,0.055691,-0.280443,0.700721,-0.656005
-0.240505,0.114524,0.088518,-0.397076,0.486719,-0.778097
-0.006505,0.060023,0.400089,-0.041491,-0.997204,0.062151
0.044909,0.056718,0.329531,0.905827,0.004654,0.423622
0.029540,-0.280607,-0.063190,-0.562316,0.795389,-0.226177
-0.020584,0.044060,-0.019324,0.459468,-0.238370,0.855610
0.050253,0.024388,-0.048795,0.402180,-0.110311,0.908891
-0.001051,0.073084,0.406067,-0.011798,0.993456,0.113604
-0.090021,-0.344943,0.001468,-0.400091,-0.736907,-0.544881
-0.152529,0.056314,0.053069,-0.515980,-0.204821,-0.831753
-0.093007,-0.338170,0.020451,0.435615,-0.755443,0.489433
-0.165171,0.566574,0.291067,0.489230,0.797291,-0.353525
-0.165650,0.070907,0.052990,-0.436396,-0.762547,0.477578
-0.117590,-0.359133,0.028108,-0.772205,0.402409,-0.491698
-0.244743,0.132261,0.092923,0.400019,-0.485779,0.777176
-0.263651,0.215624,0.123968,0.191885,-0.831729,0.520967
-0.100451,0.123473,0.468366,-0.104497,-0.852841,0.511608
-0.169114,-0.340428,0.122237,-0.492297,0.832374,0.254554
-0.275150,0.088483,0.095073,-0.015662,-0.781606,0.623576
-0.210061,-0.389205,0.135399,0.006164,0.966531,0.256476
-0.193440,0.491112,0.492881,0.093347,0.353381,0.930811
-0.153488,-0.350265,0.109888,-0.478916,0.791282,-0.380148
-0.209951,0.073648,0.072943,0.628198,0.107835,0.770545
-0.102036,-0.331641,0.021474,-0.581939,0.694683,-0.422803
-0.173980,0.085419,0.058365,-0.090263,0.754080,-0.650551
-0.235566,-0.056477,0.689006,0.502739,-0.855907,0.121146
-0.508044,0.103156,0.183067,0.323496,-0.731567,0.600133
-0.210614,-0.049543,0.682162,-0.149020,-0.305539,0.940446
-0.222446,0.014471,0.685781,0.814148,-0.082985,0.574697
-0.481434,0.086386,0.166706,0.129194,-0.689253,0.712909
-0.230038,0.064538,0.609874,0.404591,0.890278,0.209070
-0.333419,-0.440481,0.160308,-0.276395,0.612423,-0.740637
-0.447858,0.096545,0.155903,0.227005,-0.902148,0.366876
-0.259559,0.185068,0.499856,-0.273339,-0.950830,-0.145631
-0.271316,0.261579,0.509111,0.102187,-0.433439,0.895371
-0.257864,-0.400654,0.120507,-0.309547,-0.927375,-0.210134
-0.362019,0.093401,0.118907,-0.249585,0.582494,-0.773569
-0.275260,0.048736,0.756942,0.691317,0.722546,0.002851
-0.284843,0.049462,0.736779,-0.337903,-0.840223,-0.424083
-0.289487,-0.162494,0.632528,0.786912,0.103195,-0.608375
-0.507454,-0.132745,0.180340,0.979689,-0.067747,0.188735
-0.530010,-0.068490,0.160701,0.979590,0.152900,0.130479
-0.256316,-0.012375,0.747293,-0.608182,-0.626434,-0.487540
-0.266599,0.004232,0.732846,0.289429,0.914274,0.283434
-0.282411,-0.160237,0.626052,0.786912,0.103195,-0.608375
-0.410043,-0.471439,0.216340,0.173736,0.282619,0.943368
-0.248281,-0.020438,0.740108,-0.657926,-0.463107,-0.593856
-0.256648,-0.081470,0.695272,0.283978,-0.923885,0.256501
-0.241574,-0.030758,0.722725,0.829071,0.222093,0.513144
-0.250309,-0.079051,0.682792,-0.412223,0.906757,-0.088680
-0.397254,-0.441610,0.211149,-0.106748,-0.990135,-0.090762
-0.522970,0.130568,0.198537,-0.374950,0.597873,-0.708492
-0.404146,-0.488774,0.226094,0.719489,-0.658540,-0.220592
-0.415609,-0.446769,0.220195,0.121403,0.811769,0.571220
-0.539114,0.078647,0.187131,0.162268,-0.810148,0.563320
-0.570810,0.093723,0.123915,0.046328,0.975844,0.213502
-0.256463,-0.063168,0.746244,0.362593,-0.007406,0.931918
-0.277877,0.024468,0.739033,0.391083,0.331470,0.858593
-0.291514,-0.185231,0.614017,-0.488486,0.383663,0.783699
-0.416051,-0.460152,0.215894,0.264603,0.179525,0.947500
-0.276734,0.079453,0.766433,0.897474,0.440557,0.021228
-0.289008,-0.169751,0.627022,0.765949,-0.003500,-0.642892
-0.548659,0.166444,0.213430,0.553637,-0.074497,0.829419
-0.286096,0.037449,0.737513,-0.289568,-0.295586,-0.910373
-0.290408,-0.157255,0.640761,0.995706,-0.054177,-0.075064
-0.300581,-0.149676,0.622198,-0.641675,-0.314550,0.699508
-0.527393,-0.156851,0.129264,0.264795,0.492033,-0.829329
-0.264387,-0.017294,0.762448,-0.225230,-0.970607,0.084815
-0.284622,0.024307,0.737539,-0.289568,-0.295586,-0.910373
-0.298664,-0.186440,0.613335,-0.513867,0.155549,0.843650
-0.426223,-0.444996,0.224180,-0.059936,0.938434,0.340219
-0.464369,0.321159,0.561892,-0.175488,0.809646,-0.560069
-0.448632,-0.485146,0.228611,0.569909,-0.820880,-0.036867
-0.583304,0.171444,0.228637,0.319925,0.932296,-0.168735
-0.301723,0.003829,0.740135,-0.201435,0.767184,0.608977
-0.323505,-0.212561,0.592674,-0.445636,0.893678,-0.052428
-0.426297,-0.491354,0.235769,-0.454040,-0.692201,-0.560986
-0.437390,-0.459267,0.225675,0.359973,-0.913510,0.189526
-0.559568,0.083968,0.202260,-0.246616,0.659718,-0.709896
-0.570884,0.148870,0.206613,-0.346630,0.673296,-0.653085
-0.310532,0.067923,0.731010,-0.165127,-0.866712,-0.470684
-0.441002,0.310355,0.551928,-0.101952,0.836946,-0.537706
-0.560011,0.184181,0.229634,0.196553,0.546546,0.814036
-0.570957,0.209013,0.216629,0.097944,0.269499,0.958007
-0.260665,-0.078486,0.751331,-0.586178,0.544626,-0.599814
-0.281379,-0.015279,0.734524,0.399630,0.393508,0.827917
-0.305298,-0.161770,0.614332,-0.507372,-0.125215,0.852581
-0.407095,-0.495062,0.236451,-0.599719,0.800186,-0.006187
-0.258122,-0.042609,0.752301,0.891772,0.413257,0.184283
-0.278651,0.027612,0.739060,0.301434,-0.824209,0.479393
-0.292104,-0.164833,0.621594,0.709360,0.184537,-0.680260
-0.635824,-0.019229,0.199376,-0.329937,0.232647,-0.914886
-0.669289,0.208772,0.228427,0.204198,0.249779,-0.946527
-0.350741,-0.024066,0.795878,0.039971,0.940996,0.336050
-0.390362,0.059217,0.745772,0.169466,0.373681,0.911945
-0.423533,0.248196,0.757990,0.795764,0.057126,-0.602907
-0.628047,-0.007619,0.188626,0.313084,0.353961,0.881300
-0.661955,0.265126,0.237028,-0.074635,-0.935407,0.345606
-0.313259,-0.073971,0.797477,-0.094397,0.915269,-0.391626
-0.600516,-0.036644,0.177613,-0.442000,-0.036055,-0.896290
-0.623772,0.201516,0.234170,0.236976,0.748965,-0.618784
-0.303124,-0.035836,0.795826,0.539405,-0.694946,0.475491
-0.590417,0.073971,0.207006,0.123034,-0.611492,0.781627
-0.295052,0.012617,0.798028,0.966705,-0.021589,0.254981
-0.563144,0.391543,0.600750,-0.086866,-0.765812,0.637171
-0.657606,-0.005442,0.207819,0.724979,0.031282,0.688060
-0.679756,0.096223,0.204279,-0.698779,-0.699816,0.148211
-0.691182,0.244970,0.246231,0.050336,-0.938132,0.342600
-0.701391,0.251018,0.226015,0.290822,0.768105,-0.570471
-0.567567,0.397509,0.594011,0.151368,0.549036,-0.821978
-0.684732,0.123957,0.207688,0.738418,0.640344,-0.211418
-0.696047,0.215624,0.223891,-0.116328,-0.658101,0.743889
-0.706809,0.290039,0.233567,0.303648,0.722657,-0.620939
-0.727080,0.102833,0.103201,-0.067909,-0.824698,0.561482
-0.449074,0.176361,0.749915,-0.603378,-0.059076,0.795264
-0.558057,0.356955,0.588741,-0.471721,-0.219932,0.853879
-0.698001,0.257065,0.231731,0.143996,0.868279,-0.474718
-0.388961,0.038577,0.825271,0.137346,-0.938558,0.316616
-0.675592,0.113798,0.224573,-0.462550,-0.287274,0.838762
-0.696784,0.212883,0.222239,-0.116328,-0.658101,0.743889
-0.708320,0.339380,0.253651,0.279468,0.766611,-0.578104
-0.728260,0.090579,0.097354,0.043649,-0.760479,0.647894
-0.648392,-0.029307,0.196230,-0.297917,0.202763,-0.932809
-0.393421,0.186359,0.829099,0.902562,0.317768,0.290526
-0.345803,-0.010442,0.848134,-0.804437,-0.541192,0.244932
-0.397586,0.216189,0.833582,-0.743970,-0.452446,-0.491733
-0.528130,0.324948,0.581032,-0.050552,-0.816378,0.575302
-0.662803,0.245133,0.230499,-0.078491,-0.817852,0.570050
-0.692066,0.106381,0.097983,0.132577,0.815201,-0.563800
-0.354685,0.008264,0.861323,0.578440,0.814933,0.035931
-0.672201,0.224735,0.230027,0.075037,0.790834,-0.607413
-0.684548,0.253275,0.232098,0.258625,0.778937,-0.571289
-0.714180,0.121779,0.103831,-0.091929,-0.848646,0.520912
-0.556362,0.385174,0.595689,0.314035,0.455801,-0.832843
-0.692840,0.227557,0.212827,-0.196123,-0.748206,0.633817
-0.555809,0.350344,0.589633,-0.314319,-0.454765,0.833302
-0.693577,0.218607,0.217940,-0.196123,-0.748206,0.633817
-0.724095,0.124763,0.106190,0.098308,0.868217,-0.486349
-0.426297,0.329141,0.560083,0.171829,0.978564,0.113521
-0.400977,-0.500463,0.213797,0.391803,0.427004,0.814959
-0.411886,-0.445076,0.214164,0.295002,0.158341,0.942285
-0.507417,-0.097755,0.149716,0.982279,0.132207,-0.132850
-0.532922,0.156044,0.211830,0.472667,-0.509847,0.718778
-0.295679,-0.031161,0.791919,0.658789,-0.624798,0.419076
-0.340533,-0.256581,0.574451,-0.038957,-0.982874,0.180112
-0.457072,0.296407,0.559926,-0.134847,0.814463,-0.564328
-0.566018,0.135244,0.218123,0.253737,-0.695402,0.672335
-0.583230,0.017051,0.119405,0.517967,0.201566,-0.831313
-0.579803,-0.156207,0.126904,-0.005235,0.999332,0.036157
-0.593771,0.052364,0.193398,-0.305692,0.709904,-0.634499
-0.351368,-0.000525,0.803718,-0.260928,0.955309,0.138927
-0.513977,0.283348,0.555599,-0.001787,-0.728797,0.684728
-0.615406,0.026242,0.196596,-0.340819,0.398168,-0.851648
-0.638220,0.216511,0.232492,-0.225047,-0.833702,0.504277
-0.645738,0.019068,0.121896,-0.395743,0.044994,-0.917259
-0.247987,0.197323,0.496919,0.524831,0.814511,0.247232
-0.301170,0.462491,0.496342,0.683988,0.382109,0.621412
-0.265825,-0.403152,0.127166,0.309912,0.877646,0.365638
-0.226131,0.127585,0.645743,0.852547,0.416947,-0.315148
-0.235419,0.149918,0.633446,0.831291,0.424361,-0.358989
-0.371344,-0.180877,0.103699,-0.047572,-0.247955,0.967603
-0.218871,-0.034951,0.695954,-0.630974,0.564224,-0.532469
-0.327338,0.104527,0.489446,0.149134,-0.269665,0.951336
-0.342781,-0.444673,0.168331,-0.572925,0.388414,-0.721728
-0.453386,0.101463,0.164320,0.170387,-0.827990,0.534228
-0.245259,-0.029871,0.738614,0.772710,0.414058,0.481119
-0.249498,-0.132825,0.676289,-0.106918,0.852240,-0.512109
-0.268368,-0.096627,0.646923,-0.473770,0.826191,-0.304878
-0.273270,-0.182409,0.591547,-0.338073,-0.919919,0.198635
-0.282079,-0.173783,0.573664,0.301609,0.945688,-0.121272
-0.287681,0.101624,0.789428,0.956346,0.006183,0.292170
-0.309979,-0.204418,0.583523,0.078122,-0.968183,0.237737
0.075426,0.629460,0.511524,0.904434,0.317801,-0.284607
0.071741,0.582699,0.468182,0.853152,0.255196,0.454980
0.109002,0.047123,0.236477,0.821411,-0.039738,0.568951
0.002230,-0.300037,-0.047825,-0.389293,-0.453796,-0.801574
-0.049590,0.045108,0.006712,0.372902,-0.217799,0.901946
-0.132221,0.098561,0.045544,-0.484896,0.459429,-0.744178
-0.109150,-0.297215,0.095755,0.506980,-0.051575,0.860413
-0.122971,-0.356472,0.020268,-0.781291,0.478470,-0.400814
-0.170736,-0.390737,0.065313,-0.339547,0.936647,0.086028
-0.136054,0.060668,0.585831,-0.190108,0.932462,0.307204
-0.259080,-0.178297,0.115289,-0.099225,-0.437659,0.893649
0.400350,0.037933,0.275072,-0.663548,0.719748,-0.204124
0.313370,0.666384,0.427804,-0.216592,0.961245,-0.170576
0.367437,-0.237635,-0.068932,-0.739352,-0.384932,0.552437
0.355680,-0.178700,-0.068775,-0.535838,-0.819730,0.202289
0.346282,-0.147740,-0.081124,-0.627075,-0.673405,-0.391539
0.332387,-0.218044,-0.189911,0.100685,-0.761841,0.639891
0.171068,0.324948,0.336584,0.611731,-0.037719,-0.790166
0.165060,0.315193,0.308818,-0.732747,-0.532899,0.423202
0.181019,0.011649,0.152678,-0.329992,-0.943638,0.025553
0.145932,-0.197646,-0.115604,-0.008717,0.368176,0.929715
0.131668,-0.102027,-0.098666,0.573432,0.762091,0.300656
0.439344,0.323739,0.650096,-0.707827,0.230850,0.667600
0.474800,0.029306,0.172212,-0.052150,0.997613,-0.045262
0.465032,0.007216,0.113191,0.932530,-0.238632,0.271002
0.467871,-0.087919,0.046095,0.942728,-0.026531,0.332506
0.430019,-0.218850,-0.219933,-0.201776,0.903547,-0.378007
0.429319,-0.282622,-0.276226,-0.510554,0.828881,-0.228673
0.562554,0.272141,0.305199,0.230795,-0.897756,0.375190
0.554151,0.028258,0.048926,-0.636121,0.721950,0.272285
0.581719,-0.300681,-0.122945,0.911108,-0.404068,-0.081305
0.576191,-0.302859,-0.149479,0.236710,0.960732,-0.144787
0.568820,-0.288750,-0.169774,-0.158021,0.851020,0.500793
0.505242,0.290764,0.066782,-0.632778,-0.168944,0.755679
0.562960,-0.287781,-0.195023,0.370531,-0.720284,-0.586428
0.540477,-0.183779,-0.201867,-0.801435,0.542012,0.252832
0.537308,-0.213046,-0.242376,0.976379,0.103178,-0.189837
0.531226,-0.212078,-0.268072,0.936743,0.349731,0.014182
0.529199,-0.251905,-0.312934,0.812873,-0.580916,-0.042111
0.525808,-0.280929,-0.354099,-0.606844,0.757982,-0.239173
0.521386,-0.296328,-0.387635,0.325063,-0.944552,-0.046435
0.511730,-0.326884,-0.457956,-0.441098,0.894103,-0.077542
0.509408,-0.368728,-0.506018,-0.077379,-0.837739,0.540561
0.656611,0.307292,0.256693,-0.567907,0.778192,-0.268141
0.704487,0.278752,-0.075382,-0.127193,0.240592,0.962257
0.733124,0.487080,0.297727,0.419155,-0.721201,0.551523
0.848668,0.521909,-0.095493,-0.076938,0.369313,0.926115
0.555146,-0.216512,-0.975275,0.006259,-0.172978,0.984906
0.588795,-0.577297,-0.937911,0.004314,0.061459,0.998100
0.390583,0.041319,-0.993734,0.087912,0.079997,0.992911
0.432968,-0.426937,-0.960041,0.043926,-0.248788,0.967561
0.439970,-0.506914,-0.955531,-0.080698,0.008880,0.996699
0.561669,-0.284800,-0.967723,-0.110165,0.259578,0.959418
0.569372,-0.378160,-0.966124,-0.092229,0.369761,0.924538
0.573721,-0.394284,-0.942605,0.320129,-0.903325,-0.285519
0.578439,-0.418874,-0.920606,-0.645928,0.636496,0.421486
0.540146,-0.032531,-0.977792,-0.258468,-0.939528,-0.224683
0.547148,-0.109929,-0.971604,-0.009650,-0.013139,0.999867
0.397954,-0.047366,-0.991243,-0.111596,0.213372,0.970576
0.412770,-0.216351,-0.983219,0.255327,0.450701,-0.855381
0.419368,-0.287701,-0.976350,-0.007568,0.546672,0.837313
0.505832,-0.309470,-0.392826,-0.218209,-0.962854,0.159048
-0.155883,0.135888,0.460841,-0.258148,-0.938681,-0.228556
-0.129531,0.062684,0.560476,0.547653,-0.620246,0.561580
-0.322805,-0.185955,0.607200,-0.503320,-0.553562,0.663505
-0.435842,0.070585,0.139280,0.263657,-0.818962,0.509692
-0.641279,0.032853,0.194735,0.131626,0.163175,0.977777
-0.661918,0.049301,0.194001,0.772273,0.597920,0.214677
-0.627310,0.090982,0.207897,0.218981,-0.723312,0.654880
-0.553008,0.214253,0.543118,0.296691,-0.361042,0.884095
-0.596130,0.105333,0.197567,0.105060,-0.651184,0.751613
-0.517369,0.159270,0.541519,0.127904,-0.386290,0.913466
-0.492122,0.272624,0.556622,-0.217218,0.702441,-0.677786
-0.393163,-0.152014,0.568631,-0.842910,0.346263,0.411831
-0.372929,-0.211916,0.489184,-0.473510,-0.112270,0.873604
-0.336184,-0.165316,0.602507,0.195355,-0.961750,-0.192024
-0.306182,-0.187166,0.563072,0.068288,0.937101,-0.342313
-0.286980,-0.219737,0.559296,0.251743,0.864237,-0.435569
-0.284880,0.040673,0.740580,0.415813,-0.819441,0.394483
-0.274450,-0.087273,0.659404,-0.512111,0.833866,-0.205935
-0.267189,-0.149596,0.639057,0.864528,0.248027,-0.437121
-0.289818,-0.206837,0.566166,-0.256618,-0.913120,0.316796
-0.357818,-0.467650,0.183801,-0.782079,-0.300836,-0.545756
-0.342707,-0.156368,0.598993,0.182250,0.981880,-0.051920
-0.407795,-0.462813,0.208212,0.069842,0.260575,0.962924
-0.402893,-0.484743,0.227982,0.813058,-0.573241,-0.101638
-0.399613,-0.105818,0.582763,-0.532411,0.672180,-0.514503
-0.447194,-0.517556,0.290464,-0.673043,0.737745,-0.052398
-0.485524,0.262788,0.556517,0.209501,-0.572755,0.792503
-0.519174,0.268996,0.539264,-0.042257,0.535987,-0.843168
-0.514015,0.256339,0.560240,-0.017619,-0.631090,0.775509
0.912467,0.265611,0.130942,0.219720,0.285758,-0.932773
0.922123,0.135727,0.122159,-0.275965,-0.023648,0.960877
0.662324,0.045511,0.021710,0.659808,0.300213,-0.688858
0.669327,0.308259,0.239545,-0.673216,0.734759,0.083119
0.555220,0.207401,0.230289,0.339318,-0.877256,0.339536
0.560379,0.333817,0.334959,0.174414,-0.853138,0.491667
0.438644,0.051397,0.189989,0.569299,-0.578713,0.583943
0.505538,-0.311404,-0.396707,0.871444,-0.457312,-0.177345
0.562664,-0.221188,0.045832,0.002092,0.818467,0.574550
0.415535,-0.317370,-0.133721,0.280843,0.807897,0.518103
0.432747,-0.005845,0.125462,0.876090,-0.320334,0.360351
0.394932,-0.224252,-0.214217,-0.208427,-0.931381,0.298475
0.397992,-0.187568,-0.177771,-0.423553,0.827183,-0.369284
0.402672,-0.200387,-0.154671,0.576120,-0.594983,0.560429
0.348567,-0.038094,0.334382,-0.110128,0.888807,0.444854
0.267484,-0.185311,-0.181048,0.461704,-0.184273,0.867682
-0.408864,-0.086388,0.875691,-0.537602,0.482748,-0.691331
-0.555846,0.307857,0.566323,0.124594,-0.796599,0.591529
-0.570220,0.344700,0.583156,0.171147,-0.602749,0.779361
-0.549433,0.343089,0.652482,0.993502,-0.065419,-0.093139
-0.436027,-0.112751,0.908781,0.167992,-0.442074,0.881107
-0.582346,0.315677,0.583838,-0.307756,0.660175,-0.685168
-0.568930,0.339944,0.635413,0.991418,-0.081090,0.102540
-0.563070,0.423791,0.677863,-0.580201,-0.392427,0.713700
-0.540883,0.248761,0.705079,0.788927,-0.286969,-0.543363
-0.599115,0.364856,0.592019,0.262559,-0.527784,0.807779
-0.579176,0.394042,0.667401,0.659391,0.280580,-0.697480
-0.611978,0.344298,0.598705,0.292509,-0.065710,0.954003
-0.598636,0.387511,0.655916,0.819017,0.124900,-0.560009
-0.582456,-0.668240,0.425732,-0.141467,-0.975004,0.171332
-0.716982,0.199177,0.206167,0.088654,0.631750,-0.770086
-0.643085,0.437095,0.614856,0.576367,0.228517,-0.784590
-0.835584,0.227879,0.198039,0.339522,0.627578,-0.700622
-0.810006,0.250776,0.194683,-0.251889,-0.556684,0.791616
-0.617986,-0.133471,0.431159,0.542357,0.798755,-0.260459
-0.619976,0.363244,0.599990,-0.255602,0.225034,0.940227
-0.688233,0.107751,0.199192,-0.672050,-0.730828,0.119325
-0.583120,0.388317,0.586722,0.156275,-0.321843,0.933807
-0.554446,0.234409,0.665041,0.888043,-0.115518,-0.445012
-0.486335,0.050832,0.919111,-0.444232,-0.843177,0.302836
-0.547185,0.288750,0.560502,0.002683,-0.816089,0.577920
-0.523892,-0.185070,0.491282,0.582492,0.655354,-0.480848
0.664056,-0.573347,-0.937571,-0.157807,0.094990,0.982891
0.671611,-0.518443,-0.943916,-0.059080,0.204959,0.976986
0.643379,-0.592616,-0.940035,0.102013,-0.030232,0.994324
0.655358,-0.518121,-0.940586,-0.137322,0.029072,-0.990100
0.660849,-0.470795,-0.950890,0.232294,0.184775,0.954933
0.671021,-0.404443,-0.953093,-0.199564,0.375479,0.905091
0.633907,-0.490306,-0.939459,0.151042,0.172265,0.973402
0.641868,-0.432500,-0.946118,-0.293997,-0.421466,-0.857865
0.648171,-0.382030,-0.955007,0.158641,-0.231306,-0.959860
0.657532,-0.319548,-0.958677,-0.152218,0.028006,0.987950
0.667557,-0.254485,-0.961195,0.106093,0.355890,0.928486
0.690998,-0.395656,-0.745824,-0.450116,0.675267,0.584303
0.622408,-0.563269,-0.938331,0.014353,-0.193119,0.981070
0.677029,-0.377434,-0.726002,0.381352,-0.683652,-0.622247
0.613084,-0.525860,-0.911718,0.066340,-0.613706,0.786743
0.625504,-0.449108,-0.911351,0.923728,-0.362388,0.124107
0.624988,-0.427582,-0.929967,0.643144,-0.607991,0.465523
0.623404,-0.409522,-0.951021,-0.013613,0.132682,0.991065
0.628858,-0.362439,-0.961378,-0.195267,0.175503,0.964920
0.638478,-0.298022,-0.965259,0.409179,-0.155675,-0.899076
0.645149,-0.246746,-0.972994,0.266482,0.084767,-0.960105
0.651230,-0.499174,-0.692625,-0.088183,0.966125,0.242541
0.611683,-0.500061,-0.877448,-0.395492,0.903449,0.165430
0.619349,-0.443141,-0.884213,0.589158,-0.789728,-0.170945
0.619902,-0.417343,-0.901204,0.644216,-0.764097,-0.033786
0.616954,-0.406217,-0.923569,0.731737,0.412623,-0.542497
0.612310,-0.401218,-0.949239,0.229380,0.671771,0.704350
0.618096,-0.353650,-0.958363,-0.131212,0.006598,0.991332
0.626426,-0.294554,-0.964210,0.184289,0.231066,0.955325
0.638846,-0.218446,-0.963895,-0.589834,-0.167285,0.790007
0.602764,-0.525699,-0.853090,0.536590,-0.843840,-0.002477
0.609177,-0.475713,-0.861297,0.904929,0.171659,0.389406
0.610283,-0.446367,-0.877999,0.439763,-0.892066,-0.104055
