0.285670,-0.491635,-0.921997,-0.255532,0.004572,0.966790
-0.753207,-0.384349,0.497962,0.771033,0.119023,0.625573
-0.425387,0.138670,0.924137,0.203772,-0.801014,0.562898
-0.330473,0.367446,0.208491,0.956772,0.098148,-0.273778
-0.263777,0.102708,0.824222,0.348955,-0.484376,-0.802253
0.292658,0.673392,0.387408,-0.529709,-0.381361,-0.757609
0.306457,-0.104009,0.799865,0.874209,0.471224,-0.117072
0.318752,0.294470,0.549101,0.409264,0.812076,-0.415974
-0.522954,-0.382148,0.785761,0.874562,-0.482759,-0.045669
0.193896,0.423012,0.399026,0.347528,-0.152040,0.925261
0.062274,-0.436066,0.226407,0.531051,0.799276,0.281324
-0.212562,-0.092405,0.293180,-0.657399,-0.289973,-0.695516
-0.060106,-0.022433,0.233745,0.318671,-0.932840,0.168101
-0.463202,-0.045390,0.854266,0.375881,0.216355,0.901057
0.209553,0.142821,0.087481,-0.046979,0.632565,0.773081
0.570632,-0.052793,0.747014,-0.487212,0.045289,-0.872109
0.106502,-0.106210,0.472993,-0.191594,-0.922006,-0.336449
0.016851,-0.295322,0.543088,0.034958,0.775681,0.630156
0.097302,0.344037,0.478884,-0.715112,-0.178183,0.675919
0.295224,0.106008,-0.100139,-0.450129,-0.134288,0.882809
-0.060549,0.011229,0.893380,0.432224,-0.182114,0.883186
-0.546041,-0.223948,0.911744,-0.744861,0.151165,-0.649870
-0.912472,0.067446,0.616383,0.394838,-0.519429,0.757824
-0.221008,-0.501889,0.752986,0.452563,-0.794491,0.404933
0.379832,0.315177,0.726407,0.332381,-0.316299,0.888526
-0.376914,-0.287470,0.701398,-0.298547,0.910547,0.285963
0.557939,-0.079202,0.218744,-0.192230,0.812811,-0.549896
0.203626,-0.124514,0.607660,-0.707386,0.690028,-0.153188
0.504954,0.149623,0.910909,0.696177,0.675258,-0.243646
0.407607,0.401707,0.440463,0.783836,-0.612750,-0.100689
-0.365989,-0.769026,0.550569,0.459291,-0.878758,-0.129754
-0.170633,-0.438969,-0.050793,-0.607752,-0.575415,-0.547298
-0.866342,-0.035285,0.578146,0.484621,-0.325606,0.811864
0.009597,-0.396053,0.199727,-0.573392,-0.566283,-0.592069
0.140291,-0.779979,0.510293,-0.883080,-0.238298,-0.404207
-0.164530,-0.174881,-0.969814,-0.160837,0.076947,0.983977
0.243211,0.302022,-0.076964,-0.832393,0.510457,0.215768
-0.112296,-0.057543,-0.970364,-0.128341,-0.046574,0.990636
-0.404423,-0.253206,0.929518,0.150107,-0.950725,0.271276
-0.382662,-0.128467,0.836370,-0.171846,-0.668878,0.723237
0.412207,0.041089,-0.388203,-0.274425,-0.759454,0.589848
0.572623,-0.078650,0.245485,0.225058,-0.727418,0.648238
-0.225608,-0.317078,0.861257,-0.920381,0.314073,-0.232929
-0.581955,-0.061295,0.670009,0.236692,-0.894919,-0.378281
0.190623,-0.278715,0.623619,0.925058,-0.300296,0.232572
0.103405,-0.016230,0.654967,0.337871,0.932322,-0.128911
0.256302,0.392802,0.175920,0.992779,-0.089630,0.079730
-0.387705,0.172830,0.672537,0.072443,-0.732689,0.676697
-0.019770,-0.213746,-0.949859,-0.106567,-0.154765,0.982187
-0.017692,-0.106561,0.953161,0.505454,-0.850167,-0.147419
-0.116100,-0.402656,0.082630,-0.470998,-0.145514,-0.870050
-0.495577,-0.122066,0.693999,-0.489621,-0.256965,-0.833211
-0.320479,-0.766874,0.587583,0.018817,-0.999164,0.036291
0.066033,0.072898,0.674331,-0.745325,-0.519992,0.417251
0.201239,-0.117264,0.610860,-0.592515,0.729888,-0.340866
-0.024502,-0.040289,0.348865,0.971844,-0.181789,0.149907
-0.030651,-0.011480,0.363866,0.971010,-0.236477,0.034909
-0.025431,-0.433315,-0.119400,-0.221851,0.743297,0.631103
0.066829,-0.283117,0.734601,-0.500829,-0.268477,0.822855
0.019417,-0.038039,-0.484163,0.299965,0.930987,0.208049
-0.212782,-0.122866,0.938201,0.220478,0.546221,0.808104
0.305175,0.450423,0.582854,0.602925,0.470399,-0.644365
-0.095356,0.105959,-0.976091,-0.053362,0.157005,0.986155
-0.126050,-0.553554,-0.013269,0.183308,0.743709,0.642880
-0.127068,-0.199239,0.656904,0.767316,-0.618057,0.170973
0.263556,-0.048540,0.860911,0.904756,0.223052,-0.362855
0.494029,-0.231800,0.453161,0.779014,0.350812,0.519681
0.437549,0.111412,0.124088,-0.158977,0.181692,0.970420
0.709686,0.221646,0.365069,-0.189742,-0.350990,0.916954
0.451526,0.471780,-0.056092,-0.229886,0.380243,-0.895861
-0.315525,0.104509,0.325405,0.125628,0.969267,-0.211514
0.071031,-0.169029,0.165158,0.985980,-0.166467,0.011508
-0.069350,0.235051,0.255452,0.692125,0.668212,-0.272864
0.162362,-0.475431,-0.939261,-0.123167,0.116660,0.985505
-0.040822,-0.060345,-0.052913,0.991597,-0.094828,0.087991
0.169217,-0.901567,0.338266,0.855909,-0.333746,-0.395012
-0.037240,-0.047741,0.283845,-0.306870,0.890617,0.335608
-0.577886,-0.512192,0.497106,0.371899,0.924476,0.083871
0.418708,0.359793,0.593759,0.496875,-0.202118,0.843957
-0.551039,-0.159828,0.483653,0.024584,-0.514447,0.857170
0.373639,-0.292769,0.602931,-0.549314,0.210868,0.808572
0.443697,-0.443569,0.651889,0.400668,0.745237,0.532998
-0.253206,-0.651635,0.695345,0.270006,-0.275873,0.922492
0.116098,-0.848700,0.434756,-0.155176,-0.521463,0.839045
-0.363159,-0.530597,0.717174,0.424431,0.807956,0.408736
-0.710659,-0.113161,0.706351,-0.357180,0.756784,0.547448
-0.415833,-0.642132,0.492275,-0.386242,-0.221959,-0.895294
0.494427,-0.031286,0.641433,0.784470,0.604164,0.139975
-0.900088,-0.179534,0.570421,-0.268948,0.501034,-0.822576
-0.421142,-0.018480,0.654131,-0.182347,-0.709575,-0.680626
0.653383,0.115911,0.382761,-0.097235,0.023707,0.994979
0.598364,-0.201340,0.245893,-0.621322,0.525770,0.580969
-0.238701,-0.134417,-0.980433,-0.335684,0.085012,0.938131
0.197124,0.015381,0.795850,0.785623,0.595542,-0.167707
0.082441,0.024433,-0.960499,-0.023112,0.156441,0.987417
0.223087,-0.618125,0.452387,0.958262,-0.029977,0.284317
-0.359044,-0.147874,0.360422,0.593988,0.554826,0.582534
0.336975,0.284667,0.476662,0.728163,-0.661492,-0.179463
0.446483,-0.444570,0.128062,0.057239,0.313929,0.947720
0.303981,0.230100,0.682993,0.497372,-0.667688,0.553907
-0.197789,-0.178532,-0.970955,0.179422,0.130379,-0.975094
0.929190,0.342935,0.388427,-0.630688,0.682559,-0.369251
-0.014463,-0.327030,0.973972,-0.600437,0.599745,0.528944
0.080052,-0.010579,0.189006,-0.241929,0.952660,-0.184146
-0.200574,-0.064796,0.888712,0.159621,0.164199,0.973427
-0.833083,-0.138169,0.553932,0.855570,-0.441568,0.270220
-0.640248,-0.355342,0.561188,-0.185684,0.857581,0.479662
-0.040070,-0.104760,0.376646,0.897867,-0.384610,-0.214266
-0.218665,-0.241053,-0.975684,-0.364153,0.048319,0.930085
0.325166,0.330883,0.579919,-0.294872,-0.483384,0.824251
-0.367271,-0.056044,0.373609,0.825539,0.189319,0.531642
-0.464838,-0.193238,0.847193,0.207829,0.936478,-0.282518
-0.465192,-0.059045,0.691676,-0.253393,-0.606013,-0.754016
-0.163158,-0.173831,0.867392,-0.048507,0.334575,0.941120
-0.202565,-0.199990,0.741409,-0.487597,0.815369,0.312126
0.047677,0.034388,0.192043,0.483763,-0.873363,0.056661
0.300354,-0.090354,0.771269,0.830670,0.556759,0.002579
-0.239319,-0.274316,0.796523,0.862872,0.481134,0.154798
0.093322,-0.370944,0.734683,-0.073077,-0.246278,0.966440
0.214817,-0.509041,0.538727,0.344166,0.884022,0.316315
0.037549,0.120616,-0.972463,-0.108210,0.120651,0.986780
-0.110925,0.125567,-0.974481,-0.027430,0.150604,0.988214
0.079611,-0.329631,0.604928,0.741897,-0.661112,-0.111897
0.411410,0.089905,0.853756,-0.681675,0.652110,0.331769
0.477797,-0.563707,0.621560,0.966951,0.242303,0.079338
-0.536179,-0.325730,0.854837,-0.515565,0.819543,0.250083
0.681999,-0.003476,0.517590,0.185280,0.487875,0.853023
-0.628748,-0.358541,0.457380,0.183138,-0.144129,0.972465
-0.927288,-0.077999,0.635563,-0.610945,0.023423,-0.791326
-0.365591,0.155225,0.887448,-0.669555,-0.062813,-0.740102
-0.104866,-0.011828,0.879805,-0.235156,0.936161,-0.261352
-0.130120,0.029085,-0.969630,-0.166332,0.143705,0.975542
0.380893,-0.091205,0.514492,-0.607410,-0.725016,-0.324660
-0.246706,-0.228549,-0.978578,0.468807,0.100482,-0.877567
-0.019328,-0.303973,0.943969,-0.472785,0.579548,0.663776
0.832862,0.297471,0.409258,-0.115531,-0.949268,0.292478
0.473551,-0.337434,0.637173,-0.720963,0.612745,0.323660
0.107430,0.183536,0.564938,0.907469,0.053717,-0.416672
0.106191,0.555456,0.394827,0.020093,-0.307969,0.951184
0.519283,0.407559,0.080796,-0.227451,-0.052583,-0.972369
-0.590623,-0.387451,0.648017,-0.378423,0.544629,-0.748448
0.195533,-0.024033,0.736171,0.649954,0.639208,0.411062
0.058072,-0.008827,0.094819,-0.697312,0.704213,-0.133568
0.037240,-0.021383,0.030920,-0.645557,0.698120,-0.309652
0.099115,-0.780428,-0.047654,0.672793,-0.156408,0.723109
0.128571,-0.649685,0.185459,0.629522,0.631175,0.453123
0.464308,0.235851,0.093555,0.239913,0.047857,0.969614
-0.048608,-0.267963,-0.952285,-0.157473,-0.018428,0.987351
-0.075807,-0.148374,0.735804,0.739595,0.588331,0.326902
-0.803803,-0.359741,0.454119,-0.061611,0.945272,0.320413
0.029367,-0.172381,0.781929,0.956919,0.276011,0.090127
-0.245997,0.370047,0.809996,0.702852,-0.126344,0.700025
0.328395,0.135718,0.588867,0.844160,0.295746,-0.447133
-0.050641,0.217895,0.819127,-0.001363,0.574011,0.818847
0.381689,0.096258,0.503261,0.180993,-0.643530,0.743714
-0.445113,-0.296072,0.859851,-0.692342,0.335266,-0.638952
0.282265,0.472277,0.576414,-0.383707,-0.399852,0.832399
-0.914817,-0.253957,0.552790,0.325074,-0.044938,-0.944620
0.563291,-0.016032,0.269863,-0.076469,-0.649358,0.756629
0.477045,0.023883,0.871102,0.570804,0.206822,-0.794611
-0.236267,0.041137,0.767050,0.527783,0.133133,0.838880
-0.521229,-0.041739,0.705434,0.488520,0.723225,0.488153
0.114330,-0.388452,-0.946863,0.094927,-0.238927,-0.966386
-0.588634,-0.297422,0.740777,0.271540,0.894715,0.354615
-0.431978,-0.304523,0.839632,0.963398,-0.199822,0.178704
0.222467,-0.754119,0.472953,-0.505767,0.816669,-0.277942
-0.025476,-0.614874,0.737190,-0.299503,0.770383,0.562857
-0.447369,-0.218047,0.953997,0.228432,-0.919573,0.319695
-0.090225,0.636381,0.106335,0.127389,-0.112439,0.985459
0.139982,0.120814,0.263055,0.133615,0.988607,0.069312
-0.688235,-0.277765,0.324793,-0.568196,0.396471,-0.721086
0.036311,-0.129267,-0.834067,0.907071,-0.420336,-0.023213
-0.021319,-0.608473,0.768986,-0.695863,0.353510,0.625144
-0.394207,-0.316529,0.665913,0.745144,-0.633085,0.209674
-0.128307,-0.503888,-0.066039,0.779634,0.373238,0.502856
0.286820,-0.191089,0.598773,0.634959,0.412199,-0.653391
0.158248,-0.160976,0.885105,-0.845176,0.493136,0.206140
-0.292747,0.281917,0.840508,0.928223,0.005589,0.371983
0.620566,0.326530,0.386307,-0.306668,0.634321,-0.709642
0.091950,-0.376897,0.739513,-0.244350,-0.283744,0.927245
-0.288324,-0.070349,0.767886,-0.579393,0.505619,-0.639260
0.819769,0.394554,0.435368,0.136765,-0.645851,0.751114
0.439805,-0.522095,0.635910,0.959498,-0.186949,-0.210746
-0.468201,-0.453573,0.605621,-0.642224,0.383413,0.663733
-0.741884,-0.118512,0.699931,0.095814,0.796802,0.596596
0.147368,0.197789,0.501039,0.393067,0.641843,-0.658435
-0.496816,0.180535,0.832885,0.261136,-0.930007,-0.258642
-0.740779,-0.469878,0.471893,0.338292,-0.670104,0.660696
0.117559,-0.569660,0.135991,0.888129,-0.454939,0.065256
0.065811,-0.170229,-0.946496,0.027825,-0.293650,0.955508
-0.887483,-0.018880,0.596062,0.186957,-0.514319,0.836972
-0.549889,-0.270063,-0.082324,-0.741498,0.667605,0.066959
0.328482,0.416210,0.618809,-0.349918,0.345389,0.870783
-0.145112,-0.115112,0.747361,-0.219648,-0.975501,-0.012335
-0.239672,-0.205592,0.837777,0.730481,-0.501079,0.464023
0.091464,0.142721,0.437569,0.206603,0.541621,-0.814839
-0.352234,-0.123116,0.764624,-0.424928,0.018283,0.905043
-0.010881,-0.050390,0.656394,0.758032,-0.646145,0.088798
0.035206,-0.043738,-0.624414,0.700883,-0.706883,-0.095287
-0.136532,-0.531098,0.659574,-0.411444,0.865704,0.285078
0.019593,-0.087854,-0.011618,0.984809,-0.169322,-0.038475
-0.293720,0.083653,0.829868,0.342497,0.883118,0.320621
-0.665679,0.038988,0.540459,-0.102660,-0.585562,0.804101
-0.254224,-0.099707,0.527924,0.161841,-0.166609,0.972650
0.139805,0.144922,0.448494,0.080071,0.562759,-0.822734
0.155019,0.073249,-0.957197,-0.146661,-0.025750,0.988852
-0.164264,-0.463775,0.338205,-0.623337,0.721962,0.300369
-0.376250,0.140120,0.808650,0.379427,-0.905757,-0.188786
0.034940,0.484433,0.100811,0.535527,0.161904,0.828853
-0.160151,0.043088,0.318250,0.077296,-0.870035,0.486893
0.080363,0.555205,0.496759,-0.085694,0.618895,0.780785
0.589694,-0.409207,0.676837,-0.224827,-0.012043,0.974324
0.060813,0.070947,0.062961,0.647537,0.169106,-0.743034
-0.123618,0.030984,0.839265,-0.282515,-0.904512,-0.319443
-0.047147,0.514341,0.410297,0.998307,0.041078,-0.041176
0.452410,-0.435867,0.131874,0.057239,0.313929,0.947720
-0.542591,-0.143173,0.909258,-0.295072,0.938577,0.178899
0.362716,0.043988,0.779157,-0.628350,-0.730840,0.266550
-0.332773,-0.543953,0.041091,0.377684,-0.183222,0.907626
-0.657630,-0.263860,0.661469,-0.345915,0.902474,0.256676
-0.168156,-0.009578,0.275060,0.548617,-0.163361,0.819959
-0.589120,-0.016431,0.748991,0.559851,0.205787,-0.802632
-0.434676,0.089505,0.797236,0.640951,-0.740836,-0.200858
-0.315525,0.125265,0.819270,-0.029191,-0.812340,0.582454
0.875365,0.256958,0.363703,-0.613592,0.495991,-0.614408
0.411410,-0.409458,0.634748,-0.710158,0.550857,0.438444
-0.078991,0.085152,0.622233,0.232477,-0.106698,-0.966732
0.113887,-0.413258,-0.945049,-0.042316,0.202283,0.978413
0.049492,-0.212195,0.784721,-0.323676,-0.812411,0.484997
-0.305086,-0.025782,0.817802,-0.147720,-0.856846,0.493958
-0.606369,-0.046739,0.735579,-0.345862,0.826223,0.444674
-0.265193,-0.076448,-0.985712,0.405851,-0.043761,-0.912891
0.021981,-0.881910,0.423118,-0.042919,-0.979442,0.197107
-0.275277,-0.345689,0.834251,0.911381,-0.118617,-0.394099
-0.237727,-0.228549,0.772839,0.568729,0.555170,0.606905
0.408448,0.471627,0.692797,0.914816,-0.156784,0.372196
-0.657762,-0.263262,0.625861,-0.473602,0.745741,0.468585
-0.372623,0.137769,0.840345,0.291186,0.904673,-0.311092
0.241972,0.320528,0.625270,0.936537,-0.335550,0.101511
0.130207,0.147074,0.079349,-0.222137,0.330141,0.917422
-0.147678,-0.063047,0.839285,-0.737087,0.445937,-0.507782
-0.170677,-0.659438,0.716135,0.811949,-0.001948,-0.583725
-0.412207,-0.641885,0.515796,0.235509,0.083718,0.968260
-0.340691,0.159877,0.828686,-0.116355,0.947159,-0.298917
-0.494295,-0.325782,0.543700,0.350935,-0.931095,-0.099538
0.444228,0.361691,0.558966,-0.425080,0.903032,0.061968
-0.156346,-0.488634,-0.046105,-0.606827,-0.451560,-0.654106
0.105838,-0.626328,0.199584,0.657999,0.671051,0.341655
-0.434676,-0.417560,0.765888,-0.632158,0.379490,0.675547
0.651437,-0.444619,0.294423,0.645685,-0.543734,-0.536138
0.046440,-0.138670,0.751111,0.995654,0.071916,-0.059164
-0.522025,-0.424114,0.612735,0.019792,0.455845,0.889839
-0.228174,-0.052243,0.284110,0.829676,0.056234,0.555405
-0.505484,-0.202591,0.736721,-0.601095,-0.698339,-0.388597
0.143786,-0.556707,0.767723,0.401201,-0.213582,-0.890741
-0.004556,0.008879,0.398985,-0.221291,0.213156,0.951627
0.186289,-0.262410,-0.951735,0.199828,-0.102599,-0.974445
0.183857,0.170782,0.671783,0.893566,-0.270137,-0.358560
-0.373287,-0.156776,0.466410,-0.801984,0.111330,-0.586880
-0.014197,-0.555355,0.532163,-0.461642,0.780808,-0.420981
-0.076470,-0.485282,0.774041,-0.633338,0.515540,-0.577150
0.528925,-0.070899,0.105683,-0.267620,0.132991,0.954302
-0.260770,0.507741,0.109290,0.986687,0.112957,-0.117005
-0.407298,-0.091456,0.748767,0.562560,0.158665,-0.811388
0.438478,0.579414,0.610024,-0.204447,0.704840,0.679265
-0.365016,-0.299171,0.658575,0.943903,-0.114861,0.309603
-0.047634,-0.328230,0.592006,-0.010455,0.732946,0.680207
0.272224,-0.675746,0.511272,-0.623694,-0.383147,0.681325
-0.327598,-0.156525,0.677836,0.638603,-0.331938,-0.694265
0.126094,-0.074901,0.890119,0.485376,0.868213,-0.103032
0.381823,-0.238504,0.190208,0.798276,0.011927,-0.602173
-0.985625,-0.251505,0.522726,-0.486430,0.454940,0.745932
0.344405,-0.489284,0.608475,-0.772569,-0.076833,0.630265
-0.226670,-0.219796,0.857711,0.051233,-0.068654,0.996324
0.472092,-0.191137,0.455648,-0.533278,-0.405072,0.742652
0.167625,-0.275463,0.308487,0.974039,0.013993,0.225949
0.539761,-0.156876,-0.423485,0.196448,-0.706223,0.680189
0.188721,0.269263,0.276487,0.814940,-0.066405,-0.575728
-0.205087,-0.526897,-0.018548,0.478175,0.522125,0.706211
0.185537,0.081302,-0.448412,-0.240406,-0.036437,0.969988
0.077575,0.216747,0.546737,0.068004,0.828490,0.555859
-0.759752,-0.515193,0.677897,-0.424013,0.796748,0.430588
-0.544229,-0.420463,0.639640,-0.022160,-0.817732,0.575172
0.287483,-0.498537,-0.924565,-0.256380,0.007628,0.966546
-0.427289,-0.449220,0.756410,0.573385,-0.231729,-0.785831
0.514684,-0.012628,-0.397089,0.246146,-0.694673,0.675900
-0.360460,0.113561,0.799580,0.315688,0.921821,0.224917
0.048297,-0.051092,-0.406139,0.961073,-0.272033,0.048336
-0.338434,0.263112,0.828625,-0.469265,-0.721853,0.508644
0.004158,0.080350,0.436040,-0.135456,0.676322,-0.724045
0.506545,0.362693,0.420346,0.517158,0.420609,-0.745410
-0.569748,-0.342737,0.465146,-0.013733,-0.358452,0.933447
0.452278,-0.019032,0.883148,-0.503587,0.231465,-0.832360
-0.983945,-0.242652,0.523664,-0.486430,0.454940,0.745932
-0.000310,0.458375,0.408932,0.603051,0.776854,0.181183
0.627775,0.367543,0.419979,0.310392,-0.706346,0.636186
-0.018222,-0.054942,0.057234,0.894566,0.446624,-0.016716
0.160637,-0.440819,0.049060,0.977720,-0.108120,-0.179924
-0.043256,-0.025434,-0.961926,-0.380505,0.220177,0.898186
0.168553,-0.054542,-0.457299,0.174655,-0.758987,0.627243
-0.086157,0.105660,-0.005524,0.040349,0.463852,0.884993
0.546263,0.523396,0.428845,-0.412834,0.638634,0.649395
-0.675099,-0.234251,0.662713,0.801951,0.597165,0.016377
0.218664,0.108762,0.272757,-0.442793,0.839525,0.314852
0.550198,0.064295,0.514655,0.509206,-0.182081,-0.841163
-0.317161,-0.619725,0.714239,-0.187179,0.781450,-0.595230
0.144759,0.084553,0.706799,0.802088,0.490808,-0.340238
0.008890,-0.871357,0.409380,0.028917,-0.982449,0.184276
0.249403,-0.005478,-0.456015,-0.524146,-0.410516,0.746155
0.004378,0.508040,0.089397,0.552349,0.210923,0.806487
0.199778,-0.492434,0.081998,-0.764206,0.372886,0.526256
0.189164,-0.335935,-0.944662,0.253853,-0.116251,-0.960231
-0.300088,0.106060,0.315213,-0.490038,-0.707995,0.508533
-0.050863,-0.272914,0.059904,0.435730,0.367360,0.821697
-0.034897,-0.235152,0.921161,0.829478,0.490979,0.266280
-0.336666,-0.186836,0.400045,-0.391666,-0.688838,-0.610000
0.261654,0.419260,0.559863,0.569437,0.283418,-0.771632
0.099955,0.041788,-0.178448,0.807134,-0.533762,0.252254
0.257320,-0.052042,0.709775,0.875370,-0.466012,0.128685
0.368775,0.055244,0.798500,0.585621,0.745962,-0.317156
0.153605,0.179583,0.211304,0.950736,0.181248,0.251495
-0.001062,-0.066997,0.710693,0.432397,0.732279,-0.526117
-0.445158,-0.249906,0.908667,0.919602,-0.290811,-0.264122
0.132109,0.238504,-0.089234,0.026438,-0.597878,0.801151
0.116673,0.083653,-0.960968,-0.148087,0.056738,0.987346
0.476117,0.118262,-0.042518,0.238666,0.862330,-0.446571
-0.074481,0.105859,0.719661,-0.337343,0.025363,-0.941040
0.266652,-0.064295,0.638987,0.983398,0.175610,-0.045705
0.083282,-0.084352,-0.603869,0.965467,0.252369,0.064681
-0.051924,-0.148573,0.547715,0.086441,-0.744000,0.662565
0.063909,0.432115,0.400208,-0.084912,-0.484848,-0.870467
-0.475454,-0.436868,0.875239,-0.100274,0.713988,0.692941
0.069836,0.115563,0.803901,0.758952,-0.623877,-0.186464
-0.038965,-0.158778,0.470466,-0.856266,0.441427,-0.268236
-0.394516,0.065697,0.678366,0.277665,-0.883340,0.377640
-0.372534,0.038387,0.655558,-0.251504,-0.035392,0.967209
0.729147,0.257458,0.379051,-0.138986,-0.450795,0.881741
0.092172,0.212894,0.877054,-0.560927,-0.815138,0.144610
-0.006988,0.064097,0.377747,0.929529,-0.301256,-0.212652
-0.578196,-0.284066,0.900289,0.929292,0.089827,0.358257
0.141486,-0.208892,0.774673,-0.028425,-0.395947,0.917833
-0.359266,0.044788,0.821634,0.995613,0.071396,0.060473
-0.504025,0.045289,0.647935,-0.330730,0.868156,0.370031
-0.234365,-0.468028,0.281277,0.716623,0.003296,-0.697453
-0.355948,-0.095956,0.792895,0.602751,0.304316,-0.737620
-0.218753,0.245406,0.504912,0.009571,-0.928150,0.372083
-0.130650,-0.046541,0.249440,-0.349927,0.273128,-0.896076
0.155109,-0.474930,0.157780,0.615134,-0.579374,0.534729
0.102698,0.009477,0.609739,0.345693,-0.791694,0.503704
-0.425166,-0.263512,0.886939,0.808215,0.465315,0.360929
-0.270543,-0.212845,0.977213,-0.355726,-0.856578,-0.373809
0.715922,0.367345,0.318780,0.498158,-0.600680,-0.625317
-0.382973,-0.107611,0.779870,0.659773,0.346722,-0.666695
0.317161,-0.621077,0.414741,-0.527656,0.333804,-0.781123
0.411942,-0.304675,0.204924,0.770139,-0.189246,-0.609157
-0.287749,-0.414058,0.822918,0.982199,0.176523,-0.064225
-0.090934,-0.108209,0.160715,-0.734515,0.646924,0.204883
0.459354,-0.576211,0.595226,0.819694,0.387564,-0.421777
-0.157807,-0.208794,0.259325,0.825064,0.144361,0.546287
0.501150,0.459025,0.579573,-0.262231,0.761577,0.592651
-0.107740,0.048940,0.820839,-0.761948,0.392479,-0.515165
-0.578062,-0.364393,0.796441,0.444134,0.282497,-0.850259
0.337019,0.247806,0.586870,0.979904,-0.086192,-0.179889
-0.025431,-0.110410,0.424096,0.997939,-0.064137,0.002074
-0.129191,-0.314328,0.873650,-0.157745,-0.127518,0.979212
0.394250,0.491433,0.596979,0.328834,-0.379813,-0.864644
-0.565679,-0.181634,0.344686,0.315348,-0.406963,-0.857284
0.203096,-0.548654,0.570258,0.223248,0.954745,-0.196526
-0.456524,-0.280116,0.803534,-0.635132,0.262895,-0.726287
0.413003,0.457624,0.299254,0.218262,0.445427,-0.868307
-0.015392,0.007276,0.342179,0.988610,0.025901,0.148256
-0.073773,-0.518242,0.580347,0.924456,0.361738,-0.120527
0.042149,0.440269,0.401003,-0.216292,0.390815,0.894696
0.303450,0.245253,0.474950,0.893748,-0.402452,-0.198107
0.339098,0.092356,0.611145,0.065244,0.523774,0.849355
-0.018444,-0.004376,0.361013,0.982279,-0.184704,-0.031826
-0.658249,-0.018181,0.510415,-0.527115,0.629781,-0.570548
0.002874,0.042990,0.310933,0.954553,-0.297278,-0.021303
0.314152,0.123864,0.308793,0.570343,0.486031,-0.662180
-0.146882,-0.260358,0.382496,0.082284,0.681825,0.726873
-0.413135,-0.278016,0.896641,0.906797,0.089369,0.411986
-0.103716,-0.103859,-0.969528,0.252811,-0.138307,-0.957579
-0.210703,0.196388,0.124842,0.339097,0.353725,0.871718
0.592084,0.157975,-0.397538,0.340338,-0.061828,0.938268
-0.000840,-0.056945,-0.200012,0.156682,0.924816,0.346651
-0.327952,0.140022,0.657963,-0.401192,-0.691579,0.600635
-0.158337,-0.042789,-0.134992,0.298867,0.712719,0.634594
-0.126537,-0.208892,0.246321,0.841813,0.174157,0.510902
0.075454,-0.392301,-0.945253,0.015810,0.261832,0.964984
0.255551,-0.284368,-0.938731,-0.221046,0.157802,0.962412
0.051791,-0.070599,-0.277221,0.269584,0.959304,-0.084023
-0.204998,0.103160,0.858016,-0.257289,0.246981,0.934239
-0.005087,0.032785,0.234092,0.881008,-0.318328,0.349988
-0.654622,-0.104308,0.694101,0.228611,-0.969398,-0.089472
-0.926935,0.010527,0.607191,0.387971,-0.654026,0.649406
-0.158691,0.030685,-0.973034,-0.158272,0.090255,0.983262
-0.457674,-0.171981,0.526089,-0.029733,0.999301,0.022661
-0.268820,-0.172931,0.353634,-0.460830,-0.858693,-0.224237
0.187351,-0.153375,0.597774,0.099548,-0.296658,0.949781
0.334232,-0.280467,0.590151,-0.598617,-0.038032,0.800132
0.613091,-0.183884,0.233664,-0.862038,0.477195,0.170808
0.372401,-0.288218,0.633627,0.308750,-0.293573,-0.904704
-0.089650,-0.347939,0.888040,0.700979,-0.671500,0.240242
-0.203008,-0.364094,0.291692,-0.421863,0.384675,0.821010
-0.497213,-0.494736,0.634198,0.891159,0.429814,-0.145245
0.099425,0.405007,-0.337043,-0.256453,0.228012,-0.939278
0.700885,0.264812,0.380457,-0.164944,-0.289201,0.942951
-0.252013,-0.505690,0.753190,0.499144,-0.645239,0.578379
-0.271119,-0.190637,0.714851,0.853704,-0.346506,0.388747
-0.751040,-0.119413,0.703172,0.195173,-0.539972,-0.818742
0.051835,0.395552,0.497778,-0.384688,-0.243529,0.890342
0.042990,-0.041238,-0.874873,0.934496,-0.354185,0.035631
0.225653,-0.341687,-0.123191,0.196446,-0.577190,0.792629
-0.745025,-0.117013,0.552118,-0.661142,0.252704,-0.706422
0.475409,-0.349340,0.276181,-0.633158,0.687964,0.354706
0.534056,0.212595,-0.368962,0.651767,-0.024771,0.758015
-0.703494,-0.212644,0.609372,-0.075979,-0.757888,0.647945
0.590623,0.228900,0.395581,0.965756,0.200205,-0.165027
0.393012,-0.032736,0.775835,0.803133,0.498054,0.326985
-0.356037,-0.343787,0.655334,0.928048,-0.294254,0.228344
0.102698,-0.322131,0.754107,0.428072,0.462048,-0.776702
-0.296108,-0.155576,0.863051,-0.047909,0.997856,-0.044598
0.131932,0.454022,0.597407,0.142900,0.422101,0.895215
-0.141575,-0.728861,0.686743,-0.031825,-0.996254,0.080407
0.117470,0.805686,0.068709,-0.165448,-0.561706,0.810625
-0.091597,-0.133120,0.162957,-0.642008,-0.385851,-0.662529
-0.652278,-0.199538,0.770107,0.460031,-0.515619,0.722847
0.390712,0.028285,0.829134,0.914092,0.337595,0.224645
-0.030651,-0.082801,0.241572,0.462529,-0.886142,0.028616
0.411146,0.327082,0.273429,-0.876800,0.018323,0.480506
0.489872,0.057943,0.701439,0.126787,-0.958242,-0.256315
0.433392,0.640133,0.337777,0.802704,0.080937,0.590860
-0.099691,-0.183985,0.894215,-0.037997,0.542027,0.839502
-0.377798,-0.754470,0.670172,0.549240,0.833580,-0.058992
-0.594428,-0.256808,0.689291,0.480663,-0.850958,0.211740
0.316099,0.055442,0.674636,0.090875,0.935678,0.340951
-0.486599,-0.680997,0.652317,0.440149,0.739340,0.509554
0.023883,0.144522,0.385614,0.887330,0.276288,0.369202
0.073993,0.012979,-0.959459,-0.052550,0.234500,0.970695
-0.039319,0.130867,-0.975419,0.096604,-0.190262,-0.976969
0.186289,-0.103459,-0.952081,-0.128112,0.076517,0.988804
-0.117912,-0.168080,0.856080,-0.704846,0.433664,0.561363
-0.439849,-0.621429,0.628470,-0.633428,-0.372174,-0.678422
0.491375,0.087652,0.125800,-0.017223,0.177359,0.983996
0.050818,0.162429,0.564266,-0.339770,0.084463,0.936708
0.464794,0.701453,0.327300,0.355129,0.437866,0.825927
-0.086200,-0.164578,0.175818,-0.677319,-0.504981,-0.535008
0.794516,0.306776,0.425258,0.087930,-0.675128,0.732442
0.006147,0.001177,0.810301,-0.617986,0.731396,0.288363
0.350907,-0.062195,0.218621,0.820050,0.326003,-0.470362
-0.400885,-0.537798,0.336330,0.215927,-0.479138,-0.850766
0.524900,-0.416510,0.118258,-0.052398,0.436779,0.898041
0.013931,-0.074449,-0.556765,0.480757,-0.735693,0.477104
0.041309,0.527096,0.502752,0.019388,0.014007,0.999714
-0.419196,-0.225548,0.688129,0.512429,0.645163,0.566729
0.870987,0.206743,0.372529,-0.127977,0.696341,0.706209
-0.027377,-0.321279,0.896845,-0.776248,0.628190,-0.053073
-0.068997,-0.189886,0.513249,-0.438752,0.703377,0.559248
-0.384432,-0.761571,0.666239,0.573001,0.819507,0.008780
0.310968,0.304974,0.560474,0.313057,0.860993,-0.400857
0.081424,-0.222297,-0.954873,-0.019353,-0.000567,0.999813
-0.675410,-0.189336,0.685684,0.486853,0.768341,0.415484
-0.850244,0.033386,0.592740,0.413137,-0.635367,0.652400
-0.346705,-0.809139,0.546268,0.208195,-0.904614,-0.371925
-0.004777,-0.092656,-0.393441,0.962337,-0.204043,0.179652
0.617337,-0.411909,0.677734,-0.237563,-0.008429,0.971336
0.700001,0.426715,0.069667,-0.386816,0.260401,0.884627
-0.431137,-0.420011,0.706575,0.870178,-0.486388,0.078849
-0.180628,-0.176182,0.714565,-0.770589,0.586559,-0.249282
-0.045158,0.054542,0.888937,0.847879,-0.356691,0.392266
-0.071340,0.109659,0.592210,0.151808,0.538081,0.829110
-0.438258,-0.045439,0.408218,-0.357259,0.118781,-0.926422
0.162141,0.004227,-0.953508,0.128159,-0.142130,-0.981516
0.576868,0.135919,0.522421,0.530715,0.264700,0.805156
0.481158,0.108160,0.761547,-0.522467,0.358619,-0.773576
-0.436665,-0.126016,-0.094268,0.191698,0.979931,-0.054662
0.076338,-0.454223,0.229139,0.555003,0.766832,0.322399
0.781955,0.377648,0.346623,0.711549,-0.632842,-0.305302
0.123618,0.145523,-0.128817,0.850899,-0.374258,0.368649
-0.073065,0.673994,0.107823,0.054877,-0.210864,0.975974
0.472224,-0.043738,0.868595,0.394109,0.064346,0.916808
-0.443919,0.137769,0.906445,0.129079,-0.947298,0.293198
-0.264795,-0.750218,0.544699,0.106748,0.439051,0.892098
0.366032,0.074550,0.837512,0.778462,-0.619100,0.103498
0.452897,-0.342838,0.116159,-0.075830,-0.506897,-0.858665
0.020256,0.003176,0.773858,-0.096352,-0.988604,0.115666
-0.305795,-0.159376,-0.998777,0.290173,0.147983,-0.945463
0.130871,0.714858,0.407586,-0.070415,-0.071513,0.994951
0.109023,-0.357891,-0.947067,-0.065867,0.296868,0.952644
-0.583636,-0.039837,0.472790,-0.471252,-0.685604,-0.554859
0.276382,-0.089655,0.877869,0.790764,-0.543072,0.282427
0.357496,0.276416,0.607802,0.865219,-0.462720,-0.193096
0.424856,0.374195,0.533549,-0.100071,0.737197,0.668226
-0.001946,0.005927,-0.960723,-0.067268,0.362849,0.929417
-0.574525,-0.061994,0.667869,-0.002437,0.933271,0.359164
-0.021540,-0.288569,-0.950817,0.004373,0.025971,0.999653
-0.086997,-0.555007,-0.080653,-0.864395,-0.053851,-0.499921
0.635028,0.178185,0.382720,0.924408,-0.276988,0.262198
-0.005219,0.273513,0.726489,-0.135934,0.065763,0.988533
0.558337,0.079352,0.712670,-0.641481,-0.576182,-0.506475
-0.287527,-0.200240,0.906853,-0.710216,0.626377,0.321318
-0.178992,0.082252,-0.969202,0.128375,0.052527,-0.990334
-0.259486,-0.353641,0.743916,0.773684,-0.633452,-0.012284
-0.243610,-0.046190,0.621662,0.743851,-0.586654,0.320192
0.109907,-0.049242,0.944417,-0.649097,0.759818,0.036748
-0.148475,-0.464126,0.644389,0.633854,-0.737077,-0.234406
-0.753693,-0.135018,0.701337,-0.195027,0.478843,0.855964
0.146573,-0.118613,0.470140,0.066244,0.898945,0.433023
-0.547723,-0.517794,0.552485,0.739541,0.437693,-0.511374
-0.041840,0.007429,-0.969386,-0.245538,0.141230,0.959044
0.227819,-0.849301,0.437243,0.690807,0.636245,0.343478
0.584476,-0.311925,0.278423,-0.002279,0.729695,0.683769
-0.101018,0.048241,0.903326,-0.186737,0.701920,-0.687341
0.103891,-0.269914,0.849639,-0.339752,0.936843,0.083028
0.409509,-0.253758,0.611981,-0.183516,0.239749,0.953332
0.077134,-0.425015,-0.942603,-0.013590,0.234510,0.972019
-0.566032,-0.319328,0.453915,0.201531,-0.315981,0.927114
-0.016940,-0.616724,0.277853,0.387112,-0.823470,-0.414779
0.195356,0.254857,0.158208,0.955418,-0.295016,0.011917
0.165900,0.352390,0.581468,0.445487,0.068535,0.892661
0.456833,-0.162728,-0.457625,-0.279885,-0.216582,0.935284
0.325741,0.363294,0.579308,-0.167183,-0.422613,0.890757
0.359973,0.551853,0.327443,0.067022,-0.426781,0.901868
0.869483,0.037636,0.442257,-0.349054,0.548339,0.759925
0.680053,0.346989,0.106335,-0.604231,0.287224,0.743241
0.341043,0.117914,0.322266,-0.503008,-0.454569,0.735085
0.277620,-0.513792,-0.923485,-0.317927,-0.000548,0.948115
0.348961,0.058245,0.849028,0.624280,-0.772428,-0.116745
0.389562,0.297022,0.258122,-0.400919,-0.255484,0.879768
0.012163,-0.055742,-0.136073,0.876589,-0.477590,-0.059149
0.129146,0.071250,-0.960458,-0.063664,-0.071661,0.995395
0.672799,0.015180,0.544739,0.497284,0.615718,-0.611228
-0.545688,-0.109812,0.494823,0.337449,0.819926,0.462438
0.452322,0.430213,-0.057499,-0.276953,0.462374,-0.842322
-0.627510,-0.276715,0.743325,-0.067985,-0.995113,-0.071617
-0.692968,0.051743,0.546879,-0.159851,-0.461036,0.872865
0.049890,-0.138169,-0.521198,0.480070,-0.673287,-0.562332
-0.622733,-0.477931,0.656272,0.877221,-0.451971,-0.161881
-0.668288,-0.244106,0.667115,0.692542,0.314254,0.649330
0.532463,-0.002975,0.517447,0.443951,0.085326,-0.891979
-0.051659,-0.290620,-0.493213,-0.811112,0.494101,-0.312989
-0.209155,-0.158876,0.525661,-0.757854,0.635974,0.145586
0.405749,0.085402,0.832009,0.180079,-0.971801,0.152229
0.712118,0.491885,0.437426,-0.646177,0.717840,0.259152
0.130605,-0.311425,0.646325,0.604336,-0.786501,0.127256
0.152632,0.198989,0.858424,-0.010714,-0.857869,0.513757
-0.817116,-0.043238,0.499144,0.056301,-0.989073,0.136254
0.119284,0.542051,0.513799,0.244329,-0.356205,-0.901899
0.420831,-0.271764,-0.480025,0.277844,0.245427,-0.928746
0.543477,0.576611,-0.053015,0.148294,-0.671288,0.726210
-0.144936,-0.524745,0.737128,0.399259,0.901154,-0.168861
-0.261256,-0.150224,-0.978599,-0.482986,-0.096742,0.870268
0.004865,0.057543,0.841384,-0.623749,-0.041923,-0.780499
-0.514595,-0.191638,0.576801,0.808142,0.266566,0.525213
0.035338,0.019731,0.157270,0.922517,-0.210354,-0.323594
0.460194,0.142672,0.752354,-0.372012,0.659413,-0.653285
0.075143,-0.299571,-0.958440,-0.014058,0.084577,0.996318
0.422467,0.290169,0.701663,-0.756604,-0.637834,-0.143940
-0.258735,-0.223048,0.424667,0.352827,0.935684,-0.003007
-0.441751,-0.213044,0.886103,0.676955,0.645607,0.353445
0.426581,0.462026,0.305063,0.217173,0.377953,-0.899993
0.167537,-0.440318,0.208532,0.197385,-0.898818,0.391364
0.377753,-0.330831,0.115487,0.099096,0.627859,0.771993
0.237506,0.057894,0.618911,-0.440903,0.793395,-0.419677
-0.425917,-0.155225,0.512759,-0.878912,-0.137262,-0.456807
0.575011,-0.054343,0.510945,-0.243388,-0.378279,0.893122
-0.075984,0.816490,0.109718,0.186397,0.103828,0.976973
0.121229,-0.189486,0.513880,0.365034,0.901478,0.232567
0.053427,-0.040988,-0.730035,0.090688,0.994500,-0.052405
-0.221406,-0.264712,0.781562,0.543472,0.728243,0.417492
-0.013711,0.400504,0.356386,0.668303,0.258482,-0.697537
0.572446,0.594870,0.455913,-0.746057,0.481908,0.459525
-0.232242,0.061545,0.767845,0.179898,0.172888,0.968373
-0.490049,-0.189635,0.852615,0.132266,-0.903300,0.408110
0.178460,-0.436316,-0.942073,-0.123880,0.076831,0.989318
-0.168553,0.011779,0.607762,0.001739,-0.850966,0.525218
0.271649,0.611522,0.553585,0.020073,0.443258,0.896169
-0.087970,-0.038136,-0.972871,-0.076770,-0.068229,0.994712
-0.007961,-0.066897,-0.121683,-0.559163,0.827109,0.056810
-0.229633,-0.197890,-0.981595,0.417181,0.087628,-0.904589
-0.099691,-0.219546,0.927296,0.853412,-0.132264,-0.504176
-0.447546,-0.044691,0.675961,-0.289750,-0.790685,-0.539317
-0.797877,-0.191836,0.737679,0.972076,-0.153690,-0.177336
-0.391021,0.571360,0.028658,-0.685676,-0.043805,0.726587
0.242281,0.488335,0.579389,-0.532772,-0.256846,-0.806340
0.536621,0.214894,0.371306,0.087351,0.155766,-0.983924
-0.607519,-0.072797,0.741409,-0.578126,0.750265,0.320738
0.476692,0.313028,0.404244,-0.019803,-0.614848,0.788397
-0.276029,-0.015229,0.781419,0.973609,-0.000978,0.228218
0.322911,-0.075398,0.581000,-0.572223,0.245626,-0.782450
-0.102786,-0.668142,0.733867,-0.690007,0.065013,-0.720877
-0.249226,-0.390552,0.620827,0.413312,0.699417,0.583086
-0.420522,-0.267462,0.790469,0.880687,-0.473565,0.011284
0.061963,-0.065397,-0.244120,0.985562,-0.162949,-0.046001
-0.205926,-0.572362,0.515491,-0.156317,0.801939,0.576593
-0.142237,-0.540552,-0.043272,-0.515912,-0.672560,-0.530564
-0.039983,0.558258,0.099914,0.452877,0.123134,0.883029
0.393985,-0.108359,-0.458909,-0.129910,-0.716500,0.685384
-0.453694,-0.033637,0.673658,-0.289750,-0.790685,-0.539317
0.049756,0.085002,-0.097815,-0.868387,0.320090,-0.378743
0.205307,-0.112361,0.583772,-0.573391,0.554603,-0.603024
-0.600841,-0.369345,0.472667,0.182792,-0.350232,0.918654
-0.685979,-0.431114,0.632057,0.321658,-0.795917,-0.512886
0.128439,0.103108,0.847642,-0.405345,-0.466683,0.786068
-0.864662,-0.025132,0.575985,-0.512177,0.354215,-0.782436
0.302034,0.122514,0.303494,0.625550,0.506099,-0.593760
0.334720,-0.178783,0.176695,0.801723,0.300301,-0.516778
0.091641,-0.798384,-0.045249,-0.568578,0.256202,-0.781716
0.175498,-0.064595,0.848131,-0.665609,0.739095,-0.103457
0.799336,-0.216945,0.154804,0.775893,0.029784,-0.630161
-0.565280,-0.241453,0.774041,-0.136028,0.389359,0.910986
-0.044847,-0.270564,0.950267,0.917252,0.269931,-0.292892
0.032950,-0.002676,0.176450,-0.815093,0.578135,0.037199
0.364484,0.050241,0.855774,0.893945,-0.416076,0.166561
0.691640,-0.117813,0.490155,0.436374,-0.655709,0.616136
0.278416,0.102809,0.098855,-0.263702,0.327502,0.907306
0.516718,-0.089554,0.234030,-0.301604,0.685273,-0.662900
0.096152,-0.415209,0.081795,-0.216557,-0.066699,0.973989
-0.285449,-0.054392,-0.064673,-0.186324,0.954332,-0.233526
-0.159885,0.410859,0.695161,0.815183,-0.233674,-0.529975
0.299072,-0.049642,-0.423260,0.325776,0.627663,-0.707042
-0.259177,0.094905,0.750581,0.140226,-0.072319,0.987475
-0.333570,0.053492,0.676776,-0.056518,-0.726372,0.684974
0.365989,0.350488,0.581427,0.535273,0.401677,-0.743060
-0.168775,-0.151876,-0.973421,-0.061667,0.114428,0.991516
-0.252808,-0.643283,0.336737,-0.726854,0.625533,0.283533
0.583989,-0.083851,0.714912,0.981556,-0.188504,0.031843
0.497125,0.104308,0.881211,-0.005395,0.998951,0.045484
0.033347,-0.107809,0.786413,0.776480,-0.534131,-0.334340
-0.136489,-0.503989,0.371346,0.359433,0.823680,0.438587
-0.382485,0.008778,0.649627,0.457498,0.094146,-0.884213
0.565016,-0.423213,0.251355,0.348340,-0.792247,-0.501003
-0.293941,-0.512842,0.851494,0.764749,-0.544369,0.344706
-0.013358,0.007526,0.221190,-0.766169,0.540420,-0.347751
0.039983,0.366243,0.103074,-0.542481,-0.057984,-0.838064
-0.295533,-0.220947,0.893787,0.992020,-0.099055,0.078001
0.227731,0.261009,-0.106294,-0.021052,-0.440975,0.897272
0.372180,0.214396,0.622743,0.900970,0.427525,0.073998
-0.216719,-0.154025,0.856447,-0.447181,0.351625,-0.822429
0.262981,-0.871809,0.434165,0.438030,0.825872,0.355058
-0.043034,-0.068698,0.149627,0.709343,-0.662383,0.241000
0.167669,0.257058,0.758673,0.217775,-0.026899,0.975628
-0.548386,-0.478981,0.472810,0.965262,-0.248711,-0.080082
-0.145953,0.134619,0.456463,0.257536,-0.442387,0.859051
-0.362230,-0.253609,0.652766,0.873525,-0.113965,0.473250
-0.311102,-0.238852,0.550915,-0.326002,-0.898486,-0.294017
0.237506,-0.090354,0.807244,-0.691091,-0.525813,-0.495898
-0.161035,0.157926,0.707064,0.616324,0.033058,-0.786799
-0.155374,0.409259,0.008031,-0.128760,0.793609,-0.594648
-0.297302,-0.153375,-0.992846,0.608033,0.080771,-0.789792
0.292613,-0.404555,0.586992,0.924945,-0.379896,0.012453
-0.688678,-0.178884,0.692654,0.475260,0.565749,0.673837
-0.087173,0.723760,0.119278,-0.186137,-0.107832,0.976589
-0.550554,-0.458775,0.532041,0.539185,0.387295,-0.747852
0.145555,0.528896,-0.313236,0.513308,-0.401416,0.758538
-0.179744,-0.451021,0.308080,0.794934,-0.473721,-0.379037
-0.023751,-0.040689,0.019893,0.502256,0.864705,-0.005017
-0.372977,-0.257757,0.703416,0.804874,0.593439,-0.002755
-0.874481,0.028884,0.435918,0.240737,0.559899,0.792817
0.266386,0.194037,-0.108516,-0.103605,-0.189694,0.976362
-0.287263,0.238904,0.851698,0.932133,0.156840,0.326389
-0.742768,-0.122914,0.522910,0.749243,0.248171,0.614041
-0.829855,-0.296772,0.439913,-0.311030,0.763819,0.565544
-0.611765,-0.192587,0.607843,0.309207,-0.762778,-0.567944
0.517515,-0.472128,0.668623,0.251365,0.523225,-0.814280
0.176912,0.250806,-0.097958,-0.247813,0.825388,-0.507270
-0.278815,-0.117114,-0.982736,0.572969,-0.028349,-0.819087
-0.134587,-0.662289,0.666442,0.467839,-0.169024,0.867501
0.288810,-0.536000,-0.921161,0.309765,0.006310,-0.950792
0.329279,-0.198290,0.179508,0.790395,0.176040,-0.586759
0.632640,0.068548,-0.379010,0.154903,-0.089066,-0.983907
0.061211,-0.049041,0.826363,0.060938,0.137083,0.988683
0.022203,-0.029683,-0.591068,-0.295171,0.955434,-0.004536
-0.299558,-0.234202,0.894970,-0.711449,0.692311,0.120604
-0.463910,-0.604470,0.325771,-0.037074,0.409764,0.911438
-0.163644,-0.032935,0.787820,-0.055758,-0.549744,0.833470
0.048606,-0.022033,-0.523032,0.154993,-0.987572,-0.026059
-0.225476,0.269562,0.448290,0.034684,-0.872269,0.487795
-0.685228,-0.439918,0.612083,-0.378019,0.742560,0.552907
-0.237992,-0.262462,0.782112,0.380566,0.844291,0.377282
0.543211,0.096908,0.546350,0.988783,0.036703,0.144778
-0.374303,-0.480181,0.040357,0.398865,-0.025295,0.916661
-0.262538,0.145624,0.832763,0.644546,0.142263,-0.751213
-0.024990,-0.051492,0.424504,0.939856,-0.324072,0.107924
0.221981,0.001424,0.842832,0.995189,0.097262,0.011814
-0.096020,-0.602321,0.578166,0.310603,-0.204376,0.928308
0.571694,-0.102159,0.129571,-0.151423,0.091826,0.984195
0.000708,-0.024784,0.117280,0.809487,-0.566618,0.153867
0.175010,0.127115,0.257409,-0.141518,0.951125,-0.274470
-0.011322,-0.348488,0.055420,0.237124,0.340613,0.909810
0.599380,0.546404,0.009172,-0.597209,0.674072,0.434704
-0.109332,-0.138270,0.845869,0.033428,0.733407,0.678967
0.224988,0.285116,0.608903,0.946896,0.132397,0.293018
0.277709,-0.095956,0.618462,0.848862,-0.299905,0.435304
-0.010836,-0.116613,-0.909686,0.889101,0.065183,-0.453047
0.400841,0.064595,0.658310,-0.169438,-0.045474,-0.984491
-0.179523,-0.557608,0.672924,0.533069,-0.805384,-0.259219
-0.121937,-0.036287,-0.969141,-0.104429,-0.104229,0.989056
0.556391,0.637733,0.341140,0.464807,0.677428,0.570127
-0.371782,-0.145172,0.472463,-0.642914,0.460575,-0.611990
-0.741884,-0.196589,0.754026,0.109753,0.988074,0.107996
-0.927997,-0.043140,0.459358,-0.302809,-0.498268,-0.812426
0.717913,-0.165628,0.153663,-0.306699,0.082776,0.948200
-0.789916,-0.139121,0.705842,-0.426659,-0.419951,-0.801001
0.163910,0.164529,0.053952,-0.142978,0.610647,0.778889
0.265015,0.524095,0.395112,-0.456608,0.137775,-0.878935
-0.219417,-0.220947,-0.976560,-0.371938,-0.021332,0.928012
-0.394428,0.128815,0.795646,-0.392850,-0.730113,-0.559109
-0.555684,-0.355290,0.755941,-0.054898,-0.628132,-0.776168
-0.011101,-0.113112,0.403877,0.953665,-0.299284,-0.030862
0.588545,-0.111961,-0.409176,-0.141078,0.700915,-0.699153
0.035824,-0.113011,0.628939,0.749387,0.660596,0.045080
0.476072,-0.341885,0.278056,-0.303409,0.842643,0.444855
0.049756,-0.040087,-0.448718,0.949831,-0.293007,0.109399
-0.659442,-0.031036,0.711243,-0.545225,-0.402598,0.735285
0.617337,0.114913,0.504627,0.310929,0.458242,0.832669
-0.105971,0.027434,0.857690,-0.428979,0.752912,0.499100
0.257895,0.532148,-0.084607,0.030641,-0.759474,0.649815
0.170323,-0.449772,0.531654,0.926912,-0.007673,-0.375201
-0.535604,0.100858,0.344319,0.473197,-0.044518,0.879831
-0.427333,-0.207793,0.871734,0.694996,0.678332,0.238424
-0.133084,-0.300124,0.929110,-0.568083,0.206193,0.796722
0.010040,-0.124865,-0.127716,-0.181697,0.968411,-0.170784
0.656303,-0.014731,0.532347,-0.145608,-0.143544,0.978873
0.255595,-0.229300,-0.943011,0.241340,-0.117159,-0.963343
0.529722,0.105560,0.629448,0.344795,0.839009,0.420928
-0.269306,-0.128516,0.935531,0.038938,0.680739,0.731491
0.423176,0.193787,0.105887,0.043611,0.152498,0.987341
0.356744,0.069449,0.790408,0.466396,0.866975,-0.175583
-0.570102,-0.440767,0.434838,0.162333,0.495730,-0.853171
0.058824,-0.047591,-0.776038,-0.431283,0.899854,0.065253
-0.027863,0.006427,0.015103,0.748851,0.503332,0.431136
0.046174,-0.019631,-0.546146,0.128536,-0.984975,0.115339
0.004511,-0.183936,-0.937508,0.086482,-0.333644,0.938724
-0.859133,0.024133,0.431067,0.240737,0.559899,0.792817
0.059575,-0.087353,-0.328971,-0.511972,0.854227,0.090446
0.101902,-0.109611,0.863255,-0.202094,-0.590397,0.781402
-0.182884,0.494336,0.195263,0.844213,0.303879,0.441546
-0.315436,-0.728113,0.539909,0.045045,0.010927,0.998925
0.147943,-0.334583,-0.950267,0.203920,-0.193252,-0.959724
0.013799,-0.067696,-0.703681,0.579985,-0.813205,0.048117
0.042813,0.314627,0.007480,0.649008,-0.108785,0.752964
0.033170,-0.043888,0.153072,-0.457670,0.829867,-0.319154
-0.035692,-0.271113,0.941971,0.890482,0.270837,-0.365634
-0.296418,0.266461,0.756553,0.611298,0.748164,-0.258003
0.447722,0.148924,0.912743,-0.660183,-0.187833,0.727239
-0.403626,0.341036,0.821267,0.513300,0.705209,-0.489084
0.685095,-0.055592,0.348029,0.126872,-0.692638,0.710039
-0.648828,-0.210193,0.757919,-0.516756,0.469099,-0.716177
-0.151571,-0.251658,-0.968163,0.211990,-0.033027,-0.976714
-0.707165,-0.152825,0.721597,-0.048976,0.988821,0.140834
0.519150,0.351239,0.094452,0.348123,0.181589,0.919693
0.573375,0.468028,0.329603,0.023773,-0.027181,-0.999348
0.278327,-0.356941,0.598121,-0.154106,0.557923,0.815459
-0.553207,-0.386400,0.765827,-0.622992,-0.425088,-0.656644
-0.181335,-0.114013,0.838592,-0.568623,0.676843,-0.467495
0.010481,-0.643933,0.757368,0.989883,0.117780,-0.079122
-0.059266,-0.091505,0.144980,-0.771954,0.596725,-0.219103
-0.668776,-0.514143,0.641759,-0.424911,0.823922,0.374970
0.506634,0.110010,0.877910,0.639685,0.740407,-0.206399
0.199160,0.108762,0.540500,0.364652,-0.131924,0.921751
0.063379,-0.112312,0.471444,0.018005,0.574776,0.818113
0.047634,-0.126917,0.743895,0.963563,-0.099610,-0.248244
0.160991,-0.452673,0.051139,0.974906,-0.153000,-0.161709
0.287572,-0.255559,0.448412,0.973387,0.223253,0.051730
-0.193144,-0.553404,-0.016489,-0.332546,-0.769931,-0.544628
-0.127068,-0.286368,0.408137,-0.534988,0.818700,-0.208611
-0.018665,0.768925,0.381843,-0.278717,-0.158386,0.947223
-0.265768,-0.214744,0.478721,-0.313073,-0.944626,-0.098319
0.145510,-0.406057,0.612286,0.726192,0.247358,0.641451
-0.250465,-0.712055,0.623558,-0.008236,0.995764,0.091580
0.131093,0.210843,-0.961457,-0.190669,0.114413,0.974964
-0.055595,0.125567,-0.973238,-0.085995,0.190693,0.977876
-0.202035,-0.189086,-0.971730,0.242316,0.182800,-0.952821
-0.264043,-0.580864,0.713505,0.280189,-0.631931,0.722605
-0.348298,0.136319,0.850128,-0.647744,0.683263,0.337017
-0.310615,0.313778,0.839591,-0.530060,0.568250,-0.629387
-0.328439,-0.234502,0.505646,-0.206532,0.978425,0.005414
-0.495666,-0.156675,0.559170,0.764472,0.474426,0.436466
-0.207563,-0.249457,0.452570,0.648818,0.706438,0.282807
0.043653,-0.049542,-0.033223,0.650843,-0.577353,0.493018
0.058204,-0.065846,-0.819861,0.904214,-0.426102,-0.028887
-0.469217,-0.110560,-0.064999,0.354534,0.918477,-0.175228
0.033967,-0.004126,0.033284,-0.098839,-0.944413,0.313551
0.559132,0.536000,0.460112,-0.513303,0.858144,0.010434
0.589385,0.642434,0.303942,0.216676,0.304522,0.927533
0.161832,0.127365,0.089132,-0.280389,0.538374,0.794692
0.322732,0.016731,0.666667,-0.191654,-0.516463,-0.834586
-0.103759,-0.572462,0.721862,0.678276,0.292588,0.674043
-0.241840,0.321929,0.825955,0.904660,-0.144401,0.400922
0.031269,-0.052741,0.734601,-0.653704,-0.666370,0.358639
0.390491,0.235701,0.599446,-0.428579,-0.902396,0.044733
0.439187,0.081302,0.875729,0.699096,0.570274,-0.431339
0.480672,0.118863,0.676797,-0.246456,0.588504,0.770015
-0.280540,-0.420213,0.266194,-0.403344,-0.267017,0.875223
0.230562,-0.877762,0.461375,-0.669050,-0.691970,-0.271200
-0.286068,-0.463275,0.848905,0.977671,-0.210141,0.000597
-0.661876,-0.231650,0.706290,0.465557,0.858306,0.215794
0.477090,-0.016779,0.756492,0.713627,0.410560,0.567607
0.640026,0.133669,-0.389589,0.119666,0.096107,0.988152
-0.639098,-0.170580,0.657515,0.503153,-0.143469,0.852205
0.425519,0.684248,0.325996,0.355129,0.437866,0.825927
0.508093,-0.323480,0.271921,-0.331982,0.763525,0.553911
0.078638,0.130616,0.266500,-0.128630,0.988349,-0.081370
-0.043122,-0.263912,0.061922,0.392120,0.383609,0.836114
0.167492,0.128617,0.747401,0.219382,-0.310637,-0.924866
0.194516,-0.211795,-0.951551,-0.171832,0.082989,0.981624
0.167580,-0.002227,0.053076,0.586614,0.807422,-0.062879
-0.051659,-0.275515,0.865497,0.853465,-0.520809,-0.018852
0.116320,-0.079501,-0.949574,-0.293919,-0.198855,-0.934916
0.041531,0.256210,0.974074,-0.468103,-0.878169,0.098484
0.137948,-0.385900,-0.944988,-0.122123,0.222537,0.967245
-0.352321,-0.263762,0.933879,-0.400089,0.909166,-0.115524
0.529545,-0.097406,0.530370,-0.601631,0.369819,0.708008
0.141530,-0.504688,0.540907,0.167042,0.957269,0.236077
0.391641,-0.328432,0.221617,0.797519,-0.257160,-0.545739
-0.321186,-0.610472,0.715197,0.021701,-0.854041,0.519753
0.073507,-0.185084,-0.953447,0.058601,-0.204886,0.977030
-0.446926,0.174832,0.838001,0.052109,0.975472,0.213867
0.481777,0.103209,0.901900,0.614248,0.063399,-0.786562
0.720301,0.607871,0.304900,-0.380557,-0.475772,0.792980
0.196417,0.220245,-0.441992,0.955944,0.032086,-0.291789
-0.750022,0.134170,0.554115,-0.526915,0.111770,-0.842537
-0.407210,-0.154974,0.501386,0.879831,0.160077,0.447519
-0.002079,-0.068398,-0.260038,0.552755,0.795087,-0.249596
-0.038036,0.520193,0.098508,0.445372,0.192214,0.874470
0.062627,0.381598,0.652216,0.775739,0.504245,0.379430
-0.162273,-0.447071,0.332926,0.766393,-0.601660,-0.225050
-0.437947,-0.356990,0.809873,-0.560974,0.302583,0.770553
-0.001194,0.148374,0.703905,-0.087300,0.086472,0.992422
-0.187396,-0.530649,0.467062,0.232605,-0.938836,-0.253933
0.132641,0.063245,0.214280,0.305579,-0.919104,0.248737
0.263424,0.508440,0.584770,-0.633095,-0.742182,-0.219901
0.216719,-0.279115,-0.943643,0.240993,-0.115875,-0.963585
0.409642,0.084102,0.669113,-0.220965,0.191994,0.956197
-0.287484,-0.236452,0.509172,0.329189,-0.944264,-0.000458
-0.850907,-0.187886,0.334414,0.014785,0.193427,0.981003
-0.481734,-0.343637,0.507032,-0.675874,0.168641,0.717464
0.224547,-0.456772,0.130019,-0.521274,0.199408,-0.829765
-0.217735,-0.188136,0.962639,0.168697,0.778156,0.604991
0.203051,-0.683647,0.404488,0.815113,-0.296172,-0.497868
-0.482088,-0.502289,0.189291,0.224662,0.323117,0.919306
0.512738,0.023282,0.896906,-0.515415,-0.614461,0.597315
0.447147,-0.344886,0.633484,0.762649,-0.243595,-0.599190
0.818620,0.567859,0.478965,-0.157379,0.205891,0.965837
0.712472,-0.128217,0.259162,0.513033,-0.224319,-0.828540
0.242238,-0.060495,0.757470,-0.620004,-0.741039,0.257791
0.721361,-0.044489,0.216298,0.730723,-0.667966,-0.140944
