-0.120313,0.400960,0.484225,-0.176728,0.832061,-0.525778
-0.828051,-0.725967,0.337116,-0.385138,0.681514,-0.622259
-0.823792,-0.647892,0.343653,-0.648512,0.058379,-0.758962
0.355785,-0.474634,0.372567,-0.355835,-0.489233,0.796261
-0.057792,0.821500,0.643576,-0.297181,-0.855047,0.424946
-0.126309,-0.142897,-0.420564,0.889367,0.395071,0.230098
-0.117316,-0.502472,0.784276,0.938144,-0.198085,0.283984
0.465794,0.481705,0.744877,0.883902,0.056461,-0.464252
-0.296473,-0.636668,0.652543,0.968506,0.246938,0.031910
-0.215440,-0.706685,0.464453,-0.069328,0.755717,0.651218
0.106692,-0.371637,-0.375651,0.365933,0.706672,0.605564
0.176261,-0.762656,0.410494,0.150800,0.411119,0.899022
0.272071,0.580845,0.791388,0.225300,0.833192,-0.505006
0.455485,-0.063190,0.058099,-0.650643,0.753239,-0.096405
-0.694747,-0.220579,0.381149,0.795535,0.573911,0.194294
0.110900,-0.442888,-0.962408,-0.052749,0.185148,0.981294
-0.017458,0.102801,0.761772,-0.857308,0.423228,0.293089
-0.203189,0.682704,0.464230,0.118614,0.978335,-0.169680
0.024134,-0.719541,0.472269,0.337637,-0.074005,-0.938362
-0.619394,0.020027,0.358949,0.177182,-0.025707,0.983842
-0.010728,-0.278778,-0.102180,0.832091,-0.530327,0.162414
-0.350213,-0.002173,0.744893,0.218364,-0.794843,0.566164
0.001102,0.204017,0.979653,-0.576136,-0.707998,0.408419
-0.243414,-0.193629,0.344388,0.235966,0.509274,0.827623
-0.769314,0.010385,0.583655,0.835269,-0.465186,0.293136
0.338592,0.199864,0.754419,0.392562,-0.714863,0.578677
-0.098440,0.635929,0.371528,-0.342905,-0.050285,-0.938023
0.860964,-0.246241,0.559681,0.971791,0.104744,-0.211308
-0.391703,-0.179982,0.499920,0.323245,-0.715311,0.619551
-0.422623,0.483881,0.710066,-0.587013,0.608897,-0.533536
0.702896,0.479381,0.615110,0.864211,0.128902,-0.486337
0.477255,-0.258207,0.465237,0.242336,0.915495,0.321158
0.087236,-0.149525,-0.977783,-0.080848,0.134105,0.987664
-0.994637,-0.604974,0.390052,-0.636376,0.021572,-0.771078
-0.419048,-0.236846,0.665170,0.665330,-0.330097,0.669605
0.137981,-0.156448,0.146933,-0.412356,0.879973,-0.235818
0.814638,-0.615702,0.512307,-0.408905,0.348981,-0.843214
0.677865,0.394532,0.599127,0.736996,-0.286430,-0.612205
0.070672,0.320362,0.377969,-0.774964,-0.615584,0.143135
0.194825,0.394532,0.249417,0.247565,0.934875,-0.254402
-0.258874,0.404965,0.769523,0.870486,0.216836,-0.441855
-0.516748,-0.625740,0.341463,0.985317,-0.064344,-0.158145
-0.009152,-0.285601,-0.389876,-0.595794,0.802519,0.031519
-0.397855,-0.065761,0.566985,0.798004,0.250915,-0.547933
0.512383,-0.539309,0.602484,0.129527,0.312633,0.941001
-0.034655,0.582873,0.397261,0.252528,0.967547,0.009094
0.011094,-0.065909,0.574274,0.904777,0.425781,-0.009400
-0.080297,-0.351414,-0.102260,-0.171320,0.778863,0.603342
-0.216017,0.098548,0.189640,0.819019,-0.233117,-0.524275
-0.427145,-0.079409,0.699741,0.918137,0.096941,-0.384221
0.501551,-0.563190,0.536793,0.894170,-0.134575,0.427023
0.003943,-0.402342,-0.134274,0.956343,-0.248751,0.153396
-0.738130,0.136225,0.613209,0.303535,0.506373,0.807126
0.523478,-0.688734,0.417607,-0.614929,0.644347,0.454620
-0.304045,0.460987,0.812023,-0.498046,0.209089,-0.841565
-0.073830,-0.050880,0.599175,0.639319,-0.658974,0.396264
0.366039,-0.139288,0.692405,0.120645,-0.152761,0.980871
-0.392861,-0.721222,-0.458971,-0.492665,0.533087,0.687822
-0.083401,-0.306169,-0.807244,0.229909,0.833524,0.502375
0.578849,0.069374,0.704616,0.279217,-0.083956,0.956551
-0.201138,0.375989,0.810312,-0.552819,0.284340,-0.783289
0.145132,-0.465288,0.752853,0.815662,0.578186,0.019879
-0.091867,0.132962,-0.031471,-0.305556,-0.687069,-0.659220
-0.677291,0.134544,0.348752,-0.040393,0.743914,0.667054
0.540357,0.433644,0.759150,0.128408,-0.611564,0.780705
-0.045856,0.110662,0.707029,0.811422,-0.554410,0.184998
-0.210183,-0.251284,0.479813,0.871517,-0.314503,0.376227
-0.000894,0.693041,0.326056,0.970340,0.169142,0.172718
0.184150,0.551821,0.791900,0.026963,-0.709680,0.704008
0.403112,-0.048408,0.778522,0.225728,0.973667,-0.031936
0.269231,-0.126531,0.597673,-0.198033,-0.734284,-0.649315
0.169479,0.127820,0.872710,0.032263,-0.552962,0.832582
0.262921,-0.136816,0.053176,0.729880,-0.679292,0.076402
-0.503393,-0.022399,0.338171,0.491980,0.780463,0.385788
0.469896,0.658823,0.734025,-0.621668,0.579063,-0.527460
-0.085872,-0.793560,-0.392897,0.137914,-0.034635,0.989838
-0.621025,-0.287973,0.442860,-0.294447,0.721925,-0.626199
-0.137458,0.129648,-0.095867,0.765017,-0.640997,0.062226
-0.247936,0.336433,0.638126,0.127492,0.483431,0.866049
0.130568,0.497429,0.777563,-0.103448,-0.115781,0.987873
-0.077563,0.736898,0.627290,0.214557,-0.081362,-0.973317
-0.002261,-0.143344,0.346530,0.946308,0.185320,-0.264875
-0.215019,0.237688,0.633203,-0.534475,0.372803,-0.758521
0.715834,-0.441603,0.571237,0.826143,-0.271745,0.493602
-0.043487,0.325852,0.407857,-0.054022,0.228516,0.972040
-0.022455,-0.261421,-0.052201,-0.186377,0.981400,0.046019
-0.115213,-0.262112,0.244829,-0.047658,0.697324,0.715170
-0.855762,0.102653,0.620257,0.466723,0.409336,0.783973
0.593047,0.348994,0.742799,-0.504959,0.330981,-0.797163
0.285323,-0.602846,0.019196,-0.140693,-0.303687,-0.942327
0.273702,0.211978,0.779081,-0.393372,0.895384,-0.208676
-0.463849,-0.017305,0.664194,0.904769,-0.244650,-0.348625
-0.039228,-0.320954,-0.340584,0.996343,0.058751,-0.062033
0.184465,-0.787726,0.481556,-0.260255,-0.386962,-0.884606
-0.055529,-0.009295,0.543985,0.821931,0.544468,-0.167285
-0.354421,-0.420193,0.695681,0.227456,0.938692,-0.259078
-0.392755,-0.327186,0.764377,0.026672,0.809326,0.586754
0.016877,0.706093,0.648004,-0.510891,-0.726481,0.459581
0.002996,-0.267107,-0.583240,-0.374955,0.924357,0.070521
-0.790451,-0.556418,0.346242,0.540852,-0.020509,0.840868
0.020350,-0.259840,-0.057635,-0.185758,0.975402,0.118679
-0.130674,0.008456,-0.443787,0.763899,0.018961,0.645057
0.205025,0.763202,0.673577,0.332674,0.711379,-0.619087
-0.009572,0.059089,0.768229,0.860129,-0.422822,-0.285307
-0.556661,-0.099288,0.663124,-0.070775,-0.838014,0.541040
-0.300418,0.244216,0.201579,-0.608843,0.705865,0.362029
-0.234369,-0.347853,-0.984544,-0.231387,0.096924,0.968022
-0.190727,-0.785601,0.657402,0.498004,-0.293344,0.816052
-0.755378,-0.750445,0.133251,0.004052,0.788724,0.614734
0.298100,0.008456,0.805997,0.374526,0.803415,-0.462876
-0.075881,-0.521557,0.603123,0.861557,-0.022430,0.507164
0.295944,0.327334,0.344404,0.050530,-0.994598,-0.090677
0.455697,0.175189,0.169133,0.400782,0.853774,-0.332330
0.231792,-0.602550,0.193699,-0.295592,0.327386,-0.897465
0.282432,0.426078,0.271218,-0.018538,0.689344,0.724197
-0.237524,-0.077628,0.310616,0.920178,0.237425,-0.311290
-0.571858,-0.192395,0.583608,-0.445626,-0.553914,-0.703276
0.306147,-0.091426,0.718873,0.745002,-0.296956,0.597318
0.007993,-0.067988,-0.575904,0.995185,-0.094275,-0.026811
-0.028871,-0.062994,-0.594828,0.976560,-0.053008,-0.208617
-0.707579,-0.200700,0.547214,0.750346,-0.461622,0.473166
-0.120262,-0.410599,-0.060001,0.416032,0.888974,0.191424
-0.121681,0.802366,0.376690,0.716893,0.660295,0.223772
0.390178,0.058298,0.912125,0.679383,0.460926,-0.570952
-0.288164,-0.387856,-0.981156,-0.074771,0.148628,0.986062
0.103434,0.808794,0.645958,0.623216,0.157634,-0.765998
0.163115,0.609920,0.623182,0.988806,0.039968,-0.143752
-0.374246,-0.122179,0.724835,0.741996,-0.656297,-0.136810
0.009675,-0.271559,0.060224,0.372405,0.897502,-0.236230
0.381711,0.242487,-0.021513,-0.489123,0.087069,0.867858
0.358468,0.263202,-0.028610,0.425970,-0.033084,-0.904132
0.522162,-0.332573,0.251287,0.857834,-0.463550,-0.221905
-0.256351,0.154670,0.814660,0.959638,0.110984,-0.258414
-0.703634,-0.847358,-0.170492,0.178234,0.484095,0.856671
0.081083,-0.319025,0.733561,0.949558,0.306739,-0.065197
-0.864174,-0.763202,0.329061,-0.464615,0.743038,-0.481693
-0.430351,-0.470826,-0.042275,-0.650687,0.166571,0.740852
-0.768049,-0.761026,0.152271,-0.067744,0.790587,0.608590
0.014881,-0.339991,0.038503,0.129976,0.988004,-0.083395
-0.159437,0.369959,0.604865,0.439731,0.678088,0.588926
0.163169,-0.365505,0.829636,0.816989,-0.490110,-0.303844
0.279116,0.692941,0.630566,-0.622075,-0.472051,-0.624652
0.392649,0.416882,0.724611,0.483992,-0.252118,-0.837966
-0.301416,0.155461,0.677668,0.768520,0.602501,-0.215335
0.665823,-0.144777,0.214158,-0.421644,0.517172,0.744815
0.554976,0.586630,0.667055,0.917439,-0.344415,0.199206
-0.064259,-0.632564,0.606000,-0.680243,-0.263320,-0.684056
-0.000002,-0.074565,0.364016,0.863075,-0.456247,0.216659
-0.718411,0.043169,0.614615,0.315133,0.633646,0.706530
-0.104067,-0.414655,0.243966,-0.741480,0.504138,-0.442778
0.280118,0.473348,0.670236,-0.436373,-0.417044,0.797278
0.018825,0.072093,0.917175,-0.564228,0.735471,-0.375139
-0.813695,-0.131477,0.128440,-0.193812,-0.262561,-0.945251
-0.422572,0.025070,0.519292,-0.579804,-0.051377,-0.813134
-0.006520,-0.806220,0.432120,-0.648549,0.282982,-0.706616
-0.002894,-0.274079,-0.430937,-0.396036,0.916857,0.050284
-0.058684,-0.288912,0.197903,0.892366,-0.451182,-0.010858
-0.153339,-0.065366,-0.986542,-0.110366,0.123157,0.986231
-0.393227,0.689479,0.720615,-0.710324,-0.030410,-0.703217
0.413944,-0.645864,0.574146,0.109146,-0.289155,0.951040
-0.195615,0.414163,0.647029,0.218269,-0.532607,0.817734
-0.229796,-0.467017,0.049484,0.504787,0.859440,0.080952
-0.142664,0.801971,0.383355,0.358562,0.481144,-0.799959
-0.680288,0.094245,0.373797,-0.162813,-0.296836,-0.940946
-0.688752,0.131429,0.234504,0.454340,0.037895,-0.890022
-0.535784,-0.121735,0.272688,-0.647052,0.750441,0.134767
-0.491720,-0.354233,0.776268,-0.412816,0.908937,0.058452
-0.000685,-0.460739,0.718505,0.085001,-0.157172,0.983906
0.004626,0.734031,0.790285,0.148285,0.960003,0.237497
-0.367830,0.054640,0.762619,0.812609,0.574228,-0.099643
0.502235,0.054836,0.730045,0.367430,-0.189083,-0.910628
0.100594,-0.196547,0.679730,0.064647,-0.907221,-0.415656
-0.422780,-0.040990,0.683854,-0.139985,-0.071921,0.987538
-0.542938,-0.482197,0.402231,0.998979,-0.042139,-0.016300
0.017403,-0.126926,0.469344,0.884589,0.344383,-0.314489
0.021505,0.375742,0.816626,-0.515844,0.052619,-0.855065
0.013145,-0.083513,0.483138,0.608435,0.790636,-0.068574
0.324813,0.505538,0.685692,0.654316,0.639251,-0.404017
0.013250,0.184337,0.986446,-0.534426,-0.686476,0.493091
-0.434296,-0.093255,0.675031,0.429306,0.617122,-0.659437
-0.258874,0.318585,0.755346,0.828515,0.222001,0.514079
0.417311,0.253563,0.282614,-0.582700,0.229503,0.779608
-0.041334,0.910602,0.759838,0.699641,0.231121,0.676081
-0.419574,0.489814,0.706870,-0.440084,0.625393,-0.644368
-0.618817,0.043513,0.228159,-0.103440,-0.212315,0.971711
-0.773098,-0.653529,0.109820,-0.007275,0.727777,0.685776
-0.683707,-0.346271,0.417159,-0.690313,0.722599,0.036328
0.937267,-0.119412,0.252325,0.210127,0.596246,0.774815
0.433557,0.305034,0.557379,0.809831,-0.582162,0.072530
0.011042,0.150566,0.735831,0.186950,-0.971627,0.144884
-0.135931,-0.092217,-0.985567,-0.114587,0.352874,0.928628
-0.259243,-0.607246,0.657466,0.081499,-0.237597,0.967939
-0.123260,0.783081,0.623022,-0.017154,-0.508537,0.860869
0.419256,-0.235117,0.524790,-0.061410,-0.951433,0.301670
-0.621917,0.284120,0.524134,0.800724,-0.287874,0.525329
-0.149972,-0.325502,0.390548,-0.366322,0.907655,-0.204866
0.170214,0.258606,0.813637,-0.048194,0.464022,0.884511
-0.571489,-0.425284,-0.049212,-0.443789,0.388940,0.807327
-0.121735,0.020622,0.430010,0.722552,0.303788,-0.620993
-0.009572,0.948924,0.725426,0.772652,-0.327860,0.543615
0.145501,-0.810668,0.435732,0.858007,-0.426568,-0.286119
0.000104,0.474734,0.829620,-0.130816,0.978190,-0.161341
0.149706,0.400616,0.564188,0.783080,0.302768,-0.543247
-0.682760,-0.674444,0.113160,-0.033270,0.822014,0.568495
-0.324710,0.734426,0.729630,-0.607119,0.175849,-0.774909
-0.768839,0.078473,0.350110,-0.189657,0.567414,0.801293
-0.206238,-0.641612,-0.387974,-0.713816,0.698165,0.055066
0.103643,0.717269,0.631893,-0.329322,-0.930190,-0.162155
-0.378977,-0.778530,-0.400985,0.823987,-0.492937,-0.279389
-0.086819,0.437948,0.494981,-0.269860,0.898665,-0.345799
-0.129149,0.327138,0.557347,0.947483,0.306669,-0.090716
-0.167692,0.097411,0.729518,-0.183527,-0.583000,0.791472
-0.583426,-0.076294,0.260876,0.470366,0.691882,-0.547772
-0.289217,0.755736,0.678787,-0.714639,-0.070887,-0.695892
-0.149658,-0.068136,0.631030,-0.703421,0.231343,-0.672071
-0.540360,-0.590041,0.383131,0.939851,0.251179,-0.231496
-0.272598,-0.919155,0.424096,0.344969,-0.937415,-0.047435
0.034809,0.697045,0.638526,0.562856,0.760486,0.323811
-0.418784,-0.754151,0.497922,0.321155,0.745938,0.583469
0.134615,-0.442294,0.584279,0.486857,0.465615,-0.739036
-0.191831,-0.255736,0.475354,0.871517,-0.314503,0.376227
0.406530,0.298310,0.863504,-0.257596,-0.018385,0.966078
-0.398539,0.401654,0.733481,0.664985,0.512435,0.543329
0.540357,0.186413,0.554470,0.193831,0.747669,0.635154
-0.560185,-0.374504,0.608046,0.185259,0.540481,0.820706
-0.170690,0.023093,0.576128,-0.517030,0.715545,-0.469761
0.008516,-0.721566,0.465940,-0.451624,-0.095857,0.887044
0.553821,-0.372823,0.276556,-0.078608,0.514322,0.853987
-0.636537,0.224636,0.584487,-0.268019,-0.533522,-0.802197
0.107481,0.434091,0.543266,0.822570,0.317274,-0.471928
-0.015513,0.474882,0.405907,0.555100,-0.366615,-0.746630
-0.467110,-0.724681,-0.203769,-0.175309,-0.421842,-0.889560
-0.472001,-0.561904,0.696512,0.052840,0.904995,0.422127
0.193458,0.055627,0.393936,0.673600,-0.620312,-0.401841
-0.617186,-0.495944,-0.218553,-0.352736,0.141110,-0.925022
-0.023665,-0.297516,-0.084631,0.742285,-0.669980,-0.011844
0.074828,-0.009986,-0.282965,0.584748,-0.751103,-0.306454
-0.052060,-0.182701,-0.131557,-0.731889,0.568746,0.375321
0.113214,-0.515820,0.572915,-0.385619,-0.634551,0.669808
0.666982,0.084307,0.776955,-0.132651,0.271498,0.953254
-0.047695,-0.043957,0.523991,-0.716414,-0.696883,0.033243
0.453331,-0.691109,0.552281,-0.251533,0.375155,-0.892183
-0.136932,-0.155407,-0.965860,-0.038530,0.725873,0.686748
0.030498,0.401258,0.410910,0.392251,-0.144545,-0.908431
0.348056,-0.233584,0.516654,0.046638,0.917887,-0.394093
-0.161645,-0.313735,0.312838,-0.052836,-0.507623,0.859958
-0.157492,-0.317691,0.771729,0.804335,0.201696,0.558895
0.171899,0.715141,0.546735,-0.011662,0.182973,0.983049
0.143344,-0.176719,0.183150,0.666994,-0.734134,0.127146
-0.236947,0.108535,0.342119,-0.672708,0.649712,0.354031
-0.420993,-0.375099,-0.441806,0.028929,0.858392,-0.512179
-0.168587,-0.138449,0.869817,0.803031,0.470155,0.366190
-0.624758,0.031646,0.613065,0.769621,-0.457403,-0.445494
0.324656,-0.355271,0.472237,0.732526,-0.263190,-0.627803
0.282063,0.528680,0.789422,-0.120571,-0.759664,0.639041
0.159068,-0.357100,-0.422258,0.089010,0.982157,0.165665
-0.556661,0.253807,0.326040,-0.255137,0.832342,0.492049
-0.228849,0.692793,0.392130,0.552212,-0.381727,-0.741179
-0.302783,0.413668,0.658632,-0.301157,0.841962,-0.447666
-0.127255,0.320661,0.597225,-0.550261,-0.633085,0.544442
-0.487301,0.045146,0.465109,-0.229392,0.973334,0.000170
-0.167535,-0.461678,0.803599,0.824773,-0.484767,-0.291121
0.208340,-0.762707,-0.296967,0.987094,0.083210,0.136825
-0.443867,-0.135826,0.397676,0.149577,-0.026089,-0.988406
-0.194511,0.028580,0.001726,-0.061459,0.000187,0.998110
0.753484,-0.568136,0.523080,0.258728,-0.410329,0.874466
0.500078,0.103296,0.452418,0.343609,-0.458977,-0.819313
0.038702,0.199617,0.997155,0.826398,0.555776,-0.090443
0.465425,0.411592,0.593421,0.569706,-0.628075,0.530054
-0.367355,0.165351,0.721894,-0.017242,0.195628,0.980527
0.501288,-0.208809,0.223428,0.767000,-0.375288,-0.520452
-0.432877,-0.092612,-0.061647,0.896215,-0.443619,0.000671
0.659674,-0.408671,0.522968,-0.096464,0.548755,0.830399
0.502918,-0.738675,0.368219,0.495231,0.839065,-0.225202
-0.508914,0.098153,0.405316,0.958841,-0.188007,-0.212783
0.057054,-0.301126,-0.236662,-0.540747,0.786328,0.298800
0.025450,-0.259197,-0.239843,-0.729885,0.683065,0.026285
0.358153,0.419107,0.230748,0.952617,-0.301560,-0.039780
-0.805228,0.234474,0.235239,-0.184852,-0.319006,0.929551
-0.142452,-0.089298,-0.065755,-0.642534,0.703003,-0.304856
0.024923,-0.273831,-0.615126,-0.573709,0.810668,-0.116941
0.584793,-0.536342,0.605233,-0.646873,0.152008,-0.747295
0.099541,0.464696,0.878704,0.810025,-0.479184,0.337996
-0.342222,0.034269,0.555078,-0.378287,0.465733,0.799995
0.209075,0.073677,0.735847,-0.255155,-0.237420,-0.937298
-0.002894,0.028236,0.562062,0.915457,0.286957,-0.282125
0.321501,-0.656249,0.022296,-0.140693,-0.303687,-0.942327
-0.211024,-0.496487,0.716124,-0.369235,0.570579,0.733557
-0.134198,0.017012,0.929339,-0.567492,0.771606,0.287364
-0.508021,-0.001135,0.333216,-0.497947,-0.844395,-0.197599
-0.024609,0.385137,0.808650,-0.279074,0.279464,0.918704
-0.607141,0.088212,0.627945,0.959157,0.267838,0.090997
-0.135773,0.325309,0.541380,-0.480595,-0.245144,-0.841981
-0.818846,-0.357495,0.456430,-0.342770,0.893884,-0.288929
-0.131778,0.202484,0.331682,0.983025,0.017026,-0.182680
0.119103,0.293020,0.801505,-0.380828,-0.633765,0.673284
0.180154,-0.217365,0.765528,0.231030,0.181464,0.955874
0.270967,-0.277245,0.432088,0.032338,-0.995939,-0.084018
-0.226166,-0.664557,-0.413931,-0.654993,0.750555,0.087473
-0.029712,-0.290149,-0.336029,0.941082,-0.334631,-0.048867
-0.353211,-0.231752,0.625116,0.981464,0.175734,0.076465
-0.783301,-0.416979,0.055366,0.536958,-0.065886,0.841032
-0.776834,0.096719,0.613400,-0.275779,-0.555691,-0.784317
0.578746,-0.485807,0.582409,-0.369781,-0.135016,0.919257
0.015089,-0.283721,-0.166688,0.977764,0.023569,-0.208380
-0.326710,-0.230370,-0.991561,-0.101726,0.116996,0.987909
-0.012936,0.092712,-0.354681,0.218527,0.966404,-0.135314
0.322554,0.013400,0.767254,0.949854,0.244579,0.194830
0.739179,0.129648,0.696081,0.319220,-0.067957,0.945241
0.084819,0.677809,0.810328,-0.190205,0.287921,0.938575
0.170426,0.760236,0.659559,0.774916,0.615948,-0.141823
-0.524111,-0.132811,0.664211,0.442450,0.859295,-0.256612
-0.323712,-0.406893,0.794825,0.090066,0.988445,0.121921
-0.557554,-0.614516,0.379439,0.980405,0.170091,-0.099371
0.044642,0.205103,0.982019,0.869869,0.493282,-0.000940
0.134772,-0.439873,0.582617,-0.399793,-0.597885,0.694766
-0.158805,-0.724385,0.674696,0.969183,-0.145506,0.198778
0.760109,-0.155853,0.540677,0.249030,0.127021,-0.960130
0.103380,0.626781,0.809881,-0.666801,0.053965,-0.743280
0.427668,-0.664062,0.555334,-0.251943,0.097992,0.962768
-0.573120,0.040151,0.552073,-0.361597,0.659477,-0.659043
-0.408004,-0.080251,0.714334,0.470303,0.858447,0.204657
-0.085766,-0.112488,0.014896,-0.080483,0.047132,0.995641
-0.025453,-0.482988,0.726129,0.230826,-0.008095,0.972961
-0.198718,0.153285,0.740977,-0.014501,-0.462327,0.886591
0.623127,0.067101,0.763226,0.355107,0.867248,-0.348971
0.180100,-0.921083,-0.270626,0.989403,-0.143639,0.021199
0.497607,-0.516910,0.275533,-0.299346,-0.185901,-0.935860
-0.147658,-0.024572,-0.988652,-0.057455,0.129011,0.989977
0.504549,0.516418,0.515152,-0.174380,-0.737883,0.652013
-0.223852,0.423410,0.567161,0.442866,0.895974,0.033162
0.033653,0.164310,-0.717259,-0.468303,0.139612,0.872468
-0.724089,0.035208,0.373605,-0.108979,0.130202,0.985480
-0.670137,-0.455102,0.641994,0.037143,0.768408,0.638882
0.078981,0.398636,0.849934,-0.800176,0.376561,0.466819
0.069304,-0.873714,-0.589554,-0.025328,0.736398,0.676074
0.391648,-0.053647,0.857031,0.499866,0.852902,0.150638
-0.225851,0.340981,0.804191,-0.106146,-0.736506,0.668051
-0.093706,-0.006181,0.723796,-0.397626,0.094032,-0.912716
0.067202,-0.328815,0.072228,-0.585920,-0.785926,0.197529
0.057423,0.495552,0.326855,0.613750,0.666500,-0.423190
-0.452385,0.343800,0.123118,-0.065925,0.238959,0.968789
-0.048853,-0.163121,-0.974235,0.182346,0.217891,0.958788
-0.674871,-0.748812,0.271473,-0.072365,-0.883845,0.462149
0.075720,0.955449,0.665553,0.663700,0.563368,0.492056
0.148444,-0.399575,0.806620,0.911310,0.392910,-0.123027
0.044642,-0.337767,0.810392,0.134300,-0.169642,0.976312
-0.154809,-0.184729,-0.926254,-0.766703,0.625384,0.145129
-0.238263,0.355965,0.728974,-0.694540,-0.694976,-0.186071
-0.448652,-0.066552,0.735064,0.804086,0.578730,0.136082
-0.325551,0.786196,0.685948,-0.442388,-0.816062,0.371934
-0.087974,0.208665,0.352460,-0.739897,0.522642,0.423555
-0.034391,0.542327,0.440990,0.811485,0.584372,0.001255
-0.596941,-0.269135,0.629367,-0.783696,-0.121922,-0.609061
-0.720831,-0.722755,0.333983,-0.188464,-0.294651,-0.936836
0.708786,-0.294897,0.598951,-0.638686,0.138319,-0.756934
-0.107379,0.046975,0.636256,-0.508468,-0.660524,0.552420
0.541304,0.210394,0.703513,-0.124231,0.197490,0.972401
-0.676553,-0.286836,0.440767,0.730747,-0.646759,0.218430
0.248671,-0.067542,-0.160183,-0.048591,0.160546,0.985832
0.734606,0.037085,0.508311,-0.119445,-0.017588,0.992685
0.064939,0.542475,0.787648,0.925876,-0.293118,0.238401
-0.381711,0.022399,0.775645,-0.086090,0.987071,0.135199
0.445234,0.362837,0.520362,0.405736,0.620223,0.671343
0.891991,-0.248022,0.216268,0.045918,0.240391,-0.969589
-0.077248,-0.309630,-0.742768,0.933418,-0.356933,0.036450
0.050638,0.155905,0.940655,-0.633116,-0.628966,0.451183
-0.513856,-0.071942,0.669916,-0.298783,-0.516885,0.802221
-0.763424,-0.248960,0.546527,0.819533,-0.444449,0.361705
-0.187886,-0.259840,0.342183,-0.457939,0.202613,-0.865587
-0.043805,0.879351,0.725618,0.714228,-0.240948,0.657132
0.163115,0.587569,0.601988,0.906076,0.403303,-0.127953
-0.291162,0.451296,0.817521,0.137533,-0.187315,0.972624
-0.620447,-0.430822,0.434182,-0.366703,-0.720645,-0.588387
0.041173,0.105173,0.979302,-0.720452,0.452238,-0.525766
-0.465849,0.881431,0.681217,-0.576067,-0.732544,0.362667
0.117736,-0.308692,0.747019,0.710526,0.639472,-0.293646
0.561498,0.115558,0.727216,-0.063005,0.859341,0.507508
-0.425726,0.080450,0.439600,-0.508572,0.808516,0.296067
-0.010256,0.570859,0.342646,-0.733268,-0.581954,-0.351636
0.523427,-0.333762,0.647316,-0.634102,0.176713,-0.752786
-0.835516,0.086039,0.615366,0.459723,0.512090,0.725547
-0.635012,-0.043957,0.408736,0.756060,-0.452546,-0.472837
0.084764,0.482252,0.328022,-0.614935,-0.649597,0.447078
-0.111638,0.219445,-0.115958,0.794274,-0.604356,0.062317
0.470104,0.080401,0.009718,0.839241,-0.282937,-0.464351
0.593680,-0.087222,-0.118867,0.814347,0.003611,-0.580367
-0.300049,0.175041,0.474363,0.369533,-0.835913,-0.405825
0.835673,-0.377571,0.607135,-0.623352,-0.669085,-0.404670
-0.328970,-0.209751,0.533325,-0.561716,-0.702644,-0.436768
-0.397804,0.803800,0.688633,0.926950,0.212117,0.309467
-0.022927,0.470629,0.309353,-0.590921,-0.199908,0.781568
0.248985,0.012956,0.289502,0.269272,0.069785,0.960533
0.133774,-0.245152,0.712112,0.407087,-0.767077,-0.495857
-0.348952,0.164162,0.305565,0.388865,0.607625,0.692514
-0.778201,-0.240999,0.620736,-0.523554,-0.182254,0.832271
-0.545829,-0.440069,0.643896,-0.604036,0.779167,0.167447
0.475628,-0.440516,0.588722,0.877809,0.451512,-0.159963
0.447808,-0.086875,0.783844,0.783824,0.001857,-0.620980
-0.531525,-0.613330,0.389812,0.950906,0.277552,-0.136902
0.245728,-0.807602,-0.289566,0.998778,0.009896,0.048422
-0.180523,-0.097803,-0.008551,-0.164503,0.003835,0.986369
-0.062892,-0.304636,-0.574513,-0.649543,0.759416,0.037162
0.292317,0.749754,0.621680,-0.687182,-0.363464,0.629027
0.105010,0.887759,0.639197,0.158530,-0.525983,0.835590
-0.420100,-0.073623,0.705095,0.923102,0.339784,-0.180080
-0.641534,-0.106851,0.544673,0.044304,0.034920,0.998408
-0.281697,0.602653,0.411102,0.039558,-0.982015,0.184615
-0.124152,-0.251332,0.763562,0.920523,0.235002,0.312109
-0.324659,0.060921,0.524566,0.177088,-0.799159,0.574444
-0.112322,0.730768,0.383595,-0.520050,-0.118497,-0.845876
-0.363937,-0.192543,0.625995,0.983877,0.157423,0.084880
-0.529265,-0.288121,0.435508,0.588258,-0.100952,0.802348
-0.308409,0.524675,0.674440,-0.290731,-0.012512,-0.956723
-0.650944,-0.734474,0.335310,-0.579437,-0.238463,0.779351
0.600673,-0.473348,0.595067,0.160817,-0.302561,0.939465
-0.323131,-0.114764,0.585653,0.902818,-0.091731,0.420124
0.402060,0.316110,0.871064,-0.257596,-0.018385,0.966078
0.491403,-0.405112,0.271649,0.093002,0.497169,0.862655
-0.524637,0.171332,0.676533,-0.770723,0.613324,0.172683
0.041330,-0.220429,-0.099783,0.849823,-0.467845,0.242738
-0.381711,-0.167720,0.725554,0.909094,-0.398187,0.122451
0.129094,-0.156940,0.137183,-0.397156,0.886406,-0.237807
0.448228,0.337718,0.545568,0.981603,-0.139302,-0.130575
-0.152864,0.787334,0.395167,-0.669840,-0.275894,-0.689345
0.290738,0.034317,0.827574,0.338972,0.737880,-0.583636
0.851920,-0.350868,0.569447,-0.544566,-0.832937,-0.098303
0.231949,0.718455,0.643944,-0.657449,0.656471,-0.369874
-0.350425,0.491200,0.524950,0.898229,-0.204122,0.389255
0.234947,0.402593,0.637423,0.144476,-0.812830,0.564300
-0.483883,0.031845,0.261803,0.066321,0.962738,0.262178
-0.273282,-0.370747,-0.982179,-0.073930,0.140525,0.987313
-0.314668,0.661591,0.659927,-0.071857,-0.568571,0.819490
0.194035,0.860513,0.698814,-0.183193,0.470705,0.863062
-0.449387,-0.873714,0.348879,0.408494,-0.207708,-0.888814
0.403796,0.127077,0.355768,0.725805,0.391575,-0.565576
-0.887048,0.109325,0.236119,0.234728,-0.074526,0.969200
0.560445,0.104977,0.016654,0.839241,-0.282937,-0.464351
0.336647,0.357003,0.633843,0.077766,-0.963974,0.254375
0.121680,-0.265921,-0.973260,-0.043076,0.143665,0.988688
0.156279,-0.029962,0.752613,0.094601,0.587683,0.803542
-0.179946,0.040794,0.688409,0.695498,0.677439,-0.239496
0.217593,0.801129,0.617028,0.725043,0.287379,-0.625880
-0.453331,-0.301868,0.657226,-0.044258,0.354891,0.933860
0.233737,0.708417,0.642857,0.613447,-0.589524,0.525495
0.271494,0.061959,0.089969,-0.561027,-0.674528,0.479855
0.104959,-0.744165,0.419349,0.281364,0.283785,0.916679
-0.053796,-0.288221,-0.397564,0.700354,-0.710216,-0.071395
-0.910503,-0.006428,0.390739,-0.457147,-0.634863,-0.622869
-0.417574,0.593355,0.671611,0.444355,-0.888820,-0.112016
0.699953,-0.117187,0.550091,0.168072,0.322296,0.931599
-0.314405,0.477601,0.541141,0.419260,0.859995,-0.290912
-0.400484,-0.522248,0.282198,0.311820,0.941411,-0.128508
-0.033393,-0.078123,0.571349,0.841189,-0.334978,0.424489
-0.535363,-0.055476,0.661973,0.182097,-0.978303,-0.098808
-0.718623,-0.232446,0.564955,0.848627,-0.481713,-0.218599
-0.228323,-0.103984,0.159831,-0.655538,0.585772,-0.476593
0.164537,-0.509591,0.774670,0.985148,0.090115,0.146162
-0.223643,-0.320263,-0.067832,0.435487,0.792672,0.426641
0.771047,-0.156644,0.256337,-0.689808,0.415582,0.592838
-0.780252,-0.234522,0.230253,-0.244131,0.951005,-0.189711
-0.029763,-0.211677,-0.683742,0.833469,-0.493066,-0.249429
0.195980,-0.755636,0.397484,0.078208,0.355589,0.931364
-0.391966,0.683495,0.728942,-0.710324,-0.030410,-0.703217
-0.007364,0.209012,-0.044209,-0.532656,0.656890,-0.533642
-0.497924,0.052365,0.250168,-0.133910,-0.967530,-0.214370
0.679865,-0.369214,0.537640,0.419561,0.561729,-0.713042
0.086081,-0.034857,-0.310073,0.965917,-0.164613,-0.199767
-0.305569,0.148290,0.543442,-0.137107,-0.916855,0.374937
-0.585476,0.191061,0.266263,0.994215,0.061289,0.088210
-0.274440,-0.178449,-0.067641,0.198804,0.346433,0.916767
-0.347954,0.075060,0.542275,-0.308269,0.427692,-0.849735
-0.233898,-0.036934,0.402567,0.758611,-0.014637,-0.651379
-0.251409,-0.808296,-0.189080,-0.357642,0.675835,0.644469
0.171476,0.768592,0.657801,0.916791,0.074629,0.392332
0.150075,-0.482496,-0.344261,-0.123886,0.334365,0.934266
0.025398,0.562402,0.351277,0.754461,0.468395,0.459777
-0.096547,-0.460045,0.623981,0.713015,0.062811,0.698330
0.163276,-0.151701,0.505354,0.397573,0.628971,-0.668080
-0.523742,0.073774,0.565403,0.823898,0.069652,0.562442
0.393121,0.228987,0.867212,0.364168,-0.043605,-0.930312
-0.648999,-0.704213,0.337596,0.018067,0.452619,0.891521
-0.598465,-0.475820,0.647412,-0.177979,0.887860,0.424297
0.013671,-0.244955,0.122111,0.797778,-0.580912,0.161527
0.814638,-0.062795,0.509845,0.483814,0.725780,0.489047
-0.510596,-0.123863,0.378353,-0.363344,0.542733,0.757246
-0.119684,-0.629102,0.395902,0.203474,-0.679134,-0.705248
-0.399117,0.602206,0.691478,0.512272,-0.841934,-0.169484
-0.355945,-0.848348,0.027299,-0.574397,0.178079,0.798972
0.002524,-0.278084,-0.463095,0.318222,0.942709,0.100167
-0.369249,-0.185671,0.638014,0.975688,0.027514,0.217431
0.760792,-0.187352,0.266055,-0.374129,0.492751,0.785636
-0.002842,0.838066,0.703561,0.571270,-0.572187,0.588432
-0.038179,-0.324216,-0.249976,0.034719,0.958062,-0.284449
0.012618,0.054540,0.885817,0.579199,-0.814670,-0.029003
0.895566,-0.335292,0.527011,0.794778,0.518800,0.314919
-0.192408,0.158129,0.158313,-0.460735,-0.705417,-0.538619
-0.183890,-0.638793,-0.381469,0.800844,-0.569097,0.186488
0.218540,-0.773484,-0.292683,0.987094,0.083210,0.136825
0.031708,-0.231308,0.198718,-0.692274,0.713957,-0.104989
0.128411,-0.417175,0.056644,-0.709181,-0.592765,0.381695
-0.009730,0.137562,0.726561,-0.027914,-0.804083,0.593862
-0.310566,0.833813,0.669773,0.339182,-0.003164,0.940715
-0.369249,-0.594984,0.326439,-0.603680,-0.245402,-0.758517
-0.660200,0.209356,0.322140,0.259388,-0.782997,-0.565361
-0.343432,-0.129992,0.172186,-0.214191,0.685153,-0.696195
0.660514,-0.472953,0.564012,0.887686,-0.389760,0.245154
-0.374718,0.435868,0.685596,0.352175,-0.876092,0.329296
0.201767,-0.150167,-0.028594,0.183227,-0.123848,-0.975238
0.581583,-0.542967,0.414378,-0.531518,0.632565,0.563338
-0.556135,0.005689,0.549963,-0.452942,0.712283,-0.536187
-0.091813,0.047916,0.700780,-0.725244,0.531263,0.437929
-0.358365,-0.519976,0.280424,0.198160,-0.925106,-0.323902
0.534625,0.301672,0.722101,0.078442,-0.992563,0.093094
-0.017933,0.716526,0.815715,0.099093,0.837694,0.537074
-0.127730,0.593554,0.400281,0.851905,0.403777,0.333498
-0.106644,0.429540,0.218665,-0.467131,0.800482,0.375524
-0.024558,0.010880,0.797717,0.852790,-0.074169,0.516961
-0.458906,-0.500890,0.668718,-0.147937,0.489439,0.859397
0.528684,0.502623,0.697376,-0.729869,-0.683456,-0.013375
-0.253354,0.481114,0.531295,-0.138158,0.984758,0.105663
-0.352896,-0.664258,0.299875,-0.646053,0.340266,-0.683253
-0.270547,0.754106,0.667919,0.965070,0.208026,0.159262
-0.406322,-0.339448,0.757408,0.061837,0.793841,0.604974
0.323552,0.505390,0.609197,0.800878,0.465327,0.376915
-0.877111,0.099288,0.628264,0.466723,0.409336,0.783973
0.127727,0.398536,-0.704808,-0.435219,-0.009287,0.900277
-0.130041,-0.661192,0.405204,0.417377,0.427235,-0.802039
0.277752,-0.228342,0.876786,0.688231,0.691747,0.218689
-0.597730,-0.361648,0.702522,-0.148528,0.953623,0.261807
-0.218543,-0.621883,0.424176,-0.644921,-0.739859,-0.191535
0.442708,-0.260531,0.702059,0.547007,0.102794,0.830793
-0.112164,0.569027,0.410990,-0.427058,-0.886709,0.177110
-0.491139,-0.342167,-0.346562,-0.348891,0.901208,-0.257098
0.523215,0.172223,0.576255,-0.569256,0.525852,-0.632003
-0.538204,-0.151501,0.495077,-0.738603,0.673735,-0.023376
-0.534837,-0.743570,0.408017,-0.688742,0.270644,0.672596
0.001420,-0.057899,0.885465,0.865350,0.241959,0.438891
-0.086556,0.884940,0.754995,0.281248,-0.651896,0.704224
-0.602987,0.111996,0.259662,0.792730,0.321398,-0.517960
0.566913,-0.342514,0.636240,0.761229,-0.216310,0.611343
-0.011938,-0.282731,-0.373781,-0.009153,0.998482,0.054315
0.501025,-0.582970,0.605936,-0.329263,0.146359,0.932826
0.609086,-0.325158,0.518940,-0.570877,-0.398262,0.717974
0.352264,0.385435,0.268245,-0.489458,-0.489043,-0.721989
-0.935900,-0.696499,0.382172,-0.627050,0.093270,-0.773375
-0.655887,-0.227551,0.459163,-0.819107,0.374823,-0.434248
0.512803,0.401950,0.805725,0.942388,0.015858,0.334145
-0.182048,-0.460540,0.800355,-0.543778,0.664638,0.512408
-0.105748,0.287629,0.796759,-0.304231,-0.468599,0.829372
-0.511491,0.561068,0.729853,0.722228,0.274082,0.635032
0.267706,0.532190,0.779049,0.074478,0.872916,-0.482152
-0.030027,-0.342610,-0.557395,0.261757,-0.957982,0.117279
-0.342222,0.362936,0.659815,-0.696442,-0.715952,0.048802
0.333963,0.648834,0.641627,0.981522,-0.189018,-0.029784
-0.193198,-0.367186,0.732986,0.288694,0.590693,-0.753484
-0.441922,-0.496786,0.223012,-0.371583,0.872694,0.316750
-0.207448,0.169108,-0.022456,0.632867,-0.757751,-0.159036
-0.122101,-0.078913,-0.485807,0.876245,-0.033442,0.480703
-0.300155,-0.553747,-0.447799,-0.530873,0.098340,0.841726
0.070357,0.755540,0.506233,0.536226,0.833960,0.130278
-0.587685,-0.482692,0.530512,-0.564702,0.407931,-0.717429
-0.167692,-0.417423,0.766502,0.692326,0.447475,0.566083
0.843193,-0.231752,0.257088,-0.595289,-0.272875,-0.755758
-0.117739,-0.441455,0.762027,0.712027,-0.243334,0.658639
-0.667194,-0.459502,0.291484,0.397383,-0.066323,-0.915253
-0.205818,0.095036,0.002733,-0.187903,0.519346,0.833650
0.144240,0.313291,0.539414,0.821783,0.514209,-0.245481
-0.147607,-0.871438,0.412349,0.328533,0.005384,-0.944477
-0.252985,-0.099484,-0.990138,-0.220857,0.008426,0.975270
-0.210497,-0.682158,0.396126,-0.605341,0.794754,0.043915
-0.257507,0.186265,-0.409759,0.760761,-0.553956,-0.338193
0.344638,-0.205300,0.707093,-0.210303,-0.171355,0.962502
0.681338,-0.255684,0.527827,-0.037634,-0.583163,0.811483
0.061627,-0.368471,-0.968721,-0.093179,0.198411,0.975680
-0.284219,-0.338657,0.570214,0.923481,-0.356196,0.142502
-0.421727,-0.457278,0.026596,-0.563948,-0.267024,-0.781448
-0.879897,-0.596717,0.361970,-0.611516,0.014829,-0.791093
0.476414,-0.326986,0.487949,-0.002214,0.812497,0.582962
0.145289,-0.523585,0.783397,0.979036,0.140001,0.147947
0.109006,0.563045,0.802449,0.120261,-0.820972,0.558160
-0.361784,-0.402541,-0.983633,-0.082559,0.152872,0.984791
0.078561,0.558545,0.795544,-0.608005,0.567431,-0.555294
0.302253,0.640824,0.592430,0.955223,-0.286812,0.072722
-0.574275,0.166881,0.340057,0.358591,-0.713946,-0.601409
-0.286113,0.115606,0.678164,0.092514,0.926274,-0.365317
0.057105,0.223151,0.986766,-0.723464,-0.688333,-0.052891
0.216804,0.121096,0.881149,-0.203234,-0.745223,0.635090
-0.486409,-0.108532,0.528706,-0.618376,0.185041,0.763788
-0.129255,-0.558346,-0.385129,0.862437,-0.079044,-0.499954
-0.385868,-0.541980,0.684653,0.035277,0.780781,0.623808
-0.000108,-0.277193,-0.414123,-0.695903,0.711351,0.098476
0.107536,-0.478391,-0.339370,0.251752,0.431757,0.866145
0.146657,-0.230913,0.407969,0.652100,0.710639,-0.264117
-0.439765,-0.446003,0.703801,0.992069,0.010618,0.125243
0.001366,-0.276403,-0.300531,0.944383,-0.293263,-0.148789
0.334859,-0.201591,0.811751,-0.711500,0.567328,-0.414615
-0.065363,0.463015,0.406531,-0.533976,0.087112,0.841000
0.533784,-0.606359,0.425886,0.360252,-0.092276,-0.928280
-0.122261,0.847361,0.656954,-0.376184,0.800353,-0.466819
0.551189,-0.478835,0.598488,-0.313152,0.490250,-0.813383
-0.327233,-0.204853,0.670987,0.477679,-0.865383,0.151443
0.093125,-0.819321,0.404996,0.130793,0.002447,0.991407
0.508859,0.093997,0.697168,0.480625,0.262905,0.836589
-0.504603,0.412582,0.155612,-0.661679,0.142642,-0.736094
-0.524480,0.070017,0.676214,0.816905,0.001422,0.576770
-0.328077,0.875199,0.674903,0.099849,0.214495,0.971608
0.012618,-0.071299,0.661062,0.949047,-0.298006,-0.102478
-0.535784,-0.543857,0.384937,0.911429,0.288450,-0.293417
-0.651050,0.323033,0.215261,0.762202,0.034338,0.646428
-0.343168,0.702831,0.686427,0.571657,0.779287,-0.256749
-0.056476,-0.227104,-0.716587,-0.665324,0.723526,0.183996
-0.324710,0.259197,0.667439,0.805456,0.163829,0.569561
0.533627,0.093406,0.697152,0.302836,0.126161,0.944655
-0.035707,0.592862,0.411549,0.200115,0.964895,0.170095
0.447968,0.423806,0.594860,-0.364046,-0.243522,-0.898981
-0.259612,0.029422,0.859237,0.674399,0.339409,0.655735
-0.090237,-0.322931,0.868475,0.721062,-0.107231,0.684523
-0.131251,-0.419402,0.637934,0.621174,0.250878,0.742430
0.357313,-0.027391,0.835182,0.600933,0.624481,0.498902
0.832518,-0.163320,0.552904,0.689401,0.394003,-0.607855
0.444653,0.145028,0.698654,-0.449362,0.335848,0.827816
-0.106063,0.967119,0.743135,0.643037,0.266675,0.717905
-0.862649,-0.609621,0.358965,0.605348,0.062130,0.793532
0.226374,0.031894,0.826184,0.284983,0.796230,-0.533669
-0.062577,-0.195657,-0.969840,0.372922,0.369145,0.851271
0.238153,-0.273732,0.813077,0.824690,-0.263307,0.500556
-0.270390,-0.581880,0.293178,0.153469,0.494190,0.855701
-0.234055,-0.465040,0.794489,0.186016,0.936833,0.296213
-0.226535,-0.391514,0.407569,-0.814406,-0.041528,-0.578808
-0.217227,0.334157,0.811095,0.137134,-0.635431,0.759882
-0.437714,-0.249899,-0.055589,0.328519,0.351210,0.876771
0.197245,-0.172862,0.698111,-0.285107,0.929603,0.233564
0.256717,0.783724,0.678404,-0.719672,0.691669,-0.060548
-0.121472,0.686066,0.664546,0.939443,-0.068971,0.335693
-0.434087,-0.043757,0.366365,0.823256,-0.511431,-0.246347
-0.913658,-0.644382,0.369306,0.624136,0.004242,0.781304
0.179050,-0.726609,-0.337803,0.982008,0.186175,-0.031608
0.658252,-0.462668,0.398875,0.188450,-0.878376,0.439252
-0.429039,0.534565,0.722405,0.686499,-0.206508,0.697190
-0.737867,-0.372971,0.428044,-0.403437,-0.911630,-0.078541
-0.231006,-0.077233,0.175351,0.644150,-0.246569,0.724068
-0.202977,-0.653481,0.043602,0.778785,-0.149011,-0.609335
0.286899,-0.054984,0.801809,-0.575887,-0.558372,0.597139
-0.529631,-0.025315,0.684989,-0.093342,-0.271436,0.957919
-0.658884,0.148242,0.624461,0.643763,0.733713,-0.217335
-0.370459,-0.074169,0.598648,0.843326,0.200936,0.498424
-0.290109,-0.737933,0.474970,0.300977,0.594642,0.745529
-0.010779,0.024823,0.658057,0.974345,0.219460,-0.049899
0.040489,-0.230961,-0.104066,0.843917,-0.466979,0.264072
-0.181628,0.208369,0.201787,0.938991,0.198542,0.280851
-0.101438,0.971025,0.759278,-0.545352,-0.473736,-0.691495
-0.489772,0.255687,0.220295,-0.141970,0.043670,-0.988907
-0.356629,-0.109274,-0.181296,-0.592649,0.791428,0.149697
-0.353686,0.791734,0.733609,0.079255,-0.280079,0.956700
0.245885,-0.106555,0.113752,0.829704,-0.079399,0.552527
0.291107,0.848004,0.716491,-0.423236,0.143466,0.894589
-0.289323,-0.110216,0.513298,0.637530,0.083403,0.765898
-0.544250,0.145372,0.407250,0.826792,-0.346175,-0.443371
-0.032235,0.162137,0.682064,-0.657300,0.682758,0.319059
-0.380344,0.760978,0.678372,0.494388,0.823096,-0.279452
-0.604987,0.250940,0.241569,0.562336,-0.690159,-0.455476
0.281905,0.728293,0.626618,0.411264,0.051541,0.910058
-0.208077,0.048112,0.248410,0.942345,-0.181646,0.281052
-0.206973,0.587421,0.694722,0.409703,0.894291,-0.179964
-0.177369,0.367632,0.592910,-0.686172,-0.578949,-0.440438
-0.468740,0.092120,0.452674,0.173087,-0.974492,0.142852
-0.194302,-0.104083,0.089074,0.892866,0.300957,-0.334985
0.194090,-0.148535,-0.972381,-0.127564,0.028750,0.991414
-0.302677,0.313047,0.653166,-0.687480,-0.550758,-0.473324
0.148079,0.111157,0.849695,-0.102639,0.991936,0.074349
-0.001157,0.831390,0.355656,0.815870,0.575503,0.056155
-0.541673,-0.576641,0.700412,0.244277,0.956171,0.161451
-0.602673,0.011719,0.565850,0.215063,-0.829143,0.516013
0.062943,0.494809,0.901720,0.998977,0.045196,0.001521
-0.035338,-0.316505,0.838011,-0.738240,-0.142630,-0.659286
-0.742652,-0.574465,0.332337,0.547030,0.121433,0.828259
-0.363096,-0.214052,0.041412,0.542023,0.338999,-0.768954
-0.108534,-0.176028,-0.953873,-0.000858,0.983828,0.179111
-0.236578,-0.715980,0.423057,0.711216,-0.546331,0.442374
-0.037861,-0.342758,0.305709,0.511073,0.425610,0.746766
0.200294,-0.847062,-0.360883,0.571261,-0.162471,-0.804527
-0.356680,0.747530,0.681089,0.077621,0.131330,0.988295
-0.346952,-0.194224,0.642761,0.985528,-0.164495,-0.040942
-0.398853,-0.171776,-0.996100,-0.066529,0.087935,0.993902
-0.442028,-0.267898,0.483585,0.971156,-0.135265,-0.196366
-0.037232,-0.339547,0.203433,0.924526,-0.380736,0.017089
-0.080509,-0.628115,0.461912,0.934903,0.288269,-0.207021
0.189356,0.482399,0.760780,0.518691,0.212342,0.828173
-0.225746,0.888945,0.376322,0.497913,0.586319,0.638994
0.252144,-0.098941,0.599846,0.166367,0.765757,0.621239
-0.034863,-0.364071,-0.329828,0.997388,-0.038116,-0.061359
-0.087766,-0.530656,0.448726,-0.071127,0.715379,0.695107
-0.125679,-0.365653,-0.034827,-0.329056,-0.896622,-0.296296
-0.304519,0.114272,0.475226,0.241507,-0.355258,-0.903032
0.355733,-0.483781,0.243519,-0.349667,0.839143,0.416621
-0.118525,0.193336,0.307867,0.937854,-0.276434,-0.209797
0.239363,0.817000,0.645526,-0.447448,-0.671067,0.591151
-0.115791,-0.431465,0.353115,0.983980,-0.118665,0.133046
-0.323449,-0.251136,0.582537,0.945123,0.164593,0.282227
-0.549090,-0.835986,0.267222,0.824751,-0.492213,-0.278411
-0.135985,-0.114269,0.723732,-0.607979,-0.149271,-0.779795
-0.211864,-0.079013,0.938625,-0.097055,0.933644,0.344804
-0.180418,0.003462,0.138717,0.883529,-0.468352,0.004817
-0.517329,0.038817,0.405588,0.784795,0.444884,0.431480
-0.053164,-0.343996,-0.284596,0.983905,-0.175184,0.035241
0.167849,-0.278135,0.844580,-0.725723,0.176462,0.664972
0.017561,0.677414,0.804159,0.234786,0.822581,0.517915
0.855287,-0.432060,0.519228,0.167859,0.932686,0.319248
-0.790451,0.002722,0.362721,0.009876,0.532755,0.846212
-0.672871,-0.571894,0.329620,-0.691740,-0.205442,-0.692308
-0.141820,-0.353191,0.870984,-0.101468,0.381155,-0.918926
-0.520641,-0.198476,0.438465,-0.209016,0.873886,-0.438902
-0.556135,0.219740,0.571205,0.854874,0.505231,0.118034
0.421044,-0.392847,0.267509,-0.303790,0.950055,0.071461
0.430457,-0.279122,0.687226,0.821909,0.566438,-0.060109
0.411736,0.038075,0.727424,-0.048562,-0.265387,0.962918
-0.536888,-0.076590,-0.293498,-0.707979,0.705996,-0.018314
0.137981,0.166881,0.816210,-0.224956,0.386833,0.894290
0.060681,-0.035600,0.312917,0.593215,-0.567522,-0.570977
0.024558,-0.259888,-0.595707,-0.621382,0.755072,0.209167
-0.373771,0.371936,0.718921,0.854430,-0.455221,0.250445
0.269388,0.581340,0.688601,0.923161,0.306431,-0.232108
-0.312248,-0.064032,-0.231308,-0.439760,-0.564441,-0.698583
-0.559290,0.114024,0.571189,0.738986,0.098468,0.666486
-0.395753,-0.899623,0.334735,-0.099724,0.239012,0.965882
-0.734555,0.160453,0.336509,-0.106225,0.592407,0.798605
-0.336226,0.310967,0.743311,-0.021879,0.332311,0.942916
-0.114058,-0.256922,0.727440,0.916281,-0.184197,0.355670
-0.234581,0.285010,0.796934,-0.226059,-0.413714,0.881895
-0.691329,-0.212666,0.618787,-0.371074,0.608115,-0.701784
-0.336859,-0.861548,0.481875,0.459486,0.326770,0.825889
-0.121786,0.105716,0.090209,-0.508425,0.847644,0.151667
-0.264449,0.334556,0.175527,-0.732328,0.603604,0.315211
-0.305887,0.453077,0.681984,-0.634809,0.517173,-0.574065
-0.129621,-0.439822,0.773056,0.744456,0.368124,0.557018
-0.270916,0.398588,0.163315,-0.787497,0.304473,0.535859
-0.763687,-0.454806,0.268261,0.319211,-0.077440,-0.944515
0.582424,0.109377,0.490538,0.794920,-0.546610,-0.263287
-0.188727,-0.511323,0.667791,0.943112,0.194444,0.269689
-0.290109,-0.328025,0.569175,0.851057,-0.517397,-0.089455
-0.332545,-0.530110,0.290301,0.391474,0.840410,0.374780
-0.452333,-0.534513,0.701547,0.131691,0.926094,0.353563
-0.550454,0.090140,0.564939,0.898937,0.013318,0.437876
0.076458,0.433843,0.867868,0.717507,-0.643256,-0.267218
0.462796,0.144781,0.168957,-0.326807,-0.899672,0.289460
-0.472210,0.025761,0.222453,-0.189127,-0.981953,0.000103
-0.057843,0.070412,0.670620,-0.428307,-0.879505,0.207422
-0.560080,0.076345,0.569622,0.859994,0.320561,0.397052
0.365356,0.063540,0.834255,0.831257,0.554025,-0.045473
-0.614766,-0.083217,0.661366,-0.480070,0.648686,-0.590541
-0.117213,0.031351,0.720167,0.993554,0.113083,-0.007938
-0.679656,0.439330,0.233881,0.029141,-0.332727,0.942573
0.333912,0.490656,0.702378,0.746655,0.662011,0.065175
-0.214230,-0.328124,0.784308,0.642593,-0.261641,0.720152
0.014987,-0.281349,-0.238852,-0.477114,0.869575,-0.127283
-0.087239,0.583616,0.701547,0.728182,0.479003,0.490211
0.065678,0.358041,0.723748,-0.828230,0.496413,0.260016
0.041751,0.000794,0.841911,0.984458,0.007127,0.175477
-0.260190,-0.002620,0.369849,0.390982,-0.307492,-0.867515
0.357152,-0.619906,0.333408,-0.523848,0.757155,0.390256
0.617921,0.371393,0.583655,-0.698138,0.438767,0.565762
0.011094,0.012956,0.897149,0.875137,-0.434155,0.213646
-0.589999,-0.805972,0.335885,0.665233,-0.736029,0.125405
-0.764422,-0.622674,0.102819,0.039593,0.796649,0.603144
-0.058582,-0.606851,0.590017,-0.636407,-0.406147,-0.655767
0.168218,0.828028,0.540405,0.479596,-0.394059,-0.784031
-0.075354,0.365855,0.864990,-0.502051,0.864248,0.031953
-0.434296,0.194027,0.219912,-0.024020,0.148847,0.988569
-0.092654,-0.676125,0.461736,0.935707,0.022312,0.352072
0.362518,-0.754350,0.466196,-0.691691,0.324879,0.644994
0.295472,0.491990,0.747451,0.512367,-0.794406,0.326190
-0.011726,-0.233433,0.202410,0.800241,-0.596468,0.061972
-0.020931,-0.459701,0.581482,0.776409,0.388482,0.496257
0.005625,-0.300088,0.101541,0.004652,-0.961162,0.275946
-0.705528,-0.210886,0.537736,0.819533,-0.444449,0.361705
-0.439187,0.376931,0.736758,0.756872,0.248630,0.604423
0.570067,0.230617,0.447799,-0.505361,0.699818,0.504841
-0.531894,-0.140872,0.252501,0.009278,0.998318,0.057231
-0.295735,-0.050632,0.185516,0.389745,-0.333916,0.858254
-0.144134,0.041092,0.151728,0.919309,0.121796,0.374215
0.342799,0.297866,0.448838,0.949304,0.272034,0.157543
-0.446393,0.024476,0.218553,-0.216584,-0.966440,-0.138148
-0.688858,-0.492434,0.289151,-0.288470,0.388711,0.875037
-0.194039,0.538470,0.612202,0.892912,-0.347342,0.286464
0.371036,-0.395666,0.620145,0.180138,-0.863417,0.471234
0.702845,0.036937,0.755187,-0.357044,-0.824184,0.439591
-0.676816,0.021856,0.618930,-0.344649,0.602674,0.719723
0.309879,-0.082475,0.034316,-0.089380,0.995639,-0.026740
-0.415787,0.510237,0.709571,0.755687,-0.496016,0.427673
-0.802757,-0.790346,0.275917,-0.005202,-0.987832,0.155436
0.492507,-0.510186,0.582073,0.796530,-0.519026,-0.310084
-0.257141,-0.243917,0.542659,-0.410926,-0.868675,0.276663
-0.046119,0.598944,0.260301,0.830183,-0.460971,0.313532
0.297417,-0.147101,0.512547,0.007060,-0.371000,0.928606
-0.207079,0.387807,0.811239,-0.138935,0.975691,0.169484
-0.571964,0.005589,0.542675,0.212315,-0.760140,0.614092
0.077299,-0.261865,0.534076,0.757726,0.133360,0.638801
0.451964,0.153234,0.145127,0.332472,-0.934980,-0.123588
0.088289,-0.661934,-0.648643,-0.040352,0.485907,0.873079
-0.437348,-0.420984,0.531103,0.744944,-0.332546,0.578336
0.204447,0.259692,0.935396,0.410345,0.830170,-0.377405
0.021139,-0.275168,0.052536,0.397970,0.901357,-0.170809
0.145658,0.365951,0.338730,-0.304174,0.192673,0.932928
-0.065732,0.085444,0.310073,-0.606308,-0.591756,0.531239
-0.832204,-0.814477,0.264121,-0.120554,-0.960080,0.252413
-0.024086,-0.237933,0.296439,0.922516,-0.267137,0.278572
0.102959,0.404669,0.712096,-0.695002,0.701824,0.156255
0.487930,-0.535253,0.394415,-0.740745,0.053877,0.669622
-0.196035,-0.497576,-0.384666,-0.444318,-0.299147,0.844448
-0.268393,0.293810,0.218841,0.496568,-0.482038,-0.721844
0.521427,-0.020172,0.457805,-0.266257,-0.267442,0.926057
-0.088607,-0.288864,-0.780999,0.946931,-0.275228,-0.166045
0.021717,0.023637,0.583560,0.857876,0.497631,-0.128109
0.601829,0.205598,0.464310,-0.248722,0.563079,0.788086
-0.979755,-0.665200,0.115878,0.178819,0.720159,0.670369
-0.518536,-0.110659,0.262219,-0.487098,0.873209,0.015543
0.364726,-0.677610,0.301122,0.756457,0.475014,0.449595
-0.053848,-0.868028,-0.597609,-0.069483,0.698168,0.712554
0.041963,0.945710,0.723172,0.752321,-0.244151,0.611885
-0.703634,0.296481,0.567321,0.978208,0.054433,-0.200363
0.514119,0.340094,0.704728,0.386082,0.801242,0.457112
-0.462324,-0.134640,0.729693,0.959461,-0.236514,-0.153285
-0.198927,-0.091326,0.096186,0.892866,0.300957,-0.334985
-0.819584,0.085791,0.232906,0.148470,-0.025036,0.988600
-0.181942,0.133210,0.833104,0.096039,-0.609238,0.787150
-0.627755,-0.448079,0.056676,0.549777,0.823032,0.142703
-0.495347,-0.370647,0.049308,0.920381,-0.384364,0.071855
0.128042,0.144385,0.829220,0.352089,-0.875517,-0.330912
-0.237210,0.123567,-0.409775,0.760761,-0.553956,-0.338193
0.071355,0.710198,0.666768,0.308542,0.382187,-0.871054
-0.223486,0.412235,0.634514,-0.054521,-0.763437,0.643577
-0.062102,-0.312449,-0.559297,0.693324,-0.677344,0.245980
-0.224484,0.077878,0.620353,0.781997,0.408902,0.470403
-0.481886,-0.106902,0.472573,-0.326087,-0.841835,0.430095
-0.248305,-0.195410,-0.990506,0.237421,-0.137611,-0.961610
0.677865,-0.077432,0.217802,-0.168499,0.671948,0.721175
-0.196353,-0.637211,0.429610,0.675367,-0.462922,0.574093
-0.179840,-0.662677,0.622846,-0.143591,-0.222379,0.964329
-0.087133,-0.125939,-0.978966,0.090145,0.415812,0.904972
0.091180,-0.309039,0.069974,0.571371,0.731778,-0.371533
-0.176685,0.282043,0.334782,0.972827,0.176362,0.150016
0.201347,0.311414,0.354601,0.083464,-0.859582,-0.504136
-0.032129,0.119662,0.552377,0.987628,0.036729,0.152456
0.067937,0.007270,0.402279,0.768291,-0.561908,0.306575
0.268705,0.757121,0.631989,-0.687144,0.508873,-0.518538
-0.229741,0.111897,0.469680,0.011869,0.813793,0.581034
0.404059,-0.681714,0.480692,0.761519,0.237187,-0.603184
-0.099808,-0.223742,-0.240802,0.043111,-0.215023,0.975657
