0.074108,-0.035077,0.647765,0.968791,-0.162803,-0.186918
0.051952,0.479115,0.597046,-0.734490,-0.536716,0.415283
0.178982,-0.449889,0.623734,-0.114226,0.679890,-0.724363
0.247605,-0.149516,0.566111,-0.571966,0.199835,-0.795563
-0.210758,0.508225,0.556384,-0.780284,0.162224,-0.604020
-0.299620,0.081588,0.845762,-0.740352,0.071699,-0.668384
-0.744381,-0.066754,0.547725,0.810108,0.499722,0.306598
0.455905,0.365010,0.615076,-0.228962,-0.174083,0.957743
0.247730,0.722936,0.460975,-0.150513,-0.251766,0.956012
-0.244592,-0.292289,0.703059,0.765010,-0.440254,-0.470038
0.084705,-0.302998,0.050814,-0.455575,0.884979,-0.096246
0.117334,0.266521,0.847625,-0.269186,-0.680148,0.681863
-0.115886,-0.143498,0.700703,0.659094,-0.231681,-0.715485
0.235208,0.764205,0.608061,0.558033,-0.543319,0.627219
0.650471,0.278456,0.780767,0.926142,0.369751,-0.074470
0.219555,0.578829,0.554767,-0.470710,0.419390,-0.776237
-0.461799,-0.099663,0.612938,0.988904,0.148311,0.008573
-0.639272,0.119514,0.548520,0.508381,0.841418,0.183208
-0.147670,0.595896,0.553123,0.786296,-0.192513,-0.587093
0.513454,0.321399,0.607623,0.540944,0.798403,0.264449
-0.080127,0.117172,0.616583,0.325185,-0.904606,0.275576
0.633621,0.275113,0.607486,0.690716,0.659190,-0.297289
0.255674,0.547268,0.530736,-0.463405,0.742833,-0.483172
-0.344286,0.146058,0.844720,0.672789,0.739388,-0.025699
0.403046,0.953264,0.675412,0.163642,0.986461,-0.010760
0.010777,-0.468073,-0.349509,0.531931,0.845968,-0.037237
-0.519590,0.659249,0.500377,0.844181,-0.311818,-0.436037
0.149360,-0.531093,0.664424,-0.712823,-0.481546,-0.509900
0.479620,-0.087279,0.537505,0.029805,-0.986396,0.161662
-0.857801,0.088396,0.564604,0.992646,0.121057,0.000051
-0.302265,-0.537452,0.658780,0.909662,-0.403973,0.096545
-0.296849,-0.047685,0.841021,0.405125,-0.632960,-0.659724
-0.213772,0.191793,0.599238,-0.149387,-0.955643,-0.253832
-0.010409,0.725394,0.633352,-0.233836,0.969564,0.072569
-0.440245,0.211869,0.619158,-0.183280,-0.965770,-0.183565
-0.107817,-0.435505,-0.766766,0.910225,0.348963,-0.222971
-0.660465,-0.074229,0.819813,0.562197,-0.664917,0.491752
0.203902,-0.089846,0.611678,-0.522878,0.849513,-0.070186
0.198964,-0.115164,0.759888,-0.564457,-0.815292,0.129178
0.475409,0.883668,0.668233,0.720784,0.168279,-0.672423
-0.119980,0.462497,0.794988,0.904210,-0.382008,-0.190980
-0.014385,0.089172,0.405379,-0.693156,-0.198855,0.692814
0.381257,0.943114,0.700209,-0.121222,0.943264,0.309126
0.140688,-0.578720,0.562220,0.220198,0.968828,0.113513
0.749804,0.605039,0.547341,-0.266408,-0.950020,-0.162756
0.247605,-0.204618,0.735447,0.803240,-0.197130,0.562090
-0.772556,0.225144,0.580331,-0.897077,0.311311,0.313589
0.331888,0.545593,0.867216,0.722154,-0.420977,0.548882
0.037629,-0.429255,-0.571893,0.334276,0.941718,-0.037771
-0.485161,0.077129,0.577564,-0.744104,0.183635,0.642329
-0.429288,0.543252,0.606965,-0.647115,0.762363,0.006790
-0.213051,-0.200159,0.709992,-0.320613,-0.573061,0.754194
-0.739927,0.112488,0.606582,0.699706,0.320769,-0.638371
0.110353,-0.625340,0.666589,0.255964,-0.941533,-0.219086
-0.128166,0.083154,0.768327,-0.146825,0.198226,0.969097
0.032206,0.041102,0.836829,0.720605,0.038708,-0.692264
-0.129488,-0.055936,0.862695,0.721062,0.415776,-0.554256
-0.409667,-0.651999,0.632941,0.613216,0.500380,-0.611217
-0.048939,0.469414,0.684345,-0.649822,0.744949,0.150939
-0.060381,0.439405,0.704292,0.296976,0.718416,-0.629034
0.292638,0.421004,0.730213,-0.058613,0.993304,0.099561
-0.018604,0.227819,0.623488,0.118642,0.663816,0.738426
0.430619,-0.311698,0.650313,0.748826,-0.598222,-0.285288
-0.255314,0.024818,0.571262,0.269526,0.496542,0.825107
-0.146832,-0.225253,0.933855,0.752409,-0.436075,-0.493680
-0.020889,-0.220569,0.712156,0.434709,-0.637453,-0.636146
0.212089,-0.446771,0.611103,-0.325911,-0.725768,0.605840
0.393537,0.778039,0.584003,0.246360,-0.954199,0.169736
-0.630843,-0.170709,0.535203,-0.616616,-0.773675,0.145644
-0.140931,-0.306007,0.967832,0.947419,0.227485,-0.225051
-0.281196,-0.317383,0.865490,0.896834,0.299638,-0.325432
0.051474,0.343484,0.620200,-0.543560,0.832030,-0.110763
0.070258,-0.233170,0.260977,0.987261,-0.152960,0.043812
-0.412798,-0.426804,-0.988136,0.190962,0.176129,0.965667
0.362473,0.740119,0.559699,0.609313,-0.528437,0.591178
-0.156819,-0.427029,0.749531,0.676022,-0.721527,-0.149643
-0.037982,-0.405721,-0.690181,-0.527736,0.840905,0.119888
0.132266,-0.539235,0.671274,0.834538,0.492880,0.246203
-0.033169,-0.139815,0.712677,0.155865,-0.081201,0.984435
-0.087828,-0.352967,-0.814909,0.227249,-0.970452,-0.081122
0.656012,0.343817,0.752874,-0.684668,0.490222,0.539362
0.084463,-0.278456,0.173542,0.296645,-0.942315,0.155062
0.406897,-0.453239,0.691907,-0.710792,0.168265,0.682981
0.121545,-0.106797,0.654259,-0.320094,0.871717,-0.371011
0.454700,-0.042777,0.551726,0.556910,0.024753,0.830204
-0.774121,0.290390,0.581373,0.921714,-0.282172,-0.266123
-0.362827,-0.638949,0.674617,0.713497,0.675630,-0.185596
0.342602,0.446656,0.513885,0.821542,0.566997,-0.059862
0.093737,-0.380852,-0.231604,-0.480859,0.865801,0.138434
-0.404487,0.149966,0.577455,0.952031,-0.204155,0.227942
-0.288060,0.649324,0.488622,0.742801,-0.657407,-0.126736
0.097470,-0.070995,0.859106,-0.439309,-0.047947,0.897056
0.647106,0.195918,0.516708,0.822341,0.342335,0.454490
0.058338,0.396462,0.682838,0.726636,-0.571637,0.381092
-0.045088,-0.022476,0.536984,0.979836,0.006718,-0.199689
-0.212449,-0.599355,0.740954,0.136174,-0.545952,0.826676
-0.151888,0.420555,0.785124,-0.575376,0.779864,-0.246484
-0.078320,0.521943,0.606910,0.962693,-0.204418,-0.177301
0.456743,-0.034744,0.712978,-0.260898,-0.894631,-0.362722
0.080252,0.078688,0.739831,-0.114548,-0.773763,0.623033
0.127086,0.359993,0.634640,-0.460099,0.853173,0.245773
0.205107,-0.274997,0.714376,0.842188,0.325390,0.429931
0.521765,0.833025,0.674535,0.957371,-0.186417,0.220659
0.513219,-0.034076,0.550465,0.170271,-0.538981,0.824929
0.014628,0.812949,0.512707,-0.309400,0.946597,0.090699
-0.672620,0.229712,0.561809,0.707883,-0.665507,-0.236645
0.540784,0.460040,0.526161,0.980731,0.169410,-0.097302
0.076519,0.044002,0.714184,-0.287965,0.949596,-0.123870
-0.293358,-0.068987,0.536491,0.964412,-0.135937,0.226785
0.906451,0.576263,0.561261,0.802311,-0.203567,-0.561122
0.480583,0.203835,0.740297,-0.082655,-0.883484,0.461112
-0.050387,-0.122414,0.410256,0.744634,0.649713,-0.152947
-0.081810,0.222128,0.624557,0.790856,-0.359626,0.495193
0.078444,-0.160892,0.484704,0.765566,0.590746,0.254810
-0.164645,0.190343,0.813265,0.860903,0.405858,-0.306799
-0.693094,0.603705,0.565426,-0.088614,0.913351,0.397413
0.582569,-0.431822,0.663822,0.666905,-0.508656,-0.544524
0.430979,-0.291173,0.447247,0.546411,-0.719522,0.428629
0.639639,0.732528,0.496924,-0.506538,0.835953,-0.211190
0.548493,-0.002066,0.711718,0.314291,-0.608094,-0.729001
0.056648,-0.412304,-0.214013,0.136331,0.986185,0.094093
0.281204,0.396686,0.706347,0.380193,0.846448,-0.372800
0.179100,0.138923,0.763916,0.225540,-0.794900,0.563264
0.334901,0.309574,0.535586,0.812300,-0.096273,0.575239
-0.079767,0.060511,0.778959,0.558253,-0.804276,0.203698
0.122875,-0.019351,0.697250,-0.681800,0.720950,-0.124016
0.280601,0.421228,0.672233,0.513676,0.812462,-0.275759
0.618805,0.422563,0.726542,0.569558,0.677915,0.464795
-0.018361,0.509008,0.589511,0.234266,0.692477,0.682346
-0.093370,-0.410629,0.831240,-0.250841,0.769134,-0.587803
-0.475887,0.066311,0.785782,-0.278710,0.904911,0.321647
0.258930,0.253247,0.877957,0.724030,0.665340,-0.181945
-0.372703,0.172826,0.613541,0.125450,0.988953,-0.078960
-0.122265,-0.499307,0.705142,0.988606,0.111449,-0.101177
0.003913,0.261504,0.716486,-0.551965,-0.715041,-0.429012
0.693579,0.244662,0.622200,0.875918,0.260664,0.405981
-0.318278,-0.423680,0.742077,0.993302,-0.092291,0.069519
0.614234,-0.485583,0.705799,0.778738,0.204240,-0.593172
-0.037747,-0.351959,0.604773,0.300792,0.661359,0.687116
-0.000540,-0.037086,0.708210,0.761496,-0.086674,0.642348
-0.717293,-0.074787,0.493801,0.427956,-0.902462,-0.049150
-0.151160,-0.324524,-0.987807,0.168867,0.004306,0.985629
0.348746,0.350400,0.593402,-0.313557,-0.720105,0.618975
0.480465,0.489708,0.756792,0.989153,-0.116149,0.089916
0.584252,0.292732,0.498376,-0.563648,-0.800928,-0.202026
0.341405,0.487367,0.846748,0.461778,0.687452,-0.560509
0.697915,0.022251,0.550109,0.138891,-0.963789,-0.227641
-0.028230,-0.471423,-0.571043,0.119656,0.992685,-0.016089
0.035822,0.110147,0.420120,0.854173,0.376685,-0.358465
-0.663236,-0.549276,0.515118,0.915116,-0.057827,-0.399023
0.410152,-0.375269,0.605869,0.179801,0.805564,0.564569
0.531634,0.810383,0.714376,0.781687,0.574412,0.242934
0.093972,-0.378061,-0.067392,0.829406,-0.534864,0.161264
-0.684908,-0.029951,0.507665,0.582388,-0.546283,-0.601995
0.061946,0.282363,0.544848,-0.654326,-0.706231,-0.270360
0.090606,0.294855,0.782740,-0.823502,0.562502,0.073732
0.047859,-0.407620,0.558740,0.742567,0.583172,-0.329400
-0.730536,0.135574,0.738872,0.535435,0.646374,-0.543608
0.326472,0.044669,0.752490,-0.152811,-0.987846,-0.028461
0.093495,-0.230270,0.206039,0.974570,-0.027718,0.222360
-0.552343,0.361443,0.563289,-0.076692,-0.890453,0.448567
-0.155254,-0.480456,-0.993369,-0.250517,-0.101154,-0.962813
0.079767,-0.319282,-0.036347,0.667440,-0.721955,0.182498
-0.087711,-0.046793,0.779151,-0.241131,-0.942001,0.233431
0.492510,-0.090288,0.548218,0.358610,0.922381,0.143572
0.402444,0.789864,0.571755,-0.655114,0.581344,-0.482560
-0.389436,-0.407504,0.646258,0.434429,-0.228451,-0.871253
-0.027995,-0.401595,-0.532381,-0.155411,-0.845018,0.511657
-0.646856,-0.084713,0.719390,0.834988,0.401303,-0.376497
-0.168981,-0.137139,0.332466,0.754555,0.654489,0.047864
-0.060499,0.582846,0.572906,-0.472107,-0.692305,0.545737
0.081935,-0.202719,0.208176,0.988040,0.051894,0.145205
0.670945,0.228711,0.559233,-0.099717,0.799829,0.591888
-0.183671,0.545260,0.563398,-0.440778,0.863738,0.244276
0.023542,0.384977,0.545560,-0.504093,0.737172,-0.449964
-0.443978,-0.424129,0.671494,0.900364,-0.111876,-0.420510
0.057618,-0.224695,0.483032,0.202127,-0.519226,0.830391
0.071103,0.027493,0.845679,0.665652,0.683070,-0.300537
0.363311,0.418328,0.586606,-0.477510,-0.225053,-0.849315
0.858404,0.478890,0.539422,-0.248753,0.615496,0.747855
-0.411953,-0.005184,0.830965,-0.355627,0.245634,0.901772
-0.689236,-0.078136,0.727747,0.548045,0.765426,0.337297
0.295651,0.385086,0.644504,0.074757,-0.976238,0.203398
0.245445,0.036085,0.729282,0.115819,0.980887,-0.156356
-0.273128,-0.199601,0.930046,0.402567,0.900284,-0.165618
0.268799,0.743911,0.576715,0.267536,-0.815200,0.513686
-0.012460,-0.467072,-0.723939,0.868381,0.489043,-0.082174
-0.114924,-0.208519,0.722185,0.093235,-0.878454,-0.468643
-0.443258,-0.560319,0.649354,-0.518185,0.854675,-0.031867
-0.338024,-0.264963,0.755696,0.888810,-0.024314,0.457630
0.038232,0.485358,0.635544,-0.454233,-0.865760,0.210078
-0.232312,0.206511,0.868888,0.554474,0.571044,-0.605366
0.434712,0.468516,0.564932,0.076171,-0.059836,0.995298
-0.661546,0.282472,0.597978,-0.031742,0.924876,0.378941
-0.400393,-0.132565,0.615651,0.863018,-0.494371,-0.103909
0.320093,0.356868,0.687002,0.769493,-0.626413,0.124450
-0.265426,-0.345717,0.723308,0.902170,-0.419307,0.101346
-0.164527,-0.607272,0.650231,-0.131426,0.024200,0.991031
-0.434227,0.669066,0.664589,-0.359795,0.626416,-0.691484
0.420749,0.494841,0.849981,-0.467427,-0.651340,0.597719
-0.394492,0.178967,0.878724,-0.227190,0.941782,0.247854
0.364281,-0.289614,0.442178,0.507772,-0.827975,0.237962
-0.117209,-0.418996,-0.541396,-0.630078,-0.683082,0.369324
-0.268431,0.274106,0.561151,0.032537,0.749588,-0.661104
-0.134427,-0.255037,0.949665,0.948615,-0.056157,-0.311411
0.573052,-0.260388,0.417736,0.193176,0.439639,0.877155
0.497323,-0.388660,0.665931,-0.664479,-0.193545,0.721809
-0.579556,-0.029726,0.874724,0.810199,-0.546469,0.212011
0.063034,-0.300874,0.130331,0.185198,-0.921005,0.342711
0.035579,-0.168142,0.721171,0.964580,0.175007,0.197380
0.071221,-0.161341,0.366470,0.971301,-0.204635,-0.121242
-0.099873,0.011209,0.816443,-0.367054,-0.846359,0.385939
0.198361,-0.066087,0.776493,-0.506939,-0.278010,0.815919
0.217505,0.089621,0.737310,-0.630621,0.636471,0.444096
0.045331,0.201827,0.825047,-0.236362,0.964347,0.119028
0.079164,-0.245778,0.685550,0.958093,0.247518,-0.144197
-0.491900,0.182309,0.631954,-0.429405,-0.741890,0.514987
0.088439,-0.365902,-0.132962,-0.288330,0.952899,0.094070
0.510323,0.164466,0.733309,-0.026540,-0.832486,0.553410
-0.425320,-0.305340,0.813018,-0.537910,-0.305901,0.785543
0.535125,-0.069320,0.601183,-0.027851,-0.931998,0.361391
0.019566,0.592662,0.542080,0.570013,0.806537,-0.156792
0.602792,0.319282,0.769369,0.615851,0.753055,0.231594
0.610502,-0.135131,0.693880,0.682928,-0.308053,0.662354
-0.076151,0.243988,0.674179,0.632007,-0.693235,0.346399
0.668895,-0.184209,0.504377,-0.276101,0.807345,-0.521501
0.459639,0.578604,0.629954,-0.634733,0.753995,0.169134
0.313105,0.512909,0.524352,0.829933,-0.161882,0.533859
0.603998,0.282472,0.743749,0.977905,-0.071136,-0.196572
0.087116,-0.405278,-0.316601,0.852605,-0.223493,0.472351
-0.500446,-0.061737,0.784329,0.996499,0.066540,-0.050611
-0.621936,0.609389,0.525037,0.274007,0.759745,-0.589668
-0.098308,0.134798,0.809237,-0.168736,0.844321,-0.508577
-0.565828,0.362559,0.550849,0.798985,0.423220,-0.427210
0.010777,0.199376,0.631900,-0.836836,-0.111605,-0.535957
-0.587257,0.260721,0.520406,0.969396,-0.200521,-0.141644
-0.325384,0.918245,0.530463,-0.451864,0.891339,-0.036520
0.026547,0.179858,0.578523,0.843085,-0.537745,-0.006258
0.063997,0.197477,0.815319,-0.009867,-0.784130,0.620518
-0.188007,-0.522392,-0.989862,0.200562,0.036788,0.978990
-0.248325,0.323850,0.758463,0.413954,-0.823509,0.387910
0.666969,0.299873,0.501418,-0.573143,-0.783484,0.240125
-0.070610,-0.391336,-0.743174,0.938425,0.331694,-0.096627
0.361386,0.921703,0.686948,0.314135,-0.941564,-0.121563
-0.355485,0.081030,0.589648,0.862499,0.188014,0.469836
0.839143,0.645532,0.541943,0.761596,-0.278345,-0.585230
-0.123588,-0.017568,0.808880,0.339727,-0.883385,0.322825
0.058580,-0.138589,0.419572,0.970673,0.167616,0.172331
0.152248,0.017234,0.706046,-0.450035,0.859112,-0.243712
0.431339,0.478223,0.675713,-0.583923,0.808275,-0.075664
-0.039790,0.398137,0.704237,0.734191,0.338054,-0.588798
-0.080965,0.655791,0.636448,-0.385808,0.882981,-0.267390
0.901754,0.027718,0.584086,0.073067,-0.969280,0.234856
0.270004,-0.503542,0.679906,-0.087153,0.812293,0.576702
0.236531,-0.391778,0.586606,0.442043,0.275161,0.853748
-0.287700,0.142600,0.809757,-0.450401,-0.882044,-0.138340
0.206555,-0.241762,0.849406,-0.538286,0.584076,-0.607539
0.093495,0.418995,0.556712,-0.522062,-0.542662,-0.658004
-0.685267,0.151749,0.761039,0.247896,-0.826587,-0.505274
0.404369,0.319616,0.786576,-0.056258,-0.455605,0.888403
-0.445544,0.340475,0.582058,-0.583789,0.011183,0.811828
0.131179,-0.215885,0.670809,0.977645,0.028244,0.208357
-0.267469,-0.258829,0.710485,0.847231,-0.376882,-0.374379
-0.102041,-0.349617,0.942130,0.668807,0.693921,-0.266779
-0.148875,-0.560319,-0.989396,-0.127715,-0.125679,-0.983816
-0.600500,0.304223,0.523037,0.862195,0.435413,-0.258913
0.073749,-0.171267,0.725774,0.190548,-0.969201,-0.156018
0.589550,0.304890,0.622638,0.782328,0.622550,-0.019856
-0.033411,-0.214211,0.279884,-0.139033,-0.985619,-0.096042
0.030641,-0.447663,-0.190311,0.827481,-0.561445,-0.007449
-0.187882,0.591655,0.606088,-0.441317,0.716419,-0.540355
-0.057008,-0.170375,0.557754,0.897163,-0.017229,-0.441364
0.180548,0.765771,0.525421,0.011866,0.232820,0.972447
0.715971,-0.097654,0.581976,-0.109138,-0.024445,-0.993726
-0.780382,0.268421,0.547752,-0.386482,-0.275663,0.880137
0.118899,-0.367018,-0.263170,0.952116,-0.305162,0.018738
-0.497683,0.222019,0.567536,0.023112,0.390777,0.920195
0.266991,0.647540,0.759696,0.581748,0.707609,-0.401073
0.122993,0.427029,0.592059,0.642603,0.605441,-0.469577
-0.186317,-0.538902,0.698100,0.859979,-0.431137,0.273053
-0.171634,0.022360,0.336083,0.022231,-0.954379,0.297770
-0.443619,0.196585,0.625351,0.211045,0.976482,0.044077
0.480465,0.778488,0.664315,0.825625,0.522737,0.212342
0.789539,-0.663715,0.500157,-0.214817,0.974764,0.060742
0.037269,0.746811,0.700456,0.687348,-0.418865,-0.593384
-0.130576,-0.472866,-0.614638,-0.682136,-0.731163,-0.009589
-0.012100,0.517818,0.499308,0.740175,-0.490956,-0.459460
0.058338,-0.379620,-0.208642,0.697200,-0.680731,0.224761
0.011497,0.364343,0.676453,0.675206,-0.727399,0.122425
-0.153085,0.250013,0.630776,-0.412783,0.829524,-0.376166
-0.138763,-0.424905,-0.994849,0.118608,0.023074,0.992673
-0.685267,0.431039,0.485991,0.787098,0.573612,0.226816
0.054487,-0.291731,0.022565,0.161478,0.986452,0.028935
-0.278308,-0.519268,-0.984437,-0.088496,-0.061706,-0.994163
-0.512608,0.214878,0.737529,0.633216,-0.773867,0.012948
0.080972,-0.158666,0.311531,-0.539596,-0.823383,0.175718
0.102283,0.547820,0.552602,-0.054583,-0.825640,0.561551
0.691653,-0.219228,0.669247,-0.631563,0.496491,-0.595504
-0.093730,0.804140,0.502158,-0.526256,0.577933,0.623737
0.078202,-0.175392,0.637873,0.162688,-0.968121,-0.190459
-0.200169,0.402821,0.751202,-0.838442,0.137715,-0.527303
0.010659,0.323632,0.699716,0.924913,-0.254456,-0.282468
-0.403164,0.091521,0.579181,-0.770879,-0.176202,0.612126
0.342007,0.192568,0.732049,-0.098206,0.987460,0.123607
-0.728611,0.306674,0.529147,-0.528582,0.848446,0.027202
0.502739,-0.326416,0.693113,-0.585960,0.793433,0.164665
0.398710,-0.348835,0.615871,0.008583,0.992659,0.120640
-0.017273,-0.282806,0.577619,0.998361,0.052894,-0.021864
-0.326707,0.248004,0.604198,-0.246949,-0.859713,-0.447113
-0.447954,0.172159,0.859106,-0.361682,0.925407,0.113169
-0.242064,0.323850,0.678755,0.129558,0.685374,-0.716573
-0.134067,-0.284814,0.957118,0.983134,0.102832,-0.151238
-0.642042,0.248787,0.605595,-0.303967,-0.070161,-0.950096
0.332248,0.284814,0.780795,0.394849,0.378758,-0.837041
-0.338627,-0.594671,0.668781,0.977196,-0.045986,0.207302
0.071221,0.312699,0.865107,-0.210028,-0.832538,0.512610
-0.397990,0.064970,0.783288,0.253537,0.907351,-0.335312
-0.579556,0.278905,0.553561,-0.037850,0.328618,0.943704
0.687560,0.476657,0.680152,0.890287,0.374125,-0.259653
-0.051467,0.585746,0.622583,0.926756,0.170812,0.334584
0.030163,-0.438405,-0.399487,-0.553693,0.821371,-0.137017
0.133104,-0.121965,0.846447,-0.384813,-0.801527,0.457684
0.299980,0.384419,0.646641,0.061078,-0.991529,0.114632
-0.114681,0.211311,0.578578,0.891643,0.452676,0.007523
-0.558119,0.530425,0.475196,-0.686494,0.274491,-0.673336
-0.536205,0.073561,0.789755,0.792870,-0.597573,0.119431
-0.683702,-0.018909,0.705635,0.584996,0.656096,-0.476778
-0.010409,-0.074338,0.669521,0.881295,-0.353756,-0.313332
-0.382095,0.311249,0.585647,-0.430931,0.029001,-0.901919
0.506590,0.551503,0.594114,-0.096312,-0.973861,-0.205714
0.143223,0.184208,0.496568,-0.350700,-0.668340,0.655996
-0.009932,-0.713460,0.631215,0.223253,-0.959446,-0.172109
-0.325502,0.723495,0.567563,0.787939,-0.240645,-0.566783
0.022219,0.085829,0.440835,-0.528355,0.812891,-0.245049
-0.371380,-0.347725,0.793700,0.907737,0.329283,0.259973
0.568599,0.599797,0.599841,0.254279,0.831989,-0.493089
0.650471,-0.096538,0.679549,0.853256,0.173188,0.491895
0.340677,-0.076904,0.601375,-0.395701,-0.641933,0.656767
-0.574375,-0.026710,0.840556,0.946943,0.203961,0.248390
0.006206,-0.117840,0.802852,-0.672826,0.408868,0.616548
0.077239,-0.189117,0.408941,0.969403,-0.245453,0.003117
-0.547162,-0.657690,0.608417,0.755235,0.355562,-0.550632
-0.113601,0.299648,0.676618,-0.649104,0.476574,-0.592908
0.499131,-0.769563,0.505117,0.812155,0.016185,0.583217
0.705374,0.020468,0.469825,0.838941,0.483163,-0.250463
-0.601587,-0.260837,0.537505,0.690706,-0.064594,-0.720245
0.570289,-0.151300,0.695551,-0.634428,-0.197118,0.747426
0.100476,0.227704,0.527805,-0.753682,-0.656981,0.018434
0.599662,0.308573,0.480045,-0.175951,-0.884105,-0.432896
0.010902,0.570578,0.762683,0.588658,-0.320613,0.742084
0.147317,-0.301657,0.546163,0.926371,-0.146223,0.347067
0.133104,-0.153424,0.609541,-0.195409,0.919391,-0.341372
-0.612904,0.307232,0.491006,0.876040,0.360196,-0.320644
-0.056045,-0.088729,0.703196,-0.551667,0.808382,-0.205384
0.082420,-0.300765,0.004316,0.944164,-0.328012,-0.031039
-0.183671,-0.231502,0.509063,-0.298159,-0.927419,0.225820
-0.141893,-0.401371,-0.534409,-0.630078,-0.683082,0.369324
-0.184516,-0.498524,0.796989,-0.682337,-0.724174,-0.099943
0.174287,0.545818,0.569618,0.843815,-0.513005,-0.157488
0.809888,-0.040101,0.581263,-0.472206,0.291169,-0.832011
0.510683,0.145500,0.500651,0.512141,0.419041,-0.749744
-0.044610,-0.387877,-0.710677,-0.705783,-0.707639,0.033437
0.173082,-0.071662,0.586031,-0.363007,0.887345,-0.284333
0.224251,-0.303556,0.705388,0.824907,0.057647,0.562321
-0.230269,-0.021693,0.772273,0.863596,0.496849,0.085691
-0.199802,-0.128548,0.833623,0.908880,-0.323325,0.263435
0.623141,-0.013667,0.685496,0.961002,0.275700,0.021537
-0.780382,0.079920,0.563590,-0.136310,0.691944,-0.708966
-0.116966,0.573921,0.517529,0.852643,-0.483053,-0.199145
-0.022697,-0.400928,-0.670672,-0.088730,0.992464,0.084515
-0.263016,-0.224585,-0.971805,0.112785,-0.956238,-0.269979
0.025107,-0.468522,0.661492,-0.569058,-0.816180,0.100115
0.113358,-0.384753,-0.182776,0.800396,-0.586419,-0.124418
-0.584612,0.220678,0.570961,-0.527894,-0.187203,-0.828422
0.528504,0.867493,0.700895,0.513324,0.706804,0.486751
-0.250853,-0.400812,0.745914,-0.738903,-0.118833,0.663251
0.210884,0.325416,0.809182,0.401653,0.631917,0.662839
-0.851783,-0.033961,0.568769,-0.675680,0.730968,-0.095620
-0.259525,-0.411745,0.731063,-0.782794,-0.555669,0.280118
-0.007162,-0.290390,0.132112,-0.245597,-0.951683,0.184342
0.367647,-0.119963,0.559452,0.130812,-0.986598,0.097528
0.467583,0.322740,0.765341,0.535881,0.490890,0.686920
0.490577,0.596563,0.643655,-0.559803,0.758597,-0.333393
-0.954849,0.278680,0.670096,0.422041,0.810508,0.406150
0.718499,0.385644,0.475305,-0.610217,0.778152,-0.148709
-0.001025,0.712568,0.642668,0.037864,-0.995607,-0.085634
0.559935,0.254363,0.802934,-0.181807,0.839940,0.511319
0.405574,0.591879,0.488594,0.239601,-0.849952,0.469225
-0.366559,-0.127656,0.804414,0.160860,-0.557371,0.814532
-0.278911,0.687134,0.496404,0.310323,-0.656305,0.687723
0.275780,0.738669,0.593128,0.033325,0.978262,0.204676
-0.010652,-0.480456,-0.574742,-0.149065,0.974459,0.167954
-0.490092,0.123864,0.576523,0.805749,0.280563,-0.521587
-0.115283,-0.106130,0.779288,0.256623,-0.039121,-0.965719
-0.423990,-0.181976,0.811648,-0.724149,0.652478,-0.223339
-0.542591,0.409737,0.576468,0.188563,0.892384,-0.409993
0.912109,-0.026601,0.663082,0.367409,-0.902728,-0.223815
0.533803,0.777814,0.655656,0.972959,0.105182,0.205640
0.320328,0.161007,0.612308,-0.204885,0.961179,-0.184817
0.047741,-0.381070,-0.476401,-0.711317,-0.699654,-0.067173
0.787849,0.747703,0.495773,-0.531990,-0.374198,0.759580
-0.550293,0.549052,0.522489,0.803296,-0.135324,-0.580002
-0.519112,-0.039986,0.887575,0.705207,-0.383568,0.596287
0.284812,-0.069096,0.736324,0.344196,0.057601,-0.937129
0.004758,-0.444089,0.642586,0.784736,-0.044369,0.618239
0.932575,0.487367,0.599183,0.740427,-0.668398,-0.070796
-0.057728,-0.621439,0.586825,0.993529,-0.113413,-0.006125
0.755588,-0.219452,0.632694,0.457415,-0.885165,-0.085175
-0.075791,0.203277,0.661492,0.903310,-0.356295,0.238923
-0.308284,-0.408403,0.858339,0.942898,-0.023568,-0.332246
-0.223523,-0.328091,-0.992273,0.115693,-0.063778,0.991235
0.434955,0.868051,0.652094,-0.606550,-0.392886,0.691186
0.918972,0.475766,0.588634,0.752780,-0.642325,-0.144018
0.648788,0.601587,0.446781,0.640483,-0.666801,0.380996
-0.186441,0.001283,0.417956,-0.457724,0.883678,0.097990
0.285657,0.426246,0.700292,0.596002,0.690987,-0.409047
0.749929,-0.762762,0.479114,0.442384,-0.716129,-0.539867
0.570164,0.608280,0.489663,-0.672898,0.704152,0.226668
-0.577145,0.279123,0.491663,0.654667,0.430435,-0.621399
-0.015708,0.333333,0.534436,0.925410,0.236376,0.296215
0.106017,0.291840,0.552986,-0.756986,0.514966,0.402223
-0.284812,-0.613406,0.656341,-0.280718,-0.415044,-0.865411
0.247127,-0.198260,0.801373,-0.783621,-0.413088,-0.464001
-0.038107,-0.420895,-0.670699,-0.088730,0.992464,0.084515
0.155503,0.387877,0.798358,0.178703,0.844645,0.504619
-0.166813,0.138249,0.894480,0.706695,0.694132,0.136980
-0.053275,-0.190901,0.708895,0.088644,-0.555274,-0.826930
0.236655,0.629023,0.468400,-0.053797,0.959275,0.277302
-0.832515,0.293405,0.530517,0.722231,0.691551,0.011815
-0.292638,-0.289498,0.642887,-0.109517,-0.265608,0.957841
0.573655,0.207409,0.774684,0.244186,0.948785,0.200451
0.056530,-0.079137,0.816443,0.798200,0.601901,-0.024307
-0.121662,0.110255,0.913633,0.815893,0.562955,0.131911
-0.116731,-0.425463,0.703689,0.862224,0.195519,0.467271
-0.299737,0.624115,0.506789,0.178812,0.928680,0.324929
0.012225,-0.359101,-0.092052,-0.022274,-0.993647,0.110313
0.060264,-0.149298,0.570523,0.992161,-0.018437,-0.123599
-0.139006,0.203835,0.851461,-0.724811,0.581331,-0.369735
0.046176,-0.160000,0.545232,0.953593,0.112050,0.279472
0.479260,0.884227,0.682481,0.712997,0.514447,-0.476424
-0.240139,0.098771,0.798879,-0.599413,0.060263,-0.798168
-0.624339,0.132115,0.759806,-0.114110,0.965530,0.233945
-0.383777,-0.224804,0.558137,0.377978,-0.924371,-0.051673
-0.306843,0.348834,0.762382,-0.227330,0.914605,-0.334393
0.485521,0.787188,0.667356,0.904439,0.236906,-0.354775
-0.450482,-0.254812,0.810415,-0.622522,0.269076,0.734891
0.304558,0.413978,0.744242,0.782192,-0.075582,0.618436
0.468068,0.281356,0.622940,-0.257344,-0.936619,-0.237738
0.108060,0.450223,0.666972,0.005957,0.960446,0.278402
0.862983,0.598463,0.529175,0.161751,0.463294,0.871318
-0.768823,-0.027609,0.683851,0.767008,0.639526,-0.052011
0.172721,-0.048019,0.630420,-0.219096,0.906523,-0.360850
-0.322496,0.627798,0.493828,0.541493,-0.753956,-0.371936
-0.283004,-0.243770,0.882068,-0.717795,0.629992,-0.296446
0.125763,0.131448,0.467359,0.828167,0.506465,-0.240069
0.054605,0.734319,0.618747,0.828033,0.062269,0.557211
0.524771,-0.075345,0.647545,0.183345,-0.377369,0.907732
0.209561,0.354859,0.866422,0.845390,-0.178690,0.503375
0.124800,-0.037759,0.855544,0.544170,0.371120,-0.752428
0.492987,-0.424572,0.631434,-0.607321,-0.199740,0.768938
0.063277,0.600914,0.755696,-0.414169,0.312368,-0.854921
-0.465893,0.185877,0.588607,0.799064,-0.355842,-0.484638
0.131539,0.674199,0.586004,0.446898,-0.783782,0.431240
-0.489974,0.719702,0.549999,-0.010024,0.692862,0.721001
0.742940,0.134015,0.762464,-0.202527,-0.780046,0.592039
0.508883,0.081254,0.706156,0.583353,-0.095515,0.806583
-0.235083,-0.256930,-0.999014,0.023768,0.265383,0.963850
-0.677919,-0.091071,0.522982,0.188491,0.591101,0.784264
-0.421344,0.047011,0.607157,0.513308,-0.812741,-0.275620
0.067847,0.815516,0.472565,0.007745,-0.687325,0.726309
-0.345248,-0.644307,0.658670,0.313006,0.727888,0.610087
0.531760,-0.002400,0.708567,-0.172527,0.769876,0.614431
-0.225809,0.301990,0.741502,-0.376436,0.926330,0.014469
-0.030038,0.086272,0.475113,0.326197,-0.941422,-0.085560
0.337187,-0.174617,0.471716,0.839556,-0.150909,0.521893
-0.093487,0.027269,0.387404,0.144214,0.988225,-0.051131
0.105297,0.508341,0.692565,0.853127,-0.455403,0.254525
0.052680,-0.482465,-0.495335,0.931371,0.359902,-0.054945
0.099513,-0.442639,-0.310819,0.851693,-0.329728,0.407305
0.429053,-0.069878,0.558713,0.502247,-0.816793,0.283897
-0.269637,0.231278,0.580715,0.120498,0.930995,0.344570
-0.748959,-0.146950,0.513556,0.913521,0.277438,-0.297502
0.501777,0.780272,0.540683,0.439188,0.767454,-0.467042
-0.581121,0.026492,0.586195,0.362124,0.909993,-0.201940
0.624104,0.314932,0.516817,0.911400,0.276499,0.304793
0.124800,-0.077578,0.399926,0.913968,-0.231025,-0.333602
-0.390884,-0.250238,0.814032,0.538493,0.157422,-0.827794
-0.279991,-0.379960,0.735255,0.797564,-0.603212,0.005210
0.806875,0.732311,0.506131,0.059533,0.720353,0.691048
-0.250376,-0.407845,0.662068,0.826180,0.490559,-0.277090
0.432427,-0.403937,0.613952,0.063525,0.416618,0.906860
-0.406052,-0.134239,0.601924,0.961142,-0.009417,0.275893
0.327795,0.298981,0.922127,0.926243,0.359501,-0.113287
-0.360299,-0.097096,0.814936,0.824435,-0.358273,0.438117
-0.513814,-0.051586,0.509035,0.475458,0.354611,-0.805103
-0.171391,0.618205,0.643737,0.030992,-0.905704,0.422775
0.100961,-0.031619,0.688482,0.713307,-0.667584,0.213365
0.756786,-0.759637,0.489143,-0.744711,0.664526,-0.061729
0.157304,0.554961,0.463879,0.053116,0.833634,0.549757
0.030766,0.576712,0.573180,-0.301317,-0.175245,0.937282
0.505392,-0.151640,0.679933,-0.048581,-0.746095,0.664065
-0.299135,0.148516,0.571153,-0.055513,0.168936,0.984062
-0.329838,-0.334674,0.831568,-0.783484,-0.222752,0.580116
0.118539,-0.002175,0.729199,0.356805,-0.930359,-0.084394
0.108788,0.033294,0.706567,-0.358894,0.864539,-0.351805
-0.339354,0.708552,0.536984,0.684377,0.032676,0.728395
0.518275,0.503099,0.561096,-0.376627,0.309794,-0.873029
0.580519,0.374936,0.546054,0.975487,0.215550,0.044306
0.410755,0.268196,0.772958,0.372068,0.181334,-0.910320
0.302390,0.492833,0.552520,0.436485,0.656262,0.615468
-0.603270,0.030842,0.853982,-0.390062,0.895062,0.216136
0.723797,0.764096,0.499473,0.227016,0.679324,-0.697841
0.032691,0.338575,0.490978,0.814432,0.002657,-0.580253
-0.161640,0.286489,0.492074,-0.675883,-0.213410,-0.705435
0.280116,0.051586,0.714239,-0.107202,0.992093,0.065266
-0.115526,0.001508,0.403077,-0.216254,0.954762,0.204116
-0.800849,0.000834,0.709855,-0.601760,-0.597108,0.530421
0.450968,-0.070995,0.743366,0.585253,-0.808310,-0.064145
-0.550058,-0.059728,0.502651,0.756194,0.192005,-0.625543
0.340920,-0.208411,0.757422,-0.678206,0.733035,0.051936
0.432669,0.758963,0.734652,0.110243,0.316605,0.942130
-0.377399,0.404720,0.565727,0.916474,0.240644,-0.319634
0.510088,-0.348726,0.655766,0.852780,-0.521598,0.026486
0.240382,0.600580,0.577537,-0.014675,0.804423,0.593876
-0.260245,-0.330433,0.758490,0.773153,0.628508,0.084924
0.388238,0.245220,0.786138,-0.314181,-0.687973,0.654205
0.509243,-0.484248,0.628940,0.910086,-0.083738,-0.405871
-0.408704,0.453123,0.612116,0.941417,-0.314843,0.120866
0.010174,0.078245,0.586305,0.900775,-0.277826,0.333792
0.099638,0.857452,0.608445,0.192133,0.445933,0.874202
-0.461557,-0.221236,0.792851,0.738152,-0.115444,-0.664684
0.544517,0.050803,0.659328,0.208409,0.705700,-0.677165
0.023542,-0.066870,0.337096,0.836415,0.457699,-0.301532
0.001025,-0.217894,0.228206,0.597838,0.715319,-0.361812
0.833000,0.658807,0.520653,0.947213,0.287178,-0.142537
0.102769,0.504433,0.681084,-0.034800,-0.813572,0.580422
0.016678,0.284814,0.829979,-0.162704,-0.606508,0.778252
0.072786,0.183759,0.476894,0.896052,0.408203,-0.174529
0.017523,0.252246,0.813949,0.095112,-0.376550,0.921501
0.565108,0.592329,0.482922,0.482738,-0.870357,-0.097176
-0.135390,-0.455690,0.761450,0.777971,-0.627118,-0.038521
-0.171751,0.405503,0.800633,0.764512,-0.420956,-0.488177
-0.374386,-0.297756,0.564357,0.887632,-0.454707,0.073150
-0.158266,-0.481015,0.712896,0.638023,0.354621,0.683499
0.082898,-0.228378,0.489663,0.764720,0.640464,0.070776
0.516827,0.170600,0.730323,-0.261515,-0.816215,0.515172
-0.708864,0.211201,0.581044,0.511155,0.780802,0.359260
0.631570,0.207852,0.529586,-0.146601,-0.244655,0.958463
0.065320,-0.440971,0.598745,0.860096,0.507842,0.048296
0.422432,0.342034,0.613377,0.072938,-0.971936,-0.223651
-0.572207,-0.476549,0.582031,0.990871,0.122254,0.056827
-0.553188,0.340808,0.535395,0.886984,0.335482,-0.317349
-0.036182,0.508559,0.647600,0.387222,0.877569,0.282721
-0.104326,0.586079,0.631434,0.803115,0.491084,0.337407
-0.303588,-0.475882,0.757888,-0.022016,-0.772158,0.635049
-0.277221,0.167366,0.600690,-0.208058,-0.040143,-0.977292
-0.217144,0.506551,0.545999,-0.678778,-0.091179,0.728661
-0.268799,0.576154,0.622775,0.468891,-0.777093,0.419843
0.054120,0.766438,0.573865,0.946859,-0.318973,0.041398
-0.792427,0.008976,0.531915,0.730657,-0.660663,0.172237
-0.460234,-0.119514,0.845296,0.257666,-0.469977,-0.844233
0.595569,0.008976,0.694921,0.939041,-0.261964,0.222658
0.090724,-0.477332,-0.537861,-0.505199,-0.747971,-0.430481
0.043530,-0.486924,-0.419463,-0.179094,0.975178,-0.130205
-0.285532,-0.102781,0.843022,0.545515,0.774825,0.319467
-0.171634,-0.057495,0.932594,-0.818112,0.029560,0.574298
-0.345851,-0.399478,0.704018,0.711473,-0.685372,-0.155147
-0.375716,0.504324,0.518543,0.956694,-0.132973,0.258949
-0.369572,-0.654675,0.673850,0.713497,0.675630,-0.185596
0.076034,-0.227261,0.176172,0.389990,-0.911717,0.129152
-0.313950,0.661482,0.529120,0.909122,0.154816,0.386689
0.662391,-0.030618,0.609869,0.247619,0.855335,0.455067
-0.471073,-0.225028,0.785864,0.818193,0.005941,-0.574913
0.183311,0.095421,0.791673,0.580175,0.740187,0.339883
0.419184,-0.362226,0.612034,0.393048,0.916901,-0.069326
-0.081090,0.712344,0.662287,-0.124836,-0.977655,0.169133
0.692131,0.671075,0.472976,0.353613,-0.915273,0.192958
-0.367287,0.375718,0.615871,0.470015,-0.638128,0.609819
0.100601,-0.337793,-0.150224,-0.472305,0.871263,-0.133523
0.510683,-0.216328,0.602143,-0.417205,0.907345,0.051614
0.408102,-0.007751,0.599046,-0.321542,-0.305003,0.896428
0.096140,0.525401,0.698675,-0.688599,0.613189,-0.387079
0.471676,0.478782,0.562165,-0.020290,0.250106,0.968006
0.405934,0.218669,0.774164,-0.097825,-0.526349,0.844622
0.119744,-0.536784,0.678070,0.692737,0.568355,0.443946
-0.156819,-0.099322,0.772164,-0.600136,0.482528,-0.637969
0.306006,-0.510009,0.580688,0.933606,-0.238304,-0.267564
-0.576183,-0.022701,0.889767,-0.604642,-0.728594,-0.321806
0.364039,0.469299,0.559206,-0.712740,0.042475,0.700141
-0.591233,-0.313148,0.747092,0.515770,0.845499,0.138250
-0.604115,0.488149,0.512351,-0.547963,0.594367,0.588612
-0.697790,0.009534,0.469852,-0.015547,-0.276438,0.960906
-0.019566,0.004742,0.485690,0.825368,0.039989,-0.563177
0.038349,-0.055827,0.682016,-0.208597,0.977938,-0.011127
-0.765817,0.247895,0.593566,0.993661,0.112025,-0.009425
-0.184391,-0.270538,-0.994629,0.131083,0.185822,0.973801
-0.510566,0.177625,0.571975,-0.658651,-0.201173,0.725057
-0.141291,-0.029611,0.457412,-0.451061,-0.892335,0.016796
-0.246518,0.582403,0.626885,-0.209868,0.871406,-0.443403
-0.006081,0.488598,0.710485,-0.704419,0.454300,-0.545349
0.603395,-0.119065,0.656341,-0.556692,0.148416,0.817354
0.042082,-0.372710,-0.104630,-0.119309,0.989454,0.082138
-0.102276,0.306898,0.842474,0.272562,-0.436187,-0.857584
-0.643005,-0.150299,0.568303,0.507625,0.586207,-0.631410
0.185839,-0.486366,-0.550958,0.278640,0.789603,0.546706
0.560772,0.019351,0.564494,-0.010952,-0.914361,0.404752
0.209921,-0.131673,0.795947,0.356743,0.925386,0.128043
0.292881,-0.440188,0.433163,-0.444793,0.894263,-0.049529
-0.425078,0.231611,0.580277,0.101560,-0.973174,0.206443
0.357895,-0.234287,0.767944,-0.600083,0.717017,-0.354666
-0.424717,0.126656,0.792084,-0.011759,-0.895190,0.445529
-0.425320,0.097321,0.594388,0.419573,0.218685,0.880985
-0.054723,0.269531,0.605239,-0.206510,0.119697,0.971095
-0.767382,-0.074120,0.523256,0.879378,0.447485,-0.162640
-0.163925,-0.340808,-0.993999,0.086994,-0.193147,0.977306
-0.077239,-0.079362,0.392884,0.219439,-0.676373,0.703111
-0.018839,-0.129773,0.338439,-0.335300,0.623156,-0.706577
0.081457,-0.369027,-0.049582,0.854279,-0.388121,0.345787
0.029920,0.452231,0.554740,-0.575943,-0.817462,0.006669
0.632533,0.248454,0.759861,-0.749535,0.527281,0.400215
-0.351149,0.170934,0.818443,0.153110,-0.981936,-0.111168
0.055567,-0.127765,0.691989,0.929348,0.237356,-0.282797
-0.384740,0.065195,0.807921,0.701855,-0.330055,-0.631240
0.643607,0.092971,0.572112,0.955040,0.136188,0.263348
0.136837,-0.024593,0.441027,0.601537,0.508868,-0.615798
-0.187161,-0.437955,-0.977203,-0.567588,0.541583,-0.620106
0.070618,-0.115389,0.676782,-0.677873,0.529557,0.509958
0.100718,-0.389327,-0.281007,-0.649530,0.757935,0.060377
0.768830,-0.202944,0.775753,-0.462112,0.844475,0.270767
0.149602,0.515367,0.565124,0.803879,0.476965,0.355363
0.126725,-0.315599,-0.116275,-0.136867,0.990551,-0.008675
0.950396,0.491050,0.605814,-0.338905,0.842499,0.418735
0.176572,0.392336,0.884671,0.973375,0.223819,-0.049451
-0.433749,0.443088,0.596964,0.725097,-0.620059,-0.299604
0.655167,-0.200493,0.403433,0.693619,0.303861,0.653117
-0.109382,-0.347943,-0.786056,0.153021,-0.986434,-0.059440
0.048704,-0.280239,0.137428,-0.039565,0.999217,-0.000338
-0.386070,0.066536,0.805072,-0.459958,0.281620,0.842098
0.639882,0.160674,0.559726,0.922294,0.044479,0.383920
0.012100,-0.079137,0.848556,-0.000280,0.868212,0.496193
0.459639,-0.018235,0.713800,0.349806,0.841729,0.411251
0.409550,0.151858,0.747092,0.649516,0.219897,0.727856
0.356572,0.769229,0.596361,0.456215,-0.740386,-0.493657
0.703573,-0.599464,0.621707,0.479409,0.806322,0.346428
-0.314185,0.030284,0.583154,0.454320,0.537852,0.710147
-0.513211,0.297307,0.612582,0.423014,0.883683,0.200407
0.558487,0.225811,0.594005,-0.759209,-0.270142,0.592136
0.507920,0.711785,0.656642,0.913052,0.344905,-0.217664
0.274458,0.310357,0.582003,-0.289790,-0.727415,0.622004
-0.534765,0.460714,0.467277,-0.671513,0.570982,-0.472281
-0.475402,-0.292289,0.779617,0.596191,0.499040,-0.628900
0.512249,0.492833,0.752380,0.839324,0.325356,-0.435522
-0.390281,0.071220,0.805099,0.225753,-0.375408,-0.898946
0.052437,0.362335,0.662890,-0.201527,0.578334,-0.790516
0.400158,0.377502,0.635051,0.000619,-0.868794,0.495173
-0.342602,0.051810,0.565590,-0.509573,-0.784553,-0.353287
-0.226654,-0.247895,0.691879,0.033405,0.473249,0.880295
0.039437,0.236962,0.507446,0.962004,0.238220,-0.133414
-0.065437,-0.438405,0.607431,-0.494565,0.679459,-0.541978
-0.249531,-0.135016,0.849159,0.799862,0.286440,0.527421
-0.255314,-0.441972,-0.994684,-0.178427,-0.010009,-0.983902
0.057853,-0.495508,-0.505254,0.818895,0.570631,-0.061569
-0.131179,-0.462382,0.703278,0.960317,-0.036890,0.276460
0.107222,0.059504,0.741201,0.719473,-0.184303,0.669620
-0.140203,0.588646,0.489444,0.850799,0.245396,-0.464674
0.253991,0.412528,0.548382,-0.220551,-0.028088,-0.974971
0.078444,-0.074678,0.630475,-0.343203,0.938986,0.022718
-0.217387,-0.523734,0.652998,-0.166206,0.053045,0.984663
0.248810,0.680776,0.752654,0.646497,0.648471,-0.401904
0.099755,-0.413304,-0.217712,-0.706238,0.706728,0.041999
0.439290,-0.077463,0.794413,-0.113929,0.976990,-0.180306
-0.050865,0.181193,0.823567,0.134132,0.922864,0.361014
0.482633,0.240536,0.807839,0.785983,0.554659,-0.273100
0.057251,-0.328316,0.673192,0.353954,-0.634402,0.687205
-0.086028,0.162342,0.651683,0.995957,0.087033,-0.022245
-0.221238,-0.206068,0.848913,0.412918,-0.565853,-0.713659
-0.152850,0.701526,0.518735,0.892279,0.240179,-0.382298
0.892003,-0.032293,0.771123,0.945922,-0.301147,-0.120588
0.055325,-0.276781,0.792686,-0.359969,0.620537,0.696675
0.299142,0.936422,0.539066,0.829469,0.551221,-0.090198
0.170789,0.020134,0.446260,0.667852,0.510964,-0.541193
-0.307689,0.479449,0.568687,0.676642,-0.532245,-0.508794
-0.485036,0.101664,0.763669,-0.113150,0.745951,0.656318
-0.277345,0.274439,0.505446,0.376191,0.673828,0.635954
-0.203535,-0.581062,-0.991314,0.123031,0.163913,0.978773
0.773401,0.282806,0.558959,-0.745250,-0.323715,0.582933
-0.342360,-0.499974,-0.988190,0.088776,0.137015,0.986583
0.003553,0.642965,0.600471,-0.374360,0.715683,-0.589621
0.043648,-0.387428,-0.660534,0.143220,0.977918,0.152197
0.335503,-0.443538,0.590141,0.899076,-0.130210,-0.417980
-0.356448,0.533101,0.546300,-0.174588,-0.091222,0.980407
0.548375,-0.680558,0.459386,0.716345,0.369513,0.591869
-0.162602,0.061737,0.524599,0.794251,-0.605162,-0.054270
-0.150198,0.544477,0.535614,-0.301938,0.837457,0.455521
0.182473,0.460040,0.645518,0.756331,0.521871,-0.394478
-0.450600,-0.230386,0.797920,0.912888,0.010654,-0.408070
-0.375834,-0.380627,0.802496,0.416605,0.903846,-0.097483
-0.633010,-0.001617,0.504213,-0.650144,0.694551,-0.308078
-0.049064,0.441189,0.521009,0.890674,0.319786,0.323166
0.098190,-0.367243,0.594936,0.872176,0.488752,-0.020765
-0.417009,0.030952,0.855544,0.222451,-0.905679,0.360917
0.285532,0.566228,0.801482,0.892832,0.257439,0.369561
0.412438,-0.074338,0.785398,-0.530389,0.809879,0.250568
-0.769786,-0.122639,0.516625,-0.062814,0.935285,0.348278
-0.163807,-0.438629,-0.995397,0.212128,0.130336,0.968511
0.349231,0.600022,0.766738,0.596018,0.458259,0.659364
-0.089276,0.123415,0.785398,-0.632708,0.662951,0.400220
0.106017,-0.155207,0.384472,0.978544,-0.204692,-0.023515
-0.600140,0.243436,0.503528,0.946795,0.202905,-0.249818
-0.045088,-0.176400,0.505062,-0.436272,0.880140,-0.187136
-0.594966,0.088280,0.615322,-0.209760,-0.949713,-0.232478
-0.222921,-0.345267,0.868641,0.968331,0.156015,-0.194919
-0.271327,0.228377,0.591648,0.206192,0.908545,0.363361
-0.128886,-0.279797,0.655958,-0.747834,-0.260720,-0.610549
0.085308,-0.381410,-0.205135,0.559951,-0.816492,0.140698
-0.750524,0.294406,0.580606,0.951108,-0.307638,-0.027417
-0.340677,0.752496,0.566467,-0.751362,0.111322,0.650432
-0.018604,0.474765,0.734707,0.887553,-0.447819,-0.108202
-0.156459,-0.979590,0.632174,0.587042,0.688631,-0.425639
0.807595,-0.180975,0.616473,-0.016750,0.847691,0.530226
0.158751,0.428588,0.620254,0.694977,0.510475,-0.506382
-0.427723,0.600696,0.522160,-0.292716,0.940716,0.171380
-0.236046,0.129889,0.786412,0.786792,0.454938,0.417121
0.633378,0.287823,0.746380,0.861948,-0.149679,-0.484398
-0.400275,-0.393119,-0.985259,-0.018377,0.256354,0.966408
0.607011,0.207852,0.767012,0.158305,-0.874465,-0.458530
-0.348019,-0.075570,0.531449,0.718698,0.488980,0.494340
-0.489129,-0.293964,0.788001,0.325034,0.635863,-0.700023
0.029443,0.187109,0.512241,0.681646,-0.578582,0.447886
0.702971,0.592887,0.519173,0.067688,0.925143,0.373535
0.049189,0.459373,0.584058,0.976179,0.188810,-0.106888
-0.243387,0.322849,0.769478,0.232126,-0.896104,0.378305
-0.035697,-0.399921,0.530380,0.947946,-0.304494,-0.093172
-0.847690,0.079695,0.567262,0.973235,0.150284,-0.173860
0.523690,-0.310023,0.579564,-0.372038,0.922674,0.101290
0.163330,-0.503433,0.713225,-0.738463,0.540111,-0.403673
-0.270724,0.698844,0.516461,-0.681747,0.728407,0.068140
0.751730,0.425354,0.605952,-0.093377,0.146484,0.984796
0.682019,-0.460932,0.411653,0.873734,0.260549,0.410734
-0.374151,-0.614189,0.661711,-0.584562,-0.667087,-0.461825
-0.340552,-0.527744,0.675056,-0.335307,-0.145655,0.930781
-0.117929,0.045895,0.467934,0.547745,-0.648270,0.528888
0.480465,0.202719,0.770547,0.669443,-0.490572,0.557840
-0.151888,0.561878,0.475524,0.346122,-0.430515,0.833581
0.250861,0.962639,0.535285,0.471479,0.871848,-0.132624
0.592320,-0.218785,0.685824,0.964628,-0.262451,-0.024753
0.016678,0.703309,0.620802,0.478464,-0.729242,0.489161
-0.406177,-0.202168,0.800907,-0.595289,0.736650,-0.320902
0.256762,0.398919,0.629077,0.176280,-0.984149,-0.019373
0.751127,-0.073003,0.591045,-0.520475,0.799712,-0.299276
0.123352,0.141374,0.790741,-0.776797,-0.629079,0.029079
-0.220275,-0.513692,-0.988163,0.208500,0.033716,0.977441
-0.171149,0.659917,0.472894,-0.282397,0.305505,0.909351
0.044728,-0.348501,-0.149895,-0.584270,0.797964,-0.147924
0.447954,-0.056385,0.527366,0.058293,-0.961341,0.269118
-0.634576,-0.559086,0.542546,0.887392,-0.082078,-0.453649
0.045816,-0.228602,0.324437,0.927989,-0.367315,-0.062583
-0.297812,0.680776,0.495006,0.595024,-0.432127,0.677652
0.422072,-0.319840,0.686893,-0.128999,0.914173,-0.384249
0.370778,-0.309908,0.571618,-0.456133,0.664739,0.591662
0.759314,-0.026710,0.593375,0.729796,0.358775,0.581960
0.039915,-0.174392,0.274404,0.434359,-0.885861,-0.163040
0.801701,-0.029392,0.590826,0.012737,-0.626414,0.779387
-0.538373,0.019576,0.873847,-0.250981,0.867776,0.428921
-0.353802,-0.516817,0.725911,0.746934,0.360789,0.558499
-0.307204,-0.413420,0.785535,0.557788,0.817251,-0.144822
0.405331,0.703418,0.659054,0.001075,0.884972,0.465642
0.015833,-0.216661,0.815046,0.762527,-0.461253,-0.453650
0.563183,-0.675649,0.487142,0.725554,0.490236,0.482950
0.038232,-0.141041,1.000000,0.842942,-0.222790,-0.489708
-0.244717,-0.195469,0.915578,0.579955,-0.806907,-0.112041
-0.071698,-0.283031,0.696483,0.214404,-0.961658,0.171010
0.041362,0.739112,0.622063,0.703898,0.194966,0.683019
0.087116,0.423121,0.492074,0.967890,-0.225380,-0.111323
-0.541144,0.608280,0.538765,0.659324,0.476840,-0.581305
-0.204622,0.257154,0.554219,-0.667088,0.490977,-0.560299
-0.386188,-0.244546,0.813511,0.657785,0.233661,-0.716045
-0.032809,-0.418547,-0.646915,0.180807,0.959258,0.217103
0.043288,-0.381853,-0.222315,-0.102946,0.978300,0.179806
0.177417,0.066870,0.742653,-0.699688,0.710867,0.071449
0.108060,-0.342817,-0.203683,0.578653,-0.814881,0.033625
0.010535,-0.237296,0.739858,-0.346934,0.789347,-0.506526
0.205225,0.526184,0.552685,0.881194,0.279045,0.381617
0.081457,-0.122639,0.853681,0.070261,0.715757,0.694806
0.969297,0.537676,0.568385,0.996373,0.074791,0.040588
-0.094332,0.557303,0.618912,0.296818,0.954861,0.011826
0.434955,-0.319949,0.636229,0.968528,0.248014,-0.021046
0.512131,0.565002,0.576030,0.000011,-0.994026,0.109143
0.076997,-0.467964,-0.347838,0.971099,0.093905,-0.219427
0.954607,0.547268,0.596717,0.981307,0.011623,0.192097
0.322019,0.146391,0.692154,-0.730879,0.630753,-0.260706
0.307931,0.458372,0.760820,-0.125758,0.926881,-0.353662
-0.218828,0.500199,0.539285,-0.406977,0.382311,0.829583
0.072543,-0.376386,0.610472,-0.777924,0.478384,0.407411
-0.271562,-0.292174,-0.991342,-0.000221,0.227942,0.973675
0.131539,-0.322182,0.586414,-0.416455,0.908748,0.027238
-0.221238,-0.432380,0.682810,-0.194113,0.441180,0.876174
0.312142,0.748595,0.580715,0.123467,0.992027,-0.025264
0.082655,0.310357,0.511529,0.987332,0.134594,-0.084028
0.084220,0.719702,0.611870,0.773255,-0.220855,0.594390
0.209443,-0.487482,0.621104,-0.076385,0.997064,-0.005352
0.001870,0.468965,0.722815,-0.539479,0.768970,-0.342997
-0.293476,-0.034519,0.815429,-0.658471,0.744282,0.111623
-0.076636,0.480674,0.455028,-0.347550,0.651053,0.674788
0.236413,-0.153866,0.842693,0.289897,0.900991,-0.322761
0.077121,-0.394011,-0.238290,0.868902,0.491288,-0.060386
0.099035,-0.384194,-0.129564,-0.283452,0.933438,-0.219881
0.849740,0.740119,0.529613,0.209925,-0.965470,-0.154270
-0.484676,0.090404,0.608390,0.252917,-0.340287,-0.905670
0.492025,0.834700,0.563289,0.400090,-0.908062,-0.123900
0.940886,0.566786,0.527586,-0.719623,0.046312,0.692818
-0.114321,0.340475,0.713088,0.834075,-0.364511,0.414067
-0.212927,-0.096422,0.835706,0.716493,-0.571458,0.400091
0.194753,0.025485,0.461769,-0.962005,0.081700,0.260522
-0.267954,0.067870,0.775534,-0.834441,0.332665,0.439367
-0.324422,-0.074787,0.574030,0.131819,-0.668846,0.731620
-0.340795,0.228044,0.585730,-0.238330,-0.919595,0.312319
-0.224611,-0.287490,0.909824,-0.425291,0.011791,0.904980
0.313832,0.881211,0.562740,0.563228,0.795341,0.224069
-0.047374,-0.084270,0.775726,0.546106,0.835897,0.055179
0.386791,-0.100105,0.755367,-0.882727,0.210003,-0.420346
-0.524889,0.055269,0.538107,-0.030182,-0.517694,0.855033
0.646980,0.763871,0.468619,-0.591080,-0.534296,-0.604279
0.148640,-0.118398,0.415160,0.737730,-0.669058,-0.090084
0.243034,0.043110,0.586689,0.762388,-0.126588,-0.634618
-0.422667,0.190343,0.591128,0.646936,0.274006,-0.711614
0.409307,0.520834,0.705635,0.964304,-0.243875,0.103169
-0.473961,0.275780,0.575756,0.952104,-0.271146,0.141345
-0.479378,-0.299982,0.581181,-0.685632,0.224364,0.692509
-0.320806,-0.210643,0.832253,0.462350,-0.733079,-0.498826
0.456868,0.696617,0.622912,-0.293570,0.220304,0.930206
0.771961,0.761305,0.507583,0.767938,0.546664,-0.333811
0.410873,0.565111,0.731419,0.844022,0.080769,-0.530192
-0.036659,-0.135240,0.674261,-0.476039,0.623674,0.620014
0.008969,-0.128548,0.522379,-0.271630,0.926650,-0.259878
0.620731,0.318499,0.772301,-0.049948,0.016134,0.998622
0.045573,0.602588,0.552520,0.984335,-0.116200,0.132597
-0.327310,0.465064,0.529422,0.810560,0.219390,-0.543010
-0.380772,0.558419,0.633571,0.947171,-0.097866,0.305433
0.519480,0.167250,0.672452,-0.688480,0.422322,-0.589609
-0.305756,0.626123,0.502048,0.892726,-0.336009,0.300232
-0.335856,-0.564553,-0.986190,-0.087557,-0.087918,0.992272
-0.324782,0.287823,0.790988,0.934606,-0.069143,0.348901
-0.412070,0.878092,0.556630,-0.433075,0.724703,0.535959
-0.293358,-0.356201,0.841378,0.739691,0.356500,-0.570758
-0.783035,0.092412,0.579839,0.732924,0.334829,-0.592210
-0.071456,0.465616,0.592224,-0.203239,0.568744,0.797009
0.520920,-0.302548,0.683769,0.859622,-0.480017,0.175022
0.383903,0.228711,0.705580,-0.094955,-0.971593,0.216773
-0.307446,-0.175175,0.544601,-0.858481,0.155061,-0.488842
0.001143,-0.422454,-0.360716,-0.020939,0.957884,0.286390
-0.265301,-0.150074,0.755093,0.757068,-0.639520,0.133652
