-0.219527,0.603782,0.573828,-0.562256,0.386458,-0.731107
-0.120000,-0.331929,0.299131,-0.505357,0.799780,0.323985
-0.463313,-0.080566,0.736283,0.177997,0.976552,-0.121091
-0.408702,0.026785,0.392086,0.081056,-0.994591,0.064953
0.312729,-0.558008,0.571369,-0.723078,-0.321641,0.611314
-0.141004,-0.209302,0.870916,0.757019,-0.064759,0.650176
-0.433677,0.333140,0.054551,-0.120703,-0.261173,0.957716
-0.174241,-0.081619,0.506304,-0.135388,0.416762,0.898877
0.466959,-0.276726,0.736466,0.877723,0.464115,-0.119161
0.280370,0.474097,0.552765,-0.371838,-0.767755,-0.521812
-0.082793,-0.275567,0.049601,0.283900,0.954165,0.094708
0.739919,0.159051,0.270909,0.138318,0.852044,0.504866
-0.134357,-0.505965,0.719473,-0.189320,0.604987,0.773401
0.129787,-0.763123,0.315244,0.317807,-0.469521,-0.823740
-0.741628,-0.404409,0.615222,0.896158,-0.422121,0.136798
-0.008286,-0.582976,0.364562,-0.530297,-0.847429,-0.025486
0.114414,-0.404936,-0.452252,0.930170,-0.327886,-0.165151
0.256966,-0.479628,0.718692,0.064987,0.279763,0.957867
0.117877,0.144776,0.095929,0.000429,-0.953668,0.300861
0.518200,-0.382496,0.495291,0.484607,-0.254955,-0.836752
0.084454,-0.402091,-0.964602,-0.043429,0.159433,0.986253
-0.067790,-0.560958,0.371223,0.819965,0.571336,0.035096
0.744444,0.150992,0.288151,0.093352,0.648653,0.755338
-0.038108,-0.390766,0.145911,0.849078,0.527687,0.024755
-0.490871,0.499012,0.721848,-0.196924,0.837655,0.509465
0.152453,-0.222787,-0.680803,0.083726,-0.963325,0.254940
0.215742,-0.286734,0.779954,0.907508,-0.250192,-0.337392
-0.000301,-0.290105,-0.976894,-0.210086,-0.095306,0.973026
0.484317,0.426111,0.517749,-0.139362,0.954934,-0.262066
0.201061,0.464932,0.031112,-0.719291,0.449225,-0.529923
0.295927,-0.564750,0.552482,0.824670,0.450603,-0.341872
-0.138974,0.498802,0.302271,0.054443,-0.665622,0.744300
0.383589,0.175591,0.343865,0.059551,-0.318424,0.946076
0.095396,-0.080934,-0.800485,0.968876,0.238982,-0.064547
-0.682078,-0.630383,0.577931,-0.731235,0.143779,-0.666801
0.556515,-0.159683,0.351007,0.178157,0.174633,0.968382
0.138419,-0.021254,0.382801,0.942900,-0.097645,0.318442
0.089302,0.194448,-0.143752,-0.264143,0.427497,-0.864566
-0.309359,0.752904,0.676849,-0.619702,-0.639435,-0.455074
0.622251,-0.029261,0.436106,-0.588343,0.323893,-0.740909
0.006947,-0.320024,-0.973389,-0.158480,-0.030298,0.986897
0.027397,0.625168,0.717131,-0.345504,-0.046366,0.937271
0.074022,0.249388,0.266507,0.021061,-0.894493,0.446585
0.411149,-0.646817,0.652082,0.947609,-0.318905,0.018376
-0.247825,-0.189760,0.480756,0.668863,-0.336211,-0.663012
0.528541,0.100582,0.261042,-0.264423,-0.742501,0.615445
0.246532,-0.058021,-0.475989,-0.355476,-0.312734,0.880814
0.540820,0.351155,0.279231,-0.209310,0.250306,-0.945270
-0.552222,-0.029840,0.811133,-0.651431,0.747229,0.131478
-0.762493,-0.018620,-0.026927,0.761289,-0.426455,-0.488441
0.163254,0.024994,-0.145795,0.207640,0.078692,0.975035
0.110398,0.590877,0.595339,0.434748,0.646128,-0.627306
0.033307,-0.376333,0.889304,0.819007,-0.553031,-0.152921
-0.670306,-0.464036,0.513148,0.980190,0.048014,0.192153
-0.602540,-0.171113,0.335825,0.626981,0.765158,0.146381
-0.519723,-0.257289,0.536154,-0.459371,0.774783,0.434383
-0.123970,-0.021149,0.444395,0.111249,-0.984617,0.134731
0.025966,0.606995,0.771781,0.336263,0.672396,-0.659402
-0.294033,0.389239,0.477085,0.106257,-0.662466,0.741518
0.485470,0.116911,0.250461,-0.378495,-0.424583,0.822478
0.428460,0.248440,0.323583,-0.149884,0.725871,0.671302
-0.295280,0.320340,0.059534,-0.063882,-0.146770,0.987106
0.115846,-0.410308,-0.444478,0.931053,-0.351166,-0.099113
-0.754600,-0.083147,0.054617,0.931061,0.179783,-0.317496
-0.196584,-0.506123,0.519327,0.080406,-0.580544,0.810249
-0.426982,-0.218731,0.592631,-0.506431,0.378426,-0.774804
0.491010,-0.101952,0.537599,0.312357,0.325643,-0.892407
-0.218834,-0.163950,0.159665,0.822144,0.518960,0.234007
-0.125124,0.070347,0.224830,0.976520,0.089172,-0.196103
0.149821,-0.103268,0.624010,0.874452,-0.092622,0.476187
0.237439,0.420001,0.270892,-0.565867,0.637303,0.523105
-0.493365,-0.781875,0.306889,-0.035652,0.528733,0.848039
-0.016227,0.393558,0.472650,0.826515,-0.418471,-0.376503
0.250780,0.463878,0.563396,0.213647,-0.941312,0.261316
-0.523186,0.320288,0.310410,0.243933,0.968713,-0.045732
-0.232637,0.404040,-0.142058,0.072673,-0.671327,0.737590
-0.166301,0.379072,0.775934,0.997611,0.067446,-0.014978
0.203417,-0.451026,0.477500,0.934930,0.346749,-0.075311
-0.056619,-0.394085,0.765751,0.892202,-0.450370,-0.033806
-0.249717,-0.283310,0.207771,0.370480,0.852654,0.368410
-0.777450,-0.343886,0.457434,-0.128955,0.618404,0.775208
-0.429521,-0.294372,0.037724,-0.353138,0.512489,-0.782719
-0.139250,0.323501,0.687630,0.074255,-0.976703,0.201338
0.526094,0.428903,0.262089,0.016979,0.276436,0.960882
0.689326,0.115436,0.282720,0.139073,0.553229,0.821338
-0.474023,-0.616161,0.428298,-0.006715,0.615319,0.788250
0.246855,-0.155048,-0.967027,0.160513,0.408919,0.898343
-0.060358,0.121863,0.629475,0.590879,0.226626,-0.774276
-0.344166,0.419579,0.157306,-0.328834,-0.780135,0.532220
-0.745044,-0.098633,0.398415,0.922771,-0.288166,0.255839
0.067236,0.531618,0.779655,0.743473,0.658025,-0.119377
-0.163162,-0.177382,0.881497,0.998502,0.047918,0.026429
-0.199816,-0.239221,0.023023,0.048343,-0.896622,0.440150
0.593999,0.404462,0.284829,-0.023547,-0.064483,0.997641
0.438154,-0.494377,0.622564,-0.396721,0.837802,0.375101
0.061788,-0.331297,0.875966,0.855749,-0.501228,0.128310
-0.314576,-0.104217,0.804256,-0.278715,0.925882,-0.255071
-0.097796,0.028523,0.816598,0.245581,0.711559,-0.658312
0.126417,-0.231636,0.214631,-0.461093,-0.052646,-0.885789
0.185043,0.385130,0.198801,0.372310,0.670718,-0.641501
0.415904,-0.564539,0.387053,-0.169366,-0.215470,0.961711
-0.153976,0.499855,0.683776,0.550063,-0.381172,0.743060
-0.359076,0.689852,0.679125,0.640031,0.155277,-0.752496
0.097334,-0.055703,0.656484,-0.306559,-0.070716,0.949221
-0.023427,0.036214,-0.115081,0.391490,-0.909866,0.137401
0.440877,0.428586,0.265162,0.558814,-0.602071,-0.570296
0.091840,0.711660,0.579326,0.199111,0.933499,-0.298217
-0.189798,-0.257974,0.161824,0.797805,0.504552,0.330052
-0.218327,0.168532,0.509892,0.346171,-0.134204,-0.928523
0.286324,0.488056,0.253002,-0.675723,0.323762,0.662251
-0.286971,0.748953,0.654773,0.949614,0.296111,-0.102717
-0.094841,0.439543,0.841946,0.039866,-0.340432,0.939423
-0.210618,-0.494377,0.579343,-0.172259,-0.810348,0.560056
0.020935,0.166689,0.324696,-0.234157,-0.367623,0.900013
0.066589,0.146778,0.800369,-0.388870,0.454211,0.801544
0.053064,-0.101741,0.802279,0.781075,0.484041,-0.394494
-0.063035,0.256815,0.642365,-0.426304,-0.217194,0.878118
-0.141604,0.057863,0.866713,-0.177078,-0.977194,0.117201
-0.035292,-0.394927,-0.795884,-0.766214,0.642189,-0.022581
0.056618,0.523295,0.763276,-0.701118,-0.543989,0.460987
-0.135049,0.194395,0.347552,0.891676,0.450516,0.044149
0.292648,0.691274,0.586917,-0.039249,0.374278,0.926486
0.079654,-0.161579,-0.867594,0.897003,-0.432540,0.091073
-0.773156,-0.561484,0.581519,-0.606708,0.201814,0.768880
0.095625,-0.421054,-0.016594,0.445839,0.602163,0.662290
0.377496,-0.231847,0.692214,0.551263,0.477019,-0.684517
0.525309,0.095894,0.256690,-0.281379,-0.682459,0.674593
0.457772,0.286997,0.134499,-0.093223,-0.174578,0.980220
0.113399,-0.628381,0.410425,-0.401048,0.060689,-0.914044
-0.583659,-0.260186,0.751532,-0.396075,0.917130,0.044690
0.149221,-0.249493,-0.956695,-0.108583,-0.055159,0.992556
-0.266106,-0.131344,0.305393,0.791229,0.437422,-0.427339
-0.644224,-0.527246,0.469112,0.814809,-0.339395,-0.469997
-0.617866,0.710185,0.043471,0.349474,0.123444,0.928779
-0.150837,0.410256,0.889935,0.963392,-0.000814,-0.268096
-0.063266,0.159999,0.934453,0.464655,0.883552,0.058585
0.157530,-0.479154,0.721732,-0.274673,-0.960501,-0.044650
0.487733,-0.618268,0.607847,-0.167389,0.655755,0.736184
0.274922,-0.243067,-0.087806,0.151863,0.852600,0.500011
-0.186244,-0.452606,0.455790,0.105052,0.889561,0.444573
0.466267,-0.239327,0.333250,-0.122336,-0.414132,0.901958
0.119862,-0.217362,-0.578662,0.944186,0.304677,0.125238
0.410918,-0.194553,0.702397,0.907993,-0.162200,-0.386317
-0.046555,0.184493,0.840650,0.947081,0.295350,0.125723
-0.731657,-0.385130,0.450889,0.188545,-0.701275,-0.687505
-0.625298,0.223366,0.406455,-0.442818,0.651775,0.615712
-0.336550,0.105586,0.423149,-0.502594,0.228705,-0.833723
0.016041,-0.178066,0.774937,0.925576,0.014394,-0.378289
-0.370432,0.388817,0.591136,-0.353508,-0.483395,-0.800851
-0.534542,-0.074455,0.735885,0.711520,0.631781,-0.307558
-0.754969,-0.256341,0.429378,-0.393885,-0.585333,-0.708690
-0.000623,-0.152941,-0.684939,0.360780,-0.112418,0.925851
0.114183,-0.089626,0.658261,0.844524,0.113913,-0.523262
-0.357831,0.470673,0.643743,-0.465430,-0.559064,0.686165
-0.102412,0.073244,0.129616,0.001863,-0.999639,0.026813
0.033121,-0.353999,0.263800,-0.037611,0.758468,0.650624
-0.588783,-0.286365,0.122523,0.245712,-0.861974,0.443426
0.054957,-0.289157,-0.972526,0.319491,0.199446,-0.926362
-0.690295,-0.210408,0.073437,-0.599360,-0.698690,-0.390640
0.196537,-0.421423,-0.358865,-0.500246,0.627689,-0.596456
0.087363,0.461192,0.188020,-0.133149,-0.532786,0.835710
0.465528,0.059654,0.115679,-0.019093,-0.514440,0.857314
-0.562332,-0.239696,0.698410,0.784658,0.392681,-0.479702
0.643439,0.353525,0.277338,0.373338,0.124128,-0.919354
-0.695049,-0.404567,0.518413,0.858037,0.064882,0.509474
-0.720901,-0.629803,0.599807,0.698423,0.408187,0.587868
-0.499089,-0.008718,0.708543,-0.396005,0.869679,-0.294683
0.043139,-0.334878,0.514194,-0.040355,-0.997509,0.057848
0.219896,-0.259765,0.623611,-0.244477,-0.727245,0.641362
0.733503,0.380126,0.283982,0.027953,-0.106754,0.993892
-0.184905,-0.220785,0.738144,0.999394,0.020433,0.028190
0.075684,-0.605046,-0.351057,-0.503408,0.162369,-0.848656
-0.519077,-0.236008,0.675919,0.858171,0.249210,-0.448818
-0.197831,0.153836,0.351572,-0.537768,0.634150,-0.555571
0.158961,0.742158,0.659889,-0.208542,-0.943000,0.259349
0.270076,0.018041,0.510639,0.413367,-0.201297,-0.888035
-0.094149,0.427744,-0.131161,-0.258337,0.796032,-0.547353
0.089948,-0.119123,0.888058,-0.256943,-0.103787,0.960837
0.052418,-0.390503,0.707812,0.323019,0.854388,0.407037
-0.677507,0.031315,0.090530,-0.640878,0.381805,-0.665959
-0.078038,-0.304222,0.172107,-0.601468,-0.796666,-0.059662
0.397392,0.498538,0.036959,-0.052251,0.372843,0.926422
-0.296296,0.579236,0.803907,-0.211214,0.790352,0.575094
-0.021535,-0.115594,0.972658,0.152785,-0.930163,-0.333845
0.034645,-0.051805,0.911131,-0.330299,0.943777,0.013690
-0.213803,0.048908,0.878042,-0.276228,0.939195,-0.203985
0.304143,0.099265,0.501636,0.046047,0.713410,0.699233
0.162239,0.010877,0.331373,-0.625034,0.611926,0.484642
0.253456,0.445969,0.554609,0.108415,-0.661269,0.742273
0.162931,0.586294,0.587698,0.104891,-0.942313,0.317874
0.317668,-0.400037,-0.024933,-0.060190,0.446972,0.892521
-0.135557,0.036899,0.469693,0.037601,-0.980983,0.190415
0.316423,0.169375,0.347718,0.063560,-0.365449,0.928659
0.918708,0.118649,0.273484,-0.175361,-0.980187,0.092103
-0.147974,0.476204,0.915533,0.632415,-0.188615,-0.751316
-0.144282,0.199716,0.412053,0.921381,-0.085428,-0.379155
-0.511045,-0.185967,0.667746,-0.560801,0.605995,-0.564157
-0.579827,-0.138929,0.718045,0.443185,0.666300,-0.599693
-0.663475,0.098844,0.405143,0.020718,-0.188131,0.981925
-0.014518,0.304801,0.512234,-0.309892,0.785168,-0.536169
0.083069,-0.169112,-0.909686,0.987301,0.108450,0.116087
-0.368310,0.119387,0.038521,-0.571061,0.157946,-0.805570
-0.262320,-0.369222,-0.107191,0.053872,0.439204,0.896771
-0.066589,-0.424741,0.510091,0.734009,-0.650954,-0.193621
-0.651287,-0.463931,0.539077,0.386760,0.454854,0.802200
-0.001915,-0.345993,0.839737,-0.589507,0.794347,0.146614
0.415810,0.111854,0.139748,0.002548,-0.368213,0.929738
-0.744675,-0.085254,0.022059,0.872466,0.469483,-0.135608
-0.202816,0.334984,0.881048,0.760749,-0.564758,0.319860
-0.048124,0.730306,0.710752,0.875262,0.230121,-0.425395
-0.210432,0.104375,0.878191,0.277379,-0.949880,0.144181
-0.478593,0.465459,0.635421,0.189516,-0.897535,0.398138
0.241269,-0.473571,-0.350210,0.252991,-0.117054,-0.960361
-0.267213,0.401354,0.471570,-0.086372,0.477665,-0.874286
0.369417,0.633438,-0.285593,-0.014838,0.163538,0.986425
-0.025921,-0.416629,0.597681,0.838225,-0.531304,-0.122858
-0.348367,0.547684,0.750370,-0.522200,-0.013510,-0.852716
0.503981,0.068767,0.243750,-0.052136,-0.431402,0.900652
-0.427306,-0.333140,0.308815,0.729798,-0.379734,0.568504
0.524571,0.392662,0.266059,-0.262855,0.255824,0.930302
-0.181396,0.356264,0.823591,0.282195,0.935242,0.213750
-0.388944,-0.033001,0.597432,0.921612,-0.026935,-0.387176
-0.105090,0.373278,0.822312,-0.508469,0.031916,0.860488
0.622851,0.374542,0.274713,-0.204583,0.089988,0.974704
0.661074,0.525508,0.268816,0.031817,0.242732,0.969572
-0.282862,0.579288,0.608810,0.936181,-0.072048,0.344056
0.361108,0.373015,0.457019,0.311645,0.914287,-0.258761
0.278661,0.177171,-0.355642,0.928348,-0.244977,-0.279564
-0.169302,0.750217,0.794289,0.122481,-0.969360,0.212932
-0.309221,-0.037952,0.677480,-0.717917,0.683554,-0.131718
-0.084409,-0.487635,-0.033455,0.886085,-0.278936,-0.370201
-0.446647,0.566594,0.063271,0.388228,0.075986,-0.918425
0.420796,-0.124444,0.701085,0.892209,-0.111981,-0.437519
0.513030,-0.192710,0.351223,0.029797,-0.204295,0.978456
0.052141,-0.353578,0.256607,-0.319322,0.595273,-0.737349
-0.132095,0.593932,0.555871,0.007157,-0.712359,0.701778
0.223451,0.603624,0.043637,0.232368,-0.223857,0.946516
-0.297727,0.515394,0.678045,0.975955,0.161741,0.146121
-0.545852,0.300693,0.069650,0.009130,0.706728,0.707427
-0.277784,-0.064079,0.796581,0.133437,-0.983039,0.125811
0.357461,0.551107,-0.299729,-0.109234,-0.188555,0.975969
0.431414,-0.552582,0.650404,0.839610,-0.502134,-0.207162
-0.147005,0.585399,0.766449,0.465233,-0.885099,0.012568
0.076885,0.492165,0.411621,0.080694,-0.941738,-0.326523
0.115292,-0.191656,-0.663727,-0.243684,-0.896848,0.369164
0.416919,0.232848,0.430923,0.259754,-0.529270,0.807714
-0.649578,0.007190,0.412020,-0.425544,0.191807,-0.884377
-0.755985,0.497906,0.059849,-0.060757,-0.203312,0.977227
0.223358,0.701651,0.653561,0.317636,-0.935572,0.154314
0.410409,-0.669151,0.668976,0.981474,-0.176506,0.074524
-0.612557,0.464985,0.684490,-0.740832,0.665122,-0.093706
0.071760,-0.116542,0.903872,-0.574058,-0.548769,0.607709
0.220450,0.235745,-0.459627,0.523334,0.524321,-0.671721
0.628991,0.650504,0.241225,0.621679,-0.622964,-0.474796
0.048678,-0.297058,-0.971878,-0.332129,-0.198474,0.922116
0.105874,-0.047381,-0.985133,-0.222874,0.454807,0.862251
-0.145251,0.592562,0.730171,-0.402803,0.864713,-0.300036
-0.750259,-0.401722,0.597299,0.878241,-0.403967,0.255935
-0.318361,0.005030,0.409080,0.962600,-0.004795,0.270885
-0.143220,0.012300,0.487783,-0.593165,0.125960,0.795167
-0.509060,-0.353051,0.713227,0.892912,0.052379,-0.447175
0.390791,-0.403461,0.588362,-0.645458,0.656646,-0.390128
-0.138789,-0.516026,0.191160,0.393239,-0.038797,-0.918617
0.143082,-0.194553,0.626701,0.605178,0.704594,-0.370549
-0.594184,-0.257974,0.681218,0.108519,-0.764082,0.635926
0.128356,0.034634,0.487666,0.023945,0.095606,0.995131
0.207847,0.512497,0.068321,0.808160,-0.467150,0.358675
0.252625,-0.026048,0.349213,-0.154152,-0.112954,-0.981569
0.284617,-0.068240,0.364579,-0.445567,-0.110926,-0.888350
-0.493550,-0.161527,0.145346,0.056942,-0.915497,0.398276
-0.054588,-0.430009,0.722347,0.605603,-0.405720,-0.684570
-0.653550,0.303379,0.375127,0.607213,0.459757,0.648009
0.133757,-0.476573,-0.358366,-0.216061,-0.181287,0.959402
-0.115937,0.360162,0.721533,-0.279494,0.956930,0.078536
0.206324,0.627538,0.609923,0.260587,0.862453,-0.433901
0.505504,0.144829,0.352203,-0.577800,0.321925,0.750008
0.447986,-0.569491,0.669407,0.817638,-0.554857,-0.153629
0.094565,0.136506,0.886563,0.047101,-0.971610,0.231852
-0.532695,-0.161105,0.709191,0.036740,-0.776279,0.629318
0.467606,0.134136,0.357386,0.529587,0.069060,-0.845440
0.186566,0.383444,0.454743,0.360574,0.740385,0.567288
-0.748598,-0.427006,0.613810,0.992433,0.104199,0.064959
0.261950,0.403671,-0.135629,0.049366,-0.528577,0.847449
0.092580,-0.102373,0.813392,-0.697548,0.259304,0.667974
0.259180,0.617109,0.254464,-0.412176,-0.480828,0.773896
0.432383,-0.263926,0.755768,0.826385,0.562781,0.019129
-0.468206,0.500224,0.061544,0.301348,0.063351,-0.951407
-0.167455,-0.249072,0.043388,-0.219706,-0.972439,0.078045
0.130248,-0.287629,-0.952277,0.088533,0.265304,-0.960091
0.586613,0.350733,0.272736,-0.210908,-0.210977,0.954467
0.700589,-0.092259,0.386339,-0.516861,-0.831062,0.205403
-0.297819,0.098791,0.849371,-0.772365,0.231479,0.591498
-0.070745,-0.301641,0.091925,0.311340,0.947803,0.068824
-0.260611,-0.214991,0.205628,-0.140050,-0.709833,0.690306
-0.126371,-0.288999,-0.136227,-0.403045,0.912088,0.075166
-0.113814,0.650610,0.810900,0.482709,0.572555,-0.662701
0.111507,0.133504,0.844537,-0.329667,0.912322,0.242876
-0.396146,-0.573125,0.412252,-0.600300,-0.258895,-0.756712
0.279447,-0.316969,0.562682,0.762361,-0.039344,0.645955
-0.133203,0.230530,0.490590,0.312889,0.871217,0.378262
-0.467328,-0.148727,0.749024,-0.193395,-0.265838,0.944420
0.257426,0.661935,0.270942,-0.242495,-0.363324,0.899551
-0.547144,-0.402776,0.560406,-0.342618,-0.155484,0.926519
0.656458,0.553109,0.275776,0.112000,0.391530,0.913324
0.225482,-0.258079,0.779489,-0.560808,0.379880,0.735653
-0.467375,-0.011931,0.395625,-0.244718,0.577705,-0.778698
0.274968,0.286154,0.020614,-0.133703,-0.322757,0.936991
0.093040,-0.365851,-0.968854,0.019245,0.157057,0.987402
-0.559515,-0.037741,0.728659,0.525896,0.788198,-0.319651
-0.525216,0.435908,0.641235,-0.221923,-0.805257,0.549829
-0.639931,-0.473413,0.501354,0.415996,0.369252,-0.831024
-0.632638,-0.102268,0.389744,-0.421067,0.264316,-0.867663
-0.534172,-0.200295,-0.124084,0.036590,-0.445318,0.894625
0.277322,0.724723,0.271191,0.359792,0.106371,-0.926949
-0.273537,-0.272459,0.651650,0.208293,-0.437890,0.874567
-0.075360,0.130449,0.986578,0.682696,0.654035,0.325829
0.739734,0.439859,0.283899,-0.246477,-0.165424,-0.954926
-0.296711,0.775659,0.683610,0.694709,-0.717940,-0.044066
0.441201,-0.203666,0.348582,-0.414433,0.148270,-0.897921
-0.276815,0.073033,0.735586,-0.089168,-0.975540,0.200926
-0.767156,-0.094788,-0.017491,-0.395369,0.915310,0.076751
0.561316,0.166215,0.276274,-0.131462,0.317428,0.939126
-0.380357,-0.626063,0.428880,0.045067,0.796380,0.603116
0.301882,0.673154,0.581186,-0.171789,0.374399,0.911216
0.176503,-0.700967,0.345941,0.093291,0.818354,0.567093
-0.322331,0.586821,0.744340,-0.652253,-0.272640,-0.707272
0.075360,0.559746,0.775519,0.665325,0.694858,-0.272974
-0.029244,-0.405620,0.828657,0.954042,-0.036516,-0.297440
-0.042447,-0.392241,0.373582,-0.437317,0.807862,0.395110
0.205631,-0.654034,0.485308,0.340290,-0.345165,-0.874679
0.228806,0.751639,0.608096,0.862800,-0.022562,0.505042
-0.185643,-0.103268,0.502417,0.560047,-0.317995,-0.765001
-0.532280,-0.186073,0.692065,-0.533790,0.699895,-0.474568
-0.088932,0.058337,0.070547,0.265717,-0.962005,-0.062770
0.489487,-0.194975,0.353383,0.219259,0.133349,-0.966511
-0.254610,-0.060233,-0.194150,-0.064423,0.954787,0.290226
0.083809,-0.197925,-0.708776,0.642224,0.766174,0.022906
-0.067420,0.392188,0.901281,-0.158180,-0.431685,-0.888047
-0.318730,-0.308436,0.437036,-0.491688,-0.846729,-0.203208
-0.049556,0.032316,0.497716,-0.179540,0.329079,0.927077
-0.206971,-0.241908,0.196259,-0.653488,-0.698618,-0.291352
-0.090595,0.281624,0.147672,0.050103,0.400764,0.914810
0.065758,-0.144934,0.810850,0.813848,-0.297328,-0.499248
0.128956,0.563433,0.284148,-0.542595,0.822615,0.169987
0.542712,0.189339,0.360011,0.586968,-0.338894,-0.735268
0.093503,-0.087255,-0.655753,-0.307564,-0.925805,0.219750
-0.080393,-0.468935,0.542317,-0.416367,0.902995,0.106009
-0.278385,0.569544,0.639890,-0.846441,0.440028,-0.299854
0.241315,-0.542469,0.737131,0.782396,0.561926,-0.268508
-0.378834,0.111907,0.762629,-0.127284,0.985854,-0.109043
0.174425,0.210935,-0.046544,-0.399128,-0.888064,0.228121
-0.132695,-0.346203,0.309164,-0.508233,0.791303,0.339910
-0.711298,-0.029313,0.184299,-0.578458,-0.760994,0.293727
0.093409,0.820116,0.624259,0.453174,0.283682,-0.845078
0.438938,-0.234059,0.701434,0.862082,0.385366,-0.329101
-0.130063,-0.280992,-0.135795,-0.403045,0.912088,0.075166
0.732995,0.368011,0.283999,-0.056373,-0.233724,0.970667
0.034045,-0.254602,0.427501,0.863547,-0.415209,0.286160
-0.479284,0.237799,0.078005,-0.416969,0.156721,-0.895308
0.521386,0.327767,0.131742,-0.098695,-0.181305,0.978462
-0.102782,-0.298164,-0.152074,-0.086739,-0.995859,0.027239
-0.120323,0.354421,0.903673,-0.042675,-0.944966,-0.324375
-0.063728,0.056968,0.601917,0.988783,0.086148,-0.122012
-0.260242,0.377966,0.835169,-0.024176,-0.999405,0.024614
0.014887,0.514867,0.711683,0.911416,-0.228596,-0.342146
0.156976,0.453133,0.091593,0.939901,-0.334179,0.070075
0.513768,0.065185,0.246042,-0.052136,-0.431402,0.900652
0.086532,-0.906871,0.373333,0.038478,0.189846,0.981060
0.061143,-0.291053,-0.125912,-0.263401,0.931596,-0.250497
-0.347075,0.459243,0.490623,0.263447,0.551231,-0.791669
-0.284293,-0.422055,0.627049,0.339491,0.276169,0.899153
0.318777,-0.033369,0.515672,0.518097,-0.136564,-0.844350
0.265459,0.668993,0.264115,0.199461,0.299576,-0.932990
-0.201939,-0.421581,-0.125031,0.370796,-0.023672,0.928413
0.398223,0.445548,-0.390243,-0.555654,0.818287,0.147158
0.396515,0.472306,-0.392236,0.224663,-0.959733,0.168637
-0.077438,0.554057,0.146991,0.085479,0.533607,0.841402
0.034968,0.202402,0.929669,0.345806,0.710691,0.612647
-0.605956,-0.065922,0.717912,-0.569336,0.412836,-0.710931
-0.203463,-0.180437,0.900849,0.858714,0.130310,0.495611
0.003900,-0.301588,0.862610,0.737430,-0.198999,-0.645442
0.049371,-0.571809,-0.385841,0.922675,-0.367457,-0.116816
0.393238,-0.418262,0.433548,-0.688653,0.677384,-0.258665
0.313791,-0.245700,-0.968356,0.078434,0.229595,0.970121
0.255257,0.624114,0.220545,0.807220,0.233961,-0.541902
-0.005656,-0.577919,0.376721,-0.578719,-0.804950,0.130917
0.055004,-0.158998,-0.628046,-0.156388,0.964248,0.213934
-0.214542,0.350101,0.432518,-0.485298,0.429541,-0.761565
-0.099781,0.596408,0.708809,-0.643870,0.744560,-0.176245
0.088610,-0.445495,-0.350459,0.431568,-0.445716,0.784274
0.770940,0.555374,0.275759,-0.015965,-0.059053,0.998127
0.599770,0.575601,0.250129,0.054377,0.271877,0.960794
-0.431645,0.576549,0.753061,0.749258,0.257797,-0.610044
-0.120554,0.186758,0.926230,-0.644848,0.725969,0.239040
-0.004086,0.223893,0.874404,-0.658701,0.488456,0.572297
-0.401039,0.068398,0.426239,0.501467,-0.261872,0.824593
0.097610,0.795675,0.608096,-0.589084,-0.629713,0.506401
-0.238639,0.032052,0.917244,0.225910,-0.973822,-0.025200
-0.030675,-0.320972,0.428415,0.823219,-0.440926,-0.357625
0.144651,-0.431010,-0.347885,-0.265805,0.623429,-0.735312
-0.169348,0.512760,0.711068,0.270460,-0.948874,0.162756
0.323439,0.594459,0.600588,0.009677,-0.127400,0.991804
-0.464836,-0.066712,-0.130064,0.653467,0.235083,0.719525
0.169071,-0.440754,0.684955,0.929316,0.009394,-0.369166
-0.089855,-0.449024,0.524576,-0.480988,0.799055,0.360780
0.422135,-0.054281,0.538729,0.250783,0.220941,-0.942493
-0.111091,0.105586,0.219830,0.969249,0.244077,-0.031356
-0.228852,0.168058,0.665637,0.184615,0.345735,0.919992
0.183289,0.409782,0.027242,0.020489,0.149442,0.988558
-0.582828,0.290737,0.064285,-0.209290,0.533713,0.819358
-0.088056,-0.339725,0.300742,-0.544141,0.809857,0.219184
0.417889,-0.076720,0.545074,-0.371934,-0.387544,0.843490
-0.074391,0.370170,0.838059,-0.200521,-0.051874,0.978315
-0.109982,0.260871,0.847046,0.545692,0.811577,-0.208716
0.084316,-0.768021,0.398083,-0.391703,-0.781280,0.485973
0.206186,-0.103058,0.482251,-0.186459,0.299317,-0.935757
-0.135326,-0.775396,0.392950,-0.353091,-0.875619,-0.329572
-0.019919,-0.507440,0.205329,0.165322,0.073453,-0.983501
-0.486533,-0.465827,0.625372,-0.046120,0.694556,-0.717959
0.163762,-0.511760,0.496138,0.848270,-0.118260,-0.516190
0.120462,-0.375016,0.719456,0.179667,0.694646,0.696553
0.252534,0.297848,0.475756,-0.387299,0.639494,-0.664113
0.302297,0.159683,0.126808,0.444753,0.090061,-0.891114
0.648840,0.601517,0.250444,0.371872,0.205899,-0.905161
-0.821397,0.474782,0.379894,0.815853,0.379826,0.436023
-0.764663,-0.489162,0.590372,0.983882,-0.127615,0.125262
0.071206,-0.326345,-0.037691,0.923994,-0.273890,-0.266869
0.285631,0.354052,0.484909,-0.275271,0.334957,-0.901127
0.142851,-0.318391,0.766765,0.277684,0.640728,0.715793
0.379850,-0.403777,0.463530,0.002599,-0.996916,0.078431
0.393422,-0.694014,0.389296,-0.293877,-0.157117,0.942842
-0.383405,0.427164,0.449793,0.885859,0.455404,-0.088663
-0.820104,0.500856,0.393565,0.015205,-0.780973,0.624379
-0.136942,0.294003,0.804654,0.895639,0.444136,-0.023962
-0.315499,0.205615,0.821465,0.482005,-0.614067,0.624975
-0.061143,-0.329084,-0.768160,-0.781387,0.589021,0.206129
-0.518800,-0.241855,0.689208,-0.669886,-0.652716,-0.353857
0.138834,0.668045,0.249630,-0.464840,0.376969,-0.801136
-0.291217,0.703811,0.643660,0.279074,-0.884175,0.374637
0.003716,0.462193,0.716716,0.944738,0.049214,-0.324110
-0.222481,-0.505017,0.444644,-0.427656,-0.665235,-0.612024
0.478731,0.382022,0.261441,-0.064076,0.452652,0.889382
-0.413041,-0.327504,0.525772,0.873051,-0.018384,-0.487282
-0.007225,-0.155627,1.000000,-0.771284,0.317300,0.551762
-0.155914,0.350628,0.703327,0.513511,-0.849456,-0.121369
-0.079008,0.322500,0.341556,0.341242,-0.164590,0.925454
0.219619,0.301325,-0.429063,0.814077,0.451964,-0.364702
0.064189,-0.408834,-0.022624,0.227743,0.656736,0.718910
0.340058,0.278411,0.443431,-0.070273,-0.338173,0.938457
0.554852,-0.178540,0.348134,-0.184444,-0.013651,-0.982748
-0.407595,0.597777,0.745652,0.263937,0.913812,-0.308681
0.339273,0.328083,0.469876,0.231399,0.711108,0.663912
-0.108506,0.272828,0.480789,0.048315,0.992185,-0.115044
0.092902,-0.008876,0.816913,-0.403076,-0.248159,0.880879
0.207525,0.210514,0.249448,-0.387061,0.735676,-0.555846
-0.121663,-0.604678,0.582033,-0.390808,0.372183,-0.841873
0.728794,0.434275,0.269414,-0.041163,0.164713,0.985482
-0.428829,0.515183,0.801764,0.905336,0.408990,0.114431
-0.338673,0.076194,0.746898,-0.292523,0.759245,-0.581358
-0.102367,-0.298375,0.289812,0.445480,-0.892537,-0.070184
0.265043,0.301272,0.468746,-0.387021,0.707633,-0.591160
-0.003993,-0.120967,-0.376173,0.938548,0.345006,0.009934
-0.061466,0.085517,0.057557,-0.138935,0.982495,0.124099
-0.350445,0.836920,0.634940,0.889270,0.342384,-0.303268
-0.149452,0.661513,0.316373,0.624722,-0.595019,-0.505643
-0.139065,0.177961,0.397900,0.999470,-0.025902,0.019716
0.130341,-0.475888,-0.352818,-0.215053,0.212296,-0.953248
-0.381789,0.170692,0.697198,0.521423,0.804622,0.284081
-0.183105,0.254497,0.392601,0.823777,0.487486,-0.289394
0.330825,0.441439,-0.122174,-0.336263,-0.349623,0.874466
0.301604,0.456083,-0.394080,-0.146077,0.956253,0.253461
-0.614587,-0.263768,0.750453,0.244177,-0.857907,0.452077
-0.662505,0.158840,0.121410,-0.410722,-0.598505,-0.687822
0.238408,0.543312,0.573529,-0.113101,0.377333,-0.919145
-0.593630,-0.092628,0.385326,0.163336,-0.225709,0.960405
0.452280,-0.573441,0.665770,0.902748,-0.418235,-0.100623
-0.504028,-0.239590,0.338915,0.494377,0.866640,0.067282
-0.042354,0.658195,0.739057,0.460186,-0.887720,0.013487
0.294495,0.641760,-0.003488,-0.042640,0.996036,-0.078067
-0.052372,-0.102636,0.949652,-0.465591,0.875861,0.126855
0.050478,-0.814586,0.358183,0.513453,0.033996,-0.857444
0.219203,0.246385,-0.440657,0.732509,0.492752,-0.469709
0.007548,-0.308963,0.625554,0.788917,-0.471120,0.394532
-0.332441,0.545840,0.808990,-0.480141,0.871960,0.095661
-0.487224,-0.599463,0.290543,0.506719,-0.525604,-0.683357
-0.558639,-0.297427,0.580240,0.634194,-0.407045,0.657353
0.000070,0.364692,0.318184,-0.589013,0.430186,-0.684108
0.182781,-0.480471,-0.368981,-0.076801,0.600142,0.796198
-0.721408,-0.487687,0.571917,0.949694,-0.243157,0.197375
-0.545852,-0.362269,0.479211,0.574767,-0.111122,-0.810737
-0.006994,0.061498,0.839538,0.689054,0.706456,-0.161631
-0.605725,-0.191656,0.331390,-0.294207,-0.953333,-0.067807
-0.505690,-0.338250,0.465341,-0.047087,-0.826300,0.561258
0.056942,0.607680,0.585522,-0.579372,-0.038810,0.814139
0.228252,-0.696489,0.382801,-0.343724,0.678918,-0.648787
0.147421,0.238695,0.520955,0.947726,0.183251,-0.261217
-0.843740,0.580869,0.421721,0.907624,0.033881,0.418414
0.008886,0.261819,0.644773,0.911780,0.040061,-0.408721
-0.325194,0.068819,0.810186,0.896818,0.387914,-0.212698
-0.070099,-0.497643,0.545539,0.579340,-0.788590,-0.206133
0.063497,-0.156364,-0.743626,0.940236,0.319908,0.116683
0.425228,-0.162843,0.346157,0.373360,0.148693,0.915692
0.003024,0.098844,0.842428,-0.320592,0.807800,0.494651
0.156514,-0.335142,-0.961645,-0.177444,-0.227147,0.957558
0.098304,-0.121968,0.652149,-0.757675,-0.046612,-0.650965
-0.642794,0.394875,0.659607,0.835268,-0.383217,0.394299
0.311622,0.041060,0.347552,0.385933,0.091038,0.918024
-0.364893,-0.173589,0.236308,-0.510125,0.830596,0.223345
0.169717,0.402618,0.588163,-0.814271,0.484737,-0.319362
0.003440,0.404883,0.651816,0.745754,-0.503627,0.436132
-0.339780,0.261661,0.057673,-0.078082,-0.306551,0.948646
0.139481,-0.153625,-0.634259,0.702977,0.451684,0.549367
0.273676,-0.389133,0.780801,0.901399,0.081545,-0.425240
-0.044708,-0.449024,0.805900,0.132438,0.865919,0.482333
0.008517,-0.406516,0.828724,0.885684,0.001027,0.464287
0.172856,-0.276568,-0.954287,-0.005916,-0.230539,-0.973045
0.563947,0.471780,0.255677,0.015879,0.373480,0.927502
-0.165516,0.371856,0.750968,0.596926,0.359293,-0.717348
-0.042539,-0.329137,0.423133,0.729707,-0.564561,-0.385745
-0.088841,0.206405,0.621950,-0.305449,0.409940,0.859448
-0.216896,-0.452027,0.605771,0.854308,-0.369681,0.365367
0.059988,-0.004240,-0.576203,0.978294,-0.206918,-0.011196
0.036030,-0.156891,0.795618,0.759304,-0.377149,-0.530298
-0.180796,-0.328399,0.458398,0.197136,-0.423351,0.884257
-0.502135,-0.153362,0.700254,0.040943,0.979678,0.196352
0.107259,-0.489057,-0.358532,0.205934,0.260461,0.943266
-0.375003,0.025415,0.740004,0.806089,-0.064432,0.588276
-0.651563,-0.566752,0.542333,0.809627,-0.174740,-0.560330
0.379804,-0.495852,0.585804,0.677882,0.642135,-0.357966
-0.057265,0.703179,-0.110713,0.049257,-0.000851,0.998786
0.800670,0.491217,0.266059,0.316931,-0.223252,0.921799
0.065758,-0.394453,0.786897,-0.059437,-0.541578,0.838547
0.261443,-0.342938,0.807246,0.044558,0.143526,0.988643
0.325610,0.246807,-0.140812,0.093847,-0.208809,0.973443
0.436307,0.558166,0.621219,0.713882,0.594772,-0.369620
-0.286371,-0.123390,0.519593,-0.412414,-0.691313,-0.593297
0.043647,-0.024783,0.289563,-0.029041,-0.654487,0.755515
-0.715684,0.274461,0.352718,0.063945,0.120735,0.990623
-0.039678,-0.076984,0.731317,0.994749,0.101926,0.009243
-0.051494,-0.304696,0.468165,-0.228080,0.940187,-0.253037
-0.476146,0.293950,0.607066,0.244097,0.744389,-0.621532
0.420889,0.256288,-0.171625,-0.147533,0.971694,-0.184512
-0.514738,0.213095,0.766383,-0.713320,-0.694582,0.093434
0.106105,-0.513761,-0.354629,-0.503902,-0.568012,-0.650727
0.808979,0.327873,0.252969,-0.396491,0.263778,-0.879327
-0.019042,-0.158787,-0.674707,0.214944,-0.711808,0.668676
0.471853,0.446338,0.251009,-0.087661,0.172809,0.981047
-0.462113,0.425847,0.454511,-0.054984,0.154339,0.986487
0.738443,-0.086623,0.381671,-0.430516,-0.832232,0.349350
-0.595291,-0.266244,0.736649,0.233345,-0.912017,0.337307
-0.144928,0.212990,0.354346,0.121826,0.569766,0.812727
0.094980,-0.118491,0.543496,0.798043,-0.326515,0.506474
0.041800,0.576760,0.065314,-0.109313,0.057228,0.992359
-0.128818,0.245384,0.512699,0.778995,0.602565,-0.173445
0.103012,-0.213464,0.903573,-0.065966,-0.116120,0.991042
0.157715,-0.458980,0.474162,0.950828,-0.008578,-0.309600
-0.002193,0.267876,0.690703,0.968198,0.249573,0.017482
0.429705,0.417261,0.521088,-0.208523,-0.931396,-0.298361
-0.039169,-0.151044,0.478680,0.823066,0.258227,0.505847
-0.612418,-0.057652,-0.085331,-0.494510,-0.021527,-0.868906
0.020473,-0.342727,0.784970,0.336282,-0.342783,-0.877163
0.038707,-0.176065,-0.634823,0.280163,-0.889383,-0.361258
0.337750,0.507704,0.606668,-0.528734,0.837244,-0.139511
-0.296158,0.027838,0.652132,0.914696,-0.384375,0.124847
0.308205,0.525034,-0.286108,-0.487756,-0.215445,0.845977
-0.030444,0.509284,-0.138885,0.219642,-0.460095,0.860273
-0.475730,0.581659,0.743808,-0.648846,0.530430,0.545567
-0.642101,0.156628,0.414545,0.295427,-0.124779,0.947182
0.125539,-0.026311,-0.989153,0.211033,-0.503236,-0.837985
0.270076,0.305907,0.044169,-0.126588,-0.031102,0.991468
-0.031738,-0.398878,0.719191,-0.513677,0.446217,0.732820
0.280970,-0.330296,0.806083,-0.444052,0.122312,-0.887614
0.270167,-0.318813,0.770004,0.556681,0.040979,-0.829715
-0.089855,0.310754,0.871447,-0.117407,-0.466955,0.876452
0.157761,0.209092,0.280344,0.048563,0.906229,-0.419990
-0.066360,0.580026,0.138337,0.203897,0.452549,0.868116
0.204893,-0.617635,0.488048,-0.394383,0.156173,0.905579
0.531956,0.367273,0.277321,-0.202729,-0.282991,-0.937453
0.442631,0.257183,-0.157157,-0.117635,0.978127,-0.171549
0.415950,0.153573,0.247172,-0.085186,-0.313564,0.945738
0.455049,-0.468566,0.605472,-0.212957,0.664997,0.715841
-0.068945,-0.845084,0.416737,0.939906,-0.300175,0.162700
-0.133664,0.376123,0.364230,-0.588117,0.363734,-0.722369
-0.330871,0.851089,0.712812,-0.510066,0.438768,-0.739808
-0.717115,0.367642,0.380625,-0.289614,-0.405009,0.867232
-0.253596,-0.274039,0.496885,0.868087,-0.115638,-0.482756
-0.364293,0.216045,0.037508,-0.094182,-0.718405,0.689220
-0.035246,0.274724,0.510407,-0.137100,0.900186,-0.413362
0.060496,-0.449024,0.789538,-0.657549,-0.284222,-0.697745
-0.762493,0.312228,0.342320,-0.021912,-0.119233,0.992624
0.343290,-0.499170,0.616053,0.653149,0.756167,0.040111
-0.298050,0.017462,0.368931,-0.272867,0.434268,-0.858461
0.506336,0.337354,0.277504,0.408865,0.106601,0.906348
-0.445818,-0.378072,0.419644,0.216416,-0.962676,-0.162539
-0.079239,-0.505913,0.591950,0.917072,-0.391650,-0.074757
0.782481,0.146198,0.282005,0.236662,0.808072,0.539454
0.113261,0.335142,0.175113,0.002951,-0.478487,0.878090
-0.031182,0.575970,0.753841,0.593418,0.773535,-0.222483
-0.218558,-0.522242,0.576685,-0.389013,-0.637326,0.665195
-0.317392,0.713925,0.621269,0.396028,0.916231,-0.060683
-0.593815,0.107377,0.270710,0.168207,-0.216679,0.961643
0.337057,-0.600674,0.382535,-0.415658,-0.262555,0.870801
0.132741,0.245700,0.294995,-0.200020,0.835171,0.512329
-0.433168,-0.211146,0.743808,-0.256234,0.573655,-0.777987
0.483023,-0.629540,0.606286,-0.207687,0.720038,0.662127
-0.349060,0.139034,0.676666,0.303242,0.265235,0.915256
0.352568,0.180858,0.356938,0.130795,-0.158610,0.978640
0.000715,-0.377071,0.838425,0.881302,-0.456072,-0.123710
0.227974,0.054176,-0.991263,0.078915,0.272673,0.958865
-0.762955,-0.420001,0.611385,0.997130,-0.033474,0.067909
-0.017241,0.739946,0.716849,0.946082,0.295105,-0.133571
0.481409,0.565014,-0.080464,0.252965,-0.770459,0.585151
0.547006,-0.613053,0.614508,-0.158305,0.660569,0.733886
0.034692,0.481998,0.654673,0.976237,-0.097661,0.193453
0.136665,0.647449,0.298550,0.424131,-0.825323,-0.372766
0.182505,-0.285312,0.592565,0.209054,0.935922,-0.283454
0.198291,0.528247,0.412169,-0.480685,0.558787,-0.675796
-0.091611,-0.325555,0.235146,-0.668175,0.742867,0.041131
-0.738950,-0.533409,0.536918,-0.359171,0.913128,-0.192854
-0.079608,0.007085,-0.161526,0.678588,-0.729764,0.083442
-0.084778,0.014933,0.321423,0.687438,0.724117,0.055535
0.081224,-0.148569,-0.574526,0.939281,0.333686,0.080029
0.125586,0.413047,-0.097474,0.092250,-0.496905,0.862888
0.118615,-0.115489,-0.741782,0.989836,0.136917,-0.038455
0.045032,-0.329137,0.736234,0.217440,-0.755805,0.617640
-0.264628,0.031842,0.709889,-0.089854,0.977721,-0.189705
-0.116353,-0.500013,0.192206,0.453190,-0.022455,-0.891131
-0.142712,-0.498170,0.720902,-0.189320,0.604987,0.773401
-0.243762,0.231584,0.424661,0.343560,-0.765909,0.543460
-0.374773,-0.624220,0.421986,-0.201015,0.826824,0.525315
-0.311206,0.350417,0.043421,-0.030325,-0.166160,0.985632
-0.347722,0.091733,0.781814,0.977288,0.204136,-0.056893
0.113492,-0.437014,0.444129,-0.228756,0.868811,0.439134
0.003208,-0.193447,-0.972210,0.333720,-0.400169,-0.853520
0.241731,-0.463088,0.768608,0.990918,0.133947,0.011802
0.074529,0.444336,0.186475,-0.215723,-0.414059,0.884318
-0.117738,0.575180,0.871995,0.790738,0.607778,0.073072
-0.281108,-0.442703,0.444810,0.515592,0.546132,0.660231
0.198107,0.734310,0.684009,-0.059126,-0.996026,0.066609
-0.062066,-0.363481,0.345725,0.463367,-0.756047,-0.462259
0.247501,-0.162106,-0.688178,-0.562324,0.748163,-0.352199
0.195384,-0.428745,0.697148,0.853775,-0.235563,-0.464303
0.135926,-0.235903,0.607149,0.463447,0.607377,-0.645221
0.443555,-0.597566,0.673095,0.896794,-0.442283,-0.012061
-0.437507,0.748321,0.694988,0.675739,-0.647027,-0.353175
-0.098211,-0.707130,0.234680,0.249870,0.450885,0.856894
-0.102367,-0.524191,0.849953,0.848939,-0.338900,0.405524
0.081962,-0.327135,0.766017,-0.269380,-0.536224,-0.799937
-0.159608,0.320867,0.323732,0.855716,-0.112887,0.504982
-0.049694,0.065185,0.025033,0.417107,0.891908,-0.174707
0.391391,-0.488109,0.440491,0.605675,0.489370,-0.627435
0.555592,0.539098,0.143154,0.152884,-0.234168,0.960100
-0.378558,0.274829,0.493746,-0.750752,0.569258,0.335138
-0.006578,0.279149,0.892427,0.685407,0.331914,-0.648113
0.133017,-0.404304,-0.963987,-0.108455,0.208501,0.971990
0.187998,-0.023414,-0.984917,0.044903,0.300956,0.952580
-0.091749,0.099160,0.017608,-0.345422,-0.929430,0.129782
0.421812,-0.036108,0.113204,0.110165,-0.504722,0.856224
0.128678,-0.452501,-0.357054,-0.502597,0.605531,-0.617032
0.092580,0.467513,0.338283,0.696185,-0.537767,0.475534
-0.123232,-0.000290,0.366655,-0.409662,-0.888583,-0.206391
-0.729118,0.346520,0.373382,0.339250,0.424969,-0.839232
0.408748,-0.120914,0.710320,0.920826,-0.213089,-0.326608
-0.107582,-0.713345,0.200013,-0.056359,0.537505,0.841375
-0.620727,-0.113803,0.708211,0.617725,-0.421054,0.664176
-0.203417,0.230846,0.503530,-0.577773,0.274302,-0.768724
0.096319,0.465985,0.431305,-0.005361,0.866806,0.498616
-0.206324,0.665517,0.585804,-0.242711,-0.412629,0.877968
-0.496042,-0.154468,0.697779,0.368296,-0.917366,-0.150992
0.143682,-0.382286,-0.969120,0.245492,-0.033377,-0.968824
0.175950,-0.333193,0.756682,0.436888,0.623188,0.648664
0.202816,-0.064869,-0.133486,0.782217,0.281346,0.555860
0.616803,-0.164213,0.324994,0.046010,0.426487,0.903322
0.125586,0.422740,0.196209,-0.316612,-0.574043,0.755136
-0.237946,-0.081250,0.470723,0.053695,0.882214,0.467777
-0.643254,-0.556744,0.518995,0.632442,-0.497817,-0.593460
-0.489487,0.467934,0.649125,-0.007720,-0.561400,0.827509
0.362124,0.357318,0.455142,0.018254,0.728439,0.684867
-0.052418,0.596513,0.657132,0.518650,-0.853016,-0.058022
-0.163440,0.448234,0.891297,0.978303,-0.197562,0.062385
0.053988,-0.212726,0.812428,-0.462976,0.701906,-0.541278
-0.036308,0.089889,0.951064,0.927831,0.363033,0.085657
-0.463820,0.146672,0.840484,0.968860,-0.226669,-0.099660
-0.379435,-0.220259,0.778193,0.985594,-0.082182,-0.147819
-0.294080,-0.059759,0.320460,0.704161,0.709960,0.010688
-0.349936,-0.186810,0.768044,-0.362078,0.463952,0.808485
0.108967,-0.411099,0.725536,0.367556,0.766039,0.527340
0.171102,0.173220,0.238484,-0.171821,-0.582469,0.794486
0.225667,-0.229793,0.708294,0.982920,0.124375,-0.135640
-0.289694,-0.156312,0.535390,0.853927,0.349072,0.385950
-0.448632,-0.044642,-0.123088,-0.003141,-0.923445,0.383719
0.258211,0.573652,-0.340443,0.962090,0.135629,-0.236618
0.692696,0.389397,0.274813,-0.379808,0.449612,-0.808452
0.164316,-0.192025,-0.950981,-0.237493,-0.076737,-0.968353
0.155222,0.069925,0.643212,0.201145,0.426061,0.882050
0.106844,0.414996,0.524360,0.828430,0.544664,-0.130554
0.053664,0.505807,0.536569,-0.267119,-0.710693,0.650818
-0.509198,-0.283942,0.662049,-0.553677,-0.327750,0.765520
-0.128678,-0.588454,-0.122772,0.867221,-0.495154,-0.052443
0.108829,-0.145513,-0.621285,-0.328363,0.835529,-0.440533
-0.826429,-0.032316,-0.031229,0.380113,0.813435,0.440271
-0.652257,-0.295056,0.722114,0.475240,0.861339,0.179563
0.183750,0.704232,0.627016,0.907217,-0.211870,0.363413
0.037969,0.141932,0.325377,-0.378505,0.035572,0.924916
-0.051679,-0.494851,0.760602,0.965411,-0.232440,-0.118123
-0.346335,0.659196,0.716068,-0.694355,0.101042,-0.712504
0.044293,-0.681635,0.417435,0.206919,0.287169,0.935264
-0.059158,0.080987,0.933689,-0.626846,-0.773153,0.096432
0.205309,0.143564,0.097656,-0.420743,-0.174557,0.890228
0.132741,-0.057863,0.394080,-0.892489,0.336504,-0.300379
-0.294449,0.206879,0.327353,-0.208193,-0.947457,0.242860
-0.369510,0.226896,0.051444,-0.034218,-0.684633,0.728084
0.199954,-0.403408,-0.345459,-0.083997,-0.472475,0.877332
0.118662,-0.586083,-0.352253,0.390452,0.121310,-0.912596
0.109291,-0.256235,0.578113,-0.575225,-0.502838,0.645190
-0.363093,-0.224999,0.104633,-0.111292,0.992724,0.045958
-0.167132,-0.267982,0.133386,-0.549421,-0.817569,-0.172387
-0.311484,-0.519345,0.398399,0.856991,-0.004458,0.515311
0.020150,0.061392,0.495673,0.119647,0.011096,0.992754
0.208078,0.310595,0.477916,0.169925,-0.264969,0.949166
-0.064928,0.130817,0.901297,0.276654,0.643449,0.713748
0.366186,-0.629961,0.572250,0.703710,0.278309,-0.653710
-0.405194,-0.303800,0.440674,-0.579683,-0.591063,-0.560903
-0.191829,0.121652,-0.059468,-0.093759,-0.908050,0.408234
0.014934,0.073086,0.469610,-0.567991,0.120165,0.814215
0.024720,0.563381,0.588263,-0.294598,0.473781,0.829905
-0.499874,0.338250,0.603512,-0.078009,-0.756132,0.649753
-0.031367,0.009560,0.732812,0.998545,-0.012006,0.052565
-0.104027,0.602939,0.803076,-0.408454,0.895829,-0.175087
-0.815996,-0.271774,0.124566,-0.051888,0.464781,0.883904
0.651934,0.365482,0.278550,0.007126,-0.064589,0.997887
-0.845447,0.419263,0.024850,0.677284,0.059070,-0.733347
-0.441201,0.210198,0.057092,-0.268225,-0.004640,-0.963345
0.421305,-0.409150,0.468049,0.163773,-0.986498,0.000376
-0.240762,0.358687,0.900517,-0.554771,0.823509,-0.118588
-0.463913,0.238221,0.773260,0.858507,0.510283,0.050768
-0.093687,-0.486318,0.199216,0.395451,0.094384,-0.913625
-0.766279,-0.704074,0.482816,-0.735015,-0.504720,-0.452780
0.034783,0.067134,-0.116327,-0.108306,0.981890,0.155438
0.394714,0.568595,0.607548,0.615040,0.333012,-0.714723
0.036537,-0.495167,-0.966845,-0.061257,0.138853,0.988417
-0.548344,0.195133,0.441920,-0.088956,-0.819991,0.565422
0.040000,-0.761700,0.368250,0.752587,0.023950,-0.658057
-0.482563,-0.024836,0.774206,0.297439,-0.903165,0.309553
0.147836,0.433643,0.597864,0.842860,-0.189316,0.503732
-0.408286,-0.461877,0.319878,0.949773,-0.019859,0.312307
0.104674,-0.228950,-0.066810,0.303096,0.473125,0.827216
-0.710191,0.371277,0.224382,-0.518001,0.678303,0.521133
-0.421258,-0.182649,0.126975,-0.134207,0.754029,-0.642985
0.553192,0.195712,0.264298,-0.245354,0.721822,0.647127
-0.582919,-0.110696,0.372004,-0.175021,-0.380668,0.907998
0.310975,0.713345,0.272852,-0.267949,-0.112149,0.956884
-0.064835,-0.511760,-0.045448,-0.762734,0.582585,0.280769
0.198846,0.742790,0.623544,-0.716984,-0.058539,-0.694628
0.437231,-0.085201,0.342287,0.238925,0.317958,0.917506
-0.029060,0.344676,0.573446,0.108723,0.966868,-0.230968
0.675845,0.170112,0.276590,-0.222751,0.201916,0.953736
-0.650965,-0.590034,0.558031,0.905555,-0.417321,0.076239
-0.045263,-0.492533,0.743493,0.796195,-0.580714,-0.169839
-0.586613,0.443072,0.661401,-0.753858,0.268817,-0.599529
0.037230,-0.122073,0.804704,0.789991,0.248641,-0.560440
0.791945,0.151097,0.267554,0.236662,0.808072,0.539454
0.173318,0.072981,-0.483198,-0.442009,-0.440688,0.781295
0.352199,0.415523,-0.313799,0.938872,0.011830,0.344064
0.470375,-0.526666,0.633827,-0.430056,0.844151,0.320096
-0.395869,0.663199,0.657979,0.420253,-0.604547,-0.676691
-0.047664,0.014196,-0.276092,0.978704,-0.134608,0.154982
0.143728,0.486528,-0.036627,0.814552,-0.573603,-0.086510
0.085147,0.133820,0.825584,-0.545335,0.762799,0.347488
-0.079977,-0.436172,0.840318,0.313991,-0.947595,-0.058940
-0.580243,-0.555637,0.529576,0.744915,-0.631119,-0.216313
0.154945,0.021992,-0.505440,0.712688,0.380732,-0.589169
0.029660,-0.365693,0.733975,-0.496128,0.829583,-0.256222
0.198062,-0.275830,-0.951363,-0.103825,-0.228379,-0.968020
0.176088,0.442703,0.579990,-0.467874,-0.880139,-0.080311
0.298096,0.343359,0.474544,-0.351372,0.372741,-0.858838
-0.480024,0.372119,0.607066,-0.155376,-0.583037,0.797449
0.127524,0.549001,0.767728,-0.142646,0.908943,0.391760
-0.200647,0.026258,0.541934,0.784435,0.436119,0.440978
0.162055,-0.030788,0.365459,0.968057,-0.161245,0.192002
-0.762447,0.455714,0.381156,0.732730,0.619294,0.282103
0.078223,-0.081040,-0.835983,0.995749,-0.084276,0.037162
0.060450,-0.259027,0.611252,-0.724411,0.686561,-0.062156
0.170455,-0.160736,0.897610,0.062227,-0.153519,0.986184
-0.391945,-0.253760,0.781515,0.215658,0.810355,0.544809
-0.494888,-0.352735,0.635704,0.969014,0.069553,0.237013
0.454542,-0.436540,0.562432,0.886775,-0.055168,-0.458897
-0.378372,0.345466,0.618561,0.390050,0.903574,0.177241
-0.602031,-0.261661,0.678826,-0.002391,-0.585414,0.810731
-0.593768,0.270457,0.072972,0.065554,-0.090128,0.993770
-0.190722,-0.248598,0.158386,-0.717492,-0.592666,-0.365996
-0.529464,-0.240907,0.578778,0.406518,-0.535318,0.740390
0.066636,-0.294214,0.884072,0.851114,-0.018098,-0.524669
0.084594,-0.392610,0.779539,-0.380803,0.540499,0.750233
0.141188,-0.423582,-0.343034,-0.268763,0.602803,-0.751262
-0.644039,-0.262925,0.410691,0.408981,0.743464,0.529146
0.065528,-0.226316,-0.960167,0.361064,-0.191731,-0.912618
0.379988,0.603835,0.597332,0.508450,0.790634,-0.341140
-0.671599,-0.042008,0.173502,0.555807,0.648469,-0.520160
0.664904,0.656931,0.259680,0.420310,-0.492150,-0.762318
-0.090317,0.182228,0.795585,0.752231,0.572012,-0.327034
-0.260242,-0.067081,0.459012,-0.398841,0.866421,0.300401
-0.234760,-0.282941,0.186027,0.823710,0.489353,0.286420
-0.501212,0.391240,0.057075,-0.068574,0.026646,0.997290
0.158038,0.298164,0.550174,0.885501,-0.280733,-0.370240
-0.574334,-0.380231,0.535639,-0.581061,-0.631644,0.513219
-0.043692,-0.347889,0.819671,0.775073,-0.569611,-0.273506
0.032198,0.001080,0.670122,-0.441954,0.716024,-0.540358
0.221697,-0.030420,-0.983090,0.008382,0.263202,0.964704
0.011749,-0.565540,-0.359230,0.587940,-0.554288,0.589145
-0.072130,-0.034212,0.686500,0.995275,0.047385,0.084749
0.482563,0.480787,0.603561,0.619513,0.757809,-0.204767
0.956007,0.033422,0.212688,-0.177377,-0.881991,0.436610
0.159146,-0.519292,0.713327,0.297122,0.908571,0.293629
-0.379296,-0.332613,0.304895,0.864242,0.056249,0.499922
0.411749,0.144987,0.342735,-0.105982,-0.442696,0.890386
-0.546775,-0.113803,0.715453,0.867021,0.176159,-0.466093
0.074714,-0.071348,0.677264,-0.394989,-0.655122,0.644049
-0.311529,0.490742,0.704789,-0.133128,-0.975740,-0.173806
0.099273,-0.278148,0.908905,-0.892174,0.367450,-0.262691
0.188551,-0.631858,0.485590,-0.573028,0.243618,0.782489
-0.492765,0.371593,0.616867,-0.003604,-0.585642,0.810562
-0.038338,-0.232848,-0.191193,0.958234,0.192447,0.211545
0.126602,-0.406990,-0.342569,0.177060,-0.655544,0.734106
0.242147,0.242909,0.253750,-0.571881,0.818487,0.055053
0.160254,-0.397298,-0.963290,-0.220449,0.075260,0.972491
0.066729,-0.472096,-0.964967,0.254219,-0.110831,-0.960775
0.205032,0.487687,0.612066,-0.299771,-0.826098,0.477179
-0.047986,0.050699,0.745934,0.927320,0.354667,0.119538
-0.037877,-0.232795,-0.144516,0.229260,-0.973045,0.024958
-0.407271,0.007506,0.362170,-0.209855,0.573527,-0.791851
0.032936,0.005452,-0.439677,0.923887,-0.300792,0.236551
0.020842,-0.538887,-0.329413,0.245824,-0.399358,0.883223
0.652579,0.641128,0.261906,0.711796,-0.212366,-0.669512
-0.324732,-0.740999,0.460208,-0.552907,0.653634,0.516774
0.090640,-0.228845,0.695138,-0.396655,-0.197475,-0.896475
0.480809,0.574337,-0.073986,0.252965,-0.770459,0.585151
-0.736042,0.296637,0.076161,-0.601889,0.328228,0.728008
0.302989,-0.281150,0.452135,0.817325,0.573101,-0.059452
0.103474,-0.475098,-0.007309,0.444362,0.746929,0.494611
0.198476,0.277252,0.554027,0.917888,-0.358689,-0.169774
0.112245,-0.047170,-0.991645,-0.196381,0.447997,0.872200
-0.106152,0.691116,0.313948,-0.815865,-0.050563,-0.576028
-0.524616,-0.350997,0.735669,0.470054,0.578758,-0.666400
-0.712961,-0.188391,0.396040,0.744324,0.157900,0.648883
0.159192,-0.377808,-0.964070,-0.172909,-0.060206,0.983096
0.148898,-0.148042,-0.320211,-0.319459,0.764355,0.560095
-0.494888,-0.179067,0.663843,0.486037,-0.501361,0.715825
0.063173,-0.376281,-0.965349,-0.205742,0.225125,0.952360
