0.444586,0.082089,0.800195,0.093125,0.990356,-0.102577
0.268166,0.105896,0.942257,-0.706124,-0.070409,0.704579
-0.534215,0.306833,0.390817,0.136824,-0.924162,-0.356657
-0.178288,-0.561922,0.636824,0.033296,-0.301584,0.952858
0.210273,-0.353707,0.851734,0.593674,0.332838,-0.732646
0.684129,0.291106,0.303008,0.961130,-0.096439,-0.258704
0.047555,0.473171,0.716022,0.563049,-0.347777,0.749685
-0.274743,0.256260,0.429186,-0.143159,0.748379,0.647638
0.037939,-0.278463,0.651531,-0.608067,-0.760844,-0.226651
0.358992,0.302269,0.756544,0.055050,0.276029,0.959572
0.349675,-0.005798,0.466452,0.951773,-0.260890,0.161447
0.551703,0.082089,0.160097,0.321980,-0.932342,0.164520
0.216351,0.029665,0.193979,0.707123,0.099896,0.699998
-0.334679,-0.155668,0.619295,0.001407,0.628556,0.777763
0.346636,-0.036697,0.140885,-0.461072,-0.833416,-0.304681
-0.068182,-0.655791,0.708479,0.803128,-0.312436,0.507316
0.210622,0.300604,0.530364,0.160279,0.936854,-0.310830
0.648507,-0.015234,0.763979,0.353981,-0.882972,0.308314
0.257355,-0.265758,0.702853,0.810925,0.009385,0.585074
0.042573,0.267300,0.549847,0.172069,-0.921311,0.348681
0.384500,-0.206056,0.840717,-0.602817,0.797240,0.031943
-0.011135,-0.127112,0.827891,0.896774,-0.363496,0.252321
-0.640186,0.311521,0.367934,0.928911,0.144128,-0.341104
0.312607,0.202417,0.314857,0.518134,0.492289,0.699421
0.031512,-0.212471,0.860887,0.758306,-0.648915,-0.062297
0.972697,0.263476,0.370918,-0.500971,-0.105776,-0.858976
0.518820,-0.005612,0.812316,0.166065,0.723066,0.670521
0.511696,-0.783212,0.937246,0.166825,0.873792,0.456789
0.677752,0.359689,0.165361,0.143678,-0.579649,0.802099
0.796328,0.216849,0.566146,0.920119,0.275953,-0.277905
-0.634507,0.165844,0.332495,-0.411203,-0.048836,0.910235
0.663752,0.455347,0.864126,-0.123422,0.982636,0.138541
-1.000000,0.029419,0.322781,0.030610,0.047848,0.998385
0.311362,0.240533,0.754608,-0.524086,0.416549,-0.742846
0.202352,-0.406439,0.909025,0.889099,0.204283,0.409598
0.556137,-0.140434,-0.981168,-0.225624,0.022220,0.973961
0.338266,-0.082768,0.551113,0.974721,0.200186,-0.099216
0.290686,-0.028741,0.533241,0.911547,-0.358348,0.201666
0.334828,-0.411805,0.853941,0.046265,-0.846853,0.529811
0.469298,-0.086777,0.794352,0.787974,0.615039,-0.028716
-0.060608,-0.119774,0.781581,0.760817,0.272779,-0.588854
0.107740,-0.645739,0.817381,0.933597,-0.137781,-0.330777
0.350073,-0.052301,0.384739,-0.595607,-0.802697,0.030490
-0.055477,0.126372,0.483963,-0.544564,0.793783,-0.270848
-0.230103,-0.448255,0.783136,0.268653,-0.949326,-0.163115
0.465062,0.369804,0.334214,0.819243,-0.505532,-0.270700
0.195675,-0.701739,0.771939,-0.445136,0.895068,0.026603
-0.056025,-0.066178,0.627761,0.872123,-0.207483,0.443116
0.391326,-0.118787,0.855388,0.961288,0.248758,0.118511
0.008644,-0.676453,0.817200,-0.537253,0.665045,-0.518724
0.477120,-0.140250,0.792869,0.519381,-0.333213,-0.786901
0.260494,0.277476,0.887371,-0.158808,0.025995,0.986967
0.285156,-0.325398,0.861177,0.943055,0.127173,0.307368
0.050245,-0.189343,0.898515,0.898826,-0.394708,0.190574
0.255910,-0.276860,0.738327,-0.431000,0.790484,0.435171
0.182422,-0.474158,0.741584,0.194311,0.877326,0.438797
0.482899,0.110583,0.713490,0.222532,0.753539,0.618595
-0.118153,-0.341495,0.834964,-0.127968,-0.296364,0.946463
-0.246544,0.308992,0.287397,0.177600,0.022377,-0.983848
0.250180,-0.070372,0.582988,0.749752,0.392026,0.533092
0.753631,0.451893,0.873116,0.266299,0.943199,0.198645
0.313853,0.521340,0.088551,-0.026119,-0.088571,0.995727
0.253718,0.260084,0.876752,0.914552,0.087973,-0.394785
-0.652642,0.059331,0.344778,0.261121,-0.712235,-0.651565
-0.111825,-0.086900,0.793249,-0.205537,0.616516,-0.760041
-0.195974,0.109288,0.525172,0.660312,-0.749214,0.051636
0.419226,-0.100962,-0.134717,0.864023,0.503356,-0.009833
-0.614678,0.363698,0.265652,-0.311009,-0.169253,0.935215
0.452357,-0.106698,-0.802077,0.971187,0.237439,-0.020473
0.530280,0.657580,0.781418,0.512546,-0.850539,0.117813
0.211867,-0.404835,0.919554,0.858070,0.118068,0.499776
0.476322,0.098741,0.700067,-0.369725,-0.713252,0.595462
0.275540,-0.083694,0.196241,-0.472072,-0.666209,-0.577334
0.242358,-0.106513,0.836792,0.973967,0.005735,-0.226617
0.549461,-0.141729,-0.978527,-0.087873,-0.130231,0.987582
0.391127,0.017022,0.675736,0.793669,0.440150,-0.419950
-0.043968,-0.225607,0.842580,0.743097,-0.294992,0.600655
0.364372,0.603244,0.773983,-0.257856,0.958578,-0.120989
0.130011,-0.646232,0.827855,0.929592,-0.361716,-0.070851
-0.046359,-0.496608,0.808987,0.007057,0.890690,0.454556
-0.137284,0.268163,0.810760,-0.699430,-0.240912,-0.672874
-0.031214,-0.311706,0.699687,0.794809,0.549589,0.257352
0.449368,-0.036388,0.854556,0.106634,0.853014,0.510877
0.409611,-0.102319,0.085512,0.931229,0.322953,0.168862
0.240316,0.230850,0.032345,0.953818,0.280571,-0.107289
0.064095,-0.591711,0.800286,0.383697,-0.850016,0.360901
0.313952,-0.242815,0.387308,0.809122,0.579100,0.099828
-0.412450,-0.145245,0.587782,0.797134,0.557312,0.232336
-0.688215,0.161280,0.331319,0.286740,-0.230421,-0.929885
0.003712,-0.497657,0.814432,-0.381417,0.508244,0.772146
0.598436,-0.708400,0.998101,0.783832,0.613636,-0.095172
-0.481653,-0.085235,0.623166,0.312531,0.554327,0.771392
0.503874,0.081534,0.841061,-0.094364,-0.076932,0.992561
0.459183,-0.444308,0.928599,-0.401135,0.207056,0.892311
-0.273397,0.018132,0.314984,0.347827,-0.185731,0.918978
-0.697781,0.532503,0.313338,0.721685,0.499433,0.479309
0.199661,0.715431,0.049133,0.344672,0.937386,0.050094
0.083825,0.235475,0.523779,-0.398573,-0.865344,0.303841
-0.065790,-0.522265,0.784276,-0.339242,0.718936,-0.606668
-0.824727,0.249537,0.337144,-0.517107,0.180915,-0.836582
-0.044815,-0.088073,0.341052,-0.308893,0.923431,-0.227728
0.756919,0.516220,0.223828,-0.167785,0.980088,0.106186
0.425604,0.434933,0.282946,-0.026077,0.625856,0.779503
-0.568692,0.341680,0.276126,-0.331034,-0.716497,0.614043
-0.214060,-0.192858,0.563288,0.301358,0.480928,0.823342
0.701617,0.327680,0.353317,0.990438,-0.071513,0.117977
0.583439,0.080856,0.871018,0.931911,0.304787,0.196587
0.074508,-0.541692,0.839198,-0.691281,0.721167,0.045255
0.613531,0.291662,0.392807,0.862116,-0.028054,-0.505934
-0.017612,-0.185272,0.818955,0.996459,0.041549,-0.073103
0.335526,-0.090786,0.326019,0.299759,-0.940805,-0.158212
0.464664,0.041445,0.776570,-0.579122,0.567401,0.585384
0.126672,-0.789256,0.684310,-0.072176,0.919236,0.387034
0.206487,0.402245,0.894879,0.773886,0.231038,0.589679
0.207333,-0.443938,0.859259,-0.685426,0.497210,0.531952
0.730862,0.504996,0.227464,-0.744423,-0.663990,0.070367
0.816108,0.797705,0.256770,0.768385,0.128548,-0.626945
-0.563511,0.073455,0.347727,0.171959,0.110133,-0.978928
0.054430,0.177562,0.298377,0.904021,0.315916,-0.287998
0.120046,-0.560133,0.783553,0.881928,-0.446694,0.150560
0.398849,-0.004503,-0.261456,0.999495,0.030850,-0.007586
0.217098,0.702356,0.117242,0.857171,0.513626,-0.038043
0.215405,-0.014124,0.897230,-0.344406,0.287730,-0.893642
0.065192,-0.569570,0.810832,0.890818,0.110959,-0.440604
-0.293526,0.315900,0.288790,-0.341130,0.160022,-0.926295
-0.352266,0.414148,0.235750,0.083173,0.996335,-0.019952
0.433226,-0.067781,-0.385065,0.877204,0.477231,0.052580
0.334280,-0.159738,0.773060,-0.585652,-0.531372,0.612091
0.797026,0.252929,0.371660,-0.161883,0.391864,0.905669
0.331839,0.102319,0.796650,0.853764,0.479235,0.203519
0.434273,0.155359,0.547911,0.703807,-0.185945,-0.685624
-0.032609,-0.213766,0.805912,-0.464793,0.538969,-0.702481
0.368856,0.442025,0.071618,-0.047080,-0.364880,0.929863
0.968214,0.472061,0.210261,-0.476095,0.868707,-0.136678
0.211469,0.393425,0.173502,0.859371,0.289874,0.421255
0.107391,-0.558838,0.857487,0.484819,0.735087,-0.473916
0.077946,0.046750,0.759493,-0.599651,-0.677158,0.426468
0.474827,-0.001665,0.819968,0.376752,-0.893659,-0.243784
0.437112,-0.076046,-0.479007,0.958305,0.285734,0.002771
0.395412,-0.037437,-0.040594,0.719260,0.694097,-0.029897
0.357597,-0.288886,0.980734,-0.628810,-0.688330,-0.361663
0.465661,0.074935,0.821325,0.157684,-0.984362,-0.078534
0.005904,-0.611015,0.792688,0.956658,-0.097197,0.274513
-0.393917,0.417787,0.307802,-0.005944,-0.671528,0.740955
-0.038089,-0.046257,0.783372,-0.069831,0.648922,0.757644
0.520016,-0.348588,-0.117549,0.865203,0.492941,-0.091835
-0.015968,-0.183114,0.810959,0.787997,0.167713,0.592397
0.514984,-0.206119,0.605546,-0.616161,0.754608,0.225638
0.227362,-0.101024,0.862027,-0.649110,0.565925,-0.508316
0.325960,-0.023005,0.488558,0.973498,-0.141678,0.179522
-0.391625,-0.092575,0.590061,0.552322,0.445260,0.704758
-0.206786,0.351918,0.258000,0.891617,0.444582,-0.085828
0.280721,0.304675,0.599161,-0.017651,-0.804244,0.594038
0.278878,-0.056803,0.187956,0.333927,0.755824,0.563225
0.154074,0.127667,0.822681,-0.311085,-0.238739,0.919907
-0.173106,0.190267,0.442573,-0.100220,0.777526,0.620813
-0.188501,0.240718,0.430290,-0.223986,0.721505,0.655180
0.227612,-0.232577,0.430236,-0.730787,-0.655951,-0.188888
0.029569,-0.578204,0.681959,-0.502709,0.855383,0.124916
-0.090551,-0.525719,0.876354,-0.316110,0.024056,0.948417
0.452657,-0.211299,-0.153784,0.880698,0.472898,-0.027178
0.671425,0.213643,0.194450,0.872069,-0.200583,0.446388
0.332785,-0.052918,0.157456,0.493126,0.843799,0.211731
-0.609347,0.314851,0.386693,-0.190280,-0.183532,0.964422
0.382857,-0.059764,0.159844,0.576787,0.816155,0.034754
0.294522,-0.339522,0.859332,0.446868,0.729016,0.518502
0.461824,0.051128,0.836520,-0.109593,0.722045,0.683111
0.459383,0.016220,0.893323,-0.551776,0.534376,-0.640301
0.611888,0.461761,0.822862,0.374419,0.920529,0.111520
0.546621,0.436166,0.795944,0.167284,-0.477684,0.862458
-0.159007,-0.489577,0.806834,0.806743,-0.367787,-0.462492
0.360785,-0.005860,-0.079090,-0.568972,-0.821283,0.042007
-0.232145,-0.483903,0.788781,0.827555,-0.264993,-0.494906
-0.232992,-0.315283,0.582916,-0.228134,-0.135519,-0.964152
0.402536,0.010053,0.916135,0.449459,0.373413,0.811511
-0.804400,-0.080795,0.327918,0.878924,-0.279540,0.386458
0.568642,0.048908,0.869209,0.545421,0.817491,-0.184997
0.318187,-0.059393,0.321659,-0.391917,0.905613,0.162069
0.166928,0.277168,0.928237,-0.456964,-0.339706,-0.822060
-0.215305,-0.558777,0.842472,-0.309811,-0.906276,-0.287543
-0.376728,-0.884113,0.597967,-0.615291,-0.707840,-0.346959
0.199661,0.663932,0.183415,0.784154,0.603276,0.145465
0.778443,0.538238,0.337108,0.115735,-0.976845,0.179941
0.451910,-0.097694,-0.941316,-0.587389,0.809289,-0.004977
-0.028075,-0.325089,0.830713,0.975241,-0.027431,-0.219438
0.242657,-0.049710,0.881854,0.413082,-0.609241,0.676896
-0.028025,-0.169360,0.829556,0.979433,0.015518,0.201173
0.232444,0.005859,0.564844,0.252855,0.967475,0.007516
-0.216352,-0.147157,0.574992,-0.084649,0.768001,0.634829
0.449668,-0.244234,0.929756,0.831734,-0.347640,0.432858
-0.206786,-0.290922,0.792996,-0.751690,0.619290,-0.226810
0.360685,-0.097324,0.261691,0.730674,-0.555121,0.397437
-0.231248,-0.276367,0.699777,0.073165,0.947841,0.310232
0.302792,-0.168867,0.363320,0.938889,-0.274098,0.208224
0.621653,0.100654,0.803162,0.895666,-0.357183,-0.264958
-0.232295,-0.278895,0.851046,-0.171563,0.983923,0.049611
0.365418,-0.336623,0.832378,0.139467,0.933046,-0.331624
0.282166,-0.472308,0.851354,0.835719,-0.526690,0.155471
0.449618,-0.802023,0.865627,-0.083702,0.963148,0.255616
-0.037641,-0.362711,0.605564,-0.653793,0.239167,0.717881
-0.330793,-0.290243,0.705910,-0.018788,0.962180,0.271765
0.582144,0.508943,0.830478,-0.596342,-0.574298,-0.560854
0.170316,0.097076,0.805460,-0.767834,0.159484,0.620481
0.353262,-0.351857,0.904485,0.640384,-0.715568,0.279053
0.018858,-0.661712,0.808300,-0.664854,0.724815,-0.180588
0.507610,-0.338288,0.694007,0.878340,-0.402756,-0.257499
-0.012630,-0.248613,0.826878,-0.704752,0.683954,-0.188497
0.057818,-0.737634,0.722318,0.009314,-0.971941,0.235041
0.451660,-0.144937,0.893558,-0.586245,-0.801631,-0.117071
0.555140,0.361477,0.759909,0.771656,0.623817,0.124095
0.634457,0.223572,0.811266,0.114530,0.647515,0.753397
-0.257056,-0.272789,0.771269,-0.018421,0.306240,0.951776
0.027078,-0.304613,0.755567,0.479102,0.653595,-0.585897
0.275042,-0.200506,0.399193,0.821566,0.342744,0.455583
0.389233,-0.020600,-0.010908,0.290558,0.956620,-0.021321
-0.004509,-0.351980,0.801371,0.998266,0.037518,-0.045357
-0.025534,0.186197,0.455562,0.382154,0.770928,0.509538
0.127021,-0.445911,0.838166,-0.331199,0.940963,-0.069973
0.056373,0.150426,0.806310,0.215308,0.023563,0.976262
-0.323419,0.240224,0.293439,0.275003,-0.387435,0.879924
0.355305,-0.000493,0.534814,0.299119,-0.952192,-0.062111
0.349725,-0.042988,0.443785,0.993079,0.026680,0.114375
-0.520614,0.532688,0.299119,0.876512,0.332669,-0.347933
-0.042523,-0.289873,0.811375,-0.011768,-0.625205,0.780372
-0.100068,0.017084,0.731254,-0.027053,0.999363,0.023261
0.798271,0.806957,0.244957,0.768385,0.128548,-0.626945
0.213711,-0.431294,0.912336,0.927842,0.086963,0.362694
-0.463169,0.258172,0.267552,0.039499,-0.083703,0.995708
0.217348,0.234365,0.016100,-0.530380,-0.633121,0.563787
-0.756919,0.140928,0.331066,0.035441,0.146551,0.988568
0.497547,-0.055940,-0.969537,0.658132,-0.751196,-0.050655
0.090352,-0.546503,0.850359,-0.620637,-0.545135,0.563593
-0.202601,-0.046318,0.825196,-0.650750,0.599914,0.465433
0.514685,-0.409954,0.851300,0.967775,0.222620,-0.117697
0.279177,-0.490317,0.872972,-0.523343,0.837359,-0.157932
-0.517026,-0.051869,0.340382,-0.042922,0.286395,0.957150
-0.017264,-0.670162,0.769533,0.736631,-0.662716,0.134842
0.550707,-0.586777,0.907089,0.950479,0.284060,-0.126097
0.085968,0.136549,0.938331,0.401499,0.202511,0.893190
-0.242807,0.161342,0.243438,0.071309,0.853654,0.515937
0.243205,-0.208277,0.412001,-0.735443,-0.558236,-0.384052
-0.007747,-0.445849,0.773151,0.965972,0.176864,0.188724
0.105299,-0.679413,0.820221,0.794670,-0.600557,-0.088489
0.082380,0.040767,0.624450,0.304405,0.951177,-0.050997
0.089704,0.401011,0.595778,-0.065313,-0.420185,0.905085
0.242907,0.021895,0.929575,0.424092,0.713687,-0.557491
0.214757,0.846552,0.048753,-0.403424,-0.105873,-0.908867
0.520415,0.459171,0.658550,-0.275629,0.562676,0.779374
-0.145256,-0.273900,0.746595,0.337440,0.941076,0.022591
0.485290,0.272603,0.771107,0.390349,-0.091178,-0.916141
-0.121391,0.126002,0.275674,0.426000,0.645693,-0.633723
-0.746855,0.203898,0.314984,-0.181520,0.233748,0.955203
0.364870,-0.346244,0.879683,0.923189,-0.365160,0.119917
0.304885,-0.836191,0.917853,0.039561,-0.883193,0.467339
0.422266,-0.068830,0.822410,-0.361974,-0.649587,0.668590
0.414842,-0.121685,0.849491,0.849980,0.518081,-0.095525
0.387440,-0.002899,-0.204002,0.969427,0.197739,0.145296
0.312309,-0.018009,0.157076,0.799476,0.386545,0.459807
-0.820043,0.265881,0.339442,0.263664,0.388925,-0.882734
0.185612,-0.280067,0.911467,0.921195,0.107047,0.374086
0.546770,-0.064142,-0.987717,0.071396,0.342962,0.936632
-0.127320,-0.592698,0.852078,0.197326,-0.947635,0.251100
0.224024,0.008511,0.835417,0.421986,0.885902,-0.192629
-0.780335,-0.029913,0.340726,-0.144405,-0.218697,0.965049
-0.555639,0.107561,0.348179,0.214950,0.377554,-0.900694
0.516130,0.439188,0.223611,0.888792,0.458285,-0.004793
-0.799517,0.729431,0.307531,-0.284504,0.886867,0.364040
0.311860,-0.363390,0.897737,-0.307233,0.890281,-0.336166
0.039683,-0.439805,0.566056,-0.308798,-0.801893,-0.511479
0.389134,-0.167695,0.896055,-0.768602,0.285486,0.572493
-0.844058,0.191254,0.319832,-0.027212,-0.025457,-0.999306
0.311710,-0.168805,0.319615,0.798553,-0.447888,0.402130
-0.021698,-0.469225,0.794316,0.813954,0.092425,0.573529
0.251974,-0.233687,0.246712,-0.384749,0.837802,0.387371
-0.442443,-0.247132,0.617287,0.404607,-0.640460,0.652767
0.199661,-0.255829,0.932289,0.745045,0.347482,0.569354
0.190942,-0.146725,0.624541,0.395513,0.053117,-0.916923
0.208081,-0.337116,0.844100,0.766557,0.509398,-0.391030
-0.698428,0.572900,0.300964,0.118071,-0.111914,0.986678
-0.082331,-0.461330,0.828506,0.222379,-0.088671,-0.970920
0.626435,0.404033,0.898135,0.482153,0.726987,0.488895
0.420621,-0.120637,0.891840,-0.064897,-0.840169,0.538427
0.487981,0.030467,0.750068,-0.106316,-0.991976,0.068422
0.574920,-0.520168,0.943957,0.150953,-0.626751,-0.764458
-0.045363,-0.421796,0.585937,-0.494993,-0.619978,-0.608776
0.300002,-0.230788,0.945639,0.108960,-0.986455,-0.122615
-0.205491,0.294190,0.320375,0.360337,-0.676865,0.641880
-0.579304,0.615332,0.293240,0.270638,0.675942,0.685462
0.488130,0.120698,0.701948,0.451945,0.844563,0.287157
0.082331,-0.698964,0.860345,0.030718,0.890830,0.453297
0.361981,-0.074874,0.317064,0.995061,0.091847,-0.037646
-0.353761,0.385716,0.290526,-0.276540,-0.568163,0.775059
0.880179,0.193968,0.379222,-0.198905,0.043318,-0.979061
0.321775,0.233193,0.785995,0.940429,-0.116131,0.319542
0.209626,0.721907,0.191990,0.874663,0.450641,-0.178569
0.573575,-0.628470,0.912209,0.860549,0.506526,-0.053727
0.155619,-0.483040,0.605926,0.538543,-0.265186,0.799780
0.208430,-0.304243,0.863167,0.884190,-0.410323,0.223255
0.452308,0.575737,0.787876,-0.400569,-0.860723,0.314166
0.685325,0.165967,0.344688,0.776010,-0.350643,-0.524269
-0.636849,0.049710,0.347709,0.075043,0.540421,0.838042
0.265277,0.419082,0.882867,0.405577,0.664072,0.628104
0.457888,-0.039904,-0.736555,0.999728,0.018493,-0.014231
0.582841,0.293080,0.530672,-0.810521,0.485582,-0.327514
0.336721,-0.053534,0.400586,0.708722,0.704981,-0.026723
0.557034,-0.050697,0.023137,0.161775,0.944090,-0.287268
0.427746,-0.111447,0.934080,-0.427269,-0.831826,-0.354269
0.026032,-0.102257,0.558259,-0.228912,0.837029,0.496972
-0.100466,-0.472802,0.792344,0.561534,0.262293,0.784782
0.270110,-0.042309,0.888113,-0.055068,0.906596,-0.418392
0.206686,-0.263846,0.510393,0.284542,-0.957297,-0.051170
-0.651197,0.557789,0.296604,-0.343648,-0.842794,0.414251
-0.231846,0.490255,0.344959,-0.318089,-0.948058,0.002260
0.654684,0.181756,0.800557,0.964063,0.037001,-0.263084
0.355404,-0.170840,0.838293,-0.524495,0.581351,-0.622041
0.108487,-0.652400,0.824382,0.927455,-0.335542,0.165039
0.565653,0.214012,0.815138,0.846744,0.504153,0.169864
-0.295220,-0.365795,0.777800,-0.536539,0.569945,0.622326
0.388685,-0.111201,0.880986,-0.190032,-0.917776,0.348675
0.255013,-0.221599,0.515765,0.430788,-0.853285,-0.293813
0.492315,-0.618355,0.908772,-0.081474,-0.980983,0.176167
0.465511,-0.326632,0.618535,0.870768,-0.491445,0.015678
-0.208181,0.152337,0.802837,0.717988,-0.620661,0.315076
-0.047754,0.303688,0.743284,0.322884,0.149506,-0.934555
-0.165085,-0.176391,0.344652,0.238123,-0.210163,0.948224
-0.684777,0.467559,0.313048,0.666993,0.593154,0.450876
0.289191,-0.389910,0.897267,0.248216,-0.908993,0.334842
-0.428394,0.144566,0.215832,0.079444,-0.707664,0.702068
0.177242,-0.149316,0.879357,0.166521,-0.188433,0.967866
-0.119498,0.057728,0.663398,-0.258014,0.191154,-0.947042
0.364223,-0.015850,-0.011994,0.395051,0.917032,-0.054649
-0.888599,0.140680,0.332785,-0.187453,0.082669,0.978789
0.192587,0.476131,0.057237,-0.496126,-0.505980,0.705580
-0.709040,-0.040829,0.323396,0.374208,0.691364,-0.618049
-0.393867,-0.731898,0.579443,0.454598,0.581213,0.674931
0.522905,0.384359,0.769786,-0.349680,-0.755953,-0.553406
-0.803204,0.171518,0.326200,-0.022085,0.106102,0.994110
0.097776,0.108856,0.239657,-0.606876,-0.006545,-0.794770
0.150337,-0.034723,0.629588,-0.037881,-0.892052,0.450343
0.264679,-0.393302,0.501908,0.668990,0.571732,0.474947
-0.127121,0.000308,0.767109,-0.249011,0.968320,-0.018720
0.380863,-0.019675,0.055138,-0.011259,0.834678,0.550623
-0.004310,-0.304305,0.320899,0.048290,0.443143,0.895149
0.936179,0.667201,0.189222,-0.001759,0.038210,0.999268
0.046807,-0.141853,0.281608,0.569366,0.448878,0.688717
0.283611,-0.147096,0.837407,0.849201,0.302035,-0.433166
0.167277,-0.452757,0.728269,0.040823,-0.996260,0.076160
0.002018,-0.271124,0.791096,0.909596,0.414765,0.024588
0.374087,-0.044591,0.103186,0.808223,0.585699,0.061096
0.336572,-0.219502,0.732611,0.030829,0.950078,0.310487
-0.193882,0.224559,0.840428,0.924065,-0.377706,-0.058659
0.457141,-0.026890,-0.997250,-0.239463,0.323873,0.915294
-0.039285,-0.723573,0.762894,-0.083480,-0.917340,0.389254
-0.886805,0.223387,0.324318,0.157118,0.088919,-0.983569
-0.025633,-0.353892,0.806455,-0.532832,-0.407240,0.741785
0.046608,-0.608425,0.822500,0.626489,-0.640570,0.444050
0.623696,-0.030098,0.761121,0.288221,0.905506,-0.311427
0.247640,0.331565,0.157546,0.867126,0.477546,0.141574
0.549859,-0.467436,0.887462,0.981728,0.175679,0.073124
0.295319,0.391205,0.757629,0.405357,0.379178,0.831811
-0.095335,-0.192735,0.838528,0.349330,0.925740,0.144824
-0.126473,-0.389417,0.841875,-0.784933,0.456004,-0.419452
-0.069377,-0.304984,0.835182,0.417950,-0.880951,-0.221908
0.192337,-0.103984,0.766892,-0.259089,-0.569661,-0.779974
-0.802606,0.119526,0.315925,0.185300,0.239371,0.953082
0.776699,0.791723,0.230467,0.980866,-0.092355,0.171384
0.471789,0.471876,0.772626,0.972449,-0.232869,0.010731
-0.036993,-0.249661,0.671231,-0.212568,-0.834109,-0.508995
0.139825,-0.144690,0.796107,0.348611,-0.935279,0.061020
-0.156964,-0.251018,0.569855,0.001677,0.460542,0.887636
0.541290,-0.075244,-0.983990,0.305068,0.460582,0.833545
0.119298,-0.344888,0.802837,0.029029,-0.809675,0.586160
0.550358,-0.067843,0.848984,0.704701,0.564012,-0.430449
0.587873,-0.651228,0.916768,0.926148,-0.279186,0.253586
0.199163,0.301591,0.032670,-0.039059,-0.547801,0.835696
0.473632,-0.154743,0.806219,0.411724,-0.188993,0.891496
0.361034,-0.778155,0.865519,0.603918,0.764893,0.224100
0.079192,-0.575429,0.801950,-0.095002,-0.989808,0.106085
0.364372,0.015789,0.036831,0.154487,0.699105,0.698130
-0.101412,0.113544,0.275819,-0.264484,-0.132847,0.955196
0.190843,0.026582,0.600246,-0.174477,0.875480,0.450658
0.243654,-0.235044,0.429783,-0.729319,-0.664771,-0.161782
-0.230103,-0.448317,0.782956,-0.394355,0.897718,0.196434
-0.495105,0.514802,0.318475,-0.047322,0.085009,-0.995256
0.368109,0.514123,0.185658,0.443689,0.661770,-0.604318
0.019256,-0.384668,0.828542,-0.607069,0.742122,-0.284115
0.127868,-0.724312,0.874401,0.766530,0.625988,-0.143425
0.348031,-0.048477,0.399121,0.708722,0.704981,-0.026723
0.234138,-0.517824,0.760506,-0.001267,0.991994,0.126275
-0.801959,0.744973,0.311239,0.550604,-0.641681,-0.533930
0.468550,0.301837,0.335552,0.875605,-0.340612,-0.342490
0.443440,0.065561,0.772282,0.503121,-0.621155,-0.600862
0.311661,-0.304367,0.872248,0.003317,-0.291747,0.956490
0.423462,-0.172505,-0.181262,0.900056,0.432807,0.050760
0.040480,0.497841,0.599902,-0.526664,0.509248,-0.680655
0.052039,-0.525472,0.669278,0.993897,0.090449,-0.063155
0.248287,-0.265943,0.526873,-0.294621,0.925600,0.237621
0.566300,-0.738498,0.921941,-0.096572,0.218730,0.970995
0.505119,-0.058468,0.836339,0.676855,0.626015,0.387263
0.147498,-0.008696,0.849853,0.488638,-0.299762,-0.819375
-0.558728,0.210127,0.352991,0.357454,0.508634,-0.783274
-0.229455,0.223202,0.832866,0.897384,-0.432310,-0.088377
-0.299106,-0.282719,0.710722,-0.328058,0.897334,0.295245
0.317889,0.200814,0.340780,0.155936,-0.987568,-0.019814
0.269511,-0.050450,0.884187,0.147636,-0.823190,0.548236
0.422764,-0.086037,0.803976,-0.601545,-0.242962,0.760995
-0.027228,-0.336808,0.477234,0.916877,0.316549,-0.243173
0.301497,-0.051931,0.182131,-0.140656,-0.964002,-0.225646
0.435369,-0.050944,-0.442085,-0.836192,-0.546395,-0.047281
0.577212,-0.699519,0.934026,0.753555,0.556333,-0.350213
0.294722,-0.343531,0.866911,0.032740,-0.322266,0.946083
-0.168522,0.153324,0.519420,0.002773,-0.991846,0.127409
0.507860,-0.109967,0.864126,0.104673,-0.797906,0.593624
0.335874,-0.016714,0.344615,-0.597913,-0.777050,-0.196705
0.605112,0.270075,0.777746,0.558587,0.146124,-0.816473
-0.566550,-0.045640,0.355053,0.217398,-0.372403,0.902250
0.354707,-0.124461,0.488703,0.882528,0.462361,0.085831
-0.042075,-0.066610,0.779500,-0.691643,0.381367,-0.613343
-0.595696,0.260577,0.386765,0.359064,0.889100,0.283857
0.486387,-0.289195,0.781382,0.750659,0.580491,0.315503
-0.201704,0.260515,0.420123,-0.112304,0.726555,0.677869
0.464514,-0.316949,0.864307,-0.240762,0.820412,0.518611
-0.842912,0.806648,0.286438,-0.156537,0.137378,0.978071
0.355704,-0.254657,0.875739,-0.368585,-0.748857,0.550779
0.262885,-0.465956,0.882415,0.351199,-0.686425,0.636773
-0.639738,0.066856,0.344977,-0.012101,0.438188,0.898802
0.318885,-0.078636,0.680729,-0.272980,-0.961833,-0.018970
0.283761,-0.329345,0.456520,0.668978,0.672265,0.317061
0.212067,-0.034847,0.819317,-0.163577,-0.565047,0.808681
0.534564,0.251140,0.209573,-0.325470,-0.231581,0.916755
0.127120,0.008819,0.560484,-0.034076,-0.814475,0.579196
-0.046508,-0.091279,0.324047,0.184131,-0.950006,0.252161
0.414842,-0.018996,0.838438,0.892953,0.426768,-0.143191
0.561966,-0.146725,0.670707,0.715076,0.335460,-0.613297
0.745909,0.470272,0.175311,-0.481217,0.637766,-0.601402
-0.713225,0.199334,0.331428,0.522158,0.038044,-0.852000
-0.026779,-0.258912,0.561515,-0.372390,-0.876882,0.303980
-0.121292,-0.178303,0.357170,0.185286,-0.106421,0.976905
0.028573,-0.416739,0.741095,0.849448,0.295458,0.437199
0.656130,0.363883,0.230431,-0.546006,0.637275,0.543837
0.763795,0.607068,0.388032,-0.412618,0.116507,-0.903423
-0.428942,-0.706489,0.572767,0.387104,0.546696,0.742478
-0.261092,0.340076,0.283598,0.169138,-0.419069,0.892061
0.435468,-0.035278,-0.605981,-0.607604,-0.792835,-0.047216
0.321276,0.363327,0.285081,0.690648,0.152031,0.707030
-0.657027,0.304120,0.380542,0.711155,-0.026046,0.702553
-0.335276,-0.316825,0.768628,-0.317257,0.588510,0.743642
0.342201,0.457197,0.718645,0.819405,0.157084,-0.551272
0.489973,0.317195,0.796614,0.177448,0.721395,0.669404
-0.007947,-0.490317,0.783788,0.127104,-0.857323,-0.498841
0.519617,-0.006476,0.675121,0.440904,0.322427,-0.837642
0.791595,0.543789,0.198303,0.236347,-0.959493,0.153339
-0.369753,-0.162144,0.575463,-0.120571,-0.434075,-0.892772
-0.706599,0.543974,0.301109,0.908022,0.310455,-0.281274
0.311263,-0.425743,0.691981,-0.149237,-0.874947,-0.460647
0.440899,0.318182,0.770600,0.382173,-0.127198,-0.915295
0.495354,0.137844,0.728179,-0.474944,-0.879408,0.032720
0.306828,-0.090663,0.800195,-0.215256,0.895859,-0.388719
0.441845,-0.079006,-0.502958,0.975679,0.218851,0.012414
0.285554,0.496485,0.698131,0.928242,0.018422,-0.371521
0.347781,-0.058962,0.914488,0.508753,0.834788,-0.210475
0.141170,0.000617,0.841658,-0.263298,0.958872,-0.106010
-0.746357,0.084186,0.333400,-0.208860,0.336329,0.918292
0.119996,0.783027,0.052497,0.216251,0.944937,0.245622
0.241014,-0.455964,0.538288,0.092683,0.886926,0.452518
0.437112,-0.183360,0.850956,0.975728,0.162834,0.146426
-0.186060,-0.283644,0.583386,0.143735,0.200363,0.969121
0.332287,-0.039040,0.151215,-0.505211,-0.835039,-0.217882
0.609147,0.075059,0.789667,0.864881,0.222248,-0.450096
0.081284,-0.017208,0.776479,-0.449235,0.890928,-0.066592
0.068978,-0.543234,0.770853,0.204017,0.487567,0.848914
-0.116558,-0.150426,0.336963,0.333217,-0.942377,-0.029861
0.289091,-0.478167,0.591527,-0.551108,0.807051,0.212011
-0.003811,-0.140064,0.302972,-0.606246,0.503806,-0.615342
0.579354,0.475638,0.859874,0.378862,0.898182,0.223009
0.595148,-0.013446,0.791150,0.954387,-0.258069,0.150153
0.095434,-0.235105,0.549467,-0.496337,-0.794011,-0.350994
0.131505,-0.139571,0.826969,0.174389,-0.188517,0.966462
-0.142017,-0.559640,0.651423,-0.307928,0.591407,0.745264
-0.068082,-0.119280,0.338754,-0.267529,0.900779,-0.342089
0.179932,-0.543666,0.882433,-0.788114,0.364336,0.496120
-0.133298,-0.561182,0.663272,-0.596864,0.281700,0.751265
-0.283960,-0.263785,0.737803,0.209306,-0.865934,0.454257
-0.037192,-0.113174,0.321840,0.319641,-0.913605,0.251307
0.219839,0.685950,0.097668,0.921461,0.375533,-0.099418
0.355205,-0.145492,0.889777,0.054854,0.107894,0.992648
0.156266,0.392500,0.907469,-0.295677,0.676847,0.674132
0.643873,0.198347,0.135730,-0.897385,0.405867,0.173124
-0.188252,-0.024239,0.310443,-0.279389,-0.624738,-0.729140
0.488130,-0.062477,-0.952876,0.703449,-0.709728,0.038022
0.377625,-0.076724,0.385445,-0.609932,-0.773969,-0.170163
-0.095534,-0.163871,0.859694,-0.058569,0.951338,-0.302531
0.471888,0.607006,0.807106,0.029985,0.984950,0.170218
-0.255810,0.276859,0.234429,-0.398226,0.039145,0.916452
0.294273,0.392993,0.317679,0.880407,-0.026691,0.473467
0.315547,-0.458123,0.882179,0.590116,-0.531957,0.607277
0.807638,0.505365,0.234230,-0.361362,0.899911,-0.244086
-0.046708,0.339521,0.740950,-0.341385,-0.313109,0.886239
0.529582,0.062909,0.831383,0.242717,0.969898,-0.019635
0.232295,-0.222709,0.901337,-0.220299,-0.246562,0.943756
0.420672,-0.149994,0.940104,0.772048,0.523298,0.360695
-0.242459,-0.309918,0.807250,-0.483162,-0.122719,-0.866888
-0.115014,-0.336006,0.802782,-0.718478,0.511857,0.470948
-0.054032,-0.540521,0.639357,-0.115000,0.886843,0.447531
0.012131,-0.231405,0.809747,0.991981,-0.056583,0.113010
0.369554,-0.116258,0.884097,-0.265274,0.237024,0.934585
-0.660514,0.491118,0.307079,0.169991,0.605927,0.777146
0.208978,-0.275688,0.513595,0.139173,-0.988020,0.066692
-0.803802,0.228568,0.323504,-0.297446,-0.393829,0.869727
0.396458,-0.024855,0.824092,0.485909,0.684475,-0.543494
0.026430,-0.041939,0.309865,0.767396,0.116681,0.630467
-0.643774,0.318305,0.374428,0.869648,0.447483,-0.208499
0.462770,0.168496,0.672208,0.833784,-0.520726,-0.183437
0.029171,-0.570063,0.720563,-0.204539,-0.925403,0.319051
0.381611,-0.003208,-0.087122,-0.701794,-0.710165,0.056133
0.360685,-0.069014,0.335661,0.936624,0.349419,0.025346
0.340408,0.289318,0.764666,-0.462674,-0.415352,-0.783208
0.297412,-0.394783,0.364967,0.994099,0.071462,-0.081616
0.494258,-0.158567,-0.985022,-0.164422,-0.335582,0.927550
0.188002,0.728753,0.207366,-0.252843,-0.957479,-0.138938
0.052188,0.011225,0.738942,-0.645830,0.472828,0.599448
-0.274992,-0.316393,0.749471,0.492834,0.798561,0.345565
0.026182,-0.469718,0.741783,0.994593,-0.089132,-0.053284
-0.471689,-0.784816,0.636354,-0.590586,-0.729639,-0.344724
0.144408,0.020476,0.426600,-0.230952,0.941443,-0.245655
-0.725382,0.174540,0.336475,0.234145,-0.466242,-0.853109
0.423710,-0.145800,0.893811,-0.212099,0.452406,0.866223
0.224672,0.013445,0.791024,-0.397243,-0.914481,0.076954
-0.584436,0.471691,0.299987,0.465172,0.884222,0.042018
0.815111,0.501048,0.175437,0.109578,-0.269017,0.956882
-0.079989,0.036512,0.517701,0.833326,0.370874,-0.409902
0.559824,-0.078019,0.019863,0.161775,0.944090,-0.287268
0.504222,0.079376,0.848460,0.886090,-0.041497,-0.461652
-0.173903,-0.595227,0.851879,-0.090357,0.919391,0.382825
0.192187,-0.438572,0.803922,0.886226,-0.120565,0.447288
0.555340,-0.108795,-0.980481,-0.029290,0.218754,0.975340
0.321426,0.008388,0.529677,-0.021303,-0.854956,0.518263
0.332287,0.600962,0.793086,0.307831,-0.931959,-0.191555
-0.611140,0.272480,0.385228,0.316520,0.792172,0.521804
-0.341853,-0.161774,0.584453,0.019689,0.155904,0.987576
0.025384,0.170470,0.256535,0.538279,0.273595,0.797121
0.575269,-0.092883,0.021346,0.161775,0.944090,-0.287268
-0.197818,-0.545578,0.852132,-0.082423,-0.720885,-0.688137
0.384500,-0.056124,0.141754,0.400839,0.911686,0.090317
0.229554,-0.258789,0.902151,0.528412,0.113133,0.841416
-0.688165,0.186197,0.324825,0.512043,-0.103169,-0.852742
-0.009790,-0.278463,0.811538,-0.615132,-0.140104,-0.775876
-0.450216,0.032071,0.334358,0.255346,-0.131754,0.957831
0.443639,-0.140928,0.818738,0.451481,-0.438978,-0.776829
0.139975,-0.687924,0.848478,0.876130,0.209339,0.434249
0.169319,-0.541076,0.588524,0.059898,-0.764958,0.641289
-0.078495,-0.395646,0.753161,-0.051639,0.399415,0.915315
-0.185711,-0.247441,0.845493,0.252094,0.515380,-0.819043
-0.621354,0.067719,0.345972,-0.044314,0.057383,0.997368
0.754328,0.082151,0.087031,-0.359647,-0.073969,0.930152
0.030217,-0.171827,0.940592,0.877167,-0.396704,0.270561
0.482600,-0.674849,0.824255,0.998884,0.019998,0.042778
-0.018758,0.570741,0.759800,-0.370862,0.360477,-0.855872
-0.348828,-0.257308,0.745202,-0.100270,0.992858,-0.064649
0.422564,0.058838,0.767362,-0.772596,0.509117,0.379335
0.640087,0.425250,0.888113,-0.562289,-0.705028,-0.432165
-0.048452,-0.225484,0.662458,0.465403,0.701085,0.540259
0.797225,0.328790,0.360444,-0.199807,0.010207,0.979782
0.199163,-0.634328,0.618861,-0.157642,0.787800,0.595416
0.576813,0.119526,0.148266,0.302816,-0.908298,0.288611
0.258102,0.100962,-0.026556,-0.537520,-0.792925,0.286954
0.581596,0.147588,0.838257,0.039984,0.503751,0.862923
-0.343945,0.324349,0.297328,0.469407,0.294026,-0.832590
0.117306,-0.565746,0.797337,0.953293,0.259204,0.155069
0.210024,0.227211,0.826842,0.738322,-0.419801,0.527871
0.345340,-0.178735,0.911612,0.773334,0.477261,0.417345
0.704606,0.041939,0.074658,0.296561,0.054018,-0.953485
0.467205,0.608178,0.786845,-0.494189,-0.857622,0.142341
0.267320,0.254533,0.910400,0.280235,0.670408,0.687038
-0.167476,-0.320834,0.435283,0.461681,0.282395,-0.840895
0.290436,-0.190514,0.380271,0.925402,0.149953,0.348059
0.410358,0.025101,0.751985,0.944069,-0.072662,-0.321642
0.079142,-0.557728,0.833264,0.952616,-0.289396,-0.093658
0.523852,-0.036327,0.039093,0.170716,0.900701,-0.399493
0.158010,0.555754,0.762405,0.361189,-0.179144,-0.915123
0.246742,0.337301,0.894300,0.786725,0.072677,0.613010
-0.141967,0.021463,0.286221,-0.413101,-0.642600,-0.645300
-0.188700,-0.123535,0.779030,0.889046,-0.312688,-0.334399
0.168821,0.676267,0.089727,0.853112,-0.176548,-0.490949
0.443191,0.597570,0.764630,0.309247,0.940823,0.138630
-0.165334,-0.603738,0.673674,-0.242891,0.417526,0.875601
-0.134046,0.025965,0.660848,0.326009,-0.226829,0.917751
0.925865,0.193290,0.373541,-0.504785,0.786575,-0.355657
0.077547,-0.573332,0.693971,0.906116,-0.420239,0.048514
0.141719,-0.018749,0.767163,0.306905,-0.949707,-0.062183
0.042423,-0.610522,0.800014,-0.225272,0.658922,0.717687
0.236928,-0.411003,0.887643,0.850162,0.366816,0.377719
0.220138,0.664919,0.011994,0.708333,0.705874,0.002527
0.464116,0.049772,0.564518,0.767891,-0.316339,-0.557022
0.015569,-0.440854,0.803687,-0.853708,-0.153379,0.497653
0.079142,0.206673,0.515476,0.116461,-0.791285,0.600254
-0.370351,0.015603,0.538505,0.171821,0.655453,0.735431
0.496599,0.425928,0.764486,0.850918,0.492607,-0.182420
-0.567895,-0.700876,0.615315,-0.065205,0.969962,0.234356
0.246643,0.569076,0.790535,0.528748,-0.738224,-0.418867
0.303191,-0.035093,0.882216,-0.592340,0.771364,0.232660
0.339711,-0.136981,0.616075,-0.127922,0.950896,0.281838
-0.450216,-0.681572,0.607283,-0.582188,-0.752173,-0.308695
0.772015,0.237387,0.590712,-0.199542,-0.549516,0.811305
-0.735197,0.660601,0.286709,-0.130453,-0.396196,0.908851
-0.021797,-0.002837,0.266629,-0.352842,0.422897,-0.834662
-0.156366,-0.502714,0.835326,0.916667,-0.277980,0.287138
-0.130409,0.243617,0.812280,0.739322,0.230449,0.632689
-0.559974,0.171703,0.360462,-0.435116,-0.481868,0.760578
0.057220,-0.441101,0.839125,0.333455,0.816839,0.470725
-0.540991,0.041322,0.345122,-0.172415,-0.043587,0.984059
-0.585034,-0.031146,0.341685,-0.108074,-0.088963,0.990154
-0.595546,0.242013,0.397276,0.151636,0.965940,-0.209682
0.443589,-0.160602,0.467990,0.374297,0.891264,0.256028
-0.058815,-0.250833,0.825521,-0.228233,-0.772098,0.593106
0.435668,0.157271,0.616599,0.920726,0.237791,-0.309385
0.213412,-0.105711,0.867110,0.726520,0.234505,0.645892
0.465760,0.253608,0.675881,-0.713804,0.471453,-0.517896
0.566899,-0.068336,-0.986650,-0.030601,0.431337,0.901672
0.162344,0.108116,0.220463,-0.655319,0.046742,-0.753905
0.192936,0.705810,-0.006910,-0.683439,-0.727605,0.059177
0.272700,-0.020106,0.533078,0.924376,-0.337226,0.178347
-0.040181,-0.205502,0.564138,-0.056744,-0.525494,0.848903
-0.010538,-0.493832,0.828506,0.817926,0.505633,-0.274468
0.239320,0.387504,0.046365,-0.422094,-0.630886,0.651014
0.664649,0.309979,0.150003,-0.554051,0.710459,-0.433906
0.663952,0.269458,0.621448,-0.422196,-0.880761,-0.214499
0.306729,0.241396,0.357948,-0.600789,-0.792723,0.103165
-0.565354,0.294930,0.382930,-0.000020,-0.989583,0.143962
-0.730464,-0.130752,0.322853,0.413339,0.022641,-0.910296
0.557283,-0.031269,0.690588,0.981734,0.115714,-0.151023
0.234188,0.635006,0.111597,0.995248,-0.093114,0.028476
0.461874,-0.541384,0.886141,0.871353,-0.071125,0.485474
0.310365,-0.149007,0.717470,-0.684574,-0.624876,-0.375353
0.424358,-0.065931,0.884549,0.798784,0.389815,0.458245
0.672471,0.460898,0.360408,0.868707,0.488780,0.080267
0.539198,0.074133,0.862624,0.854748,0.492029,-0.165270
0.232244,-0.276552,0.905208,-0.350059,-0.224589,-0.909406
0.569888,-0.080363,-0.982579,0.024124,0.436822,0.899224
0.571930,-0.701801,1.000000,0.783832,0.613636,-0.095172
0.580500,0.332552,0.750990,0.760883,0.648765,0.012697
0.249234,-0.068830,0.596302,0.521615,-0.297767,0.799533
0.488130,0.538238,0.777601,-0.587222,-0.796542,0.143848
0.473083,0.003392,0.422927,0.759383,-0.644054,-0.092367
0.138529,-0.357901,0.753903,-0.507794,0.831069,-0.226868
-0.385447,-0.880597,0.677997,0.784782,-0.040588,-0.618442
0.127718,0.067904,0.883536,0.995636,0.041333,0.083672
0.393867,-0.082213,0.924981,0.212270,0.976842,-0.026845
0.272053,-0.759961,0.912589,-0.176326,0.933399,0.312530
-0.997758,0.049710,0.333780,0.030610,0.047848,0.998385
0.261092,-0.679968,0.842038,-0.110917,0.481926,0.869163
-0.241363,0.190267,0.557210,0.057320,0.991915,-0.113217
-0.408565,0.246145,0.293222,0.331876,0.426394,-0.841455
-0.843410,0.704515,0.301652,-0.511477,0.739210,0.438131
0.051889,0.041383,0.721522,0.176852,0.961379,0.210888
0.028324,-0.438942,0.820022,0.816068,-0.484195,0.315576
-0.018310,-0.271001,0.678377,0.493759,0.504363,0.708392
0.483945,-0.206673,0.781436,0.967058,-0.192525,-0.166530
0.577859,0.214444,0.829917,0.072340,0.449705,0.890243
0.280771,-0.479894,0.861991,0.921550,-0.386969,0.031642
-0.897616,0.184902,0.322998,-0.208128,0.022898,0.977834
0.158957,-0.234304,0.872610,0.451075,0.721893,0.524787
0.060210,-0.725361,0.836158,0.944414,0.300903,0.132438
0.582542,0.312323,0.087918,0.844516,-0.065239,-0.531542
0.527639,-0.758542,0.908302,-0.595194,0.802509,-0.041504
-0.270607,0.011225,0.549702,0.307530,0.459076,0.833471
0.459482,-0.108301,0.918794,-0.498752,-0.777769,0.382522
0.168423,-0.063464,0.633984,-0.561790,0.665988,-0.490766
0.461127,-0.058468,0.864596,0.697866,0.525880,-0.486244
0.234636,-0.128839,0.794515,-0.188196,-0.973615,-0.129055
0.403183,-0.056803,0.813528,0.293518,-0.435567,0.850957
0.415191,-0.240595,0.790608,-0.006464,0.833217,-0.552908
-0.177042,0.311274,0.816097,-0.437762,-0.683704,-0.583878
0.313753,-0.310411,0.626585,0.861250,-0.018293,0.507852
0.009491,-0.580548,0.871344,0.908428,-0.407433,0.093578
-0.680044,0.692550,0.293728,0.255175,-0.378375,0.889785
0.366365,-0.057975,0.354511,0.457397,0.889086,0.017723
-0.469247,-0.665043,0.589229,0.166227,0.968640,0.184675
-0.119199,-0.385655,0.757177,-0.344249,-0.442159,-0.828244
-0.256109,-0.214629,0.838203,0.866966,0.440921,0.232291
0.434222,-0.076231,-0.363393,0.924165,-0.340721,-0.172710
-0.802905,0.158998,0.318512,-0.132285,-0.278701,0.951224
0.591560,-0.647034,0.903815,0.910558,0.324230,-0.256434
0.227561,-0.409770,0.901283,0.784731,0.204896,0.584992
0.408913,-0.026212,0.806545,0.317333,0.920010,-0.229960
-0.101264,0.042000,0.704011,0.525189,0.850955,0.007176
0.575468,0.437153,0.597876,-0.569422,-0.752176,-0.331647
0.595347,0.324904,0.371262,0.735901,0.348373,-0.580591
0.292230,0.304736,0.755893,0.325327,0.317935,0.890550
0.214259,0.677624,0.146312,0.444798,0.883006,0.149850
0.338066,0.407425,0.712115,-0.726493,0.312595,0.611957
0.302693,-0.753423,0.932795,-0.487524,0.848865,-0.204326
0.206736,0.667571,0.219396,0.850367,0.478649,0.218565
0.350920,0.092327,0.845185,0.105151,0.810831,-0.575757
0.523055,-0.418713,0.825033,0.986533,0.163189,-0.011018
0.372245,-0.266252,0.871344,0.477889,0.363783,-0.799552
0.339212,-0.399161,0.847537,-0.817795,-0.350794,0.456240
0.786464,0.749907,0.190995,0.841335,0.117911,0.527496
0.363526,-0.051191,0.428879,0.967354,-0.207209,0.145916
-0.554842,0.578944,0.291358,0.140661,0.098037,0.985192
-0.134245,-0.185827,0.852295,0.304196,-0.949361,-0.078600
0.158159,0.385284,0.784457,0.328226,0.636067,0.698346
-0.105946,-0.398360,0.445612,0.502826,0.528666,-0.683870
0.257853,-0.500987,0.733190,-0.077702,-0.874120,-0.479455
0.390329,-0.250463,0.942293,-0.394735,-0.829190,-0.395763
0.267568,0.056063,0.018886,-0.018482,0.927358,0.373719
0.199163,0.376218,0.839939,0.795726,-0.570381,0.203680
-0.151035,-0.296164,0.737007,0.006388,-0.984036,0.177857
0.560720,0.115394,0.883120,0.451591,0.886269,0.102919
0.261640,0.050573,0.004432,-0.600759,-0.659419,-0.451946
0.542784,0.506723,0.841947,0.811077,0.582899,-0.048823
0.318586,-0.195695,0.704933,0.867585,0.488263,-0.094310
0.003363,-0.182250,0.810091,0.817386,0.027869,0.575416
0.625339,0.018441,0.795763,0.295057,-0.776393,0.556916
0.398650,-0.027446,-0.338754,0.971850,0.215674,0.094830
0.432329,-0.017393,-0.498544,0.976990,0.212902,-0.012784
0.524002,-0.176761,-0.988893,-0.204777,-0.070594,0.976260
-0.620756,0.469224,0.313012,0.386493,0.445558,0.807528
0.381113,-0.439497,0.851951,0.283007,0.957982,-0.046665
0.525048,-0.247811,0.870566,0.001911,-0.994634,0.103438
0.447525,-0.199396,-0.166284,0.885010,0.465104,-0.020883
0.258152,-0.020846,0.853326,0.980474,0.195967,0.016331
0.443340,0.496608,0.735107,-0.107010,0.282236,0.953358
0.148295,0.505489,0.085620,-0.189824,-0.495753,0.847464
0.264430,-0.044530,0.191266,0.506010,0.553378,0.661609
-0.151434,0.225114,0.446462,0.337383,0.940781,0.033213
0.272650,-0.342790,0.863131,0.113399,0.748850,0.652965
0.180530,-0.471692,0.848007,-0.698907,0.279137,0.658492
-0.375234,-0.761009,0.680168,0.818878,-0.005473,-0.573942
0.080985,0.200259,0.939995,-0.384244,0.423781,-0.820223
0.388337,-0.029913,0.058575,0.632139,0.774311,0.029031
0.415988,-0.083200,-0.232620,0.993740,0.008793,0.111372
0.191192,-0.029974,0.899980,-0.174514,0.033153,-0.984096
0.526244,-0.176761,0.794678,-0.091303,0.522819,0.847540
0.542187,-0.311213,0.774960,0.890613,0.414688,0.186662
0.060310,-0.196374,0.809367,-0.640437,0.614757,0.460342
0.567995,0.069939,0.701062,0.276431,0.519406,0.808581
0.395909,-0.237326,0.885761,-0.673874,-0.552537,0.490507
0.797573,0.205933,0.589247,0.204816,-0.569288,0.796217
0.520265,-0.116751,0.832703,-0.379553,-0.736673,-0.559690
0.474478,0.540705,0.796704,0.913057,0.377826,-0.153540
0.341006,-0.080610,0.511532,0.900705,0.284603,-0.328224
-0.942406,0.128222,0.313175,0.180025,-0.077998,0.980565
0.303988,-0.456766,0.737477,-0.834292,0.257056,-0.487728
0.451212,-0.194277,0.885544,-0.208939,-0.284926,-0.935501
0.460628,0.252004,0.186255,-0.334605,-0.087582,0.938280
-0.068530,0.013753,0.745111,-0.101562,0.984509,0.142921
0.328600,0.019797,0.911775,0.775779,-0.595462,0.208787
0.598934,-0.076292,0.818647,0.610734,0.044190,-0.790602
0.163540,0.122117,0.901500,-0.487560,0.869155,-0.082791
0.927460,0.423337,0.369598,-0.124715,0.038984,0.991427
0.335376,-0.080301,0.478482,0.994079,0.049293,-0.096835
0.362180,-0.004749,0.528230,0.630729,0.145702,-0.762202
-0.096181,0.017022,0.278750,0.434223,0.272580,0.858575
0.244252,0.018626,0.191393,0.753068,0.207358,0.624413
-0.428743,0.530467,0.307440,0.508720,0.607427,-0.610112
0.470443,-0.198347,0.627671,-0.789378,-0.588800,-0.173771
0.364074,-0.083694,0.349301,0.685667,0.726522,-0.045011
-0.363177,-0.337178,0.755368,-0.594871,0.606171,0.527906
0.578357,0.366103,0.904665,-0.028470,0.971105,0.236950
0.241163,-0.411126,0.846958,-0.161956,-0.238940,0.957433
0.652243,0.424016,0.865681,-0.405778,0.729691,0.550360
0.866726,0.158196,0.363719,-0.467001,-0.448655,-0.761983
0.293874,-0.483657,0.842454,0.586863,-0.794440,0.156387
-0.109135,0.027137,0.703341,0.193554,0.975026,-0.108907
-0.018310,0.224066,0.281318,0.316576,0.849565,0.421923
0.246494,0.078574,0.024349,0.956731,-0.062693,-0.284141
0.332487,0.431047,0.702129,0.779580,-0.090538,-0.619724
0.317938,-0.053411,0.197055,-0.123076,0.958507,0.257131
-0.349376,-0.220674,0.600300,-0.010961,-0.288604,0.957386
0.112224,-0.527877,0.796469,0.896498,-0.098574,0.431944
0.469746,0.313001,0.321750,0.931720,-0.344963,-0.113573
0.389682,-0.086469,0.085439,0.896955,0.397454,0.193656
0.114565,0.311398,0.898913,0.921853,-0.325224,-0.210752
0.658372,0.535956,0.556884,-0.569476,0.797246,0.200241
-0.188452,0.136055,0.837624,0.995082,0.029627,-0.094517
-0.548465,0.420501,0.309087,0.343919,0.450571,0.823836
0.595845,0.239731,0.831509,-0.294499,-0.476251,-0.828526
-0.086715,0.232268,0.490530,-0.106760,-0.991260,-0.077501
-0.395013,-0.424202,0.596954,-0.019245,0.091956,0.995577
-0.073114,-0.400765,0.452722,0.509743,0.669834,-0.539893
0.172458,0.697730,0.155538,-0.456081,-0.887673,0.063450
0.026032,-0.127914,0.854049,-0.196199,-0.446183,0.873171
0.113619,-0.044530,0.881384,-0.313685,-0.010319,0.949471
0.218942,0.390773,0.882722,-0.546465,0.327248,-0.770899
0.557083,0.033860,0.830822,0.801574,-0.564211,0.197853
0.027825,-0.518133,0.832052,-0.168982,-0.607751,0.775940
0.450315,-0.305909,0.609038,0.860431,-0.455841,-0.227746
0.466408,-0.308993,0.618806,0.899294,-0.424759,0.104162
0.071718,-0.521833,0.860471,-0.548119,0.116827,0.828201
0.637247,0.361416,0.860037,0.912072,-0.207573,0.353608
0.159455,0.042556,0.220916,-0.712201,0.000067,-0.701975
-0.082132,-0.314050,0.800648,0.006223,-0.143566,0.989621
0.482002,0.018194,0.880280,-0.341891,0.207369,0.916574
0.320629,0.249475,0.925885,0.324525,-0.675240,-0.662370
0.513888,-0.779327,0.931909,0.165680,0.821035,0.546308
0.246742,0.011903,0.195354,0.715199,0.207887,0.667288
-0.053484,-0.077587,0.804392,-0.317804,-0.637237,0.702089
0.455048,-0.034970,-0.652762,0.427064,0.903918,0.023411
-0.409412,-0.847786,0.587963,0.200258,0.305479,0.930902
0.645766,0.226533,0.265055,-0.731779,0.654585,0.189785
0.958847,0.215246,0.374790,-0.805117,0.585162,0.096816
0.458934,-0.043358,-0.997431,0.224298,-0.476523,-0.850068
0.307775,-0.016652,0.521898,0.546453,-0.575343,0.608580
0.228259,-0.327125,0.912408,-0.398244,0.244229,-0.884168
0.583389,-0.051191,0.825485,-0.077947,-0.406228,0.910441
0.052985,-0.468546,0.777764,-0.213104,0.976934,0.013630
0.505070,-0.045578,0.955082,-0.512487,0.346192,-0.785817
0.274892,-0.017639,0.562763,-0.305609,-0.948533,-0.082998
0.321077,-0.205872,0.908374,0.335862,-0.933542,0.125288
0.053284,-0.008696,0.450732,0.443635,0.132115,0.886416
0.404927,0.038115,0.743501,0.993828,-0.050268,-0.098885
0.551304,0.037622,0.848840,0.517558,-0.827733,0.216776
-0.629076,0.298446,0.381212,0.719312,0.663415,-0.206086
-0.110281,-0.063156,0.494455,0.997791,-0.062089,-0.023627
0.573923,0.057234,0.864777,-0.170503,-0.795033,0.582110
0.057868,-0.543666,0.778415,0.911419,0.216994,0.349614
0.271753,-0.006846,0.890356,0.035547,-0.681537,0.730920
-0.230950,-0.300605,0.822573,0.120347,-0.987981,0.097003
0.530678,-0.540397,0.934261,-0.522112,-0.301937,-0.797642
-0.100017,-0.560565,0.845945,-0.612382,0.790471,-0.011965
-0.680841,0.284075,0.275566,0.047973,0.622119,0.781451
0.369006,-0.043111,0.106297,-0.763340,-0.645957,0.007242
0.064793,-0.595412,0.774055,0.549766,0.117375,0.827031
0.375582,-0.116443,0.584888,-0.203515,-0.978145,-0.042593
0.503326,0.085913,0.893142,-0.630665,0.760876,0.152742
0.228508,-0.029974,0.554189,0.185019,0.958234,-0.218073
0.453155,0.209757,0.331410,-0.542642,0.641352,0.542408
-0.822934,0.223942,0.319000,-0.595384,0.728136,0.339612
-0.182074,-0.233009,0.800376,0.830714,-0.547259,0.102087
0.496052,0.515110,0.700374,0.693206,-0.716676,-0.076422
-0.178586,-0.655668,0.644910,-0.210454,-0.963117,0.167673
0.351917,-0.192550,0.878073,0.211076,-0.108707,0.971406
0.655283,0.527383,0.600590,0.340478,-0.854869,-0.391503
0.137633,0.129888,0.236075,-0.684674,0.010815,-0.728769
0.459681,0.209695,0.305993,-0.678101,0.733209,-0.050838
-0.174153,-0.286173,0.832703,0.575561,0.766435,-0.285142
0.695489,0.536326,0.327611,0.128362,-0.564984,0.815056
-0.068879,-0.417356,0.349572,0.256760,0.545627,0.797725
0.072416,0.213457,0.809204,0.492574,0.347068,0.798069
0.485938,-0.644505,0.871018,0.722520,-0.623290,0.299121
-0.005755,-0.253855,0.550933,0.088117,-0.675993,0.731621
0.351519,-0.734304,0.856293,0.549152,0.823549,0.142127
0.549361,-0.237696,0.800666,0.184858,0.285431,0.940402
-0.102310,0.028925,0.656904,0.731824,-0.060357,0.678816
-0.103256,-0.037869,0.803831,0.743858,-0.399577,0.535736
0.204693,-0.191070,0.882324,0.498219,-0.773241,-0.392270
0.026032,0.131430,0.940592,-0.328474,-0.285148,-0.900442
0.044965,-0.654928,0.647262,0.082921,-0.970074,0.228210
-0.145555,-0.391020,0.864542,0.918570,-0.377694,0.116515
-0.224722,-0.297213,0.769659,-0.594845,0.801015,0.067338
0.357347,-0.429691,0.829556,-0.210535,0.821211,-0.530365
0.570485,-0.676946,0.926373,0.927837,0.091405,0.361613
-0.591511,-0.090108,0.339568,0.301842,0.118389,-0.945979
0.263782,-0.240965,0.529785,-0.557873,0.802032,-0.213361
