0.289566,-0.040470,0.730023,0.920256,0.381004,0.089247
0.137782,0.357002,-0.164771,-0.547444,0.281962,-0.787910
-0.013055,-0.376959,0.215438,0.067261,-0.382738,0.921405
-0.015278,-0.030307,0.709375,0.802032,0.566383,-0.189620
-0.202110,-0.086163,-0.991525,-0.023768,0.193580,0.980797
-0.139532,-0.137123,-0.092101,-0.224363,0.974309,-0.019586
-0.082348,0.127284,-0.422282,-0.178672,-0.048418,0.982717
-0.211049,0.096605,-0.159847,0.792027,0.389420,0.470155
0.094930,0.213027,-0.376978,-0.780485,0.459770,0.423622
-0.613471,-0.094182,-0.160853,-0.048489,0.681738,0.729988
-0.057327,-0.124908,0.219703,-0.290192,-0.089851,0.952741
-0.741604,-0.103133,0.681185,-0.522958,0.520817,-0.674733
0.145729,0.167101,0.426090,0.811244,-0.431861,-0.394183
0.336155,-0.090312,0.704854,0.236330,-0.507622,0.828534
0.405685,-0.777463,0.374123,-0.292425,0.397364,0.869822
0.297276,0.216011,-0.084651,-0.264630,0.376602,0.887774
-0.013196,-0.023546,0.560429,-0.340581,0.936795,0.080118
0.079558,-0.271307,0.666853,0.321058,-0.230538,-0.918572
-0.272301,0.000932,-0.454096,-0.648582,-0.739856,0.178759
-0.131444,-0.140573,0.611810,-0.892932,0.398142,-0.210133
0.149655,-0.601688,0.324022,0.156633,0.459274,0.874376
0.001466,-0.175867,-0.981549,-0.114247,0.205622,0.971940
0.045029,0.104112,-0.363341,0.780149,-0.496201,-0.380989
-0.158642,0.231769,0.456165,0.663965,-0.193202,0.722373
-0.379528,-0.265387,0.552649,-0.705255,0.021747,-0.708620
0.695251,-0.473984,0.294442,-0.203422,0.018274,0.978921
-0.631634,-0.382647,0.572638,0.550975,-0.507560,0.662428
0.143034,0.131713,0.038614,0.761142,-0.540834,-0.357996
0.270315,0.373460,0.570240,-0.478558,0.499212,-0.722336
-0.556807,0.097584,0.326457,0.193696,0.055653,0.979482
-0.024548,-0.191160,-0.981640,-0.105754,0.290656,0.950965
0.212516,-0.039398,0.526583,-0.182304,-0.673771,0.716099
-0.450903,0.053851,0.630499,-0.660763,-0.069709,-0.747351
-0.260335,0.000373,0.267552,-0.635703,-0.676883,-0.371093
-0.163229,0.352992,0.218935,0.019511,0.132848,0.990944
-0.145729,0.045738,0.916420,0.751855,0.641719,-0.151364
0.000142,-0.092597,-0.986400,-0.077914,0.294462,0.952482
0.160628,0.446847,-0.115531,0.154914,0.084109,0.984341
0.619194,0.114790,0.164258,-0.249844,-0.116396,0.961265
-0.805506,-0.107004,0.685029,0.702305,0.088854,0.706309
-0.383218,-0.213588,0.760683,-0.236539,-0.963916,-0.122131
0.137121,0.527928,0.715415,0.903169,-0.109449,-0.415098
-0.215921,0.128403,0.906829,0.718083,0.691844,0.075550
0.400672,-0.370525,0.763813,-0.015494,0.931140,0.364332
0.570476,-0.440882,-0.262994,-0.057392,0.136498,0.988976
0.017454,0.673629,0.362334,0.071375,-0.763559,0.641781
-0.346277,0.093202,0.884661,0.843839,-0.175886,-0.506951
-0.383644,-0.516646,-0.123933,-0.565272,0.822625,-0.061284
-0.268329,0.057021,0.860353,-0.512655,0.838024,-0.186817
0.250118,-0.820684,0.358637,0.112900,-0.413618,-0.903423
0.319176,0.111851,0.593670,0.183906,-0.214739,0.959201
-0.573976,-0.219228,0.580509,0.713849,-0.269010,0.646570
-0.096821,-0.447269,-0.966429,0.195527,-0.008558,-0.980661
0.615835,-0.252472,0.312399,-0.398075,-0.311107,0.862988
-0.389745,-0.430577,0.286388,-0.208284,0.403582,0.890921
0.524407,-0.198807,0.728265,-0.700742,0.239322,0.672076
-0.247517,-0.006948,-0.073723,0.749376,0.415648,0.515434
0.280579,0.033289,0.688160,0.836924,0.440813,-0.324410
-0.290748,0.152742,-0.469857,-0.122025,-0.557173,0.821382
0.308390,0.501118,0.418036,0.979098,-0.178497,0.097502
0.439504,-0.546438,0.476391,-0.620618,0.086634,0.779312
-0.046495,-0.192047,-0.444907,0.982662,-0.178211,0.051155
-0.666541,0.148405,0.384684,-0.022431,0.680543,0.732364
0.105715,0.896541,-0.315126,-0.188982,-0.111300,0.975653
0.219989,-0.224824,0.829656,-0.482841,0.720628,0.497554
0.382698,-0.064295,0.688398,-0.758260,0.643372,-0.105422
0.181157,-0.613671,0.332644,0.152395,0.368126,0.917202
-0.368318,0.364556,0.345329,0.181302,-0.399144,0.898785
0.452512,0.509091,0.595391,0.490611,0.418560,-0.764269
-0.066266,0.519395,-0.374159,0.465211,-0.011528,-0.885125
0.388563,0.687616,0.099294,-0.755701,0.197304,0.624489
-0.153012,0.050913,-0.474305,0.232133,0.497936,-0.835568
-0.359900,-0.602480,0.335664,-0.394769,0.385955,0.833784
-0.065319,-0.568492,-0.969047,0.135550,0.070890,-0.988231
0.215069,-0.313736,0.789898,0.554140,0.628146,0.546225
-0.561726,0.027973,0.339288,0.052988,-0.076854,0.995633
-0.356352,-0.223657,-0.063563,0.815486,-0.576155,-0.055029
0.308816,0.421438,0.644667,0.873239,-0.123277,-0.471441
-0.204853,0.126491,0.310495,-0.530717,0.210953,0.820877
0.213698,-0.214473,0.907048,0.261634,-0.320484,0.910405
-0.740563,-0.093435,0.331527,0.217319,-0.829027,-0.515255
-0.309857,-0.346933,-0.977412,-0.014230,0.176600,0.984180
0.275376,0.201044,-0.088732,-0.265151,0.408597,0.873352
-0.004115,-0.101223,0.373043,-0.614739,-0.750938,-0.241222
-0.440071,-0.463121,0.519353,-0.652237,0.675311,0.344299
-0.384258,0.418966,0.600553,0.530345,-0.193415,0.825424
0.237206,0.400690,0.396180,0.469905,-0.475234,-0.743870
0.051888,-0.159503,-0.983690,-0.086111,0.138977,0.986545
0.151406,-0.100383,0.795828,0.212292,0.797910,0.564155
-0.555955,0.106582,0.320490,0.398563,0.380103,0.834667
0.035144,0.193817,0.403465,0.353523,-0.060234,0.933485
0.167014,-0.364464,0.056296,-0.496919,-0.227524,0.837439
0.228456,-0.354020,-0.309745,0.072350,0.332063,0.940478
-0.249125,-0.374535,-0.305278,-0.332120,0.608138,0.721016
-0.158453,0.591523,0.682137,0.000508,-0.749298,0.662233
0.100606,0.609568,-0.101985,-0.102597,0.500939,0.859380
-0.306215,0.487038,0.668793,0.530882,0.786589,0.315344
-0.318466,-0.360687,-0.404142,-0.184867,-0.318634,-0.929676
-0.024643,0.051286,0.829527,0.929373,-0.168167,0.328612
-0.041434,0.343202,0.593213,0.133214,-0.856701,0.498314
-0.314350,0.191719,0.555358,0.818723,0.093630,0.566503
0.001230,-0.211815,-0.740932,0.973557,-0.151488,0.170989
-0.277788,-0.284317,-0.984148,0.006962,0.220123,0.975447
0.125768,-0.453050,-0.103596,-0.397516,-0.224152,0.889796
-0.095118,-0.134932,-0.988084,-0.013826,0.112460,0.993560
0.015562,-0.571710,-0.219575,0.479009,-0.369927,0.796055
-0.102024,-0.448481,-0.965788,-0.249538,0.005679,0.968348
-0.150506,0.007925,0.628742,0.547974,0.690493,0.472170
-0.086557,-0.151810,0.213992,0.751566,0.230750,-0.617982
0.043327,0.453048,0.558909,0.537601,-0.022801,-0.842891
0.056145,0.479485,0.403648,-0.772841,-0.065864,0.631173
0.424984,-0.229440,-0.283752,0.252035,0.183642,-0.950134
-0.165595,0.373088,0.436908,0.844499,-0.206009,0.494350
-0.243213,-0.159317,0.728046,-0.669326,0.742821,0.014856
0.184892,0.286320,0.603061,0.922423,-0.104953,-0.371646
0.495507,0.309585,0.615673,0.818465,-0.256637,-0.514055
-0.160769,0.308373,0.854696,-0.555940,0.732983,-0.392004
-0.065604,-0.184167,0.212473,0.722887,-0.065930,-0.687814
0.057753,0.378590,0.765406,-0.325550,0.190042,0.926230
0.343298,0.451090,0.694804,0.914318,0.066936,-0.399428
-0.192980,-0.261843,-0.986253,-0.179409,0.218312,0.959246
0.089727,0.643650,0.214578,0.364255,-0.116338,0.924004
-0.464620,-0.290190,0.198415,0.892082,0.447784,0.060657
0.052597,0.184493,-0.132517,0.484840,-0.267134,0.832808
0.327879,0.462886,0.091057,-0.420101,0.130525,0.898041
0.210860,-0.531938,-0.093419,0.379638,-0.255663,-0.889107
-0.604578,-0.380549,0.463468,0.609534,0.670050,-0.423677
0.106045,0.115814,0.384794,0.049159,-0.546493,0.836019
-0.072462,0.588539,0.680197,0.165768,-0.697155,0.697492
0.035238,-0.329868,0.267588,-0.484726,0.263817,0.833931
-0.039116,-0.214659,0.191770,-0.207425,-0.686745,0.696675
0.106755,0.873741,0.243756,-0.235848,-0.447537,0.862604
-0.018211,0.005781,0.925115,-0.075941,0.931583,-0.355509
-0.834972,-0.351642,0.660172,0.805187,-0.338743,0.486751
-0.619005,-0.292709,0.590650,-0.652603,0.230791,-0.721696
-0.205657,-0.369405,-0.134366,-0.123357,-0.013640,0.992269
0.040157,-0.268090,0.237386,0.352042,0.930444,0.101685
0.202866,0.293920,0.555029,-0.169136,-0.661287,0.730817
0.287911,0.281285,0.078134,-0.707571,0.408427,0.576655
-0.030129,-0.225383,-0.979572,-0.162336,0.373469,0.913328
0.015940,-0.098192,0.707746,0.241529,0.824992,0.510933
-0.405401,-0.208132,0.764198,-0.236539,-0.963916,-0.122131
0.262227,-0.147286,0.220930,-0.479581,0.314738,0.819110
0.038880,0.116328,0.990884,0.080238,0.187938,0.978898
-0.163703,-0.128544,0.624697,0.846920,-0.485943,0.215841
-0.050185,-0.255129,0.234878,0.426879,0.155334,-0.890868
0.089585,0.328655,-0.137570,0.682162,-0.169484,-0.711288
-0.315250,-0.222959,-0.986692,-0.111361,-0.275458,-0.954841
0.189197,-0.110547,0.867437,0.264238,-0.922412,0.281662
-0.047962,0.340124,0.423747,0.067493,-0.082658,0.994290
0.551746,-0.372950,0.253055,0.610343,0.770145,-0.185358
-0.704853,-0.195170,0.634655,0.648137,-0.238953,0.723063
-0.451565,0.414304,-0.372274,0.341159,-0.195520,0.919447
-0.273957,0.611945,0.462809,0.964992,-0.053588,0.256747
-0.034953,0.136515,0.494110,-0.361195,-0.557186,0.747718
-0.370541,0.256061,-0.714592,-0.088349,-0.451351,0.887962
0.093558,-0.804785,-0.029700,0.244837,-0.496678,-0.832686
0.057847,-0.341944,-0.089922,0.621206,0.351192,-0.700548
-0.354744,0.046717,-0.104584,-0.706665,-0.695379,-0.130661
-0.152871,-0.173164,-0.984935,-0.018805,0.007625,0.999794
0.223915,0.142949,-0.305919,-0.168341,0.545241,0.821203
0.557469,0.319470,0.178884,-0.339899,0.189667,0.921138
0.158500,0.042428,0.899214,0.070580,-0.992832,0.096454
-0.067401,0.651902,0.372146,0.775367,0.384576,-0.500906
0.173210,-0.197828,0.742232,0.872402,0.054016,-0.485795
-0.122883,0.260350,0.659549,0.258046,-0.938354,-0.230010
0.301059,0.001724,0.117068,0.342894,0.224673,-0.912110
-0.228880,-0.556789,0.229039,-0.402987,0.170442,0.899195
-0.217340,-0.736013,0.456567,-0.021842,0.156980,0.987360
-0.214170,0.110966,0.846148,0.519373,-0.827825,0.212032
-0.417983,-0.311452,-0.406229,0.342022,0.556807,0.756959
-0.117538,-0.141925,0.880067,-0.188371,0.939684,-0.285500
-0.293869,-0.268510,0.728210,0.883403,-0.416733,0.214319
0.343298,0.499253,0.491017,0.826844,0.012452,-0.562294
-0.510642,0.367773,0.602768,0.475415,0.460182,0.749809
-0.235929,0.328468,-0.185602,-0.778210,-0.197779,0.596047
0.412638,0.524524,0.576189,0.042283,0.868351,0.494145
0.205374,0.285994,0.802363,-0.177721,-0.716504,0.674565
-0.547016,0.161787,0.047016,0.315303,0.134995,0.939340
-0.487655,-0.520609,-0.106232,-0.653868,0.733852,-0.184171
0.552739,-0.128217,0.454810,-0.147815,0.192017,0.970196
-0.454356,-0.167569,0.415876,0.287163,0.284828,-0.914555
-0.521899,0.144069,0.643697,-0.606403,-0.129601,-0.784525
-0.079273,-0.222258,-0.610968,-0.479187,0.863084,0.159577
0.067780,0.042195,0.662954,0.154085,-0.962303,-0.224120
-0.045455,-0.232143,-0.572217,-0.784378,0.619793,-0.024646
-0.015088,-0.093015,-0.990006,-0.071592,0.272546,0.959476
0.009128,-0.024059,0.670569,-0.588171,0.602103,0.539933
-0.458234,0.410294,0.589588,-0.357275,0.398826,-0.844566
0.653297,-0.245431,0.307749,-0.064550,0.191980,0.979274
0.117350,-0.767392,-0.061879,-0.055921,0.545631,0.836157
0.100085,0.448199,0.705384,0.944436,-0.076819,-0.319593
-0.195014,0.024617,-0.995973,0.001607,0.106157,0.994348
-0.234745,0.588072,0.500535,0.942080,0.285080,-0.176676
-0.782093,-0.172603,0.665498,0.787735,-0.085662,0.610030
-0.169567,0.084204,0.684041,0.963132,0.146216,0.225827
-0.523413,0.224497,0.363268,0.133293,0.647013,0.750738
-0.121842,-0.084717,-0.986345,0.098195,0.158067,0.982534
0.018730,-0.133113,0.921729,0.299944,-0.953956,0.001113
-0.490588,0.116887,0.047034,0.588199,0.659728,0.467741
-0.211096,0.471886,0.450545,0.891592,0.324505,-0.315849
0.792073,0.138428,0.183149,-0.249172,-0.050470,0.967143
-0.403699,-0.629337,0.500572,0.644702,-0.713423,0.274568
0.335729,0.243986,-0.716788,0.363859,0.151956,-0.918976
-0.363305,-0.306976,-0.982482,-0.067520,0.129692,0.989253
0.058415,0.059958,-0.312783,-0.753907,0.493000,0.434253
-0.042758,0.306089,0.543332,0.769080,-0.436958,0.466458
0.197475,-0.346839,0.414283,0.536215,0.025074,-0.843709
0.007520,0.141411,0.505404,-0.443772,-0.655625,0.610919
-0.222731,0.062430,0.774851,0.819648,-0.521135,0.237900
0.413585,-0.118426,0.244982,0.377578,-0.219859,-0.899498
-0.073219,0.648452,0.673424,-0.387850,0.337613,0.857666
-0.033441,0.332012,0.678605,-0.204675,0.339543,0.918051
-0.347413,-0.176427,-0.994838,-0.186758,0.091503,-0.978135
-0.614748,0.070962,0.400683,0.138022,0.516187,0.845282
-0.297228,-0.650504,0.521403,0.290825,0.644179,0.707428
-0.690995,-0.357376,0.598741,-0.578144,0.531708,-0.618899
-0.747138,0.229858,0.363396,-0.046931,0.899203,0.435007
-0.013102,0.306602,0.799068,0.754690,-0.471573,0.456138
0.651546,-0.229626,0.310587,0.331132,0.854424,0.400389
-0.193927,-0.158803,0.157613,0.882774,0.408772,-0.231552
-0.013244,-0.218062,-0.977430,-0.074581,0.374186,0.924350
-0.332939,0.515246,0.306138,-0.611140,0.193620,-0.767476
-0.022893,-0.026623,-0.143317,0.831014,-0.544536,-0.113564
-0.523838,0.088492,0.088129,-0.335849,-0.599317,-0.726653
-0.768234,0.125699,0.389920,0.103355,0.610035,0.785605
0.024454,-0.665983,-0.094883,0.443086,-0.446193,-0.777552
0.116971,0.709296,0.382341,0.330595,0.933341,-0.139935
-0.170135,-0.443632,0.448843,0.944056,0.323900,-0.062030
-0.292120,-0.167336,-0.989383,-0.108247,0.011556,0.994057
-0.581449,0.505408,0.662661,-0.672423,0.194454,-0.714167
0.645493,0.160155,0.707764,-0.239491,-0.281858,-0.929085
-0.451802,-0.494405,0.555468,-0.475933,0.879462,-0.005855
-0.269085,0.714659,0.335829,-0.105243,0.325294,-0.939738
0.464620,-0.383859,0.483256,0.689863,-0.052064,-0.722065
-0.141566,0.462421,0.213571,0.139519,-0.009274,0.990176
-0.254990,0.005314,0.218935,-0.433991,0.725908,-0.533581
-0.027387,0.053991,0.960736,-0.046366,0.985920,-0.160660
-0.519865,0.594134,0.398358,-0.371933,0.446778,-0.813668
-0.029988,-0.076604,0.904888,0.923625,0.104435,0.368795
-0.174297,0.750652,-0.127795,0.257754,0.371295,-0.892022
-0.098051,0.211348,0.821071,-0.688585,0.462537,-0.558489
0.354886,-0.348051,0.452705,-0.507781,-0.415855,0.754469
-0.174061,0.434632,0.466013,0.910801,0.110715,0.397724
-0.333411,-0.139081,-0.991067,0.039376,0.153182,0.987413
-0.344953,-0.372436,0.583529,-0.453852,-0.121978,0.882689
-0.094646,-0.108355,-0.987901,0.041401,0.053578,0.997705
-0.244442,0.219881,0.576061,-0.190367,-0.862721,0.468479
0.064611,-0.301660,-0.965752,0.083364,0.199502,0.976345
0.192367,0.518603,0.590796,0.468949,0.270447,-0.840801
0.040867,-0.464520,-0.962127,0.122191,0.075326,0.989644
0.476966,-0.013615,0.722737,0.376739,-0.687891,0.620382
-0.110491,0.595813,0.679172,0.282299,0.870487,-0.403187
-0.054300,0.695543,0.401269,0.587373,0.543004,-0.600116
-0.019441,0.439994,0.672381,-0.369509,0.075676,0.926141
0.769558,-0.013708,0.183734,0.289914,0.048046,-0.955846
-0.256504,-0.045273,-0.483402,-0.333164,0.285239,-0.898688
0.429619,0.047184,0.619755,0.751826,-0.090684,-0.653096
-0.394145,-0.314295,-0.769854,-0.401268,-0.203121,-0.893155
0.105382,-0.063457,0.764728,0.064854,0.947147,0.314176
0.408240,-0.092923,0.243829,-0.395074,0.236859,0.887589
0.305978,0.412438,0.644832,0.873239,-0.123277,-0.471441
0.116971,0.085089,0.773863,-0.501607,0.205350,-0.840370
0.236780,0.517763,0.634380,-0.758385,0.037275,0.650740
0.216536,-0.938643,0.378992,0.126275,-0.033860,0.991417
0.008135,-0.261330,-0.314321,0.250539,0.572133,0.780957
0.205989,0.179550,-0.730334,0.256154,0.066320,-0.964358
-0.401854,-0.357282,0.807855,-0.276397,0.789469,0.548036
0.458471,0.796717,0.108575,-0.473412,0.226601,0.851195
-0.367325,-0.162673,-0.989292,0.218547,-0.001839,0.975825
-0.546968,-0.192000,0.571576,0.641488,-0.223091,0.733978
0.331379,-0.297650,0.463395,0.230291,0.192540,-0.953884
0.030035,0.165236,-0.404344,-0.262672,-0.411464,0.872755
-0.149181,0.373601,-0.420049,0.390559,0.069145,-0.917977
-0.118579,-0.099730,-0.988523,0.048273,0.185802,0.981401
-0.340034,0.490861,0.468996,-0.060968,0.645530,0.761297
-0.344432,-0.053013,0.321460,-0.126616,-0.852198,0.507668
-0.502128,0.867354,0.374690,-0.504575,-0.443024,0.741036
-0.652257,0.020329,0.042934,0.905166,0.241864,-0.349539
-0.293539,-0.354719,-0.976350,-0.061278,0.212666,0.975202
-0.103727,-0.678106,0.500627,0.872058,0.192121,0.450116
-0.265302,0.039724,-0.436542,0.323665,0.941101,-0.097830
-0.110632,-0.144862,-0.214340,-0.522534,0.721089,-0.454961
-0.392678,0.706593,-0.194735,0.545899,0.118355,-0.829449
0.179406,0.395282,-0.174619,-0.443615,-0.131119,0.886574
0.223867,-0.039164,0.517010,0.009709,-0.259168,0.965783
-0.786065,-0.206267,0.683913,0.854590,0.001535,0.519301
0.690191,0.151388,0.183258,-0.250634,-0.375364,0.892348
-0.443335,0.661879,-0.339764,-0.459828,0.236344,-0.855979
0.014947,0.103459,0.672051,0.822280,0.495281,-0.280272
-0.035427,-0.107657,0.881202,0.698940,-0.675454,0.235042
0.198562,0.794013,0.224499,-0.051036,-0.520442,0.852371
0.398969,-0.055763,0.245586,-0.431248,0.273746,0.859703
0.162473,0.227014,0.403575,-0.708843,0.393943,0.585107
0.015656,0.123182,0.666175,0.623454,0.291624,-0.725438
0.221597,-0.284270,0.885485,-0.673249,0.728212,-0.128233
0.280153,0.271680,0.086133,-0.705052,0.569771,0.422211
-0.059313,-0.231398,0.235574,-0.004720,0.010186,0.999937
-0.143979,0.537999,-0.148919,-0.342225,-0.011795,0.939544
-0.341594,0.602900,0.426438,0.726075,-0.031214,-0.686906
0.019204,0.623321,-0.344084,0.489058,0.173869,-0.854747
-0.394239,0.338447,0.626729,0.471000,0.313942,0.824378
0.327783,0.066719,0.593560,-0.288429,-0.340316,0.894982
0.058461,-0.247995,-0.315474,0.027863,0.646722,0.762217
-0.468073,0.068165,-0.003981,0.123670,0.526499,-0.841133
-0.173020,0.119405,0.224371,0.841900,-0.170973,0.511833
-0.519818,0.252050,0.352560,0.200172,0.650442,0.732705
0.136648,0.397612,0.612652,-0.596868,0.436217,-0.673397
0.120614,-0.231445,-0.977284,0.023098,0.304543,0.952218
-0.302667,0.890666,0.375331,-0.671003,0.360708,-0.647800
0.247280,-0.721046,-0.057944,-0.405330,0.349978,0.844525
-0.213035,-0.372622,-0.145020,0.198298,-0.125377,0.972090
-0.056664,0.589891,0.383366,-0.586489,0.049133,0.808466
0.380712,-0.065275,0.713768,0.061633,-0.543045,0.837439
0.370873,0.196335,0.741426,-0.806521,0.133678,0.575895
-0.558840,0.368892,0.639871,0.839184,0.185088,0.511383
0.251774,-0.166683,0.853781,-0.804923,-0.418281,0.420881
-0.056049,0.389407,0.623104,-0.677339,-0.660549,0.323864
-0.059076,0.369405,0.594000,0.133214,-0.856701,0.498314
-0.063900,-0.157964,-0.351937,-0.724876,0.676880,0.128014
0.518447,-0.322455,0.745838,0.690124,-0.688266,-0.223650
0.519251,0.029605,0.656950,0.280567,0.955729,0.088681
0.373049,-0.352808,0.278681,-0.763859,-0.087938,0.639364
-0.170467,-0.297603,0.602017,-0.285358,-0.143179,0.947666
-0.044414,-0.260444,-0.941260,-0.701547,0.686128,0.192509
0.306404,-0.215824,-0.307475,-0.142801,-0.354092,0.924244
-0.068111,0.265899,0.922699,0.576074,-0.616434,-0.536794
0.037745,0.180342,0.720724,0.793510,-0.592634,0.138300
-0.029184,-0.066068,-0.731890,0.892436,-0.047642,0.448651
-0.081448,-0.187851,0.153092,0.505299,-0.725326,-0.467520
-0.731578,0.206079,0.366599,0.045282,0.741530,0.669390
0.132439,-0.366702,0.243481,0.924417,0.371844,0.084761
-0.132437,0.097910,-0.733665,0.405830,-0.032390,-0.913374
0.159683,0.563875,0.205645,-0.108406,-0.314628,0.943005
0.375462,0.192465,-0.071435,-0.276017,0.398302,0.874740
-0.774240,-0.412114,0.608534,-0.534285,0.590649,-0.604710
-0.065178,-0.211536,-0.319227,0.204891,0.788343,0.580116
-0.033819,0.041403,0.369144,-0.741692,0.656208,-0.138866
-0.124302,0.174002,0.600901,-0.591788,-0.349160,-0.726550
-0.039494,-0.270748,-0.840272,-0.496420,0.867698,0.025834
-0.026251,0.047556,0.804065,0.998118,-0.054622,-0.027888
-0.312458,0.229344,0.882465,0.931488,-0.264772,0.249450
0.173352,0.108868,-0.093766,0.427716,-0.027822,-0.903485
-0.071800,0.212513,0.858193,0.684785,-0.039785,-0.727658
-0.186122,0.116000,0.864325,0.034365,0.985859,-0.164018
-0.208069,-0.440507,-0.810198,-0.757834,0.395442,-0.518953
-0.399725,0.420738,0.604141,0.730289,0.029432,0.682504
0.315676,0.544479,0.587593,-0.696755,-0.671721,-0.251643
0.139533,0.258439,0.009271,0.760549,-0.123397,-0.637447
-0.695630,0.108587,-0.167461,-0.409709,-0.110908,0.905449
-0.109309,-0.137962,-0.327390,-0.198447,0.979429,0.036580
0.121370,-0.484009,0.374269,-0.003306,-0.235693,0.971822
-0.775044,-0.418454,0.611517,-0.534285,0.590649,-0.604710
0.044698,-0.108169,0.924328,0.828945,-0.449686,-0.332614
-0.024595,0.007925,0.785248,0.906561,0.411148,-0.095419
-0.009932,-0.020515,0.887462,0.985502,0.060489,-0.158515
-0.009413,-0.158524,0.227538,-0.426850,0.568532,0.703257
-0.290606,0.372295,0.305516,0.879713,-0.089955,0.466919
0.202347,-0.035388,0.092265,-0.431297,-0.073490,0.899212
-0.393198,0.943444,0.397791,-0.104468,-0.592735,0.798594
-0.402611,0.212048,-0.133982,0.326584,0.921034,-0.212223
-0.207028,0.092643,0.464512,0.807905,-0.053784,0.586853
0.246335,-0.345673,-0.276521,0.389535,0.876550,0.282705
-0.209205,0.364042,0.677433,0.173391,-0.149607,0.973424
0.127756,-0.240535,0.834012,0.968500,-0.194301,0.155738
0.614227,-0.339426,0.292062,0.916913,0.399073,-0.003397
-0.254233,-0.072222,0.880561,0.227012,0.705609,0.671254
0.166729,0.593341,-0.302057,0.460878,0.326123,-0.825370
0.071564,0.380267,0.827130,-0.481113,0.841285,-0.246514
0.048103,-0.042709,0.617192,-0.014718,0.625643,0.779971
-0.023791,0.733214,0.686530,0.635673,-0.166338,-0.753825
-0.066740,-0.263429,0.206194,0.205681,0.878555,0.431087
0.005108,-0.040796,0.500737,-0.140548,-0.989053,0.044942
-0.066360,-0.113577,-0.988999,-0.082206,0.168199,0.982319
0.045265,0.340544,-0.004658,0.580695,0.313809,-0.751210
0.291694,0.580194,0.554223,-0.713724,-0.460591,-0.527688
0.010217,0.543686,-0.139382,0.304267,0.392307,-0.868053
-0.185933,0.040469,0.731816,0.555940,0.822961,-0.116906
0.099659,0.009651,0.960681,-0.595189,0.621878,-0.508937
-0.240043,-0.215312,-0.987077,-0.033782,0.163186,0.986017
-0.359238,0.327256,-0.130120,0.369875,-0.234941,0.898886
-0.035427,0.061963,0.118587,-0.707580,0.578230,-0.406178
0.089679,0.430622,0.060671,0.474474,0.424966,-0.770894
0.105667,0.147565,0.034770,0.786228,-0.490882,-0.375341
0.294722,0.113809,-0.070995,-0.407027,0.420851,0.810687
-0.277173,-0.301940,-0.983892,-0.005500,0.384265,0.923207
-0.363872,-0.235594,0.165905,-0.160599,-0.041187,-0.986160
0.059691,-0.078330,0.631817,0.094642,0.692185,0.715488
-0.381136,0.678338,-0.189519,0.552266,0.134060,-0.822819
-0.455585,0.055063,0.060195,0.437358,0.624018,0.647549
-0.152397,-0.018418,0.648694,-0.706089,-0.635611,-0.312150
-0.197237,0.117167,0.868187,-0.035445,-0.998116,0.050084
-0.032730,-0.056556,0.375001,0.468066,0.851220,0.237357
0.132863,0.160714,0.659751,-0.499595,0.041472,0.865266
-0.404219,-0.292056,-0.310202,0.018753,-0.014939,0.999713
-0.124491,-0.490629,-0.968735,-0.111005,0.004917,0.993808
-0.020623,0.531704,0.226202,0.173515,0.416922,0.892227
-0.173683,0.544526,-0.161329,0.391553,-0.011527,-0.920083
0.248038,-0.543594,0.069878,0.551811,0.121721,-0.825038
-0.099990,-0.222539,0.193033,-0.462771,-0.193788,0.865037
0.172785,-0.099077,0.643496,-0.050350,0.647360,0.760519
0.170371,0.357188,0.785559,0.584580,-0.014709,-0.811203
-0.250449,-0.100475,0.807617,0.926585,0.024096,0.375312
0.237300,0.477573,0.610822,-0.483452,-0.115550,0.867711
-0.038217,-0.280119,-0.936702,0.670756,0.605157,-0.428802
0.427585,-0.321988,0.771995,0.302301,0.763312,0.570937
-0.232144,0.173582,-0.186059,-0.314016,0.164028,-0.935141
-0.350440,-0.327210,0.520048,0.985682,-0.159200,-0.055564
0.451472,0.533009,-0.136782,0.337150,-0.061094,-0.939467
-0.283654,-0.654421,0.529274,0.089114,0.837407,0.539266
0.220130,0.196987,0.483970,-0.857573,0.297052,0.419914
-0.074495,-0.503684,-0.969541,-0.108769,-0.034347,0.993473
0.164317,0.744405,-0.320855,-0.361194,0.197151,0.911411
-0.079699,-0.072222,-0.995241,0.105154,0.273156,0.956205
-0.027906,0.390338,0.661416,0.875747,-0.333616,-0.348953
-0.004115,0.669945,0.692791,-0.622877,0.130569,0.771347
-0.354603,-0.223518,-0.114725,-0.715338,0.584931,0.382294
0.489878,-0.349124,0.274599,0.098824,-0.895916,0.433091
-0.367610,0.491094,0.610858,0.041944,-0.548625,0.835016
0.297228,0.092782,-0.727039,0.327168,-0.009267,-0.944921
-0.042191,-0.000653,0.866119,0.775631,0.631001,-0.015319
-0.481175,0.240488,0.346556,0.294838,0.472475,0.830565
-0.221975,-0.456128,-0.969559,-0.148981,0.045350,0.987800
0.157790,-0.106957,0.198232,0.102770,-0.994243,-0.030321
-0.058368,-0.480652,-0.963720,-0.130915,-0.116090,0.984573
-0.347318,-0.206220,0.491859,0.805214,0.287280,0.518749
-0.369737,0.565694,0.415986,0.884992,-0.273494,-0.376816
-0.046211,-0.281332,0.366471,-0.370924,0.128908,0.919673
0.243497,-0.230466,-0.314357,-0.071556,0.038404,0.996697
0.075348,0.115814,0.766522,-0.147062,0.396722,0.906082
0.520717,0.058653,0.255782,0.556971,-0.486798,-0.672912
-0.376927,0.042521,-0.472236,0.986543,0.095321,-0.132841
0.109167,0.537346,0.582120,0.630146,-0.036306,-0.775627
0.058982,0.071661,0.670203,0.414480,0.665067,-0.621202
-0.007095,-0.413185,-0.183606,0.908724,0.398434,0.124386
-0.419024,-0.681276,0.566451,-0.221715,-0.862938,-0.454072
0.038312,-0.713494,-0.092082,-0.403945,0.581976,0.705785
-0.192554,-0.219555,0.235207,-0.498407,0.584782,-0.640016
-0.415050,0.570962,0.399054,0.885032,-0.218517,-0.411059
-0.689906,0.073993,0.066602,-0.120233,-0.583431,0.803214
-0.610160,-0.185099,0.598759,-0.755516,0.215300,-0.618742
0.440592,-0.392064,0.480675,-0.555140,0.154073,0.817362
0.609356,-0.355278,0.493561,-0.192386,0.236700,0.952345
-0.239712,-0.404560,-0.140572,-0.286033,0.585246,0.758731
-0.454310,-0.443818,0.605019,0.183400,-0.182876,0.965878
0.009697,-0.273779,-0.931394,0.138485,0.894193,-0.425725
-0.352993,0.749347,0.358362,0.230616,-0.489506,0.840952
0.527764,0.087560,0.699893,0.906142,-0.422913,-0.007099
-0.183143,-0.126399,0.607179,0.567873,-0.417120,-0.709599
-0.066975,0.080473,0.981988,-0.546928,0.824721,0.143892
0.465235,-0.011517,0.246117,-0.276991,0.244981,0.929118
0.060023,-0.427593,-0.968479,0.053901,0.159871,0.985665
0.052171,0.486945,0.896322,0.701157,-0.666266,0.253906
-0.384637,0.084855,0.069018,0.013455,-0.474503,0.880151
0.201117,0.592270,-0.298725,-0.588339,-0.113170,0.800656
0.307634,0.140572,-0.710217,-0.327362,-0.028740,0.944462
-0.217056,-0.351874,-0.981201,-0.028440,0.207345,0.977854
-0.101645,-0.056230,0.336689,-0.130171,0.989364,-0.064915
-0.511541,-0.293454,-0.401378,0.354628,0.776061,0.521505
-0.318229,-0.110966,0.456201,-0.461094,-0.580740,-0.670919
-0.219989,-0.320123,-0.425724,-0.196181,0.819498,0.538457
-0.036326,-0.025503,0.509395,0.304694,0.945628,-0.113794
-0.378867,0.234521,-0.049780,-0.655988,-0.601732,-0.455629
-0.284599,-0.501212,0.496801,0.979516,-0.037578,0.197828
-0.272112,0.051146,0.589442,0.269130,-0.438958,0.857254
-0.434017,0.088772,0.001053,0.545359,0.752472,-0.369283
-0.126431,0.247062,-0.724678,0.125961,-0.172094,0.976994
-0.074686,-0.328423,-0.180970,0.481839,0.840893,0.246435
0.147101,-0.492634,0.205261,0.259456,0.138806,-0.955728
-0.152162,0.532870,0.319830,-0.214029,-0.340824,0.915440
-0.034718,-0.202583,-0.574029,0.758646,-0.643760,0.100148
0.281903,-0.035855,0.655650,0.462681,0.478005,0.746617
0.245152,0.453376,0.613165,0.757333,0.487792,-0.434172
-0.403132,0.102200,-0.235629,0.897178,0.317307,-0.307227
0.569294,0.021027,0.682522,-0.293842,-0.954268,-0.055033
-0.095355,0.692559,0.378259,-0.657511,-0.421553,0.624478
0.183569,0.321055,0.781148,0.388093,-0.006666,-0.921596
-0.027480,-0.255222,-0.227300,0.599203,0.311727,0.737416
-0.425409,0.135257,0.620816,0.648572,0.497354,0.576188
-0.126903,-0.087421,-0.986802,0.093625,0.154963,0.983474
-0.037272,-0.003870,0.763374,0.695171,0.718715,0.013617
-0.108599,-0.173537,0.189153,0.720829,0.072270,-0.689335
-0.279632,-0.303992,0.767291,0.168302,-0.620846,-0.765653
-0.341359,0.649990,0.434290,0.582571,0.292596,-0.758286
-0.283085,-0.733076,0.544156,-0.512876,-0.534400,-0.671845
-0.070192,0.342643,-0.385947,-0.630994,-0.053286,0.773956
-0.205137,-0.190507,-0.990610,0.053481,0.043043,0.997641
-0.319270,-0.347119,0.593469,0.376446,-0.138734,-0.915992
-0.028426,-0.240955,0.227465,-0.237132,0.694332,-0.679464
0.416754,0.029746,-0.714628,-0.182341,-0.043216,0.982285
-0.300207,-0.378172,-0.770293,-0.425786,0.133853,-0.894868
0.101126,0.050867,0.611060,-0.060959,-0.512178,0.856713
0.004400,0.333970,0.825555,-0.403253,0.914746,-0.025043
-0.347128,-0.020701,-0.036747,-0.407031,0.339423,-0.848008
-0.223867,0.552080,-0.172697,-0.406114,-0.095631,0.908805
-0.211286,0.073060,0.510036,0.848592,0.490264,0.198830
0.057421,-0.533383,0.395191,0.183692,0.303940,0.934814
0.497872,0.427312,0.125726,0.650560,-0.120999,-0.749754
-0.279443,-0.784642,0.231199,-0.210973,0.247112,0.945741
0.218381,0.521494,0.452852,0.284151,0.279890,-0.917017
-0.608599,0.212094,0.059902,-0.576796,0.158396,-0.801384
-0.084193,0.258019,0.653692,0.935901,-0.292242,0.196680
-0.464242,0.907823,0.374196,0.405119,0.408033,-0.818161
0.199083,0.017904,0.535937,-0.182045,-0.856425,0.483110
0.078328,0.441392,0.056223,0.496640,0.422083,-0.758416
-0.211049,0.242819,-0.711114,0.017687,-0.224816,0.974241
-0.760996,-0.157218,0.668720,0.719394,-0.301680,0.625669
0.006149,0.078609,0.928922,0.908984,-0.300319,-0.289061
0.024075,-0.237412,-0.832841,-0.379248,0.925267,0.007198
-0.182244,-0.053759,0.697824,0.957421,-0.276326,-0.083604
0.070286,0.686823,0.217854,0.008163,0.032439,0.999440
-0.464431,0.243892,0.342730,0.299042,0.401601,0.865615
0.451283,0.460183,0.116483,0.655460,-0.029263,-0.754663
-0.048671,-0.569611,-0.965203,0.268761,-0.077437,-0.960089
-0.209961,-0.103461,0.408609,0.498375,0.186300,0.846708
0.031265,0.607608,0.407584,0.892030,0.279343,-0.355318
0.857724,0.067092,0.198177,-0.370245,0.054457,0.927336
-0.212988,-0.164911,-0.991561,-0.068978,0.055117,0.996094
-0.425315,-0.596607,0.539927,0.400728,-0.238313,-0.884660
-0.230584,-0.313875,0.461894,-0.346232,0.511415,0.786497
0.131587,0.611153,-0.306486,-0.556936,-0.148114,0.817242
0.133999,-0.119545,0.880506,0.110568,-0.755029,0.646301
0.371441,0.054177,0.119558,-0.356896,-0.219328,0.908031
-0.083719,-0.243334,-0.449319,0.857374,-0.452666,0.244955
-0.316054,-0.038605,0.852116,0.843371,0.415087,-0.341216
-0.263173,-0.296811,-0.116354,0.777937,0.320873,0.540235
0.516413,-0.463866,0.243024,0.620620,0.135796,-0.772263
0.445038,0.468482,0.115732,0.716216,-0.047797,-0.696240
-0.217955,0.080659,-0.068762,0.996525,-0.042568,0.071599
-0.859947,-0.165470,0.710199,-0.727367,-0.006353,-0.686220
-0.510122,0.455987,0.626015,0.641820,-0.401426,0.653394
0.338000,-0.473751,-0.281006,0.173242,0.401851,0.899168
0.171507,-0.064063,0.757773,0.184535,0.975167,0.122461
0.629270,0.260864,0.668940,-0.452506,0.643785,0.617073
0.022326,-0.425961,-0.964049,-0.067973,-0.094779,-0.993175
0.008420,0.139640,0.685871,0.946747,0.266523,-0.180656
0.299925,0.507925,0.639725,0.836326,-0.038630,-0.546870
-0.247280,0.643324,-0.681076,-0.040595,0.308889,-0.950231
0.013196,0.108495,0.866705,0.144761,0.685374,-0.713657
-0.487513,0.137727,0.018863,-0.172496,-0.898735,0.403137
-0.337385,0.730603,0.344487,0.216084,-0.551407,0.805765
-0.068063,-0.393184,-0.962585,0.215228,-0.210659,-0.953572
-0.075017,0.248835,0.689276,0.781076,-0.337893,-0.525118
-0.090199,-0.016599,0.507107,-0.259943,0.964821,-0.039368
-0.081023,0.567232,0.354244,-0.824851,0.106420,0.555243
0.117160,-0.072688,0.847631,0.289257,0.511994,-0.808822
-0.481790,0.739462,0.366709,0.146755,0.331491,0.931975
-0.092328,0.047929,0.914572,-0.265326,-0.931513,0.248769
-0.549332,-0.188177,-0.572876,0.413583,0.897319,0.154170
-0.220697,0.575718,0.509011,0.957273,0.266475,-0.112335
-0.336203,0.271027,0.551514,0.921767,0.217868,0.320748
0.070240,-0.199460,0.904101,0.016978,-0.582518,0.812640
0.201778,0.262541,0.053477,0.635518,-0.107218,-0.764605
-0.301911,-0.521401,0.502183,-0.572579,-0.021098,-0.819578
-0.346420,0.324972,-0.130742,0.859864,-0.242492,0.449257
0.184467,-0.156706,0.815433,0.266834,0.590298,0.761806
-0.113140,-0.182023,0.234164,0.544326,0.290402,0.787005
0.015420,-0.126818,0.380712,0.871647,-0.012415,-0.489976
0.348784,-0.385724,0.448532,-0.417843,-0.214276,0.882889
0.108127,0.577397,0.565481,0.732628,-0.022525,-0.680257
-0.152162,-0.177266,-0.993740,-0.018805,0.007625,0.999794
0.422429,-0.264873,-0.277254,-0.164568,0.037268,0.985661
-0.590484,0.180203,0.058566,0.322436,0.231822,0.917765
0.442626,-0.004802,0.752062,-0.173358,0.968497,-0.178777
0.117918,-0.410621,-0.969468,-0.099587,0.009429,0.994984
0.264166,0.029046,0.717740,0.646481,-0.279556,-0.709867
0.028143,-0.247156,-0.862293,-0.439327,0.898315,-0.004637
0.045218,-0.088260,0.058200,-0.110179,0.966413,0.232177
0.050847,-0.204635,-0.978858,0.064252,0.344549,0.936567
-0.428294,-0.650272,0.495849,-0.096945,0.992983,0.067728
-0.405590,-0.563224,0.525064,0.312236,-0.427553,0.848356
-0.172075,-0.505502,0.304125,0.873272,0.251752,-0.417153
0.337858,-0.467876,0.606062,-0.348264,0.521200,0.779142
-0.265302,-0.060985,-0.991909,-0.120289,-0.238276,-0.963720
0.161291,0.269022,-0.300867,-0.159621,-0.071017,-0.984621
-0.336250,0.172276,0.568062,-0.812159,0.025837,-0.582863
-0.646438,-0.106072,0.432808,0.138819,0.273501,0.951802
0.460552,-0.139175,0.259059,-0.331744,0.394358,0.856988
-0.390549,-0.676334,0.535278,0.434461,0.895328,0.098145
-0.660818,0.104578,0.391439,0.061418,0.563062,0.824129
0.536184,0.453982,0.642288,0.821875,0.384236,-0.420575
0.159020,-0.045973,0.442344,0.406938,0.823650,0.394971
0.006527,-0.074087,0.878017,0.977225,0.161861,-0.137227
-0.059172,-0.080941,0.898683,-0.428872,0.506081,0.748299
-0.390738,-0.291124,-0.981823,0.082992,-0.200359,-0.976201
0.257734,0.507739,0.095103,0.369177,-0.267795,-0.889940
-0.169520,0.088726,0.926799,0.809810,-0.373866,-0.452142
-0.209157,-0.112785,-0.989694,0.020852,0.124272,0.992029
-0.025731,-0.485919,0.387577,-0.382663,0.129241,0.914804
-0.320263,-0.217876,-0.988102,-0.012180,0.308200,0.951244
-0.013007,-0.122016,-0.984972,0.109516,-0.237869,-0.965103
0.016603,0.518742,0.405534,0.846348,0.522942,-0.101127
-0.118721,0.500839,0.648383,0.143614,-0.400544,0.904953
-0.350345,0.011702,0.047547,0.318984,0.712813,0.624617
0.212705,0.451371,0.598100,0.668844,0.239597,-0.703734
-0.826885,-0.155866,0.693413,-0.730678,0.030201,-0.682054
0.215543,-0.363530,0.704963,-0.306656,0.925119,0.223866
-0.105667,-0.252332,-0.444871,0.804282,-0.543716,0.239800
-0.352285,0.246363,0.500188,0.931271,0.151251,0.331446
-0.067353,0.648499,0.381939,-0.655875,-0.329544,0.679138
-0.347128,-0.165890,-0.160561,0.385852,0.866809,0.315847
-0.125864,0.071288,0.425431,0.746045,0.178592,0.641499
0.010690,0.353879,0.823176,0.137459,-0.933920,0.329998
0.027528,0.230744,0.159371,0.798537,0.114692,-0.590918
0.264261,-0.411973,-0.247051,0.133263,0.988076,0.077111
-0.081970,-0.136983,0.233011,0.020921,0.451537,0.892007
-0.556570,-0.544806,-0.266142,-0.142194,-0.548813,-0.823763
-0.048292,0.391225,0.623598,-0.677339,-0.660549,0.323864
-0.296802,0.312290,0.660885,-0.543959,-0.340421,0.766957
-0.290985,-0.150364,0.564236,0.841516,-0.166454,-0.513949
0.418929,0.089985,-0.708277,-0.162171,-0.171029,0.971828
-0.046637,0.296624,0.819039,-0.364146,0.511861,-0.778072
-0.088165,-0.149711,-0.986308,-0.131811,0.162954,0.977789
0.822865,-0.032544,0.184027,-0.381437,-0.037025,0.923653
-0.056143,-0.020050,0.425431,0.939380,0.300062,-0.165913
0.223820,-0.574321,0.312856,-0.395177,-0.448062,-0.801920
0.137074,0.336581,-0.314650,0.853627,0.049001,-0.518576
-0.843061,-0.172744,0.690960,-0.599649,-0.073660,-0.796866
-0.109214,-0.115629,-0.197005,-0.462520,-0.599763,0.652962
0.672169,0.192652,0.172129,0.225383,0.305951,-0.924985
0.792025,-0.304131,0.321954,-0.285222,-0.951386,0.116242
-0.333554,0.062383,0.883765,0.190556,-0.919564,0.343644
0.054583,-0.049796,0.482816,0.872088,0.175961,-0.456618
-0.313121,-0.258953,-0.981274,0.016008,0.092062,0.995625
0.304466,-0.103227,0.564419,0.953428,-0.173161,0.246963
0.398023,0.018836,0.597935,-0.650940,0.188197,0.735431
-0.059218,-0.255176,-0.976057,-0.051907,0.125899,0.990684
0.166588,0.251026,-0.169457,-0.785091,0.249625,0.566851
0.206982,0.467223,0.594036,-0.607210,-0.137523,0.782549
-0.504636,-0.120245,0.322979,-0.019205,-0.203447,0.978898
0.138114,-0.065974,0.764509,0.140001,0.972120,0.188102
-0.154479,0.310611,-0.718967,-0.036548,-0.187042,0.981672
0.088638,-0.807535,-0.055308,-0.168651,0.556770,0.813366
-0.058887,0.075111,0.750103,0.993503,0.025167,-0.110987
-0.049996,-0.070403,0.165411,0.444231,0.877127,-0.182503
-0.144168,0.363809,0.429769,-0.546582,0.428315,-0.719580
0.279443,0.643136,0.501084,-0.754569,-0.605472,0.253038
-0.226138,0.253170,-0.191368,0.973298,0.041457,-0.225771
0.140385,0.363158,0.762898,0.894079,0.167592,-0.415375
-0.283606,-0.444750,0.186919,0.440690,-0.543763,-0.714223
0.447026,-0.297324,0.473902,0.046015,0.195476,0.979628
-0.064989,0.666122,-0.353054,0.585703,0.189697,-0.788014
0.116877,-0.750327,-0.068963,-0.280234,0.468953,0.837587
0.328304,-0.370292,0.785614,-0.117155,-0.808859,-0.576214
0.510689,-0.212187,0.288767,-0.130592,0.372204,0.918918
-0.007236,-0.254523,0.236599,-0.263626,0.214653,0.940439
-0.319885,0.163464,-0.181172,0.229318,0.930901,0.284316
-0.327594,-0.089147,-0.497753,-0.045765,0.199005,0.978929
0.378678,0.760491,0.096109,0.557348,-0.052407,-0.828623
-0.057327,0.112783,0.901575,-0.231349,-0.322191,0.917971
0.131870,0.295738,-0.343151,0.994854,-0.026671,-0.097741
-0.367467,-0.250094,-0.989347,-0.111148,0.214598,0.970358
-0.421625,-0.079821,-0.041927,-0.247042,0.465100,-0.850090
-0.073739,0.036412,0.869652,0.084513,-0.523569,0.847781
-0.285734,0.261843,0.925353,0.999693,-0.018529,0.016429
-0.641471,-0.233076,0.600681,0.787274,-0.282520,0.548071
-0.236969,0.240488,-0.407675,0.469699,-0.020080,-0.882598
0.462586,0.489929,-0.107165,-0.183598,0.377983,0.907425
-0.031218,-0.216571,-0.978016,0.149816,-0.352649,-0.923685
0.149513,-0.101223,0.197902,-0.113408,0.991820,-0.058577
-0.404503,-0.216524,0.773863,0.446227,0.727459,0.521234
-0.148093,0.306741,0.470589,0.879783,0.032236,0.474282
0.167298,0.259838,0.753160,0.827872,-0.185722,-0.529279
-0.755132,-0.065415,0.327280,0.125689,0.141527,0.981923
-0.089301,0.557627,0.666377,-0.658148,-0.480867,0.579318
0.505203,-0.378964,0.234384,-0.354774,-0.457722,0.815246
0.161386,0.479065,-0.315565,0.919963,-0.060124,0.387367
0.129931,0.822826,-0.311850,-0.161431,0.069429,0.984439
0.202819,0.345067,0.768261,-0.090775,0.729685,-0.677732
0.086700,-0.262635,0.784315,0.559909,-0.177249,-0.809373
0.636080,0.199412,0.714866,-0.274137,-0.136752,-0.951918
-0.034386,0.130873,0.912521,0.558256,0.546598,-0.624164
0.237159,0.345160,-0.166931,0.489766,-0.079325,-0.868238
0.074638,-0.039911,0.873752,-0.527974,0.621042,-0.579267
0.032306,0.152414,0.401525,0.584122,-0.061192,0.809356
-0.375886,0.064434,0.298396,-0.413949,-0.489318,-0.767602
0.711711,0.403254,0.195486,-0.420883,-0.022370,0.906839
-0.156702,0.175075,-0.084339,-0.032598,0.720881,0.692292
-0.459464,-0.417709,0.590394,-0.079550,0.076495,0.993892
0.041387,0.269628,0.766339,0.621749,-0.622855,0.474848
-0.536136,-0.126073,-0.152433,0.158700,0.594687,0.788138
-0.327831,0.594973,-0.395832,-0.374080,0.045123,-0.926298
0.175859,0.033242,0.932181,-0.249060,-0.703949,-0.665150
-0.294532,0.278674,0.888707,0.915508,-0.334555,0.223422
-0.200785,0.044153,0.711718,0.520829,0.850410,-0.074433
-0.295194,0.731629,-0.144361,0.016342,-0.487934,0.872728
0.160912,0.701697,-0.310696,0.439976,-0.112765,-0.890902
-0.170182,0.700345,0.682485,0.032062,-0.682584,0.730104
-0.030082,-0.229719,-0.746296,-0.180156,0.976680,-0.116794
-0.060069,-0.112692,-0.982043,-0.082101,0.192402,0.977876
0.070429,0.604719,0.213736,-0.127564,0.330367,-0.935193
0.212894,-0.263568,-0.970090,0.219538,-0.265663,-0.938736
0.280249,0.321475,0.732713,-0.117027,-0.933167,0.339859
0.423707,-0.631528,0.359589,-0.303854,0.427913,0.851213
-0.504777,0.243566,0.350491,0.200172,0.650442,0.732705
0.509460,0.065087,0.673589,0.841025,0.273622,-0.466699
-0.802431,-0.154887,0.682174,0.758935,-0.184464,0.624493
-0.466654,-0.631575,0.201820,0.179215,0.250231,0.951455
0.277174,0.313781,0.816806,-0.457670,0.727015,-0.511847
-0.337622,0.700158,0.343792,0.292590,-0.383035,0.876171
-0.062103,0.439994,0.645875,-0.723820,-0.544412,0.423910
-0.097247,-0.080894,-0.033873,0.127511,-0.989588,0.066756
-0.299214,-0.171346,-0.992532,-0.102749,0.097706,0.989897
0.203623,0.219740,0.541007,-0.009871,-0.656609,0.754166
0.228645,-0.408057,-0.220326,-0.174347,0.790203,0.587522
0.074969,0.413045,0.812559,0.626392,-0.774019,-0.092345
0.270693,0.074552,0.707123,0.565311,-0.183402,-0.804231
-0.086274,0.272612,0.647999,0.959687,-0.161283,0.230192
-0.302573,0.626864,0.480217,0.935202,0.015800,-0.353761
-0.039494,-0.034036,0.349246,0.227963,-0.909495,-0.347638
0.412923,-0.244732,0.499877,0.525779,-0.013471,0.850515
0.050563,-0.459345,0.378131,0.110592,0.098126,0.989010
0.346609,-0.408943,0.604873,-0.214051,0.450343,0.866818
0.281288,-0.083319,0.463157,-0.605205,-0.782535,0.146168
-0.493993,0.462327,0.631836,0.604403,-0.002466,0.796675
0.361934,-0.132647,0.489369,-0.393382,-0.917547,-0.057951
0.544934,-0.252611,0.465646,-0.084339,0.257093,0.962699
-0.059550,0.275690,-0.364751,0.797731,0.155425,-0.582640
-0.804985,-0.136611,0.690960,-0.725849,0.051749,-0.685904
-0.072746,-0.201278,0.223529,0.938677,-0.270010,-0.214430
0.212232,-0.201278,0.671612,-0.070874,0.482421,0.873068
-0.049759,-0.089892,0.030414,-0.028855,-0.997102,0.070389
0.485810,-0.313736,0.267699,-0.334073,-0.715708,0.613317
0.471289,0.574412,0.121809,0.896636,-0.079217,-0.435624
0.551840,-0.090079,0.643075,-0.798388,0.257903,0.544116
0.046590,0.140107,-0.137570,0.927743,-0.245072,0.281481
-0.015845,-0.223051,-0.747138,0.978740,-0.202040,0.035335
-0.272253,0.062057,-0.436725,0.811509,-0.555796,-0.180402
-0.375650,-0.236619,0.566323,0.079479,0.342546,0.936133
-0.545738,-0.481444,0.482432,0.352249,0.607805,0.711683
0.364298,-0.568399,0.465903,-0.493070,0.273115,0.826008
0.274808,0.526995,0.070977,-0.180675,0.226525,0.957101
0.159161,-0.208225,-0.979059,-0.030923,0.230860,0.972495
-0.226753,0.942791,0.388638,0.013725,-0.690291,0.723401
-0.358244,-0.569238,0.205114,0.185704,-0.361510,-0.913687
0.500709,0.502238,-0.127960,-0.400054,0.262815,0.878001
0.245767,0.162905,-0.087616,-0.377687,0.301648,0.875421
-0.641614,-0.358169,0.468026,0.225949,0.503626,0.833851
-0.110349,-0.182721,-0.985960,-0.115515,0.184379,0.976043
0.171460,0.189201,-0.090746,0.312480,-0.209254,-0.926590
-0.009365,-0.367960,-0.163874,0.792286,0.599788,0.111971
0.016507,-0.545367,-0.962494,0.068720,0.171404,0.982801
-0.095496,0.198293,0.912393,0.806817,0.503437,-0.309188
-0.128465,-0.660109,0.451369,-0.548569,-0.050554,0.834576
0.589537,0.067698,0.163270,0.403619,-0.079738,-0.911446
-0.419733,0.382133,0.613879,-0.730620,-0.352404,-0.584813
-0.026818,-0.008533,0.668665,-0.207333,0.949391,0.235945
0.588402,0.429970,-0.120125,0.390870,0.009218,-0.920400
0.057138,0.109474,0.893979,-0.635501,0.549325,0.542568
-0.122316,-0.159129,0.343334,0.159968,0.391984,0.905957
-0.170514,-0.058141,0.508553,0.081862,-0.982039,0.169992
-0.503263,-0.154467,0.314907,0.026150,-0.176635,0.983929
-0.286586,-0.142904,-0.990427,-0.143381,0.005858,0.989650
-0.102119,-0.133672,-0.285637,-0.714260,0.680585,-0.163206
-0.223820,-0.528675,0.428122,0.768050,-0.235996,-0.595320
0.058887,-0.288419,0.265117,0.127135,0.616835,0.776757
-0.540914,0.922603,0.365940,-0.149492,-0.618195,0.771678
0.203907,-0.082526,0.946843,-0.118895,0.988377,-0.094734
0.023319,0.153301,0.149138,0.662963,0.190934,-0.723895
-0.299972,-0.259326,-0.106250,0.984682,-0.026333,0.172358
0.327783,-0.410715,0.610200,-0.395470,0.470348,0.788909
-0.023318,-0.217409,-0.685487,0.975616,-0.212559,-0.054696
-0.794532,-0.266458,0.647267,0.857739,-0.348105,0.378293
0.143175,0.588260,0.202497,-0.055309,-0.320357,0.945681
0.163750,0.162905,-0.100466,0.467698,-0.149649,-0.871128
-0.197852,-0.626353,0.230650,0.369911,-0.139417,-0.918547
-0.297228,0.453888,0.307914,-0.096191,-0.148764,0.984183
-0.352378,0.530912,0.638132,0.673790,0.676723,-0.296736
-0.758111,-0.251073,0.636284,-0.578579,0.419696,-0.699358
-0.864630,-0.155913,0.707434,0.736765,-0.061624,0.673335
0.218711,-0.625514,0.328892,0.272982,0.361287,0.891601
0.416895,0.498741,-0.138119,-0.445239,0.181752,0.876772
-0.116119,0.215544,0.562827,0.826100,-0.030629,0.562690
-0.527527,0.367493,0.628870,0.879270,0.209069,0.427989
-0.312979,-0.377984,0.285253,-0.001055,0.101425,0.994843
-0.410698,-0.279327,-0.988688,0.171430,-0.254405,-0.951782
0.062766,0.513894,0.191953,0.191506,-0.368657,0.909625
-0.026062,0.033848,-0.010040,-0.761189,0.497111,0.416500
-0.369454,0.052406,0.865551,-0.336516,0.877557,-0.341542
-0.323811,0.825159,0.364348,0.399798,-0.473604,0.784768
-0.076199,-0.172371,-0.310074,0.988888,0.148555,0.005665
-0.375319,-0.683327,0.527151,0.529887,0.827035,0.187706
0.098761,-0.026996,-0.737894,-0.007524,0.059423,0.998205
0.042475,-0.354346,0.817263,-0.684801,0.688494,0.238796
0.025779,0.066998,0.633318,0.443039,-0.639833,0.627957
-0.192224,0.511329,0.450435,0.950180,0.300012,-0.084567
-0.086889,-0.054644,0.675676,0.002365,0.842353,0.538920
-0.155993,-0.094416,-0.988120,0.094791,-0.166052,-0.981551
0.057138,0.249486,0.185290,0.542826,0.134436,-0.829016
0.325134,-0.293594,0.458434,-0.029860,-0.155578,0.987372
-0.266152,-0.326184,0.170335,-0.252377,0.514679,0.819397
-0.219847,-0.458458,0.433778,0.938311,-0.043140,-0.343091
0.257686,0.338912,0.568043,-0.376711,0.741802,-0.554815
0.129553,0.190041,0.404014,0.865830,-0.273096,-0.419235
0.024312,-0.214892,-0.975472,-0.077360,0.359745,0.929838
0.178839,0.473190,-0.172733,0.923133,0.372228,-0.096286
0.019960,0.316719,0.836831,0.453328,0.573029,-0.682738
-0.031737,-0.072128,-0.992605,-0.052916,0.336024,0.940366
-0.030271,0.134465,0.891855,-0.638598,0.749657,-0.173802
-0.178554,0.091756,0.834689,0.135210,0.945597,-0.295912
0.066740,-0.203842,0.964690,0.586964,-0.577509,0.567412
0.014426,-0.389501,-0.966429,0.125904,-0.003375,0.992037
-0.147054,0.294759,0.426456,0.721605,0.311395,0.618319
-0.440071,0.081499,-0.009290,-0.233407,-0.699941,0.674984
0.084145,-0.219694,0.217232,0.490365,0.247621,-0.835599
-0.217340,0.442885,-0.175406,-0.459567,-0.097598,0.882764
-0.413395,0.910202,0.383403,-0.136618,-0.533527,0.834677
0.351576,0.283570,0.731487,0.545528,0.659435,0.517248
-0.201920,-0.603879,0.447726,0.915063,0.395435,0.079308
0.060875,0.088539,0.624843,-0.305457,0.468241,-0.829123
0.439693,-0.346373,0.231656,-0.183248,-0.226557,0.956604
-0.328068,-0.222819,-0.985887,-0.157086,0.214217,0.964072
-0.775470,-0.227527,0.626253,-0.662952,0.449169,-0.598951
-0.375035,0.032310,0.867418,0.096068,0.876056,-0.472542
-0.064989,-0.173956,-0.983160,0.030991,-0.231343,-0.972379
-0.274335,-0.665377,0.457995,-0.635785,0.088387,-0.766789
0.225712,0.176193,-0.323345,0.355224,-0.563718,-0.745679
-0.326979,-0.380269,-0.978583,-0.087163,0.242313,0.966275
-0.074402,0.491653,0.659934,0.920659,0.227934,-0.316913
-0.061725,-0.172697,-0.978840,-0.048515,0.214544,0.975509
0.042664,0.099916,0.401946,0.769586,0.154556,0.619556
-0.061536,-0.302919,-0.968022,0.416937,-0.009293,-0.908888
-0.825466,-0.135724,0.695170,0.752143,-0.359318,0.552423
-0.525730,-0.475197,0.487502,0.556525,0.687410,0.466634
0.421956,-0.320684,0.470552,0.312629,0.158586,-0.936544
0.122931,-0.327910,0.207970,-0.629312,-0.349074,0.694344
-0.216158,-0.083319,0.661709,0.886449,-0.459424,-0.056020
0.150176,0.385350,0.769762,0.763867,0.288151,-0.577474
0.201400,-0.234754,0.674175,0.061032,-0.448866,-0.891513
0.203812,-0.002519,-0.719497,0.373910,-0.180935,-0.909645
-0.070475,0.634418,0.677982,-0.493484,0.851084,-0.179244
0.377779,0.462001,-0.341192,0.216869,0.057890,0.974483
-0.558604,-0.469322,0.472895,-0.411709,0.254237,0.875134
-0.534576,-0.121410,-0.153220,0.158700,0.594687,0.788138
-0.098336,0.295505,0.848528,-0.595379,0.542712,-0.592441
-0.067070,-0.515014,-0.965129,-0.091932,-0.006819,0.995742
-0.290416,-0.305250,-0.979480,0.032560,0.217034,0.975621
0.149181,0.393090,0.020913,0.530649,0.538180,-0.654809
-0.014332,0.102573,0.135519,-0.956594,0.277162,0.090052
0.252862,0.512121,0.077054,-0.675125,0.115522,0.728602
-0.293869,-0.264594,0.415400,-0.396730,0.376697,-0.837081
-0.635370,0.125932,0.074180,-0.271380,-0.216771,-0.937744
-0.248037,-0.276857,-0.983727,-0.047128,0.174910,0.983456
0.175338,0.716990,0.225396,-0.068258,-0.314284,0.946872
-0.266721,-0.106864,-0.988706,-0.059629,0.174178,0.982907
-0.066360,-0.143557,-0.987553,-0.150949,0.095873,0.983881
0.009318,0.388567,0.754789,0.838982,0.263923,0.475872
