-0.251228,0.329544,0.749523,-0.249893,-0.584919,-0.771637
-0.598767,0.079389,0.778312,0.733272,0.137966,0.665791
0.434248,0.451496,0.580717,-0.262860,-0.143101,0.954163
-0.262652,0.096701,0.004575,-0.401917,0.353380,-0.844740
-0.217791,0.119648,0.003740,-0.438613,0.621022,-0.649578
0.077488,0.108484,0.944173,0.112975,0.826993,0.550744
-0.729202,0.098852,-0.981408,-0.055415,0.325919,0.943772
0.097547,-0.004352,0.827904,0.267363,-0.517071,0.813114
-0.748810,-0.101003,0.363268,0.380687,0.320607,-0.867346
-0.296026,0.120673,0.700538,-0.816082,0.042311,-0.576385
-0.367830,0.366371,0.919443,-0.187116,0.975518,0.115551
-0.471517,-0.346291,0.382941,0.409833,0.904404,-0.118707
0.402888,0.420510,0.862928,-0.448003,-0.444726,0.775572
-0.282521,-0.693045,-0.236049,-0.075131,-0.610304,0.788596
0.506052,0.355870,0.591879,-0.458791,-0.252001,0.852060
0.454244,0.065252,0.183332,0.952606,-0.114682,0.281763
-0.022431,0.173121,0.926694,0.845347,0.292555,-0.446989
-0.389193,-0.062639,0.710603,0.211952,0.067155,0.974970
-0.899499,-0.061617,0.781700,-0.490610,-0.736211,0.466150
0.368674,0.725417,0.456346,0.827348,-0.514881,-0.224483
-0.134685,0.429935,0.618295,-0.341823,0.720425,-0.603444
0.094884,0.309928,-0.647018,-0.195563,0.961174,-0.194680
-0.419055,0.406989,0.739245,-0.205884,-0.559327,0.802973
-0.200327,0.257990,0.625775,-0.484820,-0.851244,-0.200832
-0.314139,0.068429,-0.965679,0.322306,-0.257116,-0.911049
0.334393,-0.007272,0.594465,0.648061,-0.074488,0.757937
0.199348,-0.456770,-0.160255,0.332460,-0.297954,0.894815
-0.274338,0.071964,0.836169,-0.504666,0.076720,0.859899
-0.451260,0.536418,0.970671,-0.518658,0.018575,0.854780
-0.433729,0.225621,0.411124,-0.534663,0.832265,-0.146528
0.569031,-0.109710,0.558425,0.196645,0.234676,0.951976
0.195648,0.602849,0.345477,0.840736,-0.509574,0.183022
-0.356211,0.519156,0.631568,-0.573577,0.774160,0.267742
-0.636555,0.294356,0.759965,0.896688,-0.406079,0.176212
0.041388,0.200678,0.369602,0.235858,0.967603,0.090080
0.216816,0.409702,0.672092,0.918382,-0.085851,0.386270
-0.705763,-0.092450,0.791979,-0.018423,0.125008,0.991985
-0.165785,-0.408214,0.772339,-0.428215,0.098866,0.898252
-0.429251,0.384452,0.912945,-0.202542,-0.865597,-0.457951
-0.067102,-0.223211,0.742535,-0.408084,0.912496,-0.028612
0.067942,-0.639060,0.363072,0.794815,0.209284,-0.569622
0.145464,0.134759,0.939509,0.056808,0.975124,0.214258
-0.433147,0.380507,0.972340,-0.298504,-0.952895,-0.053724
-0.160395,0.115756,0.330748,-0.673050,-0.535028,0.510635
0.058527,0.239195,0.079796,0.938416,-0.345180,-0.015024
-0.585781,0.135579,-0.077259,0.324522,-0.197033,0.925129
0.091706,0.000513,0.855515,-0.104310,0.746573,0.657075
-0.595585,0.136141,0.228996,-0.623969,-0.075302,0.777812
0.408927,0.315255,0.831881,-0.320954,-0.561570,0.762645
-0.148904,-0.310181,0.746708,0.912335,-0.259574,-0.316649
0.072162,0.164208,0.770653,-0.629425,0.512651,0.583964
-0.552412,0.049887,-0.099845,0.104190,-0.386596,0.916345
0.059763,0.265930,0.009697,-0.255721,-0.944384,-0.206750
0.155589,-0.251228,0.525397,-0.308175,0.600391,-0.737942
-0.190326,0.216196,0.618704,-0.599682,-0.778370,-0.185801
-0.362964,0.437413,0.958870,0.472729,0.007713,-0.881174
0.340951,0.034063,0.578262,-0.034904,-0.693213,0.719887
0.271418,0.760142,0.449472,-0.053701,0.399867,0.914999
-0.404707,0.334921,0.920932,-0.419125,0.882187,0.214664
-0.427238,0.048865,0.218815,-0.063817,0.126082,0.989965
-0.004060,0.235660,0.308259,0.981967,0.165113,0.092080
0.838465,0.044151,0.097472,0.245177,0.627846,-0.738713
0.068204,-0.047377,0.495348,0.345184,0.223397,0.911560
-0.535986,0.052910,0.762731,-0.574142,0.445373,-0.687026
-0.242720,0.049940,-0.959116,-0.302122,0.227840,0.925641
0.040156,0.114014,0.956153,-0.016243,0.919672,0.392352
-0.389256,0.439154,0.961915,0.664464,0.615299,0.424140
0.292190,-0.076775,0.054231,0.543221,0.272680,-0.794076
0.026001,0.271770,-0.303824,0.951850,-0.297123,-0.075499
0.065477,0.313820,-0.486722,0.152653,0.981667,0.114138
0.406977,-0.240933,0.418751,-0.401852,0.579079,-0.709353
0.142215,-0.355817,0.532746,0.481330,0.738497,0.472169
-0.007174,-0.263983,0.790375,0.691795,0.555920,0.460839
0.151955,0.277506,-0.656937,-0.293821,0.952775,-0.076735
0.245383,0.341477,-0.945335,-0.151960,0.273259,0.949862
0.158965,0.160982,-0.940360,-0.197354,-0.083026,0.976810
-0.116441,-0.536109,0.306443,0.970081,-0.225955,0.088806
-0.306349,0.249693,0.894124,-0.176717,-0.330532,0.927103
0.171174,0.282114,0.460748,0.784079,-0.506135,0.359233
0.295503,0.055727,0.612632,-0.615111,0.604866,-0.505743
0.529816,-0.159750,0.567231,-0.044405,0.080962,0.995728
-0.012627,-0.630813,0.497426,-0.855485,-0.106822,0.506690
-0.125207,0.300502,0.006555,0.447678,0.114202,-0.886872
0.173187,-0.150891,0.367736,-0.745611,-0.131435,0.653291
0.013340,-0.173837,0.731962,0.632168,-0.753812,-0.179251
0.183573,-0.283037,0.530618,-0.064501,-0.374583,0.924947
0.051517,0.129226,0.780555,0.802732,-0.569079,-0.178241
-0.450091,0.166206,-0.983306,-0.190339,0.167796,0.967272
0.153187,0.459743,0.226835,-0.504042,-0.172050,0.846369
-0.599223,0.060694,0.310060,-0.244492,-0.580885,0.776399
0.697774,-0.304241,0.038912,-0.719421,0.532493,0.445964
-0.653694,0.006046,0.301517,-0.344640,-0.406083,0.846357
-0.159682,-0.077904,-0.077619,0.785137,0.180865,-0.592323
-0.449960,0.223827,0.823501,0.893809,0.448413,-0.005661
0.094433,0.117394,-0.098307,0.959655,-0.171937,0.222485
0.489238,0.611762,0.520503,0.588269,-0.605151,-0.536407
-0.392113,0.526277,0.664678,0.156547,0.919211,-0.361310
0.363221,0.369137,0.857740,0.165922,0.350161,0.921877
0.013729,0.189051,0.010679,0.191926,-0.892259,0.408703
0.103844,0.344294,-0.347572,0.824051,-0.543213,0.160808
-0.040675,-0.171479,0.787642,-0.214046,0.605057,-0.766870
-0.136310,0.484583,0.660848,-0.037220,-0.984553,0.171086
0.234929,-0.183875,0.728165,0.989106,-0.146712,0.012033
-0.824576,-0.424758,0.375838,0.218751,0.032173,0.975250
-0.200846,0.147461,-0.967578,-0.089368,0.016568,0.995861
-0.522743,0.116371,0.232040,-0.280641,-0.131401,0.950776
-0.679665,0.117394,-0.999836,-0.003981,0.132116,0.991226
-0.045933,0.086204,0.951064,-0.588350,0.591174,-0.551687
0.003862,-0.185310,0.755219,0.746188,-0.471221,0.470270
0.046128,-0.034725,0.457262,0.273608,0.799371,-0.534924
-0.513260,0.097471,-0.982095,0.262259,-0.242123,-0.934129
0.075927,0.213379,0.899966,-0.082180,-0.894017,-0.440432
-0.229802,0.182852,0.452205,0.700783,-0.319983,-0.637585
-0.212077,-0.681775,0.291254,0.787353,0.365748,-0.496290
0.567668,-0.159241,-0.124543,0.217648,0.598140,-0.771271
-0.320242,0.437822,0.761946,0.047238,0.767766,0.638987
-0.504431,0.080927,0.717412,0.587313,0.763041,-0.269874
-0.408475,0.180086,0.442074,-0.567399,0.018579,0.823233
-0.468854,0.259578,-0.989247,-0.187919,0.241976,0.951911
0.492872,0.385271,0.578540,-0.588783,-0.185950,0.786611
-0.460089,0.172508,0.436149,0.214662,-0.206298,-0.954653
0.387243,0.392696,0.468114,-0.338592,0.865519,0.369096
0.076252,0.301528,-0.635087,0.683071,-0.723029,0.103166
-0.372506,0.414620,0.959001,0.883116,0.055171,-0.465899
0.002110,0.386909,0.287654,0.880672,-0.455653,-0.129602
-0.450416,0.346088,0.894467,-0.084819,0.780420,0.619476
0.360689,-0.468396,-0.222776,-0.655547,0.688933,-0.309240
0.206493,0.450011,-0.951964,0.134521,-0.049448,-0.989676
-0.018147,0.317406,0.362254,-0.083339,0.642898,0.761404
0.023532,0.118522,0.431337,-0.490276,-0.052064,0.870011
-0.198703,0.333846,-0.980475,0.369992,-0.198220,-0.907643
0.066773,0.272948,-0.616773,-0.699822,0.710418,-0.074534
-0.575851,0.180855,-0.989967,-0.323015,0.022940,0.946116
-0.339461,0.257017,0.242040,0.203232,0.112549,0.972641
0.311084,-0.584511,0.348440,0.922760,-0.109210,-0.369578
-0.222074,-0.384706,0.454906,0.965720,-0.256301,0.041165
-0.085216,0.120876,0.231532,-0.076353,-0.554455,0.828704
0.054437,-0.181930,0.529538,-0.261338,0.063016,0.963188
-0.641164,0.056496,0.806922,-0.576343,0.439938,0.688682
-0.484955,-0.173530,0.355527,0.108506,0.040974,0.993251
0.533256,0.507889,0.594023,-0.589903,0.435759,0.679800
0.014771,0.194685,0.324070,0.808245,0.584138,0.074313
0.444634,0.400533,-0.942193,-0.215443,0.190843,0.957687
0.448724,-0.270898,0.550144,-0.205623,-0.156541,0.966030
0.283429,-0.466399,0.117079,-0.522095,0.840363,-0.145626
0.194415,0.015009,0.524955,-0.531771,0.640928,0.553562
0.023211,0.886245,0.392810,0.166078,-0.977863,0.127291
-0.595977,0.371954,-0.081580,-0.093630,0.100125,-0.990560
-0.002566,0.190946,0.315985,0.798049,0.551423,0.243001
0.160395,0.501486,0.900245,0.909379,-0.277174,-0.310169
0.307058,0.549376,0.396280,0.869681,-0.477969,0.123293
0.257719,-0.636856,0.366181,-0.676606,0.261667,-0.688284
0.049179,0.246979,0.253005,0.967976,-0.157751,0.195290
-0.242201,0.250359,0.858019,0.905218,-0.392113,0.163791
-0.159944,0.150072,0.007897,-0.716206,0.349995,-0.603782
-0.116964,-0.323652,0.765465,-0.056630,-0.082916,0.994946
0.071837,0.284728,-0.089240,0.168487,0.980337,0.102721
-0.226231,0.334665,-0.978183,0.320063,-0.092565,-0.942863
-0.342707,-0.360018,0.260747,-0.671824,0.510526,0.536672
-0.213051,0.269619,-0.972929,-0.408911,0.345757,0.844537
-0.634799,-0.011010,0.801635,-0.289811,-0.919984,0.263894
0.175588,0.187410,0.038388,0.901388,0.340303,-0.267755
-0.610195,-0.092450,0.772535,0.560733,-0.186924,0.806621
0.244472,-0.386703,0.562664,0.325310,0.942863,-0.071990
-0.078463,0.162673,-0.958396,-0.247981,0.223645,0.942597
-0.574420,0.014955,0.225755,-0.559914,0.010161,0.828488
-0.012500,0.075959,0.633630,0.973426,0.191265,-0.125937
0.223045,-0.195554,0.428195,-0.288150,-0.427514,0.856856
0.316085,0.181161,0.570553,-0.208931,0.172691,0.962562
-0.126962,-0.213686,-0.059550,0.325029,-0.237185,-0.915478
0.050217,-0.031499,0.491289,0.000384,0.148404,0.988927
0.137606,0.156321,0.456231,0.661807,0.391182,-0.639522
-0.103392,-0.142081,0.692371,-0.616161,-0.753574,0.229067
-0.216428,0.204057,0.455593,-0.404508,0.363502,0.839190
-0.021329,-0.122414,-0.065573,-0.238140,-0.564358,-0.790436
0.162797,0.097111,0.064510,-0.647776,-0.462529,-0.605354
0.502030,-0.694836,-0.287032,0.226439,-0.616605,0.754005
0.188182,0.577033,0.869295,-0.682392,-0.369578,-0.630677
-0.181952,-0.272586,0.717248,0.634298,-0.769222,-0.077219
0.123844,0.465173,0.888461,0.428548,0.518414,0.739995
-0.005617,0.211332,0.911652,0.937338,0.319058,0.139996
-0.421005,0.097111,0.780358,0.715074,0.585609,-0.381748
-0.082747,0.384349,0.029190,0.610961,0.478202,-0.630911
0.047296,-0.590707,0.493482,0.860364,-0.248046,-0.445250
0.061776,0.069351,0.387115,0.960344,0.056264,-0.273083
0.399642,0.411597,-0.942569,-0.237009,0.192358,0.952274
0.027428,0.215327,-0.948805,-0.445044,0.097704,0.890163
0.268949,0.530375,0.690881,0.073776,-0.479068,0.874672
-0.605781,0.115140,-1.000000,-0.279793,0.055746,0.958440
0.877811,-0.007887,0.102169,-0.069732,-0.628186,0.774932
-0.383673,-0.167537,-0.108913,0.661982,-0.204320,-0.721133
-0.022498,-0.245185,-0.050434,0.549104,-0.552242,-0.627307
-0.398929,0.367293,0.913338,-0.254715,0.879786,0.401368
0.137606,-0.189511,0.761406,0.283671,0.607404,0.742019
0.077876,-0.346701,-0.015622,-0.302070,-0.150260,0.941369
-0.443989,0.060338,0.822797,-0.692645,0.678025,0.246018
0.391721,-0.415795,0.267523,0.995144,-0.071604,-0.067542
-0.730046,0.019054,0.807953,-0.119356,0.510528,0.851537
0.645511,0.425067,0.469914,0.697295,0.116940,-0.707181
0.070863,-0.143566,0.205378,0.138665,-0.786372,0.601989
-0.223374,-0.266902,-0.017962,0.229398,-0.067351,-0.971000
-0.111119,-0.233968,-0.038388,0.511311,-0.845150,-0.155827
-0.134753,0.664516,0.736381,0.215185,-0.711173,0.669275
0.055801,-0.105817,0.024133,0.572361,0.596984,-0.562150
-0.278495,0.261935,-0.979476,0.261427,-0.371326,-0.890939
0.328548,0.454006,0.393907,0.752304,0.647321,-0.122531
-0.872814,-0.080977,0.757969,0.540707,0.579032,-0.610211
0.078202,0.291846,-0.548196,0.911953,-0.396343,-0.106087
0.304918,0.527506,0.502598,0.859566,-0.121937,-0.496264
-0.140594,-0.166309,0.668262,-0.858438,0.144124,0.492252
0.076058,0.280629,-0.646086,0.918223,-0.367977,0.146491
0.395683,0.170457,0.511175,-0.050898,-0.259027,0.964528
0.157277,0.114014,0.158962,0.750056,0.555572,0.358825
-0.139492,-0.458461,-0.203889,0.027839,-0.332737,0.942609
-0.235904,0.293384,0.801504,0.426285,0.870016,-0.247694
-0.085604,0.376255,0.860736,-0.264163,0.903931,0.336341
-0.100472,0.305933,-0.947446,-0.182898,0.335218,0.924217
0.843272,0.123899,0.101138,-0.021059,-0.422736,0.906008
0.675052,-0.569349,-0.214314,-0.667076,0.669842,-0.326070
0.293815,-0.334306,0.197309,-0.485832,0.243586,-0.839424
-0.635449,-0.115140,0.782568,0.546126,0.186806,0.816609
-0.069242,-0.351056,0.831341,-0.817681,0.059325,-0.572607
-0.170072,0.253175,0.892323,-0.408788,0.402797,0.818931
-0.123194,-0.300399,0.451992,0.003614,-0.430674,0.902500
-0.967732,-0.056033,0.781455,0.434158,0.809792,-0.394644
0.165717,-0.776223,0.351959,0.129727,-0.334662,0.933366
0.539358,-0.263983,0.108192,0.487832,-0.794919,-0.360725
0.203961,-0.142797,0.464038,0.782433,0.405158,0.472911
0.199610,-0.388804,0.538425,-0.275867,0.377055,0.884153
0.109689,0.187667,0.475364,-0.359936,-0.880067,-0.309723
0.543321,-0.042922,0.145099,0.769962,0.339602,0.540212
0.146308,0.274636,-0.516968,0.356329,0.934356,0.002875
0.283361,0.071245,0.963322,0.319530,0.941507,-0.107077
-0.389644,0.539338,0.623712,-0.515383,0.145505,0.844517
-0.299402,0.556188,0.893485,-0.630278,-0.379258,-0.677431
-0.023081,0.236275,0.887332,0.103846,0.839466,0.533398
-0.535530,0.127944,0.423007,0.409172,0.395496,-0.822291
-0.519561,0.154786,0.436509,-0.378105,-0.076893,0.922564
0.074695,0.242112,0.216671,-0.740725,0.588813,-0.323457
-0.769324,0.001998,0.811242,-0.726949,0.330988,0.601657
0.153643,0.150637,-0.939803,-0.209664,-0.062383,0.975781
0.112483,-0.379482,0.356492,0.050352,0.223352,0.973436
-0.488268,0.269156,0.700554,0.408808,-0.316949,0.855815
0.009639,0.634811,0.875286,-0.174416,0.979714,0.098687
-0.038468,0.222239,0.521273,0.932533,-0.354953,0.066264
-0.169874,-0.346598,0.467312,-0.114015,-0.091911,0.989218
0.188962,-0.210050,0.719212,0.710677,-0.684272,0.163433
0.002760,0.052807,0.938232,0.642012,0.333425,0.690397
-0.185654,-0.011114,-0.955319,0.222831,-0.084015,-0.971230
-0.095602,0.057418,0.010728,0.267847,-0.257341,-0.928458
0.316735,0.052294,0.609195,-0.415346,0.528669,-0.740268
0.098003,0.423376,-0.955172,-0.375550,0.261012,0.889289
0.154356,-0.562897,0.532746,0.109164,-0.491007,-0.864289
-0.429184,-0.148330,0.697264,0.762486,-0.312470,0.566548
0.204607,-0.191509,0.688819,-0.364369,-0.924372,-0.113016
-0.188380,-0.081949,0.595561,-0.178400,0.428325,0.885839
-0.004904,0.319813,-0.957365,0.227788,-0.246736,-0.941931
0.097416,0.376615,0.891800,0.832379,-0.108575,-0.543467
-0.532673,-0.210663,0.360944,-0.503496,0.172451,-0.846613
-0.204548,0.178910,-0.582746,0.704560,0.704783,0.082928
-0.319136,0.243290,0.885089,-0.053000,-0.640160,0.766411
-0.007369,0.567968,0.693173,0.272760,0.415572,0.867700
0.205776,-0.379276,0.204740,0.199531,-0.408052,0.890888
-0.033534,0.131687,0.723009,-0.555378,-0.638266,-0.533078
-0.432366,0.261575,-0.988543,-0.217952,0.210171,0.953061
0.677584,-0.410828,0.139027,0.025593,-0.697566,0.716063
0.070086,0.216502,0.260027,0.998727,-0.027712,-0.042152
-0.030614,0.448220,-0.973928,-0.377026,0.208318,0.902471
0.020548,0.465376,-0.968740,-0.400941,0.107513,0.909773
-0.021979,0.382811,0.858379,0.089465,-0.327089,0.940749
-0.264860,-0.015109,0.604547,-0.527470,0.078755,-0.845916
0.169549,0.106996,0.980998,0.293764,0.603511,0.741268
0.365428,0.313667,0.866693,-0.508485,0.534860,0.674809
-0.411459,0.410265,0.745956,-0.428435,-0.482013,0.764269
-0.192339,-0.704978,0.301778,0.818129,0.253677,-0.516056
0.549554,-0.043485,0.019141,-0.451835,0.495329,-0.741953
-0.461389,-0.021717,0.748803,0.270944,-0.420561,0.865862
-0.191887,0.378509,0.000352,0.308577,0.216820,-0.926158
0.353937,0.520591,0.503548,0.803608,0.029245,-0.594440
-0.141244,-0.114883,0.711307,-0.064079,-0.779220,0.623466
-0.674145,-0.100234,0.786021,-0.394237,-0.165146,-0.904049
-0.367505,0.359968,0.613221,-0.631465,0.735074,0.246816
0.065604,0.273868,-0.176982,0.892722,0.309351,0.327641
-0.173449,0.391930,-0.981096,-0.302366,0.242470,0.921837
-0.102096,-0.377125,0.302908,-0.193530,0.497573,0.845557
-0.374194,0.185925,0.029534,-0.217325,0.148394,-0.964753
-0.164291,-0.020895,0.596380,-0.251776,0.290874,0.923039
0.147152,0.275406,-0.064608,0.426457,0.898982,0.099831
-0.145527,0.330057,0.861308,-0.192038,-0.121718,0.973810
-0.454569,-0.630710,0.288178,-0.668552,-0.322391,0.670151
0.111440,0.335947,-0.946661,-0.331956,0.455920,0.825798
0.474370,0.590094,0.529751,-0.505199,0.620432,0.599865
0.312447,-0.295072,0.386476,0.777935,-0.559403,0.286155
-0.115990,-0.338764,0.291058,-0.456118,0.002531,0.889915
0.314528,-0.075803,0.857151,0.887283,-0.319353,-0.332780
0.152736,0.365498,0.832945,-0.177919,-0.667332,0.723197
-0.527546,-0.362682,0.390715,-0.525636,-0.563952,0.636919
0.147929,0.067559,-0.141760,0.939206,0.163990,0.301660
-0.016134,0.229820,0.886251,0.007167,0.776166,0.630487
0.049959,-0.601771,0.544072,0.475848,-0.366174,-0.799678
0.465668,-0.410675,0.084428,0.296507,-0.503060,0.811797
0.326733,-0.362425,-0.191466,-0.731235,-0.584537,0.351584
0.084367,0.910573,0.415134,0.081413,-0.835335,0.543679
0.569356,-0.173580,0.167604,-0.332214,-0.340002,-0.879791
0.097615,0.304907,-0.604105,0.630854,-0.759322,0.159540
-0.072487,0.124105,-0.523008,-0.197612,0.387121,-0.900604
-0.469310,-0.140749,0.696331,-0.507238,-0.512228,-0.693060
-0.388348,-0.043332,0.748853,-0.046067,-0.607622,0.792889
0.397047,0.437053,0.670652,-0.343057,-0.200055,0.917764
0.402238,0.313770,0.393285,0.857999,-0.131173,-0.496619
-0.732773,-0.073243,0.788509,0.133408,-0.209750,0.968611
-0.083202,-0.058184,0.865040,0.196001,0.283184,0.938824
-0.107938,-0.282830,-0.064264,-0.576916,0.464969,0.671544
-0.055024,0.595934,0.887806,-0.683300,0.394178,0.614593
0.009770,-0.595678,-0.005229,0.055844,0.193539,0.979502
0.246615,0.495750,0.681274,-0.733574,0.676349,-0.066497
0.571301,-0.038567,0.536494,-0.346124,0.483710,0.803880
-0.359132,-0.182646,0.612452,-0.828555,0.559856,0.007653
-0.417435,0.149612,-0.982128,-0.156644,0.175405,0.971955
-0.018535,0.139830,0.273759,0.857620,-0.507286,0.084549
0.045347,0.277763,-0.036277,0.884094,-0.467091,0.014286
0.578704,0.566636,0.603892,-0.249925,0.239278,0.938234
0.112677,0.077035,0.369291,0.999252,0.025012,0.029498
0.383217,-0.478694,-0.222727,0.903675,-0.408962,0.126969
0.123000,-0.100697,0.834467,0.915421,-0.269872,0.298618
-0.283817,-0.061464,0.638442,-0.296387,-0.590666,0.750512
-0.833017,0.242728,0.777412,0.830787,-0.025025,-0.556028
-0.020616,0.205186,0.492140,0.872313,-0.279107,0.401459
-0.009512,-0.237451,0.780882,-0.015661,0.218712,0.975664
0.204349,0.137832,0.990540,0.293120,0.302262,0.907038
-0.296414,0.561975,0.873354,0.605633,0.381922,0.698100
0.239863,-0.057622,0.610963,0.838311,-0.207161,0.504300
-0.278364,0.548863,0.873256,-0.400941,-0.604365,-0.688469
-0.358482,0.492267,0.931865,0.011653,-0.998022,0.061773
-0.204611,0.090146,0.455347,0.243200,-0.799305,0.549514
0.923778,0.527302,0.533597,0.673974,-0.127713,-0.727632
0.105857,0.248158,0.037177,0.164692,-0.898447,0.407025
-0.059050,-0.666001,0.490159,0.442233,0.865252,-0.236153
-0.552281,0.399098,0.908248,0.832754,0.232927,-0.502260
0.309071,0.431829,0.860146,0.433744,-0.353299,-0.828882
-0.167215,-0.043126,0.593385,-0.363457,0.231655,0.902350
0.350560,0.534164,0.493466,-0.336741,0.769282,0.542964
0.056712,0.549017,0.923256,0.955402,-0.123455,0.268265
-0.169486,-0.453850,0.281549,-0.284576,-0.140958,0.948234
-0.337642,0.303782,0.934812,0.129841,-0.762718,0.633563
0.042557,0.565204,0.418359,-0.000616,0.211827,0.977307
-0.770494,0.109403,0.796365,0.221074,0.008761,-0.975218
-0.350172,0.325652,0.828493,0.826115,0.308387,-0.471627
0.259209,-0.513316,0.110009,0.081010,-0.893890,0.440905
0.203375,-0.171429,0.702682,0.817363,0.518816,0.250494
0.605063,-0.252456,0.086670,0.837684,-0.107864,0.535398
-0.419317,0.128201,-0.088356,-0.031881,-0.513044,0.857770
0.066317,0.237607,-0.655513,0.983550,-0.179574,0.019540
0.212984,0.388138,-0.948854,0.206406,-0.302790,-0.930438
0.175913,-0.251947,0.699278,-0.677468,-0.544376,-0.494663
0.821846,0.488475,0.501518,0.614330,-0.098705,-0.782851
-0.384778,0.222958,-0.983159,-0.173482,0.179083,0.968418
-0.188186,0.372363,0.912062,-0.699518,0.205815,-0.684335
0.173187,-0.319197,0.509358,-0.631019,0.100509,0.769229
-0.143776,-0.289695,0.792683,0.485814,-0.759711,-0.432231
0.779647,0.514341,0.375281,-0.345744,0.620937,0.703491
-0.253824,0.157140,-0.967119,0.174494,-0.064126,-0.982568
-0.384648,0.385937,0.950082,-0.414463,-0.609579,0.675747
-0.442752,0.314382,0.917364,-0.631040,0.639412,-0.439251
-0.012500,0.379072,0.864271,0.601106,0.671004,-0.434080
-0.362314,0.087945,0.748672,0.928935,-0.109073,0.353811
-0.031133,0.442380,0.207555,0.300133,-0.116370,-0.946773
-0.252072,-0.260856,0.450372,0.656689,0.705875,0.265518
-0.029964,0.175528,0.346558,0.739724,-0.658218,0.139846
-0.002110,0.196732,0.886038,-0.657776,0.736126,0.159527
-0.501380,0.109250,0.306328,0.273561,-0.445786,-0.852314
0.607726,-0.268234,0.555135,0.036007,-0.381018,0.923866
0.383542,0.451549,0.672174,-0.343057,-0.200055,0.917764
-0.232853,-0.095163,0.597935,0.210154,0.399762,0.892203
-0.028537,0.430035,0.760718,-0.785884,0.229599,0.574170
-0.301348,0.182186,0.458441,-0.332963,0.546184,0.768647
0.207856,-0.453184,0.361288,0.812268,0.114676,0.571901
-0.561177,-0.239808,0.610831,0.100517,0.384587,0.917600
-0.093006,-0.658933,0.000466,0.113221,0.321228,0.940209
-0.500536,0.508348,0.613548,-0.114874,-0.119590,0.986155
-0.583574,0.038927,0.797593,0.378309,0.658709,0.650373
-0.058075,-0.576214,-0.007308,0.117970,0.386847,0.914567
-0.174550,0.340045,0.848690,-0.813263,-0.423680,0.398872
-0.102421,0.384246,0.719998,-0.014084,-0.427766,0.903780
0.077746,-0.248874,0.770473,0.770906,0.636894,-0.008375
-0.173575,0.161085,0.860212,0.455491,0.423406,-0.783106
-0.784518,0.249180,0.752813,-0.166978,0.933142,-0.318377
-0.468985,0.359815,0.891750,0.112811,0.992036,0.056016
0.080603,-0.310541,0.812814,-0.255970,0.734418,0.628577
0.252456,0.043179,0.611159,-0.565531,0.454779,-0.688005
-0.583511,0.198680,-0.993224,0.335944,0.019561,-0.941679
0.060021,0.193506,0.934860,0.480363,0.181204,0.858147
-0.202079,0.242984,-0.249650,0.356603,0.314578,0.879702
0.157994,0.177219,-0.939230,-0.161376,-0.124552,0.979002
0.048141,0.205286,-0.034607,0.996407,-0.063753,0.055755
0.214736,0.571810,0.322057,-0.609934,0.567438,-0.553168
0.045933,0.128510,0.943780,0.032640,-0.889927,-0.454934
-0.780880,-0.385012,0.378227,0.249055,-0.101391,0.963167
-0.401592,0.252510,0.684007,-0.617486,0.596285,-0.512986
0.311278,-0.019410,0.556183,-0.245376,-0.939612,0.238580
-0.051842,0.145820,0.497966,0.729533,0.042005,0.682655
0.240965,0.147255,0.975925,0.027998,0.436508,0.899265
-0.286611,-0.379122,0.344463,-0.409076,-0.052260,0.911003
0.358740,-0.289542,0.203610,0.486986,0.251471,0.836425
0.256157,-0.237501,-0.159208,-0.057659,-0.459398,0.886357
0.286155,0.593577,0.478359,-0.715019,0.322576,0.620236
0.091964,-0.742623,0.352253,0.174370,-0.262478,0.949052
-0.259407,-0.298861,0.447148,-0.129745,-0.102543,0.986231
0.477422,-0.147102,0.562828,-0.245069,-0.412039,0.877590
0.117024,0.146436,0.974452,0.432824,-0.899172,0.064439
0.014509,0.141621,0.945859,-0.142853,0.797853,0.585682
0.393995,-0.019360,0.183479,-0.170022,0.318024,-0.932713
-0.210777,-0.582667,0.335314,0.792633,-0.606124,-0.065929
-0.070217,0.067609,0.007390,-0.171771,0.454222,0.874172
0.045220,0.254763,0.278636,0.941383,-0.336716,-0.020499
-0.061776,0.178754,0.367229,0.860439,-0.469298,-0.198504
0.656226,-0.395463,0.135770,0.060026,-0.625933,0.777563
-0.015484,0.466914,0.884680,-0.437388,-0.030125,-0.898768
-0.084502,0.455544,0.265771,0.669993,-0.664582,-0.330819
-0.034442,-0.563256,-0.016260,0.145193,0.283597,0.947888
0.364584,0.282933,0.626887,-0.420404,0.904175,-0.075684
-0.062038,0.498054,0.689785,-0.734954,0.425329,0.528145
0.222332,0.096089,0.162023,-0.156450,0.366778,0.917059
-0.270835,0.254457,0.654891,-0.336055,-0.852974,-0.399378
-0.607988,0.335640,0.758509,0.962208,0.270581,0.030697
-0.406593,0.401662,0.898003,0.515716,-0.469980,-0.716349
0.394253,-0.495544,-0.226393,-0.144598,0.924488,-0.352724
-0.588575,0.528581,0.957479,-0.139627,0.434715,0.889678
-0.312903,0.393771,-0.009419,-0.164237,-0.307291,0.937336
0.060476,0.258605,0.158160,0.269161,0.962986,0.014510
-0.091187,-0.058081,0.467131,-0.430010,-0.157727,-0.888940
-0.697453,-0.051935,0.788313,0.001147,-0.345859,0.938286
-0.569748,0.224393,0.424153,-0.081759,-0.179117,0.980425
-0.333874,0.576983,0.955188,0.153578,0.940495,0.303123
0.034961,-0.177576,0.181483,-0.157731,-0.903697,0.398062
0.069373,-0.071861,-0.054313,-0.294023,0.491806,0.819559
-0.036328,0.095370,0.928232,0.973236,-0.059687,0.221923
0.036455,0.151610,0.490487,0.154633,-0.371467,0.915478
0.068267,0.004558,0.847773,-0.242528,-0.631503,-0.736467
-0.450479,0.271410,0.693385,-0.488022,0.527222,-0.695608
0.485018,0.429832,0.591241,0.279866,0.106589,-0.954104
0.088980,-0.122771,0.462893,0.029629,0.231207,0.972453
-0.087617,0.727671,0.358571,0.100991,-0.765096,0.635948
-0.792891,-0.282727,0.372826,-0.706947,0.491387,0.508689
0.264598,0.325293,0.455855,0.895754,-0.141092,-0.421565
-0.331991,0.014649,0.790064,0.466873,-0.879546,0.091813
0.353739,0.395669,0.657264,-0.346170,-0.177329,0.921260
0.305762,0.416717,0.840637,0.432480,-0.006176,-0.901622
-0.017565,0.618727,0.887413,-0.437053,0.549783,0.711845
0.219217,0.346754,-0.946857,-0.148662,0.375140,0.914970
-0.404318,0.237707,0.677117,-0.072691,0.997352,0.002087
0.358803,0.105821,0.826447,0.542608,0.078952,0.836268
0.093846,0.315867,-0.613401,-0.685903,0.723924,-0.073962
0.312709,-0.575495,0.369831,-0.433937,0.747215,0.503358
-0.544102,0.031346,0.811291,0.401312,-0.820218,0.407666
-0.107807,0.461947,0.688164,-0.577965,0.815916,-0.015401
0.102481,0.211791,0.890081,0.584675,0.507461,0.632961
-0.085865,-0.297173,-0.008879,0.155028,0.439941,-0.884544
0.336342,0.673225,0.444464,-0.291548,0.575068,0.764393
-0.122675,0.237248,0.721062,0.966858,0.120423,0.225130
-0.519105,-0.249077,0.608507,0.166912,0.399646,0.901345
0.052943,0.565304,0.912340,0.840803,-0.319438,0.437046
-0.426977,0.197808,0.437999,0.457883,0.382834,-0.802360
-0.281610,0.316690,-0.983224,-0.221100,0.139849,0.965172
-0.271418,0.123183,-0.972275,-0.419733,0.115891,0.900218
-0.408602,0.050606,-0.971195,-0.157643,0.303850,0.939587
0.283036,-0.608636,0.539407,0.221366,0.482798,0.847292
-0.097678,0.194122,0.636413,-0.057250,-0.990810,0.122548
-0.017953,0.510090,0.886906,0.932604,-0.334264,0.136077
0.154424,0.496622,0.894206,-0.872550,0.221634,0.435356
-0.259407,0.066174,0.719523,0.850243,0.355396,-0.388305
0.056062,0.098852,-0.946023,-0.067825,0.033965,0.997119
0.043465,0.236172,0.183299,-0.435303,0.857734,-0.273503
-0.030546,0.001588,0.854598,0.084878,0.495367,0.864527
-0.100928,-0.301015,0.791111,0.161007,-0.954296,-0.251787
-0.000228,0.160725,0.365117,0.828012,-0.543648,0.137268
0.614673,-0.268950,0.031301,0.437105,0.748898,-0.498087
0.050154,0.296817,-0.209813,0.385492,-0.910551,0.149311
0.202986,-0.094448,-0.145999,-0.447221,-0.347997,0.823949
0.211684,0.323961,0.436509,-0.677175,-0.196751,0.709030
-0.402824,0.367652,0.899214,-0.114150,-0.646096,0.754672
-0.023148,-0.589632,-0.012120,0.317842,0.271872,0.908329
0.053142,0.060491,0.858755,-0.120521,0.401636,0.907835
0.537218,-0.364063,0.177735,-0.336949,0.033580,-0.940924
0.115403,0.296304,-0.661863,-0.330996,0.931466,0.151042
0.283686,-0.281908,0.334626,0.070736,0.292338,0.953695
-0.393932,0.263676,0.902356,-0.304487,0.371971,-0.876884
0.180780,0.058597,0.799638,0.445864,-0.105863,0.888818
0.284792,-0.288054,0.343857,0.438921,0.418886,0.794911
0.281348,0.422710,0.654842,-0.157507,0.125803,0.979472
-0.162670,0.286622,0.800211,0.260733,0.962705,-0.072225
-0.018084,-0.110019,0.472451,-0.571351,0.813408,0.109204
-0.065739,0.157499,0.386804,0.415427,0.370318,-0.830834
0.170524,0.017519,0.826365,0.012990,0.959164,0.282551
0.331278,0.225006,0.145623,-0.066865,0.641483,0.764217
0.280635,-0.039949,0.855465,0.484128,0.439125,-0.756829
0.184223,0.230076,0.411288,-0.564916,0.707760,0.424201
-0.387374,-0.686693,0.261598,-0.520398,-0.049959,0.852461
0.111115,-0.207999,0.342417,0.214487,-0.110058,0.970506
0.501055,-0.193453,0.564857,0.209934,-0.080583,0.974389
-0.136893,0.247645,-0.965270,-0.361472,0.131569,0.923054
-0.052040,0.104642,0.439079,-0.130247,-0.577431,-0.805983
0.505081,-0.153094,0.566772,-0.010134,-0.009631,0.999902
-0.590199,0.216299,-0.080532,0.202951,-0.177021,0.963055
0.170980,0.902789,0.388866,-0.093275,0.220052,0.971019
-0.166177,0.141621,0.889115,-0.422038,-0.609801,0.670840
0.710241,0.045432,0.489407,0.407223,-0.075963,-0.910164
-0.258305,-0.675783,0.288767,0.578123,0.011366,-0.815871
-0.305505,-0.407652,0.289078,0.499495,-0.426034,-0.754321
0.262391,0.237298,-0.937070,-0.017908,0.163882,0.986317
0.025351,0.156014,0.921243,-0.299922,0.127620,0.945389
-0.027432,0.591736,0.697526,0.383705,0.027868,0.923035
0.078915,0.328316,0.826120,0.055677,-0.708976,0.703031
-0.820938,-0.383680,0.379095,-0.113317,0.094280,-0.989076
-0.218246,0.365142,0.910801,0.241121,0.604403,-0.759314
0.053463,0.016287,0.684007,0.908482,-0.257668,-0.329040
0.093394,0.455798,0.305952,0.307330,-0.579444,-0.754846
0.055087,-0.650379,-0.010352,0.116449,0.193556,0.974154
-0.414577,-0.172914,0.612141,-0.212217,-0.316495,0.924551
0.103000,-0.514648,0.515430,-0.510382,0.624587,0.591101
-0.310763,0.267312,-0.981375,0.203373,-0.343913,-0.916713
-0.056648,0.066174,0.933731,-0.568965,0.296803,-0.766933
-0.080151,0.325909,-0.962291,0.560332,-0.099979,-0.822212
0.083072,-0.340658,0.533417,0.624832,0.040654,0.779700
0.417756,0.501333,0.577853,0.234353,0.243574,0.941143
0.034505,-0.233559,0.769540,0.974481,0.117366,0.191341
-0.003992,-0.275659,0.808100,0.063354,0.756403,0.651030
-0.439701,0.361350,0.891570,-0.137407,0.947564,0.288516
-0.311282,0.328622,0.903518,0.026415,-0.753858,0.656507
-0.341862,0.284522,0.888870,-0.178875,-0.060330,0.982020
-0.018666,0.328622,0.761978,0.948986,-0.259667,0.178881
0.265704,-0.036160,0.849311,-0.500268,0.090916,0.861084
0.305438,-0.324317,-0.163725,0.694637,0.612265,-0.377638
-0.639606,0.026891,0.787674,-0.587151,-0.256619,-0.767724
0.496898,0.471422,0.576216,-0.553166,0.426110,0.715848
0.141826,0.320838,0.892209,0.743177,-0.044073,0.667642
0.167342,0.079083,0.973388,0.518491,0.637358,-0.570037
-0.132284,0.051628,-0.571830,-0.533084,-0.756742,0.378368
0.303099,-0.000460,0.865204,-0.760907,0.398598,0.511997
0.032817,0.040721,-0.086212,-0.203830,0.472852,0.857242
0.330497,0.427115,0.681667,-0.060477,-0.142218,0.987986
0.028470,-0.393618,0.811799,0.739375,0.401937,-0.540158
-0.370754,0.485762,0.970884,0.030353,0.600892,-0.798754
0.659598,0.386141,0.390846,0.110789,0.412724,0.904093
-0.233828,0.176553,-0.546559,0.333771,0.925970,-0.176569
0.177470,0.249796,0.046506,-0.158841,-0.590719,0.791088
-0.560721,-0.010960,0.768689,-0.770314,0.463741,-0.437677
0.373544,0.397717,-0.942324,0.292340,-0.153660,-0.943889
-0.006786,0.203391,0.440748,0.402726,0.899792,0.167886
0.234735,-0.548760,0.368604,0.385967,0.540520,0.747575
-0.354650,0.374464,0.940114,-0.356403,0.120912,-0.926476
-0.099433,-0.471982,0.275837,0.919033,-0.388435,-0.067052
0.068655,0.624157,0.787134,-0.643993,0.655493,0.394464
-0.220973,0.355257,0.838067,0.308577,0.843336,-0.439959
-0.016653,0.046967,0.377965,0.917139,0.385899,-0.099688
-0.027951,0.451806,0.726986,0.834591,-0.550332,0.024327
-0.364521,-0.480845,0.434889,0.816937,0.099658,-0.568052
-0.205324,-0.355101,0.347605,0.068218,-0.185530,0.980268
0.567798,-0.140237,-0.124003,0.212630,0.535701,-0.817199
0.400875,-0.162260,-0.136474,0.149645,0.693366,-0.704875
0.284661,-0.689050,0.019305,0.721959,0.474731,-0.503395
0.336537,0.314792,0.845253,-0.123880,-0.930424,0.344913
0.159163,-0.473520,-0.150042,-0.348925,-0.507978,0.787534
-0.152022,-0.025813,-0.167211,-0.471798,-0.881391,-0.023590
0.611947,-0.143310,-0.118520,0.227711,0.540154,-0.810173
-0.521443,0.036879,0.750734,0.941645,0.059641,0.331281
-0.051584,0.194428,0.490356,0.947954,-0.186954,0.257744
0.293232,-0.329851,-0.178193,0.712489,0.625667,-0.317648
0.237331,0.288620,0.428490,0.958878,-0.278144,-0.056475
0.239213,0.465479,0.649702,-0.794519,0.307387,-0.523692
-0.405293,0.229257,0.726790,0.308701,0.892221,0.329613
-0.208443,-0.543074,0.356378,0.684207,0.366200,-0.630681
0.280504,0.065152,0.955515,-0.255619,0.899457,0.354453
-0.824382,-0.092450,0.221287,-0.398587,-0.697812,-0.595135
-0.024769,-0.492624,0.463236,0.750299,0.114279,0.651147
0.090212,0.122464,0.959673,-0.277452,0.874942,0.396860
0.426846,0.238989,0.428228,-0.223106,0.714745,0.662845
-0.269599,0.217168,-0.002938,0.049155,0.168062,0.984550
-0.600716,0.241702,0.765890,-0.681721,-0.082398,-0.726957
-0.482423,0.227566,0.426068,0.062589,0.469592,0.880662
-0.015159,-0.492318,-0.178046,-0.194916,-0.452971,0.869957
-0.092225,-0.316174,0.457426,0.065730,0.624529,0.778231
-0.678627,0.055061,0.799671,-0.702544,0.385988,0.597868
-0.081709,0.299890,0.559456,0.364581,0.015238,0.931047
0.348872,-0.222648,0.183561,0.086761,-0.203085,0.975310
0.069955,0.291796,-0.616282,-0.699822,0.710418,-0.074534
0.165392,0.452265,0.320600,-0.343053,0.025522,-0.938969
-0.328096,0.213533,0.858280,0.664162,-0.224761,0.713002
-0.249215,0.362325,-0.000908,-0.269680,-0.293423,0.917156
-0.003279,0.223008,0.860490,0.812905,0.579663,0.056361
0.163316,-0.780834,0.349078,0.129727,-0.334662,0.933366
-0.629735,0.226234,0.736446,0.379107,-0.100369,-0.919893
0.129558,0.318584,-0.632010,-0.113621,0.985027,-0.129659
-0.862166,-0.048502,0.268717,-0.857350,0.436782,0.272347
0.598180,-0.344550,0.139257,-0.583125,-0.674221,0.453202
-0.457882,0.015265,0.710456,0.448458,0.519978,-0.726986
-0.312582,-0.511781,0.440667,0.444786,0.051567,-0.894151
0.294009,0.364629,0.445446,0.980356,-0.120118,0.156442
-0.661227,0.293897,0.772748,0.913831,-0.302627,0.270796
-0.182341,0.152838,0.010467,-0.424619,0.399288,-0.812569
0.080603,0.123796,0.722109,0.630283,-0.441253,0.638779
0.162147,0.499283,0.888985,0.869864,-0.387552,-0.305187
-0.607663,0.193966,0.046228,0.401217,-0.183363,0.897442
-0.135335,-0.529297,-0.049681,0.948613,-0.150843,-0.278172
-0.097159,0.231921,0.779998,0.405043,0.648554,0.644452
0.007499,-0.051782,0.447475,0.683142,-0.316297,-0.658235
-0.213182,0.295841,-0.979394,-0.411720,0.306908,0.858076
-0.414966,0.284984,0.235509,-0.002440,0.171573,0.985168
-0.300829,0.279041,0.890736,0.197097,-0.036682,0.979697
-0.105924,-0.050194,0.729703,0.151460,-0.878310,0.453467
0.078720,0.230539,0.947790,-0.568892,0.318153,0.758380
0.240382,-0.618777,-0.218897,0.402922,-0.810904,0.424367
0.148967,0.411547,0.421959,0.637054,-0.099309,-0.764395
0.259859,0.013880,0.586641,-0.268584,0.934389,-0.234053
-0.103392,0.052091,0.042676,-0.382708,0.760257,0.524923
-0.112352,0.197295,-0.961162,-0.194933,0.158648,0.967901
0.167405,-0.577290,-0.190272,0.496718,-0.809913,0.311947
-0.370493,0.544665,0.964451,0.060865,0.567625,0.821034
-0.072749,0.094398,0.433187,-0.220534,-0.344803,-0.912401
-0.048921,0.249080,0.688950,-0.480373,0.851000,-0.212228
0.419186,-0.566173,-0.194298,0.201910,0.977121,0.066832
-0.186430,0.341274,0.866071,0.512944,-0.653997,-0.556037
0.305243,-0.038208,0.046850,0.112734,0.395531,-0.911508
-0.371012,-0.503278,0.268325,-0.363869,0.099178,0.926155
0.378541,-0.162210,0.062235,0.161357,-0.509006,0.845504
-0.343808,0.125487,-0.968527,0.322815,-0.106810,-0.940416
-0.287130,0.477824,0.933568,-0.001145,-0.567533,0.823350
-0.387631,-0.102129,0.711733,0.896662,-0.442669,0.006432
-0.014446,-0.279910,-0.040238,-0.615445,-0.305419,-0.726599
-0.449053,0.453750,0.972029,-0.076647,0.364066,0.928214
-0.713942,-0.263367,0.373776,-0.144726,0.430464,0.890929
0.039962,0.273151,-0.387982,-0.514605,0.857427,-0.000955
-0.171043,0.298301,0.746905,0.557737,0.717305,0.417616
0.521506,0.308749,0.432385,-0.255839,0.216315,0.942207
-0.107224,-0.448936,0.490241,-0.370427,-0.385563,-0.845060
0.011133,0.135219,-0.209355,-0.807514,0.407864,0.426108
-0.161240,0.274124,0.848624,0.391595,0.907965,0.149174
-0.366986,0.087379,0.448997,-0.390456,-0.419257,0.819614
-0.560463,0.163083,0.735186,-0.334977,-0.366231,0.868139
0.229734,-0.560337,-0.238177,-0.320818,0.843091,-0.431594
0.108262,0.496722,0.366574,0.891780,0.354175,0.281581
0.035543,0.072424,0.490323,0.346006,0.228944,0.909871
0.101704,0.276328,0.928461,-0.490478,0.536366,0.686836
-0.354325,-0.234684,0.443891,0.415041,0.499352,-0.760519
0.733744,0.055164,0.091646,0.103578,0.823842,-0.557275
0.084692,0.501383,0.890327,0.251097,-0.889503,0.381752
-0.724071,-0.422504,0.377524,0.233601,0.035917,0.971669
-0.497810,0.062642,0.239126,-0.008118,0.211129,0.977425
-0.398929,0.384606,0.936579,0.953804,-0.271962,-0.127653
0.559877,0.011626,0.489243,-0.033899,0.298175,0.953909
-0.163126,0.313614,-0.974893,0.401613,-0.250767,-0.880808
-0.432235,0.104026,0.428130,0.220829,0.541132,0.811425
0.657914,-0.038361,0.484709,-0.038083,0.193411,0.980378
-0.678690,-0.377894,0.375265,0.238908,0.110490,0.964736
0.053918,0.283855,0.813288,0.238319,-0.962792,0.127421
0.528711,0.479463,0.584678,0.900641,-0.375575,-0.218606
-0.134040,-0.220291,0.432090,0.743577,-0.642410,-0.185477
-0.442364,0.034369,0.742175,-0.584472,-0.397043,-0.707636
-0.226751,0.337279,0.845023,0.286758,-0.328877,0.899783
0.197272,-0.937052,0.336509,0.385992,0.453069,-0.803578
0.039442,0.068788,0.701323,0.915393,-0.289672,0.279546
0.045220,0.216402,-0.602075,0.995896,-0.072433,0.054263
-0.626490,0.307111,-0.072104,0.101297,-0.078359,0.991765
0.082030,-0.528990,-0.016588,0.138798,-0.253024,-0.957452
-0.092875,0.202009,0.643581,-0.003278,0.999709,0.023884
0.066123,0.115552,0.009468,-0.461148,0.170376,0.870813
0.108195,-0.433824,0.816447,0.157557,-0.022738,-0.987248
0.197209,0.011783,0.787363,0.144038,0.148127,0.978423
-0.281221,0.293178,-0.983208,-0.225901,0.196578,0.954110
-0.352637,0.118725,0.438113,0.756380,-0.120312,-0.642974
-0.168967,-0.107765,0.710325,0.357084,0.689801,-0.629814
-0.062814,-0.549939,0.363186,-0.169254,-0.102717,0.980205
0.007824,0.477312,0.215657,-0.166891,-0.473336,0.864928
-0.073593,0.632401,0.709621,-0.258098,-0.842688,0.472506
-0.512614,0.151813,-0.088241,0.098763,-0.292016,0.951301
-0.058012,-0.748260,0.012529,0.346918,0.402061,0.847346
-0.173773,0.168869,-0.569653,0.483273,0.780488,-0.396592
0.457945,0.266443,0.428539,-0.256038,0.596559,0.760632
-0.029964,0.169022,0.426133,-0.141400,-0.249190,0.958076
0.095796,-0.155092,0.380601,0.792843,0.596442,-0.125126
0.317967,0.451649,0.600717,-0.430362,0.181293,0.884263
-0.223893,0.393209,0.732338,-0.837482,0.166528,-0.520473
-0.183640,0.099262,0.193218,0.979211,-0.092914,-0.180314
-0.033015,0.246467,-0.535070,-0.115090,0.301761,-0.946411
0.172212,-0.303369,0.516608,0.868315,0.492641,0.057738
-0.430614,0.034472,0.332482,0.293319,0.445267,-0.845991
0.269143,0.420303,0.064084,-0.613330,0.631526,0.474342
0.226358,-0.037339,0.537672,0.890057,0.017782,-0.455503
-0.063008,-0.250206,0.456035,0.912865,-0.318656,0.255219
0.045153,0.012089,0.395527,0.964632,-0.262638,-0.022501
0.283880,0.944789,0.398686,-0.404975,0.512057,0.757491
-0.311738,-0.302806,0.611224,0.665724,-0.271570,-0.695026
-0.376726,-0.020948,0.700636,-0.360958,0.154397,-0.919712
-0.047102,-0.183262,-0.024149,-0.117607,0.504130,0.855583
0.240121,-0.494878,0.529718,0.457631,-0.196978,0.867049
-0.212532,0.139214,0.005884,0.211236,-0.471813,0.856021
-0.303361,0.070786,0.845613,0.857866,-0.375125,0.351209
-0.143713,0.321504,0.590406,0.888588,0.255324,0.381078
0.170136,-0.237657,0.535856,-0.270233,-0.191720,0.943513
0.083460,0.182186,0.057947,0.900145,0.295429,0.320093
0.062164,0.235710,0.114395,0.891905,-0.418540,0.171262
-0.136572,-0.159084,0.669490,-0.858438,0.144124,0.492252
-0.648241,0.213483,0.739392,-0.527851,-0.016397,-0.849178
0.768155,0.509067,0.470699,0.629395,-0.355429,-0.691037
-0.410032,0.128151,-0.088487,0.003456,-0.509903,0.860225
0.225514,-0.539848,0.530765,-0.353199,0.110645,-0.928982
-0.496771,-0.332308,0.409848,-0.476077,0.863824,-0.164798
0.399900,0.092450,0.507705,0.101659,-0.091505,0.990602
-0.052817,-0.319966,0.453858,-0.138855,0.449469,0.882438
-0.084177,0.532832,0.674678,-0.406223,-0.709797,0.575474
0.157863,0.513522,0.424742,0.414241,0.059518,-0.908219
-0.656289,0.190893,0.764515,-0.694083,-0.719887,0.003383
-0.270510,0.954211,0.369684,0.886935,0.383062,-0.258087
0.046064,0.916359,0.432974,-0.134212,-0.693198,0.708141
0.037362,0.222548,0.187293,-0.121885,0.926449,-0.356140
-0.497615,0.098290,0.815056,-0.589370,0.693981,-0.413561
-0.768417,-0.447654,0.378195,-0.288926,-0.063189,-0.955264
0.225451,0.505585,0.366820,-0.414358,0.204231,0.886903
-0.334329,-0.113092,0.603794,0.647705,-0.416836,-0.637751
0.448791,0.370213,0.590013,0.532945,0.397851,-0.746783
0.289658,-0.896690,0.339635,-0.264685,-0.219513,0.939019
0.121894,-0.309721,0.772977,0.594391,0.705180,0.386551
-0.453273,0.373898,0.744875,-0.205884,-0.559327,0.802973
0.493391,-0.001229,0.166425,0.872559,0.113117,0.475231
0.625452,-0.435822,0.125770,-0.124855,-0.755197,0.643497
-0.224349,0.400687,-0.984599,-0.223312,0.133333,0.965585
0.096315,0.287698,-0.177702,0.893921,0.371589,0.250654
-0.497354,-0.003636,0.263742,-0.150325,0.082742,0.985168
-0.661551,0.033087,0.775367,-0.504053,-0.043767,-0.862563
0.388214,0.069814,0.092628,-0.483197,-0.495478,0.721819
-0.266548,0.064896,0.436624,-0.009354,-0.832031,0.554651
-0.264015,0.266340,0.906579,-0.630280,0.762228,-0.147498
0.548449,-0.621184,0.043740,-0.235217,0.585785,-0.775583
-0.615260,0.127382,0.732060,0.249783,0.023513,0.968016
0.199804,0.274586,0.649735,0.110112,0.194257,-0.974751
0.331666,0.021767,0.439046,0.777476,-0.248928,0.577552
-0.681028,0.070683,0.313824,-0.225810,-0.156704,0.961485
0.159746,-0.447141,0.182530,0.127540,-0.928614,0.348439
-0.046845,-0.444734,0.476444,-0.409246,-0.272107,-0.870905
0.370556,0.287032,-0.939885,-0.150387,0.212756,0.965463
0.115078,-0.048299,0.041694,0.647496,0.448639,-0.616013
0.117868,-0.041897,0.460127,-0.548741,-0.206630,0.810054
-0.350755,0.084050,0.791701,0.680941,0.727748,-0.081873
-0.445803,0.185516,0.742436,-0.322504,0.594224,0.736810
0.100468,0.474851,0.886022,0.485179,-0.036073,-0.873671
-0.330109,0.507326,0.646871,0.124720,0.989450,0.073719
0.050609,0.132556,0.485675,0.295237,-0.136484,0.945625
-0.105148,0.327290,-0.966972,-0.461698,0.173814,0.869841
-0.014640,0.567098,0.230714,0.016579,-0.659324,0.751676
-0.628503,0.225878,0.739163,0.379107,-0.100369,-0.919893
0.175719,0.100237,0.989607,0.488951,0.601312,-0.631942
-0.164489,-0.184184,-0.079190,0.621074,-0.150916,-0.769085
-0.936181,-0.043076,0.786332,0.743041,0.665181,-0.073645
0.058725,0.301887,-0.191139,-0.018037,-0.995752,0.090291
-0.270185,-0.198114,0.603532,-0.077011,0.005058,0.997017
-0.198247,0.091274,0.843534,0.784428,-0.150687,-0.601636
0.521376,0.514085,0.591273,-0.589903,0.435759,0.679800
0.202855,0.562641,0.374725,0.270338,0.171791,-0.947315
0.210971,-0.070170,0.832879,-0.404669,0.603294,0.687226
-0.126245,0.350443,0.267801,-0.744984,0.439075,0.502207
-0.282973,0.362479,0.909410,0.529581,-0.537466,0.656258
0.151111,0.071042,0.080402,0.316647,-0.429147,0.845913
0.066385,-0.177372,0.797347,-0.680382,0.073124,0.729201
0.039181,-0.083587,0.719654,-0.723394,-0.664126,-0.188780
0.026976,-0.512344,-0.013658,0.123353,-0.262103,-0.957124
0.011914,0.559005,0.690685,-0.403918,-0.779916,-0.478102
-0.276938,-0.683107,-0.229912,-0.268098,-0.456980,0.848111
-0.194027,0.085282,0.161810,-0.768431,0.583641,-0.262443
-0.263108,-0.322013,-0.062267,-0.783671,0.608245,-0.126085
-0.447947,-0.254867,0.612027,-0.432951,0.312574,0.845489
-0.185978,-0.471779,0.477410,0.842350,0.263822,-0.469942
0.329717,0.475621,0.659392,-0.528280,-0.417573,0.739292
-0.550204,-0.150994,0.179715,-0.327678,0.865348,-0.379208
-0.371273,0.243137,0.896415,0.483073,0.650664,0.585899
-0.373607,0.438078,0.959329,0.732832,0.653934,0.187958
0.003731,0.448373,0.881358,-0.187499,-0.012423,0.982186
0.107093,0.350696,0.726905,-0.386005,0.689747,-0.612576
0.310953,-0.314383,0.526838,0.615562,0.077017,-0.784316
-0.027432,-0.304907,-0.038650,-0.622922,-0.321874,-0.712998
0.517417,0.050247,0.101269,0.250305,0.966120,-0.062919
0.159551,0.300452,0.649735,0.295902,-0.119478,-0.947717
-0.017240,-0.400327,0.327540,0.440422,0.858694,-0.262057
-0.811460,-0.053420,0.781079,-0.055380,-0.898342,0.435791
0.584612,0.241602,0.418817,0.289379,-0.572944,-0.766809
-0.740888,0.072117,0.794908,-0.066769,0.245100,0.967196
-0.003346,0.098393,0.930949,0.966171,-0.216342,0.140391
-0.374519,-0.320425,0.441076,-0.345529,0.826911,0.443654
0.321474,-0.532167,0.354397,-0.082567,0.817542,0.569919
-0.336798,-0.305929,0.448130,-0.735671,0.255436,0.627328
0.300242,0.279451,-0.938412,-0.069322,0.185111,0.980270
-0.087098,0.063921,0.442303,0.346314,0.283360,0.894301
0.135593,0.284215,-0.201565,0.811260,0.448397,-0.375229
0.109301,0.231664,-0.943944,-0.377631,-0.287450,0.880209
0.050736,0.233868,0.121777,0.997467,0.052221,0.048290
0.427171,-0.470344,0.141875,0.390296,-0.851473,-0.350233
-0.197728,-0.092963,0.124641,0.856902,0.493330,-0.149479
-0.047558,0.225774,0.013069,0.181025,0.141069,-0.973308
0.096053,0.028889,0.013544,0.621243,0.206821,-0.755832
-0.360301,-0.469831,0.415756,-0.257367,-0.170992,0.951065
-0.243307,0.281602,0.849066,0.989034,-0.144353,0.031216
-0.091124,0.312079,-0.967905,-0.440426,0.170023,0.881542
-0.174744,0.108381,0.302237,-0.641163,-0.754829,-0.138359
-0.166954,0.183415,0.216802,0.250132,0.684399,-0.684859
-0.399321,0.272383,0.682665,-0.632323,0.527282,-0.567575
-0.550660,0.301321,0.696250,-0.253101,-0.797515,0.547640
0.266353,-0.199753,-0.032594,0.751331,0.634593,-0.181090
0.000160,0.092400,0.363628,0.830538,0.551415,-0.078409
0.164746,0.008044,0.845154,0.911812,-0.373061,0.171535
0.176757,0.093425,0.984092,-0.154808,-0.630978,0.760198
-0.375232,0.067303,-0.972455,-0.262592,0.246897,0.932785
-0.576108,-0.259372,0.363383,-0.498703,-0.036430,-0.866007
-0.467685,-0.433621,0.252449,0.743148,-0.214178,-0.633923
0.561173,-0.167384,-0.129125,0.258204,0.672081,-0.694001
0.508457,-0.644027,0.088078,-0.578811,0.793706,-0.187107
0.083785,-0.545431,-0.011956,0.119226,-0.246880,-0.961684
-0.006850,0.826470,0.398293,-0.420746,0.261959,0.868533
0.341339,-0.062333,0.191434,0.056223,-0.028343,0.998016
0.296609,0.049734,0.060189,0.729289,0.203634,-0.653200
-0.236035,0.072167,0.000859,-0.000907,-0.059164,0.998248
0.132411,-0.129736,0.823681,0.938805,0.333625,-0.085665
-0.108587,-0.095830,0.711062,0.049481,-0.816731,0.574893
0.064827,0.282217,-0.139927,0.926931,0.372653,-0.043926
-0.050090,0.258246,-0.242367,-0.334723,0.929552,0.154578
0.280441,-0.375077,0.157784,-0.468694,0.881842,-0.051774
0.030546,-0.047736,0.825449,0.893712,-0.254555,0.369434
-0.335498,-0.434543,0.420274,-0.236964,-0.638697,0.732061
-0.253760,-0.329132,-0.042889,-0.323737,-0.852371,0.410679
-0.291025,0.369290,-0.056408,0.696554,0.717369,-0.013973
-0.648891,-0.073856,0.775907,0.576640,0.218805,0.787154
0.559485,-0.543690,0.066130,0.280597,-0.887399,0.365771
-0.317579,0.107918,0.245526,-0.001020,-0.005779,0.999983
0.107870,-0.701702,-0.293578,0.049579,-0.853734,0.518344
-0.049765,0.198783,0.006064,-0.048838,-0.250763,0.966816
-0.476058,-0.149662,0.717821,0.363896,-0.471286,-0.803411
0.474628,0.259118,0.430225,0.176216,-0.533869,-0.827002
-0.404968,0.443968,0.951047,-0.467791,0.105548,0.877514
-0.073529,-0.099775,0.304839,0.992506,-0.061284,0.105715
0.845935,0.164774,-0.131318,-0.148568,0.007208,-0.988876
0.018599,0.331745,0.698263,0.845437,-0.035130,-0.532919
-0.107093,0.151047,-0.942766,-0.267198,0.343136,0.900479
-0.315828,0.497491,0.908837,0.224571,0.531934,0.816464
0.447230,0.045892,0.193201,-0.442412,0.413141,-0.795981
-0.190781,0.257530,0.636200,-0.589537,-0.712191,-0.381091
0.114365,0.220141,-0.176000,0.970973,0.179917,0.157614
-0.415097,0.516545,0.933911,0.972582,-0.069759,0.221853
-0.124494,0.078470,0.580111,-0.082617,0.384866,0.919267
-0.703492,0.035494,-0.082464,0.216776,-0.540863,0.812697
0.051580,0.254151,-0.408457,0.648321,-0.760294,0.040411
0.125920,-0.346188,0.827134,0.584986,0.074751,-0.807591
-0.069892,0.175784,0.567263,0.985506,-0.140254,-0.095435
0.084760,0.317968,0.825236,0.041337,-0.740342,0.670958
