0.346892,0.406209,-0.386388,-0.571153,0.818466,-0.062432
-0.067819,0.042662,0.496462,-0.165874,-0.986146,0.001594
-0.434554,0.067815,0.737241,0.211264,0.657397,-0.723323
0.471194,0.391550,-0.738679,0.544828,0.838545,-0.002095
0.283681,0.176766,-0.696363,0.012475,0.247192,0.968886
0.303453,-0.265450,0.463102,-0.407271,-0.076952,0.910060
0.145914,0.042980,-0.126781,0.558835,-0.785519,0.265824
0.087236,0.202887,0.192600,-0.018719,0.966128,0.257383
-0.041032,0.395315,-0.214962,0.198612,-0.967643,0.155628
0.696338,0.280354,-0.425793,0.225419,0.904622,-0.361725
-0.273547,0.132305,0.768020,0.966795,0.189254,-0.171730
0.069519,0.217145,0.283241,-0.692857,-0.239724,-0.680061
0.172844,-0.227477,-0.604095,0.217853,0.445803,0.868216
-0.425060,-0.037773,0.801571,0.658487,0.177640,0.731327
0.154560,0.325378,-0.317970,0.184064,0.966809,0.177200
0.286445,-0.235569,0.197000,0.219423,0.140556,0.965452
-0.154205,-0.191269,0.756052,0.148142,0.706208,0.692332
0.287435,0.340917,-0.310106,0.999515,-0.012586,0.028497
-0.378852,-0.235648,0.676600,-0.278761,0.955262,0.098825
-0.410674,0.387785,0.744966,0.919394,-0.321623,0.226435
-0.352489,-0.234288,0.674331,-0.370994,0.923910,0.093564
0.451423,0.412619,-0.750474,0.976662,0.205109,0.063740
0.865425,0.067736,-0.516745,-0.361555,0.081178,0.928810
-0.216569,0.499621,0.721704,0.416595,0.798297,-0.434938
0.287224,-0.036409,-0.335828,-0.384288,0.047893,-0.921970
-0.468075,-0.197195,0.853915,0.764106,-0.637635,0.097794
0.326554,0.465413,-0.102791,-0.640835,0.565668,-0.518990
0.168804,-0.186942,-0.357375,0.947652,-0.319170,-0.009247
0.302107,-0.137752,0.194540,-0.811434,-0.486018,-0.324595
0.379635,0.324977,-0.845116,0.084128,-0.127037,0.988324
-0.240877,0.510276,-0.030234,0.282807,0.956278,0.074510
-0.385799,-0.146406,0.562403,-0.015282,0.731888,0.681254
0.133159,0.149369,0.214009,0.767331,-0.611506,0.193036
-0.555664,0.025837,0.583413,0.960563,0.237204,0.145097
0.181776,0.045303,-0.619268,0.161957,0.254770,0.953343
0.080082,-0.071101,-0.694510,-0.029798,-0.455935,0.889514
0.047624,0.406610,0.090892,-0.672010,0.739586,-0.037607
-0.076604,0.030243,0.279708,-0.633215,-0.292855,-0.716432
0.558783,0.440417,-0.968822,0.927313,0.157525,-0.339524
-0.478634,-0.141199,0.584262,0.752203,0.655998,-0.062109
-0.498972,-0.717686,0.538206,0.184237,0.423283,0.887067
0.434130,-0.392508,-0.736929,0.903190,-0.425288,-0.058113
0.312735,0.067736,0.014558,0.789206,0.537134,-0.297725
0.146623,-0.324816,0.423957,0.739841,0.099291,-0.665415
-0.160724,0.368314,0.674262,0.089182,-0.435021,0.895993
0.058961,0.187905,0.259044,-0.457758,0.867815,0.193272
0.154206,0.457560,-0.027133,0.895568,0.213877,0.390148
-0.450216,0.400199,0.774620,-0.830504,0.050949,-0.554678
0.437461,0.467736,-0.746594,0.952419,-0.126043,0.277508
0.842466,0.173485,-0.948055,-0.060500,-0.032742,0.997631
-0.309118,-0.065091,0.442074,0.715507,0.693092,0.087598
-0.464602,0.197836,0.864411,-0.764642,0.613151,-0.198416
0.509392,0.439938,-0.879983,0.913243,0.368808,0.173114
0.908510,0.511557,-0.958360,-0.223261,0.214697,0.950820
-0.103465,0.243422,0.690215,0.278525,-0.499554,0.820286
0.202183,-0.600881,0.429776,0.496782,0.051460,0.866348
-0.450497,0.349890,0.670624,0.702062,0.668124,0.246411
0.450995,0.365835,-0.769077,0.953553,0.269906,0.133745
-0.019631,0.331783,0.552548,0.533809,0.330803,-0.778214
0.099853,-0.461008,0.474309,-0.038913,0.943351,0.329508
-0.634753,0.443463,0.732322,-0.473788,0.494809,-0.728484
0.638651,0.326977,-0.971542,-0.197046,0.025996,0.980050
0.394021,-0.367913,-0.024864,-0.016352,-0.646578,0.762673
-0.712493,-0.106189,0.734037,0.848742,-0.449743,0.278151
-0.377295,-0.383457,0.520660,0.606208,0.048345,-0.793836
-0.157891,-0.622513,0.512692,-0.608790,0.605562,0.512513
-0.615263,0.039376,0.820087,0.093549,0.894442,0.437289
-0.831194,0.114442,0.549308,-0.455460,0.869307,-0.191994
-0.354331,0.050593,0.805624,0.277514,-0.638583,0.717773
-0.564665,-0.273142,0.843003,-0.662411,0.632906,-0.400801
0.337541,0.295815,-0.291676,0.866172,-0.490464,-0.095875
0.621008,0.670339,-0.991184,-0.112907,0.502608,0.857110
-0.142726,0.387061,0.122554,-0.432391,0.794026,0.427272
-0.418399,0.120129,0.985052,0.919224,-0.393722,0.003173
0.753809,0.710395,-0.985294,-0.274663,0.073734,0.958709
0.264265,0.308391,-0.205453,0.810732,-0.058618,0.582476
0.176317,0.222592,0.065846,-0.467386,-0.815683,0.340899
-0.141662,0.532308,0.570942,0.087050,-0.725498,0.682697
0.057473,0.398116,-0.311024,0.692623,0.718670,0.061537
-0.275601,0.221790,0.664960,0.449894,-0.464223,0.762950
0.745163,-0.423112,0.027930,0.261147,0.010075,-0.965246
0.163207,-0.285478,0.562109,0.474118,-0.441955,-0.761504
0.182766,0.304866,-0.098582,0.992032,0.122037,0.031295
-0.408476,0.362627,0.876415,0.597842,0.674466,0.433222
0.210760,0.248067,-0.088883,0.865422,0.455855,-0.207944
0.105307,0.220269,0.183386,-0.240204,0.968549,-0.064924
0.613352,0.222353,-0.967073,-0.130372,-0.008683,0.991427
0.200483,0.357180,-0.258715,0.072458,0.994092,0.080811
0.039333,0.141600,0.319788,0.918074,0.394654,0.037265
0.497129,-0.087364,-0.195199,-0.501851,-0.805460,-0.315246
0.381049,-0.373121,-0.020551,0.043095,-0.712743,0.700100
0.211681,-0.247265,0.001585,0.282837,0.725001,-0.627994
0.458720,0.480473,-0.976166,-0.327992,0.130996,0.935554
0.247184,0.324977,-0.220695,0.936446,0.216708,-0.275874
-0.455459,0.049870,0.396278,0.116358,0.237638,0.964359
-0.269576,0.172444,0.481029,0.194472,-0.930920,0.309142
-0.388844,-0.284437,0.596058,-0.437717,-0.373990,-0.817640
-0.751331,0.001002,0.865555,0.749259,0.623911,0.222140
0.325918,-0.125576,-0.340608,0.013411,0.118458,0.992869
-0.036426,0.023676,0.475434,0.987871,-0.152286,-0.030331
0.427257,0.556742,-0.994042,-0.210736,0.277729,0.937260
-0.185175,0.251754,0.717114,0.914360,0.398580,-0.071272
-0.430869,-0.406048,0.638408,0.918039,-0.190602,0.347670
-0.229324,0.428882,0.536439,0.266065,-0.690214,0.672915
0.093759,-0.334106,0.562836,-0.780248,0.222653,-0.584498
-0.573242,-0.506672,0.333333,0.420875,0.572107,0.703958
-0.525123,0.117323,0.069777,0.016281,0.307095,0.951539
-0.528099,-0.088645,0.927235,0.652416,0.418456,0.631861
0.082846,-0.330341,0.583275,0.133494,-0.627453,0.767126
-0.197433,-0.012297,0.710359,0.941190,-0.325205,0.091671
0.208351,-0.332267,0.573108,0.287945,0.757029,0.586510
0.088369,0.467256,-0.136480,0.851979,0.208404,0.480312
-0.128837,-0.011818,0.604736,0.841582,0.291495,0.454720
0.184111,0.059884,-0.267306,0.978947,-0.170797,-0.111768
-0.550210,0.394352,0.540197,0.012260,-0.331536,0.943363
-0.520443,0.422154,0.685295,0.275370,0.931338,0.238288
0.209056,0.322493,-0.137000,0.303522,0.311860,0.900343
-0.164552,-0.128060,0.597062,0.346648,0.735682,0.581900
-0.228970,-0.306548,0.751098,-0.307235,-0.137828,0.941600
0.506982,0.043459,-0.967211,-0.390276,0.314101,0.865462
0.068741,0.515161,-0.275066,-0.790943,-0.012008,-0.611772
0.496281,0.480395,-0.827951,0.835651,-0.411951,0.363295
0.085255,-0.627237,0.658604,-0.071728,0.581029,0.810716
-0.015305,-0.706552,0.664493,-0.092972,-0.878865,0.467924
-0.062646,-0.446026,0.451480,-0.107034,0.865146,0.489966
0.550989,-0.568756,-0.249535,0.744618,-0.215820,-0.631637
-0.554604,0.033846,0.887466,0.467516,0.420610,0.777507
0.521438,0.333147,-0.756935,-0.326971,-0.729130,0.601215
-0.201828,0.342360,0.675180,0.240101,-0.423410,0.873542
0.342714,0.308313,-0.289061,0.946456,0.174916,0.271341
-0.471761,-0.426560,0.652386,0.966317,-0.256970,-0.014088
0.024518,0.113558,0.421203,0.243521,0.927912,-0.282271
0.596202,0.324493,-0.751115,0.152823,0.746708,-0.647357
0.518743,-0.348927,-0.276122,-0.746967,0.288434,0.599038
0.182835,0.043381,0.167831,0.474007,0.562346,0.677558
0.086389,0.475745,0.037803,0.506975,-0.861942,0.005606
0.962724,0.604969,-0.962760,0.252204,-0.336726,-0.907198
-0.177238,-0.080152,0.599262,-0.428336,0.827457,0.363103
-0.252071,0.312479,0.729758,-0.492245,-0.865247,-0.095095
0.562896,0.390748,-0.754042,0.881500,0.456525,0.120592
0.527817,0.199361,-0.968874,0.523000,0.085400,-0.848044
-0.698673,-0.113558,0.691843,-0.335796,-0.917157,0.214626
0.044718,0.335152,0.295227,0.302851,0.327414,0.895031
0.659629,0.459242,-0.959573,0.869278,0.099869,0.484131
-0.304797,-0.301424,0.734625,0.989998,0.002225,-0.141067
0.204735,0.079912,-0.238397,0.904627,-0.014909,-0.425942
0.654244,0.637172,-0.985935,-0.132243,0.379652,0.915629
0.599320,0.363268,-0.760434,-0.457845,-0.822636,0.337117
0.298560,0.291488,-0.428304,-0.562667,0.797962,-0.216015
0.047979,0.396273,-0.314211,0.871480,0.451023,-0.192615
0.435194,-0.076787,0.034183,-0.622987,-0.580522,0.524292
0.016512,0.568678,-0.532421,-0.196634,-0.299826,0.933509
0.983845,0.611775,-0.964683,-0.213421,0.349262,0.912397
-0.543973,-0.219307,0.610278,0.544091,-0.238013,0.804558
-0.654736,0.089207,0.850607,-0.404352,0.724203,0.558596
-0.348168,0.037054,0.827397,0.783426,-0.319378,0.533143
0.461696,0.437615,-0.799302,0.926717,0.298295,0.228508
0.186594,0.072782,-0.105338,-0.406132,0.718915,-0.564108
0.173129,0.373282,0.594308,-0.358999,-0.725707,0.586915
-0.002550,0.370798,-0.239332,0.221749,0.870177,-0.440022
0.557511,0.479270,-0.959192,-0.551599,0.833938,-0.016922
-0.387641,-0.207772,0.796392,-0.471549,0.842556,0.260270
0.072993,0.217223,-0.131284,-0.524044,0.851556,0.015152
0.285381,0.383937,-0.322525,-0.307982,0.947174,0.089492
-0.208134,-0.048506,0.725099,0.975011,-0.222080,0.005748
-0.329815,0.399080,0.050309,-0.402741,-0.045117,-0.914201
-0.273616,0.546483,0.572207,-0.031951,-0.628316,0.777302
0.458439,-0.330903,0.470896,0.387634,0.328514,-0.861289
0.616825,0.035690,-0.453835,-0.092052,-0.036737,0.995076
-0.464317,-0.207209,0.775693,0.852511,-0.520245,-0.050698
0.139962,0.218666,0.193692,-0.651661,-0.741879,-0.157966
-0.083836,-0.124374,0.756502,0.104435,0.411186,0.905549
-0.253205,0.361669,0.052872,-0.106097,0.435337,0.893994
0.517329,0.446666,-0.877454,0.783272,0.599338,0.165165
0.230674,-0.176688,-0.188392,0.860814,-0.505677,0.057357
0.567641,0.293654,-0.774446,0.655535,0.594407,-0.465783
0.721706,0.348687,-0.968580,-0.234836,0.153866,0.959780
-0.284105,-0.222514,0.682784,0.771889,-0.574784,-0.271680
0.014955,-0.340115,0.421618,0.418304,0.485094,0.767923
-0.358799,-0.238132,0.402808,0.428479,0.436285,0.791241
0.055133,0.049068,0.362675,0.985664,0.049080,0.161422
-0.674438,0.033607,0.849238,-0.503608,0.610527,0.611257
0.347178,0.399319,-0.334633,-0.500379,-0.865609,0.018467
-0.587840,0.045943,0.488096,0.441643,-0.537218,0.718574
0.037062,0.041376,0.505330,0.713621,-0.642824,-0.278430
-0.588334,0.201122,0.867010,0.770638,0.632115,-0.080920
0.250160,0.593752,-0.268778,0.890172,0.302797,-0.340452
0.121039,-0.238454,0.693332,0.837493,0.084389,-0.539893
-0.341221,-0.030560,0.807079,0.706201,-0.026325,0.707522
0.119551,-0.372079,0.693211,0.845969,-0.225586,-0.483163
-0.397135,-0.438094,0.520954,-0.601854,0.006838,0.798577
0.099922,0.208735,0.252063,-0.337735,0.907819,0.248595
-0.284602,-0.121009,0.752275,-0.294395,0.852251,0.432436
-0.582027,-0.297737,0.608823,-0.557136,0.085921,-0.825964
0.199207,-0.384338,0.448258,0.679378,-0.161348,-0.715829
-0.499966,0.155780,0.878701,0.864617,-0.375367,0.333972
-0.285948,0.223795,0.815948,0.647362,-0.701281,-0.298541
-0.617885,-0.365351,0.737189,0.784017,-0.605723,0.135711
-0.296436,0.113157,0.854417,0.911046,-0.400903,-0.096293
0.238113,-0.027759,0.173738,-0.042334,0.698252,0.714599
-0.021897,-0.210735,0.558973,0.795869,0.126372,0.592134
-0.210120,0.035768,0.711086,0.540530,-0.789409,0.290965
0.601448,0.644624,-0.667316,-0.821631,0.388880,-0.416767
-0.498690,0.413739,0.671456,-0.117642,-0.476621,0.871202
0.493587,0.454279,-0.990075,-0.283330,0.196857,0.938601
-0.331018,0.510994,0.562438,-0.732552,-0.459358,0.502353
-0.717878,0.084802,0.741363,-0.658283,-0.751812,0.037965
-0.318971,0.007892,0.761923,-0.322885,0.450676,0.832248
0.341576,-0.054359,-0.156157,0.658727,0.751982,0.024523
0.274537,-0.054359,-0.769735,0.056397,0.440227,0.896114
0.367727,-0.030164,0.028987,0.586452,0.776764,0.229589
-0.620298,0.119005,0.753886,0.127523,-0.245888,0.960873
0.301822,-0.295174,-0.326405,-0.327220,0.312667,0.891721
-0.740841,-0.061326,0.933141,0.779505,-0.614049,-0.123759
-0.871234,-0.019265,0.751600,0.696547,0.668697,0.260130
-0.090709,-0.259284,0.562472,0.971429,0.094067,0.217891
-0.557437,0.184541,0.749192,-0.247318,0.968664,0.022896
-0.532705,-0.151291,0.863182,0.513240,0.828295,0.224750
0.811639,0.733631,-0.982835,-0.216464,0.154562,0.963978
0.488911,0.548009,0.071561,-0.466566,0.001420,0.884485
-0.617318,0.136554,0.924723,0.370210,-0.151706,-0.916477
-0.148890,-0.035127,0.636520,0.188280,-0.981952,0.017928
-0.463750,-0.036252,0.945959,0.025858,-0.339827,0.940132
-0.097868,-0.259123,0.619095,0.195352,0.084496,0.977086
0.463893,0.517326,-0.740064,0.616980,-0.720718,-0.316071
0.375950,-0.036013,-0.149870,0.917585,-0.198288,-0.344558
0.170789,-0.113797,-0.263322,0.943232,-0.133188,-0.304259
-0.309404,0.426398,0.701386,-0.220150,0.543801,-0.809823
-0.034298,0.039694,0.491197,-0.540439,-0.814712,-0.210166
0.514422,0.326576,-0.946530,0.905941,-0.362936,0.218055
-0.761889,0.081114,0.861120,-0.687965,-0.514477,-0.511877
-0.080575,-0.568996,0.648367,0.827217,-0.432161,-0.359095
0.688756,0.480155,-0.977812,0.054179,0.395691,0.916784
0.564808,0.034007,-0.880174,0.725587,0.545301,0.419727
-0.222451,0.435689,0.692380,0.413864,-0.555173,0.721457
-0.119127,-0.009095,-0.392952,0.039562,-0.200108,0.978975
-0.951599,0.024796,0.748604,0.229218,-0.401276,0.886812
0.311247,0.376568,-0.315198,0.206915,-0.961736,-0.179580
-0.127700,-0.019666,-0.424216,0.979200,0.045890,0.197641
0.629723,0.339235,-0.973534,-0.252099,0.012381,0.967622
-0.665013,-0.229560,0.923078,-0.641817,-0.370542,-0.671394
-0.319465,-0.197596,0.470446,0.424939,-0.726564,-0.539937
-0.125719,-0.155379,0.747616,-0.404935,0.335480,0.850577
0.218342,-0.384978,0.045545,-0.380111,0.414424,0.826903
0.153003,0.258321,0.027583,0.928726,0.364777,0.066382
0.154703,0.267778,-0.392554,-0.344546,0.772592,-0.533282
-0.380483,-0.015021,0.856617,0.540581,-0.830978,-0.131329
-0.257811,-0.658804,0.504655,0.368686,0.911527,0.182179
0.128483,0.391789,-0.393004,0.336868,-0.180661,0.924057
0.505421,0.305751,-0.526168,0.185622,0.980449,-0.065306
-0.756430,0.023915,0.864446,0.787981,0.596061,0.154264
-0.229679,-0.001081,0.640746,0.495450,0.466546,0.732710
0.225496,0.203283,0.162150,0.928819,0.359940,0.087966
-0.237616,-0.060363,0.755411,0.869930,0.374291,0.321136
0.227979,0.135830,-0.153438,0.984966,-0.071110,0.157433
-0.333924,0.208975,0.829631,-0.128067,-0.906770,0.401705
-0.090142,0.326097,0.131717,0.624206,-0.393731,-0.674791
-0.453123,-0.617946,0.791075,-0.220094,-0.920050,0.324140
-0.409891,-0.149770,0.444032,-0.165611,0.675552,0.718472
0.928000,0.525976,-0.963332,-0.217823,0.287344,0.932731
-0.205228,-0.135752,-0.139979,0.238186,0.389238,0.889810
0.271916,0.319530,-0.277023,-0.545796,-0.408837,-0.731409
-0.589683,-0.152655,0.912460,0.771423,0.513524,0.375766
-0.555383,0.099060,0.780647,0.713927,0.257063,0.651327
0.187654,-0.463491,-0.388795,0.260449,0.383444,0.886080
-0.387001,-0.232205,0.590844,-0.577926,0.264429,-0.772061
0.676000,-0.252155,0.027895,-0.231164,-0.760990,0.606182
-0.492946,-0.496257,0.655884,0.066352,0.717549,0.693341
-0.092340,0.387462,0.722276,-0.656444,-0.685386,0.315162
-0.396214,0.485201,0.744516,0.901273,-0.033721,0.431937
0.137622,0.223712,0.052006,0.989303,0.097565,0.108450
-0.231803,0.095696,-0.161994,0.273295,0.218670,0.936746
0.166961,0.411255,-0.015528,0.479645,0.873624,0.081980
-0.548579,-0.289806,0.913361,0.505563,-0.860863,0.057625
0.617037,0.093530,-0.959625,-0.323685,0.258644,0.910127
0.281484,-0.095295,-0.160470,-0.588689,0.305405,0.748447
0.734462,0.261846,-0.761975,-0.434480,-0.122169,0.892357
-0.031179,0.438574,-0.047416,-0.144067,0.988967,0.034484
-0.591310,0.130461,0.743823,-0.706967,0.697240,-0.118552
0.451704,0.157701,-0.979423,0.241358,-0.222879,-0.944495
-0.207213,0.218827,0.721912,0.888953,0.444175,0.111673
0.214514,0.318567,-0.206094,0.789485,-0.054901,0.611309
0.574519,0.495934,-0.899798,-0.489697,-0.867513,-0.087279
-0.495429,-0.699662,0.528125,-0.196376,-0.232979,-0.952448
-0.531927,0.066695,0.880901,0.831384,-0.357725,0.425245
-0.414285,-0.067096,0.421150,-0.400489,0.904795,0.144756
-0.424277,-0.448270,0.748846,0.812001,-0.330114,-0.481330
-0.377576,0.242459,0.868759,0.997386,-0.009195,0.071674
-0.040820,0.218348,0.684724,0.931587,-0.363490,-0.004638
-0.307704,-0.222592,0.366711,0.813710,0.284087,0.507120
0.654598,0.301101,-0.962691,-0.253531,0.116697,0.960262
0.414640,-0.085119,-0.311474,-0.590835,-0.136104,0.795229
-0.423356,-0.580535,0.665255,-0.028287,-0.110700,0.993451
-0.483097,0.220269,0.859180,0.351165,-0.880634,-0.318067
-0.089931,0.002044,0.548183,0.099351,0.959148,0.264887
-0.411452,0.454758,0.756467,0.857594,-0.078194,0.508349
-0.480900,-0.601522,0.796080,-0.618421,-0.721318,0.311859
0.702644,-0.071179,0.046100,-0.239602,-0.561015,0.792372
-0.338457,0.234366,0.761300,0.850336,-0.136534,-0.508219
0.075259,0.114682,0.210961,-0.591306,0.700958,-0.398768
0.029341,0.104830,0.344384,0.926677,-0.041330,-0.373580
-0.159236,-0.053556,-0.083444,-0.512873,0.622661,-0.590978
0.432923,0.458201,-0.617709,0.007888,-0.999877,0.013551
-0.716745,0.158821,0.795006,-0.700598,-0.251883,0.667621
0.091774,-0.152093,-0.483056,-0.288259,0.954915,0.071021
0.131035,-0.530221,0.494436,0.992089,0.038257,-0.119569
0.819715,0.428242,-0.964908,0.195073,-0.347237,-0.917264
-0.576218,-0.318567,0.747945,-0.708902,0.652643,-0.267423
-0.854015,0.086801,0.521041,0.542341,-0.839845,-0.022940
0.026361,0.159061,0.489170,0.934250,0.025614,0.355698
0.402525,0.763027,0.075805,-0.388612,-0.028413,0.920963
0.303383,-0.261206,0.459915,-0.329026,-0.068605,0.941825
-0.443979,-0.431845,0.519291,-0.491144,0.335151,0.804022
0.445186,-0.120530,-0.139945,0.412816,0.252235,-0.875192
-0.259727,-0.438094,0.325071,0.228762,0.552921,0.801216
-0.055207,0.045943,0.409563,0.441251,-0.853541,-0.277065
-0.717878,0.086562,0.846207,-0.420194,-0.521907,-0.742327
0.423784,0.448270,-0.600509,0.010221,0.999938,-0.004331
0.702147,0.235491,-0.962725,-0.287937,-0.217176,0.932699
0.593792,0.164591,-0.968926,-0.143318,0.303275,0.942064
0.034229,-0.529663,0.556826,-0.262541,-0.709318,0.654171
-0.244701,0.503787,0.724683,-0.147186,0.970611,-0.190394
0.409186,0.409813,-0.602761,0.978157,-0.200218,0.055868
-0.122881,-0.187343,0.753730,0.203510,0.415063,0.886739
0.010275,0.453555,0.092572,0.071912,0.949685,0.304840
-0.720287,0.230044,0.523777,0.874928,-0.476298,-0.087420
-0.528877,-0.311599,0.936345,-0.574329,0.530235,0.623697
0.041599,-0.148167,0.081348,-0.371285,0.139681,0.917953
-0.347104,0.111074,0.818234,-0.487352,-0.385413,-0.783546
-0.464178,0.026238,0.883482,0.864418,0.056320,0.499609
-0.672241,-0.471100,0.508881,0.152885,0.636573,0.755911
-0.047836,-0.565632,0.667870,-0.741135,0.437363,0.509345
-0.382965,0.022712,0.657824,0.408416,-0.675280,0.614160
0.371555,-0.254556,0.008929,0.982924,-0.085256,0.163071
0.963788,0.420227,-0.953753,0.084063,-0.350940,-0.932617
0.282474,-0.129341,0.201850,0.911323,0.220826,0.347456
0.325564,0.426477,-0.423195,0.755717,-0.648679,0.090045
0.329673,0.324737,-0.400868,0.950073,0.309131,-0.042411
-0.064558,0.171001,0.603056,0.906732,0.178787,0.381933
0.270359,-0.528299,-0.328951,0.959211,0.246559,-0.138283
0.314153,0.371923,-0.338426,0.594862,-0.786109,0.167845
0.185387,-0.333866,0.587761,0.078902,0.679805,0.729136
0.028844,0.088884,0.380619,-0.121654,-0.987745,0.097779
-0.584013,-0.017583,0.907991,-0.005461,-0.120877,0.992653
0.135356,0.254717,0.051001,0.828167,-0.557727,-0.055510
0.563108,0.181255,-0.968285,-0.095639,-0.002640,-0.995413
-0.432075,-0.049870,0.658483,0.387444,-0.695501,0.605116
-0.412019,0.254478,0.063819,-0.059655,0.299227,0.952315
-0.151442,0.436491,0.743390,0.001292,-0.941329,0.337487
-0.499395,-0.537594,0.770376,0.450264,-0.429306,0.782917
-0.365884,0.384421,0.707189,0.962281,-0.069395,0.263059
0.581249,0.040579,-0.765665,0.884459,-0.464059,-0.048808
-0.021188,-0.243021,0.586081,0.917834,0.278946,0.282435
0.348877,0.712801,-0.705440,0.596895,0.626817,-0.500816
-0.372831,0.319447,0.660873,0.082547,0.386024,0.918788
0.958472,-0.013979,-0.491301,-0.351069,0.150863,0.924116
0.153142,0.194071,0.486069,-0.731220,0.658078,0.179584
0.633902,0.619149,-0.984480,-0.116316,0.327143,0.937789
0.623841,0.216104,-0.533096,0.189179,0.334859,0.923082
0.064701,-0.155780,0.392086,0.965501,-0.252026,0.065498
0.820143,0.132705,-0.951397,-0.013316,-0.264266,0.964358
-0.497981,-0.390826,0.505140,-0.208214,0.665161,0.717083
0.116437,0.172199,0.498402,-0.601937,0.791751,-0.103936
-0.583160,-0.255676,0.915023,0.571190,-0.820288,-0.029495
-0.705335,0.084239,0.942113,0.790330,0.611916,0.030612
-0.655588,-0.059483,0.904613,-0.161136,0.960259,0.227899
0.036924,-0.333309,0.581110,0.461554,0.862237,0.208602
-0.072923,-0.124853,0.069362,0.451793,-0.548477,-0.703602
-0.760401,-0.088963,0.732564,0.562819,0.554212,0.613256
0.551343,0.409094,-0.970485,-0.552640,-0.458368,0.696051
-0.563601,-0.255358,0.814700,-0.840998,0.420916,-0.339930
-0.741620,0.026878,0.713459,0.012115,0.972718,0.231675
0.101410,0.384338,-0.227710,-0.170969,-0.967024,0.188771
-0.526468,0.436730,0.067890,-0.189737,0.116115,-0.974945
-0.737437,-0.057723,0.942061,0.825022,-0.563948,0.036083
-0.173341,-0.531262,0.633055,0.028971,0.857865,0.513057
-0.088581,0.024796,0.606849,-0.804527,0.266940,-0.530547
0.352563,0.327299,-0.325920,0.820160,0.563397,-0.099609
-0.178795,0.272022,0.706410,0.983663,0.117359,0.136509
-0.102120,0.024473,0.298518,-0.729821,-0.373101,-0.572850
-0.031253,-0.611457,0.677795,0.693394,0.534946,-0.482739
-0.358090,0.050031,0.917604,0.747903,0.558663,0.358519
-0.326909,-0.342198,0.725047,0.714822,-0.676349,-0.177711
-0.382749,-0.525815,0.327184,0.304091,-0.632015,-0.712802
-0.258806,-0.154655,0.686387,0.637811,-0.751862,-0.167036
0.021754,-0.389784,0.428079,0.131888,0.667876,0.732494
-0.394159,0.182458,0.852495,-0.724726,-0.460522,0.512535
0.169799,0.049948,-0.778517,0.146558,0.127419,0.980961
0.100065,0.134070,0.170308,0.846932,0.529883,0.043943
0.068032,0.403965,0.476145,0.633499,0.137169,0.761488
0.908372,0.174683,-0.947985,0.120661,-0.228075,-0.966138
-0.583446,-0.007168,0.713009,0.106080,-0.875653,0.471146
-0.555807,0.477109,0.723956,0.893483,0.374391,-0.248029
0.169159,-0.629965,0.532663,0.526660,0.809484,0.259546
-0.516974,-0.401965,0.755168,-0.000644,0.599922,0.800059
0.299270,-0.052833,-0.410983,0.977202,-0.070310,0.200332
0.718307,0.471980,-0.973360,-0.279576,0.120128,0.952579
0.220894,-0.323373,0.452155,-0.536154,-0.163610,0.828112
-0.588974,0.289889,0.885976,0.779259,-0.544573,-0.310154
-0.622919,-0.361987,0.497432,-0.197022,-0.493488,-0.847143
0.324145,0.391467,-0.346411,-0.134944,0.990781,0.011970
-0.078378,0.492648,0.212398,0.598831,0.785669,0.155323
-0.204877,0.239334,0.739891,0.436384,0.449855,0.779230
-0.184963,-0.139595,0.716490,0.196166,0.974220,-0.111415
-0.465454,0.040579,0.974936,0.911092,-0.412202,-0.000623
0.074126,-0.117963,0.170880,0.457152,-0.525714,0.717382
0.031322,0.131586,0.308997,0.982613,0.004218,-0.185620
0.105096,0.362310,-0.248253,0.121285,0.981322,0.149321
0.499188,0.267215,-0.974590,-0.703999,0.254528,0.663024
-0.303591,0.210016,0.759031,0.930503,-0.139294,-0.338765
0.331091,0.221873,-0.342046,-0.655375,-0.086704,0.750311
0.713912,-0.081995,-0.276936,-0.380994,0.345147,0.857740
-0.073417,0.409974,0.018940,-0.416007,0.359244,-0.835393
0.506770,0.480713,-0.806698,0.784175,-0.592373,0.184834
-0.470485,-0.270418,0.741623,-0.579855,0.813028,0.052473
-0.015660,0.081354,0.474638,-0.490086,0.870613,0.043000
-0.139750,-0.199361,0.761248,0.316198,0.523665,0.791071
0.440579,-0.230685,-0.139408,0.559428,-0.164372,-0.812418
-0.749626,0.052515,0.709042,0.012115,0.972718,0.231675
-0.168804,0.317848,0.755393,0.271395,-0.755924,0.595755
-0.321662,0.496257,0.543679,-0.571182,-0.553728,0.605917
-0.128695,-0.577166,0.660301,0.228269,0.107506,0.967644
-0.214583,-0.330502,0.365585,0.970261,0.095191,0.222557
-0.385089,0.003965,0.451202,-0.022273,-0.732474,0.680431
0.719085,0.431767,-0.971888,0.172893,-0.329388,-0.928230
0.139962,0.011897,-0.444673,0.623977,-0.097227,-0.775371
0.199207,0.408370,-0.272745,0.001456,0.920178,0.391497
-0.500745,-0.183416,0.838690,-0.644857,0.763858,-0.026092
0.152506,0.182057,0.145002,0.875220,-0.327901,-0.355628
0.321026,0.345484,-0.265678,0.643896,0.350175,0.680276
0.086177,-0.342521,0.564897,0.825122,-0.285963,0.487236
-0.490256,-0.008449,0.896698,-0.296218,0.545757,-0.783840
0.507337,0.118286,-0.285874,0.256668,0.563078,0.785535
-0.595916,-0.427997,0.720162,0.909088,0.275331,0.312653
0.135287,-0.367757,0.174032,0.791579,-0.064568,-0.607646
0.091419,0.167955,0.225216,0.425781,0.850410,-0.309053
0.683652,0.548811,-0.970641,0.148920,-0.288365,-0.945869
-0.137125,-0.072382,0.568067,0.768592,0.165365,0.617997
-0.312946,0.247265,0.722241,-0.257874,0.294586,-0.920174
0.556871,-0.381853,0.494886,0.228903,0.446625,-0.864945
0.585220,0.080635,-0.800861,0.873509,0.471170,-0.122397
-0.068243,0.067096,0.097075,-0.672547,0.110264,-0.731794
0.171499,0.044584,-0.643621,0.038308,0.556939,0.829669
0.599887,0.463491,-0.871496,0.768541,0.637776,-0.050864
-0.452340,-0.223712,0.594308,0.295416,-0.300319,0.906939
0.308556,-0.089447,0.183455,0.315243,0.783276,0.535818
0.769328,-0.268575,0.020083,-0.158589,-0.432889,0.887388
0.088300,-0.146245,0.372652,0.982834,-0.091937,0.159953
-0.231379,-0.223154,-0.136013,0.360641,0.429429,0.827967
0.336191,0.390508,-0.399205,-0.708466,0.684328,-0.172541
0.915457,0.568517,-0.963054,-0.202914,0.187970,0.960985
-0.095030,-0.748691,0.539505,-0.759779,-0.115827,0.639781
0.553752,0.420712,-0.781375,-0.536888,-0.725471,0.430632
-0.096592,0.460768,0.120649,-0.432070,0.704534,0.562981
0.610519,0.216343,-0.970017,-0.201389,-0.005266,0.979497
0.319396,0.144162,-0.453437,-0.489124,-0.146206,-0.859873
0.521438,0.633490,0.073969,-0.444825,0.001426,0.895616
0.531784,0.093212,0.503269,0.717519,0.108530,-0.688031
-0.010344,-0.197919,-0.404834,-0.316485,-0.398057,0.861039
0.446250,0.059165,-0.746161,-0.103906,-0.981330,0.161850
-0.581530,0.051151,0.907246,-0.513862,0.857865,-0.003740
-0.076535,0.053395,0.513281,0.866246,-0.063451,-0.495572
0.192970,-0.193592,-0.615405,0.249408,0.341459,0.906202
-0.274892,-0.000362,0.860150,0.785015,-0.596679,0.166512
0.235138,0.043459,-0.783938,0.042518,0.053526,0.997661
-0.053079,0.635490,0.477115,0.381608,0.146766,-0.912598
0.231945,0.285561,-0.173080,0.483320,0.704828,-0.519249
0.064844,0.477510,0.021140,-0.337605,0.936058,-0.099087
-0.264546,0.462367,0.710671,-0.051061,-0.760613,0.647194
0.204099,0.023431,-0.686491,0.143180,-0.170767,0.974853
-0.561689,0.115724,0.070644,0.129403,0.228356,0.964939
0.421941,0.404366,-0.468090,-0.680978,-0.699193,-0.217710
0.638793,0.475989,-0.952575,0.800074,0.457559,0.387970
-0.168237,-0.056119,0.323651,-0.857841,0.069981,-0.509128
0.982924,0.403808,-0.953355,0.033498,0.170361,0.984812
-0.194176,0.001804,0.279621,0.633327,-0.737696,0.233886
-0.633832,0.114042,0.511012,0.803355,-0.087055,0.589103
-0.663880,0.504907,0.739683,-0.164955,0.876571,-0.452120
-0.171780,-0.033768,0.683234,-0.781093,-0.278174,-0.559029
-0.504430,0.054676,0.919648,0.168635,0.598746,0.782985
0.531572,0.195435,-0.976166,-0.166110,-0.210850,0.963301
0.786055,0.637652,-0.977535,-0.254710,0.397833,0.881392
0.259870,0.333147,-0.241827,0.910821,0.194208,-0.364264
-0.248671,0.381937,0.123282,-0.468796,0.712907,-0.521531
0.504854,0.073423,-0.962171,-0.368537,0.282596,0.885618
-0.304797,0.038252,0.805035,-0.319073,0.866888,-0.383011
-0.456596,-0.004127,0.935531,-0.612077,0.772906,0.167266
0.070514,-0.477349,0.651468,0.363035,0.001769,-0.931774
0.552338,0.447067,-0.834342,0.010006,-0.279898,0.959977
-0.670965,0.011016,0.836334,0.871798,-0.481014,-0.092696
-0.374743,-0.006367,0.823292,0.984290,-0.153543,0.087168
-0.178583,-0.048589,0.324760,-0.857841,0.069981,-0.509128
0.759549,0.268174,-0.959261,-0.216794,0.295793,0.930326
-0.289421,-0.190306,0.763101,-0.676919,0.401891,-0.616656
0.607543,0.134788,-0.968078,0.290304,-0.427583,-0.856094
0.436470,0.118848,-0.976946,-0.244069,0.254239,0.935838
-0.620648,0.026957,0.910624,-0.429770,0.582671,-0.689777
0.713133,0.207292,-0.962916,0.443362,-0.024782,-0.896000
0.264403,0.119968,-0.103069,-0.139102,-0.567302,0.811677
0.917585,0.741801,-0.974157,0.233624,-0.231618,-0.944337
0.045073,0.437694,0.476855,0.550023,0.150830,0.821417
0.284390,0.445307,-0.478933,0.383184,0.923158,-0.030817
0.478279,-0.279312,0.183871,-0.557612,-0.474402,0.681184
-0.642478,-0.257602,0.937246,0.224528,0.928183,0.296754
0.830489,-0.042501,-0.501607,-0.391408,0.084404,0.916338
0.312311,0.310875,-0.242329,-0.506053,0.849045,-0.151763
0.635532,0.548728,-0.981657,-0.256859,0.409320,0.875489
-0.021045,0.083999,0.459118,-0.613908,0.789011,0.024050
0.044718,0.190306,0.255562,0.559758,-0.823550,0.091844
-0.492241,-0.145766,0.916859,0.924683,-0.347775,0.154967
0.745379,0.308474,-0.959625,-0.352739,0.268256,0.896445
-0.371979,-0.128378,0.737518,0.413826,-0.098291,0.905034
0.163916,0.260164,-0.767639,0.822788,-0.172056,-0.541679
-0.040038,-0.092331,-0.168265,0.784768,0.227077,0.576694
-0.307064,-0.434090,0.638165,-0.071387,-0.975857,0.206414
-0.392529,0.161388,0.532334,-0.443374,-0.827847,0.343642
-0.726027,0.080391,0.837443,-0.702823,-0.118235,-0.701470
0.256254,-0.389305,0.521041,0.006066,-0.914294,0.405006
0.355962,-0.050588,-0.336226,-0.627806,0.250485,0.736964
0.233222,0.261529,-0.754562,0.361425,-0.927558,0.094913
0.732481,0.672745,-0.985537,-0.126884,0.091737,0.987666
0.726879,0.524294,-0.974971,0.219324,-0.203186,-0.954260
-0.256254,0.276750,0.722743,0.255482,0.739390,0.622921
-0.362130,-0.501865,0.758823,0.997227,-0.064792,0.036616
-0.622491,0.157540,0.791577,0.980536,0.084863,0.177054
0.385518,0.407011,-0.540613,-0.471984,0.881108,0.029644
-0.651480,0.109074,0.951536,-0.375602,-0.033150,-0.926188
-0.439939,-0.549770,0.740705,-0.005423,0.911076,0.412203
0.322588,0.396674,0.056614,-0.408589,0.002912,0.912714
-0.049679,-0.012860,0.521820,0.885273,0.424783,0.189345
-0.426972,0.393070,0.531156,0.748160,-0.234350,0.620754
-0.324993,-0.123332,0.560169,-0.841016,0.532087,0.097848
0.933316,0.433127,-0.956230,-0.319410,0.171968,0.931882
0.068953,-0.140558,-0.747253,-0.756529,0.643701,-0.115385
-0.717454,0.032726,0.969931,0.875272,-0.207390,0.436908
-0.193748,0.078308,0.417357,0.489217,-0.757003,0.433144
0.257318,0.375209,-0.174119,0.915098,0.119646,0.385071
-0.185811,-0.182057,0.737258,-0.028431,-0.955098,0.294924
-0.089364,-0.444583,0.460071,-0.020139,0.885176,0.464821
0.612218,0.152093,-0.966380,-0.219991,0.493828,0.841271
-0.602084,-0.598637,0.711017,0.973634,0.227535,0.016273
-0.064203,-0.303106,0.311630,0.220109,-0.258574,-0.940581
0.207213,-0.067013,-0.320239,0.835932,0.079654,0.543021
0.681528,0.173001,-0.959192,0.220227,-0.140575,-0.965266
0.387853,0.383619,-0.424684,0.222887,0.840718,0.493472
0.209129,0.553217,-0.555267,0.776712,0.624375,0.082911
0.235704,-0.274584,-0.198022,0.703211,-0.645829,-0.297320
0.785557,0.441219,-0.772610,0.087965,0.956234,0.279068
-0.107219,0.120770,-0.095361,0.325854,0.221044,0.919216
0.212741,0.231887,-0.422450,-0.402920,0.599560,-0.691508
0.108712,-0.241818,0.683338,0.900032,0.170996,-0.400877
0.122177,0.603287,-0.342687,-0.322828,-0.924200,0.204050
0.485369,0.362388,-0.667974,-0.884900,0.031318,-0.464727
-0.462262,0.337876,0.878199,0.630201,0.322778,0.706159
-0.581179,-0.266653,0.909048,-0.114587,0.895782,0.429471
0.135356,0.228601,0.127595,0.951764,0.298793,0.069773
0.526114,0.219067,-0.974053,-0.277123,0.376841,0.883852
0.077885,0.254238,0.211342,0.420439,0.894851,0.149912
-0.714054,-0.392269,0.503079,-0.292410,-0.378634,-0.878142
0.438737,0.463252,-0.764106,0.946729,-0.288300,0.143480
-0.197364,-0.105069,0.704279,0.782450,0.551841,0.288520
0.523704,0.457081,-0.929937,0.951230,-0.306893,0.031277
0.208351,0.523414,-0.170135,0.633618,0.437948,0.637754
-0.487916,-0.382817,0.691773,0.328177,-0.669667,-0.666218
0.042663,0.130383,0.274615,0.839544,0.534256,0.098677
-0.139322,-0.030643,0.636814,0.240363,-0.957414,-0.159953
-0.695983,0.146323,0.759031,0.514704,-0.234006,-0.824816
0.258309,0.115401,0.013190,0.461039,0.664574,-0.588035
0.357878,0.335231,0.056995,0.406693,0.063755,-0.911338
-0.669975,-0.139517,0.933470,-0.492109,0.870510,-0.006402
0.679824,0.069257,-0.536041,-0.111891,0.287990,0.951074
-0.606617,0.162185,0.745226,0.010171,0.639269,0.768916
-0.224575,0.046745,0.744446,0.830736,-0.517429,0.205293
0.547022,0.022874,-0.611560,0.789090,0.523338,0.321641
-0.162143,0.514843,0.558662,0.203006,-0.718391,0.665359
-0.206434,0.071903,0.739389,0.887569,-0.360952,0.286243
-0.376088,-0.592632,0.756987,0.795370,-0.561357,-0.228616
-0.293032,0.433210,0.542605,-0.317160,-0.414486,0.853001
-0.042092,0.327378,0.714464,-0.554970,-0.733849,0.391758
0.101696,0.211458,0.267479,0.621436,-0.749066,0.229602
-0.670399,0.013261,0.939567,-0.259400,-0.582013,-0.770696
0.224791,0.394513,-0.103467,0.812535,-0.523682,0.256015
0.336334,0.037694,-0.691895,0.229208,-0.021642,0.973137
0.093192,0.495533,-0.229269,0.758157,0.598314,-0.259264
-0.008077,-0.212578,0.619701,0.343849,-0.309178,-0.886666
-0.630004,-0.317843,0.727576,-0.027223,0.883253,0.468105
0.019488,0.453316,-0.355625,0.850746,0.454681,0.263622
0.399263,-0.214979,-0.341925,0.344392,-0.156221,-0.925737
-0.115087,0.373766,-0.058207,0.106151,-0.912544,0.394962
-0.206222,-0.561304,0.486554,0.131412,0.682094,0.719360
-0.440648,-0.562830,0.760053,-0.289476,-0.303394,-0.907830
-0.368648,-0.490326,0.796600,-0.556958,0.550940,0.621501
-0.670044,-0.408531,0.637091,-0.402386,-0.537560,-0.741023
-0.282331,-0.201762,0.375302,0.930125,-0.026264,0.366302
-0.456734,-0.654799,0.324517,-0.842600,0.265028,0.468813
0.033026,-0.197279,0.614972,0.898584,0.417485,0.135103
0.274468,0.278110,-0.131440,0.830678,-0.209187,0.515960
0.275532,-0.356139,0.455342,0.294988,0.247916,-0.922778
0.068953,0.513640,-0.256827,0.805801,-0.022174,0.591772
0.480831,0.488165,-0.747634,0.835513,-0.463769,0.294680
0.342073,-0.041860,-0.339811,-0.791990,0.322091,0.518660
-0.076323,0.468537,0.146475,0.964639,0.098068,-0.244651
-0.448374,-0.805807,0.553933,-0.165145,0.631702,0.757417
0.451280,0.209615,-0.307473,-0.439389,-0.715732,0.542831
-0.559561,-0.302783,0.759862,0.746010,-0.539303,0.390669
-0.692722,0.066294,0.918591,0.975966,-0.197303,0.092528
-0.182480,0.140074,0.457040,0.272396,0.800659,-0.533615
-0.428390,0.286842,0.685954,0.384040,0.830705,0.403041
0.814970,0.407172,-0.964146,-0.244329,0.315771,0.916838
-0.155127,-0.535189,0.489672,0.170936,0.812589,0.557208
0.015310,0.221790,0.535244,0.183210,-0.728726,0.659842
0.551062,0.148088,-0.972945,0.268080,-0.014544,-0.963287
-0.626673,0.065091,0.904336,0.741564,0.638525,-0.205837
-0.341719,0.355180,0.701040,0.803553,0.274565,-0.528126
-0.054636,0.073423,0.568067,-0.943121,-0.136022,0.303349
0.243922,-0.083916,-0.161613,-0.333594,0.095797,0.937837
-0.081639,0.478551,0.035880,-0.057522,-0.904880,0.421762
0.253135,0.317525,-0.177202,0.709379,-0.500976,0.495786
-0.067179,0.035611,0.517819,0.810991,-0.337182,-0.478123
0.381690,0.407651,-0.550244,0.440538,-0.897734,0.000400
-0.686273,-0.064529,0.925260,0.782750,0.339854,0.521347
0.440082,0.590706,-0.999169,-0.342799,0.321253,0.882771
-0.285662,-0.175006,0.370868,-0.778137,-0.293242,-0.555438
-0.628235,-0.288764,0.933262,-0.605080,-0.795415,-0.034556
-0.029622,0.508833,0.111573,0.576253,0.816560,-0.034096
0.295939,0.410614,-0.275516,0.917519,0.332423,0.218298
0.540288,0.488086,-0.814302,0.777550,-0.606023,0.167789
-0.319114,0.045142,0.722033,-0.482566,-0.797236,-0.362692
-0.410107,0.091368,0.455689,0.547902,-0.541951,0.637254
-0.430726,0.109152,0.870907,0.140479,-0.370005,0.918347
0.321805,0.306308,-0.367542,0.991910,0.126064,0.014920
0.012330,0.462367,0.115262,0.528443,-0.846347,0.066661
0.165971,-0.022390,-0.624118,0.183811,0.305238,0.934368
-0.500247,0.312640,0.788476,0.768356,0.036488,0.638982
0.548437,0.062847,-0.964388,-0.293094,0.331260,0.896863
0.111830,-0.053874,0.330371,-0.259216,0.898670,0.353835
0.392602,0.382577,-0.583206,0.964331,0.023104,-0.263689
0.661969,0.594231,-0.982610,-0.082407,0.297163,0.951264
-0.153427,0.434168,0.551144,0.645017,0.637991,0.420619
0.013891,0.341881,-0.265626,-0.016290,0.925893,0.377435
-0.114732,-0.489446,0.634077,0.336762,-0.753673,-0.564418
0.076678,-0.376245,0.681208,-0.477899,0.616222,0.626006
0.506342,0.516202,-0.872189,0.830685,-0.556683,-0.008132
0.364963,0.245265,-0.347207,0.908036,0.344207,-0.238728
0.236695,0.322972,-0.128998,0.885773,0.149177,0.439491
-0.547727,-0.173241,0.897772,0.815509,0.569498,0.103042
-0.021188,0.069658,0.401803,-0.278638,0.951468,0.130650
-0.114023,0.626919,0.471156,0.374407,0.034257,-0.926632
-0.687618,-0.537193,0.358276,0.842671,0.352709,0.406820
0.588688,-0.086239,0.036296,0.342325,0.584732,-0.735461
0.235562,0.101945,-0.314350,0.329055,-0.275473,0.903237
-0.457232,0.340917,0.874423,0.585666,0.191164,0.787688
0.701792,0.163471,-0.959348,-0.076255,0.391154,0.917161
-0.008999,-0.518124,0.647553,0.395929,-0.623311,-0.674332
0.044930,0.121733,0.241307,-0.735867,-0.415722,-0.534485
-0.325278,0.403563,0.779400,-0.126122,-0.911393,0.391736
0.876338,0.054759,-0.504638,-0.292985,0.273682,0.916110
0.532705,0.385941,-0.700139,0.983928,-0.067733,-0.165223
-0.574375,0.109636,0.924082,0.827165,-0.078407,0.556462
-0.411309,-0.625555,0.759239,-0.262424,-0.804062,-0.533496
-0.920132,0.023275,0.523846,-0.477630,0.845017,0.240448
0.106372,0.613301,-0.492686,0.074443,0.769970,0.633723
0.494365,0.252634,-0.783298,-0.137139,-0.215759,0.966768
0.701511,0.153213,-0.959192,-0.001789,0.426059,0.904694
0.085536,0.045943,0.295539,0.822127,0.535592,0.192996
0.449650,0.419186,-0.759135,0.993119,0.091621,0.072945
-0.698392,0.056358,0.923441,0.762678,-0.495456,0.415747
0.332294,0.058124,-0.662484,-0.476025,0.878104,0.048310
0.191555,0.079271,-0.235608,0.904627,-0.014909,-0.425942
0.500179,-0.377448,0.182554,0.573084,0.514713,-0.637688
-0.560059,-0.294534,0.722327,0.621908,-0.451858,0.639573
-0.204877,0.008694,0.683148,0.908321,0.006206,0.418228
-0.627314,-0.520529,0.753921,-0.067925,0.962775,0.261630
0.475373,0.519087,-0.717738,0.897152,-0.439100,0.048055
0.092976,0.596397,-0.376688,0.537710,-0.603481,0.588794
-0.120545,0.151853,-0.392398,-0.463866,0.117249,-0.878112
-0.641414,0.080953,0.922246,0.954818,-0.295650,-0.030226
0.728653,0.204085,-0.955780,-0.326537,-0.031200,0.944669
-0.068810,0.051635,0.541878,0.966046,-0.255573,-0.037917
0.164271,-0.349650,-0.303195,0.739939,0.602211,-0.299719
0.103750,-0.282916,0.676271,0.996239,-0.002813,-0.086602
0.087379,-0.079511,0.361618,-0.486487,-0.564044,-0.667221
-0.289845,-0.214182,-0.129292,0.330064,0.437125,0.836648
-0.206434,0.603766,-0.316116,-0.628408,0.703463,0.332028
-0.114451,0.499059,0.521179,-0.293790,-0.865447,0.405818
-0.740841,-0.424154,0.756502,-0.402738,0.466827,0.787321
0.158103,-0.069820,0.011873,0.935274,-0.252009,-0.248504
-0.410674,0.168356,0.486641,0.180104,-0.665128,0.724684
0.555240,0.632605,-0.992275,0.206206,-0.360541,-0.909664
-0.375807,-0.537594,0.745867,0.977829,-0.132900,-0.161829
0.338176,0.341240,-0.292265,0.922001,0.289148,0.257504
0.445822,0.452754,-0.991270,-0.182792,0.174571,0.967529
0.598542,0.068054,-0.777928,0.818146,-0.573639,-0.039694
-0.469918,0.382254,0.685018,0.650047,0.721338,-0.238978
-0.925379,-0.008210,0.731196,0.781238,0.363853,0.507226
-0.488625,-0.578291,0.775053,-0.690903,-0.722906,0.007758
-0.615761,-0.338673,0.491231,0.167377,0.500988,0.849115
-0.531217,-0.026395,0.885283,0.850940,-0.351640,-0.390194
-0.672029,0.074465,0.941455,-0.812274,0.122343,-0.570301
0.464672,-0.310235,0.478189,0.426880,0.415606,-0.803147
-0.416837,-0.400439,0.751115,0.746147,-0.627932,-0.221281
-0.166537,0.630444,0.465769,0.330721,0.060678,-0.941776
0.479979,0.343000,-0.547213,0.688831,0.724245,0.031317
-0.712636,-0.033846,0.970918,-0.684572,-0.356979,0.635553
0.066617,-0.087603,-0.454944,-0.828335,0.454579,0.327443
0.430942,0.496413,-0.991062,-0.470129,0.184026,0.863199
0.975056,0.213297,-0.943949,0.065586,0.080288,0.994612
-0.048329,0.027597,0.525198,0.979597,0.182102,0.085019
0.059104,0.187421,0.280262,-0.648472,-0.602903,-0.464750
0.505776,0.441859,-0.886790,0.985525,-0.127815,-0.111370
-0.584013,0.449150,0.716820,0.510678,0.233498,-0.827458
-0.700235,0.116042,0.836334,0.027782,0.743761,0.667868
-0.178229,0.391867,0.100280,-0.552723,0.798863,-0.237310
-0.729998,-0.137752,0.876917,0.805082,0.367944,0.465252
0.332151,0.258961,-0.399898,0.903924,-0.045682,-0.425247
-0.662038,-0.522050,0.359661,0.842671,0.352709,0.406820
-0.191979,-0.510593,0.494453,-0.037237,0.766522,0.641138
0.087946,0.153858,0.205453,0.993902,-0.110253,-0.001455
0.320317,0.338834,-0.399326,0.985243,0.169512,0.023704
-0.476860,0.102023,0.873522,0.176370,-0.215916,0.960351
-0.588195,-0.301981,0.943984,-0.279736,-0.925706,-0.254591
0.221318,0.225638,-0.075078,0.867333,-0.382658,0.318287
-0.432499,0.082875,0.981345,0.983299,-0.116135,-0.140131
0.180214,0.272261,-0.192531,0.085429,0.986683,0.138416
-0.030686,-0.060363,0.785896,0.884076,-0.219126,-0.412788
-0.008363,-0.230685,0.565244,0.873048,0.114311,0.474046
0.124867,-0.031685,-0.453939,0.790180,0.229603,-0.568241
0.857419,0.362226,-0.956299,-0.298464,0.224969,0.927528
-0.327830,-0.549290,0.526376,0.144475,0.075763,0.986604
-0.517398,0.064450,0.741554,0.187353,-0.816658,0.545865
-0.683794,0.078870,0.824417,0.923469,-0.347483,0.162669
0.081072,0.379213,-0.836144,0.222834,-0.549938,0.804931
0.181914,0.403324,0.025730,0.599827,0.614454,-0.512497
0.134504,-0.009892,-0.780907,0.223325,0.366263,0.903315
-0.132661,0.008053,0.610746,-0.690715,0.614291,-0.381522
0.447807,0.148729,-0.975716,0.275133,-0.177847,-0.944813
0.135780,-0.235491,0.161405,0.504736,0.248680,-0.826680
0.185245,0.271543,-0.086908,0.838565,0.482366,0.253244
-0.428390,-0.614660,0.746473,0.020587,0.855786,0.516921
0.663880,0.593913,-0.983476,0.115382,-0.261509,-0.958280
0.025937,0.467975,0.480908,0.819417,0.393051,-0.417213
0.916663,0.554175,-0.963366,-0.195547,0.179469,0.964133
0.172277,0.229643,0.109737,0.847303,0.421574,0.323036
0.010063,0.438256,0.045961,-0.369015,0.928525,-0.040848
0.164483,0.269137,-0.096625,0.972281,-0.102937,-0.209939
-0.489192,0.058040,0.894273,0.509607,0.855437,-0.092344
0.089788,-0.401001,0.581924,0.408183,-0.180120,-0.894954
0.755583,-0.306391,-0.542068,-0.722202,-0.234079,0.650869
0.808235,0.379692,-0.963938,0.279579,-0.269441,-0.921541
0.309192,0.081114,-0.322664,0.624591,0.504966,0.595731
0.414286,-0.035768,0.027913,0.697964,0.680303,-0.223684
-0.461553,-0.534069,0.786814,0.162890,0.880843,0.444502
-0.235349,-0.129019,0.661808,0.815152,-0.405872,-0.413274
0.209839,0.479270,-0.395256,-0.274934,-0.601680,0.749928
0.125222,0.520930,-0.800393,-0.020112,-0.553708,0.832468
0.050881,-0.460284,-0.171538,-0.308865,0.596518,0.740789
-0.604774,0.133268,0.927114,0.370210,-0.151706,-0.916477
0.445398,0.215140,-0.826652,0.252994,0.944563,0.209270
0.542697,0.347245,-0.430920,-0.062489,0.977132,0.203246
-0.299767,-0.235330,0.700451,-0.152697,0.761439,0.629995
0.713133,0.237574,-0.959729,-0.342731,0.229313,0.911017
-0.305009,-0.208813,0.382611,0.932815,-0.216366,0.288168
-0.169794,-0.007090,0.658154,0.953921,0.013207,0.299767
-0.122457,-0.602162,0.541601,0.163041,-0.608351,0.776741
0.226772,-0.130305,-0.187768,0.911873,-0.391914,-0.122026
0.066401,-0.322811,0.093074,0.952493,-0.102593,-0.286762
0.282263,0.631965,-0.266353,-0.621179,-0.534994,0.572641
-0.520304,-0.270178,0.823655,0.682287,-0.722347,0.112691
-0.084546,0.044584,0.585180,0.821741,-0.569378,0.023463
0.158886,-0.260164,-0.178674,-0.050308,0.615690,0.786381
0.307138,-0.325857,0.202803,-0.206343,-0.248429,-0.946417
0.132094,0.601121,0.009778,0.977412,-0.072022,0.198693
-0.667704,-0.555456,0.763378,0.383875,0.833978,0.396384
-0.140031,-0.205126,0.763655,0.401161,0.577833,0.710759
-0.141947,0.569240,0.564776,0.035367,-0.750162,0.660308
0.213026,0.128623,-0.100245,-0.094079,-0.397962,0.912565
-0.652539,-0.015583,0.858280,-0.137945,0.966044,0.218474
0.555098,0.126295,-0.968632,-0.333183,0.201648,0.921047
0.499681,0.390107,-0.693575,0.976716,-0.119992,-0.177841
0.091207,0.192071,-0.113652,-0.306196,0.746617,0.590599
0.253135,-0.386983,0.585890,0.038772,-0.902563,0.428808
0.287933,0.420790,-0.252046,-0.416562,0.908325,0.037707
-0.047905,0.660887,0.480752,0.381608,0.146766,-0.912598
-0.140883,0.415661,-0.035915,0.150696,0.933974,0.324012
-0.337752,-0.760543,0.556064,0.138183,0.142048,0.980167
-0.430726,0.137673,0.749418,0.185764,0.744751,0.640966
0.097159,-0.054598,0.347121,0.334627,0.675996,0.656547
0.459499,-0.259123,-0.754891,0.974818,-0.178163,-0.134120
0.191837,0.689565,-0.361913,0.403038,-0.908694,0.108787
0.050600,-0.093129,-0.766444,0.072703,0.854912,0.513654
0.273123,0.382817,-0.282202,-0.676897,0.730165,-0.093113
0.052936,-0.277469,0.409407,0.209865,0.618604,0.757156
0.124443,0.328820,-0.229789,0.234835,0.959555,0.155263
0.272059,0.279630,-0.218478,0.993520,0.103394,-0.047197
-0.056976,0.335631,0.562507,0.393083,-0.675609,0.623729
0.370491,0.009251,-0.569487,-0.326730,0.836391,-0.440111
0.035859,0.106668,0.459811,-0.713366,0.700487,0.020680
-0.030898,0.236450,-0.106221,-0.453519,0.813134,-0.364874
-0.330875,-0.101945,0.554401,-0.302141,0.819906,0.486277
-0.572105,-0.430882,0.702010,0.865307,-0.325977,0.380766
0.790731,0.482238,-0.970451,0.435267,-0.112622,-0.893229
0.134292,0.181734,0.054414,0.903168,0.376634,0.205995
-0.213307,0.254478,0.736513,0.625262,0.631439,0.458620
-0.657358,-0.102184,0.943724,-0.358357,0.719241,-0.595209
-0.092409,-0.022233,0.561762,0.756398,0.615389,0.221718
0.582737,0.541839,-0.982419,0.399506,-0.315292,-0.860805
-0.585500,-0.085921,0.766271,0.786690,0.380028,0.486516
-0.425484,-0.443302,0.748499,0.812001,-0.330114,-0.481330
0.845580,0.491930,-0.966138,-0.157759,0.372644,0.914466
0.232019,0.107470,-0.374869,-0.592617,0.805353,-0.014544
-0.330520,-0.181896,0.380879,-0.714337,-0.477118,-0.511938
0.310823,-0.136070,0.202595,-0.062528,0.628185,0.775547
0.763943,0.277708,-0.961894,0.262914,-0.242972,-0.933724
0.235704,-0.084401,-0.421341,0.532133,0.368454,0.762284
0.067677,0.424956,0.059368,0.769382,-0.564301,0.299359
-0.102613,0.103788,0.635965,0.915815,0.179307,-0.359350
-0.059104,0.034888,0.469545,0.794770,-0.574510,0.195650
-0.761179,0.009735,0.858332,-0.718806,-0.680190,-0.143734
0.347104,-0.045865,-0.156556,0.658727,0.751982,0.024523
0.321100,0.316405,-0.286411,0.774076,0.529278,0.347379
0.055488,0.144323,0.313432,0.739571,0.666782,0.091854
0.129473,0.278349,-0.063300,0.810267,-0.584421,0.043826
0.464391,0.487441,-0.761819,0.942429,-0.333308,0.027086
-0.001914,0.418306,0.108992,0.628813,-0.705076,0.327812
0.292042,-0.469579,-0.322404,-0.582797,0.125057,0.802938
0.920063,0.618269,-0.968718,-0.123002,0.321140,0.939010
0.340655,-0.241657,0.008288,-0.457077,0.701805,-0.546397
0.545746,0.643984,-0.652541,-0.112607,-0.465844,0.877672
-0.066189,0.021348,0.465752,0.737491,-0.653236,0.171435
-0.480545,0.002846,0.853413,0.841899,-0.529333,0.104945
0.458296,0.200721,-0.980289,0.154099,0.136150,0.978630
-0.401106,0.148729,1.000000,0.983299,-0.116135,-0.140131
0.949259,0.444182,-0.956230,-0.210843,0.330217,0.920055
0.355612,0.393153,-0.370643,0.556087,0.824863,0.101827
-0.602365,-0.319046,0.965323,0.677399,0.524451,-0.515830
-0.495641,0.210657,0.739770,0.142585,0.170163,0.975046
0.080363,0.193352,0.203738,0.004882,-0.978990,0.203851
-0.415635,-0.455560,0.777772,-0.112379,0.353724,0.928574
0.621362,0.467334,-0.906172,0.860294,0.485073,0.156838
0.847994,0.551134,-0.968736,0.322647,-0.201432,-0.924837
0.212174,0.365674,-0.085990,0.941109,-0.306074,0.143638
-0.606690,0.113880,0.921051,0.228113,0.749969,-0.620895
0.435121,0.114281,-0.457455,-0.446115,-0.772007,0.452754
0.667566,0.568917,-0.978955,0.180698,-0.400101,-0.898481
-0.674153,-0.010855,0.922922,0.672454,-0.733993,0.095179
0.010136,0.184942,0.272260,0.826413,0.561959,0.035252
-0.332151,-0.145521,0.802680,-0.715950,0.554583,-0.424091
0.490468,0.444744,-0.662120,0.848796,0.504032,0.159680
0.354617,0.284838,-0.407762,-0.280259,0.909957,0.305670
-0.116718,0.690528,0.111625,0.020170,-0.276841,0.960704
-0.508254,0.214901,0.764279,0.282789,0.912809,-0.294634
