0.132601,-0.567026,0.755039,0.717406,0.649189,-0.252750
0.147916,0.442763,0.341060,0.663711,0.584118,-0.467219
-0.060924,-0.750028,0.673259,-0.383299,0.866859,-0.318807
-0.532827,0.174602,0.805926,-0.213407,0.268951,0.939214
-0.308221,-0.363889,0.001905,-0.233337,0.661802,0.712441
-0.116779,-0.189454,0.944109,0.727608,-0.661937,-0.180073
0.010923,-0.392981,0.126631,-0.679849,0.701638,-0.213328
-0.486262,-0.734064,0.852985,-0.089139,-0.605612,0.790752
-0.466498,-0.437201,0.975248,0.885258,0.453277,0.104202
-0.435191,0.361664,0.816938,-0.867509,0.171576,0.466894
-0.211712,0.093558,0.361472,0.025839,0.284504,0.958326
-0.136149,-0.237068,0.617387,-0.451832,0.445171,0.773091
0.134966,-0.312660,0.011552,-0.309318,-0.521826,0.794997
-0.327253,0.020302,0.875520,-0.297774,0.925521,0.233969
0.230236,0.124930,0.746454,-0.484799,-0.157544,0.860320
-0.412331,-0.343643,0.917443,-0.214802,0.613276,0.760100
-0.455518,-0.147235,0.473367,-0.319113,-0.185105,0.929464
-0.263458,-0.314162,0.947862,0.627221,0.063477,-0.776250
-0.502533,0.242796,0.805434,-0.038111,-0.086178,0.995551
0.684065,0.314495,0.485004,0.714798,-0.607460,0.346492
-0.656757,0.112192,0.512068,0.461077,-0.883683,-0.080701
-0.312162,0.081266,0.514665,0.698592,-0.530395,-0.480261
-0.166104,-0.226332,0.801567,0.010653,0.996690,0.080597
-0.036768,0.148682,0.650516,0.060485,-0.460177,0.885765
0.369932,-0.412059,0.767510,-0.005665,0.956263,0.292454
-0.492511,-0.123818,0.472097,-0.601830,0.115754,0.790191
-0.079618,-0.492491,0.650270,-0.552221,0.169508,0.816283
-0.188513,-0.073257,0.644034,0.289965,-0.780355,0.554045
0.103265,-0.167260,0.581794,-0.558706,0.103048,0.822939
0.200112,0.193681,0.837615,0.934242,-0.331426,0.131717
-0.172578,-0.646513,0.810077,0.919170,-0.010805,-0.393712
-0.080349,-0.335744,0.620211,0.818029,-0.559657,0.132713
0.402139,-0.013127,0.852663,0.367371,0.928863,0.047465
-0.568975,0.343086,0.768476,0.632138,-0.771775,0.069021
-0.708952,-0.346646,0.321785,-0.393885,0.916135,0.074512
-0.824831,-0.062521,0.323870,0.804212,0.187646,0.563944
0.274662,0.359773,0.361623,-0.116795,-0.185310,-0.975715
0.088176,-0.448826,-0.406237,0.964083,0.112108,-0.240781
-0.222692,-0.176661,0.930729,0.838390,0.327711,0.435554
0.041497,-0.420403,-0.365319,0.868249,-0.486295,-0.098296
-0.419651,-0.209089,0.882532,0.802296,0.584011,0.123501
0.276689,-0.577539,-0.972102,-0.117646,0.569042,0.813849
-0.530969,-0.119924,0.830224,0.716640,0.666204,-0.206397
-0.030293,-0.460674,0.407791,-0.669717,0.657143,-0.345893
-0.004843,-0.386195,0.143347,0.486677,-0.873389,-0.018367
-0.257320,0.685560,0.550674,-0.356794,-0.841099,-0.406510
-0.329843,-0.242129,0.763662,-0.425181,0.466065,0.775889
0.405687,0.320002,0.342311,0.758296,-0.045865,0.650295
-0.544313,0.382189,0.862026,0.663602,0.731691,-0.155759
0.680349,-0.132273,0.497285,0.660323,-0.690402,-0.295499
0.654560,-0.159028,0.518550,0.207020,-0.825683,0.524777
0.760022,-0.158694,0.728847,-0.400457,0.404616,0.822143
0.176914,-0.205028,0.890966,-0.044337,0.996970,-0.063908
0.597691,-0.282401,0.502421,0.896016,0.328866,0.298332
0.651464,0.069140,0.150682,-0.278745,-0.025973,0.960014
-0.571452,-0.620314,0.352677,0.461123,-0.321920,0.826881
0.003322,-0.438425,-0.133492,-0.825700,-0.563526,0.025632
0.935923,0.244020,0.092877,-0.699883,-0.487087,0.522408
0.079674,0.166537,0.819629,0.966989,0.251308,0.042153
-0.070889,-0.245578,0.775716,-0.049451,0.990917,-0.125055
0.212444,0.071532,0.753049,0.332200,0.313425,-0.889611
-0.338514,-0.295083,0.922882,-0.318418,-0.515095,-0.795794
-0.485755,0.321393,0.748595,-0.868720,0.023082,0.494766
-0.549043,-0.423017,0.269760,0.656755,0.540706,-0.525652
-0.488232,-0.355991,0.935789,0.992047,-0.030016,0.122235
0.494313,0.065191,0.507633,0.668772,0.575961,0.470119
0.479899,-0.193125,0.754433,-0.502621,0.592521,-0.629517
-0.434291,0.304817,0.783316,0.796332,0.452428,-0.401453
0.090709,-0.648292,-0.979626,0.564701,-0.270422,-0.779734
0.254729,0.177049,0.783335,-0.714150,-0.100895,0.692684
-0.410304,-0.417510,0.333289,-0.589879,0.794478,-0.144387
-0.170890,-0.719046,0.909540,0.897760,0.191067,-0.396889
-0.509178,-0.301869,0.892843,0.967651,-0.252253,0.004388
0.952364,0.183947,0.126612,0.503261,-0.668413,0.547679
0.553040,-0.371399,0.353568,0.306322,0.403340,0.862255
-0.489921,-0.231338,0.873397,0.908667,-0.411705,0.069442
-0.572241,0.148403,0.780189,0.938077,-0.285840,-0.195719
0.000619,-0.456503,0.235513,0.689864,0.721118,-0.063841
0.343299,-0.158638,0.756043,-0.637792,0.282890,-0.716377
-0.187106,-0.097063,0.630028,0.659192,-0.448759,0.603392
0.059178,-0.289465,0.933306,0.947334,0.235000,-0.217562
-0.051745,-0.375737,0.582135,-0.606875,0.124188,-0.785035
0.077872,-0.367004,0.630313,0.986048,-0.050243,-0.158696
-0.556757,0.306430,0.683114,0.901553,-0.421019,-0.099723
0.334797,0.536211,0.502687,-0.454767,-0.667012,0.590154
-0.009516,-0.426021,0.936547,0.764624,-0.634422,0.113401
0.105293,0.158972,0.823211,0.748549,0.503728,0.431200
-0.020045,-0.159639,0.771490,-0.112944,-0.678935,0.725459
-0.210810,-0.553510,0.896292,-0.297927,0.946104,-0.126990
0.629223,0.068584,0.468780,0.162424,0.186953,0.968848
-0.266554,-0.796807,0.658343,0.553119,0.474869,0.684513
-0.612725,-0.535877,0.619017,0.836435,0.534958,0.119152
0.303772,-0.095339,0.798459,0.457435,-0.092010,-0.884470
0.060980,0.148682,0.827987,0.752685,0.233791,0.615474
-0.577760,-0.163200,0.266273,0.847620,0.525569,-0.072923
0.070608,-0.337023,0.576715,0.993235,0.113377,-0.025102
0.236712,0.535655,0.555924,0.715041,-0.673760,0.186453
-0.200619,-0.178607,0.419675,-0.768051,-0.366809,-0.524927
-0.061542,-0.406219,0.885337,-0.284038,0.231005,-0.930569
-0.622241,-0.373790,0.410028,0.918644,-0.055886,0.391114
0.702646,0.226388,0.407583,-0.555705,-0.807810,-0.196556
-0.077252,-0.250751,0.704265,0.902541,-0.424253,0.073689
0.149380,0.315886,0.651691,0.552491,0.448765,-0.702398
0.426971,-0.286851,0.340093,-0.284985,0.185340,0.940443
-0.357602,0.798754,0.631033,-0.412829,0.669925,-0.617067
0.493863,-0.083046,0.693595,0.559536,0.136756,0.817445
-0.230405,0.491768,0.306528,-0.421941,-0.005150,0.906609
-0.125113,-0.575926,-0.024212,0.015844,0.190895,0.981483
-0.560079,-0.478140,0.249576,0.439708,-0.617727,-0.651974
0.154561,-0.250640,0.425796,0.078626,-0.904668,0.418801
0.189808,0.466292,0.307495,0.427425,0.838206,-0.338701
0.067680,-0.590945,0.598700,0.551423,-0.261190,-0.792283
0.011487,-0.419568,-0.011665,-0.034644,-0.951847,0.304610
0.265146,-0.350873,0.874023,-0.380868,0.362875,0.850448
-0.039190,-0.669207,0.672671,0.561787,0.269054,-0.782308
-0.292399,-0.577206,0.534413,0.834346,0.093805,-0.543200
-0.278998,-0.520803,0.858633,-0.570443,0.364365,-0.736093
-0.022016,0.099900,0.784832,0.796493,0.078806,-0.599491
0.158052,0.312159,0.656107,-0.614058,-0.789255,-0.003096
-0.408052,0.367171,0.842126,0.779972,0.076703,0.621095
-0.127590,-0.062632,0.894131,0.079869,-0.171301,0.981976
-0.289415,0.839081,0.596880,0.478574,-0.361552,0.800154
-0.018468,-0.299143,0.973258,0.916730,0.367750,0.156099
-0.261149,0.129881,0.591801,-0.056084,-0.663406,0.746155
-0.409121,0.170041,0.841519,-0.554281,0.081811,0.828299
-0.397973,-0.551062,0.953528,0.883003,0.412567,0.223817
0.114471,-0.456781,0.522852,0.787106,0.407434,0.463100
0.248987,0.098732,0.774788,-0.162169,-0.850908,0.499657
-0.384403,-0.662587,-0.036815,-0.120868,-0.002369,0.992666
0.057489,-0.448437,-0.483829,-0.025396,0.992637,0.118432
0.099155,0.342085,0.649549,0.303528,0.464366,0.832007
-0.605574,-0.048560,0.409137,0.025990,0.470104,-0.882228
0.303435,-0.071087,0.794669,-0.078846,-0.305491,0.948925
-0.100169,-0.187674,0.916666,0.318893,0.375440,-0.870260
0.346396,0.365502,0.501985,0.454175,0.824001,0.338745
-0.360755,-0.067360,0.607210,0.646789,0.181501,0.740757
0.202478,0.424964,0.498081,-0.620577,-0.576933,-0.531067
0.092849,-0.675548,-0.977844,-0.472873,0.157923,0.866863
0.039808,0.503782,0.644262,0.345711,0.534140,0.771478
-0.276576,0.234564,0.739384,0.992026,0.067937,-0.106157
0.138063,0.622984,0.534337,0.779901,0.623225,-0.057840
-0.290710,-0.188286,0.879993,-0.000291,-0.919499,0.393092
0.143131,0.218156,0.766012,-0.115499,0.563392,0.818076
-0.082489,-0.286462,0.676538,-0.841710,0.531359,-0.095825
0.117117,-0.707976,0.741583,-0.345262,-0.876789,0.334716
0.099380,-0.422071,0.285434,0.472307,-0.345316,0.810976
0.468243,0.129936,0.516901,0.833586,0.519302,0.188310
0.131025,0.355601,0.653548,0.534031,0.203641,-0.820574
0.071791,0.062354,0.795180,0.814880,-0.163380,-0.556128
-0.023030,-0.473245,0.938025,0.903971,-0.420373,-0.078247
-0.117681,-0.241517,0.738626,0.533628,0.843329,0.063546
-0.105743,-0.267494,0.141755,0.549089,0.777046,0.307736
0.133559,-0.604516,-0.914297,0.912723,0.406060,0.045304
-0.561318,0.077651,0.598397,0.086755,0.983340,0.159737
0.009291,-0.243910,0.879633,-0.398136,-0.860954,0.316617
0.102477,0.688563,0.535133,0.893830,0.403959,-0.194639
-0.254504,-0.137613,0.619927,0.183286,0.925483,-0.331493
0.399662,-0.085215,0.775792,-0.271560,0.802463,-0.531327
0.070946,-0.445600,-0.272812,-0.821044,-0.570865,-0.000394
-0.390090,-0.813439,-0.029177,0.082242,-0.111342,0.990373
0.484516,0.057459,0.465142,-0.131374,-0.597578,0.790975
-0.116723,-0.639726,0.947577,-0.190511,0.978780,-0.075467
-0.345496,-0.022250,0.742815,-0.757353,-0.577635,0.304557
-0.408784,-0.162198,0.591005,0.007946,-0.753385,0.657532
0.106418,-0.676994,0.616364,0.582535,0.644007,-0.495891
-0.150619,0.770386,0.560473,0.891983,0.144942,-0.428204
-0.012781,0.132606,0.656562,0.062820,-0.069044,0.995634
0.251239,-0.155746,0.607247,0.199386,-0.970629,0.134627
-0.259121,0.218990,0.668274,-0.203505,0.913731,-0.351682
0.006532,-0.403938,0.387834,-0.714457,0.699669,-0.003898
-0.354561,0.096395,0.851356,0.004916,-0.076845,0.997031
0.103040,0.263044,0.299686,-0.469846,-0.403264,0.785253
0.189808,0.222828,0.661906,-0.481266,-0.106142,-0.870124
-0.381081,0.096785,0.817885,0.730106,0.288128,-0.619619
-0.544482,0.336133,0.807803,0.785936,-0.281529,0.550495
-0.161317,0.305206,0.666493,-0.650424,0.744068,0.152678
-0.266385,0.735399,0.577018,-0.682278,0.183841,-0.707601
0.055406,0.211814,0.770921,0.805824,0.411408,0.425901
-0.002590,-0.294304,0.759246,0.473398,0.324086,-0.819062
-0.090147,-0.169708,0.925422,0.260941,-0.456875,0.850397
0.030631,-0.133385,0.596463,0.034422,-0.437087,0.898760
-0.281250,-0.006897,0.520748,0.873109,-0.243177,-0.422546
-0.210530,0.545667,0.326921,-0.461210,0.148761,0.874731
0.767285,0.149516,0.137737,-0.809039,-0.289278,-0.511638
-0.329223,0.838247,0.603703,0.732617,-0.448018,0.512398
-0.203660,0.769107,0.617349,-0.689212,0.296816,-0.660974
-0.714021,-0.360107,0.043941,0.072634,0.467929,0.880776
-0.114358,0.017577,0.901011,-0.132322,-0.875706,0.464360
-0.222523,-0.032929,0.762412,-0.888120,0.443012,-0.122405
0.062669,-0.421738,-0.202555,-0.088559,0.990665,0.103639
-0.286655,-0.926188,-0.043903,0.263766,-0.108646,0.958448
-0.114190,-0.639392,0.963081,-0.265392,0.032456,0.963594
0.605574,-0.137946,0.692515,-0.436608,-0.697402,0.568334
0.454617,-0.196796,0.792565,0.461451,-0.880759,-0.106424
-0.088401,0.427133,0.764041,0.195062,0.348025,0.916967
0.040709,-0.341139,0.950003,0.412768,-0.904954,-0.103349
-0.229843,0.443542,0.540592,0.580882,0.143684,0.801206
-0.588007,-0.115141,0.605333,0.586676,0.771880,-0.244975
-0.012556,0.542997,0.324552,-0.089957,0.044401,0.994955
-0.144482,-0.571977,0.849650,-0.608984,0.679052,-0.409911
-0.158896,-0.364890,0.025671,-0.283827,0.817643,-0.500902
-0.620890,-0.416008,0.270594,-0.520428,-0.552294,0.651250
-0.496171,-0.302592,0.899533,0.889510,-0.444018,0.107791
-0.618413,0.117088,0.521923,0.769163,0.631731,-0.096464
-0.387726,0.106519,0.770372,0.929401,0.316095,0.190521
-0.599325,-0.121093,0.561591,0.606054,0.750568,-0.263338
-0.559403,-0.950662,0.201475,0.536485,0.797002,-0.277438
-0.553998,-0.317777,0.017408,0.251766,0.389422,0.885982
-0.331138,-0.177773,0.718214,0.270364,-0.911436,-0.310142
0.069707,-0.030371,0.253499,-0.502913,-0.460267,0.731596
0.002477,0.122149,0.765235,0.184012,-0.696632,0.693429
0.254449,0.542552,0.533409,0.267461,0.946137,0.182452
-0.090372,0.454333,0.327205,-0.008817,-0.025677,0.999631
0.215765,0.107520,0.592142,0.420997,-0.533522,-0.733564
-0.132207,-0.224052,0.484321,-0.670192,-0.722507,0.169785
-0.214246,-0.579653,0.915605,0.095367,0.679949,0.727031
-0.216611,-0.297530,0.938499,0.498814,0.385531,-0.776242
-0.038119,-0.383691,0.471036,0.958222,0.273257,0.084504
0.020608,0.390588,0.624229,-0.507010,0.537460,0.673853
-0.258277,0.100901,0.468212,0.969907,0.050682,0.238143
0.361768,0.003838,0.506174,-0.580942,0.263490,0.770117
-0.401802,-0.375348,0.343524,0.868731,-0.488744,0.080218
0.083953,0.089387,0.862102,0.466313,-0.809859,-0.355921
0.420889,0.206419,0.347712,0.142452,-0.428217,0.892377
-0.604674,0.060852,0.841822,0.728714,-0.682440,-0.057023
0.185698,-0.340583,0.370986,-0.051673,0.863843,0.501104
-0.048817,-0.516798,0.931923,0.914261,-0.213593,0.344246
-0.397072,0.838413,0.638273,0.366273,-0.577061,-0.729962
0.440878,0.448325,0.341173,0.244394,-0.164328,0.955651
-0.440485,0.725664,0.549177,-0.620586,0.768836,0.154152
-0.433615,-0.416898,0.983758,0.891795,0.211981,0.399707
0.394426,-0.172377,0.802439,-0.173231,-0.135847,0.975467
0.389808,-0.075704,0.785685,-0.276682,0.958768,-0.064891
-0.522241,-0.620425,0.338217,0.840424,0.521552,0.147208
-0.029674,-0.340806,0.406086,0.028604,-0.984701,0.171888
-0.079336,-0.775615,0.883366,0.827973,0.197744,0.524745
-0.443975,-0.162476,0.697802,0.821238,0.550733,-0.149201
-0.541272,-0.315330,0.791181,0.043965,0.971571,0.232630
-0.555856,-0.307876,0.285662,0.477351,-0.877538,0.045419
-0.498705,-0.367950,0.951482,0.956872,0.216257,-0.193984
-0.223310,-0.455946,0.432506,-0.442458,0.171279,0.880281
-0.394482,-0.328235,0.925820,-0.280999,0.607236,0.743171
-0.511205,-0.175604,0.930463,-0.260090,0.524726,0.810565
0.210755,-0.296362,0.863106,-0.031949,-0.181819,-0.982813
0.072410,-0.439037,0.245975,0.701494,0.705089,-0.103707
0.147860,-0.069919,0.603173,0.002164,0.037132,0.999308
-0.374155,-0.220214,0.780284,-0.624891,-0.033380,-0.779998
0.251464,0.356157,0.458944,-0.795987,0.576844,-0.183456
-0.203942,0.298643,0.443896,0.963557,0.177159,0.200432
0.425619,-0.184003,0.830868,-0.122664,0.796794,0.591670
0.389471,-0.050339,0.694183,0.276596,0.871485,-0.404981
-0.320834,-0.067471,0.737167,-0.779255,0.221014,0.586442
0.034685,-0.311158,0.828423,0.733106,0.244168,-0.634774
0.292680,0.438647,0.484852,-0.524955,0.802820,-0.282670
-0.313851,0.393091,0.755285,-0.615424,0.698857,-0.364490
-0.277985,-0.535266,0.562804,-0.637080,-0.747636,0.187535
-0.249719,0.396095,0.536839,-0.318877,0.526891,-0.787847
0.068243,0.127990,0.828821,0.508801,0.109467,0.853896
0.750563,0.162810,0.445090,0.002517,-0.347306,0.937749
-0.090935,-0.555957,0.599496,0.465793,-0.155997,0.871035
-0.508615,-0.337357,0.920058,0.668806,0.172697,-0.723100
-0.418919,-0.670486,0.793721,-0.730331,0.233388,0.641986
-0.369257,0.317555,0.784226,0.889680,-0.124369,0.439319
0.025226,0.531705,0.322335,0.061348,0.467041,0.882105
0.296396,-0.291189,0.783581,0.982724,0.152943,0.104222
-0.774832,-0.344810,0.282459,0.750188,-0.598751,0.280563
-0.597241,-0.263155,0.850143,0.821066,-0.240961,0.517483
-0.005968,-0.359495,0.312024,-0.242004,-0.969411,0.040935
0.077703,-0.427078,-0.299137,0.794296,0.607511,0.004885
0.044538,0.116865,0.880599,-0.636025,-0.668775,-0.384983
-0.476351,-0.175492,0.826509,0.000038,0.999965,0.008411
-0.030011,-0.387641,-0.019796,-0.410423,-0.870374,0.272033
-0.172973,-0.539104,0.958740,-0.108171,0.091921,0.989874
-0.509066,0.290967,0.803406,0.191682,-0.096137,0.976737
-0.487331,-0.552453,0.748273,0.876962,0.004723,0.480536
-0.377421,-0.185227,0.120187,0.252240,0.589445,0.767418
0.135585,0.354211,0.120168,0.671973,0.583762,-0.455713
-0.280800,-0.162922,0.111621,-0.515447,-0.000690,-0.856921
-0.643299,-0.397152,0.268756,-0.492522,-0.509070,0.705882
0.165315,0.142730,0.855487,-0.657330,0.747687,-0.094243
0.135810,-0.179942,0.696798,0.918281,0.322579,-0.229572
-0.592511,-0.346535,0.796810,-0.465437,-0.523390,0.713745
-0.223030,-0.472633,0.772551,-0.590783,-0.153459,-0.792102
-0.318356,-0.038047,0.494935,-0.431901,-0.803072,0.410533
-0.657995,0.147069,0.439271,0.955713,0.257012,-0.143378
-0.293863,0.504561,0.614506,-0.403757,0.750654,-0.522972
-0.428153,-0.184281,0.873663,0.597776,0.799541,0.058291
-0.124494,-0.654633,0.915055,-0.041973,-0.991677,-0.121718
-0.043807,0.359829,0.743402,0.049216,0.548503,0.834699
-0.003491,-0.411670,0.247700,-0.696514,-0.712257,0.086934
-0.502703,0.336077,0.839453,-0.436347,-0.636432,0.636046
-0.542906,0.064189,0.815024,-0.023976,-0.995047,0.096474
0.596340,-0.019691,0.100856,-0.279803,-0.476191,0.833638
-0.163232,0.811547,0.601372,0.903825,-0.303697,0.301445
0.090935,0.518690,0.665299,0.831382,0.402033,-0.383632
0.464133,-0.081488,0.093332,0.307753,0.320882,-0.895725
0.117004,-0.634664,0.860187,-0.451111,0.547283,-0.704968
0.061205,0.056569,0.877870,-0.719372,-0.687720,-0.097696
0.210248,-0.649739,-0.959536,-0.041650,-0.147955,0.988117
-0.184291,0.152853,0.743402,0.490667,0.632665,-0.599151
-0.911993,-0.344087,0.340055,-0.267718,-0.796751,0.541770
0.383333,0.443987,0.356354,0.611618,-0.009835,0.791092
-0.302365,-0.443487,0.656372,-0.437151,0.684992,-0.582825
-0.158615,-0.604127,0.852303,0.927290,-0.280393,0.248020
-0.510698,-0.072255,0.833654,0.153682,-0.985994,0.064791
-0.394595,-0.476805,0.911075,-0.454569,0.598756,-0.659438
0.010078,-0.225498,0.773764,0.246914,0.082421,-0.965526
-0.029392,-0.406497,0.985634,-0.774354,0.066523,0.629246
0.018750,0.522917,0.319587,0.263834,0.391850,0.881388
-0.511655,-0.547113,0.274214,0.132482,0.244678,0.960511
-0.582883,-0.326844,0.345476,-0.432027,0.882336,0.186645
-0.492399,-0.290021,0.888408,-0.272344,-0.859593,0.432353
-0.346621,-0.642841,0.920362,0.063745,0.030665,0.997495
-0.192793,0.330070,0.706900,0.012937,-0.736023,0.676833
-0.408671,-0.551340,0.972140,0.946368,0.321857,-0.028201
-0.176971,0.199077,0.704872,0.978969,-0.157958,0.129110
-0.174606,0.499110,0.540194,-0.199885,-0.191105,-0.961002
-0.520721,-0.484036,0.285775,-0.376632,-0.201318,0.904223
-0.588569,-0.177272,0.800335,0.997385,0.072158,-0.004071
-0.136317,-0.299032,0.551338,0.946445,0.318701,-0.051684
0.161824,-0.404939,-0.486387,0.909718,-0.401397,0.106272
-0.535586,-0.264156,0.363499,0.345680,0.837190,-0.423815
0.482883,0.125598,0.557364,0.847498,0.445000,-0.289349
-0.177252,-0.266047,0.769841,-0.082133,0.931865,-0.353385
-0.074156,-0.857159,0.816673,0.330296,0.804254,0.494045
-0.621115,-0.877294,0.219593,-0.566037,-0.490780,0.662373
-0.147410,-0.613917,0.909028,0.997256,0.004417,0.073904
0.123930,0.179052,0.750547,0.728838,-0.164310,-0.664679
-0.128154,-0.622428,0.824993,0.952793,-0.038368,-0.301187
0.314752,0.400490,0.346613,0.030463,-0.157186,0.987099
-0.242174,0.143008,0.619718,-0.443535,-0.761719,0.472293
-0.499719,-0.781567,0.163096,-0.390766,0.650355,-0.651414
0.207827,0.060129,0.587859,-0.016585,0.285001,0.958384
-0.464583,0.480142,0.807443,-0.727575,-0.435501,-0.530070
0.401576,0.402937,0.359273,0.715400,0.047193,0.697119
-0.070327,-0.008399,0.649057,0.935603,-0.109496,0.335645
-0.770158,0.248470,0.260265,0.975811,-0.124084,-0.179990
-0.036824,-0.139504,-0.209889,0.929874,0.271995,0.247694
-0.389133,-0.596451,0.445488,0.998542,0.003794,-0.053851
-0.263908,0.581488,0.579804,0.873553,0.212952,0.437671
0.487050,0.151018,0.597961,0.713292,0.062301,0.698093
-0.566442,-0.918512,0.216390,0.366490,0.701998,-0.610642
-0.038626,-0.322450,0.503293,0.885796,-0.418213,0.201153
-0.495495,0.669874,0.565817,0.932175,-0.126037,-0.339360
0.706194,0.057681,0.151554,-0.018666,0.006688,0.999803
-0.703378,-0.428079,0.258692,0.336375,0.801518,-0.494389
-0.134121,-0.563411,0.902906,-0.121011,-0.838977,0.530542
0.065653,-0.425631,0.535664,0.485532,0.798374,-0.356170
-0.043356,0.418066,0.674188,-0.313303,0.440567,0.841274
0.034291,-0.033374,0.958077,-0.473891,-0.791439,-0.386073
-0.695327,-0.315274,0.277057,-0.764963,0.009974,-0.643997
-0.153435,-0.385582,-0.012480,-0.191182,0.823283,-0.534467
-0.448874,-0.160585,0.470789,-0.126835,-0.276409,0.952634
-0.839527,-0.326677,0.033442,-0.231202,0.477497,0.847669
0.101295,-0.280955,0.660220,0.873788,-0.484707,-0.039422
0.293018,0.083602,0.779734,-0.165389,-0.943325,0.287724
-0.308052,-0.770664,0.681503,0.681118,0.632139,0.369430
0.247691,0.070530,0.605011,-0.193210,0.171820,0.965996
0.874211,-0.353043,0.378946,-0.099738,-0.584940,0.804921
-0.384853,-0.057515,0.844779,-0.397118,0.396394,0.827749
0.526239,-0.213873,0.656107,-0.355190,0.887682,-0.293020
-0.603153,-0.579152,0.876487,0.395499,0.244275,-0.885387
-0.107657,-0.615252,0.838070,0.815733,0.459622,-0.351179
-0.470102,-0.366392,0.762715,0.917976,-0.244553,0.312273
-0.268018,0.310490,0.517697,0.870074,-0.404143,0.282205
0.848311,0.227556,0.448350,0.019525,-0.998652,0.048095
0.478040,-0.130993,0.543283,0.097726,-0.887651,0.450027
0.081193,-0.003115,0.720962,-0.285953,-0.696050,0.658593
-0.406700,-0.317888,0.783979,0.210593,-0.623993,0.752518
0.106475,0.138670,0.665109,-0.147031,0.165131,0.975251
-0.412612,0.364445,0.809527,0.979087,-0.186366,0.081589
0.031475,-0.401602,0.087437,0.136786,-0.982221,0.128576
-0.384291,-0.573256,0.965184,0.939297,0.289804,0.183672
0.059347,-0.403771,0.831455,0.858862,0.277229,-0.430697
0.155968,-0.178607,0.043221,-0.154967,-0.679831,0.716809
0.239583,-0.481088,0.025254,-0.320512,0.080910,0.943783
0.022353,0.545055,0.637496,0.871684,0.339646,0.353281
0.022353,0.363166,0.554180,0.171909,0.279250,0.944705
0.099380,-0.387696,-0.482426,-0.258664,0.965941,-0.007079
-0.301126,-0.327066,0.311247,0.349224,-0.854902,0.383647
-0.450000,-0.174825,0.888010,-0.093064,0.888750,0.448845
-0.161994,-0.265769,0.788111,-0.053072,-0.981719,0.182787
0.039808,-0.092669,0.858842,0.247623,-0.522375,0.815970
-0.755856,-0.395094,0.236328,-0.277831,0.958687,0.061058
0.418638,-0.479697,0.815175,-0.068388,-0.493066,0.867300
-0.129617,-0.582990,0.882210,0.960044,-0.278709,-0.025254
-0.558277,-0.819835,0.253082,-0.196658,-0.736600,0.647105
-0.330743,-0.061408,0.881168,0.814760,-0.570869,-0.101361
0.413176,-0.100679,0.314412,0.688924,0.294503,0.662307
-0.420946,0.262321,0.832820,0.602602,-0.427538,-0.673856
-0.508784,-0.329959,0.895344,-0.091143,0.747499,0.657980
0.088964,-0.345200,-0.367953,0.980516,-0.195959,0.013759
-0.068468,-0.397375,0.542752,0.881912,0.314766,0.350931
-0.441554,-0.078596,0.846333,0.136594,0.984559,0.109481
0.908221,0.354489,0.119088,-0.048948,0.996962,0.060586
-0.178547,0.419679,0.742530,-0.327475,0.729519,-0.600468
-0.374324,-0.751919,0.182370,0.377921,-0.335334,0.862976
-0.435980,-0.089610,0.836857,0.021456,0.905141,0.424569
0.837331,0.372233,0.076236,-0.380046,0.920743,-0.088309
-0.564528,0.380632,0.854596,0.648750,0.711977,-0.268722
0.389076,-0.101291,0.568376,-0.568483,0.285490,-0.771571
-0.240822,-0.133497,0.543055,0.760323,-0.275887,0.588044
0.417511,0.269941,0.344452,0.736917,0.043623,0.674574
-0.340822,-0.612693,0.956788,-0.486628,0.248345,-0.837567
-0.029618,-0.409000,-0.041629,-0.639162,0.759533,0.120755
-0.214583,0.397375,0.532006,0.180755,-0.413297,0.892476
-0.342511,-0.535488,0.536858,-0.412776,0.771381,0.484341
-0.350282,0.706475,0.549992,0.065320,0.708927,0.702250
-0.449212,-0.221716,0.893525,0.820357,-0.570717,0.035995
-0.476689,-0.427022,0.760308,-0.307934,-0.783653,0.539504
-0.135924,-0.505062,0.646195,0.627070,-0.244290,-0.739666
-0.191385,-0.572533,0.647825,0.468334,-0.002154,-0.883549
-0.350169,-0.057459,0.732467,0.943566,-0.066441,0.324450
0.364753,0.302870,0.352317,0.316363,-0.483899,0.815939
0.044088,-0.383191,0.712718,-0.420464,-0.907218,0.012875
-0.153040,-0.878574,0.909824,0.376277,0.854993,-0.356935
-0.206363,0.197241,0.331849,-0.296441,0.588214,0.752414
-0.093243,-0.382468,0.942801,0.942768,-0.181948,-0.279433
0.287105,-0.156858,0.049400,-0.236562,0.737660,-0.632374
0.481813,-0.142619,0.819572,0.556554,-0.830492,-0.023042
-0.160755,-0.058238,0.909369,0.510558,-0.814545,0.275404
-0.103435,0.367783,0.682148,0.813924,-0.496907,-0.301016
-0.021509,0.419902,0.561193,0.151120,0.711749,0.685986
-0.577590,-0.327011,0.326978,0.615365,0.686459,-0.387428
0.029279,0.252030,0.833730,0.999670,-0.012110,-0.022650
-0.049719,0.079876,0.424299,0.187763,-0.549529,0.814102
0.429335,-0.347202,0.535569,0.819475,0.528743,0.221114
0.046227,-0.352709,0.939144,0.683959,-0.728914,0.029753
-0.495777,-0.060018,0.862083,0.268383,-0.896884,0.351524
-0.105462,-0.229558,0.945284,-0.645627,-0.745302,0.166406
-0.673987,-0.333575,0.321539,-0.387744,0.921752,0.005395
-0.021396,0.381967,0.668748,0.521585,0.701705,0.485345
0.472973,-0.043109,0.685578,0.107603,-0.224926,0.968416
-0.598255,0.165035,0.630938,0.935773,-0.002482,-0.352594
0.458896,-0.047836,0.689274,0.231413,-0.271811,0.934113
-0.393131,0.118311,0.708605,-0.145821,0.335063,0.930843
-0.497916,-0.236789,0.931714,0.927833,0.252627,0.274417
-0.501858,-0.325064,0.963024,0.983010,0.180676,-0.032373
0.173761,0.213094,0.856056,0.691011,-0.487598,-0.533622
-0.668919,-0.271276,0.015892,0.123978,0.430274,0.894144
0.019989,-0.394260,-0.322126,0.986753,0.146564,0.069557
-0.269707,-0.467405,0.853402,-0.710110,0.176624,-0.681578
-0.454899,-0.158917,0.616004,0.148865,-0.974964,0.165178
-0.587894,-0.449661,0.666512,0.825088,0.023389,-0.564519
0.617849,-0.383803,0.475016,0.783478,0.349504,0.513819
0.392117,0.377350,0.149279,-0.044735,-0.997928,-0.046245
0.594932,-0.274781,0.502175,0.813734,0.191940,0.548631
-0.271566,-0.102570,0.747060,0.253540,-0.754043,0.605918
-0.405518,0.647624,0.538412,-0.415041,0.789929,0.451390
0.077928,0.433307,0.677485,-0.112053,-0.406587,0.906714
0.180912,-0.561130,-0.012594,0.399440,0.103512,-0.910897
0.740653,-0.340583,0.376956,0.051808,0.672066,-0.738677
-0.527985,-0.325620,0.781156,-0.467042,0.775174,-0.425414
0.163232,0.196073,0.769348,-0.253478,0.350204,0.901724
0.135585,0.561464,0.577833,0.357184,0.333001,0.872657
-0.053153,-0.661697,0.838923,0.503610,0.373211,-0.779160
0.085023,0.393703,0.633819,0.663913,0.347657,0.662083
-0.180968,-0.674658,0.774901,0.732905,-0.465195,-0.496431
-0.032939,0.215430,0.470411,0.452508,-0.003506,-0.891754
-0.137219,-0.020748,0.913444,-0.176992,0.982605,0.056223
0.485248,-0.327901,0.717740,0.312688,-0.577823,0.753888
0.052140,-0.430638,0.951842,-0.075239,-0.367733,0.926883
0.162331,-0.553565,-0.892691,0.969165,0.221926,0.107089
-0.474437,-0.339248,0.907493,0.506510,0.817789,0.273254
-0.141554,-0.700356,0.649606,0.997255,0.021182,0.070949
0.277252,-0.161253,0.800203,0.467327,-0.009623,0.884032
0.042342,-0.364001,0.117401,0.587196,-0.788751,0.181862
0.031588,0.460340,0.645058,0.633829,0.649911,0.419377
-0.233221,-0.403660,0.124717,0.696632,-0.011051,0.717344
0.361824,0.297475,0.155723,-0.081867,-0.755051,0.650535
-0.254279,0.299255,0.515896,0.856278,-0.374009,0.356239
-0.057714,-0.307376,0.513603,0.998775,-0.048920,0.007489
-0.117568,-0.243910,0.070759,0.242610,-0.724207,0.645496
0.262162,0.240850,0.363329,-0.811268,0.208197,-0.546349
-0.490710,-0.235566,0.861931,0.133828,-0.120616,0.983637
0.479279,-0.341306,0.358723,-0.074152,0.358587,0.930547
-0.349212,0.292524,0.718631,0.252942,-0.562363,0.787254
-0.197692,-0.116309,0.402996,0.788217,0.112046,0.605111
-0.474380,-0.409945,0.906071,0.651075,0.657933,0.378452
0.054674,-0.356158,0.680575,-0.029721,0.999558,-0.001004
-0.431194,0.019746,0.842448,-0.244793,-0.274069,0.930033
-0.115203,-0.238458,0.862689,-0.387196,0.884445,0.260454
-0.612782,-0.342975,0.354364,-0.120174,0.985854,-0.116838
-0.364527,0.014295,0.832763,0.996028,-0.089012,0.002363
0.022917,0.053065,0.850484,-0.356920,-0.753914,0.551563
0.097860,0.134832,0.808807,0.598943,0.760818,-0.249848
-0.267455,-0.525643,0.557706,0.882224,0.425357,-0.201872
-0.087106,-0.035043,0.937191,0.485630,0.712544,-0.506403
-0.227140,0.018801,0.458565,0.937610,-0.039234,0.345468
-0.205124,-0.466848,0.450112,0.257285,-0.912888,-0.316921
-0.406588,0.110635,0.615890,-0.233709,0.493057,-0.838018
0.115315,0.308099,0.296294,0.541938,-0.004370,-0.840407
0.045608,-0.667038,0.703583,0.465530,0.393439,-0.792772
-0.509516,-0.415619,0.905010,0.305129,0.862811,0.403055
-0.582320,-0.390033,0.784832,-0.557744,-0.820576,-0.124809
-0.210248,-0.249916,0.687549,0.787112,0.569863,0.236034
-0.581588,-0.374402,0.800430,0.540753,0.805331,-0.242958
0.063964,0.289131,0.637988,0.841017,0.236344,0.486654
-0.298480,0.321838,0.736371,0.709685,-0.354181,0.609018
-0.342229,-0.575982,0.631810,0.705482,0.260969,0.658931
-0.614021,-0.353210,0.307097,-0.203660,0.958074,0.201534
-0.390653,0.814773,0.647237,-0.225003,0.951132,-0.211474
-0.213908,-0.245578,0.702901,0.954785,0.297297,-0.000280
-0.257658,0.128268,0.595535,0.558817,0.674980,-0.481794
-0.507320,-0.411169,0.901239,0.291705,0.832813,0.470457
-0.069200,0.324508,0.302359,-0.648291,0.754488,0.102305
0.851745,0.373178,0.052110,0.915823,0.391319,-0.090209
-0.566948,-0.298309,0.297753,-0.235288,-0.969687,-0.065927
0.504617,0.092669,0.469880,0.475957,0.714759,0.512430
-0.201239,-0.820002,0.667820,0.884165,-0.334952,0.325668
0.105011,-0.606241,-0.986657,-0.419398,0.610323,0.672021
-0.169088,0.238680,0.259829,-0.369763,0.170229,0.913399
-0.298423,0.314495,0.734134,-0.699306,0.573498,-0.426698
0.006475,0.548615,0.656069,0.871711,-0.009580,0.489927
0.082657,-0.245355,0.421854,-0.334155,-0.750031,0.570784
-0.094932,0.097842,0.644660,-0.505926,-0.044439,0.861432
0.194369,0.079263,0.774788,0.177472,-0.915977,0.359848
0.358671,-0.066859,0.831550,-0.025551,-0.750002,0.660942
-0.257376,0.289743,0.700778,-0.336025,0.785928,-0.519041
0.418074,0.266993,0.341875,-0.663113,0.079477,-0.744288
-0.170327,-0.423129,0.746321,0.972949,0.109008,0.203687
0.181925,-0.638892,-0.952694,0.198144,0.710559,-0.675163
0.161430,-0.496051,0.879462,-0.587420,0.808934,0.023729
-0.325958,-0.128157,0.113592,-0.172023,0.857763,0.484408
-0.022241,-0.794693,0.674036,0.381708,0.140446,-0.913550
0.839020,-0.016799,0.087361,-0.611516,0.553966,-0.564951
0.053209,0.321337,0.596824,0.798343,0.432341,-0.419201
0.066610,-0.402603,-0.096951,0.904675,-0.301019,0.301579
-0.217174,0.135221,0.344907,-0.373324,0.586252,0.718984
0.142849,0.570920,0.488434,-0.736509,-0.529194,0.421317
-0.162669,-0.037713,0.611910,0.772639,0.631986,-0.060194
0.220777,0.683280,0.576071,0.262643,0.173070,-0.949245
-0.173085,0.794638,0.569930,0.598281,0.018080,-0.801083
-0.562444,0.350262,0.812522,-0.069107,-0.835534,0.545075
0.305180,0.334353,0.365452,0.138207,0.136918,0.980894
0.140710,-0.447102,0.955575,0.790564,-0.035707,-0.611337
-0.362782,0.282623,0.835549,0.980254,0.114941,0.160906
-0.291836,-0.230448,0.854066,0.087490,-0.988936,0.119795
-0.117568,0.733452,0.584959,0.912222,-0.139681,0.385150
-0.625451,-0.871232,0.191960,0.911927,0.394747,-0.112092
0.352140,0.224274,0.334161,0.381389,0.564468,-0.732065
-0.423705,-0.682724,0.195315,0.653117,-0.093592,0.751451
-0.531870,-0.262098,0.833180,0.939634,-0.168781,-0.297659
-0.050845,0.081989,0.729548,-0.586831,-0.609596,0.532937
-0.124944,0.316887,0.730723,-0.618909,0.012865,0.785358
-0.029167,-0.376460,0.013826,-0.674244,-0.730335,0.109571
-0.267680,-0.675826,0.928966,-0.489789,-0.033949,0.871180
0.116554,-0.573367,-0.845745,0.991822,-0.046759,0.118758
0.035642,-0.188008,0.436504,0.020929,0.921381,0.388097
0.317286,-0.129992,0.797189,0.287332,-0.189613,-0.938875
-0.541329,-0.269218,0.340681,0.265177,0.846328,-0.461963
-0.194595,0.146846,0.722952,0.430653,0.294139,-0.853241
-0.162387,-0.366782,0.928530,-0.489576,-0.011234,-0.871888
-0.178829,0.348426,0.720091,0.384561,0.682139,-0.621932
-0.503547,-0.225109,0.660295,0.780758,-0.498453,-0.376778
0.335980,-0.158917,0.658988,0.246421,0.261782,-0.933138
0.682207,-0.074758,0.695585,0.302182,-0.403100,-0.863826
-0.434066,-0.455613,0.929573,0.213518,0.719037,0.661360
-0.366047,-0.070586,0.790101,0.902962,-0.077085,0.422750
0.636318,-0.373735,0.496034,0.754685,0.486281,0.440433
-0.512838,-0.415675,0.867181,0.679725,-0.366237,-0.635487
-0.114977,-0.270553,0.666967,0.125839,0.978723,0.162064
-0.258164,-0.178663,0.896235,0.912228,0.029086,-0.408649
-0.136092,-0.531093,0.904233,-0.413936,0.908958,0.049522
0.336430,0.397152,0.160044,0.210163,0.961630,0.176349
-0.502985,-0.322061,0.365925,-0.574407,-0.332214,0.748124
0.015259,0.330515,0.664313,-0.519877,-0.369578,-0.770156
0.681363,-0.118367,0.390772,0.169389,-0.529845,0.831007
0.363401,0.338747,0.138855,0.724204,-0.629637,-0.281223
0.514076,0.318612,0.131710,-0.520895,-0.499710,-0.692068
0.832883,-0.463734,0.292427,-0.197983,-0.975053,0.100376
-0.598874,-0.484592,0.569873,-0.292582,-0.648178,0.703037
-0.407320,-0.197964,0.687777,0.233540,0.915574,0.327389
0.025056,-0.415897,-0.192567,0.228602,-0.973520,0.000475
-0.511825,0.039771,0.841841,-0.249937,-0.949586,0.189257
-0.539301,-0.147958,0.819117,0.900043,0.426652,-0.088829
-0.217230,-0.677105,0.552835,0.673527,0.317868,-0.667323
-0.325226,0.849316,0.629384,0.376181,-0.615431,0.692627
-0.056869,0.428746,0.667365,-0.782382,0.485958,-0.389517
-0.578772,-0.306597,0.341268,-0.440073,0.864397,0.243216
-0.103942,-0.595951,0.958267,0.875634,-0.420566,-0.237466
-0.770327,-0.333407,0.310830,-0.571576,0.769612,0.284600
-0.624099,-0.171209,0.303704,0.675905,0.307058,0.669976
-0.022523,-0.345033,0.329575,0.932619,0.353894,0.070574
0.026915,-0.393314,0.817052,0.965513,-0.005335,0.260300
-0.550112,0.252086,0.797568,-0.645388,-0.510697,0.568034
0.204561,-0.102737,0.841500,0.554816,0.414478,0.721379
0.263288,0.055623,0.105158,-0.456979,0.481802,-0.747688
0.687105,-0.043720,0.568224,-0.515391,-0.715059,0.472295
-0.704110,-0.577873,0.557004,0.345474,0.559265,-0.753572
0.029110,-0.125376,0.976423,0.383020,0.204431,0.900835
0.060810,-0.384859,0.759626,-0.642356,0.712617,0.282057
0.112049,-0.318389,0.777896,-0.680290,0.294665,0.671102
-0.156982,0.804483,0.589015,0.980437,-0.074059,0.182370
0.659966,0.199577,0.139936,0.126381,0.276383,-0.952701
0.226295,-0.033764,0.822680,0.039977,-0.246211,0.968391
0.061542,-0.029758,0.239569,-0.778020,-0.455094,0.433099
-0.504786,-0.074258,0.799634,0.216011,0.290151,-0.932283
0.473423,0.359773,0.149658,0.280776,0.703610,0.652762
0.819594,-0.057125,0.431217,0.813294,0.221152,-0.538186
0.053209,-0.407721,-0.205417,0.883504,0.468140,0.016281
0.122241,0.437535,0.674491,0.420188,0.761006,-0.494279
-0.794144,-0.036879,0.413382,-0.614659,-0.783992,0.086893
-0.354729,-0.396707,0.803368,0.948998,0.291459,0.120223
0.385416,0.079319,0.118557,0.327591,0.690167,-0.645254
-0.243075,0.370174,0.676102,0.763238,-0.130119,0.632880
-0.111542,0.478752,0.740995,0.257245,0.294610,-0.920342
-0.805349,-0.414562,0.238091,0.077384,0.994900,0.064700
-0.326014,0.008177,0.505719,0.971371,-0.038092,-0.234492
0.064696,0.476471,0.314962,-0.700291,-0.040165,-0.712727
0.501351,0.182278,0.133018,0.325589,0.045540,-0.944414
0.160473,-0.529536,-0.858558,-0.255412,-0.965969,0.040846
0.563739,-0.024419,0.480417,0.030365,-0.008239,0.999505
-0.678435,-0.533819,0.548438,0.674005,0.294925,-0.677301
-0.247298,-0.836967,0.684176,0.693673,0.573796,0.435403
0.130461,-0.538714,-0.997953,-0.241343,0.492363,0.836261
0.319088,-0.110524,0.602244,-0.236278,-0.756054,0.610372
-0.061542,-0.055179,0.928625,0.554146,0.666430,-0.498793
-0.436599,-0.247691,0.761710,0.774497,-0.632245,0.020514
-0.382377,-0.124430,0.812806,-0.009817,-0.975742,0.218702
-0.129167,0.386917,0.657756,0.540559,-0.545913,-0.640137
-0.272973,0.685560,0.575426,0.802267,0.164739,0.573784
-0.076577,-0.404773,0.560113,-0.306110,0.940411,0.148070
-0.157601,0.452108,0.543813,-0.331399,0.510576,0.793402
0.222973,-0.235510,0.766505,0.304059,-0.931799,0.198240
0.146621,-0.676326,-0.970851,0.383426,0.245909,-0.890232
-0.600564,-0.483702,0.654496,0.883188,0.086436,-0.460986
0.492962,-0.191512,0.277417,0.474072,0.231435,0.849525
0.470664,-0.002670,0.286742,0.606791,-0.065884,0.792126
0.569369,-0.134442,0.671042,-0.270693,-0.962505,0.017620
-0.550507,0.106408,0.807102,-0.710777,0.598809,0.369085
-0.383164,0.301980,0.763208,0.406510,-0.690346,0.598475
0.124437,-0.192012,0.207236,0.689597,0.258952,-0.676313
0.263232,-0.154022,0.805036,0.396770,-0.794089,0.460430
0.096621,-0.331962,0.851545,0.928069,0.190528,-0.319979
-0.303547,-0.029926,-0.028590,0.816152,-0.269603,-0.511087
-0.198705,0.169763,0.727615,0.906372,0.274474,-0.321175
-0.514021,-0.307598,0.882741,-0.794810,0.571219,0.204906
0.102928,-0.385805,0.693879,0.841617,-0.536398,0.062910
0.042061,-0.306430,0.607039,0.941323,0.123466,0.314114
0.350619,-0.024252,0.738512,0.989549,-0.133790,0.053786
-0.134178,0.015853,0.662001,0.794067,-0.603349,0.073680
-0.146791,-0.232840,0.373620,-0.678329,0.502582,-0.535987
0.304729,-0.154967,0.426100,-0.009552,-0.932727,0.360456
-0.409291,-0.115252,0.774427,0.151085,0.926434,0.344809
-0.366948,-0.042830,0.893127,0.380764,-0.689728,-0.615869
-0.439753,0.258594,0.741317,-0.176948,0.976066,0.126428
-0.344032,0.221437,0.726231,0.591667,0.569563,0.570551
0.591835,-0.085438,0.561799,0.916285,-0.298583,0.266965
-0.101013,-0.196963,0.793550,0.644884,0.763638,-0.031315
0.657488,0.074591,0.482692,-0.070749,-0.371203,-0.925853
-0.332038,-0.114418,0.825296,0.987871,0.116270,0.102921
0.472691,-0.144844,0.524046,0.053607,-0.165501,0.984752
0.364978,-0.198076,0.832536,0.808235,-0.534745,-0.246586
-0.652028,0.017633,0.579577,0.888633,-0.319337,-0.329175
-0.466892,-0.614696,0.490765,0.036857,0.858078,-0.512195
0.349718,0.189453,0.816066,-0.621494,0.077240,0.779602
0.297410,-0.235844,0.795522,-0.591138,0.136763,0.794891
-0.540710,-0.122205,0.276299,-0.749358,-0.654971,-0.097343
0.580292,-0.048448,0.584827,0.095661,0.474937,0.874805
0.444369,-0.227222,0.002379,0.067671,-0.788494,0.611308
-0.576689,0.203638,0.823439,0.930169,0.327961,-0.165007
0.313626,-0.015241,0.688402,0.430678,0.096006,-0.897385
-0.779899,-0.151407,0.507785,0.091736,-0.441264,0.892676
-0.176520,-0.462065,0.775470,0.916489,0.218799,0.334925
-0.180236,-0.016131,0.720185,0.099522,0.014012,0.994937
-0.265428,0.031928,0.850939,0.849032,-0.528168,-0.013519
0.186261,0.366615,0.336511,-0.704572,0.706119,0.070528
0.493694,-0.313550,0.817222,-0.781044,0.616545,-0.099215
-0.309685,0.480810,0.566083,0.332641,-0.656881,0.676652
0.022410,0.270775,0.468212,-0.360208,0.111209,0.926219
-0.659629,0.148682,0.431804,0.960594,-0.202803,-0.190080
-0.248198,0.642341,0.576696,0.845338,-0.099757,0.524836
0.283052,0.150072,0.594568,0.850161,-0.244907,-0.466098
-0.530574,-0.364223,0.921669,-0.047626,-0.929637,0.365385
0.386373,-0.324063,0.798289,0.370316,-0.375535,0.849611
-0.566948,0.053343,0.680404,0.899400,-0.414297,-0.139419
-0.535135,0.141562,0.616686,0.298094,0.943217,-0.146562
0.325788,-0.399043,0.833275,-0.513485,0.787008,-0.341983
0.094707,0.201413,0.827589,-0.390197,0.372695,0.841929
-0.647297,-0.298309,0.333877,0.312854,0.608500,0.729281
0.135530,0.384970,0.289812,0.911353,-0.093803,-0.400794
0.228997,0.655245,0.571977,0.455974,0.177529,-0.872107
0.872522,0.351207,0.075857,0.905539,-0.320194,0.278343
-0.910811,-0.098954,0.488529,0.614075,0.678252,0.403592
0.366497,-0.311325,0.800696,0.555952,0.349012,-0.754393
0.232602,0.246134,0.781895,0.868087,0.086604,-0.488799
-0.116386,-0.480031,0.666228,-0.357860,0.918715,0.167032
-0.361430,-0.710591,0.700323,-0.649863,-0.740842,-0.169795
-0.031700,0.355323,0.302681,-0.014292,-0.228964,0.973330
-0.536036,-0.360941,0.909672,0.622893,0.762314,0.175736
0.374324,0.397263,0.131843,-0.564189,0.508288,0.650641
0.279392,0.002726,0.675893,0.557391,-0.144157,-0.817640
-0.368412,0.154633,0.631260,0.797340,-0.341176,0.497844
-0.520834,0.141006,0.875653,0.792141,0.196156,-0.577958
-0.064922,-0.385471,0.534622,0.853002,0.253500,0.456208
-0.011205,-0.357159,0.451496,0.053192,-0.942995,0.328529
-0.539189,-0.320837,0.820482,0.885153,0.133591,0.445709
-0.068637,0.114807,0.655121,-0.504532,-0.026516,0.862986
0.391272,0.492936,0.107262,-0.079023,0.491693,0.867175
-0.412838,0.274780,0.827077,0.772961,-0.556324,-0.305017
0.588795,-0.342141,0.344471,0.110985,0.133416,-0.984826
-0.003435,0.283624,0.292295,-0.170854,-0.551011,0.816821
-0.482095,-0.200801,0.932813,-0.350261,-0.631871,-0.691416
0.095833,-0.476972,-0.488358,0.909718,-0.401397,0.106272
0.164133,-0.512905,-0.373980,-0.665405,0.163049,0.728459
-0.247410,0.190900,0.654174,-0.716959,0.572326,-0.398012
-0.038513,-0.125097,0.034674,0.201092,-0.588558,0.783046
-0.627759,-0.659529,0.529466,-0.012000,-0.964223,0.264821
-0.517680,-0.371065,0.817317,0.189944,-0.777108,0.600020
-0.007827,-0.367839,0.458167,0.677649,-0.674414,0.293183
0.426689,-0.116086,0.652316,-0.658964,0.148663,0.737337
-0.472128,0.098454,0.608877,0.089237,0.896326,-0.434324
0.274887,0.109189,0.111640,-0.073690,-0.270039,0.960025
0.001745,0.241072,0.772096,0.144997,0.564369,0.812689
-0.028773,-0.403104,0.372502,-0.641282,0.674084,0.366562
0.551351,-0.415675,0.507292,-0.162160,-0.292595,-0.942386
-0.319989,-0.075982,0.897619,0.911474,-0.369027,0.181751
-0.404279,-0.491935,0.654344,-0.598229,0.563026,-0.570196
0.248480,-0.652687,-0.964388,0.233727,0.031112,0.971804
-0.456588,-0.230949,0.919243,0.250765,-0.964524,-0.082529
0.602308,0.201635,0.323206,0.242242,-0.504984,-0.828438
-0.676296,0.204250,0.375174,0.891325,-0.351161,-0.286749
0.002533,-0.347147,0.758545,0.171518,0.949126,0.264086
0.278040,-0.593948,0.695339,0.557569,-0.830129,0.001484
0.045157,-0.434142,0.038767,-0.653977,-0.756493,0.005576
0.068300,-0.296807,0.590474,0.970701,-0.238650,-0.028022
-0.552083,0.087941,0.610090,0.184894,0.979757,0.076752
0.082657,-0.311269,0.744880,-0.238081,0.970935,0.024536
0.313682,-0.400601,0.820406,0.764896,-0.630976,-0.129626
-0.457263,-0.496552,0.911681,-0.487081,-0.763621,0.423834
-0.237781,0.049338,0.558653,-0.088461,-0.881746,0.463355
-0.437219,-0.486539,0.734570,-0.760384,0.631842,-0.150307
0.039076,-0.410168,0.239038,0.696931,0.715881,0.042448
0.281193,0.439036,0.487771,-0.714234,0.682421,-0.155469
-0.095101,0.330070,0.292522,0.820260,-0.248160,-0.515354
-0.428997,-0.199967,0.907739,-0.069955,0.903895,0.421995
0.114415,-0.543108,0.270727,0.752427,0.500185,-0.428566
0.353097,-0.280232,0.826698,0.694473,0.403135,-0.595978
0.167961,-0.033597,0.810399,-0.215209,-0.886221,0.410241
0.008615,-0.408332,-0.214324,0.909033,0.409617,0.076635
0.468468,0.081711,0.699660,-0.584618,-0.589127,-0.557809
-0.179504,0.731449,0.518398,0.606458,-0.485697,0.629530
0.092849,0.041996,0.798630,0.914869,0.187091,-0.357786
-0.443750,-0.549394,0.492926,-0.011330,-0.842950,0.537873
0.036092,-0.428858,0.163683,0.007464,-0.995674,-0.092618
-0.304392,-0.458839,0.429757,0.559290,0.300149,-0.772726
0.426858,-0.077372,0.755987,-0.172507,0.381165,0.908270
-0.260473,0.320169,0.524823,0.860546,-0.341021,0.378372
0.349380,0.139281,0.617482,-0.489412,0.274553,0.827706
0.147691,-0.261319,0.910980,-0.317943,-0.003979,0.948101
-0.144313,-0.449383,0.642082,-0.604823,0.425649,0.673062
-0.047523,-0.359885,0.469595,0.982216,0.156628,0.103534
0.068806,-0.082768,0.936168,0.670637,0.308159,0.674747
0.003491,0.388586,0.627167,-0.582568,0.005611,0.812762
-0.191329,-0.282735,0.667706,-0.032265,0.898651,0.437476
0.756982,-0.296585,0.376084,-0.129667,-0.241356,0.961735
0.160980,-0.292413,0.943427,0.861936,-0.506966,0.007225
0.174437,-0.684169,0.655880,-0.805435,0.520731,0.283043
0.195214,-0.080432,0.803235,-0.071693,-0.993746,0.085605
0.107038,0.597675,0.537389,0.862065,0.503618,0.056685
-0.321114,-0.301424,0.902319,0.979879,0.178196,0.089910
-0.683108,-0.339026,0.264207,-0.679468,0.234380,-0.695262
0.679392,0.014462,0.535531,0.587197,0.806231,0.072048
-0.322128,0.352430,0.755702,-0.235162,0.971769,0.019075
-0.047298,-0.472077,0.958949,0.190600,-0.980764,-0.042119
0.483389,-0.089165,0.777896,0.717689,0.621368,0.314364
-0.357376,-0.563967,0.197570,0.475643,0.124648,0.870762
0.685247,-0.116142,0.361453,0.681948,0.093703,-0.725373
0.178097,0.040772,0.763056,0.248258,0.279921,-0.927368
-0.445777,-0.200634,0.137112,-0.238722,0.494741,0.835610
-0.001070,-0.052620,0.939826,0.174154,0.583491,-0.793226
0.389021,0.163143,0.598643,-0.311897,-0.536226,-0.784336
-0.123987,0.445656,0.333119,0.100059,0.327000,0.939712
0.004674,-0.013072,0.419978,-0.225425,-0.225419,0.947824
-0.219707,0.774724,0.604518,-0.383144,0.711417,0.589140
-0.699325,-0.299310,0.432392,0.829393,-0.317181,0.459894
-0.291779,-0.315831,0.028211,-0.675832,0.528547,0.513701
-0.497410,-0.347814,0.930691,0.949397,0.287011,-0.127557
0.692792,-0.137613,0.703071,-0.192359,0.331699,0.923566
0.066216,-0.169596,0.918959,0.450323,0.838031,-0.308080
0.379729,-0.363277,0.860074,0.831691,0.550519,0.072247
0.103547,-0.516687,0.800696,-0.556548,0.685776,-0.469004
0.384572,-0.089776,0.516655,-0.448443,0.079791,0.890243
-0.617737,-0.052564,0.591820,0.652529,0.707805,-0.270589
0.375788,-0.333241,0.807405,-0.679894,0.395568,-0.617470
-0.342793,-0.105017,0.771888,0.235500,0.687411,0.687027
-0.081362,0.557181,0.326390,-0.259388,0.087861,-0.961768
-0.502308,-0.722716,0.362021,0.844240,0.511983,-0.158532
-0.769426,0.063800,0.479242,-0.730354,0.672619,-0.119021
0.304561,-0.064691,0.784169,-0.623667,0.337893,-0.704889
-0.487951,0.036322,0.843016,0.506384,0.839910,-0.195260
-0.499043,-0.346646,0.948961,0.999304,-0.032669,0.017979
0.620777,-0.311825,0.352791,-0.109104,0.037893,0.993308
0.126464,0.147069,0.776436,-0.617145,0.475564,-0.626874
-0.180631,-0.124652,0.145546,0.872347,0.488648,-0.015277
0.160642,-0.528257,-1.000000,-0.298325,0.337511,0.892798
-0.125845,-0.582768,0.742568,0.840784,-0.399150,0.365735
0.465597,-0.159584,0.650251,-0.145621,0.989100,-0.021832
0.434684,0.486372,0.104097,0.389140,-0.574651,-0.719962
0.028097,-0.385305,0.788130,0.912911,-0.406818,-0.033053
-0.052534,-0.410224,0.171245,-0.010190,-0.986565,0.163049
-0.352083,-0.210257,0.759379,0.175462,0.755540,0.631168
-0.030912,0.440538,0.654932,-0.711240,0.160934,-0.684279
-0.449494,-0.221271,0.911795,-0.590724,0.791605,0.156227
-0.320496,0.068306,0.710614,0.699175,-0.242738,0.672483
0.292342,-0.405885,0.812825,0.341148,-0.867024,-0.363163
-0.106307,-0.252753,0.732239,-0.684141,-0.724300,-0.085674
-0.281363,-0.563355,0.817089,-0.172332,0.953619,-0.246805
0.282939,-0.151185,0.794877,0.419217,0.173493,0.891155
0.071621,-0.292357,0.945910,0.938399,-0.203262,-0.279450
-0.250113,0.591222,0.584883,0.911524,0.357980,0.202421
-0.117736,-0.289854,0.748216,0.425896,0.895775,0.127280
-0.013851,0.612025,0.310281,0.620885,0.000680,0.783901
-0.399550,0.599677,0.253992,0.651884,0.480895,-0.586334
-0.326239,-0.516854,0.884352,0.535795,-0.830169,0.154088
-0.299155,-0.167093,0.697897,0.678079,0.637826,0.365221
-0.009797,0.490488,0.329025,0.175733,-0.219325,-0.959695
-0.008615,-0.389532,0.058251,0.021810,-0.995644,0.090652
0.760247,0.238958,0.346897,-0.249813,0.962593,0.104918
0.397184,-0.178274,0.734040,0.705262,0.245166,0.665206
-0.293806,-0.170876,0.696267,-0.397637,-0.917333,-0.019620
-0.190090,-0.080543,0.535626,0.974622,0.223401,-0.014305
0.355799,-0.407943,0.810873,-0.218058,0.973181,-0.073272
-0.027872,-0.099789,0.390696,-0.891811,0.448399,0.060098
0.079504,-0.189899,0.904536,-0.707938,-0.688073,0.159311
-0.252196,0.568806,0.580013,0.973019,0.153824,0.171964
0.239301,-0.212426,0.885811,-0.642715,-0.761828,-0.080848
-0.228717,0.036934,0.787808,-0.202315,-0.869996,-0.449640
-0.397410,-0.299700,0.400893,0.583485,0.602671,0.544365
0.020382,-0.259706,0.857515,-0.195824,-0.873664,0.445382
0.585022,-0.133441,0.589129,0.976555,0.160877,-0.143032
0.200169,-0.340249,0.872582,-0.052987,0.314121,0.947903
-0.032207,0.448437,0.665034,-0.667110,0.686184,-0.290028
-0.004618,-0.362443,0.400495,0.717266,-0.639824,0.275962
0.211374,0.349872,0.139803,0.790124,0.587845,-0.173615
0.214978,-0.575537,0.689463,-0.564524,-0.750234,-0.344182
-0.067511,0.343252,0.306339,0.086787,-0.414231,0.906025
-0.404730,-0.264880,0.817071,0.389964,-0.867785,-0.308022
-0.201802,0.279230,0.251869,-0.550256,-0.134905,0.824026
-0.179223,0.304261,0.714500,-0.504650,-0.612883,0.608032
-0.819031,-0.025643,0.431292,0.328967,0.943841,0.030724
0.332545,-0.252809,0.860604,0.641640,-0.556660,0.527663
-0.250958,0.421014,0.746340,-0.186418,-0.394681,-0.899709
-0.693244,-0.157693,0.831645,0.786068,0.613521,-0.075427
-0.160135,-0.287351,0.985539,0.292323,-0.268186,-0.917945
-0.106588,-0.207365,0.982279,-0.647984,0.716496,0.258360
-0.042061,-0.119813,0.694467,0.068041,0.278970,0.957886
-0.582320,-0.616865,0.281113,0.280076,0.925092,0.256440
