0.505311,0.627198,0.696215,0.630700,0.673476,0.385548
0.138993,-0.613100,-0.010290,-0.642534,0.195697,0.740846
-0.814900,0.259256,0.760692,-0.189449,0.949679,0.249436
0.121143,0.768048,0.457328,-0.542442,0.045655,-0.838852
-0.070619,0.485253,0.126980,0.563401,-0.299780,-0.769878
0.359334,-0.019314,0.048400,0.346198,-0.249458,-0.904388
0.355239,0.486424,0.460994,-0.598533,-0.452345,-0.661167
0.004325,0.159325,0.539799,-0.384154,0.346973,-0.855591
0.244319,0.003181,0.694712,-0.097008,0.667825,0.737970
-0.711774,-0.121256,0.401645,0.687129,0.110146,-0.718138
-0.241293,-0.481996,0.538844,-0.306132,-0.614535,0.727069
0.616230,-0.047179,0.532382,0.242574,0.218753,0.945148
0.175579,0.431051,0.802215,-0.016650,0.872758,0.487869
0.587469,0.165941,0.382105,-0.189670,0.470889,-0.861562
0.568671,0.007431,0.338615,0.875262,0.118852,0.468818
-0.451333,-0.127033,0.698336,0.233945,0.445316,-0.864271
0.297777,0.480673,-0.051799,0.594356,-0.727641,-0.342461
0.214610,0.032165,0.847223,-0.333019,0.594727,-0.731710
-0.053167,0.829274,0.617284,0.938145,-0.346243,0.000390
0.424284,0.288673,0.089839,-0.357544,0.261460,-0.896549
0.433760,-0.096547,0.229131,0.402361,0.539184,-0.739855
-0.204462,0.554393,0.737542,0.187774,-0.026726,0.981849
0.267151,0.586508,0.485170,-0.419157,-0.576052,-0.701763
0.093360,-0.444869,-0.010725,0.122284,-0.905533,0.406271
-0.541590,0.639489,0.417771,-0.220064,0.069335,0.973018
-0.194406,0.124081,0.909901,0.809010,0.323633,0.490678
-0.045403,0.084027,-0.831167,0.402389,0.912090,-0.078580
0.929488,0.080184,0.221700,0.757405,0.178322,0.628124
0.573623,0.511209,0.455109,-0.028192,0.193320,0.980731
0.760893,-0.001196,0.217683,0.049804,0.976061,0.211718
0.442898,0.256737,0.789587,0.957066,-0.201823,0.208070
0.565371,-0.050945,0.797116,-0.079184,-0.585801,0.806577
-0.567693,-0.018475,0.827332,-0.676458,0.736228,-0.019297
0.733049,0.157315,0.167646,0.607161,-0.007620,-0.794542
0.806648,0.174186,0.249907,0.152055,-0.672741,0.724085
0.743410,-0.052981,0.160525,0.428236,0.468449,-0.772767
-0.042530,0.334122,0.872184,0.917640,-0.017456,0.397030
0.125300,-0.246100,0.497447,0.070251,0.491869,0.867830
-0.081653,0.764587,0.645462,0.977676,-0.037511,0.206741
0.432965,-0.109932,0.600975,0.981795,-0.153258,0.112209
0.198869,0.836985,-0.143204,0.034246,0.401690,0.915135
0.644044,0.475634,0.610738,0.582981,0.571335,0.577677
0.170016,0.078708,-0.005036,-0.525120,0.481286,0.701864
0.135357,-0.265618,0.782142,-0.131648,-0.164932,0.977480
0.638420,-0.349645,0.469296,-0.273638,-0.958948,0.074436
-0.646397,-0.060793,0.703309,0.112495,0.357875,0.926968
-0.559226,-0.084790,0.444672,-0.041823,-0.537200,0.842417
0.468634,0.204265,0.615415,0.651973,0.637549,0.410441
0.595905,-0.102349,0.723115,-0.422220,0.070682,-0.903734
0.501521,0.564623,0.766240,0.043828,-0.803716,0.593397
-0.343684,-0.278902,0.492179,-0.686904,-0.444007,0.575344
0.079362,0.158384,-0.978424,0.189613,-0.243407,-0.951210
0.380852,0.628496,0.311083,0.555699,0.236024,0.797177
0.239674,0.129501,0.800164,0.995124,-0.097946,0.011589
0.424620,0.407130,0.293411,0.819236,0.277718,0.501723
0.387576,0.339237,0.333783,0.922949,0.258666,0.285056
0.411050,-0.473700,0.307697,-0.137446,0.192233,0.971676
0.004081,0.179250,0.849990,-0.579324,0.256127,0.773811
-0.352426,0.648141,0.842896,0.181883,0.413174,0.892303
-0.195660,0.038400,0.423446,0.057458,0.705809,0.706069
0.808085,0.141716,0.233177,0.729165,0.673485,-0.121393
0.404754,-0.381861,0.318513,-0.560880,-0.393883,-0.728196
-0.051210,0.289895,0.826770,0.287417,0.807576,-0.514987
0.269597,-0.036517,0.700022,0.770979,0.504840,0.388237
0.076305,0.643331,0.640237,-0.029492,0.583460,0.811606
0.176588,-0.458839,0.297485,-0.137775,-0.418336,0.897782
-0.395553,0.973077,0.574777,-0.275277,-0.555066,0.784936
-0.275739,-0.486271,0.454420,0.051620,0.602818,0.796207
0.572003,0.345319,-0.005780,-0.006151,-0.500152,0.865916
-0.415236,-0.232308,0.473595,0.499450,-0.083388,-0.862320
0.174968,-0.932438,0.047178,0.269711,-0.611615,0.743762
-0.224329,-0.187394,0.703899,0.831354,0.440906,-0.338309
-0.682127,-0.227600,0.726613,-0.575423,0.596625,0.559398
-0.752548,-0.209074,0.718030,0.665501,-0.630635,-0.399259
-0.138473,0.190676,0.504667,0.369362,-0.170101,0.913585
0.302790,0.467084,0.752502,-0.708997,0.697992,-0.100647
-0.693864,0.279054,0.697873,-0.609127,-0.657988,-0.442737
0.199022,-0.270886,0.637849,0.366441,-0.698995,0.614107
-0.360953,0.383490,0.143570,-0.115982,0.746806,0.654850
0.261558,0.244472,-0.059244,0.117288,-0.005691,0.993082
0.083427,0.775861,0.461444,0.118272,0.096409,0.988290
-0.267914,0.069166,0.831967,-0.930716,0.125337,-0.343596
-0.127256,-0.201186,0.875471,0.106370,-0.451452,0.885933
-0.391762,0.042115,0.587855,0.261474,0.882079,0.391879
0.401177,0.042726,0.793071,0.844663,-0.461215,-0.271708
0.367770,-0.204112,0.472710,-0.490997,-0.572798,0.656373
0.412578,-0.092246,0.506648,0.407602,0.492921,0.768693
-0.420035,0.561926,0.859710,0.264296,-0.027527,0.964049
-0.668526,0.819375,0.022159,0.041849,0.451097,0.891493
-0.022419,-0.860651,0.142404,0.122189,0.005603,0.992491
0.251869,0.115403,0.160763,-0.462527,-0.838171,-0.289031
-0.716909,0.784589,0.026458,0.149274,-0.202271,-0.967886
0.131015,-0.337939,0.315241,-0.616552,0.585408,-0.526462
-0.465545,0.119271,0.894843,-0.047571,0.853991,0.518109
-0.756307,-0.225259,0.314215,0.256106,0.025319,0.966317
0.184259,-0.497901,0.009194,0.756774,0.113367,-0.643770
-0.199174,-0.099372,0.257773,0.455181,-0.880897,-0.129736
-0.418140,0.035779,0.884953,0.205745,-0.978110,-0.031145
0.264278,0.417207,0.524994,0.032169,0.367663,0.929403
-0.277420,-0.013436,0.612241,0.281574,0.176580,-0.943152
0.025629,-0.584192,-0.037569,-0.523966,0.202157,0.827401
-0.070650,0.187190,0.750212,0.029798,-0.865181,0.500573
-0.646764,0.271522,0.533450,-0.270970,0.174267,0.946682
0.582365,0.380232,0.860048,-0.528717,0.514241,0.675289
-0.118331,-0.021249,0.856452,-0.381671,0.672623,0.633960
-0.235333,-0.222892,0.726051,0.962784,-0.270142,0.008357
0.894461,0.055297,0.227572,0.574932,-0.138442,0.806404
-0.124780,0.037026,0.687590,-0.672324,0.184187,0.716977
0.386078,-0.093035,0.553537,-0.140972,0.555503,0.819477
-0.146940,0.544520,0.271961,0.477524,-0.399424,-0.782580
-0.455795,0.097641,0.928120,0.749742,0.089471,-0.655653
-0.602964,0.200066,0.603377,0.421030,-0.836838,0.349909
-0.852250,-0.090770,0.371120,0.466619,-0.318530,0.825109
-0.264583,0.267527,0.833526,0.996105,-0.077498,0.042064
-0.267547,0.167010,0.767968,0.834467,0.368528,0.409698
0.541132,0.472733,0.224158,0.546102,-0.071854,0.834631
0.072485,-0.624119,0.111134,0.015833,0.119088,0.992757
0.332438,-0.296460,0.711231,0.888333,0.422334,-0.180273
0.344174,0.025295,0.705922,0.789242,-0.464735,-0.401395
-0.477069,0.445098,0.519627,-0.123501,-0.272182,-0.954287
0.532086,-0.111154,0.778040,0.216519,0.129575,0.967641
0.622588,-0.137746,0.459379,0.980865,-0.169948,-0.094983
-0.420585,0.636308,0.829523,-0.142471,0.126587,0.981671
0.022786,-0.889203,0.038651,0.176511,-0.448848,0.876002
-0.423703,0.220551,0.453606,-0.167503,0.017596,0.985714
0.418629,0.287605,0.815827,-0.057365,0.998093,-0.022777
-0.050722,-0.145533,0.745549,0.646674,0.082065,-0.758339
-0.426575,0.040716,0.610653,0.039642,0.960662,0.274877
0.479454,0.066926,0.483428,-0.068698,0.370825,0.926158
-0.537954,0.124615,0.365558,-0.205859,0.953647,-0.219499
-0.005639,0.486119,0.733356,-0.193155,0.458418,0.867493
-0.267089,0.697102,0.566082,0.885927,0.446994,-0.123814
0.618951,0.560450,0.732611,-0.589741,0.804952,-0.065259
-0.314586,0.141080,0.949641,0.200209,0.401176,0.893853
-0.326660,-0.034863,0.928106,0.915001,0.120249,0.385115
-0.007228,0.423340,0.924033,-0.163595,0.024667,0.986219
-0.006953,0.338270,0.901108,-0.258036,-0.673514,0.692673
-0.294781,-0.006591,0.458410,-0.589315,-0.093006,-0.802532
-0.740383,0.099168,0.164781,0.805473,-0.108455,-0.582624
-0.694903,0.428048,0.442803,-0.708707,0.082196,0.700699
-0.600091,0.468942,0.434965,-0.564256,-0.640861,-0.520492
0.049988,-0.566328,-0.028846,-0.553863,0.124068,0.823312
-0.765111,0.448889,0.373803,0.864636,-0.024696,-0.501791
-0.596974,0.095351,0.934652,0.940033,-0.179157,0.290243
0.224452,0.521363,0.652542,-0.517382,0.461520,0.720635
-0.505769,0.156399,0.759582,-0.131906,-0.922434,0.362928
-0.354810,-0.541619,0.491758,-0.193499,-0.781183,-0.593558
-0.539757,0.389648,0.134340,-0.091616,0.426940,0.899627
0.635486,0.235336,0.280516,0.821581,-0.489906,-0.291543
-0.306762,0.171998,0.941690,0.232899,0.669169,0.705670
0.685979,0.269486,0.212640,-0.379449,-0.892092,0.245335
0.743747,0.193246,0.169711,-0.679437,-0.012492,0.733628
-0.901367,-0.090287,0.364223,0.467061,-0.368466,0.803796
-0.537006,0.367662,0.615584,0.582980,0.559889,0.588778
-0.009643,0.382650,0.919341,-0.029537,-0.407464,0.912743
0.607000,-0.165203,0.249219,-0.043283,-0.568677,0.821421
0.733324,-0.080133,0.701272,-0.704036,-0.693897,-0.151130
0.433179,0.329873,0.792930,0.472019,0.595614,0.649955
-0.107847,0.326259,0.815082,-0.219042,0.166167,-0.961462
0.247284,-0.009594,0.701202,0.479103,0.646263,0.593973
-0.761351,-0.215385,0.717539,0.665501,-0.630635,-0.399259
0.040666,0.293941,0.884715,0.364911,0.833843,-0.414181
0.603729,-0.038171,0.138077,0.505842,0.497421,-0.704767
-0.214181,0.432374,0.508137,-0.165223,-0.741580,0.650200
-0.653457,0.359493,0.440893,0.675721,0.597895,-0.431187
-0.662963,0.314528,0.700879,0.730535,-0.249253,0.635760
-0.254130,0.160623,0.334499,-0.482571,0.732334,0.480429
-0.335768,0.743441,0.193873,-0.525576,-0.268333,0.807321
-0.307649,0.220551,0.383861,-0.582544,-0.732727,-0.351787
-0.480736,-0.020358,0.918512,-0.588464,0.803177,-0.092821
-0.223351,0.539430,0.747164,-0.542404,0.678265,0.495737
0.148346,0.568568,0.326591,-0.785714,0.613352,-0.080326
-0.444609,0.466881,0.860890,0.119819,-0.015411,0.992676
-0.003805,0.072906,0.698406,-0.117081,0.118888,0.985981
-0.396836,0.451409,0.851156,0.316601,0.249544,0.915146
0.003897,-0.081024,0.505735,0.017724,-0.329903,0.943849
0.624544,0.324529,0.195319,-0.270838,0.049479,0.961352
0.368106,-0.266712,0.324399,0.995313,-0.062665,-0.073656
-0.629067,-0.194519,0.436313,-0.073365,0.037337,0.996606
-0.713456,0.711937,0.394031,0.647908,-0.383016,-0.658417
-0.062978,-0.214113,0.194856,0.516125,-0.065511,0.854004
0.858150,0.113266,0.328571,-0.132687,-0.948793,-0.286681
0.042500,-0.107438,0.657964,0.261471,-0.613068,0.745507
0.536548,0.744510,0.209311,-0.544646,0.834839,0.080032
0.584137,0.347202,0.808649,-0.514826,0.637586,-0.573095
0.353099,0.126422,0.767743,0.481848,-0.446592,0.753908
-0.205776,0.537115,0.886513,0.817415,-0.375543,-0.436806
-0.802613,0.408123,0.603574,0.821796,0.198472,-0.534098
0.059709,0.113927,-0.977581,0.189194,-0.196822,-0.962012
0.774219,0.685320,0.080989,0.745286,0.256167,0.615571
0.106075,-0.752729,0.077505,0.424879,0.505031,-0.751280
-0.359456,0.282922,0.402825,0.852393,0.521875,-0.032762
0.256545,0.453062,0.816810,-0.486178,0.383026,-0.785444
0.187713,-0.176502,0.788210,-0.045866,0.518101,0.854089
0.459983,0.071965,0.802960,-0.108400,0.551839,0.826875
-0.257766,0.255414,0.183126,0.457634,0.680400,0.572387
-0.141896,0.280963,0.641220,0.276664,-0.786631,0.551968
-0.544403,0.962313,0.484411,-0.552637,-0.758390,0.345597
0.567785,0.723389,0.084206,0.457429,0.837736,0.298257
-0.590005,0.507011,0.858193,-0.490288,-0.440976,0.751770
0.170842,0.478306,0.519304,-0.655418,-0.308987,-0.689170
-0.357316,0.380691,0.325031,-0.773736,0.602687,0.195196
-0.583434,0.128203,0.899239,-0.219622,0.482698,0.847803
-0.055918,-0.396214,0.529081,-0.441654,-0.143116,-0.885697
0.525912,0.261852,0.826222,0.670065,0.484817,-0.562108
0.193552,0.039927,0.507322,0.369228,0.925646,0.082760
0.669658,-0.019213,0.215941,-0.542479,-0.706129,-0.455080
0.271094,-0.071583,0.717258,-0.741975,-0.562053,-0.365472
0.213082,-0.207420,0.433939,0.200605,0.148440,-0.968361
-0.735799,0.408123,0.738469,0.085561,0.058479,-0.994615
-0.660976,0.400056,0.855707,0.110982,0.992149,-0.057652
0.450019,-0.085986,0.094292,0.528983,-0.178685,-0.829607
0.005242,0.037967,-0.850538,-0.183835,-0.963968,0.192276
0.240346,0.029163,0.260105,0.519603,0.833424,0.188194
0.072882,0.523373,0.753471,0.143789,0.930797,0.336067
-0.315381,0.239560,0.368058,0.693555,0.712587,0.105836
-0.704653,0.189734,0.750142,0.545572,0.716230,-0.435161
0.259327,-0.187928,0.052544,0.136859,-0.075467,0.987712
-0.518484,0.029392,0.586239,0.646228,-0.109331,-0.755272
0.367067,0.642594,0.301081,0.394524,-0.100770,0.913344
-0.057110,0.087208,-0.848936,-0.280732,-0.938677,0.200188
-0.755207,0.243632,0.754075,0.263516,-0.310223,0.913412
0.387056,-0.070667,0.512323,0.429604,0.436573,0.790471
-0.004722,0.020816,-0.888016,-0.440484,0.850097,-0.288633
0.254069,0.095198,0.847812,0.564598,-0.561827,-0.604632
0.433820,0.520676,-0.026317,-0.361999,0.736067,0.571981
0.325285,0.025396,-0.151267,-0.034612,0.211874,0.976684
0.040269,-0.751228,0.121586,-0.040414,0.273386,0.961055
-0.087307,-0.048223,-0.968534,-0.336556,0.071079,0.938977
-0.003744,-0.892816,0.084557,0.699304,-0.648143,0.301471
0.504089,-0.031707,0.490578,0.102889,0.387409,0.916148
0.638389,-0.025956,0.155482,-0.296139,-0.560271,0.773562
0.375319,0.351579,0.814731,-0.152315,-0.864935,-0.478213
0.807046,0.220678,0.263884,0.246552,0.814308,0.525466
0.126034,-0.962822,0.065846,-0.582064,0.511300,-0.632277
0.278491,-0.233682,0.461837,0.731984,0.388238,-0.559884
0.120746,-0.902588,0.069639,-0.275913,-0.253305,0.927205
0.096600,0.191643,0.833021,-0.700525,-0.129526,-0.701774
0.047574,0.476627,0.809393,-0.294988,0.172925,0.939723
0.605624,-0.088251,0.750325,0.982653,-0.185439,-0.002370
0.176924,0.453775,0.783195,-0.695703,-0.264838,-0.667725
-0.465209,0.314808,0.365319,0.785709,0.617963,0.027991
0.966593,0.316131,0.211460,0.935688,-0.081020,-0.343400
-0.487980,0.542179,0.111120,0.107529,-0.011552,0.994135
0.239032,0.015675,0.517886,-0.501483,-0.823924,0.263938
0.559105,0.045067,0.338798,0.855646,-0.095683,0.508640
-0.462366,0.117566,0.890867,-0.047571,0.853991,0.518109
-0.086880,0.551645,0.921588,-0.099928,-0.014027,0.994896
0.199237,-0.402015,0.208440,-0.083891,0.172103,0.981500
0.011722,0.517749,0.498304,0.854361,-0.492191,-0.166779
-0.429938,0.811614,0.458002,-0.147010,-0.258937,0.954641
0.660733,0.287299,0.786749,0.244489,0.577111,0.779210
-0.507878,-0.039341,0.931309,0.081813,-0.848173,0.523364
0.021594,0.002774,-0.045211,0.120337,0.384683,-0.915171
0.474319,-0.149935,0.780512,0.294663,0.435655,-0.850517
0.505311,-0.500293,0.330636,0.320588,0.028729,-0.946783
0.186552,-0.521414,-0.032175,0.423050,0.007242,-0.906077
-0.641995,0.485431,0.441623,-0.137807,0.915562,0.377829
0.530496,-0.030333,0.517900,0.212846,-0.954200,-0.210235
0.123986,0.277986,0.549998,0.798275,-0.346166,-0.492876
-0.548528,0.208158,0.556487,-0.388868,-0.874636,0.289470
0.347842,0.005191,0.778012,-0.191458,0.351562,-0.916378
-0.592725,0.251648,0.109617,0.679218,-0.022247,-0.733600
-0.714831,0.180472,0.704756,-0.514974,0.326914,0.792420
0.811783,0.219966,0.224453,0.822292,0.500633,0.270562
-0.625980,-0.077690,0.842306,-0.128010,0.097034,0.987015
-0.221303,0.453190,0.876300,0.688674,0.589692,-0.421892
0.615986,-0.266763,0.342829,0.914963,-0.143004,0.377348
-0.124230,0.228669,0.811529,0.141074,-0.547293,0.824966
0.453168,0.628674,0.299199,0.088294,0.557242,0.825642
-0.453992,0.608698,0.447692,0.426684,-0.257305,-0.867027
-0.281333,0.545868,0.728327,-0.357720,0.202469,0.911616
-0.200825,-0.127007,0.664651,-0.811794,0.189004,-0.552510
0.058395,0.141105,0.133512,-0.290067,-0.589134,-0.754177
0.363552,0.083492,0.738553,0.956624,0.203177,-0.208782
0.034554,0.350179,0.852378,-0.512591,0.815883,-0.267553
0.124261,0.268545,-0.992892,0.212185,-0.274081,-0.938007
-0.023855,-0.067155,-0.969293,-0.051974,-0.061527,0.996751
-0.339925,0.322849,0.178294,-0.182763,0.412251,0.892551
0.439688,-0.087106,0.533520,-0.123845,0.984956,-0.120514
-0.491128,-0.189073,0.776972,-0.734437,-0.014472,0.678523
0.044304,-0.348016,0.491997,0.922368,0.384078,0.041485
-0.703125,0.057638,0.734451,0.995248,-0.055499,0.080003
-0.244073,-0.060692,0.840831,0.319521,-0.508639,0.799496
0.308383,-0.189989,0.661167,0.804563,0.174214,0.567740
-0.585420,0.069318,0.668050,-0.009912,-0.706400,0.707743
0.132483,0.233860,-0.987358,-0.205289,0.273254,0.939781
-0.455398,-0.416368,-0.012214,0.526195,0.416649,0.741298
-0.248078,-0.536199,0.481363,-0.379668,-0.589560,-0.712932
-0.251745,0.512813,-0.105853,-0.476989,-0.006363,-0.878886
0.472179,-0.024709,0.809787,0.484546,0.528727,-0.696895
-0.269809,-0.250833,0.464422,-0.236354,-0.707164,-0.666375
0.175823,0.003639,0.852631,-0.288626,0.856859,0.427185
0.363674,-0.035881,0.522704,0.206500,0.698763,0.684900
0.136578,-0.109372,0.656433,0.029906,-0.256051,0.966200
-0.091342,0.397282,0.878365,-0.635714,0.489802,0.596626
-0.264521,-0.007863,0.848669,0.267584,-0.619731,0.737789
-0.327393,0.215233,0.815406,-0.184410,0.697419,0.692532
-0.165064,0.110466,0.138906,0.940279,0.340401,-0.001244
0.168182,0.497646,0.773643,-0.028276,0.063773,0.997564
-0.212898,0.570985,0.743161,-0.058053,0.213301,0.975260
0.615588,0.174212,0.245033,-0.402171,0.770063,-0.495239
0.168580,-0.373998,0.199815,-0.673645,0.487953,0.555071
0.349186,0.194188,0.859739,0.050174,-0.125116,0.990873
0.050050,0.545360,0.727105,-0.051655,0.815214,0.576851
0.696493,-0.143777,0.133399,0.239967,0.034670,-0.970162
0.334760,-0.330051,0.212527,-0.355948,-0.323687,0.876657
0.665470,0.199252,0.404539,-0.423773,-0.516605,0.744000
-0.338488,-0.032827,0.882312,0.952635,-0.055286,0.299048
-0.202719,-0.173652,0.873702,0.527061,0.571125,-0.629303
0.140552,-0.289488,0.778209,-0.393940,-0.169617,0.903350
0.369818,0.426903,0.674863,0.181386,-0.879034,0.440907
0.220937,0.045500,0.851690,0.016851,0.262588,0.964761
0.204769,-0.342978,0.010880,0.579610,-0.355957,-0.733039
-0.619256,-0.196885,0.028368,0.584747,0.234624,-0.776545
0.154031,0.196783,0.775090,-0.020387,-0.831566,0.555052
-0.354841,0.477619,0.497306,0.333915,0.067333,-0.940195
0.373669,-0.066850,0.521566,-0.462939,-0.335203,-0.820565
-0.117414,0.518513,0.906727,0.628156,0.294337,-0.720268
-0.730022,0.011070,0.458494,-0.072224,-0.047130,0.996274
-0.662535,0.055882,0.988299,-0.662757,-0.041745,-0.747670
-0.644166,-0.171667,0.435246,-0.226942,0.229383,0.946510
0.150822,0.827468,0.346257,0.091421,0.091052,-0.991641
0.368748,0.324401,0.807581,-0.366923,-0.702237,-0.610108
0.350500,-0.070871,0.748948,-0.163882,-0.181104,0.969713
0.233927,0.235132,0.859879,0.481547,0.738213,-0.472392
-0.492137,-0.166858,0.782100,-0.707523,0.183381,0.682483
0.448399,-0.268392,0.547567,-0.572380,-0.502177,-0.648228
0.318377,-0.201975,0.710248,0.760317,-0.292175,0.580131
0.623841,-0.010841,0.842180,-0.417642,-0.843978,-0.336564
-0.730999,-0.034354,0.772224,0.948547,0.254316,-0.188634
0.281730,-0.006845,0.918077,-0.716617,-0.354089,0.600900
0.012425,0.022114,0.533773,-0.028150,0.181802,0.982932
-0.006464,0.720564,0.696917,0.151060,0.852176,-0.500976
0.112188,-0.236990,0.494581,0.134509,0.345308,0.928800
0.141928,-0.972466,0.051392,0.570524,-0.586362,0.575049
-0.685886,-0.163626,0.847827,-0.308190,0.882107,-0.356239
-0.421746,-0.060615,0.767701,-0.113129,-0.400185,0.909425
-0.213204,0.655724,0.632567,0.328866,-0.749784,-0.574169
-0.720210,-0.011808,0.850018,-0.168535,-0.428158,0.887849
0.099595,0.688831,0.629280,0.829039,-0.534745,-0.163529
-0.373454,-0.099830,0.139524,0.566416,0.823318,0.036325
0.323574,-0.051403,0.078812,0.568995,0.822249,-0.012292
0.777582,0.636257,0.087184,0.432110,0.018229,0.901637
-0.030060,0.480291,0.751055,-0.153538,0.316610,0.936047
-0.320608,-0.427844,0.446161,0.089076,0.381141,0.920216
-0.445372,-0.276408,0.816459,-0.682127,-0.053777,0.729254
0.428044,-0.039112,0.756744,0.845210,0.116706,-0.521536
-0.280538,-0.243581,0.647232,0.399974,0.453194,-0.796640
0.171851,-0.190981,0.339570,0.378749,-0.310390,0.871899
0.653856,0.228007,0.831869,-0.476724,0.510784,0.715426
0.428197,0.744510,0.125870,-0.063570,0.027145,0.997608
0.481623,0.294348,0.426452,0.594407,0.620010,0.512122
-0.682708,0.522101,0.865905,-0.636963,0.386923,-0.666760
-0.357041,0.368247,0.673206,0.003629,0.960412,0.278558
0.177260,0.608494,0.700134,-0.279118,0.266199,0.922622
0.418874,-0.066697,0.546444,0.087966,0.991619,0.094626
0.563109,-0.069446,0.448422,0.790373,0.518174,0.326812
-0.642515,0.032827,0.637568,0.213405,0.217041,-0.952550
-0.471048,0.102374,0.553931,0.120554,0.307410,0.943910
-0.090761,0.031758,0.701609,-0.120233,0.865850,-0.485641
0.388737,0.623203,0.706020,-0.788816,0.433734,0.435481
-0.024956,0.520243,0.887313,0.244056,-0.918300,0.311708
0.614886,0.458407,0.751716,0.954767,-0.034915,-0.295297
-0.183556,-0.005089,0.847953,-0.176380,0.578723,0.796222
0.117720,-0.204443,0.629730,0.075873,0.315182,-0.945993
-0.345610,0.166934,0.820828,-0.425561,-0.388895,-0.817104
-0.309238,0.163931,0.296389,-0.692312,0.718355,-0.068337
0.011966,0.142785,0.728172,0.262177,0.813690,-0.518817
0.517537,0.672698,0.226223,-0.674965,-0.576268,-0.460801
-0.117170,0.409522,0.473946,0.344912,0.411011,0.843864
0.016001,0.119170,-0.985307,0.351762,-0.211980,-0.911772
-0.100664,0.078556,-0.406267,0.877251,0.477922,0.044960
0.331428,-0.288673,0.671295,-0.182696,-0.940654,-0.285994
0.340903,0.004046,-0.145564,-0.045090,0.210496,0.976554
-0.371651,0.249154,0.879756,0.289924,0.856630,0.426765
-0.565553,0.534290,0.060452,-0.110574,0.853708,0.508878
0.584779,0.515154,0.712032,-0.316060,0.933468,-0.169540
0.250066,0.396595,-0.039129,0.857014,-0.510924,-0.066960
-0.312997,0.422780,0.878379,-0.118409,0.255572,0.959511
0.105861,0.297631,0.900166,-0.086811,-0.522752,0.848053
0.165249,-0.276484,0.648483,-0.284638,-0.924859,0.252223
-0.322228,0.066901,0.206178,0.445947,-0.485581,-0.751892
0.043295,0.134005,0.822570,0.047852,-0.452820,0.890317
0.137098,-0.823447,0.073053,-0.527311,0.116292,0.841676
0.816429,0.573352,0.064779,0.407696,-0.231525,0.883278
-0.788461,0.184696,0.661139,-0.550353,0.284865,-0.784833
0.304134,0.007736,0.897778,0.961182,0.015966,-0.275453
-0.082478,0.724203,0.662656,0.933084,0.278838,-0.227165
-0.568121,0.134005,0.930607,0.857539,-0.447799,0.253187
0.120472,0.082296,0.275824,-0.373478,-0.892411,-0.253214
0.610423,0.187470,0.754328,0.042785,-0.655947,0.753594
0.623535,0.186325,0.814141,0.139348,0.922496,0.359976
-0.523741,-0.196580,0.857758,0.685829,0.315353,0.655889
-0.040238,0.065730,0.624012,0.947969,0.042942,-0.315453
-0.710857,0.523373,0.425455,-0.425307,0.074387,0.901987
0.369634,-0.118966,0.268239,-0.447302,0.578591,0.682021
-0.258592,0.626257,0.652879,-0.556663,0.826619,-0.082630
-0.860564,0.258442,0.726880,0.496195,-0.864649,-0.078567
0.367556,0.505586,0.703028,0.145395,-0.236449,0.960704
0.288669,-0.071252,0.704699,0.907431,0.214817,-0.361140
-0.269809,-0.160699,0.471137,-0.437939,-0.149670,-0.886458
0.388340,-0.391353,0.287427,-0.754450,-0.030275,0.655659
0.035134,0.175764,0.530528,-0.490574,0.810660,-0.319638
-0.757499,-0.244701,0.356525,0.315195,0.753040,0.577567
-0.392618,0.532407,0.494595,-0.392373,0.326665,0.859845
0.469062,0.130722,0.466220,-0.615642,0.611127,0.497503
0.654619,0.229916,0.163868,-0.400569,-0.638695,0.656972
-0.100940,0.842227,0.673164,0.036100,-0.555341,0.830839
-0.355727,0.849098,0.461051,0.185131,-0.278132,0.942533
0.352609,0.748785,0.322770,-0.128689,-0.338826,0.932007
0.706518,-0.084358,0.744551,0.532178,-0.113629,0.838972
-0.497546,-0.204519,0.470603,0.482047,-0.138241,-0.865171
0.546176,0.175891,0.754989,-0.284465,0.696835,-0.658407
-0.288576,0.607731,0.585930,-0.531419,0.719145,0.447688
-0.021013,-0.744993,0.127935,0.547975,-0.006934,0.836466
-0.109070,0.766038,0.734002,0.371317,0.928237,0.022361
-0.415726,0.177138,0.751083,-0.022915,0.712478,0.701320
-0.204859,0.463470,0.502518,-0.027144,-0.477406,0.878263
-0.467807,0.517113,0.872746,0.273844,-0.247288,0.929440
0.698602,-0.009823,0.177199,0.215377,0.785922,-0.579603
-0.592328,-0.266891,0.473960,-0.205983,0.199254,0.958055
-0.695026,0.721505,0.389972,0.373728,-0.490808,-0.787042
0.238298,0.414892,0.369631,0.525005,0.216382,0.823133
-0.143761,0.082653,0.359293,0.310216,-0.622834,0.718222
-0.255994,0.457389,0.823722,0.699728,0.154971,-0.697399
0.120716,0.537573,0.139805,0.059713,0.440589,0.895721
-0.721922,0.547879,0.681985,-0.353496,-0.720765,-0.596270
0.267762,-0.291040,0.227684,-0.086251,-0.378308,0.921653
-0.532635,0.128712,0.912107,-0.400135,0.500237,-0.767890
0.142752,0.731582,-0.143289,0.217607,-0.068192,0.973651
0.742187,0.301830,0.731319,-0.631016,-0.594098,-0.498864
0.012272,-0.222409,0.494567,0.051600,0.185634,0.981263
-0.683716,0.445836,0.856466,0.931503,0.192934,-0.308350
-0.366700,0.215029,0.620880,0.507090,0.791334,-0.341540
-0.608680,0.331527,0.443000,-0.179210,0.322230,0.929544
-0.196821,0.100593,0.772828,-0.363763,-0.889249,-0.277333
-0.213326,-0.334733,0.487024,-0.323627,0.538922,-0.777707
-0.018720,0.136219,0.709391,0.967458,0.212743,-0.136985
-0.105005,0.504670,0.937054,-0.653283,-0.260634,-0.710838
-0.032200,-0.239688,0.859781,0.764909,0.443099,0.467523
-0.763551,0.582996,0.376051,0.831796,0.009974,-0.554992
0.011875,0.418403,0.088420,0.804099,0.251050,-0.538886
0.003928,0.208718,0.799799,-0.638976,0.651252,0.409366
0.085046,0.299285,0.918779,-0.112454,-0.405271,0.907254
0.043204,0.543884,0.792481,-0.661328,0.398246,-0.635646
-0.413096,0.014403,0.269278,-0.029027,-0.524806,0.850727
0.050906,0.050029,0.406042,0.451664,0.180803,-0.873676
0.867227,-0.021503,0.247870,-0.362830,0.571127,-0.736321
-0.137831,-0.754969,0.099517,-0.551889,0.782691,0.287772
-0.420952,0.382676,0.403794,0.028420,-0.724074,0.689136
-0.204768,-0.151538,0.773404,0.694555,-0.630851,0.345862
0.353435,0.637173,0.686382,0.777932,-0.627742,-0.027617
0.343227,0.616357,0.670930,-0.748923,0.641640,0.165567
-0.389868,-0.251291,0.821390,-0.680901,0.728621,-0.074069
-0.135416,0.350078,0.838738,0.555818,-0.359494,0.749554
0.008757,0.163346,-0.990209,0.349389,-0.206454,-0.913950
0.125331,0.341680,0.885937,0.664795,-0.643798,-0.378909
0.096600,0.240858,-0.993440,0.219403,-0.276091,-0.935754
0.247590,0.027254,0.680047,0.171249,-0.342120,-0.923920
0.616353,0.348551,0.767125,0.127251,-0.226739,0.965607
-0.169771,0.403186,0.667812,0.341850,0.719660,0.604341
0.750654,0.126753,0.328726,0.233106,0.971481,-0.043432
0.587469,0.534315,0.617073,0.674475,0.470845,0.568672
-0.080798,0.021656,0.009573,-0.647031,0.666471,-0.370361
0.600367,0.018831,0.735252,0.020132,-0.889181,0.457113
0.623291,0.592590,0.229763,0.788419,-0.171912,0.590628
-0.477099,0.196783,0.456780,0.153114,0.056720,-0.986579
0.814167,-0.160674,0.180233,0.293632,-0.886856,0.356745
0.390877,-0.052752,0.084192,0.340108,0.883455,0.322231
0.630351,0.156551,0.832529,-0.168061,0.959799,0.224816
-0.081317,-0.072423,0.826138,0.785625,0.581446,0.211457
-0.251685,-0.312492,0.699657,0.985606,-0.164647,-0.038357
-0.197280,0.258595,0.740183,-0.517807,-0.447359,-0.729209
0.000169,-0.330534,0.028242,0.482597,0.406221,-0.775941
0.021717,0.628445,0.078208,-0.034890,0.742602,0.668823
0.004203,-0.935466,0.067630,-0.583415,-0.812087,-0.011895
0.025843,0.658116,0.776565,0.249264,0.486708,0.837247
0.089754,-0.308930,0.697929,-0.011684,0.974023,0.226146
0.593612,0.139782,0.745830,0.002929,-0.799236,0.601010
0.318377,0.252895,0.820420,-0.702560,0.384170,0.599019
0.485169,0.812607,0.365473,-0.042813,-0.446679,0.893669
-0.213693,0.989567,0.757784,-0.637236,0.510311,-0.577506
0.570444,0.497824,0.674526,-0.444060,-0.895912,0.012319
-0.056988,0.099295,0.233387,0.897471,-0.038867,0.439358
-0.122274,-0.092653,0.209634,-0.112531,-0.621805,0.775046
0.807076,0.159809,0.330650,0.007143,0.999855,-0.015446
-0.154947,0.030435,0.753626,-0.727602,0.350658,-0.589605
-0.513838,0.722803,0.420805,0.409868,-0.138671,0.901542
0.579522,0.008219,0.283016,0.216056,-0.259134,-0.941366
-0.097028,-0.608265,-0.170695,0.868611,0.150154,-0.472195
0.188172,0.052574,0.674793,0.131839,0.551375,0.823774
-0.769603,0.443825,0.380209,0.838985,-0.004569,-0.544135
-0.649912,0.030180,0.957423,-0.686507,0.532357,-0.495282
0.482785,-0.257399,0.532228,0.740752,0.525975,0.417896
-0.542691,0.751279,0.415018,-0.572096,0.117260,-0.811761
-0.527500,0.002010,0.864444,-0.057792,0.811695,-0.581216
-0.799403,-0.148077,0.473721,0.391973,-0.245225,0.886692
-0.402002,0.456600,0.607296,0.818070,-0.432464,-0.379125
-0.253519,0.375754,0.871651,-0.679803,0.383945,0.624864
0.827707,0.097539,0.220675,0.847742,0.484924,-0.214898
-0.409368,0.822913,0.564255,-0.147483,0.022860,0.988800
0.190067,-0.224088,-0.049706,0.032634,0.321599,0.946314
-0.796714,0.634018,0.115405,0.568938,0.377739,-0.730495
-0.147062,0.325343,0.491744,-0.024165,0.242696,0.969801
-0.150179,0.584345,0.751378,0.201468,0.783129,0.588319
-0.464690,0.010891,0.304143,0.941710,-0.008859,0.336308
0.534654,-0.406647,0.565899,0.262506,0.042155,0.964009
0.460534,0.322925,0.277257,0.869417,0.219209,0.442788
-0.296615,0.469832,0.839581,0.306720,-0.296211,0.904534
-0.464048,-0.207242,0.812062,0.718400,-0.043198,-0.694287
-0.834675,0.595669,0.012607,-0.240297,0.713181,0.658506
0.315657,0.430949,0.791371,0.951628,0.189412,0.241922
-0.031313,0.052523,0.860315,0.252860,0.757074,0.602413
0.210209,0.151818,0.587419,-0.468496,0.652759,0.595330
0.030794,-0.118711,0.669876,-0.250877,0.740266,-0.623752
0.158922,0.771484,0.449279,0.205722,0.069918,0.976110
-0.066188,-0.107006,0.898481,0.659929,0.646765,0.382347
0.216964,-0.189633,0.637638,0.228134,0.112971,-0.967053
0.499381,-0.082933,0.076030,0.463866,0.164787,-0.870445
-0.168487,0.142403,0.078292,0.964639,0.219872,-0.145353
-0.311897,0.076138,0.209100,0.388860,-0.129353,0.912171
0.596760,-0.021172,0.813692,-0.685352,0.717209,0.126109
0.014534,0.818256,0.555827,0.370145,0.208326,0.905314
0.757653,-0.077690,0.369617,-0.654961,0.302758,0.692361
-0.856927,0.254091,0.791230,-0.006289,0.937626,0.347588
-0.494307,0.319337,0.618702,-0.600429,-0.555343,-0.575394
0.307955,0.885717,-0.169164,0.595946,-0.567656,-0.567991
0.066738,0.529303,0.136588,0.307395,0.243148,0.919993
-0.451823,-0.452859,-0.002578,0.085715,-0.793685,0.602260
0.645786,-0.543604,0.147180,-0.016196,-0.794001,0.607701
-0.371742,0.237092,0.635124,0.453856,0.885288,0.101391
-0.105524,0.180828,0.251817,0.305092,0.902209,-0.304857
-0.179154,0.236507,0.292400,0.292499,0.604356,-0.741079
0.703584,0.437362,0.029155,-0.156153,-0.239860,0.958167
-0.171238,0.259842,0.299760,0.466349,0.450300,-0.761413
-0.264399,0.287299,0.855876,0.618970,-0.633909,0.463719
-0.449805,0.028399,0.095935,-0.347027,0.817809,0.459087
0.345886,0.489376,0.750887,-0.260395,0.952107,-0.160270
-0.006861,0.292210,0.442396,-0.601988,0.157206,-0.782877
0.816582,0.012749,0.219087,0.339077,0.604489,-0.720846
0.135570,0.563096,0.537313,0.699733,0.201309,0.685455
-0.695667,-0.033998,0.837572,0.201765,0.592842,-0.779634
0.080095,0.348754,0.715741,0.328048,-0.810685,0.484948
0.201773,0.639260,0.695105,-0.322464,0.429815,0.843372
-0.062336,-0.023590,-0.060480,-0.529424,-0.481093,0.698756
-0.811599,0.533552,0.758950,0.851543,-0.192482,-0.487673
0.538352,0.513703,0.729886,-0.241448,-0.957709,0.156512
-0.123588,-0.149146,0.200882,0.350739,0.305749,-0.885155
-0.543761,0.638929,0.027202,-0.276078,0.654265,0.704073
0.423642,0.700232,0.781397,-0.223098,-0.726991,0.649393
-0.501337,-0.221569,0.785977,0.839963,0.149656,-0.521598
-0.264797,0.620912,0.474086,-0.563909,0.819609,0.101234
0.307008,-0.202433,0.453423,-0.510943,-0.545650,0.664231
-0.308718,0.199786,0.245721,-0.555731,0.767226,-0.320199
-0.272469,-0.177876,0.429908,-0.614219,0.458046,0.642596
0.388462,0.688627,0.744959,0.719724,0.485235,-0.496533
-0.008635,0.803115,-0.111275,0.137867,0.264994,0.954343
-0.145350,-0.095274,0.731052,0.516798,-0.591765,0.618655
0.031711,-0.081151,0.495649,-0.568192,0.311493,-0.761662
0.057753,0.289411,0.210153,0.256636,0.736469,0.625901
-0.006311,-0.435580,0.501830,-0.686929,0.587611,-0.427599
0.396256,0.592004,0.738947,-0.683089,-0.334424,0.649269
0.454115,0.189531,0.855623,0.588387,0.683390,-0.432180
0.309941,0.009746,0.252829,-0.467891,-0.641814,0.607580
-0.379048,0.574420,0.011006,-0.102463,-0.854682,0.508940
0.569344,0.481258,0.461950,0.078915,-0.208324,0.974871
-0.006220,0.389266,0.614320,-0.127264,0.177237,0.975905
-0.887124,-0.149121,0.339837,-0.146845,-0.206209,0.967427
0.456224,0.197318,0.629561,-0.610215,-0.605259,-0.511175
0.842745,0.197572,0.229482,0.924081,0.359482,-0.129798
0.019852,-0.432552,0.445149,0.413176,0.848816,-0.329844
-0.107022,0.124284,0.575479,0.576029,-0.747421,-0.330987
-0.358264,0.110136,0.490606,0.850969,0.415495,0.321273
0.485505,0.775352,0.344346,0.376383,-0.636535,0.673171
0.514144,0.382472,0.412981,0.069246,-0.296709,0.952454
-0.570688,0.379291,0.845087,-0.111836,-0.861555,-0.495192
0.123742,-0.186274,0.780653,-0.009354,0.278187,0.960482
-0.479453,0.018653,0.863180,-0.077921,0.111928,0.990657
0.068939,0.035143,0.730968,-0.096373,0.288280,0.952684
0.256851,0.057333,0.861382,0.652963,-0.476660,-0.588587
-0.565033,-0.390946,0.003673,0.187427,0.535531,0.823455
0.651013,-0.254523,0.142474,-0.334311,0.379362,0.862740
0.225706,0.753824,0.018044,0.780401,0.127784,0.612082
-0.187254,0.133954,0.887046,0.855560,0.486409,0.177268
-0.498922,-0.013640,0.905743,0.140544,-0.954625,-0.262560
-0.426545,-0.422246,-0.004938,0.180127,-0.707266,0.683615
-0.436938,0.341731,0.874713,-0.245399,-0.360722,-0.899810
0.414717,0.287147,0.490943,0.438485,0.898656,-0.012156
0.693620,0.284653,-0.025966,0.361095,0.225764,-0.904788
-0.528326,-0.235565,0.767181,-0.589319,-0.189702,0.785313
-0.111056,0.497901,0.916812,0.991421,0.099260,0.085042
-0.460441,0.787261,0.439235,0.168260,-0.952316,0.254526
-0.052373,0.144082,0.658976,-0.437312,0.836604,0.329926
-0.241598,0.794386,0.544308,-0.388096,-0.339858,0.856667
0.243616,0.008372,0.890010,0.405927,0.744507,0.530031
0.409276,0.029010,0.827655,0.374178,0.186394,-0.908432
0.283778,0.376543,-0.054566,0.195350,0.187398,0.962663
-0.148254,0.471156,-0.082731,0.394399,0.043026,0.917932
-0.064903,0.608265,0.292512,-0.649168,0.045678,0.759273
-0.213479,0.410922,0.279898,-0.358028,0.235158,0.903613
-0.004691,-0.427208,0.449546,-0.285123,-0.911543,0.296301
0.821533,-0.118228,0.702522,-0.530964,0.793030,-0.298631
0.169161,-0.270631,0.351145,0.477178,0.523972,-0.705517
0.097548,0.071583,0.522521,0.424091,0.782864,0.455270
0.303065,0.453521,0.767800,-0.671130,0.729130,-0.133994
0.096600,0.336845,0.828132,-0.299577,0.370281,0.879287
0.415176,-0.081686,0.318752,0.075804,-0.947579,0.310400
-0.303553,0.644350,0.560982,-0.146047,0.649126,0.746529
-0.267914,-0.081762,0.456598,-0.656731,-0.259776,-0.707970
-0.516864,0.104359,0.841505,-0.182639,0.832991,-0.522274
-0.143149,0.052879,0.859753,-0.442859,-0.826675,-0.347107
-0.630778,0.078047,0.452131,-0.112950,-0.853337,0.508977
0.200092,-0.291396,0.393512,0.787349,0.616496,-0.003761
-0.307587,0.141130,0.300912,-0.478113,0.674708,-0.562296
-0.560113,0.726467,0.442466,-0.293837,0.484085,-0.824210
-0.001391,0.180803,0.735997,-0.168037,-0.968569,0.183406
-0.708595,0.392422,0.860862,0.779582,-0.499147,-0.378292
-0.079483,-0.089905,0.884490,-0.512331,-0.702181,-0.494427
-0.443478,-0.161412,0.672363,0.761248,-0.442753,0.473783
-0.481684,0.488078,0.866004,0.079672,-0.319876,0.944104
-0.098647,0.493396,0.301966,0.489351,-0.296903,-0.819991
0.713671,-0.248976,0.394748,-0.543810,-0.543578,-0.639370
0.171483,-0.744713,0.136405,-0.493199,0.170105,-0.853123
0.307863,0.381861,0.640813,0.130937,-0.745832,0.653139
0.062612,-0.298114,-0.072294,-0.275076,-0.020263,0.961209
-0.075448,0.418734,0.887847,0.940813,-0.167735,-0.294510
-0.699060,0.451103,0.112736,-0.273513,-0.001264,0.961868
0.452037,0.029341,0.786033,-0.696075,0.462323,0.549306
-0.081623,-0.506247,0.410298,0.078829,-0.565216,-0.821168
0.262994,-0.093722,0.718269,0.481097,0.572793,0.663667
0.276870,0.521058,0.508277,0.321688,0.251950,0.912709
-0.170016,0.219533,0.473173,0.941507,0.060421,-0.331534
0.172706,-0.300532,0.508825,0.160295,-0.567804,-0.807406
0.685306,0.068886,0.763080,0.346141,-0.216572,0.912843
-0.057752,-0.248390,0.629730,0.047789,-0.548977,0.834470
-0.302452,0.343003,0.863166,-0.364008,0.392120,0.844831
-0.029998,-0.150164,0.894730,0.808993,-0.002426,0.587813
-0.047696,0.117159,0.845523,-0.183343,0.232024,0.955275
-0.462031,-0.168486,0.466908,0.397731,-0.157031,-0.903964
-0.348269,0.059877,0.779571,0.086321,-0.086656,0.992492
-0.734729,0.381022,0.740997,-0.353656,0.047067,0.934191
0.368473,-0.194290,0.718030,-0.581587,0.714190,-0.389472
0.582732,-0.083365,0.505552,-0.314847,-0.558387,0.767512
0.434524,0.138967,0.816459,-0.587918,-0.605202,0.536734
0.542600,0.027687,0.758837,-0.631207,0.360854,-0.686558
-0.012424,0.525409,0.859514,0.748609,-0.657498,0.085331
0.432384,0.528514,0.732485,0.879841,0.063592,-0.470995
0.032201,0.217192,-0.996980,-0.303265,0.329886,0.893983
-0.452494,-0.353767,0.502181,0.246256,0.862173,0.442737
-0.397081,-0.008907,0.852645,-0.373379,-0.156845,0.914324
0.241660,0.381734,0.532663,-0.167006,0.046639,-0.984852
0.554429,0.702649,-0.009573,0.775352,-0.110850,-0.621725
0.507298,0.178232,0.765566,0.282614,0.661174,-0.694966
0.142539,-0.291218,0.782001,-0.393940,-0.169617,0.903350
0.129304,-0.228491,0.498767,-0.679761,-0.348918,0.645121
0.181264,-0.600427,0.101625,-0.419402,-0.620155,-0.662955
0.306946,0.646716,0.436187,-0.469912,0.700011,-0.537743
0.797448,-0.119729,0.663920,-0.024970,-0.704442,0.709322
0.509315,0.015854,0.380462,0.137778,-0.219339,0.965871
0.267885,-0.290938,0.426424,-0.030744,-0.397951,0.916891
-0.370856,-0.037407,0.763642,-0.007762,0.155126,-0.987864
0.160909,0.622923,0.674540,0.882585,-0.442973,-0.157542
-0.010529,0.878006,0.571897,0.966507,0.044029,0.252836
-0.291724,0.814617,0.611033,-0.479749,0.076814,0.874037
0.196149,-0.525435,-0.003041,0.937314,-0.026272,-0.347495
0.310614,0.576278,0.776565,-0.072317,0.135360,0.988154
-0.067746,-0.385755,0.494399,0.918253,0.312295,0.243481
-0.838190,0.113062,0.652289,0.193640,-0.490332,0.849751
-0.392649,-0.244650,0.478301,0.585409,0.171722,-0.792343
-0.089447,0.480877,0.904704,-0.237827,-0.743717,0.624758
0.093391,0.352775,0.863264,0.976815,-0.174329,-0.124263
0.122335,-0.119984,0.372750,0.949561,-0.077777,0.303783
0.153817,-0.278596,-0.050872,-0.551307,0.139129,0.822620
-0.470986,-0.015828,0.674343,0.757028,0.545874,0.359068
0.481287,0.478459,0.427183,-0.216123,0.357237,0.908665
-0.652632,0.487009,0.807567,0.889665,-0.008541,0.456534
0.632307,-0.119882,0.285011,-0.281349,0.924262,-0.258037
0.259204,-0.097310,0.654790,-0.121636,-0.317635,0.940379
0.047391,0.157366,0.715586,0.276493,0.928259,-0.248772
0.297655,0.637962,-0.012692,-0.108219,-0.342804,0.933153
-0.113502,0.430567,0.850847,-0.159497,0.932738,0.323358
-0.450997,0.054533,0.934582,-0.665164,0.046663,0.745238
-0.022572,-0.332290,0.746869,0.990450,0.109500,0.083774
-0.135141,-0.057918,0.147475,-0.617525,0.461753,-0.636747
-0.364651,-0.156093,0.833906,0.720220,-0.284866,0.632562
-0.415114,-0.081482,0.492853,-0.170174,-0.433356,0.885010
0.544495,-0.240960,0.116107,-0.401642,0.301705,0.864672
0.676413,-0.485991,0.178786,0.167913,-0.703301,0.690777
-0.351600,0.095554,0.857884,0.396247,-0.275802,-0.875741
-0.638694,0.474235,0.487164,-0.595460,0.504500,0.625225
-0.360280,0.428710,0.738202,-0.365119,-0.166023,-0.916038
-0.650218,0.482276,0.465433,0.810074,-0.491888,-0.319101
-0.700588,0.363972,0.867717,0.967188,0.006247,-0.253987
0.424284,-0.048986,0.752741,0.771459,0.152881,-0.617640
-0.742920,0.740642,0.376683,0.316079,-0.392515,-0.863728
0.308169,-0.275797,0.707102,0.643431,0.548569,-0.533918
-0.031405,0.365600,0.468678,0.131649,-0.426168,0.895014
-0.051638,-0.062448,-0.969714,-0.071244,-0.114417,0.990875
-0.081684,0.103240,-0.388764,-0.845493,-0.533073,-0.031233
0.349126,-0.319592,0.344683,0.967455,-0.252619,-0.014626
-0.630747,0.016999,0.086819,-0.280524,0.959833,0.005168
0.724704,0.407843,0.420201,0.252258,-0.373953,0.892483
-0.141805,0.382854,-0.101203,0.130888,0.111328,0.985127
-0.191105,-0.130519,0.560561,0.857601,0.490584,-0.154425
0.206113,0.429142,0.377399,-0.261396,-0.490015,-0.831599
-0.013739,0.225946,0.788913,-0.630603,0.776105,-0.001066
-0.574661,0.101763,0.170133,0.579834,0.181856,-0.794179
-0.603301,0.544469,0.433293,-0.220341,0.130263,0.966686
0.568824,0.099346,0.585930,0.900396,0.168772,-0.401003
-0.336624,0.329211,0.860975,-0.566173,0.301038,0.767349
-0.559288,0.035346,0.770103,-0.441116,-0.861646,-0.250964
0.130863,0.179836,0.807146,-0.157230,0.940234,-0.302057
-0.084343,-0.193882,0.197778,0.561305,0.264307,-0.784269
-0.114999,0.399165,0.714813,0.828415,0.142274,-0.541745
-0.289707,0.222587,0.802721,-0.253563,0.948084,-0.191945
-0.220692,-0.223071,0.669455,0.980803,0.015714,-0.194368
-0.100542,0.083569,0.595201,0.816981,-0.338067,-0.467176
-0.005578,-0.098354,0.203650,-0.588935,0.215324,-0.778968
-0.519309,0.260834,0.809084,-0.261188,-0.572830,0.776947
0.015665,-0.110899,0.811177,-0.675430,0.637822,-0.370104
-0.146695,0.595338,-0.116950,0.421030,0.160909,0.892660
-0.319568,0.208133,0.630671,-0.044323,0.467559,-0.882850
0.639062,-0.218999,0.132514,0.341083,-0.376131,-0.861503
-0.697012,0.528030,0.421480,-0.425307,0.074387,0.901987
-0.697928,0.372700,0.119689,-0.184776,-0.138266,0.973006
-0.328279,-0.358322,0.493879,-0.048321,-0.998704,0.015982
0.002461,0.122528,0.689205,0.954657,0.190006,-0.229191
-0.620295,0.061608,0.554591,0.782537,-0.306637,-0.541857
0.400199,0.649821,0.296178,-0.638019,0.044265,-0.768747
0.633041,0.155152,0.146744,0.808222,0.391779,-0.439644
-0.157209,0.881696,0.679625,-0.351223,-0.574792,0.739092
-0.030518,0.321551,0.145972,-0.948761,0.197259,-0.246862
-0.215893,0.206097,0.583837,0.001368,-0.999815,0.019200
-0.794483,0.473828,0.648609,0.467715,0.749239,-0.468918
-0.336257,-0.087895,0.501619,-0.257952,-0.348342,0.901176
0.240926,0.166654,0.602281,-0.849284,-0.052497,0.525319
-0.773638,0.532204,0.689739,-0.286212,0.939667,-0.187372
-0.520684,-0.456803,0.448801,0.747378,0.491151,-0.447434
-0.171116,-0.355498,0.005387,-0.104498,-0.483794,0.868921
0.403591,0.514416,0.438533,-0.330968,-0.382143,-0.862802
-0.063986,-0.778075,0.148907,-0.484080,0.036915,-0.874245
0.422267,0.056773,0.056449,0.224896,-0.957600,0.180066
0.359304,-0.474031,0.201261,0.333068,0.463624,-0.821047
-0.782440,0.507418,0.691692,0.407419,-0.904978,0.122574
0.380423,-0.011706,-0.148233,-0.031280,0.161891,0.986313
-0.502896,0.206301,0.785036,-0.045585,-0.671514,0.739588
-0.398059,0.986487,0.574089,0.238793,0.533500,-0.811391
0.092321,-0.046594,0.552147,0.586495,0.448440,-0.674481
0.279621,0.441713,0.684331,-0.231408,-0.967320,-0.103644
-0.585848,-0.233784,0.671000,-0.588859,0.740432,-0.324047
-0.289157,-0.284984,0.508909,0.260784,0.604884,0.752401
-0.507725,0.198056,0.867970,-0.657249,0.074395,-0.749993
-0.556047,0.193959,0.909185,0.164466,0.970313,-0.177325
0.414779,0.541466,0.741882,0.935568,0.340589,0.093337
0.419516,-0.041504,0.495579,0.342290,0.527537,0.777524
0.714068,0.133242,0.170667,0.426852,-0.122357,-0.896006
-0.707434,0.357203,0.756014,0.647588,-0.284234,-0.706994
0.168366,-0.188819,0.417982,0.839471,0.194428,-0.507430
0.973959,0.035473,0.205995,0.921083,-0.123246,0.369347
-0.493421,0.296715,0.873294,-0.482171,0.100040,0.870347
-0.161549,0.545640,0.084642,-0.730405,0.103343,0.675150
0.263545,0.710996,0.333179,0.601111,0.118953,0.790263
-0.203820,0.321322,0.683853,0.333851,0.414304,-0.846697
-0.094979,0.059267,0.615429,0.984459,-0.018625,-0.174622
0.103966,0.300710,0.848768,-0.261105,0.213593,0.941383
0.441706,0.196580,0.579230,0.917855,0.315232,-0.241187
-0.187559,0.251164,0.582236,0.804386,-0.571584,0.162035
0.172156,0.362928,0.666646,0.841745,-0.129186,-0.524191
-0.452067,0.183576,0.458171,0.387424,-0.200956,-0.899733
0.269749,-0.565259,0.166284,-0.546633,-0.284205,0.787668
0.099137,0.751864,0.464619,0.374609,0.244768,0.894291
0.211768,-0.220246,0.634548,-0.245233,-0.273453,0.930099
-0.252204,-0.222765,0.457103,0.119477,-0.229998,-0.965829
0.567388,0.254218,0.453648,-0.260034,-0.956109,0.135047
0.450814,0.039494,0.804744,-0.615296,0.262962,0.743144
0.366120,0.525231,0.486097,0.704704,0.228888,0.671567
-0.912034,0.250095,0.789657,-0.239155,0.940536,0.241242
-0.025292,-0.164211,0.895419,0.976397,0.014508,0.215497
0.106198,-0.058580,0.780878,0.780665,-0.473260,0.408151
-0.240803,-0.315749,0.692029,0.979897,-0.194643,-0.043769
0.080646,0.138458,-0.976892,-0.179987,0.199105,0.963308
-0.297134,0.390844,0.860680,0.478897,0.446033,0.756116
-0.304225,0.875054,0.458466,0.366276,-0.133193,0.920924
0.152503,-0.528005,0.074078,-0.586987,-0.276985,-0.760740
0.454146,0.628445,0.156268,-0.645374,0.433327,0.629063
0.132544,0.003792,0.897947,0.140029,-0.990139,0.004013
0.618034,-0.049775,0.154681,0.484428,0.472483,-0.736267
0.538382,-0.404331,0.581267,0.262506,0.042155,0.964009
0.579278,0.400947,0.867254,-0.063779,-0.997500,-0.030428
-0.749828,0.537598,0.751266,-0.164892,0.718890,-0.675283
0.635272,-0.045093,0.712777,-0.225792,0.308683,0.923976
0.001146,0.095020,0.409919,-0.106290,-0.147266,0.983369
-0.377397,0.160521,0.476531,0.722326,0.443896,0.530284
-0.558371,0.064687,0.870443,0.958051,-0.226235,-0.175942
-0.533124,0.283609,0.458410,-0.375507,-0.139979,0.916188
0.688119,-0.299819,0.410930,0.291307,-0.742970,-0.602608
0.075664,-0.833728,0.141547,0.154513,0.000007,0.987991
0.792467,0.128839,0.195825,-0.599577,-0.404525,0.690556
0.158647,0.534392,0.496702,0.595259,0.360943,0.717905
-0.075938,0.028195,-0.984169,-0.247803,0.336562,0.908471
-0.195629,-0.162481,0.718213,0.182719,-0.655584,0.732682
-0.011568,0.134412,-0.171875,0.169336,0.981558,-0.088705
-0.282279,-0.311754,0.490185,-0.222374,0.696495,-0.682235
0.475419,0.588951,0.793984,-0.471894,0.822501,0.317502
0.719906,0.335929,0.237180,0.598628,-0.561074,-0.571700
0.717185,-0.033081,0.166902,0.280453,0.597459,-0.751258
0.182578,0.630099,0.675228,0.940529,-0.290557,-0.176018
0.634049,0.024327,0.285474,0.446868,0.754391,0.480837
-0.032505,0.873425,0.570535,0.929891,0.055245,0.363662
-0.071445,0.428023,0.888297,0.804011,-0.081980,-0.588936
0.386720,-0.050131,0.782704,0.294063,0.852044,0.433069
-0.275097,-0.550729,0.488513,-0.400256,-0.616174,-0.678325
0.387056,0.692317,0.773671,0.551537,0.674156,-0.491244
-0.796042,-0.289666,0.388342,0.110039,0.499022,0.859574
-0.812241,0.584930,0.363535,-0.713983,-0.001896,0.700160
-0.172247,0.211314,0.461837,-0.921110,0.035893,0.387644
0.389379,0.284958,0.877930,-0.261204,0.527886,-0.808151
-0.089569,0.694608,0.615486,0.882703,0.360607,-0.301326
0.599603,-0.124488,0.089825,0.752932,-0.012263,-0.657984
-0.027951,0.337405,0.826615,-0.276089,-0.232327,0.932630
0.717400,-0.073263,0.338784,0.515413,-0.639075,-0.570904
0.049317,0.290633,0.242293,-0.002633,0.915862,0.401484
-0.005669,0.385755,0.614699,0.146866,-0.170070,-0.974426
-0.674516,0.422042,0.135450,-0.217483,-0.072469,0.973370
-0.348116,-0.262056,-0.012425,0.885784,0.071157,0.458610
0.409705,-0.040283,0.771873,0.939245,0.343099,-0.010130
0.060931,-0.038654,-0.969012,0.037953,0.105591,0.993685
-0.572124,0.634679,0.407503,-0.082291,-0.005290,-0.996594
-0.292182,0.163117,0.283101,0.476952,-0.859523,-0.183677
-0.183403,-0.014581,0.857182,0.045196,0.650245,0.758379
-0.606265,0.485050,0.791919,-0.648886,-0.700345,-0.297428
-0.450416,0.011298,0.935903,-0.259542,-0.011174,0.965667
0.380423,0.336565,0.911643,-0.174004,0.538963,-0.824161
0.063163,0.071456,0.704994,-0.739303,-0.047967,0.671662
-0.640100,0.385984,0.868167,0.033393,0.818448,0.573610
-0.192634,0.112451,-0.164626,-0.819955,0.536013,-0.200908
0.072454,0.156882,0.860890,-0.638792,0.462863,-0.614575
-0.013280,0.185459,0.365979,-0.765923,0.599295,0.232825
-0.099503,0.546556,0.729732,0.268496,0.922336,0.277860
-0.531780,0.448838,0.542693,-0.074091,-0.995500,-0.059079
0.633377,-0.364048,0.326942,-0.389078,-0.176818,0.904076
0.048736,-0.480826,0.458339,0.923557,-0.167983,0.344710
0.379324,-0.296206,0.641726,0.933338,0.138682,0.331131
0.087339,0.217828,0.834426,-0.561983,-0.320220,-0.762650
0.294751,-0.025447,0.226813,-0.355113,-0.387586,0.850689
0.031161,-0.180497,0.145550,0.516617,0.574701,0.634686
0.064049,0.066163,0.269784,-0.431397,-0.854212,-0.290206
-0.502437,0.608214,0.391109,-0.067425,-0.932126,0.355803
0.727730,-0.099931,0.146997,0.346153,0.466688,-0.813868
0.532239,0.077283,0.784797,0.828515,0.087632,0.553067
0.098709,-0.300914,0.342899,-0.415918,-0.536125,0.734562
0.417346,0.329796,0.344796,0.970882,0.175690,0.162854
