-0.314332,-0.372496,0.456542,0.058800,0.090630,0.994147
0.211371,0.423874,0.742277,0.551392,-0.300368,0.778297
-0.173708,0.139223,0.543938,0.237113,-0.534762,-0.811053
0.121961,-0.698482,-0.232589,-0.462802,-0.125049,0.877597
0.197193,0.014832,0.267651,-0.608440,-0.601619,0.517547
-0.252267,-0.869947,-0.123252,-0.080451,-0.982550,0.167702
-0.239004,0.650943,0.682100,-0.234281,0.589247,-0.773240
0.241561,0.492468,0.795996,0.586349,0.177238,-0.790431
-0.029128,0.031738,0.829083,-0.390625,0.565452,0.726413
-0.070747,0.387541,0.977837,-0.485024,0.872421,-0.060282
0.069782,-0.630237,0.329489,-0.697755,0.157122,-0.698892
-0.182581,0.038407,0.797029,0.400575,-0.014382,-0.916151
-0.038291,-0.047403,0.230947,-0.348776,0.675025,0.650152
-0.310860,0.072452,0.736335,0.843637,-0.187943,-0.502944
-0.686198,-0.287345,0.587581,-0.573737,0.752543,-0.323273
-0.302662,0.339654,0.472966,-0.794237,0.453910,-0.403922
-0.484616,-0.276992,0.551412,-0.309092,0.302471,0.901650
-0.185571,-0.283119,0.659291,0.780302,0.624010,-0.041725
-0.074701,0.164040,0.585440,-0.513612,0.857999,0.006371
0.200713,-0.435739,0.358885,0.094989,0.609045,0.787427
-0.011092,0.361911,0.937221,0.198406,-0.972323,-0.123381
-0.148004,0.381144,0.828252,0.868093,0.280726,-0.409399
-0.300347,0.173229,-0.995239,-0.176064,-0.012324,0.984302
-0.290027,0.391031,0.855822,0.496340,-0.342041,0.797906
-0.247444,-0.006379,-0.627035,0.101829,-0.238039,0.965903
-0.168258,0.071056,-0.042480,0.489758,-0.845205,0.213931
-0.073495,0.303476,0.680882,-0.234981,-0.964082,-0.123810
-0.149836,-0.112856,-0.942037,0.213804,-0.831380,0.512927
-0.404852,-0.219217,-0.969367,-0.196647,0.046579,0.979367
-0.008584,-0.399406,0.426499,0.302920,0.512472,-0.803500
-0.547068,0.033483,0.857926,0.024874,0.156819,-0.987314
-0.056037,-0.240427,0.805776,-0.229351,0.062833,0.971314
-0.528598,0.101728,0.805573,0.982800,0.100116,-0.155178
-0.355131,0.342096,0.505647,-0.733405,0.467126,-0.493872
-0.406829,-0.145621,-0.975272,0.232948,-0.176769,-0.956289
0.016059,-0.186917,0.285772,-0.304437,0.581274,0.754612
-0.264612,-0.153958,-0.962447,-0.280276,0.082505,0.956367
-0.046634,-0.200527,-0.956450,0.001731,0.096665,0.995315
-0.089940,0.297776,0.899096,0.302240,0.303666,0.903569
0.050733,-0.550127,0.382432,0.135350,0.257243,0.956821
-0.075424,0.069893,0.799631,0.299390,-0.757988,-0.579500
-0.495129,-0.005138,0.817605,0.332105,0.635045,-0.697441
-0.049528,0.635821,0.760454,0.834080,-0.336694,-0.436977
-0.497975,-0.139456,0.750139,-0.101188,-0.863092,0.494806
0.014950,0.444464,0.899151,0.284572,0.578921,0.764114
-0.435522,-0.762655,0.268020,0.123580,0.821453,-0.556725
-0.143856,0.644856,0.676527,0.972289,-0.020401,0.232892
-0.010705,0.641521,0.771416,-0.693694,0.342432,0.633663
-0.572242,-0.107350,0.622034,0.446953,-0.754646,-0.480357
-0.036169,-0.148801,0.814375,0.451322,0.218519,-0.865193
-0.740885,-0.382578,0.464329,0.166918,0.664506,0.728402
-0.144531,-0.006572,-0.534416,0.990966,0.017821,-0.132922
-0.313320,-0.776227,0.197324,0.352331,0.714950,-0.603912
-0.168499,0.260513,0.637036,-0.478330,0.671656,-0.565755
-0.295187,0.046666,0.102417,-0.232662,0.449378,-0.862512
-0.046103,0.138332,-0.978428,-0.200864,0.150154,0.968043
-0.744936,-0.155780,0.526259,0.331794,-0.524795,0.783903
-0.215808,-0.195370,-0.959956,-0.119250,-0.009486,0.992819
-0.123842,0.118944,-0.096069,0.986545,-0.138518,0.086846
-0.053482,0.084977,-0.975199,-0.123703,0.115781,0.985542
-0.645062,0.000911,0.632700,-0.714513,0.238614,-0.657674
-0.082996,-0.279978,-0.951744,-0.061175,0.067954,0.995811
0.006318,-0.704104,0.202860,0.288675,0.771137,0.567464
0.075955,0.410148,0.660768,0.625366,0.455942,-0.633272
-0.075183,0.348572,0.668629,0.780655,0.568841,0.258838
-0.742429,0.103783,0.687489,0.890757,0.141473,-0.431900
-0.056761,0.099207,-0.975881,-0.116431,0.084408,0.989606
-0.280334,0.236472,0.835911,0.052775,-0.055860,0.997043
0.105421,0.150197,-0.971231,-0.134015,-0.012224,0.990904
-0.179109,0.073189,-0.982414,-0.059616,-0.017173,0.998074
-0.120707,-0.379941,0.438457,0.386511,0.590955,0.708083
-0.007282,-0.333411,0.223122,0.169658,-0.290142,0.941825
-0.008824,0.276023,0.121683,-0.651686,0.756700,-0.052059
-0.353877,0.216231,0.288633,0.635573,-0.308830,0.707581
-0.835456,0.247833,0.708544,-0.438335,-0.061645,0.896695
-0.251736,-0.074585,0.143698,-0.306663,0.549993,0.776831
0.059945,0.197464,0.646429,0.435106,-0.496778,-0.750929
-0.375675,0.616278,0.692047,0.105580,0.672900,-0.732160
0.011815,0.048605,0.087470,0.962554,0.019459,-0.270389
-0.035735,-0.685104,0.433862,0.113853,0.593099,0.797039
-0.159191,0.539192,0.761838,-0.074196,-0.249526,-0.965521
0.214603,0.530468,0.817715,0.672624,0.557292,-0.486829
-0.445361,-0.023982,0.834767,-0.587737,-0.023335,-0.808716
0.045669,0.348068,0.263019,-0.658674,0.745357,-0.102918
0.425685,0.489482,0.772523,0.707825,0.265035,-0.654782
0.065539,-0.248027,0.534231,0.986557,-0.157279,-0.044371
-0.427517,-0.000058,0.137461,-0.716025,0.515500,-0.470710
-0.320747,0.323407,0.303525,-0.371590,0.603785,-0.705240
-0.107831,0.015336,-0.975697,0.186966,-0.157701,-0.969626
0.072675,-0.078384,-0.183890,0.791189,-0.601820,-0.108780
-0.072675,-0.007581,-0.967559,-0.193255,0.418096,0.887608
0.063465,0.364509,0.464477,0.125143,-0.821869,0.555761
0.216001,-0.106264,-0.124267,-0.240652,-0.930443,0.276338
-0.200087,0.059346,-0.539288,-0.335947,0.907156,0.253393
-0.272184,-0.880571,0.252777,-0.255095,0.185514,0.948953
-0.237268,0.204289,0.802823,0.020433,-0.719768,0.693913
-0.167535,0.147444,0.849843,0.821845,-0.551451,0.143079
-0.360774,-0.400841,0.454290,0.440201,-0.172617,0.881151
0.061728,0.182264,0.920170,0.596516,0.444727,-0.668122
-0.080488,-0.015723,0.791622,0.844297,0.523341,0.115223
-0.337770,-0.335660,-0.959827,-0.075078,0.255802,0.963810
0.367091,0.450862,0.673445,0.210085,-0.796446,0.567043
0.276476,-0.037787,0.178446,-0.063524,-0.540220,0.839123
-0.090422,0.322088,0.458018,0.847978,-0.166154,0.503316
0.059752,-0.099478,-0.092453,-0.120167,0.986662,-0.109807
0.040316,0.261250,0.650618,-0.164647,0.422362,0.891348
-0.348910,-0.586537,0.275715,-0.409801,-0.610187,0.678038
-0.053771,0.064503,0.781362,-0.369787,-0.120801,0.921230
-0.357735,-0.205490,0.290902,-0.621944,-0.103289,-0.776220
-0.764323,-0.273231,0.301476,0.299594,0.466465,0.832258
0.767217,-0.300723,0.110463,-0.187751,0.455407,-0.870261
0.014130,-0.358382,0.430688,0.921443,0.360823,-0.144048
-0.813802,0.018709,0.538217,0.511902,-0.238800,0.825185
-0.424383,0.681886,0.705868,-0.001245,-0.096675,0.995315
-0.223283,-0.284825,-0.959587,-0.085491,-0.040677,0.995508
0.193480,0.453382,0.775918,0.856201,-0.480676,-0.189392
-0.022954,0.252525,0.243421,0.958115,0.272818,0.087099
-0.760320,-0.349347,0.448644,-0.265697,0.501493,0.823353
-0.245081,0.167064,0.632940,0.293997,-0.652361,0.698564
0.120756,0.606351,0.816258,-0.263975,0.540223,-0.799047
-0.268325,-0.106380,0.247315,0.790197,-0.338591,0.510828
-0.032166,-0.456639,0.413859,0.685904,0.058931,-0.725302
-0.717882,-0.007193,0.677837,0.883941,0.086169,0.459591
-0.083236,0.191493,0.774534,-0.792232,-0.100679,-0.601858
0.249711,-0.114833,0.165769,0.075138,-0.406773,0.910434
0.489150,0.456950,0.813693,0.753823,0.194911,-0.627503
-0.157697,-0.108901,0.774110,-0.656291,0.615768,-0.436018
-0.120659,-0.045037,-0.524949,0.800797,0.098721,-0.590744
-0.262297,-0.903139,0.207252,0.955698,0.182685,0.230799
-0.721788,-0.065783,0.684776,-0.633892,-0.021028,-0.773136
-0.896943,-0.151050,0.307178,-0.750613,-0.345926,-0.562953
0.117477,-0.768859,-0.226112,-0.466740,-0.111655,0.877318
-0.072868,0.862657,0.442203,-0.177425,-0.971878,-0.154831
-0.466966,-0.088815,0.812124,0.057065,-0.994847,0.083808
-0.683449,-0.316311,0.443237,0.223256,0.344276,0.911938
-0.157648,-0.094205,-0.532220,0.764992,0.618889,0.178223
-0.368441,0.204211,0.285292,0.615836,-0.461682,0.638432
-0.043307,-0.252991,0.467780,0.994427,0.100835,-0.030767
-0.312403,-0.139611,0.153884,-0.340137,0.544740,0.766528
-0.197386,-0.489405,0.425983,-0.647871,-0.401383,-0.647421
-0.025511,-0.162023,0.610205,-0.317991,0.718984,-0.618016
-0.435909,0.364819,0.833217,-0.667527,-0.570922,-0.477971
-0.040268,0.052327,0.185108,0.944949,0.269898,-0.185004
-0.514419,-0.297195,0.524340,-0.498377,0.362645,-0.787470
-0.381607,-0.313674,0.183853,-0.367990,0.682387,0.631611
-0.022569,-0.335815,-0.949068,-0.145460,0.146406,0.978472
-0.011332,0.225188,0.611737,0.803849,-0.386473,-0.452178
-0.878086,-0.141550,0.535191,-0.005913,-0.666595,0.745397
-0.808401,-0.240660,0.301089,0.483913,0.853133,-0.194914
-0.279803,-0.009209,0.066950,-0.222827,0.556955,0.800093
-0.148630,0.708719,0.690700,0.781380,-0.100692,-0.615879
-0.110146,-0.098354,-0.960344,-0.054226,0.051142,0.997218
-0.120273,0.101185,-0.286806,0.952958,0.287518,-0.095938
-0.343991,0.101107,0.861008,0.890374,0.071804,-0.449531
-0.584925,0.082107,0.851393,0.404101,-0.330395,-0.852961
0.014179,0.349774,0.891419,0.959068,0.033614,-0.281174
-0.140046,0.024409,-0.503562,0.991947,0.048508,0.116993
-0.050877,-0.155276,-0.958978,0.182069,0.044850,0.982262
-0.192708,-0.099789,0.789814,0.340156,0.217178,-0.914947
0.130546,-0.732372,-0.225872,-0.466740,-0.111655,0.877318
-0.066600,-0.316582,-0.951024,0.134045,-0.178848,-0.974703
-0.184992,0.127785,0.078465,-0.580100,0.673597,-0.457986
0.125772,-0.399756,0.213822,0.380214,0.350498,-0.855914
-0.237268,-0.017468,-0.774922,0.789228,0.599379,-0.133657
-0.143856,0.627717,0.686695,0.695241,0.716551,-0.056515
-0.346113,-0.086954,-0.978317,-0.050348,0.280352,0.958576
0.359279,0.514415,0.716055,0.915843,-0.277301,-0.290406
-0.222946,-0.111072,-0.958479,0.505133,0.244985,-0.827540
-0.761092,-0.107427,0.673962,0.536231,0.292156,-0.791898
-0.092979,-0.235231,0.203635,0.918821,0.238272,0.314633
-0.359857,0.053103,0.841834,0.769919,0.416417,-0.483551
-0.014950,-0.200838,-0.959310,-0.075108,-0.141552,-0.987077
0.063127,0.018632,-0.977561,-0.139982,0.050426,0.988869
0.170428,0.364315,0.780126,-0.626387,0.612711,0.481897
0.258440,-0.349076,0.236630,0.129094,0.477199,-0.869262
-0.553530,-0.378429,0.546189,0.746730,-0.427895,-0.509216
-0.047357,-0.213556,0.810463,-0.274807,0.026273,0.961140
-0.141830,0.257062,0.234508,-0.409574,0.776567,-0.478741
-0.474682,0.166482,0.611903,0.344470,0.104876,0.932921
-0.271846,0.186956,0.820170,-0.914847,-0.006187,-0.403753
0.012780,0.772815,0.745913,0.464898,0.160062,-0.870776
0.001447,0.590531,0.803414,0.404439,-0.347034,-0.846166
-0.455344,0.102038,0.844418,-0.660524,0.173902,0.730388
0.066310,0.378623,0.940506,0.910273,-0.387242,-0.146447
-0.614390,-0.741329,0.267282,0.674962,-0.275584,0.684456
-0.007668,0.302895,0.445211,0.419718,-0.495052,-0.760763
0.528695,-0.571376,-0.014800,-0.147448,-0.008184,0.989036
-0.268422,0.114873,0.076693,0.418015,-0.820301,0.390346
-0.919994,0.142713,0.679480,-0.565628,0.084373,-0.820333
-0.322531,-0.187188,0.629858,-0.414825,-0.263207,0.871001
-0.137876,0.414995,0.911128,-0.655830,-0.675490,0.337046
-0.645978,-0.432017,0.453848,0.305222,-0.067396,0.949893
-0.218943,0.051707,-0.981584,-0.020142,0.072692,0.997151
-0.274499,-0.104946,0.266507,0.801636,-0.098432,0.589653
0.213108,0.296652,0.646835,0.750655,0.191924,-0.632204
-0.242766,0.165048,-0.991419,-0.179873,0.162023,0.970255
-0.037711,-0.228988,-0.956874,-0.054007,0.110033,0.992460
0.106916,0.240699,0.511626,0.225341,0.302639,-0.926084
-0.346644,-0.072568,0.844602,-0.283372,0.347803,-0.893719
-0.116367,0.390256,0.942000,0.246397,0.963813,-0.101748
0.024981,0.611819,0.431445,0.579979,-0.509894,0.635321
0.040316,-0.689176,0.178501,0.452632,0.813271,0.365671
-0.020641,0.706159,0.759531,0.851056,-0.294061,-0.435008
0.037520,-0.007736,0.244990,0.671893,-0.066946,-0.737617
-0.492091,-0.592082,0.277376,0.197142,-0.118076,0.973239
-0.515191,-0.059695,0.800332,0.912395,-0.370033,0.174960
-0.158179,-0.244770,0.639177,0.791485,0.055122,0.608698
0.799528,0.073887,-0.014302,0.217889,-0.123620,0.968113
0.321903,-0.463076,0.366747,0.787506,0.067779,-0.612568
-0.064814,-0.211888,0.196844,0.805719,-0.097863,0.584157
-0.896267,-0.100021,0.649843,0.328176,-0.144834,-0.933447
-0.652151,-0.638884,-0.124580,0.446296,0.330639,-0.831563
-0.165027,0.302972,0.905333,-0.266770,0.695743,0.666915
-0.029997,-0.377499,0.178428,-0.365701,0.444709,-0.817616
0.059945,0.332209,0.978760,0.915225,-0.077290,-0.395462
-0.365982,0.376335,0.795756,0.989646,0.045889,-0.135999
-0.102335,-0.482153,0.375992,-0.216435,0.306517,0.926932
-0.482060,0.168266,0.879129,0.035860,-0.996765,0.071924
0.133439,-0.769363,-0.230061,-0.466740,-0.111655,0.877318
0.415075,-0.609647,0.416922,0.903444,-0.023704,-0.428050
-0.019290,0.162760,0.832811,-0.659543,0.394891,0.639581
0.017843,-0.259078,0.818066,-0.289846,0.461420,0.838499
-0.584925,-0.022664,0.774479,0.283993,-0.933665,0.218214
0.395063,0.662072,0.490939,0.064932,0.103047,0.992555
-0.487606,0.053801,0.855564,0.229692,-0.026719,0.972897
-0.130835,-0.705810,0.164809,0.528633,-0.150785,0.835351
-0.259838,0.417360,0.552943,-0.338913,-0.747819,0.570881
-0.542486,-0.264700,0.321295,-0.250915,0.805746,-0.536483
0.086805,0.093081,-0.973335,-0.150201,0.125865,0.980611
-0.077112,-0.359235,0.217328,-0.758632,0.629706,-0.167173
0.465423,-0.760251,0.126592,-0.072067,0.593813,-0.801369
0.028164,0.042750,0.058682,0.505546,0.759683,0.409029
-0.520640,-0.093429,0.398062,0.675564,0.426854,-0.601173
0.062211,0.371682,0.765473,0.360487,-0.046102,-0.931624
0.004196,0.632021,0.422587,0.275853,-0.708364,0.649712
-0.235050,-0.888210,0.255970,0.937895,0.240596,0.249932
0.029755,0.190446,0.896844,0.881572,0.466696,-0.070896
-0.119068,-0.334652,-0.951873,0.037160,0.064202,0.997245
0.674142,-0.242948,-0.093633,-0.198744,-0.078539,0.976899
-0.491560,0.207972,0.796143,-0.115893,0.594475,0.795719
-0.058738,-0.539890,0.467762,0.351746,0.175938,-0.919413
-0.774257,-0.129607,0.530504,0.751022,-0.389274,0.533321
-0.344570,-0.151787,0.158904,-0.122470,0.423075,0.897780
-0.789207,-0.070203,0.722919,-0.164821,-0.737207,0.655256
-0.457369,-0.027666,0.199760,0.608330,0.395879,0.687905
0.020158,0.676380,0.785440,0.787263,-0.259898,-0.559169
-0.386670,0.095020,0.603691,-0.851514,0.096080,0.515454
-0.288725,-0.892282,-0.152353,-0.072991,-0.995967,0.052165
-0.481626,0.036236,0.588725,-0.647396,0.730214,-0.218326
-0.267747,0.105256,0.765455,0.831546,-0.222258,-0.509050
-0.141396,-0.222474,-0.956302,-0.040417,-0.008438,0.999147
-0.442564,-0.861300,0.192231,0.026486,-0.173123,0.984544
-0.218750,-0.032668,0.801052,-0.776218,0.094043,-0.623411
-0.709973,-0.119060,0.481233,-0.192346,0.238275,0.951960
0.007861,0.302623,0.575438,0.403024,-0.858915,0.315969
-0.431134,-0.029489,0.831962,-0.018602,0.026498,0.999476
-0.011139,-0.172454,-0.964422,-0.137395,0.017925,0.990354
0.552903,-0.672929,-0.023067,0.021365,0.365894,0.930411
-0.054783,0.654782,0.748699,0.766799,-0.328525,-0.551444
0.421538,-0.213750,0.162558,-0.138719,-0.320483,0.937042
-0.356819,-0.009868,0.653054,0.035935,0.076486,0.996423
-0.271026,0.452994,0.553220,0.305296,0.902811,-0.302865
-0.340326,-0.121658,-0.974147,0.002119,0.285967,0.958237
0.404948,0.476454,0.740210,0.222230,0.973625,0.051661
0.023149,0.353186,0.594021,0.534207,-0.824747,0.185510
-0.027103,0.271486,0.793966,-0.662784,0.748474,0.022445
-0.573833,-0.115299,0.746466,-0.558451,-0.692871,0.456138
-0.561873,0.084472,0.220557,-0.550188,0.289135,-0.783386
0.067468,-0.829543,-0.262096,-0.333291,-0.308079,0.891069
-0.278694,0.058260,0.804780,-0.436765,0.441754,0.783639
-0.200665,-0.163807,0.677044,0.289821,-0.472791,-0.832150
-0.214988,0.089319,0.110039,-0.052747,0.871932,0.486777
-0.286024,0.674984,0.690404,0.512377,-0.023759,-0.858432
-0.416667,-0.079509,0.676878,-0.567988,-0.182018,-0.802657
0.354745,-0.114484,-0.080310,-0.072552,-0.979461,0.188128
-0.723331,0.232246,0.654088,0.771914,0.112121,0.625762
-0.606385,-0.142015,0.743052,0.520061,0.602306,-0.605610
-0.083960,0.147832,0.886972,-0.104993,0.826227,0.553466
-0.716194,-0.260203,0.523122,0.179948,0.517214,0.836725
0.104457,0.181140,-0.977708,-0.050422,0.307272,0.950285
-0.130257,0.264895,0.616128,-0.666599,0.712930,-0.217662
-0.652151,-0.115764,0.687673,0.148367,-0.988905,0.007325
-0.540605,-0.323523,0.531205,0.293561,0.092160,0.951487
-0.759356,0.004285,0.538586,-0.496607,0.114921,-0.860334
-0.261092,-0.286764,0.439085,-0.400850,-0.405009,-0.821758
-0.130546,-0.227088,-0.957520,-0.068388,0.032476,0.997130
-0.077595,0.085713,0.654863,0.858379,0.354790,0.370552
-0.372154,0.734504,0.702011,0.251350,-0.299422,0.920418
-0.363619,0.058338,0.770234,-0.498461,-0.079035,0.863302
-0.307051,0.105217,0.138549,-0.502001,0.808059,-0.308279
-0.518326,-0.339111,0.581011,-0.306260,0.343722,0.887727
-0.692371,-0.244654,0.516239,-0.054912,0.703586,0.708485
0.210359,-0.189631,0.582764,-0.264078,-0.510467,0.818344
0.033034,-0.371062,-0.481141,-0.287570,0.122158,0.949937
0.228058,-0.197658,0.129895,0.340026,0.419473,-0.841680
-0.120949,0.726129,0.406311,-0.059174,0.702938,0.708785
-0.295284,-0.688672,0.491917,-0.037513,0.165004,0.985579
-0.143904,0.025650,-0.575623,0.988358,0.039070,-0.147043
-0.438657,-0.227980,-0.970401,-0.189275,0.046114,0.980841
-0.049431,-0.065085,-0.580310,0.609932,0.792342,0.013313
-0.176408,0.030420,-0.983207,0.164760,-0.311859,-0.935734
-0.146412,0.276333,0.390256,0.412034,0.872306,0.263267
-0.308015,-0.383121,-0.958424,-0.116219,0.086734,0.989429
0.205248,0.532135,0.791585,0.843708,0.455819,-0.283524
-0.443528,-0.321391,-0.967061,-0.303100,0.111795,0.946378
-0.613137,-0.134454,0.700240,0.421218,0.851042,0.313533
-0.002749,0.152330,0.170640,0.754937,-0.211559,-0.620736
0.031346,0.111460,-0.975254,-0.073043,0.138604,0.987651
-0.105421,0.537525,0.421535,-0.691764,0.031306,-0.721445
0.405671,0.382850,0.680292,-0.218648,-0.330545,0.918114
-0.202595,-0.797515,0.172338,-0.637488,0.465400,-0.614013
0.047020,0.058493,-0.973667,-0.090209,0.202626,0.975092
-0.228587,-0.556874,0.456265,0.139417,0.667906,0.731071
0.208961,0.706547,0.755305,0.915551,0.394266,0.079499
0.008633,0.330696,0.875697,0.975293,-0.213012,-0.058567
-0.461130,0.025728,-0.065344,-0.218863,-0.163858,-0.961899
-0.251929,0.174354,0.632275,0.293997,-0.652361,0.698564
-0.025896,-0.133252,-0.511921,-0.562316,-0.102068,0.820599
-0.142313,0.318444,0.886990,0.248350,-0.919488,-0.304737
-0.229697,-0.263266,0.588005,0.816975,0.064134,0.573095
-0.419609,0.308285,0.507105,0.174523,-0.644817,0.744146
0.138985,0.601970,0.808175,0.468900,-0.516097,0.716782
-0.126206,0.112972,0.547906,0.795392,0.196885,0.573226
0.540558,-0.594021,0.145765,-0.085809,0.203267,-0.975356
-0.477479,-0.473080,0.433992,0.449554,0.860630,-0.239200
-0.233507,-0.010179,0.265455,0.797195,-0.433088,0.420612
-0.022715,-0.196572,-0.497158,-0.478226,0.133311,0.868060
-0.114825,-0.292891,-0.953202,-0.117150,-0.017955,0.992952
-0.207417,0.087923,0.454973,0.898134,0.321980,-0.299473
-0.153115,0.297738,0.886547,0.354565,-0.930265,-0.094293
-0.135079,0.156711,0.607603,-0.191083,0.953013,-0.235059
0.049672,-0.055856,-0.963979,0.073480,0.235164,0.969174
-0.149739,0.422401,0.938808,-0.671176,-0.741264,-0.007076
0.271267,0.490607,0.853460,0.965802,-0.253770,0.053167
0.406781,-0.132864,-0.095055,-0.245617,-0.800544,0.546628
-0.273293,0.077338,0.656800,-0.085005,0.405892,0.909959
-0.069974,-0.357335,-0.948478,0.250354,-0.126008,-0.959919
-0.080970,-0.136819,0.778133,0.957602,0.069391,-0.279612
0.108604,0.031311,-0.970456,-0.136936,0.067384,0.988285
-0.669705,0.020919,0.828603,-0.341155,-0.928060,0.149393
0.230661,0.548925,0.820723,0.756906,0.505494,-0.414209
-0.290317,-0.271680,0.826665,-0.685489,-0.496380,-0.532646
-0.043354,-0.063534,0.445396,-0.095100,-0.254481,0.962390
-0.440345,0.176332,0.852593,0.876215,0.074132,0.476185
-0.268181,-0.832180,0.211607,0.872476,0.485481,-0.055623
-0.267457,0.023905,-0.608784,0.001207,-0.798678,0.601757
-0.673948,-0.140968,0.667356,0.579840,-0.695113,0.424975
0.601033,-0.086062,-0.020078,0.333152,-0.180358,-0.925463
0.050443,-0.082417,-0.262908,-0.687180,0.288483,0.666754
-0.357735,-0.104597,-0.974848,-0.069620,0.281042,0.957167
-0.150704,0.123907,-0.979332,-0.021756,0.094850,0.995254
-0.265239,0.685182,0.699077,0.424839,0.388770,-0.817539
-0.004870,0.294287,0.564458,-0.286765,0.761406,-0.581400
0.317275,-0.767967,-0.041392,-0.292841,0.191541,0.936780
0.032215,-0.316582,0.560417,0.852575,-0.521842,0.028227
-0.453173,-0.270633,0.315778,-0.114617,-0.170817,-0.978614
-0.641156,-0.263149,0.619044,-0.076760,-0.303919,0.949601
-0.230662,-0.013862,-0.755822,0.844259,0.535908,0.005384
-0.644097,-0.142364,0.229544,0.719057,-0.648839,-0.248928
-0.941117,0.100797,0.685219,-0.662551,0.086613,-0.743992
-0.013166,-0.070746,-0.965141,0.100971,0.117202,0.987962
-0.135464,0.350356,0.857852,0.855008,-0.326732,-0.402749
-0.414014,0.152872,0.885957,0.677588,-0.415106,0.607092
0.044175,0.633649,0.791013,-0.610189,0.063191,0.789732
0.035301,-0.066132,-0.968998,-0.053449,0.200202,0.978296
-0.216146,0.133330,-0.982525,-0.145610,0.164431,0.975582
0.238426,0.145195,0.476232,0.306737,0.260419,0.915475
0.325135,0.402896,0.667153,-0.153194,-0.722906,0.673750
0.088253,-0.454041,0.560380,0.875737,0.255105,-0.409886
-0.233169,0.173036,0.632294,0.239286,-0.640692,0.729559
-0.205295,0.152989,-0.173833,-0.526025,0.801962,0.283115
0.036652,0.089862,-0.973556,0.068063,0.066490,0.995463
0.006560,-0.336474,0.448312,0.955766,0.179498,0.233007
-0.291425,-0.044999,-0.977893,-0.289354,0.072713,0.954457
-0.297020,0.050777,0.771028,-0.715973,0.260483,0.647712
0.186583,0.488668,0.775715,-0.647226,0.642242,0.410639
-0.230324,0.264933,0.856191,-0.122123,-0.721240,0.681835
0.647859,-0.579907,0.156616,0.267751,0.383054,-0.884069
-0.150559,-0.007697,0.531334,-0.680795,0.249793,0.688564
0.009741,0.029993,0.086843,0.468673,0.817922,0.333691
-0.695505,-0.300141,0.552353,0.365300,-0.801298,-0.473790
0.729698,-0.020687,-0.019247,-0.041994,0.138336,0.989495
-0.132957,0.151360,0.102528,-0.075520,-0.974344,0.212014
-0.799962,-0.338413,0.454309,0.551574,-0.438014,-0.709866
-0.374517,0.188546,0.289481,0.642920,-0.445142,0.623299
-0.032407,-0.658000,0.179498,-0.162173,-0.162310,0.973322
-0.014660,0.767231,0.743477,0.571419,0.157233,-0.805455
0.150029,-0.073887,0.225780,-0.077096,-0.759290,0.646169
-0.086516,0.824347,0.698081,0.587963,0.504972,-0.631904
-0.174720,0.263499,0.631113,-0.617788,0.484796,-0.619121
-0.867187,0.245585,0.692674,0.297583,0.151072,-0.942667
-0.128906,0.118711,-0.983318,0.056278,0.058650,0.996691
0.403550,-0.509025,0.154087,-0.191814,0.082518,0.977956
-0.130160,0.633494,0.718989,-0.639346,0.500306,0.583892
0.120034,0.385409,0.465418,0.380977,-0.275741,0.882510
-0.182870,-0.894763,0.196826,0.165879,0.925448,0.340631
-0.234279,-0.215805,0.766009,-0.663443,-0.537506,-0.520510
-0.203318,0.670292,0.669053,0.632419,0.224600,0.741351
0.007475,-0.001454,-0.294649,-0.270725,0.742023,0.613278
-0.214651,-0.106225,-0.928843,-0.258639,0.900270,-0.350172
0.237558,0.520619,0.802842,-0.723319,-0.568389,0.392102
-0.096836,-0.053529,-0.601292,-0.497730,0.029520,0.866830
-0.085407,0.146978,-0.100406,-0.709363,0.686026,-0.161776
0.341869,0.112895,0.481417,0.262389,-0.162599,0.951164
-0.666956,0.020105,0.330633,0.287971,0.839932,0.459987
-0.132667,-0.383005,0.429858,0.461434,0.192016,0.866146
-0.076244,0.130964,0.662927,-0.569104,0.401254,0.717715
-0.119502,0.334342,0.279000,-0.103275,-0.759603,0.642135
-0.027006,0.291495,0.203949,-0.638031,0.769661,-0.023228
0.041329,0.509529,0.765123,0.052030,-0.584444,0.809764
0.396268,-0.114872,0.266470,0.188294,0.081479,-0.978727
-0.225309,-0.633184,0.249216,-0.541055,0.178279,-0.821874
0.327161,-0.634580,0.357095,0.293370,0.689886,-0.661810
-0.107831,0.562458,0.755010,-0.139305,0.763867,0.630160
-0.093750,0.467574,0.952132,-0.354676,-0.903411,-0.240943
0.219425,0.615270,0.843938,0.550577,0.623839,-0.554699
-0.059750,0.040889,0.806975,-0.209445,0.329694,0.920562
-0.281394,-0.340545,0.555490,0.400322,0.019867,-0.916159
-0.032310,0.269315,0.274774,0.844506,0.533039,0.051766
-0.047067,0.386301,0.720926,0.267800,-0.671030,-0.691377
-0.456645,0.116423,0.784204,-0.651081,0.040009,-0.757953
-0.370853,-0.069932,-0.984425,0.101937,-0.239379,-0.965560
-0.157407,0.154695,0.129821,-0.102431,0.986079,-0.130985
-0.507571,0.546947,0.695996,-0.495184,0.495077,-0.713927
-0.704379,-0.029372,0.760879,0.352780,-0.932194,-0.081000
-0.181520,-0.216580,0.212327,-0.091891,-0.995487,0.023696
-0.124518,0.137401,-0.102602,0.974971,-0.188266,0.118270
0.339892,0.516315,0.713268,0.915843,-0.277301,-0.290406
-0.028887,0.467496,0.709190,-0.182493,-0.026605,-0.982847
-0.276910,-0.417049,0.440321,0.112388,-0.636728,0.762854
-0.321663,-0.358576,0.455656,-0.080944,0.267264,0.960218
-0.053482,0.267027,0.305388,0.863619,-0.462929,0.199647
0.042534,-0.204948,0.294851,0.000503,0.557967,0.829863
-0.733266,0.117858,0.716295,0.825772,0.144799,-0.545099
-0.321036,-0.319258,-0.963905,-0.030253,-0.026335,0.999195
-0.078318,0.145195,0.842997,-0.011347,-0.948723,0.315906
-0.402392,0.054383,0.771249,0.508713,0.529960,0.678493
-0.045380,0.055585,-0.972874,-0.163632,0.164336,0.972737
-0.107543,0.245701,0.571120,0.992536,-0.115583,0.038907
-0.529803,-0.364121,0.528880,0.737825,0.272159,0.617692
-0.152102,-0.040850,-0.531869,-0.511434,-0.128941,0.849594
0.069010,-0.136625,-0.147610,-0.160932,0.986338,0.035193
-0.389950,-0.292348,-0.961395,-0.142510,0.214928,0.966176
-0.409047,0.051668,0.804650,-0.054150,0.957346,0.283826
-0.028404,0.627833,0.775401,-0.742110,0.371730,0.557753
-0.328656,0.140775,0.232515,-0.295151,0.860778,-0.414664
0.112654,0.385021,0.817752,-0.339742,-0.620290,0.706977
-0.108700,0.260784,0.902362,0.878290,-0.401826,0.259118
-0.570071,-0.008317,0.857871,0.321940,0.325972,-0.888874
0.471934,-0.470405,-0.030190,-0.104177,0.161600,0.981342
-0.466773,-0.154229,0.277671,0.271803,-0.933710,-0.233042
-0.334828,0.032746,0.098395,0.507270,-0.742501,0.437459
-0.219811,-0.124993,0.592083,0.344759,-0.642581,0.684274
-0.318962,0.249152,0.834877,0.546743,-0.112737,-0.829676
-0.003762,-0.066674,0.771360,-0.573339,0.798831,0.182076
-0.418403,-0.792629,0.189463,0.437127,-0.254886,0.862527
-0.279755,0.275946,0.841668,-0.553378,-0.831131,-0.054730
-0.274499,-0.359235,0.467835,-0.276251,0.034580,-0.960463
-0.421730,-0.111305,0.674737,-0.445243,-0.036737,-0.894656
-0.018036,0.347293,0.937479,0.178134,0.977385,0.113958
0.263310,-0.482696,0.219007,0.432530,-0.202246,0.878643
-0.177469,-0.804533,0.154955,0.893485,-0.431362,0.124943
-0.611063,0.033134,0.846928,0.933513,-0.312109,0.176470
-0.550878,-0.727564,0.239159,0.481368,-0.656834,0.580392
-0.037326,-0.089281,0.826020,-0.538720,-0.097687,0.836802
0.399306,0.580566,0.685514,0.455152,0.050249,-0.888995
-0.213638,0.020221,-0.982340,-0.119743,0.201093,0.972226
-0.174093,0.427209,0.893154,0.886919,0.305180,-0.346756
-0.493827,0.017042,0.839786,0.667852,0.556027,-0.494780
0.081550,0.072723,-0.970696,-0.116528,0.231116,0.965923
-0.218461,-0.332441,0.582543,0.651407,-0.133145,-0.746954
-0.421392,0.263227,0.851818,-0.406667,-0.057889,-0.911741
-0.441744,0.339731,0.850342,-0.031295,0.735232,0.677093
-0.059703,0.558658,0.429950,0.879494,0.104279,0.464345
-0.464988,0.311774,0.862447,0.024976,0.177937,0.983725
-0.283227,-0.294713,-0.959605,-0.043375,-0.039425,0.998281
-0.100646,-0.040927,0.129599,0.959710,-0.043948,0.277535
-0.154224,0.017236,-0.976324,-0.070341,0.357859,0.931123
-0.649257,0.059346,0.857280,0.745129,-0.637543,-0.195760
0.765384,-0.531011,-0.015686,-0.021835,0.477595,0.878309
-0.837095,-0.052366,0.552076,0.603231,0.150981,0.783146
-0.302324,0.073072,-0.985237,-0.129879,0.249262,0.959688
-0.636574,-0.043564,0.735782,0.834550,0.394788,-0.384277
-0.259404,-0.807751,0.479498,0.632362,-0.168342,0.756161
-0.017409,-0.025960,-0.276158,-0.340739,0.747038,0.570816
0.024981,-0.311774,0.559882,0.852575,-0.521842,0.028227
0.053434,0.070862,-0.975217,0.067629,-0.222405,-0.972606
0.271992,0.550127,0.857391,0.973622,0.128870,-0.188289
-0.577305,0.080827,0.219672,0.501471,-0.298397,0.812088
-0.354359,-0.353884,-0.966488,-0.220103,0.060299,0.973611
0.154080,-0.453537,0.391677,-0.754063,0.117559,-0.646195
-0.340229,-0.029876,0.789094,0.404696,0.839923,0.361593
0.114245,-0.284515,0.580716,0.377197,-0.654084,-0.655665
0.448689,-0.388278,0.184997,-0.432095,0.027311,0.901414
-0.062065,-0.171368,0.207787,-0.078517,0.179134,0.980687
-0.361690,0.362880,0.824691,-0.354145,0.688127,0.633295
-0.459684,-0.251595,0.554641,0.634856,0.244898,-0.732791
-0.113330,0.187693,0.639066,-0.448223,-0.893901,-0.006097
-0.674383,0.230423,0.654032,0.908381,-0.226348,0.351582
-0.383102,-0.755288,0.206606,-0.098242,-0.837189,0.538017
-0.049962,0.079083,0.805185,0.785927,-0.359153,-0.503316
-0.199894,-0.023052,-0.668481,0.497865,-0.857026,0.132801
-0.130401,0.018826,0.109264,-0.455499,0.381617,0.804294
0.101562,0.412823,0.467411,0.312923,-0.269780,0.910658
-0.024257,-0.039376,0.484610,-0.696579,0.649662,0.304496
-0.087095,-0.483394,0.048625,0.945392,-0.260580,0.195786
0.145303,0.579131,0.791843,-0.062961,-0.885279,0.460778
-0.625772,-0.121813,0.167319,0.764311,-0.622412,0.168616
-0.407889,-0.518098,0.330651,0.489785,0.592890,-0.639212
-0.263358,0.391497,0.847112,-0.485634,0.497176,-0.719010
-0.110339,0.153338,0.471895,0.864419,-0.244556,0.439287
-0.134500,0.296497,0.378022,-0.386170,-0.921106,-0.049356
0.002074,0.275442,0.206939,-0.631669,0.774693,-0.029077
-0.408661,-0.265011,-0.966599,-0.206542,0.201139,0.957540
-0.131511,0.176642,0.806090,-0.623004,0.748762,-0.226321
-0.327787,-0.035421,0.843790,0.992771,-0.118808,0.017031
-0.312838,0.037670,0.837830,0.924193,0.071000,-0.375267
0.329910,0.528141,0.670493,-0.439909,-0.150970,0.885262
0.688416,0.034956,-0.015778,-0.228937,-0.169567,0.958559
-0.582079,-0.652107,0.273408,0.275197,-0.241469,0.930569
-0.039255,0.059928,0.819561,0.738555,-0.350436,-0.575962
-0.056954,0.745362,0.717937,0.520488,-0.576184,-0.630162
-0.120273,0.301886,0.819745,0.861517,0.440594,0.252320
-0.171971,0.368270,0.785662,0.979748,0.177053,-0.093515
-0.274209,-0.488513,0.443846,0.045207,0.223146,0.973736
-0.900125,0.227089,0.682192,0.414104,-0.013292,-0.910132
-0.434895,0.042091,0.830707,0.399649,-0.658488,0.637709
-0.133584,-0.184552,0.011349,0.890080,0.153213,-0.429282
-0.077161,0.186026,-0.065879,0.954379,-0.296091,0.038604
-0.379678,0.330231,0.525337,-0.085689,0.988059,0.128050
-0.198640,0.109483,0.806237,-0.709164,0.372154,-0.598822
-0.333960,-0.066829,-0.981362,0.144167,-0.147361,-0.978520
-0.256752,0.146086,0.633752,-0.439923,0.371747,-0.817479
-0.363763,-0.604723,0.294372,-0.204945,-0.782515,0.587935
-0.163869,-0.147056,0.167208,-0.651804,0.219338,0.725976
-0.343895,0.119021,0.856837,0.002214,0.506470,0.862255
-0.662713,0.252409,0.700517,0.443384,-0.313330,-0.839782
-0.260224,0.158921,0.627238,0.561858,-0.486204,0.669269
-0.604601,0.057950,0.850323,-0.231626,0.970091,0.072609
-0.568239,0.043060,0.861118,-0.240983,-0.475411,-0.846116
-0.031829,-0.121348,0.192932,0.179687,0.604954,0.775721
-0.111110,-0.222823,0.608710,0.983734,-0.095577,0.152092
0.024788,0.542372,0.790183,0.833322,0.535972,0.135310
-0.020351,0.597937,0.787138,0.797797,-0.293622,-0.526599
0.016879,-0.593555,0.411533,-0.102466,0.324491,0.940322
0.051650,-0.192695,0.540413,0.863635,0.197433,-0.463847
-0.002893,0.641870,0.789795,-0.695648,0.393652,0.600926
-0.045717,-0.464821,0.472061,-0.237963,0.272202,-0.932352
-0.677614,0.096571,0.650120,0.756996,0.480700,0.442588
-0.126543,-0.123131,0.816664,0.031889,0.643325,0.764929
-0.043402,0.291495,0.232423,-0.480733,0.715000,0.507612
-0.439911,-0.052056,0.777671,-0.106516,0.449269,0.887024
-0.360050,0.172570,0.874737,0.311088,-0.824374,0.472896
-0.661362,0.113244,0.618177,0.838185,0.419594,0.348407
-0.566020,-0.344656,0.540875,-0.207343,0.671178,0.711708
-0.469377,-0.740863,0.224783,-0.090200,-0.814527,0.573071
0.442950,-0.469823,0.410039,-0.608139,0.293818,0.737453
-0.287760,-0.171484,0.152242,-0.062806,0.328285,0.942488
-0.140914,0.263266,0.624119,-0.774674,0.378202,-0.506797
-0.280816,-0.259117,0.227625,0.274250,-0.834151,0.478517
-0.616078,0.186336,0.623178,0.206418,-0.340457,0.917322
-0.342062,0.637953,0.694132,0.152669,0.433749,0.888006
0.098332,-0.620349,0.354733,0.924562,-0.295525,0.240522
0.003472,-0.166444,-0.960196,0.099967,0.032087,-0.994473
-0.509645,0.206072,0.773482,-0.120972,0.374231,0.919411
0.069252,0.054189,-0.972043,0.124263,-0.109237,-0.986218
-0.445795,-0.658504,0.280550,0.002132,-0.277117,0.960834
-0.577691,-0.664243,0.279332,-0.074248,-0.372998,0.924857
-0.110049,-0.756568,0.198155,-0.186176,0.366388,-0.911646
-0.138599,0.258923,0.927182,-0.224612,-0.921744,-0.316130
0.062692,0.696000,0.797195,0.814781,-0.398271,-0.421322
-0.546200,-0.615270,0.269053,0.455221,-0.606228,-0.652121
-0.834153,-0.833498,0.187046,-0.056363,-0.296516,0.953363
0.015335,0.370054,0.401495,0.999189,0.039969,-0.004980
0.069735,-0.361911,0.600443,0.688737,0.720887,-0.077227
0.058786,-0.007852,-0.262964,-0.580430,0.200833,0.789156
-0.105565,0.115842,0.153534,-0.620774,0.351452,0.700800
0.221933,0.438725,0.700960,0.180394,0.868099,-0.462452
-0.503665,-0.021462,0.643864,-0.631569,-0.105473,0.768112
-0.074653,0.080750,0.422052,0.972078,-0.224500,-0.068298
-0.113137,0.395025,0.945433,0.221891,0.967183,-0.123781
-0.874662,-0.252525,0.260878,0.664815,0.392605,-0.635517
0.137298,0.300491,0.835505,-0.487037,0.150258,-0.860359
-0.161169,0.350511,0.769718,0.983386,0.170771,-0.061549
-0.299769,0.538145,0.649456,0.091859,-0.799634,0.593420
-0.028501,-0.471529,0.415852,-0.579925,-0.213164,0.786288
0.037471,0.602280,0.451080,0.888652,-0.270844,0.370055
0.041956,0.077609,0.828788,-0.636011,0.483277,0.601609
-0.408854,-0.117936,-0.977801,-0.132537,0.201112,0.970561
-0.811005,-0.166482,0.525632,-0.338316,0.776511,-0.531576
-0.516830,-0.362880,0.533161,0.797140,0.375060,0.473179
-0.955922,-0.094670,0.576749,0.851968,-0.036509,0.522319
-0.858700,-0.677078,-0.123436,0.067976,-0.281353,0.957194
0.184897,-0.089591,-0.186529,-0.672836,-0.719202,-0.173321
-0.069781,0.244228,0.485551,0.994840,-0.099668,0.018987
-0.223428,-0.388317,0.162539,0.948671,-0.068868,0.308675
-0.077642,0.250587,0.052371,-0.485623,-0.873479,0.034706
-0.088542,0.038717,0.810722,-0.390936,0.104376,0.914481
-0.273052,0.546482,0.641724,-0.054232,0.821313,-0.567895
-0.100020,0.122278,-0.988614,0.177598,-0.052211,-0.982717
-0.630112,-0.135772,0.633678,0.297437,0.638334,0.709972
-0.090857,-0.144342,-0.959624,-0.060733,0.072620,0.995509
0.296393,-0.396111,0.169662,-0.553064,-0.510734,-0.658233
-0.009211,0.001222,-0.966839,0.051874,0.156066,0.986384
-0.061053,0.269199,0.376878,0.319556,0.941255,0.109191
-0.116560,0.093468,-0.429397,0.628199,0.737010,-0.249363
0.057051,0.105954,-0.975199,0.037519,0.053517,0.997862
-0.161651,-0.056981,-0.001642,0.932279,0.075714,-0.353728
-0.114391,0.058570,0.843144,0.663472,-0.207961,0.718719
-0.489535,0.156478,0.790330,0.690819,0.189163,0.697844
-0.945264,-0.068768,0.636594,-0.738687,0.607725,-0.291567
-0.328366,0.712751,0.694741,0.311996,-0.377817,0.871730
0.817371,0.012273,-0.015132,0.078157,0.007438,0.996913
-0.358989,-0.646174,0.478225,0.149159,0.612871,0.775977
-0.033371,0.061285,0.144030,-0.405007,-0.870348,0.280113
-0.327402,0.544660,0.752224,0.388749,0.349078,0.852654
-0.193045,0.551756,0.760011,-0.348886,0.328174,0.877827
-0.458768,-0.032824,0.182561,-0.495579,-0.813257,-0.304983
-0.975357,-0.069001,0.576545,0.898207,0.051882,0.436501
-0.157407,0.643188,0.670640,0.535615,0.788649,0.301910
-0.913918,0.067528,0.679277,0.904760,0.036258,0.424376
0.713012,-0.566645,0.163370,0.357766,0.395611,-0.845870
-0.034288,-0.219178,-0.957095,-0.017831,0.140469,0.989924
-0.314284,0.039609,-0.982340,-0.126685,0.157094,0.979424
-0.441261,-0.862541,0.191419,0.026486,-0.173123,0.984544
-0.000771,-0.648500,0.418749,-0.089450,0.362114,0.927832
-0.389034,-0.166211,-0.060436,0.536215,-0.138917,-0.832571
-0.215712,0.274123,0.865492,0.047057,-0.806600,0.589222
0.552373,0.691231,0.486178,0.176616,-0.306535,0.935330
0.147135,0.459044,0.790884,0.561766,-0.825424,0.055625
-0.037567,0.283430,0.190220,-0.490408,0.848215,-0.200079
0.051938,0.289556,0.938088,0.981458,0.073158,-0.177168
-0.562789,0.037360,0.773704,-0.043518,-0.495058,0.867770
-0.450473,-0.482774,0.417642,0.449154,0.881218,-0.147364
-0.687452,-0.224762,0.513084,0.190714,0.350024,0.917121
-0.131221,0.109870,0.815317,0.332820,0.819275,-0.466925
0.080777,-0.711472,0.360251,0.886091,-0.346864,0.307453
-0.047020,-0.014366,0.469275,0.277860,-0.960095,0.031811
-0.423273,-0.275946,-0.963886,-0.278172,0.184989,0.942549
-0.240355,-0.412009,0.592545,0.885404,0.031014,-0.463787
-0.015384,-0.130305,-0.959901,-0.050035,-0.008894,0.998708
-0.029177,-0.047558,0.228732,-0.348776,0.675025,0.650152
0.703512,-0.579053,0.166304,0.305542,0.420444,-0.854325
-0.283662,-0.381066,0.555970,-0.540290,0.308535,0.782875
-0.173274,0.640900,0.686270,-0.263476,-0.957316,-0.118854
-0.104408,-0.260862,0.794630,0.721369,-0.361191,-0.590904
-0.316165,-0.734039,0.266691,0.048097,-0.753589,0.655584
-0.132909,0.420694,0.910408,0.708678,0.636276,-0.304842
-0.219329,-0.335078,0.181657,0.732419,-0.414850,-0.539872
-0.713349,0.205258,0.642997,0.901036,0.169118,0.399416
-0.504147,0.165435,0.835468,-0.419421,0.906873,-0.040835
-0.278357,0.204095,0.811884,0.905807,-0.235454,0.352242
-0.108941,0.361872,0.947038,-0.184622,-0.610591,0.770126
-0.742815,-0.081487,0.709983,0.396084,0.891044,-0.221715
0.180701,-0.040462,0.179867,-0.761416,0.180957,0.622495
0.436729,-0.209678,0.259697,-0.121997,-0.039170,0.991757
-0.371190,-0.059889,0.663849,0.713923,0.083346,0.695246
-0.267554,0.038950,-0.604761,-0.452732,0.888403,-0.075984
-0.125674,0.166405,0.531832,-0.172966,0.980495,-0.093335
-0.200376,0.289168,0.874165,-0.565082,0.731512,0.381539
-0.164400,-0.557649,0.439546,0.724249,-0.684488,-0.083302
-0.197386,-0.422090,0.163610,0.952105,0.266949,-0.149113
0.029321,-0.096182,0.618361,0.407891,-0.075073,0.909939
0.026813,-0.138797,0.616368,-0.306218,0.367951,-0.877976
-0.561390,-0.271448,0.554364,0.199728,0.329373,0.922834
-0.265770,-0.555362,0.205924,0.915970,-0.370845,-0.153208
-0.868538,0.034995,0.565049,0.535860,-0.321777,0.780585
-0.071807,0.396770,0.972615,-0.437105,0.889065,-0.136026
-0.125337,-0.243762,-0.958609,-0.160143,0.173332,0.971756
-0.318866,-0.123519,-0.057169,0.489222,-0.282350,-0.825191
-0.889854,0.076058,0.660823,0.305520,-0.816139,0.490484
-0.464120,-0.107001,0.840543,0.297258,0.685697,0.664423
-0.361401,0.198666,0.282395,0.631063,-0.425878,0.648373
-0.369647,-0.114446,0.253146,-0.629212,0.120456,-0.767843
-0.154032,-0.058299,-0.961026,0.121954,0.369213,0.921308
-0.017167,0.301150,0.870216,0.860261,-0.094580,0.501004
-0.180507,-0.311697,0.176029,0.465110,-0.398512,-0.790481
-0.115692,0.182342,-0.095590,-0.712744,0.689097,-0.130926
0.430942,-0.106962,0.266673,0.137103,0.107944,-0.984658
-0.655044,0.108707,0.657668,0.771159,0.253675,0.583920
-0.194782,-0.529305,0.434693,0.091494,0.583897,0.806656
0.003038,0.391303,0.374977,0.901136,0.428698,-0.064584
0.061680,0.131662,0.718601,-0.434378,0.224209,0.872380
-0.633054,-0.242986,0.682045,0.485214,0.726657,0.486350
-0.125674,0.149887,0.840616,0.648537,0.162587,-0.743617
-0.410590,-0.139301,0.283595,-0.443932,0.082049,0.892296
-0.056617,0.277729,0.343753,0.867777,-0.417834,0.269030
-0.015191,-0.141395,0.181473,0.087737,0.513180,0.853784
-0.064477,-0.349270,-0.257501,0.922983,-0.160074,-0.349970
-0.023871,-0.095911,0.245377,0.999760,-0.017801,-0.012772
-0.185426,0.146358,0.619856,0.012857,-0.992637,0.120445
-0.569686,0.027007,0.598395,0.772248,0.229458,0.592438
0.025849,-0.171407,-0.958535,-0.177380,0.076287,0.981181
0.080054,-0.576688,0.161081,-0.129254,-0.033338,0.991051
0.021268,0.355552,0.609024,0.456064,-0.730118,0.508854
-0.718461,-0.040036,0.665621,0.717067,0.260872,0.646344
-0.704089,0.060199,0.679756,0.567912,-0.796516,0.207455
-0.355662,0.157293,0.176915,-0.497268,0.846462,-0.190330
-0.088927,0.392698,0.940746,0.989607,-0.095483,-0.107518
0.082225,-0.058299,0.249456,0.255101,0.045850,0.965827
-0.171827,-0.058299,-0.893265,0.916706,-0.374181,0.140140
-0.106096,-0.201148,0.793098,0.636415,0.149032,-0.756812
-0.471933,0.161054,0.606569,0.521619,0.547414,0.654409
-0.300636,0.275946,0.844067,0.598787,0.632068,-0.491879
0.188947,-0.086760,0.246964,-0.592169,-0.790700,-0.155338
0.011622,-0.319762,0.557335,-0.601780,0.729061,-0.326085
0.109327,0.163381,-0.975051,-0.051630,0.163424,0.985204
-0.145014,0.739274,0.672246,-0.710264,-0.373606,0.596610
-0.623939,-0.012815,0.810814,0.679564,0.647183,0.345467
-0.008487,0.645941,0.440026,0.389820,-0.650016,0.652319
-0.034095,-0.376103,0.526795,-0.537308,0.628304,0.562613
0.645931,-0.214099,-0.088079,0.536890,0.584565,-0.608303
-0.440394,0.225770,0.869644,-0.189244,0.180467,0.965204
0.353347,0.540007,0.841761,-0.769383,0.292729,-0.567767
-0.013310,-0.110529,-0.961506,-0.035056,0.112476,0.993036
-0.167197,-0.016034,-0.562078,0.817438,-0.559345,-0.137579
0.248457,0.774598,0.494630,0.600220,0.380518,-0.703521
0.115306,-0.716861,-0.230227,-0.494164,-0.071999,0.866382
-0.048659,-0.138137,0.804337,0.983960,0.109994,-0.140440
-0.568142,-0.087187,0.783982,0.578939,0.254444,-0.774653
0.018712,-0.015026,-0.967688,-0.070246,-0.146236,-0.986753
0.187017,-0.620000,0.177487,0.592702,-0.232302,0.771194
-0.086853,0.611121,0.424469,-0.493979,0.404575,-0.769613
-0.144483,0.121852,-0.293892,0.924193,0.289635,-0.248956
0.673322,-0.783051,0.014837,-0.224943,0.766252,0.601880
0.625917,-0.285135,0.127090,0.073847,-0.522327,0.849542
-0.429254,-0.010256,0.833825,0.733854,0.130599,0.666635
-0.017602,-0.265360,-0.956339,-0.111591,0.171642,0.978819
-0.049189,0.312937,0.442905,-0.604478,0.372600,-0.704114
-0.267602,-0.277729,-0.958830,-0.009963,-0.017260,0.999801
-0.243731,0.273929,0.840450,0.455205,0.890213,0.017583
-0.414352,-0.383121,0.519930,0.345028,-0.881708,0.321786
-0.098476,-0.290603,0.640782,0.774146,0.218682,0.594034
-0.019145,-0.390605,0.180107,0.769184,-0.159341,-0.618843
-0.842110,-0.137478,0.537073,0.126798,-0.794300,0.594147
0.260175,0.553113,0.832774,-0.578257,-0.616575,0.534279
0.016879,0.285911,0.625964,-0.206412,0.796402,0.568452
-0.251206,0.383741,0.843754,-0.393247,0.575616,-0.716954
-0.209056,0.132670,0.155416,0.057231,-0.893083,0.446236
-0.356867,0.364199,0.731021,0.762598,0.291636,0.577402
-0.236593,0.060160,0.093689,-0.482737,0.875762,-0.002441
-0.379774,-0.160782,0.317734,-0.662163,0.737514,-0.132714
-0.743393,-0.207352,0.514671,-0.563978,-0.497562,-0.659061
-0.362461,-0.173152,0.295405,-0.735457,0.010277,-0.677493
-0.607205,-0.009480,0.799557,-0.420697,-0.895899,0.142754
-0.589699,-0.287423,0.322864,-0.546696,0.474280,-0.690059
-0.408372,0.297854,0.841631,0.136960,-0.344345,-0.928799
-0.378906,-0.218713,0.602325,-0.468705,-0.600960,0.647428
-0.126591,-0.383005,-0.951578,0.172330,-0.100720,-0.979876
-0.409530,-0.260823,-0.967835,0.208942,-0.112802,-0.971400
-0.193335,-0.430117,0.392305,0.062268,0.697878,0.713505
-0.116994,-0.431241,-0.260639,-0.528848,0.058822,0.846676
0.173756,0.423719,0.775014,0.854169,-0.077606,-0.514172
-0.190201,0.103085,0.083410,-0.476739,0.821176,0.313673
0.056037,-0.588359,0.398764,0.282154,0.522709,0.804465
-0.966580,0.027046,0.670862,0.927763,-0.272274,-0.255192
-0.277633,0.119991,0.553958,-0.559163,0.628966,-0.540128
-0.117958,0.531670,0.428492,-0.661768,0.074084,-0.746039
-0.169705,-0.377731,0.446042,0.139819,0.322600,0.936152
-0.053771,0.462649,0.421258,0.683361,0.609462,0.401962
0.018326,0.427480,0.917033,-0.086765,0.974686,0.206057
0.026091,-0.189864,0.291973,0.030468,0.596956,0.801695
-0.138696,-0.214137,0.791290,0.623786,-0.028812,-0.781064
0.397232,0.544156,0.776010,0.746787,0.081287,-0.660076
-0.078269,-0.234029,0.212124,0.961281,0.220534,0.165241
0.032022,0.365323,0.426463,0.775109,-0.631581,-0.017668
-0.368827,0.301538,0.836944,-0.035250,0.095086,0.994845
0.046779,0.178076,0.919303,0.779201,0.279408,-0.561050
-0.389082,0.393552,0.818841,0.601313,-0.739749,-0.301984
-0.356626,-0.399096,-0.960712,-0.215165,0.050627,0.975265
-0.212625,0.153803,-0.987802,0.165177,-0.255373,-0.952629
-0.134355,-0.163458,0.611884,-0.830296,-0.536038,-0.152555
-0.179687,0.128017,-0.191733,0.138970,0.959319,0.245752
-0.266686,-0.226817,-0.961414,0.068092,0.024635,0.997375
0.053097,-0.065511,-0.958701,0.088373,0.254099,0.963132
-0.049816,-0.447992,0.461930,-0.273352,0.623545,-0.732442
-0.726466,0.168693,0.694722,-0.193105,0.865032,-0.463065
-0.092496,-0.768820,0.171212,0.218160,-0.191838,0.956872
-0.348235,0.138836,0.848662,0.990147,0.133276,0.042978
-0.286555,0.145893,0.786916,-0.695367,0.632238,-0.341672
-0.137635,0.111809,-0.366581,0.993182,0.087788,0.076704
-0.252845,0.003354,-0.313047,-0.248082,0.588353,0.769607
-0.092833,0.728378,0.729212,-0.574595,0.280466,0.768882
-0.442274,-0.330464,-0.967706,-0.313244,0.087885,0.945598
-0.074219,-0.152213,-0.957169,-0.021840,0.027327,0.999388
-0.181520,-0.881192,0.252279,0.559317,0.118115,0.820496
-0.314236,0.331084,0.474294,-0.823690,0.325836,-0.464075
-0.296345,-0.890614,0.259328,-0.255095,0.185514,0.948953
-0.030044,-0.073654,0.242739,0.973142,-0.156773,-0.168570
-0.054205,-0.172299,-0.959033,0.130609,0.063920,0.989371
0.045332,0.156207,-0.976232,-0.089871,0.140325,0.986018
-0.029177,-0.218286,-0.957280,-0.046105,0.119471,0.991767
-0.321759,-0.088699,0.018970,0.767734,-0.591975,0.245254
-0.113330,0.113476,0.668038,-0.205032,0.425855,0.881255
-0.451293,-0.204793,0.310574,0.913220,-0.216125,0.345426
-0.291860,-0.836794,0.175715,-0.319665,-0.386112,0.865293
-0.178915,0.000911,-0.750342,0.921961,0.386981,0.015294
-0.212240,0.416041,0.884665,0.706189,0.647187,-0.287134
0.555555,-0.690688,-0.020225,0.093120,0.329241,0.939643
-0.869068,-0.011613,0.342499,-0.459225,0.886847,0.051128
0.053144,-0.622017,0.409098,0.089934,0.097106,0.991202
-0.212288,0.277032,0.427570,0.883620,0.258189,0.390582
0.832851,-0.362647,0.096272,0.217659,-0.280537,0.934839
-0.751206,-0.205374,0.522366,-0.583296,-0.319243,-0.746894
0.248794,-0.010915,0.222310,-0.920310,0.147916,-0.362146
0.339121,0.632990,0.489278,-0.079698,-0.061662,0.994910
-0.199460,-0.176603,-0.958922,-0.035369,0.004390,0.999365
-0.679157,-0.070125,0.673722,0.894328,0.445394,0.042459
-0.613185,0.281374,0.649382,-0.338574,-0.871372,0.355075
-0.199411,-0.484015,0.417586,-0.448524,-0.053295,0.892181
0.120612,0.811706,0.767688,0.293854,0.072182,-0.953121
-0.449990,0.412125,0.750065,-0.268674,0.958363,0.096721
-0.273630,-0.239536,0.786012,-0.691006,-0.444747,-0.569835
-0.668885,-0.556292,-0.122643,-0.393129,-0.453212,0.800031
-0.401379,-0.088427,-0.976749,-0.110653,0.254747,0.960656
-0.081838,0.056631,-0.977192,-0.123325,0.151680,0.980706
-0.007089,0.445472,0.410814,0.620700,0.174715,0.764334
0.166378,0.452607,0.795147,-0.312796,-0.326244,-0.892033
0.212770,0.785921,0.448570,-0.056654,0.961694,0.268206
0.004774,0.395723,0.751725,0.611041,-0.029574,-0.791047
0.041619,0.173191,0.893781,0.838485,0.460027,-0.292091
-0.006751,0.366409,0.950452,0.555667,0.544138,-0.628608
-0.761237,-0.361484,0.457981,0.028736,0.471821,0.881226
-0.712867,0.032164,0.837498,0.068830,-0.754029,0.653225
0.759983,-0.356482,-0.075992,0.030426,0.289114,0.956811
-0.756318,-0.284088,0.496568,-0.568858,0.807071,-0.158230
-0.268760,0.558037,0.675438,-0.238069,0.761497,-0.602864
-0.176263,0.394715,0.528437,-0.266220,-0.960044,0.086271
-0.071518,-0.248919,-0.956487,-0.058112,0.205121,0.977010
-0.063319,0.261676,0.352777,0.996136,0.044919,0.075473
-0.192371,-0.021346,-0.621536,0.392282,-0.043554,-0.918814
0.356337,-0.375598,0.372541,-0.223622,0.227375,0.947783
0.324460,-0.132243,0.258110,0.237586,0.051097,-0.970022
-0.475839,0.013785,0.836464,0.816942,0.416604,0.398806
0.197580,0.465170,0.790570,-0.608936,0.657153,0.444238
-0.056037,0.885341,0.744953,-0.732106,-0.534041,0.422872
-0.123264,0.147793,0.543274,-0.771160,0.583795,-0.253959
-0.108797,0.058260,-0.448441,0.783358,0.515939,-0.346635
0.088734,-0.011807,0.077154,0.348464,0.932242,0.097454
-0.094136,-0.081564,0.814689,-0.637348,-0.155033,0.754820
-0.069106,0.284089,0.332940,0.888679,-0.449936,0.088355
0.000771,-0.008395,-0.277856,-0.203379,0.787145,0.582271
0.271365,-0.627096,0.346577,-0.383986,-0.247977,0.889416
-0.145254,0.043487,0.800720,0.112805,0.025680,-0.993285
-0.051843,-0.064348,0.830061,0.904622,0.418292,0.081802
-0.107156,0.446829,0.741834,-0.613409,0.214434,-0.760097
