0.458628,0.031219,-0.047977,-0.269030,0.230311,-0.935190
0.500675,0.034248,-0.053835,-0.083032,0.134592,-0.987416
-0.674936,-0.116468,0.744143,0.074279,-0.185691,0.979797
-0.604313,-0.111613,0.736273,0.081364,-0.100816,0.991572
-0.558173,-0.082963,0.308593,-0.164588,-0.874173,0.456872
-0.452198,-0.083315,0.418756,-0.545439,-0.835507,0.066516
-0.402188,-0.067121,0.202068,-0.194667,-0.528373,0.826394
-0.405908,-0.108656,0.883911,0.419769,0.671624,-0.610503
-0.371896,-0.106753,0.887458,-0.145347,-0.753943,0.640660
-0.355153,-0.091126,0.646861,0.986082,-0.041662,-0.160957
-0.287433,-0.027984,-0.328544,-0.563740,0.340236,-0.752620
-0.339451,-0.105206,0.893246,-0.368625,-0.722760,0.584580
-0.308941,-0.079087,0.492175,0.764777,0.631107,0.129692
-0.274483,-0.077682,0.501464,-0.532279,0.836799,0.128246
-0.274406,-0.102392,0.912327,-0.755943,-0.279107,0.592157
-0.186219,-0.062193,0.334195,-0.475608,0.761984,-0.439518
-0.163521,-0.046498,0.098289,0.941861,0.331734,-0.053384
-0.108751,-0.034175,-0.048732,0.467172,0.804388,0.367029
-0.131299,-0.070503,0.526425,-0.186181,-0.227003,0.955932
-0.070796,-0.033543,-0.024114,0.103608,-0.990487,0.090558
-0.093194,-0.067474,0.515398,0.069399,0.947703,-0.311518
-0.033137,-0.032697,0.001510,-0.095892,0.995276,0.015167
-0.060154,-0.066631,0.533198,0.209907,-0.708266,0.674017
-0.020264,-0.044594,0.209824,-0.354095,0.598979,-0.718220
-0.020786,-0.062193,0.501053,-0.449581,0.793213,-0.410718
0.074991,-0.011790,-0.235609,-0.158809,0.873780,0.459661
0.022306,-0.071908,0.705180,-0.475366,-0.812154,0.338280
0.056613,-0.055435,0.466024,-0.568435,0.579150,-0.584351
0.166158,-0.002569,-0.297268,-0.149815,-0.707199,0.690960
0.055718,-0.070855,0.721447,0.536631,0.825831,-0.173293
0.243630,-0.000949,-0.247140,0.969487,0.222535,-0.102824
0.247946,-0.028473,0.211083,0.168098,0.046421,0.984677
0.314030,-0.014750,0.049945,-0.526876,0.399040,-0.750446
0.550835,0.089227,-0.364670,-0.029730,-0.621365,0.782957
-0.738118,-0.056565,0.220417,0.412743,0.910566,-0.022631
-0.633706,-0.080780,0.739796,-0.057371,0.254516,0.965365
-0.599398,-0.078524,0.737531,0.042441,0.396342,0.917121
-0.564051,-0.076415,0.736341,0.120552,0.510122,0.851612
-0.553631,-0.055297,0.389700,0.372431,-0.889676,-0.264143
-0.515008,-0.051353,0.364167,0.209402,-0.977496,0.025555
-0.412603,-0.053325,0.500458,0.911707,0.344987,0.223103
-0.401516,-0.076346,0.900087,0.157556,-0.887785,0.432451
-0.372346,-0.047692,0.444541,0.288999,0.956380,0.042626
-0.369366,-0.074864,0.908896,-0.097921,-0.656278,0.748138
-0.350021,-0.057548,0.634575,0.934817,-0.275125,0.224553
-0.308864,-0.051142,0.567608,-0.190316,0.953032,-0.235604
-0.268084,-0.045720,0.516107,-0.682504,0.494496,-0.538203
-0.228416,-0.041359,0.483573,0.224256,0.881273,-0.416014
-0.193586,-0.039808,0.491718,-0.281633,-0.927853,0.244484
-0.152806,-0.012705,0.075135,0.979648,-0.162472,0.117863
-0.173124,-0.046987,0.635604,0.427140,0.776525,-0.463206
-0.091259,0.004189,-0.147433,0.980091,0.141644,0.139135
-0.104286,-0.025449,0.339526,0.610000,-0.475539,-0.633847
-0.069979,-0.005173,0.031368,-0.159316,0.986149,-0.046132
-0.001137,0.014256,-0.225153,-0.136743,0.767407,0.626409
-0.016244,-0.013693,0.230690,-0.322292,0.230796,-0.918075
0.040388,0.016507,-0.222339,-0.041907,0.686001,0.726392
0.024091,-0.010454,0.218129,0.159555,0.060199,0.985352
0.085411,0.020731,-0.247552,0.380066,-0.876126,-0.296568
-0.005306,-0.041217,0.710168,0.574930,0.708439,-0.409352
0.026694,-0.040233,0.724833,0.529724,0.789460,-0.310074
0.100369,-0.005736,0.217100,0.137088,-0.011576,0.990491
0.099328,-0.020873,0.473117,0.637400,0.732909,0.237837
0.140108,-0.002569,0.204471,0.243276,0.064888,0.967784
0.218103,0.002501,0.195777,0.223975,-0.055406,0.973019
0.169656,0.082185,0.092088,0.168351,0.211425,0.962786
0.249435,0.086971,0.090052,-0.478049,-0.175961,-0.860527
0.267073,0.080707,0.216757,0.202563,0.094066,0.974741
0.330628,0.092888,0.072230,-0.675609,0.077007,-0.733227
0.434590,0.119638,-0.275785,0.603228,0.768578,0.213083
0.468375,0.107247,-0.032969,-0.520143,0.409598,-0.749453
0.561623,0.127733,-0.284227,0.769412,-0.451717,0.451615
-0.565913,-0.018901,0.340533,0.177239,0.962398,-0.205854
-0.493278,-0.017070,0.383957,-0.339764,0.937765,-0.071811
-0.454801,-0.013835,0.367645,-0.242644,0.959798,-0.141110
-0.436568,-0.032839,0.715704,-0.645128,0.736182,-0.204562
-0.364233,-0.026080,0.671845,0.870115,0.489863,-0.054171
-0.332751,-0.026153,0.706530,0.342908,0.917306,-0.202394
-0.314296,-0.037135,0.913906,-0.018494,-0.809434,0.586919
-0.255951,0.007639,0.203098,0.836521,0.115881,0.535541
-0.170221,0.044384,-0.340327,-0.505067,0.354008,-0.787138
-0.225441,-0.018338,0.681775,-0.137086,0.990505,-0.010326
-0.168731,0.019532,0.089229,0.897493,-0.317167,0.306451
-0.190984,-0.017002,0.693809,-0.192666,0.821514,0.536652
-0.118794,0.028194,-0.010273,0.991998,-0.030912,-0.122411
-0.158611,-0.016649,0.722316,-0.055060,0.869174,0.491432
-0.052191,0.046214,-0.249954,0.047105,0.998764,0.015847
-0.125344,-0.015029,0.729020,-0.012595,0.766993,0.641532
-0.090146,-0.012426,0.722179,0.206936,-0.965481,-0.158189
-0.054276,-0.010032,0.717649,-0.300683,-0.930596,0.208762
0.078566,0.057475,-0.306809,0.481283,0.873387,0.074580
0.110043,0.055576,-0.239315,-0.690229,0.723501,-0.011413
0.155811,0.059658,-0.264048,-0.539904,0.751714,0.378721
0.088163,0.012988,0.467901,0.900173,0.316056,-0.299662
0.208355,0.066700,-0.332983,-0.719283,0.560855,-0.409969
0.251965,0.070009,-0.341402,-0.100999,-0.952300,0.287965
0.222123,0.042906,0.091745,-0.351732,-0.786824,0.507143
0.295053,0.073175,-0.353917,-0.001034,0.195753,0.980653
0.336283,0.075852,-0.355221,-0.014930,0.038073,0.999163
0.441585,0.063040,-0.028096,-0.512625,0.277860,-0.812410
-0.447510,0.035021,0.758625,-0.151581,-0.984329,0.090104
-0.397273,0.090353,-0.170152,-0.282491,-0.954799,0.092503
-0.349053,0.100910,-0.305207,0.796884,0.347853,-0.493937
-0.382616,0.036921,0.794660,0.101953,-0.871358,0.479938
-0.306038,0.073106,0.232017,0.860097,0.412775,0.299750
-0.229829,0.078035,0.227304,-0.661541,0.745092,0.084856
-0.217851,0.062619,0.514025,0.940824,-0.309727,0.137545
-0.224919,0.037836,0.946394,0.956382,-0.281112,-0.079429
-0.132266,0.094718,0.034456,0.991733,-0.102948,0.076602
-0.060749,0.116115,-0.270889,0.931116,-0.360822,-0.053211
0.024536,0.122384,-0.291457,0.137481,0.768013,-0.625504
0.070676,0.127802,-0.336895,-0.703979,0.704572,0.089398
0.006154,0.079440,0.454837,0.660460,0.406604,0.631242
0.104833,0.126466,-0.275441,0.426701,0.638678,-0.640326
0.065243,0.091758,0.300609,0.626790,-0.737621,0.251097
0.134826,0.107741,0.090785,0.147739,0.162969,0.975507
0.186253,0.130195,-0.253981,-0.689469,0.623205,0.369118
0.174270,0.110555,0.081701,0.331327,0.427513,0.841103
0.224131,0.131604,-0.238972,0.617147,-0.674363,-0.405419
0.192058,0.104360,0.211449,0.219572,0.107509,0.969655
0.292673,0.118229,0.072870,0.453191,0.111289,0.884439
0.353620,0.141388,-0.274114,0.094265,0.995474,-0.012031
0.403258,0.146600,-0.313489,0.843771,0.529443,-0.087982
0.451038,0.151034,-0.343118,0.037316,-0.272615,0.961399
0.467335,0.133224,-0.009792,-0.770080,0.458819,-0.443240
-0.470726,0.022703,0.447218,0.547547,0.719410,0.427366
-0.450858,0.004963,0.770706,-0.076986,-0.996901,-0.016174
-0.414688,0.009607,0.730004,-0.082801,0.995520,-0.045655
-0.402633,0.022067,0.529239,-0.694438,-0.708671,0.124667
-0.343621,0.045157,0.192825,0.667788,0.680609,-0.301380
-0.305366,0.018759,0.683925,-0.347487,0.937685,-0.000284
-0.277831,0.040512,0.341471,0.427277,-0.319363,-0.845838
-0.260121,0.007145,0.930013,-0.204514,-0.569046,0.796467
-0.141569,0.088170,-0.334012,-0.134186,0.074791,0.988130
-0.141496,0.063392,0.088199,0.933744,-0.313309,0.173090
-0.067521,0.087466,-0.246271,0.986265,-0.010785,-0.164819
0.029374,0.099152,-0.348014,0.287246,-0.957086,0.038429
0.072538,0.101967,-0.350714,0.073154,-0.705231,0.705194
0.021188,0.058958,0.334973,-0.239834,0.846135,0.475957
0.112873,0.104291,-0.346504,0.157734,0.846034,-0.509261
0.154248,0.107037,-0.349158,0.180462,0.609592,-0.771901
0.181638,0.102388,-0.243365,-0.692485,0.718436,0.065691
-0.567548,0.052762,0.856845,0.947645,-0.066325,0.312362
-0.441778,0.087466,0.359591,-0.482880,-0.613320,0.625032
-0.406653,0.126534,-0.320651,-0.266741,0.463452,0.845022
-0.366018,0.128717,-0.316372,0.799331,0.546376,-0.250088
-0.361108,0.068599,0.794020,0.059609,-0.910447,0.409307
-0.328881,0.094856,0.346321,-0.339467,0.023582,0.940322
-0.254611,0.099505,0.344445,-0.260815,-0.090359,0.961151
-0.209143,0.107526,0.244761,-0.753086,0.649424,-0.105402
-0.241888,0.066417,0.967260,0.985462,0.035229,0.166205
-0.196789,0.093940,0.511188,-0.815885,0.547545,-0.185811
-0.118199,0.120833,0.100805,-0.745721,0.460446,-0.481549
-0.038796,0.144838,-0.253569,-0.698768,0.660430,-0.274872
-0.007464,0.108583,0.448888,0.717817,0.200858,0.666630
0.094341,0.156451,-0.318248,0.874611,-0.407565,-0.262577
0.018436,0.106542,0.518052,-0.670342,-0.574013,-0.470267
0.064499,0.127308,0.187243,0.117272,0.251662,0.960684
0.176278,0.161027,-0.311224,-0.397341,0.192020,0.897356
0.214978,0.162720,-0.297520,-0.621941,0.783044,0.005575
0.140258,0.118229,0.436099,0.619366,0.217699,0.754316
0.251738,0.162858,-0.261806,-0.102950,0.994515,-0.018466
0.305250,0.169758,-0.326942,0.229929,-0.855610,0.463749
0.279423,0.146668,0.067676,0.372232,0.458191,0.807158
0.347070,0.171941,-0.322229,-0.122527,0.983805,-0.130827
0.645945,0.191297,-0.348838,0.127572,0.072695,0.989162
-0.685650,0.043752,0.347419,0.430431,0.540495,-0.722907
-0.578041,0.044173,0.457125,0.158386,-0.002254,0.987375
-0.503920,0.050506,0.422875,-0.703665,-0.601878,-0.377623
0.056314,0.219809,-0.243479,-0.367823,0.346177,-0.863057
0.001316,0.179404,0.461243,0.837930,-0.067547,0.541582
0.149783,0.230086,-0.332799,0.671595,-0.079203,-0.736673
0.211926,0.213334,0.060973,0.427045,0.154727,0.890894
0.402513,0.245576,-0.336140,0.864456,-0.426675,0.265830
0.565642,0.254023,-0.313398,-0.597823,0.556998,-0.576507
0.601735,0.254654,-0.283335,0.876648,0.194863,0.439905
-0.658788,0.140546,-0.156196,-0.293095,-0.956024,0.010674
-0.594338,0.111965,0.444335,0.249015,0.313883,0.916226
-0.579308,0.146037,-0.168756,-0.224685,-0.964233,-0.140610
-0.480623,0.123299,0.363298,0.715715,0.682566,-0.147839
-0.394598,0.138363,0.181386,0.876652,0.416080,-0.241575
-0.326206,0.168070,-0.293768,0.806542,-0.590793,0.021312
-0.324048,0.139068,0.243136,0.863788,0.499675,-0.064768
-0.247321,0.169968,-0.241878,0.869590,0.296833,-0.394592
-0.258036,0.137022,0.353368,-0.231807,-0.121853,0.965100
-0.205941,0.148709,0.197424,0.818434,-0.273021,-0.505594
-0.172974,0.147300,0.258237,-0.780633,0.311510,-0.541824
-0.116491,0.181655,-0.312872,0.309244,-0.399193,0.863142
-0.161663,0.134208,0.515260,-0.785229,0.580181,-0.216344
-0.071837,0.185458,-0.333120,0.846799,0.483773,-0.221124
-0.078831,0.161943,0.092683,0.428811,-0.669784,0.606227
-0.040877,0.182497,-0.245470,0.946928,-0.272633,0.170290
-0.044451,0.162226,0.124096,0.147125,-0.847377,0.510203
-0.001586,0.184259,-0.236204,0.713325,-0.383777,0.586415
-0.002477,0.165887,0.103345,0.183472,-0.485025,0.855037
-0.012229,0.145822,0.463005,0.890750,0.098836,0.443616
0.027143,0.148993,0.450284,0.722301,0.007501,0.691538
0.137283,0.198266,-0.339183,-0.515015,0.381811,-0.767450
0.100818,0.166802,0.200947,0.115265,0.284082,0.951846
0.198530,0.180104,0.067105,-0.403177,-0.329037,-0.853922
0.498590,0.215233,-0.252471,0.758500,0.256307,0.599153
0.687692,0.232690,-0.365082,0.145713,0.177118,0.973343
-0.764835,0.219315,-0.154525,-0.399042,-0.187123,-0.897636
-0.686545,0.194115,0.389929,-0.584202,-0.452962,-0.673449
-0.650230,0.197213,0.371214,0.518690,0.458199,0.721813
-0.613761,0.200028,0.361032,0.470656,0.644812,0.602247
-0.576033,0.202279,0.359911,0.156037,0.140714,0.977677
-0.555643,0.243462,-0.367782,-0.038700,0.307584,0.950734
-0.515753,0.244166,-0.338451,-0.784106,-0.054719,0.618210
-0.455396,0.219878,0.173355,-0.132492,-0.446152,0.885096
-0.418781,0.219667,0.217512,0.639273,0.126758,-0.758461
-0.381648,0.221708,0.219205,-0.418240,0.021640,0.908079
-0.346891,0.221781,0.254324,0.961101,0.167291,-0.219769
-0.307301,0.255922,-0.324014,0.825241,0.356941,-0.437687
-0.310203,0.222696,0.278850,0.984554,0.086844,-0.152025
-0.190684,0.233326,0.214583,0.873485,-0.078308,-0.480511
-0.166873,0.248532,-0.035829,-0.037922,0.288557,0.956711
-0.165606,0.227693,0.345886,-0.257126,-0.113784,-0.959656
-0.098999,0.267398,-0.303812,0.988091,0.060117,0.141640
-0.105254,0.243251,0.127208,-0.328224,-0.146465,0.933176
-0.074589,0.241563,0.189027,-0.262214,0.946837,0.186395
-0.074367,0.224243,0.505491,0.808559,-0.483301,0.335638
-0.034926,0.228325,0.473529,0.849774,-0.181563,0.494894
0.006008,0.232480,0.444427,0.842365,-0.076392,0.533466
0.155366,0.284361,-0.339366,-0.888295,0.313131,-0.335978
0.437565,0.298088,-0.279834,0.840646,-0.434300,0.323571
-0.890678,0.157509,-0.134232,0.252489,0.022097,0.967347
-0.728815,0.168280,-0.154365,0.379575,0.114372,0.918064
-0.655585,0.141177,0.440011,0.742119,0.542379,-0.393807
-0.618376,0.143570,0.438615,0.339071,0.299458,0.891827
-0.579008,0.150118,0.357486,0.243741,0.773922,0.584496
-0.505333,0.154058,0.370687,0.711888,0.685219,-0.153914
-0.386186,0.169337,0.214263,0.855617,0.345434,-0.385479
-0.348086,0.171167,0.224032,0.860009,0.493025,0.131570
-0.317871,0.166944,0.337147,-0.380437,0.241026,0.892846
-0.269273,0.204251,-0.315732,0.389072,0.555641,0.734769
-0.235339,0.200874,-0.210968,0.924066,0.299500,0.237490
-0.245013,0.170463,0.353299,-0.172424,0.169324,0.970360
-0.186964,0.208827,-0.308181,0.029654,-0.853786,0.519779
-0.193514,0.181866,0.193511,0.884424,-0.269640,-0.380905
-0.147969,0.210026,-0.289009,0.578757,0.788854,-0.206759
-0.158166,0.182287,0.227167,0.766334,-0.288730,-0.573905
-0.152284,0.167296,0.516702,-0.754250,0.609500,-0.244164
-0.109047,0.190949,0.116661,0.205222,-0.729894,0.652027
-0.069606,0.212629,-0.248421,0.804080,0.115038,-0.583285
-0.115074,0.169616,0.516885,-0.741534,0.635621,-0.214740
-0.027931,0.196577,0.103757,-0.465113,0.721011,-0.513628
0.013894,0.217132,-0.239018,-0.505912,0.677207,-0.534270
-0.801450,0.265778,-0.142514,-0.399042,-0.187123,-0.897636
-0.648518,0.246065,0.365974,0.467879,0.274364,0.840127
-0.528926,0.264158,0.169763,-0.227362,-0.348689,0.909243
-0.499601,0.255290,0.360575,0.185522,0.106670,0.976833
-0.455173,0.267183,0.193992,0.456135,-0.694375,-0.556582
-0.417891,0.267888,0.222705,0.184545,-0.366451,0.911952
-0.380458,0.270423,0.218495,0.657559,-0.007500,-0.753366
-0.353591,0.296400,-0.211975,0.903978,0.105151,0.414447
-0.349199,0.266057,0.326622,0.761281,0.324781,0.561221
-0.269719,0.301818,-0.219616,-0.062712,0.862182,0.502702
-0.238314,0.271690,0.343392,-0.173409,0.437667,0.882257
-0.165306,0.297736,-0.038505,0.090176,0.208965,0.973756
-0.152061,0.283446,0.225543,0.382032,-0.031566,-0.923610
-0.066109,0.313857,-0.220189,0.902399,0.417662,0.105993
-0.072359,0.290062,0.192779,0.446243,-0.701725,0.555382
-0.012002,0.322867,-0.324860,-0.238990,0.017473,-0.970865
0.043886,0.297032,0.189599,0.479155,0.797221,0.367219
0.105206,0.325965,-0.258214,0.762181,0.045563,0.645759
0.094196,0.305126,0.100691,0.732146,-0.100998,0.673618
0.146436,0.328779,-0.262583,0.869624,-0.056466,0.490474
0.135198,0.308014,0.091539,0.698563,-0.069250,0.712190
0.198903,0.335679,-0.331518,0.746779,-0.407837,0.525347
0.176651,0.311885,0.067997,0.740477,-0.001642,0.672080
0.240501,0.338635,-0.338039,-0.603502,0.759911,-0.241497
0.216095,0.314068,0.069507,0.727072,-0.050042,0.684735
0.293640,0.345325,-0.402947,-0.702598,-0.709443,-0.055192
0.490033,0.352646,-0.324220,0.713764,0.697435,-0.064221
-0.744222,0.281615,0.379839,0.290255,0.354661,0.888801
-0.668908,0.287390,0.356388,0.221168,0.129845,0.966553
-0.555788,0.299214,0.268189,-0.277227,-0.959971,0.040006
-0.536143,0.335610,-0.351423,-0.613459,0.108144,0.782287
-0.515898,0.306256,0.184406,0.487844,0.498789,-0.716392
-0.496403,0.336311,-0.323693,0.010835,0.427170,0.904107
-0.477871,0.307098,0.207353,0.522596,0.801555,-0.290521
-0.403228,0.309071,0.253958,-0.327589,0.579127,0.746523
-0.371601,0.341523,-0.282832,0.909347,0.229295,-0.347147
-0.365796,0.311816,0.246202,0.470146,0.798747,0.375454
-0.333051,0.310265,0.305619,0.998237,-0.003607,-0.059251
-0.293756,0.313436,0.290359,0.990218,-0.059644,-0.126136
-0.253571,0.344689,-0.217923,0.620785,-0.321478,0.715037
-0.187709,0.338846,-0.045896,0.414818,0.250954,0.874613
-0.173791,0.324203,0.226755,0.222624,0.444517,0.867665
-0.119394,0.358627,-0.319850,-0.708649,-0.131392,-0.693219
-0.133679,0.327301,0.213897,0.234998,0.492797,0.837811
-0.083074,0.357360,-0.262011,-0.670679,0.133772,0.729585
-0.134946,0.307734,0.554315,0.899256,0.349275,0.263335
-0.087389,0.334485,0.133866,-0.406558,-0.031052,0.913097
-0.096319,0.311885,0.522582,0.938884,0.241505,0.245298
-0.048916,0.337226,0.126796,-0.223610,-0.007791,0.974648
-0.019519,0.318575,0.484717,0.894051,-0.064359,0.443318
0.069336,0.344831,0.114258,0.673144,0.057423,0.737279
0.116071,0.366653,-0.219639,-0.192686,0.443934,0.875097
0.174866,0.376862,-0.336346,0.910661,0.072347,0.406770
0.261490,0.382916,-0.355656,-0.477579,0.703935,-0.525732
0.232166,0.357222,0.066784,0.712839,-0.198589,0.672624
0.281285,0.376931,-0.227716,-0.215469,0.638906,0.738493
-0.397051,0.436628,-0.355793,-0.685448,-0.105393,0.720454
-0.399954,0.393052,0.380640,0.224982,0.066597,0.972084
-0.344438,0.413112,0.097831,0.208767,0.218238,-0.953304
-0.323081,0.432894,-0.214880,0.657220,0.721673,0.217370
-0.278649,0.438737,-0.271964,0.264828,0.388912,0.882391
-0.198873,0.415858,0.196921,0.769726,0.484616,0.415536
-0.158166,0.398190,0.537133,0.899256,0.349275,0.263335
-0.121328,0.420365,0.198797,-0.403542,-0.640345,-0.653538
-0.068189,0.452254,-0.288826,0.864095,-0.446169,-0.232965
0.002283,0.432262,0.118926,-0.514785,-0.088011,-0.852790
0.039943,0.434234,0.120825,0.171220,-0.003946,0.985225
0.095531,0.461758,-0.289032,0.135689,0.933070,0.333121
0.080651,0.437117,0.114373,0.049209,-0.160856,0.985750
0.136538,0.463589,-0.276906,0.244609,0.543442,0.803018
0.120463,0.439510,0.113435,-0.243361,0.272452,-0.930884
0.164296,0.443597,0.085843,0.529401,-0.527326,0.664577
0.204186,0.446622,0.075936,0.581849,-0.516094,0.628568
-0.684088,0.334554,0.363572,0.050089,-0.005191,0.998731
-0.609891,0.339056,0.361650,-0.027630,-0.047699,0.998480
-0.572013,0.341239,0.359202,0.051783,0.102179,-0.993417
-0.550951,0.384110,-0.351286,0.198328,0.856848,0.475896
-0.466488,0.390800,-0.381440,-0.143714,0.708945,0.690466
-0.383806,0.394598,-0.363183,-0.491694,0.267679,0.828604
-0.372123,0.368273,0.099959,0.494279,0.461752,-0.736528
-0.344361,0.395655,-0.340029,-0.771330,-0.000317,0.636435
-0.332606,0.370598,0.101995,0.683842,0.643016,-0.344806
-0.272103,0.361021,0.322618,0.031922,0.759162,0.650118
-0.226781,0.395376,-0.218106,-0.674518,-0.207087,-0.708619
-0.226408,0.369820,0.220371,-0.526557,-0.527740,-0.666504
-0.184511,0.375032,0.170999,0.921580,-0.341667,-0.184267
-0.137476,0.406216,-0.314016,0.924537,0.359896,-0.125326
-0.149236,0.374890,0.211174,-0.270235,-0.567370,-0.777859
-0.148341,0.355671,0.539810,0.899256,0.349275,0.263335
-0.111654,0.377141,0.208566,0.405016,0.555675,0.726076
-0.110014,0.358627,0.525213,0.899256,0.349275,0.263335
-0.024951,0.386504,0.136085,-0.243275,-0.463663,-0.851959
0.017168,0.390096,0.115929,-0.560938,-0.068303,-0.825035
0.004591,0.368200,0.478929,0.861743,-0.001904,0.507341
0.055346,0.392699,0.110804,0.401546,-0.028387,0.915399
0.093301,0.394882,0.110209,-0.052660,0.004728,0.998601
0.146881,0.419733,-0.261211,0.014888,0.546774,0.837148
0.231348,0.425504,-0.273726,0.080841,0.764476,0.639563
0.327275,0.434866,-0.338245,0.282772,-0.258150,0.923796
0.373270,0.438737,-0.357051,-0.264296,0.376831,-0.887776
0.469120,0.435781,-0.211426,0.518012,-0.727586,0.449758
-0.435751,0.485622,-0.389036,0.898039,-0.050813,-0.436972
-0.429646,0.447468,0.244829,-0.346611,-0.147993,0.926261
-0.354113,0.488156,-0.355267,0.607114,0.267546,-0.748219
-0.318016,0.486116,-0.284662,0.085576,0.679996,0.728205
-0.234148,0.490829,-0.279766,0.357046,0.551873,0.753627
-0.228416,0.466403,0.128100,-0.143617,-0.971615,-0.187987
-0.190911,0.494068,-0.291983,-0.725748,-0.668877,-0.160916
-0.190911,0.468302,0.131555,0.184688,-0.883990,-0.429479
-0.148786,0.497446,-0.308273,0.911232,-0.075687,-0.404879
-0.152584,0.470910,0.126636,0.188652,0.452604,-0.871527
-0.113361,0.473161,0.125949,0.629031,-0.022848,0.777045
0.099033,0.510683,-0.288231,0.235629,0.867209,0.438666
0.197263,0.492028,0.114304,-0.310464,0.711637,-0.630226
0.443593,0.534899,-0.354924,0.148189,-0.034195,0.988368
-0.621428,0.381507,0.354855,0.021696,0.264901,-0.964031
-0.585485,0.383337,0.361124,0.063889,0.249000,-0.966394
-0.542988,0.394109,0.220097,-0.061493,-0.821266,0.567223
-0.528253,0.577135,-0.341768,0.300089,0.549651,-0.779635
-0.362821,0.585019,-0.314427,-0.045388,-0.929073,0.367102
-0.352623,0.557001,0.132928,0.424505,0.124232,0.896862
-0.322854,0.586570,-0.303056,-0.034148,0.929002,0.368495
-0.279171,0.590441,-0.322939,-0.121639,0.299625,0.946271
-0.237051,0.592624,-0.316692,-0.504696,0.068303,0.860591
-0.081216,0.573547,0.120665,0.332318,-0.238306,-0.912565
-0.042439,0.575588,0.125767,-0.269529,0.348476,0.897729
0.018658,0.611065,-0.373250,0.744632,-0.651528,-0.145029
-0.004116,0.577276,0.132950,-0.156383,0.574329,0.803549
0.056241,0.610575,-0.333692,-0.118623,0.443472,0.888404
0.037781,0.580795,0.114762,0.849343,-0.225849,0.477084
-0.477721,0.521803,-0.355335,0.241443,0.903087,-0.355162
-0.382911,0.497377,0.136153,-0.126688,0.711063,-0.691621
-0.351656,0.529477,-0.362565,0.537451,0.480118,-0.693278
-0.343621,0.499843,0.134506,0.195141,-0.724060,0.661556
-0.304771,0.503010,0.120024,-0.228985,-0.898404,0.374747
-0.266816,0.505192,0.119521,-0.096527,-0.832095,0.546169
-0.233104,0.531943,-0.288277,0.271580,0.903356,0.331952
-0.232214,0.504136,0.171914,0.486644,0.873339,0.021372
-0.190239,0.509343,0.125355,0.465106,-0.161979,-0.870310
-0.109419,0.538487,-0.275922,0.182229,0.383431,-0.905413
-0.112694,0.513214,0.134941,-0.774120,0.537724,-0.334052
-0.071541,0.516664,0.119498,-0.408968,0.198551,0.890687
0.043813,0.523496,0.116386,0.605386,0.048313,0.794465
0.083254,0.526310,0.105519,0.124284,0.051958,0.990885
0.146436,0.556863,-0.334973,0.344852,0.243134,0.906622
0.276820,0.565237,-0.350668,0.158243,0.068142,0.985046
0.236931,0.534263,0.122220,0.094566,-0.340811,0.935364
-0.434411,0.705044,-0.339366,0.102469,0.007778,0.994706
-0.266966,0.713912,-0.324654,-0.141806,-0.042341,0.988988
-0.226631,0.716305,-0.323556,-0.290620,0.095436,0.952067
-0.184584,0.718346,-0.319918,0.034597,0.411989,0.910532
-0.146929,0.689696,0.113274,0.162292,-0.172457,0.971555
-0.109419,0.690753,0.128832,0.060383,-0.036423,0.997511
0.083926,0.702509,0.119292,-0.176808,0.097006,0.979453
0.154176,0.740946,-0.364395,0.753402,-0.261570,-0.603296
-0.385518,0.614725,0.125057,-0.299834,0.113060,-0.947268
-0.316531,0.649291,-0.327217,-0.098107,0.085417,0.991503
-0.230724,0.624298,0.117645,0.072274,-0.158811,0.984660
-0.114629,0.630636,0.122563,0.092450,-0.285479,0.953915
-0.037306,0.635143,0.120459,0.071716,0.009148,0.997383
0.022378,0.671182,-0.362336,0.757645,-0.627674,-0.178883
0.068891,0.676605,-0.404457,0.978773,-0.118335,-0.167332
0.039943,0.639787,0.118354,-0.205669,0.280782,0.937476
0.103498,0.674633,-0.344170,-0.355051,0.659241,0.662828
0.078716,0.641549,0.124051,-0.324658,0.230031,0.917433
0.118456,0.643869,0.124531,-0.077693,0.072488,0.994339
-0.359023,0.815281,-0.323602,0.030882,0.034996,0.998910
-0.276046,0.819716,-0.318088,0.106744,-0.129716,0.985789
-0.274706,0.784732,0.146518,0.146400,-0.170299,0.974456
-0.507341,0.755589,-0.321428,-0.103300,-0.252759,-0.961999
-0.384028,0.762485,-0.319713,0.002480,-0.102344,0.994746
-0.300974,0.767766,-0.323419,-0.005809,-0.050154,0.998725
0.037858,0.789798,-0.360483,0.828978,0.516409,-0.214751
-0.430168,0.867657,-0.341516,-0.016685,0.221142,0.975099
-0.263396,0.876104,-0.323716,0.006827,-0.073749,0.997254
-0.366464,0.925098,-0.324586,-0.285532,0.029157,0.957925
-0.293088,0.801906,-0.324746,-0.068166,0.009260,0.997631
-0.178629,0.817112,-0.334126,-0.319076,0.031264,-0.947213
-0.238986,1.000000,-0.323350,-0.219909,0.141328,-0.965229
-0.301573,0.893913,-0.332479,0.295674,-0.025582,-0.954946
-0.263469,0.901376,-0.313855,-0.005012,-0.037505,0.999284
-0.280288,0.836614,-0.325844,-0.424592,0.040110,0.904496
-0.559063,0.764388,-0.316715,0.106208,0.005148,0.994331
-0.517238,0.766850,-0.317173,-0.103300,-0.252759,-0.961999
-0.313106,0.778747,-0.317997,0.093054,0.006346,0.995641
-0.421538,0.626764,-0.299716,-0.083945,0.144050,0.986004
-0.253271,0.627680,-0.327697,0.494812,0.086569,-0.864677
-0.001137,0.792827,0.122449,-0.010318,0.057087,0.998316
-0.427116,0.693430,-0.326119,0.126988,0.156137,0.979538
-0.344956,0.698917,-0.324471,0.043983,-0.097163,0.994296
-0.217774,0.495478,-0.313444,0.762343,0.635381,-0.122981
-0.117459,0.657807,0.124508,0.160861,-0.039629,0.986181
0.243480,0.512514,-0.344971,0.069265,-0.032803,0.997059
0.455798,0.516527,-0.369681,-0.234528,-0.384387,0.892885
-0.362744,0.541516,-0.328864,-0.079523,-0.945125,0.316882
-0.322931,0.551299,-0.307495,0.093911,0.982208,0.162631
0.138400,0.566011,-0.345795,0.480787,0.411589,0.774234
-0.105104,0.363203,-0.330694,0.300558,0.002901,0.953759
0.316633,0.373691,-0.371923,-0.320515,0.881762,-0.346072
0.500525,0.423463,-0.269996,0.751536,-0.585146,0.304627
-0.009249,0.606420,0.116615,0.236621,0.169550,0.956694
-0.100934,0.403892,0.138350,0.709257,0.626107,0.323951
-0.001732,0.259230,-0.234465,0.448657,-0.134358,0.883547
0.058843,0.400089,0.104397,0.411330,-0.045908,0.910330
0.138623,0.228114,-0.333005,0.725649,-0.126233,-0.676387
0.375723,0.265847,-0.275991,0.891523,-0.316897,-0.323669
0.406978,0.283304,-0.237714,0.731513,-0.472167,0.491881
-0.487991,0.259862,-0.340418,-0.335511,0.119714,0.934399
-0.321441,0.272958,-0.333326,0.781061,0.309363,-0.542438
0.173453,0.304847,-0.329917,-0.772869,0.414344,-0.480617
0.169806,0.476117,0.107440,-0.263303,0.821427,-0.505894
0.208950,0.475555,0.100142,-0.375575,0.776732,-0.505599
0.443965,0.354614,-0.245310,0.820764,-0.513868,0.249574
-0.520291,0.353772,0.225337,0.489283,0.461326,-0.740122
-0.433888,0.132167,-0.320856,-0.116237,0.374330,0.919982
-0.391991,0.134702,-0.321062,0.404564,0.887526,0.220511
-0.352773,0.149483,-0.291205,-0.890033,-0.073533,0.449926
-0.210779,0.347435,0.163540,0.968572,-0.161025,-0.189579
0.105801,0.158282,-0.338839,0.944598,-0.288202,-0.157083
0.191981,0.160044,-0.347854,-0.078622,-0.481339,0.873002
0.148076,0.338777,0.088634,-0.648112,0.185984,-0.738485
0.308893,0.181582,-0.313467,-0.093425,0.981643,0.166280
0.526202,0.180598,-0.348083,-0.379922,0.586238,-0.715531
0.607767,0.185174,-0.349410,0.287896,-0.156618,0.944768
-0.650375,0.468586,0.382516,0.122806,-0.230798,0.965221
-0.480923,0.185810,-0.342500,-0.601612,-0.239509,0.762036
-0.277013,0.204745,-0.326965,-0.370695,-0.284774,0.884019
-0.547380,0.291051,0.364739,0.033227,-0.079172,0.996307
-0.494541,0.214035,0.181431,-0.556487,-0.700994,0.446016
-0.459193,0.231285,0.215796,0.420983,0.905186,0.058407
-0.421238,0.235367,0.219480,0.501843,-0.201480,-0.841165
-0.370334,0.013268,-0.293608,-0.522028,0.036376,-0.852152
-0.341313,0.061067,-0.189004,0.227083,-0.326611,0.917474
-0.301201,0.061136,-0.194518,-0.328944,0.329225,-0.885103
-0.259153,0.061351,-0.200169,-0.345440,0.147872,-0.926717
-0.177366,0.063181,-0.207285,0.372447,0.044624,0.926980
-0.152211,0.236209,0.183330,0.471395,-0.860751,-0.192078
-0.089847,0.054029,-0.240688,-0.709245,0.469809,-0.525596
-0.169549,0.392347,0.541205,0.899256,0.349275,0.263335
-0.045791,0.046635,-0.263933,-0.488159,0.867402,-0.096514
-0.031801,0.225231,0.140752,0.457495,-0.712489,0.532032
0.032798,0.257894,0.206301,0.370110,0.706543,0.603172
0.129616,0.029036,-0.328727,0.773638,0.438252,0.457624
0.153208,0.073033,-0.232108,-0.663710,0.730530,0.160668
0.393583,0.015098,-0.398691,0.334485,0.909102,-0.248302
0.425883,0.036994,-0.353162,0.179185,0.901674,0.393543
0.465695,0.044594,-0.341768,0.122729,0.912911,0.389270
0.593105,0.045720,-0.356983,-0.268828,-0.891484,0.364675
0.633590,0.051636,-0.349272,-0.072508,-0.646717,0.759276
0.682260,0.041990,-0.378283,-0.044355,-0.983903,0.173109
-0.773097,0.344200,0.369131,0.089226,-0.016947,0.995867
-0.673150,0.121185,-0.168459,0.278198,0.058313,0.958752
-0.634155,0.126182,-0.162281,-0.227568,-0.939688,-0.255342
-0.585853,0.331739,0.312689,-0.705231,0.606290,-0.367507
-0.463508,0.280137,0.173470,-0.167353,-0.273443,0.947218
-0.338856,0.088239,-0.295003,0.974311,-0.073816,0.212765
-0.368476,0.360247,0.347236,-0.832967,0.154295,-0.531374
-0.319061,0.319911,0.245584,0.812225,0.540954,-0.218312
-0.225514,0.136743,-0.197561,0.421553,0.154757,0.893501
-0.196266,0.291966,0.162098,0.527566,0.637602,0.561372
-0.165979,0.320194,0.223712,0.222624,0.444517,0.867665
-0.083001,0.082116,-0.346710,-0.707355,0.677678,0.200999
-0.044229,0.089579,-0.334836,0.904842,0.379624,-0.192736
-0.048171,0.316602,0.198316,-0.398135,-0.912135,0.097462
0.042251,0.090142,-0.346115,0.010712,-0.987895,0.154757
-0.004412,0.306467,0.168116,0.251222,0.935047,0.250151
0.040983,0.288795,0.119910,0.639044,-0.264223,0.722363
0.113096,0.121959,-0.282008,0.317339,0.582899,-0.748014
0.018063,0.425645,0.444083,0.914922,-0.010121,0.403504
0.164668,0.099505,-0.342409,0.152254,-0.971628,-0.180992
0.123588,0.280558,0.088474,0.710904,0.016031,0.703106
0.203368,0.109430,-0.324517,0.888510,-0.439975,0.130279
0.224726,0.151665,-0.228928,-0.586904,0.756568,0.288354
0.306586,0.159197,-0.223208,-0.333045,0.680453,-0.652736
0.356228,0.146385,-0.260204,-0.059767,0.993463,0.097255
0.502088,0.113017,-0.359705,0.162944,-0.098134,0.981743
-0.207281,0.146600,0.352499,0.190446,-0.089642,0.977596
-0.149754,-0.041007,-0.054361,0.202760,0.963551,0.174524
-0.111059,-0.038330,-0.053743,-0.484313,-0.814121,-0.320388
-0.088584,0.228961,0.512103,0.824328,-0.489138,0.285005
0.029596,-0.093451,-0.189599,0.875034,0.471795,0.108278
-0.047576,0.219315,0.485792,0.841033,-0.372188,0.392606
0.244371,-0.105838,-0.245058,0.336359,0.937042,-0.093888
0.191236,0.103728,0.207605,0.080201,0.157520,0.984254
0.280468,-0.090705,-0.217878,-0.095720,0.146774,0.984528
0.344318,-0.138715,-0.328452,-0.504555,-0.852721,0.135247
-0.854808,-0.103870,-0.302851,0.181879,0.031006,0.982832
-0.609523,0.209531,0.354581,0.236263,0.289106,0.927684
-0.477871,0.099994,0.094148,-0.642530,-0.657935,0.392782
-0.410968,0.148498,0.191773,0.927661,0.128465,-0.350631
-0.360659,-0.075499,-0.309371,0.454468,-0.741497,-0.493601
-0.376883,0.168843,0.231880,0.806019,0.587652,0.070703
-0.330448,-0.024323,-0.200833,-0.383955,0.222717,-0.896089
-0.343321,0.190034,0.274092,0.901135,0.293692,-0.318905
-0.313106,0.220866,0.337604,-0.196252,0.213635,0.956998
-0.241366,0.226636,0.340601,-0.156291,0.381022,0.911260
-0.187264,0.176938,0.223369,0.819387,-0.239740,-0.520702
-0.130404,-0.001586,-0.178525,-0.430604,0.769861,0.471057
-0.092376,0.005594,-0.167681,0.168229,-0.978464,-0.119612
0.041578,-0.012988,-0.227647,0.047765,-0.970870,-0.234799
0.080128,-0.007429,-0.220623,0.069548,0.663445,0.744986
-0.008431,0.305552,0.482589,0.908543,-0.141250,0.393190
0.222123,-0.047271,-0.328429,-0.430961,-0.874639,0.221987
0.235218,0.190523,0.194610,0.180899,0.160330,0.970345
0.303983,0.130900,0.053286,0.450333,0.116385,0.885242
0.733682,-0.034390,-0.371259,0.489870,0.709354,0.506799
-0.823775,-0.293934,-0.292967,-0.115443,0.293640,0.948920
-0.783140,-0.295627,-0.301981,-0.069579,0.101109,0.992439
-0.743028,-0.292529,-0.300677,0.103784,-0.199665,0.974353
-0.728743,0.014325,0.327789,-0.010270,-0.935400,0.353443
-0.491861,-0.287669,-0.323556,-0.515565,0.138041,-0.845658
-0.408438,-0.286475,-0.331427,-0.443433,0.056683,-0.894514
-0.435901,0.045582,0.353757,0.482554,0.026703,0.875459
-0.330221,-0.081622,0.078544,-0.166758,0.200025,0.965496
-0.304771,-0.023477,0.194724,0.903592,0.425667,0.048264
-0.272994,0.000318,0.239636,0.958617,0.051235,-0.280051
-0.154591,-0.289925,-0.372037,-0.069104,0.425697,-0.902223
-0.176249,-0.067826,0.086987,0.910356,0.398645,0.111061
-0.165011,0.141529,0.515604,-0.786251,0.584587,-0.200166
-0.077119,-0.131463,-0.056465,0.535050,0.258813,0.804200
-0.016321,-0.069094,0.063627,0.214560,0.960057,0.179595
-0.012079,0.124283,0.460351,0.907676,0.065273,0.414566
0.026621,0.121817,0.450307,0.656420,0.248107,0.712429
0.103571,0.114500,0.425231,0.585916,0.021237,0.810093
0.145096,0.016718,0.219182,0.423942,0.102314,0.899892
0.140186,0.118018,0.427588,0.628198,0.103922,0.771082
0.270343,-0.084157,-0.004599,0.643003,-0.759957,-0.094934
0.471500,-0.082327,-0.026814,0.109915,0.464941,0.878492
0.507670,-0.072260,-0.010707,0.720713,0.566234,0.399940
0.652567,-0.255290,-0.405464,0.517998,-0.838190,-0.170630
0.720732,-0.225721,-0.353734,0.259907,-0.712534,0.651723
-0.818047,-0.202141,-0.307244,0.037146,0.088897,0.995348
-0.503325,0.133576,0.364990,0.707147,0.656729,-0.262014
-0.444903,-0.179894,-0.309531,-0.349883,0.284005,-0.892705
-0.438354,-0.000881,0.070010,-0.146489,-0.198632,0.969065
-0.402338,0.009538,0.087215,-0.038680,-0.068235,0.996919
-0.375026,0.056633,0.183834,0.842949,0.534635,-0.060022
-0.305739,0.086198,0.237508,-0.654526,-0.536772,-0.532420
-0.243746,0.140967,0.345566,-0.204714,-0.120948,0.971321
-0.655068,-0.383900,-0.298344,0.149147,-0.016111,0.988684
-0.576850,-0.069867,0.315137,0.824148,0.397931,-0.403028
-0.544255,-0.035657,0.378993,0.092946,-0.993907,0.059238
-0.475341,-0.001796,0.437472,0.547547,0.719410,0.427366
-0.435973,-0.015171,0.406196,0.085918,0.996288,0.005295
-0.362226,-0.014398,0.398074,0.603336,0.779418,-0.168799
-0.322036,-0.030867,0.360026,-0.378676,-0.900143,0.215285
-0.232586,-0.400373,-0.384575,0.386036,-0.367461,0.846138
-0.271358,-0.079440,0.257436,-0.204569,0.938459,-0.278293
-0.225813,-0.104712,0.201382,0.822580,0.566173,0.053006
-0.230424,0.048749,0.506727,-0.844622,0.466698,-0.262311
-0.188603,-0.098095,0.209985,-0.641264,-0.730426,0.235069
-0.155037,-0.084509,0.232864,-0.028440,-0.979990,0.197006
-0.122369,-0.068389,0.260456,-0.354521,0.912976,-0.201964
-0.080544,-0.077540,0.237371,-0.398669,0.765152,-0.505574
-0.032691,-0.223753,-0.058868,-0.011288,-0.086654,0.996175
-0.042739,-0.077682,0.232132,-0.594753,0.698174,-0.398525
-0.002926,-0.079371,0.223826,-0.298732,0.330612,-0.895240
0.062786,-0.264300,-0.151391,-0.536859,0.304253,0.786901
-0.007836,0.040444,0.462456,0.902830,0.040483,-0.428088
0.075591,-0.078739,0.215315,0.129723,0.005469,0.991535
0.111606,-0.074374,0.219571,-0.120501,-0.060186,-0.990887
0.188333,-0.072050,0.214149,0.156591,0.251996,0.954975
0.555595,-0.172151,-0.030544,-0.612498,0.141083,0.777780
-0.656925,-0.571291,-0.299785,-0.328806,-0.010632,-0.944338
-0.650603,-0.244798,0.308273,-0.337222,0.941145,-0.022969
-0.575066,-0.248811,0.292120,0.343949,0.938809,-0.018345
-0.580348,0.043400,0.837512,0.110044,-0.908059,0.404127
-0.509948,0.029036,0.802416,0.915809,0.280135,0.287782
-0.436941,0.005384,0.749886,-0.028995,-0.978961,0.201977
-0.398318,-0.016439,0.704517,0.542890,-0.759135,0.359144
-0.371301,0.020873,0.770729,-0.353881,0.932775,-0.068553
-0.294056,-0.154411,0.434452,0.782020,-0.544184,-0.303823
-0.268306,-0.107531,0.519035,-0.402485,-0.806901,-0.432338
-0.232359,-0.108725,0.512607,0.026335,-0.548873,0.835491
-0.176844,-0.316323,0.118903,0.325682,0.301307,0.896184
-0.191579,-0.126534,0.474398,0.248383,0.965091,-0.083103
-0.061494,-0.591004,-0.407362,-0.034863,-0.042347,0.998495
-0.155037,-0.124214,0.474536,0.535400,0.844156,-0.027324
-0.120361,-0.119991,0.478151,-0.234824,0.957532,-0.167300
-0.085754,-0.110908,0.491100,0.495781,-0.858990,0.127816
-0.013714,-0.335963,0.062895,0.721905,0.522835,0.453317
0.024164,-0.108020,0.483504,-0.504468,0.038021,-0.862593
0.212743,-0.113653,0.450536,-0.355673,0.921029,0.158756
0.467113,-0.419660,-0.150499,-0.097217,0.102292,0.989992
-0.625075,-0.212419,0.209847,-0.022113,0.988657,0.148551
-0.597690,-0.127097,0.370573,-0.834451,0.534931,0.132441
-0.577596,-0.277181,0.079780,-0.035622,-0.965222,0.258995
-0.502876,-0.262539,0.098769,0.269459,-0.859394,0.434551
-0.463508,-0.260287,0.098106,-0.030595,-0.642957,0.765291
-0.420943,-0.083878,0.432255,-0.127382,-0.441135,0.888355
-0.387303,-0.066490,0.461335,-0.353842,-0.925847,0.132679
-0.354336,-0.047550,0.493548,0.606111,0.667293,0.432839
-0.314891,-0.064097,0.456896,0.481146,0.875064,0.052553
-0.264213,-0.121748,0.339915,0.785742,0.491356,0.375737
-0.222834,-0.131321,0.316212,0.685107,0.728151,-0.020624
-0.193586,-0.240437,0.103002,0.935042,0.259191,0.241903
0.126196,-0.356797,-0.159261,-0.336779,-0.002535,0.941580
0.245338,-0.343422,-0.148165,-0.214262,0.059933,0.974936
0.401695,-0.235719,0.039421,-0.750218,-0.299060,-0.589692
-0.302391,0.822534,-0.327697,-0.101281,0.041774,0.993980
-0.345923,0.667805,-0.328841,-0.034321,0.138052,0.989830
-0.341386,0.516948,-0.265398,-0.117252,0.639627,0.759690
-0.211746,0.493437,-0.315045,0.664647,0.668881,-0.332930
-0.171339,0.494631,-0.317631,0.254378,0.052181,0.965696
-0.044006,0.488719,-0.339755,-0.333991,-0.358960,-0.871549
0.071421,0.529550,-0.288185,0.257538,0.871923,0.416443
-0.469091,0.506245,-0.363091,0.542768,0.571054,-0.615874
-0.351879,0.551724,-0.303972,0.535945,0.844141,0.013778
-0.227599,0.554255,-0.312803,-0.704042,-0.123208,0.699389
-0.142909,0.554818,-0.320696,0.042193,0.005672,-0.999093
-0.018106,0.552850,-0.336552,0.929663,-0.366857,-0.033800
-0.024579,0.665623,0.107898,-0.193482,-0.188974,-0.962732
-0.569110,0.329978,-0.350233,-0.464678,0.107223,0.878964
-0.394744,0.398121,-0.351034,-0.491694,0.267679,0.828604
-0.070869,0.455984,-0.294957,0.853117,-0.441210,-0.278432
0.186548,0.435571,-0.352819,0.775852,0.021990,0.630532
-0.230574,0.345604,-0.226595,0.724224,-0.636227,0.265922
0.151646,0.313573,-0.313421,0.901110,-0.418593,0.113051
0.458328,0.399737,-0.213599,0.625490,-0.669556,0.400571
-0.231541,0.354052,-0.265398,-0.497461,-0.504255,-0.705875
0.101486,0.632887,0.125469,-0.077693,0.072488,0.994339
0.187738,0.345183,-0.320856,0.830736,-0.181793,0.526146
0.235218,0.331103,-0.347190,-0.597348,0.754909,-0.270717
-0.301573,0.329625,-0.211655,0.945364,0.090781,0.313122
-0.257813,0.318291,-0.233252,0.581733,-0.796251,0.166048
-0.090069,0.305126,-0.270179,0.834006,0.075347,-0.546587
-0.071242,0.563832,0.121992,-0.334371,0.150098,0.930412
0.004518,0.576993,0.134392,-0.065680,0.592035,0.803232
-0.103319,0.235294,-0.325524,0.397081,-0.062935,0.915623
-0.078759,0.304637,-0.221035,0.924078,0.376857,0.063708
-0.275078,0.319279,-0.209275,0.491235,-0.866063,-0.092861
-0.072359,0.325965,-0.219250,0.579224,0.637532,0.507989
0.144351,0.295201,-0.288071,0.982345,-0.123860,0.140206
0.457810,0.356870,-0.225748,-0.494507,0.584422,-0.643361
-0.462246,0.510331,0.144344,-0.223641,0.522314,-0.822905
0.438610,0.295837,-0.280955,0.840646,-0.434300,0.323571
0.369173,0.219315,-0.398257,0.875908,0.267070,0.401820
0.411815,0.330682,-0.230530,0.486345,-0.666234,0.565333
-0.096841,0.298935,-0.259975,-0.674747,-0.226662,0.702382
-0.060972,0.317728,-0.233756,0.931748,0.356041,0.071285
0.150306,0.308155,-0.271300,0.900559,-0.401452,-0.166823
0.436303,0.330541,-0.265169,0.864971,-0.453465,0.214929
-0.285571,0.302312,-0.197607,0.234877,-0.393945,-0.888617
-0.106444,0.233889,-0.323213,-0.616954,-0.035707,-0.786189
0.407278,0.330541,-0.224284,0.486345,-0.666234,0.565333
0.064276,0.394319,-0.259838,0.226127,0.556397,0.799556
0.251220,0.340960,-0.367873,-0.016202,0.982214,0.187063
-0.309758,0.341454,-0.226686,0.521002,-0.096431,0.848091
-0.226631,0.343916,-0.231491,0.787723,-0.553789,0.269833
-0.100489,0.331808,-0.264185,0.672745,0.043172,-0.738614
0.154621,0.313152,-0.321612,0.915939,-0.329722,0.228776
-0.183839,0.473724,-0.323419,-0.195670,-0.001138,0.980669
-0.069084,0.511388,-0.270339,0.954486,-0.173081,0.242898
-0.011557,0.731721,0.108104,0.028269,-0.013871,0.999504
0.181338,0.426067,-0.361833,-0.638883,-0.060361,-0.766932
-0.274406,0.409314,-0.266976,-0.086887,0.283170,0.955126
-0.023017,0.534547,-0.344262,0.985064,-0.049720,0.164857
-0.353368,0.697018,-0.329551,-0.090473,-0.024191,0.995605
-0.466783,0.685825,-0.330351,0.030618,-0.120436,0.992249
-0.564573,0.763825,-0.317951,0.106208,0.005148,0.994331
-0.400848,0.605084,-0.315388,-0.692709,-0.397196,0.601988
-0.280361,0.482171,0.110232,-0.206722,-0.967596,0.144994
0.457588,0.377141,-0.236776,0.820764,-0.513868,0.249574
0.026471,0.610712,0.121786,-0.240600,0.717387,0.653810
0.362550,0.428460,-0.365242,0.397002,-0.637082,0.660694
-0.303581,0.530744,-0.283197,-0.008888,0.747362,0.664358
-0.257219,0.517863,-0.322389,-0.012245,0.179311,0.983716
0.148371,0.279433,0.077011,0.743709,-0.002875,0.668497
0.213861,0.129422,-0.253477,0.857317,-0.480386,-0.185032
0.338440,0.138642,-0.249977,-0.081962,0.991794,-0.098115
0.380188,0.138152,-0.256452,-0.178798,0.983175,0.037396
0.523223,0.106895,-0.342615,-0.449584,-0.246319,-0.858604
-0.013269,0.391363,0.118331,-0.350636,-0.068434,-0.934008
0.066511,0.392489,0.109568,0.405407,0.016466,0.913988
0.338813,0.242263,-0.261348,-0.708999,0.533609,-0.461065
0.382868,0.240506,-0.271438,0.852780,-0.401806,-0.333644
0.606500,0.221218,-0.344857,0.287896,-0.156618,0.944768
0.201955,0.192212,0.065800,0.433099,0.253761,0.864888
0.322215,0.015309,-0.318820,-0.413711,-0.523902,-0.744560
0.491668,0.018127,-0.334927,0.220942,0.567001,0.793533
0.625550,0.012426,-0.364121,0.117224,0.892441,-0.435670
0.667820,0.012847,-0.368811,0.222629,0.718862,-0.658539
-0.761338,0.028405,-0.151094,-0.326309,0.071872,-0.942527
-0.668608,0.276335,0.354489,0.193095,0.085012,0.977490
-0.575138,0.144417,0.067036,0.004814,-0.136984,0.990562
-0.506968,0.200449,0.175003,-0.016235,-0.135115,0.990697
-0.483753,0.275630,0.329139,-0.136542,-0.512127,-0.847987
-0.397946,0.231986,0.226572,-0.084074,0.623873,0.776990
-0.332306,0.276687,0.311339,0.992121,-0.014763,-0.124410
-0.271876,0.035021,-0.200833,-0.333828,0.329537,-0.883156
-0.190538,0.039245,-0.202411,-0.453693,-0.392400,-0.800115
-0.204229,0.223470,0.183765,0.666788,-0.591411,-0.453461
-0.171856,0.246418,0.227739,0.389237,-0.122448,-0.912963
-0.135391,0.128575,-0.022970,0.043157,0.421998,0.905569
-0.117754,0.199396,0.122243,0.096053,-0.511247,0.854049
-0.062384,0.028757,-0.241054,0.471887,0.841275,0.263777
-0.029639,0.377777,0.483390,0.861743,-0.001904,0.507341
0.111756,0.009538,-0.303446,-0.587530,-0.797750,0.135662
0.010396,0.367569,0.456850,0.900847,0.013566,0.433924
0.142043,0.037346,-0.249451,-0.499968,0.015297,-0.865909
-0.652760,0.123578,-0.150544,-0.293095,-0.956024,0.010674
-0.611008,0.118934,-0.165919,-0.227568,-0.939688,-0.255342
-0.569556,0.119003,-0.171548,-0.224685,-0.964233,-0.140610
-0.484571,0.310196,0.226915,-0.162179,-0.404581,0.900007
-0.409256,0.314140,0.225588,-0.092735,-0.298050,0.950035
-0.353068,0.061772,-0.323236,-0.084240,0.018821,0.996268
-0.142091,0.063250,-0.347923,-0.357060,0.529993,-0.769165
-0.063874,0.081833,-0.318317,0.857064,-0.464420,-0.223060
-0.091781,0.287953,0.127460,0.665486,-0.115002,-0.737498
-0.029939,0.108373,-0.265855,0.833407,-0.286858,-0.472382
0.014343,0.104007,-0.281367,-0.045342,-0.884833,0.463696
0.063013,0.087960,-0.321886,-0.240696,0.892716,0.380950
0.106918,0.285134,0.094994,0.667428,-0.305489,0.679129
0.191013,0.085777,-0.343850,0.034981,-0.957427,0.286548
-0.758585,-0.263101,-0.297200,-0.362244,0.586814,-0.724174
-0.718473,-0.258809,-0.293333,-0.407894,0.546277,-0.731576
-0.552441,-0.253950,-0.304178,0.021188,-0.037427,0.999075
-0.519323,-0.191512,-0.186098,-0.647090,0.754448,-0.109925
-0.478766,0.040933,0.263224,-0.138394,0.467115,0.873299
-0.453833,0.102602,0.380480,0.725126,0.667324,-0.169914
-0.339228,0.090916,0.343461,-0.441419,0.164078,-0.882172
-0.288846,0.041007,0.240048,0.954548,0.219073,0.202104
-0.250891,0.045509,0.244097,0.888108,-0.371289,-0.270939
-0.182204,-0.068952,0.012218,0.958655,-0.271417,0.085521
-0.145884,-0.059731,0.025556,-0.622706,0.710309,0.328175
-0.070424,-0.045299,0.044958,0.081934,-0.989964,-0.115142
-0.001137,-0.264652,-0.392148,0.882722,-0.372973,0.285819
-0.107039,0.188693,0.506498,-0.793434,0.496257,-0.352409
0.048424,-0.154484,-0.182850,0.890900,0.433593,0.135257
-0.025251,0.169264,0.458497,0.837930,-0.067547,0.541582
0.073801,0.099221,0.309875,0.584588,-0.805625,0.096051
0.145914,-0.087607,-0.063993,0.047407,-0.718823,0.693575
0.204486,-0.239591,-0.367965,0.380980,-0.640403,0.666888
0.237603,-0.014256,0.067768,-0.260885,0.490257,-0.831617
-0.181531,0.199254,0.335522,0.125404,0.124168,0.984305
-0.114851,-0.021999,-0.119955,-0.529251,0.824712,0.199358
-0.143059,0.305410,0.544958,0.899256,0.349275,0.263335
0.052071,-0.154625,-0.408667,-0.148862,-0.234405,0.960674
-0.023167,0.277675,0.473987,0.904049,-0.205930,0.374551
0.155443,-0.086340,-0.283907,0.717051,0.685300,-0.127283
0.125896,0.093940,0.084127,0.086314,-0.002316,0.996265
0.185208,-0.053325,-0.220852,0.350213,0.912277,0.212371
0.164296,0.095208,0.081747,0.241110,0.421060,0.874399
0.239088,-0.084299,-0.290336,0.989986,0.139550,-0.021280
0.202178,0.097532,0.081495,-0.195411,-0.505679,-0.840299
0.293340,-0.114006,-0.357349,0.446564,0.868438,-0.215395
0.283743,0.094503,0.064999,-0.694148,0.194834,-0.692964
0.631877,-0.097954,-0.367232,0.887999,-0.451377,0.087840
-0.591436,0.186089,0.360689,0.175156,0.110999,0.978264
-0.518283,0.190734,0.360941,-0.267768,0.031558,0.962967
-0.454506,0.052551,0.073442,-0.263124,-0.333352,0.905341
-0.419376,-0.135123,-0.310103,0.245348,-0.284708,0.926685
-0.389388,-0.073033,-0.188615,-0.472607,0.260851,-0.841784
-0.389906,0.115484,0.192139,0.866643,0.380160,-0.323123
-0.357311,0.137375,0.232314,0.884804,0.348275,-0.309559
-0.331561,0.191580,0.338771,-0.416297,0.152809,0.896296
-0.206091,0.150961,0.240803,0.793244,-0.602880,-0.085437
-0.613911,-0.131321,0.402833,-0.644589,0.758241,0.097858
-0.593966,-0.294428,0.104787,0.118770,-0.705893,0.698290
-0.555120,-0.284713,0.117988,-0.286847,0.503129,-0.815218
-0.536515,0.084015,0.784433,0.903062,0.334854,0.268984
-0.503843,0.097249,0.804841,0.755176,0.465971,0.461065
-0.397796,-0.285912,0.098243,0.043411,-0.349366,0.935980
-0.360436,-0.100347,0.430173,0.032253,-0.297434,0.954198
-0.329999,-0.069373,0.482772,0.763932,0.486517,0.423921
-0.290408,-0.085072,0.449895,-0.557334,-0.828183,0.059093
-0.240326,-0.133366,0.356479,-0.729448,-0.672043,-0.127528
-0.141346,-0.364118,-0.072939,0.183511,-0.223255,0.957330
-0.186741,0.057828,0.478265,0.962566,-0.248669,-0.107847
-0.083446,-0.031502,0.297978,-0.653353,0.748907,-0.110761
-0.038201,-0.056212,0.245996,-0.558843,0.706445,-0.434315
0.003996,-0.069304,0.216597,-0.291286,0.326425,-0.899221
0.003178,0.044667,0.431225,-0.545431,0.026236,-0.837745
0.150378,-0.257189,-0.154617,-0.427527,0.105587,0.897815
0.198008,-0.064518,0.202686,0.196341,0.265420,0.943929
0.490332,-0.362361,-0.392949,-0.369005,0.853555,0.367802
-0.650230,-0.385241,-0.302302,0.209417,-0.079094,0.974622
-0.609595,-0.033543,0.355564,0.475271,0.865709,-0.157054
-0.466633,-0.009186,0.384964,-0.303273,0.933347,-0.192067
-0.422056,-0.045793,0.310652,-0.332844,0.821696,-0.462635
-0.389833,-0.016576,0.361787,-0.266564,-0.934226,-0.236994
-0.351956,-0.016791,0.356754,0.653862,0.389682,0.648547
-0.223878,-0.408541,-0.396289,0.322769,-0.328735,0.887555
-0.219559,-0.097391,0.189485,0.441193,0.745774,0.499169
-0.177589,-0.112528,0.156196,-0.288860,-0.950259,-0.116484
0.462870,-0.062971,-0.054704,0.053129,-0.310699,-0.949022
0.619005,-0.203194,-0.347625,0.240646,-0.425698,0.872279
0.712102,-0.212487,-0.376727,0.958688,-0.260812,0.113556
-0.408289,-0.347508,0.329482,0.941003,-0.000577,-0.338397
-0.384923,-0.269718,0.460579,0.825891,-0.563050,0.029644
-0.349421,-0.260708,0.472087,0.840784,-0.539516,-0.044767
-0.305739,-0.290488,0.416125,0.941096,-0.132586,0.311062
-0.268306,-0.462463,0.116661,0.185679,0.027313,0.982231
-0.224324,-0.327022,0.344422,-0.564728,0.067172,0.822539
-0.243079,0.028684,0.957422,0.970629,-0.206242,0.123867
-0.114779,-0.454016,0.114624,0.737245,0.632775,-0.236784
-0.099521,-0.230370,0.497072,-0.582851,-0.810094,0.063511
-0.029716,-0.470416,0.077080,-0.477251,-0.156098,-0.864792
-0.064469,-0.222275,0.507207,-0.381613,-0.799852,-0.463258
-0.031129,-0.215164,0.515718,-0.142531,0.786664,0.600703
