-0.192948,-0.531951,0.878675,0.919460,0.273375,0.282594
-0.008076,-0.746185,0.732368,0.017168,-0.560923,0.827690
0.261496,-0.811680,0.800839,-0.329207,0.913510,0.239002
-0.021693,-0.776992,0.503502,0.050883,-0.783169,0.619723
-0.166365,-0.098492,0.760351,0.487922,0.642916,0.590415
0.471303,-0.094306,0.747180,-0.596497,0.802434,0.017051
-0.527219,0.368858,0.541239,-0.567017,-0.818754,0.090182
-0.861590,0.027119,0.629745,0.906006,0.092547,-0.413023
-0.243809,-0.684079,0.664647,0.187908,-0.928402,0.320563
-0.005106,-0.077756,0.762269,-0.518775,0.776397,0.357883
0.746908,-0.137769,0.659757,0.246308,0.965341,0.086306
0.150106,-0.671417,0.792336,0.903243,-0.102823,-0.416629
0.405940,-0.218324,0.697688,0.362530,-0.745322,0.559523
0.107485,0.456288,0.535542,0.062396,0.750088,0.658388
0.110119,-0.213736,0.426499,0.460482,0.884193,0.078480
0.024441,-0.408134,0.549464,-0.468765,0.876861,0.106650
-0.525898,0.285419,0.628744,-0.794452,0.601279,0.085497
0.234470,-0.442427,0.309148,0.603073,0.795029,-0.065048
0.090790,-0.497055,0.487662,-0.175249,-0.591505,0.787026
-0.133412,-0.521181,0.685100,0.922944,-0.047871,-0.381946
-0.206786,0.164590,0.781276,-0.197217,-0.707766,0.678361
-0.145822,-0.317813,-0.072306,0.963866,-0.259781,-0.058956
-0.358270,-0.518291,0.820958,-0.248014,-0.567909,0.784837
0.146814,-0.335854,0.796282,0.764717,-0.557401,0.323283
-0.109462,-0.834212,0.817068,-0.669187,0.658531,-0.344275
-0.364860,0.260198,0.743372,-0.433475,-0.359625,0.826299
-0.031032,-0.744487,0.461957,0.039618,0.262664,-0.964074
-0.340912,0.105173,0.381871,0.921745,0.385497,0.042177
-0.163837,-0.135980,0.799394,-0.166584,0.325865,0.930624
-0.229857,0.362676,0.740760,-0.493411,0.867879,0.057729
0.075517,-0.211442,0.409159,0.322413,0.937000,-0.134467
-0.421870,0.102684,0.610071,0.917408,0.035010,-0.396406
-0.486790,0.273754,0.740788,-0.117339,0.751894,0.648757
-0.859069,0.043566,0.622631,0.966279,0.248666,0.066862
0.010818,-0.299468,0.363308,-0.451176,0.798539,-0.398466
0.520621,-0.645995,0.660285,-0.625225,-0.677145,0.388031
-0.451089,-0.621973,0.710137,0.594818,0.754101,-0.278429
-0.525127,0.736121,0.346440,0.489959,-0.823336,0.286459
-0.129784,-0.709896,0.684627,0.823262,0.217130,-0.524494
0.403747,-0.123019,0.733758,0.185064,0.435850,0.880787
-0.519965,-0.492175,-1.000000,0.102655,0.057226,0.993070
0.390452,-0.710596,0.801784,0.319032,0.724859,0.610572
-0.602130,0.288406,0.726255,0.815062,-0.561756,0.141786
-0.160766,-0.759443,0.648891,-0.161432,-0.238553,0.957618
-0.345310,-0.667730,0.359057,0.000419,0.981455,0.191691
0.295877,-0.373938,0.465903,0.198145,0.410444,-0.890098
0.053439,-0.459775,0.706692,0.567691,0.822475,-0.035506
-0.551275,-0.051738,0.773134,-0.730690,-0.644829,0.224247
-0.399905,-0.070978,0.643751,0.160068,0.987065,0.008996
-0.612461,-0.427173,0.603902,0.064276,0.299678,0.951873
-0.699460,0.093509,0.792058,0.947599,0.295580,0.121197
-0.200196,-0.355897,-0.241511,0.831650,0.531153,-0.161969
-0.140552,0.684377,0.432918,0.917552,-0.054467,0.393867
-0.454494,0.040773,0.645529,-0.775991,0.520886,-0.355690
0.183830,-0.135176,0.767104,0.243156,0.958213,-0.150672
-0.239746,-0.607017,0.457178,-0.558527,0.823411,-0.100205
0.473609,-0.580098,0.682349,0.144776,-0.028278,-0.989060
0.282582,-0.619180,0.640332,-0.539610,-0.019501,-0.841689
-0.233370,-0.022531,0.743567,0.713628,-0.676293,0.182655
-0.072668,-0.765625,0.742817,-0.434319,-0.842012,-0.319972
-0.270393,-0.365767,0.725532,-0.561141,0.446076,-0.697235
0.184708,0.395277,0.562552,0.830864,-0.547705,-0.098408
0.146150,0.311035,0.727450,0.572269,0.518979,-0.634956
-0.159117,-0.245735,0.646196,0.220999,0.028124,0.974868
0.105728,-0.248728,0.746513,0.397926,-0.091605,0.912833
-0.638160,0.148940,0.392597,0.919302,-0.374747,-0.120200
-0.510082,-0.534938,-0.799005,-0.063477,-0.968903,0.239161
0.396164,-0.667626,0.703246,0.830597,0.219830,-0.511648
0.354314,-0.061905,0.238954,-0.011044,0.979701,0.200160
0.563793,-0.505032,0.731312,0.742281,-0.604633,0.288857
-0.293571,-0.552687,0.593203,0.891396,-0.453043,-0.012873
-0.338391,-0.004582,0.364197,-0.476562,0.610171,0.632914
-0.797112,-0.371845,0.178681,0.851682,-0.514128,-0.101536
-0.785802,-0.335757,0.181793,0.797446,-0.592602,-0.113590
0.018508,0.486395,0.397266,-0.702006,-0.652199,-0.286048
-0.035424,0.536040,0.285277,0.246145,-0.907463,0.340477
0.067834,-0.299170,0.778803,-0.646636,-0.716480,0.261759
0.501842,-0.724152,0.508420,0.964285,0.181010,0.193364
-0.922120,0.110260,0.584922,0.674786,0.633191,-0.379122
-0.482620,-0.160799,0.728283,0.237875,-0.917669,-0.318275
0.391002,-0.390690,0.497471,0.995855,-0.029436,-0.086060
-0.411437,-0.464661,-0.615184,0.685121,-0.646435,0.335754
-0.663101,-0.261390,0.734286,0.673517,-0.505120,-0.539656
-0.770971,-0.487983,0.961457,0.984955,0.172784,-0.003080
0.085299,-0.801215,0.761852,-0.547730,0.387160,0.741686
0.203495,-0.250225,0.376591,0.337808,0.852250,-0.399445
0.306859,-0.131392,0.700439,0.626643,0.724528,0.287017
-0.293792,-0.612097,0.561524,-0.855630,-0.163904,-0.490951
0.541164,-0.930513,0.547824,-0.186226,-0.978141,0.092523
-0.698910,0.312532,0.593981,-0.231005,0.956485,0.178249
-0.527433,0.053636,0.717724,0.478245,-0.724262,-0.496716
0.557095,-0.226398,0.775496,-0.317476,-0.944883,-0.080031
-0.160545,-0.418399,0.376119,0.874837,0.455031,-0.166151
-0.221838,-0.980560,0.797532,-0.230968,-0.961990,0.145704
0.682980,-0.269361,0.735564,0.379713,0.906575,-0.184229
0.120558,-0.694843,0.712444,-0.510971,0.797007,-0.322007
-0.622786,0.296681,0.565387,0.041414,-0.997028,-0.064962
0.113639,-0.601535,0.786334,0.683978,0.656001,-0.319120
-0.183830,0.049152,0.755766,0.988590,0.092555,0.118839
-0.422312,0.242352,0.783277,0.219685,-0.128825,0.967028
-0.115289,-0.233079,0.659507,-0.389458,-0.898547,0.202326
0.220518,0.311035,0.732841,-0.600346,0.514322,-0.612420
-0.563578,0.082544,0.697549,-0.248050,0.826923,-0.504647
-0.466583,-0.374437,0.773801,-0.328048,-0.110873,-0.938132
-0.224366,0.350415,0.781082,0.070730,-0.824762,0.561039
-0.081344,-0.262686,0.228478,0.486768,0.872971,0.031278
0.325095,-0.047649,0.674179,-0.375523,0.614558,-0.693759
0.100237,-0.773298,0.805786,-0.685937,0.694833,-0.216095
0.304117,0.131994,0.761129,-0.222093,0.758705,-0.612406
-0.577309,-0.362073,0.760740,0.733497,0.488440,-0.472661
-0.298184,-0.294582,0.841966,0.565258,0.805663,-0.177175
-0.607078,-0.503341,-0.992858,0.051384,0.174912,0.983242
-0.162737,0.067193,0.775190,0.332182,0.370912,0.867225
-0.428460,0.324494,0.812427,-0.255890,0.965732,-0.043384
-0.061572,0.036490,0.363169,0.303748,-0.945421,0.117963
-0.427911,-0.174258,0.715806,-0.120867,-0.288581,-0.949796
0.215683,-0.713888,0.538293,0.916078,0.368562,0.157998
-0.315649,-0.507624,0.304730,-0.109354,0.836412,0.537081
0.020044,0.548300,0.450314,0.166299,0.504727,0.847110
0.120666,0.046456,0.822820,0.088492,-0.583584,0.807217
-0.451423,0.117336,0.560190,0.341210,0.043965,0.938958
0.744716,-0.230182,0.715834,-0.639346,-0.218994,-0.737074
-0.276105,0.142758,0.362947,0.974985,0.034308,0.219607
-0.033231,-0.750572,0.795976,0.623884,0.278417,0.730242
-0.225687,-0.350610,-0.258072,0.913123,0.140626,-0.382662
0.264680,0.086731,0.727422,-0.290911,0.735438,-0.611966
0.208328,-0.218621,0.678208,0.899930,-0.199422,-0.387759
-0.332129,-0.456385,0.816679,0.337035,0.176135,0.924869
0.424504,0.085337,0.666732,0.096110,0.802089,0.589420
0.136153,0.331078,0.661146,0.076921,-0.990875,-0.110677
-0.096395,-0.063201,0.717918,-0.549830,0.835172,-0.013184
-0.390123,-0.325790,0.665287,0.604196,-0.689632,0.399194
-0.187678,0.205965,0.212999,0.688803,-0.565248,0.453923
0.095510,0.469145,0.623548,0.111727,0.676670,0.727760
-0.071568,-0.783368,0.856500,0.236170,0.863143,-0.446328
-0.493823,0.361483,0.738176,-0.170925,-0.754167,0.634048
-0.246887,-0.585283,0.446702,-0.636366,0.581854,-0.506443
-0.533696,-0.668326,-0.989440,0.049980,0.153798,0.986837
-0.558630,0.391785,0.445173,0.034445,-0.406719,0.912904
-0.874886,0.037086,0.623798,0.966279,0.248666,0.066862
-0.154940,0.001095,0.706080,0.994984,0.061091,-0.079208
0.196025,-0.195993,0.489579,0.161307,-0.881956,0.442871
0.732192,-0.014451,0.632774,0.570271,0.712746,-0.408391
0.227001,-0.172068,0.514950,-0.514425,0.806514,0.291380
0.333664,-0.448706,0.786834,-0.603991,-0.794705,-0.060326
-0.623665,0.435849,0.476852,0.882642,0.374339,0.284277
0.004998,-0.151429,0.451592,-0.612190,-0.035366,0.789919
-0.471081,-0.013258,0.341577,0.404171,0.471531,-0.783776
-0.463391,-0.179041,0.429890,0.111765,-0.916138,0.384966
-0.209207,-0.195196,0.246651,-0.360793,-0.928823,0.084356
-0.565992,0.415016,0.455427,-0.085973,-0.696601,0.712289
-0.896635,0.099295,0.678375,0.846348,0.393714,-0.358727
0.131212,-0.517098,0.729562,-0.501508,0.842521,0.196592
0.400013,-0.282924,0.651226,0.970853,0.222574,-0.088913
0.128463,-0.714082,0.766076,-0.771358,0.580335,0.261186
-0.382983,0.319913,0.733508,0.571121,-0.807161,-0.149371
0.121330,0.142259,0.747930,-0.721306,0.657779,-0.216900
-0.206022,-0.112548,0.651365,0.815763,0.007880,0.578333
0.854450,0.084242,0.566359,-0.009665,0.999941,0.004903
-0.285988,-0.351705,0.833797,-0.658712,0.646760,0.384447
0.449774,0.176455,0.646474,0.302809,0.780079,0.547525
-0.188228,0.191009,0.208498,0.302272,0.820373,-0.485407
-0.636732,0.099393,0.744873,-0.168394,0.041408,-0.984850
-0.359805,-0.224305,0.708053,-0.442729,-0.887449,-0.128159
-0.628713,-0.189111,0.802312,0.291230,0.953358,-0.079334
-0.386831,0.510320,0.644640,0.881053,-0.317377,-0.350739
-0.177789,0.237764,0.714389,-0.509170,0.762693,-0.398805
0.317513,-0.472236,0.763769,0.071151,0.992849,0.095857
-0.231942,0.373445,0.741761,0.257511,-0.903988,-0.341311
-0.488768,0.305553,0.605375,0.335017,-0.802424,0.493842
-0.790301,-0.473429,0.592230,0.795092,0.327486,-0.510471
-0.566649,-0.032297,0.794198,-0.555159,0.486404,-0.674692
0.039487,0.396573,0.732980,-0.421347,-0.861614,0.282998
0.598288,-0.223702,0.801534,0.192776,0.953463,-0.231833
0.270829,-0.353902,0.448591,-0.379694,0.843855,0.379133
-0.346409,0.386101,0.766270,0.144028,0.481973,0.864267
-0.189106,-0.311930,0.798227,-0.215819,-0.964448,-0.152518
0.059701,-0.178846,0.787751,0.917889,0.352786,0.181716
0.080572,-0.579302,0.452760,0.645499,0.644093,0.410459
0.429667,-0.031299,0.260657,0.638747,0.569784,-0.517057
-0.056409,-0.255708,0.363030,-0.002370,-0.957353,0.288911
-0.290165,0.331273,0.737815,-0.433369,0.900445,-0.037287
-0.729557,-0.015449,0.674902,-0.584318,-0.391458,0.710868
-0.787887,0.247737,0.745568,0.818192,-0.432730,-0.378558
-0.959685,-0.241250,0.504335,0.960884,-0.276882,0.006107
0.161859,-0.109658,0.677430,-0.389756,0.619343,-0.681546
0.398256,-0.733925,0.583866,-0.403167,-0.402302,0.821955
0.146814,0.392886,0.632441,-0.474716,0.878188,0.058572
-0.660131,-0.546901,0.335937,0.485694,0.855873,-0.177716
0.502942,-0.710992,0.426916,0.977086,0.046938,-0.207603
-0.629048,-0.640312,-0.981493,-0.191087,-0.315423,0.929513
-0.254027,0.116941,0.772439,0.219645,0.414244,-0.883266
-0.553689,0.413817,0.591480,0.306615,-0.655750,0.689912
0.093204,-0.324196,0.352248,-0.855247,0.005673,0.518190
-0.603671,-0.034190,0.340744,0.997529,-0.056402,0.041895
-0.531282,-0.379719,0.718641,0.672544,-0.738941,0.040632
-0.315977,-0.297278,0.840632,-0.110968,0.960021,-0.256993
0.188557,-0.300764,0.422637,-0.048037,0.914928,-0.400748
-0.268308,-0.111452,0.493859,0.653430,-0.470510,-0.593001
-0.595981,0.327586,0.615295,0.605844,-0.665252,-0.436341
-0.208107,0.251424,0.807759,-0.541657,-0.836859,-0.079206
-0.427696,-0.839195,0.699939,-0.296091,-0.907097,-0.299174
-0.311807,-0.564546,0.273634,0.534872,-0.824346,0.185379
-0.004449,-0.014652,0.686295,0.855673,0.465512,0.226104
-0.326524,-0.389491,0.066832,-0.514524,-0.778956,0.358458
0.444940,-0.613893,0.684794,0.453158,0.882375,0.126736
-0.159224,0.146446,0.662313,0.954181,-0.287259,0.083787
0.049483,-0.195092,0.715918,-0.203651,-0.840550,-0.501998
-0.497230,-0.030904,0.332907,0.268359,-0.193082,0.943771
-0.326631,-0.700027,0.374674,-0.072661,0.994077,0.080821
0.515573,-0.142058,0.672178,-0.564593,0.594367,0.572681
-0.726479,0.150437,0.708275,-0.631131,0.746429,-0.210989
-0.352336,-0.419001,-0.392013,0.131321,-0.990660,0.036708
-0.520628,0.143354,0.815984,0.050451,0.794632,0.604991
0.139124,0.045160,0.850859,0.162700,-0.819257,-0.549861
-0.083100,-0.801513,0.872951,-0.006628,0.962286,-0.271960
-0.227550,-0.183233,0.265798,0.114752,0.990421,-0.076799
0.279947,-0.119728,0.726227,-0.185968,-0.977555,-0.099002
0.443512,-0.502738,0.682377,0.757122,-0.471117,-0.452566
-0.356842,0.181438,0.387178,0.970664,-0.238991,0.026347
-0.475366,0.574123,0.671650,0.484276,0.055263,-0.873168
0.129127,-0.076460,0.454955,0.262808,0.311302,-0.913248
-0.553582,-0.445518,0.727755,0.837446,-0.443233,-0.319733
-0.492395,-0.472436,0.401045,-0.458616,0.696922,0.551335
0.561050,-0.111452,0.633330,0.919238,-0.387453,0.069875
-0.201188,0.273852,0.797866,0.640408,0.523570,0.561919
1.000000,0.038583,0.521981,-0.240442,0.951513,-0.191863
0.082993,-0.254709,0.758295,0.340741,-0.690854,0.637665
-0.485476,-0.124510,0.749931,0.165436,-0.011406,0.986155
0.589498,-0.107863,0.696827,-0.589146,0.778857,-0.215151
-0.393750,-0.845876,0.745262,0.425697,0.886352,-0.182102
-0.831936,0.196990,0.695715,0.774937,-0.240957,0.584306
0.169991,0.529961,0.392292,0.213485,0.943435,-0.253682
-0.685401,-0.468348,0.804202,-0.760186,-0.559974,-0.329466
0.281818,-0.115541,0.744123,-0.018247,0.998459,0.052416
-0.215905,0.248832,0.838687,-0.653915,-0.565509,0.502589
0.324653,-0.494865,0.763992,-0.070743,0.997244,0.022353
-0.126271,-0.426278,0.214417,-0.746435,0.665449,0.003491
-0.694297,-0.055030,0.694298,0.999696,0.015785,0.018956
0.906739,-0.159406,0.265464,0.045269,-0.864135,0.501220
-0.989896,0.046560,0.531123,0.903798,0.279130,-0.324401
-0.922891,0.285516,0.588785,-0.527604,0.747963,0.402723
0.430880,-0.793937,0.633385,-0.148059,-0.966676,-0.208846
0.401769,-0.207657,0.692603,-0.149432,0.796787,-0.585492
0.161530,0.459677,0.669705,-0.324290,0.073587,0.943091
-0.630805,0.445421,0.623020,-0.563247,0.416423,0.713684
-0.108913,-0.258300,0.112794,0.875201,0.477029,-0.080412
-0.829958,-0.371645,0.546129,0.940783,0.288527,-0.177986
0.538529,-0.444021,0.711110,0.943268,0.306720,0.127153
-0.488882,-0.431061,0.779942,0.079930,-0.662300,0.744963
-0.073982,-0.441034,0.672706,-0.187885,0.931504,-0.311448
0.511067,-0.935101,0.683572,0.242370,0.969113,0.045583
-0.307409,0.104078,0.562858,0.670947,0.741477,-0.006538
0.096610,-0.304056,0.743372,-0.576520,0.269906,-0.771217
0.248422,-0.083238,0.696854,0.502178,0.309417,0.807514
0.151534,-0.664937,0.498360,0.938168,0.276170,0.208739
-0.298076,0.154921,0.794920,0.955717,-0.214423,-0.201566
0.383975,-0.809490,0.367199,-0.912675,-0.144189,0.382404
-0.534903,0.243946,0.739927,0.208219,-0.281358,0.936740
0.143294,-0.892929,0.788640,-0.221395,0.870687,0.439190
-0.553360,0.071781,0.711610,0.199498,-0.479403,0.854619
-0.178667,-0.313828,-0.109042,0.877246,-0.477071,-0.053317
0.260396,0.093813,0.710888,0.238628,0.901203,-0.361788
-0.245566,-0.442129,0.839049,-0.324870,-0.721238,0.611780
-0.256440,0.127309,0.378759,0.873014,0.357335,0.331902
-0.155603,-0.337254,0.836187,0.062860,0.599137,0.798175
-0.623772,-0.521582,0.708442,0.833411,-0.422955,0.355718
0.118474,0.133187,0.372756,0.343077,-0.876202,0.338481
0.097488,-0.706008,0.828322,-0.061661,-0.996570,0.055184
-0.558851,-0.344531,0.614128,0.559503,0.333275,0.758871
0.204151,-0.621772,0.866365,0.996301,-0.018764,0.083856
0.296427,-0.001795,0.700745,0.770793,-0.167806,0.614588
-0.024663,0.376433,0.699189,0.782371,-0.622808,-0.002433
0.340476,-0.147742,0.758378,0.220076,0.975439,-0.009250
-0.511182,-0.417103,0.317679,0.508931,-0.724994,-0.464083
0.096724,-0.227895,0.449758,0.358874,-0.927640,0.103410
0.782610,-0.062307,0.660257,0.007659,-0.442633,0.896670
0.389687,-0.832617,0.714639,0.056599,0.992143,-0.111573
-0.278411,-0.015053,0.500361,0.385799,-0.773320,0.503126
0.447246,0.097002,0.751793,0.501824,0.750418,-0.430169
-0.021478,0.402950,0.718030,-0.357839,-0.890383,-0.281369
0.430988,-0.495065,0.666259,-0.536970,0.608701,0.584078
0.118252,-0.318014,0.422609,0.159899,0.541965,0.825049
-0.615861,0.488086,0.472295,0.889822,-0.190800,0.414502
0.248201,-0.139564,0.714528,0.776585,-0.602338,-0.184673
-0.323446,-0.833013,0.700272,0.619132,0.735752,0.274490
-0.821283,0.285017,0.478631,-0.802059,0.525354,0.284084
-0.541057,-0.329076,0.781415,0.550447,0.832222,0.066434
0.679246,-0.004886,0.687934,0.804686,0.581710,-0.118715
-0.473059,-0.462366,-0.594148,-0.700862,0.705413,-0.105757
0.147799,-0.902597,0.804785,0.091194,-0.995199,-0.035529
-0.837320,-0.255105,0.319930,-0.371462,-0.928434,-0.005099
0.343218,-0.822651,0.595620,0.008903,-0.912500,0.408979
-0.453180,-0.213936,0.799922,0.476788,0.760542,0.440737
0.318505,-0.163093,0.707248,0.887299,0.359796,-0.288526
0.505134,-0.666732,0.667899,0.953292,-0.270851,0.133694
-0.285109,-0.362073,0.850581,0.874046,0.087354,0.477926
-0.656946,-0.567242,0.705413,0.947962,-0.091963,0.304812
0.351237,-0.649585,0.796615,0.633982,0.108855,-0.765649
0.424397,-0.647790,0.834241,0.966391,-0.175412,-0.187932
0.058273,-0.558967,0.756711,0.870184,-0.489656,0.054919
0.476465,-0.488287,0.733674,0.219680,-0.968141,-0.120181
-0.519200,-0.593460,-0.861529,0.117856,-0.986719,0.111788
-0.551711,-0.125307,0.683266,0.411544,-0.775929,-0.478086
-0.266659,0.041175,0.841410,-0.883177,-0.153362,-0.443259
0.047727,0.505933,0.335241,0.664548,0.710837,-0.230407
0.060908,-0.341939,0.873868,-0.327325,0.233670,0.915564
-0.475037,-0.544807,0.447257,0.860765,0.415215,-0.294416
-0.117045,-0.579898,-0.351803,0.916684,0.128870,0.378262
-0.452630,-0.077457,0.739426,0.835799,0.188761,0.515567
-0.601586,-0.333165,0.744845,0.903734,0.075818,-0.421328
-0.463391,-0.483699,0.567471,0.736615,-0.626740,0.254157
-0.343661,-0.822846,0.674429,-0.684564,-0.683506,-0.253362
-0.085299,-0.428767,0.840994,-0.437650,0.878312,0.192434
0.431866,-0.260691,0.662980,0.824055,0.205338,-0.527987
-0.542264,-0.573022,-0.847246,0.161637,-0.972526,0.167532
0.266873,0.373245,0.664231,0.742630,0.669352,-0.021642
-0.505469,0.410829,0.635108,0.898356,-0.335032,0.284097
-0.433080,0.538632,0.646974,-0.439761,0.885304,-0.151151
-0.635417,0.035894,0.681321,0.509815,0.740397,-0.438065
0.148242,-0.671216,0.494859,0.938168,0.276170,0.208739
0.254684,-0.848863,0.833741,0.444947,0.751178,-0.487600
-0.245016,-0.634927,0.669649,0.606986,0.236949,-0.758567
-0.617952,-0.147443,0.805258,-0.183218,0.404568,0.895966
-0.013788,-0.588873,0.775302,-0.430416,-0.060665,-0.900590
0.548198,-0.487886,0.686072,0.349705,0.203911,-0.914400
0.019386,0.355399,0.722865,0.737898,0.585985,-0.334855
0.067613,-0.154617,0.827238,0.822603,0.327084,-0.465124
-0.165815,0.164991,0.665453,0.770299,-0.583222,0.257860
-0.357941,0.098596,0.792669,0.980366,0.194673,-0.031388
-0.451973,-0.339347,0.796143,-0.446572,0.717080,-0.535135
-0.012796,-0.675804,0.743150,0.950497,-0.310553,0.010601
-0.067391,-0.475923,0.142528,0.517097,0.853651,0.062369
-0.562807,0.089024,0.726533,-0.720639,-0.680356,-0.133396
0.643872,0.093509,0.377119,0.680712,0.624534,0.382869
0.025320,-0.828133,0.796560,0.818548,0.380003,-0.430787
-0.596859,-0.293785,0.872506,-0.417052,0.273471,-0.866765
-0.511617,-0.169275,0.738843,0.956081,-0.264162,-0.126999
-0.395950,0.321306,0.775246,0.785664,0.267832,0.557672
-0.205908,0.304555,0.849581,0.804830,-0.050198,-0.591379
0.229964,-0.524771,0.743428,0.918647,-0.199640,-0.340927
-0.611583,0.324099,0.584199,-0.134406,0.916014,-0.377960
-0.065085,0.176850,0.751904,-0.684947,0.617612,0.386528
-0.103093,-0.274047,0.111432,0.974399,0.224651,0.008815
0.135496,0.273852,0.695243,-0.453524,0.874186,0.173535
-0.667164,-0.219717,0.655783,0.749154,0.617128,-0.240668
0.642337,-0.274947,0.739232,-0.077800,-0.662635,0.744890
-0.934643,-0.211241,0.545490,-0.523286,0.825995,-0.209532
-0.141537,-0.135876,0.680320,-0.462648,-0.075677,0.883306
-0.294999,-0.275245,0.322598,-0.291017,-0.948456,-0.125463
0.147028,0.513508,0.658339,0.252340,0.081477,0.964202
0.520957,-0.867507,0.856083,-0.689204,0.641765,0.336356
-0.788437,-0.326587,0.266659,0.976119,0.153407,-0.153815
-0.699788,0.307847,0.594926,0.183871,-0.980189,-0.073629
-0.101994,-0.419695,0.131273,0.558069,0.813079,0.165713
-0.271821,-0.283222,0.163175,-0.117045,0.990231,-0.075777
0.268630,-0.291990,0.721169,0.792228,-0.559320,-0.244000
-0.233263,-0.400754,0.876258,0.478849,0.749925,0.456417
0.167900,-0.095103,0.784917,0.812461,0.524345,-0.254891
-0.538530,0.398070,0.642889,0.759590,0.505801,0.408887
-0.192070,-0.144352,0.734203,-0.303533,0.620580,-0.723014
0.004670,0.455387,0.619880,0.465472,0.880235,-0.092317
-0.217661,-0.033496,0.708581,0.855809,0.291010,0.427673
-0.564678,-0.195293,0.328183,0.748153,-0.265942,0.607899
0.226672,-0.049243,0.812316,0.788236,0.330935,-0.518811
0.000714,-0.405043,0.585006,-0.265596,0.945414,0.188813
0.238425,-0.435746,0.816234,-0.444063,0.802258,-0.398986
-0.280825,-0.756152,0.673790,-0.834616,0.549087,-0.043809
0.470645,-0.838696,0.875285,0.754436,-0.175014,-0.632610
-0.667821,-0.178244,0.816568,-0.087157,-0.896379,-0.434636
-0.450431,0.042866,0.557411,0.999448,0.015403,-0.029437
-0.298954,-0.719565,0.647530,0.800374,-0.394444,-0.451458
-0.372772,-0.227195,0.140277,0.849161,-0.160131,-0.503273
0.518208,-0.437444,0.761018,0.623191,-0.504034,0.597982
-0.301476,0.090917,0.714083,-0.206710,-0.121632,0.970812
0.553689,-0.790645,0.694465,0.810038,0.247103,0.531770
0.171634,-0.539027,0.221225,-0.553305,-0.788391,0.268873
-0.728900,-0.188411,0.725866,0.632495,0.400952,-0.662712
0.918492,0.025026,0.539766,-0.240442,0.951513,-0.191863
-0.505248,0.389892,0.620519,0.822250,0.566176,0.057875
-0.681223,-0.506626,0.329128,0.957118,0.086230,-0.276568
-0.140659,-0.255604,0.128884,0.903376,-0.281419,0.323599
-0.303239,0.291795,0.839632,0.090045,0.840512,-0.534257
-0.523149,0.167285,0.788084,0.329258,-0.941323,-0.074162
-0.321911,0.113150,0.558273,0.670947,0.741477,-0.006538
-0.043778,0.150437,0.829906,-0.312861,-0.127686,0.941177
-0.090348,0.557074,0.564525,0.125540,0.925348,-0.357731
0.371559,-0.636722,0.733508,0.443970,0.891167,-0.093338
-0.362883,-0.798324,0.818013,0.386560,0.807303,-0.445908
0.555338,-0.901800,0.620686,0.208404,0.978028,0.005448
-0.083543,0.200179,0.187490,0.423388,-0.876215,-0.230198
-0.377385,-0.171466,0.738371,-0.647754,0.108516,-0.754081
-0.242053,-0.423985,-0.057494,0.860615,-0.436619,-0.262117
-0.143079,-0.607017,-0.384594,-0.627265,-0.777854,0.038491
-0.289615,-0.183531,0.268882,0.745565,-0.603559,-0.282576
-0.076952,0.269763,0.677708,-0.454898,0.043565,0.889477
0.550832,-0.349417,0.778442,-0.724204,-0.576397,0.378544
-0.541057,0.189713,0.713861,0.373488,-0.009102,0.927590
0.270829,0.021832,0.741399,0.929875,-0.257591,0.262639
0.454387,-0.823843,0.440477,-0.797477,0.534974,0.278985
-0.550062,0.856244,0.478686,-0.084712,0.995512,0.042175
-0.535895,-0.180337,0.079615,0.241387,0.970258,-0.018226
-0.322789,0.224603,0.684461,-0.026648,-0.436295,0.899409
0.276320,-0.481405,0.370172,-0.385305,-0.708389,0.591376
0.447354,-0.828431,0.825849,-0.438867,0.844836,0.306020
0.303017,-0.540822,0.624187,0.450928,0.564137,0.691675
0.051025,0.544613,0.479214,-0.659851,0.575589,-0.483006
-0.532160,0.200976,0.766548,0.501212,0.836693,0.220750
0.003463,0.501150,0.468349,0.418836,-0.450072,0.788678
-0.118145,0.569237,0.633858,0.523573,-0.842704,0.125384
-0.092440,-0.451597,0.492997,-0.084714,-0.935770,0.342283
0.111883,0.283125,0.559301,-0.022038,0.999197,-0.033450
-0.210414,-0.286313,0.859390,0.152732,0.721770,-0.675072
-0.176911,-0.809289,0.834491,0.056359,-0.446567,0.892974
-0.762839,0.227797,0.612850,0.578622,0.531127,0.618951
-0.581593,-0.267566,0.326377,0.218082,-0.598995,0.770484
-0.309058,0.218926,0.790752,-0.359051,-0.924135,-0.130603
0.188664,0.315325,0.733674,-0.747359,0.126628,0.652242
0.568077,-0.904094,0.736287,-0.627814,-0.761903,0.159225
0.323446,0.109664,0.738815,-0.038531,-0.906611,0.420205
-0.726922,-0.316913,0.694520,0.887018,0.401656,0.227753
-0.099908,-0.569633,-0.357472,0.167779,-0.964030,0.206148
-0.588733,-0.037585,0.358000,0.992345,0.076410,0.097021
0.487232,0.070685,0.758462,0.767672,0.576576,-0.279713
-0.312136,0.006979,0.369338,0.917601,-0.392685,-0.061700
-0.688692,0.853755,0.414161,-0.228623,0.850270,-0.474102
0.164386,-0.533447,0.742122,-0.039862,0.180753,0.982720
0.427253,-0.774497,0.741094,-0.287334,0.840926,-0.458565
-0.758996,-0.337850,0.261713,0.941301,0.167889,-0.292859
-0.449003,0.025623,0.684600,-0.018091,-0.415963,0.909201
-0.380348,-0.489182,-0.337520,-0.698876,0.704414,0.123992
0.222495,-0.412716,0.683849,0.762092,-0.573810,0.299930
0.507440,-0.524570,0.845912,-0.280455,0.955392,0.092579
0.263909,-0.499051,0.522231,-0.460654,-0.299243,0.835615
0.385618,-0.289702,0.712444,-0.338978,-0.525179,0.780565
-0.092326,0.339049,0.483466,-0.772465,0.519499,-0.365264
0.066620,-0.201177,0.417774,-0.258863,-0.965826,-0.013063
0.470317,-0.750968,0.796004,-0.216456,0.281057,0.934962
-0.179438,-0.759541,0.460874,0.345751,0.459604,0.818059
-0.242381,0.355502,0.718113,-0.495032,0.375120,-0.783727
0.295763,0.276049,0.672595,0.896113,0.383165,0.223978
-0.166257,-0.287804,-0.088534,0.871042,-0.489845,-0.036561
0.501178,-0.410927,0.674623,0.950803,-0.033843,-0.307943
0.376171,-0.599338,0.578836,-0.328047,0.095591,0.939813
-0.289065,-0.313524,0.292364,0.859635,0.364630,-0.357871
-0.445711,-0.222211,0.079170,0.078557,-0.993598,-0.081196
0.346295,-0.847969,0.315178,0.294372,-0.815286,-0.498652
-0.588184,-0.578407,-0.849025,0.161637,-0.972526,0.167532
0.269950,-0.475522,0.501945,-0.097971,-0.301497,-0.948421
0.066185,-0.573521,0.819569,0.742883,-0.134091,-0.655854
0.337948,-0.352107,0.693992,0.115131,-0.989755,-0.084443
0.399570,-0.734125,0.799311,0.036787,-0.176685,0.983580
0.300161,0.276846,0.787668,-0.645092,0.068754,-0.761006
-0.101665,-0.300563,0.613294,0.904289,-0.409856,0.119497
-0.653869,0.295185,0.512950,-0.774966,0.047226,-0.630236
-0.466911,-0.705010,0.419802,0.196896,0.978061,0.068035
-0.579501,-0.637221,-0.991608,-0.106625,0.032169,-0.993779
-0.156810,0.331175,0.697327,0.058590,0.897839,0.436408
0.336299,-0.498254,0.782110,-0.046078,-0.998070,-0.041636
-0.714505,-0.521680,-0.994998,-0.070498,0.171593,0.982642
0.197561,0.003791,0.857723,0.689645,-0.339340,-0.639717
0.159995,-0.050740,0.710165,0.854009,0.415450,0.313162
-0.260504,0.108069,0.703746,-0.102511,0.387648,0.916090
-0.723295,0.092517,0.669177,-0.351601,-0.259855,0.899362
-0.397378,0.571428,0.668260,0.912062,0.345000,0.221627
-0.462077,-0.037281,0.643584,-0.394272,-0.916671,-0.065292
0.120887,0.422092,0.673512,0.959278,0.126046,0.252780
-0.282146,0.043566,0.365726,0.915786,0.124105,-0.382013
-0.783274,0.857145,0.426860,0.182264,-0.887513,0.423203
-0.084307,-0.598042,0.726394,0.722661,-0.529086,-0.444779
-0.410009,0.262090,0.689351,0.041877,0.452782,0.890637
0.217004,0.386302,0.627994,0.251412,0.915761,-0.313327
0.114846,0.470843,0.612072,-0.129326,0.815514,0.564102
-0.591697,-0.695342,-0.983438,-0.054455,-0.392793,0.918013
0.328173,-0.072176,0.678069,0.930544,0.129731,-0.342428
0.395836,-0.545209,0.855889,-0.321555,-0.911004,0.258214
-0.091340,0.599046,0.414939,0.813949,0.572128,0.100780
-0.345310,0.335459,0.720530,0.798954,0.140218,-0.584817
-0.120230,-0.078358,0.754377,0.525326,-0.328441,0.784958
-0.598066,0.133187,0.365670,-0.165972,0.919174,-0.357173
0.164608,-0.266769,0.800978,0.741926,-0.612324,0.273141
-0.194155,-0.370251,0.879787,0.065544,0.431336,0.899807
0.170320,-0.541619,0.828350,-0.207938,0.643724,-0.736465
-0.570718,-0.288303,0.786334,0.831244,0.432577,-0.349158
-0.107270,-0.079654,0.779831,-0.066915,-0.860216,0.505521
-0.306973,-0.601736,0.734758,0.224870,0.699214,-0.678626
-0.423740,-0.064899,0.551465,0.986977,0.158200,0.029123
-0.478007,-0.101285,0.803646,0.987270,0.040014,-0.153938
0.066949,0.484996,0.603874,0.062255,0.755560,0.652115
-0.624429,-0.457480,0.720558,-0.090105,0.953918,0.286220
-0.370244,-0.708205,0.899183,-0.267330,-0.915226,0.301490
-0.019386,-0.724749,0.520842,0.121654,-0.965539,0.230076
-0.201738,0.356098,0.673178,0.577911,0.782650,-0.231253
-0.210963,0.087528,0.605930,0.438460,0.895448,0.076974
-0.389909,0.463961,0.664453,0.933053,-0.339619,0.118619
-0.160652,0.119831,0.243678,0.849369,-0.012500,0.527652
0.445269,-0.213036,0.704469,0.881473,0.472182,0.007014
-0.205251,-0.628149,0.733257,-0.318203,-0.663399,-0.677236
-0.267315,0.144955,0.737593,0.380552,-0.101144,-0.919212
-0.355964,-0.416007,0.808676,0.900856,0.177314,0.396256
-0.821939,-0.046353,0.645418,-0.173164,-0.148586,0.973620
-0.336413,-0.768217,0.475157,0.235120,0.968894,0.077222
-0.282367,0.359889,0.771689,0.112269,0.992352,0.051324
-0.437692,0.082447,0.712333,-0.310908,-0.742135,0.593778
-0.245016,-0.277436,0.840716,-0.038661,0.996280,0.077016
-0.071347,-0.740107,0.554105,-0.464598,0.769357,0.438450
-0.397049,0.543913,0.649808,0.444755,-0.837497,0.317478
-0.105728,-0.364866,0.694214,0.139254,-0.690459,0.709842
-0.412752,-0.243544,0.296087,0.779226,-0.560063,0.281310
0.055638,-0.866114,0.798033,0.482725,0.499328,-0.719478
-0.363654,-0.221214,0.247930,-0.710024,0.675964,0.197329
-0.203166,-0.690157,0.513867,-0.476303,-0.819975,-0.317452
-0.401769,-0.318112,0.852471,0.098325,0.834547,0.542091
-0.679903,-0.205461,0.688129,0.805642,-0.295098,-0.513671
-0.309715,-0.303959,0.823848,-0.007959,0.849087,-0.528193
-0.006426,-0.456683,0.680320,0.170859,0.965985,-0.194112
0.193719,0.509023,0.520480,-0.314602,0.874641,0.368820
-0.166586,-0.450002,0.887095,-0.548838,-0.366820,-0.751146
0.246337,-0.795434,0.851998,0.775904,0.284449,0.563082
-0.703523,0.270962,0.538293,0.004340,-0.990163,0.139849
-0.070469,-0.027813,0.685600,-0.360429,0.734954,0.574398
-0.222609,-0.260289,0.805563,0.206090,0.960669,0.186125
0.189985,0.326490,0.575946,0.797267,-0.603409,-0.016209
-0.870273,0.143756,0.691658,0.917594,0.397069,0.018910
-0.416821,0.224006,0.524482,-0.681227,-0.726642,-0.088996
0.240403,-0.120525,0.598344,-0.889775,0.305698,0.338894
-0.170099,-0.692950,0.789724,-0.756037,0.652598,0.050236
-0.219639,-0.637519,0.588757,0.971842,0.008920,-0.235464
-0.409896,-0.006079,0.565998,0.936010,0.349194,0.044140
0.016530,-0.587875,0.772912,-0.005889,0.382235,0.924047
-0.412644,-0.035188,0.506086,0.789302,-0.028959,0.613322
-0.556438,-0.312630,0.742817,-0.117464,0.008772,0.993038
-0.548855,0.005586,0.393320,0.779857,-0.491015,-0.388235
-0.349594,-0.178645,0.716168,-0.371895,0.171053,0.912379
-0.066406,-0.761336,0.686128,-0.568263,-0.804501,0.172786
-0.433623,-0.133187,0.751765,-0.064054,-0.223296,0.972644
-0.277754,0.128404,0.769744,0.761541,0.647949,0.014735
0.028397,-0.245339,0.765576,-0.187709,-0.688208,0.700811
0.546548,-0.214034,0.748680,0.112624,0.304558,0.945812
0.041250,-0.490380,0.665398,0.288633,0.947603,0.136896
-0.158239,-0.331571,0.790808,-0.037322,-0.978218,0.204198
-0.312685,0.115146,0.702468,0.787397,-0.379191,0.486024
0.873129,0.005288,0.595871,0.000465,0.860269,0.509840
-0.751635,-0.172463,0.833463,0.879160,0.080706,0.469643
0.201516,0.051440,0.702329,0.808669,-0.007969,-0.588211
0.085628,-0.196187,0.755572,0.255622,-0.635012,0.728984
-0.354093,0.536636,0.679014,0.821358,0.569562,0.031137
-0.713741,0.379926,0.437504,-0.289180,0.145129,-0.946210
-0.466248,-0.403844,0.783999,-0.230668,0.565608,-0.791758
-0.844896,0.150236,0.680848,0.946287,0.323128,-0.011349
-0.531061,-0.487387,0.736787,-0.566026,-0.311711,0.763185
0.540615,-0.015650,0.758934,-0.167533,-0.747807,0.642430
-0.754599,0.673413,0.504057,0.345608,0.838196,-0.421879
-0.957493,0.089128,0.555550,-0.762453,-0.524696,0.378628
0.233041,-0.788954,0.854943,0.807697,0.329644,0.488836
-0.044871,-0.081644,0.244484,-0.304240,0.856316,-0.417326
0.277969,0.037987,0.701801,-0.302958,0.406507,-0.861956
0.079694,-0.055224,0.232869,-0.247892,0.057110,0.967103
0.337727,-0.203568,0.721586,-0.565108,-0.757478,0.326926
0.121873,-0.207054,0.575529,0.508091,-0.781790,0.361453
-0.101223,-0.760539,0.848497,0.676292,0.365409,-0.639613
-0.729450,-0.586780,-0.989941,-0.161439,0.024692,0.986574
-0.099466,0.651678,0.504280,0.656147,0.640256,0.399427
-0.156696,-0.553880,-0.345579,0.927375,0.105616,0.358917
-0.194484,0.129999,0.733257,0.908588,0.301749,0.288817
-0.828530,-0.265875,0.330823,-0.220141,-0.928589,0.298765
-0.168342,-0.471633,-0.028678,0.908526,-0.408033,-0.089938
-0.875871,0.180246,0.682266,0.865151,0.490331,0.105307
-0.692977,0.143458,0.833685,-0.219913,0.698539,-0.680941
0.351786,-0.041966,0.230784,0.159267,0.982700,0.094521
-0.386831,0.244542,0.413661,-0.073391,-0.733669,0.675532
-0.099138,0.049450,0.347552,-0.157103,0.883658,0.440984
0.151755,-0.324592,0.387401,0.655722,0.211867,-0.724667
-0.486240,-0.165685,0.220252,0.043810,0.812711,0.581018
0.042128,-0.836104,0.757934,-0.067550,0.727811,0.682443
-0.715169,-0.059514,0.556994,0.242845,-0.942310,0.230387
-0.154062,0.178846,0.643806,0.984674,0.150960,0.087338
-0.170541,0.075967,0.845218,0.408231,0.887461,0.213916
0.526448,-0.546706,0.710471,0.593292,-0.304266,0.745269
0.261053,-0.820552,0.768882,0.143885,-0.967307,-0.208842
0.079037,-0.346825,0.448147,-0.411230,0.650193,0.638858
0.310372,-0.364470,0.643028,-0.685033,0.705485,0.181716
-0.357063,-0.033794,0.433002,0.865183,0.435411,0.248747
-0.595874,-0.153224,0.808842,0.424416,0.637365,0.643147
-0.581479,0.183434,0.667315,0.664724,0.587509,0.461492
0.212391,-0.580999,0.752793,-0.255354,-0.385596,0.886629
-0.416821,0.214338,0.597927,0.066028,-0.477647,0.876067
-0.900262,-0.385505,0.510143,0.926939,0.372806,0.042415
-0.405504,-0.086432,0.725949,-0.485015,0.324882,-0.811919
-0.126492,-0.435351,0.228978,-0.618938,0.782849,0.063746
0.150434,-0.538133,0.776024,0.747024,-0.568105,-0.345271
-0.310158,-0.114446,0.753877,0.283805,0.947848,-0.145045
0.461963,-0.555078,0.821542,0.527692,-0.673752,0.517300
-0.118031,0.167784,0.208998,0.263586,-0.598221,0.756739
-0.500414,-0.294485,0.338826,0.920961,0.337878,-0.194087
-0.269736,0.142058,0.806064,-0.643118,-0.743107,-0.184910
-0.358049,0.267074,0.767993,0.802242,0.594300,-0.056696
-0.528204,-0.179941,0.788335,0.193867,-0.935231,-0.296239
0.403305,-0.587175,0.531235,-0.504436,-0.712644,-0.487527
-0.380677,-0.029809,0.686295,0.764356,0.598438,0.240065
-0.141209,0.064503,0.624076,0.965191,-0.164212,0.203568
-0.395179,-0.174958,0.420163,0.054320,0.877605,-0.476297
0.467789,-0.489881,0.696882,0.736292,-0.259373,-0.624980
0.372329,-0.597148,0.753877,0.458653,0.769969,0.443605
0.683751,-0.476021,0.715084,0.927085,-0.316300,-0.201166
-0.533475,0.350817,0.644529,0.689711,0.688082,-0.225481
-0.414844,-0.564351,-0.283443,-0.821495,0.473134,-0.318262
-0.140109,-0.292489,-0.114683,-0.797011,0.600963,0.060144
-0.140002,0.029511,0.153476,-0.675433,0.645580,-0.356394
-0.448567,-0.658858,0.772273,0.971754,0.216850,-0.093118
-0.241724,-0.559167,0.631051,0.920385,-0.187772,-0.342978
0.854235,-0.044662,0.542656,-0.535494,0.816054,-0.217489
0.307080,-0.408335,0.630912,0.265007,-0.655321,-0.707337
-0.505798,-0.499945,-0.997388,0.164109,0.120446,0.979061
-0.504806,-0.338647,0.799561,-0.378438,-0.587565,0.715228
0.116495,0.278440,0.613544,0.600994,0.606894,-0.520082
0.527105,-0.754557,0.612933,0.692358,-0.463487,-0.553011
0.020157,-0.368955,0.776691,-0.607298,0.168950,-0.776302
0.222274,-0.406637,0.788418,-0.576494,0.462309,0.673740
-0.331686,0.136777,0.717029,0.096996,0.757312,-0.645810
-0.198332,-0.478911,-0.341188,0.719920,0.691567,-0.058739
0.118252,0.224408,0.781082,-0.052743,0.977004,0.206595
-0.597959,0.115840,0.734508,-0.516123,-0.203756,-0.831926
-0.464162,-0.474828,-0.709276,0.935060,0.341165,-0.096273
-0.099466,-0.245735,0.247096,0.559357,0.824005,0.090202
-0.585764,0.266873,0.651698,0.237194,0.922568,0.304316
-0.178889,0.252616,0.723559,-0.209319,0.154485,0.965567
-0.412208,0.353409,0.677958,0.906276,-0.413686,-0.086766
-0.148463,0.023128,0.619408,0.376550,0.889703,0.258144
0.630141,-0.354997,0.590591,-0.634632,0.724033,-0.270218
-0.341683,-0.398465,0.547074,0.016019,-0.709836,0.704185
-0.188557,0.242650,0.726088,0.329471,0.392638,-0.858653
-0.325538,-0.653473,0.494053,0.890409,0.313835,-0.329665
-0.372987,-0.433951,-0.484855,0.835786,0.540150,-0.098490
0.121216,-0.348620,0.711110,-0.491013,0.852534,0.179142
0.201295,-0.220118,0.590257,-0.586464,0.630062,0.509000
0.221288,0.046755,0.724921,-0.596195,0.729286,-0.335699
0.515788,-0.270560,0.763630,-0.210737,-0.975752,-0.059147
0.355521,-0.131094,0.716195,0.774989,-0.607662,0.173607
-0.419014,-0.597647,-0.284500,-0.821495,0.473134,-0.318262
-0.894657,0.129700,0.622603,0.872850,-0.082252,-0.481007
0.143844,-0.690456,0.760602,0.931895,-0.313103,-0.183132
-0.630034,-0.569037,0.328989,0.338581,0.938755,-0.064049
-0.376178,0.390190,0.710971,-0.529076,0.677077,0.511512
-0.137696,0.231783,0.730812,0.253889,0.329053,-0.909541
-0.398142,-0.058717,0.551993,0.986977,0.158200,0.029123
-0.204373,0.409734,0.682710,0.269023,0.864446,-0.424689
0.039272,-0.127704,0.218891,0.313181,0.557599,-0.768766
-0.485476,0.177654,0.776302,0.308840,0.567278,-0.763422
-0.355193,-0.454487,0.000473,-0.272282,-0.958964,0.079061
-0.616195,0.029413,0.771606,0.944739,0.267556,-0.189426
-0.107485,-0.311431,0.837826,-0.285620,-0.957414,-0.042189
-0.158346,-0.482002,0.394181,-0.627000,0.776907,0.057328
0.179767,-0.823941,0.784194,-0.630316,0.453250,0.630290
0.290165,0.044162,0.722837,-0.045406,0.847668,-0.528581
0.054210,-0.306247,0.305730,0.809494,-0.583646,0.063854
-0.554017,0.239060,0.533013,-0.184103,0.830067,0.526398
-0.050040,0.264579,0.196493,-0.564204,0.442890,-0.696794
-0.550397,-0.446114,0.715806,-0.642370,0.751340,0.151160
-0.068384,-0.584090,-0.385289,-0.627265,-0.777854,0.038491
-0.197232,-0.343235,0.660924,-0.538179,-0.462673,-0.704483
-0.729228,-0.197289,0.337270,0.595290,0.301037,-0.744987
-0.148021,-0.292988,-0.141166,0.889018,-0.456450,-0.036053
0.113526,-0.460073,0.867143,0.892603,-0.367401,-0.261298
-0.439778,-0.178542,0.778775,0.287159,0.882199,0.373181
-0.697040,-0.217721,0.332296,0.564137,0.553843,-0.612379
0.494809,-0.373238,0.665175,0.957714,0.213529,-0.192845
0.544571,-0.500548,0.737981,-0.623065,0.726237,-0.290466
-0.399570,-0.297375,0.750570,-0.486312,0.760697,0.429931
-0.078595,-0.751168,0.565220,0.062979,0.913810,0.401230
0.147799,0.103780,0.796615,-0.472859,0.333786,-0.815470
-0.260282,-0.458977,-0.163175,0.451767,-0.881281,-0.138743
-0.884439,-0.605423,0.926194,-0.526099,-0.843118,0.111227
-0.189985,0.393385,0.746568,0.208266,-0.923502,-0.322134
-0.809087,0.132092,0.664620,-0.146530,0.988527,-0.036657
-0.310708,-0.413519,-0.209637,0.719720,-0.680425,-0.137931
0.124729,-0.355696,0.681876,0.841578,0.294141,0.453020
0.494259,-0.804105,0.477241,-0.972480,0.187351,0.138498
0.551711,-0.748479,0.487745,0.929361,0.286791,-0.232462
0.127806,0.186622,0.836659,-0.047499,0.758916,0.649454
0.062778,-0.448110,0.767743,-0.185992,0.981134,-0.052746
-0.499207,-0.277539,0.721697,0.651757,0.634854,-0.414938
-0.690999,0.205363,0.599872,0.616616,0.369905,0.694950
0.183722,0.090619,0.736675,0.866433,0.058869,0.495811
0.124729,0.020438,0.743651,-0.609725,-0.449399,0.652898
-0.139231,-0.308443,-0.095315,0.895608,-0.440690,-0.060648
0.255562,-0.023627,0.652948,0.934283,-0.173951,0.311217
-0.347288,-0.534044,-0.284972,-0.827724,0.517617,-0.216668
-0.020815,-0.353305,0.396015,0.792543,-0.460882,-0.399327
-0.288187,-0.864720,0.864364,0.902498,0.019751,0.430240
0.247429,-0.521479,0.631607,0.446881,0.449689,0.773354
0.160759,0.370355,0.581143,0.547709,-0.836198,0.028069
-0.380570,-0.609208,-0.979464,-0.200133,0.082511,0.976288
0.185150,-0.102977,0.699522,0.933866,0.077034,0.349227
-0.230514,-0.226495,-0.274523,-0.080117,-0.751423,0.654939
0.208107,0.351510,0.595593,0.757180,-0.651196,0.051213
-0.054431,0.390294,0.684766,-0.535000,-0.205272,0.819535
-0.210856,-0.085733,0.669983,0.840808,-0.422894,0.337940
-0.554346,-0.491475,0.692297,-0.656431,-0.286631,-0.697811
-0.184708,-0.455588,0.174790,0.932493,-0.313281,0.179754
-0.085956,-0.332769,0.801562,-0.479314,-0.832587,-0.277591
-0.263360,-0.174556,0.462513,0.531821,0.754210,-0.385141
0.040372,0.456884,0.443200,0.864188,-0.416984,0.281609
0.264895,-0.663543,0.762519,0.944158,0.048392,-0.325921
0.584007,-0.014056,0.316095,0.275878,0.879995,-0.386653
-0.516230,0.345827,0.682988,-0.714117,-0.663747,-0.222432
0.257319,0.401958,0.667676,0.515845,0.596347,0.615040
-0.339377,0.527265,0.706775,-0.339241,0.698237,0.630382
0.011146,-0.478217,0.747263,0.775635,0.118215,-0.620013
-0.385839,0.210748,0.700911,-0.159986,0.882492,-0.442280
-0.402976,-0.636126,0.731618,-0.462375,-0.885368,0.048295
-0.043663,0.204566,0.740899,-0.601805,0.606091,0.520082
0.100673,-0.882463,0.786362,0.409399,0.660504,0.629387
-0.455265,-0.202570,0.079642,0.094619,-0.991026,-0.094419
0.369916,-0.753061,0.622575,0.876259,0.320264,-0.360002
-0.395179,-0.520883,-0.280359,0.859495,-0.424749,0.284354
-0.572911,-0.021035,0.791474,-0.295765,-0.792387,0.533522
-0.701652,0.073770,0.688962,-0.102230,-0.111457,-0.988497
-0.536666,0.230785,0.664925,0.019808,0.959018,0.282651
0.493274,0.153625,0.681404,-0.075087,-0.918230,-0.388865
0.205144,-0.816664,0.564081,0.113520,0.753972,0.647024
-0.139016,-0.231180,0.115545,-0.531514,-0.773200,0.345911
-0.420884,0.446218,0.681293,0.997922,0.020568,-0.061067
0.050583,0.321902,0.726477,0.264428,0.844427,-0.465856
-0.446147,0.193103,0.715695,-0.534070,0.523516,0.663852
0.241938,-0.143750,0.828017,0.475270,0.843132,-0.251490
-0.422969,0.472534,0.646585,-0.612910,-0.124891,0.780220
-0.368374,-0.773901,0.521897,0.458208,0.820112,-0.342728
-0.325095,-0.773000,0.833685,0.266664,0.722233,-0.638177
-0.608727,0.017645,0.756628,0.776855,0.628307,0.041541
-0.011261,-0.106670,0.778108,0.970705,0.239068,0.024039
-0.273799,0.197489,0.760990,0.988941,-0.096565,-0.112568
-0.233591,0.396671,0.779275,-0.016038,0.995655,-0.091730
-0.517001,0.099892,0.716112,-0.248919,-0.261596,0.932527
0.392651,-0.561656,0.753210,0.161463,0.066907,-0.984608
-0.538423,-0.442725,0.766215,-0.672288,-0.336332,0.659477
-0.280939,-0.301762,-0.290363,0.382482,0.468891,-0.796147
-0.303896,-0.679491,0.527872,-0.462646,-0.470701,0.751265
0.189649,-0.425177,0.758017,-0.648210,-0.473380,-0.596436
-0.658482,-0.518990,0.337604,-0.704166,-0.136333,0.696824
0.297962,-0.825139,0.710165,-0.088249,-0.669261,0.737768
0.044871,-0.528659,0.773106,0.826350,0.452245,0.335590
-0.170320,0.108167,0.697716,-0.673344,0.509737,0.535515
-0.101665,-0.729836,0.747763,0.398435,-0.879618,0.259850
-0.273685,-0.029608,0.766937,-0.188405,-0.073097,0.979367
-0.295106,0.414718,0.700523,0.241284,-0.379935,0.892990
0.219203,-0.678396,0.677486,0.892805,0.446233,-0.061448
0.071568,0.362877,0.563886,0.117688,0.989345,0.085712
0.766351,-0.385305,0.802784,-0.509753,-0.464005,0.724466
-0.256991,-0.521783,0.548575,-0.116131,0.828023,0.548536
-0.104300,-0.196589,0.758350,0.740029,0.660769,0.125465
-0.744166,0.229391,0.735258,0.619373,0.784599,0.027954
-0.467018,0.257405,0.735480,-0.070961,0.336287,0.939082
-0.726922,-0.591665,-0.991163,-0.101445,0.101600,0.989640
-0.721431,0.071981,0.762436,0.769787,0.590124,-0.243274
-0.205579,0.249026,0.724171,0.345287,-0.222278,-0.911795
0.482620,-0.576910,0.659562,0.691306,0.721006,-0.047390
-0.889166,-0.220915,0.860807,0.907480,-0.380388,0.178283
-0.217004,0.379926,0.745429,0.196033,0.811585,0.550364
0.250178,0.069085,0.699106,0.588974,0.516218,-0.621795
-0.400670,0.414219,0.700884,0.399369,-0.771869,-0.494694
-0.252599,-0.461965,0.880759,0.780908,0.587933,0.210989
-0.000607,-0.710693,0.761630,-0.233893,-0.922603,-0.306753
-0.615861,-0.189014,0.800311,-0.312170,-0.928660,0.200352
-0.069812,0.569335,0.596982,-0.565151,-0.824590,-0.025604
0.649806,-0.643403,0.677847,0.980328,-0.064512,-0.186535
-0.047841,-0.281628,0.257211,0.496499,0.856103,0.143442
-0.430552,-0.643202,0.670483,-0.635176,-0.751745,0.177286
-0.486462,0.414517,0.624771,-0.648958,-0.624097,0.435150
-0.693526,-0.261390,0.666231,0.517936,0.804781,0.289946
-0.337291,0.417705,0.704107,-0.328380,-0.442107,-0.834690
-0.286102,0.118633,0.791363,0.881310,-0.465018,0.083971
-0.621358,0.416312,0.640944,-0.364579,0.762003,0.535195
-0.947275,-0.204566,0.483744,0.932799,-0.347594,-0.095205
0.656175,-0.449303,0.708026,0.785479,-0.231099,-0.574122
0.191741,-0.539727,0.631857,0.692080,0.559340,0.456250
-0.382876,-0.518193,0.496499,-0.040964,-0.948476,-0.314190
0.120887,-0.193900,0.720808,0.121243,0.425131,0.896975
0.695061,-0.349612,0.800423,-0.118435,-0.581793,0.804668
-0.716154,-0.221512,0.690380,0.905462,0.290209,0.309704
-0.577524,-0.023827,0.772439,0.794662,0.598571,-0.101117
-0.184708,0.205862,0.845218,0.783268,0.481788,-0.392902
-0.591804,-0.122022,0.710638,0.314329,0.189633,-0.930181
0.393422,-0.608812,0.694909,0.681741,0.474560,0.556796
0.185915,-0.763131,0.518313,0.357665,0.932208,-0.055347
-0.038501,0.068787,0.682126,0.914531,0.404128,-0.017723
0.023671,-0.278732,0.754238,0.346936,-0.208152,0.914499
0.034767,-0.430167,0.630495,0.328714,-0.940972,0.080745
-0.631790,-0.548896,-0.993664,-0.187908,0.246638,0.950716
0.116274,-0.279529,0.495832,0.710050,-0.685855,-0.159472
-0.481849,-0.155317,0.353943,0.107448,0.577617,0.809206
0.700003,-0.043864,0.773662,0.702734,0.479695,0.525412
-0.107378,-0.135876,0.761741,0.615712,0.085876,0.783278
-0.163951,-0.274351,-0.169983,0.603962,0.737599,-0.301955
-0.193391,0.661852,0.483133,0.942455,0.180048,0.281711
-0.156147,-0.784664,0.805313,0.644549,-0.764318,-0.019357
-0.500850,0.756754,0.321736,0.489959,-0.823336,0.286459
-0.621137,-0.354699,0.732590,-0.481885,-0.296656,0.824489
-0.575110,-0.535540,-0.989829,0.276695,0.382690,0.881469
-0.098702,-0.404143,0.155449,0.966647,0.180139,0.182055
0.268851,-0.609511,0.773023,0.800613,0.597092,0.050003
-0.244245,-0.727943,0.604569,0.997849,-0.019704,0.062529
-0.664415,-0.715877,-0.994887,-0.082734,-0.304524,0.948905
-0.477565,0.349119,0.626966,0.785458,0.570163,0.240769
-0.491296,0.186227,0.586034,-0.540457,-0.738840,0.402519
0.156810,-0.496757,0.791836,0.962030,0.179481,0.205635
0.383861,-0.093107,0.708220,0.742654,0.577370,-0.339279
-0.164058,0.380224,0.719419,-0.188849,0.605638,0.773006
0.275442,0.084540,0.739927,-0.408823,0.790721,-0.455657
-0.012360,0.548598,0.486717,-0.585101,0.799327,-0.136869
-0.450653,0.390592,0.441060,0.308584,-0.545019,0.779571
-0.585106,-0.504935,-0.995220,0.068800,0.136638,0.988229
-0.010932,-0.645697,0.743539,0.979725,-0.199882,0.013653
-0.545120,-0.092511,0.743261,-0.644754,-0.679330,0.350433
-0.890481,0.113850,0.609432,0.967203,0.248800,-0.051149
-0.673533,0.151928,0.775024,0.126721,0.802304,0.583309
-0.119681,-0.450502,0.862669,-0.662571,0.744433,0.082580
-0.332786,-0.438040,-0.272717,0.751886,-0.585561,-0.302962
-0.029055,-0.420693,0.515451,-0.728181,0.684266,-0.039158
-0.086177,-0.314923,0.640221,-0.714749,0.688729,-0.121601
-0.844460,0.127407,0.701912,0.951086,0.306500,-0.038633
-0.347502,-0.445116,-0.267660,0.962485,0.230024,-0.143913
-0.292800,-0.893628,0.812788,0.604751,0.549691,-0.576295
0.341133,-0.151228,0.833769,0.711485,0.684173,-0.160298
-0.025213,0.032900,0.725477,-0.765599,0.086993,0.637410
0.210085,0.357790,0.693687,-0.356462,-0.547594,-0.757018
-0.569505,0.192902,0.770967,-0.093381,0.798157,0.595168
-0.844125,-0.180039,0.850609,0.861020,-0.459461,0.218036
-0.305103,-0.033593,0.853526,-0.701434,0.712685,0.008376
-0.079916,-0.479312,0.787112,-0.715028,-0.335144,0.613525
-0.476137,0.276742,0.443144,0.855539,0.097287,0.508516
0.083428,-0.294187,0.684350,-0.135261,0.808858,0.572235
-0.256219,0.048653,0.702940,-0.476444,-0.355310,-0.804212
0.640359,-0.297375,0.749069,-0.476964,0.486661,-0.731893
0.052889,0.461369,0.634497,0.765252,0.635640,-0.101739
0.152633,-0.504734,0.666732,0.435640,0.873298,0.218099
-0.890815,-0.594653,0.896071,0.789113,0.433236,0.435440
-0.216126,-0.001893,0.732813,0.958622,-0.236925,0.157831
-0.651234,-0.625758,0.369727,-0.502377,0.585520,0.636226
0.429888,-0.539623,0.685850,-0.076608,0.970875,0.227008
-0.212063,0.001399,0.703440,0.841553,-0.068794,-0.535776
-0.353215,0.242650,0.750236,-0.484125,0.846109,0.222985
0.299497,-0.792544,0.585561,0.963496,-0.075077,-0.256980
-0.267208,-0.142156,0.685155,0.775036,-0.062620,0.628806
-0.306202,0.059118,0.871422,-0.578792,0.751043,0.317703
-0.158460,-0.185923,0.176986,0.531264,0.845826,-0.048330
-0.359148,-0.540226,-0.292725,0.860848,-0.482302,-0.162250
