0.008493,-0.130408,-0.253557,0.693530,0.573960,0.435414
0.018835,-0.219879,0.523936,0.066858,0.964637,0.254962
-0.818065,0.372857,0.197053,0.828361,0.075344,-0.555104
-0.152152,0.130322,0.486750,-0.241855,-0.958368,0.151777
0.395464,-0.134047,0.575135,-0.487441,-0.138621,-0.862082
-0.027592,-0.217481,0.089598,0.514999,-0.842602,-0.157474
-0.211264,0.119077,0.795019,0.672057,0.731330,-0.116171
-0.036574,-0.184322,0.865329,-0.282660,0.756801,-0.589369
-0.811271,0.244685,0.255527,-0.354592,0.620837,-0.699161
-0.425056,0.684195,0.056598,-0.327043,0.798373,0.505612
0.055072,0.020840,-0.257143,0.983650,0.100799,-0.149242
-0.698034,-0.087820,0.156073,-0.444457,0.380623,-0.810916
-0.374930,-0.140745,0.747697,0.351818,0.556549,0.752647
0.124901,0.084843,-0.053696,-0.259036,0.613617,-0.745905
0.090175,-0.462500,-0.420813,0.105324,-0.751772,0.650957
0.292794,0.850408,0.281851,0.846447,-0.117584,0.519328
-0.031517,-0.030762,-0.495414,0.829962,0.509157,0.227865
-0.457139,-0.134789,-0.115902,-0.323211,0.382167,-0.865727
-0.392215,-0.462666,0.203665,-0.141985,0.431353,0.890940
-0.456611,0.643016,0.533450,-0.442079,-0.157147,0.883103
0.016722,-0.311005,0.664245,0.234422,-0.920254,-0.313336
-0.202882,-0.227404,0.921047,-0.517202,0.701760,0.489933
0.612728,-0.118497,0.562283,-0.697165,0.029085,-0.716320
0.097874,0.373105,0.154477,-0.366956,0.666676,0.648758
-0.449741,-0.244024,0.804368,0.893729,-0.174456,0.413297
-0.026156,-0.231952,-0.184470,-0.611043,-0.791025,0.030105
-0.715999,0.144792,0.100625,-0.252708,0.250515,-0.934548
0.082854,-0.430415,-0.981054,-0.186820,0.008568,0.982357
0.343374,0.238649,0.347746,-0.375104,-0.040305,-0.926106
-0.704599,0.083520,0.769689,0.435772,0.897877,-0.062604
-0.317403,-0.038288,0.148714,-0.326795,0.736228,-0.592599
0.056882,-0.218804,-0.333050,0.873488,-0.235149,0.426289
-0.677951,0.151989,0.213449,0.269547,0.944640,-0.187082
-0.026308,-0.096007,-0.224476,0.907867,0.317521,0.273784
0.797833,0.076656,0.555588,0.173245,0.922206,-0.345721
0.072510,0.182005,0.163556,0.921664,-0.266513,0.281969
-0.811271,0.413295,0.342647,-0.190872,0.890483,-0.413047
-0.844186,0.641032,0.432525,-0.464428,0.333074,-0.820590
-0.347602,0.134375,0.274597,-0.292493,-0.821257,0.489882
0.021703,-0.358059,0.028284,0.525618,0.791254,0.312478
-0.461820,0.205161,0.556894,0.454474,-0.757126,0.469269
-0.156910,-0.138347,0.567444,0.919090,-0.271847,-0.285259
0.048957,0.037954,-0.990755,0.000479,0.245160,0.969483
-0.138488,0.561479,0.455409,-0.260675,0.950307,-0.170190
-0.225983,0.149754,0.910724,-0.192455,0.852438,-0.486117
-0.086021,-0.004548,0.938106,0.945942,-0.318388,-0.061829
0.130338,0.294632,0.275612,0.814575,-0.407070,-0.413233
-0.136452,-0.011084,0.947744,0.938915,-0.340213,-0.051911
-0.211264,-0.130570,0.851815,-0.072417,-0.372325,0.925273
-0.064206,-0.356323,-0.267487,0.915433,-0.181665,0.359138
-0.488167,0.284376,0.578658,-0.184984,-0.132461,0.973774
-0.846752,0.143884,0.228725,0.000837,-0.942943,0.332954
-0.415090,-0.275034,0.202877,0.284896,-0.750483,-0.596330
0.198883,-0.407178,-0.421995,-0.263381,0.149366,0.953058
-0.303212,0.200608,0.524869,0.521921,-0.115512,0.845137
0.505681,-0.020759,0.563299,0.374164,-0.923001,-0.089834
-0.606537,0.392294,0.013650,0.789571,-0.116726,0.602455
-0.477219,0.678240,0.318292,0.753073,0.571580,0.325848
0.340957,-0.009014,-0.977634,-0.235710,0.061519,0.969874
0.403013,-0.093195,0.578617,0.118045,-0.404388,0.906938
-0.618086,0.365171,0.318520,0.968669,0.233136,-0.085600
-0.478730,0.177124,0.748609,0.032800,0.188603,0.981506
-0.207412,-0.435624,0.780592,0.993341,0.087506,-0.074937
-0.059751,-0.247749,0.097682,-0.105705,0.991200,-0.079677
0.868947,0.031918,0.554904,-0.500775,0.407199,-0.763815
-0.489148,0.297029,0.538570,-0.081283,-0.959832,-0.268543
0.335825,-0.278178,-0.973053,-0.110924,-0.025213,0.993509
-0.194805,-0.176135,0.814421,0.983049,0.149528,0.106095
-0.367758,0.271809,0.690072,0.079254,0.616027,0.783728
-0.302532,0.220459,0.799269,0.335539,0.942019,-0.003830
-0.305098,-0.178946,0.742142,-0.206795,0.742817,0.636756
-0.037556,0.153559,-0.126825,0.729522,0.386829,0.564057
-0.046617,-0.174646,-0.334708,0.854462,-0.476969,0.205902
-0.642320,0.081532,0.802357,0.528387,0.753486,0.391236
0.265088,-0.328205,0.705204,0.524196,0.819003,0.233351
-0.048729,-0.333747,-0.392042,-0.429537,0.883337,0.187655
-0.037857,-0.170760,-0.012530,0.789069,0.608454,0.084576
0.097347,0.182913,-0.155886,-0.581102,0.333597,0.742316
0.075380,-0.155134,-0.640864,0.909518,0.406111,-0.088608
0.377798,0.018437,-0.976722,-0.194709,0.052179,0.979472
-0.663232,-0.108660,0.804679,0.162151,0.064665,0.984645
-0.335523,0.188122,0.909169,0.397404,0.395292,-0.828139
-0.307363,0.108907,0.607118,-0.638590,0.666409,0.384841
-0.235044,0.271809,0.450600,0.751268,0.391167,0.531587
-0.818290,0.750762,0.439137,-0.463916,0.313019,-0.828735
0.750123,-0.365751,0.191394,0.067757,0.952615,0.296537
-0.278450,0.491107,0.542073,0.377324,0.652844,-0.656827
0.102934,0.028940,0.654151,0.190861,-0.787409,0.586139
0.311743,0.323491,0.073948,-0.138969,-0.168216,0.975905
-0.762050,0.607373,0.405951,0.505465,-0.559897,0.656522
0.119240,-0.157860,-0.579736,-0.254702,-0.935210,-0.245986
0.466426,0.044238,0.565828,-0.686773,0.134530,-0.714314
0.523346,0.048705,0.602143,0.893225,0.449592,-0.004043
-0.135922,-0.215331,0.868749,0.988093,-0.101386,0.115728
-0.222813,0.398492,0.256853,-0.473529,0.817499,-0.327820
-0.427924,-0.632765,0.378611,0.733315,-0.401824,-0.548440
0.361114,0.536753,0.407962,-0.311005,-0.295286,0.903373
0.339071,-0.212025,-0.974795,0.211827,0.053344,-0.975850
0.678633,0.096915,0.573995,0.119125,0.448299,0.885910
0.367532,0.713302,0.415901,-0.584094,-0.102787,0.805152
-0.164609,-0.211031,0.372517,0.842316,0.444234,-0.305223
-0.340354,-0.043002,0.109911,-0.162848,-0.579079,0.798841
-0.610613,0.269659,0.475639,0.628095,0.539225,-0.561011
0.074021,0.278092,0.164945,0.840155,0.449902,0.302867
-0.171479,0.318530,-0.086758,0.778816,-0.382250,0.497323
0.076209,-0.182833,-0.430949,0.631206,-0.257403,-0.731658
-0.182802,-0.591747,0.225160,0.432375,-0.731589,-0.527095
-0.237233,-0.162079,0.747572,0.895321,0.409730,-0.174705
-0.820028,0.283801,0.064744,0.331369,0.903303,0.272467
0.014607,-0.041266,0.528393,-0.031319,0.339206,-0.940191
-0.474427,-0.084676,0.137003,-0.481598,-0.118512,-0.868342
-0.503038,-0.095426,0.287718,-0.314168,-0.848044,-0.426756
-0.291736,0.230876,0.285230,0.385692,0.749014,0.538721
-0.353414,-0.116513,0.703027,0.658875,0.748446,-0.075585
0.292492,0.505415,0.397017,-0.646620,-0.182932,0.740552
-0.288112,0.495079,0.517697,0.007935,-0.977151,0.212397
-0.028725,0.312741,0.495455,-0.036168,-0.686932,0.725821
0.048805,-0.642435,-0.300838,0.975899,0.201904,0.082798
0.351753,-0.420821,0.819333,0.854559,-0.316654,-0.411654
-0.666326,0.539978,0.557288,0.536755,-0.444107,0.717400
-0.144981,-0.092534,0.921958,0.944521,0.220103,-0.243791
0.062923,-0.166132,-0.668722,-0.650716,0.737821,-0.179413
-0.024647,-0.189530,0.536311,0.053354,0.751821,0.657205
0.085042,-0.138761,-0.503830,0.477643,0.873500,0.094106
-0.174951,-0.275695,0.720875,0.686064,0.642069,0.342144
-0.487637,0.125608,0.460922,0.523724,0.565631,-0.637005
-0.385951,-0.124786,0.436235,0.028070,0.913650,0.405531
-0.007359,-0.694618,0.726222,0.891425,-0.014415,-0.452939
-0.488393,-0.549820,0.574243,-0.696869,0.425498,0.577343
-0.062091,-0.163729,-0.991439,-0.146208,-0.015838,0.989127
0.446344,-0.034235,0.558821,0.236232,-0.968810,0.074846
-0.003735,-0.401722,-0.988351,-0.211580,0.036408,0.976682
-0.227644,-0.242207,0.795351,-0.708557,0.598818,-0.373315
-0.505830,0.482592,0.084954,0.203832,-0.280997,0.937813
-0.063828,-0.527083,-0.280235,0.822617,0.432583,0.369016
-0.154493,-0.149759,0.863173,0.989540,0.109309,-0.094144
-0.154871,-0.489128,-0.418181,-0.101025,-0.664284,0.740622
-0.183406,0.155628,0.819416,0.789606,0.550385,-0.271291
-0.042087,-0.378732,-0.401868,-0.936062,-0.034443,0.350146
-0.019137,0.332172,0.815436,-0.310210,0.599562,-0.737763
0.179407,-0.393949,-0.975520,-0.223299,0.158157,0.961834
-0.111389,-0.247335,0.044721,0.933919,0.357469,0.003307
-0.868871,0.365085,0.279344,0.306603,-0.700076,0.644893
-0.231722,0.238235,0.616529,0.797260,0.556245,-0.234453
-0.081040,-0.019351,0.350628,0.742391,-0.149525,-0.653069
-0.592721,-0.051188,0.152549,0.033539,0.224040,0.974003
-0.631448,-0.750848,0.352763,-0.120010,0.302161,0.945672
-0.205223,-0.430001,0.467555,0.800239,0.599014,-0.028285
-0.157135,-0.105682,0.557951,0.957691,-0.282423,0.055363
-0.438040,-0.160671,0.034979,-0.428569,0.830647,-0.355465
-0.704675,0.651449,0.402386,0.129043,-0.409534,0.903122
-0.115010,-0.249399,0.871610,0.866695,0.443339,0.228670
0.062244,0.393283,0.415611,0.126962,0.372209,-0.919424
-0.516324,-0.024231,0.628054,-0.080332,0.911764,0.402781
0.034386,-0.237741,-0.401847,0.477538,0.427191,0.767766
0.053259,0.325889,0.416585,-0.189980,-0.638334,0.745947
-0.111992,-0.305549,0.336657,0.923005,0.177509,0.341399
-0.600045,-0.352270,0.519624,-0.701374,0.143284,0.698243
0.192919,-0.529647,0.137542,0.832985,0.541964,0.111407
-0.317253,-0.476309,0.218299,-0.038254,0.579102,0.814357
0.316574,0.304721,0.349964,0.257672,-0.770922,0.582481
-0.218585,-0.000495,0.672474,0.253793,-0.147118,-0.956005
-0.270373,-0.145459,0.658503,0.492942,-0.839100,0.230041
-0.378325,0.421562,0.554137,0.370015,0.210036,-0.904972
-0.648359,-0.093690,0.069222,0.216143,0.268939,0.938592
-0.536633,0.250227,0.471950,-0.413077,-0.622264,0.664947
-0.191937,-0.353265,0.579239,-0.767187,0.632527,-0.106459
0.321179,0.088068,0.400085,-0.447418,0.550106,0.705124
-0.186652,0.243030,0.670671,0.381895,0.719411,0.580176
-0.070772,-0.425287,-0.263694,0.900473,0.058945,0.430898
0.213830,-0.109569,-0.977240,0.207700,0.473998,0.855679
-0.153436,-0.262133,0.992248,0.781423,-0.619181,-0.077417
-0.319216,0.231618,0.281686,-0.438773,-0.851737,0.286395
-0.341259,0.364176,0.258491,0.368076,0.760767,0.534560
0.588195,-0.153726,0.574886,0.284756,-0.377378,0.881192
-0.070397,-0.126936,0.310187,0.208133,-0.970677,-0.120279
0.031819,0.172824,0.631329,0.136668,0.710040,0.690772
-0.516324,-0.122383,0.777898,0.752611,0.395180,0.526696
-0.363832,-0.134128,0.804658,-0.236636,0.963154,0.127817
-0.904124,0.009509,0.097329,-0.172771,-0.346315,-0.922071
0.095460,-0.036218,-0.985117,0.003801,0.178247,0.983978
0.416223,-0.158854,0.578741,0.150586,-0.592045,0.791711
-0.121578,-0.597617,0.714677,-0.296473,0.615876,0.729932
-0.208243,0.181758,0.734928,0.056957,0.369725,0.927394
-0.229759,0.327377,0.526403,0.916199,-0.143634,-0.374098
0.032651,0.259569,0.169256,0.796814,0.604223,0.001432
0.141435,0.277431,0.400624,-0.394242,0.220048,-0.892273
0.313706,-0.261225,0.794584,0.061315,-0.921334,0.383906
-0.536103,0.293476,0.575342,0.371176,-0.052109,0.927099
0.395388,0.788141,0.136796,0.945041,-0.273400,-0.179305
0.042163,-0.272142,-0.101392,-0.785680,0.580729,-0.213215
-0.444456,-0.228065,0.792781,-0.710635,-0.198908,-0.674858
0.042841,-0.148684,0.277706,0.183249,-0.011354,0.983001
-0.157361,-0.004633,0.772550,0.618184,-0.313043,0.721008
-0.151549,0.364176,0.525346,0.817895,-0.535526,0.210379
-0.572415,-0.042093,0.118099,-0.017667,-0.956941,0.289745
-0.136074,0.172249,0.776177,-0.726336,0.674782,0.130785
-0.243423,-0.005623,0.900795,0.153168,0.233211,0.960288
0.495037,-0.017534,0.583529,-0.366555,0.926783,-0.081917
-0.190654,-0.140578,0.783660,0.848591,-0.330299,-0.413275
-0.986787,0.031837,0.102263,0.166741,0.460931,0.871631
0.340278,-0.225420,-0.971789,0.213429,0.010258,-0.976905
-0.571358,0.481931,0.352887,0.364550,-0.690682,0.624549
-0.140905,-0.014884,0.950315,0.996547,-0.071977,-0.041399
-0.110331,-0.128672,0.021506,-0.214706,-0.925745,0.311284
-0.354395,0.256758,0.291428,-0.252697,-0.965527,-0.062467
0.473598,-0.415778,0.823956,-0.072792,0.563892,0.822634
0.201828,0.345734,0.368143,0.011997,-0.415240,0.909633
-0.049257,0.080709,0.871859,-0.148924,-0.880667,0.449719
-0.262446,0.150001,0.920694,-0.466102,0.882348,-0.064890
-0.091684,0.133467,0.879300,0.482212,0.744835,-0.461186
0.095686,0.157778,0.485195,-0.015488,-0.440417,0.897660
-0.213075,-0.149345,0.468157,-0.505289,0.418870,0.754474
0.026461,0.095093,0.892815,0.221498,0.477367,-0.850329
-0.053788,-0.180849,-0.283344,0.960325,0.276911,-0.033108
-0.267277,0.099726,0.058402,-0.359851,0.394568,-0.845472
-0.090855,-0.463655,-0.263092,0.995752,0.011355,0.091373
0.453515,-0.075086,0.572253,-0.579615,0.541579,-0.608883
-0.181973,0.289090,0.008095,-0.769193,-0.475576,-0.426814
0.092214,0.155376,0.393286,-0.023862,0.680064,0.732764
-0.030008,-0.276442,-0.101537,-0.564955,-0.825095,-0.006600
0.141737,-0.489623,-0.540684,0.775106,0.425050,-0.467486
-0.049409,-0.139089,0.032139,0.279761,0.642589,0.713312
-0.537312,-0.025387,0.747510,0.735057,0.664339,-0.135443
0.176462,0.742823,0.321836,0.604165,0.591164,-0.534331
-0.248782,0.223765,0.810959,0.973101,0.087048,-0.213302
-0.488618,0.165137,0.494999,-0.544441,0.214560,0.810893
-0.010228,0.525342,0.452818,0.380332,-0.609537,-0.695566
-0.073567,-0.491193,0.733560,0.849807,-0.484900,-0.206638
-0.045709,-0.213181,0.109020,0.008488,-0.548827,0.835893
-0.060430,-0.309930,0.318084,0.981548,-0.007721,0.191059
-0.015135,0.750681,-0.043125,0.827689,-0.427136,-0.363987
0.051524,0.685518,0.149709,0.437052,0.112993,-0.892311
0.266977,0.516247,0.382590,-0.578199,-0.454244,0.677752
0.615748,0.007192,0.563713,-0.022141,0.130910,-0.991147
-0.082172,-0.172991,0.011763,0.969126,0.124517,0.212816
-0.318009,0.055155,0.479246,0.802321,0.590909,0.084301
-0.138111,0.422971,0.511727,0.814527,0.080296,0.574542
0.245008,0.290665,0.087919,-0.100518,0.004695,0.994924
0.195335,-0.260649,-0.977427,0.034746,-0.241567,0.969762
0.049183,-0.386586,0.176117,0.655562,0.439757,0.613883
-0.745819,0.030101,0.159721,0.063019,0.188748,0.980001
0.636358,-0.005542,0.563091,-0.209468,-0.707433,0.675027
0.280263,-0.115110,0.566864,0.932028,-0.133258,0.336996
-0.131393,0.257586,0.660535,0.419382,0.893332,-0.161482
-0.249385,-0.157779,0.682880,-0.122181,0.754043,0.645361
0.297929,0.738523,0.376248,0.903171,0.414705,-0.110913
-0.219417,-0.634582,0.549971,0.919363,-0.265947,-0.289903
0.057412,-0.147276,-0.431944,0.509701,-0.855778,0.088599
-0.126638,-0.468864,-0.347498,0.427588,0.621042,-0.656868
-0.859584,-0.060450,0.113518,-0.186758,0.958411,0.215801
-0.246517,-0.296701,0.880585,0.858781,-0.512248,0.009828
0.697430,0.083273,0.568564,0.758913,0.435651,0.484004
-0.123239,-0.037541,-0.991481,0.205866,0.149380,-0.967112
0.007436,0.148764,0.625048,0.117750,0.599774,0.791458
0.253841,0.062600,0.365593,-0.178569,0.783923,0.594625
-0.028046,0.619612,0.466249,-0.130615,0.981059,-0.143046
0.519948,-0.116680,0.554033,-0.099586,0.518380,0.849332
0.087834,0.442402,0.270866,0.034898,-0.941763,0.334463
-0.177594,-0.234435,0.889229,-0.751546,-0.633529,-0.183900
-0.172537,-0.103699,0.394758,0.015450,0.352286,0.935765
0.091382,-0.235424,-0.765336,0.988985,-0.139692,0.048937
0.099310,-0.308280,0.745645,-0.021990,0.999633,0.015836
-0.472464,0.703380,0.533699,-0.000089,-0.247340,0.968929
-0.202203,-0.164890,0.108896,0.332594,0.642314,-0.690517
-0.063073,-0.214009,0.111155,-0.331658,-0.940591,-0.072746
-0.407692,-0.177458,0.765627,0.970210,0.170025,0.172582
-0.340805,0.017695,0.469939,-0.041472,-0.169419,0.984671
0.106707,-0.499712,-0.977800,-0.260270,0.205931,0.943320
-0.572339,-0.017534,0.719962,-0.404006,0.805564,-0.433411
0.183104,-0.526089,0.031165,0.724049,0.689260,0.025957
-0.189069,0.023565,0.453170,0.432083,-0.727751,0.532619
-0.449513,-0.072522,0.413102,0.324837,0.922018,-0.210628
-0.244706,0.158853,0.464301,-0.652969,-0.011559,-0.757296
-0.167401,-0.292401,0.995564,0.837296,-0.531354,-0.128836
-0.340052,-0.676922,0.503871,-0.507782,0.685312,-0.522020
-0.225379,-0.213348,0.817240,0.994866,-0.049849,0.088073
-0.134715,0.270239,0.468530,-0.531734,0.696190,0.482264
-0.260559,0.168691,0.137832,-0.676730,-0.083741,-0.731453
0.038917,-0.076823,-0.268689,0.985271,-0.168585,-0.028647
-0.686860,0.196889,0.287158,0.117381,-0.982856,-0.142182
-0.267203,-0.064916,0.672972,0.367288,0.104349,-0.924235
0.254219,-0.863641,-0.565247,-0.616638,-0.258357,0.743646
-0.134185,-0.235838,0.588463,0.842720,-0.352882,-0.406569
0.061036,-0.255521,-0.484428,0.941980,0.300424,0.149732
-0.502660,0.090218,0.742142,0.554781,0.700427,-0.449020
0.656966,-0.192675,0.143097,-0.540481,0.649040,-0.535375
-0.583437,0.041674,0.058650,0.363112,-0.066554,0.929366
-0.034840,0.208714,0.932903,0.753666,-0.515343,0.407932
0.104443,0.446622,0.264481,-0.152851,-0.924307,0.349703
-0.246593,-0.173904,0.836704,0.749530,-0.658158,0.070940
-0.106104,-0.128339,0.817468,0.188488,-0.121821,0.974491
-0.085719,-0.200447,0.974981,0.897041,-0.394211,0.199787
-0.133883,-0.037793,0.089494,0.817015,0.399421,0.415872
-0.153210,-0.026462,0.978899,0.937034,0.346803,0.041173
-0.397802,0.395433,0.760693,-0.097047,-0.569905,0.815960
-0.246139,-0.521375,0.348576,0.606025,-0.696144,-0.384861
-0.386329,-0.094190,0.768011,0.949672,0.265286,0.166575
-0.315138,-0.731164,0.235648,0.482537,-0.441466,-0.756483
-0.225154,-0.561646,0.418367,-0.746619,0.623211,-0.232739
-0.168233,-0.022657,0.325132,0.329019,0.932291,-0.150265
0.553543,0.012815,0.591137,-0.004057,-0.902999,0.429624
0.006756,0.157612,0.216558,-0.686057,0.680534,-0.257294
-0.060582,0.189449,0.929213,0.299461,-0.877566,-0.374434
-0.223492,0.368477,0.674734,0.928443,0.007338,0.371403
-0.024497,-0.223599,-0.132028,-0.537665,-0.669847,0.512076
0.098103,0.158354,0.389182,-0.014641,0.988908,0.147807
-0.286378,-0.159182,0.660473,0.960037,0.262918,-0.095936
0.046163,-0.173738,0.562283,0.073695,0.957022,-0.280496
-0.572867,-0.331597,0.526423,0.296348,-0.252008,-0.921233
-0.448458,0.354087,0.313669,0.528098,0.021510,0.848911
0.346468,-0.486231,0.829449,-0.531412,0.688266,0.493853
-0.716906,0.181838,0.761232,0.104501,0.053019,0.993111
0.248254,-0.843049,-0.555609,-0.818901,-0.311580,0.481995
0.135696,0.409742,0.163991,-0.117394,0.856074,0.503344
-0.316422,0.245760,0.684579,-0.192204,0.656963,0.729011
-0.230966,-0.198711,0.292464,0.738809,-0.490041,0.462625
-0.162722,0.119158,0.837263,0.678272,0.726313,-0.111431
-0.079227,-0.216159,0.061324,0.988233,0.039001,-0.147898
-0.656966,0.156370,0.074404,-0.106754,-0.564956,0.818186
0.118938,-0.182586,-0.564998,0.741152,-0.074032,0.667243
0.001321,0.247169,0.817447,-0.331032,-0.214400,0.918940
0.252558,0.313155,0.331558,-0.082156,-0.706995,0.702430
-0.151851,-0.194492,0.363251,0.948583,0.118851,-0.293369
0.082248,-0.270072,-0.666173,0.857263,0.414393,-0.305581
-0.145736,0.139503,0.734804,0.851473,-0.100032,0.514769
-0.339522,-0.109235,0.879673,-0.302636,-0.260219,0.916896
0.026159,-0.054166,-0.321525,0.911528,-0.296884,0.284564
-0.673876,0.206069,0.311472,-0.024439,-0.840064,0.541937
0.827501,-0.146034,0.133500,0.203280,-0.467770,-0.860156
-0.216019,0.042668,0.735198,-0.401092,-0.733154,0.549190
-0.355679,-0.372610,0.205510,-0.155610,0.198500,0.967669
-0.484619,-0.311257,0.451408,-0.352312,0.899160,-0.259590
-0.522061,0.573638,0.543711,0.810692,-0.508773,-0.289704
-0.175783,0.061111,-0.084560,0.910381,-0.019448,0.413313
0.192995,0.291079,0.357509,-0.067265,-0.723218,0.687336
-0.354319,0.160338,0.548375,0.495217,0.851237,0.173656
-0.062393,-0.442155,-0.264792,0.811853,0.114968,0.572431
-0.215263,0.299426,-0.049654,-0.143474,0.775963,-0.614245
0.220700,0.397916,0.374838,-0.008731,-0.623804,0.781532
0.069190,-0.278097,0.280193,-0.529290,-0.769602,-0.357164
0.246745,-0.114197,0.524869,-0.038309,0.949198,0.312340
-0.407466,0.546100,0.552686,-0.076258,0.345715,0.935236
-0.180992,0.076984,0.868874,0.368274,-0.928403,0.049413
-0.564338,0.232693,0.741623,-0.609808,0.168179,-0.774500
0.044654,-0.139750,-0.300320,0.439590,0.774739,-0.454466
0.129280,0.000328,-0.070217,-0.631835,0.576831,-0.517735
0.243197,0.707266,0.399090,0.012488,-0.036337,0.999262
-0.231722,0.131316,0.579757,-0.616430,-0.263796,0.741907
-0.038235,-0.232946,0.116358,-0.427501,0.800893,-0.419301
-0.638544,0.327711,0.248500,0.120319,-0.859561,0.496667
-0.001773,-0.303071,0.732565,0.892542,-0.371944,-0.255002
-0.396217,0.076656,0.466332,0.438098,0.485593,-0.756485
0.180010,-0.379313,0.021671,0.816523,0.574200,0.059876
-0.203412,0.163315,0.919803,0.092252,0.994192,-0.055420
0.003812,0.050936,0.357136,-0.313814,-0.091724,0.945044
-0.503114,-0.318202,0.510463,0.104931,-0.948045,-0.300333
0.044804,-0.051930,-0.264999,0.979051,-0.186240,0.082306
-0.267654,0.341434,0.466954,0.879094,-0.232096,0.416324
0.111011,0.677826,0.462187,0.985594,-0.131108,0.106845
-0.620427,0.548251,0.373988,0.632679,-0.288880,0.718516
-0.339146,0.657072,0.548292,-0.489628,-0.268892,0.829434
0.236101,-0.020093,0.562822,0.195893,0.947375,-0.253194
-0.257614,0.158273,0.489113,0.831577,0.406429,-0.378543
0.243649,0.175227,0.050028,-0.791583,0.436517,-0.427608
-0.403766,0.300835,0.297937,0.861578,0.315843,0.397399
-0.417506,-0.353098,0.520329,0.845243,0.196531,0.496930
-0.008191,0.678406,-0.051105,0.887837,-0.394704,-0.236546
-0.185143,-0.052430,0.886431,-0.273801,-0.848548,0.452769
0.328729,-0.226662,0.818774,0.245116,0.330482,0.911427
-0.348657,0.322497,0.740027,-0.195929,-0.497072,0.845299
-0.652814,-0.198878,0.713827,-0.600037,0.543886,-0.586637
-0.124599,0.278011,0.275405,0.426052,0.760444,0.490108
-0.135998,-0.334408,0.821738,-0.375885,0.437312,0.816988
-0.058769,-0.366740,0.736897,0.441758,-0.447005,0.777841
0.029707,0.208386,0.799497,-0.724591,0.375546,0.577869
-0.230439,-0.366660,0.139698,-0.707633,0.657544,-0.258634
-0.057034,0.148017,-0.139905,-0.755069,-0.637697,-0.152361
-0.181519,-0.222029,0.473546,-0.583234,0.806747,-0.094855
-0.063073,-0.334575,0.308446,0.915116,-0.351935,-0.196735
-0.291663,0.177291,0.264523,-0.064432,-0.790039,0.609662
-0.101876,0.470767,-0.028988,0.943645,-0.253750,-0.212474
0.126638,-0.192589,0.555256,-0.010044,0.014861,0.999839
-0.661041,0.049613,0.768052,0.158484,0.867577,0.471373
-0.603971,0.521955,0.532455,0.503773,-0.756407,-0.417206
-0.200920,0.275367,-0.076601,0.422961,-0.587791,0.689642
-0.116369,-0.031343,0.820266,0.682313,0.170463,0.710909
-0.186576,0.039363,0.725891,0.985536,0.112540,0.126704
-0.493300,0.513435,0.546426,-0.441976,0.282809,-0.851279
-0.529838,-0.259489,0.688456,-0.366354,0.572586,-0.733437
-0.609028,-0.255355,0.693907,-0.380347,0.426702,-0.820525
-0.206658,-0.140992,0.467162,0.813804,0.405507,-0.416278
-0.113275,0.637640,0.508452,0.448937,0.504273,0.737675
-0.559882,-0.487640,0.543524,0.047961,0.965061,0.257597
-0.031669,-0.005870,-0.985677,-0.284249,0.317328,0.904713
-0.210054,-0.216487,0.464177,-0.491534,0.405103,-0.770899
0.033556,-0.201028,-0.092624,0.744148,0.096878,0.660953
-0.454573,-0.279834,0.487537,0.241779,-0.939214,-0.243762
-0.666704,0.751095,0.418865,0.093363,-0.549630,0.830175
-0.374323,0.293804,0.538715,-0.287198,0.458013,-0.841274
0.133054,-0.143142,-0.758434,0.998405,-0.019970,-0.052810
0.186049,-0.087739,0.519583,0.242181,0.762541,0.599900
-0.623899,-0.068389,0.087483,0.185293,-0.961708,-0.201949
-0.252557,0.413542,0.496243,-0.743158,0.665936,-0.065159
-0.084512,0.078392,0.883632,-0.167388,0.445565,0.879462
-0.286981,-0.134375,0.852664,0.389889,-0.705056,0.592353
0.109426,-0.315224,0.224082,0.660217,0.512528,-0.549025
0.088968,0.067889,0.378569,-0.198537,0.533576,0.822119
-0.453515,0.060530,0.730368,-0.325427,0.945481,-0.012733
-0.562525,-0.716280,0.385347,-0.720934,0.671116,-0.172792
0.023666,0.025140,-0.283820,0.982317,0.153364,-0.107395
0.037860,-0.275861,-0.369283,0.875668,-0.470664,0.108075
0.164006,-0.170346,0.553660,0.204264,0.427745,-0.880517
-0.642698,-0.061853,0.814130,-0.085376,-0.398136,0.913345
-0.144377,0.015464,0.900919,0.993492,-0.113291,-0.011819
-0.032423,-0.189863,-0.225491,0.937188,0.075434,0.340571
-0.128147,-0.328786,0.752381,-0.675350,-0.680387,0.284563
-0.427394,0.442735,0.266948,-0.569493,-0.681909,-0.458996
-0.133203,0.380630,0.254801,-0.130135,0.760567,0.636084
-0.444003,0.405356,0.319763,0.835854,-0.172635,0.521100
0.133282,-0.263869,-0.859691,0.989298,0.087452,0.116801
-0.149888,0.138342,0.822961,-0.030315,-0.999325,-0.020743
-0.775939,0.644585,0.418326,-0.429099,0.461928,-0.776206
0.045257,0.736539,0.368620,0.869513,-0.144686,0.472244
-0.245084,-0.139008,-0.111673,0.266389,-0.836898,0.478162
-0.509908,-0.301582,0.477422,0.589117,-0.808048,0.000252
-0.158571,-0.231290,0.315597,0.440764,0.864454,-0.241757
0.394784,-0.026129,0.575591,-0.283581,-0.145393,0.947862
-0.017777,-0.177458,0.137915,0.972615,0.232420,0.000348
0.075606,-0.274292,0.712500,-0.204303,0.772879,0.600765
0.287585,0.303812,0.091795,0.416683,-0.295173,-0.859795
0.036425,-0.066567,0.529035,-0.100835,0.932528,-0.346732
-0.538065,0.438435,0.540083,-0.032410,0.548189,0.835726
0.278526,0.388488,0.170147,-0.685258,0.654056,0.320363
0.111840,0.257253,0.238903,0.991180,-0.132422,-0.005220
-0.583513,-0.008600,0.414698,0.123711,-0.960011,-0.251148
0.022007,-0.203425,-0.137604,0.693751,0.395826,-0.601690
0.042691,0.157526,0.626955,0.109857,0.655964,0.746754
-0.560184,0.159929,0.467265,0.573536,0.785091,-0.233856
0.057035,0.336558,0.206173,0.788772,0.597044,-0.146207
0.007588,0.170427,0.752589,0.892259,-0.424169,-0.154770
-0.001397,-0.103860,-0.307617,0.819513,0.263338,-0.508971
0.213528,0.575127,0.262429,-0.403895,0.501394,-0.765162
-0.250065,-0.297443,0.195394,0.429249,-0.876111,-0.219487
-0.046617,-0.162493,0.078902,0.900199,-0.021886,-0.434929
-0.608122,-0.340197,0.449356,0.406470,-0.899097,-0.162502
-0.080361,0.081123,0.266948,-0.026425,-0.990186,0.137236
-0.443475,0.606217,0.156384,0.123483,-0.474927,0.871319
-0.379307,-0.590919,0.555360,0.375446,0.914091,0.153227
-0.405275,-0.230135,0.282577,0.294856,-0.254674,0.920978
-0.020118,-0.113207,-0.306518,0.808433,-0.195602,-0.555137
0.140226,-0.235924,0.725062,0.797911,-0.495199,0.343681
-0.533688,0.213923,0.127945,-0.423487,-0.638416,-0.642716
-0.595742,-0.006450,0.637464,-0.474469,0.785560,-0.397208
0.157513,0.470434,0.271653,-0.389514,0.817623,-0.423994
-0.133130,-0.127844,0.614332,0.976897,-0.052154,-0.207251
0.202431,-0.388902,-0.971229,-0.208602,0.139710,0.967970
0.432832,-0.207806,0.104377,-0.050574,0.751190,0.658146
0.055450,-0.529066,-0.296879,0.941437,0.215328,0.259479
-0.624429,0.453733,0.349778,0.979168,-0.197740,-0.046148
0.636886,0.014389,0.563693,-0.412556,-0.581236,0.701400
0.477749,0.628293,0.426141,-0.202852,-0.232931,0.951102
0.023666,0.614737,0.140755,0.373783,0.186587,-0.908555
-0.097874,-0.389150,0.339766,-0.698476,0.713373,-0.056830
0.099310,-0.139089,-0.100418,-0.493662,0.812815,0.309241
-0.494129,-0.605228,0.588028,0.731655,-0.396225,-0.554696
-0.097119,-0.174318,0.509406,-0.242944,0.937826,0.247912
-0.110179,-0.070867,-0.989532,0.302033,0.196227,-0.932883
-0.020646,-0.427437,0.726989,0.926456,-0.316800,0.203265
-0.473897,0.321508,0.144817,-0.662260,-0.018560,0.749044
0.010002,-0.321427,-0.984205,-0.121515,0.112798,0.986160
-0.162192,-0.206897,0.346378,-0.007301,-0.982387,0.186712
-0.328049,0.322416,0.605978,0.136072,0.989828,0.041541
-0.042463,-0.148270,0.178003,-0.444767,0.878956,-0.172102
-0.378401,-0.073350,0.707318,-0.478593,-0.719345,-0.503479
-0.261086,-0.460183,0.588857,0.835199,-0.403266,0.373923
-0.183406,-0.338461,0.568854,0.969940,-0.012904,-0.243002
-0.037784,-0.163482,-0.096500,0.891104,-0.450143,-0.057487
-0.388593,-0.747951,0.364930,0.164119,-0.311610,-0.935929
-0.134111,-0.393616,-0.516349,0.417953,0.471085,0.776784
-0.182275,-0.334903,0.221180,0.683106,-0.692561,0.231790
-0.045937,0.140245,-0.129624,0.729522,0.386829,0.564057
-0.581020,0.215498,0.469462,0.381836,0.899390,-0.212837
-0.231646,0.065658,0.897562,-0.159197,0.377823,0.912089
0.152758,-0.339864,0.494854,0.889175,0.401603,-0.219278
-0.211566,0.008020,0.638086,0.184298,-0.756482,0.627510
-0.201373,-0.074092,0.906848,-0.176154,0.746233,0.641955
-0.008115,-0.234601,-0.048804,0.794695,0.551358,0.253897
-0.312950,0.340031,0.531979,0.151615,-0.986098,-0.068004
-0.047974,-0.258333,0.928529,0.139004,0.583281,-0.800289
0.025479,0.089471,0.885601,0.263273,0.844096,-0.467108
-0.319064,0.058627,0.486004,0.884305,-0.360914,-0.296218
-0.094174,-0.053172,0.204950,0.723750,-0.311040,0.615987
-0.168383,-0.120566,0.394447,0.902243,0.242719,-0.356435
-0.144981,0.310677,0.534445,-0.795240,0.501817,-0.340254
0.471937,-0.297029,0.151450,-0.111235,0.845303,0.522579
-0.593325,-0.278345,0.814213,0.134848,0.444947,0.885346
-0.220322,0.172824,0.842611,0.005450,0.953159,0.302422
-0.436379,-0.405856,0.535938,0.785372,-0.616110,-0.060001
0.291285,-0.252791,0.563133,0.250292,0.127295,-0.959766
0.159778,-0.060530,0.390384,0.587285,0.151994,0.794981
-0.530064,-0.225087,0.524827,0.040075,0.500721,-0.864681
-0.340354,0.336806,0.083089,0.826012,0.284821,0.486396
-0.428150,-0.453405,0.670837,-0.000948,0.890392,0.455193
-0.119539,-0.160010,0.553183,0.927066,-0.113668,0.357250
0.266825,0.092615,-0.981573,0.141296,-0.192172,-0.971136
0.056581,-0.462252,-0.407008,-0.061122,-0.354564,0.933032
-0.615974,0.175555,0.713205,0.704783,0.671706,0.228237
-0.533234,0.088315,0.107528,0.901147,-0.232768,-0.365723
0.170574,0.804842,0.388415,-0.006534,-0.608370,0.793627
-0.297777,0.063836,0.066817,0.391246,-0.446179,0.804892
-0.095232,-0.174318,0.187994,0.944481,-0.327058,-0.031442
0.099764,-0.338295,0.575487,0.421282,0.721933,0.548939
-0.185594,-0.147609,0.109207,0.235099,0.772484,-0.589912
0.090327,-0.114449,-0.767409,0.956872,0.096956,-0.273854
0.163402,0.102290,0.389493,0.717237,-0.127676,0.685033
0.161967,0.101296,0.141936,-0.499439,0.664223,-0.556208
0.367834,-0.060778,0.551463,0.027827,0.780772,0.624196
-0.044955,-0.175968,0.007348,0.995752,-0.091946,-0.004940
-0.055825,-0.183741,-0.128193,-0.321703,-0.867143,0.380224
-0.214208,-0.040518,0.582721,0.900269,0.373784,0.223163
-0.479484,-0.038782,0.442205,0.637115,0.481237,0.602076
-0.112370,0.352765,0.125001,-0.158418,-0.695132,0.701210
0.073417,-0.267428,-0.353592,0.988945,-0.139469,0.050365
-0.162948,-0.248572,0.937152,0.558150,-0.829613,0.014529
-0.363680,-0.084429,0.048867,-0.262089,0.685805,-0.678955
-0.158117,-0.113788,0.530756,0.899044,0.395445,0.187999
0.131319,-0.188208,-0.672930,0.898799,0.134397,-0.417251
0.034010,0.318283,0.364681,0.927253,-0.365455,-0.081513
0.309554,0.104935,0.169982,-0.040725,-0.026342,0.998823
-0.336654,0.706191,0.565081,-0.557969,-0.243539,0.793322
-0.002528,-0.305468,0.400251,-0.470575,0.267958,0.840689
0.150040,-0.249647,-0.890825,0.983986,0.158068,0.082374
0.255350,-0.060616,0.516059,-0.383957,0.783130,0.489167
0.025253,0.825601,0.390799,0.342740,0.478188,-0.808619
-0.131468,-0.042916,0.592111,0.846628,0.507575,-0.159966
-0.249159,-0.122469,0.665509,0.828334,-0.329239,0.453282
-0.202053,-0.441080,0.714697,-0.622017,-0.721733,0.303639
-0.114483,0.558668,0.493984,0.639079,-0.334260,0.692711
0.512777,-0.089890,0.559091,0.087201,-0.418753,-0.903904
-0.005473,-0.121974,-0.289604,0.448765,-0.892929,-0.035889
0.002153,-0.064583,-0.981821,-0.016720,-0.230222,0.972994
-0.176764,0.115605,0.813861,0.784014,-0.585452,0.206321
-0.002754,-0.193502,-0.271446,0.988236,0.045909,-0.145885
-0.169516,0.490698,0.496679,-0.424489,0.207648,0.881301
-0.003056,-0.325480,0.742660,-0.235234,0.508733,0.828164
-0.188237,0.150167,0.798211,0.854936,-0.254340,-0.452101
-0.217680,0.331844,0.810669,0.234845,-0.663208,0.710636
-0.029177,0.023403,-0.991315,-0.214055,0.201055,0.955907
-0.274146,-0.265197,0.794418,0.633813,-0.769957,0.073806
-0.483711,0.625896,0.314789,0.811817,0.486486,0.322932
0.005399,-0.102624,0.411237,-0.199565,0.966897,-0.159010
0.303815,0.774827,0.276276,0.930887,0.024693,0.364472
-0.044502,-0.196147,-0.156902,0.941719,0.069226,-0.329202
0.130185,-0.391714,0.184740,0.755247,0.408378,0.512668
-0.097045,-0.380716,0.584815,-0.050617,-0.713794,0.698524
-0.025705,-0.222690,0.080146,-0.088062,0.942325,0.322907
-0.169364,-0.345325,-0.400085,-0.052063,0.957473,0.283787
-0.126939,0.165799,0.808409,-0.610536,0.681671,0.403200
0.058921,-0.042835,0.621524,-0.264373,0.738182,-0.620641
-0.364963,-0.166293,0.745479,0.439096,0.155827,0.884823
0.386027,0.513107,0.121250,0.935957,-0.092953,-0.339625
0.061866,-0.146862,0.543296,-0.127610,0.652366,0.747084
-0.898689,-0.096088,0.113228,0.217103,0.564265,0.796537
-0.465746,-0.163401,0.829387,-0.881287,0.111426,0.459258
-0.022608,-0.178366,0.230549,-0.506268,0.804110,0.311607
-0.534292,0.543537,0.554593,-0.471570,-0.072917,-0.878809
0.062695,-0.245513,0.715278,-0.029221,0.977596,0.208454
-0.241232,-0.312246,0.842445,-0.785974,-0.606391,-0.120559
-0.519948,0.393369,0.552396,-0.010098,0.896616,0.442693
0.052957,-0.183327,-0.237555,0.990442,0.137924,-0.001202
-0.458648,-0.462167,0.214070,0.140657,-0.243665,0.959606
-0.691917,-0.162407,0.815872,-0.072671,0.254685,0.964290
0.021931,0.079962,0.644118,-0.377818,-0.633018,-0.675679
0.126336,0.502024,0.434059,-0.673661,-0.156614,-0.722255
-0.248254,0.306457,0.659478,0.937886,-0.292190,-0.187067
0.196466,-0.333005,0.444485,-0.147235,0.499380,0.853781
-0.309478,0.665839,0.560853,-0.456871,-0.439555,0.773344
-0.264786,-0.148351,0.870242,0.093263,0.992726,0.076134
0.199033,-0.425948,-0.412232,0.029115,0.047091,0.998466
0.223493,-0.212767,0.549825,0.779556,0.574654,-0.249130
-0.278676,-0.084262,0.453315,-0.361804,-0.704448,0.610615
0.089346,-0.242621,-0.737022,0.895986,-0.427300,0.120933
-0.510210,0.698832,0.305544,0.959910,0.227611,-0.163605
-0.227418,-0.085423,-0.041135,-0.375343,-0.895745,-0.238239
0.085494,-0.159020,-0.811892,0.918258,0.395939,-0.005925
-0.518589,0.641446,0.525884,0.096638,-0.124003,0.987565
-0.113199,-0.008434,0.360764,0.376072,-0.396803,-0.837327
-0.024422,0.119572,0.747386,-0.389351,0.702200,-0.596088
0.061488,0.661953,0.351747,0.189435,0.816905,-0.544776
0.090855,0.097824,0.155886,-0.555962,0.654305,-0.512631
0.293927,-0.100887,0.556230,0.982310,0.170701,0.076995
-0.366700,0.111880,0.172345,-0.422668,0.873813,-0.240421
-0.073793,-0.207392,0.926539,0.283016,-0.221185,-0.933263
0.132978,0.698499,0.306290,0.591210,-0.541783,0.597447
-0.297625,-0.344992,0.213594,0.618764,-0.428608,-0.658351
0.071000,-0.374846,0.083524,0.660176,0.575276,0.482934
-0.250367,-0.118335,0.511872,0.013043,-0.108028,0.994062
-0.101800,-0.629454,0.352846,0.021324,0.565794,0.824271
-0.517684,0.730175,0.101889,0.588029,0.097033,0.802998
-0.006454,-0.217814,-0.295055,0.947532,0.305076,-0.095451
0.118710,-0.481437,-0.524910,-0.294265,-0.718793,0.629877
-0.366173,-0.495246,0.677532,0.565109,0.673038,-0.477150
-0.001699,0.104274,0.651352,-0.366401,0.930440,0.005639
0.034764,-0.125033,-0.364681,-0.574888,-0.815550,0.066196
0.398408,0.500868,0.401370,-0.079128,-0.338647,0.937580
0.344959,0.133628,0.320613,-0.031875,0.309557,0.950346
-0.227266,-0.543123,0.494999,-0.156366,0.871035,0.465669
-0.339220,0.237407,0.915968,0.713310,0.515302,-0.475029
-0.095457,-0.199453,0.177983,0.971216,-0.231192,0.057347
0.252104,-0.369057,0.808202,0.785136,0.051763,-0.617157
-0.610613,0.692962,0.381202,0.822842,-0.106242,0.558251
0.042012,0.076242,0.826568,0.613605,-0.760493,-0.212460
0.177594,-0.003720,0.034067,-0.782455,-0.033687,0.621795
-0.000565,-0.158768,-0.501155,0.993027,0.117388,-0.010806
-0.028725,-0.420245,-0.265683,-0.742450,-0.165149,-0.649226
-0.273695,-0.172829,0.096168,0.076486,-0.512367,0.855354
-0.424526,-0.640205,0.456072,-0.424131,0.898412,-0.113878
-0.000565,-0.119572,0.275136,-0.300691,0.527621,-0.794482
0.146718,0.284214,0.272607,0.950970,-0.030754,-0.307750
-0.514739,0.038863,0.773275,-0.099245,-0.770563,-0.629590
-0.619144,0.296040,0.243484,0.346515,-0.640832,0.685027
-0.291736,0.161498,0.889229,0.854536,0.438041,0.279086
-0.198731,-0.230463,0.128587,0.959089,-0.116781,-0.257895
0.335447,0.469611,0.184263,-0.663803,0.649447,0.370923
-0.591816,0.169352,0.205738,-0.289721,0.674174,-0.679375
0.079455,-0.432893,-0.444692,0.934402,0.296246,-0.197817
-0.428074,0.046636,0.738721,0.591675,-0.455614,0.665084
0.078398,-0.027456,-0.529284,0.980694,-0.172653,-0.091814
0.059903,0.048705,0.375522,0.705866,0.115947,-0.698792
-0.483939,-0.660550,0.369967,0.417305,-0.680659,-0.602130
0.122185,-0.146281,0.493424,-0.349134,0.741541,0.572907
-0.023062,-0.229473,-0.203126,-0.671388,-0.739717,0.045349
-0.147775,0.613162,0.503809,0.476438,-0.086108,0.874981
0.077039,-0.168777,-0.263528,0.996628,0.020286,0.079505
-0.159175,-0.052924,0.865868,0.969805,-0.033033,-0.241634
-0.081870,-0.162654,0.276752,0.564996,-0.606374,0.559545
0.117427,0.385263,0.420461,0.465272,-0.333792,0.819820
0.091382,0.254280,0.296589,0.947305,-0.240991,0.211038
0.461293,-0.053338,0.596236,-0.745260,0.619974,0.245398
0.107237,0.344826,0.292485,0.985968,0.106965,0.128164
-0.233456,-0.241213,0.771928,0.920574,0.354701,0.163493
0.009776,0.224840,0.792594,0.555720,0.276023,-0.784211
-0.116293,0.338128,0.816431,-0.154297,0.987935,-0.013295
-0.036199,-0.033245,-0.985780,0.569552,-0.003893,-0.821946
0.046089,-0.261311,0.452921,0.660075,0.748304,-0.065895
0.728684,0.056725,0.597728,0.135692,-0.706146,0.694943
0.321331,-0.341853,0.818732,0.710678,0.580661,0.397203
-0.368361,0.344992,0.752278,-0.097047,-0.569905,0.815960
-0.441360,-0.061853,0.702447,0.165249,-0.266975,-0.949430
-0.882761,0.042335,0.097972,0.258217,0.148667,0.954580
-0.779414,0.266105,0.256791,0.371320,-0.538456,0.756430
-0.099611,-0.056478,-0.148113,-0.296137,-0.479050,0.826326
-0.280413,0.414537,0.064392,-0.428060,-0.088817,-0.899375
-0.136148,-0.692796,0.349674,0.411140,0.770298,0.487448
-0.364134,-0.111138,0.738493,0.503210,0.352359,0.789065
-0.215565,-0.108246,0.454123,-0.316163,-0.594745,-0.739134
0.651077,0.184569,0.563879,-0.278629,-0.143183,-0.949666
0.289170,-0.126769,0.571321,0.686937,-0.401230,-0.605914
-0.357943,-0.652197,0.671997,0.444293,0.346687,0.826082
-0.200770,0.129494,0.875030,0.922978,0.363289,0.127018
-0.509152,-0.294965,0.518028,0.203695,0.676450,-0.707759
-0.006908,-0.144878,-0.113456,0.258364,-0.922094,0.288081
-0.295210,-0.555609,0.639247,0.393471,0.660571,0.639395
-0.047068,-0.138347,0.350607,0.394088,0.913468,0.101346
0.042163,-0.302571,-0.070051,0.416900,0.872281,0.255579
0.245840,-0.691807,-0.480344,0.884644,0.465947,-0.017270
-0.098706,-0.014223,-0.118119,-0.724213,0.492872,-0.482279
0.010532,-0.320266,0.643351,-0.476482,0.800297,0.363991
0.015891,-0.231952,-0.014354,0.556940,0.826508,-0.081864
-0.750800,0.104107,0.766145,0.293813,0.385500,0.874679
-0.047522,-0.189944,-0.233285,0.989134,0.140914,0.041928
-0.891743,-0.066814,0.110015,0.251680,0.640409,0.725626
-0.576716,-0.022576,0.645445,0.944969,-0.135841,-0.297627
-0.141734,-0.059788,0.725372,0.949002,-0.045678,-0.311942
0.856189,-0.293229,0.197571,0.096371,-0.993348,-0.063031
0.251728,0.390472,0.163867,0.540949,-0.814299,-0.210454
0.618314,-0.140083,0.553349,-0.640872,0.701466,-0.311814
-0.617407,0.014884,0.795724,0.708541,0.694402,-0.125601
0.491111,-0.027290,0.547690,-0.228647,0.730989,0.642943
0.224096,0.523444,0.399277,0.586257,0.760235,0.279902
0.224400,0.113207,0.044348,-0.832456,0.480701,-0.275579
-0.371757,0.090793,0.899842,-0.076988,-0.190843,0.978597
-0.355225,0.715286,0.174314,-0.171813,0.420809,-0.890730
-0.778658,-0.212853,0.073450,0.356328,-0.389360,0.849370
-0.227796,0.165299,0.251008,0.840848,0.533162,-0.093344
0.168763,-0.032332,0.516743,-0.250406,0.967970,-0.018211
-0.168309,0.128006,0.670215,-0.303737,-0.090010,0.948495
-0.465972,0.207145,0.687730,0.653744,0.301499,0.694059
0.165289,-0.339950,-0.977634,0.145241,-0.052245,-0.988016
0.354472,-0.370213,-0.410490,0.021924,-0.024443,0.999461
-0.287661,0.544778,0.209179,0.203894,0.941273,0.269132
0.316046,-0.442488,0.812120,-0.463527,-0.536121,0.705490
-0.059299,0.209376,0.156114,0.565799,-0.406056,-0.717628
0.873401,-0.359796,0.175993,0.091523,-0.956712,-0.276273
-0.340354,-0.784750,0.381865,-0.125813,0.335484,0.933607
-0.344505,0.308774,0.618830,0.063558,0.990053,0.125522
-0.706336,0.164557,0.771451,0.139415,-0.352749,0.925274
-0.695769,0.530222,0.023475,-0.559074,0.542598,-0.626916
-0.012041,-0.090299,0.086074,0.583499,-0.787845,0.197054
0.008947,-0.253785,-0.295014,0.544083,-0.810421,-0.217237
-0.326690,-0.012981,0.574990,0.260443,-0.518387,0.814521
0.251500,-0.082198,-0.982505,-0.030172,0.224400,0.974030
0.003510,-0.225420,0.015287,0.626485,-0.761600,-0.165776
-0.585927,-0.111385,0.177008,0.171446,0.852768,-0.493348
0.090175,0.299013,-0.149585,-0.865629,0.494855,-0.076186
-0.175027,0.102290,0.041446,0.701317,0.130909,0.700727
-0.222133,-0.186472,0.827583,0.794951,-0.332201,0.507637
-0.101952,-0.254033,0.396105,0.697638,0.598031,0.394538
-0.113047,-0.483006,0.699214,-0.130634,0.010692,0.991373
0.155249,-0.267180,0.733767,0.858500,-0.308910,0.409332
-0.229607,-0.233688,0.562967,-0.039459,0.630225,0.775409
0.062923,0.797317,0.385119,0.051912,-0.875887,0.479716
0.151549,0.696515,0.368184,0.771606,0.063740,-0.632900
0.214284,0.323986,0.080083,-0.386543,0.264762,0.883451
0.052807,-0.100554,0.486791,0.501182,-0.028373,-0.864877
-0.325708,0.346562,-0.063667,0.568984,0.247101,0.784346
-0.181141,0.247249,0.614912,-0.006509,0.990029,0.140712
-0.173894,-0.495326,-0.413848,-0.246491,-0.883426,0.398498
-0.164231,-0.198050,0.364060,0.948583,0.118851,-0.293369
-0.254520,-0.503185,0.374817,0.999533,-0.029621,0.007505
-0.438114,0.494746,0.090530,0.161408,-0.555869,0.815449
-0.122258,0.239971,0.724688,-0.711486,0.502137,-0.491576
0.053637,-0.359382,0.416896,-0.504166,0.278870,0.817342
-0.171857,-0.275781,1.000000,0.781423,-0.619181,-0.077417
0.010910,0.136692,-0.148424,-0.148137,-0.968445,-0.200423
-0.018231,-0.226082,-0.424109,0.608830,0.775860,0.165431
-0.313328,-0.118002,0.741209,0.062061,-0.711390,0.700052
-0.669950,0.511618,0.286557,-0.382753,0.698268,-0.604915
0.027668,0.345320,0.504970,-0.410758,0.351312,-0.841343
-0.482580,0.036218,0.695482,0.993808,0.065099,0.090040
-0.020270,-0.140411,-0.113352,-0.100563,0.925812,-0.364362
-0.121277,0.359462,-0.058360,0.940038,-0.340623,-0.017469
-0.196994,-0.243610,0.858012,0.587929,-0.285835,-0.756728
-0.396067,-0.180849,0.769503,0.976490,0.153373,0.151476
-0.353186,0.555196,0.150165,0.054982,-0.298556,0.952807
-0.406860,-0.137272,0.847254,0.301230,0.899774,0.315701
-0.459102,0.152898,0.753086,0.461795,0.080442,0.883331
-0.668365,-0.190525,0.815084,-0.358677,0.368897,-0.857476
-0.715245,0.566440,0.047437,-0.472429,0.742081,-0.475527
0.138793,0.905977,0.366215,-0.355406,0.842013,0.405833
-0.160531,-0.140331,0.533637,-0.310492,-0.192155,0.930952
0.383763,0.571074,0.103050,-0.728132,0.666754,0.158941
-0.607293,0.428098,0.339911,0.029333,-0.591251,0.805954
-0.292642,-0.179032,0.497155,0.926746,-0.259062,-0.272083
-0.125958,0.457700,-0.044244,0.969041,-0.246491,-0.014221
0.160985,0.426609,0.256605,0.338518,-0.795276,0.502933
-0.092138,-0.146695,0.363873,-0.036389,0.922892,0.383335
-0.228098,-0.163568,0.851151,0.998174,0.058678,-0.014321
-0.001773,0.062267,0.664494,-0.322366,-0.939497,-0.115871
-0.690030,0.240880,0.761854,0.185055,0.310500,0.932386
0.206659,-0.102457,0.239462,-0.359223,0.529826,-0.768273
-0.019664,0.012239,-0.978546,-0.176272,0.294817,0.939154
-0.277167,0.500121,0.222714,0.295041,0.580358,0.759036
0.046089,0.520632,0.505923,0.977076,-0.008137,0.212736
-0.662324,0.289009,0.338398,0.282765,-0.666597,0.689704
-0.468386,0.529728,0.089245,-0.275590,0.443425,-0.852892
-0.836182,0.172249,0.105869,0.210190,-0.784904,0.582877
0.028348,-0.115524,-0.048970,-0.097746,0.885520,0.454203
0.036349,-0.284543,-0.393659,0.715349,0.196755,0.670495
-0.015211,0.143636,-0.773462,-0.736797,-0.360810,-0.571792
0.039671,0.323325,0.422472,-0.578586,-0.571004,0.582402
-0.163250,0.144464,0.869868,0.531872,0.845119,-0.053734
-0.631750,0.387413,0.555070,-0.022885,0.789784,0.612958
-0.525986,0.118416,0.102594,0.050392,0.995583,-0.079217
-0.000791,0.386919,0.470312,0.857438,-0.198944,-0.474575
-0.622692,0.161413,0.083711,-0.413707,-0.688436,0.595736
-0.211639,0.143303,0.896753,-0.186178,0.981263,-0.049615
-0.494281,0.496401,0.539814,0.165866,-0.089798,0.982051
-0.281696,-0.148684,0.382590,-0.179949,0.853697,-0.488691
-0.058318,-0.137933,0.357862,0.032170,0.668107,0.743369
-0.273769,-0.595139,0.542239,0.158280,-0.212791,0.964193
0.002906,-0.423304,-0.213448,-0.838637,0.538176,-0.083996
0.229079,-0.206484,0.553494,0.887387,0.445274,-0.119479
0.329558,-0.215912,-0.971830,0.150818,0.045322,-0.987522
0.145434,0.147689,0.326583,-0.672420,-0.047739,0.738629
-0.008719,-0.119491,0.065346,-0.717584,0.612399,0.331725
-0.373342,0.089637,0.589955,-0.535105,0.307692,-0.786758
-0.343524,0.387661,0.239380,0.416117,0.829295,0.372983
-0.192391,-0.234515,0.713019,0.490145,0.862702,0.124509
0.047220,-0.180516,-0.669220,-0.650716,0.737821,-0.179413
-0.060204,-0.287520,-0.034564,0.802706,0.529467,-0.274460
-0.676594,0.704041,0.107507,-0.148944,0.089915,-0.984749
0.005247,-0.459769,-0.367604,0.873996,0.079466,0.479392
-0.227116,-0.037707,0.906267,0.786007,0.612864,-0.081183
-0.058242,-0.085256,0.090759,0.531324,-0.799908,0.279004
0.694184,-0.383361,0.160136,-0.262862,0.783576,0.562950
-0.077642,-0.341439,-0.365427,0.403949,-0.895387,0.187368
0.131621,-0.169932,-0.710717,-0.203498,0.851446,0.483351
0.099158,-0.138675,-0.859587,0.953742,0.004879,0.300587
0.402861,-0.219712,-0.969447,-0.123855,0.051584,0.990959
-0.600045,0.036385,0.157628,0.212745,0.244515,0.946019
0.071302,-0.265611,-0.512473,0.771030,0.621425,-0.139083
-0.080812,-0.222114,0.167370,0.196601,-0.957321,0.211859
0.158721,0.596128,0.378963,0.789595,-0.005525,-0.613603
-0.187633,0.079053,0.595946,0.910142,0.389344,-0.141611
-0.150266,-0.227076,0.926021,-0.391043,0.798267,0.458100
-0.182954,0.170841,0.009276,0.859364,0.029568,0.510508
-0.117653,-0.087901,0.105786,0.769009,0.416883,0.484596
0.376137,0.484081,0.403816,-0.256424,-0.233618,0.937907
-0.136224,0.087901,0.823666,0.017112,0.742526,0.669598
-0.207713,-0.052677,0.888503,0.745109,0.580631,-0.328148
-0.418260,-0.068550,0.676620,-0.098519,-0.989424,-0.106462
0.774431,0.098237,0.579425,-0.546104,0.657237,-0.519432
-0.248858,0.495821,0.518049,-0.159791,-0.840535,0.517657
0.385573,0.018437,0.564771,0.262100,-0.952745,0.153558
-0.491337,-0.053752,0.839212,0.524893,0.830496,-0.186451
0.085795,-0.483753,-0.980723,0.286043,-0.196403,-0.937873
0.224928,0.519144,0.287427,-0.389507,0.847550,-0.360476
-0.519872,0.256016,0.481464,-0.396496,-0.453831,0.798015
-0.327369,-0.601670,0.652865,0.503447,0.326455,0.799980
-0.263579,-0.474820,0.393763,0.998894,-0.033709,0.032766
0.236705,-0.260397,0.558676,0.891792,0.092252,-0.442942
0.793983,0.157445,0.590017,-0.677366,0.504154,-0.535727
-0.608878,0.494085,0.561412,0.075836,0.036875,0.996438
-0.516626,-0.433888,0.210920,0.027224,-0.584165,0.811178
-0.228777,0.101957,0.618457,0.877496,0.047956,0.477180
0.175783,-0.198958,0.551194,0.227331,0.761653,-0.606799
-0.252256,-0.368229,0.626209,0.999087,-0.000690,-0.042706
-0.138187,0.151904,0.755698,0.087569,0.127915,0.987912
-0.261314,-0.622590,0.595262,-0.833289,0.544370,-0.096383
-0.467783,0.454888,0.536041,0.256610,-0.244297,0.935131
0.226589,0.404034,-0.126535,0.468855,-0.049901,-0.881864
0.175859,0.369718,0.245494,0.922812,0.115800,0.367435
0.209377,0.542875,0.387130,0.607591,0.156145,-0.778750
-0.069263,0.304802,0.510732,0.315476,-0.520308,0.793570
-0.570151,0.086331,0.158125,0.388300,-0.148983,0.909410
-0.342618,-0.087654,0.712231,0.272512,0.012641,-0.962069
0.297551,0.723972,0.375502,0.948198,-0.085990,-0.305821
-0.274375,-0.562887,0.511769,0.148328,-0.976625,-0.155574
-0.081720,0.228560,0.931867,0.021148,-0.645698,0.763300
-0.024647,0.066400,0.650730,-0.087427,-0.994261,-0.061663
-0.656134,-0.028693,0.129106,-0.267485,0.923871,-0.273706
-0.738724,0.353179,0.062817,0.751097,-0.652604,0.099807
0.007664,-0.193997,-0.498046,0.941153,-0.021538,-0.337292
-0.593251,0.290745,0.252894,0.022646,-0.861100,0.507931
-0.478730,-0.256349,0.474997,0.935031,-0.348299,0.066361
-0.249763,0.144711,0.774602,-0.749240,-0.654217,-0.103149
0.298381,-0.107666,0.565911,0.953198,0.107639,0.282536
-0.288112,0.359876,0.511416,-0.321448,0.785660,0.528592
0.580947,-0.149920,0.550675,0.378057,-0.922190,0.081474
-0.529461,0.201356,0.090613,-0.137326,-0.842369,0.521110
0.526669,0.614323,0.428358,0.855627,-0.298438,-0.422891
-0.914694,-0.017367,0.117601,0.222574,0.701348,0.677179
-0.068434,0.311005,0.496658,0.733662,-0.152278,0.662233
-0.686406,0.303151,0.041633,-0.734714,-0.132938,-0.665224
-0.111160,-0.199039,0.925586,0.732767,-0.644186,-0.219263
