-0.140041,-0.194314,0.646337,0.787329,-0.592584,-0.170169
0.205018,0.225037,0.919930,-0.552819,-0.363168,-0.750000
-0.273205,0.362708,0.745987,0.149528,-0.669924,0.727216
0.031467,-0.036576,0.617326,-0.678314,0.729774,-0.085556
-0.136832,-0.068349,0.450893,0.445965,0.833037,0.327360
-0.454966,0.351936,0.717710,0.598182,0.128414,0.791004
0.418372,0.129679,0.306227,0.084825,-0.849541,0.520658
-0.021923,-0.462072,0.549747,0.165984,0.271190,-0.948106
0.218480,-0.038754,0.003747,-0.141493,-0.969272,-0.201227
-0.489601,0.298579,0.685810,-0.247228,-0.768885,0.589656
0.235485,-0.596243,0.518909,-0.749528,0.555991,-0.359278
-0.863252,0.379431,0.523140,0.961227,0.022339,-0.274851
0.394365,-0.175414,0.838002,0.418557,0.852296,0.313692
-0.307715,0.700857,0.553900,0.531589,-0.151404,-0.833360
0.010461,-0.042099,0.866248,0.344398,0.844173,-0.410807
0.927812,-0.279445,0.792159,0.251333,-0.577072,0.777058
0.211270,0.118284,0.890263,-0.201300,0.767230,-0.608964
0.513400,0.092539,-0.866451,-0.475143,-0.832423,0.285150
-0.360355,0.108717,0.764802,-0.576251,0.600365,-0.554524
-0.458134,-0.437416,0.729093,0.137620,-0.754733,0.641434
-0.124453,-0.263383,0.802558,-0.144221,-0.428154,0.892123
-0.240737,0.037665,0.769346,0.858590,-0.469884,-0.205017
0.647647,-0.381259,0.679439,-0.693517,0.040593,0.719296
-0.086150,0.751103,0.620932,0.284956,0.606455,-0.742303
-0.528196,-0.340230,0.637405,0.786841,0.300090,-0.539284
-0.098320,-0.164175,0.521907,0.925548,-0.367390,-0.091576
-0.525820,0.286017,0.457920,0.020935,-0.186711,0.982192
0.204559,-0.401249,0.907845,-0.439775,0.747599,-0.497688
-0.544659,-0.582943,0.578056,0.857335,-0.424133,-0.291697
0.623015,0.009314,0.750062,0.036291,-0.195250,0.980082
0.482349,0.123807,-0.970380,0.014181,0.604348,0.796594
0.838203,-0.335913,0.811520,-0.549295,0.760615,-0.346036
0.448797,0.139713,0.856661,0.769057,0.471592,0.431453
-0.588505,0.632450,0.488773,0.732564,0.367365,-0.573056
-0.576584,0.540125,0.480107,-0.446458,-0.235982,0.863127
-0.041595,-0.813094,0.601540,0.190049,0.406527,0.893654
-0.778727,0.189219,0.539692,-0.136460,0.142554,0.980335
-0.259826,-0.170552,0.487790,0.561979,0.430243,0.706450
-0.282415,0.454994,0.723940,-0.250039,-0.076342,0.965221
0.221731,-0.218893,0.507120,-0.655647,-0.754083,0.038553
-0.510607,0.003792,0.174974,0.232808,0.968216,0.091423
-0.308090,-0.432594,0.684561,0.508931,0.499418,0.701121
0.212145,0.439244,0.846402,0.392812,0.850933,-0.348730
0.759388,-0.130924,0.717070,0.255296,-0.115845,0.959898
-0.169008,0.740797,0.630973,-0.596191,0.185723,-0.781065
0.244529,-0.076049,0.854053,-0.197584,-0.882012,-0.427804
-0.565206,0.214965,0.719864,0.845601,0.273647,0.458340
0.043679,0.424077,0.458247,0.537662,-0.390788,0.747131
0.192390,-0.064849,0.619340,-0.256796,0.582583,0.771138
0.505105,-0.147374,0.738055,0.432311,0.853563,0.290752
0.262285,-0.082000,0.936934,-0.508524,0.736005,0.446877
0.540449,-0.133918,0.573871,-0.731582,0.602818,0.318432
0.172175,0.744920,0.677331,0.863744,0.064572,0.499777
0.365064,-0.408988,0.884689,0.462160,-0.149167,0.874161
-0.483600,0.283528,0.694038,-0.874601,-0.160789,0.457405
0.722794,-0.242694,0.778824,0.380932,0.389690,0.838470
-0.405952,-0.480467,0.403566,-0.097032,0.190748,0.976832
-0.060892,0.261011,0.852024,-0.394703,0.074292,0.915800
-0.382111,-0.360453,0.660031,0.446632,0.874688,0.188258
0.238820,0.677757,0.658173,-0.697843,0.713838,-0.058741
0.494102,0.018337,0.174583,0.890867,-0.449246,0.067343
-0.139291,-0.146791,0.374399,-0.458947,0.805204,-0.375518
-0.768557,0.347580,0.366139,-0.078667,0.808440,0.583298
0.248114,0.139207,0.938948,0.111131,0.824858,0.554310
-0.075064,-0.536080,0.539067,-0.453244,0.483840,-0.748645
-0.912474,0.421199,0.340641,0.964412,-0.235233,-0.120725
0.199642,0.360997,0.901739,-0.614431,-0.041022,0.787903
0.016213,0.394015,0.799591,0.525497,0.512771,-0.678910
0.507690,0.239076,0.455328,0.194428,-0.980851,0.011371
0.422748,0.100589,-0.972831,-0.609490,0.460798,0.645126
0.515317,0.050265,0.737259,0.348084,0.930196,-0.116499
-0.179469,-0.786883,0.603351,-0.225087,0.414630,0.881713
0.260242,-0.363058,0.855006,0.782474,0.044643,-0.621081
-0.901805,0.475334,0.410967,0.943928,-0.171003,-0.282416
-0.292210,-0.481284,0.467585,0.915190,0.328944,-0.232858
-0.575668,-0.117740,0.738352,-0.156624,0.935504,0.316702
-0.094486,0.237288,0.810864,0.112108,0.266590,0.957268
0.111449,0.204037,0.829258,0.959691,0.262126,-0.101407
0.619431,0.119023,-0.981591,-0.100451,0.215229,0.971384
-0.860084,0.314173,0.455859,0.154804,0.941126,-0.300528
0.578877,0.451299,0.563941,0.585496,0.325690,-0.742375
-0.793315,-0.071888,0.075917,-0.046312,-0.587511,0.807889
-0.493602,-0.109301,0.128193,0.268978,0.516449,-0.812977
0.042304,-0.693974,0.468943,0.813325,-0.051042,0.579567
0.380694,-0.708208,0.666339,-0.420378,-0.158838,0.893338
0.504147,0.068738,0.478905,-0.390641,0.261912,0.882498
-0.049848,-0.109145,0.853538,-0.720166,-0.120801,0.683205
0.029300,-0.051082,0.757885,0.401792,-0.869023,0.288725
-0.523152,-0.662317,0.436762,0.017369,0.363162,0.931564
-0.527445,-0.678729,0.604553,0.090478,0.831972,-0.547391
0.286250,0.060144,0.089360,-0.405862,0.312591,-0.858815
-0.308757,0.332529,0.742786,-0.280515,-0.431828,-0.857225
-0.100113,0.678846,0.547358,-0.033637,-0.946981,0.319523
-0.895678,0.345130,0.584770,-0.645847,0.470860,-0.600976
0.213645,-0.047621,0.258088,0.380520,0.924771,0.001863
0.173759,0.601999,0.845856,-0.182075,-0.428938,0.884794
-0.309424,-0.095378,0.820592,0.992955,-0.012293,-0.117849
-0.337556,0.757559,0.544173,-0.328842,0.149058,0.932547
0.104530,0.428354,0.449379,0.522852,-0.349845,0.777325
-0.809986,0.465961,0.354678,0.284162,0.272002,-0.919384
-0.200975,-0.236199,0.532384,0.318010,-0.801175,0.506940
0.583837,-0.347502,0.862235,-0.358820,-0.801529,-0.478331
-0.172842,0.743909,0.616623,-0.543301,-0.492412,0.679967
-0.849915,0.421821,0.537568,0.966781,0.029804,-0.253864
-0.040262,0.052365,0.712963,0.922592,0.363132,0.130228
0.146543,-0.024054,0.606489,0.162643,0.849105,0.502562
-0.349268,-0.144224,0.654847,0.840939,-0.526459,0.125147
0.344559,0.029420,-0.509603,-0.550946,0.704089,0.448015
-0.304880,-0.424621,0.665183,0.647199,0.666990,0.369130
0.184596,-0.347075,0.905846,0.061303,-0.569991,0.819361
0.538448,-0.339763,0.687840,0.022927,-0.208085,0.977842
0.564081,0.063721,0.875788,0.557876,0.828474,0.049046
-0.222148,0.646839,0.708810,-0.519548,0.777247,0.354904
0.046096,-0.942170,0.393183,-0.085200,-0.815736,0.572115
-0.276372,0.210103,0.711792,0.032220,-0.771819,0.635026
0.045138,-0.324052,0.866998,0.842422,-0.529125,-0.101750
0.433876,-0.179536,0.919946,-0.528623,0.840406,-0.119482
0.478806,-0.198359,0.965852,-0.401674,-0.598042,0.693545
0.013087,0.566842,0.513210,-0.024733,-0.730566,0.682393
0.205893,0.645517,0.816814,-0.522903,-0.670361,-0.526487
0.507648,0.230871,0.903457,0.777130,-0.365115,0.512602
0.415288,-0.107162,0.962432,-0.553597,0.152673,-0.818671
-0.467970,0.120073,0.151849,0.449526,0.499238,-0.740735
0.738799,0.209637,-0.987883,-0.162638,0.071692,0.984078
0.211270,-0.008692,0.597917,-0.273101,0.948174,0.162429
-0.094528,0.456939,0.751077,-0.743494,0.319190,0.587652
0.704497,-0.039221,0.220770,0.449923,-0.748916,0.486512
0.374193,0.058704,0.711526,0.769066,-0.033636,0.638283
0.486517,0.146674,0.336815,-0.095898,-0.932573,0.348009
-0.853707,0.378964,0.509306,-0.359407,0.933160,0.006293
0.187596,-0.453167,0.572153,-0.213216,-0.402048,-0.890447
-0.310757,-0.057343,0.805150,0.227700,0.838857,0.494441
0.328096,0.079238,0.740288,0.862209,-0.112301,0.493947
0.527237,-0.200304,0.712198,0.994752,-0.101959,0.008545
0.544659,-0.145663,0.692555,-0.689765,-0.685935,0.231769
-0.785729,0.225971,0.438917,0.970765,0.210478,-0.115391
0.567374,-0.450445,0.969458,-0.666845,-0.170394,-0.725454
0.089985,-0.446711,0.685123,0.662559,0.478920,-0.575892
0.658776,0.193731,-0.986728,-0.026598,0.140071,0.989784
0.499104,-0.132596,0.902801,-0.306317,0.929457,-0.205620
-0.508190,-0.383203,0.723737,-0.445504,0.744364,0.497442
-0.529654,-0.293678,0.196537,0.396767,-0.630579,0.667043
0.401784,-0.198165,0.919711,-0.113177,0.993476,0.014044
-0.451340,0.202792,0.766848,0.928275,-0.369157,0.045036
0.012420,-0.097011,0.263069,0.883045,-0.359265,0.301928
0.473263,-0.459428,0.769331,0.792068,0.219127,0.569747
-0.198349,0.629961,0.694554,0.879603,0.464827,-0.101168
0.448464,-0.563070,0.805431,-0.328083,-0.837580,0.436831
-0.543283,-0.023509,0.172007,-0.756903,0.505175,0.414604
-0.638186,0.297801,0.447146,-0.554442,-0.760856,-0.337183
-0.548535,-0.273767,0.607457,-0.566431,0.336630,0.752221
-0.012629,0.702841,0.770767,-0.087991,-0.989435,-0.115220
-0.426458,0.123573,0.462698,0.212317,0.101108,0.971956
-0.853332,0.550158,0.347121,-0.500441,0.794613,0.343727
-0.013587,0.764054,0.663575,0.231577,-0.916257,-0.326873
-0.430334,0.012192,0.600041,-0.186856,-0.940927,0.282384
0.089068,-0.271783,0.697505,0.793470,-0.192689,0.577301
0.314675,-0.510063,0.783461,-0.523413,0.842463,-0.127655
-0.329763,-0.124118,0.245878,0.081484,0.777024,-0.624175
0.343850,-0.179886,0.359518,0.984440,-0.090479,0.150638
-0.195307,-0.189181,0.590813,-0.423579,-0.589893,-0.687465
0.506440,-0.099656,0.338236,0.192783,-0.972811,-0.128348
0.579502,-0.592937,0.815923,-0.460944,-0.554820,0.692607
-0.183970,0.676123,0.718803,-0.631055,0.718271,0.293013
0.239195,0.167286,0.376241,0.684833,-0.253382,0.683228
-0.755679,0.568126,0.498860,-0.609651,-0.085253,0.788072
0.447088,-0.248177,0.598385,0.799674,0.570809,0.186272
-0.463135,0.169346,0.751046,0.821100,0.511022,0.254267
-0.065436,-0.543508,0.533040,-0.453244,0.483840,-0.748645
-0.640604,-0.449589,0.184810,-0.024908,-0.349677,0.936539
0.152211,0.284111,0.411342,0.249755,-0.300527,0.920492
-0.640770,-0.202403,0.703391,0.969712,-0.146059,-0.195769
-0.127662,-0.322380,0.780745,-0.547975,0.244431,0.799986
-0.455300,0.004570,0.748111,0.704934,-0.380237,0.598738
-0.097612,-0.120034,0.809412,0.106521,0.185599,-0.976835
0.225733,0.155191,0.936341,-0.436640,0.664972,0.605935
0.734381,0.324907,-0.993395,0.122495,-0.035189,0.991845
0.200309,-0.247361,0.917650,0.993440,-0.006857,0.114153
-0.221565,0.615416,0.720442,-0.763609,0.248675,0.595871
0.458759,-0.189181,0.927784,0.624015,0.706948,-0.332911
0.427499,-0.024170,0.491225,-0.391277,-0.891302,0.229093
-0.601801,-0.465456,0.524889,-0.428369,0.454640,0.780898
0.470804,-0.108173,-0.974861,-0.154015,0.017191,0.987919
-0.519693,0.019153,0.693898,0.689364,0.643433,0.332823
-0.484975,-0.561009,0.689776,0.674096,0.408462,-0.615429
0.213187,0.679973,0.666448,0.438929,0.517498,-0.734532
0.264285,0.429288,0.818640,0.769179,0.464444,-0.438925
-0.004043,-0.095145,0.076494,-0.246191,0.959369,-0.137845
0.156462,-0.832578,0.407579,0.449869,-0.670109,0.590400
0.466886,0.037471,-0.871604,-0.346739,-0.906764,0.239896
-0.477306,-0.279406,0.203876,-0.489083,0.549626,-0.677280
0.462885,0.104556,0.972378,-0.398346,-0.633394,0.663425
0.361064,0.027009,-0.192336,-0.454135,0.883921,0.111556
0.198308,-0.925331,0.368216,0.874932,0.081558,0.477328
0.241154,0.054582,0.929470,-0.165362,-0.395133,-0.903618
0.112158,-0.025531,0.593373,0.318271,0.532911,-0.784034
-0.472346,-0.543936,0.684483,0.640730,0.594774,-0.485498
0.192848,0.136835,0.152692,0.403739,0.083148,0.911088
-0.054933,-0.892663,0.529386,-0.197402,0.851771,0.485303
-0.580419,-0.470706,0.618559,0.296601,-0.702228,-0.647228
-0.109698,-0.153441,0.826354,0.001379,-0.703859,0.710338
-0.424790,0.243043,0.782977,-0.541750,-0.647017,-0.536541
0.256909,-0.005581,-0.056570,-0.042282,-0.977854,0.204973
-0.485308,-0.374531,0.622931,-0.635358,-0.282079,0.718854
0.508940,0.093589,0.912747,0.649460,0.039049,0.759392
0.189138,-0.211387,0.927284,0.304362,0.109619,0.946228
-0.189555,0.753009,0.206827,0.176541,0.444652,-0.878133
-0.613637,0.736248,0.361502,0.408381,-0.040356,0.911919
-0.500646,-0.187042,0.729998,-0.287245,-0.873735,-0.392528
0.016755,0.275595,0.838392,0.849041,-0.442173,0.289159
0.388196,-0.302701,0.899491,-0.113821,0.297640,0.947869
0.075147,-0.351469,0.547358,-0.250399,0.763810,0.594890
-0.086858,0.436522,0.764084,0.539814,0.479566,0.691821
0.501688,0.450288,0.162388,-0.402942,-0.380631,0.832321
-0.778602,0.042098,0.147102,-0.693540,0.066235,0.717367
-0.039428,0.298928,0.712510,-0.433108,-0.896608,-0.092253
-0.181136,0.661345,0.730685,-0.610567,0.454314,0.648696
-0.207602,0.207070,0.756199,0.219034,-0.658740,0.719782
0.141291,-0.522585,-0.006136,0.319948,0.738582,-0.593406
0.473054,-0.228615,0.963509,-0.555258,-0.831666,-0.004538
0.527987,0.323312,0.919305,0.569675,0.680696,0.460568
0.350227,-0.002897,0.920492,-0.430885,-0.329632,0.840048
0.053599,-0.852062,0.490366,-0.493343,-0.696443,-0.521133
-0.198141,0.883291,0.523952,0.733692,-0.356255,-0.578600
-0.058434,0.606666,0.748298,0.261056,-0.090332,-0.961088
0.035219,-0.826084,0.537490,0.937156,0.088280,-0.337558
0.311133,0.430494,0.573434,0.305656,-0.797744,0.519788
-0.726920,0.561942,0.349869,-0.480297,0.723038,0.496519
0.228817,0.610360,0.667900,-0.486852,-0.596793,0.637820
0.227233,-0.507652,0.863563,0.048984,-0.646114,0.761668
-0.368566,0.171524,0.743426,-0.278843,-0.755629,0.592681
-0.189888,-0.193420,0.335176,-0.445942,-0.814174,-0.371827
-0.557912,0.075622,0.646665,0.786155,0.185898,0.589408
0.397157,-0.512630,0.859628,0.591956,0.701758,-0.396390
-0.106948,-0.170397,0.527200,0.853267,-0.474482,-0.216338
-0.519151,0.389387,0.720879,0.288101,0.099097,0.952459
-0.337807,-0.121629,0.687808,0.709393,-0.682562,0.175700
-0.159130,-0.453555,0.763616,0.127260,-0.178186,0.975733
-0.130871,0.237055,0.819093,-0.811364,0.129194,-0.570086
0.346184,0.030120,0.926441,-0.455683,-0.209819,0.865060
-0.712124,-0.012231,0.117997,0.398851,0.258632,-0.879788
0.300546,0.241254,0.692383,-0.579302,-0.098194,0.809177
-0.318093,0.840706,0.536053,0.420381,-0.271488,-0.865780
-0.167507,0.038715,0.840422,0.832758,-0.041820,0.552056
0.483557,0.025103,0.185388,0.597855,-0.781474,0.178515
0.077189,-0.017403,0.190166,-0.274532,0.830554,-0.484574
-0.094028,-0.004181,-0.054775,0.105780,0.666262,0.738177
-0.308423,-0.108173,0.825479,0.899899,-0.312784,-0.303887
-0.174634,-0.285395,0.784273,-0.133147,0.172428,-0.975982
0.278623,0.082116,-0.995565,-0.010647,0.092294,0.995675
0.699662,-0.393782,0.924005,-0.281202,0.620548,0.732015
-0.201934,-0.137535,0.239960,0.018827,-0.707947,0.706014
0.334556,-0.389309,0.469178,0.883271,0.123296,0.452361
-0.292668,-0.140880,0.747955,0.471040,-0.364356,-0.803347
0.410828,0.471056,0.761648,-0.707563,-0.673852,0.212785
-0.137499,0.588076,0.763194,0.016075,-0.924640,-0.380503
0.457967,-0.510257,0.924786,-0.574357,0.798132,-0.181931
-0.583170,-0.330857,0.582553,0.797035,0.260095,-0.545055
-0.451673,0.280728,0.710168,-0.565819,0.444199,-0.694649
0.359313,-0.518619,0.724158,0.193728,0.635813,0.747136
0.602759,-0.174481,0.787693,0.090337,0.971242,0.220293
-0.441962,0.116962,0.767832,0.408266,-0.831419,0.376911
-0.697328,0.175802,0.160764,-0.497040,-0.093269,-0.862700
-0.392197,-0.042837,0.768737,-0.413720,-0.076309,0.907201
0.667111,-0.462656,0.932531,-0.376741,0.856087,0.353809
0.309382,-0.414471,0.345278,-0.314503,0.312675,-0.896282
0.467053,0.020670,0.201611,0.619211,-0.649653,0.441054
0.714083,0.319034,-0.969006,0.122495,-0.035189,0.991845
0.134497,-0.026970,0.851555,0.445558,0.842525,0.302704
-0.198225,-0.158885,0.825105,-0.297469,-0.529392,0.794517
-0.036469,0.515391,0.636219,0.004722,-0.104751,0.994487
-0.743717,0.205009,0.465898,0.510905,0.855236,-0.086877
-0.683783,0.205942,0.495347,-0.676262,0.735450,-0.042235
-0.219397,0.619771,0.537630,0.592265,0.348055,0.726690
-0.536698,0.078849,0.741849,-0.316275,0.660426,0.681034
-0.398824,0.744220,0.522906,0.861520,-0.085691,-0.500440
-0.144501,0.557586,0.626600,-0.215969,-0.623671,-0.751260
0.120660,0.597565,0.833240,-0.610644,-0.755056,0.238755
0.163840,-0.098878,0.666760,-0.677405,-0.704728,-0.210904
-0.622598,-0.206020,0.055556,0.321208,0.891148,-0.320437
-0.811861,0.435627,0.452517,0.819740,0.401205,-0.408731
0.523319,0.076594,-0.432640,0.776311,-0.630310,0.007146
0.118826,-0.896902,0.572091,-0.232237,-0.585795,0.776473
-0.489643,0.596243,0.505168,0.304257,-0.490820,-0.816409
-0.865961,0.330118,0.464025,0.171440,0.873921,-0.454830
-0.532155,-0.297917,0.637937,0.799957,-0.067863,-0.596208
0.273788,0.221110,0.932047,-0.731833,0.079019,0.676887
0.599883,-0.537947,0.762070,0.313306,-0.834439,-0.453378
-0.469554,0.312307,0.722597,-0.590196,0.413444,-0.693349
0.358480,-0.283917,0.898460,0.353539,0.255198,-0.899935
-0.584712,-0.702141,0.637000,0.826210,0.041650,-0.561820
-0.213020,-0.137691,0.824527,-0.400042,-0.448891,0.799039
0.270662,-0.222276,0.540816,-0.459365,-0.187322,0.868271
0.433793,-0.308845,0.399663,0.477626,-0.295553,-0.827359
0.400033,-0.009198,0.507948,0.312485,-0.742995,0.591872
0.081482,-0.435005,0.763319,-0.071003,0.397311,0.914933
0.049223,-0.368269,0.868559,0.140526,-0.921300,0.362572
-0.321594,-0.536469,0.667978,0.201284,-0.905272,0.374123
0.528821,0.053765,-0.486119,0.402634,-0.904377,-0.141380
0.441921,-0.325879,0.766098,0.983019,-0.163857,0.082610
-0.182970,0.006397,0.144807,-0.045135,0.341645,-0.938745
0.195349,-0.281350,0.891637,0.987626,0.023888,-0.154997
-0.540616,-0.109067,0.154097,-0.047648,-0.511373,0.858037
0.475847,-0.318568,0.905955,-0.234872,-0.000041,0.972026
-0.562081,-0.151807,0.748688,0.915618,0.401991,-0.006899
0.579502,-0.322690,0.200628,-0.610445,0.340109,0.715320
-0.277289,0.113967,0.517956,0.782434,-0.040196,-0.621435
0.476639,-0.274350,0.578337,0.805380,0.554075,0.210627
0.562789,-0.478290,0.823824,0.697341,0.457703,-0.551564
-0.630767,-0.072394,0.147102,0.232204,-0.186075,-0.954703
-0.431709,0.015342,0.757698,-0.017678,-0.850313,0.525981
0.613470,-0.317790,0.719630,-0.120157,-0.909300,0.398417
-0.154253,-0.221032,0.655830,0.197566,-0.930885,0.307281
-0.457050,0.050149,0.782665,0.990876,0.117193,0.066566
0.427499,-0.449433,0.712479,0.837679,-0.497136,0.226163
0.134247,0.252105,0.581444,0.859590,0.208431,0.466542
-0.063768,0.333735,0.808897,-0.522124,0.074993,-0.849566
0.516150,-0.586754,0.829680,-0.266754,-0.738885,0.618782
-0.103780,0.428899,0.746331,0.997854,0.012798,0.064215
-0.720710,0.474945,0.350915,-0.391523,0.182754,-0.901837
0.480432,-0.116651,-0.973315,-0.154015,0.017191,0.987919
0.161839,-0.338324,0.916589,0.101403,0.269012,-0.957784
-0.014588,0.903591,0.541175,-0.074450,-0.771129,0.632311
0.478514,-0.188559,0.959856,0.469830,0.840609,0.269510
0.183054,-0.980555,0.373915,-0.560827,-0.819153,-0.120256
0.445630,0.110312,-0.979436,-0.582914,0.490182,0.648022
0.046930,0.646061,0.803697,-0.442614,0.504369,0.741421
0.151545,0.299901,0.908813,-0.701078,0.651259,0.290432
-0.374025,-0.545258,0.683343,-0.188353,0.921673,-0.339180
-0.482599,-0.309079,0.650397,0.661989,0.387567,-0.641531
-0.319051,0.114473,0.714415,0.059767,0.072054,0.995608
0.409161,0.092694,0.945053,-0.370917,-0.597484,0.710938
0.475181,0.058005,0.647539,0.978508,0.173700,0.111133
0.296545,0.067805,0.902786,0.957234,-0.289065,0.012039
-0.280123,-0.236005,0.134954,0.380403,-0.522128,0.763332
0.294836,-0.576604,0.257214,-0.535015,0.730469,0.424469
-0.551911,0.084333,0.655581,0.031757,0.993130,0.112627
-0.490060,-0.232232,0.773609,0.493395,0.503568,0.709211
-0.582170,0.387209,0.446225,-0.512986,-0.384128,0.767653
-0.197516,0.241955,0.718366,0.004877,0.978412,0.206607
0.414204,-0.523558,0.767675,0.084984,-0.388109,0.917687
-0.079440,-0.524452,0.541971,0.129184,-0.341078,0.931116
0.022048,-0.100395,0.190931,0.031563,-0.959562,0.279721
-0.760930,0.810139,0.338049,-0.429731,0.188133,-0.883141
0.200100,0.396971,0.582834,-0.582197,0.606932,-0.541000
0.331180,-0.650378,0.676488,0.113327,-0.130283,0.984979
-0.444421,-0.309157,0.792080,-0.677354,-0.033860,-0.734878
-0.235319,0.633189,0.541862,0.592265,0.348055,0.726690
0.234818,-0.048865,0.555868,-0.111406,-0.958835,0.261198
-0.270538,0.753437,0.548154,0.955370,-0.075746,-0.285536
-0.320385,-0.254011,0.383611,0.478566,-0.569151,-0.668612
-0.455341,0.448811,0.727188,0.102746,-0.463573,0.880082
0.020215,0.154607,0.453782,0.527186,0.195030,0.827066
-0.659359,-0.061466,0.143401,-0.080806,0.505963,0.858762
-0.522653,0.052793,0.737290,0.379782,0.114883,-0.917915
-0.573667,-0.429716,0.508447,0.547449,-0.420322,-0.723622
0.074688,0.651389,0.868918,0.749521,0.562295,0.349347
0.178969,-0.010792,0.462729,-0.105072,0.531825,0.840311
0.326137,0.204931,0.821716,0.285990,-0.279366,0.916605
0.338807,0.285084,0.149835,-0.023328,-0.452121,0.891651
-0.935481,0.362786,0.521126,0.977882,0.193287,-0.079915
-0.224982,-0.185525,0.772953,0.911531,0.144555,-0.384986
-0.037344,0.711747,0.174817,0.209767,0.530490,-0.821327
-0.042262,-0.043576,0.394370,0.975912,0.035261,0.215296
0.133664,-0.300251,0.900974,-0.610548,0.061286,0.789604
-0.299087,0.238843,0.248407,0.804965,-0.062091,0.590064
0.269746,0.554203,0.863328,0.901884,0.379883,-0.205656
0.422373,0.326968,0.843920,-0.033747,-0.995238,0.091445
0.328221,-0.058394,0.912123,0.750988,-0.532413,-0.390580
0.526820,0.014992,0.026513,0.854020,0.495745,0.157752
0.487934,0.091294,-0.196084,-0.638314,-0.769322,-0.026456
-0.057975,0.465184,0.198785,-0.052250,-0.151486,0.987077
0.212854,-0.668073,0.285679,0.740735,-0.538077,-0.402225
0.553286,0.032143,-0.217069,0.120913,0.878099,0.462950
-0.286875,0.383748,0.723253,0.319577,0.822797,-0.469973
-0.063019,-0.418788,0.572575,-0.579274,-0.245322,-0.777340
0.549201,-0.112334,0.120542,0.653011,0.713186,0.254837
-0.223107,-0.038754,0.784180,-0.056086,-0.069951,0.995972
0.271788,0.814922,0.227609,-0.064751,-0.002455,0.997898
-0.586546,0.632527,0.495706,0.662063,0.470097,-0.583680
-0.538699,0.061777,0.736650,0.112712,-0.990450,-0.079404
-0.106239,-0.184825,0.818078,-0.229173,-0.523432,0.820670
-0.125411,-0.084800,0.447411,0.445965,0.833037,0.327360
-0.346017,-0.124896,0.699675,0.773827,-0.432627,0.462628
0.365440,-0.590138,0.772438,0.058312,0.437393,0.897378
-0.296003,-0.146907,0.676269,0.967212,-0.177365,0.181775
-0.232651,0.802866,0.542580,0.476705,-0.798979,0.366585
-0.054558,-0.156474,0.284633,-0.188374,0.831202,0.523086
0.790647,0.198748,-0.982434,-0.159368,0.051915,0.985853
-0.030009,0.523480,0.809881,0.762821,0.198761,0.615304
-0.166424,-0.391137,0.026091,-0.328931,0.550625,-0.767214
-0.515275,0.162307,0.765255,0.926202,-0.377026,-0.001268
-0.006169,0.860190,0.530011,0.566609,0.207382,0.797463
0.363856,-0.091761,0.956702,-0.246385,0.644160,0.724121
0.200475,0.836739,0.684889,0.896581,-0.094115,-0.432764
0.276247,0.815272,0.219037,0.022169,0.172400,0.984778
0.599550,-0.254749,0.920961,0.240017,0.965298,0.102914
-0.301921,0.195909,0.747845,0.032730,0.625818,-0.779282
0.577835,-0.622728,0.793330,0.825122,0.292954,-0.483065
-0.414246,0.113656,0.752655,0.723543,-0.555273,0.410071
-0.011962,0.293406,0.675426,0.396130,0.899151,0.186033
0.171258,0.766854,0.679689,0.989398,-0.002218,0.145213
-0.376151,0.160402,0.723706,-0.179926,0.923438,-0.338952
0.326429,0.183619,0.607770,-0.007418,-0.921259,0.388878
0.295961,-0.415249,0.920274,0.198125,0.972609,0.121565
0.413537,-0.366442,0.620261,0.446395,-0.516632,-0.730632
0.136123,-0.535497,0.597308,-0.330361,0.525515,0.784025
-0.208728,0.629844,0.524249,0.667078,0.361820,0.651224
-0.015671,-0.121318,0.262648,-0.100058,-0.990522,0.094100
-0.324094,-0.360258,0.629192,0.484344,0.307170,0.819181
0.525028,0.008108,0.500390,-0.468857,-0.433163,0.769768
-0.164048,0.785288,0.642105,0.436107,-0.886824,0.152819
0.221148,0.219515,0.919212,-0.737696,0.311912,0.598762
0.677489,-0.305307,0.915964,-0.614938,-0.147333,0.774689
-0.060851,0.695996,0.612891,-0.704581,-0.007329,0.709585
0.530196,0.038209,-0.208076,0.773061,0.629303,-0.079709
0.648772,-0.288195,0.835644,0.787498,-0.385056,-0.481226
0.479390,0.060688,0.138748,0.909294,-0.415571,-0.022027
0.045013,-0.781710,0.584707,-0.506822,0.861695,0.024762
0.065186,0.477356,0.618622,-0.356151,-0.913343,0.197386
-0.734756,-0.432827,0.156158,-0.751165,0.160471,0.640313
-0.031926,0.357186,0.757151,0.408467,0.682962,-0.605572
0.120660,0.254049,0.923818,-0.262361,0.437674,0.860005
0.209061,-0.139829,0.705640,-0.344414,0.894404,0.285344
-0.053182,-0.124857,0.769721,0.989625,-0.019179,0.142388
-0.441170,-0.504968,0.410843,0.096824,0.545756,0.832331
-0.123161,0.547358,0.633237,0.234290,0.614525,0.753304
0.284708,-0.264977,0.538349,-0.507169,-0.074949,0.858582
-0.275122,0.623700,0.697833,0.875120,0.411900,-0.253974
-0.449173,0.210648,0.788708,-0.734121,-0.347956,-0.583089
0.187929,0.568981,0.829024,0.743009,0.595368,0.305738
-0.203017,-0.794194,0.547686,-0.726838,0.142170,-0.671933
-0.580919,0.203842,0.726204,0.824621,-0.285779,-0.488191
0.103947,0.055321,-0.059506,-0.063427,0.394589,0.916666
0.049056,-0.176542,0.849603,0.526509,-0.464781,-0.711876
-0.313049,-0.151068,0.142308,0.254574,-0.204470,0.945190
-0.633602,-0.229238,0.721160,-0.286096,0.944869,0.159286
-0.463218,0.039221,0.769143,-0.032317,-0.732309,0.680205
0.177385,-0.010870,0.024577,-0.056353,-0.989038,-0.136487
0.084816,0.347385,0.730154,-0.351520,0.503061,-0.789534
-0.418122,-0.764326,0.591890,0.887693,0.416875,-0.195491
0.376277,-0.076477,-0.983558,0.256464,-0.075991,-0.963562
-0.371108,-0.056410,0.755980,0.190804,0.923939,-0.331559
-0.027591,-0.168919,0.784008,-0.366825,0.338910,0.866360
0.321927,-0.163086,0.623446,-0.453754,0.815200,-0.359938
0.429167,0.170825,0.495222,0.933555,-0.011679,-0.358243
-0.033385,0.621833,0.176957,-0.529164,0.130419,0.838437
-0.644730,-0.074183,0.612563,0.903431,0.351369,0.245667
-0.433501,-0.551792,0.687715,0.047132,-0.737347,0.673868
0.446171,0.145935,-0.985479,-0.411839,0.382602,0.827046
-0.050598,-0.002081,0.151630,0.140100,0.916046,0.375808
-0.527737,-0.276333,0.636000,0.791232,-0.130086,-0.597519
-0.001959,-0.341669,0.846527,0.975646,0.219251,-0.006661
0.399658,0.010909,-0.431500,-0.006764,0.996970,0.077491
-0.869003,0.344935,0.478109,-0.030284,-0.891078,0.452838
0.084233,-0.853890,0.465977,-0.552478,-0.438479,-0.708876
-0.196433,-0.176503,0.631581,-0.550726,0.607811,0.572072
0.308381,0.263344,0.138545,0.784960,-0.353020,0.509131
-0.232734,-0.173975,0.602523,0.721982,0.603966,0.337592
-0.764431,0.786065,0.374618,0.362619,-0.017461,0.931774
0.525861,-0.247166,0.159750,0.943513,-0.157297,-0.291617
-0.685617,-0.073522,0.146852,-0.261969,0.482186,0.835984
0.369483,-0.119568,-0.982621,0.180471,-0.154115,-0.971431
0.390947,-0.377137,0.719849,0.477697,-0.121337,-0.870105
-0.573209,0.037237,0.626757,0.150096,-0.966897,0.206351
-0.111783,-0.087289,0.262710,-0.078052,0.978588,0.190455
0.374151,-0.031793,0.921507,0.521353,0.011912,-0.853258
0.322636,0.111712,0.622104,0.524546,0.795034,0.304586
-0.797608,0.338091,0.364968,-0.015319,-0.505122,0.862912
0.216938,0.882669,0.254528,0.153027,-0.240633,0.958477
0.674030,0.047115,0.734573,0.006258,-0.136889,0.990567
0.420539,0.297295,0.827915,-0.555367,0.830203,0.048284
-0.486517,0.328174,0.741053,-0.031061,0.180195,0.983140
-0.132497,-0.847084,0.613797,-0.271836,-0.809998,-0.519623
-0.382362,-0.424777,0.400522,-0.264065,0.293232,0.918850
0.141458,-0.754409,0.322232,0.925941,-0.370695,-0.072235
-0.210978,0.051471,0.842967,-0.356737,-0.370729,-0.857495
-0.285250,0.785016,0.553729,0.977609,0.021233,-0.209354
0.539949,-0.053532,0.452345,0.167099,-0.985642,-0.024263
-0.500396,0.477550,0.566095,-0.209568,-0.043117,0.976843
0.307298,-0.064849,0.930017,-0.644122,0.758390,0.099758
-0.545784,0.569759,0.316548,-0.555369,-0.064689,-0.829084
0.521402,-0.528186,0.775264,0.205910,0.771655,0.601789
-0.458759,-0.404165,0.014756,-0.426283,-0.777028,0.463152
0.319052,-0.398098,0.902692,0.852290,-0.521221,-0.043944
0.191722,0.495557,0.841952,-0.704902,-0.101341,-0.702027
0.319009,-0.143096,0.863609,-0.630467,-0.665944,-0.398786
0.504731,0.277344,0.129614,-0.308925,-0.345257,0.886207
-0.235985,-0.520758,0.623821,-0.740138,-0.672016,-0.024283
0.530988,-0.118051,0.520517,-0.630503,0.707450,0.319344
0.001500,-0.028992,0.329227,-0.804963,-0.500692,-0.318341
0.452924,-0.208626,0.390950,-0.056907,0.186588,0.980789
-0.496853,0.204153,0.688152,0.000882,0.977932,0.208921
-0.112658,-0.446361,0.749516,0.199235,-0.157110,0.967275
0.328887,-0.123534,0.462260,0.993790,-0.110237,0.015164
-0.288834,0.292434,0.737727,0.391048,0.093396,0.915619
-0.458634,0.432438,0.291331,0.371692,-0.322464,0.870553
0.543283,0.013281,0.946381,-0.700885,0.677385,0.223404
-0.594298,-0.153947,0.732715,0.803797,0.071302,-0.590616
-0.533864,-0.180392,0.736088,0.350744,-0.797617,0.490700
0.372317,0.086550,0.718896,-0.316818,-0.948016,-0.029870
-0.147376,-0.502674,-0.015318,0.101771,-0.668942,0.736314
-0.215396,0.566920,0.670149,-0.398742,0.797138,0.453405
-0.117660,0.260350,0.844014,0.424044,-0.714261,-0.556792
-0.432918,-0.244560,0.206514,-0.423466,0.469956,-0.774479
0.382987,-0.115523,0.317438,0.411247,-0.910998,-0.030972
0.483224,0.208393,0.733402,-0.248181,-0.781861,0.571926
-0.002584,0.882824,0.522781,0.566609,0.207382,0.797463
0.483182,-0.230327,0.942087,0.121318,-0.746360,0.654392
0.283124,0.116689,0.897742,0.849137,0.414910,-0.326827
-0.768766,0.094095,0.160093,0.181798,-0.721844,0.667751
-0.070437,-0.743248,0.558913,0.185407,0.677283,0.711978
-0.128579,-0.178758,0.589329,0.355820,0.932726,-0.058428
0.252740,0.526824,0.872806,0.591660,-0.756811,0.277805
0.611136,-0.119296,0.480513,-0.067769,0.725052,0.685351
-0.684574,-0.495985,0.174115,-0.373089,-0.473679,0.797767
-0.310090,-0.265094,0.389670,-0.382932,0.451349,0.806007
-0.796399,0.004453,0.122166,0.620833,0.454943,-0.638431
0.240570,0.315418,0.843202,0.984716,0.165548,-0.054119
-0.149919,0.013709,0.824683,0.791560,0.603470,0.096210
-0.331055,0.707274,0.528480,-0.698154,0.160161,0.697804
-0.156629,-0.051588,0.699410,-0.397020,0.870095,-0.292078
0.183054,-0.800727,0.483402,-0.680898,0.426642,-0.595276
0.866127,-0.234682,0.811380,-0.071221,-0.913115,0.401433
0.337015,-0.127151,0.651958,0.169856,-0.954935,-0.243409
0.690035,0.073600,0.346715,0.284031,0.890392,-0.355707
0.334556,-0.116301,0.638093,0.750135,-0.642220,0.157644
-0.232068,0.871001,0.520142,0.192107,0.178393,0.965024
0.124370,0.405176,0.772453,-0.573030,0.258381,-0.777738
-0.400533,-0.352286,0.718053,0.540877,-0.660104,0.521263
0.214812,-0.544442,0.633486,-0.083325,-0.990240,-0.111725
0.478598,-0.011959,0.640934,0.980304,-0.096140,0.172515
0.663152,-0.615299,0.820155,0.946810,-0.081888,0.311200
0.636644,-0.436366,0.883143,0.741518,-0.668886,0.052375
0.350269,-0.106656,-0.983386,-0.141169,0.129362,0.981497
0.283916,-0.674529,0.769939,-0.828894,0.127365,0.544714
0.405910,0.178720,-0.993301,0.286575,-0.135580,-0.948416
0.119202,-0.201003,0.926816,-0.241495,-0.300189,0.922804
-0.261409,0.542380,0.642917,-0.177667,0.964594,0.194917
0.493060,0.033893,-0.795266,0.642797,0.742037,-0.190242
0.355520,0.148968,0.615499,0.440592,0.814613,-0.377205
-0.810570,0.315690,0.550918,0.872712,0.441039,0.209425
0.013796,-0.240127,0.837752,0.754866,-0.164936,-0.634802
0.437878,0.660256,0.218100,0.301985,-0.141351,0.942775
-0.659400,0.009236,0.695537,0.833669,0.551869,0.020879
-0.859292,0.256305,0.388904,0.944431,0.266139,-0.192926
-0.908807,0.418204,0.340781,0.964412,-0.235233,-0.120725
-0.635143,0.473623,0.492052,0.026889,-0.017502,0.999485
-0.735923,-0.010948,0.671632,0.810621,-0.101396,0.576726
0.047889,0.548719,0.805384,-0.606892,0.700851,-0.374820
-0.403284,-0.347347,0.562520,-0.623986,0.590665,-0.511621
0.639228,0.003053,0.743286,-0.025808,-0.222203,0.974659
0.174551,0.596515,0.769565,-0.652913,0.457752,-0.603463
0.688326,-0.224026,0.844888,0.978072,0.173091,-0.115819
0.294419,-0.126179,0.445616,0.681786,-0.698513,0.217363
0.312716,0.115328,0.603476,-0.212170,-0.926558,0.310602
-0.871295,0.291967,0.442649,0.786033,0.618163,0.005156
0.502313,0.007759,0.931469,-0.417467,0.794049,0.441823
-0.019631,-0.245027,0.798248,0.945029,0.293063,-0.145033
0.355312,0.363836,0.138920,0.043086,-0.664875,0.745711
0.697912,-0.179264,0.785304,-0.498470,0.318352,-0.806337
0.293919,-0.163825,0.422444,0.877910,-0.234780,0.417316
-0.895594,0.471522,0.350681,0.986601,-0.098059,-0.130395
0.220189,-0.004686,-0.017863,0.151010,0.979962,0.129884
0.060684,-0.310751,0.909468,0.466167,0.423541,0.776725
0.323553,-0.036848,0.919524,0.805678,-0.591715,-0.027509
0.807444,-0.380870,0.770486,0.199127,-0.852759,0.482856
-0.056183,0.726447,0.625695,0.831015,0.257785,-0.492911
0.712833,0.149902,-0.985682,0.000341,0.240086,0.970752
-0.124494,-0.483773,0.450534,0.603095,-0.078880,0.793760
0.173967,0.363914,0.228405,0.336216,-0.120058,-0.934101
0.506022,-0.007681,0.932421,-0.416836,0.665760,0.618880
-0.371400,-0.642600,0.664855,-0.447038,-0.888195,-0.106143
-0.873713,-0.135979,0.043142,-0.174288,-0.706125,0.686303
0.341724,-0.007681,-0.510867,-0.516159,0.392833,0.761092
-0.933064,0.271317,0.373322,-0.165796,0.936417,0.309249
-0.133122,0.359130,0.717819,0.173598,0.380828,-0.908204
-0.079148,0.827600,0.621135,-0.419743,0.045816,0.906486
-0.053974,0.058199,0.889467,0.427839,0.022845,-0.903566
0.547577,-0.024326,-0.036974,0.738756,0.673499,-0.025269
-0.328930,0.354308,0.714634,0.484972,0.233094,-0.842894
-0.169424,0.154957,0.855178,-0.058290,0.244355,0.967932
0.460634,-0.329457,0.748189,0.832524,-0.535013,-0.143752
0.586754,0.129718,0.154285,-0.220718,0.172870,0.959896
-0.279998,-0.783110,0.596668,-0.250026,-0.384664,0.888550
-0.075147,-0.176230,0.816611,0.032931,0.745666,-0.665506
0.254908,0.107084,0.658766,0.066508,-0.400943,0.913686
-0.050681,-0.137535,0.821029,-0.451896,0.023978,-0.891748
-0.579919,0.556264,0.481950,-0.234926,0.008926,0.971972
-0.823615,0.479184,0.419727,-0.275416,0.960435,-0.041364
-0.435043,-0.200692,0.749438,-0.738124,0.427276,-0.522118
-0.577627,0.176813,0.726750,-0.137682,-0.215137,0.966830
-0.075689,0.536080,0.643105,-0.017486,0.187889,0.982035
-0.175968,-0.541720,0.766426,-0.131464,-0.186728,-0.973576
0.166340,0.370603,0.425598,0.583638,-0.205229,0.785651
-0.037344,-0.519008,0.751967,0.522060,-0.422416,-0.740958
-0.576793,-0.159936,0.744582,0.966014,-0.218345,-0.138359
0.141458,0.367025,0.237493,0.306899,-0.113171,-0.944990
0.489810,-0.020165,0.025561,0.803483,0.572813,0.162172
-0.783062,-0.494896,0.137015,0.742514,-0.422222,-0.520002
-0.262160,0.213370,0.233183,0.738875,0.156478,0.655423
0.565623,-0.129718,0.183796,-0.675006,0.198169,0.710701
-0.397949,-0.481945,0.410858,-0.053908,0.239445,0.969412
-0.464969,-0.507963,0.671242,-0.477798,0.361658,0.800570
0.292418,-0.473856,0.776763,-0.711511,0.697255,-0.087101
-0.496937,-0.335058,0.710839,0.916618,-0.074228,-0.392812
-0.716167,-0.023003,0.672538,0.912512,0.095226,0.397810
-0.425499,-0.463822,0.401583,-0.217063,0.411353,0.885253
0.555829,-0.280222,0.977828,-0.734919,-0.615729,0.284205
0.479139,-0.139402,0.508244,0.529541,-0.740486,-0.413844
0.336307,-0.154958,0.509478,0.923412,0.333084,-0.190699
-0.103572,-0.209754,0.552495,0.900473,-0.434634,-0.015582
-0.289959,-0.124312,0.241662,-0.093786,-0.746047,0.659255
-0.873463,0.461567,0.343061,-0.184097,-0.172898,0.967582
0.453549,0.300484,0.600525,0.891268,0.121098,0.437008
-0.196766,-0.565948,0.690447,-0.289466,-0.628340,-0.722079
0.496436,-0.265289,0.566454,0.741834,0.596117,0.307129
0.364565,-0.135396,0.328306,-0.822764,0.523551,0.221256
0.120327,-0.206176,0.786600,-0.354796,-0.771383,0.528287
-0.309632,-0.089700,0.253779,-0.092057,-0.679200,0.728157
-0.733131,0.101095,0.155112,-0.024456,-0.653473,0.756554
0.241695,0.329379,0.650131,-0.329731,0.480878,0.812425
0.801608,0.085344,0.228827,0.216650,-0.552847,0.804626
0.576626,-0.237832,0.176629,0.912021,-0.029835,-0.409056
0.107823,-0.097828,0.094966,-0.289906,0.956967,0.012949
0.287084,0.580493,0.650194,0.157382,-0.543432,0.824568
0.662818,-0.100784,0.851383,0.957214,0.131207,0.257927
0.003209,-0.797616,0.594935,0.346971,-0.818720,-0.457502
0.620431,0.035448,0.313597,0.436444,0.537459,-0.721564
0.501688,0.024287,0.733948,0.609658,0.752896,-0.247921
0.273913,0.018375,-0.070904,0.445464,0.787170,0.426527
0.447630,-0.169347,0.994722,0.267141,0.637675,0.722500
0.145626,-0.392848,0.887234,-0.487265,0.495328,-0.719182
-0.058600,0.220371,0.801746,0.621233,0.147410,0.769636
-0.654858,-0.574426,0.421304,0.321944,0.930908,0.172518
0.501688,-0.587337,0.792377,0.162703,0.310106,-0.936676
0.407410,0.286445,0.679018,0.793318,-0.367549,0.485339
-0.855416,0.312112,0.376038,0.980113,-0.187599,0.064689
0.767390,-0.060416,0.177565,0.199516,-0.753580,0.626347
-0.168174,-0.313474,0.764396,0.409132,0.234810,0.881746
0.834535,-0.363564,0.759072,-0.252745,0.588068,-0.768307
-0.465761,0.442044,0.577619,-0.584959,0.203322,0.785164
0.742050,-0.068544,0.603398,0.907070,0.417221,-0.056134
-0.718417,-0.480195,0.169930,-0.451485,-0.342326,0.823999
-0.635227,-0.377020,0.201705,0.164639,-0.542368,0.823851
-0.650190,-0.273845,0.033321,0.829142,0.327717,-0.452908
-0.466261,-0.141424,0.152255,0.177586,0.452427,-0.873941
0.006585,0.508740,0.789676,-0.384349,0.145835,-0.911597
0.111116,-0.392148,0.722316,-0.196591,0.936205,-0.291329
0.361563,0.007797,0.920398,0.631562,0.181947,-0.753674
0.146585,-0.083750,0.873649,-0.235644,0.969939,-0.060745
-0.619472,-0.216287,0.699504,-0.007640,0.361269,0.932430
-0.173968,-0.264083,0.767020,0.082006,0.554742,-0.827971
-0.603092,-0.630817,0.429564,0.159562,0.159099,0.974283
-0.023590,0.357886,0.759041,0.408467,0.682962,-0.605572
-0.444713,-0.227060,0.751889,0.883704,-0.113381,0.454106
-0.093736,-0.004686,0.835504,0.313785,0.737432,-0.598107
-0.486600,-0.315846,0.800856,0.521965,0.502337,0.689355
0.059267,0.942598,0.568484,-0.479167,-0.752422,0.451952
-0.260701,-0.177008,0.375351,0.401771,-0.497449,-0.768847
0.216730,-0.932487,0.406517,0.227070,-0.939386,0.256891
-0.341183,0.157796,0.721004,0.235679,0.913714,-0.331032
0.460885,-0.063916,0.150522,0.932899,0.353168,0.070507
0.375776,0.327785,0.719053,0.393654,-0.688343,-0.609279
0.708665,0.120812,-0.978405,-0.049589,0.150674,0.987339
-0.446297,0.037043,0.764927,0.295429,0.895802,-0.332055
-0.410453,0.420694,0.710590,-0.451935,0.244250,-0.857961
-0.424957,0.120540,0.780448,0.521437,-0.760272,0.387415
-0.424165,0.445816,0.728765,-0.247539,0.556410,-0.793179
-0.558704,-0.403232,-0.007323,-0.605131,-0.742676,0.286791
-0.039637,-0.036226,0.816720,-0.073376,-0.922006,0.380160
-0.340933,-0.540514,-0.037552,0.060126,0.658710,-0.749990
0.164715,-0.269139,0.496799,-0.603516,0.777712,-0.175874
0.475722,-0.633889,0.783805,0.898391,-0.422133,-0.121235
0.515066,0.026892,-0.550762,-0.601228,-0.726776,-0.332147
-0.907306,0.295467,0.555384,-0.671208,0.516820,-0.531391
0.272246,-0.557509,0.732746,0.758984,-0.563776,-0.325730
0.036594,-0.113540,0.158172,-0.184150,-0.980669,-0.066160
-0.427541,0.301573,0.459793,-0.073148,0.026188,0.996977
0.518026,-0.049215,0.466414,0.079753,-0.986211,0.145009
0.202018,0.516052,0.828071,0.738570,-0.217934,-0.637981
-0.332555,-0.032181,0.764646,-0.005404,-0.787217,0.616652
-0.476306,-0.647928,0.577509,0.552949,0.701283,0.449944
-0.361772,-0.576565,0.616670,0.898267,-0.437770,0.038393
-0.098779,-0.109806,0.077884,0.137253,-0.387947,0.911405
0.043096,-0.020398,0.287100,0.597968,-0.792063,0.122762
-0.969699,0.250938,0.391575,-0.197266,0.726621,-0.658110
0.252324,-0.528341,0.726141,-0.570429,0.791685,0.218736
0.668028,0.015809,-0.978921,-0.026109,0.208671,0.977637
0.359188,-0.301612,0.365249,-0.318163,0.729451,0.605536
0.494186,0.087872,-0.598292,0.064910,0.974426,0.215131
0.292252,-0.034010,0.791643,0.905424,0.082451,0.416425
-0.441921,-0.193692,0.219115,0.044264,-0.712800,0.699969
-0.187346,0.910708,0.546640,-0.655303,0.458366,0.600399
0.266702,-0.132168,0.914481,0.259096,-0.597909,0.758534
0.545576,0.357419,0.572747,0.906752,-0.421588,0.007975
0.694953,-0.230327,0.779370,0.632086,0.174381,0.755022
0.442670,-0.182997,0.983402,0.462035,0.874866,0.145370
0.352978,0.270228,0.482059,-0.267364,-0.888614,0.372669
-0.317342,-0.082544,0.791534,0.879268,0.379997,0.287210
0.148168,-0.087445,0.671195,-0.585593,-0.793988,-0.163290
-0.258326,0.319540,0.482715,0.019730,0.991444,0.129034
0.400283,0.358780,0.535741,0.297974,0.194052,-0.934642
-0.040178,0.565520,0.808429,0.888822,-0.033803,0.457005
-0.464427,-0.030859,0.525966,0.252270,0.964330,0.080178
-0.267411,-0.323429,0.775014,-0.224575,-0.396445,0.890167
-0.548535,0.050927,0.608800,-0.174670,-0.624335,0.761378
-0.352436,-0.147180,0.792768,0.451006,-0.689370,-0.566889
0.183054,0.867968,0.658079,0.938426,0.039348,-0.343233
-0.542950,0.249110,0.660249,-0.699633,0.637386,-0.322883
-0.525820,-0.518502,0.630442,0.900576,-0.177420,-0.396843
-0.482683,-0.219048,0.770580,0.053094,-0.479693,0.875829
-0.389989,-0.535108,0.687527,-0.071691,-0.644171,0.761514
-0.536615,-0.195131,0.735010,0.586642,-0.500361,0.636781
-0.599425,0.564197,0.479171,0.163147,-0.088205,0.982651
0.056058,-0.821845,0.456342,0.214171,0.763177,0.609665
-0.263118,-0.393121,0.612423,-0.238675,-0.506948,-0.828274
0.591214,0.068544,0.813831,0.790327,0.612245,-0.023237
-0.724128,-0.453789,0.166089,0.576100,0.156921,-0.802175
-0.753303,-0.445427,0.172944,-0.593513,0.021945,0.804525
-0.251740,0.542652,0.686700,0.290650,-0.758754,-0.582937
0.304922,0.008809,-0.991646,-0.131007,0.095996,0.986723
0.218814,0.415560,0.684732,-0.220167,-0.929189,0.296875
0.133456,-0.022576,0.592952,0.183176,0.974845,-0.126979
0.485183,0.177514,0.387046,0.435214,-0.813341,0.386089
-0.063894,0.900364,0.228327,-0.232692,-0.094673,0.967931
0.384487,0.026387,-0.246908,-0.249507,0.957178,0.146821
-0.148627,0.632644,0.670883,-0.572355,-0.329662,0.750822
0.492810,-0.010753,-0.972175,0.084003,-0.242240,0.966573
0.590380,0.021331,-0.974923,-0.053677,0.164581,0.984902
0.210145,0.378537,0.904409,0.330364,-0.115943,-0.936705
-0.043805,0.378070,0.762398,0.408558,0.584459,-0.701062
-0.210978,0.014953,0.412716,-0.478217,-0.758911,-0.441998
-0.337265,0.308845,0.622244,0.799515,0.401635,-0.446615
-0.690409,0.436405,0.429798,0.776034,0.577223,0.254138
-0.274330,-0.406771,0.641418,-0.681580,-0.555830,-0.475923
0.244863,0.593987,0.818047,0.816403,0.540430,0.203523
-0.269412,-0.610283,0.419306,0.297753,-0.106049,-0.948734
0.313883,-0.110039,0.490069,0.885311,0.460110,0.067254
0.515400,0.024909,0.046374,0.782303,0.614111,0.104259
-0.101446,-0.472029,0.760259,0.276895,0.310510,0.909347
0.294752,0.241371,0.909187,0.086166,0.041824,0.995402
0.428416,0.595854,0.212854,0.485855,-0.092665,0.869113
0.580169,0.004064,-0.145634,-0.611829,-0.781422,0.122654
-0.184179,0.736092,0.621885,-0.006581,0.983741,0.179475
-0.127329,-0.244949,0.064784,0.108267,-0.360782,0.926345
0.521402,0.259416,0.885032,0.794762,-0.255158,-0.550679
0.136957,0.358664,0.417853,0.282098,-0.438302,0.853412
0.502980,0.478095,0.168322,-0.283555,-0.455632,0.843799
-0.558955,0.636650,0.500375,0.087079,0.005798,0.996185
-0.857000,0.528963,0.445132,-0.353300,0.935380,0.015572
-0.806694,-0.071538,0.679064,0.805084,-0.273918,0.526126
0.200767,0.364186,0.899366,0.646730,0.465545,-0.604159
-0.134956,0.588543,0.509946,0.145709,-0.629096,0.763549
-0.677739,0.597293,0.356849,-0.603341,0.647653,-0.465323
-0.445171,-0.102884,0.783571,0.526629,-0.636489,-0.563510
-0.268745,0.402998,0.750437,-0.632892,0.677394,-0.374946
-0.352936,-0.442316,0.687777,0.341316,0.486710,0.804125
0.524361,0.079044,-0.973003,0.509902,0.230945,0.828652
0.470054,-0.318490,0.747830,0.820485,-0.558640,-0.121351
-0.580836,-0.604021,0.580054,-0.541548,0.649948,0.533192
-0.360688,0.306901,0.279074,-0.574992,-0.798938,-0.176299
-0.178260,0.448538,0.731856,-0.423364,0.742131,-0.519620
-0.161880,-0.262722,0.769690,0.283655,0.540123,-0.792343
-0.374359,0.067688,0.707779,0.118936,0.540273,0.833042
0.437961,0.367142,0.718194,0.383744,0.813140,0.437658
-0.223982,0.646139,0.715633,-0.528969,0.783897,0.325111
-0.513191,-0.696191,0.599510,0.624969,0.460730,-0.630192
0.393532,0.357691,0.933702,0.506514,-0.833311,0.221440
0.207185,-0.028720,0.023140,-0.075389,-0.988111,-0.133989
0.035927,-0.117118,0.723971,0.682234,-0.365581,0.633172
0.050973,0.032648,0.585910,-0.324335,0.353110,0.877565
0.042429,0.542147,0.787833,-0.218261,0.743919,-0.631622
0.767932,0.369047,-0.992770,0.090797,0.045046,0.994850
-0.534114,-0.485251,0.625461,-0.651532,0.680723,0.334846
-0.850540,0.334163,0.549247,0.825211,0.017594,-0.564550
0.477806,0.240982,0.134782,0.023517,0.010836,0.999665
0.054350,0.020359,0.446178,-0.336677,-0.417681,-0.843915
0.321094,0.226515,0.940026,0.742439,-0.563380,-0.362475
-0.657066,-0.185486,0.743817,-0.452134,0.677708,-0.579902
-0.778977,0.714780,0.374227,0.027558,0.339085,0.940352
-0.458300,-0.295390,0.664121,0.757604,0.559856,-0.335555
-0.764890,0.200498,0.564425,0.952093,0.167574,0.255809
-0.452382,-0.637583,0.683655,0.077699,0.974102,0.212341
0.237028,0.159702,0.619636,-0.749346,0.142676,-0.646625
-0.253240,0.865168,0.531603,0.066286,0.513464,0.855547
-0.452548,0.086161,0.755246,0.876531,-0.008349,0.481274
0.090651,-0.370331,0.201721,-0.508833,0.596349,0.620852
-0.218022,-0.269800,0.599947,0.866566,-0.089348,0.490999
0.131330,-0.083555,0.622166,0.410293,0.755614,0.510594
-0.457467,-0.599860,0.672163,0.220183,0.709153,-0.669792
-0.562039,0.505163,0.482075,-0.693944,0.122558,0.709522
0.405326,0.046026,-0.966382,0.836478,-0.199113,-0.510547
0.688784,0.078888,0.555696,-0.546272,-0.384934,0.743917
-0.156629,0.072822,0.861783,0.061197,-0.266279,0.961951
0.744675,-0.316390,0.791550,-0.113286,-0.053521,0.992120
-0.480640,-0.462345,0.755215,-0.570608,-0.654152,0.496479
-0.393156,-0.706885,0.647742,0.877334,0.096994,-0.469976
-0.419706,-0.068583,0.751452,0.090342,0.483887,0.870455
0.500313,0.236977,0.910327,0.886108,-0.274096,0.373743
-0.358771,0.082855,0.699691,0.419208,0.758944,0.498265
-0.257450,-0.420305,0.651380,0.926620,0.244689,0.285486
0.032384,0.437533,0.785522,0.818867,0.127260,0.559698
0.343809,0.269878,0.479124,0.338074,-0.745063,0.574967
0.052932,0.546503,0.648663,0.372932,0.449663,0.811618
-0.103614,-0.001147,0.615905,-0.449017,0.572358,-0.686142
-0.047430,0.724270,0.629801,0.871460,0.179011,-0.456632
0.646647,-0.253855,0.917557,0.443246,0.849063,0.287445
0.421748,0.676862,0.225048,0.171922,-0.130532,0.976424
-0.041095,0.531374,0.831132,0.959817,-0.114766,0.256087
0.384070,0.100123,0.059085,-0.597153,0.692278,-0.405166
-0.897137,0.397476,0.347230,-0.428097,-0.492051,-0.758036
0.275497,-0.140646,0.622884,0.052145,-0.709739,0.702532
-0.587338,-0.132946,0.731044,-0.412078,0.781532,0.468400
-0.648731,-0.160713,0.763741,0.182846,-0.467811,0.864708
0.410578,-0.205359,0.627256,-0.534488,-0.628074,0.565550
0.408535,0.127384,0.301996,0.138147,-0.774080,0.617832
-0.593715,0.184203,0.657579,-0.167843,-0.243172,0.955351
-0.341016,-0.074844,0.756745,0.150394,0.933236,-0.326269
-0.568833,-0.406887,0.179892,-0.312179,0.523897,-0.792513
-0.586379,-0.714858,0.396962,-0.105779,0.423132,0.899872
-0.486892,0.028954,0.750937,0.289191,0.828873,-0.478893
-0.475555,0.248838,0.542159,-0.347365,-0.757885,0.552222
0.066936,-0.573259,0.474752,0.698463,0.666343,-0.261029
-0.494103,-0.410738,0.004872,-0.512500,-0.721053,0.466289
-0.141041,-0.649134,0.564331,-0.557634,0.422082,-0.714766
-0.493019,-0.382775,0.701580,-0.403972,-0.357180,-0.842157
-0.860501,0.281155,0.558554,-0.510729,-0.508936,0.692922
-0.848122,0.274700,0.397430,0.758791,-0.251655,-0.600755
-0.118243,-0.299823,0.749094,0.113968,0.907360,0.404611
-0.887717,0.500807,0.351930,0.963011,-0.242098,-0.118312
-0.823156,0.312773,0.560833,0.907611,0.211655,0.362554
0.212395,0.749781,0.225954,-0.332058,0.151775,0.930968
0.242195,0.575592,0.817594,0.774438,0.188855,0.603804
-0.820197,0.542925,0.356068,-0.170603,0.449741,0.876714
0.208019,0.001186,0.953719,0.112611,-0.922824,0.368396
-0.109865,-0.209248,0.540878,0.862158,-0.479220,-0.164413
0.136957,-0.322068,0.910015,-0.376848,-0.230076,0.897246
-0.240403,0.363953,0.732840,-0.393127,0.807638,-0.439513
0.203934,0.523013,0.832287,0.863712,-0.136048,-0.485275
-0.864544,-0.109728,0.055353,-0.174288,-0.706125,0.686303
0.080607,0.953137,0.570764,-0.516899,-0.733934,0.440633
0.067686,0.168608,0.787880,0.341775,0.653798,-0.675083
-0.585879,-0.731348,0.437543,0.031871,0.522680,0.851933
-0.291377,0.885313,0.532884,-0.200164,0.528254,0.825156
0.089818,0.000914,0.799560,-0.413750,0.910163,-0.020337
-0.068978,0.010442,0.848994,0.750350,0.501959,-0.430130
-0.136248,-0.275050,0.056102,0.026981,-0.433567,0.900717
-0.584837,-0.200615,0.756339,0.692603,-0.706205,0.146887
-0.664985,-0.725125,0.450534,0.044346,0.465394,0.883992
-0.473138,-0.573804,0.621682,0.934448,0.116773,0.336409
