0.508861,0.166026,0.592972,-0.469170,-0.874825,0.120672
-0.234520,0.446188,0.427595,0.372869,0.053615,-0.926334
-0.309738,0.041640,-0.047653,0.972836,-0.050671,0.225881
0.323795,-0.483344,0.711883,0.332179,-0.941357,0.059200
-0.678938,-0.166133,0.776449,0.334551,0.856692,-0.392626
0.132055,0.334668,0.080545,0.372737,-0.060283,-0.925977
-0.652080,0.090647,0.761356,-0.751665,-0.295139,-0.589825
0.250710,-0.260731,0.662870,0.133336,0.988976,-0.064404
-0.371224,0.070307,0.006265,0.996786,0.080030,0.003577
0.287254,0.321482,0.712564,-0.287454,0.938788,-0.189862
0.308590,-0.010303,0.626513,-0.178166,-0.964882,-0.193029
0.241301,-0.176543,0.804769,-0.403541,0.906114,-0.126936
0.267942,0.739857,0.707786,0.872800,0.445691,-0.198948
-0.199671,0.270126,0.733147,0.883899,0.021568,-0.467181
-0.759298,0.358798,0.831016,-0.755120,-0.601765,-0.260140
0.485011,-0.117126,0.535289,-0.086149,-0.985654,-0.145135
-0.386707,-0.604260,0.796905,-0.460637,-0.503073,-0.731253
0.651585,-0.245462,0.539086,-0.323268,0.871306,-0.369221
-0.682113,0.484572,0.737656,0.897567,-0.163050,0.409619
-0.825656,0.448217,0.795308,-0.509977,-0.820947,-0.256846
0.306894,0.372678,0.516003,0.304183,-0.688463,0.658400
0.082329,-0.015375,0.381714,-0.459738,-0.211148,0.862588
-0.038129,0.240871,0.734840,-0.122700,-0.898507,0.421461
-0.050002,-0.141523,0.808866,0.511161,0.832435,-0.213933
0.920678,-0.132127,0.332368,-0.765542,0.339280,0.546658
-0.546116,-0.605488,0.716914,-0.187041,-0.446263,0.875137
-0.336380,-0.003737,0.715142,0.713451,-0.499340,-0.491575
-0.188349,0.030429,0.844780,-0.597671,-0.794055,0.110750
-0.060012,-0.087818,0.857294,-0.813364,0.472148,-0.339876
0.128172,0.095184,0.861424,-0.676419,-0.527549,-0.513954
0.267067,0.148836,-0.279605,0.278159,0.780740,-0.559528
-0.487745,-0.009609,0.762321,0.993755,-0.107198,-0.030982
-0.425765,0.587711,0.727847,0.789291,-0.593766,0.156403
-0.499946,0.380578,0.826079,0.730427,0.657236,-0.185788
0.208970,0.012705,0.644359,0.980819,0.056831,-0.186454
0.417725,0.127055,0.304144,0.376579,0.708808,-0.596472
-0.567943,0.274610,-0.993529,0.142612,0.092061,0.985488
-0.172646,0.521994,0.435854,-0.379037,-0.268164,0.885675
-0.508260,-0.594064,0.706061,0.175419,-0.808148,0.562249
-0.060503,-0.386825,0.139019,0.882698,0.468729,0.033723
-0.656838,-0.487935,0.860269,0.987679,-0.031611,-0.153270
0.698577,-0.088778,0.461484,0.874094,0.467909,-0.130465
-0.399508,0.092569,0.569541,0.846088,0.528412,0.070113
-0.251641,0.065876,-0.144588,0.319609,0.944012,0.081800
-0.366246,0.080717,0.217919,-0.094552,-0.995182,-0.025928
-0.694694,0.504805,0.781432,0.105379,0.983601,0.146367
0.302516,0.198591,0.674973,0.812091,0.396176,-0.428430
-0.325765,0.076500,-0.141029,-0.764407,0.553473,-0.330680
-0.573632,0.110827,0.745139,-0.661498,0.158341,-0.733040
-0.370350,0.054986,0.289050,0.870032,-0.430065,0.241016
0.067888,0.239643,0.363726,0.977732,0.099772,-0.184625
-0.076806,0.183056,0.702976,-0.041331,-0.900570,0.432741
-0.681182,0.409566,0.726170,0.858620,-0.134970,0.494525
-0.215645,0.153747,0.719936,0.900526,-0.434088,-0.024909
-0.330526,0.034006,0.366621,0.251238,0.967846,-0.012402
-0.736651,-0.175369,0.754711,-0.127310,-0.860376,0.493503
-0.133972,0.055253,0.149382,-0.641198,0.761772,0.092568
-0.127080,0.448057,-0.066179,0.603191,0.427040,-0.673645
-0.029104,0.263667,0.769519,-0.733508,-0.247567,0.632990
-0.335011,0.066997,0.168067,-0.597360,-0.798816,0.071091
-0.648467,-0.224642,0.871834,0.844574,-0.535380,-0.007958
-0.173030,0.673553,0.661367,0.165544,0.985089,0.046852
0.266303,-0.370809,0.528597,-0.005504,0.976576,0.215104
-0.539278,-0.000961,0.815321,0.978521,-0.064015,0.195955
-0.390373,0.431187,0.908744,-0.487171,0.816474,0.309893
0.172319,0.082425,0.678991,-0.370283,-0.901386,0.224485
-0.307441,0.552957,0.785673,-0.538883,0.548914,-0.638983
-0.346774,0.065610,0.160868,-0.657475,-0.751010,0.060906
-0.212363,0.423340,0.279352,-0.181520,-0.892500,0.412909
-0.391248,0.488469,0.776702,0.593971,-0.732300,0.333070
-0.082329,-0.267778,0.790767,0.842544,0.536331,-0.049681
0.524180,0.185725,0.681238,0.821349,-0.482629,-0.304066
-0.500163,0.122304,0.928948,0.743562,0.010051,-0.668591
-0.108917,-0.692772,0.528834,-0.532943,0.078275,0.842523
-0.051915,0.296658,0.858655,0.172854,0.678187,0.714271
-0.167778,0.644405,0.691094,-0.366798,-0.910844,0.189271
-0.363568,0.853406,0.554891,-0.557891,0.786657,0.264442
-0.215207,-0.427344,0.688009,0.849363,-0.095544,-0.519089
0.221281,-0.435992,0.631291,-0.778623,-0.177405,0.601892
0.364824,0.496797,0.602576,-0.590895,0.687349,-0.422368
0.493598,-0.219678,0.236509,-0.500427,-0.815579,-0.290523
-0.447318,0.682575,0.521034,0.548355,0.788304,-0.279077
-0.088185,-0.027813,0.403832,0.973574,0.148734,0.173296
0.213074,-0.328262,0.542661,0.905222,0.424694,-0.014434
-0.046005,-0.242687,0.600566,0.567413,-0.154150,-0.808876
0.280253,-0.289451,0.633474,0.726167,0.683577,-0.073514
-0.116249,-0.095932,0.388027,0.835721,-0.371518,-0.404407
-0.433205,0.053331,0.663629,0.984307,-0.088968,0.152399
0.663565,-0.298260,0.486386,0.937697,0.100999,0.332451
-0.417452,0.100576,0.593843,0.988304,0.151400,0.018256
-0.525054,0.389654,0.901546,0.995907,0.028389,-0.085810
-0.414880,0.021194,-0.973326,0.424364,0.630724,-0.649694
-0.414443,-0.252135,0.833958,0.881700,0.290374,0.371870
0.693051,-0.291213,0.490452,0.853613,0.498201,0.152121
-0.523084,-0.563101,0.710333,0.805252,0.515855,-0.292341
-0.476039,0.105221,0.840287,0.876962,-0.474795,0.074209
-0.219475,0.147448,-0.365877,-0.506942,0.816583,0.276047
-0.611652,0.028347,-0.983641,-0.039665,0.117756,0.992250
0.334957,0.167895,0.602829,0.038626,-0.985108,-0.167543
-0.411214,-0.454303,0.085513,-0.333173,0.101329,0.937405
0.280580,0.006780,0.645118,0.613116,0.789992,0.001169
0.014880,0.015054,-0.988878,-0.078370,-0.209164,-0.974735
-0.255198,0.564702,0.766070,0.530942,-0.750556,0.393404
0.381017,0.297299,0.793330,0.586232,0.807409,-0.066502
-0.162473,0.042227,0.938108,0.990217,-0.098406,-0.098927
-0.356236,0.251655,0.088962,0.562873,-0.816777,0.126684
-0.018983,-0.364777,0.875647,-0.366127,0.829185,0.422378
-0.272813,0.046925,0.565649,0.151878,-0.986165,0.066416
0.764714,-0.432682,0.411996,-0.312359,0.533262,0.786170
-0.058917,-0.150224,0.881326,0.247132,0.691817,0.678465
0.325875,0.199925,0.695857,0.637528,0.542637,0.546903
-0.224506,-0.631006,0.770342,0.148521,-0.597065,0.788324
0.004322,-0.383995,0.718576,-0.348505,0.576496,-0.739052
0.017124,-0.365524,0.890455,-0.742151,0.188201,0.643267
-0.796607,0.341341,0.830066,0.928899,0.353094,0.111670
0.532387,0.166346,0.633000,-0.744352,-0.653554,-0.137141
-0.634958,-0.267404,0.785720,-0.265107,0.897318,-0.352901
-0.171224,-0.455104,0.784185,0.990480,0.059178,0.124287
-0.110613,-0.192986,0.828864,-0.755149,0.541446,0.369577
0.043871,0.416987,0.060610,0.064494,-0.313875,-0.947271
-0.490480,0.427610,0.836110,0.680678,0.725731,-0.099959
0.453829,0.179799,0.516098,0.774723,-0.267560,-0.572901
0.406784,0.234785,0.424162,-0.642158,0.464816,0.609573
-0.178556,-0.314702,0.696837,-0.506026,0.800780,0.320450
-0.314496,-0.493274,0.799025,0.952088,0.210168,0.222165
-0.184957,0.729500,0.489297,-0.491871,0.857733,0.149523
-0.325274,-0.560058,0.757353,0.891301,-0.453257,-0.011886
-0.189167,-0.473201,0.519009,0.673180,0.302806,-0.674639
-0.138840,-0.165278,0.706488,-0.525403,-0.604450,0.598825
0.575275,-0.161168,0.373978,0.072908,0.962126,-0.262675
-0.531402,0.118247,0.889095,-0.831340,0.420171,-0.363773
-0.002953,-0.166294,0.749506,0.890028,0.027475,-0.455078
-0.464113,-0.612321,0.409385,-0.419106,0.188634,0.888126
-0.284573,0.672486,0.698246,-0.681100,0.561202,-0.470272
0.104159,-0.304933,0.663597,-0.807878,0.569405,-0.152026
-0.691358,-0.272742,0.730410,-0.683128,0.327483,-0.652757
0.045678,-0.190210,0.622036,0.295216,-0.895819,-0.332199
-0.108700,0.169923,0.901435,-0.275775,-0.665231,0.693842
-0.417288,0.434764,0.672615,-0.001291,-0.263696,0.964605
-0.477134,0.057655,0.515402,-0.219706,0.973636,-0.061332
-0.707275,-0.405136,0.780452,0.761186,0.530375,-0.373226
-0.160613,0.500000,0.083234,0.501786,0.361490,0.785835
0.136543,0.550341,0.696442,-0.370052,0.897463,-0.240046
0.447264,0.414211,0.440125,-0.069121,0.452423,0.889121
-0.363568,0.077141,0.532678,0.654156,0.727744,0.206079
0.360119,0.247598,0.614805,0.847262,-0.486527,0.213164
-0.473689,-0.402040,0.693800,0.296480,0.940847,0.164035
-0.058643,0.627215,0.717547,0.290603,0.942776,0.163474
0.538514,-0.134689,0.474046,-0.046956,0.943392,0.328340
-0.142559,0.446135,0.065800,0.502239,0.164038,0.849027
-0.546938,0.488842,0.865553,0.916788,0.398262,0.029801
-0.811215,0.280590,0.836426,0.951280,0.117000,-0.285267
-0.555362,-0.442718,0.415903,-0.025825,-0.360768,0.932298
0.272429,-0.171257,0.742133,0.703983,0.652383,-0.280720
0.019584,0.128070,-0.995190,0.088204,0.132142,0.987299
-0.286653,0.066731,0.619836,-0.438976,0.888219,-0.135527
-0.226039,-0.170724,0.609252,0.923612,0.348544,0.159554
-0.278994,-0.164692,0.670084,0.945367,0.189283,-0.265429
0.289498,-0.152787,0.773649,0.513993,0.768454,-0.381168
0.690864,-0.297726,0.520196,0.211039,0.976858,-0.034789
-0.420240,0.181668,0.781543,0.918125,0.343329,-0.197917
0.050382,-0.420564,0.653156,-0.600006,0.665691,0.443676
0.034900,-0.496690,0.688705,-0.341470,0.835727,0.430069
-0.842340,0.454730,0.828943,0.932457,-0.353438,-0.074868
-0.665098,0.345772,-0.997484,0.102864,0.045155,0.993670
0.186706,0.260730,0.704526,-0.148742,0.981741,-0.118580
-0.537802,-0.257154,0.869034,-0.703615,-0.168813,-0.690238
0.266246,0.469411,0.581692,-0.236060,-0.904641,0.354824
-0.256019,-0.259289,0.937507,-0.169255,0.148556,0.974312
-0.586707,0.218983,0.867847,0.839880,-0.488100,-0.237402
0.312363,-0.026639,0.757559,0.867604,-0.482663,-0.119582
-0.206456,0.321429,0.659468,-0.648907,0.392214,-0.651988
-0.258533,-0.108478,0.571487,0.989950,-0.074351,-0.120299
0.071718,0.404388,0.484567,0.925441,0.353096,-0.137413
0.317014,0.001761,0.646337,0.378673,0.889985,-0.254035
-0.303117,0.210655,0.888873,0.972436,0.198439,0.122435
-0.431675,0.572763,0.722388,-0.702056,0.687673,-0.184992
0.031127,0.003523,0.818485,0.792872,0.386276,-0.471323
-0.548140,0.180226,0.844511,0.767797,-0.143458,0.624425
0.270132,-0.137412,0.791416,0.714089,-0.673899,0.189569
-0.433041,0.460549,0.876786,-0.258983,0.436768,-0.861488
-0.746500,0.456545,0.786717,0.759026,-0.630873,-0.160865
-0.288239,-0.233664,0.397424,-0.403813,0.761932,0.506354
-0.389004,-0.148463,0.462085,0.920044,-0.390291,-0.034515
0.301041,0.126254,0.281947,0.273539,0.676844,0.683417
-0.377682,0.119208,0.764472,-0.709344,0.606049,-0.359910
0.084683,0.579703,0.766719,-0.496947,-0.760702,-0.417584
0.096610,0.053384,0.520385,0.169840,0.907347,0.384545
-0.656621,-0.462098,0.318825,0.874915,0.482370,0.042932
-0.378119,-0.100096,0.432927,0.896139,-0.443774,-0.000839
0.328884,0.597000,0.776560,0.856481,0.400392,0.325771
0.343819,0.065129,0.717421,-0.444243,0.763354,-0.468977
-0.720677,0.210815,0.834591,-0.453994,-0.884820,-0.104796
-0.490099,0.139174,0.680035,0.031559,-0.249828,0.967776
-0.385068,0.518417,0.871359,0.567983,0.669653,0.478497
-0.069531,-0.274557,0.850982,0.665745,0.679153,0.309086
0.290536,0.670137,0.677362,0.897558,0.148347,-0.415190
-0.312420,-0.114030,0.316500,0.271022,0.829055,0.489096
0.269748,0.270446,0.628839,-0.671749,0.735919,-0.084712
-0.693709,-0.283152,0.810274,0.788646,-0.082252,0.609321
-0.152132,0.666293,0.594649,-0.692441,0.720047,0.045359
0.173962,0.300235,0.485231,0.545423,0.692435,-0.472278
-0.740754,0.222560,0.828184,-0.635952,-0.538641,-0.552658
-0.386380,0.018952,-0.870157,0.986943,0.056499,-0.150834
-0.002352,0.122785,0.216669,0.795271,0.093062,-0.599069
-0.302954,0.038650,-0.159080,0.135196,-0.931211,-0.338479
-0.655305,0.127322,0.805117,0.879812,0.003866,0.475307
-0.665318,0.052370,0.781274,0.950624,-0.006574,0.310277
0.107932,-0.616806,0.737292,-0.374781,0.852330,0.364792
-0.129214,0.134583,0.955638,-0.608718,0.786255,-0.106143
0.204760,-0.125347,0.478634,-0.543345,0.721813,-0.428675
-0.238513,0.032030,0.059234,0.538482,0.833635,-0.122841
-0.250546,-0.770713,0.643536,-0.182596,0.783682,0.593719
0.231838,0.253523,0.350483,0.113000,-0.993551,-0.009375
-0.260286,0.399690,0.109497,0.945214,-0.244702,0.216082
-0.118109,0.117232,0.674751,0.957521,-0.141726,-0.251131
0.167668,0.205798,0.563181,0.358995,0.909443,-0.209847
-0.233645,-0.280857,0.950132,-0.411755,-0.055926,0.909577
-0.190590,-0.025998,0.082064,0.062458,0.992154,0.108300
-0.700384,0.223841,0.852501,0.510683,0.813809,-0.277340
-0.407548,0.060752,0.469299,0.774285,0.619349,-0.129958
-0.175327,0.092782,0.947648,-0.541802,-0.824742,0.162023
-0.096883,-0.152787,0.719477,0.311740,0.487129,-0.815796
-0.757112,0.449445,0.831221,0.086765,0.510643,0.855404
-0.007932,0.175208,0.576075,-0.008785,0.992070,0.125383
-0.084793,0.112001,0.430000,0.221886,-0.974765,0.024495
0.063895,-0.497811,0.685351,0.200934,0.949106,0.242536
-0.727242,-0.187487,0.874128,-0.132407,0.943906,0.302507
0.174726,-0.163837,0.694812,-0.452678,-0.788767,0.415847
-0.052406,0.809417,0.537314,-0.647151,-0.542450,0.535671
-0.343765,0.251708,0.865363,-0.040590,0.686223,0.726258
-0.587472,0.303544,0.676302,0.686531,0.673177,0.274786
0.431839,0.040572,0.492161,-0.439435,-0.521642,0.731291
-0.320787,0.032404,0.444160,0.807211,0.582983,-0.092419
0.521772,-0.034806,0.243027,-0.625438,0.033477,0.779555
-0.272867,0.699765,0.715902,0.633651,-0.770578,-0.068529
-0.164279,-0.273596,0.951651,0.868041,-0.496421,0.008363
-0.462747,0.266816,-0.995491,0.032330,0.153826,0.987569
0.259191,0.661275,0.663313,-0.087316,-0.916038,0.391471
0.386597,-0.388800,0.529657,0.490045,0.865105,0.107002
-0.043544,-0.142697,0.822757,0.808137,0.549737,0.211432
-0.310830,0.147341,0.920341,0.860128,0.459576,-0.221290
-0.447047,-0.228432,0.511051,-0.803525,-0.467885,-0.368009
-0.039334,0.516816,0.039742,-0.230383,-0.644316,-0.729233
-0.416246,-0.543189,0.706061,-0.539626,0.835201,0.106035
-0.633151,0.171204,0.882655,0.192916,0.945155,0.263561
-0.512473,-0.043775,0.956366,0.861869,-0.459471,-0.214637
-0.162910,0.167147,0.797459,-0.665107,-0.658862,0.351474
0.070459,0.318653,0.479963,0.847717,0.521584,-0.096570
0.096005,0.454196,0.088962,0.634653,0.150753,-0.757951
0.068052,0.519859,0.623570,-0.720414,-0.592011,-0.361285
-0.321171,0.044843,0.384720,0.225715,0.962963,0.147496
-0.483752,-0.556374,0.411727,0.281722,0.186161,-0.941263
0.500657,0.036622,-0.271188,-0.282007,-0.474520,0.833848
0.098469,0.064488,0.520987,0.169840,0.907347,0.384545
-0.631071,0.095825,1.000000,0.844375,0.329517,0.422432
-0.243929,-0.691544,0.671840,0.783854,0.531025,0.321848
0.312146,-0.273970,0.686870,-0.006551,0.234980,0.971978
-0.332386,0.576820,0.193918,0.852932,-0.484444,0.194474
0.276860,0.051730,0.739570,0.600384,0.494444,-0.628541
0.305962,0.612428,0.780183,-0.363372,0.930275,-0.050487
-0.263511,-0.029201,0.105542,0.211456,0.973368,-0.088548
-0.111434,0.352285,0.074580,0.240602,0.063324,0.968556
-0.109628,0.355701,0.873321,-0.147106,0.883746,-0.444244
-0.507495,-0.494502,0.740788,-0.373915,0.426642,-0.823507
0.208152,0.236120,0.342177,-0.118945,0.980567,0.156015
0.176259,0.098228,0.758619,-0.329604,0.708037,-0.624535
-0.205908,-0.621183,0.509010,-0.504278,0.107030,0.856883
-0.570240,-0.510036,0.408705,-0.278682,-0.271456,0.921221
0.075928,0.097213,0.874792,0.141595,0.816487,0.559732
-0.498086,0.492046,0.883731,-0.120846,0.688962,0.714652
-0.372647,-0.925208,0.415128,-0.318063,0.341759,0.884329
0.366630,0.098601,0.469964,0.849660,-0.184689,-0.493931
0.038566,0.116592,0.530353,0.954769,0.156794,-0.252651
0.308754,0.468290,0.541807,-0.512481,0.667346,0.540382
0.212910,0.173553,0.276742,-0.432811,-0.580617,0.689608
0.168653,-0.215460,0.623254,-0.116652,-0.974481,-0.191781
-0.350493,0.804719,0.505783,0.888866,-0.200798,0.411821
-0.232112,-0.349829,0.611546,0.852090,-0.263627,-0.452155
0.258369,0.064809,0.699147,0.926670,0.273311,-0.258037
0.293655,0.750000,0.712089,0.823341,0.505550,-0.257931
-0.772100,0.303011,0.859794,0.907460,-0.367911,-0.202874
-0.114496,0.130418,-0.035344,0.486800,0.795132,-0.361651
0.297211,0.282298,0.704020,0.604253,-0.436186,0.666799
-0.287471,0.307602,0.661841,-0.529890,-0.283324,-0.799340
-0.329047,0.046925,-0.920025,-0.190611,-0.974246,-0.120465
0.128229,0.206705,0.605249,-0.792973,0.425448,-0.436105
0.276203,0.426863,0.698625,0.864795,0.164631,-0.474369
-0.297154,0.573297,0.766925,0.478116,-0.755493,0.447924
0.198633,0.365791,0.755533,0.921842,0.239517,0.304694
-0.255034,-0.093584,0.471324,0.769339,-0.213498,-0.602110
-0.572210,0.121503,0.739111,0.616946,-0.088023,0.782068
-0.177187,-0.335469,0.694179,0.959843,-0.205083,-0.191422
-0.655141,0.162823,0.891689,0.154396,0.914138,0.374852
0.239661,0.217542,0.365846,0.082124,-0.989616,0.117964
-0.151695,0.495729,0.538137,0.907504,0.385992,-0.165672
-0.619201,0.321535,0.683263,-0.696795,-0.702729,0.143694
0.089224,0.200405,0.535732,-0.684920,0.661698,0.305024
-0.330907,0.275945,0.675384,0.876281,0.335293,-0.345993
0.343435,-0.059577,0.643979,-0.654186,0.733297,0.185246
0.138513,-0.278294,0.507950,0.754804,0.586544,-0.293661
-0.227571,-0.490017,0.688500,-0.364180,0.804297,0.469553
-0.557933,-0.284060,0.814198,-0.619850,-0.669693,0.409021
-0.294967,0.097373,-0.258737,0.979963,0.175934,-0.093380
0.062693,0.301356,0.450393,0.929752,-0.011888,-0.367995
-0.430633,0.221172,0.755454,0.959779,0.279763,-0.023615
-0.672156,-0.387038,0.670654,-0.464210,-0.866268,-0.184634
0.297101,0.470959,0.720458,0.801013,0.430837,-0.415641
-0.236049,0.083707,0.259702,0.070185,-0.996953,-0.034041
-0.291301,-0.615098,0.665955,0.744627,0.207148,-0.634524
0.424891,0.136664,0.305330,0.290133,0.846859,-0.445705
-0.476697,0.366218,0.670891,0.084732,-0.723854,0.684731
-0.264553,-0.224963,0.676444,0.892945,-0.397027,-0.212177
-0.294092,0.089899,-0.419811,-0.678050,0.686633,0.262266
0.142286,0.099723,0.779044,0.350549,0.032450,-0.935982
-0.202079,0.843797,0.648393,-0.311731,-0.249305,-0.916881
-0.693435,0.541640,0.811034,-0.353437,0.866473,0.352571
-0.003174,0.261318,0.062794,-0.138355,-0.011394,0.990317
0.409465,0.205851,0.441676,-0.404903,0.860896,0.308075
0.045130,0.218876,0.196070,0.997892,-0.063458,0.013586
-0.016082,-0.433590,0.652887,0.006912,0.929727,0.368185
-0.776424,0.296178,0.849858,0.931115,0.316398,-0.181430
-0.234299,0.691117,0.561773,-0.411273,0.599249,-0.686845
-0.330142,-0.415706,0.810432,-0.637946,-0.058355,0.767867
-0.019858,-0.363762,0.882070,-0.136690,0.264529,0.954641
0.639278,-0.069133,0.532156,-0.513709,0.715748,0.473084
-0.096773,0.091928,-0.022134,0.183524,-0.982368,0.035665
-0.577188,0.143284,-0.987359,0.033156,0.179576,0.983185
-0.637091,-0.171418,0.887845,-0.460360,-0.014059,0.887621
-0.358971,0.308777,0.157071,-0.135330,-0.953089,0.270754
0.325601,0.091074,0.458842,0.991569,0.098129,-0.084627
-0.125875,0.065449,0.399291,0.982241,0.001221,-0.187617
-0.630143,-0.455851,0.244055,-0.507623,0.798859,-0.322712
-0.297428,-0.099509,0.529324,0.757076,0.594266,0.271447
0.286817,-0.666507,0.293670,-0.734238,-0.604646,0.308704
-0.354650,0.560538,0.819783,0.872862,0.378854,-0.307541
-0.610994,0.337924,0.653393,0.709696,0.700258,0.077266
0.378994,0.146220,0.698815,-0.604958,-0.788359,-0.111876
-0.052299,0.197683,0.720522,-0.128298,-0.960780,0.245847
0.141848,0.193519,0.412976,0.686327,0.701607,0.191579
-0.125491,0.097266,0.911086,0.472935,-0.875869,-0.095843
-0.320460,0.085308,-0.156217,0.152421,0.968228,0.198248
-0.253117,0.212097,0.696284,0.856668,0.466995,-0.219168
-0.184520,0.501548,0.467939,-0.751199,-0.659445,0.028855
-0.370133,0.407912,0.720142,0.492722,-0.824492,0.278275
-0.235505,0.669389,0.530052,-0.105659,-0.956577,0.271657
-0.514824,0.848494,0.310440,0.171813,0.982348,0.073977
-0.710340,-0.329490,0.758650,0.501524,0.842889,0.194966
-0.606400,-0.176543,0.814388,0.907100,-0.311838,0.282712
0.366466,0.341127,0.638663,0.822106,0.226738,-0.522237
0.463458,-0.041213,0.478222,-0.561668,-0.679462,0.472081
0.730250,-0.342248,0.489060,0.587728,0.578728,-0.565375
0.213732,0.345612,0.520670,0.865876,0.208790,-0.454605
-0.082439,-0.553171,0.814862,0.934824,0.256288,-0.245806
0.139004,0.087070,0.872657,-0.503923,-0.559757,-0.657826
-0.433809,0.020820,0.594270,0.812105,0.429996,0.394449
-0.211050,0.552957,0.747053,-0.498071,0.852208,-0.160209
-0.365865,-0.631807,0.741753,0.990111,0.139518,-0.014644
-0.095841,0.237722,0.576170,0.733754,0.553467,-0.394056
-0.339936,0.274771,0.121411,0.817286,-0.551366,0.167448
-0.130580,-0.460175,0.553958,-0.098214,-0.984718,0.143822
-0.033862,-0.520553,0.783553,0.955768,-0.097240,0.277583
0.159301,-0.166026,0.476514,-0.057428,0.145102,0.987749
-0.711706,0.235212,0.676602,0.950403,-0.282810,0.129431
-0.272757,0.069613,0.906735,-0.469174,-0.474165,0.745012
0.179758,0.229607,0.469552,0.411641,0.751014,-0.516266
-0.331455,0.059631,0.315503,-0.354495,0.934940,0.014829
-0.412911,0.573457,0.857801,0.931632,0.217581,0.291068
-0.568764,-0.497117,0.707327,0.895576,0.440915,0.059479
0.240920,-0.052691,0.140459,0.290916,0.934163,0.206658
0.529158,0.117500,0.648425,0.981201,0.147861,0.124023
-0.292450,-0.332373,0.735140,-0.338993,-0.819772,-0.461582
-0.274563,0.643444,0.590251,0.766922,0.441870,0.465383
-0.733699,0.271514,0.779312,-0.557343,0.640617,-0.528184
0.125217,0.330557,0.621039,-0.440179,0.656321,-0.612769
-0.308096,0.137786,0.501906,0.823072,-0.562569,-0.077897
-0.087855,-0.582479,0.545478,-0.441862,-0.041939,0.896102
-0.457769,0.082266,0.600788,0.976212,-0.125412,0.176868
-0.222703,0.192718,0.811587,0.887809,0.270872,-0.372053
-0.594694,0.203235,0.858180,0.771903,-0.065001,0.632408
0.281401,0.263613,0.542567,0.884532,0.423282,0.196051
-0.524780,0.209855,0.892559,0.997994,-0.032754,-0.054171
-0.004266,0.598228,0.674704,0.992684,0.061791,0.103736
-0.367779,-0.364136,0.770041,0.213342,-0.949684,-0.229316
-0.103995,0.142163,-0.993276,-0.167934,-0.108240,-0.979838
-0.468654,-0.220318,0.856187,-0.076136,0.393587,0.916129
-0.254102,-0.012759,-0.105400,0.037554,0.822147,0.568035
-0.270680,0.873479,0.559938,-0.144457,-0.815943,0.559794
-0.336653,0.081358,-0.524942,0.672460,0.704112,-0.228088
-0.402680,0.521888,0.881690,0.700420,0.711687,-0.053971
-0.280142,-0.278988,0.680447,-0.654480,-0.680731,-0.329030
-0.532056,0.360453,0.797934,0.714863,0.087302,0.693793
-0.420240,0.121610,0.781417,-0.396286,0.425804,-0.813418
-0.573358,-0.416346,0.412090,-0.004446,-0.487406,0.873164
-0.024673,0.310431,0.898429,0.960671,-0.002521,0.277679
-0.176533,0.138373,0.934944,0.417056,0.838006,0.351868
-0.347922,0.110399,-0.804515,-0.104751,0.991213,0.080777
-0.026643,-0.331252,0.632462,0.527714,-0.517229,-0.673790
0.131401,0.317425,0.491496,0.975255,-0.145029,-0.166867
0.011487,0.177877,0.782303,0.978015,0.068172,-0.197078
-0.324069,0.090807,-0.387030,-0.285229,0.955480,0.075513
-0.484083,-0.325860,0.784185,-0.097318,-0.956190,0.276099
0.472373,-0.007794,0.487509,0.766482,0.340516,-0.544568
0.455745,-0.009983,0.475549,0.430830,0.767074,-0.475376
-0.323962,0.125080,-0.628063,0.364637,0.929516,0.055127
0.041247,0.166667,0.136583,0.896938,-0.086826,-0.433547
-0.227792,0.098281,0.955242,0.334751,0.922241,-0.193426
-0.330580,0.033152,-0.863259,0.957138,-0.259992,-0.127634
-0.833916,0.490658,0.841774,-0.656769,0.314856,0.685216
-0.636924,0.317638,-0.994194,0.070599,-0.142320,-0.987300
-0.788130,0.454623,0.769409,0.966456,-0.243531,-0.081575
-0.226476,0.046498,0.759425,0.896538,-0.388572,-0.212678
0.587529,0.241885,0.559463,0.858937,0.348990,-0.374744
-0.319749,0.051196,0.259560,0.131533,-0.976376,-0.171432
-0.194913,-0.119261,-0.054187,0.922622,-0.139028,-0.359778
0.238620,-0.658126,0.277738,0.746586,0.554698,-0.367315
0.233261,0.622144,0.631560,-0.618436,-0.460021,0.637117
-0.386870,0.644298,0.822377,0.868861,0.477978,0.128906
0.089878,0.207132,0.281251,0.162776,-0.937672,0.307044
-0.401642,0.040092,-0.885709,0.970972,-0.216480,-0.101739
0.210393,0.305040,0.078235,-0.384630,0.158935,0.909285
0.130196,0.546658,0.759853,0.767725,0.639904,0.033480
-0.408370,0.360346,0.841742,0.105596,-0.640947,0.760287
-0.063404,0.015802,0.869540,-0.149322,-0.981152,-0.122656
-0.035995,-0.511211,0.559970,-0.058557,0.003296,0.998279
0.083862,0.355114,0.450884,0.930843,0.107734,-0.349177
-0.718053,-0.159033,0.860443,-0.190943,0.972016,-0.136845
0.094202,-0.270553,0.473302,-0.732503,0.403275,0.548460
0.615809,-0.356823,0.337273,0.888346,0.133262,-0.439411
-0.542724,0.249680,-0.992960,0.012069,0.218276,0.975813
-0.474233,-0.579063,0.598304,0.616452,0.117961,0.778506
-0.474400,-0.403000,0.689876,0.267066,0.961580,0.063552
-0.632767,0.167574,0.790862,-0.328780,0.549331,-0.768205
0.003337,0.233931,0.837344,0.932606,-0.360471,-0.017508
-0.155087,0.689249,0.633316,0.804249,0.435222,0.404680
0.358259,0.642804,0.730932,0.098370,0.902401,0.419517
-0.067341,-0.023970,0.481228,0.946872,-0.286071,-0.146956
-0.163184,-0.035234,-0.988783,-0.035476,-0.094837,0.994860
-0.343107,0.065022,-0.270255,0.949722,0.308278,-0.054701
-0.359792,0.647448,0.725790,-0.543585,0.833313,0.100522
0.105745,0.292761,0.877355,0.750768,0.487227,-0.446046
-0.134519,-0.150437,0.880330,-0.316896,0.914759,-0.250584
0.032713,0.059897,0.059297,0.879178,0.214168,-0.425651
-0.784684,-0.250000,0.684497,0.750603,0.215607,-0.624587
0.290647,0.558029,0.737450,0.735249,0.587647,0.337758
0.110175,-0.642377,0.781448,-0.519415,0.801279,-0.296917
-0.712474,-0.206171,0.772889,0.066155,0.597589,0.799069
-0.613238,0.472934,0.790403,0.114244,-0.698100,0.706827
-0.181728,0.648249,0.695429,-0.486255,-0.849881,-0.203121
-0.351805,0.140882,-0.487620,-0.708520,-0.691798,-0.139334
-0.413839,0.093850,0.614394,0.757389,0.649696,0.065249
0.233151,0.058509,0.639565,0.978704,0.205095,-0.008613
0.388513,-0.136932,0.221479,0.603517,0.426984,-0.673389
0.364112,0.503363,0.722025,-0.506954,-0.651853,0.563990
-0.628664,-0.365577,0.853165,-0.684076,-0.441409,0.580687
0.053227,-0.172486,0.781195,-0.085518,0.121120,0.988947
-0.764988,0.259502,0.835952,-0.600794,-0.708032,0.371130
0.181785,-0.009876,0.122265,0.756108,0.650128,0.075062
-0.132496,-0.005339,0.874065,0.182073,-0.961950,-0.203717
-0.254212,0.131006,0.879191,0.747011,0.615033,-0.252407
-0.432987,0.218450,0.777287,0.855630,0.516571,0.032435
-0.420350,0.422699,0.887750,0.165469,-0.985845,-0.027001
0.035668,0.229393,0.248390,0.968191,-0.039244,-0.247117
-0.359244,0.526692,0.453083,0.186372,-0.956715,-0.223523
0.495131,-0.131700,0.465866,-0.384672,-0.797842,-0.464193
-0.307822,0.467328,0.152024,0.928548,-0.247409,0.276744
0.076913,0.045804,0.892654,0.569966,0.800442,0.185558
0.334573,0.295911,0.499771,0.163506,0.209184,0.964110
-0.688951,0.121183,0.791669,0.973131,0.227553,0.035159
0.296827,0.338244,0.606389,0.867114,0.461935,-0.186355
-0.443492,-0.090380,0.843815,0.734568,0.551822,0.394844
-0.326971,0.118407,-0.656557,0.236948,0.963857,-0.121802
0.074289,0.272688,0.433591,-0.667761,-0.615422,-0.418749
-0.546774,-0.440210,0.660291,-0.340433,0.928672,-0.147219
-0.191738,0.108050,-0.991852,0.034193,0.160584,0.986430
-0.765866,-0.320628,0.762178,0.454288,0.843351,0.287022
0.117942,0.306214,0.719034,-0.481289,-0.870942,0.099104
-0.745896,0.246797,0.792555,-0.845929,-0.269835,-0.459992
-0.597485,0.148249,0.868939,0.774559,0.630798,-0.046387
-0.578774,0.105968,0.938852,0.870915,0.033133,0.490316
-0.027024,0.201740,0.122819,0.915319,-0.089709,-0.392610
-0.700711,0.331839,0.897005,-0.524699,-0.248824,0.814111
-0.151915,0.500747,0.548737,0.868654,0.462103,-0.178606
0.462036,-0.084722,0.232791,-0.573590,0.111577,0.811508
-0.077955,-0.616912,0.752211,-0.649742,-0.746744,-0.142154
0.279211,0.550075,0.787967,0.145477,-0.895301,0.421038
-0.396717,0.412930,0.252361,0.025618,-0.980053,0.197077
0.300383,0.693786,0.694290,0.796720,0.482112,-0.364424
-0.594804,0.026746,-0.982613,-0.074696,0.097985,0.992381
-0.314824,-0.835896,0.680921,-0.061108,-0.493414,0.867645
-0.325054,-0.102872,0.324869,0.633001,0.725428,0.270303
0.299561,0.105221,0.432104,0.909252,0.379788,-0.170359
-0.150329,-0.370329,0.814182,0.350293,0.438934,-0.827425
-0.204212,-0.642377,0.726945,-0.889033,0.199583,0.412053
0.035341,-0.058777,-0.988134,0.066355,0.069490,0.995373
-0.774016,0.224429,0.845413,-0.412150,-0.862511,0.293610
0.227735,-0.091234,0.784486,0.828264,-0.560339,0.000143
0.147538,-0.515215,0.536950,-0.379556,0.287096,0.879496
-0.178940,-0.178411,0.938377,-0.335528,-0.341097,0.878108
-0.273415,-0.256887,0.404212,-0.630395,0.639229,0.440441
-0.613295,0.080504,-0.984891,0.002728,0.143364,0.989666
0.292997,-0.403641,0.629946,0.792853,-0.153955,-0.589646
-0.396336,0.097053,-0.958501,-0.432454,0.893461,0.121285
-0.210393,-0.545697,0.817362,0.794206,-0.506483,0.335725
-0.506183,-0.041106,0.642888,0.672598,-0.739379,-0.030495
0.635833,-0.080184,0.517316,-0.398618,0.763323,0.508372
0.590864,0.041800,0.553657,0.684731,0.696735,0.213785
-0.370133,0.045056,-0.861930,0.957138,-0.259992,-0.127634
0.167561,-0.232650,0.521699,-0.691681,0.129980,0.710410
-0.686106,0.559043,0.756483,0.727006,-0.645807,0.233227
-0.360286,-0.645687,0.641132,0.987791,0.055676,0.145497
-0.423415,-0.600096,0.800924,0.912851,0.142294,0.382695
-0.214386,0.789878,0.644248,0.250750,-0.206370,0.945799
-0.439442,0.050608,-0.949610,0.913659,-0.349804,-0.207037
-0.266740,-0.167948,0.551727,-0.354605,0.606720,0.711439
-0.320133,0.531284,0.410619,-0.132309,-0.895067,0.425851
0.103992,-0.238950,0.474805,-0.620106,0.551855,0.557607
0.152900,0.538543,0.718243,-0.316318,-0.946134,-0.069086
-0.246500,0.110933,-0.991014,0.111897,0.140629,0.983719
0.149561,0.285607,0.711282,0.006159,-0.995734,0.092064
0.047484,-0.242633,0.670132,0.906809,-0.253683,-0.336664
-0.289388,0.069453,0.226051,0.115860,0.993117,-0.017169
-0.335121,0.119048,-0.591960,-0.563203,-0.826230,0.012120
-0.194146,0.296818,0.816302,0.207858,0.951707,0.225940
-0.311872,0.474375,0.693325,0.461314,0.464193,-0.756118
-0.208970,0.597267,0.522664,0.997581,-0.001147,0.069506
0.055087,0.233077,0.240053,-0.760451,0.334901,0.556377
0.677078,-0.098441,0.546205,0.771484,-0.601733,0.206712
0.093708,0.287636,0.638252,-0.299257,-0.951008,0.077652
0.665045,0.082746,0.661003,0.977443,0.032999,-0.208605
-0.018927,-0.398089,0.806683,-0.734338,-0.016934,-0.678573
-0.324837,0.092302,-0.226573,0.897258,0.416382,0.146811
-0.298961,0.472400,0.844020,-0.586540,-0.782331,-0.209593
0.154159,0.515588,0.750629,0.804528,0.576608,0.142332
-0.360941,-0.023703,0.285095,0.813240,0.390168,0.431751
0.624781,0.031604,0.615438,0.693758,-0.607747,0.386450
0.107274,-0.461243,0.525860,0.466773,-0.554165,-0.689220
0.299892,0.319026,0.532251,0.736143,0.405198,0.542133
0.511051,0.330611,0.560428,-0.656317,-0.611895,0.441398
-0.204813,-0.563741,0.526999,0.301556,0.308377,-0.902202
-0.513348,0.058616,0.816049,0.965316,-0.235621,0.112459
-0.011651,0.285394,0.632240,0.520218,0.650010,-0.553949
-0.423358,0.057015,-0.953122,-0.590823,0.799825,0.105871
-0.328500,0.431027,0.692408,0.697748,-0.394764,-0.597754
0.402296,0.298793,0.791495,0.905745,0.423250,-0.022023
-0.340810,0.661488,0.603145,0.939428,-0.292681,0.178362
0.445515,0.525838,0.602671,0.449163,-0.772053,0.449652
0.121391,0.107196,0.701299,-0.291507,-0.854950,0.429050
0.595185,-0.222453,0.569193,0.851991,0.385027,0.354775
0.456673,0.061926,-0.269938,-0.282007,-0.474520,0.833848
-0.332276,-0.040199,0.240954,0.965150,-0.075008,0.250718
-0.032002,0.134262,0.098011,-0.971745,0.067963,0.226038
-0.354703,-0.747117,0.789913,0.800912,0.522590,0.292301
-0.755526,0.568599,0.786954,0.621817,0.743919,0.244802
0.209137,0.025357,0.517854,0.390136,0.870714,-0.299416
-0.223631,0.678091,0.467543,0.907289,-0.164544,-0.386978
-0.222045,0.657591,0.464869,0.961974,-0.171659,-0.212459
-0.381782,0.062033,0.442277,0.865225,0.487849,0.115710
-0.088897,0.111360,0.416520,0.294192,-0.940488,0.170101
0.315919,-0.107250,0.220324,0.766328,0.540697,-0.346969
0.444640,-0.075166,0.487699,-0.663211,0.093460,0.742575
-0.172045,0.782244,0.564336,-0.604429,0.071001,-0.793489
-0.305799,-0.805787,0.661825,0.258152,0.781589,0.567870
-0.213568,0.017136,0.074027,0.110760,0.993711,0.016435
-0.028229,-0.499306,0.178983,0.875440,0.254280,-0.411032
0.708587,-0.038757,0.656478,0.957527,0.270274,-0.100470
-0.076696,0.554399,0.344076,0.382931,-0.675565,0.630061
0.679759,0.116859,0.276868,0.227386,-0.743323,0.629100
-0.301314,0.044309,-0.120525,0.136517,0.968742,0.207129
-0.332276,0.170083,0.672378,0.123113,0.899555,0.419099
-0.412690,0.529949,0.399449,-0.274628,-0.950805,0.143348
-0.327845,-0.342622,0.764599,0.573501,0.728092,0.375471
0.086322,0.002402,0.564115,0.444399,-0.827908,-0.342166
-0.218052,-0.793295,0.669420,0.070066,-0.064583,0.995450
-0.338513,-0.701047,0.798551,0.949410,0.283674,0.134717
-0.108700,-0.449178,0.832171,-0.357165,-0.934035,-0.003408
-0.367615,0.186899,-0.989716,0.133007,0.151999,0.979390
-0.473415,0.325005,0.774281,0.930951,0.363243,-0.037203
0.180853,0.499840,0.756150,0.821662,0.167374,0.544847
-0.721172,0.330717,0.814483,0.867846,0.137146,0.477529
-0.047701,0.028080,0.739064,-0.687453,0.692832,0.217699
0.277461,0.248932,0.675827,-0.553054,-0.701829,0.448962
-0.233371,0.312460,0.808043,-0.532574,-0.806265,-0.257490
-0.251478,0.090967,0.621529,-0.223220,-0.905508,0.360871
0.310887,0.465193,0.687788,0.941915,0.318261,-0.107267
-0.171992,0.142216,0.799563,0.736605,0.487501,-0.468780
-0.399014,0.671951,0.726676,-0.715571,0.693859,-0.080736
0.114112,-0.581839,0.237948,0.752151,0.494111,-0.436032
-0.153174,-0.425155,0.172623,0.953807,0.298756,-0.031588
-0.349782,0.508862,0.456374,-0.257260,-0.952862,-0.160844
0.012035,0.326020,0.067762,-0.272352,0.107831,0.956136
-0.285121,0.088245,-0.489740,0.657475,0.750794,0.063519
0.492998,0.129244,0.696648,-0.599793,0.798498,0.051472
-0.232713,-0.021781,-0.090860,-0.427590,0.575342,0.697244
0.143818,0.200939,0.773475,-0.085201,0.370754,0.924815
-0.673632,0.350363,0.874065,-0.173351,0.963418,-0.204392
0.257822,-0.184657,0.752512,-0.489846,-0.867450,0.087071
-0.291632,0.195281,0.506716,-0.724361,0.674398,0.143140
0.058259,0.331625,0.430221,0.951250,0.196071,-0.238075
0.199999,0.136825,0.801889,-0.239138,0.661107,0.711161
-0.510283,0.342996,0.912083,0.823118,0.555193,-0.119319
-0.339004,-0.002936,0.871976,0.129933,-0.906691,0.401284
-0.182386,-0.502082,0.681807,-0.354051,0.714374,0.603588
-0.317889,0.658125,0.748999,0.469240,-0.675246,-0.569084
0.427735,0.314542,0.587530,0.920804,0.116007,0.372375
-0.384794,0.523596,0.871739,0.714229,0.680945,0.161836
-0.381565,0.160634,0.776734,-0.267115,0.010408,-0.963608
-0.609465,0.129030,0.767431,0.805505,-0.458794,0.375060
-0.535231,-0.099295,0.671460,-0.072663,0.926758,0.368564
-0.095024,-0.053812,0.754220,-0.442642,0.317428,-0.838634
-0.375765,0.383888,0.226003,-0.007341,-0.984940,0.172740
-0.197701,0.504484,0.436123,-0.523769,-0.502961,0.687529
0.384410,0.453716,0.743984,-0.043360,-0.443046,0.895450
0.636433,0.132874,0.665354,0.313137,0.784202,-0.535698
0.263458,0.334935,0.711013,0.916441,-0.335782,0.217682
-0.570514,0.301730,-0.996298,-0.211761,-0.090723,-0.973102
-0.203665,0.086803,0.821776,0.145163,0.171399,0.974449
0.483261,-0.138800,0.546886,0.137420,0.990450,0.011200
-0.462253,0.257367,0.782872,0.907218,0.405245,-0.112839
0.018325,0.264947,0.651051,0.552560,0.789354,0.267578
-0.251805,0.331305,0.817837,-0.376978,-0.901654,-0.211915
0.427845,0.283953,0.594713,-0.583940,0.519209,-0.624047
-0.207822,0.080717,0.874476,0.667924,0.734756,0.118370
-0.361051,0.387572,0.213362,-0.067695,-0.957527,0.280283
-0.170843,-0.177610,0.548151,0.578328,0.801164,-0.153862
-0.254650,-0.866272,0.553815,0.072806,0.978503,0.192956
0.074236,-0.428518,0.520670,-0.573159,0.662817,0.481831
-0.716848,0.370168,0.788156,0.964317,0.011293,-0.264509
-0.537308,0.420937,0.853798,0.801157,0.548679,0.238953
0.300056,-0.066838,0.162972,0.315453,0.948763,0.018418
-0.642013,0.387839,0.711662,0.638354,-0.235803,0.732736
0.722811,0.042120,0.513994,-0.353301,0.929180,-0.108639
0.127244,0.534380,0.573212,0.672496,0.704515,-0.226733
-0.275658,0.307335,0.923632,-0.629127,-0.242423,-0.738532
0.645352,0.031764,0.650324,-0.737107,-0.291377,0.609732
-0.637365,-0.325699,0.827124,0.236527,0.962204,-0.134977
0.059027,-0.411809,0.809151,-0.200801,-0.753787,0.625687
-0.503993,-0.736761,0.102125,-0.287713,0.198686,0.936881
-0.361324,0.246210,0.056449,-0.614169,0.771405,-0.166528
-0.330854,0.023489,0.553277,-0.380479,0.879397,-0.286177
0.062089,0.225283,0.330406,0.304733,0.939632,-0.155656
-0.179925,0.392430,0.858734,0.300435,0.952949,-0.040328
-0.176369,0.058509,0.613745,0.247028,0.926800,-0.282876
0.457879,-0.006833,0.666603,-0.640401,0.669569,-0.376251
0.345405,-0.201848,0.652380,0.840663,0.437560,-0.319104
0.321007,0.278774,0.774440,0.773350,0.546589,-0.321201
-0.344092,-0.646487,0.637904,0.963338,0.235516,0.128498
-0.649562,-0.389280,0.867594,0.237730,0.296884,-0.924848
-0.668490,-0.380739,0.744522,0.902688,0.053318,0.426980
0.020786,0.051783,0.806398,0.969179,-0.186145,-0.161374
-0.599014,0.073457,0.927777,0.894064,-0.071383,0.442214
0.594473,0.175635,0.700176,0.025277,0.929817,0.367154
-0.402296,-0.363016,0.797016,0.970323,-0.212965,0.114538
-0.207167,-0.635650,0.724572,-0.903370,0.184788,0.387009
-0.354540,0.395206,0.215989,-0.027812,-0.961108,0.274769
-0.198633,0.097160,-0.092964,0.407594,0.709823,-0.574472
-0.383698,0.213431,0.051814,0.905926,-0.392875,0.157948
-0.007768,0.375934,0.891041,-0.355046,-0.929325,0.101475
-0.877900,0.448324,0.820700,0.201103,0.407700,0.890695
-0.702407,0.275465,0.783110,0.688966,-0.598333,0.409052
-0.394804,0.382447,0.663376,-0.432648,-0.456224,0.777609
-0.247047,-0.695655,0.505704,-0.186711,0.599771,0.778084
-0.003174,0.359278,0.906609,-0.373644,-0.926261,0.049306
0.132222,0.337550,0.496116,0.873528,0.485596,0.033849
0.484079,-0.211563,0.252947,0.575941,0.769021,0.277306
-0.283261,0.659673,0.631591,0.976054,0.191055,0.104000
-0.649672,0.171097,0.901498,-0.618792,0.440699,0.650293
-0.699288,0.276959,-0.992865,-0.051186,0.104206,0.993238
0.027080,-0.035768,0.924296,-0.033822,0.909343,0.414670
-0.662691,0.214232,0.763998,0.757813,0.623986,0.190688
0.876641,-0.306641,0.344424,-0.773129,0.632116,0.051969
-0.091084,0.117392,0.394181,-0.642370,0.764639,0.051843
0.075985,0.251494,0.331435,0.898263,-0.255240,-0.357739
0.293929,0.599456,0.766592,0.336165,0.940537,-0.048811
-0.254323,-0.546872,0.818865,-0.187945,0.822044,0.537513
-0.561979,0.078689,0.902337,0.869803,0.335491,0.361786
-0.482113,-0.279095,0.543453,-0.786075,-0.458037,-0.415076
0.557221,-0.276960,0.300489,0.880154,0.301757,-0.366432
-0.334573,-0.105808,0.329584,0.898474,0.418732,0.131941
-0.352844,0.637519,0.496385,0.727580,0.068514,-0.682593
0.172646,-0.228059,0.618033,0.661436,-0.080282,0.745693
0.384573,0.107890,0.635389,0.965441,0.250336,0.072499
0.485011,0.218182,0.647966,0.978538,0.075340,-0.191799
-0.619422,-0.269272,0.812489,-0.559663,0.336677,0.757249
0.646938,-0.353193,0.350088,0.855893,0.031078,-0.516219
-0.327408,-0.168322,0.359929,0.893140,0.446373,0.055246
-0.335942,0.036942,0.471024,0.755688,0.482108,-0.443292
-0.403174,0.056908,-0.866344,0.976132,-0.008735,-0.217004
-0.251094,-0.443092,0.663534,-0.483311,0.786714,0.384045
0.127571,0.084668,0.851267,0.829040,0.297311,-0.473601
-0.387198,0.072710,-0.852469,0.936518,-0.273664,-0.219183
-0.692888,-0.375827,0.252931,-0.588406,0.798147,-0.129380
-0.285996,-0.401773,0.788346,0.048253,0.758023,-0.650441
-0.305141,0.226084,0.671381,0.985149,-0.081379,-0.151195
-0.006840,-0.299594,0.815036,0.948551,0.305044,0.084848
-0.297702,0.004431,0.091493,-0.489435,-0.807296,-0.329737
-0.436380,-0.372250,0.764393,0.032470,0.994068,-0.103802
-0.417231,0.188875,0.826016,0.908809,-0.039015,0.415385
0.149014,0.585842,0.730220,-0.512132,0.144567,-0.846653
-0.248577,0.893658,0.554195,-0.144457,-0.815943,0.559794
-0.250273,-0.696135,0.526477,-0.634264,-0.370040,-0.678807
0.206399,0.389654,0.751847,0.902275,0.225642,0.367403
-0.311598,-0.647769,0.534878,0.833396,0.406733,0.374193
-0.672704,0.024557,0.781781,0.816093,-0.462957,0.345924
-0.790701,-0.330771,0.795039,-0.647210,-0.753567,0.115134
-0.428283,0.251762,0.804832,0.852502,0.522626,0.010082
-0.033040,0.903854,0.554606,0.189637,-0.740302,0.644973
-0.705799,0.494875,0.755502,-0.658034,0.673988,-0.335755
0.137418,0.383248,0.510640,-0.495964,-0.695625,0.519737
0.397264,0.049487,0.492572,-0.502135,-0.408331,0.762316
-0.702627,-0.012972,0.830810,-0.600520,0.653110,0.461328
-0.505909,0.452541,0.689797,0.258845,-0.540526,0.800519
-0.019257,0.321962,0.849194,0.430866,0.700087,-0.569414
0.229868,-0.115311,0.475913,-0.445652,0.495960,-0.745264
-0.125327,-0.210389,0.793093,0.842080,0.538865,0.022945
0.052736,0.064061,0.070435,0.820513,0.083823,-0.565448
0.570403,0.046925,0.451532,-0.031578,-0.105791,0.993887
0.026476,0.060752,0.813581,0.922498,-0.383972,0.039549
0.531401,0.336483,0.563941,0.671812,0.640324,-0.372362
-0.490043,0.386985,0.923790,0.891671,0.442417,-0.095864
0.235505,-0.128924,0.803487,-0.684299,0.693115,-0.226554
-0.811816,0.409513,0.797791,0.627548,0.653707,0.422907
0.303338,-0.307549,0.631133,0.712691,0.681649,-0.165608
-0.054650,0.209535,0.846852,-0.622008,0.782269,0.034091
-0.337418,0.507847,0.798408,0.977035,-0.192185,-0.092021
0.066139,0.050769,0.885962,0.569966,0.800442,0.185558
-0.186216,0.689195,0.555382,-0.120049,0.923277,-0.364895
-0.219475,-0.544309,0.839939,-0.505616,0.842829,0.184371
0.089498,0.280749,0.438021,0.985335,0.150625,-0.080164
-0.237034,-0.013560,-0.097252,-0.392669,0.703700,0.592130
-0.256346,-0.590327,0.769598,-0.279799,0.736557,-0.615789
-0.023798,0.195388,0.859319,-0.514939,0.768095,-0.380614
0.683041,-0.350683,0.364501,0.843873,0.109263,-0.525300
0.143271,0.321322,0.501258,0.978065,0.030103,-0.206114
-0.344747,0.684017,0.697834,-0.854168,0.216679,-0.472703
0.153391,0.210229,0.325565,0.221860,-0.950362,-0.218152
-0.204376,0.344384,0.847644,-0.193773,0.102197,-0.975709
-0.036980,0.569881,0.668961,0.838048,0.224481,0.497277
-0.372209,-0.050769,0.412929,0.932809,-0.360272,0.008422
-0.406183,0.595558,0.502270,-0.106936,-0.652456,0.750244
0.188349,0.305787,0.497761,0.234673,0.963741,0.127014
-0.489388,0.330344,0.800576,0.181437,0.599944,-0.779197
0.330907,-0.361521,0.697296,-0.262058,0.502100,0.824148
-0.582494,0.416239,0.889253,0.909604,-0.035585,-0.413950
0.159518,0.016069,0.400161,0.441967,0.704993,-0.554662
-0.314991,0.034487,-0.366637,0.289606,0.939486,0.183017
-0.187201,-0.198484,0.953122,0.894308,-0.440484,-0.078659
0.241959,0.060752,0.631971,-0.371755,-0.895826,0.243502
0.659465,-0.345879,0.422406,0.898711,-0.420495,0.124511
-0.629432,-0.560058,0.754363,0.840199,-0.541681,0.025428
-0.324343,0.486440,0.405066,0.575228,0.813609,-0.084572
-0.247485,0.490177,0.085022,0.485152,0.329284,0.810061
-0.085558,-0.581946,0.782192,0.914834,-0.005233,-0.403796
-0.592998,-0.166026,0.830319,0.698798,0.642549,-0.314343
-0.186106,0.586056,0.721392,0.516641,-0.667972,-0.535626
0.632988,0.118887,0.543215,0.982024,0.163858,0.093703
0.599946,0.187006,0.542218,0.847149,0.297351,-0.440365
0.279648,-0.183163,0.690873,-0.636179,0.588509,-0.498933
-0.130853,0.096306,-0.036499,-0.009342,-0.997102,0.075499
-0.212747,0.685565,0.615660,0.128041,-0.991731,-0.008700
0.176696,0.227952,0.352065,-0.006814,0.999668,-0.024850
-0.859793,0.480995,0.817773,0.386616,-0.888157,-0.248404
-0.813676,0.231689,0.829354,0.080152,0.842077,0.533369
-0.256673,0.125560,0.915452,0.416619,0.448915,-0.790509
0.432660,0.197630,0.500055,-0.022721,-0.275499,0.961033
-0.313238,0.101003,-0.776670,0.269911,0.962283,0.034036
-0.339061,0.423660,0.749047,-0.288665,-0.913787,0.285772
-0.306399,0.470265,-0.069264,0.182264,-0.053407,-0.981798
0.263732,0.313528,0.695825,0.893993,-0.434675,0.108782
-0.690918,0.449979,0.776291,-0.043902,-0.073628,0.996319
0.422156,0.135704,0.761593,-0.205522,0.977908,-0.038173
0.322319,-0.299755,0.634202,-0.802061,-0.514534,0.303238
-0.349181,0.094330,-0.271457,0.938389,0.339505,-0.064511
-0.502407,-0.164211,0.689275,-0.107018,0.815320,0.569035
0.124179,0.564649,0.779566,-0.224979,-0.974233,0.015970
0.203391,-0.584881,0.734397,0.158455,0.969175,0.188657
-0.078446,-0.117660,0.391302,-0.650127,0.572938,0.499077
-0.571662,-0.290946,0.792681,0.682655,0.648543,-0.336711
-0.264880,-0.695334,0.536460,0.777362,0.322716,0.539965
-0.285010,0.075486,-0.330739,-0.424591,0.904389,-0.042453
-0.179268,-0.287316,0.961713,-0.808459,0.087804,0.581966
0.008042,-0.449818,0.677488,-0.626567,0.666430,0.404086
-0.496006,-0.352392,0.564858,-0.884294,-0.309348,-0.349755
-0.333371,0.111093,-0.083662,-0.706353,0.671596,-0.223660
-0.274727,0.643178,0.576772,0.963777,0.071509,0.256945
0.328884,-0.007421,0.777177,0.966680,-0.247458,-0.065527
-0.219311,-0.415493,0.651874,0.320192,-0.901539,-0.291040
0.032165,-0.534220,0.522585,-0.430413,0.515618,0.740867
0.384026,0.222453,0.452608,-0.696613,-0.689517,0.198234
0.060723,0.036729,0.073014,0.864268,0.261074,-0.429979
-0.189167,-0.628924,0.510656,-0.408842,-0.055244,0.910932
0.042780,-0.517617,0.751388,-0.449474,-0.639380,0.623832
0.240810,-0.010410,0.601737,0.550150,0.747925,0.371406
-0.160286,-0.235373,0.870094,0.360690,-0.755821,0.546477
-0.665482,0.249359,-0.992643,-0.090584,0.077831,0.992843
0.412036,0.569026,0.618365,-0.457996,0.520124,-0.720910
-0.730580,-0.294149,0.815210,0.540291,-0.770904,0.337332
-0.669422,-0.329276,0.705175,0.738254,0.471765,-0.482099
0.123688,0.294309,0.735583,0.454509,0.885225,0.098986
-0.328446,0.019485,0.892211,-0.504251,0.862625,0.040106
0.193381,-0.246049,0.729508,0.914444,0.309449,0.260833
-0.736707,-0.310058,0.444002,0.128816,-0.451510,0.882919
-0.371498,0.009769,-0.022608,-0.346080,0.927550,-0.140992
-0.173030,-0.200566,0.937634,0.753951,-0.245421,-0.609365
-0.364006,0.261584,0.102932,0.744584,-0.653573,0.135783
-0.051478,0.124173,-0.994115,0.063651,0.189044,0.979904
-0.261598,0.712577,0.594380,0.870019,-0.489177,0.061421
0.082987,0.549861,0.749806,-0.465034,-0.862773,0.198409
-0.610614,-0.295857,0.859668,0.559350,0.528614,-0.638510
0.232493,0.135063,-0.282437,0.278159,0.780740,-0.559528
-0.213621,0.311072,0.897290,-0.462063,-0.449611,-0.764426
0.077735,-0.232650,0.648836,-0.122926,0.979996,0.156513
0.507385,-0.103726,0.498695,0.963075,0.165160,-0.212624
-0.272319,-0.129565,0.625659,0.926220,0.359648,0.113001
-0.433588,-0.808136,0.425301,-0.236249,-0.447783,0.862367
-0.284026,0.282084,0.655655,-0.719487,0.655154,-0.230458
-0.170623,0.699445,0.704115,0.754706,0.568498,-0.327457
-0.277134,0.096252,-0.986805,-0.225383,-0.214524,-0.950359
0.136433,-0.588405,0.718180,-0.149331,0.899545,0.410511
-0.012199,-0.663411,0.735900,0.369542,0.520571,0.769704
-0.282550,-0.159193,0.909377,0.474164,-0.692419,0.543805
-0.237254,0.110239,0.916892,-0.006718,-0.515812,0.856675
-0.448907,0.616325,0.479251,0.957751,-0.264803,0.112213
0.164553,-0.295965,0.528818,0.938131,0.314132,-0.145712
-0.130743,-0.162770,0.799911,0.549143,-0.346475,-0.760524
-0.401695,-0.010891,0.896641,0.619684,-0.712214,0.329763
-0.293107,0.383515,0.108722,0.875192,-0.371596,0.309767
0.197812,-0.016176,0.113310,0.681834,0.707319,-0.186553
-0.413184,-0.103406,0.878906,-0.408142,0.630344,-0.660368
0.087581,-0.392003,0.529910,-0.332416,0.741285,0.583092
0.464497,0.199819,0.575379,0.490931,0.870820,-0.025675
-0.087638,0.116112,-0.007910,0.228915,-0.971587,0.060135
-0.237201,-0.403320,0.806715,0.188625,0.963706,0.188919
-0.693983,0.024077,0.793662,0.893077,-0.382808,0.236372
0.284356,0.315556,0.696046,0.981743,-0.154651,0.110741
-0.060613,-0.144726,0.414574,-0.730225,-0.682613,0.028469
-0.353719,0.493701,0.770627,0.191538,0.970899,-0.143767
0.437418,0.088405,0.443606,0.331440,0.588541,-0.737406
-0.232002,0.146594,0.914203,0.804048,0.568606,-0.173763
0.153992,0.262598,0.620058,0.121179,-0.913675,0.387962
-0.535285,0.154922,0.848213,0.851111,0.208806,0.481674
-0.405962,-0.783312,0.673533,0.477001,0.358926,0.802273
0.409301,0.265749,0.611768,0.513351,0.778231,-0.361701
-0.162747,0.747971,0.629187,-0.644363,-0.473205,0.600727
0.714444,-0.235746,0.425127,0.844110,0.507391,-0.173299
-0.120349,0.282030,0.836015,0.871266,-0.394814,-0.291578
0.175985,0.360079,0.527758,-0.513372,-0.529083,0.675663
0.238950,0.345024,0.747449,0.891663,-0.015370,0.452439
0.250219,0.561232,0.774867,0.252316,-0.912021,0.323348
0.368710,0.071856,0.659769,-0.331063,-0.936527,0.115385
0.245952,-0.510517,0.692202,0.143858,0.929043,-0.340859
-0.424837,0.420350,0.856804,0.088084,0.915467,-0.392634
