-0.601501,0.363087,-0.034320,-0.492920,0.855113,0.160657
-0.729900,0.338579,-0.068232,0.796745,-0.584235,-0.154492
-0.775546,0.330681,-0.058529,-0.557169,0.823713,-0.105163
0.203759,0.521865,0.286691,0.270227,0.845501,0.460549
0.150412,0.513619,0.315705,-0.354227,0.383226,0.853031
0.236244,0.512748,0.271813,0.349720,0.905060,0.241997
0.185626,0.504559,0.292373,0.084516,0.541541,0.836415
-0.107087,0.463674,0.568568,-0.197400,0.976195,0.089864
-0.160295,0.448516,0.440034,-0.695674,-0.667465,-0.265572
-0.208462,0.440676,0.462858,0.108232,0.984753,0.136188
-0.295205,0.425344,0.465537,-0.486880,0.537739,-0.688320
-0.483883,0.371276,-0.007153,-0.037950,0.704693,0.708497
-0.587219,0.355422,0.058315,0.910262,-0.356803,0.210034
-0.615713,0.347000,-0.014961,-0.557137,0.664249,0.498369
0.391668,0.543760,0.345136,0.398887,0.225821,-0.888760
-0.015723,0.499448,0.458515,0.017517,-0.240513,0.970488
-0.134041,0.476393,0.416979,0.831573,0.223890,0.508291
-0.189350,0.468087,0.458746,-0.641613,0.506523,-0.575992
-0.272661,0.452349,0.439988,-0.135456,-0.008780,0.990744
-0.376977,0.429990,0.340238,0.911989,0.395691,-0.108191
-0.391820,0.422905,0.229123,0.738102,-0.347196,-0.578498
-0.509086,0.413381,0.528049,0.318582,0.866005,0.385410
-0.570345,0.383878,0.049444,0.738250,0.503176,0.449223
0.529238,0.869795,0.288677,-0.021095,0.096552,0.995104
0.493673,0.862361,0.264236,0.189390,-0.221004,0.956707
0.491292,0.812358,0.267794,0.062129,0.438589,0.896538
0.452436,0.804693,0.254488,-0.555176,0.448141,-0.700678
0.609610,0.785992,0.270843,-0.305607,-0.040094,-0.951313
0.518106,0.770021,0.280592,0.298279,-0.058463,-0.952687
0.419882,-0.249956,-0.919176,0.947294,-0.130498,0.292583
0.474490,-0.214124,-0.929895,-0.052818,0.490157,0.870032
0.292673,-0.005866,-0.908504,0.785611,0.564892,0.252412
0.558082,0.204019,-0.980301,0.428546,0.101461,0.897805
0.507604,0.127301,-0.967041,0.109837,0.990725,-0.079995
0.461117,0.203206,-0.961636,0.020118,0.836348,0.547830
0.535189,0.135664,-0.967134,0.862995,-0.074517,0.499687
0.531898,0.022881,-0.950640,-0.325848,-0.663752,-0.673243
0.482611,0.103548,-0.946759,-0.148843,0.288917,-0.945713
0.551081,0.019397,-0.964408,0.776000,0.101968,0.622436
0.506205,0.092978,-0.955537,0.295732,-0.222330,0.929038
0.516635,-0.012370,-0.945419,-0.484957,0.549948,-0.679981
0.514255,0.013009,-0.947544,-0.367051,0.567094,0.737346
0.472319,0.083687,-0.935301,-0.477938,0.592408,0.648558
0.543799,0.036587,-0.947868,0.754898,0.436203,0.489751
0.492412,0.121087,-0.946759,-0.749706,0.284862,-0.597322
0.529238,0.009524,-0.961081,0.322336,0.070762,0.943977
0.553112,0.207910,-0.988849,0.153467,-0.101639,0.982913
0.551081,0.195482,-0.983628,-0.220328,-0.251591,-0.942421
0.556262,0.110750,-0.968936,0.125877,0.329607,0.935689
0.531898,0.166502,-0.983721,0.007112,0.667107,0.744928
0.514046,0.211336,-0.981502,0.206944,0.136835,0.968737
0.531548,0.044253,-0.964546,0.666256,0.343431,0.661935
0.512366,0.091817,-0.964778,0.290341,-0.293742,0.910724
0.492062,0.140600,-0.970553,0.428470,0.263034,0.864422
0.472599,0.187816,-0.972678,0.301029,-0.114165,0.946756
0.559272,-0.185493,-0.945973,0.344061,0.119117,0.931361
0.541279,-0.140136,-0.945650,0.655700,-0.028443,-0.754485
0.521956,-0.092630,-0.946250,0.135106,-0.045676,-0.989778
0.506134,-0.050177,-0.936594,0.547464,0.421633,0.722848
0.481771,0.005459,-0.952165,-0.670314,0.463595,-0.579447
0.462378,0.052500,-0.954705,-0.064973,-0.191359,-0.979367
0.446975,0.094024,-0.946713,0.394838,0.137593,0.908389
0.426393,0.143794,-0.950363,0.482780,0.349765,0.802862
0.405390,0.193855,-0.957848,-0.238417,-0.418804,-0.876220
0.528257,-0.306464,-0.919500,0.146037,0.043657,0.988315
0.509075,-0.259248,-0.920516,-0.261879,0.052365,-0.963679
0.488141,-0.209768,-0.929017,-0.059429,-0.400932,-0.914178
0.470079,-0.163482,-0.926754,0.515702,0.657977,0.548741
0.448236,-0.112085,-0.934747,0.135345,0.041383,0.989934
0.425623,-0.059643,-0.944819,0.748722,-0.545101,0.377201
0.408609,-0.016145,-0.940845,0.401894,0.112394,0.908762
0.397548,0.018874,-0.920747,-0.174822,0.184171,-0.967222
0.371084,0.077124,-0.941954,-0.435621,0.064953,-0.897784
0.355962,0.118126,-0.933083,-0.171971,-0.281530,-0.944016
0.337129,0.165805,-0.932898,-0.353227,0.445335,-0.822744
0.183737,-0.028051,-0.892010,0.247920,-0.002579,0.968777
0.163923,0.020617,-0.897600,0.247288,-0.132997,0.959771
0.347981,-0.306812,-0.897554,0.358966,0.128312,0.924489
0.311295,-0.214008,-0.898986,0.699555,0.281341,0.656863
0.295752,-0.172716,-0.891686,-0.007402,0.048139,0.998813
0.275030,-0.121668,-0.898847,0.077616,0.298125,0.951366
0.253536,-0.070039,-0.910398,0.765705,0.529435,0.365232
0.215941,0.024391,-0.910213,-0.107796,0.158590,-0.981443
0.284061,-0.240838,-0.888683,0.100462,0.542284,0.834168
0.262358,-0.188803,-0.901574,0.291351,0.327835,0.898687
0.242335,-0.139613,-0.905316,0.223627,-0.134924,0.965291
0.227984,-0.100761,-0.893072,0.025142,0.115011,0.993046
0.187377,-0.000813,-0.903099,-0.352504,-0.492735,-0.795584
0.169244,0.045589,-0.901065,0.214929,0.317518,0.923573
0.315706,-0.222661,-0.887990,-0.542364,-0.183644,-0.819827
0.294003,-0.170451,-0.897600,0.485975,0.224634,-0.844611
0.269219,-0.112725,-0.917374,-0.023137,0.411673,0.911038
0.253467,-0.070503,-0.907672,0.829518,0.208670,0.518031
0.215871,0.023230,-0.912246,-0.107796,0.158590,-0.981443
0.128709,0.045357,-0.907811,0.198997,0.346247,0.916795
0.054847,0.178640,-0.920239,0.332116,0.327611,0.884517
0.345880,-0.290783,-0.890532,0.212026,-0.071531,0.974643
0.306464,-0.194553,-0.898247,-0.543425,0.057847,-0.837462
0.288051,-0.148673,-0.898293,-0.136474,-0.103742,0.985197
0.265369,-0.094837,-0.910352,0.897639,0.410335,0.160842
0.253187,-0.058540,-0.892749,0.080089,-0.325307,0.942211
0.230293,-0.004704,-0.904669,-0.338682,0.435800,0.833890
0.273910,-0.257797,-0.871127,0.266443,0.364928,0.892096
0.249756,-0.202335,-0.887990,0.077926,-0.168978,0.982535
0.230504,-0.153958,-0.890069,0.030064,0.192394,0.980857
0.209290,-0.103548,-0.899540,-0.138323,-0.263014,-0.954825
0.190457,-0.056623,-0.902267,0.223043,-0.002204,0.974806
0.170645,-0.007259,-0.905500,0.088150,0.216680,0.972255
0.153212,0.037110,-0.903144,0.247060,0.261180,0.933138
0.412321,-0.306638,-0.903468,0.097265,0.101467,0.990073
0.394398,-0.261862,-0.903792,0.725363,-0.505240,0.467526
0.374725,-0.213079,-0.906886,0.143521,-0.254125,-0.956463
0.356592,-0.167606,-0.907210,0.278101,0.319037,0.906021
0.344340,-0.130670,-0.887574,-0.059739,0.709912,-0.701753
0.339160,-0.105349,-0.845900,0.875673,-0.384101,0.292684
0.321377,-0.059818,-0.842389,0.860891,0.477221,0.176431
0.290012,0.007201,-0.882677,0.016976,0.817177,0.576136
0.243175,0.116383,-0.911738,0.127238,0.154437,0.979775
0.220632,0.169755,-0.924259,0.143824,0.426216,0.893115
0.398459,-0.305941,-0.902035,0.322967,0.326516,0.888301
0.382355,-0.263488,-0.896907,0.281590,0.957893,0.056107
0.358132,-0.208548,-0.916035,-0.302925,0.396854,-0.866455
0.341469,-0.164876,-0.909243,-0.244088,-0.249037,-0.937231
0.323267,-0.119287,-0.908643,0.551971,-0.156869,0.818975
0.319207,-0.095302,-0.864150,-0.439653,-0.500297,0.745928
0.327118,-0.090830,-0.783528,0.574837,0.770684,-0.274969
0.398948,-0.321273,-0.903005,0.590147,0.231727,0.773324
0.380326,-0.274116,-0.902728,0.361367,-0.750045,0.553937
0.361982,-0.227771,-0.901527,-0.131221,0.069469,0.988916
0.341750,-0.178117,-0.906148,0.013641,0.170999,0.985177
0.324737,-0.134619,-0.902913,-0.474522,-0.797442,0.372712
0.310806,-0.095941,-0.890161,0.993947,-0.019026,0.108203
0.317386,-0.088855,-0.813652,0.982075,-0.129907,0.136578
0.313606,-0.065916,-0.771654,0.393594,0.868229,-0.302098
0.225813,0.108368,-0.920054,0.059591,-0.129608,0.989773
0.397338,-0.319124,-0.902312,-0.468076,-0.113198,-0.876408
0.376125,-0.268076,-0.910213,-0.146225,-0.700751,0.698260
0.358062,-0.222545,-0.910768,-0.115623,0.045682,0.992242
0.343640,-0.182299,-0.897230,0.013690,0.283360,0.958916
0.324107,-0.133690,-0.899864,-0.618643,-0.595371,0.512655
0.311716,-0.096696,-0.879998,0.925072,0.379697,-0.008519
0.318787,-0.090830,-0.805289,0.590113,-0.764794,0.258567
0.322707,-0.079737,-0.740699,0.771846,0.635739,0.009457
0.225462,0.108078,-0.917467,-0.300650,0.478140,-0.825222
0.378925,-0.298159,-0.897924,-0.276124,-0.084888,-0.957366
0.357433,-0.247808,-0.908181,0.508575,0.208775,0.835323
0.339160,-0.201986,-0.909243,0.008149,-0.356239,0.934359
0.321657,-0.157210,-0.905639,0.725225,0.138654,0.674406
0.306815,-0.116674,-0.896491,0.232260,0.536824,-0.811095
0.290642,-0.073291,-0.889238,-0.408266,0.376661,0.831532
0.298274,-0.067251,-0.811388,-0.665663,-0.652251,-0.362576
0.314656,-0.075091,-0.708312,-0.699907,-0.703073,0.125775
0.384386,-0.236832,-0.912339,-0.259879,0.525636,-0.810043
0.349731,-0.147163,-0.903976,-0.448248,0.337952,-0.827564
0.338110,-0.111563,-0.885357,-0.515123,0.297284,0.803909
0.335239,-0.089552,-0.840172,0.991320,-0.000166,-0.131467
0.311155,-0.034148,-0.855603,0.810300,0.522634,0.265082
0.303875,-0.005459,-0.823862,0.717968,0.619244,0.317898
0.257737,0.083687,-0.902082,0.738611,0.535247,-0.409834
0.233163,0.140194,-0.918483,0.047019,0.051028,0.997590
0.400839,-0.271328,-0.907349,-0.462725,0.188870,-0.866149
0.382355,-0.224287,-0.906933,0.205463,0.598230,0.774536
0.346651,-0.134387,-0.905547,-0.569341,0.749345,-0.338132
0.333628,-0.078576,-0.834996,0.993273,0.080379,-0.083352
0.292882,0.002381,-0.898293,0.780755,0.565145,0.266519
0.272999,0.051629,-0.901297,-0.239819,-0.834162,0.496649
0.246676,0.110517,-0.922133,-0.082616,0.512341,0.854799
0.227563,0.157675,-0.923935,-0.286963,-0.032011,-0.957407
0.387397,-0.292816,-0.908181,0.546760,0.207804,0.811093
0.365274,-0.240780,-0.917097,0.750188,-0.594081,-0.290318
0.332369,-0.154190,-0.904993,0.155727,-0.087506,0.983917
0.320816,-0.099367,-0.828575,0.969041,-0.245849,0.022768
0.321867,-0.083454,-0.773641,-0.449334,-0.817552,0.360149
0.318856,-0.060921,-0.730812,0.709368,0.694672,0.119284
0.244645,0.070620,-0.888406,0.411375,0.196100,-0.890121
0.216291,0.131947,-0.917421,0.128274,0.180879,0.975104
0.403219,-0.283698,-0.912339,0.087634,0.341103,0.935932
0.216431,0.138336,-0.920470,0.220406,0.076553,0.972399
0.385996,-0.282421,-0.912755,0.537933,0.235298,0.809483
0.371785,-0.242755,-0.901204,0.532036,-0.370567,-0.761326
0.332649,-0.147511,-0.907025,0.219851,-0.105224,0.969842
0.317316,-0.106568,-0.898617,0.038798,-0.538943,0.841448
0.325227,-0.099483,-0.821922,0.913000,-0.375136,0.160322
0.329568,-0.087694,-0.755992,0.625620,0.779337,-0.035133
0.246396,0.075149,-0.887805,0.277177,-0.038190,-0.960060
0.346300,-0.108427,-0.876394,-0.472608,0.135075,-0.870859
0.343570,-0.086300,-0.832271,0.994092,-0.078667,-0.074785
0.311155,-0.018468,-0.870941,0.433010,0.675170,0.597200
0.278250,0.049771,-0.909936,-0.483316,-0.521771,0.702966
0.261448,0.094256,-0.903699,-0.206118,-0.553846,-0.806703
0.426882,-0.321970,-0.911969,0.056295,-0.231203,0.971276
0.412811,-0.282130,-0.898247,0.719533,-0.051439,0.692551
0.393278,-0.233928,-0.900557,0.210264,0.506117,-0.836442
0.343430,0.020268,-0.930634,0.326585,0.317441,0.890266
0.329358,0.060166,-0.916266,0.595806,0.559981,-0.575705
0.306954,0.113073,-0.926060,-0.173472,0.484541,-0.857396
0.282521,0.169000,-0.941584,-0.158176,0.244451,-0.956673
0.498853,-0.360183,-0.908088,-0.063064,0.284259,0.956671
0.481141,-0.315524,-0.907580,-0.017293,0.080183,0.996630
0.459578,-0.264766,-0.915342,-0.240230,-0.074712,-0.967837
0.440464,-0.216970,-0.916866,0.169986,-0.169966,0.970678
0.417361,-0.163947,-0.929017,-0.394789,0.125494,-0.910161
0.390127,-0.086764,-0.903421,0.620661,0.471752,0.626282
0.363034,-0.027470,-0.926292,-0.692387,-0.285976,-0.662434
0.522797,-0.354841,-0.910814,0.517343,-0.538302,-0.665272
0.503684,-0.307161,-0.912154,0.128708,0.779165,0.613462
0.484851,-0.261107,-0.914279,-0.049650,0.031597,-0.998267
0.462098,-0.208026,-0.925691,0.082366,0.348847,0.933553
0.439624,-0.155700,-0.935856,0.452096,-0.030295,0.891455
0.421212,-0.108891,-0.934562,0.557138,0.058589,0.828351
0.404759,-0.066264,-0.929110,0.490106,-0.163138,0.856261
0.384526,-0.017945,-0.934376,-0.253031,-0.132406,-0.958355
0.366184,0.028805,-0.932621,0.102896,0.289764,0.951551
0.349871,0.071317,-0.926384,-0.280480,0.902053,0.328071
0.329708,0.120913,-0.929987,0.278823,0.314460,0.907399
0.306115,0.175678,-0.942554,0.425167,-0.408030,-0.807926
0.993197,-0.027934,0.698071,-0.122730,0.529388,0.839456
0.574955,0.854115,0.269965,0.319475,0.394514,-0.861565
0.560742,0.770951,0.277450,0.548317,0.126777,0.826605
0.520906,0.867820,0.272090,0.318103,0.561078,-0.764201
0.911705,0.009118,0.692342,-0.691286,0.293943,0.660091
0.556262,0.744236,0.286228,0.246178,-0.093215,0.964732
0.927038,-0.022940,0.700982,-0.733524,0.116848,0.669543
0.901273,0.033742,0.679498,0.199662,0.748809,0.631997
0.940059,-0.026831,0.734247,-0.234101,0.268840,0.934303
0.552131,0.779429,0.280361,-0.349596,-0.264834,-0.898691
0.919686,-0.009002,0.720526,-0.725585,-0.103227,0.680345
0.558082,0.740926,0.286691,-0.098215,-0.314520,0.944156
0.815160,0.046635,0.448674,0.195208,0.097305,0.975923
0.893852,-0.060456,0.706803,-0.400624,0.553418,0.730225
0.874319,-0.014519,0.699781,-0.433241,0.891322,-0.133598
0.842394,0.052094,0.661618,-0.440351,-0.897736,0.012718
0.546041,0.666880,0.306927,0.734222,0.610338,0.297330
0.522797,0.720425,0.295792,-0.332815,0.589177,0.736277
0.895183,-0.083745,0.730182,0.192540,-0.592389,-0.782307
0.556542,0.613160,0.301336,-0.568759,0.234729,-0.788299
0.520697,0.702945,0.303323,-0.606645,0.210584,-0.766574
0.825172,-0.002497,0.690263,-0.427955,-0.326558,0.842743
0.795558,0.059527,0.657044,0.707986,-0.506354,0.492302
0.769514,-0.001336,0.656443,-0.478963,0.406807,0.777884
0.760692,-0.114931,0.726485,-0.165853,0.985190,-0.043520
0.702093,0.009699,0.663928,0.715964,0.659479,0.229090
0.443125,0.549567,0.358534,0.977518,0.047047,0.205534
0.745710,-0.235728,0.833027,-0.004674,0.088941,0.996026
0.691803,-0.135200,0.734848,-0.404076,0.914336,-0.026683
0.432694,0.401998,0.423032,-0.854813,0.457478,-0.244967
0.407630,0.458041,0.405660,-0.140932,0.897625,0.417622
-0.247597,-0.555026,0.576607,-0.462413,0.814284,0.350878
-0.144963,-0.819966,0.588203,0.078050,0.976699,-0.199917
-0.501245,0.379639,0.574019,-0.228305,-0.878175,-0.420340
0.031814,-0.452988,0.710361,0.099668,-0.051111,0.993707
-0.076282,-0.154538,0.790844,-0.426543,-0.285218,0.858319
-0.108557,-0.082699,0.745290,0.333546,-0.514923,-0.789684
0.095453,-0.404147,0.712625,0.562849,-0.310818,-0.765894
0.033495,-0.266218,0.624010,-0.605203,0.788316,0.110846
0.125768,-0.342122,0.814546,0.488194,-0.854175,-0.179027
0.048127,-0.150590,0.780634,-0.189321,0.156261,0.969402
0.095664,-0.260294,0.372071,-0.234991,0.804050,-0.546153
0.143410,-0.296533,0.733277,-0.662637,0.106484,0.741332
0.059188,0.184331,0.789228,0.254512,-0.259212,0.931683
0.026073,0.333817,0.715258,0.294364,0.950510,-0.099403
-0.072642,0.527673,0.479167,0.624278,0.486118,0.611528
0.284341,-0.141704,0.732722,-0.430246,0.899804,-0.072399
0.227702,0.010221,0.770100,0.192421,0.366299,0.910384
0.115756,0.300249,0.797498,0.690854,-0.334614,-0.640901
0.263899,-0.041524,-0.044900,0.847794,0.295669,0.440255
0.272650,-0.032348,0.095092,0.902841,-0.429189,0.025973
0.273910,-0.009350,0.210781,0.049482,-0.998277,0.031552
0.352811,-0.106336,0.669519,-0.377794,0.913013,-0.153879
0.343080,-0.076369,0.694283,-0.651178,0.045259,-0.757574
0.257737,0.093153,0.486606,0.009354,-0.890070,0.455729
0.267469,0.145885,0.830901,-0.772984,0.292856,0.562788
0.191647,0.333875,0.810988,-0.501520,-0.678842,0.536331
0.169104,0.387769,0.797267,0.830194,0.298911,-0.470564
0.161123,0.413729,0.824386,-0.000840,-0.992254,0.124221
0.320816,-0.035948,0.015440,0.942792,-0.216740,0.253311
0.323617,-0.028399,0.081184,0.859880,-0.502964,0.087367
0.491362,-0.288112,0.828591,-0.036038,0.921696,0.386235
0.401889,-0.100296,0.653764,0.057210,0.980169,0.189724
0.371295,0.003426,0.772132,-0.320256,0.089143,-0.943128
0.355682,0.044021,0.778185,0.787742,-0.199525,0.582797
0.105605,0.556536,0.233281,0.325569,-0.204017,-0.923245
0.250317,0.321157,0.825172,0.014250,0.657242,0.753545
0.284341,-0.084790,-0.622930,0.956619,-0.219467,0.191608
0.292462,-0.086764,-0.537457,-0.644024,0.699984,-0.308636
0.294213,-0.063302,-0.414976,0.928199,0.362453,0.084106
0.312486,-0.032871,-0.066476,0.910709,-0.364895,0.193547
0.349731,-0.111272,-0.008446,-0.675807,0.229791,-0.700344
0.310875,-0.028457,-0.077148,0.847788,-0.522624,0.090113
0.324528,-0.040014,0.023294,0.858571,-0.143794,0.492118
0.324737,-0.027760,0.081092,0.865290,-0.499125,0.046329
0.322357,-0.010802,0.130760,0.784733,-0.585687,0.202893
0.399718,-0.091295,0.640226,-0.179272,0.920421,0.347400
0.400908,-0.069342,0.750833,0.702219,-0.709670,0.057076
0.328238,0.134329,0.843838,-0.248015,-0.284506,0.926037
0.246885,0.331552,0.808124,-0.020243,0.801210,0.598041
0.284552,-0.085893,-0.625841,0.956619,-0.219467,0.191608
0.294563,-0.090365,-0.535517,0.765469,-0.628479,0.138099
0.285811,-0.061386,-0.503684,-0.347067,0.937804,-0.008249
0.303384,-0.079157,-0.387671,0.064830,-0.996863,-0.045409
0.306324,-0.071432,-0.318600,0.022996,0.694511,0.719114
0.299884,-0.047157,-0.281869,-0.499242,-0.866446,0.005395
0.365763,-0.053371,0.765018,-0.663631,0.747325,-0.033157
0.347701,-0.008014,0.762800,0.222324,-0.201634,0.953895
0.334609,0.027876,0.776568,-0.493875,-0.744692,0.448911
0.276640,0.181427,0.807292,0.867320,-0.068489,-0.493016
0.229733,0.303444,0.827020,0.168054,0.630828,0.757505
0.193747,0.393403,0.821707,0.951694,0.175129,-0.252206
0.292882,-0.036936,0.062751,0.936104,-0.227511,0.268229
0.447885,-0.250363,0.807339,-0.595595,0.190915,0.780268
0.349241,-0.061328,0.559050,-0.687964,-0.725720,-0.006066
0.373535,-0.091991,0.685504,-0.532924,0.441171,-0.722052
0.410500,-0.239154,0.785624,0.508185,0.700076,0.501640
0.357012,-0.118300,0.730182,0.930152,0.085615,-0.357053
0.194378,0.311865,0.812236,0.899385,0.026969,-0.436325
0.272930,-0.082409,0.104378,0.994231,-0.056955,-0.090886
0.419321,-0.269238,0.805814,-0.426315,0.456383,0.781006
0.396988,-0.216505,0.790567,-0.123450,0.832404,0.540245
0.316196,-0.049074,0.651453,0.934942,-0.038571,0.352697
0.151182,0.401068,0.781142,0.297997,0.938311,-0.175412
0.399649,-0.216389,0.780310,-0.411487,0.689266,0.596314
0.353022,-0.121668,0.694375,-0.556776,-0.555309,-0.617765
0.338529,-0.083512,0.701536,0.481223,0.414234,-0.772551
0.257597,0.151693,0.818057,-0.686287,0.554744,0.470393
0.181006,0.340148,0.800038,-0.729611,0.199376,0.654154
0.156992,0.395261,0.781419,0.685549,0.472901,-0.553522
0.271949,-0.078750,0.090518,0.873831,-0.425043,0.236131
0.145861,0.415239,0.770331,0.262419,0.936262,-0.233559
0.270690,-0.079505,0.114450,0.964388,0.069613,-0.255165
0.388447,-0.196121,0.768575,-0.716642,0.103095,0.689780
0.350502,-0.117196,0.709529,0.843690,0.308910,0.439046
0.363034,-0.195308,0.752266,0.326369,0.668501,0.668274
0.340770,-0.143330,0.738590,0.994255,0.061139,0.087858
0.197388,0.241652,0.820968,0.028423,-0.554360,0.831792
0.131719,0.396597,0.786963,0.023535,0.999571,-0.017435
0.306815,-0.107556,0.723205,0.266334,0.913053,0.308868
0.140050,0.332830,0.792785,-0.412037,0.441452,0.797086
0.345740,-0.180905,0.764833,0.164717,0.291836,0.942178
0.315706,-0.115744,0.729026,0.935263,0.348074,0.064250
0.310875,-0.092979,0.765018,0.421023,-0.735396,-0.530973
0.116177,0.395203,0.755870,0.391794,0.898614,-0.197459
0.403709,-0.232766,0.786317,-0.346648,0.663377,0.663149
0.340980,-0.098322,0.707496,0.806804,0.033803,0.589851
0.323198,-0.039607,0.754345,-0.673474,0.001400,0.739210
0.234144,0.123120,0.554384,-0.062433,0.746901,0.661997
0.153002,0.392764,0.764971,0.262419,0.936262,-0.233559
0.304785,-0.078054,-0.023786,0.943469,0.279527,0.178132
0.285111,-0.030141,-0.028221,0.840675,0.279735,-0.463696
0.316756,-0.035658,0.214385,-0.271131,0.960410,0.064038
0.333909,-0.018236,0.414577,0.485976,0.805727,0.338572
0.427373,-0.158081,0.729211,0.227029,-0.377840,-0.897605
0.395588,-0.090191,0.688969,0.261665,-0.793350,0.549661
0.390967,-0.068006,0.723113,-0.572227,0.817545,0.064620
0.386487,-0.045996,0.758503,-0.325521,0.944314,0.048032
0.359253,0.028399,0.779294,0.678466,-0.146536,0.719869
0.300163,-0.084151,-0.582180,0.786632,-0.613059,0.073275
0.299184,-0.066787,-0.531636,-0.743760,0.641923,-0.186428
0.303034,-0.056914,-0.467415,-0.391286,0.906004,-0.161405
0.312276,-0.055752,-0.384853,-0.047693,-0.985878,0.160533
0.321377,-0.054765,-0.305848,0.022996,0.694511,0.719114
0.322917,-0.041234,-0.247079,0.715808,0.563496,-0.412420
0.543380,-0.267437,0.849244,-0.088840,0.989931,-0.110201
0.453067,-0.059585,0.785577,-0.241021,0.446615,-0.861652
0.414350,0.034613,0.775090,-0.197547,0.521880,0.829829
0.329638,-0.061909,-0.665205,0.985651,0.137693,0.097635
0.336079,-0.040362,-0.536210,-0.552174,0.833676,-0.009406
0.354282,-0.037807,-0.374457,0.731952,0.662310,-0.159973
0.357082,-0.025844,-0.312085,-0.711362,-0.213665,0.669560
0.599178,-0.288751,0.849613,0.410267,0.419795,0.809601
0.556122,-0.187990,0.824017,0.413287,-0.497209,-0.762874
0.480931,-0.018526,0.758133,-0.751826,-0.352910,-0.556967
0.372905,0.178001,0.504069,0.973990,-0.181569,0.135556
0.336849,0.252860,0.451770,0.747647,0.657280,0.094912
0.328658,0.280852,0.477596,0.867589,0.293982,-0.401079
0.346511,-0.067484,-0.658737,0.977266,-0.067017,0.201144
0.331528,-0.026192,-0.648110,0.950501,-0.161139,0.265673
0.345250,-0.031767,-0.553582,-0.672351,0.738488,0.050788
0.347350,-0.018642,-0.491717,0.915277,0.203848,-0.347440
0.355122,0.001394,-0.358703,-0.720332,-0.690881,0.061686
0.574324,-0.190197,0.828638,0.676545,-0.518806,-0.522616
0.551081,-0.136884,0.812236,-0.564437,-0.092322,0.820297
0.509005,-0.037342,0.792970,0.310589,0.267544,0.912116
0.483031,0.020559,0.767513,0.885767,-0.452095,-0.105006
0.361913,0.237993,0.477504,0.873994,0.448751,-0.186432
0.347350,0.277426,0.488408,0.883578,0.255772,-0.392263
0.339720,-0.039665,-0.477303,0.739692,-0.651294,0.169329
0.359462,-0.038446,-0.313979,0.684887,0.019436,-0.728390
0.388307,-0.019745,-0.021753,-0.477620,-0.853927,-0.206612
0.464548,-0.081828,0.395311,0.335854,0.533217,0.776455
0.568514,-0.205354,0.835983,0.842058,-0.462005,-0.278371
0.515236,-0.088739,0.780680,0.235968,0.755615,-0.611036
0.505084,-0.056972,0.801563,-0.349453,-0.506262,-0.788404
0.468539,0.017945,0.747045,0.065732,-0.402993,0.912840
0.342661,0.241652,0.448766,0.721535,0.690897,0.045270
0.332578,-0.078518,-0.660493,0.985651,0.137693,0.097635
0.328868,-0.055752,-0.615677,0.910086,-0.409023,0.066661
0.327608,-0.036413,-0.564901,0.760075,-0.649797,0.007088
0.329989,-0.073930,-0.663496,0.985651,0.137693,0.097635
0.335519,-0.048551,-0.540183,-0.634101,0.773250,0.000715
0.340630,-0.039143,-0.471250,-0.661361,0.680422,-0.315637
0.347491,-0.033045,-0.397327,0.902416,-0.250629,-0.350472
0.365134,-0.044544,-0.295360,0.523302,-0.169527,-0.835114
0.469169,-0.083164,0.406907,0.450003,0.491410,0.745663
0.573834,-0.206400,0.844623,0.458500,-0.617895,-0.638736
0.513345,-0.076892,0.773704,0.491257,-0.235090,0.838689
0.503474,-0.046228,0.793293,0.408261,-0.079779,0.909372
0.353792,0.229339,0.479260,0.855410,0.510034,-0.090218
0.347141,0.255532,0.508044,0.959107,0.211475,0.188129
0.328028,-0.061734,-0.564670,0.870583,-0.480853,0.104240
0.336289,-0.057378,-0.486682,-0.493727,0.810128,0.316110
0.338880,-0.044428,-0.428375,0.991558,0.049093,0.120014
0.343150,-0.016609,-0.310838,-0.503811,-0.448006,0.738556
0.597357,-0.276961,0.849752,0.410267,0.419795,0.809601
0.574185,-0.224345,0.831317,0.949309,0.254371,-0.184683
0.549540,-0.168825,0.810988,-0.674717,0.233377,0.700209
0.529167,-0.121145,0.801286,0.116754,0.305271,0.945081
0.489122,-0.025089,0.786733,0.863181,0.011236,0.504770
0.441725,0.067310,0.706249,0.361154,0.702361,0.613397
0.347631,0.250886,0.544081,-0.803079,0.282078,0.524877
0.351062,-0.018352,-0.515650,0.162043,0.986675,0.014632
0.617661,-0.245194,0.839495,-0.725456,0.143492,-0.673144
0.594698,-0.193333,0.822585,-0.114104,-0.353761,-0.928350
0.502704,0.017132,0.758457,0.459220,0.075663,-0.885094
0.379835,0.232069,0.473946,0.694888,0.680171,-0.233449
0.241355,0.520936,0.294221,-0.129941,0.588940,0.797662
0.362823,-0.043092,-0.491856,0.843371,-0.537188,-0.012392
0.374234,-0.027063,-0.357825,0.885396,0.463601,-0.033889
0.572504,-0.158720,0.739468,0.334715,-0.693931,-0.637515
0.585316,-0.163541,0.821938,0.699623,-0.407480,-0.586931
0.544290,-0.067019,0.800824,-0.091648,-0.104012,0.990345
0.503264,0.029735,0.782852,0.011325,0.713082,0.700989
0.395448,0.219293,0.541816,0.609830,0.520952,-0.597257
0.313186,0.384226,0.419521,0.787613,0.612840,0.063978
0.328378,-0.039549,-0.598536,0.975294,-0.198300,-0.097357
0.347350,-0.050758,-0.491070,-0.594232,0.650281,0.473312
0.370524,-0.050467,-0.320586,-0.600385,0.698599,0.389226
0.558993,-0.160869,0.736234,0.457010,0.873063,0.170010
0.576215,-0.171961,0.830347,0.587302,-0.393614,-0.707209
0.551151,-0.116499,0.810480,0.595279,-0.124800,-0.793768
0.531758,-0.069226,0.804982,-0.019078,-0.282772,0.958997
0.501024,-0.004820,0.767835,0.940730,-0.277828,-0.194521
0.366044,0.242058,0.501529,0.993118,0.025466,0.114313
0.401329,-0.002787,0.006292,-0.646670,-0.523105,-0.555139
0.574955,-0.173645,0.764093,-0.316115,-0.876612,-0.362799
0.580695,-0.166096,0.826050,0.587302,-0.393614,-0.707209
0.529868,-0.054649,0.782389,-0.421939,0.891702,0.163815
0.498713,0.011034,0.746260,-0.424722,-0.523413,0.738682
0.486321,0.046576,0.760536,-0.374622,-0.366718,0.851573
0.451456,0.117603,0.713133,0.155133,0.865944,0.475473
0.325087,0.334166,0.425711,0.855396,0.210050,0.473472
0.333768,0.336779,0.496539,0.936012,-0.268572,0.227487
0.331179,-0.071374,-0.698193,-0.698880,-0.695259,0.167874
0.380606,-0.057611,-0.302152,0.523302,-0.169527,-0.835114
0.616821,-0.192171,0.817087,-0.240686,-0.687347,0.685291
0.602609,-0.154190,0.824248,0.970273,0.011517,0.241737
0.556262,-0.049771,0.793154,-0.053186,0.476266,0.877691
0.524407,0.016842,0.755362,-0.372456,-0.116230,0.920743
0.566203,0.054184,0.772780,-0.108141,-0.017141,0.993988
0.546811,0.100935,0.768390,-0.167278,0.600466,-0.781958
0.400419,0.349555,0.429823,0.842024,-0.179367,-0.508747
0.479740,0.302747,0.866893,0.262345,0.461021,0.847724
0.677870,-0.153900,0.775228,0.338738,-0.478387,-0.810187
0.641884,-0.050119,0.817364,-0.069308,-0.134729,0.988456
0.472809,0.265230,0.509799,-0.711787,0.665760,-0.223881
0.416801,0.370579,0.410234,0.958655,-0.282022,0.037998
0.310735,0.604507,0.322774,0.143537,0.969677,0.197797
-0.031545,0.074627,-0.901342,0.480039,0.204221,0.853145
0.011861,-0.010454,-0.885773,0.241625,-0.005578,0.970354
0.036084,0.024508,-0.903699,-0.153359,-0.525972,-0.836561
0.086492,-0.119403,-0.899171,-0.104658,-0.221344,0.969564
0.095593,-0.163018,-0.868909,0.310907,0.116895,0.943225
0.102174,-0.200651,-0.872651,-0.138299,0.295609,0.945245
0.117997,-0.130612,-0.882585,-0.157541,-0.030692,-0.987035
0.125488,-0.171380,-0.876578,0.264511,0.359776,0.894760
0.120866,0.115338,-0.918299,0.285309,0.040874,0.957564
0.188077,0.095360,-0.915018,0.851672,-0.523669,-0.020652
0.315215,-0.208084,-0.903514,0.618605,0.081701,0.781443
0.322288,-0.247227,-0.905778,-0.328423,-0.273958,-0.903928
0.329288,-0.286776,-0.907995,0.383787,0.023524,0.923122
0.361633,-0.065045,-0.898386,0.061538,0.804902,0.590209
0.389567,-0.219757,-0.906609,-0.248774,-0.355242,-0.901063
0.396148,-0.257797,-0.909659,0.881827,-0.439851,0.170035
0.403639,-0.298101,-0.906794,-0.143096,-0.142111,0.979453
0.403569,0.101981,-0.934792,0.691651,0.575293,0.436643
0.409801,0.064348,-0.948330,0.240515,-0.022583,0.970383
0.417642,0.023695,-0.936410,0.230732,0.452678,0.861305
0.424502,-0.014809,-0.937057,0.095235,0.068174,0.993118
0.431293,-0.054184,-0.941261,-0.648164,0.732993,0.206410
0.438925,-0.094024,-0.933129,-0.188476,-0.082583,-0.978599
0.460908,-0.214298,-0.928232,-0.081491,-0.421054,-0.903368
0.468329,-0.253615,-0.921255,-0.299526,-0.007664,-0.954057
0.475610,-0.293048,-0.914141,-0.200638,-0.406506,-0.891346
0.483101,-0.333933,-0.906609,0.046003,-0.002809,0.998937
0.489962,-0.372263,-0.909613,0.215621,-0.165086,0.962421
0.452856,0.174284,-0.968797,-0.543868,-0.109189,-0.832037
0.460138,0.133864,-0.966903,0.672354,0.228695,0.704016
0.468119,0.091120,-0.952858,0.200792,0.178323,0.963267
0.475820,0.050177,-0.947221,-0.576471,-0.394248,-0.715716
0.482821,0.011092,-0.944680,0.744860,0.175269,0.643789
0.489262,-0.025379,-0.955953,-0.066466,0.246465,0.966870
0.496963,-0.066380,-0.949346,0.056567,-0.154209,0.986418
0.503964,-0.105290,-0.947406,0.339516,0.154950,0.927749
0.526718,-0.227771,-0.930450,-0.327437,-0.296207,-0.897244
0.533578,-0.266276,-0.928833,-0.602032,0.030086,0.797905
0.541070,-0.305941,-0.920516,0.814381,-0.063881,-0.576804
0.511946,0.167315,-0.978592,-0.345094,-0.233795,-0.908983
0.519787,0.125907,-0.971430,0.321836,0.645233,-0.692890
0.526998,0.086126,-0.966071,0.093372,0.005114,-0.995618
0.534279,0.045531,-0.963576,0.666256,0.343431,0.661935
0.541699,0.005343,-0.963530,0.883473,0.114158,0.454361
0.549331,-0.035484,-0.958957,0.507821,0.193906,0.839356
0.556192,-0.073291,-0.960204,0.995448,0.095142,0.005570
0.517406,0.154248,-0.972724,-0.410275,-0.479667,-0.775625
0.526578,0.113595,-0.967411,-0.592749,-0.257925,0.762970
0.533158,0.075905,-0.971338,0.018479,-0.175947,0.984226
0.538129,0.039665,-0.982380,0.697843,0.188273,0.691063
0.448656,0.197863,-0.970784,0.107734,0.304826,0.946295
0.468539,0.117371,-0.954567,-0.043670,-0.940340,-0.337421
0.484151,0.038213,-0.955445,0.125383,0.209151,0.969812
0.492272,-0.001800,-0.954890,-0.464567,-0.317981,0.826478
0.500254,-0.040014,-0.953920,0.368602,0.274961,0.887992
0.508585,-0.078518,-0.950547,0.032729,-0.150648,0.988045
0.514816,-0.117196,-0.958217,0.263547,0.423478,0.866723
0.535329,-0.197457,-0.938489,0.422417,0.232270,0.876136
0.545760,-0.238225,-0.929294,0.590465,-0.131150,-0.796336
0.430873,0.191533,-0.962283,-0.333350,-0.315993,-0.888272
0.445366,0.115570,-0.966025,0.343458,0.319930,0.882996
0.465038,0.034787,-0.950824,-0.096559,0.382643,0.918836
0.474770,-0.006214,-0.943663,0.123305,-0.493144,0.861165
0.480580,-0.044660,-0.952811,0.084257,0.066676,0.994211
0.490102,-0.085197,-0.947221,0.417280,-0.093446,0.903961
0.499483,-0.124107,-0.940799,-0.592197,-0.437455,-0.676710
0.516426,-0.202799,-0.935024,-0.368171,-0.067098,-0.927334
0.526017,-0.241826,-0.928140,-0.318082,-0.300698,-0.899113
0.535609,-0.282421,-0.921163,0.411680,-0.127828,-0.902319
0.542190,-0.321273,-0.926893,0.995618,-0.026348,0.089720
0.487091,0.133109,-0.971246,0.227694,0.190137,0.954989
0.497243,0.093443,-0.962421,0.526425,0.039317,0.849312
0.514606,0.014287,-0.954890,-0.101927,0.240625,0.965251
0.522447,-0.023811,-0.954752,0.204049,-0.206938,0.956839
0.541279,-0.104652,-0.944541,0.852586,-0.115878,-0.509578
0.556331,-0.182125,-0.945742,0.335764,-0.025678,0.941596
0.517126,0.165166,-0.973741,0.309656,0.323683,0.894059
0.526578,0.124630,-0.968797,0.396144,0.065827,0.915826
0.535329,0.084035,-0.965655,0.005858,0.026324,0.999636
0.552342,0.005227,-0.960758,0.951747,-0.010542,0.306703
0.537008,0.202916,-0.991714,0.007760,-0.153647,0.988095
0.548981,0.160520,-0.976328,0.149652,0.250949,0.956362
0.557732,0.120158,-0.973371,-0.261872,0.272638,0.925792
0.436194,0.176201,-0.964916,0.541947,0.162686,0.824516
0.447466,0.135897,-0.951240,0.502363,0.473740,0.723327
0.453977,0.097044,-0.957940,0.308525,0.053583,0.949706
0.465038,0.056914,-0.945234,0.816017,0.574120,0.067108
0.474070,0.016435,-0.942370,-0.607076,-0.256915,-0.751966
0.480160,-0.022359,-0.949854,0.147612,-0.020690,0.988829
0.496893,-0.100645,-0.947175,0.115836,-0.051535,0.991931
0.516216,-0.180208,-0.933730,0.224072,0.296017,0.928529
0.534349,-0.259132,-0.925044,0.357894,0.181985,0.915857
0.544010,-0.299495,-0.918622,-0.601244,-0.067640,0.796198
0.325017,0.163773,-0.945419,0.015143,0.038186,0.999156
0.362053,0.004878,-0.926014,0.358745,0.103173,0.927716
0.368354,-0.033800,-0.933361,-0.446321,0.346300,-0.825151
0.379205,-0.074801,-0.922411,-0.330458,-0.736078,-0.590751
0.391177,-0.115048,-0.906609,0.384673,0.560902,0.733086
0.395937,-0.151519,-0.918299,-0.369552,-0.009483,-0.929162
0.402309,-0.190197,-0.924952,-0.315236,-0.200798,-0.927527
0.421842,-0.269528,-0.910722,0.406986,0.298835,0.863169
0.430383,-0.309193,-0.909751,0.050916,-0.621931,0.781415
0.205229,0.148092,-0.921579,-0.010876,0.146467,0.989156
0.214821,0.107323,-0.916081,-0.284750,0.408150,-0.867370
0.224832,0.066555,-0.910121,-0.078102,-0.011193,0.996883
0.264179,-0.091759,-0.881245,0.550520,-0.408499,-0.728050
0.268519,-0.129334,-0.895799,0.012517,-0.062743,0.997951
0.275590,-0.168767,-0.899310,0.246908,0.072774,0.966302
0.285602,-0.209188,-0.892934,0.283965,0.568218,0.772329
0.302194,-0.285557,-0.889376,0.113377,-0.267255,0.956933
0.117087,-0.048783,-0.869602,-0.195560,0.020750,-0.980472
0.120447,-0.086126,-0.886881,-0.314956,-0.058778,-0.947284
-0.047298,0.081828,-0.899448,0.582901,0.284766,0.761009
-0.002351,0.041466,-0.899864,0.183989,0.244606,0.952006
0.177856,-0.122016,-0.890069,-0.057088,-0.049847,0.997124
0.187097,-0.160695,-0.885126,0.021633,0.143204,0.989457
0.195778,-0.199083,-0.882723,0.099896,0.157630,0.982432
0.205369,-0.239387,-0.878103,-0.156480,-0.053686,0.986221
0.257737,0.184331,-0.935255,-0.281243,-0.349070,-0.893898
0.267678,0.143446,-0.929202,0.378961,0.078888,0.922044
0.288752,0.062896,-0.912477,-0.122865,0.972548,0.197622
0.314236,-0.019397,-0.879951,0.861180,0.508131,-0.013110
0.319557,-0.056333,-0.888775,0.255663,0.913068,0.317716
0.330058,-0.132877,-0.910167,-0.380057,0.171570,-0.908911
0.339369,-0.172948,-0.905824,0.138815,0.303965,0.942516
0.365483,-0.289564,-0.899124,0.045048,0.273786,0.960735
0.496893,-0.230850,-0.925090,0.152406,0.285889,0.946065
0.507464,-0.271561,-0.916404,0.039702,-0.117396,0.992291
0.516076,-0.311400,-0.915480,-0.165693,-0.011298,-0.986113
0.523847,-0.349265,-0.915943,-0.302103,0.420209,0.855662
0.416521,0.124397,-0.950086,0.035827,-0.331201,0.942880
0.425763,0.085487,-0.946435,-0.267859,-0.067389,-0.961098
0.432483,0.046461,-0.951518,0.282741,0.078797,0.955954
0.443756,0.005227,-0.941122,0.260264,-0.126208,-0.957253
0.457687,-0.071955,-0.949300,-0.449491,-0.109780,0.886514
0.466298,-0.110343,-0.947821,-0.306757,-0.431406,-0.848404
0.476100,-0.150880,-0.941584,0.222821,-0.236980,0.945617
0.487162,-0.190487,-0.930634,-0.056347,0.215366,0.974906
0.551151,0.190429,-0.989311,-0.012033,0.206099,0.978457
0.561093,0.150822,-0.981687,0.458512,0.299340,0.836757
0.519086,0.171671,-0.968058,-0.169654,0.393526,0.903523
0.524267,0.134619,-0.977576,0.158097,-0.265738,0.950994
0.534628,0.095476,-0.972170,-0.099392,0.205467,0.973604
0.542610,0.055752,-0.974341,0.672560,0.030903,0.739398
0.415891,0.189732,-0.958217,0.362535,0.430721,0.826467
0.426322,0.150474,-0.951888,0.195722,0.547118,0.813852
0.437804,0.109821,-0.943848,0.091151,-0.084794,0.992220
0.445785,0.070097,-0.946066,-0.067935,0.004963,-0.997677
0.455797,0.029677,-0.942046,0.100109,0.080840,0.991687
0.463918,-0.008421,-0.943294,-0.601334,0.076216,-0.795354
0.470569,-0.046112,-0.948514,0.187375,0.075502,0.979382
0.482261,-0.086939,-0.939875,0.250210,-0.231155,0.940193
0.492062,-0.125791,-0.935393,-0.251239,-0.112892,-0.961319
0.502214,-0.165980,-0.931651,0.147973,0.307401,0.940005
0.511315,-0.205877,-0.930080,0.178957,0.041103,0.982998
0.522727,-0.246472,-0.922133,-0.283202,-0.163645,-0.944996
0.529938,-0.284512,-0.926522,0.465975,-0.135464,-0.874366
0.540789,-0.323596,-0.918715,0.801403,-0.440643,-0.404459
0.320257,0.117719,-0.940152,0.176550,-0.101309,0.979064
0.330549,0.077124,-0.935763,0.032162,0.193648,0.980544
0.341469,0.036471,-0.929849,0.511794,0.333054,0.791923
0.351972,-0.004065,-0.924490,0.442570,0.221521,0.868942
0.361843,-0.042976,-0.920239,0.978212,-0.017274,-0.206887
0.380606,-0.121552,-0.915573,0.853549,-0.518959,0.046215
0.387467,-0.159242,-0.920886,0.224485,-0.214979,0.950468
0.396848,-0.199025,-0.919453,-0.386971,0.627575,-0.675576
0.407000,-0.239096,-0.915896,0.694098,-0.347286,0.630572
0.416871,-0.279285,-0.912108,0.193241,-0.085495,0.977419
0.427303,-0.318137,-0.905871,-0.136858,-0.301117,0.943715
0.300024,0.196991,-0.948930,0.139092,0.707299,0.693096
0.313326,0.155410,-0.935485,0.743229,-0.032484,0.668248
0.207400,0.033277,-0.907072,-0.125944,-0.257418,-0.958057
0.221822,-0.007027,-0.889607,0.486953,0.863950,-0.128328
0.247796,-0.090017,-0.865998,-0.335875,0.783837,0.522290
0.246536,-0.126604,-0.895105,0.041238,-0.032226,0.998630
0.254517,-0.164702,-0.896723,0.425211,0.172518,0.888501
0.265229,-0.203670,-0.890762,-0.212066,0.724150,0.656228
0.273559,-0.243219,-0.892564,-0.198483,0.278072,0.939830
0.027053,0.172077,-0.904530,0.264635,0.246431,0.932331
0.033634,0.132586,-0.910860,0.076790,0.244342,0.966644
0.096994,-0.105871,-0.880228,0.012456,-0.102966,0.994607
0.104134,-0.145072,-0.884664,0.458971,-0.318665,0.829336
0.118067,-0.186422,-0.870757,0.032120,0.397252,0.917147
0.045885,0.125965,-0.907534,0.489623,-0.275886,-0.827138
0.059748,0.085777,-0.894181,-0.066817,0.075991,0.994867
0.105184,-0.075382,-0.870064,0.241928,0.029592,0.969843
0.111065,-0.114235,-0.878519,-0.198529,-0.136692,-0.970516
0.117576,-0.152216,-0.883924,-0.104517,-0.381094,0.918609
0.127517,-0.190894,-0.880367,-0.027368,0.675923,0.736464
0.114636,0.154713,-0.918576,-0.022396,0.317390,0.948031
0.127448,0.113479,-0.909381,0.364787,0.157918,0.917601
0.140050,0.072188,-0.900465,0.035593,0.250776,0.967391
0.185837,-0.086126,-0.873529,-0.208320,-0.279801,-0.937184
0.188077,-0.124456,-0.890901,0.192179,-0.070242,0.978843
0.197179,-0.164121,-0.890532,0.136720,0.074916,0.987773
0.208379,-0.204541,-0.885357,0.105782,0.229799,0.967472
0.217061,-0.242929,-0.884987,0.283062,0.373511,0.883383
0.195428,0.186248,-0.923057,-0.049064,-0.409480,-0.910999
0.205440,0.147453,-0.920008,-0.094775,-0.022049,-0.995254
0.214961,0.107033,-0.918807,0.077914,-0.441289,0.893976
0.227353,0.065916,-0.910074,-0.019845,0.314309,0.949113
0.238205,0.025379,-0.905824,-0.280138,-0.184817,-0.942001
0.258927,-0.016435,-0.874315,0.117621,-0.284763,-0.951354
0.332369,-0.072942,-0.705863,-0.678107,-0.717648,0.158592
0.265509,-0.091643,-0.903514,0.805324,0.126082,0.579272
0.280350,-0.132064,-0.887436,-0.405696,0.130206,0.904686
0.284272,-0.170567,-0.901435,-0.162901,-0.045357,0.985599
0.287001,-0.209071,-0.917883,0.261887,0.236789,0.935599
0.306255,-0.251641,-0.891363,-0.313099,0.032339,-0.949170
0.291902,0.175794,-0.933175,-0.029130,0.600611,0.799010
0.302894,0.135084,-0.928787,0.156941,0.179916,0.971082
0.311645,0.096347,-0.928648,0.322071,0.066204,0.944398
0.322637,0.056101,-0.923843,0.433404,0.316387,0.843836
0.329708,0.016784,-0.928925,-0.256608,-0.281493,-0.924616
0.341540,-0.023869,-0.921948,-0.234572,0.100702,-0.966869
0.361773,-0.065625,-0.891317,0.694768,0.409030,0.591602
0.371714,-0.104361,-0.887990,0.713812,-0.175856,0.677900
0.371504,-0.142110,-0.913262,0.132262,-0.436691,0.889836
0.393557,-0.221616,-0.902174,-0.299785,0.310476,0.902072
0.400768,-0.260991,-0.906748,0.843272,0.104414,0.527248
0.409450,-0.300482,-0.907210,-0.251389,-0.104353,0.962244
0.386067,0.179859,-0.953967,0.253996,-0.021089,0.966975
0.398808,0.138626,-0.944726,-0.240039,-0.394697,-0.886902
0.407139,0.098554,-0.946944,0.303725,0.207735,0.929837
0.417361,0.059992,-0.943155,0.417487,0.123331,0.900274
0.426112,0.021604,-0.942786,0.066086,0.008523,0.997778
0.436404,-0.018526,-0.939829,0.246302,-0.024904,0.968873
0.443896,-0.056740,-0.942970,0.295929,-0.576373,0.761722
0.454537,-0.097218,-0.938812,-0.515275,-0.126329,-0.847663
0.465319,-0.138045,-0.934792,-0.315329,0.257080,-0.913497
0.471199,-0.177188,-0.943247,-0.513322,-0.023055,-0.857886
0.484711,-0.216796,-0.930634,0.063617,0.099964,0.992955
0.496053,-0.255764,-0.923473,0.260166,-0.198249,-0.944993
0.507395,-0.296301,-0.917143,-0.134591,0.728160,0.672062
0.516216,-0.334456,-0.917236,-0.479230,0.059722,0.875655
0.439905,0.202277,-0.967920,0.162974,0.463041,0.871225
0.454887,0.161624,-0.951333,0.257603,0.401969,0.878670
0.461258,0.122597,-0.959095,0.502111,0.167700,0.848387
0.471620,0.081945,-0.955583,0.380163,0.011533,0.924848
0.482471,0.041466,-0.951333,0.137159,0.157018,0.978025
0.490241,0.003252,-0.953828,0.010733,-0.311596,0.950154
0.502074,-0.035890,-0.945835,0.390748,0.262672,0.882224
0.510125,-0.075614,-0.948653,0.032474,-0.139285,0.989720
0.518106,-0.113770,-0.950408,-0.418378,-0.282762,0.863137
0.531198,-0.154945,-0.940059,-0.522667,-0.207705,-0.826848
0.540020,-0.194727,-0.940614,-0.412858,-0.249290,-0.876015
0.488632,0.202277,-0.973695,0.366317,0.447684,0.815715
0.497383,0.162205,-0.974573,0.047626,0.264241,0.963280
0.506134,0.123875,-0.975173,-0.188544,0.910617,-0.367734
0.519787,0.083571,-0.962283,0.061491,-0.172643,0.983063
0.529378,0.043731,-0.961220,-0.569050,-0.395219,-0.721100
0.540089,0.004820,-0.955907,0.688876,0.101543,0.717732
0.546740,-0.034555,-0.962421,0.487439,0.198605,0.850270
0.556752,-0.074685,-0.960342,0.976986,0.203487,0.063958
0.511175,0.194030,-0.978962,-0.292206,-0.151132,-0.944338
0.522517,0.153087,-0.973232,-0.519704,-0.460240,-0.719782
0.533509,0.112434,-0.968705,-0.011782,-0.038762,0.999179
0.541419,0.072652,-0.971846,0.053749,-0.188579,0.980586
0.548350,0.185493,-0.981087,0.051106,0.141376,0.988636
0.558853,0.145130,-0.978038,0.501413,0.194658,0.843026
-0.883503,-0.541263,0.261048,0.397773,-0.598804,-0.695133
-0.862920,-0.658807,0.295700,0.346415,0.218268,-0.912335
-0.917528,0.371857,-0.175605,0.810860,-0.110588,-0.574697
-0.857529,0.036007,-0.035105,0.961781,-0.209198,-0.176672
-0.820703,-0.169696,0.055404,0.909452,-0.243801,-0.336834
-0.754473,-0.523550,0.366712,0.438373,-0.203479,-0.875457
-0.751533,-0.548522,0.298102,-0.468675,0.560515,0.682764
-0.894915,-0.067658,-0.073915,0.922049,0.065525,0.381488
-0.855288,-0.492479,0.209719,-0.237477,0.682872,0.690862
-0.854728,0.421337,-0.174681,-0.040764,0.624395,0.780045
-0.792559,0.078808,-0.001471,-0.223010,0.595710,0.771620
-0.774706,-0.027528,-0.026881,-0.457639,0.844764,0.277380
-0.680333,-0.538475,0.321157,-0.448064,0.242815,0.860395
-0.669620,-0.590569,0.408756,0.869001,-0.258868,-0.421694
-0.624114,-0.864162,0.315797,-0.504957,-0.359667,0.784638
-0.888543,0.417910,-0.186185,0.515774,-0.650349,-0.557695
-0.880352,0.373076,-0.155091,-0.451048,-0.603893,0.657168
-0.805441,-0.044951,0.017288,-0.497918,-0.473733,-0.726399
-0.713028,-0.550148,0.337605,-0.051637,0.221348,0.973827
-0.699796,-0.625123,0.352990,0.926749,-0.118598,-0.356469
-0.859349,0.433358,-0.111153,-0.569626,0.820949,-0.039612
-0.856969,0.409722,-0.175605,-0.015944,0.559208,0.828874
-0.798160,0.084616,-0.082093,0.819284,-0.215457,-0.531368
-0.680052,-0.513096,0.522735,-0.562353,0.815317,-0.137900
-0.674381,-0.547419,0.518207,-0.188743,-0.558448,0.807782
-0.669901,-0.577676,0.482817,0.573085,0.502425,-0.647412
-0.670251,-0.593356,0.360475,-0.620182,0.555416,0.553974
-0.653589,-0.678611,0.436015,0.449159,0.890907,-0.067387
-0.622154,-0.876532,0.312471,0.456229,0.317118,-0.831439
-0.866420,0.421163,-0.200831,-0.077121,0.939849,0.332772
-0.857319,0.373948,-0.165810,-0.000307,0.503664,0.863899
-0.805931,0.087113,-0.073453,-0.850246,0.293022,0.437286
-0.688943,-0.511760,0.536088,-0.629335,0.777133,-0.000963
-0.683343,-0.546257,0.523937,0.454959,-0.854635,0.250222
-0.685863,-0.552936,0.351927,0.764585,0.089098,-0.638335
-0.677112,-0.597944,0.399330,-0.699143,0.568623,0.433436
-0.790669,0.305709,-0.047025,-0.340734,-0.849046,0.403759
-0.776107,0.208549,-0.131113,0.161420,-0.193256,0.967779
-0.756924,0.114641,-0.039448,-0.781816,0.546472,0.300219
-0.742432,0.034381,-0.015423,0.570290,-0.502482,-0.649832
-0.715827,-0.100238,0.083679,-0.428712,0.565966,0.704193
-0.676622,-0.305825,0.195072,0.900803,-0.417096,0.120771
-0.672141,-0.337476,0.164117,0.981484,0.158243,0.107928
-0.631185,-0.510250,0.525739,-0.088710,-0.501269,0.860732
-0.621663,-0.591614,0.367266,0.394822,0.291542,-0.871274
-0.615012,-0.629363,0.371517,-0.205148,0.383451,0.900489
-0.605701,-0.674546,0.422062,0.829836,-0.557968,0.006710
-0.574896,-0.871015,0.298102,0.341719,0.292877,-0.893001
-0.661080,-0.520530,0.518485,0.160771,-0.741416,0.651502
-0.655898,-0.571462,0.390321,-0.167760,-0.860659,-0.480751
-0.788078,0.032987,-0.104269,0.019245,-0.353373,0.935284
-0.775126,-0.024972,-0.001886,0.633651,-0.688457,-0.352863
-0.674872,-0.541263,0.386671,0.880196,0.266782,-0.392532
-0.670041,-0.573611,0.361121,-0.849647,0.087224,0.520089
-0.657369,-0.646379,0.361214,0.576504,-0.034399,-0.816370
-0.661710,0.068064,0.115374,0.827315,-0.394302,-0.400094
-0.648758,-0.007027,0.112417,0.320523,-0.093082,-0.942656
-0.640216,-0.050642,0.140554,-0.150710,0.241514,0.958623
-0.620964,-0.160985,0.141109,0.382247,0.364738,-0.849031
-0.615993,-0.193100,0.122074,0.427808,0.466281,-0.774314
-0.557184,-0.454266,0.546437,-0.146734,-0.391254,0.908509
-0.548993,-0.496370,0.577531,-0.339851,0.306356,0.889184
-0.538841,-0.560660,0.537381,0.774539,0.618949,0.130352
-0.535340,-0.589233,0.490718,-0.159455,-0.052251,0.985821
-0.520288,-0.667693,0.533269,0.641094,-0.209889,-0.738204
-0.487103,-0.889308,0.343242,-0.321817,-0.375569,0.869127
-0.760425,0.344561,-0.107226,-0.582441,0.651462,0.486167
-0.724369,0.145595,-0.066985,0.827140,0.066047,-0.558101
-0.702245,0.042337,0.066954,-0.664226,0.654089,-0.361901
-0.601641,-0.451071,0.538767,-0.180234,-0.303677,0.935573
-0.589389,-0.522969,0.532992,-0.337256,-0.289002,0.895955
-0.575457,-0.615947,0.454126,-0.191980,0.818745,0.541110
-0.569786,-0.650154,0.448304,-0.665013,0.358818,0.654987
-0.531561,-0.886346,0.342733,0.301156,0.683100,-0.665341
-0.663670,0.426215,-0.086990,0.162157,-0.262175,-0.951299
-0.634126,0.280968,0.043854,0.645740,-0.664371,-0.376338
-0.617883,0.197514,0.089455,-0.644784,-0.123874,0.754261
-0.572796,-0.044021,0.176822,0.540296,-0.258452,-0.800801
-0.555364,-0.131193,0.242753,0.928062,-0.372394,-0.004757
-0.479262,-0.511354,0.535302,0.914318,-0.110201,0.389715
-0.459169,-0.622452,0.556001,0.130033,0.499219,-0.856663
-0.456229,-0.648818,0.505964,0.455965,-0.656125,-0.601329
-0.440827,-0.727568,0.553691,-0.511027,-0.357253,0.781806
-0.661639,0.293571,0.051615,0.876519,-0.175109,-0.448387
-0.655829,0.258145,0.039326,0.772332,-0.599391,-0.210316
-0.633706,0.154887,0.170492,-0.877493,0.431003,0.210338
-0.625654,0.095999,0.094075,0.935634,-0.131117,0.327716
-0.598210,-0.055927,0.117315,0.477280,-0.034004,-0.878093
-0.575947,-0.176433,0.154554,0.758804,-0.210009,-0.616533
-0.564605,-0.227714,0.233651,-0.810542,-0.580160,0.080219
-0.551373,-0.283989,0.342549,-0.686871,-0.016237,0.726598
-0.542202,-0.329113,0.385608,-0.455654,0.725165,0.516252
-0.506357,-0.504036,0.554014,0.054390,0.162553,0.985200
-0.500055,-0.539578,0.558080,0.399989,0.619856,0.675120
-0.492915,-0.577211,0.574251,-0.748913,-0.309497,0.585952
-0.492214,-0.597596,0.480553,-0.228261,-0.203644,0.952064
-0.482832,-0.641443,0.531744,-0.609268,0.479751,0.631372
-0.578257,0.526221,-0.004335,0.101090,-0.117432,0.987922
-0.549343,0.366978,0.027267,-0.420292,-0.670196,-0.611712
-0.471001,0.004646,0.504948,-0.673017,0.045188,-0.738245
-0.457770,-0.052674,0.611812,-0.159950,0.987111,-0.005284
-0.452238,-0.085255,0.600308,0.025085,0.994822,0.098489
-0.424444,-0.271677,0.442483,-0.846349,0.126995,0.517267
-0.419264,-0.303386,0.425989,-0.911711,0.326684,0.249122
-0.386639,-0.469249,0.543434,-0.373384,0.915045,-0.152572
-0.380198,-0.505372,0.542925,0.465549,0.037108,-0.884244
-0.368996,-0.554794,0.628075,-0.593125,0.141681,0.792546
-0.363745,-0.586852,0.612505,0.494969,0.682050,-0.538344
-0.354224,-0.631918,0.667301,0.964964,-0.206755,-0.161547
-0.350233,-0.679540,0.521950,0.801637,0.442082,-0.402420
-0.635456,0.563854,-0.107504,0.047819,-0.725913,0.686122
-0.523929,0.042917,0.545328,0.465483,0.862840,-0.197058
-0.540522,0.078924,0.207454,0.252118,0.497599,0.829959
-0.482413,-0.166502,0.696916,0.319410,0.663543,0.676526
-0.481993,-0.218189,0.408986,0.873519,0.342526,-0.345890
-0.453779,-0.318892,0.753190,-0.086509,0.040192,0.995440
-0.413943,-0.573901,0.592177,-0.623183,0.716178,0.314215
-0.411842,-0.597073,0.522781,-0.573870,0.395163,0.717300
-0.404001,-0.637610,0.548885,-0.331379,0.889644,0.314200
-0.439777,0.411697,0.126555,0.804483,0.593094,-0.032337
-0.415553,0.269877,0.103916,-0.095766,0.501406,0.859896
-0.318169,-0.185028,0.707542,0.314179,0.812585,-0.490914
