0.305540,-0.365067,0.863707,0.492124,0.762992,0.419115
0.237405,0.093509,-0.093912,0.986150,-0.164472,0.021398
-0.147336,0.267674,0.125915,0.825815,0.173307,0.536651
-0.395614,-0.409562,0.526446,0.944223,0.035526,0.327385
-0.533534,0.467194,0.189096,0.394431,0.603464,0.693005
-0.524992,-0.462250,0.477906,0.433594,0.866018,0.249018
0.435990,0.521435,-0.977303,-0.071833,0.031417,0.996922
-0.212559,0.377215,0.146693,0.786342,0.519930,0.333674
0.612540,-0.617064,0.620693,0.979174,0.196893,0.049522
0.540619,0.121830,-0.975763,-0.350108,0.076301,0.933597
0.330776,-0.463733,0.853821,-0.681725,0.450343,0.576578
0.430942,-0.431387,0.762052,0.142143,-0.714658,0.684879
0.529263,-0.650045,0.587953,0.698551,-0.201673,-0.686552
0.169951,0.068578,-0.459762,0.995768,0.038571,-0.083411
0.279625,0.091955,-0.070478,0.950892,0.280707,-0.130412
0.490828,0.166749,0.261427,-0.272495,0.740808,0.613962
0.102397,-0.042589,0.413788,0.814388,0.468651,0.342255
0.544500,-0.388093,0.767832,-0.026036,0.331235,0.943189
0.655536,0.007698,0.809030,-0.001712,0.935109,0.354357
0.082403,0.082775,0.676933,0.909285,0.359461,0.209732
0.182762,-0.727028,0.761538,0.807940,-0.492828,-0.323037
-0.098709,-0.557667,0.720519,0.526422,-0.135475,0.839361
0.550616,0.279468,0.874085,-0.293505,-0.749467,0.593426
0.342035,-0.123597,0.684253,0.159326,0.860794,0.483373
0.352227,-0.066037,0.649014,0.918401,0.272475,-0.286876
-0.433176,0.067802,0.166778,-0.038623,0.288368,0.956740
-0.086384,0.415071,0.626942,-0.583839,-0.024642,-0.811495
0.815490,-0.749557,0.688136,0.492916,-0.108729,0.863256
0.403668,0.018080,-0.981097,-0.119884,-0.017776,0.992629
-0.374066,0.091036,0.553562,0.059166,-0.799591,0.597624
0.434532,-0.370436,0.595407,0.687295,-0.725961,-0.024624
-0.461128,0.409491,0.194162,-0.159823,0.690751,0.705209
-0.224887,-0.695883,0.653901,-0.631215,0.761915,-0.145101
0.042801,-0.037291,0.324875,0.041146,0.998374,0.039460
0.310007,0.371848,0.837217,0.262321,0.892725,-0.366373
0.780258,-0.120418,-0.188962,0.931600,-0.219915,-0.289411
0.529456,-0.290982,0.740158,0.702927,0.297747,-0.645942
0.607297,0.351719,0.300125,0.863669,0.487451,-0.128325
0.653984,-0.667630,0.716769,0.908205,0.344856,-0.237145
-0.375425,-0.348682,0.801866,0.965946,0.249092,0.070014
-0.042126,-0.565364,0.469180,-0.078750,-0.395799,0.914955
0.191692,0.093226,0.390109,0.951944,-0.300131,0.061020
-0.207610,-0.525319,0.729669,0.898310,-0.113099,-0.424557
0.444529,0.480118,-0.980628,-0.103999,-0.074733,0.991766
-0.241581,-0.053676,0.671443,-0.570544,0.792550,0.215276
0.811122,-0.181227,-0.092729,-0.646916,-0.420756,0.635975
0.237891,-0.598629,0.500625,0.753516,-0.096800,-0.650265
0.696205,0.389716,-0.031468,-0.518024,0.260590,-0.814705
0.349896,0.361890,0.742591,-0.404370,0.914414,-0.018233
0.474910,0.057913,0.719157,-0.820331,0.561780,0.107054
0.381441,0.113073,-0.981097,-0.012836,0.070109,0.997457
0.287392,-0.010312,0.529236,0.825757,-0.554886,0.101129
-0.120645,0.543470,0.168207,0.246180,0.520433,0.817646
0.140734,-0.292536,0.765488,-0.263474,0.735902,0.623722
0.101330,0.422206,0.227192,-0.387929,0.276010,0.879392
0.222749,-0.045483,0.242925,-0.023538,-0.999705,-0.005986
0.864699,0.646655,-0.060770,0.214031,0.442904,0.870647
-0.328644,0.180874,0.149884,0.533257,0.091230,-0.841020
0.267493,0.311393,-0.978374,-0.179238,-0.123379,-0.976039
0.200717,0.106292,0.247813,-0.114647,0.198859,0.973299
-0.256237,0.081643,0.592528,-0.009370,-0.527131,0.849733
0.175579,0.075641,-0.976009,-0.054451,0.033628,0.997950
-0.303505,-0.373827,0.593019,0.118612,-0.743208,0.658463
-0.553140,-0.188644,0.490203,0.091180,-0.992935,0.075935
0.130447,-0.644396,0.777450,0.167924,0.923162,-0.345795
0.531493,-0.644042,0.514216,0.870810,-0.480187,0.105403
0.043482,-0.043293,0.658141,0.666949,0.026961,-0.744615
0.269629,0.125785,0.809655,0.234415,0.809962,-0.537598
0.222944,-0.659369,0.687690,0.966297,0.109364,-0.233044
0.264389,0.536831,-0.001585,0.977720,0.209248,-0.016704
0.010287,0.200580,0.230785,-0.415410,0.226612,0.880955
-0.102397,-0.257716,0.553718,-0.486655,0.149583,-0.860692
0.675628,-0.061657,0.845184,0.905015,0.406091,0.126645
-0.171989,0.691574,0.699830,0.324197,-0.773068,0.545218
0.666505,0.250582,0.246764,-0.519244,0.618960,0.589300
0.577695,0.039338,0.878080,0.883679,0.421883,-0.202797
-0.302436,-0.221556,0.587663,-0.690050,0.697945,-0.191584
0.883625,-0.244086,0.810190,0.970039,-0.184836,-0.157669
0.246335,0.536124,-0.984713,-0.091250,0.244467,0.965355
0.253711,-0.702875,0.852861,0.003550,0.827625,0.561271
0.730756,-1.000000,0.650107,0.878720,0.277520,-0.388374
0.354167,-0.325094,0.792671,0.203637,0.975459,0.083735
0.297581,0.279821,-0.977415,-0.119203,0.017394,0.992718
0.181695,-0.279116,0.774348,0.083308,0.969727,0.229539
-0.094343,0.159898,0.791086,0.211668,-0.821719,0.529127
-0.646511,0.537678,0.172201,0.459956,0.175356,0.870454
-0.346890,-0.569390,0.455722,-0.050625,-0.913294,-0.404143
-0.063769,-0.397275,0.771090,-0.253978,0.776323,0.576903
0.659420,-0.023024,0.679365,-0.327913,0.192848,-0.924815
0.287196,-0.423264,0.836011,-0.196386,0.307053,0.931209
0.710179,0.600041,-0.060123,-0.188990,0.493165,0.849159
0.210910,-0.483014,0.926933,0.075232,0.914054,0.398554
0.583228,0.429055,-0.979780,-0.050338,0.065414,0.996588
-0.135302,-0.005157,0.458356,0.444209,-0.747260,0.494248
0.120643,-0.213503,0.730338,0.494540,0.528613,0.689926
0.171601,0.463026,0.859355,0.466746,0.884209,-0.017938
0.118605,0.136096,0.789703,0.276332,0.862988,-0.422957
0.854216,-0.485204,0.661288,-0.834116,-0.077403,0.546132
-0.075513,0.048380,0.434320,-0.237960,0.955187,-0.176047
-0.117636,-0.244508,0.572175,0.773512,-0.231130,0.590134
-0.506746,-0.506462,0.541734,0.234474,-0.972112,-0.004585
-0.240610,-0.457165,0.476143,0.452059,0.564149,0.690926
0.046587,0.068578,0.682311,0.974720,0.077098,0.209705
0.486749,-0.404195,0.765154,-0.698813,0.463757,-0.544601
0.689507,-0.926619,0.640600,-0.694352,-0.036647,0.718702
0.039599,-0.198672,0.579807,0.301777,0.843495,-0.444351
0.331164,-0.075359,0.650107,0.922464,0.371550,-0.104928
0.443753,-0.329403,0.764573,0.277929,0.936339,0.214531
0.091624,-0.637051,0.742613,0.469946,0.868820,0.155895
-0.073766,-0.636979,0.489689,-0.506589,0.386002,-0.770954
0.305637,-0.617557,0.782717,0.142684,-0.722563,0.676419
0.161311,0.603149,0.126629,-0.066662,-0.298997,0.951923
-0.451520,-0.273536,0.904236,-0.084970,-0.396148,0.914246
-0.712608,0.158697,0.584873,0.330728,0.934318,0.132924
0.114239,-0.732750,0.867010,-0.538466,0.785436,0.305197
0.059788,-0.480118,0.702665,-0.387005,0.922031,-0.009283
0.140251,0.377146,-0.983463,-0.363544,0.192394,0.911494
0.342230,0.441627,-0.509530,-0.392285,0.183833,0.901287
-0.775210,0.105798,0.646224,0.857747,-0.512563,-0.039375
-0.409397,-0.147468,0.749755,0.795687,0.599744,-0.084783
0.721634,-0.686348,0.631606,0.333198,-0.334012,-0.881712
0.019605,-0.068791,0.660886,-0.580900,-0.339001,-0.740022
0.046978,-0.264990,0.771179,-0.691813,0.164444,-0.703103
0.318256,-0.229677,0.348755,0.171333,-0.797634,-0.578294
0.089681,-0.061728,0.461502,-0.652747,0.676159,0.341659
0.102592,-0.048945,0.292693,-0.083242,-0.996025,0.031711
0.003688,-0.694822,0.465520,0.308993,0.416621,-0.854956
-0.322139,-0.677166,0.910128,0.366567,-0.862674,0.348457
0.182664,-0.373755,0.722259,0.842095,-0.126790,0.524213
-0.278366,-0.650823,0.776580,0.749129,0.113066,0.652704
0.217799,0.058195,-0.288810,0.597951,0.799785,-0.052902
-0.273900,-0.066106,0.689877,0.353565,0.843802,0.403721
0.061242,-0.461049,0.687824,-0.339446,0.936426,-0.088789
-0.340678,-0.375027,0.839515,0.581276,0.740105,0.338174
0.627196,-0.589307,0.754887,0.253874,-0.962664,0.093949
0.649032,0.768415,-0.060703,-0.084997,-0.080071,0.993159
0.135204,0.248888,-0.976857,0.458609,0.443064,0.770306
0.312335,0.316971,0.637542,0.123491,0.806021,0.578861
0.316316,-0.020695,0.567823,0.969504,0.229165,0.086862
0.274483,0.180238,0.801977,-0.214056,0.733895,0.644653
0.458409,0.477999,0.029169,0.118184,0.990768,-0.066422
-0.203922,-0.705205,0.745380,0.747146,0.148500,0.647859
0.917789,-0.207925,0.733284,0.357901,0.105126,-0.927823
0.019896,0.093297,0.787337,0.389868,0.214959,-0.895431
0.421624,0.314852,-0.977816,0.005338,0.156617,0.987645
-0.173541,0.068013,0.592573,0.487470,0.289499,0.823749
-0.755800,0.641995,0.377700,0.394325,0.824202,-0.406447
0.257982,0.563598,-0.112458,0.067867,-0.570831,0.818258
-0.095993,0.399533,0.166287,-0.020851,-0.086310,0.996050
0.399009,0.288649,0.545394,-0.738161,0.215308,-0.639344
0.380470,-0.790097,0.632566,-0.347052,0.931283,-0.110758
0.075898,0.162934,-0.979557,0.057089,0.151737,-0.986771
0.353293,0.317253,0.180236,0.883022,0.274156,-0.380933
-0.135302,-0.372695,0.727058,0.970650,0.014684,0.240049
-0.232553,-0.566849,0.441751,-0.072268,-0.783239,0.617507
0.198484,0.086517,-0.980026,-0.067071,0.043539,0.996798
-0.290691,0.062082,0.664368,-0.041170,-0.473177,0.880005
-0.048918,0.147325,-0.050616,-0.412609,0.842285,-0.346857
0.297581,0.074865,-0.061819,0.808160,-0.579213,-0.106723
0.153838,-0.261742,0.731767,0.143503,-0.988929,-0.037770
-0.724353,0.123313,0.633548,-0.650919,0.405641,-0.641685
0.187809,0.049367,0.649862,0.011612,-0.962381,0.271455
0.051829,-0.667348,0.794055,0.601394,-0.420385,-0.679413
0.440163,0.839323,-0.071483,-0.135494,0.029012,0.990353
0.316022,0.104102,0.296309,0.916984,-0.398688,-0.013702
0.704552,-0.102904,0.737324,0.505245,0.694919,-0.511679
0.422302,0.202910,0.531378,-0.733244,-0.522617,0.434999
-0.166166,-0.495233,0.750156,0.973833,0.211926,-0.082078
0.124624,0.099300,-0.213533,0.823888,0.566745,0.002785
0.562455,-0.273536,-0.218309,0.572595,0.222169,-0.789161
0.600212,-0.524684,0.782070,-0.197191,-0.206869,0.958291
-0.104340,-0.253054,0.557400,-0.637646,0.080739,-0.766087
-0.170727,-0.275515,0.771202,0.017760,0.659272,0.751695
0.234203,0.050921,-0.981253,0.062378,-0.066172,0.995857
-0.010968,-0.465429,0.934699,-0.198160,0.929199,0.311964
0.209064,0.206654,0.653923,0.661434,0.608494,0.438453
0.028631,-0.506320,0.946260,0.188819,0.942870,0.274488
0.082208,-0.011442,-0.032427,0.281211,-0.422224,-0.861770
-0.212462,-0.195636,0.428785,0.216646,0.481348,-0.849334
-0.719984,0.082279,0.614042,0.015858,-0.726064,0.687444
0.359991,-0.531818,0.923898,-0.521316,-0.539827,0.660921
-0.518392,0.072039,0.629173,0.222406,0.909408,-0.351443
-0.325148,-0.542058,0.761025,0.045853,0.708786,0.703931
0.499175,0.472843,-0.979200,0.295235,-0.157341,-0.942380
-0.691157,0.536974,0.356566,0.675724,0.541817,-0.499832
0.013492,-0.172470,0.669166,0.223711,0.555198,0.801067
0.068037,0.213432,-0.919211,0.881137,-0.471911,-0.029960
0.345432,-0.050216,0.685213,0.842383,0.317654,0.435300
0.226632,-0.457801,0.778365,-0.701885,0.518292,0.488601
0.108996,0.090614,0.697688,-0.326028,0.942642,0.071636
0.346016,-0.004379,-0.680615,0.578464,0.814677,-0.040993
0.224010,-0.041528,0.404437,0.190344,-0.969966,-0.151446
0.725321,-0.107846,0.742613,0.678884,0.720778,-0.139986
0.443851,-0.831555,0.606677,-0.382139,0.568505,-0.728541
-0.838106,0.045694,0.595653,-0.543724,-0.236054,-0.805384
0.103561,-0.585988,0.774661,0.974831,-0.077239,-0.209139
0.102299,0.154953,-0.633302,0.275883,0.951911,0.133247
0.033776,0.155025,0.776402,0.687583,0.718257,-0.106474
-0.412308,-0.454199,0.778722,0.237863,0.679242,0.694299
0.162087,0.472632,0.637408,0.782862,0.164731,-0.599993
0.493254,0.452221,0.201013,0.399224,0.907515,0.130525
0.321069,0.174377,0.354111,0.879503,0.256044,-0.401142
0.515771,-0.644396,0.715207,-0.512142,0.813349,-0.275997
0.793264,-0.179251,0.768814,0.010467,-0.247963,0.968713
-0.046394,0.180309,0.804321,-0.188559,0.982044,0.005925
-0.262739,-0.667702,0.752165,0.021287,0.999553,0.020977
0.108220,0.110036,-0.984445,0.063817,-0.071187,0.995419
0.198096,0.029310,0.708244,0.656409,0.751309,-0.068277
0.490440,0.561622,-0.979312,-0.110928,-0.071296,0.991268
0.358826,0.444382,0.866162,-0.069488,0.981764,-0.176948
0.141705,0.107492,-0.506829,0.922912,0.372820,-0.096123
0.162768,-0.035030,0.331191,0.240637,-0.957201,0.160808
0.176841,-0.056219,0.237949,0.037604,0.983056,-0.179407
0.510336,-0.079456,0.719604,0.930487,0.319429,-0.179332
-0.060952,0.232078,-0.984668,-0.197096,0.145121,0.969584
0.253228,0.035526,-0.117412,-0.538301,-0.838441,0.085139
0.118702,-0.520871,0.626495,0.733308,-0.664184,-0.145322
0.234203,-0.379193,0.792849,0.981910,0.170547,0.082255
0.277685,0.462603,0.926776,0.795882,0.599348,0.085753
0.022419,0.167950,0.097215,0.734175,0.642120,0.220610
0.170532,-0.017727,0.409213,0.429931,-0.877956,0.210600
-0.452974,-0.541704,0.770956,-0.556237,-0.582865,-0.592342
0.550421,0.508721,-0.977035,0.271483,-0.026505,-0.962078
0.535960,0.005368,0.809297,-0.289641,-0.819499,-0.494500
0.487916,0.671092,0.127901,0.928408,-0.340779,0.148082
0.710665,0.326012,0.311284,0.823387,0.533815,-0.192551
0.142383,-0.147679,0.511114,0.565333,-0.764007,-0.310953
0.080753,-0.052122,0.342506,-0.063829,-0.977440,0.201338
0.505967,-0.392119,0.769595,-0.497399,-0.070900,-0.864620
0.152286,-0.027120,0.408521,-0.515806,-0.254078,-0.818162
0.392602,0.381383,-0.980941,0.190546,0.087635,-0.977759
-0.107832,-0.617769,0.664435,-0.531108,0.618833,-0.578766
0.437444,0.301504,-0.394037,-0.723011,-0.253424,-0.642675
-0.005047,0.547707,0.623393,0.985677,-0.094793,0.139483
-0.029700,-0.745956,0.656111,0.962367,0.260218,0.078331
0.345530,0.082775,0.313984,0.954104,-0.299084,0.015311
-0.102788,0.771240,-0.092662,0.396592,0.538723,-0.743298
-0.108318,0.375874,0.295974,0.376564,-0.294848,0.878216
0.797340,0.161805,-0.123906,0.477417,0.730115,0.488882
-0.449772,0.031428,0.536735,-0.440505,0.646749,-0.622632
0.251868,-0.336041,0.843332,-0.244164,-0.863746,-0.440825
0.682423,-0.075005,0.781892,0.556180,0.764031,-0.326987
-0.353684,0.145560,0.645711,-0.697259,0.423991,0.577980
0.433078,0.350094,-0.982949,-0.123495,0.078335,0.989249
-0.336019,-0.097324,0.737458,-0.568891,-0.764040,0.304313
0.195380,0.055018,-0.177691,0.139643,0.984482,0.106275
-0.064933,0.434564,-0.994220,0.174280,-0.040948,-0.983844
0.881197,-0.233703,0.726031,0.742466,0.317395,-0.589919
0.192175,0.453493,0.222616,0.699969,0.709593,0.080752
0.514509,0.365067,-0.981320,0.056710,-0.190933,0.979964
0.098999,-0.766649,0.896581,0.343275,-0.861847,-0.373339
0.676208,-0.854228,0.625335,-0.465031,-0.021471,0.885034
-0.003300,0.105587,-0.984690,0.251883,-0.083041,-0.964188
0.600988,-0.549332,0.712261,0.440741,0.880439,-0.174856
0.376103,0.622924,0.114466,-0.286931,-0.216660,-0.933129
0.397845,0.222967,0.774929,0.993113,-0.054753,0.103582
0.719886,-0.710360,0.677982,0.431817,0.896948,0.094970
0.551490,0.080089,-0.972951,-0.410670,0.049193,0.910456
-0.259439,0.601101,0.347594,0.783329,0.567353,0.253983
0.595262,-0.825693,0.628459,-0.553607,-0.116828,0.824543
0.026981,0.386821,-0.987614,-0.110520,-0.080412,0.990616
0.180043,0.018574,0.089493,-0.008358,0.949027,0.315085
0.113851,0.151352,-0.534302,0.491694,0.841883,-0.222417
0.428709,-0.128611,0.342059,-0.432320,0.626395,0.648636
0.451810,-0.706688,0.638524,-0.482847,0.796267,-0.364442
0.636123,0.169362,0.821572,-0.384222,0.898247,0.213368
-0.024265,0.290910,0.818894,-0.520555,-0.843891,-0.129885
0.091914,0.164417,0.804834,-0.365667,-0.635857,0.679686
-0.063962,0.171834,-0.986788,-0.223330,-0.102418,0.969347
0.089003,-0.834734,0.485985,0.390047,0.861351,-0.325480
0.535184,0.184971,0.975562,0.984802,0.119325,-0.126204
0.118993,0.158768,-0.696907,0.970452,0.209593,-0.119554
0.472967,-0.522565,0.765756,-0.599400,0.292970,0.744908
0.118702,0.252843,0.738797,0.846307,0.025570,0.532081
0.452100,-0.077337,-0.500759,-0.596617,0.165491,0.785277
-0.598174,0.731761,0.399862,0.099156,-0.598602,0.794886
0.091816,-0.333144,0.900866,0.920790,-0.272995,0.278604
0.020672,0.673211,0.664212,0.391710,-0.804755,0.446018
-0.200913,0.188715,-0.066439,0.896022,0.370359,-0.244907
0.552459,0.357511,-0.105651,0.135998,-0.976492,-0.167235
0.238376,-0.169079,0.325701,0.388318,-0.769833,-0.506524
0.133456,-0.022600,0.194921,0.088177,0.993405,0.073283
0.482481,0.108200,-0.546889,0.936657,-0.009464,-0.350120
-0.288556,0.514019,0.160864,0.207505,0.093665,-0.973739
0.186352,-0.255315,0.749130,-0.108204,-0.934506,-0.339102
0.117927,-0.783741,0.832798,-0.677646,0.716544,0.165409
0.266622,0.648705,-0.044992,-0.226246,-0.956293,-0.185245
0.246140,-0.615510,0.817109,0.787877,-0.335255,-0.516580
0.824418,-0.077195,0.807177,0.799931,-0.528002,-0.285173
0.188295,0.161381,0.012632,0.873730,0.444593,-0.197314
0.179462,-0.149446,0.705856,0.926516,-0.373142,0.048302
0.395321,-0.580901,0.759574,0.997316,0.073188,0.002083
0.157913,0.526942,0.258748,0.037681,-0.695765,0.717280
0.525576,-0.284412,0.747590,0.019798,0.165200,0.986061
0.215761,0.377146,-0.980785,0.313900,-0.098829,0.944299
0.064154,0.507521,-0.988507,0.009472,-0.033108,0.999407
0.395999,0.193517,0.774929,0.960129,-0.053866,-0.274317
0.129961,-0.098382,0.605517,-0.404588,0.888498,0.216519
0.214209,-0.658733,0.693336,0.977222,0.124381,-0.171947
0.134816,0.130518,0.734088,-0.185548,-0.807067,0.560548
0.570708,0.376861,0.250982,-0.564730,0.309475,0.765052
0.492380,0.549472,0.232101,-0.667426,0.659867,-0.345134
0.555663,0.119922,-0.974670,-0.350108,0.076301,0.933597
0.413375,0.196200,-0.977058,0.150580,0.036817,-0.987912
-0.323208,-0.583656,0.466814,-0.059869,0.745899,0.663363
-0.533146,0.497634,0.181709,-0.409368,-0.742024,-0.530866
0.572550,-0.620030,0.731186,-0.115673,0.922863,-0.367347
-0.221490,-0.307013,0.787962,-0.197516,0.967753,-0.156339
0.163642,-0.789815,0.456369,0.929795,-0.016310,-0.367716
-0.257013,0.083976,0.524304,-0.663420,0.433589,-0.609815
0.067940,-0.215200,0.546777,-0.115494,0.850975,0.512351
0.208288,-0.875697,0.627812,-0.481888,0.364386,-0.796873
-0.204115,-0.007487,0.631651,-0.602207,0.352865,-0.716124
0.548966,-0.320786,0.717617,0.130993,0.817888,0.560268
-0.352325,-0.638676,0.474134,-0.076357,0.838941,0.538840
0.388041,-0.568896,0.696907,0.006215,-0.524975,0.851095
0.074930,-0.183277,0.762409,0.714190,0.446691,0.538887
-0.474327,0.442614,0.186842,0.901268,0.164446,0.400841
-0.368921,-0.493397,0.752723,-0.431982,-0.510039,0.743809
0.346404,-0.735433,0.653477,-0.679823,0.708934,-0.187756
0.679899,-0.139982,0.429722,-0.145246,0.240680,0.959675
0.168689,-0.260895,0.742635,0.188714,0.950089,0.248431
-0.186257,0.302493,0.125536,0.423482,-0.274143,0.863428
0.119674,0.157426,-0.731610,0.461522,0.861322,0.212420
0.725807,-0.674200,0.739064,-0.658178,-0.685197,0.311941
-0.158983,-0.094498,0.600295,-0.704311,0.685894,0.183018
0.937105,-0.312593,0.737212,-0.532639,0.107255,0.839519
0.436668,-0.565506,0.781869,-0.078792,-0.928368,0.363215
-0.056296,0.142948,0.825232,0.286231,-0.844077,0.453437
0.272928,0.024083,0.626183,0.773875,0.633119,-0.016665
0.107444,-0.048945,0.310168,-0.022185,0.997769,0.062963
-0.371154,0.201498,0.707284,0.561129,0.392750,-0.728617
0.380082,0.358853,-0.097393,-0.088580,-0.889175,0.448910
0.343104,0.250159,0.156021,0.971778,0.150336,-0.181790
0.783169,-0.532805,0.659458,0.862736,-0.113924,0.492653
0.187907,-0.759304,0.671286,0.845635,-0.373480,0.381333
0.263805,0.067095,-0.983351,-0.079352,0.092787,-0.992519
0.661650,0.384702,0.302558,0.851212,0.502809,-0.150406
-0.580802,0.795042,0.423830,-0.735842,0.355532,-0.576311
-0.609433,0.557313,0.191327,0.229173,0.382833,0.894941
0.179654,-0.591426,0.801687,-0.375596,0.828301,0.415747
0.492282,-0.536338,0.864823,0.989697,0.035942,0.138593
0.200717,0.015043,0.005758,0.642113,-0.764271,-0.059841
0.921865,0.665583,-0.058985,0.214031,0.442904,0.870647
0.139958,-0.305105,0.819095,-0.309961,-0.939859,-0.143490
0.364940,-0.391059,0.834181,-0.111673,0.430810,0.895506
-0.252256,-0.377922,0.617189,0.866302,-0.001492,-0.499518
0.250023,0.293805,0.554365,-0.085583,-0.876747,0.473276
0.002426,0.209973,0.806865,0.420766,-0.481432,0.768882
0.234105,-0.056501,0.209985,0.031036,-0.998410,-0.047060
-0.193926,0.086659,0.486453,-0.627980,0.723546,-0.286569
-0.241096,0.272476,0.705878,-0.568164,0.822702,0.018724
-0.218578,0.186311,0.263569,0.996680,-0.078782,0.020534
-0.135204,-0.667773,0.494711,-0.913836,0.295150,-0.278908
0.196446,0.850130,0.124420,-0.404913,0.825432,-0.393329
0.174901,-0.049085,0.216301,-0.087505,0.964362,0.249698
0.690284,0.457023,0.027718,0.290120,0.930101,-0.225263
0.146267,-0.066812,0.317711,0.434891,-0.885833,-0.161774
0.008249,-0.288863,0.589225,0.623094,0.132910,-0.770771
0.074734,-0.410834,0.631093,0.935403,-0.272349,0.225494
-0.081239,-0.105727,0.702218,0.059278,0.780404,0.622459
0.100845,0.183134,-0.826125,0.933612,0.347899,-0.085645
0.510434,0.215482,0.572465,-0.737734,-0.584774,0.337324
0.122778,0.092237,0.082798,0.755494,0.528214,0.387580
0.154128,0.093155,-0.362190,-0.535323,-0.824603,-0.182920
-0.322429,-0.105305,0.510623,-0.106116,0.146882,0.983446
-0.173446,-0.060668,0.272764,0.309679,0.116067,0.943730
0.201007,0.410834,0.859735,-0.155254,-0.947386,0.279921
-0.063476,0.200720,0.642899,0.264708,-0.857533,0.441097
0.255168,0.178473,-0.107481,-0.617660,0.051477,-0.784758
-0.121614,0.426230,0.297938,0.200140,-0.502951,0.840824
-0.591477,-0.416979,0.604937,-0.044133,0.723755,0.688645
0.379596,-0.430116,0.776178,0.039537,-0.058537,0.997502
0.548092,-0.060103,0.732548,-0.332228,-0.419857,0.844598
-0.510724,0.390069,0.192354,0.744101,-0.319469,0.586731
0.563717,-0.888409,0.615180,0.645373,-0.038054,-0.762919
0.841210,0.157143,-0.070969,0.983882,-0.106158,-0.143896
-0.745996,0.572638,0.179789,-0.513844,-0.741809,-0.430911
-0.662719,-0.189491,0.539390,0.978355,-0.041585,-0.202712
0.515093,0.390494,-0.502477,-0.164269,0.463247,0.870872
0.077258,0.436825,-0.986587,-0.075845,0.152719,0.985355
0.025041,-0.376297,0.434654,0.099304,0.115397,0.988343
-0.586916,0.181438,0.173228,0.440494,-0.862517,0.249059
0.247695,0.139486,0.817109,-0.091668,-0.937451,0.335832
0.145588,-0.654425,0.800370,-0.701455,0.169403,-0.692288
0.237310,0.168726,-0.978240,-0.078055,-0.120775,0.989606
0.338445,0.111308,0.450433,0.274029,0.819385,0.503504
-0.272931,0.640441,0.158052,0.276991,-0.290235,0.915991
0.068621,0.761636,0.109266,-0.228875,0.722069,0.652865
0.497815,-0.244861,0.752589,-0.017739,-0.217164,0.975974
-0.181986,-0.212585,0.802692,-0.212313,0.791583,-0.572992
0.139279,-0.462178,0.623505,0.718947,-0.492493,0.490476
-0.111229,0.197047,-0.989846,0.318893,0.040790,-0.946913
-0.240805,-0.148811,0.288899,-0.575386,-0.008104,-0.817842
-0.048044,0.122677,-0.986186,0.306170,0.038426,-0.951201
0.238181,0.604845,-0.091613,-0.054677,-0.528030,0.847464
0.554790,-0.941450,0.638391,0.282903,-0.041005,-0.958272
0.023877,0.008122,0.732481,-0.034962,0.980450,0.193637
0.144229,-0.467830,0.930972,0.687307,0.267248,0.675417
0.093078,0.172399,-0.935302,-0.196969,0.954176,0.225282
0.126759,0.324387,-0.566216,0.652245,0.129575,-0.746851
0.173639,-0.498975,0.706883,0.812874,-0.366928,-0.452327
0.242357,-0.060528,0.603062,0.880199,0.421540,0.218067
0.151024,0.077760,0.685636,0.886552,0.417203,-0.199917
0.612540,-0.558021,0.709739,0.627507,0.722581,-0.290021
0.507229,-0.467901,0.630602,-0.650077,-0.462191,0.603142
-0.295934,-0.344516,0.574875,-0.448923,0.525537,-0.722689
0.379306,-0.000566,0.654749,0.910898,0.398333,-0.107680
0.006211,-0.390069,0.443403,0.017024,0.213372,0.976823
0.145393,-0.589165,0.495046,0.443458,-0.339772,-0.829397
0.395999,0.216683,0.393323,0.995083,-0.075573,0.064026
0.558575,0.222685,0.847483,0.044778,-0.738194,0.673100
0.122876,0.459566,0.864087,-0.658745,-0.601706,-0.451669
0.259925,0.465640,-0.538721,-0.703532,-0.059782,0.708144
-0.121324,-0.409140,0.701906,0.823361,-0.456865,-0.336676
0.485197,0.174446,0.947264,0.993465,-0.014397,-0.113228
-0.293410,-0.205735,0.930437,-0.158530,0.841450,0.516556
-0.043384,-0.752101,0.749978,0.033419,0.484682,0.874052
0.744441,-0.571933,0.631740,-0.533964,0.845455,-0.009416
0.727069,0.340065,-0.056999,0.285456,0.863771,-0.415230
0.250218,0.331661,0.769148,-0.060452,-0.998169,0.002040
0.025041,-0.569601,0.471389,-0.029202,-0.215293,0.976113
-0.187616,-0.112014,0.781311,0.902814,-0.402798,-0.150601
-0.018637,-0.303976,0.423005,-0.467125,-0.123521,0.875521
0.315152,0.317889,-0.024259,-0.654301,0.755405,0.035412
-0.358148,-0.150576,0.535998,0.452494,-0.317127,-0.833474
0.008735,0.362666,-0.985538,0.223552,-0.233180,-0.946389
0.722214,0.417826,0.254575,-0.766045,0.578333,-0.280546
0.810346,0.128682,-0.100964,0.964906,-0.212447,-0.154345
-0.661167,-0.236175,0.534235,-0.128421,0.809010,0.573594
-0.355722,-0.495304,0.605160,0.906809,0.391734,0.155702
0.248957,0.311604,0.553383,-0.141658,-0.926561,0.348451
0.534891,-0.553923,0.712931,0.128850,-0.904648,0.406213
0.089876,0.516845,0.608374,-0.741137,0.369174,-0.560738
0.221487,0.057984,-0.316305,0.248003,0.967109,0.056520
0.762788,-0.132072,0.766046,-0.231731,-0.237007,0.943466
0.386684,0.254890,-0.981789,-0.008000,0.070346,0.997491
0.176453,0.067871,-0.229669,-0.715736,-0.690042,-0.107536
0.861399,-0.229677,0.794836,0.981623,-0.045314,0.185375
-0.171699,-0.293594,0.547804,-0.726651,0.125728,-0.675404
0.134816,-0.737834,0.732101,0.040723,0.706848,0.706192
-0.170923,0.131223,-0.998058,-0.208573,-0.029657,0.977557
0.108608,-0.112508,0.692376,0.737525,-0.578085,0.349106
-0.286130,-0.409633,0.455744,0.120051,0.926558,0.356479
0.380858,0.078678,-0.538163,-0.187977,0.101069,0.976960
-0.139279,0.374320,0.162694,0.337932,-0.153068,-0.928640
-0.109192,0.316617,0.825946,0.099609,0.950867,0.293137
0.105794,-0.090614,0.509842,-0.479093,0.815404,0.324940
0.154809,-0.515079,0.950366,0.006575,0.961267,0.275539
0.538096,0.104880,0.600228,0.959789,0.069872,0.271888
0.614190,0.110601,0.858240,0.971932,-0.072610,0.223775
0.627291,0.324952,0.326504,0.794364,0.404429,-0.453236
-0.066681,0.411327,-0.988886,-0.260901,0.153471,0.953088
0.750848,-0.162794,0.730985,0.321209,-0.515340,0.794512
-0.111327,-0.599265,0.687958,0.943924,0.321324,-0.075879
0.399883,-0.289285,0.770063,0.570539,0.820184,0.042241
0.576919,-0.989758,0.648389,0.337386,0.485833,-0.806311
0.298553,0.714527,0.114176,-0.514159,-0.105172,0.851222
-0.093955,-0.514161,0.802803,-0.182456,0.955304,0.232602
-0.538970,0.744613,0.409413,-0.261221,0.463163,-0.846902
0.356886,-0.008616,0.719246,-0.124947,0.911417,0.392055
0.237988,0.475315,-0.983039,-0.169491,0.219569,0.960761
0.519847,0.268945,-0.974737,0.163419,0.019051,-0.986373
0.471999,0.262093,0.830053,0.860646,0.175489,-0.478009
0.432980,0.383924,-0.031378,0.911317,-0.149172,-0.383730
0.054933,0.106928,0.735695,-0.200526,-0.939674,-0.277133
0.370085,-0.288085,0.755646,-0.428345,0.901638,-0.059742
-0.195380,-0.488312,0.713109,0.882495,-0.383947,-0.271637
0.363000,0.113002,0.763435,0.867069,0.032277,-0.497141
0.593515,-0.681828,0.697509,0.743519,0.648858,-0.161751
0.215178,-0.568189,0.720496,0.836795,-0.046521,0.545536
0.573035,0.362595,-0.973956,-0.204426,-0.085911,0.975105
0.342328,0.223814,-0.980115,0.027372,-0.037869,0.998908
-0.372126,-0.723708,0.752098,-0.249806,-0.951089,-0.181731
-0.297294,0.183488,0.664011,0.852490,-0.485227,0.194462
0.763078,-0.206089,0.725763,-0.364036,0.739135,-0.566708
0.571969,-0.339149,0.756338,0.320133,0.378001,0.868695
0.794040,-0.699202,0.755892,0.466544,0.786614,-0.404444
-0.180532,-0.283354,0.645934,-0.387426,0.712693,0.584782
0.026593,0.503566,-0.984735,0.038393,-0.054439,0.997779
0.199844,0.020481,0.034101,0.754610,-0.656093,0.010236
-0.128797,0.492125,0.323848,0.346036,-0.479652,0.806346
0.618070,-0.159686,0.404838,0.379222,0.897365,-0.225671
0.480150,-0.077337,0.685770,-0.822532,0.399091,0.405176
-0.441911,0.267038,0.688292,0.262226,-0.105436,-0.959229
0.215083,0.342326,0.735494,-0.184585,0.920247,-0.345070
0.617101,-0.550393,0.799210,-0.829445,0.138473,0.541152
-0.043580,0.616004,0.651915,0.190703,0.941382,0.278267
0.224206,-0.040045,0.427491,-0.241439,0.925154,0.292912
0.311366,0.487534,0.142229,0.394669,0.854279,0.338294
0.569348,-0.584010,0.644996,0.930455,0.365830,0.020540
0.397943,0.423193,-0.979089,-0.261896,0.194447,0.945304
0.628748,-0.596157,0.674902,0.877562,-0.094399,-0.470078
0.270016,0.336535,-0.981968,0.066426,0.153805,0.985866
-0.103952,-0.226569,0.432758,0.217761,0.390863,-0.894319
0.347956,0.754713,-0.068247,-0.047174,-0.050581,0.997605
-0.051249,0.096546,0.261002,0.577907,-0.134467,-0.804948
-0.469185,0.005579,0.540573,-0.368652,0.195004,-0.908883
0.151510,0.380534,0.797625,-0.139620,-0.766181,0.627274
0.675820,0.033336,0.986833,-0.512524,-0.849061,0.128115
-0.583811,0.860795,0.427401,0.785991,0.467015,0.405111
0.097349,-0.245922,0.751942,-0.424807,-0.785906,-0.449324
-0.254588,-0.441699,0.468733,0.250452,0.672026,0.696889
-0.006309,0.035454,0.262676,-0.049176,-0.124966,0.990942
0.550130,-0.473057,0.787784,0.037780,0.633530,0.772796
0.039987,0.176707,-0.978776,-0.347322,-0.434309,0.831109
-0.033873,0.378911,0.765154,0.530975,0.566340,-0.630337
0.116955,-0.587542,0.944497,0.915111,0.388526,0.107792
0.072794,0.344303,0.777674,0.413407,0.886827,-0.206476
0.085217,0.191821,-0.847706,0.939846,0.338182,-0.048182
0.106765,0.177132,-0.801174,0.704637,0.706125,-0.069814
0.568279,0.213928,-0.973174,-0.331695,-0.111455,0.936780
-0.406290,0.068155,0.552825,-0.624256,0.667073,0.406592
0.206638,0.460342,-0.983463,-0.054787,0.089730,0.994458
0.398719,0.321279,0.639439,0.597682,0.699793,0.391236
-0.079687,-0.210820,0.745804,0.117078,0.848993,0.515271
0.066971,0.067095,-0.985940,0.007443,-0.095696,0.995383
0.391826,0.099865,-0.515220,-0.503242,-0.270787,0.820623
0.194604,0.063705,-0.061306,0.326357,0.944238,0.043657
0.071435,0.240835,0.742568,-0.663161,-0.054308,-0.746504
-0.444046,-0.005226,0.612279,0.879094,0.406699,-0.248577
0.240026,0.257998,0.005869,0.338382,-0.230684,0.912295
-0.524118,0.166396,0.617747,-0.061535,-0.851909,0.520061
0.328934,0.107917,-0.979222,0.049275,0.000336,-0.998785
-0.739201,0.130165,0.636315,-0.701959,0.711342,-0.035298
-0.232067,-0.650752,0.773054,-0.790458,0.600238,0.122026
-0.011744,0.381523,0.177267,0.670932,-0.210217,-0.711097
-0.396779,-0.151776,0.529392,-0.059118,0.463731,0.884001
0.579733,0.034465,0.895532,0.920186,0.351999,0.171329
0.276133,0.011653,0.508481,-0.813009,0.532624,0.235220
0.174513,0.371848,0.819073,0.050465,-0.958670,0.280010
0.640394,-0.100925,0.435994,0.232958,-0.131179,-0.963599
0.148112,0.570450,0.583467,0.964442,-0.215339,-0.153232
-0.253811,-0.561691,0.947509,-0.758874,0.529494,0.379139
0.117927,-0.232643,0.565814,-0.469576,-0.772793,-0.426955
0.282928,-0.075216,0.699339,0.667951,-0.229252,0.708015
0.428030,0.277067,0.409079,0.727766,-0.639777,0.247068
-0.092400,-0.341268,0.836547,-0.329314,0.815807,0.475406
0.262155,-0.069992,0.227883,0.003848,0.997912,0.064473
0.112201,-0.527649,0.473732,0.005014,0.403135,0.915127
0.884499,0.682110,-0.072532,0.214031,0.442904,0.870647
-0.136853,0.207005,-0.990917,-0.269024,0.059881,0.961270
0.438513,0.456387,-0.041220,0.866042,-0.221005,-0.448474
0.670678,-0.510911,0.685190,-0.869899,0.199803,-0.450949
0.073375,0.578643,0.266693,0.061435,-0.813137,0.578821
0.133746,-0.334841,0.883034,0.945481,0.212424,0.246862
0.260020,0.832331,-0.074585,-0.093724,0.166089,0.981647
-0.021839,-0.617415,0.685837,0.883829,-0.465588,-0.045548
0.915752,0.293451,-0.044858,-0.126160,0.006281,0.991990
0.220033,0.167525,-0.653700,-0.184967,0.982569,-0.018570
-0.471415,0.490500,0.184409,0.526215,0.632584,0.568274
0.247499,-0.460838,0.606343,-0.004488,0.510953,0.859597
0.726681,-0.333216,0.741140,-0.642008,0.720841,-0.261178
-0.193730,0.076841,0.645621,0.429948,-0.864193,0.261372
0.117731,-0.273325,0.738596,0.170253,0.930408,0.324586
0.480828,0.420792,-0.979401,-0.103652,-0.061502,0.992710
-0.030672,-0.508792,0.718532,0.732115,0.373761,0.569483
-0.020867,-0.043293,0.796889,-0.665421,0.150311,-0.731178
0.410949,0.511829,-0.981856,0.141115,0.038435,-0.989247
0.181598,0.016033,0.112167,-0.382000,0.897697,0.219579
0.144907,-0.012289,0.128370,0.824634,-0.564828,0.030790
0.122778,0.128117,-0.522652,0.993285,0.110817,0.033234
0.232358,0.879934,0.146826,-0.589482,-0.802544,0.091838
0.051343,-0.690514,0.436440,-0.478320,-0.139013,-0.867113
0.647189,-0.052971,0.908231,-0.654475,-0.554146,0.514378
-0.426283,-0.066955,0.526893,0.364202,-0.501236,0.784933
-0.293603,-0.426090,0.477192,-0.443947,-0.558884,-0.700400
0.448996,0.263296,0.588868,-0.715420,-0.686919,0.127735
0.480052,-0.375378,0.652540,0.839551,0.457955,-0.292286
0.350965,-0.379476,0.828647,0.341053,-0.807119,-0.481914
0.505386,-0.566849,0.753526,0.005639,0.008472,0.999948
0.357177,-0.816511,0.620425,0.005499,-0.488863,0.872343
0.161409,-0.031642,0.431285,-0.244058,0.950683,0.191408
0.040183,-0.516774,0.464761,0.004906,0.428065,0.903734
-0.195282,-0.539515,0.672112,0.043833,-0.557817,0.828806
0.194796,-0.270641,0.908610,-0.510655,0.773335,-0.375745
0.507229,0.020835,-0.523768,-0.649005,0.108752,0.752971
-0.459283,0.430116,0.176018,0.920830,-0.373968,0.110546
0.094340,-0.613109,0.794880,0.602205,-0.657924,-0.452200
0.233525,0.050568,-0.020911,0.789477,0.585335,-0.184685
0.280499,0.295288,0.777696,0.672099,-0.287943,-0.682182
0.663397,-0.089696,0.730807,0.841767,-0.316094,-0.437622
-0.873045,0.017656,0.629754,-0.577680,0.791679,-0.198819
0.190042,1.000000,-0.096032,0.276556,-0.394192,-0.876430
-0.436087,-0.484568,0.518211,-0.204300,0.975144,0.085768
-0.613900,0.153895,0.619086,0.538930,-0.764318,0.354081
-0.265748,-0.294723,0.656088,-0.133910,0.803055,0.580664
0.527225,-0.072250,0.868059,0.933534,0.336679,-0.123128
-0.173639,0.156438,0.829249,0.375591,-0.844961,0.380752
-0.337183,-0.333073,0.799790,0.683121,-0.604286,0.410103
0.031542,0.601242,0.627723,0.854498,0.340547,0.392251
-0.355334,-0.246840,0.608641,-0.320154,0.930529,0.177814
0.236143,0.325163,-0.978955,0.000340,0.266734,0.963770
0.401630,-0.396143,0.492970,-0.003093,0.977315,0.211766
0.641073,0.238999,0.252678,-0.401303,0.852544,0.334851
-0.614675,0.150293,0.570501,0.532511,0.819693,-0.211035
0.600698,0.711350,0.252924,0.431416,0.898120,0.085210
0.132387,0.670103,0.626495,-0.171755,0.920705,-0.350433
0.013782,-0.190833,0.536846,-0.318399,0.945686,0.065577
-0.592644,-0.095276,0.521827,0.123299,-0.392301,0.911536
0.194604,-0.317535,0.779749,-0.673316,-0.701676,0.233016
0.554884,-0.065541,0.596880,0.606262,0.308940,0.732805
0.332814,-0.011935,0.558539,0.825597,0.444107,0.348079
0.123264,0.213715,-0.556151,0.943318,-0.109589,-0.313277
-0.236339,0.611341,0.150576,-0.297769,0.064532,-0.952454
0.066097,-0.408504,0.890444,-0.804130,0.584041,-0.110778
-0.027470,0.654778,-0.092193,-0.617573,-0.376968,0.690288
0.724738,0.568965,0.325321,0.856478,-0.153493,-0.492834
0.095214,-0.623843,0.810168,0.467607,-0.871703,0.146552
0.119286,-0.045343,0.604267,-0.435819,0.870379,-0.229134
0.595360,0.897449,-0.047849,-0.202707,0.033838,0.978655
-0.079005,0.400663,-0.988529,0.150549,-0.313293,-0.937647
0.004754,0.230170,0.774906,0.849186,0.299308,0.435083
-0.107737,0.289568,0.289368,0.731041,0.315705,-0.604905
0.119772,0.368669,-0.983597,-0.292949,0.068650,0.953660
0.196932,0.034607,0.084672,0.604231,0.687676,0.402501
0.485487,-0.501729,0.777093,0.567143,-0.340834,-0.749787
0.621663,0.368669,0.334762,0.844209,0.472791,-0.252546
0.364457,-0.518892,0.759485,-0.504192,-0.606391,0.614882
0.147238,-0.397908,0.931887,-0.730356,-0.093110,-0.676691
-0.295060,-0.300939,0.574897,-0.674053,0.003732,-0.738673
0.448800,0.227347,-0.195657,0.905020,0.022178,0.424790
-0.107737,-0.734515,0.813783,-0.401655,-0.831262,0.384288
0.576433,0.014901,0.934007,0.774212,0.614836,-0.150245
-0.224982,0.018856,0.515667,0.875797,-0.065445,0.478223
-0.433756,0.771523,0.411645,0.052777,0.151669,-0.987021
-0.344754,-0.279116,0.809052,0.381507,0.366150,0.848756
0.017567,0.113497,0.747523,-0.362383,-0.931912,0.014810
0.471317,-0.618547,0.509418,-0.739050,0.399725,-0.542241
-0.430457,-0.375803,0.582552,0.222246,0.966586,-0.127742
0.058236,0.675683,-0.049478,-0.049726,0.818551,0.572277
-0.751334,0.682464,0.169389,-0.466748,0.549909,0.692637
0.052993,0.147256,-0.982570,-0.238072,-0.191394,0.952203
0.132970,0.216118,-0.811663,0.838881,0.533780,-0.106575
-0.094050,-0.460767,0.716524,0.347862,0.301579,0.887718
0.367369,0.028462,0.741765,0.313306,-0.874057,0.371299
0.356205,-0.026909,0.545014,0.979677,0.184884,-0.077789
0.160049,0.649834,0.119242,-0.106017,0.815285,0.569273
0.115595,-0.783105,0.746005,0.976323,0.207197,0.062155
0.205279,0.039198,-0.084538,-0.742708,0.660449,0.110416
0.532853,-0.465004,0.545528,0.819171,0.091194,-0.566253
0.088419,-0.136732,0.699741,-0.503306,0.780778,-0.370228
0.477626,0.511689,0.711592,-0.637010,0.347389,0.688142
0.298360,0.206229,0.138591,0.960611,0.207539,-0.184806
0.616808,0.392188,0.752901,-0.630839,0.649359,0.424706
-0.232067,0.065330,0.509329,0.830901,-0.371772,0.413991
0.459283,0.321562,-0.175326,0.940334,-0.145304,0.307667
0.557020,-0.528568,0.768457,0.964691,0.080022,-0.250932
-0.078618,0.019845,0.442845,0.151795,-0.918008,0.366361
0.332038,-0.348329,0.439988,-0.429623,0.798265,0.422134
0.052508,0.234408,0.751116,0.832403,0.036408,0.552974
-0.246723,-0.533441,0.695858,0.854923,-0.020894,-0.518334
0.213626,0.529982,-0.981365,0.261569,-0.044486,-0.964159
0.181985,-0.116817,0.684655,0.932730,-0.231765,0.276226
0.200134,-0.374956,0.421420,-0.075984,0.752952,0.653674
0.126564,-0.480331,0.463065,0.048310,0.637203,0.769180
-0.555373,-0.250866,0.537471,-0.133929,-0.421129,-0.897058
-0.212172,-0.361748,0.759708,0.901249,-0.286262,0.325276
0.458699,0.264919,0.441484,-0.797131,0.588196,0.136407
0.155295,-0.265979,0.876451,-0.552308,0.812530,0.186415
-0.176746,-0.262943,0.805905,0.772208,-0.410027,0.485359
-0.865475,0.672646,0.370269,-0.399724,-0.869195,0.291070
-0.010483,-0.311675,0.801754,0.873540,0.251876,0.416516
-0.705426,0.643478,0.385021,0.376268,0.776210,-0.505886
-0.133746,0.140829,-0.980271,-0.094502,0.048259,0.994354
0.123750,-0.415214,0.879843,-0.238852,0.508216,-0.827446
0.496652,-0.320926,0.753147,-0.273838,-0.590809,-0.758919
-0.506648,0.053536,0.558650,0.091596,0.857355,-0.506510
0.078034,-0.601384,0.735315,0.881462,-0.454993,-0.126513
0.514411,-0.682817,0.676397,-0.826552,0.245182,-0.506653
0.168494,0.228052,0.638368,-0.096819,-0.913025,0.396247
0.018927,0.043436,0.755066,0.905457,0.422591,0.039563
0.418422,0.200226,-0.177245,-0.761442,0.542991,-0.354072
0.147626,-0.311110,0.879776,0.909595,-0.141318,-0.390725
-0.422305,-0.330743,0.559878,-0.171129,0.566151,0.806342
0.912452,-0.303622,0.736520,-0.475562,-0.130890,0.869890
0.056779,-0.761990,0.852370,0.535735,0.817877,0.209918
0.624186,-0.580901,0.759195,-0.010858,-0.991963,0.126060
0.124914,-0.337099,0.840698,-0.081852,0.874498,0.478073
0.498396,-0.869906,0.650598,0.798730,-0.454826,0.393908
0.093759,0.208701,0.005044,-0.267263,-0.385522,0.883144
0.672814,-0.085176,0.754977,0.845143,0.499028,-0.191582
0.175677,0.099865,0.397317,-0.479726,0.474411,-0.738104
0.790156,-0.111590,0.770153,0.481327,0.622374,-0.617231
0.633988,0.123949,0.719559,0.065223,0.844187,0.532066
0.183828,-0.686136,0.859266,-0.463342,-0.658184,-0.593386
-0.003009,-0.206794,0.520108,0.356973,-0.911760,-0.203136
-0.083860,-0.496080,0.807869,0.102602,-0.950926,-0.291912
0.706589,0.348965,-0.041845,0.397275,-0.563163,0.724583
-0.315732,0.177554,0.613395,0.689164,0.610704,0.389991
0.708337,-0.251431,0.724625,-0.729304,-0.075964,0.679960
0.330290,-0.830709,0.618037,-0.543031,0.527598,-0.653267
0.682129,-0.576028,0.765020,0.912938,0.279927,-0.296960
-0.000486,-0.509853,0.961123,0.332103,0.865907,0.374049
0.604871,0.013278,0.882878,0.913929,0.328205,-0.238781
0.868288,-0.051203,0.773813,-0.325337,-0.683570,0.653366
0.407744,-0.750475,0.647697,0.339350,-0.526679,0.779391
0.513538,0.307295,0.762766,0.482664,-0.865656,-0.132949
-0.210036,0.309696,0.160686,0.361333,0.830002,0.424895
0.048627,-0.740378,0.884061,-0.130227,0.805141,0.578609
-0.013297,-0.684158,0.470139,-0.298394,-0.408691,0.862515
0.260408,0.304894,0.751317,-0.049205,-0.995328,0.083073
0.986215,-0.160816,0.838042,-0.710484,0.252360,0.656907
0.245171,0.485626,0.233061,0.420196,0.835537,0.353997
0.198970,0.080654,-0.160462,0.550608,0.833044,-0.053551
-0.471320,0.567907,0.173853,0.235096,0.267288,-0.934498
0.412211,0.030864,0.751875,-0.108085,0.894183,-0.434459
0.335145,-0.316052,0.419077,-0.173255,0.881781,0.438685
0.598465,0.502578,-0.990292,0.140745,0.005866,0.990028
0.311656,0.005226,0.675103,0.759527,0.636404,0.134570
-0.488983,-0.356521,0.444831,0.154650,0.551869,0.819466
0.046684,-0.329825,0.765555,-0.489092,0.072010,-0.869255
0.515771,-0.773148,0.676107,0.900395,-0.238279,-0.364022
0.479860,0.260117,-0.137966,-0.306772,-0.453804,-0.836632
0.599146,0.422839,0.316930,0.943081,-0.148882,-0.297375
-0.491604,0.423264,0.173831,-0.632520,-0.567992,-0.526597
0.298553,0.080372,0.356834,-0.838652,0.541858,0.055250
0.526932,0.253832,0.860650,0.229664,-0.758474,0.609895
-0.310782,-0.592344,0.773612,-0.693957,-0.388389,-0.606282
0.785399,0.063916,0.804075,0.333960,-0.353306,0.873869
-0.157916,-0.563952,0.795818,-0.392698,-0.393852,0.831065
0.125788,-0.718270,0.790238,0.154382,-0.548055,0.822072
-0.153645,-0.543116,0.775910,0.940263,-0.277149,-0.197719
0.675628,-0.375945,0.754084,-0.590315,-0.234632,-0.772319
0.384451,0.088567,0.276647,0.691569,-0.521684,-0.499578
0.071337,-0.521082,0.699875,-0.387486,0.807190,0.445308
0.519749,-0.512747,0.630490,-0.741563,-0.430306,0.514704
-0.260023,0.141465,0.156825,-0.547512,0.350795,0.759719
0.256915,-0.065612,0.625781,0.780388,-0.555502,-0.287077
0.217219,-0.251360,0.922224,-0.621696,0.780194,-0.069221
0.224692,0.056148,-0.211502,0.277476,0.952361,-0.126550
-0.420460,-0.524330,0.770688,-0.692506,0.357739,-0.626465
-0.142872,0.103255,0.815100,0.879165,-0.165856,0.446723
0.070561,0.183275,-0.887788,0.892883,-0.448294,-0.042334
0.668057,-0.144502,0.749018,0.111956,0.030447,-0.993247
0.440065,0.293665,0.561395,0.656216,0.640012,-0.399707
0.190721,-0.299739,0.611386,-0.455023,0.503410,0.734529
-0.458604,0.303976,0.174656,0.301830,0.747757,-0.591404
0.047365,0.281871,0.010021,0.482825,0.242699,-0.841414
0.156749,0.358922,-0.976745,0.266856,0.153283,-0.951468
-0.142289,0.301433,0.174902,-0.538295,0.716029,0.444456
0.043384,0.236669,-0.949942,0.800877,-0.513188,-0.308600
0.172570,-0.261600,0.812511,0.356007,0.930083,0.090584
-0.713482,0.554699,0.180012,0.422156,0.762154,0.490821
0.049984,0.385338,-0.987078,-0.067537,-0.036858,0.997036
0.219547,-0.689384,0.696059,0.964012,-0.177796,0.197658
0.153838,-0.217601,0.657941,0.743479,-0.450144,0.494580
0.703482,-0.927466,0.668095,-0.706299,-0.239610,0.666130
-0.008833,-0.392048,0.432133,-0.061027,-0.197323,-0.978437
0.061050,-0.703933,0.777093,0.985598,0.167036,-0.026386
0.319906,-0.343527,0.780865,-0.460822,0.481135,0.745756
-0.242938,-0.251713,0.767497,0.577684,0.415972,0.702316
-0.773172,0.110318,0.624197,-0.454404,-0.843414,-0.286653
0.431330,0.351719,-0.502232,-0.164269,0.463247,0.870872
0.660583,-0.677377,0.701973,0.852040,-0.056458,0.520424
0.341356,0.355885,-0.977638,-0.095728,0.109668,0.989348
0.660874,-0.318807,0.740292,0.286959,0.717873,0.634282
0.700183,0.417048,-0.035619,-0.704844,0.253381,-0.662565
-0.251868,-0.759093,0.525732,0.390836,0.421144,0.818465
0.201301,0.204250,-0.789703,0.129825,0.940409,0.314287
-0.548771,0.620099,0.171219,0.843763,-0.130258,0.520670
0.084245,-0.477505,0.645287,-0.758236,-0.615077,-0.216238
0.152866,0.107635,-0.259530,0.880528,0.448218,-0.154176
0.691448,-0.844196,0.642363,-0.639149,-0.064431,0.766379
0.238667,-0.137792,0.638703,0.785613,-0.615332,-0.064644
0.200913,0.188219,-0.768613,-0.147634,-0.987769,0.050168
0.773851,0.448548,0.074897,-0.298502,-0.953852,-0.032593
-0.065905,0.110601,0.771983,0.153549,-0.808450,0.568182
0.378627,0.395721,-0.978888,-0.155250,-0.097966,0.983006
0.283896,-0.553147,0.614578,0.988694,0.120472,-0.089276
0.403182,0.544530,-0.982704,0.337167,0.174301,-0.925169
0.237017,0.024436,-0.036043,0.202058,0.979301,-0.011939
-0.565758,0.015185,0.492791,0.590385,0.751311,0.294920
0.326798,0.280599,0.178026,0.880603,0.350508,-0.318878
0.008347,-0.775760,0.746295,0.091131,0.338425,0.936570
0.253906,-0.016880,0.436864,-0.017589,-0.998259,0.056294
0.406384,-0.326648,0.740136,0.470100,0.602662,0.644829
0.133554,0.190267,0.741185,0.451961,0.372478,0.810550
-0.159178,0.161452,-0.019595,0.401406,0.343306,-0.849126
0.547799,0.063916,0.894305,0.914826,0.241944,0.323353
0.196348,-0.430116,0.661467,-0.441948,-0.585208,-0.679863
0.402309,0.364856,0.448447,-0.517239,-0.726007,0.453186
0.345239,-0.208559,0.699518,-0.491703,0.818420,0.297352
0.342716,-0.031570,0.623438,0.756617,0.613658,-0.225732
0.459866,0.640723,-0.050460,-0.686461,0.708821,-0.162311
-0.464040,0.479835,0.165528,0.832413,0.285158,0.475157
-0.102106,0.666219,0.690569,0.092847,-0.886771,0.452788
-0.043678,-0.464368,0.722594,0.197892,-0.008195,0.980190
0.149664,-0.490853,0.702576,-0.331778,0.670870,0.663217
0.170434,-0.387951,0.900665,0.394131,0.835601,0.382664
0.566629,0.224804,-0.975786,-0.235312,-0.018246,0.971749
0.655924,-0.065541,0.903923,0.656522,0.629644,-0.415363
0.906241,0.231231,-0.095095,0.959285,-0.119767,-0.255788
0.453847,0.007909,0.716948,0.866424,0.497655,-0.040620
0.059302,0.368882,0.159860,0.162101,0.831662,0.531095
0.491021,0.359629,0.220987,-0.478592,0.853641,-0.205540
-0.500049,-0.356875,0.595206,-0.436462,0.792302,0.426332
0.160049,0.580690,0.270644,-0.107068,-0.690199,0.715654
0.659808,-0.523554,0.797179,0.064413,0.710819,0.700420
0.654858,0.416201,0.755222,0.620183,-0.600046,-0.505289
0.756381,-0.553005,0.795907,0.516583,-0.536822,0.667057
0.270405,0.034112,0.744197,0.345667,0.887525,-0.304654
0.833737,0.143019,-0.107726,0.968973,-0.246349,0.020104
0.397845,0.477505,-0.982168,-0.067988,-0.008025,0.997654
-0.582550,0.313087,0.200589,-0.001910,-0.456543,0.889699
-0.207026,-0.659509,0.779995,0.484993,-0.442696,-0.754189
0.126371,0.804575,0.085632,-0.289849,0.805519,0.516843
0.483547,0.100361,0.849603,0.959235,-0.019233,-0.281954
-0.074252,0.308496,-0.992948,0.258142,0.098014,-0.961122
0.270212,-0.245640,0.691930,-0.545406,0.836249,-0.056754
0.328448,-0.299456,0.800058,0.457133,0.882284,-0.112271
0.104920,0.162934,0.672090,0.937545,0.241236,0.250628
0.112879,-0.676883,0.456816,0.758265,-0.651812,-0.013234
0.310782,0.091814,0.418251,0.864456,-0.323173,-0.385065
0.492478,0.266826,-0.486766,0.995076,-0.019613,-0.097150
-0.117053,-0.509146,0.473107,0.968329,-0.234588,0.085480
0.260894,0.458223,-0.979580,-0.209881,0.057424,0.976039
-0.283606,0.094851,0.664323,0.244416,-0.020893,0.969445
-0.052703,-0.546295,0.735605,-0.174346,0.967014,0.185706
0.667281,-0.265626,0.713667,-0.299553,0.033283,-0.953499
-0.131614,-0.043436,0.605740,0.941500,-0.335088,0.035979
-0.008930,-0.837065,0.417916,-0.186416,-0.776194,0.602305
0.248957,0.022246,0.632990,-0.683274,-0.717644,0.134625
-0.104242,-0.097677,0.728955,0.871861,-0.043164,0.487847
0.236048,-0.054947,0.608106,0.940467,0.183236,0.286262
-0.197225,0.420369,0.165618,0.424493,0.164076,-0.890441
0.456273,0.303129,0.438136,-0.633710,-0.768508,-0.088360
-0.596332,0.127764,0.585119,0.471537,-0.856643,0.209321
0.565367,-0.586199,0.634507,-0.686888,-0.512456,-0.515338
0.133554,-0.125434,0.470295,0.764275,-0.589864,-0.260663
0.009706,0.429055,-0.986743,0.141712,-0.057545,-0.988234
0.097447,0.149304,-0.575835,0.763835,0.634039,0.120627
0.173831,-0.465147,0.682267,0.376152,-0.901584,-0.213673
-0.383482,0.140334,0.612301,-0.283202,0.256138,-0.924224
0.023101,-0.529628,0.474357,-0.417892,0.618497,-0.665453
0.297679,-0.139982,0.677022,-0.168356,0.022618,0.985467
0.367464,-0.573487,0.792872,-0.406570,0.281958,-0.869023
0.736289,-0.136450,0.818805,0.593315,0.126493,0.794970
-0.280988,-0.690374,0.771045,-0.110160,0.869002,0.482390
0.625253,-0.149940,0.440636,-0.133334,0.366251,0.920914
0.825001,0.110107,-0.081637,0.997697,-0.054509,-0.040357
0.334076,0.427855,0.190703,-0.410574,0.661575,0.627493
-0.276231,-0.204321,0.372121,0.927459,0.211861,0.308114
0.585266,-0.663324,0.607816,0.847733,-0.258548,-0.463143
-0.476463,-0.267887,0.923630,0.177416,0.665372,-0.725123
-0.663691,0.525673,0.189988,-0.507302,-0.746997,-0.429698
0.163642,0.151352,0.005713,0.400293,0.336384,0.852415
0.180140,-0.358711,0.640511,-0.389259,0.916068,-0.096423
-0.140153,0.278832,-0.995001,-0.089800,-0.070801,0.993440
0.128118,-0.347978,0.836480,-0.132953,0.867477,0.479383
-0.196061,-0.524826,0.727192,0.832601,-0.201314,-0.515992
0.363195,-0.307649,0.402317,0.078272,-0.904772,-0.418642
-0.024072,0.546578,0.653232,-0.168566,-0.903974,0.392959
