0.506104,0.471514,-0.468813,0.989327,-0.125352,-0.074288
-0.191638,-0.509067,0.465684,-0.241059,0.254931,0.936430
0.555267,0.307107,-0.890270,-0.206309,0.758980,0.617565
0.541098,0.458077,-0.876525,0.065940,-0.910594,0.408008
0.130103,-0.049083,0.425751,-0.285030,0.707439,0.646752
0.334418,0.296022,0.045693,-0.733472,0.631667,-0.251028
0.649992,0.819622,-0.958092,-0.492438,-0.029109,-0.869860
0.487910,0.031772,0.781372,0.064197,0.547836,0.834119
0.476254,0.351047,-0.832374,0.669240,-0.412846,-0.617800
0.556181,0.775625,-0.937769,-0.566103,0.824194,-0.015232
0.605664,0.439817,-0.169412,-0.320177,-0.757423,0.569032
0.586226,0.759408,-0.932971,0.427476,0.530393,0.732085
0.467680,0.309879,0.283263,0.532624,0.839467,0.107738
0.286282,0.684840,-0.971346,-0.371580,0.212975,-0.903643
0.039390,0.476130,-0.933563,0.821306,-0.283285,-0.495182
0.433819,0.366586,-0.463809,-0.722595,0.420261,0.548851
0.346793,0.268843,-0.868854,-0.043184,-0.998774,-0.024185
0.047975,0.365562,0.735746,-0.738605,-0.673645,-0.025798
0.330251,0.399581,-0.198572,0.756639,0.344247,0.555871
0.408364,0.601739,-0.947253,0.552555,-0.373223,-0.745243
0.455238,0.391565,-0.030950,0.859805,0.277719,0.428494
0.463301,0.663730,-0.920794,0.858295,-0.345974,-0.378987
0.377679,0.605069,-0.933352,-0.322981,0.064361,0.944214
0.739602,-0.494914,0.936955,0.835432,0.539793,-0.103328
0.384947,0.322879,-0.196969,0.014331,0.945542,0.325184
0.536522,0.267154,0.251493,0.759669,0.635916,-0.136067
0.200060,0.484131,-0.940502,-0.158225,0.911074,0.380668
0.721617,0.903617,-0.956750,-0.443644,0.711799,-0.544539
0.244146,0.168934,0.454849,0.983721,-0.174430,-0.043214
0.486855,0.433661,-0.193465,0.274533,-0.933124,0.232188
-0.083731,0.486804,-0.891923,-0.340103,0.930304,0.137345
0.321982,0.547436,-0.926290,-0.636170,-0.733738,0.238570
0.214914,0.588256,0.631455,0.625075,0.767816,0.140499
0.427052,0.435833,-0.920852,-0.161537,0.657874,0.735600
0.275931,0.445037,-0.896272,0.896488,0.431349,0.101227
0.721107,0.939412,-0.985291,-0.633820,0.659984,-0.403353
0.501528,0.477399,-0.872774,0.945072,0.315232,-0.086412
0.448418,0.434953,-0.483211,0.724402,-0.612781,0.315819
0.647550,0.535902,-0.906388,-0.532914,0.268188,-0.802545
0.350777,0.280339,0.514160,0.770165,-0.610569,0.184530
-0.409767,-0.610469,0.494396,-0.770187,0.630643,-0.095401
0.526485,0.358120,-0.186949,-0.515880,0.511508,-0.687188
0.402607,0.407478,-0.280936,-0.016620,0.976208,0.216197
0.903080,0.795487,-0.929167,-0.070221,0.569400,0.819056
0.257881,0.038985,0.341656,-0.900776,0.367718,-0.231052
0.618823,0.516289,-0.878222,0.700869,0.388474,-0.598223
0.599168,0.297621,-0.839936,0.054227,-0.329011,0.942768
0.546865,0.340262,-0.853864,-0.166657,-0.457576,0.873413
0.223804,0.445349,-0.940074,-0.036273,-0.719226,0.693829
0.262657,0.371190,-0.877075,-0.104872,0.875260,0.472145
0.135240,0.417870,-0.230668,0.629943,0.644493,-0.433359
0.644708,0.719534,-0.945659,0.081305,0.956377,-0.280594
0.394481,0.500414,-0.916278,-0.521466,-0.810344,-0.267239
0.630453,0.726032,-0.960804,-0.239585,-0.826342,-0.509664
0.382605,0.201765,0.494863,0.160732,0.388314,0.907402
0.650510,0.863458,-0.985488,0.350396,-0.638617,-0.685122
0.545060,0.417400,-0.817656,-0.545225,-0.490746,0.679631
0.501336,0.444931,-0.257796,0.880125,-0.219113,-0.421153
0.482187,-0.101982,0.516180,0.681850,0.697197,-0.221351
0.464304,0.464592,-0.287957,0.792489,-0.605416,0.073709
0.500288,0.664144,-0.942947,0.058417,0.410586,0.909949
0.251075,0.647001,-0.935249,0.111879,0.251243,-0.961437
0.313370,0.505948,-0.897592,-0.091893,0.241150,0.966128
0.431756,0.178898,-0.836553,-0.329329,0.731937,0.596499
0.075303,-0.154747,0.858506,0.421060,-0.039255,0.906183
0.870578,0.864749,-0.973807,0.103346,0.020825,0.994427
0.341761,0.356766,-0.033150,0.110203,-0.006683,0.993887
0.640223,0.566743,-0.860896,0.856503,-0.355080,-0.374595
0.276436,0.492976,-0.911236,-0.215552,-0.946263,-0.241089
-0.109897,-0.215159,0.398025,0.263471,-0.583237,0.768387
0.552107,0.340914,0.357671,0.346672,0.912968,0.215194
0.415217,0.652256,-0.970798,-0.175388,-0.107649,0.978596
0.399777,0.454038,-0.921517,-0.087966,0.652514,-0.752654
0.701043,0.709348,-0.925883,-0.265007,0.879267,0.395803
0.399851,0.393082,-0.893940,-0.225771,0.297401,0.927675
-0.211373,-0.380491,0.442151,-0.895451,0.428780,0.119648
0.335161,-0.004821,0.680017,0.752393,-0.576194,-0.319226
0.285190,0.575198,-0.920719,-0.188584,-0.140033,0.972022
0.431365,0.044056,0.759359,0.749097,0.121614,0.651202
0.230527,0.367034,-0.092844,0.173964,0.406091,0.897121
0.528447,0.749824,-0.945259,0.649619,0.506081,-0.567342
0.482514,0.514082,-0.934409,-0.075476,0.037948,0.996425
0.600726,-0.237488,0.967025,-0.151181,-0.682534,0.715047
0.190125,0.546244,-0.900791,0.605329,0.563752,-0.561926
0.351772,0.462802,-0.915312,-0.039795,0.216802,0.975404
-0.111701,0.439273,-0.904166,0.796304,0.564878,0.216360
0.331760,0.431567,-0.849670,0.230711,-0.847270,-0.478440
0.269300,0.491799,0.525689,0.605479,0.792163,0.076642
0.115444,0.543743,-0.921628,-0.276943,0.000569,-0.960886
0.492073,0.364416,-0.294444,0.996356,-0.078505,0.033356
0.293211,0.576753,-0.949858,0.728028,-0.359888,-0.583486
0.688159,0.669456,-0.941767,-0.215920,-0.757367,-0.616258
0.300218,0.322007,-0.864348,-0.344279,0.077579,0.935657
0.354132,0.572654,0.531090,0.592244,0.681233,-0.430312
0.416959,0.313720,0.060901,-0.402086,0.901993,-0.157276
0.378025,0.560691,-0.930978,0.230827,0.728270,0.645245
0.291130,0.239492,-0.818801,0.319102,0.132801,-0.938370
0.510724,0.484396,-0.907706,-0.382760,-0.894883,-0.229519
0.409403,0.378751,0.077358,-0.342935,0.919223,0.193454
0.600865,0.397865,-0.768732,0.938911,0.138885,0.314893
0.565010,0.469184,-0.922727,-0.077047,-0.085342,0.993368
0.245908,0.571822,0.602670,0.869116,0.356735,0.342603
0.562303,0.704010,-0.940572,-0.652618,0.434014,-0.621064
0.501246,0.366323,-0.885079,0.168488,-0.925532,-0.339120
0.334961,0.419762,0.111535,0.491096,0.319356,-0.810455
0.463914,0.355018,-0.375345,0.084363,0.967820,0.237081
0.733780,0.811792,-0.951088,-0.537468,0.723771,0.432763
0.418230,0.415614,-0.894513,-0.065951,0.450525,0.890325
0.322633,0.540861,-0.926285,-0.597805,-0.792465,0.120947
0.280651,0.571593,0.433590,0.165297,-0.857505,0.487198
0.392182,0.490668,0.511730,-0.686050,0.322670,-0.652089
0.620358,0.433649,-0.934872,0.351475,0.034542,-0.935560
0.446980,0.117741,0.621598,-0.798714,0.197267,-0.568456
0.104178,0.632766,-0.966889,-0.038821,-0.097667,0.994462
0.100601,0.580844,-0.930526,0.178167,-0.634665,-0.751969
0.311134,0.564088,-0.922227,-0.668069,0.237395,0.705215
0.289605,0.572346,-0.959899,-0.226042,0.389250,0.892966
0.485626,0.482579,0.501026,0.174071,-0.983706,-0.044962
0.301428,0.480237,-0.888172,-0.352823,0.464549,0.812226
0.347447,0.509082,0.415309,0.318280,0.467535,-0.824687
0.682910,0.638265,-0.929351,0.988544,-0.144622,0.043188
0.180381,0.468890,-0.953045,0.240396,-0.508545,-0.826796
0.594767,0.748119,-0.979511,-0.215659,0.559758,-0.800101
0.376936,0.123527,0.520901,0.731459,-0.369103,-0.573350
0.378860,0.604337,-0.931151,0.181836,-0.138772,-0.973488
0.651198,0.774331,-0.948682,0.052181,0.726206,0.685494
0.307372,0.456224,-0.908289,0.101348,-0.708512,-0.698383
0.187272,0.471359,-0.904688,0.191534,-0.062335,0.979505
0.392216,0.170720,-0.018234,-0.367426,0.635046,-0.679496
-0.185503,-0.395272,0.457023,0.969987,-0.240794,-0.033809
0.509442,0.236283,-0.801860,0.537742,0.359493,-0.762626
0.340580,0.477331,-0.934049,0.175389,0.431766,-0.884769
0.357782,0.121227,0.554129,0.856200,0.114495,0.503798
0.305929,0.465108,-0.172358,0.743084,-0.597587,0.301191
0.364952,0.039505,0.787950,0.580135,-0.191425,0.791707
0.311345,0.522381,-0.903804,-0.708003,-0.337196,0.620509
0.332429,0.421452,-0.886096,-0.314646,-0.277175,0.907839
-0.124236,-0.387914,0.434361,-0.731650,0.476858,-0.487129
-0.020073,0.514158,-0.924855,0.328468,0.653910,0.681550
0.295565,0.593765,-0.956829,-0.583008,-0.520414,-0.623916
0.339604,0.310307,0.635070,-0.774139,0.603699,0.190408
0.410483,0.674094,-0.930301,0.167715,0.034020,-0.985248
0.348353,0.269973,-0.877608,-0.011736,0.999553,-0.027490
0.426957,0.344010,-0.881837,-0.170073,0.443127,0.880178
0.941342,0.797030,-0.968558,0.804391,0.288122,-0.519559
-0.023965,0.414229,-0.283582,-0.234695,-0.966880,0.100303
0.548817,0.475875,-0.891659,-0.535850,0.337724,0.773826
0.539459,0.653846,-0.938688,0.171798,0.367627,0.913967
0.320636,0.116905,0.650187,0.801185,0.293824,-0.521316
0.628249,0.797130,-0.960042,0.741586,-0.274926,-0.611936
0.118510,0.538021,-0.938006,-0.203385,0.441583,0.873864
0.869908,0.776487,-0.985496,-0.149399,0.257373,0.954693
0.263567,-0.377774,0.760510,-0.373271,0.729762,0.572814
0.919890,0.839308,-0.939911,0.401881,0.550065,-0.732065
0.423345,0.426490,-0.017906,0.784338,0.619676,0.028566
0.124088,-0.162750,0.449829,-0.666124,0.410098,0.622975
0.232119,0.300779,-0.901367,0.200743,-0.271086,-0.941390
0.189368,-0.330242,0.750851,-0.472409,-0.062759,0.879142
0.529130,0.685386,-0.958318,0.140062,0.983340,0.115867
0.058204,0.445911,-0.892044,-0.096120,0.506668,-0.856766
0.270486,-0.216151,0.716661,-0.787328,0.294783,0.541496
0.212592,0.598955,-0.948847,-0.046527,0.667956,0.742745
0.765986,0.835857,-0.950440,0.387390,0.762740,0.517839
0.395871,0.391797,-0.888874,0.178974,0.230643,-0.956437
0.574228,0.670791,-0.920682,-0.496094,0.027381,-0.867837
0.297715,0.284540,-0.888290,-0.125511,0.016297,0.991958
0.517792,0.663465,-0.925061,0.320851,0.865643,-0.384340
0.332630,0.561409,0.582238,-0.640049,-0.015769,-0.768172
0.521375,0.689860,-0.957643,-0.350707,-0.921652,0.166017
-0.528309,-0.324462,0.442165,0.868120,-0.075280,-0.490612
0.185432,0.444607,-0.332473,-0.486316,0.822837,-0.294001
0.331380,-0.074823,0.704704,0.951784,0.180486,0.248055
-0.044751,0.525688,-0.935625,0.923445,0.091547,0.372650
0.435352,0.407987,-0.861885,-0.070009,0.122331,0.990017
0.317294,0.306721,0.167442,-0.524554,0.523458,0.671442
0.903463,0.835038,-0.954159,-0.674902,0.675763,-0.296396
0.380748,0.382941,0.994139,0.494894,0.756867,-0.426886
0.550425,0.461807,-0.918578,0.258496,0.234446,0.937131
0.374549,0.493411,-0.932239,-0.615088,-0.076590,0.784729
0.838955,0.943170,-0.957304,0.321354,0.640944,-0.697082
0.523626,0.547488,-0.888733,0.893604,-0.303566,-0.330634
0.418879,0.467070,-0.248728,0.683679,0.223304,0.694779
0.671527,0.450698,-0.850911,0.783426,0.496600,0.373674
0.430231,0.349661,-0.165843,0.428433,0.853767,-0.295849
0.518088,0.466430,-0.354531,0.918730,-0.389832,-0.062977
0.573211,0.247462,-0.889903,0.168124,-0.237276,0.956783
0.623619,0.609958,-0.945670,0.043465,0.143962,0.988628
-0.124156,-0.557847,0.496591,0.937548,-0.344347,0.049288
0.689086,0.671353,-0.922295,0.210507,0.570306,-0.794001
0.105887,0.534805,-0.916388,0.324232,-0.115225,0.938934
0.347915,0.658639,-0.972764,-0.691204,-0.076469,-0.718602
0.194885,0.588422,-0.931171,0.174355,0.668725,-0.722777
0.214211,0.538337,-0.932663,-0.359735,-0.259387,-0.896275
0.415017,0.620911,-0.932973,-0.430096,0.902780,-0.002449
0.389221,0.416834,0.186144,0.863953,0.381577,0.328609
0.190862,0.428459,-0.908638,0.866532,0.284599,0.410031
0.318979,0.631400,-0.942068,-0.465324,0.802370,0.373732
0.116423,0.546822,-0.937394,-0.084789,0.219722,0.971871
0.305872,0.453876,0.104533,0.701871,0.673900,-0.230727
0.614191,0.506220,-0.130788,0.412652,0.315518,-0.854498
0.299193,0.493877,-0.940792,-0.652431,0.659610,0.373160
0.709284,0.760985,-0.949890,-0.042260,0.233353,-0.971473
0.438481,0.539575,-0.372811,0.077825,0.839953,0.537050
0.488373,0.350225,-0.202594,0.153096,0.662514,0.733237
0.374972,0.436831,0.425561,0.564960,0.054178,-0.823338
0.109217,-0.226424,0.487699,0.259669,0.261556,0.929603
0.376700,0.139191,0.688934,-0.267079,0.811248,-0.520140
0.527446,0.430727,-0.282105,0.905286,0.221273,0.362622
0.286467,0.473462,-0.908506,0.929154,0.183133,0.321147
0.440625,0.435118,-0.901768,0.179528,-0.255391,0.950024
0.117387,0.462356,-0.947497,0.121064,0.239975,0.963201
0.165500,-0.398844,0.587009,0.930804,0.110154,0.348526
0.492206,0.401596,-0.866562,-0.003304,0.905059,0.425273
0.637284,0.847266,-0.975638,-0.220542,0.957769,-0.184497
0.631772,0.674513,-0.956934,0.453489,-0.107600,-0.884743
0.103194,0.423979,-0.266415,0.941311,-0.337047,-0.018226
0.562614,0.748846,-0.944264,0.955891,0.213891,0.201304
0.185670,0.483859,-0.906582,-0.733961,0.060829,-0.676462
0.356767,0.624795,-0.950937,0.991513,-0.130001,-0.001486
0.358717,0.282418,-0.875428,-0.552379,0.354476,-0.754469
0.502083,0.414186,-0.500226,0.841911,0.495619,0.213419
0.333119,-0.931053,0.484709,-0.157155,-0.227312,0.961058
0.816332,0.713871,-0.935189,0.023953,-0.783591,0.620815
0.441394,0.424055,-0.903081,0.309858,0.342028,0.887133
0.299976,0.461941,-0.905400,-0.467413,0.723306,0.508285
0.534828,0.266670,0.242875,0.671365,0.691322,-0.267100
0.310553,0.281164,0.433423,0.956266,-0.171008,-0.237299
0.247613,0.409114,-0.873357,0.073795,-0.990242,0.118213
0.678456,0.875735,-0.945186,0.258718,-0.442642,-0.858565
0.635898,0.695660,-0.939399,0.240969,0.051298,-0.969176
-0.147289,-0.163331,0.409203,0.333902,-0.373985,-0.865243
0.131075,0.595244,-0.954995,-0.822268,0.317777,-0.472115
0.438380,0.385116,-0.217875,0.867600,-0.453705,-0.203524
0.573790,0.826186,-0.953617,-0.596508,-0.195241,0.778498
0.431750,0.538406,-0.899539,-0.554193,-0.141936,0.820197
0.308517,0.561739,-0.436566,-0.000290,0.714249,0.699892
0.453942,0.241038,-0.824223,-0.534041,-0.838034,-0.111804
0.749956,0.860054,-0.973777,-0.008631,0.068078,0.997643
0.136814,0.596671,-0.944505,-0.194243,-0.979350,0.056067
0.298422,0.436874,-0.322484,-0.690228,-0.640097,0.337432
0.707615,0.608803,-0.891397,0.128943,0.435366,0.890972
0.110464,0.575663,-0.941883,0.601289,0.744623,0.289806
0.439282,0.365616,-0.897059,0.151938,-0.285762,0.946179
0.425690,0.377165,0.343716,0.294416,0.668539,0.682916
0.900747,0.973622,-0.980681,0.265711,0.525165,0.808455
0.825660,0.892679,-0.970189,0.687524,-0.176429,-0.704403
0.219399,0.396299,-0.150292,-0.139424,0.848190,0.511014
0.225317,0.116155,0.659774,-0.331466,-0.640559,0.692687
0.398024,0.292007,-0.856509,-0.483681,0.384421,0.786303
0.549581,0.425429,-0.659891,0.402068,-0.397738,0.824710
0.843661,0.848365,-0.968071,0.047159,0.495214,0.867490
0.640559,0.123440,-0.844817,-0.170493,0.437233,0.883040
0.272844,0.539830,-0.922845,-0.326446,0.907678,-0.263732
-0.106673,-0.156347,0.382932,0.065303,0.219393,0.973449
0.392340,0.680297,-0.954743,0.717548,-0.692792,-0.071862
0.664247,0.894740,-0.987725,0.837017,0.115855,0.534772
0.911610,0.795563,-0.938106,0.648909,-0.753096,0.108461
-0.047159,-0.193011,0.411985,0.402940,-0.540779,-0.738375
0.445264,0.323812,0.450114,0.174726,-0.042629,0.983694
0.646553,0.623358,-0.928723,0.883469,-0.346579,-0.315223
0.375802,0.202001,0.575206,0.847412,0.399023,0.350247
0.192856,0.556718,-0.938904,-0.374506,0.204537,-0.904384
0.557864,0.735717,-0.961312,0.471956,0.632273,-0.614400
0.298816,0.265716,-0.873882,-0.536356,0.795785,0.281155
0.249391,0.061823,0.380757,0.878277,-0.462068,-0.122975
0.725674,0.705378,-0.946155,0.574478,-0.673259,-0.465508
0.538485,0.622563,-0.927739,0.541339,-0.021749,0.840523
0.151471,0.460123,-0.901594,-0.330532,-0.831198,0.447056
0.564219,0.442385,-0.764315,0.709454,0.553153,-0.436689
0.562930,0.551344,-0.904670,-0.066400,0.986566,0.149258
0.826569,0.810774,-0.942467,-0.076727,-0.301410,0.950402
0.286152,0.386857,-0.858991,-0.148445,0.427549,0.891720
0.477549,0.375998,0.050160,-0.071451,-0.988134,-0.135965
0.374598,0.662756,-0.288075,0.144287,0.367954,0.918581
0.380996,0.405144,-0.913213,-0.351552,0.278601,-0.893752
0.314506,0.538617,-0.433834,0.164454,0.673619,0.720550
0.516632,0.497039,-0.838118,-0.273788,-0.921563,-0.275248
0.087316,0.389536,-0.886165,-0.014823,-0.753937,0.656779
0.488467,0.378624,-0.298415,0.809875,0.291862,-0.508841
0.483738,0.388829,-0.214786,-0.744489,0.666406,0.040487
0.407256,0.491733,-0.882493,-0.718014,0.681187,0.142971
0.712424,0.781451,-0.948809,0.261951,-0.212129,0.941479
0.346287,0.333013,-0.033839,-0.485312,0.658695,0.574972
0.667343,0.770179,-0.958838,-0.591270,0.453759,0.666711
0.200883,0.569002,0.522282,0.509931,0.827498,-0.234984
0.652652,0.690359,-0.953632,0.744920,-0.408251,-0.527661
0.568265,0.556539,-0.880967,-0.175384,0.475577,0.862013
0.380735,-0.353692,0.862391,-0.383506,0.496540,-0.778698
0.750529,0.720493,-0.948452,0.221412,-0.974354,0.040135
0.825430,0.858665,-0.944201,0.305365,0.545062,0.780807
0.525178,0.395912,-0.172974,0.294481,-0.177331,0.939061
0.269596,0.032786,0.559797,0.427764,-0.890210,0.156668
0.933653,0.760064,-0.962516,-0.325688,0.420541,0.846801
0.251658,0.478480,-0.348526,0.987706,0.100148,0.120033
0.497186,0.571368,-0.932404,0.211879,-0.644461,0.734695
0.483499,0.215878,-0.844493,-0.421522,0.876079,-0.234105
0.903308,0.655716,-0.921237,-0.728979,-0.227490,-0.645630
0.496853,0.455322,-0.549548,0.982651,0.181197,0.039553
0.604503,0.728133,-0.940416,-0.274509,0.672992,-0.686824
0.448643,0.508912,0.514637,-0.143788,-0.965252,0.218204
-0.090705,0.473248,-0.911323,-0.663731,0.690530,0.287454
0.452532,0.657178,-0.940634,0.185882,-0.055246,0.981018
0.609092,0.679549,-0.944486,0.031031,0.873292,0.486207
0.641893,0.716462,-0.944586,-0.376507,0.584992,0.718350
0.497956,0.387061,-0.325847,-0.572300,-0.739334,-0.354765
0.401390,0.389337,-0.298954,-0.669780,0.323157,-0.668554
0.526362,0.244975,-0.849841,0.665733,-0.497770,-0.555900
0.386042,0.393049,-0.212200,-0.258397,0.783397,-0.565262
0.454743,0.500897,-0.896733,0.221870,0.904175,-0.365023
0.291663,0.409988,-0.907360,-0.348783,0.689432,-0.634849
0.525752,0.320575,-0.843767,0.984404,-0.109308,-0.137840
0.773268,0.823773,-0.976975,0.817371,0.556311,0.149743
0.430123,0.765929,-0.951564,-0.089118,0.579274,0.810247
0.933325,0.786811,-0.966861,0.731893,0.225912,0.642882
0.286827,0.598539,-0.920736,-0.695935,0.718084,0.005471
0.294674,0.412705,-0.937633,-0.094553,0.652047,0.752259
0.116630,-0.461778,0.745856,-0.800441,0.294591,0.522025
0.216214,0.361856,-0.878450,-0.703532,0.644786,0.298822
0.443670,0.369513,-0.862725,0.278130,-0.032457,0.959995
0.431889,0.345977,-0.038856,-0.220540,0.943728,0.246454
0.285958,0.650978,-0.961628,-0.349106,-0.929970,0.115243
0.424630,0.353069,0.507731,-0.631741,0.748263,-0.202498
0.796226,0.772771,-0.970182,-0.110915,0.795822,0.595286
0.587415,0.463891,-0.862689,0.014467,-0.902643,0.430148
0.370111,0.303164,-0.845026,-0.306103,-0.603191,0.736520
0.339311,0.432284,-0.908564,0.079872,0.388835,0.917839
0.002195,0.532014,-0.940695,-0.225063,-0.726695,0.649046
-0.129447,0.485728,-0.904521,-0.383044,0.712040,0.588452
0.233130,0.573530,-0.950564,0.479677,-0.877439,-0.003295
0.223218,0.380378,-0.349957,-0.736815,0.559555,0.379475
0.317187,0.369491,-0.887708,-0.141613,0.129569,0.981406
0.660268,0.808514,-0.940593,-0.248927,0.865229,0.435217
0.630513,0.082910,0.447198,-0.617186,-0.329001,-0.714731
0.271489,0.523402,0.516774,0.627524,-0.250290,-0.737271
0.399303,0.489850,0.461448,0.232635,-0.972123,0.029285
0.150813,0.614612,-0.946455,0.142825,-0.099551,0.984729
-0.004470,-0.782800,0.452424,0.070186,0.018737,0.997358
0.343027,0.528924,-0.937557,0.422898,-0.776854,-0.466535
0.522402,0.300281,0.248936,0.933310,-0.114224,0.340420
0.385663,0.396570,0.116601,0.159554,-0.661050,0.733181
0.376755,0.533167,0.542702,-0.422908,-0.607330,0.672532
0.312215,0.404868,0.401510,0.255068,-0.242205,0.936097
0.237005,0.112411,0.622771,-0.336605,-0.740953,0.581108
0.902320,0.739926,-0.936880,-0.207207,0.383707,0.899908
0.576989,0.587949,-0.897544,0.468039,0.867439,0.168789
0.576370,0.370028,-0.873197,0.123395,-0.214221,0.968960
0.187999,0.307981,-0.865011,0.194336,-0.974504,-0.112143
0.036420,0.482848,-0.908263,0.269319,0.942033,-0.200101
0.356458,0.418718,0.199943,0.847551,0.519589,-0.108095
0.320297,0.223181,0.407884,0.911776,0.285475,0.295242
0.778693,0.828718,-0.943059,0.840103,-0.311897,-0.443788
0.486349,0.593663,-0.927927,-0.398219,-0.151958,-0.904616
0.554826,0.654980,-0.939636,0.340950,0.120886,0.932277
0.402069,0.408661,-0.196645,0.172239,-0.902287,-0.395237
0.358242,0.272193,-0.892175,0.122434,0.726714,0.675942
-0.008902,0.475888,-0.902356,0.019489,0.701819,0.712089
0.170383,0.562314,-0.959928,0.027626,-0.171960,0.984716
0.481123,0.456280,-0.252643,0.735790,-0.666408,-0.120470
0.104035,0.566859,-0.959942,0.273055,-0.458699,0.845599
0.098328,0.409584,-0.914036,-0.358549,0.903920,0.233177
0.029122,0.500537,-0.953049,0.009993,-0.986267,0.164858
0.050775,-0.394109,0.668051,0.569144,-0.506295,-0.647874
0.444006,0.447974,-0.893700,0.817978,-0.367657,-0.442426
0.547927,0.757219,-0.961483,0.872163,0.267139,0.409839
0.240456,0.483187,-0.910836,-0.030132,-0.423674,0.905313
0.397237,0.142930,0.535192,0.626010,-0.543174,-0.559529
0.250429,0.048356,0.408816,0.850989,-0.504000,-0.147654
0.147731,0.598930,-0.926575,0.183625,-0.981070,0.061507
0.165215,0.500922,-0.936835,0.887697,0.104143,0.448496
0.651364,0.518985,-0.932811,0.230124,0.346076,0.909546
0.521780,0.124402,-0.819947,0.752410,0.416529,0.510278
0.311576,0.581675,-0.931263,0.921282,-0.133554,-0.365244
0.231063,0.484551,-0.932863,-0.694623,0.533888,0.482144
0.320437,0.592178,-0.965637,-0.015266,0.549657,0.835251
0.513123,0.489060,-0.864376,0.812440,0.060132,0.579936
0.435303,0.263449,-0.854061,-0.429956,0.053985,-0.901234
0.571110,0.303307,-0.029721,0.885471,0.279153,-0.371502
0.461569,0.204591,-0.852883,0.103957,-0.951235,-0.290421
-0.352227,-0.623556,0.475682,0.018195,0.519998,0.853974
0.071778,0.364358,-0.868045,-0.146870,0.181306,0.972398
0.575972,0.527920,-0.198242,0.983311,0.117182,0.139168
0.484622,0.278169,-0.835635,0.898294,0.435841,0.055761
0.842411,0.891111,-0.961505,0.032093,0.877089,0.479254
0.601256,0.670717,-0.960320,-0.284411,0.958692,-0.004545
0.758313,0.777810,-0.930501,0.478155,0.321989,0.817124
0.329872,0.305407,0.676222,-0.749914,0.524261,0.403458
-0.521759,-0.269099,0.430063,0.599822,-0.649478,-0.467324
0.145028,0.460422,-0.912010,0.860080,0.352150,-0.369125
0.312446,0.403544,0.080115,0.863655,0.486110,-0.133403
0.174628,0.528246,-0.923292,-0.250935,0.623010,-0.740871
0.359408,0.396901,-0.868854,0.752839,-0.296673,-0.587553
0.449768,0.255929,-0.026067,-0.511695,0.336609,-0.790483
0.262918,0.462336,0.472631,0.792351,0.287889,-0.537866
0.577258,0.266432,-0.875579,0.612346,-0.240175,0.753226
0.660310,0.513183,-0.938758,0.265778,0.571179,0.776606
0.183080,0.557855,-0.930580,0.438047,0.122396,0.890581
0.027830,0.575746,-0.922136,0.697894,-0.690527,0.190044
0.779887,0.866748,-0.937365,0.160099,0.229636,0.960019
0.269371,0.342651,0.070570,-0.609097,0.732278,-0.304583
-0.266949,-0.492841,0.465954,-0.124110,0.226809,0.965999
0.229043,0.596871,-0.921606,0.066864,0.980110,0.186849
0.480080,0.369227,-0.870651,0.372502,-0.862110,0.343523
0.547977,0.758483,-0.950087,0.664380,0.711644,-0.228391
0.222980,0.412037,-0.909661,0.267827,-0.110340,-0.957128
0.584459,0.252989,-0.898540,-0.133416,-0.113808,0.984504
0.742783,0.771019,-0.959711,-0.542457,0.839948,0.015094
0.521015,0.431389,-0.508049,0.892838,0.361086,-0.269179
0.447266,0.444198,-0.475343,-0.389119,0.898802,0.201844
0.439857,0.712649,-0.958262,-0.236578,0.612183,0.754495
0.785027,0.821189,-0.962694,0.546672,-0.242717,-0.801398
0.571098,0.456033,-0.927742,-0.016335,-0.356706,0.934074
0.868631,0.892807,-0.968846,0.059332,-0.388834,0.919395
-0.027960,0.548800,-0.928497,-0.605146,0.694823,-0.388613
0.737388,0.480301,-0.227223,0.120594,0.950022,-0.287949
-0.056819,-0.340476,0.413111,-0.433030,0.555120,0.710159
-0.069778,0.433627,-0.923831,0.085189,0.783375,0.615684
0.801943,0.764170,-0.929042,0.886273,0.280143,-0.368836
0.314848,0.103812,0.630003,-0.546791,-0.272578,0.791657
0.435276,0.158908,0.534647,0.901648,-0.057742,0.428600
0.384928,0.330326,0.097189,0.106875,-0.840485,0.531190
0.187101,-0.255360,0.498385,-0.011216,0.509353,0.860484
0.879137,0.809649,-0.936617,0.518066,0.756502,-0.399139
0.299667,0.222362,-0.854682,0.305049,0.637446,0.707536
0.302227,0.547251,-0.911578,0.342205,-0.906310,-0.247987
0.874285,0.750273,-0.939963,0.218345,0.066346,0.973614
0.493902,0.723709,-0.932628,0.892169,0.114974,-0.436824
0.593212,0.832794,-0.967153,0.904000,-0.087516,0.418479
0.354931,0.667245,-0.966008,-0.572767,0.642191,0.509439
0.181653,0.452457,-0.906116,-0.377772,0.066231,-0.923527
-0.070414,-0.391652,0.496036,0.223781,-0.209890,-0.951771
0.389299,0.278136,0.503891,-0.488231,-0.559733,-0.669574
0.057650,0.464353,-0.931573,-0.484086,0.867377,-0.115401
0.208311,0.263099,-0.870294,0.486533,0.838274,-0.246133
0.478455,0.554007,-0.916859,-0.615105,0.701676,-0.359578
0.661788,0.916173,-0.955818,0.792677,0.320179,0.518795
0.572767,0.642701,-0.926484,0.763968,0.443314,-0.468855
0.458612,0.410397,-0.863642,0.218030,0.486414,0.846088
0.382666,0.533715,-0.379341,-0.063664,0.853277,0.517557
0.689057,0.609781,-0.948182,0.834571,-0.327653,-0.442872
0.405308,0.110462,0.594792,-0.578409,-0.187033,0.794017
0.559132,0.721220,-0.970039,-0.644037,-0.617630,-0.451386
0.465550,0.480979,-0.620676,0.280970,-0.637608,0.717295
0.322586,0.453663,-0.889527,0.466302,-0.290531,-0.835556
0.212278,0.603093,-0.921162,0.411304,0.529464,-0.741955
0.602129,-0.335999,0.893393,0.952618,0.303189,0.024414
0.552479,0.691456,-0.931404,0.866236,-0.484283,-0.122901
-0.106209,0.439924,-0.906969,0.796304,0.564878,0.216360
0.386759,0.493791,-0.234899,-0.185605,0.454529,0.871180
0.492259,0.427730,-0.239662,0.159331,-0.981634,0.104917
-0.133837,-0.543865,0.456429,-0.565992,0.334983,0.753286
0.482169,0.348271,-0.376355,0.992943,0.094884,0.071143
0.476078,0.598207,-0.925081,0.356784,-0.769339,-0.529927
0.094806,0.539742,-0.942960,-0.252555,0.346580,0.903382
0.276513,0.380401,-0.865868,0.480680,-0.411583,-0.774304
0.535425,0.411994,-0.910651,0.192398,-0.840197,0.507003
0.351410,0.426880,-0.920553,0.553419,0.277975,-0.785148
0.458754,0.177685,-0.831504,0.070819,0.189881,0.979250
0.527676,0.432160,-0.227961,0.266105,0.787712,0.555606
0.396967,0.389882,-0.080559,-0.953622,-0.137984,0.267518
0.286409,0.494003,0.007562,0.804878,0.569197,0.167890
0.443046,0.262579,-0.850556,0.338698,0.552591,0.761530
0.141838,0.535688,-0.927931,0.858270,0.185487,0.478505
0.833331,0.986643,-0.966067,0.866501,0.307207,0.393445
0.462171,-0.223090,0.900230,0.966871,-0.026397,-0.253898
0.394896,0.374898,-0.890810,0.585473,0.604153,0.540574
0.437184,0.641493,-0.928971,-0.199465,-0.100843,-0.974702
0.267864,0.305514,0.428176,0.861880,0.334017,-0.381570
0.456941,0.420124,-0.029720,0.761124,0.642835,0.086333
0.837790,0.735629,-0.922955,0.057317,0.479406,0.875719
0.589553,-0.021564,0.706351,0.770819,0.160911,-0.616397
0.517706,0.518407,-0.868082,-0.086780,-0.516583,0.851828
0.408165,0.067554,0.589239,0.452983,0.272916,-0.848719
0.355648,0.416264,0.192052,0.893399,-0.077902,0.442458
0.265215,0.520959,-0.909093,-0.496618,-0.396317,-0.772207
0.926046,0.771674,-0.926779,-0.633552,0.131640,0.762419
0.250412,0.464130,-0.911460,0.742823,0.603901,-0.288994
0.669975,0.741242,-0.955627,-0.003764,-0.138210,0.990396
0.867383,0.749218,-0.945855,0.434404,0.231972,0.870335
0.334390,0.388016,-0.164318,0.496927,0.825717,-0.266938
0.596861,0.500765,-0.888458,0.994802,-0.039581,-0.093818
0.231804,0.592306,-0.910269,0.426294,-0.131968,-0.894907
0.469006,0.356964,-0.462962,-0.189480,0.943182,-0.272955
0.222905,0.500737,-0.908839,0.592855,0.334034,-0.732765
0.207900,0.457626,-0.933441,-0.734232,-0.559372,0.384717
0.641552,0.606048,-0.936597,-0.659041,0.698837,0.278014
0.290324,0.432693,-0.331356,0.457017,0.792974,-0.402899
0.724144,0.783545,-0.970888,-0.495970,-0.013124,0.868240
0.810143,0.761300,-0.916525,0.010776,0.744647,0.667371
0.408275,0.398996,-0.894113,0.156796,0.286225,0.945246
0.174127,0.587613,-0.937894,0.552189,0.144468,-0.821106
0.317288,0.407201,-0.883076,0.271646,0.158540,0.949249
0.541474,0.694407,-0.922262,0.560981,0.548816,-0.619759
0.461950,0.242918,-0.041132,0.634913,-0.273512,0.722549
0.642056,-0.182734,0.983650,0.144668,0.814347,-0.562058
0.239183,0.337013,-0.904291,-0.157614,0.194937,0.968069
0.353251,0.408522,-0.891614,0.241317,0.747444,0.618946
0.439871,0.611592,-0.850771,0.772138,-0.632587,-0.060304
0.614410,0.461480,-0.917082,0.552295,0.408905,-0.726475
0.493393,-0.003000,0.782369,-0.148301,-0.140958,0.978845
0.242408,0.525773,-0.933740,-0.062507,-0.024171,0.997752
0.429671,0.255476,-0.864386,-0.130329,0.958699,0.252805
0.285043,0.378256,0.304690,0.269965,0.945596,0.181566
0.501326,0.460325,-0.453723,0.832471,-0.173650,0.526154
0.346596,-0.273241,0.731894,-0.714316,0.244855,0.655590
0.864164,0.647148,-0.957686,0.337205,-0.856633,-0.390477
0.259080,0.010450,0.614315,0.873988,-0.347238,-0.339957
0.188393,0.559695,-0.937811,0.275822,0.423870,0.862703
0.748574,0.700445,-0.921817,0.252304,-0.828723,-0.499561
0.770603,0.735518,-0.966820,0.868550,-0.053023,-0.492757
0.293761,0.662261,-0.969434,-0.507502,0.076530,-0.858245
0.246020,-0.044483,0.706365,0.900810,0.389783,0.191338
0.831779,0.723892,-0.944857,0.368545,0.167418,0.914410
0.317270,0.490891,0.480690,-0.614991,0.681241,-0.397111
0.702938,0.439093,-0.143037,-0.058407,-0.991577,0.115599
0.275014,0.170146,0.333417,-0.253939,0.105865,0.961409
0.545399,0.289859,-0.888233,-0.132039,0.498704,0.856656
0.441024,0.365211,-0.887715,-0.636453,-0.437046,-0.635546
0.511254,0.461308,-0.336137,-0.689411,0.581524,0.431906
0.362365,0.043590,0.576101,-0.313572,-0.929574,0.193816
0.314508,0.371860,0.302620,0.281771,0.954820,0.094465
0.198669,0.468300,-0.908273,0.216527,0.118417,0.969068
0.266461,0.525259,-0.915146,0.323319,0.294977,0.899140
0.500847,0.114004,-0.835913,0.815750,0.383321,0.433148
0.296995,0.445070,0.123450,0.217622,0.964088,0.152234
0.276626,0.521290,-0.947707,0.225015,-0.808171,0.544268
0.345188,0.658732,-0.975251,0.009112,-0.142103,0.989810
0.175165,0.492930,-0.908978,0.466158,0.846827,0.256087
0.632772,0.438707,-0.831523,0.984573,0.072808,0.159106
0.580677,0.639927,-0.937280,0.087911,0.556601,0.826115
0.085720,0.518354,-0.944076,-0.523828,-0.102782,0.845600
0.237101,0.450339,0.225353,0.817675,-0.102067,0.566559
0.565065,0.592161,-0.933010,0.202341,0.450701,-0.869441
0.370642,0.560991,-0.917716,-0.521335,0.852128,0.045690
0.865304,0.817569,-0.953871,-0.604559,0.468307,0.644358
0.062370,0.310848,-0.878880,0.512965,0.674138,0.531418
0.592809,0.672205,-0.972329,0.149172,0.185047,0.971342
0.836997,0.792853,-0.961579,-0.700971,0.324099,-0.635294
0.302842,0.600114,-0.934534,-0.190384,-0.017765,0.981549
0.317527,-0.038999,0.689953,0.920113,-0.322464,0.222283
0.377963,0.488146,-0.916602,0.152024,-0.343306,0.926839
0.502258,0.482783,-0.813278,0.771729,0.620150,0.140884
0.361707,0.690370,-0.971413,-0.127942,-0.622397,-0.772174
-0.047836,-0.608655,0.589547,0.943606,0.294954,-0.150368
0.358463,0.331711,-0.051280,-0.059127,0.775967,0.627996
0.586517,-0.036472,0.729101,-0.841888,-0.065833,0.535621
0.651564,0.421938,-0.875743,-0.543150,0.556824,0.628439
0.532782,0.640767,-0.915023,-0.081507,-0.440204,0.894191
0.343731,0.521858,-0.883171,0.684774,0.686628,-0.244187
0.586603,0.739843,-0.925140,0.221595,0.534697,0.815472
0.429724,0.537970,-0.944758,-0.162176,-0.099587,0.981724
0.054107,0.383171,-0.905721,-0.569578,-0.793215,0.215385
0.432634,0.348372,0.134015,0.694994,-0.701056,0.159698
0.408232,0.376579,-0.885770,-0.570708,0.209659,0.793937
0.393811,0.343085,0.271473,0.234727,0.888013,0.395393
0.256775,0.488092,-0.904368,-0.224294,0.676765,-0.701200
0.186113,0.474385,-0.935446,0.359237,0.364630,0.859066
0.895391,0.864720,-0.946861,-0.382156,-0.065780,-0.921754
0.360739,0.086182,0.563691,0.959762,-0.173223,-0.221021
-0.040767,0.464155,-0.925180,0.245954,0.654519,0.714921
0.619009,0.763654,-0.956347,-0.776718,0.608431,0.162850
0.383336,0.045436,0.541753,0.915854,-0.052129,-0.398113
0.461910,0.304834,-0.882397,0.762907,-0.555556,-0.330651
0.831173,0.721389,-0.916431,-0.609088,0.041136,0.792035
0.839381,0.696447,-0.966937,0.785533,0.550062,-0.283495
0.060773,0.557500,-0.929077,-0.679410,0.454652,-0.575929
0.516095,-0.154072,0.869593,0.763883,0.370068,-0.528708
0.898549,0.783859,-0.941056,0.912678,-0.366123,0.181583
0.408249,0.500999,-0.253222,-0.073546,0.859565,0.505707
0.378530,0.346810,-0.210659,0.127392,0.876942,0.463404
0.494693,0.317681,-0.117342,0.803473,0.591473,0.067756
0.371863,0.377275,-0.869378,-0.627297,0.722301,0.291170
0.384374,0.429109,-0.885700,0.430325,-0.527868,0.732240
0.622259,0.671656,-0.915847,0.431131,0.706659,0.561034
0.285273,0.357029,-0.863300,0.071871,-0.385489,0.919909
0.558152,0.399862,-0.859779,-0.830795,0.425741,-0.358502
0.310983,0.319785,0.396711,0.407205,-0.495700,-0.767115
0.313521,0.198435,0.765566,0.916722,0.117639,-0.381813
0.444817,0.012185,0.751479,0.269329,0.136781,-0.953285
0.096749,0.294276,-0.297403,0.779210,0.623546,-0.063420
0.167753,0.396574,-0.372537,-0.598772,0.798381,-0.063718
0.509555,0.419467,-0.868041,0.969680,-0.239044,0.050788
0.284568,-0.257230,0.409428,-0.518765,-0.012355,-0.854828
0.045916,0.551707,-0.945639,0.472002,-0.563063,0.678361
0.194593,0.588529,-0.931663,0.174355,0.668725,-0.722777
0.328915,0.296226,0.009780,0.822978,-0.550371,-0.140706
0.382615,0.621362,-0.961015,-0.233682,0.717112,0.656615
0.530991,0.394760,-0.100522,-0.683346,0.693150,-0.229306
0.446108,0.438198,-0.258573,0.994127,0.101790,-0.036756
0.349928,0.468963,-0.937089,-0.545103,0.701620,0.458903
0.429985,0.302160,-0.810846,-0.117191,0.586160,0.801675
0.439506,0.401224,-0.300923,0.481602,0.780516,0.398565
0.258641,0.490967,-0.897089,0.017184,0.829555,0.558160
0.430662,0.374323,-0.319203,-0.656472,-0.752639,-0.050790
0.395761,0.530946,0.427346,0.539583,0.489342,-0.685124
0.405342,0.339263,0.527422,-0.205628,0.978272,-0.026467
0.487797,0.272650,0.408260,0.930394,-0.048433,0.363347
0.479032,0.366320,-0.864635,0.137231,-0.865838,0.481137
0.835826,0.894100,-0.968046,-0.293051,0.956087,-0.004414
0.850957,0.832813,-0.933308,-0.290642,-0.081595,0.953347
0.329471,0.383825,0.122861,-0.159884,-0.158591,0.974313
0.013342,0.532723,-0.906384,-0.485172,-0.622333,0.614255
0.502434,0.644999,-0.925803,-0.176674,0.696438,0.695528
0.157271,0.540195,-0.915424,0.312252,0.426447,-0.848906
0.541755,0.292592,0.298516,-0.262991,-0.964430,0.026640
0.927798,0.731280,-0.950727,0.827313,0.313994,0.465791
0.389614,-0.412714,0.718130,-0.489939,-0.490493,0.720678
0.402401,0.376391,-0.375169,-0.451214,0.832949,-0.320317
0.394670,0.562750,-0.929081,-0.725863,0.364332,-0.583426
0.503823,0.512310,-0.928752,0.196675,0.624315,0.756009
0.610346,0.430161,-0.888769,-0.602881,0.522993,-0.602506
0.379391,0.428912,-0.261473,0.740903,-0.486474,0.463040
0.616478,0.411130,-0.850562,0.960627,0.167821,-0.221432
0.317410,0.276349,-0.867147,-0.370562,0.292811,-0.881445
0.508135,0.455962,-0.885628,0.478139,-0.835890,-0.269577
0.354337,0.499031,-0.916211,-0.281690,-0.192949,0.939905
0.130474,-0.463790,0.672579,-0.703640,-0.289340,-0.648979
0.498671,0.485287,-0.925919,-0.490744,0.599219,0.632540
0.511394,0.648234,-0.954825,0.242141,-0.262166,0.934150
0.238804,0.545969,0.489767,-0.551327,-0.825232,0.122598
0.475601,-0.180677,0.951295,0.537060,0.717810,0.443075
0.562814,0.470490,-0.866227,-0.528855,-0.430226,0.731585
0.597948,0.364667,-0.900254,0.999570,-0.016399,-0.024298
0.298759,0.404243,-0.892601,-0.232772,-0.323972,0.916984
0.289806,0.353502,-0.901698,0.751642,0.112578,-0.649892
0.456520,0.667519,-0.954177,0.633018,0.242627,-0.735132
0.025952,0.508195,-0.927274,-0.623837,-0.206196,-0.753863
0.316245,0.567329,-0.925319,0.891740,-0.135362,-0.431829
0.461264,0.488460,-0.836501,0.114437,0.951902,0.284229
0.328900,-0.021302,0.699768,-0.916491,0.399800,0.014305
0.823330,0.711123,-0.934014,0.649281,-0.199282,0.733976
0.349379,0.470194,-0.882541,-0.161648,0.817187,0.553241
0.371483,-0.278571,0.767179,0.717017,0.371806,-0.589617
0.323347,0.405343,-0.327531,-0.802872,0.150710,0.576787
0.214594,0.709023,-0.963696,-0.039445,0.360116,0.932073
0.734001,0.696383,-0.942759,0.314054,0.880091,0.356103
0.791483,0.780844,-0.971676,0.315762,0.948838,0.000393
0.458102,0.454013,-0.922571,-0.427923,0.859560,-0.279353
0.504980,0.748580,-0.961004,-0.675577,0.134369,0.724942
0.150021,-0.466717,0.632339,-0.700805,-0.582925,-0.411183
0.450719,0.206523,-0.843924,-0.176591,0.551888,0.815006
0.431052,0.199343,-0.847437,-0.311815,0.784316,0.536301
0.220700,0.488803,-0.939573,0.728645,-0.643844,-0.233541
0.281658,-0.002413,0.388681,0.991416,-0.114464,-0.063190
0.502736,0.438306,-0.900108,-0.432395,-0.650283,0.624633
0.270804,0.475852,0.169071,0.903691,0.426750,-0.035036
0.415712,0.571437,-0.922958,-0.213232,0.343962,0.914452
0.257749,0.593141,-0.926526,0.275862,0.240441,-0.930639
0.470442,0.504494,-0.258913,-0.088645,-0.519337,0.849960
0.591174,0.246913,-0.889885,0.917712,-0.331756,-0.218501
0.567247,0.336446,-0.122598,0.743298,0.571965,0.346935
0.269892,0.360663,-0.281826,0.567177,-0.711047,-0.415599
0.438100,0.424766,-0.172900,-0.351604,0.869353,-0.347274
0.745111,0.716454,-0.949092,0.054298,0.992524,0.109308
0.340629,0.625364,-0.936990,0.026427,0.040248,0.998840
0.613488,0.841828,-0.978622,0.741764,-0.157840,0.651822
0.293578,0.440899,-0.880162,0.291708,0.047108,-0.955347
0.821357,0.766832,-0.955774,-0.698873,0.173852,0.693796
0.793241,0.787646,-0.969805,0.323968,0.941710,-0.090707
0.471474,0.360053,0.291985,0.455166,0.889814,0.032494
0.325186,-0.354991,0.729790,0.142560,-0.604052,0.784090
0.405554,0.502387,0.489408,0.809910,0.490175,0.322139
0.325177,0.277698,-0.868536,0.580408,-0.450760,0.678191
0.462365,0.222721,-0.811179,-0.065792,-0.246699,0.966856
0.274004,0.378218,0.240999,0.973034,0.023747,0.229435
0.375707,0.064010,0.808238,0.896214,-0.256198,-0.362165
0.582019,0.058148,0.802550,0.986671,-0.062507,-0.150245
0.238856,-0.101469,0.797959,-0.023425,0.615673,0.787654
0.840503,0.709388,-0.975967,0.350335,-0.523150,-0.776904
0.579111,0.724023,-0.968204,-0.704029,-0.043179,0.708858
-0.068465,0.481396,-0.904420,0.124029,0.990931,-0.051698
0.063327,0.554877,-0.945642,-0.331208,-0.292785,0.896983
0.620696,0.700324,-0.928441,-0.378261,0.462195,-0.802057
0.267975,0.423077,-0.901724,-0.004067,0.642190,0.766535
0.547047,0.451199,-0.909926,-0.319483,-0.917286,-0.237733
0.577378,0.440486,-0.161050,-0.497568,0.712071,-0.495360
0.434009,0.430025,-0.873131,0.355170,0.798702,0.485725
0.632563,0.361481,-0.843189,-0.667507,0.724961,0.169897
0.486519,0.410828,-0.345696,-0.432380,-0.643276,0.631857
0.583561,-0.655001,0.724573,0.730132,0.521003,0.442112
0.538498,0.682026,-0.953947,0.770765,0.290961,-0.566801
0.415643,0.402617,-0.858873,-0.124396,0.254795,0.958960
0.526522,0.274805,-0.144827,0.557301,0.554691,-0.617846
0.452209,0.498392,-0.259370,-0.120450,-0.398877,0.909059
0.213424,0.492233,-0.931787,0.980245,-0.189646,0.056155
0.880815,0.701837,-0.908841,-0.180374,-0.057708,-0.981904
0.255162,0.304911,-0.854782,0.366761,0.746705,0.554904
0.390293,0.686721,-0.979133,-0.116967,0.436092,0.892268
0.370318,0.322676,-0.854372,-0.325370,-0.209111,-0.922175
0.385870,0.218483,-0.825474,-0.519189,-0.447519,0.728127
0.409718,0.400672,-0.344263,-0.655797,0.732253,-0.183675
0.120501,0.304138,0.699069,0.530861,0.817167,0.224554
0.151523,0.427688,-0.901624,-0.081214,0.286066,0.954762
0.142928,0.542428,-0.941620,0.493246,0.230958,0.838670
0.332052,0.350768,0.401937,0.577844,-0.700824,0.418261
0.545478,0.671676,-0.927734,-0.047212,0.996765,0.065039
0.599944,0.771051,-0.951976,0.678647,-0.498204,0.539658
0.777206,0.741066,-0.916657,0.326824,0.130693,-0.936005
0.478935,0.456824,-0.523956,0.978620,-0.149634,-0.141111
0.520599,-0.583978,0.717457,-0.039203,0.104739,0.993727
0.279651,-0.028684,0.722257,-0.664690,-0.005151,-0.747102
0.203675,0.420482,-0.096779,-0.663986,-0.590586,-0.458618
0.433587,0.511672,-0.858244,-0.524394,0.850995,-0.028616
0.026096,0.422930,-0.917166,0.841909,-0.479965,-0.246620
0.474191,0.383354,-0.860174,0.390464,0.143093,-0.909430
0.330662,0.541346,-0.914052,0.459362,0.880951,-0.113627
0.333267,0.464013,0.511372,0.047122,0.917508,0.394916
0.146702,0.437789,0.586784,-0.586733,0.795198,-0.152987
0.259361,0.392194,-0.913971,0.945811,-0.320212,-0.053906
0.029718,0.438047,-0.918408,0.988229,-0.021569,-0.151455
0.461569,0.402619,-0.366226,0.697167,-0.288103,0.656472
0.399795,0.300573,-0.849261,-0.324119,-0.804101,-0.498366
0.422558,0.684488,-0.926475,0.278129,-0.114085,-0.953745
0.352391,0.517695,-0.407403,0.153757,0.618064,0.770945
0.514324,0.555670,-0.134307,-0.522720,0.245905,0.816269
0.061918,-0.772959,0.467058,-0.069286,0.050435,0.996321
0.803038,0.843748,-0.940545,0.501479,-0.543199,-0.673390
0.130853,0.498281,-0.911186,-0.160127,-0.520038,0.838999
0.277093,0.411240,-0.322323,-0.546629,-0.216932,0.808788
0.964298,0.857185,-0.957772,0.965856,-0.227897,-0.123229
0.390673,0.510165,-0.927313,0.371990,0.325595,-0.869259
0.849507,0.846745,-0.950227,0.415558,-0.856685,0.305618
0.461120,0.426648,-0.464199,-0.297936,0.765200,0.570704
0.487023,0.667931,-0.981349,-0.074781,0.625067,0.776981
0.259335,0.481130,-0.921354,0.206417,-0.058900,0.976690
0.189860,0.585385,-0.958007,0.951277,-0.303919,0.052010
0.560054,0.249090,-0.846849,0.350802,0.361594,0.863822
0.153835,0.477681,-0.103644,0.647941,0.761689,0.001458
0.701973,0.783181,-0.942663,0.379372,-0.821924,-0.424873
-0.004369,0.424360,-0.904777,-0.299358,-0.456114,-0.838060
0.310386,0.450276,-0.895493,0.857858,0.379083,-0.346952
0.383850,0.461122,-0.229804,0.727364,-0.211008,-0.653007
0.814499,0.953088,-0.988969,-0.667362,0.240764,-0.704741
0.126540,0.596610,-0.952307,0.432321,-0.725045,0.536105
0.092166,-0.217794,0.471943,0.631753,0.706665,0.318609
0.286996,0.397928,0.272753,0.217348,0.950185,0.223400
0.182820,0.313692,-0.890237,-0.144631,0.980738,0.131282
0.543106,0.209793,-0.117122,-0.501324,0.664028,0.554744
0.839329,0.760944,-0.941581,-0.378913,0.570768,0.728457
0.575996,0.489194,-0.333641,-0.617810,0.692155,0.373138
0.365018,0.534599,-0.934589,0.795797,-0.461518,-0.392057
0.578979,-0.040407,0.752384,0.151603,-0.844048,0.514392
0.515333,0.691756,-0.937728,-0.044889,-0.833963,0.549992
0.528377,0.194547,-0.855092,0.257044,0.282271,0.924257
0.953482,0.773916,-0.954981,0.863921,-0.367777,-0.344065
0.075901,0.556369,-0.944529,-0.268987,-0.147958,0.951711
0.817610,0.838113,-0.945483,0.357471,0.142589,-0.922975
0.845552,0.699856,-0.944216,0.562191,0.648621,0.513062
0.239926,0.565711,-0.950885,0.830194,0.215524,-0.514127
0.371026,0.623943,-0.941467,-0.063311,0.443365,0.894102
-0.017411,-0.115883,0.418797,0.082921,0.513215,0.854245
0.627159,0.564219,-0.946161,0.734642,-0.310146,-0.603416
0.307898,0.386125,-0.891742,0.155376,0.510590,0.845669
0.335683,0.334414,-0.842901,-0.401543,-0.050517,-0.914446
0.091001,0.512359,-0.166427,0.640009,0.750172,-0.166227
0.362440,0.224975,0.702959,0.896388,-0.054440,-0.439915
0.513851,0.271199,-0.060840,0.959344,0.028556,0.280790
0.456165,0.138190,-0.860185,0.001047,0.484338,0.874880
0.096370,-0.358786,0.506566,-0.221779,0.009507,-0.975051
0.508490,-0.007693,0.761208,0.276220,-0.960545,-0.032483
0.199002,0.367875,-0.888880,0.319582,-0.521642,-0.791048
0.732746,0.866007,-0.978106,-0.418188,0.744271,0.520749
0.657327,-0.391971,0.953834,0.887286,0.460776,0.020227
0.766118,0.830672,-0.956075,0.327603,-0.587029,0.740320
0.563076,0.697651,-0.918710,0.029643,-0.106788,0.993840
0.527242,0.246324,-0.133575,0.768640,-0.319405,-0.554232
0.202070,-0.272369,0.496967,-0.785837,0.057993,-0.615708
0.823493,0.811469,-0.954374,0.340518,0.388063,0.856420
-0.253344,-0.562469,0.478575,-0.310311,0.338609,0.888285
0.524678,0.419386,-0.876711,0.941984,0.232785,0.241822
0.010475,0.499344,-0.918938,-0.419389,0.506625,0.753289
0.300276,0.460110,-0.911566,0.522443,-0.242454,0.817478
0.368177,0.643994,-0.947427,-0.608020,0.502348,-0.614783
0.469391,0.340310,0.310035,0.632163,0.760645,-0.147612
0.688958,0.723881,-0.932708,0.188678,0.654759,0.731909
0.753221,0.760820,-0.972647,0.009806,-0.218212,0.975852
0.892267,0.649305,-0.931258,0.604719,-0.659299,-0.446811
0.620713,0.658153,-0.934835,-0.320085,-0.223188,-0.920724
0.506116,0.826570,-0.967001,0.261997,-0.182181,0.947717
0.072948,-0.458958,0.701449,0.599360,-0.686290,-0.412036
0.401891,-0.093693,0.789679,0.458384,-0.318649,-0.829667
0.218043,0.311361,0.228548,0.856325,0.211372,-0.471200
0.264164,0.245283,-0.848503,0.582642,0.025842,0.812318
0.524552,0.749936,-0.959985,-0.093192,-0.703560,0.704499
0.381697,0.226697,-0.855538,0.160768,0.416260,0.894920
0.307718,0.716509,-0.981484,-0.053956,0.342013,0.938145
0.591491,0.483354,-0.132381,0.456579,0.414247,-0.787359
0.063367,-0.370685,0.651253,0.802017,-0.370123,0.468805
0.608910,0.760493,-0.950047,0.700845,-0.594773,-0.393778
0.580178,0.807242,-0.982389,0.319935,0.011533,0.947369
-0.148861,-0.462241,0.433836,0.945650,-0.254941,-0.201871
0.470545,-0.010412,0.784792,0.309591,0.945926,0.096834
0.476858,0.674579,-0.913818,-0.657765,0.548271,-0.516473
0.958841,0.847243,-0.961993,-0.573219,0.421128,0.702902
0.609245,-0.271567,0.942522,0.650146,-0.020844,-0.759523
0.392451,0.486542,-0.898092,0.503854,0.789145,0.351257
0.324305,0.308521,0.490756,0.267611,0.956130,0.119166
-0.311746,-0.167843,0.816807,-0.011899,-0.736842,0.675960
0.378505,-0.105445,0.821877,-0.688419,0.701945,-0.182628
0.187665,0.508259,-0.949334,-0.334597,-0.056838,-0.940646
0.511136,0.480687,-0.208776,-0.519209,0.671128,0.529159
-0.439877,-0.351983,0.434649,-0.617290,0.410712,0.671021
0.950430,0.853229,-0.947286,-0.647323,-0.162873,-0.744610
0.242052,0.440602,-0.907420,-0.020417,0.634342,0.772783
-0.144736,-0.261998,0.395815,-0.051948,0.974826,0.216830
0.725857,0.799745,-0.960140,-0.592902,-0.444683,0.671360
0.362376,0.408042,0.200940,0.966588,0.177712,-0.184732
0.704691,0.815384,-0.959849,-0.608095,0.718400,0.337820
0.406055,0.377676,0.414062,-0.608272,0.757381,0.237442
0.553245,0.489561,-0.209116,0.834854,-0.546290,-0.067718
0.383045,0.215910,-0.851819,-0.004063,0.881885,-0.471446
0.404300,0.476745,0.437379,-0.428038,0.895911,-0.118860
0.184273,0.619867,-0.966399,0.610295,0.651913,0.450055
0.354958,0.683699,-0.960389,-0.611563,-0.260484,-0.747087
0.400697,0.341498,-0.860971,0.377341,0.822636,0.425304
0.551007,0.417018,-0.889260,0.428497,0.877698,-0.214562
0.857841,0.752195,-0.938337,0.296235,0.817026,0.494685
0.003858,0.515764,-0.937558,0.982052,-0.151121,-0.112858
0.413410,0.542138,-0.906293,0.310716,-0.448442,-0.838067
0.652477,0.783427,-0.932052,0.571059,0.616374,0.542194
0.352658,0.518117,-0.910395,0.604033,0.729433,0.321048
0.720898,0.675639,-0.927045,0.389929,-0.187989,0.901452
0.127290,-0.136806,0.442062,0.895524,-0.378310,-0.234346
0.177499,0.501413,-0.921459,0.904902,-0.287658,-0.313697
0.071736,0.448261,-0.914826,-0.494505,0.554193,0.669578
0.287427,0.435437,-0.191494,0.676851,0.156095,0.719380
0.346403,0.443201,0.131785,0.539671,0.812642,-0.219929
0.495009,-0.059377,0.833855,-0.552646,0.782725,-0.286224
0.387785,0.669674,-0.952692,0.920498,-0.231330,-0.314914
0.601164,-0.503473,0.722999,-0.076274,-0.508142,0.857889
0.530426,0.675906,-0.962775,-0.202130,0.674537,0.710031
0.477351,0.428299,-0.878426,-0.490603,0.827039,-0.274437
0.410844,0.351026,-0.885084,-0.321653,0.437154,0.839902
0.974950,0.816623,-0.951052,-0.738562,0.028071,-0.673601
0.552591,0.764425,-0.937371,0.432257,0.334759,-0.837311
0.382124,0.419779,-0.868544,-0.208330,0.398359,0.893257
0.377749,0.035896,0.581945,0.004181,-0.974620,0.223825
0.330593,0.419055,-0.905957,0.667800,0.043925,0.743044
0.927567,0.812663,-0.948120,-0.439278,0.511632,0.738422
0.569345,0.420748,-0.873770,0.234218,0.970175,0.062475
0.602670,0.451722,-0.196670,0.981081,-0.074665,-0.178622
0.349321,0.508191,0.426263,-0.541406,-0.790574,0.286134
0.573964,0.588747,-0.839214,-0.399236,0.633937,-0.662370
0.363295,0.404931,-0.208299,-0.501663,0.475561,-0.722617
-0.038083,0.454411,-0.913234,0.664347,0.536851,-0.520033
0.518008,0.495367,-0.922845,-0.102486,0.795644,0.597032
0.552486,0.384959,-0.183035,-0.516570,0.454051,-0.725943
0.356250,0.532220,-0.942364,0.852102,0.301630,-0.427716
0.236125,0.351422,-0.258708,-0.011410,0.997408,0.071044
0.392959,0.385357,-0.894035,0.325787,0.376888,-0.867074
0.581008,0.505430,-0.300869,0.503302,-0.863432,-0.034242
0.299308,-0.220076,0.689757,-0.215816,0.396072,0.892497
0.394672,-0.023260,0.805648,0.911986,0.228108,-0.340952
0.091461,0.354725,-0.902765,-0.053389,0.342852,0.937871
0.326829,0.629511,-0.965769,0.058105,-0.995149,0.079388
0.307020,0.338348,0.561631,-0.511550,-0.827519,-0.231363
