0.365727,-0.394465,0.825050,0.535392,0.809603,0.240621
-0.152056,0.396441,0.418815,-0.532018,0.682911,0.500589
0.571908,-0.361100,-0.934189,0.237848,-0.310280,-0.920410
-0.506852,-0.548637,0.869645,0.755412,0.129646,0.642297
-0.344839,0.503460,0.760922,0.413730,0.189280,0.890506
0.244515,-0.249424,0.883821,0.938851,-0.330595,-0.096257
-0.154678,-0.156997,0.780454,0.947908,-0.197759,-0.249725
0.000521,-0.068614,0.917817,0.419075,-0.620329,0.662999
-0.078162,0.392489,0.589885,-0.044636,-0.814843,0.577961
0.512166,0.026261,-0.961225,0.271838,0.400138,0.875211
0.499513,-0.206738,-0.943763,0.263111,-0.306832,-0.914673
0.035409,-0.200433,0.669310,0.980265,0.176459,0.089118
0.023583,-0.544073,0.624730,0.605637,-0.558564,-0.566754
-0.256794,0.265001,0.635763,0.728848,-0.412003,0.546840
-0.220260,-0.020800,0.945462,0.994776,-0.012323,0.101340
-0.046344,-0.272814,-0.965796,0.374575,0.047607,-0.925973
-0.683016,0.324109,0.827487,0.154672,0.741730,0.652621
0.141422,0.218928,0.665397,-0.388124,0.182707,0.903315
0.038032,-0.063955,0.928304,0.462706,0.058964,-0.884549
0.343715,-0.526707,0.875338,-0.776967,0.526196,0.345602
-0.066560,-0.241706,0.416602,0.896370,0.097409,0.432471
0.041551,-0.208481,0.022442,0.976901,-0.173130,-0.125259
-0.374413,0.358322,0.847452,0.303430,0.333333,-0.892647
0.112447,-0.476871,0.705262,0.138267,0.873312,0.467129
-0.389086,0.240198,0.902647,0.700862,0.192436,0.686848
0.109755,-0.449198,0.574025,0.242076,0.747731,0.618302
-0.674257,0.100615,0.656577,0.807588,-0.351135,-0.473821
0.538071,-0.410795,-0.929956,-0.203828,0.301150,0.931538
-0.357643,0.268623,0.164856,0.970742,0.221618,-0.092444
-0.147939,0.163161,0.925770,0.833638,-0.472791,-0.285510
-0.034888,-0.451315,0.942015,0.181669,0.761247,0.622494
0.087667,0.972612,0.414902,0.847533,-0.324775,-0.419772
-0.202892,-0.441621,-0.956174,-0.152413,0.216010,0.964422
-0.499216,0.301331,0.945238,-0.230472,0.514141,-0.826161
0.121659,-0.433998,0.897227,0.941969,-0.265117,-0.205930
-0.057498,-0.140949,0.487432,0.970932,0.062442,-0.231069
-0.000151,-0.136006,0.840364,-0.146201,0.301558,0.942172
0.008010,-0.615794,0.648126,0.742539,-0.522830,-0.418669
-0.330317,0.284861,0.399700,0.694518,-0.457531,-0.555258
-0.123382,0.745070,0.426768,-0.196465,-0.451646,-0.870297
0.034962,-0.160901,0.139087,0.993319,0.019934,-0.113665
0.206931,0.000378,0.834799,-0.345303,0.919306,0.188791
-0.581047,-0.195303,0.781993,-0.635954,0.710793,-0.300559
-0.481395,0.707233,0.478853,-0.417126,0.749644,-0.513848
-0.442618,0.069180,0.562111,0.564427,0.748813,0.347419
-0.400318,-0.645867,0.881543,-0.043566,0.264122,0.963505
-0.154902,0.072380,0.768347,-0.429737,0.553876,-0.713125
-0.043872,-0.354935,0.804764,-0.132079,0.786523,0.603271
0.178481,0.026778,0.754364,-0.801782,0.553538,0.225257
0.194429,-0.507364,-0.940026,0.228023,-0.097497,-0.968762
-0.196750,-0.197940,0.832233,0.791469,0.178563,-0.584544
0.858802,-0.407408,-0.914433,0.013798,0.338902,0.940720
-0.356144,-0.707141,0.721025,-0.236786,0.608575,-0.757343
0.800028,-0.250648,-0.933211,-0.049469,0.296295,0.953814
-0.471667,-0.078828,0.568236,0.953690,-0.269644,-0.133293
0.234257,0.111769,0.773093,-0.567619,0.748849,-0.342100
0.098450,0.101887,0.847163,0.679666,-0.662680,0.314499
-0.058472,-0.140573,0.724120,-0.484209,-0.873050,-0.057671
0.364228,-0.175162,-0.956832,-0.074760,0.314525,0.946301
-0.131616,-0.282649,0.819485,0.670682,0.105004,0.734275
0.005689,-0.158361,0.702488,0.974720,-0.202036,-0.095404
-0.190988,0.145890,0.796875,-0.107114,-0.849945,0.515868
-0.080931,0.308437,0.658389,0.057030,0.990363,-0.126209
0.167775,-0.240198,0.484064,-0.771321,0.486017,0.410916
-0.125703,-0.130548,0.779091,0.960188,-0.120727,-0.251919
0.379947,-0.138126,0.731256,-0.427552,-0.903991,-0.000771
-0.455568,0.223116,0.922339,0.751657,-0.265351,0.603822
0.262259,-0.093512,0.895655,0.331721,0.757026,0.562914
-0.447855,-0.214175,0.766920,0.901244,0.416467,0.119642
0.248185,-0.037931,-0.974679,-0.163978,0.227122,0.959962
0.095905,-0.225753,-0.664788,0.897262,-0.440231,-0.033431
-0.113872,-0.343311,0.709191,0.929563,-0.290532,0.226943
-0.190837,-0.021883,0.869693,0.232070,0.964367,-0.127046
0.110203,-0.164807,-0.394072,0.943378,-0.295634,-0.150458
-0.150707,-0.042450,0.900402,-0.258329,-0.508014,-0.821698
-0.474061,0.060519,0.854411,-0.326910,0.803048,-0.498241
0.106982,-0.150735,-0.227267,0.974685,-0.070391,0.212212
-0.281803,0.370512,0.728193,0.917681,0.243913,-0.313637
-0.189489,0.520637,0.332478,0.970629,0.219704,-0.098027
-0.510297,-0.288862,0.703290,0.334694,0.242596,0.910564
-0.545634,-0.128101,0.803048,0.797357,-0.132099,0.588873
-0.177809,-0.534284,0.778065,-0.096759,0.496525,0.862612
0.245562,0.094264,0.870864,0.753886,0.416413,-0.508189
-0.059372,0.360157,0.245548,0.041554,-0.874454,0.483325
-0.037808,0.548637,0.377924,0.912376,-0.216618,-0.347341
-0.266604,-0.270695,0.577377,0.330908,0.902016,0.277248
-0.203865,-0.222786,-0.687863,0.147999,0.977943,0.147389
0.041701,-0.469857,-0.949311,-0.230031,0.140199,0.963032
-0.083554,-0.109606,-0.985584,-0.181045,0.232176,0.955676
-0.442915,0.232248,0.889193,-0.439165,0.642602,-0.627851
-0.519953,-0.589488,0.873061,-0.539927,0.116066,-0.833671
-0.083028,-0.621912,-0.947226,-0.321283,0.225078,0.919846
0.083549,-0.217375,0.782715,0.967532,-0.050180,0.247717
0.104062,0.127299,0.105668,0.206308,-0.882092,0.423498
-0.661302,-0.047626,0.815989,0.146190,0.637440,0.756505
-0.585311,-0.246271,0.826060,-0.177788,-0.786355,-0.591640
-0.385718,-0.304204,-0.982826,-0.222699,0.262414,0.938906
-0.448979,-0.714575,0.613714,-0.356429,-0.613700,-0.704507
0.188438,0.262554,0.662334,-0.465343,-0.612761,0.638733
-0.133791,0.038825,0.877214,0.825987,0.169038,-0.537746
-0.437075,0.139725,0.890219,-0.384204,0.765399,0.516286
-0.869883,-0.845029,0.748366,-0.624246,-0.077210,-0.777403
-0.343492,0.244059,0.500966,0.684226,-0.009982,-0.729202
-0.034367,-0.192057,0.516665,0.998776,-0.036043,0.033860
-0.454293,-0.656642,0.775643,-0.728235,0.534627,-0.428775
-0.049113,0.082921,0.075312,0.782564,-0.563411,0.264878
0.277754,-0.211868,0.652232,0.746508,0.271716,-0.607368
0.051060,-0.174832,-0.163365,0.873482,-0.145411,0.464634
-0.120686,0.245188,0.539115,0.934073,0.022382,0.356379
0.203636,-0.162501,-0.966036,0.138980,-0.490614,-0.860222
0.137378,-0.245142,0.815284,0.186043,0.323363,-0.927806
-0.622973,-0.799238,0.734143,-0.669201,0.577455,0.467671
-0.300296,-0.366416,0.846698,-0.120008,0.892761,0.434253
-0.079213,-0.082545,0.526239,0.958511,0.283682,0.027955
0.065655,-0.190363,0.349203,0.982564,-0.157361,-0.099026
0.415736,-0.425151,-0.935344,-0.268223,0.111363,0.956899
-0.116646,0.167303,0.918971,0.875133,-0.237632,-0.421512
-0.710342,-0.716034,0.722036,-0.305714,-0.762028,-0.570835
-0.143597,-0.279541,0.862156,-0.549006,-0.806235,0.220403
0.330464,-0.051954,0.942191,0.390234,0.412063,0.823360
-0.465000,-0.529720,0.859286,0.253028,0.058163,0.965709
-0.601034,-0.487930,0.857490,0.755465,0.633673,0.166528
0.088416,0.194220,0.782956,0.927093,-0.158944,-0.339464
-0.100772,-0.483647,0.364149,0.821508,0.136833,0.553536
-0.155798,0.121747,0.913872,0.889513,0.295736,-0.348291
0.750618,-0.230694,-0.938407,0.029751,0.161382,0.986443
-0.003144,-0.223398,0.400470,-0.066632,-0.989245,-0.130208
0.008083,-0.205328,0.284804,0.975654,-0.167880,0.141125
0.022756,-0.120052,-0.981751,-0.302178,0.305116,0.903102
-0.088795,0.333757,0.683197,-0.277286,0.665947,0.692552
0.018790,-0.172620,0.643589,0.984201,0.158364,-0.079181
-0.059669,0.096852,0.093721,0.991495,-0.050018,0.120148
-0.021116,-0.180528,0.481338,0.843023,0.526863,-0.108297
-0.416713,-0.295920,0.671282,-0.359788,0.928075,-0.096074
-0.135061,0.411642,0.308665,-0.638208,-0.700623,0.319088
0.711311,-0.301380,-0.930886,-0.160468,0.115596,0.980249
0.078907,-0.040944,-0.981527,-0.353699,0.234293,0.905541
0.047614,-0.168619,0.014184,0.937423,-0.348146,-0.005682
-0.206483,-0.083438,0.904844,-0.106713,0.943937,0.312403
0.099049,-0.177891,0.739226,0.884983,-0.421265,-0.198348
-0.245941,0.588262,0.618861,-0.335592,-0.618502,-0.710516
0.015198,0.096192,0.920206,0.020452,0.927560,0.373114
0.195178,-0.108101,0.758228,0.490330,-0.869715,0.056319
0.382867,0.011295,0.924664,0.892772,-0.188724,-0.409073
-0.150785,0.274460,0.884045,-0.397759,-0.377062,0.836428
0.076361,0.114687,0.864225,-0.334411,0.938429,-0.086722
-0.191513,-0.251119,0.853721,-0.522133,-0.798780,-0.298879
-0.219287,0.258366,0.864225,-0.593174,-0.729212,0.341167
0.120535,0.174645,0.813039,0.387233,0.918758,0.077042
0.056151,-0.545627,0.940155,0.752558,0.303002,0.584676
0.211126,0.040097,0.766086,0.907630,-0.384715,-0.167936
0.377927,-0.127676,-0.103343,-0.293404,0.934942,0.199494
0.134911,-0.259777,-0.545337,0.296051,0.930091,-0.217450
0.319081,-0.204340,-0.954699,-0.028001,0.258558,0.965590
0.003592,0.175820,0.938775,-0.157998,0.601885,0.782797
-0.133339,0.729775,0.442083,0.092618,0.409070,0.907791
0.623265,-0.215634,-0.936643,0.505852,-0.047889,-0.861290
0.058321,-0.161467,0.232896,0.996218,-0.053254,-0.068658
0.309800,-0.266932,-0.950097,0.005846,0.119384,0.992831
-0.442093,0.284295,0.765060,-0.477721,0.456049,-0.750867
-0.268176,0.107489,0.863600,0.487165,0.664193,0.567025
0.467394,-0.069415,-0.964160,-0.290562,0.163377,0.942805
-0.551770,-0.241517,0.814241,0.189256,0.713043,0.675094
0.044544,-0.260578,0.793074,0.937643,-0.230743,0.259967
-0.315567,0.553061,0.402298,-0.521738,0.476196,-0.707832
-0.001124,-0.190363,0.597101,0.416550,0.846527,0.331478
-0.129669,-0.485152,0.851044,0.186095,0.805239,0.562991
-0.218090,0.347263,0.672020,-0.835611,0.112470,-0.537685
-0.558209,-0.158738,0.648752,-0.535312,0.795787,0.283133
0.302087,-0.278507,-0.851043,-0.582914,-0.549645,-0.598416
0.086547,-0.443551,-0.947868,0.323269,-0.103522,-0.940628
0.047614,-0.212339,0.097762,0.979531,0.157506,-0.125339
-0.192857,-0.118924,0.968714,0.845502,0.259958,0.466420
0.499811,0.031813,-0.963839,-0.116990,0.129930,0.984597
0.439543,-0.241706,0.685634,-0.041899,-0.927668,0.371049
-0.705700,0.096192,0.793988,-0.731858,0.205683,-0.649675
-0.133640,-0.828462,0.544583,0.843693,-0.501373,0.191850
-0.439548,0.237329,0.768652,0.383494,-0.136664,0.913376
-0.263159,-0.452258,-0.966052,-0.235977,0.264757,0.934996
-0.176461,-0.205233,-0.983339,0.303043,-0.141489,-0.942415
0.004940,-0.268296,-0.961915,-0.369972,-0.084638,0.925179
-0.017446,-0.136336,0.442596,0.713854,-0.640683,0.282734
0.675897,-0.262649,-0.936129,0.172787,0.009898,-0.984909
-0.719847,-0.767943,0.668733,0.803386,-0.586419,-0.103361
0.088192,-0.144241,-0.975161,0.267525,-0.329897,-0.905317
-0.000749,0.609724,0.375679,0.948995,-0.067988,-0.307874
0.433927,-0.260388,0.688521,-0.456759,0.542649,0.704914
-0.393651,0.227023,0.899985,-0.125369,0.980503,0.151314
-0.238452,0.497293,0.292405,-0.163713,-0.042575,0.985589
-0.133489,0.434561,0.308104,-0.651907,-0.733990,0.190461
-0.361536,0.111817,0.857265,-0.391315,0.265566,0.881105
-0.252827,-0.313662,-0.975080,-0.154959,0.178445,0.971671
0.179007,0.021837,0.776397,0.942229,-0.334940,0.004503
0.017744,-0.122781,-0.110174,-0.503472,-0.863341,0.034024
-0.485814,-0.621581,0.484016,-0.603905,0.717229,-0.347680
0.025905,0.123629,0.783485,-0.371967,0.829919,-0.415783
0.102193,0.506706,0.446765,-0.502271,0.573401,0.647251
-0.009733,0.038353,0.493349,0.492428,0.524279,-0.694727
-0.122258,-0.038873,0.878689,0.474265,0.879717,-0.034213
0.401214,-0.298648,-0.943859,-0.173160,0.272735,0.946378
0.393053,-0.404254,0.638938,-0.364502,-0.337329,0.867956
0.365352,-0.228999,-0.950017,0.186679,-0.142358,-0.972052
-0.144123,-0.267495,-0.973348,-0.315085,0.242421,0.917580
0.069548,-0.158172,0.170789,0.986660,0.112555,-0.117612
0.314740,0.081933,0.881848,0.808427,0.267559,-0.524268
-0.167629,-0.411550,0.735425,-0.525011,-0.751106,-0.400255
-0.197353,0.427644,0.594487,0.122054,-0.253761,0.959535
-0.137008,-0.513014,0.380569,0.910979,0.210502,0.354692
-0.161414,0.812508,0.425197,-0.473722,-0.297250,-0.828993
-0.012054,-0.285803,-0.962781,-0.442341,0.134745,0.886667
-0.006662,-0.183773,0.684640,0.944252,0.326493,0.042311
0.021262,-0.345804,0.816967,-0.514762,0.815234,0.265357
0.270493,-0.144054,-0.964625,-0.317221,0.333702,0.887701
0.013549,-0.495929,0.897772,-0.476418,0.593586,0.648599
-0.360038,0.683185,0.442163,0.323017,-0.847632,0.420928
-0.238228,0.326321,0.676013,0.651214,0.143209,0.745259
0.432355,0.104240,0.908019,0.843889,0.475968,-0.247600
-0.573261,0.137841,0.860697,0.445834,0.206166,0.871050
-0.120087,0.490517,0.364838,0.376430,0.805062,-0.458449
0.099195,-0.210553,-0.234596,0.921226,-0.388694,0.016136
-0.461033,-0.087017,0.581241,0.982176,-0.091473,-0.164202
-0.014677,-0.229329,-0.956399,-0.681335,0.386354,0.621702
0.053230,-0.162455,0.117967,0.992052,-0.121348,0.033266
-0.094484,-0.103206,0.538394,0.972478,0.210736,0.099382
-0.177362,0.032143,0.807202,0.825154,-0.524085,0.210845
0.177810,-0.280437,0.498416,0.905544,-0.272940,-0.324798
0.152800,-0.387123,0.902727,-0.749457,0.564900,0.345256
0.011154,-0.366324,-0.956960,0.284128,-0.081672,-0.955301
-0.615036,-0.716927,0.676494,-0.700157,0.695331,0.162157
-0.102568,-0.497342,0.369248,-0.818731,-0.114545,-0.562636
0.167702,-0.472870,0.690509,0.580233,-0.101683,0.808078
0.305080,-0.019953,-0.975770,0.289245,-0.294556,-0.910809
-0.001723,-0.308768,-0.952181,-0.295552,0.105544,0.949479
-0.044845,-0.634335,-0.945254,-0.252939,0.214010,0.943516
0.222504,-0.065791,0.905052,-0.069401,0.997138,0.029999
0.065733,0.156667,0.915540,0.903358,-0.320831,-0.284624
-0.105488,-0.075628,0.903529,-0.218808,-0.888897,-0.402473
-0.584041,-0.072805,0.807073,-0.663201,0.352833,-0.660056
0.138128,-0.115394,0.910681,-0.112259,0.766212,0.632706
-0.442618,-0.382700,0.804604,0.240713,-0.698823,0.673575
-0.194804,0.300156,0.884927,0.768589,-0.112927,-0.629697
0.579768,-0.246081,-0.939545,-0.101998,0.186697,0.977108
-0.205364,-0.115911,-0.993570,0.272018,-0.111677,-0.955790
-0.065134,-0.129652,0.485524,0.996616,-0.076315,-0.030528
-0.298573,-0.743235,0.769277,-0.520758,-0.815478,-0.252601
0.043123,0.279872,0.765445,0.962851,-0.269924,0.007691
0.110500,-0.257846,0.913503,-0.137010,0.913134,-0.383946
0.244589,-0.332203,0.818908,-0.702149,-0.548525,-0.453990
-0.070224,-0.277048,-0.964208,-0.234680,-0.031427,0.971565
-0.163886,-0.424915,-0.964449,-0.091124,0.312650,0.945487
-0.455495,-0.430468,0.861579,0.244468,-0.006106,0.969638
0.320580,-0.228106,0.883339,-0.722673,0.080030,-0.686541
0.050685,-0.190127,0.383985,-0.269790,0.885895,0.377363
0.046491,-0.193939,0.231260,0.992299,-0.054519,-0.111221
0.302311,-0.195633,0.686853,0.662119,-0.007675,0.749359
-0.169200,0.439504,0.330458,0.420142,0.848584,-0.321538
-0.212999,-0.006071,0.647485,0.827809,0.556315,-0.072427
0.445534,-0.121371,-0.955821,0.264955,-0.372554,-0.889383
-0.407053,0.480257,0.765861,-0.684057,-0.013152,-0.729310
-0.159993,0.456632,0.338026,-0.586455,-0.751541,0.302088
-0.180432,-0.119958,0.810537,-0.082981,0.825370,0.558460
0.090664,-0.221471,-0.717690,0.996080,0.047159,0.074842
-0.134239,0.122310,0.791551,-0.025833,-0.871405,0.489883
-0.055703,-0.796414,0.544888,-0.809130,0.241042,0.535918
0.042300,0.372207,0.431323,0.284758,-0.957365,0.048635
-0.168451,-0.069180,0.605504,0.971275,0.187632,0.146355
-0.265782,0.371595,0.722308,0.921558,0.207444,-0.328175
0.435129,0.039767,-0.961338,0.290406,0.481603,-0.826876
-0.043497,0.391972,0.586902,-0.079276,-0.126363,-0.988811
0.036835,-0.190690,0.378100,0.501200,-0.817744,-0.283007
-0.482743,0.267920,0.807009,-0.241149,-0.925581,0.291799
-0.183727,0.070449,0.863119,0.519585,0.839759,0.157594
-0.314594,0.232811,0.700692,0.894343,-0.109459,0.433784
0.410718,0.062685,-0.974439,0.249832,-0.041510,-0.967399
-0.149510,0.370136,0.671988,-0.599680,-0.246999,0.761167
-0.337053,0.282977,0.725371,0.796971,-0.544080,0.262323
0.344090,0.056662,-0.976748,0.259793,0.116194,-0.958648
-0.194282,-0.455268,-0.959766,-0.216578,0.305865,0.927114
0.187090,-0.135112,0.845703,-0.549564,-0.592413,0.589089
0.642284,-0.328487,-0.935231,0.247954,-0.200046,-0.947893
0.043570,0.166079,0.898477,-0.521725,-0.764936,0.377725
0.329714,0.000800,0.804091,0.837603,-0.265470,-0.477437
-0.042300,-0.207870,0.605552,-0.702758,0.618191,0.352094
-0.210751,0.288859,0.881287,0.832665,0.003881,-0.553763
-0.528937,-0.046072,0.795175,-0.613270,0.497514,-0.613498
0.186642,-0.084191,-0.974487,-0.112283,0.080435,0.990415
-0.100100,0.530943,0.434786,0.557839,0.148766,0.816508
0.066108,-0.227258,-0.078151,0.996311,0.065388,0.055582
-0.399345,0.610052,0.417500,0.259956,-0.608922,0.749424
-0.428242,0.163632,0.891341,0.041171,0.898991,0.436027
0.519802,-0.495834,-0.925001,-0.216214,0.324916,0.920696
-0.429887,0.628076,0.433151,-0.603855,0.545967,-0.580758
0.563299,-0.030543,-0.957024,-0.242732,0.160208,0.956773
0.736768,-0.422184,-0.909510,-0.261045,0.544681,0.796981
-0.646328,-0.024661,0.806817,0.247101,0.540370,-0.804327
-0.010706,-0.325522,0.683646,0.074555,0.735959,0.672909
0.197500,-0.031718,0.947435,-0.531468,0.534667,-0.657018
-0.087520,0.125700,0.787398,-0.020105,-0.807426,0.589626
0.087443,-0.103864,0.815236,0.942621,-0.079268,0.324318
-0.584712,-0.181045,0.804139,0.974442,0.143287,0.173007
-0.225799,0.202786,0.905886,0.978548,0.173564,-0.110992
0.458708,-0.174878,-0.950866,0.269407,-0.313196,-0.910675
-0.737220,-0.797825,0.526126,-0.574872,-0.490518,-0.654916
-0.375163,-0.546991,0.857682,0.994108,-0.062201,-0.088773
-0.670811,-0.045273,0.835457,0.822765,0.459964,0.333902
-0.173245,-0.015765,0.689788,0.962324,0.268008,0.045876
-0.235308,-0.128713,0.981222,0.903397,-0.082555,0.420783
-0.352475,-0.167866,-0.473561,0.830283,-0.158591,0.534302
0.014074,-0.166315,0.664451,0.970862,0.227120,0.076444
0.028221,-0.471505,0.944981,-0.540616,-0.704489,-0.459815
-0.067007,-0.520637,0.861563,-0.619593,0.398098,0.676478
-0.398668,0.093934,0.825258,0.326636,-0.858033,0.396344
-0.355395,-0.514143,0.815171,0.932076,0.168893,0.320484
-0.344465,-0.262505,0.799376,0.622986,0.327498,-0.710375
-0.208357,0.222740,0.915491,0.843937,0.529651,0.085091
-0.528338,0.107018,0.858821,-0.050285,-0.024407,0.998437
0.371265,0.276812,0.440816,0.448321,0.270972,-0.851811
0.580741,-0.276767,-0.934189,0.010240,0.070200,0.997480
0.306282,0.387735,0.442083,0.608042,0.042603,-0.792761
-0.161414,-0.562899,0.830694,0.302954,0.921757,-0.242040
-0.095156,-0.309475,0.879908,-0.701935,0.574916,0.420426
-0.001947,-0.381901,0.312610,0.081947,0.870764,0.484824
0.131392,-0.002213,0.753129,-0.763332,0.632788,0.130012
-0.066258,-0.616029,0.459177,0.736354,-0.400195,-0.545553
-0.280080,0.143488,0.865011,0.326816,-0.162641,0.930988
-0.123532,0.266788,0.228149,0.912414,-0.409155,-0.009619
-0.194881,-0.017460,0.617466,0.835770,0.548812,-0.017110
-0.314370,-0.851524,0.526623,0.779330,-0.566421,-0.267976
0.204235,0.593486,0.463074,0.951504,-0.157404,-0.264319
-0.936890,0.157279,0.741471,-0.690150,0.241935,-0.682027
-0.069854,0.128948,0.617274,0.973035,0.187680,-0.134084
-0.015422,-0.092429,-0.826316,0.663380,0.675401,0.322120
-0.234709,0.572874,0.594022,0.193332,-0.330254,0.923880
-0.592649,0.040565,0.851396,0.719652,-0.309532,0.621523
-0.500039,0.533908,0.443350,0.261348,0.023537,0.964958
0.080108,-0.042590,0.721811,0.841714,-0.535430,0.069510
-0.745678,-0.414466,0.664836,-0.717791,-0.149861,0.679939
-0.175040,-0.325709,-0.529927,0.771386,-0.475435,0.422995
0.160139,-0.187303,-0.604830,-0.667148,0.732358,0.136259
-0.598562,-0.040614,0.807121,0.789143,0.250029,0.561016
0.011826,-0.565578,-0.946761,-0.257096,0.121479,0.958720
-0.646702,-0.388160,0.828257,0.463997,-0.079204,0.882289
0.023282,-0.195022,0.027349,0.975966,0.216997,-0.020087
-0.024260,-0.185609,0.584769,0.956504,0.230509,-0.178792
-0.436175,0.239400,0.750243,0.412494,-0.787178,0.458474
0.005241,0.281520,0.847532,0.359796,-0.703210,0.613223
-0.506925,-0.709585,0.844902,-0.675420,0.411278,-0.612094
-0.310253,0.390042,0.429046,0.642247,0.752453,0.146057
-0.452347,-0.360488,0.708453,-0.375547,0.097774,-0.921632
0.028674,-0.594475,-0.943458,-0.157273,0.264227,0.951551
-0.310253,0.237800,0.707972,0.998197,0.051481,0.030857
0.118662,0.421055,0.402009,-0.319637,0.646896,0.692357
0.311820,-0.484540,-0.935167,-0.240487,0.183022,0.953241
0.191285,-0.259306,-0.431034,0.328214,0.943991,0.033995
-0.744554,-0.814108,0.749168,-0.058734,0.572024,0.818131
0.033764,0.147584,0.886146,-0.545979,-0.776792,0.313850
-0.113799,-0.535226,0.368110,-0.750410,0.655919,0.081573
-0.084824,-0.220669,0.387577,0.880166,0.474608,0.007480
-0.127576,0.102218,0.930421,0.278031,0.653405,-0.704103
0.159239,0.507318,0.452698,-0.554807,0.706716,0.439023
-0.501236,0.244765,0.758710,0.670205,-0.496841,0.551338
0.057722,-0.556261,0.939112,0.685453,0.334081,0.646950
0.364525,-0.044802,0.876765,-0.566456,-0.148968,-0.810516
-0.085277,-0.636170,-0.945350,0.319576,-0.198754,-0.926481
0.489031,-0.015578,-0.958996,-0.341010,0.163183,0.925788
-0.376209,0.071251,0.897740,0.894218,0.375425,0.243784
-0.114622,0.379078,0.277283,0.283580,-0.860670,0.422883
0.003816,-0.665066,0.486999,0.612148,-0.603407,-0.511052
0.120759,-0.435974,0.570481,0.242076,0.747731,0.618302
0.018493,-0.186927,-0.064199,0.989186,-0.102864,0.104547
-0.278883,0.386888,0.659640,0.288597,0.401613,0.869148
-0.176237,0.479128,0.291956,0.866832,0.486786,0.107898
-0.243318,-0.824038,0.559689,-0.405280,0.786431,-0.466126
-0.303512,0.401100,0.733854,-0.744274,-0.527358,0.409817
-0.627689,0.073649,0.674714,0.934554,0.139407,-0.327376
0.101891,0.295026,0.420338,-0.161780,0.655626,0.737551
-0.388712,-0.567839,0.836435,0.614402,0.673714,0.410634
-0.270196,0.433245,0.757058,-0.591389,0.508337,-0.625981
-0.452648,-0.450186,0.695609,0.952993,0.227012,-0.200675
0.202138,-0.056145,0.950594,0.194772,0.035636,0.980201
-0.042300,0.256531,0.896601,0.977354,0.178153,-0.114193
0.131689,-0.389148,0.884799,0.955694,-0.267845,0.122098
-0.033243,0.061131,0.493477,0.384677,0.573974,-0.722895
0.019690,-0.196104,0.087018,0.994719,0.071538,0.073594
-0.793069,0.178738,0.713152,-0.439417,0.577131,-0.688355
0.099721,-0.240578,-0.455120,0.897693,0.433253,0.080240
-0.611892,-0.008423,0.816807,-0.318467,0.089465,-0.943703
-0.077490,-0.276907,0.427859,0.897707,0.037483,0.438995
-0.466348,0.517294,0.291891,0.025480,0.063796,0.997638
-0.548106,-0.105041,0.800034,-0.669154,-0.151750,-0.727464
-0.157448,-0.096568,0.771378,0.841619,0.473110,-0.260471
-0.079958,0.227399,0.891598,0.581718,-0.729597,-0.359571
-0.181031,-0.079486,-0.993024,-0.085116,0.302518,0.949336
0.062137,-0.533672,0.453885,-0.032089,0.095204,0.994940
-0.204089,0.406466,0.678049,0.033886,0.686125,0.726694
-0.541439,-0.348111,0.724409,0.996731,0.022104,0.077710
0.231186,-0.041932,-0.976347,-0.165289,0.192188,0.967338
0.076887,-0.239871,-0.602858,0.870782,-0.491178,-0.021956
0.054802,-0.189044,0.734976,-0.686494,0.648062,0.329760
0.008906,0.563039,0.406275,0.963442,-0.095952,-0.250145
-0.190988,-0.114359,0.805758,-0.606689,-0.250955,-0.754288
-0.074570,-0.198552,0.399556,0.980019,-0.198257,0.016036
0.082800,-0.132476,0.810585,0.785262,-0.576912,0.224801
-0.319158,-0.587417,0.825002,-0.300982,-0.922914,0.240081
-0.179381,-0.760131,0.784222,0.761775,-0.612299,0.211634
-0.416339,0.276106,0.923349,0.883553,-0.387783,0.262599
-0.140001,0.434515,0.395563,-0.020927,0.361023,0.932322
-0.018868,-0.219586,0.522165,0.928482,0.272643,-0.252163
-0.165083,-0.052801,0.624073,0.475827,0.874259,0.096234
0.047167,-0.009225,-0.988358,-0.292907,0.290994,0.910784
-0.080410,-0.110689,0.780133,-0.814701,0.397332,0.422362
0.277754,0.494846,0.408792,0.412722,-0.356490,0.838197
-0.499440,-0.259213,0.829251,-0.510387,-0.538369,-0.670570
0.324249,-0.452398,0.810297,0.198934,-0.031580,0.979504
-0.215618,-0.570803,0.420771,0.096038,0.799950,0.592332
-0.083106,0.503460,0.403437,0.123165,0.143968,0.981888
0.579768,-0.043107,-0.958419,-0.240913,0.233142,0.942128
-0.400542,-0.455268,0.696138,0.952993,0.227012,-0.200675
-0.332936,-0.644078,0.456371,0.574299,-0.813522,0.091449
-0.020965,-0.347640,-0.962011,-0.195600,-0.043632,0.979713
0.746350,-0.278413,-0.930677,-0.142468,0.027951,0.989405
0.282996,-0.322699,0.640205,0.834984,0.264553,-0.482508
-0.437976,-0.398277,0.827599,0.020152,0.703012,0.710892
0.024479,-0.229516,-0.505761,0.327941,0.943753,0.042255
0.035185,-0.070122,-0.983130,-0.322760,0.150817,0.934388
-0.323952,-0.662668,0.800194,0.898256,0.433339,0.073159
-0.064088,0.319826,0.903625,0.170317,0.596378,0.784427
-0.917346,-0.857593,0.750179,0.838273,0.106941,0.534661
-0.436851,0.397289,0.194506,-0.596414,-0.649867,0.471129
-0.055401,0.246647,0.837686,0.041821,-0.242547,-0.969238
-0.368871,0.224010,0.236408,0.062515,-0.954681,0.290993
-0.525121,-0.428822,0.824809,-0.446978,-0.084475,-0.890548
-0.030173,0.076993,0.494776,0.450379,0.534607,-0.715091
-0.215992,-0.274696,0.844581,0.769444,0.633282,0.083128
-0.789998,0.002681,0.676879,0.194635,-0.425712,0.883678
0.462829,-0.438045,0.873638,0.249580,0.968058,-0.023941
0.052554,-0.067204,-0.983387,-0.278694,0.154785,0.947825
-0.177887,-0.043061,0.903529,0.783769,-0.246698,0.569952
0.092309,-0.093463,0.855999,-0.061009,-0.985420,0.158823
-0.334060,-0.000047,0.775082,-0.739111,0.647028,-0.187266
-0.340046,-0.501105,0.802230,0.900150,0.183496,0.395043
-0.517408,0.266977,0.926476,0.690953,-0.018265,0.722669
-0.310924,-0.063955,0.716888,-0.717538,-0.037111,-0.695530
0.089316,0.002354,0.937733,0.910208,-0.289952,-0.295719
-0.931571,0.171678,0.738200,-0.690150,0.241935,-0.682027
-0.357191,-0.053603,0.905196,0.870354,0.481983,0.100880
-0.294227,0.564544,0.399732,-0.421230,-0.879992,0.219498
-0.252900,-0.319215,-0.973733,0.158016,-0.376610,-0.912796
-0.339822,0.319215,0.695625,-0.079337,0.612015,0.786857
-0.652392,-0.096711,0.829475,0.959119,-0.094221,0.266857
-0.014750,-0.055955,0.555792,-0.569504,0.683315,-0.456887
0.050009,-0.182219,0.221927,0.965549,-0.251664,-0.066185
-0.704201,-0.823475,0.557957,0.812786,0.521462,-0.259724
-0.067455,-0.025083,-0.007416,-0.144225,0.906247,-0.397386
-0.266230,0.005835,0.895334,0.097005,0.115422,0.988569
-0.008837,0.354416,0.350374,0.887201,0.390604,-0.245566
-0.103692,-0.695893,0.391073,0.939472,0.125721,0.318727
-0.057722,0.035719,0.021512,0.323193,-0.851945,0.411991
-0.374263,-0.328156,0.792304,0.914470,-0.256505,-0.312968
-0.289589,-0.537625,0.772965,0.091283,0.431624,0.897423
-0.307556,-0.563180,0.836371,-0.501648,0.493092,-0.710781
-0.148464,0.787047,0.401945,0.966821,-0.127498,-0.221364
0.465671,-0.348958,0.823799,0.798611,0.588998,-0.123700
-0.196604,-0.725963,0.795752,0.630963,-0.185723,0.753255
0.063786,0.732693,0.420755,-0.297835,-0.633369,0.714240
-0.006813,-0.621958,-0.942287,-0.207984,0.231713,0.950290
0.461404,0.063438,-0.972899,-0.130434,0.414271,0.900759
-0.216893,0.168150,0.900706,0.988502,-0.058467,-0.139444
-0.113872,-0.685868,0.789274,0.886599,-0.167106,-0.431298
-0.153029,0.330086,0.644342,-0.654151,0.708176,-0.265655
0.476081,0.059580,-0.963037,0.169919,0.650983,0.739830
-0.307406,-0.149606,0.939770,0.345752,-0.670079,-0.656848
-0.550276,-0.357805,0.592242,0.993553,-0.015518,-0.112302
-0.300145,-0.101371,0.720705,-0.736742,0.020950,-0.675849
0.077262,-0.164902,-0.227764,0.954436,-0.276418,0.112452
-0.380400,-0.219681,0.800739,0.672094,0.612087,-0.416699
-0.064837,0.302319,0.668717,0.115304,0.938455,-0.325588
-0.158946,-0.663515,0.458311,0.330550,-0.675228,-0.659396
0.068950,-0.614946,-0.939337,0.206275,-0.270881,-0.940252
-0.123309,-0.459364,0.745913,0.602176,0.350295,0.717411
-0.097852,-0.440397,-0.960199,-0.268204,0.358181,0.894300
-0.795166,-0.103111,0.827743,0.197486,0.685933,-0.700354
0.214494,-0.408867,0.922611,0.389251,-0.529696,-0.753596
-0.080332,-0.119018,0.516745,0.913063,0.357697,0.195878
-0.516512,-0.164571,0.797259,0.155328,-0.445168,0.881872
0.075987,-0.549390,-0.942929,-0.199493,0.087280,0.976005
-0.140303,0.172901,0.954490,0.113950,-0.830722,0.544900
0.083627,-0.186973,0.401993,-0.578580,0.812134,0.075392
-0.171074,-0.325287,0.737125,0.087239,-0.948838,0.303472
-0.051658,-0.261425,-0.950610,-0.146936,-0.112837,0.982689
-0.490982,0.299355,0.798799,-0.744440,-0.667333,0.021792
-0.638468,-0.073980,0.843202,0.881950,0.411720,0.229459
0.621095,-0.390323,-0.914866,-0.207465,0.330726,0.920641
0.026650,-0.169937,0.654653,0.972039,0.232208,-0.034914
-0.272741,0.186551,0.199189,-0.459987,0.332512,-0.823315
-0.042826,-0.094687,-0.822708,0.229663,0.508495,0.829872
0.036008,-0.155584,0.345900,0.905884,0.423260,-0.015027
-0.111405,0.220999,0.899680,0.802984,0.592147,-0.067659
0.049785,0.539790,0.428100,0.971969,-0.141287,0.187921
0.068653,-0.216903,0.032144,0.862844,0.490604,-0.121689
0.225575,-0.291166,0.876188,-0.304263,0.639252,0.706244
0.847721,-0.286696,-0.929266,-0.057953,0.217838,0.974263
-0.194881,-0.121135,0.966629,0.843099,0.276138,0.461446
0.440891,0.052661,-0.965988,-0.156719,0.478702,0.863877
-0.431313,-0.343592,0.822676,-0.288000,0.603558,-0.743488
0.006137,0.574193,0.425486,0.696073,0.005556,0.717950
-0.497119,0.043202,0.526672,0.845289,-0.355001,0.399325
-0.167629,-0.390467,0.733694,-0.555827,-0.752206,-0.353896
-0.187844,-0.116005,0.940411,-0.721880,0.462486,0.514777
0.021335,-0.193893,0.414998,0.025078,-0.724639,0.688672
0.141724,0.096803,0.012660,-0.469680,0.784461,-0.404996
0.047765,-0.380864,0.299107,-0.037198,0.874781,0.483089
-0.330765,0.212009,0.742321,0.750245,0.588792,0.300759
-0.345438,0.163488,0.767144,0.752842,0.605945,0.257019
0.059294,-0.243352,-0.550453,-0.031146,0.973222,-0.227747
-0.749571,-0.870111,0.696314,0.956511,-0.285901,-0.057850
0.455788,-0.311310,0.662639,-0.671826,-0.427074,0.605192
-0.449952,-0.568026,0.572550,0.094317,0.859602,0.502184
0.063562,-0.270884,0.790027,0.940903,-0.337841,-0.023753
0.105638,-0.032049,0.763456,0.456665,-0.440667,-0.772832
0.125251,-0.414655,-0.941004,-0.225269,0.080831,0.970938
-0.187917,-0.195774,-0.984028,0.321851,-0.099496,-0.941548
0.195777,0.174645,0.840636,0.067968,-0.944923,0.320157
0.043420,-0.166031,-0.154625,0.911348,-0.410291,-0.033249
-0.089992,-0.188573,-0.977293,-0.119676,0.454881,0.882474
0.042748,-0.211633,0.045838,0.870402,0.492314,-0.005201
0.226694,-0.146361,-0.968169,-0.195032,0.324202,0.925665
-0.196229,-0.139160,0.812461,0.472718,0.727958,0.496603
0.209851,-0.408348,-0.945350,0.280999,-0.165434,-0.945342
-0.584936,-0.328817,0.704043,-0.576922,0.455870,0.677749
-0.267354,-0.559932,0.780486,-0.072562,0.576638,0.813771
0.246384,-0.287825,0.557364,0.939964,-0.230151,-0.251987
-0.198848,-0.075910,-0.987765,0.258922,-0.329235,-0.908055
0.365051,-0.411501,0.897996,0.928343,0.126646,0.349485
0.063635,-0.200479,-0.697389,0.968498,-0.248068,-0.021773
-0.356368,-0.719093,0.729893,-0.047426,-0.824329,0.564121
-0.137456,0.175444,0.946922,-0.177434,-0.958432,0.223438
0.143593,0.213422,0.918715,-0.039805,-0.758857,0.650040
-0.061766,0.361571,0.260830,-0.021656,-0.851093,0.524568
-0.171522,-0.755566,0.762975,-0.337909,0.939907,-0.048914
-0.239503,-0.051156,0.912332,-0.314348,0.925477,0.211373
-0.671483,0.344675,0.817208,0.141408,0.775773,0.614964
-0.338026,-0.709680,0.611581,-0.003537,0.591239,0.806489
0.163959,-0.314605,0.650981,0.822048,-0.393208,0.411854
-0.275364,0.319591,0.835393,-0.205581,0.254077,0.945083
-0.137757,-0.063487,0.575052,0.989981,0.141115,0.004983
-0.198925,0.421526,0.847788,-0.098261,-0.528087,0.843486
-0.277083,-0.319074,-0.982040,-0.150024,0.213217,0.965418
0.340421,-0.363547,0.821329,-0.167077,-0.951971,-0.256586
0.167103,-0.221376,-0.625227,0.830991,-0.534586,0.153856
-0.078984,-0.264295,0.425710,0.902173,0.072842,0.425180
-0.551099,-0.389855,0.804812,0.617502,-0.039186,0.785592
0.079807,-0.147300,-0.138557,0.837911,-0.545001,-0.029641
0.387286,0.060379,0.880630,0.483163,0.779142,0.399364
0.104738,-0.168151,-0.443125,0.976523,-0.027047,0.213710
0.194278,0.739564,0.432910,0.575320,0.694860,0.431482
0.013850,-0.590097,0.646106,0.513473,-0.723549,-0.461326
0.507076,0.011953,-0.967800,-0.224837,0.029542,0.973949
0.217263,-0.299120,0.889385,0.919140,-0.281075,0.276005
0.059216,-0.220247,0.069780,0.826245,0.560530,-0.055897
-0.248185,-0.078779,-0.536197,0.809946,0.288393,-0.510702
-0.554768,-0.117042,0.794341,-0.655036,-0.230163,-0.719690
-0.035112,-0.563039,0.909638,-0.204591,-0.500158,0.841418
-0.184472,-0.383453,0.739194,0.492139,-0.601867,-0.628932
-0.016770,-0.418702,-0.957120,0.286336,-0.256878,-0.923052
0.083175,-0.208387,0.833212,-0.095003,-0.891172,0.443606
-0.015349,-0.047485,0.924969,-0.138902,0.418099,-0.897719
-0.069704,0.046637,0.588441,0.083299,-0.286951,0.954317
0.612413,-0.074169,-0.954763,0.212224,-0.254363,-0.943536
-0.565621,0.240575,0.688729,-0.675907,0.736852,-0.014105
0.166504,-0.112475,0.926283,-0.127485,-0.357196,0.925289
-0.207831,-0.241281,0.839289,0.915714,-0.038842,-0.399950
0.061538,-0.060238,0.823414,0.289637,-0.909100,0.299412
0.175338,-0.013835,-0.589051,-0.274599,0.182972,0.943990
-0.118218,-0.248060,-0.977277,-0.232296,0.005956,0.972627
-0.337729,-0.353899,0.746699,-0.559512,0.681245,-0.472071
-0.193085,0.523602,0.392436,-0.482880,-0.837426,0.256018
0.167478,-0.226552,-0.846217,-0.294013,-0.751083,-0.591127
0.242793,0.513907,0.457381,-0.684065,0.153859,0.713009
0.082128,-0.405667,0.898413,-0.737143,-0.517019,-0.435099
-0.028002,-0.606852,-0.942688,0.239499,-0.267620,-0.933284
-0.412222,-0.572829,0.650917,-0.361755,0.670640,-0.647592
-0.358763,-0.820462,0.519439,0.962490,-0.266867,0.048939
-0.073071,0.053649,-0.470899,0.598731,-0.589330,0.542412
-0.029199,-0.130970,-0.085543,-0.632371,-0.770760,0.077689
-0.142697,0.143488,0.947114,-0.126816,-0.858952,0.496104
-0.129523,-0.087816,0.926540,-0.312578,-0.119485,-0.942347
0.443212,-0.268623,-0.944917,-0.215627,0.292489,0.931641
0.047838,0.384254,0.581482,-0.416111,-0.355595,-0.836901
-0.215321,0.180809,0.516826,0.478038,0.636550,-0.605214
-0.522722,0.154314,0.866358,0.285841,0.504549,-0.814693
-0.179756,-0.166597,-0.980869,-0.189880,0.264008,0.945645
0.451524,-0.075815,0.943875,0.191595,0.958270,0.212158
-0.633076,-0.126360,0.825017,-0.706636,0.003493,-0.707568
0.113347,-0.236717,-0.460331,0.992409,0.073483,-0.098616
0.234257,-0.045038,0.862445,-0.577615,0.797373,0.174804
-0.950590,-0.868511,0.577617,0.066590,0.550253,0.832338
0.149058,-0.087063,0.865893,-0.347970,0.927104,-0.139266
-0.266380,-0.553908,0.823943,-0.263339,0.833110,0.486394
-0.187392,0.036897,0.839867,0.979138,-0.067869,0.191525
-0.045298,-0.269000,0.650773,-0.659518,0.573142,0.486359
0.134161,0.082545,0.531979,-0.434074,-0.146377,0.888906
0.075388,-0.096005,0.823622,0.833531,0.413782,0.366076
0.371489,-0.351075,-0.832602,0.299330,0.171697,0.938574
0.486038,-0.082264,0.947595,0.191595,0.958270,0.212158
-0.601784,0.131864,0.685939,-0.721848,0.158700,-0.673609
-0.217715,-0.271306,-0.970719,0.333429,-0.253005,-0.908192
-0.245717,-0.404114,-0.968490,-0.203291,0.258062,0.944498
-0.203339,-0.541060,0.870752,0.878698,0.230575,0.418002
-0.221681,0.523837,0.593284,-0.742725,-0.287802,0.604591
-0.357867,-0.283873,-0.986305,0.240881,-0.264619,-0.933784
-0.421726,-0.784695,0.816615,0.220907,0.548094,0.806718
0.005241,-0.350653,-0.960327,-0.209832,0.020522,0.977522
-0.408328,0.775802,0.496203,0.293060,-0.750849,0.591896
-0.117917,0.427739,0.301080,0.816051,0.520031,-0.252248
-0.424500,-0.683987,0.631979,-0.320075,-0.725305,0.609496
-0.005543,-0.335168,-0.374781,0.948547,-0.316250,0.015669
0.505801,0.044756,-0.964673,0.362934,0.488368,0.793584
-0.483269,-0.227399,0.809334,-0.682968,-0.204769,-0.701159
-0.424948,0.506284,0.435668,0.592388,0.673554,0.442043
0.134609,-0.068002,0.905998,0.054662,0.885613,0.461196
-0.066560,-0.493907,0.812221,0.991515,-0.129272,0.013665
-0.272367,0.416821,0.597454,-0.169844,0.159333,-0.972505
-0.044548,-0.095580,0.811275,0.124068,0.983842,-0.129078
0.051435,-0.170503,-0.044571,0.955589,-0.271178,-0.115382
0.019612,0.234882,0.748575,0.844669,-0.100723,-0.525727
-0.120014,0.488070,0.620850,0.650212,0.176076,-0.739068
0.043721,0.363498,0.587720,0.415933,0.370024,0.830712
0.198619,-0.075298,-0.973830,-0.090156,0.060440,0.994092
-0.131991,0.049932,0.923654,0.595147,-0.331713,-0.731961
-0.543760,0.214080,0.921104,0.203875,-0.912463,0.354747
0.227297,-0.233328,0.860665,-0.687748,0.648165,0.326932
-0.014376,-0.492775,0.890219,0.870038,-0.326388,-0.369464
0.637266,-0.411315,-0.924728,-0.221569,0.394357,0.891846
-0.158572,-0.448868,0.848911,0.951216,0.235565,0.199243
0.066404,-0.606005,0.942143,-0.130421,0.911743,0.389505
0.203563,-0.161326,-0.112339,0.147686,0.976739,0.155465
-0.209106,0.481105,0.600533,0.806921,0.358348,-0.469538
-0.369172,-0.662995,0.883644,-0.114097,0.319754,0.940606
0.075763,-0.096617,0.909478,0.650599,0.462061,0.602678
0.361157,-0.251260,0.684736,-0.420162,-0.296300,-0.857712
-0.585087,-0.397338,0.826396,0.315511,-0.172825,0.933051
-0.047765,-0.172620,0.481659,-0.733804,-0.622532,0.272005
-0.037808,-0.456020,0.340769,-0.795395,-0.206076,-0.569982
-0.154450,0.206411,0.908580,0.222422,-0.773955,-0.592893
0.074342,-0.170739,-0.075216,0.996944,0.057767,0.052582
0.378229,-0.405291,-0.938519,-0.119326,0.099695,0.987837
0.027024,-0.415267,0.861483,0.436169,-0.387676,-0.812074
-0.502657,-0.368536,0.845784,0.373803,0.891677,0.255309
0.196750,-0.280814,0.791775,0.703405,0.690525,0.168514
-0.145393,0.294414,0.896425,0.967230,0.098023,-0.234218
0.046792,-0.602710,0.948862,-0.159890,0.973136,0.165656
-0.833948,-0.010589,0.859655,0.981004,0.193983,-0.001086
-0.162913,0.003529,0.821185,-0.691407,0.688660,0.218412
-0.254847,-0.019953,0.744502,-0.651767,0.667801,-0.359502
-0.104217,-0.043202,-0.014697,-0.268563,0.837364,-0.476126
-0.226324,-0.005318,0.940331,0.936834,0.108083,0.332655
-0.056228,-0.155018,0.445995,0.803077,-0.593411,0.054131
0.423147,-0.548873,-0.924616,-0.213631,0.324228,0.921541
0.216216,-0.062967,0.950289,-0.419441,-0.126555,0.898918
-0.116720,-0.714388,0.821233,-0.379827,0.154493,-0.912065
-0.061318,0.061462,0.585074,0.132875,-0.471359,0.871874
-0.176461,0.526144,0.639836,0.284983,0.956230,-0.066395
-0.082279,0.342274,0.654429,0.089922,0.930937,0.353934
0.825782,-0.319215,-0.929699,0.195344,-0.252362,-0.947710
-0.540392,0.539273,0.443574,-0.590248,0.119798,-0.798283
-0.548028,-0.619936,0.640012,-0.682298,0.678322,-0.272668
0.207457,-0.324109,-0.948301,-0.111726,0.110848,0.987537
-0.521603,-0.249565,0.699922,-0.383670,0.038964,0.922648
-0.117016,-0.136666,0.940219,0.189549,0.849540,0.492294
0.319456,-0.012611,0.846281,-0.779618,0.613160,0.127400
-0.233210,-0.242930,0.819902,-0.364482,0.929893,0.049522
-0.333685,-0.290083,0.787430,-0.749071,-0.246504,0.614922
-0.452497,0.223633,0.731978,-0.722798,0.683838,-0.099645
0.229614,-0.269847,0.903432,0.283872,0.100853,0.953544
0.113050,-0.371641,0.743219,-0.347185,-0.736509,0.580532
0.100095,-0.030354,0.950530,0.324541,0.939589,-0.108834
0.070522,-0.044661,-0.984077,0.340149,-0.280767,-0.897479
-0.006891,-0.561580,0.634175,0.502673,-0.680489,-0.533155
0.372837,-0.007059,-0.587575,-0.097138,-0.058689,0.993539
-0.085948,0.185232,0.133474,-0.406721,0.592282,-0.695543
0.355916,-0.111723,-0.965042,0.103062,-0.377447,-0.920278
0.024703,0.197610,0.747436,0.801045,-0.100253,-0.590149
0.065207,-0.365382,0.295820,-0.111383,0.889434,0.443284
0.226621,-0.195303,0.920062,0.801127,-0.062871,0.595183
-0.059372,0.905220,0.394938,0.413058,-0.541900,-0.731934
-0.227297,-0.576074,0.884815,-0.351378,0.743299,0.569245
-0.307707,0.364865,0.841743,0.081447,-0.384041,0.919717
-0.708994,-0.228528,0.811163,-0.643825,0.197432,-0.739263
-0.347536,0.246836,0.901941,0.314699,-0.616163,-0.722016
-0.419857,-0.278697,-0.985776,-0.222699,0.262414,0.938906
0.086547,-0.118878,0.889545,0.952620,-0.257902,0.161253
-0.105414,0.089085,0.903272,0.529792,0.655398,0.538306
-0.606427,-0.764789,0.566023,-0.384892,-0.597289,-0.703636
-0.165458,0.016236,0.917079,0.995703,-0.092547,-0.003253
0.066108,-0.235683,-0.749040,0.753501,0.657095,0.021516
-0.062141,-0.697303,0.688072,0.391677,-0.772506,-0.499823
-0.172422,-0.601816,0.894581,-0.363599,0.619098,0.696070
-0.351950,-0.600734,0.868907,0.024196,0.874182,0.484995
-0.186121,-0.588828,0.778594,0.068305,0.577920,0.813230
-0.020517,0.352675,0.363620,0.848717,0.448487,-0.280248
-0.407579,0.281943,0.917785,-0.807577,0.184099,0.560291
0.284791,-0.403171,-0.563794,-0.061469,0.215798,0.974501
0.216966,-0.152760,0.840187,0.344418,0.599774,-0.722252
0.218236,-0.361712,0.640878,-0.669535,-0.284912,-0.685965
-0.260088,0.681585,0.477714,-0.185592,-0.619594,0.762666
0.147413,-0.441526,-0.942416,0.274600,-0.051931,-0.960155
-0.410124,-0.675984,0.765124,-0.293042,0.916147,-0.273497
-0.187246,0.220011,0.867496,0.832907,0.471339,0.290010
0.488958,-0.332063,-0.939513,-0.053947,0.145342,0.987910
-0.231341,0.111111,0.865700,0.722625,0.689419,0.050144
0.008234,0.419033,0.609192,0.896843,0.411550,0.162169
-0.228572,0.041697,0.947771,0.541014,-0.372757,-0.753894
0.247358,-0.290838,0.563602,0.910878,-0.327402,-0.251217
0.234709,-0.230929,0.856303,0.578538,-0.783319,-0.227388
-0.058696,0.267543,0.871233,-0.150316,0.376524,0.914131
-0.097103,0.228292,0.632668,-0.668532,0.007053,0.743650
0.039604,-0.163868,-0.073484,0.937192,0.339694,0.079238
0.373285,-0.475035,0.806288,0.568971,-0.407507,-0.714290
-0.151457,0.007765,0.719919,0.595062,-0.761335,0.257430
-0.376506,-0.324580,0.757378,0.962310,0.226907,0.149908
0.157745,-0.164902,-0.968666,-0.104436,0.623458,0.774851
0.040578,0.748977,0.472711,0.937952,0.345289,0.031961
-0.067533,-0.334556,0.895912,-0.168385,0.677835,0.715672
0.257466,-0.221376,-0.951492,-0.231772,-0.345337,-0.909409
0.024479,-0.165137,0.639644,0.941161,0.312303,-0.129161
0.647749,-0.248577,-0.936466,-0.151585,-0.061293,0.986542
-0.768215,0.176667,0.710714,-0.460840,0.517291,-0.721135
-0.149136,0.377099,0.593541,0.607345,0.652198,0.453620
0.094333,-0.192761,-0.508198,0.645880,0.737317,0.197995
-0.506628,0.663937,0.322167,0.638487,0.152826,-0.754307
0.174666,-0.261517,0.904010,0.203483,-0.622530,0.755679
-0.027851,-0.076803,-0.515286,0.118583,-0.418968,0.900224
-0.012804,-0.316673,0.745319,-0.082157,-0.550637,0.830692
-0.142249,0.225753,0.896874,0.645345,-0.729956,-0.225154
0.192555,-0.354841,-0.943763,-0.110619,0.048581,0.992675
-0.050685,0.268155,0.877118,-0.107982,-0.655602,-0.747346
-0.439922,0.190457,0.940876,0.764723,0.477042,0.433162
0.057046,-0.373571,0.842208,0.502866,-0.803519,-0.318563
0.300588,0.055013,-0.969981,-0.136579,-0.347178,0.927801
0.090289,-0.161277,0.223178,0.924996,-0.364271,-0.108113
-0.381149,0.202033,0.896393,-0.622112,0.418184,-0.661890
-0.169726,0.190127,0.898205,-0.671116,0.460216,-0.581209
-0.049191,-0.339310,-0.956832,-0.178884,0.024159,0.983573
0.453992,-0.150971,-0.953961,-0.284389,0.340723,0.896120
-0.392906,0.016472,0.925450,-0.706307,-0.270430,0.654216
-0.727487,-0.750764,0.667289,-0.776936,0.610302,0.154601
-0.062068,-0.562333,-0.949728,-0.199834,0.164543,0.965915
-0.406007,0.183773,0.521412,-0.711775,0.697299,0.084560
-0.188292,-0.731188,0.797227,-0.409205,0.599298,-0.688036
0.440365,-0.414138,0.634801,0.436255,0.470196,-0.767201
-0.806992,-0.756224,0.724489,0.923178,-0.288859,0.253580
-0.040130,0.214832,0.906575,0.838891,0.529739,-0.125051
0.249455,-0.351124,0.922435,-0.110482,0.094305,0.989394
-0.071349,-0.193373,0.387785,-0.709662,-0.044154,-0.703157
0.220708,-0.028613,0.946745,-0.707983,0.592528,-0.384279
-0.156922,0.313993,0.658742,-0.624895,0.680140,0.383296
0.044247,-0.166548,0.273498,0.886508,-0.424380,0.184404
0.096728,-0.456632,0.882939,0.711795,-0.559671,-0.424401
0.039006,-0.238788,-0.660442,0.940568,-0.339020,0.019912
-0.444560,0.517719,0.760393,-0.734655,-0.018181,-0.678197
0.110130,0.104662,0.525966,0.269641,0.927510,-0.258880
0.681065,-0.350980,-0.929346,0.149778,-0.379775,-0.912873
-0.440521,-0.786014,0.803257,0.165497,0.039677,0.985412
0.089014,0.407408,0.439694,-0.658861,0.701661,-0.271244
0.408022,0.071156,-0.969163,-0.317629,0.369180,0.873394
0.145019,-0.198316,-0.818876,0.957378,-0.232997,-0.170706
0.625514,-0.070875,-0.951508,0.491338,-0.294706,-0.819595
-0.130944,-0.369711,0.802439,0.535543,-0.821200,-0.197038
-0.582021,0.088051,0.824520,-0.295269,0.935906,-0.192083
-0.568842,-0.786060,0.855967,0.686614,-0.463508,0.560109
-0.118593,-0.110640,0.536518,0.919332,0.393383,-0.008889
-0.112826,0.247069,0.538875,0.934073,0.022382,0.356379
-0.490384,0.138737,0.751092,0.927702,-0.297277,-0.225822
-0.448006,0.201140,0.216058,0.357049,-0.558115,0.749015
0.242345,0.048237,-0.971601,0.169332,-0.479553,0.861020
0.053230,0.930210,0.422647,0.898684,-0.235826,-0.369800
-0.042451,-0.387595,-0.962380,-0.294632,0.206095,0.933122
-0.490530,-0.361100,0.649313,0.880069,0.405622,-0.246878
0.058545,0.940938,0.426432,0.873368,-0.263829,-0.409416
-0.633227,-0.001225,0.662992,-0.383764,0.451435,0.805563
-0.218762,0.383452,0.842400,-0.165689,-0.554671,0.815406
-0.184997,-0.066261,-0.995109,-0.004593,0.492779,0.870142
-0.138955,0.177325,0.954442,0.141237,-0.312311,0.939422
-0.032645,-0.165327,0.433488,0.702549,-0.648413,0.293231
0.341993,-0.525859,0.863247,-0.665371,0.633959,0.394180
-0.140303,-0.804980,0.533102,0.909795,-0.293224,-0.293756
0.081452,-0.584686,0.961835,-0.659437,0.707198,-0.254977
0.560078,-0.270459,-0.933692,-0.128641,0.061525,0.989781
0.076439,-0.664690,0.738168,0.544582,-0.559863,-0.624487
0.431382,-0.246317,0.686564,0.078591,-0.996430,0.030825
0.218538,-0.267635,0.900514,-0.196067,0.652558,-0.731933
-0.220708,-0.252059,0.835248,0.650665,0.713907,-0.258790
-0.140527,0.298743,0.664547,-0.111775,-0.716330,-0.688751
0.274834,0.009506,0.817753,0.754608,-0.170788,-0.633560
-0.502808,0.132524,0.885633,0.791816,0.480379,-0.377178
-0.072322,-0.152620,0.475421,0.926181,0.322948,-0.194662
-0.905895,-0.864136,0.775788,0.923078,0.025669,0.383756
0.152280,-0.231822,-0.805951,0.966656,-0.089608,0.239888
-0.409974,0.071532,0.874231,0.356131,0.900009,-0.251304
0.392751,-0.271918,-0.950594,-0.187109,0.258496,0.947718
0.054277,-0.219917,-0.330602,-0.407697,0.892417,-0.193325
-0.587559,-0.697869,0.498833,-0.745523,0.480282,-0.462087
-0.232913,-0.704740,0.614307,0.283218,-0.424930,-0.859780
-0.350528,-0.875195,0.519407,0.790976,-0.574777,-0.209733
0.121207,-0.252059,-0.637030,0.878255,-0.473780,-0.064804
0.088192,-0.220152,-0.104802,0.963576,-0.000729,0.267433
-0.435353,-0.414279,0.858965,-0.413480,-0.143890,-0.899072
-0.131017,0.368582,0.259323,0.163681,-0.852761,0.495991
-0.112301,0.325709,0.227620,-0.751677,0.617555,-0.231533
0.106685,0.128664,0.839658,0.110892,0.763021,0.636791
-0.042378,-0.292203,0.810136,-0.335254,0.610606,-0.717471
0.376429,0.057791,0.834511,0.397565,-0.680495,-0.615522
-0.409676,-0.310414,-0.983371,-0.222699,0.262414,0.938906
0.123231,0.485953,0.460732,-0.459377,0.514143,0.724313
0.076064,-0.191586,0.407061,-0.547896,0.768344,0.330842
-0.301493,0.355970,0.843587,0.095645,0.330099,-0.939088
0.122258,-0.244766,0.893554,-0.044480,-0.998769,-0.021977
-0.413195,0.313898,0.918987,0.587928,0.247895,-0.769993
-0.106762,-0.437057,0.838969,0.130088,0.508008,0.851472
0.131840,0.137841,0.875851,0.096719,-0.990987,0.092686
-0.675829,-0.101416,0.825130,0.796537,0.039776,0.603280
-0.640716,0.286602,0.952646,0.368611,-0.517964,0.771906
0.164334,-0.442374,0.660827,0.974803,-0.020463,0.222127
0.105264,-0.181938,-0.511983,0.519731,0.829308,0.205252
-0.126526,-0.066968,0.548240,0.600974,-0.706669,0.373430
-0.635772,0.345006,0.799713,0.257639,0.717231,0.647459
-0.241897,-0.196998,-0.988005,0.280577,-0.217580,-0.934845
0.755631,-0.312956,-0.930421,-0.178623,0.122978,0.976202
-0.083627,0.166266,0.892672,-0.572547,-0.216090,-0.790883
-0.396196,-0.760788,0.806512,0.605956,0.789555,-0.097055
-0.281579,0.418277,0.595834,0.368511,-0.245723,0.896560
-0.613464,-0.195679,0.617178,-0.417241,0.904647,0.086737
-0.279404,0.188197,0.850899,-0.678631,0.191172,-0.709164
0.180505,-0.157419,0.900145,-0.311052,-0.742261,0.593545
-0.308228,-0.533577,0.419424,0.447864,0.544394,0.709262
0.232461,-0.056708,0.931768,0.938834,0.207515,-0.274823
-0.071723,0.125042,0.654316,0.791125,0.499041,-0.353666
-0.021714,-0.627794,0.673062,0.769954,-0.561933,-0.302328
-0.310924,-0.018729,0.872259,0.729000,0.675914,-0.108161
-0.093808,0.224435,0.915668,-0.869026,0.492862,-0.043367
0.513514,-0.031342,-0.963005,-0.238001,0.187848,0.952926
0.133261,-0.494565,0.929667,0.213719,0.727530,0.651939
0.271841,-0.257189,0.908837,0.600767,0.344612,0.721333
-0.171371,-0.016426,0.664323,0.836019,0.548563,0.012266
0.271243,-0.181326,0.899889,0.808800,0.213183,0.548084
