0.237832,-0.640645,0.209732,-0.311456,0.897077,0.313447
0.470491,-0.361426,0.667005,0.217194,0.700940,0.679345
0.814445,-0.343123,0.455515,0.972498,0.222215,-0.069771
0.163285,-0.101403,-0.640607,0.853229,-0.507069,-0.121991
0.036867,-0.222604,0.037738,0.884603,-0.466344,-0.001223
-0.378323,0.405743,0.717663,0.756055,0.364070,0.543906
0.007618,-0.696656,0.747869,0.961786,-0.025222,-0.272638
-0.355061,-0.125265,0.676511,-0.673179,0.708819,0.210724
-0.285746,-0.752196,0.468489,-0.646219,-0.004767,-0.763137
-0.511775,0.754242,0.511794,-0.578611,-0.437679,-0.688220
-0.455255,-0.652550,0.621997,0.867608,0.365289,0.337372
0.685468,-0.462908,0.603728,0.435784,-0.877582,-0.199852
0.603536,0.143726,0.528406,-0.754100,0.379104,-0.536295
0.155204,-0.087400,0.783123,0.611820,-0.769493,-0.183187
0.333259,0.568166,-0.981994,0.057363,0.164326,0.984737
-0.026284,-0.735571,0.756741,0.977621,0.171402,0.121978
0.447695,0.216625,0.716084,0.812878,0.232379,-0.534069
-0.494445,0.267812,0.480736,-0.020097,-0.224108,0.974357
-0.348723,0.609440,0.472329,0.106482,-0.460753,0.881118
0.133919,-0.317635,0.155420,0.856533,-0.515099,0.032019
0.172414,-0.196748,-0.940873,0.088172,-0.224126,0.970563
0.210560,-0.201573,0.484777,-0.141566,0.786342,0.601353
-0.415827,0.443713,0.750749,0.894558,-0.438381,-0.087112
0.138164,-0.351357,0.921582,0.864361,0.422017,0.273461
0.272841,0.102032,0.794471,0.088288,-0.991511,0.095450
0.125082,-0.072505,-0.946415,-0.024955,0.363557,0.931238
0.491481,-0.251029,0.655408,0.970282,-0.241973,-0.001293
0.197886,-0.269280,-0.944418,0.110535,0.145548,0.983157
-0.143687,0.070198,0.575008,0.198538,-0.131925,0.971174
0.344595,0.614580,0.548533,-0.003641,-0.999467,-0.032447
-0.535732,-0.903710,0.535079,0.943287,-0.152744,0.294753
-0.801825,-0.572885,0.676015,-0.258534,-0.287045,-0.922369
-0.331861,-0.834692,0.299917,-0.861194,0.044653,0.506311
0.408210,-0.531978,0.749278,0.887659,-0.363750,0.282397
0.323605,0.245942,0.678694,-0.285766,-0.955117,-0.078037
0.457406,-0.460863,0.557204,0.179205,-0.366327,-0.913066
-0.530440,-0.368507,0.680056,0.569360,0.714219,0.407087
-0.069370,-0.563078,0.612259,0.686275,-0.640836,-0.344027
-0.151711,-0.450216,0.422909,-0.262911,0.544034,0.796809
0.377219,0.578655,0.540978,-0.403772,0.671227,0.621628
0.093040,-0.131716,0.265376,-0.565787,0.809042,0.159174
-0.412746,0.445181,0.754434,-0.677871,0.702816,-0.215734
0.076004,-0.137538,0.421640,0.965096,0.261833,0.005844
0.254811,0.286482,0.458256,0.825893,-0.286302,0.485729
-0.184857,-0.764101,0.660827,0.873016,-0.008799,-0.487613
0.150434,-0.238180,0.839339,0.415539,-0.735554,0.535058
-0.010582,0.075600,0.757716,0.975673,0.140293,0.168462
0.002561,-0.452314,0.564898,0.122188,0.825143,0.551552
-0.129497,-0.064639,0.185874,0.351197,0.925143,0.144122
0.433796,-0.506857,0.725729,-0.674944,-0.198921,-0.710550
0.094843,-0.076491,0.090719,0.791442,-0.545470,0.275830
0.234925,0.456142,-0.976900,0.047757,0.190059,0.980610
0.277608,-0.296342,0.865551,-0.119895,0.035095,0.992166
0.112230,-0.275888,0.946400,0.790122,0.568133,-0.230068
-0.751352,-0.297863,0.526440,0.624373,0.470424,-0.623586
0.090424,-0.087137,0.175640,-0.545843,0.827799,0.129633
0.328198,0.114147,-0.962920,0.092712,0.188474,0.977692
-0.326569,0.016809,0.706609,0.837291,0.512663,0.190054
-0.525032,-0.714855,0.455577,0.939635,0.321726,-0.116526
0.572544,-0.168795,0.487146,-0.266356,-0.573424,0.774751
-0.064895,0.434535,0.664775,-0.581605,-0.603453,-0.545509
0.421470,0.450216,0.250931,0.537893,-0.838823,0.083944
0.349482,-0.357808,0.696576,0.888339,0.448061,-0.100469
-0.416757,0.419693,0.671928,0.983796,-0.136861,-0.115825
0.313834,0.133499,0.899968,0.800895,0.252032,-0.543182
-0.239575,-0.181119,0.867579,-0.644355,0.706404,0.292915
-0.362621,-0.877645,0.282701,0.230139,0.919744,0.317973
0.138572,-0.127993,-0.478228,-0.331880,0.941571,0.057448
-0.433913,-0.868520,0.672842,0.761181,-0.631032,-0.149673
-0.095191,-0.052104,0.886901,0.548305,0.169056,0.819013
0.258478,-0.632359,0.767377,0.897721,0.005355,-0.440532
0.299471,-0.101245,0.387671,-0.585531,0.780415,0.219329
-0.902192,-0.466422,0.546381,0.954984,0.262721,-0.137782
0.241264,-0.056562,0.639740,-0.070827,0.943040,0.325052
-0.544861,0.491910,0.474017,0.266621,-0.021351,0.963565
-0.337035,-0.002281,0.780150,-0.205817,0.978585,-0.003340
-0.443681,0.867156,0.481711,-0.209875,-0.154290,0.965478
-0.776590,-0.276570,0.659945,0.111930,-0.111395,0.987453
-0.098388,-0.785656,-0.211048,-0.205926,0.947172,-0.245885
-0.068732,-0.298282,0.849449,-0.001975,-0.952590,0.304250
0.557134,0.352458,0.558690,0.167639,0.985842,0.003660
0.196488,-0.724190,-0.898606,0.989240,0.140316,0.041423
0.415713,-0.285591,0.039364,-0.689312,0.722885,-0.047824
-0.355700,-0.121699,0.819135,0.214404,-0.017326,0.976591
-0.300227,0.262515,0.566245,0.829454,0.469764,-0.302206
0.078502,0.000131,0.703760,0.156941,-0.195502,0.968064
-0.558060,0.651973,0.435651,0.166905,-0.764565,0.622562
-0.642843,-0.535072,0.499191,0.814856,0.076983,-0.574528
0.360414,-0.615314,0.705757,-0.477322,-0.029289,0.878240
0.098740,-0.127940,0.588323,0.754551,-0.636905,0.158129
-0.405999,-0.137800,0.546041,-0.648537,0.729963,0.215762
0.099088,0.449115,-0.975584,0.038970,0.124812,0.991415
-0.427514,0.486351,0.779283,-0.592091,0.730309,0.340701
-0.720822,0.396303,0.647961,0.843193,0.086598,-0.530590
-0.498515,-0.693562,0.664806,0.961208,0.100619,0.256817
0.014596,0.409204,0.604982,-0.119695,-0.983807,-0.133403
0.411990,-0.269647,0.751570,0.791999,0.028882,-0.609839
0.552598,-0.091176,0.501312,0.384164,0.648234,-0.657427
0.333724,0.657690,0.158857,0.369773,0.235307,-0.898832
-0.068905,-0.275888,0.924059,0.084057,0.968180,0.235715
-0.043902,-0.452576,0.479358,0.274695,-0.961269,0.022457
-0.040182,0.549390,0.533438,0.297243,0.181300,-0.937431
-0.039075,-0.618880,0.381308,0.598051,0.799562,-0.055092
-0.352446,0.381356,0.741258,-0.239146,0.637394,0.732488
-0.028668,0.213479,0.759187,0.855115,0.388512,-0.343274
-0.797289,0.377055,0.639492,0.843193,0.086598,-0.530590
0.054836,0.145562,0.856463,0.407155,0.719333,0.562837
-0.024945,0.361374,0.593076,-0.611156,0.174067,0.772133
0.084958,-0.049325,-0.186354,-0.730137,-0.676514,-0.096065
0.474211,-0.640960,0.608280,0.421220,-0.789472,0.446439
0.125721,-0.096630,0.091989,0.777674,-0.549935,0.304623
0.248533,0.810882,-0.985756,-0.065924,-0.007317,0.997798
0.490842,-0.077855,0.748705,0.702189,-0.164495,-0.692728
0.034833,-0.233827,0.889084,-0.350628,0.657206,-0.667188
-0.182937,0.611486,0.471121,0.038621,-0.372394,0.927271
-0.546373,0.394624,0.468675,-0.701109,0.481334,-0.526083
0.268362,0.149705,0.272869,-0.615067,0.688129,-0.384930
0.136130,0.770080,0.489406,-0.102698,-0.104392,0.989220
-0.328893,0.300538,0.365810,0.963429,0.100207,0.248522
0.155608,0.020742,0.094373,0.768667,-0.628356,0.119660
-0.028725,-0.448380,0.674111,0.949086,0.029403,0.313642
0.325057,0.110843,-0.963074,0.089175,0.176190,0.980309
0.511775,-0.698544,0.529970,-0.091538,-0.893375,0.439888
0.449963,0.633408,0.430681,0.289570,0.633146,0.717827
0.457349,-0.865792,0.455422,-0.213992,-0.937699,0.273729
0.009538,0.111735,0.775567,0.952317,0.299869,-0.056309
-0.109263,-0.268284,0.915993,0.862025,-0.069962,0.502015
-0.220675,0.200315,0.450003,-0.063267,0.000301,0.997997
-0.108042,-0.530877,0.303246,0.175390,0.644981,0.743800
0.510380,0.349889,0.412459,-0.610468,0.781261,-0.130226
-0.431702,-0.305992,0.852236,0.841608,0.369979,0.393462
0.509685,0.621555,0.299809,0.799164,-0.005432,-0.601088
0.765950,0.071247,0.226624,0.333002,-0.493418,0.803523
0.169567,-0.721673,-0.441519,0.539759,-0.841386,0.027014
-0.068501,-0.352248,0.265330,0.850782,0.128201,0.509641
0.214166,-0.741392,-0.275919,0.096470,-0.994479,-0.041295
-0.366749,0.368349,0.725606,0.411157,0.754554,-0.511466
0.335293,0.233984,0.281431,0.409001,-0.551442,0.727070
-0.216548,0.621555,0.133698,-0.097250,-0.318469,0.942932
0.190092,-0.053258,-0.384869,-0.300545,0.940564,-0.158154
-0.093679,-0.343542,0.971621,0.295673,0.831088,0.471030
-0.408384,-0.276308,0.803946,-0.483127,-0.608757,0.629288
0.001340,-0.622604,0.798435,-0.706715,-0.656045,-0.264874
0.588012,0.183952,0.275888,0.189453,-0.656798,0.729879
-0.566145,-0.252550,0.777766,-0.391841,-0.719183,-0.573791
0.027217,-0.245680,0.886622,-0.452739,0.728301,-0.514399
0.346572,0.616153,0.384327,-0.733020,0.216396,0.644867
0.073094,-0.258791,0.954157,0.263017,0.847207,0.461587
-0.231202,-0.034587,0.419426,0.719748,-0.685760,0.108144
-0.188055,-0.522433,0.480241,-0.398318,0.904383,0.153084
0.171079,-0.323089,0.921767,-0.597685,-0.466330,-0.652158
-0.049775,0.091228,0.559433,-0.278851,0.456635,-0.844823
0.070712,-0.135545,0.559541,0.657818,0.562678,0.500668
-0.633132,0.104287,0.754047,0.928268,0.329251,0.172952
0.913184,-0.121647,-0.032211,0.446523,-0.481732,0.754024
-0.784146,-0.362842,0.656384,0.631101,-0.417552,-0.653729
-0.322090,0.107644,0.567128,0.435627,0.797048,-0.418262
-0.446240,-0.054359,0.780367,-0.100198,0.947620,0.303276
0.653370,0.178917,0.506514,-0.191175,0.868368,-0.457591
0.302555,0.505809,0.455655,0.819847,-0.572458,0.011932
0.170845,-0.445549,-0.934509,0.087323,0.226573,0.970072
-0.155257,-0.552956,0.500306,0.062913,0.741785,0.667681
0.257778,0.284857,0.140820,-0.264746,0.905516,-0.331589
0.307439,-0.417648,0.787427,-0.499889,-0.491744,0.712951
0.131069,-0.609125,-0.917819,0.030621,0.479460,0.877029
0.436998,0.300538,0.738208,0.809406,0.587003,-0.017014
0.361517,0.346375,-0.972689,0.094332,0.101746,0.990328
-0.052856,-0.070670,0.481293,0.496286,0.816246,0.295707
-0.072629,-0.543936,0.761478,0.981203,0.009589,-0.192740
-0.176077,-0.533604,0.651011,0.590870,0.702795,-0.396171
-0.187707,0.736200,0.487796,-0.142316,0.725840,-0.672980
-0.114264,0.281028,0.569512,-0.245961,0.311858,0.917741
0.003317,-0.224282,0.669884,-0.609099,0.120355,-0.783909
0.305462,0.483047,-0.981576,-0.016754,0.157825,0.987325
-0.571728,-0.936174,0.551661,0.859819,0.407142,0.308135
0.588651,0.145142,0.494995,0.059658,-0.470369,0.880451
-0.089260,-0.644106,0.830375,-0.755380,-0.529478,-0.386074
-0.698146,-0.618723,0.689888,-0.533711,-0.365662,0.762525
-0.681341,-0.502032,0.485319,-0.207440,-0.263327,0.942140
-0.077104,-0.553009,0.820853,0.699611,0.445039,0.559004
0.276270,0.150597,-0.964716,0.080393,0.222929,0.971514
0.215969,0.118867,-0.959188,0.122019,0.174401,0.977085
0.331456,-0.131244,0.735220,0.351334,0.326392,0.877515
0.966858,-0.193811,-0.049288,0.302189,-0.693463,0.654057
0.568591,0.158359,0.244893,-0.105933,0.582842,-0.805651
0.142292,-0.154005,0.910403,0.975537,-0.052429,0.213493
-0.432867,-0.304523,0.714582,0.869539,0.224412,0.439934
-0.196488,-0.139268,0.868152,0.064398,-0.835642,-0.545486
0.212072,-0.744591,-0.331068,-0.102663,0.994484,-0.021474
0.031866,-0.164180,0.494051,0.484038,0.873380,0.053978
0.377450,-0.279769,0.733300,0.923434,-0.002188,-0.383750
0.290051,0.158726,-0.965366,0.080291,0.233992,0.968918
0.310580,-0.482994,0.734864,0.827691,-0.505783,-0.243127
0.065129,-0.132240,0.179851,-0.475805,0.871041,0.122053
0.615110,-0.089393,0.541845,-0.091729,-0.875447,0.474529
-0.353141,0.465111,0.473196,-0.380284,0.280614,-0.881272
0.583415,-0.777422,0.543873,0.411151,-0.415677,-0.811276
-0.232888,0.400813,0.638827,0.501041,0.106473,0.858849
-0.022386,-0.129094,0.713467,0.069680,0.957289,0.280612
0.367157,0.502977,0.420479,-0.523257,0.802577,-0.286482
-0.823109,-0.489393,0.665100,0.962145,-0.235636,-0.136938
-0.612373,-0.510948,0.339815,-0.682894,0.729841,0.031434
0.838402,0.063852,0.458736,0.691331,0.721624,0.036342
-0.914518,-0.417543,0.575721,-0.661781,-0.739905,0.120775
-0.187242,0.102347,-0.047601,-0.537012,-0.835860,-0.113827
-0.286910,-0.330798,0.772904,0.343040,0.853868,0.391450
0.606794,0.445863,0.806176,0.796758,-0.074740,-0.599659
-0.047273,-0.532765,0.765117,0.950380,0.205232,0.233790
-0.358494,-0.855408,0.272064,-0.371064,-0.850635,-0.372467
-0.145373,0.001967,0.877132,-0.163043,0.837861,0.520967
-0.207185,0.415340,0.286355,0.389335,0.433900,0.812496
-0.886781,-0.235033,0.622446,-0.225119,-0.705943,0.671540
-0.822701,-0.147974,0.501188,0.172513,0.747854,0.641057
0.098797,-0.688685,0.609658,0.537891,-0.099567,0.837114
0.700939,-0.181067,0.506561,0.012646,-0.533470,0.845725
0.055475,0.895582,-0.994581,-0.071100,0.178201,0.981422
0.226319,-0.068152,-0.565069,0.190126,0.981430,0.025454
-0.377971,0.076596,0.799797,-0.758077,0.192781,0.623021
0.025062,0.597168,0.491094,-0.481927,-0.447349,0.753409
0.237775,-0.061544,-0.794208,-0.138641,0.977505,0.158940
0.539803,0.379310,0.429737,0.766494,-0.586106,0.262614
-0.051983,0.138744,0.573971,0.105354,-0.255869,0.960954
0.133919,-0.135230,0.257944,-0.351659,0.934313,0.058273
0.222425,0.544093,-0.980740,0.017997,0.157738,0.987317
0.346341,-0.356339,0.690615,0.976925,0.213498,0.006037
0.219806,-0.362003,0.874515,-0.567800,-0.808493,-0.154734
-0.372098,0.289944,0.708064,0.234067,0.685033,-0.689886
0.566205,0.193654,0.539337,0.968661,0.104091,0.225524
0.135839,-0.075180,-0.716843,-0.290054,0.950405,0.112243
0.463105,0.060758,0.756601,-0.610296,-0.626444,0.484879
-0.480724,-0.808680,0.462838,0.698288,-0.585593,-0.411674
-0.291155,-0.116822,0.524273,0.102846,-0.937811,0.331561
-0.251031,-0.857192,0.211590,0.836912,0.395259,0.378614
0.326047,-0.769188,0.619938,-0.046998,0.071671,0.996320
-0.775192,-0.260102,0.524443,0.470003,0.534572,-0.702375
-0.077104,-0.295975,0.951246,-0.301651,-0.827589,-0.473395
0.600920,0.224544,0.582471,0.082181,0.881487,0.465002
0.853057,-0.021057,0.404795,-0.015675,-0.148725,0.988754
-0.681919,0.573620,0.575550,0.912492,-0.216122,0.347348
0.317032,0.464901,-0.980214,0.044380,0.230692,0.972014
0.227717,0.560771,0.343159,-0.095404,-0.976870,0.191372
0.071990,-0.135072,0.323110,-0.654776,0.690925,-0.306414
-0.622435,0.100669,0.837822,-0.800917,0.597682,-0.036183
-0.914053,-0.102819,-0.934138,-0.261789,0.200008,0.944173
0.852418,-0.079533,0.665333,-0.483886,0.816156,0.315823
0.385883,0.063433,0.705649,-0.464723,-0.839452,0.281695
0.771359,-0.217674,0.344057,0.456242,-0.888805,0.043233
-0.856777,-0.017438,0.640437,0.767267,-0.245536,-0.592463
-0.513344,-0.713177,0.449601,0.949555,0.312194,0.029677
0.767926,-0.365517,0.417754,0.660684,0.736446,0.145409
-0.063149,-0.530457,0.738518,0.896548,0.320771,0.305463
0.029307,-0.049325,0.805371,-0.020221,-0.867876,0.496369
-0.032388,-0.619352,0.673879,0.776894,0.604602,0.175761
0.345642,0.460443,0.434537,0.934293,-0.340439,0.105816
0.151541,-0.655330,0.100396,-0.392593,0.919681,0.007600
-0.518810,0.584319,0.432772,-0.679472,0.429926,0.594543
0.820436,-0.325502,0.490753,0.888253,0.359381,-0.286097
0.380008,0.619195,0.174866,0.607981,-0.168951,-0.775767
-0.034482,-0.316428,0.934370,0.405320,0.906079,0.121393
0.760949,-0.555946,0.535188,-0.110625,-0.576969,0.809239
0.549574,-0.848328,0.432323,-0.236772,0.250591,0.938692
0.424146,-0.678301,0.571138,0.810572,-0.566495,0.148513
-0.217769,-0.046440,0.381850,0.790760,-0.568129,0.227878
0.062918,-0.795988,-0.248562,-0.289460,0.954211,-0.075454
0.362855,-0.725186,0.595879,-0.343638,0.854796,-0.388892
0.070943,0.175246,-0.960675,0.035526,0.179221,0.983167
-0.363608,-0.011040,0.538392,-0.843848,0.101328,-0.526929
0.381985,0.707460,0.484638,0.870774,0.330001,0.364488
-0.162643,0.875547,0.154770,0.098120,-0.230086,0.968211
-0.337035,0.233303,0.650965,0.923948,0.231804,-0.304280
-0.582890,-0.364993,0.679855,0.540233,0.630443,0.557395
0.164623,-0.251763,0.562158,-0.017165,-0.451965,0.891870
0.361170,-0.470198,0.787133,0.784513,-0.138138,-0.604531
-0.143743,-0.126209,0.290860,0.730122,-0.668019,0.143777
0.850963,-0.094533,0.677641,-0.364572,0.621822,0.693127
0.322093,0.436790,0.332105,-0.417027,-0.524210,0.742491
0.559693,0.190508,0.515664,0.414410,0.908920,0.046140
0.411468,-0.026354,-0.131267,0.901810,-0.420983,-0.097528
0.757109,-0.134706,0.647899,-0.098705,0.039081,0.994349
-0.001393,-0.257690,0.905635,0.877089,-0.245747,-0.412704
0.862768,-0.230681,0.693139,-0.749708,0.040057,0.660555
-0.166948,-0.058083,0.217241,0.347352,0.937446,-0.023257
0.087226,0.707985,0.136733,-0.281972,0.514144,-0.810029
0.276795,-0.301953,0.895324,0.308949,-0.809068,0.499960
-0.543409,-0.914357,0.682100,-0.736441,-0.460166,-0.495885
-0.382216,-0.266343,0.752731,0.912703,-0.317872,-0.256769
-0.351981,0.409466,0.456769,-0.137016,-0.736409,0.662517
-0.086758,-0.236712,0.701902,0.015904,0.949427,0.313584
-0.607898,-0.103920,0.791653,-0.357240,-0.700376,0.617943
0.145376,-0.255697,0.433360,-0.382665,0.670735,0.635360
0.140258,-0.059132,-0.805464,0.574948,-0.800701,-0.168261
0.167122,-0.674944,0.007300,-0.472763,0.880297,-0.039663
-0.645753,-0.175875,0.394886,0.685049,0.720253,0.109285
0.041520,-0.126419,-0.016837,-0.258086,0.954389,0.150110
-0.201836,-0.230523,0.455995,0.846159,-0.528201,0.070843
0.198291,-0.618356,0.292997,-0.348994,0.858801,-0.375052
0.317848,0.733526,0.157386,-0.325057,-0.485257,0.811704
0.354192,-0.396093,0.830236,0.851008,-0.048018,-0.522953
-0.679538,-0.037734,0.675768,-0.763053,0.539040,0.356631
-0.295283,0.155159,0.285410,0.272944,-0.362541,0.891104
0.138980,-0.148918,0.312365,0.206011,-0.864185,0.459069
0.144968,0.513098,-0.980136,0.185983,0.147107,0.971478
0.441821,0.498781,0.611175,-0.564649,0.400267,0.721774
-0.159679,0.388908,0.674576,0.168237,0.745209,0.645260
-0.295517,0.265662,0.299515,0.174379,0.008160,0.984645
-0.493923,-0.717005,0.681837,0.851047,0.320549,0.415894
0.127815,-0.781880,0.048437,-0.700033,0.713934,0.015849
0.806886,-0.389013,0.468211,0.982335,-0.098706,0.158982
-0.757400,-0.523954,0.642945,0.966208,0.227187,-0.121775
-0.403792,0.158831,0.820590,0.971831,-0.220289,0.083768
-0.544978,-0.500983,0.668367,0.785977,-0.536099,-0.307958
-0.292493,-0.510895,0.309950,0.345651,0.411312,0.843414
-0.853345,-0.566330,0.616424,0.520915,0.738598,0.427925
0.358085,0.041720,0.414131,0.570281,0.719777,-0.395855
0.059429,-0.119601,0.338314,0.503801,-0.816901,0.280814
-0.405825,-0.315746,0.837450,0.841843,0.368775,0.394087
-0.916208,-0.133919,0.631705,0.743230,0.037077,-0.668008
0.487123,-0.299331,0.526487,-0.364185,-0.921184,-0.137073
-0.130952,0.332425,0.642063,0.326909,-0.890188,0.317328
-0.256380,0.822997,0.524505,0.891944,0.131206,-0.432691
0.211781,0.385027,0.418187,-0.100048,-0.218534,-0.970687
-0.022156,-0.227324,0.933565,0.614701,-0.465520,-0.636737
0.037914,-0.388803,0.445823,-0.539463,0.588143,0.602551
-0.356981,-0.143201,0.685878,0.696089,-0.597288,-0.398381
0.396931,0.286482,0.434537,-0.438375,0.337426,-0.833049
0.031053,-0.054779,-0.128837,0.740915,0.641106,-0.200070
0.124731,-0.111263,0.207905,0.302178,-0.950839,-0.067771
0.237601,-0.571102,0.362838,-0.555586,0.803086,-0.215353
0.687854,-0.476229,0.569992,-0.175345,-0.983816,0.036867
-0.363434,-0.626904,0.654696,-0.599054,0.769816,-0.220266
0.193872,0.525476,0.315276,-0.371589,0.232503,-0.898813
0.230680,0.352406,0.448486,0.956528,0.284049,0.066106
-0.378610,0.371863,0.408727,0.161881,-0.815378,0.555836
-0.094666,0.161663,0.850146,-0.367319,0.916470,-0.158617
0.237427,0.455723,-0.977102,0.047757,0.190059,0.980610
0.310580,-0.301586,0.648441,0.732739,0.679383,-0.039147
-0.013780,-0.373017,0.939170,0.138128,0.924310,0.355769
0.174217,-0.401495,0.923594,0.261867,0.942705,0.206718
-0.267024,0.103605,-0.018370,0.009823,-0.993458,0.113771
0.219923,-0.698282,-0.443176,0.539759,-0.841386,0.027014
-0.668954,0.044185,0.207983,-0.074543,0.997218,0.000757
-0.387160,0.146034,0.059243,0.827648,-0.520116,0.210896
0.141479,-0.289996,-0.942467,0.037329,0.113666,0.992818
0.657441,0.082418,0.760394,0.357681,-0.739815,0.569857
0.339828,-0.566592,0.841538,0.507514,0.767066,0.392478
0.301334,0.499148,0.548533,-0.330562,0.179304,0.926595
0.185730,0.594179,0.564898,0.792674,0.027810,0.609011
0.185556,-0.339819,-0.939619,0.071019,0.115730,0.990739
0.525848,0.370500,0.557653,0.160264,0.985860,-0.048938
-0.319822,0.583060,0.560192,0.015465,-0.819012,-0.573567
0.309706,0.617464,-0.987939,0.027673,0.347923,0.937115
0.421761,-0.334207,0.656631,0.536037,0.770768,0.344356
0.448277,-0.188304,0.580164,0.343778,-0.003981,-0.939042
0.317440,0.482523,0.583400,0.604134,-0.550856,-0.575830
-0.137699,-0.623391,0.800865,0.088847,-0.971065,-0.221674
0.167356,0.404694,0.502303,-0.367635,-0.663516,0.651607
0.207597,-0.745903,0.255158,-0.459797,0.379560,0.802820
0.349191,0.775167,-0.993281,-0.032401,-0.073332,0.996781
-0.108390,-0.349102,0.849294,0.470137,-0.876842,-0.100596
0.013957,0.432228,0.574219,0.177252,0.836377,0.518706
0.646509,0.008208,-0.792350,-0.127950,-0.020996,0.991558
0.286623,-0.899620,0.243298,0.917776,-0.383611,-0.102616
0.409201,0.237446,0.660580,-0.902620,-0.255521,-0.346390
0.335466,-0.332529,0.665813,0.323182,0.820093,0.472231
0.286041,0.014921,0.567855,0.260743,0.319168,0.911123
0.293600,0.420899,0.250884,0.822459,0.417117,-0.386748
0.443159,-0.494900,0.798930,-0.474235,0.700992,0.532646
0.391873,-0.502714,0.662422,0.794474,-0.054723,-0.604828
0.191430,-0.696709,0.506375,-0.771115,0.635759,0.034530
-0.205442,-0.974721,0.566261,0.590245,-0.754737,-0.286326
-0.054893,0.168848,0.575550,0.028666,-0.389052,0.920770
-0.680525,-0.037577,0.683153,-0.721613,0.538495,0.435084
-0.071755,0.404222,0.667376,-0.094041,0.371565,0.923632
-0.057974,-0.223181,0.881978,0.691799,0.519774,-0.501247
0.215912,0.084988,0.195690,0.265848,0.960845,-0.078111
-0.016864,0.192186,0.857454,-0.203244,0.868635,0.451846
-0.172240,0.292199,0.300227,0.308534,0.248457,0.918192
0.546898,0.213007,0.633594,0.785212,0.452170,-0.423066
0.578010,0.327652,0.094559,-0.478659,-0.471545,-0.740629
0.310519,0.139688,0.437509,0.212922,-0.301896,-0.929260
0.249871,-0.637236,0.209113,-0.360038,0.837235,0.411595
0.116358,0.164022,-0.961124,0.035768,0.199312,0.979283
0.269001,0.214055,0.498556,0.855762,0.035531,-0.516148
0.183987,-0.640383,0.169045,-0.670960,0.731799,-0.119513
0.052860,0.267969,0.603202,-0.516834,-0.300832,0.801488
0.082982,0.652865,-0.983434,0.058122,0.198689,0.978338
0.081817,0.081736,0.296697,-0.443389,-0.735279,-0.512612
0.029659,0.307408,0.405755,-0.775540,-0.438475,0.454178
0.342036,0.147555,0.248670,-0.406598,0.905310,-0.122846
0.294761,-0.728910,0.245466,0.060222,0.922158,0.382098
-0.248125,0.622814,0.477856,0.058539,-0.308687,0.949361
0.507708,0.053468,0.600988,0.890243,-0.340540,-0.302491
-0.355700,0.556261,0.660223,0.498416,0.036064,0.866187
0.278246,-0.223862,0.819893,0.115202,-0.305288,-0.945266
0.270165,-0.319208,0.598696,0.961358,-0.244290,-0.126937
-0.331800,-0.540737,0.453735,0.264428,0.658324,0.704760
0.090367,-0.157834,0.598650,0.856214,-0.433269,0.281382
-0.071873,-0.077383,0.147137,-0.414816,-0.909902,-0.002415
-0.296504,0.301954,0.565812,-0.454899,-0.873899,0.171370
0.167878,-0.006949,0.857485,0.766456,0.410647,0.493876
-0.429956,0.266973,0.698310,0.146502,-0.567915,0.809944
0.468106,0.820428,0.314176,0.995994,0.089009,0.008549
-0.550852,-0.220663,0.649494,0.550385,0.553216,0.625322
0.003490,-0.108431,0.773616,-0.147742,-0.795020,0.588316
-0.056696,-0.466474,0.662081,-0.558428,0.741191,0.372550
-0.493110,-0.061073,0.602551,0.915970,-0.200575,0.347517
0.353727,-0.175718,0.508248,0.476649,0.868272,-0.137515
0.201780,0.603566,0.577780,-0.234556,0.316779,0.919040
0.277782,-0.218565,0.535745,0.941891,0.180851,0.283081
0.055884,-0.458817,0.583013,0.116268,0.852497,0.509638
-0.546955,0.326393,0.479436,0.766871,0.318113,-0.557417
0.127580,-0.079900,-0.119067,0.424677,0.905266,-0.011937
0.910220,-0.179336,0.353409,-0.556119,0.201660,0.806266
-0.130079,-0.503239,0.300707,0.263036,0.524280,0.809903
0.393442,0.172414,0.773183,-0.072967,0.924592,0.373907
0.659882,-0.692303,0.673414,-0.608562,-0.693501,0.385628
0.849976,-0.032647,0.479683,0.920333,0.198895,-0.336791
-0.437750,0.131087,0.802863,0.900787,0.427314,-0.077362
0.311510,0.435217,0.472236,0.815216,-0.400043,0.418794
-0.262776,0.134863,0.003089,-0.052489,-0.994191,0.093966
-0.416700,-0.163183,0.725033,0.512368,0.855037,0.079944
-0.425889,0.151069,0.800757,0.982939,0.018466,0.183000
0.171136,-0.154320,0.862563,0.870757,0.258727,0.418142
0.181894,-0.058817,-0.499872,-0.456634,0.889425,0.020207
-0.098098,-0.345693,0.081058,0.734078,-0.674319,-0.080142
0.723093,0.055146,-0.020352,-0.145355,0.801147,0.580548
0.933595,-0.255277,0.698124,0.901724,-0.023283,-0.431685
0.468628,-0.195018,0.834276,0.327256,0.920582,0.213149
0.584523,-0.141209,0.204902,0.363308,-0.640688,0.676407
0.248242,0.676675,-0.989348,0.117235,0.178427,0.976944
-0.040005,0.130720,0.794270,0.935532,0.347925,0.061056
0.469444,0.718579,0.720125,0.927360,-0.048388,-0.371029
0.071294,-0.091438,-0.042042,0.400027,-0.915687,0.038679
0.353901,0.390376,-0.971590,-0.097979,-0.247606,-0.963894
-0.762340,-0.579546,0.637666,0.993548,-0.091375,-0.067181
0.198351,0.259473,-0.969159,0.101639,0.169791,0.980225
0.417864,0.665242,-0.992801,0.004833,0.169013,0.985602
0.002096,-0.420585,0.549633,-0.233491,0.628541,0.741902
0.119382,-0.115668,0.282577,-0.361606,0.925190,0.115173
-0.348606,0.342284,0.610525,-0.531196,0.841014,0.102594
-0.362738,-0.395463,0.527988,-0.343998,-0.615314,-0.709263
-0.546025,0.736987,0.503356,0.299541,-0.850788,-0.431780
-0.765307,0.336882,0.653566,-0.551146,0.085020,0.830066
-0.152758,0.005690,0.262032,0.879786,0.444796,0.167728
-0.546433,-0.965176,0.562591,0.034049,0.895753,0.443245
-0.090481,-0.676727,0.582765,0.454476,0.345180,0.821159
0.177414,-0.634614,0.198461,-0.629776,0.770011,0.102298
0.349539,0.450059,-0.979703,0.017195,0.191919,0.981260
-0.582486,0.432857,0.470239,0.847471,-0.070229,0.526175
0.723150,-0.508797,0.352743,0.222429,0.179981,0.958192
0.159097,-0.077750,-0.401606,-0.231170,0.966492,-0.111594
0.072337,-0.147765,0.681930,-0.022600,-0.994296,0.104234
0.195906,-0.423784,-0.936739,0.117022,0.226927,0.966856
0.211550,0.372755,0.632262,-0.487359,-0.234622,0.841091
-0.295283,0.812561,0.548719,0.891944,0.131206,-0.432691
0.391930,-0.718526,0.670550,-0.306841,-0.786773,0.535572
0.056987,-0.321306,0.910992,-0.095114,-0.762008,0.640544
0.191082,-0.025567,0.880445,-0.521559,0.513507,0.681386
0.097345,-0.838206,0.627633,-0.290223,-0.235290,0.927582
-0.913123,-0.370919,0.628190,0.582631,0.593326,-0.555432
-0.054428,-0.487033,0.719800,0.939662,0.339465,0.042422
-0.142232,-0.332214,0.844990,0.994663,0.024282,-0.100276
0.197826,0.054150,0.113122,0.880687,-0.464247,0.094161
0.231497,-0.432804,0.582657,0.479711,-0.488503,0.728864
0.140492,-0.133132,-0.944635,-0.329590,-0.107486,0.937986
-0.858988,-0.111472,0.654603,0.811775,-0.111219,-0.573281
0.006454,-0.818225,0.615294,0.243254,0.853716,0.460430
0.213353,-0.705677,0.567112,0.621114,-0.782434,-0.044880
0.079028,0.642376,-0.983140,0.062183,0.187416,0.980310
-0.258243,0.641169,0.141269,-0.097706,-0.226332,0.969138
-0.069431,0.226695,0.801825,0.956785,0.287801,-0.041623
-0.033435,0.515039,0.539863,0.833535,0.026569,-0.551827
0.764203,-0.666133,0.486170,0.554526,0.187841,-0.810689
0.331804,-0.308404,0.765442,-0.745190,0.647164,-0.160847
0.264291,-0.352301,0.578925,0.903315,-0.260098,-0.341133
0.852766,-0.074446,0.192686,0.120971,-0.543754,0.830480
0.308077,0.690416,-0.991206,0.083341,0.100419,0.991449
0.223937,-0.668074,0.468071,0.930396,-0.143616,0.337251
0.111183,0.416914,0.591946,-0.303481,0.863260,0.403337
0.503637,-0.089445,0.711842,-0.156851,-0.751780,-0.640487
-0.068267,0.438469,0.626472,0.620245,0.723461,-0.303150
0.423912,0.396827,0.199947,-0.444818,0.796690,-0.409173
-0.129092,0.758070,0.492379,0.289011,0.757358,-0.585560
-0.455602,-0.096263,0.789935,-0.790556,0.138786,-0.596456
0.319825,-0.402386,0.703992,0.026266,0.882473,0.469630
0.371984,-0.549338,0.358007,0.702392,0.696732,-0.145638
-0.002266,-0.433381,0.561384,-0.327553,0.603872,0.726669
0.151072,-0.691726,-0.021807,-0.782508,0.621185,-0.042540
-0.391522,0.338613,0.313774,-0.541498,0.788227,-0.292367
-0.252135,-0.967746,0.595646,-0.379696,0.887792,-0.260107
0.199746,0.234037,0.151426,0.912790,-0.392569,-0.112715
0.208583,-0.382247,0.914924,-0.471636,-0.569081,-0.673578
-0.140837,-0.747948,0.425371,-0.645041,-0.179972,-0.742652
0.167938,-0.550334,0.631689,0.633215,0.419401,-0.650494
-0.088096,-0.149338,0.728501,0.852343,0.012836,-0.522825
0.092167,-0.115668,0.365934,0.222207,0.961077,-0.164181
-0.024306,-0.528779,0.595724,0.389843,0.729005,0.562649
-0.810722,-0.440776,0.611887,0.839975,0.373403,-0.393717
0.286388,-0.465530,0.412211,-0.766510,-0.081611,0.637026
-0.249928,0.416966,0.767501,-0.578514,-0.726198,0.371428
0.222947,-0.101141,-0.230510,0.397851,-0.917050,-0.027078
-0.250741,0.566330,0.474466,0.008918,-0.133552,0.991002
0.290168,0.294401,0.649138,0.373651,-0.894430,0.245725
0.108741,-0.296761,0.895649,0.260356,-0.933455,0.246731
0.007618,-0.289786,0.913825,-0.503603,-0.297766,0.810999
-0.159505,-0.312757,0.417506,0.366987,-0.492489,0.789161
-0.352155,-0.030969,0.827433,-0.090930,-0.004752,0.995846
0.669128,-0.438416,0.347262,-0.745065,-0.094772,-0.660224
-0.515729,-0.397614,0.523978,-0.204717,0.707462,0.676452
0.099205,0.137380,-0.957361,0.046019,0.224536,0.973379
-0.136187,-0.857296,0.557792,-0.661600,-0.216974,0.717779
-0.334884,-0.008208,0.876683,0.296120,0.929402,0.220285
0.197709,0.041773,0.105474,0.765481,-0.612879,0.196004
0.330757,0.573358,0.533639,0.117333,-0.984948,0.126924
-0.371806,-0.723089,0.507644,-0.715208,0.061499,-0.696201
-0.226375,-0.770814,0.620619,0.814251,0.570970,0.104825
-0.109263,0.225960,0.075082,-0.521728,0.340508,-0.782211
-0.598940,-0.208810,0.732186,-0.616333,0.780466,0.104915
-0.975578,-0.235768,-0.930794,0.210859,-0.148517,-0.966168
0.138338,-0.081054,-0.580783,0.158717,-0.985797,0.054885
-0.297203,-0.548656,0.451830,-0.817196,0.306213,0.488287
0.472816,-0.513989,0.844386,0.206051,0.932171,0.297658
-0.364946,-0.878641,0.095163,-0.116333,0.989845,0.081689
-0.055649,-0.220559,0.903034,0.800101,0.563943,0.204467
-0.451997,-0.103291,0.821132,0.192391,0.970941,0.142335
-0.148514,0.034011,0.565719,-0.714330,0.596653,-0.365702
0.348027,0.469569,0.558396,-0.543886,0.671638,0.503081
-0.030003,0.086351,0.776574,0.990493,0.132985,0.035182
0.831368,-0.195280,0.678539,0.705169,0.300676,-0.642130
0.433974,-0.294978,0.496048,-0.649079,-0.717993,-0.251363
0.202479,-0.297758,0.918563,0.163009,-0.468299,-0.868403
0.249406,0.066265,0.733951,0.854529,-0.319866,0.409227
-0.136826,-0.279087,0.711207,0.053509,-0.638361,0.767875
0.257895,0.140789,0.585567,-0.702029,0.253245,-0.665599
-0.436121,-0.100354,0.284822,0.785430,0.600573,0.149707
-0.534976,-0.016756,0.668971,-0.158442,-0.983092,0.091791
0.421761,0.154425,0.856478,0.623734,-0.780807,-0.035999
0.085306,-0.126944,0.444879,0.497340,0.867476,-0.011804
0.705067,-0.699174,0.469465,0.617082,0.215110,-0.756927
0.721581,-0.131244,0.514070,-0.323531,-0.854464,0.406471
0.576963,-0.611171,0.432570,0.838532,0.054329,-0.542136
-0.110832,-0.366199,0.864483,0.731697,-0.375661,-0.568769
0.246499,0.326445,0.019531,0.896074,0.195355,-0.398607
0.387568,-0.617307,0.143204,-0.230608,0.972962,0.012845
0.261036,0.362108,-0.973448,0.025404,-0.197889,-0.979895
-0.407163,0.482995,0.690337,-0.759217,-0.583964,-0.287359
0.167704,-0.039675,-0.850641,0.923504,0.383455,-0.010147
-0.358959,0.606451,0.465269,0.149579,-0.355187,0.922750
-0.425889,0.529881,0.671433,0.664747,0.058898,0.744744
-0.769321,-0.709715,0.660378,0.656492,0.191841,0.729531
-0.502065,0.377632,0.426795,-0.493310,0.541843,-0.680479
0.852358,-0.278878,0.666107,0.533428,-0.075204,-0.842496
0.030415,-0.671011,0.631612,0.842005,0.463645,0.275792
0.281271,-0.053468,0.816580,0.945702,-0.307513,0.105281
-0.503169,0.695031,0.150218,0.110745,-0.286261,0.951730
-0.027795,0.594021,0.541009,0.000250,-0.413914,0.910316
-0.432224,-0.763052,0.637588,0.797236,-0.008538,0.603608
0.047916,0.701954,0.417908,0.286463,-0.741480,0.606751
-0.780544,-0.437682,0.646552,0.857465,0.392396,-0.332835
-0.630925,0.446493,0.495553,0.973755,-0.124455,0.190557
0.750017,-0.483519,0.542155,-0.288009,0.749871,-0.595604
0.013549,-0.071247,0.030508,0.712501,-0.700033,-0.047922
-0.257310,-0.657690,0.321453,0.090681,-0.185498,-0.978452
0.210851,-0.576976,0.318744,0.003452,-0.987715,0.156230
-0.718845,-0.430497,0.688417,0.689313,0.328216,-0.645850
-0.461707,-0.365412,0.507041,0.335267,0.570310,0.749895
0.332851,-0.599842,0.297146,-0.418304,-0.907645,0.034676
0.213935,-0.132136,-0.194436,-0.170675,0.930117,0.325195
0.421413,-0.679140,0.537154,0.079359,-0.660569,0.746559
0.242602,0.412770,-0.975166,0.015653,0.134307,0.990816
0.306218,-0.529513,0.394902,-0.732793,0.667905,0.130070
0.040242,0.360902,-0.968029,0.084048,0.245347,0.965785
0.461011,-0.542835,0.837373,0.299607,0.903916,0.305239
0.941850,-0.130667,-0.036422,0.446523,-0.481732,0.754024
0.650928,-0.354661,0.223047,0.907890,0.352257,-0.227268
-0.402571,-0.624492,0.678106,0.421853,-0.830031,0.364811
0.336048,-0.553586,0.837373,0.469491,0.802318,0.368597
0.111357,-0.218513,0.897801,-0.519139,0.523018,0.675978
0.517358,-0.891386,0.448687,-0.117539,0.623598,-0.772858
0.352098,0.010725,-0.957454,0.088783,0.214823,0.972609
-0.306796,-0.267917,0.682642,-0.366330,-0.049060,0.929191
-0.519275,-0.056509,0.840005,0.916408,0.272511,0.293144
-0.345933,0.403750,0.416190,-0.326689,0.808073,-0.490196
-0.009418,-0.029448,0.609286,0.952671,0.294170,0.076694
0.155087,0.184214,0.329814,0.736604,0.494194,-0.461722
-0.129674,-0.032070,0.712399,0.004393,-0.192676,0.981253
0.237253,-0.750885,-0.637619,-0.367071,0.922793,-0.117099
-0.056810,-0.492644,0.753365,0.946395,0.096644,0.308215
-0.528755,-0.031021,0.875955,-0.308637,-0.414962,0.855891
-0.419199,-0.445863,0.693867,0.849049,-0.526052,-0.048848
0.069083,-0.148813,0.568413,0.951539,0.228946,-0.205322
-0.902948,-0.375692,0.611717,0.456892,0.852126,-0.255210
0.459964,-0.535072,0.664295,0.937367,-0.019763,0.347782
0.455954,0.377685,0.548208,0.032060,0.952986,-0.301314
0.027912,-0.334050,0.722741,0.825264,-0.557299,-0.091413
-0.514625,-0.176295,0.751957,-0.184596,0.857485,0.480254
0.146771,-0.100407,0.040014,0.754679,-0.601644,-0.261697
-0.105249,-0.724977,0.705293,0.987147,-0.032126,0.156550
0.254346,0.578235,-0.982427,0.070242,0.267585,0.960970
0.042858,-0.354976,0.605478,0.849929,-0.526801,-0.010067
0.438449,0.091386,0.542697,0.678093,-0.075955,0.731041
0.007909,-0.001652,0.860473,-0.658896,0.707946,-0.254300
-0.325057,-0.087137,0.583307,-0.440382,0.836651,0.325697
0.545794,-0.518448,0.430589,0.460787,0.549735,-0.696754
0.108394,-0.284384,0.919461,0.646949,0.728858,0.224104
0.116706,-0.110266,0.229317,-0.495637,0.861210,0.112525
-0.569691,-0.443713,0.640452,-0.500079,0.805380,0.318253
0.184105,-0.742127,-0.878742,0.990276,0.139118,-0.000758
-0.030237,0.777213,0.510385,-0.215870,-0.920254,0.326393
-0.529975,-0.743700,0.698620,0.835230,0.093939,0.541817
-0.098797,-0.079953,0.533995,0.111527,-0.213064,0.970652
0.373670,0.265347,0.596993,-0.230597,0.959406,-0.162372
-0.385009,-0.047961,0.707305,-0.015378,-0.680611,0.732484
-0.853231,0.036423,0.634894,0.593208,-0.269556,-0.758580
0.949992,-0.150282,-0.029316,0.446523,-0.481732,0.754024
0.458917,-0.517923,0.847498,0.155959,0.920878,0.357296
0.372335,0.158831,0.828455,0.440880,0.810397,-0.385852
-0.038436,-0.079428,0.475085,-0.498469,-0.722593,-0.478946
-0.469267,-0.177920,0.793558,0.939641,0.267630,0.213188
-0.033900,-0.309034,-0.127381,-0.842844,0.538096,0.008126
0.016399,-0.265189,0.714257,0.627961,0.638816,-0.444499
-0.316741,0.014029,0.816023,0.858007,0.507711,0.077803
0.184861,-0.125213,-0.600508,0.195513,-0.948578,0.248945
0.197535,-0.069883,0.810542,-0.302206,0.851333,-0.428841
-0.270336,0.180963,0.510725,0.790107,-0.577110,0.206579
0.215621,-0.106804,0.495289,-0.151550,-0.583127,0.798120
0.747576,-0.335046,0.680397,-0.494910,0.245243,0.833618
0.100600,-0.806634,0.624459,-0.290223,-0.235290,0.927582
0.167122,-0.748630,0.639941,0.392677,0.009032,0.919632
-0.160666,-0.496158,0.292160,0.345025,0.478959,0.807190
-0.246261,-0.064639,0.861835,-0.640249,0.174049,0.748190
-0.906728,-0.385761,0.549989,0.968706,0.191293,-0.158165
0.510963,0.021948,0.656012,-0.169176,-0.057707,0.983895
0.265512,0.339190,-0.972797,0.023702,0.178173,0.983714
-0.243646,0.818906,0.517305,0.476178,-0.426154,0.769186
0.086935,-0.114986,-0.945084,-0.774143,-0.147392,0.615612
-0.327499,-0.106123,0.542031,-0.430122,0.902383,0.026456
-0.462232,0.277934,0.477593,-0.471813,0.069427,-0.878961
0.187476,0.777632,-0.992150,0.076211,0.140765,0.987105
-0.084490,-0.703999,0.750548,-0.594555,-0.755539,-0.275071
-0.127637,-0.090442,0.214826,0.311087,0.950153,0.020832
0.030471,0.454412,0.565332,0.165519,0.886710,0.431682
0.152584,-0.736672,-0.329396,-0.151821,0.987999,-0.028426
0.408154,0.503239,0.553317,-0.656466,0.577544,0.485278
0.218993,0.525738,0.151008,0.571039,-0.283992,-0.770236
-0.234574,-0.398033,0.493726,-0.465112,0.124693,0.876426
-0.306679,0.000236,0.847344,0.339980,0.787108,-0.514660
0.633136,-0.083939,0.507273,0.281627,0.778673,-0.560673
-0.254286,-0.895424,0.537990,0.348980,-0.183474,-0.918994
0.118569,-0.133656,0.589113,-0.439374,0.854610,-0.276753
-0.137522,-0.579074,0.643146,0.475498,0.791819,-0.383307
-0.730185,-0.114724,0.738704,0.861096,-0.090888,-0.500253
0.219341,0.094376,0.329396,0.805979,-0.088357,-0.585312
0.028377,0.101088,0.768755,0.855819,0.472025,0.211581
-0.253008,0.161820,0.505369,-0.793291,0.494329,-0.355426
0.168520,-0.096578,0.256365,0.231750,-0.972734,-0.008970
-0.354423,0.481736,0.764822,0.214678,0.971970,0.095850
-0.641040,0.228950,0.233482,0.267068,-0.171149,0.948358
-0.166132,-0.359538,0.843365,0.949400,0.313353,0.021210
0.201024,-0.195332,0.446319,-0.424396,0.895863,-0.131594
0.221552,-0.042035,-0.658366,-0.122379,0.982957,-0.137181
0.275688,-0.247305,0.827619,0.042671,0.026681,0.998733
-0.386926,-0.053783,0.251690,-0.371211,0.309193,-0.875558
0.288191,-0.326655,0.891035,0.662499,-0.690230,-0.290994
0.690413,-0.252445,0.455422,0.034695,-0.942146,0.333402
0.347505,-0.365255,0.850734,0.303941,-0.843914,0.442074
0.593303,-0.647725,0.459448,0.792959,-0.206459,-0.573228
-0.249172,-0.356497,0.379853,0.136114,0.746951,0.650797
0.810257,0.054255,0.456305,0.907218,0.002997,-0.420650
-0.617491,-0.092749,0.774453,0.581163,0.808802,0.089940
0.599756,0.188253,0.522028,-0.154302,-0.980687,0.120184
0.286736,0.489236,-0.980105,-0.012625,0.194554,0.980811
0.320056,-0.418487,0.867703,0.966789,0.094415,0.237495
-0.287318,-0.751724,0.466972,-0.646219,-0.004767,-0.763137
-0.413154,-0.460810,0.674823,0.744808,-0.042587,0.665919
0.087226,0.232621,-0.964638,0.042319,0.144600,0.988585
-0.598070,-0.310712,0.653520,-0.461734,-0.547679,-0.697746
0.149851,-0.720676,0.035261,0.838851,-0.544274,0.009791
0.130895,0.075967,0.873447,0.847717,0.191926,0.494510
0.030528,-0.297968,0.947809,0.288947,0.128617,-0.948666
-0.910973,-0.196328,0.638858,-0.689226,-0.150778,0.708684
-0.519857,0.345850,0.671758,-0.675401,0.528749,-0.514060
-0.229981,0.327180,0.449508,-0.126423,0.018827,0.991798
-0.330640,0.331323,0.732294,0.536793,0.682954,-0.495406
0.096703,-0.112573,0.120074,0.989066,-0.144410,-0.029916
0.527534,0.190717,0.503263,0.509801,0.843152,0.170871
0.184800,-0.712704,-0.153191,-0.179434,0.964656,0.192984
0.106417,-0.140999,0.328947,0.533719,-0.811066,0.239406
-0.263127,0.431179,0.772099,-0.681080,-0.660340,0.316355
-0.605339,0.380884,0.356846,-0.519631,0.713570,0.469896
0.131421,-0.340920,0.626286,-0.392525,-0.919358,0.026544
-0.635226,0.090809,0.697366,0.890894,0.338109,0.303300
-0.988778,-0.228740,0.467561,0.996676,0.075417,-0.030817
0.197535,0.111263,-0.958554,0.134937,0.197090,0.971055
-0.035004,-0.439989,0.757886,0.423300,-0.788153,0.446803
0.344481,0.083886,0.800045,-0.711193,0.385283,0.588015
0.464326,0.312967,0.354771,0.991864,-0.031090,-0.123446
-0.025645,-0.569424,0.716347,0.866438,0.222381,0.447026
0.358611,0.070408,0.802058,0.878151,-0.336912,-0.339619
0.179799,0.553272,0.569156,-0.600373,0.643515,-0.474807
0.188172,-0.066160,-0.015072,0.830595,-0.555791,0.034760
0.299471,0.058241,0.714923,-0.385349,0.893574,-0.230286
-0.104089,-0.592552,0.530435,0.987830,-0.102757,-0.116761
0.068384,-0.038101,0.391588,0.978032,0.174905,-0.113414
0.384718,-0.498256,0.676511,-0.746523,-0.656523,-0.108077
0.101530,0.810043,-0.990819,0.009283,0.118933,0.992859
-0.085129,-0.386915,0.411700,0.676806,-0.714735,-0.176316
-0.601094,-0.314698,0.691637,0.782784,0.379860,0.492906
-0.601559,-0.249823,0.653969,-0.580706,-0.222652,-0.783075
-0.447518,-0.730064,0.504873,-0.462578,0.030615,-0.886050
0.251965,-0.230733,-0.948521,0.057103,0.047598,0.997233
0.599699,-0.398662,0.351148,0.211589,-0.060033,0.975513
-0.349305,0.272375,0.690166,-0.405161,-0.115163,-0.906963
-0.591206,0.592186,0.424597,-0.748131,0.552869,0.366928
0.012910,0.083624,0.728903,0.778396,-0.542913,0.315191
0.393385,-0.122276,0.583601,-0.630134,0.119569,0.767225
0.514569,0.105861,0.536566,-0.862341,0.436602,-0.256412
0.248359,-0.560246,0.331052,-0.132020,-0.983194,0.126094
0.192303,0.539845,-0.985106,0.028959,0.163673,0.986089
-0.068614,0.607133,0.479761,-0.150575,-0.312993,0.937743
-0.087340,-0.689891,0.331548,0.174267,0.156869,0.972123
-0.283769,0.176400,0.528670,0.946271,-0.239833,0.216911
0.071816,-0.210856,0.661028,0.816122,-0.422922,0.393805
-0.353493,-0.571260,0.662716,-0.560167,-0.803798,-0.200304
0.568878,-0.073554,0.708776,0.622704,0.599134,-0.503268
0.637381,-0.246938,0.362791,-0.616291,0.342815,-0.708987
-0.285281,0.369241,0.694300,0.013513,-0.919356,0.393194
0.259699,-0.675049,0.664109,0.536938,0.833486,-0.130379
-0.283830,0.227901,0.682750,0.930955,0.262313,-0.253999
0.421122,-0.365045,0.910992,-0.417390,-0.625782,-0.658926
-0.175264,-0.686534,0.250497,-0.555464,0.441742,0.704503
-0.066520,-0.583584,0.789439,-0.114396,-0.980193,-0.161666
-0.325522,-0.730798,0.589995,-0.600402,0.194411,-0.775707
-0.121472,0.522644,0.438500,-0.444495,0.853551,-0.271800
0.710007,-0.409991,0.551119,0.064910,0.342543,0.937257
-0.611500,0.562974,0.490382,0.939566,0.169843,-0.297270
0.737223,-0.141733,0.512072,-0.301901,-0.827603,0.473211
0.341166,-0.068625,0.679391,0.829928,0.522010,-0.196784
-0.138686,-0.160718,0.828393,0.750629,0.471534,0.462830
0.426705,0.387754,0.557668,-0.251696,-0.860082,0.443743
0.634066,-0.217149,0.783324,0.661009,-0.382493,0.645574
0.442229,0.237761,0.706810,0.786678,0.517261,-0.337016
0.111418,0.315484,0.607831,-0.639055,0.447068,0.625891
0.603827,0.110161,0.063671,0.268661,-0.392280,0.879737
-0.570216,0.716166,0.313712,-0.421807,0.604105,-0.676118
0.846370,0.000918,0.484436,0.936767,0.348476,0.032108
0.203700,-0.131611,-0.887536,0.825870,0.502455,-0.255885
-0.120603,-0.786967,0.335310,-0.129744,0.223854,0.965948
-0.066056,-0.387911,0.142941,-0.844101,0.536113,-0.008723
-0.447230,-0.264874,0.511794,0.911852,-0.317269,0.260510
-0.196197,-0.380674,0.648689,0.768593,-0.182690,-0.613099
0.191487,-0.698440,0.530295,-0.309997,0.944581,0.108023
0.496191,0.009309,0.662391,0.665563,0.731639,0.147414
0.142178,0.437630,-0.976033,0.100413,0.156662,0.982535
-0.002674,-0.778628,-0.201805,-0.282644,0.952768,-0.111111
-0.131187,-0.470460,0.754047,-0.218698,0.725177,-0.652908
0.619003,-0.128779,0.821922,0.418159,-0.885440,0.202826
0.201141,-0.773594,-0.578043,0.945572,0.165118,-0.280410
0.546376,-0.343595,0.779252,-0.302977,0.840757,0.448701
0.649068,-0.375692,0.531766,0.636183,0.682858,-0.359132
0.791362,-0.303369,0.667965,0.236562,0.578182,0.780861
0.046755,-0.331585,0.942049,-0.082943,-0.433784,0.897191
-0.394660,0.473817,0.180176,-0.265852,-0.229614,-0.936269
-0.149500,-0.102661,0.698465,-0.064432,0.720798,-0.690144
-0.182997,-0.276885,0.489050,0.911207,-0.273371,-0.308171
0.417516,0.331375,0.661152,0.639458,0.697944,0.322440
-0.119382,0.035637,0.877565,-0.624043,-0.487855,-0.610383
-0.748559,-0.420847,0.688417,0.782434,0.342506,-0.520084
0.375533,0.425252,0.583539,0.109372,0.701889,0.703839
0.580218,0.051475,0.763166,-0.505824,0.562342,-0.654151
0.147935,-0.062383,-0.738317,-0.086308,0.992597,-0.085452
0.108972,0.407683,0.438748,-0.709206,-0.411264,0.572616
0.226262,-0.212534,-0.949419,0.203987,-0.024189,0.978675
0.292436,-0.030707,-0.951447,0.192655,0.277989,0.941066
0.340992,0.316061,0.148933,0.109446,-0.885376,0.451809
-0.158224,-0.216258,0.423111,-0.450911,-0.041453,-0.891606
0.450836,0.034011,0.394638,0.499564,0.346906,0.793783
0.329127,-0.824046,0.632820,0.854913,-0.278834,-0.437464
-0.527417,0.353245,0.669420,-0.675401,0.528749,-0.514060
0.174451,-0.105126,0.885461,0.851085,0.117168,0.511786
0.777463,-0.271797,0.663924,0.266964,0.642038,0.718692
-0.093445,-0.403015,0.846384,0.885384,-0.423476,-0.191737
0.200094,0.598112,0.303261,-0.708518,-0.179971,-0.682359
-0.447986,0.768664,0.319688,-0.508308,0.726479,-0.462440
0.263770,0.114986,0.770830,-0.768570,0.639712,-0.008275
0.089260,-0.154739,0.073905,-0.470605,0.880135,-0.062404
0.581208,-0.640435,0.548456,0.147199,0.818932,-0.554692
0.217364,0.089603,0.181539,0.183136,0.969388,-0.163551
0.123918,-0.157467,0.794440,0.959198,-0.114651,-0.258446
0.220736,-0.496211,-0.932234,0.091567,0.249545,0.964024
-0.271964,-0.216310,0.706887,-0.110158,0.107812,0.988049
0.121302,0.325921,-0.967348,0.125218,0.171017,0.977279
0.733908,-0.771338,0.469821,0.643918,0.000455,-0.765095
-0.427284,0.751777,0.310894,-0.407000,0.775625,-0.482448
-0.517358,-0.701062,0.653489,0.956813,0.006259,0.290636
-0.135488,-0.239701,0.860271,-0.587859,-0.645560,0.487518
0.542944,-0.605769,0.427972,0.568267,-0.168466,-0.805414
-0.435308,0.795044,0.499207,-0.328869,0.430414,0.840588
0.748619,-0.429448,0.558984,0.744794,0.185629,0.640956
0.360414,-0.464062,0.557173,0.434612,0.508373,0.743418
0.379891,-0.053625,0.703079,0.308226,0.645468,0.698833
-0.230503,-0.625855,0.618375,0.253584,0.183196,0.949808
-0.489618,-0.255487,0.665410,0.792317,-0.382666,-0.475185
-0.718962,-0.182431,0.652993,0.250575,-0.058394,0.966334
-0.104958,-0.067366,0.899163,0.231197,0.546597,0.804848
0.373322,-0.345169,0.859451,0.349030,0.749487,-0.562536
0.070421,0.321358,-0.964065,0.104992,0.209025,0.972258
-0.325287,0.062803,0.532757,-0.514743,0.675217,-0.528319
-0.129266,-0.792211,0.619876,-0.805527,0.588003,-0.073341
-0.155782,-0.735466,0.436611,0.745307,-0.098201,0.659450
0.619993,-0.186049,0.768987,-0.576128,-0.213266,-0.789046
-0.438215,-0.166015,0.087731,-0.098276,-0.120863,0.987793
0.324244,-0.411249,0.949976,0.728302,0.585677,0.355751
-0.275918,0.367458,0.714381,-0.221023,0.966118,0.133288
-0.126590,-0.385446,0.827371,0.952064,-0.230001,-0.201679
0.209921,0.864377,-0.991810,-0.172865,-0.156559,0.972423
0.140840,-0.089708,-0.153965,0.318565,0.927770,0.194316
-0.526543,-0.929671,0.501095,0.858138,-0.487516,-0.161017
-0.028260,-0.284909,0.930035,0.324442,0.921679,-0.212711
-0.053964,-0.426196,0.798156,-0.679026,0.545168,-0.491646
-0.132173,-0.115143,0.532246,-0.144653,0.196876,0.969699
-0.265626,0.286797,0.450236,0.099420,-0.015850,-0.994919
-0.444437,0.820952,0.483662,0.151811,0.174760,0.972837
-0.084316,-0.360483,-0.118572,-0.852750,0.515904,0.081613
0.001397,0.386285,0.549277,0.188586,-0.979074,-0.076484
0.442637,-0.328334,0.910790,-0.663294,-0.405482,-0.628988
0.645636,-0.433539,0.548673,0.701594,0.670423,0.241451
0.415131,0.216153,0.130617,0.478107,-0.245725,0.843227
-0.846892,-0.385184,0.630048,0.667677,0.634192,-0.389883
0.070886,-0.026668,-0.167233,-0.625659,-0.769584,-0.127637
-0.153862,0.734942,0.479885,-0.302578,-0.475587,0.825992
0.276735,0.065583,-0.958801,0.103426,0.173721,0.979349
0.272085,-0.034692,0.653659,-0.395253,0.870492,-0.293289
0.200328,0.034902,-0.954838,0.135849,0.223601,0.965167
0.732630,-0.268126,0.674885,-0.167105,0.343346,0.924224
0.541784,-0.103658,0.666633,-0.701595,0.490536,0.516856
-0.643485,-0.017700,0.827077,0.832564,-0.551781,0.048732
-0.151012,0.184791,0.454137,-0.144666,-0.006763,0.989457
0.218120,0.600210,0.566059,-0.589426,-0.580981,-0.561283
0.143864,0.382720,0.480380,0.142679,-0.987508,0.066865
0.220736,-0.363262,0.900170,-0.143106,-0.986782,0.076044
0.251905,0.406634,-0.974996,-0.013560,0.123514,0.992250
-0.253591,-0.259682,0.440373,-0.542427,-0.380235,-0.749129
-0.561900,-0.264980,0.792691,0.082429,-0.923563,-0.374483
0.259929,-0.592238,0.299066,-0.069343,-0.954182,0.291082
-0.250102,-0.059237,0.400537,0.778565,-0.583374,0.231325
-0.133220,-0.294034,0.950565,-0.231661,0.885899,0.401892
-0.054833,-0.290730,0.909413,-0.118271,-0.942285,-0.313226
0.219806,-0.081736,-0.933766,-0.325223,-0.437379,-0.838409
-0.004186,0.049850,0.793511,0.991365,-0.116914,-0.059389
0.152819,0.097732,0.853211,0.695150,0.093618,0.712743
