0.231502,0.023414,-0.943217,-0.164815,0.074025,0.983543
0.274164,0.025410,-0.934541,-0.138525,-0.348207,0.927126
0.286952,0.024233,-0.897953,-0.282823,-0.506355,-0.814626
-0.712929,-0.084651,0.017703,0.967424,-0.243788,-0.068249
0.314826,0.024863,-0.876059,-0.084889,0.995026,0.052126
0.382916,0.029397,-0.887726,0.273272,-0.755850,-0.594990
0.019975,0.082932,-0.975781,-0.365222,0.343266,0.865322
0.069067,0.085558,-0.973048,0.256941,-0.347974,-0.901607
0.115574,0.087731,-0.966514,-0.012201,0.118537,0.992875
0.151061,0.089091,-0.951598,0.283989,-0.235138,-0.929548
0.202666,0.091900,-0.949124,0.338256,-0.269202,-0.901728
0.246732,0.094161,-0.939931,-0.110167,-0.131852,0.985129
-0.776218,-0.019340,0.003969,-0.628754,-0.765943,0.134161
0.291316,0.096334,-0.931218,0.674678,-0.137473,-0.725197
-0.739544,-0.017526,0.013383,-0.628754,-0.765943,0.134161
0.321555,0.097241,-0.911724,0.051420,-0.059831,0.996883
-0.749454,-0.021153,0.063336,-0.712238,-0.701809,0.013415
0.378706,0.100591,-0.915601,0.908606,-0.332743,-0.252422
-0.703169,-0.018704,0.065958,0.868665,0.326331,0.372733
0.445321,0.105031,-0.925828,0.766716,0.341757,0.543460
0.499070,0.108387,-0.926640,0.648221,0.148147,-0.746902
-0.679144,-0.020606,0.128390,0.859749,0.458138,-0.225701
0.539291,0.110106,-0.913755,0.285570,-0.256828,-0.923303
0.229431,0.074418,-0.602924,0.887189,0.417079,0.197335
0.596735,0.113727,-0.915527,-0.175885,0.190924,0.965719
0.222481,0.070973,-0.551753,-0.585404,0.082101,0.806574
0.641983,0.115723,-0.907035,-0.088396,0.503785,0.859294
0.253830,0.071786,-0.534843,-0.112274,0.573848,0.811229
0.682352,0.117443,-0.896070,0.113408,0.002484,-0.993545
0.301740,0.074595,-0.531964,0.462865,0.739780,0.488345
0.730628,0.120157,-0.891824,-0.330091,-0.019697,0.943744
0.781128,0.122966,-0.887541,0.370098,0.203744,-0.906375
0.324289,0.072239,-0.462664,0.517447,-0.793624,0.320016
0.839164,0.126770,-0.890717,0.250239,-0.381522,-0.889843
-0.244191,0.009465,0.052039,0.010681,0.686880,0.726692
0.303364,0.067352,-0.400971,0.913428,-0.266611,0.307518
-0.203451,0.011279,0.060383,-0.008846,0.484466,0.874765
0.296564,0.063996,-0.351387,-0.821594,-0.564344,-0.080617
0.939790,0.131757,-0.880896,-0.164535,0.290195,0.942717
-0.116061,0.018250,0.030256,0.169624,0.401827,0.899868
0.292056,0.061187,-0.304166,-0.036264,0.735015,0.677081
0.182337,0.047421,-0.173137,-0.075042,0.960074,-0.269494
0.179305,0.044977,-0.130088,-0.019580,-0.869975,0.492706
0.286433,0.053674,-0.174466,0.819179,-0.557185,0.135981
0.044153,0.026135,0.061158,0.138107,0.990414,-0.002498
0.095389,0.029032,0.061232,0.270630,0.956114,-0.112273
-0.350358,-0.019522,0.457459,0.044072,0.171093,0.984269
-0.439079,-0.030845,0.567075,-0.070003,0.696580,0.714055
-0.406621,-0.029668,0.578409,-0.326821,0.825046,0.460963
0.190320,0.030121,0.145927,0.966726,0.063765,0.247739
0.143669,0.020700,0.261487,0.494210,0.857387,0.143679
0.187436,0.023143,0.267431,0.080701,-0.994618,-0.064981
0.186845,0.020700,0.307489,-0.288926,0.952144,-0.099713
0.168141,0.016625,0.361319,-0.061847,-0.996986,-0.046845
0.191060,0.016713,0.381182,0.413291,0.833874,-0.365847
0.139973,0.009559,0.457090,0.190164,-0.870655,0.453650
0.154905,0.008741,0.484041,-0.247259,0.235495,0.939896
0.146625,0.005933,0.527053,-0.084413,0.965721,-0.245474
0.201782,0.009465,0.523472,0.406679,0.908792,0.093321
0.293310,0.138187,-0.231508,0.544569,0.296588,-0.784526
0.010882,0.103040,0.079212,-0.730110,-0.320994,0.603243
-0.431318,0.053491,0.472891,-0.745373,-0.666648,-0.000059
-0.097875,0.084651,0.284599,-0.089404,-0.992004,0.089078
-0.204115,0.070885,0.408318,0.511050,0.197866,0.836467
-0.139278,0.075501,0.396541,-0.419362,-0.843686,0.335156
0.003121,0.088185,0.324214,-0.691718,-0.610955,-0.385046
0.149729,0.096970,0.325506,-0.060650,0.823879,0.563511
0.035724,0.082838,0.450739,0.302657,0.852501,0.426194
-0.004348,0.076226,0.519928,-0.431646,-0.894341,-0.117623
0.128290,0.081478,0.569216,-0.607175,-0.794461,-0.013042
0.145740,0.080848,0.593989,-0.469570,-0.876420,0.106733
0.171913,0.081572,0.610050,-0.536664,-0.810730,0.233899
0.137460,0.075684,0.672962,0.125753,0.826358,0.548924
0.157419,0.075684,0.695113,-0.439299,0.856885,0.269748
0.188028,0.076773,0.709586,-0.176818,-0.984235,0.004072
0.066703,0.168352,-0.980986,0.228559,-0.153248,-0.961393
0.114315,0.170613,-0.975005,0.663792,0.256290,-0.702635
0.153353,0.172427,-0.963708,0.346255,-0.327333,-0.879182
0.185663,0.173151,-0.946060,0.012563,0.245494,0.969317
0.237932,0.176324,-0.944066,0.065380,-0.092927,-0.993524
-0.865680,0.051042,0.069539,-0.359569,0.621211,-0.696281
0.289764,0.179493,-0.943549,-0.225796,0.115577,0.967294
0.328504,0.180853,-0.929520,-0.108235,0.456497,0.883117
-0.752631,0.058561,0.056728,0.257400,0.912358,-0.318351
0.385507,0.184563,-0.931440,-0.142879,0.610572,0.778966
-0.653711,0.066805,0.013900,-0.597337,0.649959,-0.469831
0.439405,0.187554,-0.930590,0.056431,0.408988,0.910793
-0.644171,0.065627,0.046685,0.758747,-0.385982,0.524710
0.488348,0.190362,-0.927267,-0.103344,0.699142,0.707475
-0.577999,0.070608,0.030773,-0.213147,0.854962,-0.472873
0.143592,0.149963,-0.586864,0.790237,0.467095,-0.396672
0.535224,0.192988,-0.922025,-0.137888,0.245159,0.959627
-0.767788,0.047421,0.235458,-0.159694,0.695738,-0.700319
0.201335,0.153679,-0.590002,0.012653,-0.993764,0.110788
0.583279,0.195526,-0.915305,0.233035,-0.561989,-0.793639
-0.383701,0.087007,-0.050377,0.025915,-0.999560,0.014399
0.639618,0.198877,-0.917853,-0.004581,0.131143,0.991353
0.245549,0.153043,-0.538498,-0.469865,-0.404256,0.784732
0.685010,0.201050,-0.909287,0.202496,-0.350154,-0.914542
-0.590864,0.059379,0.208802,0.372984,0.365920,-0.852634
0.733069,0.203587,-0.902789,0.328462,-0.292142,-0.898201
-0.561884,0.060192,0.225896,0.372098,0.421737,-0.826850
0.783344,0.206396,-0.898101,-0.243232,0.416217,0.876129
0.830144,0.209022,-0.892341,-0.140567,-0.117117,0.983120
-0.079243,0.105125,-0.052519,-0.123465,-0.736421,0.665162
0.352678,0.151865,-0.408392,-0.676066,0.245565,-0.694717
-0.033995,0.107751,-0.049122,-0.369366,0.810776,0.454104
0.017610,0.110919,-0.049085,-0.061367,0.314829,0.947162
0.092582,0.245075,-0.982463,0.419575,-0.231705,-0.877650
0.135240,0.247160,-0.971978,-0.411563,0.201663,0.888790
0.173317,0.248243,-0.957505,-0.165531,0.092499,0.981857
0.229358,0.251599,-0.958797,-0.073045,0.178129,-0.981292
0.265657,0.253048,-0.944731,-0.184421,-0.150463,0.971262
0.323847,0.256940,-0.949715,-0.155073,0.363300,0.918676
0.373751,0.259749,-0.945358,-0.645048,0.085819,-0.759307
-0.584804,0.149057,-0.069724,-0.473224,-0.479843,-0.738789
0.425578,0.262646,-0.944583,0.257229,-0.151638,-0.954379
-0.682397,0.135561,0.057614,0.667556,-0.662082,0.340611
0.472527,0.265095,-0.937494,-0.098078,0.244959,0.964560
-0.493641,0.153950,-0.061786,0.149453,0.393250,0.907204
0.525243,0.267904,-0.935427,-0.205238,0.192389,0.959616
0.574186,0.270712,-0.930000,0.233239,-0.052410,-0.971006
0.619655,0.273068,-0.923317,-0.238555,-0.207301,0.948745
-0.724761,0.120705,0.258201,-0.372034,0.639614,-0.672670
0.203998,0.223972,-0.526979,0.920226,0.226693,0.319051
0.663499,0.274970,-0.915416,-0.036552,-0.006213,0.999312
-0.639808,0.127677,0.227852,0.251260,0.534358,-0.807050
0.718137,0.278320,-0.914530,0.478774,0.017196,-0.877770
0.756065,0.279951,-0.901645,-0.358615,0.028963,0.933036
-0.555820,0.131934,0.238559,0.374598,0.586935,-0.717762
-0.111404,0.173422,-0.005889,0.884169,0.250688,0.394208
0.256050,0.208839,-0.223496,0.853037,0.178927,0.490217
-0.200198,0.156393,0.187167,0.864026,-0.500388,-0.055419
-0.004790,0.175053,0.070167,0.821259,0.510805,0.254188
-0.453050,0.121700,0.510181,0.605222,0.582486,0.542601
-0.167964,0.147879,0.358956,-0.864501,0.032060,-0.501607
-0.180460,0.143981,0.408170,-0.372862,0.736627,-0.564229
-0.084640,0.152136,0.370660,0.553970,0.240516,0.797037
-0.068228,0.151594,0.397021,-0.609678,-0.474404,-0.635007
-0.228144,0.132116,0.560429,0.042973,0.952893,0.300248
-0.196132,0.133023,0.573831,0.037518,-0.963178,-0.266235
0.038016,0.155669,0.430175,-0.869483,-0.277291,-0.408790
-0.112067,0.137463,0.582286,-0.576789,-0.793079,-0.195807
0.123854,0.157936,0.477137,0.484881,0.195055,-0.852552
0.137974,0.157206,0.504753,0.901874,0.417369,-0.111472
-0.107261,0.129037,0.727271,-0.699814,-0.447347,-0.556903
0.003414,0.138369,0.681343,-0.377011,0.709264,0.595657
0.101824,0.146336,0.643942,-0.325198,-0.825298,0.461659
0.211985,0.153585,0.635377,0.937656,0.264677,-0.225271
0.173168,0.147426,0.699728,0.915676,-0.393703,-0.080842
-0.294244,0.205489,0.311993,0.405427,-0.904069,0.135232
-0.387253,0.192900,0.424932,0.407490,0.546135,-0.731907
-0.349988,0.194531,0.434347,0.462400,0.504752,-0.728980
-0.312949,0.196162,0.444647,0.776095,0.617533,0.127785
-0.014844,0.223696,0.286593,0.856769,0.505549,0.101824
-0.002128,0.222612,0.314763,0.190131,0.686154,0.702170
-0.446990,0.172156,0.700652,-0.527382,-0.549872,-0.647696
0.019384,0.220257,0.374979,-0.244194,-0.185526,0.951814
-0.195834,0.194620,0.580255,0.114493,-0.970075,0.214117
-0.206114,0.191175,0.626110,0.409811,0.602831,0.684581
0.117424,0.223424,0.415997,-0.068642,0.554911,0.829073
-0.027416,0.198788,0.673441,0.636248,-0.676854,0.370213
0.085484,0.208386,0.626184,0.790437,0.441174,0.424942
0.020936,0.199241,0.711949,0.228878,0.806708,-0.544828
0.225071,0.218443,0.597534,-0.717050,0.567526,-0.404665
0.253979,0.219261,0.612043,0.899818,-0.323294,0.292932
0.174350,0.206307,0.743147,0.316733,-0.356370,0.879023
0.240225,0.208934,0.766406,0.779087,-0.561128,0.279570
0.099604,0.309027,-0.978476,-0.343737,0.129336,0.930117
0.156828,0.312742,-0.980432,-0.227883,0.359486,0.904897
0.192910,0.313826,-0.965812,-0.355763,-0.137143,0.924459
0.238230,0.316093,-0.957690,-0.433325,0.560226,0.705958
0.292791,0.319443,-0.957542,-0.063960,-0.025914,0.997616
0.342330,0.321981,-0.953370,-0.084049,0.016543,0.996324
0.390976,0.324790,-0.949900,-0.249476,0.186476,0.950257
0.431643,0.326327,-0.939414,0.186439,-0.036642,-0.981783
-0.659622,0.200148,0.046796,0.466843,-0.632614,0.617946
0.483393,0.329318,-0.936572,-0.460706,-0.337471,0.820892
0.065669,0.279498,-0.533515,-0.162519,-0.313311,0.935641
0.535667,0.332580,-0.935944,-0.385300,0.124478,0.914357
0.578473,0.334570,-0.924794,-0.318076,0.284516,0.904366
-0.546284,0.205218,0.076037,0.206828,-0.540755,0.815357
0.159269,0.284391,-0.522254,-0.254903,-0.650275,0.715659
0.632078,0.337473,-0.923206,-0.048945,-0.369398,-0.927981
0.221967,0.288377,-0.530118,-0.743626,-0.628422,0.228269
-0.619993,0.191722,0.220099,-0.150524,-0.566964,0.809873
0.147216,0.277502,-0.424305,-0.394574,-0.106161,0.912711
-0.286406,0.226598,-0.019143,0.235050,0.354047,-0.905209
-0.578816,0.191451,0.266545,0.445736,0.722315,-0.528753
-0.537557,0.193442,0.271492,-0.142334,-0.747442,0.648900
-0.194507,0.228771,0.029480,-0.736462,-0.499858,-0.455813
-0.104012,0.236290,-0.003083,0.924105,0.378469,0.052825
0.350981,0.286652,-0.376308,0.833149,-0.148873,0.532635
-0.247368,0.218084,0.155710,0.875477,-0.381155,-0.297088
0.326654,0.281400,-0.312880,0.944170,-0.267967,0.191665
-0.234872,0.217083,0.184656,0.846778,-0.473992,0.241453
0.238158,0.269170,-0.199793,-0.151767,-0.441875,0.884146
-0.161087,0.222612,0.163981,-0.872763,0.330047,-0.359659
0.131467,0.380498,-0.982057,-0.213901,0.032419,0.976317
0.175090,0.382494,-0.974341,-0.243017,0.143705,0.959318
0.223149,0.384937,-0.970279,0.254007,-0.137181,-0.957425
0.262259,0.386474,-0.956619,0.010611,0.590938,0.806647
-0.663246,0.276872,-0.100995,0.220215,0.362873,0.905444
0.313274,0.389554,-0.955253,-0.320810,0.341294,0.883516
0.366432,0.392728,-0.954293,-0.040107,0.303921,0.951853
-0.143565,0.330949,-0.464880,0.761623,0.188904,0.619875
0.418629,0.395536,-0.951893,0.198787,-0.247570,-0.948258
-0.117541,0.331220,-0.442285,0.983181,-0.056403,0.173704
0.465357,0.397891,-0.944731,-0.224205,0.385352,0.895118
-0.705537,0.261020,0.105241,0.617108,-0.348772,0.705362
-0.028670,0.338374,-0.475439,0.310186,-0.888388,0.338454
0.511046,0.400064,-0.938491,-0.027106,0.573938,0.818450
0.047479,0.344445,-0.497296,-0.330772,0.477200,-0.814168
0.564425,0.403326,-0.938713,-0.068398,-0.430007,-0.900231
0.112763,0.349067,-0.507744,-0.217380,-0.300971,0.928527
-0.185929,0.309663,-0.168817,0.483679,0.775762,0.405275
-0.121679,0.314191,-0.179635,0.389022,0.874134,0.290779
-0.221416,0.294807,0.028152,0.647391,0.505235,0.570634
-0.273838,0.286381,0.113105,0.085415,-0.690889,0.717897
-0.444327,0.264730,0.292278,0.537397,0.692886,0.480742
0.361035,0.354861,-0.366820,0.860763,0.298994,-0.411933
-0.316572,0.276601,0.228185,0.780327,0.041765,0.623976
0.304181,0.345893,-0.277399,0.919505,0.154485,0.361450
-0.049004,0.303681,0.051854,-0.723967,-0.492565,0.482961
-0.529944,0.247431,0.481051,0.747807,0.439583,0.497546
-0.402555,0.259207,0.416404,0.866192,0.236529,-0.440189
0.347059,0.342360,-0.185579,0.293119,-0.699221,0.652051
-0.379342,0.259478,0.435602,0.424989,0.331370,-0.842365
-0.337569,0.261651,0.441620,0.816278,0.271976,0.509626
-0.099351,0.282666,0.330084,0.565174,0.538409,0.625055
-0.418746,0.240547,0.695077,0.741374,0.131245,0.658133
-0.369654,0.243444,0.693231,-0.324052,-0.925826,-0.194514
-0.246848,0.254496,0.636115,0.829711,0.433287,0.351912
0.031365,0.270259,0.645456,0.947280,0.263284,0.182601
0.213388,0.280493,0.657566,0.836829,-0.544168,0.059980
0.221299,0.276418,0.724096,0.840274,-0.538784,-0.060427
-0.225558,0.377330,-0.162652,0.290367,0.956915,-0.000946
-0.350209,0.355226,0.066327,0.547687,0.523779,0.652453
-0.565950,0.327598,0.286814,0.358508,0.430704,-0.828231
0.287841,0.422257,-0.376272,-0.405002,-0.268194,0.874097
-0.422221,0.336113,0.288734,-0.367690,0.523301,-0.768740
0.233054,0.407766,-0.205479,0.962377,-0.025158,0.270550
-0.070443,0.370623,0.082498,0.953984,0.059966,0.293801
-0.388877,0.327051,0.457274,-0.710488,-0.219864,-0.668481
-0.089739,0.355314,0.297078,0.718654,0.673684,0.172299
0.211394,0.375970,0.257167,-0.444108,0.760743,-0.473326
0.081192,0.359029,0.396577,0.991262,-0.130461,0.019502
0.020715,0.337561,0.666094,0.901366,0.412596,0.131541
-0.142604,0.389377,0.737498,0.924790,0.207081,0.319189
-0.006640,0.401607,0.672555,-0.288194,-0.438814,0.851109
0.039866,0.404139,0.673183,0.347349,0.183520,-0.919603
0.198158,0.456226,-0.978587,-0.695366,-0.098200,0.711915
0.249985,0.459217,-0.976187,0.394330,-0.182682,-0.900628
0.299890,0.462025,-0.971904,0.579430,-0.403143,-0.708334
0.353124,0.465376,-0.972495,-0.153586,0.293138,0.943653
0.399112,0.467637,-0.966514,0.116290,0.371490,0.921125
0.448646,0.470087,-0.961862,0.096250,0.348418,0.932384
-0.470722,0.360296,-0.125289,0.075164,0.540407,0.838040
0.494043,0.472442,-0.955290,-0.137496,0.473200,0.870159
-0.739842,0.326421,0.148400,0.891326,0.002079,-0.453357
-0.466805,0.355314,-0.042403,0.092753,-0.941353,0.324424
0.071879,0.417635,-0.501357,0.013146,-0.070906,0.997396
-0.288919,0.372890,-0.150616,0.398838,0.815315,0.419749
0.238302,0.528963,-0.985047,-0.002259,0.390023,0.920802
0.280892,0.530776,-0.976445,-0.137885,0.370570,0.918513
0.338630,0.534491,-0.978956,-0.408293,0.013789,0.912747
0.388760,0.537206,-0.974082,-0.301839,-0.118843,0.945923
-0.403886,0.434757,-0.156191,-0.355278,-0.555313,-0.751934
-0.385330,0.433851,-0.129017,0.299752,0.487311,0.820169
-0.458673,0.422622,-0.025309,-0.143522,-0.656092,0.740908
-0.432130,0.422622,-0.005298,0.036102,-0.570771,0.820315
-0.718033,0.386568,0.277436,-0.313827,-0.766822,0.559907
-0.447951,0.415285,0.092245,0.607681,0.506761,0.611488
-0.352799,0.423888,0.053442,0.210835,0.746892,0.630635
-0.287218,0.428327,0.039117,-0.676362,0.502800,-0.538262
-0.425032,0.401513,0.315206,0.189402,-0.169375,0.967181
-0.135582,0.431678,0.120969,0.946295,-0.250651,-0.204206
-0.355164,0.398704,0.415185,0.821924,0.346215,0.452300
-0.281230,0.404686,0.393735,-0.636041,-0.680636,-0.363576
-0.028522,0.427509,0.272969,0.104324,-0.113046,0.988098
0.523690,0.487027,-0.120378,-0.463033,-0.391384,0.795248
-0.537557,0.365189,0.747836,-0.663823,0.306468,-0.682214
-0.169666,0.404139,0.497923,0.603738,-0.443012,0.662752
-0.351540,0.381040,0.676912,-0.535122,0.117470,-0.836568
0.105962,0.432131,0.323143,0.791356,-0.440933,-0.423478
0.111801,0.427509,0.395064,0.941593,0.127616,0.311636
0.263220,0.611939,-0.991730,0.621453,-0.073259,-0.780019
-0.458082,0.511752,-0.182441,0.440561,0.564793,0.697792
-0.327660,0.521449,-0.207140,-0.441405,-0.611794,-0.656407
-0.260603,0.526336,-0.222388,0.148934,0.510637,0.846799
-0.543992,0.489653,0.059534,0.080192,-0.891807,0.445253
-0.461629,0.493545,0.072419,0.364563,0.916759,0.163240
-0.002497,0.545090,-0.269499,0.959360,0.207248,0.191511
0.179824,0.563662,-0.377305,-0.630255,-0.339771,0.698093
-0.283373,0.505686,0.049861,0.405778,-0.532400,0.742896
-0.547539,0.471624,0.307452,-0.185347,0.063270,0.980634
-0.320340,0.495630,0.159956,-0.015125,-0.614611,0.788686
0.391423,0.570180,-0.295453,0.945893,-0.303373,-0.115117
-0.215798,0.490919,0.314393,0.580870,0.571875,0.579266
-0.074216,0.501700,0.280131,-0.040691,-0.459949,0.887013
-0.023941,0.504868,0.278655,0.072807,-0.533042,0.842950
-0.554935,0.438473,0.771280,0.703764,-0.296881,0.645429
-0.604027,0.540286,0.081464,0.202570,0.428669,0.880459
-0.073106,0.594369,-0.240147,0.870430,-0.375191,-0.318722
0.091472,0.610944,-0.335844,-0.097080,0.841320,-0.531748
-0.055213,0.581415,-0.044212,0.404531,-0.288880,0.867700
-0.204855,0.558221,0.158516,-0.050528,0.586886,-0.808091
-0.198126,0.547628,0.311070,0.590082,0.155621,0.792203
-0.039762,0.557497,0.303982,0.010835,-0.481111,0.876593
-0.481962,0.498803,0.760721,0.622012,-0.326240,0.711807
0.025079,0.532496,0.705599,-0.026825,-0.493714,0.869211
0.101599,0.538207,0.685846,-0.425653,-0.264721,0.865299
-0.374906,0.592920,0.156597,0.354319,0.801952,0.480968
-0.365294,0.591195,0.189751,0.423107,0.554852,-0.716323
-0.243893,0.599709,0.170922,0.082688,-0.510173,0.856087
-0.085822,0.612122,0.124402,-0.756629,0.135890,-0.639567
-0.317087,0.582774,0.348766,0.735447,0.278348,0.617771
0.377966,0.657142,-0.125547,-0.246122,-0.522887,0.816096
-0.030742,0.601888,0.316682,-0.318258,-0.431684,0.844015
-0.295350,0.601705,0.740931,-0.209740,0.700483,-0.682154
-0.555377,0.634585,0.058684,-0.039218,-0.072594,-0.996590
-0.079315,0.684770,-0.260379,-0.228378,0.969010,-0.094147
-0.393241,0.636398,0.168300,0.882527,0.445984,0.149148
-0.246998,0.650259,0.089439,0.697211,0.035041,-0.716009
0.230468,0.691200,-0.094756,-0.273499,0.867570,-0.415356
-0.350137,0.688215,0.075077,-0.132408,-0.422148,0.896805
-0.323296,0.688574,0.094829,0.548137,0.363331,-0.753350
-0.029708,0.716743,-0.064259,0.118057,-0.413541,0.902799
-0.090556,0.698448,0.146739,0.874817,-0.090359,0.475952
-0.307624,0.668648,0.398165,0.919426,0.250255,0.303362
-0.059207,0.766115,-0.256946,-0.087331,0.990358,-0.107536
-0.361450,0.725987,0.079655,-0.296015,-0.719227,0.628560
-0.387176,0.720276,0.142271,0.204798,0.723910,0.658795
-0.078801,0.738759,0.132746,0.804291,-0.278802,0.524772
-0.235319,0.718557,0.298296,0.217759,0.813590,0.539122
-0.408543,0.769195,0.097635,-0.044851,-0.817150,0.574678
0.076017,0.799537,0.068616,0.004076,0.951112,0.308821
0.149585,0.807780,0.010024,-0.424041,-0.682911,0.594829
-0.272137,0.814487,0.109745,-0.476618,0.744300,-0.467816
-0.409355,0.796734,0.260970,-0.151571,-0.751016,0.642652
-0.301563,0.803435,0.253844,-0.485842,-0.810155,0.328035
-0.066896,0.824090,0.144598,0.465697,-0.535919,0.704214
-0.195022,0.867840,0.088073,0.244930,0.296361,-0.923136
0.032028,0.887677,-0.014713,0.282569,0.516453,-0.808351
-0.123010,0.865302,0.190046,-0.769937,0.246790,-0.588465
0.029587,0.929525,-0.003673,0.360944,0.640539,-0.677812
-0.074509,0.969658,0.152277,0.143129,-0.458401,0.877145
-0.290991,0.172880,0.836591,-0.097295,0.933756,-0.344432
0.146995,0.266361,0.813110,0.634965,0.739996,-0.221868
0.171024,0.266726,0.831718,0.627910,0.757604,-0.178227
0.053616,0.331761,0.786085,0.529530,-0.705815,0.470556
0.061825,0.396802,0.802293,-0.529196,0.840112,-0.119007
0.098570,0.398522,0.810267,-0.228786,0.956167,-0.182760
-0.008932,0.464016,0.863100,0.281628,0.796117,-0.535615
0.077424,0.466189,0.905448,-0.366663,-0.850101,0.378004
0.081269,0.559852,1.000000,0.588350,0.734864,-0.337371
-0.552494,0.583134,0.793174,0.684347,-0.312153,0.658961
0.183371,0.109017,-0.947278,-0.150339,0.147328,0.977595
0.164224,0.241996,-0.970427,0.416931,0.660312,-0.624625
0.358522,0.543365,-0.976888,-0.079112,-0.015772,0.996741
0.316898,0.538207,-0.985121,0.055113,0.326423,0.943616
-0.086043,0.991851,0.165088,-0.220920,0.400238,-0.889384
0.270540,0.537029,-0.983571,-0.252149,0.323926,0.911862
0.228397,0.533314,-0.988887,-0.299307,-0.648271,-0.700115
0.528420,0.444720,-0.949752,-0.060958,0.338978,0.938817
0.484801,0.442548,-0.950970,0.149692,-0.409422,-0.899981
0.440659,0.437655,-0.958539,-0.356638,-0.438563,-0.824907
0.397781,0.434122,-0.962305,-0.294677,0.597919,0.745425
0.350832,0.433127,-0.960163,-0.047337,0.650545,0.757991
0.308983,0.425878,-0.973196,-0.019827,0.567365,0.823228
0.264105,0.422710,-0.976519,-0.202980,0.506049,0.838280
0.219819,0.421804,-0.974673,0.292594,-0.319278,-0.901360
0.176349,0.419177,-0.976704,-0.028445,0.591562,0.805758
0.419883,0.641562,-0.175721,0.988285,0.037725,0.147886
0.419441,0.589564,-0.298629,0.963406,-0.108950,-0.244904
0.636144,0.335024,-0.923539,-0.048945,-0.369398,-0.927981
0.591411,0.333486,-0.922874,-0.258895,0.478912,0.838819
0.288802,0.641197,-0.163833,0.517587,-0.711887,0.474680
0.549123,0.327233,-0.933876,-0.260384,-0.034826,0.964877
0.505130,0.322434,-0.940411,-0.155162,-0.130942,0.979173
0.160821,0.690476,-0.034133,0.343235,0.557527,-0.755879
0.459368,0.320438,-0.941112,-0.226358,-0.139636,0.963983
0.418331,0.315280,-0.948718,-0.264172,0.011229,0.964410
0.085705,0.680601,-0.050045,0.251204,0.821778,-0.511447
0.374934,0.312378,-0.951635,0.216585,-0.296485,-0.930155
0.329984,0.309480,-0.954330,-0.390147,0.252848,0.885355
0.288577,0.303957,-0.963006,-0.185702,0.009931,0.982556
0.242075,0.302956,-0.960828,0.398350,0.824022,0.402871
-0.148520,0.765844,0.174835,-0.635803,0.112488,-0.763611
0.197121,0.299877,-0.964151,-0.356897,0.407675,0.840491
0.153795,0.294354,-0.973159,0.488105,-0.404081,-0.773610
-0.064013,0.533767,-0.383655,0.356649,0.649198,-0.671821
0.109067,0.293358,-0.970870,-0.382300,0.046461,0.922870
-0.360561,0.713575,0.071533,0.070415,-0.438512,0.895962
-0.476046,0.760498,0.194144,0.489225,0.822240,-0.290828
-0.336531,0.581232,0.169630,0.203734,0.636216,0.744125
-0.378972,0.584129,0.180078,-0.322910,-0.372959,0.869845
-0.372095,0.444720,-0.141201,-0.424309,-0.596235,-0.681517
0.906519,0.175053,-0.882114,0.405917,0.764792,0.500325
0.864525,0.170978,-0.887874,-0.177708,-0.014302,0.983979
0.531231,0.498438,-0.102546,-0.463033,-0.391384,0.795248
0.818316,0.168529,-0.888649,0.268144,-0.304716,-0.913919
0.775063,0.165361,-0.892304,-0.530249,0.400983,0.747027
0.730483,0.161557,-0.896292,-0.703093,0.297883,0.645698
0.419811,0.475704,-0.144266,0.420347,0.378244,-0.824767
0.689004,0.154491,-0.909029,-0.413227,0.565095,0.714080
0.414121,0.429688,-0.249968,0.897221,-0.286930,-0.335657
0.643905,0.151954,-0.910580,0.044201,0.556536,0.829647
0.401770,0.392457,-0.334183,0.895469,-0.440296,0.065386
0.600878,0.148692,-0.913902,-0.271651,0.330622,0.903822
0.362438,0.387835,-0.341271,0.812190,-0.551965,0.188899
0.556813,0.146701,-0.914272,-0.490701,0.174328,0.853711
0.513339,0.141626,-0.921619,-0.130871,0.377386,0.916762
0.206218,0.475156,-0.125584,0.625595,-0.343591,0.700412
0.472306,0.136103,-0.930627,-0.228044,0.368329,0.901293
0.157865,0.480320,-0.109228,-0.424759,-0.709314,0.562543
0.425578,0.134560,-0.930037,-0.197285,0.224156,0.954375
-0.023350,0.660405,0.322479,0.357776,0.463009,-0.810937
0.204440,0.362020,-0.385538,-0.595326,-0.120770,0.794356
0.379961,0.131934,-0.931329,0.488432,-0.450835,-0.747116
0.185663,0.327145,-0.464105,0.960610,0.225323,0.162662
0.335083,0.128583,-0.935168,0.096301,-0.027938,0.994960
0.159192,0.304046,-0.514501,-0.158733,-0.536478,0.828852
0.290427,0.127135,-0.933839,-0.334812,0.530868,0.778511
-0.083160,0.575980,0.133854,0.800945,-0.107946,0.588927
0.101599,0.323429,-0.464511,0.355359,0.934061,0.035361
0.247693,0.123873,-0.937642,0.539382,0.013998,-0.841945
0.070254,0.305223,-0.503757,0.284994,0.956993,-0.054256
0.205180,0.118079,-0.947167,0.171031,0.066633,-0.983010
0.163556,0.112915,-0.955437,0.826106,0.438877,-0.353462
-0.215946,0.587574,0.172398,-0.072268,-0.320212,0.944585
0.120452,0.107115,-0.964778,0.131891,0.134990,0.982030
-0.078061,0.326509,-0.440956,-0.422104,0.901282,-0.097570
0.075872,0.103223,-0.969172,-0.169844,0.229132,0.958463
-0.130181,0.337473,-0.411050,0.981137,0.040470,0.189031
0.033287,0.096699,-0.980469,-0.105475,0.291703,0.950676
0.881749,-0.001587,-0.877831,0.266079,-0.164763,-0.949766
0.837463,-0.005026,-0.881302,-0.059960,0.314277,0.947436
0.793547,-0.007475,-0.882816,-0.044215,0.065681,0.996861
0.750443,-0.010461,-0.885769,0.329969,-0.172802,-0.928041
0.704974,-0.013363,-0.887578,-0.082286,0.129173,0.988202
0.661206,-0.015265,-0.887948,0.189932,-0.265847,-0.945120
0.468240,0.166810,-0.462222,0.800490,-0.375238,0.467346
0.616031,-0.018162,-0.890089,-0.155673,0.412365,0.897620
0.162965,0.496354,0.303280,0.718305,-0.274715,0.639195
0.345805,0.264371,-0.232985,0.831274,-0.536218,-0.146470
0.573816,-0.024957,-0.901423,-0.299385,0.005908,0.954114
0.337303,0.218260,-0.335327,0.970661,-0.173055,0.166942
0.528939,-0.028219,-0.904672,-0.275683,0.144982,0.950252
0.292421,0.220710,-0.325580,0.975924,-0.218003,0.006819
0.486868,-0.032653,-0.910617,0.037173,-0.379764,-0.924336
0.440957,-0.032200,-0.905263,0.090086,-0.175061,-0.980428
0.282814,0.115541,-0.559875,0.708718,0.621464,-0.333917
0.349352,-0.034466,-0.901830,0.734860,0.041408,0.676954
0.231209,-0.001316,-0.816544,0.984934,-0.045584,0.166816
0.220116,-0.051949,-0.929187,-0.222232,0.964320,0.143876
0.176714,-0.053668,-0.929335,-0.600537,-0.432556,-0.672496
-0.191177,0.416822,0.157741,-0.437859,0.329267,-0.836578
0.137234,-0.062188,-0.944915,0.350667,-0.188369,-0.917360
0.090881,-0.063637,-0.943439,-0.018492,0.356491,0.934116
0.049253,-0.068800,-0.951265,0.871152,-0.344296,-0.350079
-0.037912,-0.079488,-0.967067,-0.166234,0.417755,0.893223
-0.080276,-0.086824,-0.979805,0.211427,-0.075626,0.974464
-0.418597,0.382400,0.102103,0.405374,0.881335,0.242734
-0.461110,0.386021,0.113806,-0.478029,-0.571203,-0.667244
0.074911,0.475975,0.681970,-0.367596,-0.247228,0.896522
0.210063,0.245346,0.170478,-0.198575,-0.667711,0.717447
0.569159,-0.226416,-0.882890,-0.221599,0.369617,0.902373
0.310391,0.057477,-0.245464,0.932718,-0.340947,0.117441
0.525834,-0.229224,-0.885289,-0.314781,0.013593,0.949067
0.282886,0.034466,-0.292131,0.462381,-0.872742,0.156603
0.482879,-0.235383,-0.894150,-0.474062,0.136636,0.869825
0.295382,-0.043617,-0.462480,0.988618,0.018030,-0.149363
0.439698,-0.241001,-0.902789,-0.083457,-0.258300,-0.962453
0.242445,-0.032382,-0.433092,-0.499150,0.845281,-0.190657
0.392456,-0.240365,-0.896661,-0.128243,-0.383130,0.914748
0.350020,-0.244710,-0.902494,-0.583285,0.334894,0.740017
0.024637,0.154580,-0.009175,0.411006,-0.496851,0.764339
0.307579,-0.248791,-0.907478,-0.201376,-0.111002,0.973204
0.267805,-0.259660,-0.927120,0.259793,0.746686,-0.612347
0.178637,-0.265095,-0.931070,0.681555,0.257260,-0.685055
-0.156724,0.170342,0.041110,0.636720,0.745579,0.196724
0.135167,-0.270983,-0.940190,-0.229588,0.106663,0.967426
-0.222454,0.205400,0.123295,0.464936,0.882381,0.072383
0.088959,-0.272614,-0.939267,-0.133711,-0.143486,0.980578
0.046374,-0.276507,-0.943992,-0.257890,-0.045909,0.965083
0.004966,-0.282666,-0.953702,0.304481,0.076828,-0.949415
-0.037172,-0.289825,-0.965037,-0.047901,0.315442,0.947735
-0.082199,-0.290367,-0.962157,-0.209291,0.375140,0.903032
-0.125009,-0.297616,-0.973750,-0.343864,0.218514,0.913241
-0.169810,-0.300784,-0.976740,-0.472771,0.013897,-0.881076
0.095831,-0.003035,0.041775,-0.523551,-0.848576,-0.076236
-0.050556,0.146065,0.367854,0.740704,0.533208,0.408713
-0.128407,0.137916,0.357996,0.365890,0.786851,0.496980
0.267359,-0.452057,-0.915822,-0.274452,-0.337051,-0.900596
0.222039,-0.451968,-0.911909,-0.355952,0.167498,0.919371
-0.229182,0.171161,0.436193,0.333590,0.098119,0.937598
0.177676,-0.452875,-0.909989,-0.323097,0.018459,0.946186
0.135759,-0.460666,-0.923095,0.016008,0.181898,0.983187
-0.318495,0.185469,0.473741,-0.469959,0.767073,-0.436734
0.091102,-0.461661,-0.921323,-0.364946,0.057671,0.929241
-0.370173,0.202863,0.515165,0.202924,0.978515,0.036485
0.049623,-0.470628,-0.936165,0.253356,-0.188283,-0.948873
-0.381630,0.155580,0.416736,0.545319,0.398895,-0.737231
0.006889,-0.477512,-0.947057,-0.154805,0.210501,0.965259
-0.082199,-0.482946,-0.950453,0.556433,-0.249175,-0.792650
-0.123601,-0.489199,-0.960237,0.263377,-0.126141,-0.956410
-0.168849,-0.492367,-0.962489,0.164298,-0.143713,-0.975886
-0.212251,-0.495176,-0.964852,-0.165726,0.092555,0.981819
-0.260824,-0.493186,-0.955807,0.189311,0.200459,0.961238
-0.737622,-0.008559,0.103875,0.721852,0.565107,-0.399480
0.263144,0.319714,0.704418,0.916579,-0.392383,0.076934
0.252869,0.283755,0.630208,0.901198,-0.431282,0.042883
0.226547,-0.009554,0.016522,0.843767,0.004793,0.536688
0.113060,0.090086,0.236049,0.255108,0.219414,0.941689
0.120082,0.021153,0.090362,0.450891,0.849590,0.273669
0.356008,0.147791,0.712724,0.044523,-0.290566,0.955818
0.277859,0.146159,0.716380,0.142215,-0.193878,0.970663
0.258487,0.118891,0.662328,0.983725,-0.159613,-0.082521
0.190690,0.154674,0.741338,0.990492,-0.039608,0.131748
0.191872,0.099236,0.628362,0.973370,-0.197433,0.116499
0.139454,0.117172,0.669713,0.036204,-0.033401,0.998786
0.153651,0.044794,0.520777,0.425204,-0.877593,0.221431
0.125258,0.027041,0.486995,-0.312582,0.643118,0.699065
0.110696,-0.009012,0.415296,-0.608994,0.619626,0.495167
0.037132,0.036639,0.514316,-0.617199,-0.783434,0.072784
0.108033,-0.125592,0.178121,-0.743295,0.547316,-0.384653
-0.003017,-0.209204,0.017223,-0.221711,0.709197,-0.669241
-0.123529,-0.086736,0.277436,0.899168,-0.164594,0.405471
-0.202932,-0.027218,0.405401,-0.064460,0.201797,0.977304
-0.272060,0.017349,0.501911,0.904208,-0.068136,-0.421621
-0.332908,-0.013811,0.443503,0.962389,0.269440,-0.034778
-0.353833,-0.044612,0.382806,0.833087,-0.430914,-0.346812
0.019903,-0.669190,-0.921434,0.111737,-0.253449,0.960874
-0.025642,-0.671274,-0.921988,0.400955,-0.030607,-0.915586
-0.439598,-0.035373,0.409094,-0.147183,-0.583294,0.798815
-0.067267,-0.677433,-0.930516,-0.167839,0.262083,0.950338
-0.111034,-0.683227,-0.938897,0.190839,-0.087805,-0.977686
-0.155392,-0.687849,-0.944509,-0.151839,0.197525,0.968467
-0.527210,-0.099325,0.286519,-0.394321,-0.914648,0.089052
-0.621324,-0.151141,0.189271,-0.355443,-0.837034,0.415974
-0.756403,-0.211919,0.077403,0.952639,0.288407,0.096441
-0.042718,-0.167628,0.580993,0.673490,-0.709971,-0.205799
-0.061129,-0.265454,0.390818,0.765677,-0.000092,-0.643226
-0.221565,-0.139182,0.651105,0.751581,0.330508,0.570868
-0.147928,-0.322523,0.286961,0.508415,0.560467,0.653751
-0.210622,-0.287647,0.359990,-0.781900,0.318726,-0.535766
-0.297493,-0.276960,0.387680,0.992986,0.027363,0.115020
-0.353020,-0.395536,0.160510,-0.192185,0.216072,0.957276
-0.477892,-0.318537,0.321482,0.942425,-0.305647,0.135701
-0.708791,-0.427421,0.127578,0.858631,-0.116502,-0.499179
-0.799286,-0.502331,-0.011538,0.716884,0.311346,-0.623811
0.172649,-0.132841,0.630946,0.507210,-0.564968,0.650806
0.089622,-0.072604,0.755367,0.834291,0.298551,0.463493
0.001492,-0.175141,0.562386,0.311337,-0.685789,0.657848
0.061157,-0.526154,0.346661,-0.398769,0.802402,0.443997
-0.013589,-0.471353,0.455908,-0.261700,-0.587254,0.765928
-0.043679,-0.553510,0.304056,-0.075827,0.915343,0.395471
-0.103787,-0.523345,0.365380,0.955665,-0.104706,0.275212
-0.130776,-0.547716,0.321519,-0.350514,0.934959,0.054698
-0.197165,-0.574255,0.277252,0.113366,0.973993,0.196178
-0.282710,-0.495088,0.432574,0.948487,0.151317,0.278343
-0.272579,-0.586938,0.259013,-0.201921,0.886451,-0.416453
-0.348066,-0.522715,0.385575,0.845556,0.332925,-0.417367
-0.344221,-0.605963,0.229219,0.867142,-0.436048,0.240680
-0.395827,-0.587844,0.267135,0.328356,-0.923976,0.196090
-0.038725,-0.782237,0.422532,0.199464,0.732674,0.650694
0.040237,-0.694821,0.392812,0.484987,-0.661248,-0.572310
-0.060240,-0.724627,0.328829,-0.087714,0.817979,0.568521
-0.179571,-0.783415,0.190268,-0.350390,-0.775713,0.524877
0.072989,-0.175689,0.555925,-0.202141,-0.978354,-0.044292
0.179598,-0.352688,-0.019845,-0.674413,0.366867,-0.640761
-0.023274,-0.203676,0.487438,0.884696,-0.453459,-0.108110
0.095240,-0.358211,-0.020915,-0.058304,-0.718535,0.693043
0.054207,-0.360207,-0.019106,-0.244392,-0.770724,0.588436
-0.177499,-0.174688,0.609385,0.461052,0.079505,0.883804
-0.089739,-0.304770,0.183733,0.848892,-0.138284,-0.510157
-0.163159,-0.273068,0.297632,0.050904,0.771849,0.633765
-0.192508,-0.333210,0.115283,-0.046520,-0.995810,0.078736
-0.317308,-0.246435,0.412564,0.989011,0.147087,0.014943
0.057533,-0.646815,-0.917262,0.282997,0.218495,-0.933902
0.013842,-0.650254,-0.919662,0.020159,0.081958,0.996432
-0.358047,-0.291633,0.278765,-0.216321,0.893238,-0.394120
-0.028892,-0.654605,-0.924831,-0.276669,-0.224483,0.934378
-0.071851,-0.660946,-0.935685,-0.014807,0.175023,0.984453
-0.154657,-0.675255,-0.963338,0.138635,0.433975,0.890195
-0.887412,-0.432761,-0.056949,0.683470,0.352839,-0.639041
0.248875,0.327327,0.684887,0.812662,-0.582721,-0.004077
0.801457,-0.058202,-0.878570,-0.104643,0.398986,0.910966
0.228248,0.311382,0.631168,0.820231,-0.557146,0.129650
0.756065,-0.061912,-0.881154,-0.017780,0.626221,0.779443
0.712961,-0.065539,-0.884256,0.046783,0.421649,0.905552
0.665642,-0.068076,-0.882040,-0.044110,0.095955,0.994408
0.622980,-0.073782,-0.893190,-0.395277,0.113095,0.911573
0.578992,-0.078492,-0.899725,-0.245526,0.426449,0.870551
0.023748,0.306130,0.660815,0.900060,0.404502,0.162083
0.534927,-0.081572,-0.900537,0.719627,0.286200,-0.632635
0.275269,0.081207,-0.234461,0.753007,0.166514,0.636595
0.278744,0.042351,-0.379188,-0.810314,0.561999,0.165977
0.035575,0.198788,0.259271,0.651334,0.347142,0.674727
0.269579,0.013540,-0.484189,0.853967,-0.265954,-0.447224
0.251095,-0.009830,-0.566890,0.878707,-0.465909,0.103937
0.233943,-0.034831,-0.655941,0.938519,0.343455,-0.034930
0.010070,0.110106,-0.064481,0.002627,0.346512,0.938042
-0.186001,0.238280,0.458529,0.170479,0.726487,-0.665698
-0.030670,0.107568,-0.063854,-0.303206,0.906165,0.294840
0.224995,-0.107480,-0.923206,-0.081112,-0.653344,0.752703
-0.066675,0.100867,-0.080320,-0.099916,0.937125,0.334384
0.181670,-0.111101,-0.927009,-0.430497,0.126809,0.893640
0.138642,-0.116989,-0.937605,-0.437893,-0.184898,0.879808
-0.344961,0.267539,0.605176,0.614279,0.390995,-0.685408
0.097609,-0.122607,-0.948829,0.598790,-0.011447,-0.800824
0.054505,-0.128401,-0.959610,0.460697,-0.078391,-0.884089
-0.450095,0.286563,0.701168,-0.754116,0.142623,-0.641068
0.008888,-0.131751,-0.961419,0.018265,0.097405,-0.995077
-0.408173,0.209204,0.403703,0.893740,0.411116,-0.179476
-0.036211,-0.135561,-0.965222,0.533571,-0.415809,-0.736481
-0.079022,-0.139995,-0.971129,-0.260959,0.174551,0.949438
-0.508208,0.226145,0.490761,-0.712749,-0.701394,0.005909
-0.690678,0.110195,0.104170,0.805892,0.589890,0.050678
-0.727496,0.102587,0.084713,-0.236004,0.737889,-0.632314
0.319262,0.568549,-0.265105,0.806363,-0.405925,0.430121
0.542025,0.432856,-0.947204,-0.112801,0.446233,0.887779
0.259299,0.575797,-0.213491,0.773778,-0.597744,0.209691
0.496926,0.428869,-0.950897,-0.019780,0.303255,0.952704
0.451823,0.425336,-0.954478,0.083178,0.558474,0.825341
0.138051,0.594097,-0.095716,-0.563966,-0.642891,0.518299
0.410348,0.420626,-0.963671,-0.219586,0.541049,0.811818
0.365692,0.418182,-0.962415,-0.224554,0.482854,0.846421
0.055245,0.588751,-0.096602,-0.313783,-0.618160,0.720707
0.320517,0.414467,-0.965849,0.261869,-0.304802,-0.915707
0.276158,0.411570,-0.965591,-0.057424,0.616125,0.785553
-0.091368,0.626253,0.117314,-0.752206,0.136086,-0.644722
0.232165,0.407130,-0.973085,-0.126457,0.503422,0.854737
-0.167148,0.646997,0.234720,0.470962,-0.857874,-0.205539
0.179233,0.408579,-0.950195,-0.436399,0.293427,0.850563
0.141079,0.400247,-0.976962,-0.145154,0.016498,0.989272
-0.071924,0.517463,-0.382437,0.315328,0.569053,-0.759438
-0.267033,0.625346,0.165790,-0.208244,-0.910848,0.356358
-0.287958,0.607953,0.092540,-0.603203,0.040761,0.796545
-0.338084,0.612934,0.130789,-0.615320,-0.683225,-0.393171
-0.556488,0.539384,-0.138432,0.275173,0.420869,0.864378
0.050882,-0.553964,0.301398,-0.451176,0.826766,0.336004
-0.006640,-0.555960,0.222277,0.711564,0.270302,0.648547
0.147144,-0.539379,-0.917742,0.214432,-0.322057,-0.922116
-0.068819,-0.549077,-0.962083,-0.299365,-0.089377,0.949943
-0.722248,-0.263552,0.070499,0.903643,0.238954,-0.355430
0.659433,-0.165361,-0.872146,-0.647146,0.364631,0.669512
0.619952,-0.166539,-0.887763,-0.143954,0.275349,0.950505
0.574628,-0.168623,-0.892009,-0.147439,0.283004,0.947719
0.527608,-0.170884,-0.889904,0.139859,0.224115,0.964475
0.484801,-0.172609,-0.900131,-0.458794,0.162913,0.873480
0.442139,-0.174329,-0.906666,-0.068670,-0.067565,-0.995349
0.397632,-0.176502,-0.906925,-0.191187,0.354486,0.915307
0.082009,-0.223696,0.001274,0.014778,-0.567176,0.823464
0.349501,-0.178951,-0.900463,0.554119,-0.031772,-0.831831
0.311500,-0.179763,-0.922615,0.155731,-0.246036,0.956668
-0.011369,-0.229130,0.035277,-0.330293,0.709466,-0.622546
0.264624,-0.181936,-0.922800,-0.232888,0.031765,0.971985
0.217896,-0.183932,-0.922542,-0.149312,-0.078035,0.985706
-0.154431,-0.243356,0.244319,-0.393422,0.885116,0.248574
0.173835,-0.185923,-0.930258,-0.117586,-0.093148,0.988684
0.093986,-0.188278,-0.963191,-0.490178,-0.050012,0.870186
-0.314871,-0.256127,0.395174,0.992986,0.027363,0.115020
0.045633,-0.190904,-0.955696,0.595246,-0.204179,-0.777170
0.008220,-0.191540,-0.983091,0.741011,0.184131,0.645754
-0.043530,-0.194890,-0.962637,0.153449,-0.022631,-0.987897
-0.776290,0.042710,0.084086,-0.185604,-0.627662,0.756037
-0.806087,0.044706,0.027782,0.003774,-0.982675,0.185300
0.337303,0.057383,0.680936,0.570453,0.496227,-0.654479
0.879976,0.179946,-0.883037,0.228988,0.165241,-0.959302
0.837242,0.178404,-0.888538,-0.273051,0.131597,0.952956
0.792364,0.176502,-0.893892,-0.230784,0.196569,0.952943
0.210802,0.049505,0.712651,0.922541,0.381984,0.054837
0.746453,0.174146,-0.890052,-0.152694,0.274493,0.949388
0.201412,0.054669,0.621052,-0.717774,-0.618602,0.319582
0.172577,0.055482,0.586605,0.393361,0.903028,-0.172647
0.241632,0.333392,0.734175,0.802107,-0.580320,0.140901
0.292498,0.381040,0.218179,0.282868,-0.739154,0.611259
0.421512,0.421804,-0.177863,-0.684035,-0.025338,0.729009
0.031139,0.329860,0.663473,0.917356,0.298450,0.263410
0.143962,0.056300,0.550719,-0.404836,-0.853572,0.327906
0.037574,0.038093,0.764708,-0.606333,-0.784154,0.132143
0.573076,0.168081,-0.924277,0.939826,-0.207379,-0.271517
0.092582,0.059197,0.468646,0.139784,0.735699,0.662728
0.526867,0.165726,-0.919662,0.092421,-0.138121,0.986094
0.101084,0.069254,0.309926,0.349774,0.934675,0.063567
0.439328,0.162370,-0.931772,-0.000426,0.211828,0.977307
-0.023571,0.080577,0.037788,-0.330539,-0.326662,0.885458
0.252499,0.153225,-0.923649,0.113308,0.711469,0.693522
-0.180090,0.048056,0.446531,0.088640,0.754683,0.650074
-0.061278,0.079670,0.026822,-0.003803,-0.128378,0.991718
0.214128,0.152949,-0.946650,0.502452,-0.316695,-0.804516
0.166069,0.150234,-0.941112,-0.081057,0.612260,0.786490
-0.268364,0.041803,0.479869,0.910229,-0.377343,-0.170574
0.128588,0.150146,-0.966329,0.652682,-0.243488,-0.717440
-0.266812,0.060916,0.172620,0.978120,-0.191346,-0.081653
0.040751,0.147061,-0.983903,-0.204444,0.191923,0.959879
0.448868,0.492191,-0.967880,0.076148,0.409860,0.908964
0.403101,0.490377,-0.971129,-0.049587,0.022604,0.998514
0.356599,0.487657,-0.965664,0.212634,-0.201441,-0.956142
0.314975,0.486662,-0.975965,-0.024058,0.169698,0.985202
-0.094915,0.357127,0.286112,0.669520,0.740279,0.061074
0.266325,0.484035,-0.970759,0.746447,-0.471057,-0.470023
-0.081458,0.374250,0.098706,0.807479,-0.047270,0.587999
0.223591,0.482858,-0.978697,-0.199297,0.285677,0.937374
-0.277904,0.316728,0.652286,0.787589,0.045196,0.614541
0.023156,0.425248,-0.427074,-0.239075,-0.809614,0.536067
0.178637,0.481410,-0.984752,0.952849,-0.186925,-0.239037
-0.212621,0.353141,0.269941,-0.537091,-0.039098,-0.842618
-0.143267,0.392274,-0.138691,-0.179800,0.639075,-0.747833
-0.244705,0.367361,0.089771,0.076459,-0.135198,0.987864
-0.444846,0.304681,0.699360,0.783792,-0.100229,0.612881
-0.150293,0.416911,-0.424785,0.989627,-0.086957,0.114358
-0.319600,0.366549,0.061343,0.136437,0.663566,0.735571
-0.445880,0.375151,-0.106053,-0.695140,0.715476,0.069821
-0.583622,0.332762,0.303280,0.291827,0.954474,0.061781
0.083855,0.674442,-0.058980,0.325338,0.703868,-0.631447
-0.172621,0.627884,0.255321,0.570410,0.796306,0.201320
-0.335200,0.570816,0.703864,-0.378101,0.639260,-0.669616
-0.215207,0.624805,0.266397,-0.697132,-0.676482,0.237443
-0.259123,0.637935,0.128058,0.482077,0.874300,0.056576
-0.291505,0.639837,0.098337,0.819719,0.554718,-0.142647
-0.406548,0.602883,0.383065,0.955065,0.257244,0.147230
-0.396124,0.625711,0.181739,-0.678885,-0.626552,0.382816
0.202297,0.677615,-0.037936,-0.088292,-0.571247,0.816016
0.163114,0.676526,-0.044507,0.346729,0.590657,-0.728631
0.028183,0.908150,-0.004929,0.360944,0.640539,-0.677812
-0.097428,0.882513,0.148954,-0.635556,0.263439,-0.725719
-0.197165,0.889396,0.059866,-0.098715,-0.372035,0.922955
0.101526,0.540468,0.818981,0.834220,-0.066708,0.547382
-0.559001,0.319084,0.775710,0.695899,-0.000738,0.718140
0.117424,0.356132,0.793801,0.347146,0.611827,-0.710744
0.068404,0.368180,0.823743,0.290083,-0.950800,0.108771
0.034763,0.360296,0.810046,-0.625939,0.741593,-0.241332
0.002602,-0.060192,0.786860,0.471356,0.404148,0.783893
0.058720,0.342272,0.786159,-0.679267,0.498422,-0.538676
0.014655,0.343449,0.801776,0.845137,-0.358121,0.396853
-0.165595,0.026494,0.800041,-0.105523,-0.989173,0.101988
-0.087225,-0.686401,-0.930886,0.317316,-0.068115,-0.945870
-0.055881,-0.616738,-0.936092,-0.501900,-0.275072,-0.820019
0.002678,-0.612846,-0.923022,-0.279977,0.240396,0.929420
0.058720,-0.608677,-0.915084,-0.203951,0.152625,0.967011
-0.413795,-0.730150,-0.010356,-0.213460,-0.971558,0.102515
-0.173655,-0.666199,-0.942737,0.124782,0.308935,0.942862
-0.116950,-0.662212,-0.933802,0.423916,-0.112935,-0.898633
-0.009894,-0.654240,-0.922135,0.274003,-0.128768,-0.953069
0.041419,-0.649894,-0.924942,0.152242,-0.043297,0.987394
-0.235170,-0.590471,-0.951709,-0.253684,0.141886,0.956824
-0.183636,-0.586031,-0.954957,-0.224897,0.117437,0.967280
-0.122270,-0.582410,-0.931624,-0.217091,-0.075722,0.973210
-0.078575,-0.578335,-0.946023,-0.153587,0.101845,0.982873
-0.020539,-0.574166,-0.933433,-0.229503,0.334389,0.914064
0.036762,-0.570451,-0.918407,0.396011,-0.265614,-0.878991
0.086815,-0.566105,-0.923575,-0.226185,0.204784,0.952315
-0.221046,-0.628968,-0.956065,-0.120518,-0.041191,0.991856
-0.167003,-0.624710,-0.953592,-0.295778,0.426560,0.854729
-0.111106,-0.620907,-0.941851,-0.167035,0.309586,0.936085
-0.253654,-0.556955,0.229809,-0.731296,-0.603939,0.316960
0.186182,-0.471082,-0.916118,-0.071363,0.102855,0.992133
0.293238,-0.463109,-0.904008,-0.191140,0.147308,0.970446
-0.256316,-0.536847,-0.967806,0.047071,0.161772,-0.985705
-0.147852,-0.528692,-0.957727,0.071632,-0.309720,0.948126
0.071066,-0.512841,-0.928375,-0.097751,0.318390,0.942906
0.181155,-0.504962,-0.911096,0.210253,-0.105984,0.971885
-0.297863,-0.527426,0.265511,-0.222729,0.889395,-0.399210
-0.261564,-0.472077,-0.951265,0.049416,0.314593,0.947940
-0.155320,-0.463745,-0.947057,-0.169913,0.045505,0.984408
-0.107410,-0.459305,-0.957542,-0.116488,0.152710,0.981382
-0.046933,-0.455407,-0.940153,-0.187358,0.304320,0.933963
0.053765,-0.447441,-0.939525,0.192788,-0.249906,-0.948883
0.111508,-0.443543,-0.927673,-0.149724,0.402936,0.902898
0.166439,-0.439468,-0.916893,-0.375169,-0.052079,0.925492
0.217824,-0.435482,-0.918776,-0.079693,-0.025313,0.996498
0.270910,-0.431407,-0.918037,-0.050773,-0.213520,0.975619
0.327692,-0.427238,-0.906998,0.195515,0.620694,-0.759284
-0.206556,-0.375876,-0.972716,-0.252834,0.338772,0.906261
-0.149774,-0.371889,-0.964003,-0.433781,0.081721,0.897304
-0.094843,-0.367632,-0.960495,-0.123175,0.362550,0.923789
-0.037989,-0.363652,-0.951746,0.278946,-0.246836,-0.928042
0.019239,-0.359571,-0.936608,-0.129340,0.142590,0.981295
0.067073,-0.355768,-0.942516,-0.269126,0.169437,0.948084
0.232165,-0.343809,-0.919994,0.416890,0.514074,0.749620
0.282367,-0.339463,-0.924462,-0.091683,0.276242,0.956705
0.339961,-0.335659,-0.911650,-0.623855,0.205041,0.754164
0.392754,-0.331673,-0.903750,-0.029285,0.312467,0.949477
0.443398,-0.327869,-0.902014,0.321146,-0.303678,-0.897020
-0.306812,-0.484035,0.427591,0.990146,-0.105361,-0.092253
-0.406251,-0.479961,0.152166,-0.497217,-0.246075,0.831999
-0.208920,-0.417458,-0.951192,-0.205434,0.637993,0.742133
-0.170848,-0.413106,-0.976740,0.039687,0.195652,0.979870
-0.110000,-0.409391,-0.954662,-0.380186,0.416397,0.825876
-0.058169,-0.405046,-0.956656,0.068722,-0.236207,-0.969270
-0.003608,-0.401330,-0.947167,-0.241969,0.315558,0.917537
0.050733,-0.397344,-0.943106,-0.440303,0.206538,0.873771
0.166218,-0.389194,-0.920437,-0.073130,0.274036,0.958935
0.216493,-0.385026,-0.920696,0.018177,-0.036507,0.999168
0.323328,-0.377418,-0.909029,-0.067125,-0.054118,0.996276
0.374121,-0.373343,-0.906555,0.253582,0.033129,-0.966746
-0.140162,-0.297975,-0.966071,-0.415127,0.193359,0.888978
-0.088412,-0.293718,-0.968397,-0.287184,0.269127,0.919291
-0.036139,-0.289914,-0.964520,-0.047901,0.315442,0.947735
0.024118,-0.286110,-0.947389,0.359058,-0.103782,-0.927527
0.070105,-0.281670,-0.962120,-0.229289,0.212185,0.949949
0.133759,-0.277955,-0.936350,-0.428382,0.115157,0.896230
0.188249,-0.273880,-0.926234,0.414544,0.132165,-0.900381
0.291979,-0.266179,-0.923465,-0.359078,-0.033339,0.932712
0.345656,-0.262193,-0.915121,-0.676077,0.372136,0.635952
0.399775,-0.258300,-0.909472,0.181062,0.251185,-0.950854
0.454486,-0.254043,-0.904192,-0.139834,0.322374,0.936227
0.509273,-0.250145,-0.898064,-0.040988,0.084275,0.995599
0.563094,-0.246524,-0.887984,-0.310995,0.286550,0.906185
-0.487062,-0.251594,0.180853,0.868542,0.487270,-0.090574
-0.062091,-0.166898,-0.966403,0.397385,-0.286631,-0.871738
-0.006121,-0.163365,-0.953370,-0.136463,-0.013816,-0.990549
0.050214,-0.159202,-0.944325,-0.331113,-0.072157,0.940828
0.108254,-0.155398,-0.931957,0.876143,-0.479852,-0.045982
0.166737,-0.151318,-0.917631,0.996400,0.053880,0.065451
0.264475,-0.143351,-0.924351,0.397977,0.213652,-0.892170
0.318224,-0.139453,-0.920991,0.158321,0.328129,-0.931271
0.374045,-0.135832,-0.907515,-0.089422,-0.008706,0.995956
0.423286,-0.131575,-0.914235,-0.121533,-0.192636,0.973715
0.478366,-0.127771,-0.906592,-0.223862,0.425501,0.876833
0.530121,-0.123602,-0.905485,-0.349346,0.083463,0.933269
0.586903,-0.120069,-0.888280,0.252182,-0.151735,-0.955710
0.638436,-0.116448,-0.883517,-0.346208,0.098309,0.932993
0.692627,-0.112638,-0.876982,-0.091943,0.675632,0.731483
-0.455934,-0.305041,0.185727,0.565614,0.733279,-0.377337
-0.141940,-0.228500,-0.976999,0.555740,-0.340184,-0.758570
-0.084342,-0.224602,-0.966144,0.348879,0.624309,-0.698943
-0.026234,-0.220345,-0.955032,-0.213236,0.031665,0.976487
0.023748,-0.216541,-0.956471,-0.177116,0.525930,0.831882
0.076387,-0.212555,-0.951598,0.320808,-0.080241,-0.943739
0.187658,-0.204947,-0.932436,0.339124,0.277475,0.898890
0.293459,-0.196886,-0.927895,0.341019,-0.482112,-0.807016
0.348982,-0.192806,-0.919662,0.402485,-0.089603,-0.911031
0.401179,-0.189184,-0.914050,-0.527651,-0.132031,-0.839138
0.455447,-0.185469,-0.904968,-0.272093,0.226314,0.935279
0.510306,-0.181306,-0.897805,0.384009,-0.355000,-0.852357
0.564132,-0.177679,-0.888317,-0.082041,0.223984,0.971134
0.617511,-0.173875,-0.884403,0.030362,0.180224,0.983157
0.149508,-0.119527,-0.141718,0.903616,-0.396040,-0.163190
0.181746,-0.115270,-0.175205,-0.293274,0.926477,0.235861
0.303441,-0.113368,-0.017777,0.303220,0.206061,0.930374
0.157789,-0.104760,-0.444315,0.016864,-0.092026,0.995614
-0.083607,-0.098601,-0.974673,0.826776,-0.096229,-0.554239
-0.027930,-0.094797,-0.967510,-0.035603,0.367761,0.929239
0.023008,-0.091081,-0.965849,-0.447409,0.119962,0.886248
