-0.068004,0.176806,-0.338510,0.867631,0.232440,0.439532
-0.010490,0.584545,0.677569,0.302109,-0.652923,0.694565
0.408534,0.187322,0.458089,-0.386233,-0.254597,0.886569
-0.881746,0.060098,0.988938,0.128796,-0.372334,0.919119
0.201516,0.010030,0.573779,-0.226611,-0.250710,0.941165
0.410686,-0.617809,-0.313492,0.396068,-0.445753,0.802767
0.745298,0.091875,-0.318321,-0.044487,0.381487,0.923303
0.384814,-0.021176,0.284244,0.225816,0.066705,0.971884
0.598484,0.077873,0.256726,0.355131,0.086220,0.930832
-0.209244,-0.362216,0.315684,-0.181130,-0.022899,0.983192
-0.226605,0.753379,0.859787,-0.528553,-0.053519,0.847211
-0.667147,-0.233561,0.874223,-0.198121,0.896105,-0.397169
0.399731,-0.151831,0.291642,-0.327171,0.430313,-0.841303
-0.051132,0.472865,0.695772,0.773259,-0.470385,-0.425216
-0.022619,0.359472,0.299296,-0.124459,0.666650,0.734906
-0.148404,0.299459,0.691440,-0.025695,0.418528,0.907840
0.299034,0.089760,0.546004,-0.553056,0.238263,-0.798349
-0.036558,0.208185,0.096272,0.410752,-0.229861,-0.882296
0.440617,0.092503,0.284330,0.215487,0.204109,0.954937
-0.259568,-0.248136,0.778482,0.734178,-0.504138,0.454783
-0.232522,-0.107994,0.497234,0.819171,-0.229555,0.525608
0.698691,-0.368102,0.336678,-0.243066,0.363019,0.899520
-0.016164,-0.119481,0.134202,0.893449,-0.142910,0.425824
-0.092408,0.000371,0.208727,-0.329011,-0.187887,0.925446
-0.626556,-0.253851,0.850917,0.243242,-0.155695,0.957388
-0.087468,-0.147945,0.273165,0.522747,-0.849616,-0.069923
-0.158038,-0.095477,0.764063,0.480822,0.393709,0.783456
-0.534613,0.409196,0.842440,0.544830,-0.154083,0.824269
0.131042,0.244363,0.150282,0.178465,0.947924,0.263801
-0.307887,-0.297174,0.757334,0.471025,-0.668679,0.575330
0.001687,-0.272654,-0.012672,-0.014587,0.021087,0.999671
-0.090598,0.246248,0.610477,0.245794,0.969302,-0.006243
0.529331,0.211785,0.041252,0.500634,0.547896,0.670205
0.456510,-0.853799,-0.665822,-0.523414,-0.112855,0.844572
-0.157941,0.371817,0.106838,-0.656416,-0.753473,0.037370
0.486245,-0.433259,0.592171,-0.212839,-0.008377,0.977051
-0.040568,0.103935,0.208589,0.575229,0.008187,-0.817951
-0.330579,0.013688,0.692467,0.093147,-0.995646,-0.003578
-0.047268,-0.012488,0.696149,-0.406686,-0.249214,-0.878919
0.459543,-0.123367,0.277052,0.033328,0.406734,0.912938
-0.829124,-0.459263,0.856345,-0.605545,-0.586317,-0.538096
-0.473971,-0.003686,0.894498,0.341900,-0.200608,-0.918074
-0.009953,-0.465893,0.722554,0.345069,0.162006,0.924490
0.179166,-0.179035,-0.236827,0.861515,-0.329867,-0.385979
-0.598093,0.200754,0.837988,-0.056475,-0.608738,0.791359
-0.480621,0.322264,0.730945,0.925414,0.377059,-0.037890
0.640787,0.282941,-0.000394,0.551636,0.456119,0.698322
0.290182,0.438459,-0.368426,-0.374701,-0.227178,-0.898882
-0.359972,0.675877,0.756820,-0.288337,0.885066,0.365403
0.604597,-0.415027,0.142182,0.901086,-0.318045,-0.294773
-0.488740,-0.031806,0.891073,0.040145,0.821690,-0.568519
-0.165571,-0.272483,0.150504,0.018273,0.381293,0.924274
-0.514710,0.487040,0.845523,0.817595,0.523043,0.240759
0.184936,-0.356843,0.320667,0.032343,-0.148431,0.988394
0.729502,0.198525,-0.007637,-0.526036,0.235495,0.817208
-0.009611,0.022833,0.448054,-0.207945,0.598618,0.773573
0.094804,-0.101763,-0.107129,0.845069,-0.516635,0.137650
-0.600881,0.155316,0.831430,0.170313,0.105774,-0.979696
-0.223035,-0.029921,0.777472,0.253279,-0.127774,0.958918
-0.488887,0.371702,0.784184,-0.053799,-0.329948,0.942465
-0.028194,-0.081816,0.150316,0.896620,-0.420261,0.139475
-0.167038,-0.070385,0.770844,0.458022,0.072358,0.885991
-0.274875,-0.181779,0.792678,0.837265,-0.083362,0.540405
0.181220,-0.310090,-0.985410,0.594969,-0.126829,-0.793679
-0.254531,0.263509,0.054112,-0.252521,-0.068853,0.965139
-0.460570,0.355300,0.779852,0.460985,0.870531,0.172246
0.083995,0.483669,0.436461,-0.107568,0.550412,0.827934
0.420956,-0.015231,0.483124,0.155802,0.305547,0.939344
0.484876,-0.229389,-0.954844,-0.215348,0.159713,0.963388
0.392493,-0.000887,-0.743480,0.726180,-0.423668,-0.541450
0.400464,-0.193268,-0.650410,0.747076,0.439649,-0.498584
0.081110,0.077929,0.067726,-0.266232,0.468656,-0.842307
0.243134,0.496298,0.433704,-0.001324,0.527044,0.849837
-0.213841,0.050667,0.767248,0.083119,0.352193,0.932229
0.146252,-0.200240,-0.607223,0.839840,-0.538163,0.071056
-0.182491,-0.146745,0.427933,0.945830,-0.275655,0.171524
-0.090501,0.183378,0.573985,0.306115,0.878857,-0.365930
-0.481893,-0.058212,0.873607,0.819734,0.250613,0.515005
0.733415,0.131940,-0.327500,-0.127679,0.373932,0.918626
-0.128501,0.059526,0.496550,0.918502,-0.283306,0.275849
-0.848735,0.088160,0.945853,0.808714,0.268194,0.523501
0.317667,-0.091075,0.289313,0.062305,-0.054627,0.996561
0.223915,-0.124740,0.506139,-0.142351,0.188266,0.971747
-0.044578,0.068098,0.390962,-0.256448,-0.570994,-0.779872
0.217019,0.367759,-0.363666,0.025834,0.203696,0.978693
-0.027558,0.581688,0.690669,0.711904,-0.697670,0.080311
0.472942,0.115422,-0.346388,0.400638,0.208640,0.892165
-0.478567,0.138399,0.872939,0.080320,0.647110,0.758154
-0.251352,0.226703,0.725774,0.747745,-0.663818,0.014965
-0.453380,0.516702,0.736887,-0.610369,-0.266472,0.745950
0.197407,0.270653,0.637293,0.100829,-0.763805,0.637522
-0.713462,0.110736,0.946127,-0.335442,0.818459,-0.466479
-0.156621,0.444174,0.688203,0.483669,0.448340,0.751702
-0.289204,0.114508,-0.259808,0.395305,0.403849,0.825009
0.204108,-0.504187,-0.272634,-0.643077,-0.554881,0.527787
0.038416,0.108451,0.560748,-0.591413,-0.399249,-0.700594
-0.012642,0.315291,0.206911,0.624599,0.125019,0.770874
0.478078,-0.234648,0.590750,0.226311,0.469475,0.853450
-0.104879,0.222358,0.375379,-0.680617,0.072330,0.729060
-0.249934,-0.154575,0.772386,0.799103,-0.435075,0.414902
0.246509,-0.010602,-0.555525,-0.106003,0.964656,-0.241251
-0.040469,0.522018,0.652123,0.726464,-0.540839,0.423961
0.137400,0.148287,0.693837,-0.215855,0.481120,0.849665
-0.333219,-0.174120,0.583677,-0.123581,0.308815,0.943059
-0.696736,-0.296831,0.843537,0.053500,0.463895,0.884273
0.321677,-0.162748,-0.736630,0.966703,-0.232905,-0.106021
-0.526788,0.626497,0.740620,0.249982,-0.167638,0.953628
0.233158,-0.203899,0.269398,-0.104674,0.856703,0.505078
0.396748,-0.237161,0.606983,-0.045490,-0.327601,0.943721
-0.310772,0.638614,0.837406,0.247809,0.589066,-0.769150
-0.240103,0.713827,0.850438,0.736282,0.164059,-0.656486
-0.231887,0.362272,0.768738,0.179682,-0.966544,0.183049
-0.124931,0.032321,0.497200,0.987364,0.033624,-0.154857
-0.301920,0.540479,0.785965,0.633219,-0.723249,-0.275581
0.730920,-0.255222,0.311472,0.253404,0.752899,0.607396
0.291552,0.030777,-0.832611,0.977934,0.088294,0.189337
-0.119013,-0.321637,-0.242016,0.201238,0.718790,0.665466
-0.393668,0.802588,0.723736,-0.448997,0.069059,-0.890861
-0.539455,-0.407368,0.515814,-0.058183,0.025457,0.997981
-0.734638,-0.422857,0.765639,-0.463328,0.876815,-0.128541
-0.130114,-0.087874,0.759816,0.550362,-0.186457,0.813840
-0.187382,0.201382,0.169461,0.526493,0.707162,0.471940
-0.222154,-0.605121,0.528606,-0.677876,0.024538,0.734767
0.406872,-0.116737,-0.967635,-0.104449,0.243402,0.964285
0.212716,0.503214,0.442095,0.063058,0.553057,0.830754
-0.450789,0.363529,0.718770,-0.507656,-0.155550,-0.847402
-0.231936,-0.114681,0.530781,0.793176,-0.585536,0.167388
0.623377,-0.248193,0.321677,0.217546,0.309949,0.925530
0.090548,0.321521,-0.246656,-0.435989,0.307054,0.845950
0.437094,-0.493614,0.002723,-0.075191,0.432860,0.898320
0.206699,-0.367759,-0.753275,-0.244822,0.068634,0.967136
0.506834,-0.602892,0.355601,0.202859,0.598024,0.775381
0.121604,-0.673078,-0.298474,-0.314910,0.019237,0.948926
-0.731508,0.074215,0.980581,-0.626857,0.759166,0.175265
-0.722020,0.112394,0.920304,0.517413,-0.855472,-0.021229
0.340702,-0.158975,-0.092590,-0.665120,0.626614,0.406165
-0.177602,0.594947,0.706663,-0.399796,0.029505,0.916129
-0.373127,0.695025,0.739319,-0.602785,-0.142910,-0.785001
-0.813865,0.076786,0.975513,0.751881,0.465523,-0.466866
0.711162,0.000029,-0.041338,-0.327685,-0.607470,0.723604
0.540971,-0.480240,0.325650,0.835713,-0.236468,-0.495647
0.400269,-0.278713,0.514924,-0.389171,-0.588618,-0.708573
0.103558,0.868486,0.647602,0.302031,0.527223,0.794237
0.821299,-0.620781,0.337809,0.260837,0.114791,0.958534
0.044772,-0.103822,0.526363,0.821771,0.362727,0.439456
-0.086441,-0.174750,0.568351,0.105612,0.268541,0.957461
0.449909,-0.457320,0.315770,0.308225,0.232903,0.922363
-0.122680,0.603292,0.020891,-0.204222,0.396425,0.895064
0.277515,-0.026605,-0.984366,0.358209,0.030959,-0.933128
-0.135886,-0.440974,0.307464,0.085331,-0.604546,0.791987
-0.161365,0.388677,0.713136,0.905237,-0.289154,-0.311346
-0.164935,-0.173035,0.417162,0.822104,0.541594,0.175557
-0.054897,0.331580,0.075021,-0.086593,0.293864,0.951917
-0.186209,0.560825,0.717828,0.469568,0.651250,0.596137
-0.519257,-0.256880,0.624998,0.010898,-0.234044,0.972165
-0.475926,-0.029236,0.800726,0.639073,0.693142,-0.333375
-0.270523,-0.023862,0.536740,-0.479486,-0.869193,-0.120818
0.618536,0.217101,0.449647,0.085629,0.946107,0.312328
-0.225920,0.833051,0.704677,-0.636529,-0.490794,-0.594939
-0.554225,0.043924,0.824940,-0.119881,-0.651733,0.748914
0.560289,0.051068,-0.055602,0.474296,0.502063,-0.723171
0.417483,-0.461663,0.318681,0.349202,0.280495,0.894081
0.434503,-0.240876,-0.958200,-0.107016,0.110652,0.988081
0.522974,0.005572,-0.722349,-0.751572,0.337697,0.566657
-0.578188,-0.341697,0.807011,-0.013231,-0.939996,0.340927
0.256584,0.376961,-0.825590,-0.014268,0.236016,0.971645
0.145812,-0.360958,0.526911,0.570856,0.111797,0.813403
-0.250471,-0.142972,0.802558,0.854769,0.003539,0.518997
0.184057,-0.585346,-0.286624,0.476013,0.536171,-0.697088
-0.528109,0.295458,0.842235,0.874968,-0.276784,0.397267
0.391221,0.043123,-0.544548,-0.117172,-0.943704,0.309344
-0.749358,0.039465,0.940716,0.768670,0.527842,0.361289
-0.667637,-0.120681,0.893248,0.770776,-0.189306,-0.608331
0.506346,0.204583,0.466017,-0.253466,-0.418180,-0.872285
-0.082186,0.076329,0.375790,0.773234,0.182591,0.607264
-0.177308,-0.129941,-0.031800,0.043927,-0.997394,-0.057227
0.410442,-0.304775,-0.957429,0.129895,-0.089464,-0.987483
-0.290671,-0.328437,0.517715,0.122433,-0.553249,0.823970
0.197995,0.017747,0.576108,-0.233929,-0.061100,0.970332
0.103069,-0.015003,-0.049266,-0.473900,0.653781,-0.589906
0.206944,-0.424800,-0.216107,0.469349,-0.862336,0.189966
0.416359,0.040608,-0.271247,0.114113,0.520409,0.846258
-0.668567,-0.388164,0.825881,-0.600898,0.044369,-0.798093
0.413718,0.226530,0.465589,-0.071002,0.008644,0.997439
-0.042963,-0.154575,0.365173,0.190299,-0.832503,-0.520312
0.106149,-0.162518,-0.257222,0.756552,0.642882,-0.119719
0.201613,-0.158574,-0.814956,0.277423,0.707907,0.649542
0.217214,0.632441,0.667397,0.164081,0.309100,0.936768
0.340849,0.214014,0.461342,0.242487,0.161951,0.956542
0.225138,0.159603,-0.408959,0.323871,-0.833177,0.448246
-0.187382,0.363529,0.690446,-0.510995,0.378656,-0.771689
0.214868,0.057582,0.450109,0.075151,-0.212247,0.974322
0.631886,-0.477667,0.332192,0.302013,-0.066735,0.950965
-0.462135,0.012031,0.761426,-0.716248,-0.502316,-0.484425
-0.302507,0.009631,0.773310,-0.192323,-0.300843,0.934080
0.027558,-0.128111,0.049574,0.900796,-0.339048,0.271316
-0.134614,-0.242478,0.731151,0.063362,0.601775,0.796148
-0.133733,-0.085760,0.762984,0.550949,-0.199081,0.810445
0.354591,-0.031234,-0.978612,0.125095,-0.149415,-0.980829
0.200098,0.184236,0.557529,0.133061,0.636533,0.759684
0.386135,0.301402,0.470350,0.569690,-0.105898,0.815008
0.636141,0.407080,-0.052366,0.818743,0.333103,-0.467656
0.276634,-0.235961,0.530918,0.780905,0.382521,-0.493827
0.389069,0.298317,0.457558,0.721761,-0.124187,0.680910
0.055924,-0.121138,0.015018,0.994570,0.103729,0.008433
-0.034014,-0.105878,0.282103,-0.347106,0.936090,-0.057037
-0.128744,0.031749,0.757214,0.709571,0.468289,0.526512
-0.239761,-0.242078,0.537819,0.946052,0.304577,-0.110540
-0.030346,0.243791,0.736665,0.064567,0.863635,0.499965
0.247340,-0.104964,-0.184462,-0.580503,-0.814258,0.000059
0.884386,-0.047182,-0.316523,-0.059622,0.083560,0.994718
-0.133635,0.248477,0.728137,-0.121786,0.325632,0.937620
-0.292774,-0.239277,0.593678,0.365865,-0.648796,0.667238
-0.151339,0.317463,0.171156,0.938307,0.206173,-0.277621
-0.513681,0.607521,0.740774,0.307934,-0.244355,0.919493
-0.096027,-0.065070,0.343203,0.128034,-0.885141,0.447363
-0.378408,0.286257,0.759149,-0.734930,-0.588970,-0.336143
0.400073,-0.437201,-0.005668,-0.479605,0.300759,0.824332
-0.183079,-0.232590,0.735774,-0.357823,-0.785567,-0.504824
-0.000074,-0.671649,-0.312550,0.280058,-0.142828,-0.949299
0.013570,-0.228533,0.559532,0.360395,0.234013,0.902969
-0.388532,0.890378,0.730723,-0.175757,-0.291847,-0.940178
-0.235212,-0.496072,0.279706,0.597984,0.557726,-0.575637
0.277858,-0.441031,0.324383,-0.538885,0.141970,0.830330
0.601223,-0.342269,0.602308,-0.103465,-0.016519,0.994496
0.098227,-0.284028,-0.274038,0.576067,0.424384,0.698602
-0.259029,0.869973,0.010411,-0.101380,0.127274,0.986673
-0.086196,0.270997,0.729198,-0.239108,0.811738,0.532831
-0.751656,0.067641,0.946607,-0.401467,0.890235,0.215189
-0.845067,0.057982,0.970461,-0.132490,-0.617087,0.775661
-0.115050,0.089932,0.511174,0.772196,-0.532313,0.346924
-0.123511,0.054153,0.453106,-0.823895,0.472810,-0.312486
-0.107079,0.321577,0.075860,0.264866,0.464081,0.845266
0.281721,-0.166062,0.289741,0.830965,-0.168203,0.530287
0.684656,0.060670,0.251126,0.497979,0.347180,0.794659
0.153197,-0.136456,-0.423138,0.557322,-0.817650,0.144364
0.407409,0.268138,0.251040,0.136508,0.241214,0.960823
-0.104781,-0.062956,0.356388,0.821559,-0.493530,0.285426
-0.561854,-0.005230,0.891553,0.012057,0.241421,0.970346
-0.166598,-0.165662,0.568745,0.314567,-0.878982,-0.358383
0.529723,-0.409083,0.595904,-0.111855,-0.030329,0.993262
-0.380658,0.181149,0.685309,0.955548,0.281806,0.086678
-0.442329,0.356957,0.731459,0.992847,0.119255,-0.005843
-0.441839,0.355127,0.768242,-0.369847,-0.927143,-0.060164
-0.131287,0.400794,0.754628,-0.631070,0.349432,-0.692566
-0.288128,-0.100106,0.781941,0.258436,0.575305,0.776038
-0.566011,-0.135657,0.891210,-0.237346,-0.376189,0.895627
0.018852,-0.078503,0.088429,-0.600824,-0.768232,0.220976
-0.215014,-0.633184,0.520695,-0.030758,0.658515,0.751939
-0.601272,-0.303975,0.826892,0.093622,0.848474,-0.520891
-0.038416,-0.066842,0.214806,0.925273,-0.211538,0.314835
-0.389217,-0.453663,0.521088,-0.350635,0.555183,0.754206
0.351803,-0.079301,0.500249,0.269776,-0.035137,0.962282
-0.046681,0.245505,0.364402,-0.341058,0.678856,0.650257
-0.558284,0.553453,0.843382,-0.254640,-0.338009,-0.906040
-0.279325,0.570143,0.809545,0.825816,0.335748,-0.453101
-0.447415,0.017290,0.537168,-0.217802,0.691302,0.688958
-0.585427,0.260309,0.855472,-0.473776,0.346026,-0.809816
-0.500967,-0.297174,0.739490,-0.618026,-0.604970,0.502050
0.174569,-0.170919,0.499426,-0.448769,0.210554,0.868489
0.427362,-0.051753,0.735808,0.486979,0.396864,-0.778043
-0.663137,0.058155,0.863383,-0.372914,-0.834732,-0.405164
-0.153295,-0.640900,0.540199,0.315558,-0.762987,-0.564158
-0.427559,0.075529,0.809665,0.851024,-0.524602,0.023476
-0.278592,-0.060270,0.582307,0.697168,-0.589724,0.407654
-0.873285,-0.000086,0.945528,0.808544,0.286172,0.514162
-0.114122,-0.106164,-0.061715,0.127453,0.595962,0.792834
-0.093533,0.216757,0.618953,0.504772,0.822488,-0.262144
0.092604,0.381018,0.674778,-0.161250,0.183492,-0.969706
-0.531484,0.255965,0.838331,-0.704240,0.258793,-0.661114
0.212080,-0.082331,-0.818775,-0.243190,-0.120045,-0.962522
0.030101,0.073300,0.215987,-0.063918,0.187701,0.980144
-0.562930,0.072900,0.876740,0.157169,0.709073,0.687396
0.178384,0.094275,0.451325,0.014939,-0.257727,0.966102
0.482479,0.278026,0.478466,-0.707877,0.606589,-0.361885
0.504095,0.438687,-0.046697,-0.191021,0.574506,0.795898
0.251155,0.158403,0.708906,0.157617,0.589207,0.792460
0.552805,-0.035522,0.475881,-0.363714,0.121229,-0.923588
0.301136,0.021060,0.725825,0.099784,0.335014,0.936914
-0.008535,-0.327923,0.152679,0.151303,0.183225,0.971358
-0.469325,-0.119252,0.880610,-0.751463,0.038773,-0.658634
-0.487370,0.049637,0.752350,-0.641071,0.713427,-0.282930
0.261817,0.039579,0.531843,-0.598207,0.524751,-0.605627
-0.425847,0.019747,0.813278,0.959095,-0.060910,-0.276454
0.356058,-0.495098,-0.954946,-0.250600,0.152232,0.956047
0.419685,-0.380963,0.316489,-0.184875,0.248748,0.950760
0.480914,-0.178636,-0.100639,-0.432485,0.614690,0.659631
-0.103655,0.305061,0.702827,-0.470659,-0.762294,0.444284
-0.506541,0.394107,0.843742,0.256233,0.051113,0.965263
-0.248270,0.255508,-0.341233,0.200115,0.753080,0.626757
-0.112752,-0.287572,0.386629,0.726662,0.287556,-0.623918
0.164886,-0.304489,-0.989811,0.557092,-0.111900,-0.822877
0.045165,-0.157833,0.732058,0.381428,-0.365270,0.849170
0.390047,0.033521,-0.511961,0.299930,0.806637,-0.509292
-0.079643,-0.069928,0.741305,0.684725,0.544822,0.484067
0.643917,-0.497729,0.327277,-0.199098,0.132430,-0.970990
-0.160826,0.771325,0.691114,-0.507699,-0.342336,-0.790600
0.125076,0.456347,0.683939,0.158093,-0.006820,0.987401
-0.150898,-0.091132,0.426512,0.902663,-0.195012,0.383627
-0.223279,-0.272425,0.150367,-0.019435,0.187100,0.982149
0.471133,0.250365,0.040978,-0.348880,-0.622086,-0.700922
0.192469,0.256307,0.454390,0.068901,0.178210,0.981577
0.090108,-0.031179,0.215354,0.994959,0.097693,-0.022663
0.278640,-0.323236,-0.036474,-0.369363,-0.531973,-0.761955
-0.271941,0.491155,0.807798,0.839183,-0.464660,0.282602
-0.126299,0.126397,-0.089148,0.183800,0.519652,0.834374
-0.152024,-0.420113,0.313304,-0.204289,-0.581784,0.787270
0.380658,-0.170520,-0.970957,-0.253443,0.237168,0.937826
0.342707,-0.511159,0.508656,0.268126,0.328962,-0.905479
0.170607,0.109536,0.700926,0.419078,-0.311782,-0.852740
-0.009415,0.717944,-0.117557,-0.318911,-0.734316,-0.599229
-0.519111,-0.063584,0.904738,0.081655,0.424732,0.901629
-0.053332,-0.125540,-0.009966,0.021066,-0.559196,0.828768
0.116273,-0.023347,-0.050259,-0.379455,0.853319,-0.357575
0.712483,0.039007,-0.318578,-0.090743,0.311985,0.945743
0.072356,-0.142571,0.561758,0.064794,-0.112465,0.991541
-0.408877,0.076729,0.537014,-0.441609,0.709885,0.548676
0.111530,0.137083,0.690532,-0.453096,0.321910,0.831311
0.486881,-0.603806,0.019094,-0.125921,0.376286,0.917907
-0.694193,0.048209,0.874548,-0.689478,0.123512,-0.713698
0.456218,-0.313863,0.585356,-0.418464,0.200562,0.885812
-0.071965,0.134854,-0.259979,0.695484,-0.574546,-0.431508
-0.485611,0.039408,0.869600,0.782842,-0.203846,-0.587882
0.037828,-0.095591,0.014795,0.986739,0.153300,-0.053350
0.377332,-0.208985,-0.964382,0.194861,-0.275290,-0.941406
0.162343,0.499386,0.447232,0.169228,0.696767,0.697049
0.501944,-0.130970,-0.618474,0.211667,-0.004605,-0.977331
-0.191687,0.380333,0.769663,0.140530,-0.839080,0.525543
0.207971,-0.236877,-0.813946,-0.733092,-0.667853,0.128643
-0.596137,-0.174579,0.880234,-0.315836,-0.641846,0.698771
-0.895489,-0.501730,0.911143,0.650231,0.530213,0.544128
-0.518475,-0.283686,0.908214,0.774825,0.463892,0.429476
0.294437,0.279570,-0.371012,0.188352,0.081727,0.978695
0.134026,-0.205213,0.696337,-0.743398,0.355069,-0.566821
-0.393276,0.647415,0.741596,-0.660227,0.455920,-0.596856
-0.838367,-0.353186,0.859787,0.895456,-0.367518,0.251176
-0.044334,-0.119195,0.361080,-0.714467,0.377390,0.589164
0.285144,-0.374446,-0.966300,-0.144077,0.163746,0.975925
-0.299866,0.006772,0.882991,-0.561437,0.788145,-0.252222
-0.445409,-0.320435,0.639639,0.412186,0.873232,0.259939
-0.834895,-0.672678,0.919499,-0.353183,0.241723,-0.903788
0.774105,0.033235,-0.301985,-0.039154,0.386387,0.921505
-0.798216,-0.384849,0.885953,0.752785,0.011133,0.658173
-0.379289,0.042151,0.870952,0.777435,0.628866,-0.011074
-0.233697,0.678849,0.847492,-0.566680,-0.524940,0.635068
0.090011,-0.072558,-0.095399,0.912852,-0.382365,0.143173
0.029807,0.079816,0.691097,0.254753,-0.083998,0.963351
-0.393863,-0.023405,0.802079,0.638591,0.631348,0.440003
0.400855,0.276141,0.464390,-0.631730,-0.432298,-0.643456
0.455043,0.360329,0.023152,0.227708,0.668089,0.708383
0.317128,-0.273397,-0.957960,0.188773,-0.046015,0.980942
0.213204,0.628954,0.667962,0.164081,0.309100,0.936768
-0.343587,0.300144,0.144648,0.360396,-0.194424,-0.912313
-0.592861,0.013688,0.880353,-0.737270,0.297307,0.606665
-0.772735,-0.096334,0.694984,0.800174,0.593538,-0.086224
-0.447121,-0.284086,0.614381,0.079440,-0.693724,0.715846
0.301968,-0.207271,-0.941161,-0.136811,-0.963157,0.231542
0.412006,-0.111308,-0.286915,-0.184318,-0.600987,0.777715
-0.219563,0.339867,0.159666,-0.302275,-0.242572,0.921840
0.193936,0.029977,-0.056407,-0.584629,0.632802,0.507711
0.327009,-0.326608,-0.958679,-0.208207,-0.333158,0.919595
0.254529,-0.160404,-0.869788,0.504320,0.857854,-0.098735
0.286807,0.145314,0.271675,0.144677,0.563370,0.813439
-0.745446,-0.574315,0.866945,0.936296,0.300538,0.181730
-0.062134,0.122682,0.071716,0.859277,0.431211,-0.275137
-0.516274,0.549966,0.752436,0.549454,-0.160044,0.820052
-0.813622,0.033863,0.944312,0.809569,0.323632,0.489756
0.713168,-0.555568,0.334812,0.310092,-0.045144,-0.949634
0.239369,0.215043,-0.370019,0.487053,-0.370554,0.790866
0.097641,0.354442,0.670925,-0.042939,-0.373752,0.926534
0.264605,-0.251565,-0.031800,-0.578741,0.119625,-0.806690
-0.120235,-0.212414,-0.274107,0.239910,0.364820,0.899638
-0.044235,0.271740,0.737658,0.048240,0.576160,0.815912
0.289889,-0.028034,-0.986592,-0.392268,0.070445,0.917150
-0.284949,-0.414683,0.524599,-0.102683,-0.045034,-0.993694
-0.456707,-0.005973,0.792301,0.437437,0.879035,0.189598
-0.154518,0.506186,0.729335,0.179696,0.757012,-0.628205
-0.243331,0.407881,0.159375,0.394677,0.227892,-0.890110
0.110454,-0.129369,-0.307567,-0.680524,0.730019,-0.062922
0.472210,0.256422,0.248009,-0.138177,0.693945,0.706646
-0.054114,0.143314,-0.319879,0.894836,0.290809,0.338672
0.231397,0.429715,0.677638,-0.082903,-0.048760,-0.995364
0.197701,-0.559226,-0.273148,0.648493,0.353387,-0.674221
-0.276537,0.197724,0.721047,0.429805,-0.380300,0.818926
-0.262796,0.695996,0.860781,-0.568973,-0.565712,0.596858
0.047854,-0.225388,-0.286213,0.180951,0.759235,0.625156
0.343441,-0.353585,0.303646,-0.623315,0.397826,0.673210
-0.273311,-0.237161,0.530147,0.549632,0.759212,0.348571
-0.472210,0.642786,0.743532,-0.051828,-0.631704,0.773475
0.431765,-0.479040,-0.946984,-0.267571,0.109804,0.957261
-0.241033,0.130225,0.762813,-0.195692,-0.012656,-0.980584
-0.059494,-0.113366,-0.293251,-0.531571,-0.090190,-0.842198
-0.014599,0.060155,0.379489,-0.236000,-0.012838,0.971668
-0.646217,-0.048267,0.925304,0.833356,0.291048,0.469902
-0.842964,-0.548881,0.878624,0.050266,0.990761,0.125957
-0.129869,-0.165033,-0.017432,0.342271,0.290503,-0.893565
-0.047072,-0.132456,0.281881,0.037110,0.472830,0.880372
0.196234,0.038150,-0.051732,-0.605079,0.614987,0.505638
0.303387,-0.123367,0.289296,-0.267658,0.271620,-0.924436
-0.716592,-0.322892,0.852972,0.040005,0.455787,0.889189
0.650176,-0.132740,-0.601144,0.173857,-0.159360,-0.971791
0.273017,-0.313463,0.298252,0.616972,0.166130,0.769251
0.112067,-0.603349,0.513520,0.320801,0.752986,-0.574543
-0.672577,-0.520304,0.812405,-0.886616,0.268682,-0.376459
0.455288,-0.014603,-0.966385,-0.388842,0.047255,0.920092
-0.444040,0.689937,0.747367,-0.047450,0.240162,0.969572
0.362318,-0.056440,0.731219,0.374186,0.768623,0.518849
-0.196968,0.307519,0.155470,-0.448890,-0.097129,0.888293
0.153001,-0.174235,0.505334,-0.236180,0.679311,0.694806
-0.283825,0.727888,-0.017107,0.107122,0.111580,-0.987965
0.834013,-0.399022,0.346216,-0.180853,0.491802,0.851718
0.456559,-0.043010,0.494786,-0.183556,-0.115933,-0.976149
0.320943,-0.465037,0.526037,-0.316991,-0.217096,0.923248
0.000416,-0.177664,-0.292909,-0.600515,-0.460320,-0.653825
-0.501944,0.036436,0.836636,-0.507543,0.214530,0.834492
-0.343050,-0.243391,0.581160,0.854450,0.336155,0.396124
-0.676049,0.090961,0.944860,-0.547716,0.520271,0.655229
-0.107519,-0.169948,0.565543,0.036978,0.287911,0.956943
0.373176,0.052496,0.495214,-0.636095,-0.138114,-0.759149
0.323634,-0.175606,-0.969416,0.018116,0.339314,0.940499
-0.467907,0.378561,0.787301,-0.156127,-0.573965,0.803859
0.221714,-0.158747,-0.180694,0.944111,0.324574,0.057497
0.328427,0.356957,0.229087,0.374522,-0.743140,-0.554506
0.420125,-0.415369,-0.954792,0.347330,-0.095901,-0.932826
-0.045311,0.228932,0.083720,-0.118722,0.464007,0.877840
-0.027461,0.300317,0.351028,0.545725,0.788019,0.284973
-0.156425,-0.051924,-0.262822,-0.383539,-0.147579,-0.911657
-0.255313,-0.151773,0.793928,0.888677,0.014459,0.458305
-0.782321,-0.404738,0.877477,0.991748,-0.127578,0.012623
0.034258,-0.164919,0.386989,0.611183,-0.037879,-0.790583
-0.303729,0.261052,-0.291128,0.655963,0.565308,0.500140
-0.094608,0.100563,0.094234,0.225912,-0.299320,0.927023
0.543807,0.011860,0.472576,-0.369914,0.116294,-0.921759
-0.013572,0.673133,-0.068223,0.784566,0.570269,0.243414
-0.390293,-0.116966,0.896776,0.908812,-0.036023,0.415649
-0.293655,0.047694,0.767128,0.194079,0.125877,0.972876
-0.390341,-0.028777,-0.060465,0.254844,0.300350,0.919154
0.007801,0.290600,0.013631,0.845672,0.533318,-0.020242
0.501553,-0.032836,-0.499563,0.319638,0.742048,-0.589234
-0.410540,0.706512,0.744833,-0.128310,0.354157,0.926342
0.605085,-0.480696,-0.343168,0.565835,-0.154182,0.809974
0.613351,0.305004,0.122181,-0.523489,-0.343991,-0.779506
0.295073,-0.680850,-0.326078,-0.194337,0.260056,-0.945835
-0.258736,0.675591,0.848828,0.687564,0.312365,-0.655502
0.196430,-0.187266,-0.989999,0.345957,-0.207071,-0.915115
-0.959604,-0.651474,0.922530,-0.010527,-0.244833,0.969508
0.232278,0.096791,0.455469,0.357524,0.199989,-0.912239
0.759482,-0.233905,0.291265,0.240327,0.241826,0.940087
-0.285292,-0.588832,0.269123,-0.417035,0.741224,-0.525993
-0.401688,-0.620954,0.297276,-0.519346,-0.073139,-0.851429
-0.406431,0.045066,0.552768,0.677955,-0.504357,-0.534791
0.260105,0.180750,0.289638,0.319390,0.150053,-0.935668
-0.086050,0.283799,-0.319023,-0.237252,0.327590,0.914547
-0.246950,0.185951,0.768430,-0.161799,0.187494,0.968848
0.418119,-0.039294,0.489340,0.331926,0.053872,0.941766
-0.366867,-0.047524,-0.242119,0.263784,-0.077825,0.961437
-0.462281,0.101249,0.878795,-0.081435,0.343518,0.935609
-0.122388,-0.198926,0.746956,0.620653,-0.490246,0.611923
-0.518230,-0.356671,0.712245,-0.160339,-0.958977,-0.233785
0.413473,-0.032436,0.731151,0.412228,0.401604,-0.817791
-0.208070,0.382504,0.694128,0.962502,-0.193314,0.190315
-0.650569,0.019060,0.911246,0.167655,0.975084,0.145270
-0.305930,0.478581,0.789578,0.669457,0.547665,-0.501887
-0.451131,-0.002258,0.729832,-0.309635,0.919472,-0.242276
-0.110062,0.193266,0.173468,0.422612,0.811393,0.403782
-0.002862,0.671248,0.023238,0.576287,-0.520304,-0.630219
0.235946,0.190181,0.454390,-0.095521,-0.006348,0.995407
0.044332,0.178521,0.448842,0.020776,0.595384,0.803173
-0.036459,0.316891,0.075535,-0.017674,0.266945,0.963550
0.479741,0.231332,0.464544,-0.340482,-0.937749,-0.068547
0.416800,0.255051,-0.820419,0.846235,0.489048,-0.211468
-0.222106,0.204527,0.767865,-0.102853,0.358339,0.927909
-0.279716,0.561340,0.125315,0.071990,-0.997018,-0.027780
0.331606,0.445947,0.440108,-0.123692,-0.576186,-0.807905
0.045457,0.332665,0.328853,-0.328973,0.828454,0.453255
0.413131,-0.523906,-0.302361,-0.324564,0.113070,-0.939081
0.203179,0.086789,0.721407,-0.325733,-0.072171,0.942703
-0.575058,0.689937,0.734918,0.629406,0.286877,-0.722184
0.123120,-0.179321,-0.404815,0.915874,-0.359797,0.178105
-0.500623,0.350613,0.844102,-0.311972,0.178445,-0.933183
-0.166499,0.621067,0.710002,0.103644,0.345273,0.932762
-0.029074,0.490354,0.578300,-0.117234,-0.983335,-0.138952
-0.322607,-0.248593,0.561450,0.771986,0.425361,0.472341
0.199510,-0.165261,-0.795863,0.443290,0.846239,0.295592
-0.761047,-0.192867,0.889532,-0.409739,0.835082,-0.367086
-0.047708,0.386619,0.632789,-0.307644,0.628018,0.714807
-0.483605,0.468065,0.745775,0.777972,0.578922,0.244150
0.230126,0.203212,0.463123,-0.132436,0.265870,0.954868
-0.189485,-0.439716,-0.189273,0.022097,0.802627,0.596071
0.266951,-0.344727,0.315821,-0.081219,-0.396869,0.914275
-0.062819,-0.474752,0.495094,-0.549949,0.214407,-0.807209
-0.354787,0.288371,0.756015,0.515233,0.678469,0.523656
-0.214329,-0.154231,-0.261948,0.035107,0.116774,0.992538
0.439442,-0.508874,0.538059,0.461947,0.160741,-0.872220
-0.397530,-0.473095,0.520472,-0.223258,0.377837,0.898552
0.101406,-0.264538,0.292789,0.582746,0.657074,0.478185
0.461743,-0.257223,-0.623217,-0.422032,-0.298252,0.856116
0.486636,-0.349070,0.072504,-0.377728,0.843552,0.381761
0.470154,0.169948,0.476240,0.031716,0.033344,0.998941
-0.464775,-0.019175,0.834718,-0.705547,-0.620119,-0.343011
-0.139260,-0.491441,0.520729,-0.210103,-0.254378,0.944007
0.184888,-0.119481,-0.248232,-0.717432,0.548161,0.429896
0.396454,-0.189666,-0.045499,-0.643640,0.415274,0.642865
-0.306077,0.640785,0.038033,0.170283,0.045779,0.984331
0.526788,-0.385135,-0.325702,-0.412243,-0.033255,-0.910467
-0.365546,0.017232,0.777061,0.882313,-0.466460,0.062758
-0.400563,0.662160,0.751614,-0.235515,0.433973,-0.869598
0.447218,-0.264425,0.590082,0.109261,-0.061759,0.992093
0.132314,-0.214987,-0.325051,0.786624,0.445367,-0.427634
0.344956,-0.154173,0.503708,-0.519901,-0.219750,-0.825477
-0.304317,0.546537,0.806000,0.412305,0.438088,-0.798801
0.137400,-0.230589,0.518760,0.879315,-0.263944,-0.396407
0.025260,-0.066900,0.079371,0.985785,0.130887,-0.105341
0.334100,0.148171,0.549720,0.507434,0.064681,0.859259
-0.030885,0.316891,0.074353,0.343888,0.125934,0.930528
-0.139847,0.676221,0.702759,-0.201316,-0.566082,-0.799390
-0.245043,0.648158,0.838194,0.903358,-0.045999,-0.426412
0.954615,-0.375304,0.346936,-0.110046,0.443606,0.889440
0.157061,-0.277742,0.301591,-0.421404,0.882060,0.210686
0.174666,-0.329637,-0.007757,-0.100748,0.035042,0.994295
0.021640,-0.122340,0.120760,0.946591,-0.107317,0.304055
-0.267344,0.632956,0.701183,-0.310411,0.006888,-0.950577
-0.234185,-0.332725,-0.262239,-0.525943,0.630042,0.571341
-0.030932,0.539794,0.713239,-0.523084,-0.209777,-0.826061
0.138917,-0.470351,-0.757676,-0.218854,0.233374,0.947438
0.212471,0.021233,0.172269,-0.510580,0.561645,-0.651048
0.360264,-0.093763,0.498468,0.336677,-0.216658,0.916356
0.425553,-0.340153,0.314177,-0.429435,0.355301,0.830269
-0.550361,-0.656560,0.531466,-0.373789,0.413750,0.830116
-0.946888,-0.682222,0.916314,0.169875,-0.505295,0.846061
-0.104585,-0.100563,0.380499,0.984652,-0.082947,0.153562
0.603668,0.070671,0.253609,0.305423,0.143929,0.941276
-0.594963,0.126053,0.828930,-0.115480,-0.203694,0.972200
-0.009659,-0.038323,0.712725,-0.414910,0.593544,0.689605
0.130750,-0.434859,-0.304040,-0.646003,0.242943,-0.723643
-0.070009,0.292257,0.335908,-0.125309,-0.988175,-0.088358
-0.075780,-0.166805,0.729387,0.186792,-0.147035,0.971334
-0.488887,0.009001,0.784749,0.446027,0.883810,-0.141208
-0.313805,-0.006774,0.621196,0.570003,-0.777893,0.264534
-0.205722,0.172577,0.767574,0.074270,0.024554,0.996936
0.161022,0.669362,0.669144,0.372913,0.440579,0.816594
0.147034,-0.171891,-0.710430,-0.480083,0.876853,-0.025484
-0.407557,0.265166,0.693049,0.571497,0.446982,-0.688185
-0.615357,0.388848,0.854102,0.525803,0.304200,-0.794351
-0.385548,0.101648,0.538606,-0.073093,0.667232,0.741255
0.234136,-0.373761,0.507612,0.405830,0.363570,-0.838522
-0.013033,0.320093,0.703290,-0.788420,0.551325,-0.272825
0.367209,-0.004716,0.499495,0.573431,-0.030986,0.818668
-0.312338,-0.232989,0.557888,0.917023,0.311129,0.249535
0.252622,0.238818,-0.360601,0.281651,0.167270,0.944825
-0.182590,-0.066213,-0.262599,-0.238931,-0.121661,-0.963385
0.129820,-0.462236,0.358871,-0.532470,-0.555829,-0.638381
-0.236092,0.380448,0.742624,-0.666394,0.609992,-0.428753
-0.123805,-0.180180,0.748908,-0.718051,0.468333,-0.514847
-0.100379,0.014888,0.439680,-0.760455,0.648947,-0.023980
0.205477,-0.153716,-0.781770,0.894472,0.447109,0.003681
-0.827803,-0.351241,0.902940,0.258603,-0.023839,0.965689
0.074703,-0.012889,0.711715,-0.166181,0.861718,0.479402
0.260642,-0.114909,0.509513,0.092944,-0.132923,0.986759
-0.482284,0.078215,0.836738,-0.115905,-0.513148,0.850438
-0.304756,0.639756,0.836053,0.247809,0.589066,-0.769150
-0.349848,0.090733,0.170848,-0.476357,0.252317,0.842271
0.243673,-0.427657,-0.970495,-0.367623,0.211981,0.905493
-0.058369,0.173663,0.435827,0.670442,-0.358835,-0.649419
0.569873,-0.324436,0.313355,-0.414454,0.714452,0.563725
0.245531,0.082559,0.454150,-0.607613,-0.000058,0.794234
-0.523317,0.451033,0.836807,0.900570,-0.085431,0.426234
0.278249,0.173721,-0.827765,0.128828,0.174531,-0.976188
0.295904,0.164689,0.216707,0.582597,0.595259,-0.553395
-0.321531,0.079701,0.778071,0.359068,-0.046061,0.932174
-0.098326,0.326608,0.092933,-0.546550,0.056217,-0.835537
0.792004,-0.396851,-0.638303,0.168904,0.222785,-0.960124
0.576281,-0.324551,0.325462,0.415685,-0.599043,-0.684364
0.182345,-0.052383,0.685703,-0.539489,-0.248661,0.804437
-0.478226,0.525962,0.731082,0.247848,-0.225514,0.942186
0.599071,-0.095761,0.293234,0.241118,-0.406332,-0.881338
-0.015136,0.069243,0.587993,0.296987,-0.004443,0.954871
-0.281428,0.625867,0.821532,-0.655474,-0.192903,0.730166
-0.211248,0.592089,-0.045259,0.187370,-0.967320,-0.170835
-0.655166,-0.324494,0.750450,0.775201,0.250486,-0.579931
-0.527375,0.579230,0.738994,0.609306,-0.035723,0.792130
-0.424086,0.764010,0.737058,-0.882065,0.000396,-0.471127
0.025846,0.733546,0.017775,-0.782330,0.604600,0.149728
-0.279961,0.059412,0.708667,-0.354121,0.903980,-0.239622
-0.268321,0.508016,0.801240,-0.834208,0.546154,0.076248
-0.056560,-0.202012,0.747590,0.139343,0.076364,0.987295
0.432057,-0.442917,-0.221706,-0.037001,-0.855612,0.516293
0.186796,0.563740,0.674641,0.188876,-0.092928,0.977594
0.623182,-0.557913,0.329332,-0.501911,-0.196369,-0.842333
-0.761389,-0.557968,0.857801,0.897786,0.185317,0.399548
-0.376159,0.202926,-0.244841,0.589439,0.270071,0.761330
-0.322852,0.732288,0.716955,-0.597280,0.076259,-0.798399
0.161022,-0.064957,0.655993,0.869634,0.385097,-0.308929
-0.922631,-0.781613,0.880234,-0.550767,0.500703,-0.667796
-0.135542,-0.619638,0.529205,-0.123891,0.696128,0.707147
-0.658736,-0.277684,0.851859,-0.238974,-0.552039,0.798839
-0.171195,-0.067128,0.278131,0.271570,0.756760,-0.594613
0.458956,-0.031179,-0.966522,-0.403843,0.034330,0.914184
0.579313,-0.534020,0.002346,0.086013,0.495228,0.864495
0.448784,-0.115652,0.277891,-0.324699,-0.190774,-0.926378
-0.511187,0.605463,0.747641,-0.085041,-0.144146,0.985896
-0.016897,0.526075,0.707005,0.480229,-0.855446,-0.193885
0.170216,-0.162462,-0.417898,0.557322,-0.817650,0.144364
0.051717,-0.233448,0.710653,-0.203754,-0.386793,-0.899375
0.374398,-0.351756,-0.028272,0.672347,0.174970,-0.719260
0.166401,0.145771,0.694882,-0.543417,0.165668,0.822954
-0.454359,-0.032949,0.893882,0.000162,-0.971404,0.237433
0.382467,-0.460235,-0.957789,-0.330341,0.074939,0.940882
-0.250617,-0.021005,0.775160,-0.419210,0.556715,0.717169
0.137645,-0.209899,-0.527870,0.801470,-0.587293,0.112837
-0.234528,-0.363815,0.502183,-0.707851,-0.443762,-0.549566
-0.320797,0.100220,-0.247941,0.570094,0.316162,0.758311
-0.098326,-0.091305,-0.057332,-0.092409,0.938377,0.333030
-0.126984,0.635240,0.015600,-0.201998,0.202545,0.958213
0.229393,-0.881976,-0.301574,-0.088976,-0.115707,-0.989290
0.013766,-0.472008,0.720653,0.311690,0.165891,0.935591
0.331703,-0.506301,0.518794,-0.277841,-0.272119,0.921279
-0.190512,0.273568,0.178280,-0.455252,0.094918,0.885289
-0.010930,0.293858,0.696252,0.918731,-0.284944,0.273386
0.250422,-0.369988,-0.223231,0.094224,-0.793798,0.600838
0.325639,-0.009231,0.727486,-0.497312,-0.549888,-0.671047
-0.743930,-0.565285,0.860986,0.915397,0.135256,0.379148
0.019293,-0.832824,-0.312345,-0.080249,-0.286954,0.954577
-0.318743,0.571514,-0.063924,0.367518,0.781401,-0.504323
0.311847,-0.033807,-0.643218,0.965193,-0.153775,-0.211556
-0.594669,0.386049,0.847612,-0.025862,-0.258322,0.965713
0.280548,-0.187209,-0.083737,0.848366,-0.415154,-0.328517
-0.430053,-0.396795,0.738257,-0.202438,0.977883,0.052560
0.028488,0.051753,0.073446,0.287534,-0.367164,0.884598
-0.911139,-0.605121,0.919756,0.200073,-0.301655,0.932188
-0.666512,-0.302318,0.755501,0.755740,-0.301143,-0.581524
0.234282,0.333180,-0.654862,-0.670273,-0.095652,-0.735924
-0.183960,0.643642,0.707810,0.167883,0.197740,0.965771
0.286856,-0.181264,0.550456,0.735005,0.569503,-0.368015
-0.759090,-0.544995,0.872870,0.945116,0.321810,-0.056517
-0.276636,0.002371,0.768721,-0.169120,-0.034937,0.984976
-0.433086,-0.121424,0.576725,0.192750,-0.741590,-0.642567
0.151045,0.192523,0.694899,0.202174,-0.176017,-0.963402
-0.453577,-0.078960,0.871278,-0.280639,0.470258,-0.836719
-0.342414,-0.028834,0.889515,-0.272128,0.456792,-0.846928
0.000807,0.088675,0.083035,0.481584,-0.152557,0.863020
0.469666,0.381133,0.437266,-0.658487,-0.381369,-0.648809
0.460080,-0.047009,0.492320,0.484564,-0.186171,0.854715
-0.333122,-0.430915,0.522989,-0.069914,0.368629,0.926944
-0.197018,0.649014,0.862288,0.501393,0.328799,-0.800310
-0.694584,-0.487898,0.811806,0.858661,-0.206596,0.469062
-0.387211,-0.030835,0.892854,-0.155413,-0.536731,0.829317
0.272723,0.423826,0.270528,-0.480084,-0.255893,-0.839070
0.188946,0.226874,0.153261,-0.356411,-0.934328,0.001758
-0.233843,0.563340,0.020977,0.107622,0.913798,0.391653
0.263774,-0.207384,0.314040,-0.600188,-0.327696,-0.729651
0.343048,-0.246765,0.594072,0.384757,0.606099,-0.696136
-0.132999,-0.076045,0.701474,-0.682081,0.698039,0.217961
0.118279,0.012031,0.562649,0.146262,-0.124818,0.981340
0.188555,-0.136456,-0.609518,0.596151,-0.802072,0.035823
0.042132,-0.084445,0.148809,0.208480,0.961448,0.179314
0.236533,-0.162005,-0.890748,0.872036,-0.448580,0.195777
-0.918182,-0.697768,0.912718,-0.288791,0.703162,-0.649741
0.820760,-0.290544,0.296197,0.101370,0.858681,0.502385
0.322313,0.111993,0.720619,-0.256663,0.510365,0.820763
0.251253,0.161546,0.285049,0.883179,-0.136573,-0.448712
0.066291,-0.137999,0.174444,0.160885,0.940167,0.300336
-0.603815,-0.353357,0.752761,0.430379,0.219639,-0.875518
-0.644505,-0.385192,0.733514,-0.143915,0.032280,0.989063
-0.061597,0.481096,0.040053,0.854862,-0.146341,-0.497791
-0.216236,0.442174,0.052965,0.111618,0.426003,0.897810
-0.157061,0.378161,0.105468,0.659739,0.747462,-0.077757
0.055435,0.716857,0.044746,0.918480,-0.229691,-0.321928
0.461597,-0.294087,-0.324571,0.092319,-0.021665,0.995494
0.106834,0.134626,-0.847903,0.249832,0.380938,-0.890208
-0.166304,0.216928,0.739113,0.860580,-0.119122,0.495189
-0.082186,0.818707,0.672346,0.169274,-0.422367,-0.890479
0.386966,0.167661,0.458123,0.359805,0.367314,-0.857683
-0.573494,-0.319578,0.826138,0.827737,-0.548078,-0.120257
-0.216189,0.432000,0.769577,-0.216453,-0.716085,0.663604
-0.002862,0.119137,0.672689,0.845399,-0.031574,-0.533202
-0.447024,-0.125026,0.879275,-0.577292,-0.211377,-0.788704
-0.361439,-0.011403,0.796034,0.791219,0.386493,0.473914
-0.100429,-0.059583,-0.277206,0.522766,0.173077,0.834721
0.422374,-0.269398,-0.648544,0.744122,0.484778,-0.459645
0.051180,0.103192,0.684367,-0.289304,0.168826,0.942232
-0.177454,-0.137600,0.708307,-0.406738,0.658022,0.633697
-0.693606,-0.296489,0.845420,0.046748,0.746240,0.664033
0.155545,-0.349471,-0.011422,-0.091734,-0.018731,0.995607
-0.291502,0.528249,0.811977,0.265422,0.473786,-0.839689
-0.767210,0.116223,0.964570,-0.238263,0.958054,-0.159261
0.312532,-0.212643,-0.821001,0.449468,0.614379,-0.648473
-0.071965,0.211556,0.359060,0.374394,0.617747,0.691533
0.097787,0.816820,0.649263,0.350906,0.556286,0.753267
0.135297,0.057239,0.701903,0.550251,-0.245557,-0.798076
-0.112704,-0.484010,0.542408,-0.354724,0.275456,-0.893474
0.337375,-0.067585,-0.551809,0.343927,0.906655,-0.244318
-0.235800,0.065241,0.771084,0.285051,0.313225,0.905890
0.236924,0.618437,-0.382126,-0.530400,0.180702,0.828265
-0.292090,-0.048038,0.560303,0.868233,-0.357059,0.344500
-0.277418,0.095475,0.713461,0.153049,-0.688726,0.708683
0.233305,0.077587,0.719284,-0.211831,0.031569,0.976796
-0.417485,0.075872,-0.242786,0.158314,-0.002921,0.987384
-0.323389,0.640728,0.837697,0.301549,0.507295,-0.807292
-0.191296,0.643300,0.706047,-0.821647,-0.040352,-0.568566
0.140921,-0.187095,-0.525147,0.916966,-0.392387,0.072145
-0.108058,0.428457,0.690498,0.091649,-0.038978,0.995028
0.406969,-0.160118,-0.964433,-0.272165,0.209600,0.939145
-0.278348,0.435544,0.778396,-0.314594,-0.610493,0.726863
-0.611836,-0.062956,0.912324,0.664041,-0.277509,0.694290
-0.183421,0.530420,0.705036,0.885908,0.032282,-0.462735
-0.326519,-0.282715,0.583746,-0.592623,0.691018,-0.413875
0.314342,0.278769,0.455280,0.498134,0.324861,-0.803945
-0.643087,-0.039523,0.914311,-0.200557,-0.266191,0.942825
-0.332437,-0.563742,0.513965,0.015904,-0.602628,0.797863
-0.520823,0.124053,0.829392,-0.235188,-0.479977,0.845168
0.055190,0.077416,0.588489,-0.570426,-0.356473,-0.739960
-0.233208,0.272825,0.750518,-0.002088,0.405972,0.913883
-0.840274,0.103363,0.965529,0.815475,0.456081,-0.356357
-0.773371,-0.485441,0.871740,0.761757,0.397433,0.511638
-0.667343,-0.296831,0.740090,0.837008,-0.509484,-0.199609
-0.310185,0.046838,0.605305,0.942373,-0.293629,0.160357
0.353760,-0.342098,-0.035944,-0.530087,0.088484,0.843314
0.521799,0.009917,0.475778,0.182587,0.024325,0.982889
-0.507911,0.120852,0.848229,-0.230255,-0.536188,0.812087
0.124734,-0.094105,-0.293474,-0.530018,0.841336,-0.105992
-0.166256,0.738519,0.013220,-0.230330,0.448358,0.863669
0.434308,-0.388506,-0.949312,-0.356497,0.067576,0.931849
0.161658,-0.156917,-0.675257,0.449411,-0.892865,-0.028674
-0.538428,0.746062,0.748720,-0.415503,-0.270598,0.868409
-0.215113,-0.293517,0.304399,-0.115185,0.204235,0.972122
-0.254335,0.049181,0.889943,-0.258638,0.586470,-0.767567
-0.050544,0.501329,0.560234,-0.075044,0.996904,0.023487
-0.087027,0.226302,0.371149,-0.641912,0.317834,0.697804
-0.343978,0.149773,-0.250424,-0.648297,-0.315119,-0.693117
0.219416,0.101078,0.717006,-0.173567,0.037287,0.984116
-0.457635,-0.276542,0.838827,-0.336590,0.931590,0.137287
0.002274,0.093419,0.451719,-0.777760,0.253002,-0.575395
-0.104439,0.301118,0.076100,0.396004,0.278872,0.874878
-0.022081,-0.096677,-0.287155,-0.530139,-0.099602,-0.842040
0.437242,-0.665133,-0.001062,-0.302213,0.349491,0.886861
0.512605,-0.059297,-0.101752,0.362674,0.350151,-0.863633
0.397970,0.258709,0.463277,-0.625778,-0.338091,-0.702920
0.325394,-0.064041,-0.974913,0.239643,-0.265861,-0.933750
-0.152464,-0.137427,0.401459,0.805965,-0.520938,0.281146
-0.271208,0.018490,0.885063,-0.258638,0.586470,-0.767567
-0.344371,-0.536021,0.297327,-0.418360,0.269211,-0.867468
0.190707,-0.294717,-0.015532,0.061595,0.161038,0.985024
-0.092065,0.343010,0.712143,0.530689,0.693461,0.487320
0.446827,-0.173949,0.280802,0.133242,0.333833,0.933168
-0.528451,-0.276770,0.834546,-0.072376,-0.699639,0.710821
-0.091626,0.269568,0.079080,0.296416,0.168623,0.940055
-0.110649,0.447089,0.581366,-0.044853,0.929726,0.365509
-0.937450,-0.596890,0.916092,-0.469513,0.334082,-0.817280
-0.147672,-0.199669,0.758155,-0.298957,0.387515,-0.872042
0.444284,-0.104622,0.729644,0.424406,0.643737,-0.636775
-0.452989,-0.376276,0.675274,-0.845529,-0.271946,-0.459484
-0.489033,-0.372445,0.704831,0.297005,0.931785,0.208722
0.225039,0.126397,0.561502,0.092884,0.377118,0.921496
-0.430592,-0.295116,0.561810,-0.240325,0.637408,-0.732089
-0.730383,0.079244,0.957601,0.679763,-0.599640,0.422319
-0.081599,0.385705,0.044643,0.822334,-0.173149,-0.542020
-0.795428,-0.228189,0.855815,0.446110,0.893549,-0.050551
-0.209880,0.552139,0.728513,-0.509012,0.322102,0.798221
-0.550899,0.019747,0.811943,-0.351719,0.888385,-0.295069
-0.129429,0.694796,0.021936,0.244572,-0.268290,-0.931775
-0.124538,-0.603806,0.155556,-0.220264,0.120063,0.968023
-0.338501,-0.107136,-0.255373,0.337887,-0.117814,0.933784
0.341435,-0.113251,-0.694059,0.995487,0.078952,0.052654
-0.009317,-0.066099,0.125092,0.539349,0.825277,0.167396
-0.913779,-0.649988,0.916109,0.258644,-0.309524,0.915040
-0.286759,-0.277627,0.561467,-0.631333,-0.606043,-0.483870
0.284900,-0.080960,0.294930,-0.380024,0.153594,-0.912135
-0.567723,-0.291401,0.746699,0.016274,0.314230,0.949207
-0.813914,-0.037751,0.954193,0.170881,0.815837,0.552458
-0.025260,0.170576,0.659058,0.943695,0.095014,-0.316877
-0.644896,-0.402223,0.755826,-0.234176,-0.423820,-0.874950
-0.229148,0.270482,0.752573,-0.057823,0.501623,0.863152
-0.245580,0.105479,0.723684,-0.062948,-0.864005,0.499533
0.012006,0.169262,0.585510,0.659187,0.463864,0.591864
-0.490403,0.393535,0.818758,0.982799,0.182442,0.028651
0.235016,-0.184465,0.514667,-0.348014,0.092768,0.932888
-0.622692,-0.404795,0.790075,-0.761008,0.574293,-0.301754
0.564299,-0.009345,0.260784,-0.579200,0.792406,-0.191363
-0.314440,0.016717,0.543384,-0.407877,-0.666772,-0.623740
-0.200588,0.016374,0.534188,0.890569,0.070549,0.449345
-0.482088,0.055296,0.541158,-0.363843,0.648496,0.668634
-0.434308,0.401766,0.719335,0.098147,-0.262845,0.959833
-0.738893,-0.530077,0.888933,0.786939,0.527463,-0.320172
-0.101749,-0.583460,-0.317790,-0.145642,-0.124483,0.981475
-0.270082,-0.396451,0.291248,0.418877,0.360544,-0.833397
0.060472,-0.056784,0.205816,-0.549427,-0.071649,0.832464
0.172662,-0.182580,-0.768841,0.979360,0.193712,0.057708
0.076318,-0.224416,0.714523,-0.512640,0.324922,-0.794749
-0.457294,-0.108051,0.866620,-0.237785,0.057889,-0.969591
-0.489082,-0.198982,0.873367,-0.529634,0.480142,-0.699251
-0.555202,0.017117,0.794938,-0.376479,-0.925938,-0.030036
0.192419,-0.299175,-0.985342,-0.555034,0.034627,0.831107
0.333610,-0.053011,-0.973714,-0.106084,0.256593,0.960680
0.445995,-0.335067,-0.946316,0.437132,-0.324440,-0.838841
-0.763247,-0.051239,0.968098,0.273099,-0.153940,0.949589
-0.519648,0.041979,0.789270,0.034482,-0.975214,0.218559
0.343734,0.546481,-0.077453,-0.438951,0.371868,0.817946
0.288324,-0.023919,0.291385,0.134620,-0.050768,0.989596
0.203179,-0.183094,0.258147,0.000387,0.999998,0.001960
-0.214672,-0.258481,-0.253592,-0.059199,0.269740,0.961112
0.660349,0.084844,0.243112,0.469347,0.327729,0.819943
-0.345054,0.436744,0.774834,0.278517,0.397783,-0.874183
0.336838,-0.156917,-0.320222,-0.187432,-0.329736,0.925280
-0.651841,0.147257,0.962961,-0.226981,-0.953115,0.200128
0.001247,-0.117937,0.735243,-0.252671,0.736847,0.627068
0.481794,0.217558,0.446359,0.703342,0.239461,0.669304
0.507323,0.175892,-0.717212,0.795418,-0.326114,-0.510842
-0.145275,-0.443946,0.516140,-0.076173,0.091033,0.992930
-0.759140,-0.051467,0.966762,0.330814,0.076912,0.940557
0.116958,-0.404795,-0.273353,0.988267,0.082207,-0.128724
0.672527,-0.133656,0.305101,0.146926,0.437860,0.886956
0.303093,-0.054783,-0.980632,0.471117,-0.104549,-0.875853
-0.496271,0.751607,0.760364,-0.288086,0.045323,0.956531
-0.032009,-0.142801,0.734541,0.338720,-0.827790,-0.447251
0.003692,0.381590,0.686645,-0.182168,0.828585,-0.529397
-0.111774,0.309119,0.701269,0.496628,0.527835,-0.689022
-0.304560,0.143600,0.167509,0.288565,-0.309974,-0.905895
-0.896516,-0.625354,0.884652,-0.319498,0.555356,0.767789
-0.375914,-0.056096,0.889498,-0.238291,-0.891889,0.384386
-0.806578,0.102334,0.975838,0.398238,0.916742,0.031479
-0.032889,-0.111079,0.364351,0.876534,-0.077107,-0.475124
-0.190855,0.749149,0.854085,0.914662,0.289776,-0.281822
-0.088495,-0.116338,0.279963,-0.575143,0.810260,-0.112650
0.587480,0.018889,0.470350,-0.372815,-0.101411,-0.922347
-0.328377,0.531563,0.820761,-0.590648,-0.758518,0.275290
0.189094,0.137369,0.071305,-0.290047,0.634857,-0.716121
0.583079,-0.335010,0.315941,-0.276171,0.539707,0.795265
-0.513829,0.590718,0.746819,0.340128,0.191169,0.920743
-0.048539,-0.507903,0.503810,-0.597948,0.231958,-0.767237
-0.271060,-0.129198,0.470829,0.997354,0.008152,-0.072237
0.033525,-0.503272,-0.766050,-0.184219,0.015080,0.982770
-0.750533,0.032263,0.916691,0.915835,-0.336714,0.218794
0.474850,0.079701,0.481395,0.045211,0.367146,0.929064
0.113437,0.780870,0.656626,-0.376923,-0.684775,-0.623709
-0.301186,-0.004658,0.601469,0.920296,-0.388042,0.049791
-0.280401,0.679535,0.709763,-0.638839,0.173770,-0.749459
0.025064,0.020774,0.067367,0.342051,-0.397577,0.851431
-0.119991,-0.399423,0.520592,0.921625,0.388043,0.005472
-0.694878,-0.512587,0.819683,-0.874903,0.038995,-0.482726
0.482675,-0.000086,0.486772,0.343373,-0.152340,0.926762
-0.066781,0.464864,0.610066,-0.079342,0.814326,0.574959
0.422814,-0.248307,0.308663,-0.369687,-0.016239,0.929014
-0.082969,0.206013,-0.297584,0.082213,0.639548,0.764342
0.021396,-0.019175,0.195661,-0.131737,-0.531160,0.836967
-0.080523,0.488983,0.584277,-0.141759,0.938900,0.313640
0.116224,0.192467,0.690036,0.079961,0.010143,0.996746
0.597896,-0.648843,0.336267,0.411212,0.236660,0.880282
0.086733,0.770982,0.657431,0.332212,0.539927,0.773378
