-0.411273,0.080934,0.259646,-0.579896,-0.655425,0.483879
-0.168979,0.224037,0.865177,0.903419,-0.399750,-0.155030
-0.272684,-0.036056,0.872072,-0.083720,0.977160,-0.195320
-0.599724,-0.390639,0.727167,-0.564738,-0.189208,-0.803288
-0.192156,0.264930,-0.359510,0.026119,-0.247940,0.968423
-0.181908,0.058308,0.905205,-0.136999,-0.835332,0.532402
-0.438983,0.399688,0.684144,-0.332463,0.128921,-0.934263
-0.819314,0.276554,0.117763,0.899121,-0.057445,-0.433913
0.362988,0.395911,0.654130,-0.467480,-0.641594,0.608128
-0.393221,-0.193482,0.907128,0.791028,-0.500085,0.352407
0.462909,0.749580,0.796687,0.178832,-0.597939,0.781337
-0.761372,0.121951,0.132364,0.103907,0.504435,0.857175
0.193339,0.626860,0.146266,-0.264894,-0.398538,0.878066
-0.402720,0.565667,0.685724,0.367400,-0.133614,-0.920415
-0.632558,0.316450,0.451723,0.098761,0.948080,0.302310
-0.654907,-0.474582,0.325265,-0.424511,0.845073,0.325026
0.518329,0.547359,0.703361,-0.224227,-0.463661,0.857170
-0.120930,0.204442,0.937637,0.357536,0.470856,0.806512
-0.554552,0.380633,0.637797,0.683693,-0.063677,-0.726986
-0.502917,0.356513,0.397451,-0.722321,-0.655998,0.218904
-0.001695,0.447971,0.764475,0.084070,0.529931,0.843863
-0.423256,-0.342979,-0.014616,0.751110,0.161290,0.640171
-0.062278,0.527514,0.707784,0.306139,0.951623,0.026327
-0.133464,0.279834,0.677523,-0.062931,-0.908990,-0.412041
0.070004,0.228355,0.642605,0.325676,0.092649,-0.940931
0.185731,0.002470,0.887608,-0.060269,0.933866,0.352507
0.005519,0.806539,-0.325389,-0.502992,-0.390798,0.770893
-0.280568,-0.039834,0.792538,0.672345,0.427384,-0.604396
0.102207,-0.123072,0.852388,0.443313,-0.892530,0.082855
-0.561017,-0.023145,0.793349,0.156052,-0.846896,0.508346
-0.703193,0.374032,0.704556,-0.206122,0.318459,-0.925256
0.326449,0.373658,0.808225,0.947701,-0.297588,-0.115343
0.111510,-0.199253,0.273685,-0.324989,-0.494231,-0.806299
-0.191643,0.697727,0.789956,0.081191,0.525968,-0.846620
-0.710918,0.300135,0.647564,0.195256,0.979304,-0.053289
-0.196570,0.710057,0.633525,-0.018923,0.999514,-0.024780
0.028735,0.096004,0.814984,0.978982,0.163409,-0.122036
-0.441348,0.302086,0.406407,-0.627047,-0.768035,0.130136
0.337801,-0.063082,0.175469,0.755980,-0.156655,-0.635574
-0.679345,0.132164,-0.148587,-0.574444,0.762190,0.298465
-0.350887,-0.594021,0.739681,-0.356550,0.444955,0.821515
0.327710,0.365604,0.942197,-0.448841,-0.602716,0.659754
-0.412574,-0.654053,-0.146142,0.813509,-0.489143,0.314551
-0.156090,-0.577872,0.675188,0.861190,0.376361,-0.341620
-0.515136,-0.265968,0.026566,-0.541786,0.620063,-0.567441
0.064959,-0.084546,0.902224,0.735327,0.197734,0.648225
-0.374813,-0.348542,0.827374,0.053772,-0.439302,0.896729
-0.236736,0.181110,0.801440,0.266013,-0.755600,0.598587
-0.124439,0.525231,0.364799,0.707000,-0.226349,-0.670013
-0.111549,0.100239,0.924903,0.820066,-0.475311,0.318701
-0.678399,-0.062584,0.177489,-0.515912,0.574090,0.635811
-0.766417,0.088158,0.137694,0.196599,-0.490949,-0.848715
0.427592,0.781879,0.782689,0.865870,0.403249,-0.296073
-0.584667,-0.454738,0.338343,-0.048162,0.594778,0.802446
0.410091,0.213908,-0.032789,-0.387083,0.920002,0.061339
-0.657391,0.403259,0.701562,0.189119,0.603837,0.774348
-0.405085,0.357426,0.800203,-0.606431,0.176566,-0.775284
-0.459283,-0.337498,0.654226,-0.485774,0.716273,-0.500976
-0.734213,-0.013804,0.697166,0.539852,0.229817,0.809780
0.019709,0.114769,0.883007,0.365163,-0.901140,-0.233670
-0.522941,0.203695,0.609404,-0.158024,-0.873176,0.461077
0.347379,0.685646,0.059767,-0.653832,0.212449,-0.726202
-0.697280,0.344556,0.704694,0.211364,0.088828,0.973363
0.249744,0.646331,-0.318658,-0.478356,-0.480383,0.735124
-0.709696,0.150929,0.532123,-0.532950,-0.365340,-0.763211
-0.450296,-0.053742,0.246295,-0.411511,0.465834,0.783362
0.531809,0.286518,-0.483331,0.547838,-0.835155,0.048896
-0.430705,0.070430,0.238410,-0.634966,-0.326355,0.700222
0.150020,0.814261,0.788884,-0.039084,0.886691,-0.460708
-0.722664,-0.484338,0.332422,-0.621037,0.708644,0.334869
0.052897,0.027919,0.344414,-0.662100,0.600500,0.448356
-0.250493,0.361536,0.676768,-0.104096,-0.327731,0.939019
-0.595191,0.010026,0.798060,0.528703,0.416021,-0.739865
-0.396295,-0.079814,0.857058,-0.333231,-0.390727,0.858073
-0.513481,-0.403674,0.329730,0.175415,0.727295,0.663530
-0.447930,0.554001,0.676232,-0.394863,0.213924,0.893488
-0.643003,-0.231302,0.719186,0.513618,0.855483,0.065915
-0.287741,-0.514894,0.710010,0.050163,0.913720,0.403236
-0.483445,-0.421691,0.694336,-0.295959,0.487722,0.821301
-0.492550,-0.006746,0.755725,0.451307,0.688166,0.568110
-0.343753,-0.686808,0.153532,-0.318495,0.694245,0.645434
-0.296689,0.291375,0.825726,-0.175325,-0.869726,-0.461344
0.198621,0.235454,0.143766,0.230975,0.356904,0.905136
0.282893,0.166165,0.549870,0.740202,-0.667591,-0.080147
-0.790540,0.112070,0.515543,-0.408188,0.897470,-0.167122
-0.384154,-0.308770,0.825973,-0.753866,0.440212,-0.487750
0.235397,0.192361,0.148931,0.202717,-0.090481,0.975048
-0.178873,0.239149,-0.047267,0.667668,-0.090318,-0.738960
-0.637800,0.337042,0.699625,0.870527,-0.264776,0.414821
-0.029878,-0.132081,0.591588,-0.071241,0.909771,0.408952
-0.386993,-0.113731,0.750931,-0.376361,0.347218,0.858948
-0.706819,0.355433,0.482273,0.465241,0.655531,0.594836
0.387426,0.106341,0.232009,0.496129,-0.868246,-0.002137
0.100079,-0.072382,0.159302,0.386200,-0.274137,0.880737
-0.231376,-0.506341,0.870452,0.393980,0.914430,0.092725
0.163028,0.265802,0.888474,-0.573390,0.805061,-0.151988
0.037249,0.386528,0.486009,0.012293,0.893281,0.449331
0.039771,0.111406,0.671850,-0.708272,0.688124,-0.157595
-0.580016,0.010648,0.747359,0.152887,0.364381,-0.918614
0.186953,0.298267,0.853171,-0.190538,-0.181743,-0.964710
-0.700867,0.338371,0.705449,0.460435,0.104150,0.881562
-0.682144,-0.126518,0.433385,0.870375,0.197844,-0.450894
0.490461,0.252102,-0.338892,0.311273,0.949796,0.031560
-0.405912,0.255173,0.303644,-0.465915,0.118120,0.876910
0.550217,0.624992,0.751686,0.002129,-0.361337,0.932433
-0.762593,-0.022730,0.532233,-0.618392,0.246316,-0.746271
-0.460780,-0.003384,0.770642,0.485245,-0.020452,0.874139
0.043871,0.370669,0.743321,0.611094,0.754222,0.240238
-0.450375,0.271365,-0.103724,0.115017,-0.922310,0.368938
0.543201,0.333804,-0.586354,-0.528556,0.842219,0.106282
-0.314190,-0.474209,0.899655,-0.518404,0.798988,0.304757
-0.275759,-0.238776,0.837745,-0.172323,0.820504,0.545049
-0.474774,-0.212413,0.719804,-0.274334,0.684642,-0.675282
0.129878,0.552049,0.777703,0.816456,0.191795,0.544623
-0.098778,0.225158,0.744117,0.036448,-0.434880,0.899750
0.148955,-0.078609,0.889586,0.124511,-0.734646,0.666928
0.581435,0.292538,-0.962060,0.334646,-0.699301,0.631657
-0.231297,-0.408573,0.732592,0.509674,0.454987,-0.730218
-0.594639,-0.686227,0.336172,-0.293886,-0.874678,-0.385448
0.013007,-0.142128,-0.013297,-0.612094,0.259105,-0.747132
-0.043910,0.471468,0.614294,0.192454,0.510710,-0.837936
-0.668664,-0.457727,0.318919,-0.578041,0.760455,0.295932
-0.137052,-0.091230,0.412052,0.066431,-0.982715,0.172797
0.293575,0.116097,0.867677,0.742436,0.170483,-0.647861
-0.130430,0.534281,0.733101,0.523050,0.838125,-0.154807
-0.513914,-0.568573,0.372972,0.827589,-0.515289,-0.222652
-0.530903,0.127224,0.576340,0.905331,0.302472,-0.298139
-0.710445,0.263103,0.622770,0.229811,0.280984,-0.931791
-0.251478,0.304037,-0.084479,-0.367856,0.610525,0.701386
-0.457824,0.363031,0.685930,0.164960,-0.274179,0.947425
-0.413953,-0.283072,0.781041,-0.169980,-0.878135,0.447198
-0.643082,-0.493306,0.342079,0.418761,-0.296412,-0.858358
-0.386559,0.307857,0.664913,0.021771,-0.022588,0.999508
-0.689239,-0.285688,0.688114,0.165043,-0.527471,0.833388
-0.614505,-0.237405,0.697166,0.334045,-0.908891,-0.249663
0.048522,-0.129258,-0.130991,0.237247,-0.270083,-0.933150
-0.691210,-0.406456,0.764076,0.716712,0.241367,0.654268
0.363185,0.715662,0.777291,0.113741,0.981876,-0.151601
-0.727513,-0.555122,0.621107,0.411011,-0.590809,0.694273
-0.329405,0.344058,0.305664,0.239462,-0.884033,0.401427
-0.105085,0.956035,-0.348315,-0.229115,-0.100375,0.968210
-0.549901,-0.608552,0.662935,0.419519,-0.857876,-0.296736
0.354632,0.113897,-0.130867,0.176598,-0.230332,0.956954
-0.775758,0.356264,0.134535,-0.360713,-0.087586,0.928555
-0.702286,0.124110,0.738279,0.515123,-0.544382,0.662040
-0.380094,0.291832,0.295732,-0.578684,0.667970,0.467912
0.554474,0.336419,-0.661053,0.989370,0.070144,0.127388
0.326961,0.057769,0.839668,-0.591232,0.794300,0.139761
0.445605,0.127971,-0.985632,-0.180656,0.068003,0.981193
-0.593417,-0.441453,0.708073,-0.667204,0.229601,-0.708606
-0.598187,0.367846,0.664858,0.766284,0.181465,0.616343
-0.239889,0.713835,0.795135,-0.198474,0.384942,-0.901348
-0.255814,-0.386612,0.558236,0.107091,-0.608315,0.786438
-0.095428,-0.008075,0.901098,0.071503,-0.832427,0.549502
-0.396925,0.087411,0.160936,-0.047372,0.154836,0.986804
0.170437,0.021318,0.365280,0.610472,-0.791631,-0.025387
0.004296,0.172060,0.930054,0.839332,0.193723,-0.507931
-0.307647,0.107213,0.710642,0.108384,-0.458921,0.881842
-0.966259,-0.076990,0.157585,0.687332,0.725896,0.025494
-0.675562,0.462003,0.661328,0.480386,0.743995,0.464436
-0.673433,-0.099325,0.564280,-0.269499,0.953504,0.134908
-0.697438,-0.113607,0.517988,0.958840,-0.175074,-0.223551
0.206031,0.040000,0.245470,0.215249,-0.801131,-0.558441
-0.692471,-0.072880,0.148587,-0.328743,-0.250449,-0.910606
0.328340,0.179408,0.852732,0.603033,0.162750,0.780938
-0.285416,-0.201536,0.826440,0.313144,0.937133,-0.154025
0.302247,0.593690,0.861385,-0.044726,0.110015,0.992923
0.235751,0.582023,0.848308,-0.054583,0.760581,-0.646945
-0.374143,0.390805,0.671012,0.130201,0.096503,-0.986780
-0.236736,-0.214696,-0.025069,-0.236664,0.701124,-0.672618
-0.114702,0.374489,0.742455,0.266997,0.189736,0.944835
-0.051478,0.065823,0.658993,-0.467370,0.682675,-0.561712
0.068625,0.395246,0.859311,0.236392,0.280906,0.930167
-0.248837,0.221463,0.829599,-0.307300,-0.169477,0.936400
-0.303508,-0.039045,0.773431,-0.560231,0.322567,0.762949
-0.480843,-0.089569,0.185648,-0.447330,-0.677335,-0.584049
-0.484943,0.093928,0.169522,0.064057,0.398081,0.915111
-0.706267,0.309392,0.620572,-0.147061,-0.885386,0.440981
0.617422,0.004712,-0.973681,-0.039853,0.156015,0.986950
-0.601103,-0.066445,0.205909,0.854001,-0.226865,-0.468203
-0.174892,0.827130,0.173807,-0.065511,-0.323559,0.943937
-0.680725,-0.121453,0.307381,-0.366990,-0.914719,0.169136
0.589634,0.719107,0.779379,0.320345,-0.944528,0.072427
0.159086,-0.171064,0.290251,-0.268191,-0.546417,-0.793412
-0.269491,-0.027380,0.257778,-0.394276,-0.231549,0.889343
-0.160504,0.475661,0.379868,0.277333,-0.256730,0.925838
-0.363421,0.227566,0.564802,0.960727,0.147116,-0.235288
-0.380016,-0.422647,-0.167021,0.379677,-0.286438,-0.879658
-0.701103,-0.527473,0.345225,-0.316874,0.858198,0.403841
-0.699606,-0.165542,0.209041,-0.624663,0.778873,0.056152
0.254040,0.162014,0.928983,-0.180996,-0.933283,0.310198
-0.144580,0.279169,0.920466,-0.616388,-0.322133,-0.718537
-0.824714,0.454281,0.109438,-0.256790,0.826149,0.501535
-0.111036,0.075869,0.427602,-0.056842,-0.950232,0.306314
-0.282381,0.144618,0.578991,0.064893,-0.742898,0.666251
0.104414,0.680705,0.773500,-0.053460,0.253230,0.965928
-0.493930,0.276222,0.465968,0.178897,0.809444,0.559281
-0.150650,0.234084,0.766123,-0.043829,-0.904087,0.425094
0.573828,0.836430,0.769612,0.841740,0.508663,-0.180928
-0.094836,-0.171770,0.082240,0.887836,-0.073859,-0.454195
-0.100394,-0.014842,0.461902,-0.582595,-0.812008,-0.035015
0.286480,0.437882,0.656094,-0.201174,-0.674056,0.710759
-0.737367,0.378101,0.423811,0.138972,0.734414,0.664321
0.589318,0.773036,0.732675,0.384969,-0.617528,0.685900
-0.612416,0.100944,0.711136,0.230869,-0.726761,0.646930
-0.462633,-0.113233,0.491985,-0.011245,-0.457598,0.889088
0.076941,-0.134987,-0.129480,0.237247,-0.270083,-0.933150
-0.386362,0.527846,0.682496,0.418186,0.070710,-0.905605
0.061766,-0.105927,0.489979,0.923124,-0.342743,0.174265
-0.496926,-0.537603,0.365403,0.924343,-0.319813,-0.208109
0.642018,0.908749,0.778802,-0.571610,0.724544,-0.385096
0.447300,0.325459,-0.994217,-0.246762,0.164172,0.955069
0.575562,0.865407,0.782566,0.832799,-0.545295,-0.095391
0.645408,0.775153,0.719927,0.403375,-0.714426,0.571738
0.136973,0.676014,0.797154,0.228444,-0.361592,0.903916
0.393063,0.268915,0.862938,-0.427462,-0.677397,0.598674
-0.098936,0.404795,0.668182,-0.329804,-0.098740,0.938871
-0.512810,-0.075828,0.472122,0.397783,-0.051727,-0.916020
0.224005,-0.139014,0.927746,0.913879,-0.405922,0.007173
0.161451,-0.174012,0.878515,0.215615,-0.760799,-0.612123
-0.171265,0.379055,0.354854,0.414420,0.150359,-0.897579
0.536657,0.305905,-0.860534,0.884142,-0.467025,0.013416
0.150335,0.280000,0.134137,-0.227903,0.773942,0.590825
-0.059401,0.869226,-0.340678,-0.229115,-0.100375,0.968210
0.045211,-0.193565,0.827827,-0.141305,0.976666,0.161730
-0.578754,-0.198132,0.398659,0.290016,-0.944922,-0.151703
-0.607884,0.277010,0.629322,-0.189067,-0.672978,0.715091
-0.856799,0.265511,0.067213,-0.717135,0.635150,0.286882
0.115727,0.235288,0.653992,0.745324,0.609062,-0.271174
0.087978,0.787691,0.787634,-0.568504,0.798286,0.198853
-0.741032,0.430202,0.136623,-0.599835,0.224045,0.768116
-0.086638,0.565999,0.748238,-0.240759,-0.792993,0.559641
-0.546630,-0.426425,0.674556,0.229096,-0.972048,0.051355
0.245960,0.344473,0.857141,0.046798,-0.598850,0.799493
0.021561,0.272320,0.929930,0.942639,0.292590,0.160695
-0.292787,0.456274,0.456710,0.872915,-0.099290,-0.477663
0.128065,0.349704,0.785519,-0.127958,0.960232,-0.248155
-0.836263,-0.190493,0.550804,-0.714751,0.107966,-0.690995
0.540993,0.292869,-0.698705,-0.083772,-0.984055,0.156902
-0.634135,0.598298,0.146417,0.012268,-0.167612,0.985777
-0.573945,-0.440415,0.617701,-0.343101,-0.934758,0.092248
-0.376350,-0.487494,-0.140922,-0.734979,0.607366,-0.301517
-0.089437,-0.068978,0.793527,0.445273,0.807263,-0.387373
-0.428064,0.679336,0.611725,0.024404,-0.983285,0.180431
-0.707134,0.289922,0.457094,-0.272154,0.961943,-0.024443
0.259992,-0.036015,0.879284,-0.374560,0.736963,-0.562664
-0.613283,0.438962,0.160442,0.446207,0.202004,-0.871833
-0.760426,-0.176461,0.280787,-0.048982,-0.996798,0.063194
-0.124911,0.223581,0.157159,-0.106587,0.222307,0.969133
0.362870,0.736212,0.778088,0.218726,0.970344,-0.102915
-0.325345,-0.027629,0.756617,-0.158627,0.904297,0.396338
-0.184233,0.084089,0.862993,0.975236,0.193424,-0.107247
-0.682105,0.266798,0.671355,0.796233,0.595081,-0.109049
-0.642294,0.283196,0.653869,0.357738,-0.895604,-0.264416
-0.579227,-0.302086,0.544513,-0.397426,0.353728,0.846717
-0.891288,0.334966,0.124658,0.196741,0.502970,-0.841614
-0.246591,0.289092,0.588332,-0.158518,-0.031811,0.986843
-0.308553,-0.385283,0.812305,0.375439,0.871180,-0.316371
-0.277927,-0.018661,0.260292,-0.394276,-0.231549,0.889343
-0.046748,0.252185,0.502411,0.279142,-0.723779,-0.631050
-0.536776,0.044566,0.585132,0.274795,0.269260,-0.923031
0.486323,0.640187,0.860300,-0.581178,0.375926,0.721742
0.035396,0.248739,0.500955,-0.154762,0.711197,0.685746
-0.658337,0.098122,0.714117,-0.013399,-0.879397,0.475900
-0.521521,-0.486289,0.608374,-0.448121,0.147244,-0.881763
-0.011431,0.211292,0.506133,-0.198221,0.895563,0.398341
-0.217777,-0.117343,0.633470,-0.635863,0.067961,-0.768804
-0.440205,-0.397405,0.605379,0.596904,-0.524453,0.607169
-0.192589,0.726248,0.791247,-0.006958,-0.329323,0.944192
-0.688845,-0.073503,0.421915,0.978823,0.020776,-0.203653
-0.091998,0.585719,0.676987,0.320845,0.724271,0.610320
-0.538786,-0.145117,0.399607,-0.334260,0.913643,0.231356
-0.769097,0.069559,0.145181,-0.361620,0.314477,0.877687
-0.252660,0.354645,0.453907,0.735839,0.049746,-0.675327
-0.024281,0.198256,0.872251,-0.076289,0.110742,0.990917
-0.469373,0.305947,0.406105,-0.733682,-0.624998,0.266624
-0.462317,0.387068,0.681507,0.243771,-0.270925,0.931223
0.253804,-0.042034,0.147818,-0.532199,0.521169,0.667194
-0.033228,0.496918,0.887100,0.980300,-0.102589,0.168780
-0.682775,0.091354,0.131911,-0.164451,0.184801,0.968919
0.346748,0.703747,0.786989,0.051154,-0.914835,0.400574
0.283327,0.170483,0.143093,0.378166,0.753275,0.538115
-0.660623,-0.065947,0.532892,-0.158549,0.566136,0.808920
0.554198,0.313752,-0.692880,-0.966609,-0.077915,0.244124
-0.739850,-0.477862,0.670531,0.220918,0.967725,-0.121255
-0.381987,0.388687,0.820629,0.562635,0.573229,0.595693
0.047773,0.113814,0.900095,0.970891,0.142202,-0.192742
-0.851123,-0.165833,0.149398,-0.006405,-0.595280,0.803493
-0.380371,-0.071593,0.728925,0.093871,0.088480,0.991645
0.133819,0.063165,0.183354,-0.535359,-0.603126,-0.591294
0.502996,0.302833,-0.289015,0.979768,-0.177793,-0.091890
0.658218,0.764442,0.718430,0.378934,-0.798108,0.468437
0.528814,0.304287,-0.398645,-0.670681,0.739262,0.060650
0.463618,0.294406,0.784187,-0.634888,-0.370417,-0.678019
0.097556,0.505303,0.899394,-0.320248,0.891365,-0.320795
0.227316,0.793295,0.783184,-0.353911,0.775770,-0.522425
-0.628065,0.048759,0.185085,0.916295,0.225592,-0.330925
-0.019708,0.252268,0.658278,0.351581,0.242901,0.904096
-0.863737,-0.084006,0.559458,-0.197384,-0.018657,-0.980149
-0.043201,-0.370960,0.747977,-0.335902,0.535296,-0.775002
-0.347655,0.329527,0.787264,0.951451,0.073983,-0.298776
0.043358,0.181401,0.503990,0.481732,0.847341,0.223490
-0.625581,0.016834,0.825987,0.787313,-0.515810,0.337753
-0.634450,0.023062,0.688457,0.154195,-0.858964,0.488267
-0.804375,0.075496,0.136348,-0.136529,0.571854,0.808915
0.465905,0.234541,0.827621,0.339299,-0.939972,0.036451
-0.293142,0.278256,0.771316,0.500703,-0.284593,0.817498
0.142255,0.028002,0.921551,0.917894,0.220346,-0.330028
-0.602247,-0.359958,0.666493,0.502185,0.599071,-0.623638
0.270516,0.088780,0.905315,-0.663395,0.745712,0.061810
-0.249586,0.075122,0.882773,-0.674533,-0.389914,-0.626875
-0.609381,0.128884,0.729351,-0.469262,0.327734,-0.819990
-0.219748,-0.284982,0.903488,-0.349128,0.755065,0.554965
-0.301025,-0.043238,0.904490,0.572376,-0.814234,-0.097003
-0.066062,-0.047307,0.503990,-0.142431,0.778601,0.611141
0.050493,-0.066611,0.847470,0.077447,0.966276,-0.245586
-0.814071,-0.426051,0.658210,-0.078365,-0.648520,0.757153
0.320299,0.725957,0.787305,0.302158,-0.685899,0.662000
0.177927,0.072921,0.911551,-0.514022,0.432036,-0.741031
0.600433,0.312880,-0.972101,-0.544246,0.216874,-0.810409
-0.117383,0.565999,0.751384,0.170029,0.886576,-0.430201
-0.080174,0.563093,0.558373,-0.040034,-0.722298,0.690422
-0.460268,0.035475,0.155620,-0.112621,0.038945,0.992875
-0.204138,0.658370,0.623704,-0.041784,0.970493,0.237481
0.271186,0.080394,0.822553,-0.422313,0.828554,-0.367627
-0.568585,-0.514811,0.319496,0.037920,-0.177479,0.983394
-0.068545,-0.139720,0.610283,-0.713166,-0.643970,-0.276942
-0.468072,-0.044691,0.467630,0.354804,-0.096187,-0.929980
0.736381,-0.177873,0.083737,0.075785,0.818812,0.569038
-0.268309,-0.514271,0.025921,0.019322,0.161053,0.986757
-0.697714,0.220218,0.103133,-0.348687,-0.002799,0.937235
-0.342334,-0.375610,0.775313,-0.151573,0.568506,0.808595
-0.701971,0.034644,0.704804,-0.278514,-0.035223,-0.959786
-0.310248,-0.040207,0.186472,0.336120,-0.015674,0.941689
0.334529,0.184971,0.120015,-0.146978,-0.942640,-0.299711
0.185180,0.211001,0.486641,0.910431,0.277073,0.307160
0.427868,0.494011,0.779035,-0.071148,0.012323,0.997390
0.045526,0.512444,0.862635,0.486075,-0.676296,-0.553493
-0.706228,0.029704,0.539005,-0.132015,-0.452971,0.881697
0.044935,0.399232,0.700147,0.933225,0.356508,0.044654
-0.485968,-0.219055,0.753142,-0.545310,0.098286,0.832452
0.585573,0.208718,-0.977967,-0.039940,-0.148704,0.988075
0.251912,0.501318,-0.343507,0.053078,-0.181978,0.981869
-0.447379,-0.314001,0.298425,0.018813,0.454444,0.890577
-0.116121,0.424099,0.444223,-0.109516,-0.051810,0.992634
-0.022349,0.418827,0.854998,-0.683006,0.325231,-0.654008
-0.604139,-0.220218,0.443399,-0.071811,-0.996753,0.036418
-0.282499,0.348417,0.814242,0.441007,0.811119,0.384185
-0.044738,-0.262854,0.825396,0.275739,-0.135564,-0.951625
0.212022,0.023602,0.889119,-0.512481,0.797308,0.318846
-0.609460,-0.030659,0.807319,-0.649992,0.643339,-0.404507
-0.320181,-0.447099,-0.145977,0.379677,-0.286438,-0.879658
0.206779,0.107629,0.899161,-0.337356,-0.546169,-0.766740
0.205243,0.181650,0.943145,-0.269903,-0.616534,0.739621
-0.037051,-0.102148,0.577577,0.061035,0.727831,0.683035
-0.666930,0.294489,0.735326,0.547290,0.479010,0.686311
0.193260,0.301878,0.138010,0.307489,0.770548,0.558306
-0.603311,0.046684,0.567357,0.094518,0.269615,0.958318
0.324872,0.429704,-0.348507,0.209727,-0.077025,0.974721
0.225700,0.736668,0.761796,-0.316365,0.666752,-0.674800
-0.705321,0.294821,0.458688,-0.417472,0.906844,-0.057889
-0.412692,0.461007,0.677976,-0.406978,-0.202663,0.890672
-0.449152,-0.218806,0.673485,-0.156857,0.700811,0.695888
-0.581986,-0.249320,0.716452,-0.164532,0.906795,-0.388139
-0.400985,0.316450,0.587233,0.781290,-0.509189,0.360989
-0.718683,0.106092,0.710120,0.270822,0.433188,-0.859653
0.150374,0.446393,0.798102,0.149916,0.843315,0.516085
-0.177493,0.442574,0.641712,0.544226,-0.218817,-0.809899
-0.653961,-0.204982,0.336859,0.700942,0.512583,0.495923
-0.508120,0.460675,0.160497,0.608789,0.416585,-0.675153
-0.165668,0.406871,0.756041,0.600982,0.427285,0.675461
-0.102089,0.372538,0.669006,0.101896,0.015074,0.994681
0.542373,0.290005,-0.282778,0.995618,0.090985,0.021608
0.260229,0.064909,0.781975,-0.384967,0.894918,0.225658
-0.363697,0.376855,-0.169659,-0.725585,-0.396200,0.562629
0.182105,0.113025,0.548524,-0.200241,-0.948753,-0.244483
-0.138904,-0.244919,0.696946,-0.427105,0.392427,-0.814606
-0.667560,-0.335050,0.353384,0.536606,-0.233494,0.810885
-0.416594,0.552672,0.680092,-0.334475,0.030805,0.941901
-0.040284,-0.294780,0.809393,0.586298,0.318784,-0.744736
-0.490106,-0.483135,0.325444,0.916597,-0.388680,0.093688
0.618014,0.082760,-0.982774,-0.054863,0.032325,0.997970
-0.784391,0.182148,0.124961,-0.545769,0.278913,0.790154
-0.547024,-0.309933,0.299647,0.046067,0.504071,0.862433
0.556878,0.203653,-0.148628,-0.585743,-0.808887,-0.051054
0.504415,0.105137,0.004286,0.785683,0.610754,0.098398
-0.655577,-0.432403,0.740051,0.685051,0.444078,0.577495
0.423413,0.697187,0.763170,0.141572,-0.814995,0.561908
0.558613,0.815714,0.751233,0.174392,0.684799,-0.707558
-0.155656,0.040955,0.929326,0.071362,0.995695,0.059154
-0.757666,0.208718,0.530983,-0.587592,0.300295,-0.751372
0.034293,0.274810,0.906111,0.877769,0.469145,-0.097075
0.245802,0.116595,0.520378,0.679753,-0.687536,0.255401
0.112220,0.210130,0.926469,0.945386,0.033155,-0.324263
-0.730508,-0.097333,0.563978,-0.030884,0.390884,0.919922
0.568467,0.306570,-0.850794,0.922682,-0.383843,-0.036371
-0.861411,0.212413,0.090056,-0.512603,0.816804,0.264707
-0.167954,0.105677,0.755587,0.445421,0.767127,-0.461646
0.132282,0.023186,0.250388,-0.261344,0.868066,0.422092
-0.378006,0.168739,0.567178,0.799594,-0.257175,-0.542688
0.064091,-0.011479,0.456201,-0.082439,0.996112,0.031073
-0.699527,-0.310887,0.038613,-0.483103,0.757855,0.438483
0.345487,0.342937,0.628704,-0.061269,-0.777482,0.625914
-0.636933,-0.207763,0.417011,0.418207,0.907764,-0.032668
-0.078320,-0.454240,0.733279,-0.565229,0.824888,-0.008661
0.573275,0.198506,-0.159013,0.806122,0.542565,-0.236198
-0.829720,0.318651,0.647097,0.043707,0.995986,-0.078110
0.315964,0.490026,0.819091,-0.513884,0.736014,-0.440689
-0.574458,-0.005626,0.240594,0.263483,0.963132,0.054339
0.027316,-0.229393,0.826495,0.392786,-0.230560,-0.890259
-0.208790,-0.550887,0.727922,-0.490227,0.160754,0.856642
-0.075443,0.641142,0.733224,0.469570,-0.653450,-0.593724
-0.412022,0.405417,0.330609,-0.404778,-0.588207,-0.700120
-0.637879,0.404795,0.685559,0.913501,0.400380,-0.072197
0.163973,0.733139,0.105359,0.595394,-0.713814,0.368749
0.297714,0.094841,0.859655,0.891491,0.390441,-0.229783
0.537367,0.063082,-0.047212,-0.462210,-0.776661,-0.427971
0.332795,0.608760,0.799846,-0.018089,0.485478,0.874062
-0.802365,0.282947,0.447616,-0.368024,0.397162,0.840726
0.009815,0.237779,0.884394,0.786027,-0.052501,-0.615959
0.039456,0.546071,0.854421,0.728890,0.521925,0.443073
0.494127,0.680498,0.721425,0.895022,-0.428009,0.125476
-0.518132,-0.550887,0.318672,-0.032043,0.133986,0.990465
0.204730,0.067566,0.469979,0.748406,-0.638828,0.178289
-0.320102,-0.053285,0.925219,-0.585268,0.699624,-0.409863
-0.218486,-0.271406,0.779132,-0.468473,0.410526,-0.782305
0.014111,0.685978,0.786233,0.369377,-0.751729,0.546319
0.383209,0.101650,0.236913,0.647757,-0.722385,0.242013
-0.326567,-0.620425,0.739941,-0.278100,0.397425,0.874479
0.489555,0.242844,-0.983777,0.278511,-0.117301,-0.953243
-0.494402,-0.367265,0.317903,0.271886,-0.142468,-0.951725
-0.872802,-0.228728,0.561519,0.260582,-0.382462,0.886465
0.009263,-0.019492,0.325554,-0.824047,0.322866,0.465514
-0.040166,-0.250109,-0.134864,0.246562,-0.228545,-0.941793
-0.044265,0.077488,0.140043,0.536937,-0.835801,0.114608
-0.369413,0.345096,0.794461,-0.399239,-0.896714,-0.191084
0.082302,-0.016959,0.628827,-0.630627,0.457121,-0.627176
-0.193693,0.441992,0.751150,0.648822,0.072164,0.757511
-0.620457,0.646995,0.147406,-0.239614,0.315553,-0.918156
0.322507,0.030119,0.898515,0.876630,-0.240366,-0.416827
-0.155459,0.590991,0.779544,0.803444,0.568435,-0.177085
0.229011,0.518713,0.131856,-0.098100,-0.421707,0.901410
-0.480765,0.120539,0.693608,0.110683,0.057901,0.992168
-0.597635,-0.032112,0.225608,0.007180,-0.882956,0.469401
-0.076232,0.476118,0.744777,-0.097181,-0.215479,0.971661
0.593496,0.332143,-0.951648,0.849616,-0.361201,0.384300
0.532755,0.698931,0.711493,-0.704580,0.677549,-0.210937
-0.472526,-0.463830,-0.003832,-0.132501,0.524547,0.841008
0.051912,-0.045978,0.892897,0.610551,0.740583,0.280651
0.213283,-0.036969,0.832237,0.396749,-0.436457,-0.807525
0.295349,0.242055,0.876537,0.753109,0.498581,-0.429236
-0.541742,-0.502813,0.809681,-0.168623,-0.065897,-0.983475
-0.114742,0.437882,0.153848,-0.051286,-0.498654,0.865283
-0.078518,0.565542,0.343961,-0.684463,0.193067,0.703019
-0.232597,0.053783,0.926249,0.186513,-0.960453,-0.206745
-0.768388,0.040290,0.144988,-0.615944,0.420186,0.666376
-0.332282,0.370462,-0.152076,0.812055,0.427399,-0.397362
-0.704651,0.066487,0.142296,0.074543,0.694047,0.716060
0.047143,0.304826,0.962225,0.838778,-0.532297,0.114508
-0.128577,-0.028168,0.487795,-0.248210,0.956862,-0.151022
-0.682262,-0.069808,0.529156,0.871013,0.044813,-0.489212
-0.546512,-0.236035,0.665792,-0.100545,-0.927226,-0.360754
0.561254,0.250981,-0.974794,-0.074479,-0.388603,0.918390
-0.521245,0.272154,0.647138,0.593849,0.803351,-0.044388
-0.405163,0.272652,-0.174178,-0.732109,0.566175,0.378765
-0.466890,-0.039502,0.485378,0.546397,-0.310967,-0.777657
0.442688,0.583767,0.133821,0.081329,0.275071,0.957978
0.549310,0.153087,-0.979903,0.093573,-0.034514,-0.995014
-0.425148,0.439294,0.797003,-0.380022,0.878492,0.289541
-0.190698,0.031822,0.693650,0.740630,0.421376,0.523363
-0.680291,0.203819,0.719433,0.534143,0.282203,-0.796902
-0.172448,-0.531708,0.758953,-0.517920,0.827538,0.216658
-0.114978,-0.340239,0.517026,-0.405324,0.348310,-0.845218
0.036736,-0.036637,0.184178,0.682028,0.369880,-0.630893
-0.189594,0.011396,0.698045,0.689983,0.307864,0.655090
-0.610170,0.132828,0.724268,-0.457526,0.505588,-0.731471
-0.279148,-0.608303,0.112241,-0.541435,0.221560,-0.811024
-0.313008,0.508625,0.163011,-0.294950,0.373587,0.879453
-0.216082,-0.500862,0.805121,0.781079,0.534480,0.322872
-0.540836,0.408075,0.478303,-0.658066,-0.232904,0.716034
-0.568742,-0.619678,0.621959,0.930556,-0.365457,0.022503
-0.469334,0.488864,0.325348,0.163501,0.584197,0.794973
0.022901,0.185428,0.964739,0.845900,-0.346221,-0.405690
0.282854,0.172558,0.144796,0.382401,0.741678,0.551075
-0.651793,0.248614,0.649556,-0.143736,0.935291,0.323374
-0.000946,-0.228065,0.749406,0.892334,0.447251,0.060886
-0.449980,-0.086995,0.488111,-0.067955,-0.076795,0.994728
-0.713992,0.139471,0.765519,0.826452,-0.549679,0.121778
-0.047497,-0.104224,0.863913,-0.234061,-0.249364,-0.939698
-0.243595,0.132703,0.806797,0.000122,-0.853701,0.520763
-0.243240,-0.420779,0.793308,-0.169343,0.957573,0.233190
0.176429,0.337125,0.729680,-0.591472,-0.654561,0.470861
-0.411509,-0.472174,0.807442,0.825696,-0.055157,0.561413
0.046788,0.140052,0.905411,0.912107,-0.187906,0.364352
-0.165826,0.435931,0.669418,-0.133864,0.103590,0.985571
-0.686835,0.271780,0.712881,-0.614954,0.200970,0.762524
-0.401695,-0.471925,0.784970,0.868271,-0.282852,0.407553
-0.140086,-0.081557,0.853913,0.753975,0.383381,0.533423
0.033938,0.243134,0.926950,0.816831,-0.570467,-0.085756
-0.854000,-0.234499,0.551285,-0.285036,0.819188,0.497681
-0.628735,0.345262,0.159068,-0.143496,0.293246,0.945207
0.375916,0.283902,0.875452,0.795260,0.404638,0.451474
-0.450453,-0.398360,0.605146,0.653381,-0.454779,0.605201
0.405321,0.142958,0.156815,0.638013,-0.764862,-0.089031
-0.690894,0.299637,0.445638,0.238343,-0.655668,-0.716444
-0.060032,0.267836,0.351241,-0.338485,-0.356578,0.870793
-0.441348,0.668375,0.605613,-0.080668,-0.990342,0.112765
0.076587,0.312341,0.656905,0.834535,0.342736,-0.431375
-0.686677,-0.416544,0.761151,0.716712,0.241367,0.654268
-0.208435,-0.005086,0.895383,-0.713361,0.192350,-0.673883
-0.199961,0.664930,0.790189,-0.214460,-0.627140,0.748801
-0.749310,0.274686,0.449814,-0.345500,0.809594,0.474539
0.347379,0.079813,0.785025,-0.406459,0.692650,-0.595841
0.251360,0.011105,0.892375,0.758230,0.597388,0.261180
0.135869,0.472423,0.882540,0.412702,-0.847029,0.334990
-0.236145,0.611624,0.763129,0.689685,-0.178655,0.701724
-0.515727,0.218682,0.480364,-0.163747,0.760640,0.628182
0.406622,0.284235,0.917897,0.606527,0.794933,0.014379
-0.173788,-0.004006,0.865658,0.854077,-0.503645,0.129976
0.504770,0.278837,-0.503537,0.719114,-0.691600,0.067557
-0.421403,0.326622,0.663004,0.090713,-0.166582,0.981846
-0.132913,0.094883,0.874270,0.758040,0.613322,0.221837
-0.639338,0.307940,0.704021,-0.739289,-0.114939,-0.663507
-0.571857,-0.645792,0.303493,0.403503,-0.914374,0.033263
0.425818,0.412974,0.908653,-0.001472,0.724622,0.689144
-0.784785,0.101193,0.136760,-0.348912,0.465517,0.813360
-0.700985,0.290960,0.646781,0.418167,0.894216,0.159731
-0.668230,-0.113524,0.583978,0.541962,0.839832,-0.030971
0.268664,0.595475,0.707936,0.832266,-0.444459,0.331346
-0.452306,-0.524484,0.381585,0.821992,-0.556072,-0.122933
-0.004533,0.459802,0.855616,-0.535345,0.292153,-0.792498
-0.675562,0.299886,0.728444,-0.712670,-0.653920,-0.253949
-0.324911,-0.517385,0.126348,0.292421,-0.227543,0.928824
-0.470004,-0.260405,0.029533,0.449915,-0.220189,-0.865502
-0.234962,0.608344,0.764131,0.689685,-0.178655,0.701724
0.317186,0.075413,0.968131,0.777158,-0.499414,-0.382897
0.367481,0.368469,0.642110,0.442345,0.687679,-0.575698
-0.293417,0.528054,0.302271,-0.125053,0.248389,0.960554
-0.551163,-0.627151,0.287738,-0.500515,0.291411,-0.815208
0.344186,0.504224,0.050275,-0.026523,-0.149499,0.988406
0.422192,0.271904,0.917032,0.288020,0.955123,0.069173
0.304493,0.068687,0.879394,0.846535,0.479374,-0.231472
-0.478951,-0.514728,0.380486,0.860869,-0.459741,-0.218042
-0.637958,-0.657706,0.304606,-0.388859,0.835841,0.387504
-0.188924,0.217769,0.888872,-0.844380,0.139930,0.517148
-0.567481,0.022688,0.152461,0.263082,0.748207,0.609076
0.112732,0.130130,0.868680,0.379239,-0.245735,0.892072
-0.480212,-0.481806,0.621849,0.796473,-0.500924,0.338681
0.573039,0.125688,-0.977280,-0.044615,0.038204,0.998273
0.186126,0.683654,-0.320114,-0.452801,-0.446962,0.771490
0.028498,0.216067,0.942884,-0.559390,0.082172,0.824821
-0.445408,-0.375278,0.345485,-0.771856,0.517083,0.369952
-0.047024,0.090482,0.148285,-0.209553,0.936244,0.282020
0.012850,0.065781,0.745958,0.772570,-0.627956,0.093848
0.308790,0.034727,0.655682,0.741375,0.202937,-0.639671
-0.277335,0.703539,0.614198,0.028490,-0.913103,0.406733
-0.692589,0.184017,0.515103,0.102280,-0.987460,0.120258
-0.555262,0.114561,0.556450,-0.632688,0.627514,0.453798
-0.591801,0.336793,0.161816,-0.200242,-0.349416,0.915320
0.312968,0.193648,0.896001,-0.674700,0.663544,-0.323249
-0.328459,0.336378,0.806769,0.694357,0.208756,-0.688687
-0.777257,-0.050462,0.515872,0.083382,0.897311,0.433451
-0.227828,0.467193,0.773788,-0.171798,0.336094,0.926027
0.224241,0.585262,0.095400,-0.486913,0.704860,0.515838
0.060465,-0.304909,0.830424,0.256457,-0.165386,0.952301
-0.178636,0.005584,0.870919,0.899421,-0.346954,0.265829
-0.828695,0.450046,0.105482,0.445152,0.106140,0.889142
-0.432125,-0.036056,0.744804,-0.496181,0.636788,-0.590174
0.542846,0.830576,0.757579,-0.055634,-0.815288,0.576377
0.740993,0.068645,-0.025879,0.028198,-0.898131,-0.438824
0.477414,0.630098,0.745038,-0.138044,-0.734743,0.664151
0.288254,0.101733,0.350060,-0.268464,0.909990,-0.315984
-0.193457,0.284567,0.671644,-0.260113,-0.696943,0.668290
0.572763,0.759668,0.745189,0.805654,0.051445,0.590148
-0.405479,0.252185,-0.169535,0.531123,-0.715817,-0.453337
-0.456878,0.257166,0.683361,-0.251795,0.411347,0.876010
-0.136381,-0.018619,0.844407,-0.658757,-0.262958,-0.704906
-0.623414,-0.413098,0.734419,-0.480936,-0.576037,-0.660970
-0.126251,0.608344,0.165236,0.464401,0.153922,-0.872146
0.161096,0.524276,0.908639,-0.215197,0.975818,-0.038334
0.237722,-0.047058,0.140290,-0.532199,0.521169,0.667194
-0.699448,0.499533,0.646506,-0.220124,0.448285,0.866364
0.280213,0.587628,0.842113,0.640111,-0.389879,-0.662006
0.148285,0.699761,0.754131,-0.087801,-0.378887,0.921269
0.208199,0.430327,0.505034,-0.136140,0.351858,0.926100
0.471265,0.309849,-0.319922,0.660163,0.749751,-0.045362
0.370083,0.672070,0.779873,0.789545,0.385721,0.477324
-0.727828,0.103809,0.769090,0.723382,-0.675018,0.145153
-0.369373,0.229351,0.160346,0.035722,-0.290363,0.956250
-0.234292,0.226901,-0.068531,-0.622735,0.291549,0.726086
-0.026606,0.476575,0.833844,0.931842,0.362632,0.013016
0.328853,0.272527,0.600791,-0.308859,-0.742284,0.594659
-0.012968,0.626030,0.875726,0.457678,-0.407694,0.790137
-0.092550,-0.285355,0.776673,-0.371584,0.753134,-0.542876
0.360386,0.545573,0.854352,0.993811,0.097073,0.054009
0.383603,0.388687,0.028819,-0.022384,-0.553398,0.832616
0.032874,0.673607,0.114713,0.771884,-0.532205,0.347783
-0.475916,-0.624535,0.268204,0.757118,-0.268207,0.595682
-0.836973,0.361245,0.454965,-0.856275,0.516366,0.012608
-0.740244,0.257291,0.743911,0.216775,0.659462,0.719805
-0.112495,0.160311,0.849600,-0.372352,0.225122,-0.900374
0.261923,0.153129,0.096141,0.082427,0.993071,0.083758
0.463855,0.484587,0.746617,0.946881,0.311835,0.078587
-0.437603,-0.115226,0.743128,0.237280,-0.257592,0.936667
-0.050769,0.364318,0.855671,-0.550256,0.346224,0.759834
-0.629641,0.225947,0.510350,0.075139,-0.964949,0.251451
0.217265,0.689133,0.869119,0.161601,-0.116172,0.979995
-0.636933,-0.860841,0.163258,0.703950,-0.017177,0.710042
0.459519,0.602864,0.848995,-0.728232,0.465010,0.503433
-0.263185,0.665968,0.793541,0.079409,-0.353819,0.931937
0.687584,-0.156285,0.087364,0.386256,0.823328,0.415857
-0.599448,0.017623,0.746631,0.273162,0.587273,-0.761900
-0.044974,-0.087411,0.116938,0.184390,-0.592694,0.784037
-0.540087,-0.106549,0.275526,-0.188806,0.460540,0.867327
-0.068427,0.343393,0.666149,-0.218989,0.095139,-0.971078
-0.405242,-0.294863,0.657729,-0.554741,0.678127,-0.482086
0.089160,-0.054115,0.176472,0.192760,0.233326,-0.953102
-0.741466,-0.083716,0.148656,0.106962,0.018444,0.994092
-0.650453,0.191531,0.720188,0.338385,0.340351,-0.877301
-0.578518,-0.007162,0.777305,-0.255458,-0.614307,0.746571
0.025778,0.127307,0.931455,0.179542,-0.983142,0.034593
-0.238037,-0.245833,-0.019519,0.095109,-0.582866,0.806983
-0.260938,-0.231012,0.860465,-0.076834,-0.870146,0.486767
0.413678,0.619180,0.770862,0.920174,-0.057842,0.387212
0.231376,0.099325,0.529856,0.514396,-0.729888,0.450177
0.452976,0.212454,-0.006181,0.956462,0.274450,0.099284
0.453528,0.790721,0.098765,0.986105,-0.165867,0.009264
0.484588,0.305200,-0.596244,-0.295429,0.955020,0.025662
-0.699487,0.401930,0.608401,0.626431,-0.241214,-0.741215
0.551478,0.225532,-0.166733,0.485230,0.873112,-0.047207
-0.400709,-0.078900,0.743444,-0.317018,-0.128769,-0.939637
-0.034765,-0.209009,0.318150,-0.243664,0.375736,0.894120
-0.816082,-0.049798,0.562769,0.390624,0.637358,0.664220
-0.853449,-0.087826,0.125634,0.472279,0.102047,-0.875522
-0.400473,0.140840,0.484306,-0.653391,-0.196494,-0.731075
-0.453212,-0.162636,0.480886,-0.130108,0.594547,-0.793465
-0.363461,-0.160644,0.324345,0.924193,0.013439,0.381690
-0.607607,0.178951,0.728856,-0.131291,-0.160874,0.978204
-0.163067,-0.164256,0.849641,-0.512063,0.832186,-0.212738
-0.181553,0.253430,-0.050358,0.667668,-0.090318,-0.738960
0.543831,0.702542,0.771604,0.343599,-0.788488,0.510124
-0.574379,-0.389393,0.717963,0.706657,-0.045470,0.706094
-0.638234,0.114146,0.727125,0.116709,-0.829835,0.545667
-0.388648,0.147109,0.160895,0.394830,-0.312390,-0.864015
-0.351951,-0.003051,0.599816,0.521111,-0.290522,-0.802521
-0.944461,-0.052620,0.145359,0.630840,0.040058,0.774879
0.378360,0.002802,0.871880,-0.211057,0.378256,0.901320
-0.342136,0.376523,0.590626,0.262876,-0.092748,-0.960361
0.028813,-0.116595,0.578057,-0.128458,0.906495,-0.402202
-0.107923,0.359834,0.343274,0.350365,0.213868,-0.911869
0.420300,0.226694,-0.988818,-0.099651,0.160799,0.981944
0.239614,0.304245,-0.343686,-0.016043,-0.117821,0.992905
-0.663106,0.273897,0.728389,0.759721,0.446518,-0.472701
0.345881,0.436554,0.875397,0.922078,0.386311,0.023134
0.450059,0.348625,-0.988626,0.496924,-0.225385,-0.838014
0.028183,0.088282,0.791233,0.817204,-0.276662,-0.505604
-0.601537,-0.430618,0.640517,-0.556278,0.692960,-0.458652
0.317895,0.049549,0.233066,0.158273,0.900115,0.405884
0.515333,0.279128,0.884628,-0.794114,0.523232,0.309212
-0.458100,0.209507,0.150139,0.118499,0.717905,-0.685981
-0.802483,0.247244,0.126636,-0.312198,-0.023255,0.949732
-0.618289,0.504473,0.616574,-0.141383,0.632533,0.761520
0.536027,0.123653,-0.980192,-0.074221,0.081491,0.993907
0.250611,0.061962,-0.019904,-0.135806,0.373854,0.917491
0.408238,0.225989,0.002225,0.985613,0.098718,0.137193
0.268033,0.236575,-0.023833,0.178854,-0.185185,-0.966291
0.216555,0.366393,0.843899,-0.490207,0.792523,0.362774
0.300236,0.668375,0.716548,-0.526106,0.356437,-0.772117
-0.791880,-0.047058,0.560214,0.354279,0.801729,0.481369
-0.461214,0.420156,0.816302,-0.410347,0.795178,0.446439
0.038707,0.585594,0.676974,0.272954,0.337552,-0.900864
0.430390,0.239190,-0.206734,0.890207,-0.448124,0.081953
0.130075,0.676388,0.867004,-0.040702,-0.195847,0.979789
-0.338510,-0.107047,0.497809,0.063396,-0.099242,0.993042
-0.675049,-0.080436,0.544279,-0.529025,0.660465,0.532840
-0.507095,-0.453534,0.834270,0.946319,-0.320934,-0.038490
0.116673,0.017623,0.630984,-0.609259,0.005388,-0.792953
0.098345,0.640560,0.117296,0.941218,-0.326838,-0.085354
-0.654395,0.399938,0.670380,0.803792,0.544432,0.239817
-0.091683,-0.347961,0.752703,-0.296314,0.575086,-0.762544
0.212731,0.142708,0.677290,0.963446,0.129355,-0.234604
-0.568900,-0.024847,0.800629,0.242475,-0.820640,0.517452
-0.416515,0.270286,0.414580,-0.601010,0.692821,0.398480
-0.630942,-0.213825,0.220594,-0.217492,0.733595,0.643844
-0.189082,-0.289424,0.726535,-0.761004,-0.228652,-0.607117
0.241151,0.598921,0.739818,-0.658539,-0.716016,-0.231619
-0.333543,0.372039,0.677496,-0.108289,-0.174661,0.978656
-0.312416,0.076782,0.179220,0.223939,0.351396,0.909050
0.139141,-0.106923,0.869023,-0.359625,0.739858,0.568578
-0.032913,-0.045978,0.628388,0.847420,-0.469340,-0.248193
0.603114,0.238277,-0.975137,-0.222049,-0.316905,0.922098
-0.644186,-0.485584,0.709309,-0.531403,0.448576,0.718603
0.281001,0.581069,0.802964,-0.417666,-0.907937,-0.034721
-0.391801,-0.440706,0.595750,0.662633,-0.529494,0.529673
-0.576034,-0.610545,0.623264,0.954926,-0.241218,-0.173001
0.166180,0.168946,0.849723,0.394449,-0.308199,0.865692
0.028104,-0.388023,0.712908,0.475953,-0.765340,-0.433270
-0.806740,0.277841,0.068669,0.782205,-0.160571,-0.601973
-0.295664,0.662148,0.769873,0.745254,-0.192231,0.638469
-0.588293,-0.016212,0.802319,-0.081008,0.953530,-0.290203
-0.595349,0.015506,0.715628,-0.290986,0.944330,0.153520
0.139259,0.098993,0.040317,-0.336605,0.783722,-0.521993
-0.507647,0.581028,0.177956,0.724906,0.265056,-0.635812
-0.257036,-0.259034,0.878529,0.409844,0.761233,0.502546
-0.683169,0.285646,0.730024,0.836317,0.534595,0.121578
-0.271305,0.357135,0.457822,-0.636501,-0.084302,0.766655
0.354789,0.723383,0.775436,0.197072,0.970918,-0.135944
-0.727986,0.092766,0.142639,0.112407,0.095940,0.989020
-0.205755,-0.229393,0.553455,-0.396059,0.094128,-0.913388
-0.639416,-0.099076,0.597522,-0.675173,-0.736817,-0.035245
0.437840,0.246207,0.942197,0.910243,0.025795,-0.413269
-0.509460,-0.262522,0.696754,0.118973,-0.416879,0.901142
-0.517934,-0.610254,0.673292,-0.585523,0.754726,0.295891
-0.632716,-0.338246,0.344538,0.520369,-0.309516,0.795875
-0.122664,0.089694,0.581231,0.910965,0.410612,-0.039249
-0.308435,-0.683820,0.146966,0.289366,-0.825312,-0.484899
-0.568151,-0.203280,0.447712,-0.395190,-0.916800,-0.057474
-0.203272,0.154624,0.858322,0.954102,0.087833,-0.286311
0.394245,0.183477,0.880562,-0.559041,0.375295,-0.739342
-0.542373,0.169860,0.291639,0.609362,0.367205,-0.702736
-0.376035,0.047681,0.732908,0.715101,0.505430,0.482878
-0.651557,0.305116,0.644487,0.184908,0.919240,-0.347574
-0.594048,-0.236824,0.732524,0.570284,-0.080204,-0.817523
-0.586559,0.015672,0.521601,-0.155114,-0.987503,-0.027893
-0.326882,0.296440,0.774351,0.803891,0.323056,0.499393
-0.235633,-0.413472,0.546725,-0.020807,-0.571365,0.820432
-0.714111,-0.059429,0.560969,-0.004975,0.930608,0.365983
-0.111943,-0.127971,0.799379,-0.136304,-0.796995,-0.588405
-0.677178,0.664639,0.167942,-0.086712,0.188186,0.978298
-0.659874,0.044400,0.748568,0.897734,-0.343555,-0.275759
0.298502,0.367514,0.102433,0.050984,-0.378969,0.924004
-0.173315,0.586715,0.754296,0.511539,0.839619,0.182666
-0.256050,-0.307774,0.925933,-0.027595,0.789502,0.613127
-0.084627,0.290130,0.863460,-0.390768,0.550218,0.737943
0.421443,0.517550,0.914394,0.882226,0.287001,0.373239
-0.765865,0.202076,0.526491,0.039452,0.014521,0.999116
0.505834,-0.034146,0.007692,-0.303436,0.276348,0.911898
0.789003,0.278879,-0.538290,0.330236,0.313235,0.890409
0.348719,0.127473,0.262902,0.780108,-0.625030,0.027730
-0.778005,0.306113,0.619404,-0.108638,0.881148,-0.460191
-0.555065,0.106798,0.711686,0.293462,-0.704348,0.646355
-0.449074,-0.025470,0.485268,0.892010,0.076721,-0.445458
0.539693,0.301173,-0.578181,-0.541306,0.822142,0.176268
-0.521521,-0.392382,0.785327,-0.536027,0.645040,0.544609
0.371502,0.353606,0.907609,0.701267,0.403688,-0.587588
-0.606425,-0.039211,0.576203,0.921230,-0.387768,-0.031166
0.361647,0.360996,-0.994354,-0.138951,0.130407,0.981675
-0.422546,0.521909,0.124810,0.008122,0.667286,0.744757
0.064249,0.569818,0.838130,-0.704492,-0.404624,-0.583070
0.237800,-0.162802,0.903845,0.176618,-0.966656,-0.185423
0.168033,-0.152216,0.883007,0.260887,-0.649651,-0.714067
-0.648955,-0.473337,0.601093,-0.595744,0.765212,0.244006
-0.801971,-0.193108,0.540090,-0.512046,0.858837,0.014416
0.146236,0.012517,0.251679,-0.364573,0.859051,0.359330
0.564131,0.514312,0.704144,0.836482,-0.106807,0.537484
-0.297714,-0.174676,0.017514,-0.228427,-0.184326,-0.955952
-0.805833,0.363944,0.128821,-0.154797,-0.456657,0.876072
-0.769058,0.182771,0.457053,0.722918,-0.252421,-0.643174
-0.377099,0.221796,0.564074,-0.696165,0.176290,0.695900
-0.642727,0.155994,-0.185703,0.393839,-0.914919,-0.088398
-0.442333,-0.532538,0.553565,0.481636,-0.780437,0.398680
-0.293772,0.292662,0.674309,0.173473,0.307112,-0.935729
-0.760702,0.055900,0.142681,0.309628,-0.218188,-0.925486
-0.783366,0.305116,0.629514,0.137272,-0.887596,0.439694
-0.365865,0.225283,-0.076622,0.370422,-0.434603,-0.820919
-0.316082,-0.269040,0.866001,-0.271603,0.951423,-0.145004
-0.689909,0.022190,0.696205,0.355006,-0.093668,0.930160
0.385022,0.482636,0.870534,0.046028,0.140769,0.988972
0.083563,-0.112610,0.833858,0.054171,0.763474,-0.643562
0.430430,0.266673,0.866427,0.737976,0.483160,0.471113
0.070398,0.236948,0.900713,-0.664311,-0.679924,0.310475
0.171738,0.028625,0.867457,-0.074774,0.654299,0.752530
-0.154316,-0.297727,0.840163,0.742358,-0.233664,0.627938
0.523256,0.681619,0.729406,0.965095,-0.238274,0.108702
-0.115767,-0.162014,0.881262,0.134587,0.665234,0.734405
0.382618,0.201702,0.051347,-0.291846,0.942732,0.161501
-0.553291,-0.179782,0.435816,0.058071,0.910878,0.408569
-0.718368,-0.071427,0.151637,-0.347880,0.032679,-0.936969
0.030666,0.284235,0.917155,0.879427,0.428280,-0.207807
-0.624123,0.130503,0.212338,0.640872,0.424141,-0.639834
0.591052,0.321183,-0.913804,0.018533,0.997348,0.070387
0.350768,0.053617,0.869806,-0.160443,0.544923,-0.822993
-0.407962,-0.609590,0.515186,0.119911,-0.746156,0.654883
-0.406070,0.288967,0.285842,0.405455,-0.588686,-0.699324
0.650138,0.324048,-0.973571,0.301319,0.139250,0.943301
-0.256602,-0.071676,0.488935,-0.124978,0.639836,-0.758281
-0.453843,-0.266508,0.833281,-0.614244,0.111780,-0.781159
-0.059953,0.536689,0.647976,0.923864,0.382659,0.006852
0.161490,0.689175,0.134027,0.964205,0.190796,-0.184132
-0.501655,-0.271905,0.698348,0.179928,-0.347697,0.920181
0.484588,0.394001,-0.990302,-0.492985,0.177259,0.851789
-0.671817,-0.501028,0.639281,0.209336,-0.700590,0.682167
0.487544,0.635662,0.764186,-0.110000,-0.586746,0.802265
-0.476744,0.377312,0.685504,0.092957,0.264988,-0.959761
-0.714545,0.329071,0.144068,0.701111,0.399126,-0.590882
0.173985,0.463207,0.846207,0.357374,-0.903781,0.235507
-0.135120,0.106259,0.079534,-0.520531,0.355591,0.776274
-0.070398,0.132703,0.907828,-0.182965,0.976053,0.117660
-0.529917,0.341235,0.469443,-0.326327,0.185872,0.926802
-0.597122,-0.372206,0.724557,-0.522489,-0.165276,-0.836474
-0.273078,0.127847,0.156925,0.434052,0.190674,0.880478
0.521206,0.289050,-0.268081,0.993202,0.024011,0.113900
-0.783445,0.406954,0.125757,0.038550,0.455761,0.889267
-0.475404,0.417457,0.682605,0.167795,0.201725,0.964962
0.055577,0.277093,0.638731,0.116778,0.305291,0.945071
-0.178636,-0.010316,0.754942,0.184873,0.207685,0.960567
-0.203035,-0.489611,0.680105,0.637297,0.770408,-0.018028
-0.803035,0.361910,0.726425,0.913857,0.260394,-0.311545
0.235829,0.104639,0.895026,-0.246974,0.488030,-0.837156
0.124911,0.088531,0.189646,0.412825,0.695864,0.587664
0.423019,0.452870,0.036951,0.148599,-0.383335,0.911577
-0.832006,0.404338,0.141060,0.202059,-0.276409,-0.939559
0.072684,0.161764,0.882759,0.955541,0.024283,0.293858
-0.313441,-0.434188,-0.137996,0.379677,-0.286438,-0.879658
-0.430745,0.195890,0.144343,0.498724,0.244841,-0.831461
-0.198186,0.126145,0.847869,0.908339,0.253673,-0.332520
0.119354,0.642096,-0.337147,-0.462648,-0.444807,0.766879
0.136934,0.189912,0.852773,0.480536,-0.241273,0.843133
0.470989,0.271738,-0.122612,0.811247,-0.451883,-0.371053
0.568624,0.092351,-0.983228,0.017859,0.032012,0.999328
-0.193338,0.094177,0.549458,0.555572,0.801941,0.219616
-0.383918,-0.540550,0.530969,0.280416,-0.612614,0.738966
-0.183405,0.100986,0.754173,0.480094,0.784772,-0.391972
0.226606,0.073711,0.736260,0.922253,-0.313797,-0.225788
-0.736500,0.291333,0.449951,-0.109503,0.952442,0.284366
-0.539535,0.307441,0.156527,0.224778,0.417477,-0.880447
-0.428419,-0.316658,0.707523,-0.230607,0.570060,0.788576
-0.183169,-0.148770,0.279660,-0.096395,0.398632,0.912031
-0.730193,0.313419,0.115208,0.527570,0.745566,-0.407187
-0.059953,0.223664,0.926414,-0.114822,0.895072,0.430886
0.429996,0.285521,0.930123,0.963788,-0.139485,-0.227279
0.496886,0.313544,-0.327532,0.980251,0.186858,0.064743
-0.302010,-0.464369,0.899312,0.183755,-0.960678,-0.208165
-0.638865,-0.090773,0.588882,-0.515819,0.659391,0.546932
-0.403075,0.456731,0.135634,-0.226013,0.755965,0.614357
0.018684,-0.032610,0.266419,-0.377444,0.658317,-0.651272
0.290856,0.464079,0.657715,-0.180954,-0.656707,0.732115
-0.231691,-0.391552,0.553249,0.012581,-0.622678,0.782377
0.215294,0.102979,0.560612,-0.663876,0.620022,0.418140
-0.630666,0.074582,0.750519,0.720496,-0.425734,-0.547390
0.480213,0.788313,0.716260,0.490525,0.072942,-0.868369
-0.686283,0.605273,0.170648,0.170223,0.358037,-0.918060
0.244226,0.290254,0.880314,0.371021,0.088939,-0.924356
-0.332321,0.350867,0.323315,0.408680,0.613948,-0.675313
-0.571028,0.210047,-0.165964,-0.338420,0.926275,0.165792
0.249113,-0.062460,0.892155,-0.670378,0.707340,-0.224193
0.599645,0.086995,-0.071169,0.418736,0.780895,0.463533
0.210603,0.239398,0.857374,0.131355,-0.419620,0.898145
-0.050059,-0.111697,-0.146142,-0.272720,0.226915,0.934951
0.310721,0.103892,0.917609,0.247263,-0.932786,0.262244
-0.083681,0.042947,0.524485,0.883192,0.468219,0.027269
