-0.543079,-0.431878,0.501835,0.771955,0.143423,0.619286
-0.561344,-0.540336,0.791475,-0.227397,-0.638581,0.735191
0.071937,0.223206,0.635787,0.812703,0.492299,0.311699
0.280866,0.122952,-0.176096,0.672392,0.678991,0.294721
-0.449341,0.756699,0.083580,0.773576,0.611905,0.164779
-0.184799,-0.184990,0.153933,0.909528,-0.388318,-0.148216
0.113209,0.562265,0.641691,0.900854,0.426086,0.083139
-0.629053,-0.399854,0.544636,0.860528,0.066982,0.504980
-0.465441,-0.167952,0.858460,0.995473,0.093686,-0.016014
-0.121463,-0.089862,0.693427,0.413867,0.264110,0.871183
-0.047870,-0.101930,0.218010,0.998308,-0.020501,-0.054416
0.401123,-0.147365,0.624563,-0.690017,0.334854,0.641677
-0.811421,0.320423,0.254233,-0.059174,-0.996450,0.059879
-0.615814,0.080909,0.724810,0.806667,0.255322,0.533010
0.446808,-0.050383,0.000691,0.424419,0.846752,-0.320748
-0.688059,-0.341997,0.544494,0.144277,-0.941433,-0.304776
-0.524936,-0.475064,0.441109,-0.065470,-0.491020,0.868685
-0.087997,0.706335,0.689491,-0.334827,-0.826496,-0.452543
-0.079008,0.452860,0.691389,-0.665716,-0.744715,0.047141
0.461395,-0.292737,0.789507,-0.415732,-0.826518,-0.379520
-0.664481,-0.565183,0.579405,0.123788,0.735829,0.665757
0.238369,-0.007514,0.484477,-0.305267,0.438268,0.845419
0.404964,0.327246,-0.987163,-0.026508,0.060331,0.997826
0.677761,-0.041628,0.397121,0.881505,0.311424,0.354914
-0.415671,-0.761314,0.647719,0.898318,0.350154,0.265361
0.909654,-0.479561,0.324604,0.005267,-0.794365,0.607418
-0.290142,-0.529688,0.557082,-0.531127,0.187145,0.826366
0.292839,-0.023486,-0.143650,0.839623,0.521794,-0.150879
-0.693779,-0.186844,0.709810,0.449106,0.181283,0.874894
-0.300521,0.209994,0.685502,-0.544082,-0.829266,-0.127645
-0.070181,-0.551931,0.354923,-0.395101,0.561952,0.726709
-0.313025,-0.755950,0.726015,-0.053068,0.382843,0.922288
0.417346,-0.258306,0.265403,-0.246028,0.721970,0.646706
0.278578,0.346533,0.251077,0.638235,-0.067861,-0.766845
-0.266647,0.129065,0.681371,0.475135,0.865850,0.156686
-0.253489,-0.546804,0.784862,0.879420,0.430706,-0.202765
0.214302,-0.163377,0.994060,0.939079,-0.342358,-0.030359
-0.843294,-0.485831,0.615964,-0.100337,-0.448415,0.888176
-0.040106,-0.136677,0.607454,-0.435267,-0.560627,0.704443
-0.332557,0.152136,0.192674,0.456455,-0.865207,-0.207523
0.218837,0.309302,-0.301768,0.195525,0.978506,-0.065540
-0.146757,-0.136874,0.622719,-0.173038,0.976398,-0.129248
0.419225,0.126738,0.746370,0.849489,-0.407475,-0.335160
0.478149,0.164599,0.734827,-0.094524,-0.101494,0.990335
-0.146389,-0.679359,0.397777,-0.599987,-0.268459,-0.753621
0.116478,0.277869,0.083811,0.823619,0.415851,0.385642
-0.128042,0.161602,0.523998,-0.180346,0.934475,0.306971
0.133517,0.234368,0.491179,-0.289534,0.919378,0.266297
0.406313,-0.255192,0.601142,-0.720350,-0.517200,0.462169
-0.569476,0.525152,0.339125,-0.686382,0.503183,-0.525060
-0.330841,0.270651,0.695395,0.862903,-0.147842,0.483262
-0.087548,0.150835,0.822858,0.903233,0.270557,0.333120
0.673102,-0.137583,0.715643,-0.660634,0.516844,-0.544458
0.212708,0.192798,0.773302,-0.740067,0.401087,0.539842
-0.205230,-0.648873,0.812627,-0.223509,0.601866,0.766681
0.921258,-0.154858,0.511392,-0.711251,-0.193334,0.675829
0.074144,-0.087771,0.505771,-0.488701,0.861130,0.140093
-0.383799,-0.005541,0.188170,0.773087,-0.101849,0.626070
0.540790,-0.277198,0.564139,-0.115358,0.527300,0.841812
0.189784,0.352408,0.725732,0.362864,0.776753,-0.514766
-0.551129,-0.220170,0.898636,0.085934,0.952099,0.293468
0.255981,0.125240,0.348593,-0.715447,0.278583,0.640724
-0.590602,0.297589,0.654811,-0.117285,0.983494,0.137778
-0.275146,-0.535170,0.380986,0.835104,-0.259991,0.484774
0.196812,-0.398829,0.697966,0.740787,0.572929,0.350696
-0.572009,-0.489263,0.705963,0.746736,0.646961,0.154360
-0.167801,-0.860464,0.690573,-0.528766,-0.846404,-0.063294
-0.374196,-0.436651,0.695023,0.816333,-0.078985,0.572155
0.525223,0.202263,-0.972110,-0.173131,-0.001427,0.984898
0.160445,-0.241308,0.329462,0.775418,0.626899,0.075666
-0.386209,-0.000336,0.845003,-0.037050,0.792989,0.608108
0.144836,-0.526019,0.482190,-0.715936,0.507676,0.479270
-0.745755,0.024749,0.654421,0.331189,0.134290,0.933959
0.067484,0.421349,0.711264,0.884023,0.360191,-0.297934
-0.396098,-0.062413,0.820234,0.462552,-0.119231,-0.878538
-0.219410,-0.692098,0.695254,0.287069,-0.687295,-0.667246
-0.031975,0.317702,0.828709,0.977667,0.024939,-0.208674
-0.518439,-0.232474,0.420453,0.997700,0.057599,0.035749
-0.248095,-0.678570,0.731813,0.914165,0.015857,0.405033
-0.395690,-0.583089,0.677523,0.126028,-0.541712,0.831063
-0.540423,-0.054642,0.789702,0.535268,-0.813807,0.226289
-0.058209,0.409043,0.599918,0.955878,0.289723,0.048553
0.061436,-0.308591,0.915126,-0.253813,0.934204,0.250682
-0.354663,-0.055945,0.456517,0.285237,-0.653337,0.701278
0.334968,-0.412474,0.699314,0.856383,0.395277,-0.332211
-0.349392,-0.008854,0.822095,-0.193758,0.512335,0.836642
-0.195832,0.647532,0.712842,-0.656538,-0.020326,0.754019
-0.054898,-0.470371,0.756884,0.246687,-0.233489,-0.940547
0.129063,0.155134,0.832379,-0.726637,-0.571967,0.380595
-0.247400,-0.755595,0.750678,-0.341983,-0.475772,0.810363
0.349801,0.016820,-0.155689,0.839623,0.521794,-0.150879
-0.119747,-0.902782,0.770554,-0.610511,0.463184,0.642446
0.049586,-0.023367,0.425826,-0.531851,-0.527118,-0.662782
-0.565758,0.042968,0.548519,0.657759,0.076095,0.749375
-0.174870,0.122084,0.298913,-0.238382,0.174521,0.955362
-0.043702,0.391887,0.884240,0.863731,-0.370473,0.341641
0.183900,0.302834,0.766919,0.603886,0.774794,-0.187127
0.401001,-0.116287,0.788922,0.877626,0.266056,-0.398732
-0.537440,-0.045296,0.441464,-0.070086,-0.711908,0.698767
0.834712,-0.277198,0.386890,-0.750662,-0.194993,-0.631255
-0.164981,-0.159788,0.518430,-0.629554,0.314340,-0.710529
-0.773747,0.010787,0.657187,-0.702684,-0.399881,-0.588498
0.241149,-0.548855,0.769135,0.406856,0.874781,-0.263108
0.331862,0.057600,-0.155795,0.870785,0.169443,-0.461544
0.820411,-0.245332,0.424709,0.895622,-0.226097,0.383067
0.670977,0.121138,0.903778,0.917313,-0.398112,-0.006624
-0.535397,0.547356,0.379922,0.923964,-0.216892,-0.315036
-0.121136,-0.750271,0.412617,-0.643661,0.284048,0.710646
0.137481,0.149179,-0.091559,0.179322,0.135256,0.974448
0.017877,0.229911,0.708055,0.842880,-0.234652,0.484244
0.099806,0.359824,0.617844,0.468539,-0.592825,0.655003
-0.225212,0.336200,0.791192,-0.444989,0.811742,-0.378233
0.175278,-0.603241,0.352972,0.757775,-0.264456,-0.596524
-0.361079,0.723571,0.301094,-0.122038,-0.685467,0.717803
-0.152355,-0.490091,0.674811,-0.259296,0.852092,-0.454649
-0.205966,-0.452939,0.767912,-0.670436,-0.738882,-0.067592
-0.052488,-0.786279,0.878300,-0.365694,0.849619,-0.380019
-0.322914,-0.188657,0.778781,0.745769,0.533691,0.398750
0.008642,-0.530083,0.363930,-0.226272,0.790863,0.568627
-0.163633,-0.218947,0.812947,0.926470,-0.036159,-0.374628
0.651445,-0.001281,0.376199,0.640495,0.342141,-0.687536
-0.489182,-0.078622,0.774419,0.900304,0.308646,0.306903
-0.595465,-0.424227,0.896066,0.196494,0.131606,0.971633
0.061518,-0.098618,0.502899,-0.488701,0.861130,0.140093
0.670365,-0.575910,0.461907,-0.170807,0.669185,0.723198
0.192359,0.218553,0.039574,0.187764,0.933473,0.305571
0.089753,-0.089547,0.509495,-0.491854,0.853955,0.169823
-0.227541,-0.176313,0.507721,-0.103059,-0.837374,0.536828
-0.487262,-0.027429,0.782628,0.867857,-0.494210,0.050806
0.614465,0.015085,0.702878,-0.041058,-0.467842,0.882858
0.370354,0.061427,-0.115193,0.839623,0.521794,-0.150879
0.045704,0.124765,0.133756,0.935456,-0.199961,0.291442
-0.371662,-0.765297,0.643960,-0.227157,-0.828087,0.512515
-0.160650,0.522510,0.744774,-0.359592,-0.892375,0.272691
-0.927511,-0.351777,0.609794,0.174741,0.489466,0.854335
-0.757442,0.055076,0.640964,-0.458378,-0.112473,-0.881612
-0.313842,0.044073,0.787380,0.264243,0.956203,0.125906
0.026335,0.407939,-0.072534,0.561778,0.827051,0.019801
-0.184186,0.261146,-0.043067,0.762196,-0.026804,0.646791
-0.257248,-0.266943,0.767752,-0.609110,0.252050,-0.751968
-0.027930,-0.290332,0.727983,0.811460,-0.147855,0.565395
-0.009296,-0.713080,0.749739,-0.422926,0.694953,0.581527
-0.173399,0.782532,0.632950,-0.298852,-0.895295,-0.330355
0.323159,0.033228,-0.148863,0.839623,0.521794,-0.150879
0.210256,0.103665,-0.066559,-0.660965,-0.723986,-0.197409
-0.448034,-0.077518,0.465736,-0.474523,0.694283,-0.541109
-0.162611,-0.581116,0.393752,0.265537,0.558911,0.785562
-0.428379,-0.652895,0.691016,0.740276,-0.421140,0.524054
-0.143447,-0.477588,0.564015,-0.374241,-0.334921,-0.864738
0.070916,0.281891,0.762877,-0.159671,-0.200458,0.966603
-0.521013,0.520893,0.075442,-0.480104,0.874419,-0.069936
0.009296,0.346413,0.693055,0.943160,0.076589,-0.323394
-0.259700,0.534814,0.660077,-0.314314,0.949047,-0.022710
-0.115170,0.301374,0.906261,-0.705669,0.464892,-0.534702
-0.496619,0.596892,0.375171,-0.550443,0.695215,0.462265
0.261661,-0.210625,0.442226,0.065253,0.812498,0.579300
0.076228,-0.504881,0.778408,0.493981,-0.801768,-0.336381
-0.628318,-0.143657,0.704101,0.285538,0.802205,0.524342
0.289610,-0.504013,0.540540,-0.522829,0.644492,0.557924
0.105771,-0.601979,0.771352,0.960200,0.267972,-0.078789
0.061314,-0.621936,0.705892,0.574611,-0.751044,-0.325201
0.241149,-0.481532,0.678658,-0.239818,-0.006410,0.970797
-0.075861,0.138412,0.868194,0.181606,0.883944,-0.430885
0.352784,0.132811,0.465843,0.869938,0.361853,-0.335066
-0.289897,-0.770306,0.582117,-0.528236,-0.264033,-0.807002
-0.521096,0.475813,0.321395,0.693655,0.680034,0.237481
-0.254429,-0.437834,0.598057,-0.225560,-0.851085,-0.474106
-0.261743,-0.001046,0.833159,0.414974,0.771792,0.481802
-0.225130,-0.542150,0.812096,0.374131,0.379422,0.846206
-0.161385,0.281734,0.510594,-0.094654,-0.992657,0.075322
-0.208541,-0.680740,0.704828,-0.174782,0.802342,0.570700
0.302891,0.286584,-0.974469,0.035498,-0.274774,0.960853
0.113168,-0.332295,0.447900,0.871640,-0.210843,0.442480
0.134253,0.095501,0.254162,-0.226669,0.970189,0.085761
-0.476637,-0.477746,0.824063,-0.763450,-0.379347,-0.522724
0.123506,-0.284967,0.845747,0.869091,-0.360995,-0.338177
-0.201145,0.390034,0.637294,0.707174,0.666571,0.235771
0.216182,0.057443,-0.993954,-0.080245,-0.227405,0.970488
-0.416692,0.358561,0.652666,0.482253,-0.578926,0.657477
-0.405659,-0.158328,0.379763,0.041428,0.974271,-0.221541
-0.020738,0.536590,0.796723,0.653582,0.518187,-0.551645
-0.493677,0.431011,0.303700,0.869709,0.348377,0.349628
-0.233221,-0.238824,0.121097,0.935483,-0.134635,-0.326719
-0.338687,-0.541283,0.432936,-0.811885,0.351895,-0.465846
-0.395607,-0.043284,0.678126,0.356939,-0.831633,-0.425419
-0.636041,-0.370275,0.498076,0.671948,0.666267,0.323381
-0.107120,0.760328,0.732842,0.835118,0.149411,-0.529391
-0.296639,-0.740372,0.583589,0.640569,0.210132,0.738590
0.135805,-0.317268,0.316874,0.835363,-0.130281,0.534037
0.141853,0.472541,0.406216,0.788607,0.208408,-0.578502
-0.646501,0.108044,0.618411,0.983235,0.017963,0.181455
0.027276,0.194297,0.516055,0.069270,-0.891414,0.447866
-0.252018,-0.399617,0.554795,0.974789,-0.223060,-0.005561
-0.240045,0.441029,0.402511,0.744647,0.616449,0.255912
-0.038717,0.302124,0.839542,0.986839,-0.087949,0.135698
-0.205598,0.776616,0.662134,0.869874,0.314386,0.380106
0.030871,0.009169,0.229003,-0.258475,-0.076345,0.962996
-0.102462,0.520420,0.685981,0.741363,0.663195,-0.102732
-0.315763,-0.482045,0.763639,0.154850,0.434417,0.887301
0.034794,-0.145787,0.556887,0.463713,-0.855757,-0.229455
-0.257493,-0.588294,0.764543,-0.188478,0.034124,0.981484
-0.291940,-0.609158,0.821705,-0.708457,-0.307410,-0.635285
-0.323282,0.430774,0.457510,0.514570,0.465531,0.720069
-0.343304,-0.534026,0.447616,0.559838,0.581712,0.590078
-0.066871,0.322593,0.468467,0.022884,0.704021,0.709810
-0.579324,-0.288754,0.936561,0.925190,0.290741,0.243914
0.414772,-0.018675,-0.144111,0.798108,0.581652,-0.157176
0.140668,0.388259,0.756777,-0.384643,0.882889,-0.269362
-0.366228,0.253613,0.745678,0.291363,0.657234,0.695091
-0.065400,0.705389,0.396766,0.971493,0.205205,0.118713
0.030422,-0.481335,0.550168,-0.163436,0.432350,-0.886771
0.068587,0.365029,0.663924,0.968290,0.249608,-0.010506
-0.367331,0.469070,0.206521,-0.037267,-0.889530,0.455355
0.322750,0.287019,-0.984185,0.003841,-0.139699,0.990187
-0.017346,-0.428999,0.777610,0.628299,-0.232713,0.742351
-0.548309,-0.478338,0.690821,-0.581548,-0.347436,-0.735588
-0.266401,-0.479916,0.650786,-0.293873,-0.735579,0.610379
-0.762469,-0.335686,0.572543,0.801780,-0.590993,0.088746
0.518766,-0.272268,0.162657,0.357230,0.795351,0.489697
-0.477741,-0.324841,0.830925,0.933735,-0.055332,-0.353662
-0.446849,-0.708426,0.630804,-0.445044,-0.724313,0.526599
0.114516,0.024709,0.424851,-0.115705,-0.231138,0.966016
0.231219,-0.085209,0.161770,0.532429,0.757242,0.378291
0.447992,0.031492,0.611053,0.836617,-0.465857,-0.288184
0.535641,-0.226874,0.540647,-0.251987,0.735335,0.629115
0.077168,-0.119678,0.601957,0.807634,-0.533781,-0.250609
-0.141690,0.108793,0.746529,-0.107402,-0.945946,0.306025
0.118766,-0.340221,0.458893,0.797606,0.602390,0.030826
-0.562488,0.223482,0.371305,-0.172690,0.857285,0.485015
0.247441,0.310643,0.738125,0.995562,0.091506,0.021995
0.559383,0.067264,0.719065,0.337209,-0.912804,0.230388
0.527184,0.074638,0.697505,0.504694,-0.673719,-0.539802
-0.232731,-0.075822,0.298825,0.933851,-0.304757,0.187202
0.012892,0.077320,0.591887,0.136737,0.884694,0.445667
-0.053795,0.421191,0.910782,0.935733,-0.076279,0.344362
0.091756,-0.073614,0.866509,-0.177696,0.800462,0.572437
-0.099356,0.855928,0.434124,0.776459,0.479331,-0.409089
-0.446236,0.608330,0.735164,-0.364534,-0.620336,-0.694477
0.306854,0.364832,-0.980993,0.159964,-0.199218,0.966811
0.442804,-0.074915,0.668126,0.974757,-0.171442,0.143029
-0.296190,-0.667488,0.368203,-0.737164,-0.050658,-0.673813
-0.489468,-0.602295,0.626496,0.101718,0.458756,0.882721
0.160078,-0.317545,0.246254,0.988099,-0.153359,0.011882
-0.231791,0.484925,-0.046045,-0.379709,-0.655861,-0.652432
0.455878,0.073140,0.700909,-0.405012,-0.767664,0.496646
-0.302728,-0.701090,0.681637,-0.092059,0.925545,0.367275
-0.722464,0.263513,0.679722,0.212558,-0.973822,-0.080559
0.276780,-0.210073,0.106647,0.538854,-0.058468,-0.840368
0.044315,-0.372444,0.756547,-0.051337,-0.297450,0.953356
-0.209276,0.192010,0.890959,0.971925,0.190195,0.138519
0.087506,-0.455857,0.534317,0.632850,-0.205422,0.746527
0.169271,-0.548618,0.525434,0.888254,0.185897,-0.420057
-0.009378,-0.732405,0.692807,0.828664,0.046313,-0.557827
-0.349024,0.373351,0.640042,0.889813,-0.377294,0.256674
-0.359322,-0.038472,0.965018,0.299063,0.947319,0.114665
0.380284,-0.164205,0.631230,-0.642172,0.699048,-0.314557
-0.807376,-0.553627,0.648056,0.903248,-0.407325,-0.135015
-0.020901,0.082250,0.076435,0.485044,0.759461,0.433534
-0.217366,-0.366371,0.813301,0.280588,0.847217,-0.451102
-0.455430,-0.253889,0.881811,0.851017,-0.440913,-0.285247
-0.103647,-0.142829,0.086896,-0.602895,0.548086,-0.579757
0.187823,-0.566327,0.554299,0.812008,-0.389173,-0.434956
-0.510144,-0.341287,0.805996,-0.828347,-0.555185,-0.074908
-0.386536,-0.023683,0.755589,-0.143848,0.730795,-0.667268
0.761243,-0.322159,0.294817,-0.412322,-0.081588,0.907377
-0.531188,-0.517817,0.763869,-0.246069,-0.614962,-0.749181
0.472469,-0.029875,0.701317,-0.617831,0.542729,0.568973
-0.381346,-0.308710,0.444052,-0.738246,0.599330,0.309510
-0.593340,-0.437479,0.731494,-0.703894,-0.579554,-0.410670
0.193380,0.341445,0.811244,0.553593,0.742294,0.377537
0.129227,0.136873,0.880428,0.636231,0.679538,0.365292
0.022413,-0.038947,0.989734,-0.223488,0.806785,0.546946
0.325896,0.349294,-0.983121,0.103246,-0.169887,0.980040
0.503074,-0.300704,0.790057,-0.278790,0.952025,0.126188
0.211441,-0.021120,0.499211,0.609317,-0.394264,-0.687960
0.175401,0.297707,0.222868,-0.219306,-0.421967,0.879686
-0.109531,-0.671393,0.389603,0.980949,-0.172078,-0.090153
-0.058617,0.789355,0.389355,0.850616,0.472867,-0.229888
0.531474,-0.240322,0.274765,-0.270101,0.639686,0.719616
0.122484,-0.341602,0.460559,0.797606,0.602390,0.030826
-0.670569,-0.306029,0.503448,0.884611,0.239719,0.399997
-0.342936,-0.582970,0.681513,-0.369471,0.805063,-0.464074
0.227378,0.046597,0.034290,0.856374,0.495881,0.143963
-0.291531,-0.214765,0.839666,0.093359,0.672663,0.734036
0.197875,-0.535209,0.798851,-0.211924,0.960658,-0.179510
-0.532251,0.350910,0.321040,0.959906,-0.270249,0.074470
-0.123302,0.723018,0.636159,0.955648,-0.149497,0.253747
-0.428788,-0.575713,0.684154,-0.508532,-0.763220,-0.398610
-0.347635,-0.727672,0.759100,-0.167700,-0.898501,0.405676
0.734396,0.059771,0.775908,0.900055,-0.127177,-0.416805
-0.525386,-0.388495,0.905250,0.843143,-0.008123,0.537627
-0.167433,0.753110,0.186185,0.035576,0.346765,0.937277
-0.356380,0.272584,0.602560,-0.268592,0.808371,0.523827
-0.128492,0.369131,0.778958,0.312168,-0.520529,0.794733
0.246011,-0.056338,0.444407,0.895797,0.431522,-0.106469
0.023434,0.300073,0.245545,-0.114621,-0.120374,0.986089
-0.387558,0.120388,0.759419,0.826277,0.532387,0.183929
0.033363,-0.015874,0.443609,0.530209,0.754977,0.385861
-0.079906,-0.270099,0.875375,0.648910,0.732502,-0.205807
-0.206538,0.394964,0.269552,0.446738,0.373435,0.813001
0.567269,-0.339355,0.564068,-0.206079,-0.486865,0.848819
0.476392,-0.195204,0.703551,0.244632,0.783988,0.570541
0.510553,-0.257716,0.767611,-0.287606,-0.903489,-0.317791
-0.061641,-0.743211,0.741795,0.976306,-0.133375,0.170406
-0.437859,-0.703022,0.764419,0.862496,0.490620,0.124066
-0.370355,0.154858,0.625202,-0.540632,0.116835,-0.833107
-0.818408,0.081659,0.659882,0.840525,0.219451,0.495337
-0.226152,0.551615,0.619829,-0.191029,0.560345,0.805929
-0.257575,-0.410897,0.786192,0.307995,0.079558,0.948056
-0.239922,0.494272,0.253134,0.789840,-0.612676,-0.027940
0.110308,0.417010,0.760412,0.731512,0.593465,-0.335692
-0.342691,-0.222456,0.875375,0.287286,0.916237,0.279244
-0.440964,-0.081540,0.695130,0.429904,-0.765335,-0.479004
-0.194075,-0.172842,0.731405,0.852241,-0.443979,0.276710
0.467524,-0.376388,0.521338,0.126625,0.898667,0.419957
0.036224,-0.806945,0.817202,0.390477,0.121795,-0.912521
0.404474,-0.281615,0.587046,0.383050,0.432798,-0.816063
0.075738,-0.080870,0.281431,0.970630,0.053541,-0.234543
0.247890,0.205222,-0.221610,0.855963,0.515010,0.045727
-0.232445,-0.147009,0.839932,0.051958,-0.023688,0.998368
-0.132210,-0.649346,0.630539,-0.627441,-0.331581,-0.704537
0.159914,-0.417326,0.736795,-0.062499,-0.731085,0.679417
-0.293616,0.111159,0.886367,-0.800320,0.470757,-0.371316
0.148105,-0.533671,0.846492,0.154959,0.965220,-0.210564
0.033977,-0.569600,0.632205,0.713298,-0.673299,-0.194615
0.741670,-0.168898,0.370082,0.657624,0.114362,-0.744616
0.473899,-0.075152,0.643322,0.656231,-0.511180,-0.555028
0.374359,0.147522,0.700502,0.663364,0.748267,0.006745
-0.207846,-0.418587,0.352033,-0.063699,0.117996,0.990969
-0.206906,0.511506,0.677683,-0.422413,0.768344,-0.480849
-0.118112,-0.195125,0.894771,0.975341,0.104880,-0.194191
0.109408,0.163416,0.675431,0.896490,0.143341,0.419237
-0.240617,0.116326,0.170103,-0.706860,-0.595248,-0.382137
0.023148,-0.800280,0.779135,0.893605,-0.406736,-0.189831
0.885299,-0.186961,0.537721,0.759144,0.650413,0.025760
-0.086975,0.150322,0.883442,-0.007146,-0.941360,0.337327
0.282460,-0.163613,0.429585,0.226614,0.789224,0.570765
0.452242,0.032755,0.111611,0.266913,-0.014985,0.963604
-0.014976,0.384276,0.778000,-0.016792,-0.033702,0.999291
-0.130657,0.190629,0.856315,0.745172,-0.660189,0.094178
-0.438676,0.659245,0.532313,0.798273,-0.247818,-0.548951
0.041455,-0.826349,0.808638,0.662541,-0.532147,-0.527123
0.013913,-0.569403,0.840340,-0.441372,-0.800756,0.404945
-0.369783,0.300546,0.312885,0.407065,0.900683,-0.151883
-0.263255,-0.812466,0.746973,-0.339261,-0.424601,-0.839414
-0.794791,-0.566445,0.679740,-0.452435,0.381334,-0.806156
0.002595,0.105046,0.878477,0.676176,0.477463,-0.561084
0.042803,-0.263079,0.077889,-0.149960,-0.370990,0.916449
-0.199878,-0.536865,0.747682,0.985780,-0.153064,0.069348
-0.417510,-0.704403,0.745820,-0.427821,-0.894535,0.129523
-0.531965,0.174419,0.683091,-0.094765,-0.677962,0.728963
-0.012157,-0.607619,0.816351,-0.172998,0.116316,0.978030
-0.232486,0.071365,0.213028,-0.302533,0.918482,0.254686
-0.290469,0.246712,0.673091,0.694286,0.490118,0.527021
-0.275023,-0.079687,0.785518,-0.685263,0.683335,0.251929
-0.327082,0.242215,0.141558,-0.650589,0.575828,-0.495132
-0.862662,-0.049161,0.714296,0.897853,0.047565,0.437719
-0.451384,-0.013034,0.836244,-0.443402,0.274811,-0.853155
-0.294351,0.478141,0.579830,0.868850,-0.151043,-0.471472
-0.125917,0.528899,0.714668,0.538195,0.840612,0.060979
0.593381,0.016110,0.788869,-0.511004,0.794083,0.329101
0.134171,-0.699513,0.885374,-0.636901,0.727484,0.255197
0.327816,0.180020,-0.986224,-0.163509,-0.019806,0.986343
0.417182,0.249670,-0.982979,-0.080318,-0.026817,0.996409
0.225375,-0.463311,0.401642,-0.311099,-0.703914,0.638531
-0.323037,-0.569403,0.637772,-0.601393,0.613957,0.511257
0.631750,-0.296918,0.410560,-0.393150,-0.754058,0.526147
0.528450,0.129065,0.738480,-0.046306,-0.158157,0.986328
-0.140709,0.802646,0.613127,0.642578,0.278081,-0.713978
0.086281,0.196190,0.053988,0.608028,0.606989,0.511729
-0.136827,-0.285639,0.776405,0.185538,0.561673,0.806287
-0.198039,0.396186,0.416588,0.190995,-0.178654,0.965196
0.106058,0.396975,0.783355,0.761075,-0.636312,0.125982
0.670446,0.181637,0.901261,0.929949,-0.367184,-0.019245
-0.466708,0.492969,0.497066,0.256837,-0.595870,0.760903
-0.213934,-0.849461,0.776476,-0.410382,-0.899528,0.149789
-0.091838,-0.103153,0.606886,0.929406,0.281814,0.238299
0.235876,0.193390,-0.988121,-0.087315,-0.031425,0.995685
-0.511043,0.009644,0.558589,0.144199,0.033975,0.988965
0.513331,-0.068249,0.067782,-0.102724,-0.635299,0.765404
0.331249,0.109030,0.642967,0.587821,0.797912,-0.133426
-0.513863,-0.303898,0.429407,0.228448,0.682485,0.694281
0.066544,-0.605411,0.888123,0.841903,0.206867,0.498402
-0.472673,-0.102483,0.707115,-0.023422,0.747266,0.664112
-0.134989,0.137504,0.557295,-0.396422,-0.778096,-0.487254
-0.332230,-0.247224,0.338717,0.712959,0.311604,0.628166
0.098007,-0.507405,0.530576,0.149695,-0.563779,0.812247
0.220390,-0.568457,0.855056,-0.269968,0.957798,0.098694
0.517663,-0.016348,0.319746,0.660128,0.746807,-0.080690
-0.277883,-0.405415,0.193525,-0.190169,0.478418,0.857293
0.636040,0.145826,0.799170,0.798455,0.347343,-0.491754
-0.177567,-0.421427,0.931757,-0.522379,-0.711744,-0.469617
-0.457065,-0.215042,0.838939,0.649790,-0.419669,0.633760
0.476433,0.073298,0.698764,-0.541358,-0.606580,0.582230
-0.475575,-0.496164,0.830109,0.849195,0.363176,0.383369
0.246052,-0.256375,0.966844,0.989921,-0.110106,-0.089063
-0.320176,-0.638540,0.883548,0.762774,0.578686,0.288613
-0.065032,0.072785,0.699083,-0.224948,-0.970975,0.081280
-0.371948,-0.575674,0.852361,-0.008343,-0.950085,0.311879
0.337542,-0.383250,0.349090,-0.003621,-0.033169,0.999443
0.281683,0.427264,-0.974681,-0.239213,-0.076793,-0.967926
0.245928,0.372838,0.612631,-0.060322,0.314581,0.947312
-0.018327,-0.075230,0.241574,0.756216,-0.562251,0.334680
-0.258310,-0.558360,0.740235,-0.447852,0.369901,-0.814003
0.121299,0.305397,0.596638,-0.666930,0.167145,-0.726131
-0.084769,0.452427,0.700768,-0.623272,-0.780027,0.055576
-0.526530,-0.536944,0.615858,-0.178375,0.651200,0.737646
0.201961,0.313088,0.732203,-0.601265,0.763355,0.236154
-0.338319,0.023289,0.781121,-0.275262,0.918668,-0.283336
0.429891,-0.041353,0.478821,0.120597,0.756816,0.642406
-0.139770,-0.913510,0.706300,0.266274,0.920418,0.286232
-0.137277,0.563724,0.301892,0.765946,0.439699,0.469033
-0.611646,-0.433456,0.526994,0.886778,0.148612,0.437653
-0.550639,-0.373035,0.907821,0.940411,-0.339806,0.012598
0.308203,-0.516318,0.858726,0.837793,-0.377067,-0.394871
-0.689979,0.346453,0.387404,-0.444625,0.025510,-0.895354
-0.053795,0.268403,0.810393,0.849148,-0.286079,0.443966
0.219941,-0.091953,0.505541,-0.370639,-0.098213,0.923570
0.272571,-0.077399,0.493537,0.317127,-0.303421,-0.898536
-0.261253,-0.662676,0.772380,0.356685,-0.403193,-0.842740
-0.082317,-0.652028,0.571515,0.754951,-0.026993,0.655225
0.086281,0.036619,0.413060,-0.166440,0.258508,-0.951563
-0.566779,0.152610,0.584546,0.367921,-0.637096,0.677305
-0.220390,-0.620911,0.452652,0.001430,-0.874982,0.484152
-0.381020,0.229240,0.760607,0.204182,-0.006798,0.978909
-0.626765,-0.508075,0.555132,0.111555,-0.456228,-0.882843
-0.114435,-0.231291,0.462634,-0.532648,0.796846,-0.285171
-0.337829,0.185187,0.726831,0.865891,0.086760,0.492651
0.178221,0.135296,0.851226,0.834288,0.548883,0.051880
0.875166,-0.398197,0.317477,0.558006,0.724353,-0.404898
0.739545,-0.295064,0.416234,0.205860,-0.971771,-0.115254
0.728798,-0.179783,0.309356,0.353353,0.744147,-0.566910
-0.404475,0.057285,0.787202,-0.434314,0.079768,-0.897222
-0.552191,0.027390,0.702399,0.209871,0.770498,0.601902
0.286464,-0.336239,0.371695,0.219201,0.600770,0.768782
-0.809868,-0.117983,0.650219,0.751909,-0.284191,0.594868
0.882521,-0.534657,0.258506,-0.668354,0.321401,0.670824
0.160241,0.326813,-0.622312,-0.457549,0.884282,0.093247
-0.264971,0.156120,0.113544,0.552763,0.830969,0.062804
-0.158444,-0.580643,0.604156,-0.412472,-0.645121,-0.643184
-0.165431,-0.171501,0.737877,0.816707,-0.292830,0.497233
0.191337,-0.592317,0.340756,0.793783,-0.536963,-0.285620
-0.362305,-0.621975,0.677311,-0.584363,0.433405,-0.686061
-0.577485,0.316361,0.758586,0.240504,0.527101,0.815060
0.235182,-0.043127,0.050513,0.907204,0.409615,0.095897
0.543529,-0.400643,0.538040,0.143113,0.294723,0.944805
-0.128900,-0.435270,0.696672,0.907272,-0.417710,-0.048746
0.433690,0.086864,0.101186,0.183920,0.225427,0.956743
-0.667709,-0.595354,0.600184,-0.034783,0.820723,0.570266
-0.066258,-0.223916,0.258311,0.983325,-0.153353,0.097746
-0.641925,-0.735954,0.661673,-0.419460,-0.887342,-0.191513
0.048279,0.591647,0.622365,0.617926,0.753204,-0.225502
-0.167719,0.144485,0.839825,-0.553817,0.776638,0.300200
-0.445296,-0.093964,0.459744,-0.141236,-0.656966,0.740573
-0.141567,0.093490,0.331448,-0.398648,-0.722436,-0.564948
-0.724303,0.174972,0.615769,-0.696021,-0.683003,0.221500
0.719277,-0.285520,0.462102,0.179598,0.032236,0.983212
-0.349923,-0.230818,0.867839,-0.090882,0.907835,0.409361
0.021922,-0.881445,0.608411,0.928944,0.052359,0.366499
-0.543243,0.074638,0.563713,0.415328,-0.022451,0.909395
0.933967,-0.378794,0.265634,0.343858,0.867613,-0.359178
-0.114516,0.739819,0.625343,0.957505,0.153763,-0.244012
0.135969,-0.348780,0.326040,-0.150751,-0.190490,0.970045
0.042068,0.409359,0.688268,0.924352,0.339770,-0.173577
-0.067402,0.418943,0.901757,0.968891,-0.078606,0.234672
0.346450,-0.410030,0.740536,0.124258,-0.988183,-0.089746
-0.634365,-0.164758,0.686814,-0.655723,-0.740617,-0.146679
0.097926,0.098815,0.559724,-0.766791,0.586694,-0.260426
-0.151783,0.218118,0.311094,-0.073972,0.766075,0.638481
0.071079,0.367396,0.777929,0.334629,-0.852187,0.402245
0.182306,0.097750,0.814578,0.335799,0.902328,-0.270264
-0.680989,-0.538286,0.794525,0.421130,0.801057,0.425390
0.336111,0.432904,-0.981188,0.166660,0.073685,0.983257
0.752048,-0.181006,0.455506,-0.117760,-0.229889,0.966066
-0.037205,0.024236,0.861563,0.865553,-0.253486,-0.431929
0.344857,-0.258622,0.538483,0.887732,0.450545,0.094556
0.020696,0.336948,0.253985,-0.205833,-0.046600,0.977477
0.057391,0.308237,0.060159,0.870156,0.489331,-0.058166
-0.381061,-0.047426,0.821865,0.560983,-0.315225,-0.765462
-0.391562,0.096922,0.619829,-0.562798,0.287977,-0.774808
0.669057,0.209521,0.848088,0.999092,-0.039235,-0.016590
0.267709,0.233539,-0.346802,0.193039,0.947506,0.254890
0.644458,-0.359468,0.185848,0.540476,0.744792,0.391371
0.910634,-0.434206,0.330367,-0.364435,-0.757059,0.542263
-0.059557,0.544872,0.244127,-0.773205,-0.598379,0.209995
-0.401655,0.546725,0.751707,-0.666698,0.541972,-0.511644
-0.303667,-0.622094,0.828460,0.687243,0.436770,0.580456
0.144713,-0.693479,0.374923,0.799800,0.599457,0.031151
-0.248544,-0.079607,0.763001,0.320679,0.540378,0.777918
-0.163469,0.777169,0.607737,0.636264,0.633018,-0.440971
0.148268,-0.446392,0.615025,-0.699158,0.598680,0.390845
0.536418,-0.292225,0.350845,0.829150,-0.084025,-0.552675
-0.318827,-0.037606,0.439655,-0.422792,-0.905003,0.047084
-0.026213,-0.140857,0.422812,-0.299408,-0.139604,-0.943857
-0.567392,-0.364004,0.691619,0.184641,0.694205,0.695692
0.543365,-0.400643,0.537473,0.143113,0.294723,0.944805
-0.076106,0.387075,0.608429,0.958112,0.041197,0.283417
0.583083,-0.089586,0.864506,0.809918,-0.463402,-0.359570
0.453509,-0.087771,0.650893,0.906570,0.233587,0.351523
0.200163,-0.576975,0.864719,0.233681,-0.314584,-0.920016
-0.229543,-0.171106,0.392032,0.413292,-0.867787,0.275927
-0.046644,0.173789,0.480098,0.963462,0.131136,0.233548
-0.008765,-0.814478,0.745820,-0.316018,0.037275,0.948021
-0.616835,-0.510639,0.520647,0.329838,0.644267,0.690020
0.573235,0.057404,0.746015,0.668928,-0.545989,-0.504412
0.092246,-0.110174,0.605468,0.839461,-0.351759,-0.414210
-0.243396,0.265564,0.264180,-0.659348,0.420894,0.622983
0.330800,-0.320344,0.497278,0.873667,0.480231,0.078008
0.020451,-0.521209,0.380614,0.272702,-0.690040,-0.670432
-0.126285,0.516831,0.725094,0.005673,-0.865394,0.501060
0.336235,0.116641,-0.986525,-0.102628,0.178961,0.978489
-0.274778,0.593500,0.720111,0.143801,0.973087,-0.180065
-0.116192,-0.097750,0.327157,0.270060,0.862333,0.428309
-0.097518,0.372996,0.241698,-0.431298,-0.253488,-0.865867
-0.158035,0.814438,0.172054,-0.545127,0.807445,0.225544
0.020043,0.209244,0.233223,0.903378,0.372488,0.212511
-0.568659,0.108241,0.560061,-0.091387,-0.500967,0.860628
-0.450813,-0.330717,0.477013,0.840300,-0.356379,0.408522
-0.134621,-0.297510,0.796245,0.759948,0.225784,0.609508
0.422944,0.130327,0.741547,-0.616225,0.695981,0.368615
0.211972,-0.077596,0.885516,0.783188,0.415098,-0.462936
-0.700521,-0.150401,0.563412,-0.730135,0.575362,-0.368595
0.187128,-0.233657,0.480062,-0.467478,0.675673,-0.570026
0.377955,0.153872,-0.987358,0.174370,0.021941,-0.984436
-0.531107,0.380371,0.314463,0.872966,0.047444,0.485468
0.249362,-0.090769,0.656229,-0.113600,0.596878,0.794249
-0.204209,-0.529530,0.851368,0.690362,0.050165,-0.721723
-0.533640,-0.296247,0.930551,0.846860,0.262235,0.462667
0.523098,0.140936,0.745891,0.439683,0.376834,0.815276
-0.282869,-0.554101,0.361926,0.915326,-0.353103,0.193639
-0.495066,0.380923,0.359940,-0.756955,-0.561032,-0.335056
-0.599673,0.049121,0.593766,0.783990,0.047026,0.618989
0.092246,-0.482163,0.624492,-0.603223,0.702770,0.377144
0.471202,-0.283193,0.785234,0.099672,0.945619,0.309631
0.107570,0.363924,0.828833,0.720590,0.665764,0.193673
0.133517,-0.342588,0.398911,0.785370,0.482544,0.387744
0.318826,-0.084380,0.112250,-0.129328,0.978207,0.162436
-0.438594,0.604543,0.513679,0.903397,0.045804,-0.426353
-0.268608,-0.357023,0.185121,-0.319637,0.704040,0.634161
-0.420084,0.397645,0.681052,-0.613009,0.521610,-0.593417
-0.361856,0.409201,0.198560,-0.775041,0.310082,-0.550601
-0.138707,0.796218,0.624829,0.731020,0.218957,-0.646273
0.086158,0.296839,0.405862,0.861833,-0.394505,0.318763
-0.412075,0.285598,0.775252,0.934939,-0.147428,0.322730
-0.517949,-0.360138,0.779117,-0.487154,-0.872649,0.034121
-0.184963,-0.664293,0.824578,-0.560058,0.826712,0.053679
-0.399571,0.696278,0.548590,0.268589,-0.650592,-0.710345
-0.100705,0.143894,0.869133,0.976605,0.140715,-0.162610
-0.187251,0.106979,0.650981,-0.014935,0.987290,0.158224
0.246379,0.085997,0.461942,0.392152,-0.799605,-0.454807
-0.952968,-0.317663,0.611248,0.162447,0.247715,0.955117
-0.584146,0.452466,0.188560,-0.609511,0.295169,-0.735780
0.391685,0.146023,-0.986490,-0.132714,-0.009387,0.991110
-0.333906,-0.282483,0.350490,-0.655635,-0.348529,-0.669828
0.054980,-0.149889,0.568359,0.707350,-0.702098,-0.081938
0.286668,0.120861,-0.992199,-0.001856,-0.005977,0.999980
-0.476106,0.232317,0.755093,-0.119984,0.437155,0.891347
0.438798,0.185935,-0.983564,-0.001846,0.005044,0.999986
0.550067,-0.521602,0.591284,-0.424241,-0.864352,-0.270029
-0.332230,-0.582221,0.651301,0.803338,-0.443566,0.397362
-0.536991,-0.380608,0.457882,0.193117,0.591816,0.782598
-0.262315,-0.401471,0.705147,0.868169,-0.077764,-0.490137
0.174502,-0.229162,0.926313,0.898959,-0.272103,-0.343268
-0.096619,-0.722822,0.746263,0.820096,-0.569710,0.053607
-0.708162,-0.600600,0.573128,0.300379,0.605907,0.736647
0.408765,0.077952,0.095442,0.089942,0.364032,0.927034
0.639922,0.132023,0.809489,0.940397,-0.060525,-0.334648
-0.681479,-0.561870,0.579369,0.448168,0.774180,0.446979
0.634979,0.111711,0.738586,0.350650,0.833767,-0.426470
-0.230483,-0.791169,0.796103,0.673185,0.698991,0.241317
0.577566,-0.247737,0.734420,-0.264468,-0.913900,-0.307966
-0.387639,-0.644810,0.675272,0.808930,-0.435206,0.395258
-0.395935,0.236734,0.617471,0.424401,-0.455276,-0.782692
-0.221494,-0.318846,0.518041,0.964878,0.141155,0.221554
-0.223578,0.275739,0.179164,-0.020391,-0.612409,0.790278
-0.539687,-0.160024,0.481871,0.751217,0.611031,0.249628
-0.324058,-0.251326,0.332033,0.846132,0.200130,0.493972
-0.827725,-0.538088,0.691867,0.990896,-0.118262,0.064334
0.226805,0.268680,-0.471694,-0.017494,0.966784,0.254994
-0.025028,-0.509021,0.243684,0.453445,-0.256291,-0.853641
-0.522362,-0.491352,0.607152,0.239463,-0.779853,-0.578349
0.203228,0.284218,-0.253932,0.980454,-0.186567,0.062466
-0.512841,0.348109,0.701140,0.827401,0.340647,0.446505
0.378323,-0.200371,0.230705,0.803056,0.129890,-0.581575
0.106589,0.098578,0.537419,-0.382541,0.432190,-0.816624
-0.211523,-0.750942,0.849169,0.920052,-0.324944,0.218897
0.644498,-0.554810,0.585929,0.728540,0.502924,-0.465078
-0.389192,-0.051724,1.000000,-0.069419,-0.994555,-0.077723
-0.439984,0.328509,0.485435,0.925462,-0.120247,-0.359250
-0.493227,0.528819,0.257868,-0.767355,-0.388932,-0.509801
0.082235,0.385972,0.789543,-0.475672,0.878551,-0.043417
0.203147,0.474197,0.465595,-0.741121,0.542568,-0.395423
-0.258065,0.049279,0.227053,-0.101588,-0.979195,-0.175662
0.118194,-0.383211,0.333576,0.914966,0.213580,0.342375
0.470181,-0.276290,0.790270,-0.411442,-0.794077,-0.447389
0.454735,-0.350398,0.569883,-0.213286,-0.668073,0.712873
-0.474676,-0.318768,0.903441,-0.239363,0.970528,0.027933
0.728757,-0.240717,0.300261,0.371178,0.485222,-0.791698
-0.254633,-0.382304,0.189624,-0.187187,0.517057,0.835232
-0.080642,-0.551971,0.347299,-0.399938,0.536062,0.743429
0.441086,-0.015283,0.461091,-0.212542,0.526946,0.822894
-0.517745,-0.349017,0.884045,-0.442127,0.274328,-0.853972
0.438430,-0.264262,0.794011,-0.224096,-0.764477,0.604446
-0.108469,0.184595,0.879133,-0.678679,-0.239409,0.694319
-0.642537,0.273372,0.165511,0.519687,0.424900,0.741205
-0.257207,0.347281,0.709704,0.866153,-0.478378,0.144686
-0.293493,-0.031216,0.759490,0.867413,0.412718,0.277954
-0.285443,0.303307,0.591000,-0.067552,0.445062,0.892948
-0.276658,-0.160537,0.534405,0.867926,0.496102,-0.024231
-0.463848,0.538009,0.523501,0.947354,-0.317302,0.042897
-0.419022,0.716117,0.525079,0.578585,-0.402875,-0.709176
0.264970,-0.206011,0.556604,0.186006,0.646149,0.740198
-0.086404,0.192246,0.441996,0.509984,0.855587,0.088813
0.125386,0.241664,0.032925,-0.223126,-0.956588,-0.187495
-0.532087,0.088679,0.661566,0.141790,0.000363,-0.989897
-0.060088,-0.515686,0.957767,0.172888,0.512732,-0.840961
-0.525713,0.087890,0.677931,0.245862,-0.060442,0.967419
0.434222,0.071720,0.595060,0.899457,-0.399869,-0.176301
-0.629012,-0.237049,0.854400,-0.527956,-0.846563,0.067779
0.139647,0.251879,-0.996401,-0.202413,0.005025,0.979287
0.413505,-0.126502,0.725413,0.447669,0.697254,0.559847
-0.146716,-0.307014,0.788319,-0.560211,0.036393,-0.827550
0.050608,0.224468,0.240758,0.990144,0.117616,0.076039
0.421637,-0.211295,0.836191,0.879842,0.042714,-0.473344
0.234283,0.170633,-0.179713,0.449461,0.846685,0.284798
-0.212994,0.071839,0.785802,-0.549967,0.764805,0.335575
-0.240413,0.247461,0.594723,-0.633149,-0.086841,0.769143
0.258269,-0.172842,0.703746,0.399322,0.871714,-0.284001
0.091102,-0.417721,0.750129,-0.746485,0.655899,-0.112057
0.018980,0.045927,0.272761,0.921268,0.107626,-0.373742
0.284830,-0.484846,0.794507,0.865827,-0.450047,-0.218636
0.124691,-0.727357,0.915037,0.818119,-0.573571,-0.041198
0.307100,-0.471120,0.860322,0.980912,0.053334,-0.186997
0.189662,0.144367,0.236556,-0.154427,-0.925657,0.345416
-0.122035,0.143657,0.532562,-0.489955,-0.719317,-0.492470
0.126857,0.378873,0.397014,-0.902619,0.430438,-0.001625
-0.095066,0.864644,0.450861,0.825994,0.350206,-0.441690
0.600204,-0.130051,0.408681,-0.331764,0.490603,0.805755
0.294964,-0.474709,0.817698,0.927439,-0.300030,-0.223244
-0.238410,-0.025931,0.320402,-0.688313,0.204089,0.696113
-0.210338,-0.621818,0.830960,-0.458750,0.644580,0.611608
0.166615,0.183451,-0.996809,-0.101428,0.073181,0.992148
0.279599,0.295774,-0.985248,-0.134918,-0.310133,0.941071
-0.130494,0.343299,0.620237,0.054605,0.615773,0.786029
-0.218184,0.530240,0.686388,-0.359893,0.853918,-0.375901
-0.636163,-0.401471,0.552029,0.850301,-0.015624,0.526065
-0.122812,-0.456095,0.656655,0.736564,-0.616401,0.278431
-0.053305,0.377018,0.556799,0.886852,0.444303,-0.126837
0.268689,-0.487488,0.578164,-0.479461,0.665879,0.571595
0.664398,0.023053,0.715750,0.760482,0.298721,-0.576569
-0.182552,0.205379,0.891314,0.048496,0.505794,0.861290
-0.348616,-0.490446,0.689403,0.987038,0.018409,0.159430
0.075534,0.265564,0.714509,0.393143,-0.554796,0.733240
0.144795,0.177575,0.856120,0.945843,-0.136686,0.294446
-0.313638,-0.703772,0.926810,-0.222601,-0.974902,-0.003871
0.303422,0.155647,-0.991720,-0.037786,-0.084264,0.995727
-0.346328,-0.191063,0.808355,0.551070,-0.672035,0.494662
0.129881,0.302399,-0.448609,-0.203620,-0.946104,-0.251845
-0.322382,-0.623158,0.594564,0.971563,-0.038157,-0.233688
0.215037,-0.550946,0.535700,-0.701443,0.505264,0.502678
0.135969,0.219893,-0.008262,0.901262,0.402799,-0.159624
0.064051,-0.775236,0.855623,0.948380,0.316901,-0.012213
0.191746,-0.573189,0.712221,0.079048,-0.805105,0.587841
0.224191,0.307172,-0.825269,-0.484570,0.853758,0.190498
0.049668,-0.030861,0.391163,0.815865,-0.544639,0.194252
0.493553,0.001873,0.312867,0.444307,0.887831,0.119780
-0.340444,0.592515,0.529459,-0.195011,-0.631262,0.750652
0.312697,-0.091163,0.763728,0.759298,-0.234278,-0.607108
-0.455389,-0.574096,0.719970,-0.334440,0.026076,0.942056
-0.404557,0.395239,0.782504,0.956032,-0.269163,0.116420
0.275595,-0.126304,0.189163,-0.025509,0.675762,0.736678
-0.319849,0.381554,0.616035,0.630477,-0.656175,0.414649
-0.057922,0.014179,0.758072,0.351579,0.744680,0.567313
-0.080274,-0.258228,0.268665,0.978006,-0.203750,0.044621
0.175728,0.011773,0.476463,0.722520,-0.443140,-0.530652
-0.104710,0.764588,0.410950,-0.726104,-0.516510,0.453862
0.115742,-0.304529,0.462935,0.879633,-0.336159,0.336517
-0.521300,-0.432706,0.471924,0.907172,-0.298929,0.296108
-0.748984,-0.326812,0.587791,0.717680,0.217207,-0.661632
-0.437082,-0.714145,0.692559,-0.284941,0.807344,-0.516725
-0.272244,0.214569,0.593323,-0.707405,-0.113881,0.697574
-0.040434,0.611051,0.344391,0.363024,-0.541492,0.758287
-0.049219,-0.721322,0.729367,0.729528,-0.100700,-0.676497
-0.097845,-0.594407,0.362050,-0.177236,0.759213,0.626246
-0.131433,0.367435,0.243914,0.471386,0.572372,0.670959
-0.040025,-0.309933,0.976738,0.414848,0.638567,-0.648177
-0.825723,-0.384552,0.596355,-0.601684,-0.417537,-0.680910
0.548800,0.111514,0.669368,-0.520459,0.732402,0.438987
-0.688753,0.206720,0.641708,0.133124,-0.662566,0.737078
0.033323,-0.199858,0.616851,0.278306,-0.731568,-0.622378
-0.109613,0.733154,0.727115,0.688035,0.233649,-0.687034
-0.466831,0.457080,0.506055,0.700163,0.634435,0.327511
-0.540586,-0.407702,0.483963,-0.742379,0.427996,-0.515454
0.022494,-0.617598,0.685768,-0.361692,0.913171,0.187878
0.035897,-0.446708,0.753834,-0.466714,0.573641,0.673137
-0.332230,-0.570823,0.837095,0.762426,-0.371935,0.529501
0.098743,-0.159748,0.737168,0.915471,0.386512,0.111902
0.762632,-0.503027,0.426287,-0.486518,-0.021759,0.873400
-0.196077,0.571612,0.831102,0.902425,0.137554,-0.408299
-0.223087,0.032557,0.294711,0.786970,-0.408656,-0.462253
-0.463562,0.602572,0.192975,0.879698,-0.391734,-0.269586
-0.318419,0.695530,0.662683,-0.107806,0.991902,-0.067147
-0.761079,-0.345231,0.567720,0.689111,0.637437,-0.344673
-0.246011,0.592632,0.602649,-0.271611,0.498156,0.823449
0.076923,0.239849,0.320154,0.436614,-0.897691,0.059316
-0.178875,0.208416,0.869187,0.630816,0.768421,0.107706
0.067525,-0.120034,0.562614,0.765980,-0.642660,-0.016209
0.044151,0.281497,0.695041,0.979206,-0.000588,0.202869
0.065400,-0.096922,0.539263,0.789868,-0.610615,-0.057077
-0.420779,0.106071,0.634865,0.557210,-0.121540,0.821428
-0.464093,0.017649,0.814932,0.874598,-0.483312,-0.038576
0.227418,-0.735048,0.394780,-0.730764,0.260799,0.630847
-0.140791,-0.699749,0.663712,0.774199,0.220491,-0.593295
-0.374032,0.215121,0.763408,-0.296672,0.116206,-0.947883
-0.057228,0.067737,0.761423,0.689471,0.718180,0.094061
0.224967,-0.456055,0.691424,-0.514444,0.825887,0.230778
-0.078885,-0.369447,0.702629,-0.814667,0.579044,-0.032037
-0.769783,-0.555205,0.680165,0.908497,0.330809,0.255340
-0.085831,-0.406993,0.358167,-0.869941,0.492917,-0.015385
0.456697,-0.331467,0.056098,0.255810,-0.827501,0.499804
-0.563510,0.016269,0.563501,-0.018260,0.581895,0.813059
-0.313516,-0.130721,0.834329,-0.718843,0.096460,0.688447
-0.310165,-0.113053,0.752753,0.713813,-0.467028,-0.521877
-0.469241,0.249709,0.008138,-0.117667,0.310379,0.943302
0.429523,0.166571,-0.983192,-0.044016,0.057946,0.997349
-0.154480,-0.538404,0.331820,-0.148092,0.465783,0.872419
-0.274247,0.092426,0.357157,0.448356,0.098861,-0.888371
0.197426,0.276409,0.763976,0.169139,-0.985581,0.004639
0.107038,0.169096,0.201734,0.208684,0.786894,0.580731
-0.044152,0.509259,0.827007,-0.212874,-0.966563,-0.142968
0.100786,-0.538088,0.690857,-0.546984,0.808718,-0.216295
-0.637634,-0.358207,0.545292,0.892017,0.387756,0.232272
0.065032,0.513991,0.237850,-0.070515,-0.305700,0.949513
-0.256758,0.151111,0.439726,-0.668461,0.717117,0.197239
0.381387,-0.274792,0.782593,0.811985,0.298598,-0.501517
-0.061191,-0.912918,0.479264,0.880724,-0.276983,-0.384195
0.410195,-0.352094,0.360721,-0.145324,0.760113,-0.633331
0.032669,0.043640,0.420312,0.723069,-0.215271,0.656376
-0.000470,0.057088,0.521657,-0.666986,-0.739078,0.094300
-0.401451,-0.150519,0.759898,0.283388,0.901913,-0.325952
-0.162652,0.645363,0.300668,0.864073,0.275765,0.421107
-0.529390,-0.260515,0.579564,0.844015,-0.141878,0.517213
-0.026377,-0.368422,0.561657,0.123918,0.183143,0.975245
0.075043,-0.073614,0.812326,0.285793,0.021233,-0.958056
-0.441128,-0.263907,0.660538,-0.313747,0.877960,0.361593
0.064419,-0.362426,0.519689,-0.448085,-0.831898,-0.327361
-0.474063,0.124055,0.677116,0.044729,-0.502522,-0.863407
0.186025,-0.155764,0.231272,-0.060966,0.911613,0.406503
-0.048688,0.378636,0.802468,-0.558016,-0.829122,-0.034279
-0.130330,0.181361,0.353877,-0.605486,0.434711,0.666643
0.078476,0.243083,0.646212,0.566265,0.787297,0.243942
0.122239,-0.375401,0.492739,-0.486059,-0.817085,-0.310031
0.187578,-0.538482,0.751600,-0.641755,-0.137334,0.754513
-0.387926,0.554692,0.706388,0.240873,-0.233992,0.941928
-0.487752,-0.112027,0.711033,0.471445,0.831529,0.293768
0.124282,0.118850,0.740359,0.762653,0.513168,-0.393725
0.053223,-0.048569,0.803177,-0.572937,0.804133,0.158468
0.542425,0.215752,-0.978635,-0.184821,0.010972,0.982711
-0.310450,0.044783,0.757611,0.006142,-0.986973,-0.160770
-0.434181,0.336238,0.358008,0.389484,0.140006,0.910330
0.159505,-0.187159,0.906278,0.817453,-0.572940,-0.059247
0.076718,0.332571,0.760643,-0.673199,0.253374,0.694697
-0.072756,-0.033030,0.565274,0.993419,-0.111047,0.028048
-0.366146,0.205459,0.754419,-0.609492,0.484460,-0.627549
0.429686,0.167636,0.537934,0.934784,-0.036196,-0.353368
0.383470,-0.213780,0.788266,0.902987,0.110150,-0.415309
-0.238615,-0.424030,0.682843,-0.551437,-0.631517,0.545072
0.358423,-0.225415,0.761618,0.950570,-0.093452,-0.296114
-0.207029,0.996844,0.465063,0.875035,0.316682,-0.366096
-0.336725,-0.743487,0.726015,0.681265,0.706818,0.190488
-0.503116,-0.095897,0.733693,0.191041,0.956561,-0.220213
0.220227,0.282444,0.734295,0.983755,-0.178424,0.019765
0.120973,-0.290884,0.385064,0.035692,0.947315,0.318307
0.395525,0.146813,-0.979007,-0.118987,0.004373,0.992886
-0.391440,-0.384591,0.174146,-0.188857,0.726694,0.660491
0.032506,-0.165191,0.596461,0.486700,-0.823241,-0.292227
0.094085,-0.156001,0.701956,-0.679087,0.710564,0.184228
-0.490776,-0.102088,0.756015,-0.574829,-0.782494,0.239320
0.698641,-0.064305,0.796404,-0.710129,-0.335408,0.619046
-0.671345,0.125397,0.607649,-0.538675,-0.825121,-0.170309
-0.475656,-0.407466,0.803691,0.902049,0.400721,0.160403
0.417182,0.262685,-0.982589,-0.094521,0.016945,0.995379
0.100132,-0.044625,0.520505,0.696036,-0.718002,-0.002614
-0.503280,0.365700,0.716229,0.610950,0.566163,0.553353
-0.043007,-0.476366,0.536320,-0.669936,-0.150884,-0.726925
0.014812,-0.066278,0.399071,-0.848912,0.519347,-0.098114
0.533353,-0.264539,0.808816,-0.320551,0.945193,0.062112
0.143569,0.056772,0.728037,0.789468,-0.433979,-0.434054
-0.141322,-0.617361,0.845357,-0.661068,0.723656,-0.198271
0.670242,-0.558123,0.614386,0.150189,0.364872,0.918864
0.012687,0.241111,0.714296,0.914020,-0.174775,0.366089
-0.080765,-0.847410,0.605752,0.855639,0.354293,0.377305
-0.291409,-0.426555,0.512296,0.800050,-0.155392,0.579459
-0.140096,-0.749088,0.693357,-0.701401,0.561176,-0.439452
-0.085913,-0.903886,0.470896,-0.593287,0.559645,0.578626
-0.538911,-0.448956,0.888566,0.609371,-0.062089,0.790451
0.366595,0.101181,0.485825,0.915593,-0.098044,-0.389970
0.288916,0.426830,-0.234570,0.945961,0.214932,-0.242822
-0.086117,-0.189249,0.695325,-0.075759,0.383567,0.920400
-0.087629,-0.073534,0.473910,-0.643689,0.740949,0.191465
0.457350,-0.299521,0.818957,-0.237995,-0.937064,-0.255479
-0.512433,-0.041746,0.880463,0.113720,0.897325,0.426469
-0.112310,-0.057049,0.878194,0.840681,-0.512544,-0.174800
0.185371,-0.006882,0.883938,0.556156,0.820250,-0.133719
0.083297,0.255467,0.414815,0.892928,0.407838,0.190648
-0.100991,0.456055,0.424283,-0.230053,0.374369,0.898289
-0.208786,0.252312,0.160706,0.080711,0.654415,-0.751816
0.279518,0.133206,0.879186,-0.685200,0.288192,-0.668914
-0.038309,0.135415,0.859896,-0.631378,-0.625434,0.458470
-0.228890,0.419691,0.692044,0.901575,-0.425159,-0.080016
-0.448279,0.606318,0.744721,-0.247350,0.856632,0.452769
0.173194,-0.540967,0.281875,0.962468,0.187665,0.196054
-0.088610,-0.263907,0.736689,-0.543762,-0.763286,-0.348880
-0.372235,-0.741712,0.591142,0.373652,0.717242,0.588173
-0.709511,-0.430775,0.540877,-0.215020,0.780863,0.586532
-0.016529,0.167873,0.851279,0.865374,0.436827,-0.245583
-0.313311,0.223718,0.263506,-0.260492,-0.521461,0.812540
-0.269793,0.568101,0.701034,-0.018943,0.866886,0.498146
-0.166575,0.237522,-0.048829,-0.700706,0.084412,-0.708439
-0.684667,-0.219420,0.699615,0.767773,0.516321,-0.379390
0.144877,0.358088,0.400330,-0.890575,0.452219,0.048721
-0.449382,-0.448325,0.434443,0.136348,-0.028776,0.990243
0.190602,-0.579815,0.356306,0.912017,0.086264,0.400978
0.634528,-0.033267,0.337689,0.496801,0.336115,-0.800135
-0.491511,-0.040327,0.844418,0.864256,0.208212,0.457940
-0.046726,0.460511,0.720165,0.517521,0.840981,0.157871
-0.459107,-0.582852,0.630751,0.096429,0.581535,0.807786
-0.183655,0.437400,0.242637,-0.627435,-0.760580,-0.166864
-0.862907,-0.379425,0.611780,0.678856,0.634539,0.369480
-0.008397,0.546095,0.795536,0.757192,0.377083,-0.533356
-0.397447,0.636252,0.388450,0.596457,-0.583520,-0.551129
0.445745,-0.339985,0.576710,-0.004408,-0.840257,0.542170
0.148309,-0.122123,0.669332,0.287420,-0.942148,-0.172474
-0.077577,-0.114472,0.815074,-0.137921,-0.474263,0.869513
0.196649,-0.244542,0.244233,0.962182,-0.013133,0.272091
-0.126448,-0.172409,0.865889,0.961111,0.048077,-0.271945
-0.668567,0.487291,0.627648,0.960215,-0.275902,-0.043183
-0.491348,-0.472265,0.739083,-0.517726,0.833405,0.193379
0.566697,-0.261540,0.717168,-0.049005,0.634723,0.771184
0.150475,-0.576581,0.689864,0.136451,-0.913106,-0.384212
-0.321157,0.524600,0.710608,0.051847,-0.310985,0.949000
-0.400062,-0.297746,0.449957,-0.549228,0.213457,-0.807951
-0.172377,0.087457,0.139927,-0.586914,-0.765081,-0.264921
-0.361937,-0.015756,0.922271,-0.067525,-0.995718,-0.063132
-0.633589,-0.433023,0.522952,0.880570,0.117047,0.459235
0.566207,0.002938,0.737097,0.988753,-0.064653,-0.134859
0.286914,0.332846,-0.278311,0.937665,-0.185709,0.293761
0.161426,-0.274595,0.720431,0.930797,0.308193,-0.196556
-0.550598,-0.462168,0.805713,-0.589915,0.528202,0.610740
-0.216713,-0.031611,0.521693,-0.169202,0.925819,0.337978
