0.677003,-0.252962,-0.534131,0.574397,-0.396706,0.716025
-0.189452,-0.014782,-0.970019,-0.013938,-0.002167,0.999901
-0.230537,-0.000658,-0.960890,0.035274,0.219559,0.974961
-0.280041,0.014961,-0.966111,-0.191790,0.156031,0.968954
-0.325730,0.029623,-0.964555,0.294927,-0.214381,-0.931160
-0.378040,0.045243,-0.976762,-0.048622,0.154923,0.986729
0.314865,-0.291980,-0.419358,-0.314095,0.155564,-0.936560
0.483018,-0.482884,-0.523688,0.603398,-0.284751,0.744867
0.323212,-0.420347,-0.423508,-0.684529,0.110602,-0.720546
0.196142,-0.379593,-0.421952,-0.074966,-0.208853,0.975070
0.153763,-0.365590,-0.419186,-0.446912,-0.036722,0.893824
0.170024,-0.484440,-0.408604,0.368158,0.007042,0.929737
0.121312,-0.469838,-0.416834,-0.193148,-0.028081,-0.980768
0.174557,-0.957151,0.502939,0.108261,-0.133799,0.985077
-0.004317,-0.968042,0.508783,0.115485,0.207583,-0.971377
0.856238,0.403472,-0.145584,0.208346,0.433637,0.876670
-0.241977,0.614782,0.138806,0.851237,0.027748,0.524047
0.636422,0.216218,-0.128640,-0.024833,-0.455421,0.889930
-0.071162,0.613884,0.530915,-0.467820,0.179268,0.865452
0.993237,0.126092,-0.189605,0.259135,-0.337944,0.904789
0.833644,0.213764,0.288402,-0.330883,0.925430,-0.184651
0.604691,0.202873,-0.129504,-0.012756,-0.278215,0.960434
-0.209095,0.687134,0.434020,0.879416,0.300151,0.369510
-0.048424,-0.669359,0.503666,-0.296566,0.236321,0.925311
-0.226939,-0.579533,0.521198,0.064858,-0.187650,0.980092
0.069650,-0.680551,0.509544,0.621194,0.464749,0.630973
0.275866,-0.748174,-0.077461,0.100588,-0.221287,0.970007
-0.050727,-0.842190,0.520714,0.550138,-0.356221,-0.755285
-0.101309,-0.822621,0.497234,-0.167503,-0.077814,0.982796
-0.334293,-0.746199,0.512760,-0.134121,0.334165,-0.932923
-0.190891,-0.908558,0.480393,0.545516,-0.038718,-0.837205
-0.335948,-0.728007,0.523342,0.027114,-0.427939,0.903401
-0.013024,-0.854219,0.515942,0.020444,0.242840,0.969851
-0.080516,-0.729862,0.516806,0.792842,0.136689,0.593900
-0.233127,-0.679293,0.529601,0.435823,0.083511,0.896150
-0.260469,-0.668222,0.546995,0.081314,-0.151193,0.985154
-0.309829,-0.654458,0.531987,0.472145,-0.014488,-0.881402
0.207295,-0.884978,0.482537,-0.498222,-0.341386,-0.797013
0.145272,-0.861400,0.508541,0.298260,0.366267,0.881413
0.109152,-0.849312,0.512276,-0.337577,-0.335054,-0.879648
-0.062528,-0.797067,0.494536,-0.126655,-0.165528,0.978038
-0.104548,-0.784380,0.489799,-0.564197,0.455096,0.688890
-0.249101,-0.734530,0.513590,0.236136,-0.564101,0.791221
-0.059145,-0.881149,0.510616,0.377096,-0.008529,-0.926135
0.266369,-0.753142,0.495435,0.081597,-0.017039,0.996520
0.150093,-0.715739,0.497441,-0.188034,-0.092388,-0.977808
0.085336,-0.692040,0.519884,0.798239,0.577193,-0.172230
0.040005,-0.678456,0.512207,-0.633689,-0.311767,-0.707983
-0.005757,-0.664931,0.503907,-0.071183,0.881899,0.466033
-0.052382,-0.651406,0.494536,-0.557842,0.608548,0.564342
-0.194777,-0.602812,0.518293,0.098293,0.088135,0.991247
-0.237516,-0.589467,0.515285,0.007043,-0.181768,0.983316
-0.274140,-0.576840,0.521475,-0.371793,-0.113421,-0.921361
-0.351058,-0.551765,0.526316,-0.148017,-0.187166,0.971113
0.071665,-0.738240,0.500588,0.153235,0.287874,-0.945329
0.038638,-0.726391,0.509509,0.272637,0.431719,0.859819
-0.051950,-0.699640,0.494847,0.828911,-0.382880,-0.407811
-0.081163,-0.688031,0.512207,-0.120713,0.611167,0.782242
-0.197367,-0.650329,0.515596,0.024244,0.398341,0.916917
-0.234422,-0.638000,0.518535,0.103258,0.402209,0.909706
-0.277451,-0.624835,0.515146,0.618156,0.712197,0.332656
-0.305296,-0.613405,0.533958,0.936958,-0.345735,-0.050768
0.222910,-0.788031,0.489695,-0.420982,0.090991,-0.902494
0.078429,-0.780491,0.518293,-0.208921,0.151274,-0.966162
0.041948,-0.767923,0.524275,0.263577,-0.004495,0.964628
0.194992,-0.547277,-0.032506,0.205990,-0.086248,0.974746
0.113470,-0.520885,-0.029636,-0.087083,-0.098396,0.991330
0.070873,-0.507599,-0.032644,-0.098761,-0.141818,0.984954
-0.036768,-0.413106,0.443738,0.152819,0.003886,0.988247
-0.075623,-0.400718,0.444325,0.539269,0.589242,0.601650
-0.109513,-0.388749,0.452486,0.146480,0.323707,0.934750
-0.198806,-0.369419,0.380870,-0.184661,0.437124,0.880240
-0.210103,-0.352783,0.483574,-0.229930,0.185347,-0.955394
-0.323501,-0.329742,0.378450,-0.824077,0.212161,-0.525246
-0.292272,-0.326511,0.483643,-0.001240,0.333663,0.942692
-0.442726,-0.276840,0.496473,0.101167,0.170748,0.980107
-0.026983,-0.497726,0.447576,0.713824,-0.461634,-0.526640
-0.322276,-0.398384,0.486167,-0.009214,0.082417,0.996555
-0.484170,-0.346559,0.487101,0.182693,0.018957,-0.982987
0.122608,-0.602095,0.504080,-0.230829,0.753794,0.615233
0.032378,-0.575702,0.487274,-0.349025,0.280193,0.894245
-0.251907,-0.485697,0.481361,0.183008,-0.663004,-0.725902
-0.395525,-0.436385,0.506017,0.082011,0.099137,0.991688
-0.445964,-0.422083,0.492911,0.065958,-0.097019,0.993095
0.201684,-0.687193,0.487793,0.075976,-0.113417,0.990638
-0.171680,-0.571035,0.465731,0.267847,0.315273,0.910418
-0.644049,-0.379832,0.761014,0.910807,-0.236874,0.338113
-0.082746,-0.077199,0.416488,0.163088,0.522457,0.836923
-0.118291,-0.064990,0.424891,0.281240,0.810057,0.514501
-0.165060,-0.050987,0.416696,0.308290,0.917032,0.253002
-0.219528,-0.035667,0.394772,-0.401993,0.867564,0.292805
-0.029789,-0.044045,0.896881,-0.379687,0.810911,0.445265
0.917253,-0.458228,-0.163220,0.510798,-0.001166,0.859700
0.878758,-0.445601,-0.159624,0.483412,0.099077,0.869768
0.800043,-0.419449,-0.152569,0.243444,0.237132,0.940481
0.765577,-0.407361,-0.141400,-0.509482,0.281807,-0.813027
0.727946,-0.394554,-0.133273,0.106640,-0.407241,0.907074
0.679450,-0.380132,-0.143510,-0.011863,-0.267475,0.963492
0.606418,-0.354758,-0.125977,0.250168,-0.154154,0.955852
0.492948,-0.316636,-0.108652,-0.508275,0.039321,-0.860297
0.431860,-0.292938,-0.067812,-0.545269,0.000491,-0.838261
0.151172,-0.237702,-0.403105,0.248877,0.240584,-0.938179
0.012879,-0.232016,0.365966,-0.710533,0.650226,0.268977
-0.046266,-0.209335,0.398921,0.679255,0.235243,-0.695179
-0.029141,-0.205326,0.483954,0.080602,0.353373,0.932004
-0.125845,-0.177318,0.458987,0.668298,0.141259,0.730358
-0.393798,-0.088869,0.481672,0.339791,-0.091990,0.935991
-0.432436,-0.076181,0.485511,0.306986,-0.088109,0.947627
-0.504605,-0.020646,0.772840,-0.074641,0.271423,0.959561
-0.787164,0.033333,0.449409,-0.184635,-0.161902,0.969380
0.728377,-0.519450,-0.152915,0.029638,-0.203987,0.978525
0.653547,-0.493955,-0.139152,0.038504,-0.272079,0.961504
0.607425,-0.479952,-0.146172,0.428335,-0.121628,0.895397
0.572672,-0.467325,-0.132478,-0.536828,0.395675,-0.745156
0.548352,-0.455894,-0.100941,0.700287,0.010315,0.713787
0.324722,-0.379413,-0.056055,-0.165805,0.419148,-0.892650
-0.039430,-0.299461,-0.380075,-0.223525,0.200280,-0.953900
0.163476,-0.319390,0.019400,-0.307794,-0.949326,0.063577
0.087350,-0.293477,0.033197,0.974600,-0.001282,0.223950
0.232767,-0.285158,0.519054,-0.157696,-0.240678,0.957709
0.169233,-0.269299,0.480600,0.875188,0.352972,-0.330842
0.132969,-0.256852,0.487067,0.785150,0.333181,-0.522044
0.771693,-0.646858,-0.160419,-0.163388,-0.243592,0.956016
0.140740,-0.429742,-0.031711,0.836662,0.286448,0.466845
0.312059,-0.419508,0.508576,-0.531930,0.469262,0.704872
0.253777,-0.404727,0.477488,-0.096826,-0.257952,0.961294
-0.020651,-0.323219,0.425203,-0.426015,0.037614,-0.903934
-0.087854,-0.299760,0.442493,-0.588709,-0.350917,-0.728203
-0.474169,-0.172950,0.469811,0.350898,-0.045918,0.935287
-0.864945,-0.051226,0.441905,-0.133897,-0.158320,0.978267
0.503525,0.274925,0.636213,0.460839,-0.078575,-0.883998
-0.247014,0.503351,0.409468,-0.600588,-0.482113,-0.637857
-0.251259,0.508080,0.462860,-0.012515,0.351707,0.936027
-0.648438,0.633753,0.424130,0.911907,-0.391849,-0.121979
0.726723,-0.041292,-0.164362,-0.450194,0.057992,-0.891046
0.898690,-0.061520,0.295041,-0.577173,0.530480,-0.620856
0.753345,-0.029024,0.108721,0.250815,-0.025893,0.967689
0.795294,-0.026271,0.322014,0.991112,0.021236,-0.131327
0.659735,0.004728,0.156961,-0.267780,0.396794,-0.877980
0.713987,-0.000358,0.318763,0.062942,0.260061,0.963539
0.410634,0.063016,-0.130576,0.860713,-0.323534,-0.393064
0.770183,0.009216,0.681444,-0.466066,-0.726236,0.505335
0.536407,0.054698,0.290407,-0.688888,-0.248569,0.680916
0.497769,0.067146,0.291479,-0.113826,0.165104,-0.979686
0.616850,0.058528,0.682171,-0.074686,-0.323226,0.943370
-0.096273,0.215919,-0.266824,0.945809,-0.324088,-0.020283
0.264066,0.167265,0.618265,-0.222069,-0.263551,0.938736
-0.028566,0.227230,0.168753,0.571836,-0.815588,-0.088435
-0.137718,0.273250,0.312401,0.991254,-0.100551,0.085470
-0.186431,0.292820,0.363510,0.716792,0.265108,0.644924
-0.214995,0.303531,0.382288,-0.104796,-0.973700,0.202304
-0.250900,0.315500,0.388236,-0.274023,0.811382,-0.516305
-0.300475,0.330521,0.374369,0.576177,0.801293,0.161089
-0.460354,0.382526,0.383325,0.083676,-0.504745,0.859204
-0.633761,0.424536,0.200256,0.409543,0.832978,0.372052
-0.472226,0.393717,0.480151,0.746219,0.665597,0.011766
0.565548,-0.179114,-0.120168,0.222396,0.146002,0.963962
0.757159,-0.202872,0.289715,0.325566,-0.631366,0.703835
0.575838,-0.154637,0.183104,0.638996,0.321097,0.698986
0.731327,-0.173847,0.517014,0.647175,0.612672,-0.453649
0.073392,-0.044644,-0.379245,0.140848,0.046798,0.988925
0.597424,-0.121424,0.619614,-0.339575,0.498744,0.797460
0.553389,-0.108318,0.609344,-0.259567,0.061703,0.963752
0.506619,-0.094254,0.597552,0.804941,0.559172,-0.198487
0.333933,-0.040814,0.574763,0.316118,0.902256,-0.293264
0.100590,0.000539,0.208728,0.018693,-0.903117,0.428988
0.308390,-0.030819,0.594923,-0.154368,-0.902704,0.401617
0.238739,-0.013165,0.547064,0.871724,0.481749,0.089530
0.197870,0.000120,0.546061,0.593515,0.776075,0.213185
-0.023816,0.045841,0.266754,0.813428,-0.263062,0.518781
-0.064901,0.059067,0.267826,-0.007636,-0.945562,0.325353
-0.066557,0.092340,0.623591,-0.227325,0.907351,-0.353606
-0.165995,0.116397,0.538419,0.841553,-0.445859,0.304955
-0.302777,0.153322,0.459713,-0.205949,-0.928042,-0.310359
-0.415384,0.185039,0.413099,0.696822,-0.173042,-0.696058
-0.409556,0.189168,0.479563,-0.344616,0.798661,0.493337
-0.521586,0.221365,0.437651,-0.550809,-0.174572,-0.816170
-0.755576,0.293178,0.400892,-0.450950,0.265967,0.852001
-0.798461,0.306703,0.397711,-0.588462,-0.203553,-0.782482
0.488847,-0.238480,0.627394,0.942865,0.173796,-0.284254
0.352713,-0.204488,0.534684,0.084348,-0.085168,0.992790
0.266009,-0.178037,0.521958,-0.464237,0.856439,0.225822
0.294071,-0.176002,0.628121,0.413181,0.780266,0.469539
0.123543,-0.142489,0.426620,-0.597381,0.793037,0.119284
0.029932,-0.121064,0.343074,0.851124,0.237589,-0.468124
-0.038351,-0.103770,0.299640,0.113622,0.741536,0.661222
-0.049936,-0.095271,0.344595,0.848855,-0.527546,-0.033778
1.000000,0.270437,-0.168649,0.367131,-0.090996,0.925708
0.853936,0.318971,-0.132824,-0.207102,0.024538,-0.978012
0.813498,0.332196,-0.132755,0.419326,0.108689,0.901306
0.690386,0.372352,-0.125908,0.335364,-0.634679,-0.696213
-0.466542,0.750509,-0.019607,0.773371,0.191869,-0.604221
-0.197583,0.682945,0.429110,-0.287443,-0.146680,0.946500
-0.548280,0.774327,-0.077114,-0.557715,0.522915,0.644604
0.611671,0.193956,-0.129988,-0.016835,-0.072959,0.997193
0.822852,0.152544,0.314960,-0.360844,0.143003,0.921597
0.596128,0.222981,0.270212,0.150235,-0.012213,-0.988575
0.513598,0.249372,0.266927,0.540634,0.599112,-0.590575
0.154482,-0.371215,-0.407497,0.513431,-0.002995,-0.858126
0.317239,-0.450568,-0.452659,0.714839,-0.244252,0.655245
0.165563,-0.360742,-0.410990,0.513431,-0.002995,-0.858126
0.324795,-0.438420,-0.451899,0.714839,-0.244252,0.655245
0.358684,-0.428905,-0.463898,-0.512223,0.560322,-0.650897
-0.400850,-0.057809,-0.979459,-0.130115,0.059342,0.989721
0.398258,-0.423040,-0.477592,0.463055,-0.545192,0.698817
0.439703,-0.443506,-0.489107,0.382901,-0.566407,0.729774
-0.391495,-0.041232,-0.974964,-0.025257,0.062334,0.997736
-0.384012,-0.018312,-0.984197,0.017444,0.156506,0.987523
-0.344439,-0.036804,-0.970088,0.139204,0.132381,-0.981375
-0.348468,-0.000358,-0.972509,-0.154352,-0.058333,0.986292
-0.307167,-0.019987,-0.970330,0.281228,0.212208,-0.935884
-0.266442,-0.039556,-0.968878,0.112978,0.089714,-0.989539
-0.381278,0.065650,-0.985234,-0.013523,0.075584,0.997048
-0.342783,0.047457,-0.976070,0.431224,-0.065386,-0.899873
-0.303785,0.029025,-0.971367,-0.100737,-0.061792,0.992992
-0.263059,0.009456,-0.969708,-0.223332,0.006964,-0.974718
-0.224422,-0.008916,-0.963103,0.307102,0.106416,0.945708
-0.367175,0.129982,-0.986168,-0.109063,0.093504,0.989627
-0.327674,0.111431,-0.972335,-0.408792,0.342359,0.845978
-0.288387,0.092699,-0.971367,-0.063439,-0.105995,0.992341
-0.248813,0.073430,-0.975379,0.134257,-0.405709,-0.904088
-0.208663,0.054279,-0.969154,-0.333592,-0.138806,0.932443
-0.169449,0.035548,-0.968186,0.261993,-0.405659,0.875671
-0.128220,0.015560,-0.971644,-0.460154,-0.152907,0.874573
-0.353577,0.223939,-0.980220,0.013867,0.268110,0.963289
-0.311988,0.203890,-0.985096,-0.182061,-0.031104,0.982795
-0.273924,0.185877,-0.973408,-0.150608,0.239994,0.959020
-0.233056,0.166368,-0.971367,0.042766,0.230493,0.972134
-0.192402,0.146739,-0.970123,-0.138515,0.066829,0.988103
-0.150238,0.126272,-0.980739,-0.108850,-0.451605,0.885553
-0.113470,0.109276,-0.957086,-0.211455,0.174873,0.961617
-0.073392,0.089648,-0.964624,-0.184440,-0.059498,0.981041
-0.032954,0.070318,-0.963863,-0.051216,0.124515,0.990895
0.007051,0.050988,-0.969292,-0.194109,0.558055,-0.806781
-0.315801,0.335249,-0.985269,0.195078,0.328139,-0.924267
-0.275291,0.315979,-0.981223,0.191433,0.530644,0.825694
-0.235862,0.296828,-0.984370,-0.341069,-0.078980,-0.936714
-0.196935,0.278098,-0.982122,-0.380689,0.209200,0.900728
-0.156066,0.258708,-0.976312,-0.047084,-0.301965,0.952155
-0.123112,0.244105,-0.920050,-0.627253,-0.680836,-0.378174
0.004316,0.181568,-0.965454,-0.136985,-0.209167,-0.968238
0.043459,0.162837,-0.964866,0.212044,-0.157628,-0.964464
0.082817,0.144046,-0.965039,0.236766,-0.131219,-0.962665
-0.090373,0.369001,-0.979528,-0.133092,0.146509,0.980215
-0.051159,0.350030,-0.978249,-0.177583,-0.161485,0.970766
-0.011801,0.330940,-0.979598,-0.538548,-0.060549,0.840417
0.027702,0.312269,-0.966457,-0.046202,-0.218625,0.974714
0.066125,0.293657,-0.960924,-0.074061,0.447928,0.890997
0.504892,0.392041,-0.528875,0.438272,-0.511297,0.739251
0.544826,0.372950,-0.540321,0.469086,-0.451053,0.759282
0.417830,0.580191,-0.459334,0.299604,0.257842,-0.918561
0.332566,0.823280,0.338751,0.798396,-0.167348,0.578410
0.374730,0.804429,0.295076,0.965802,0.013639,0.258922
0.528134,0.732197,0.236497,-0.418714,0.091835,-0.903463
-0.322709,0.927768,0.089321,-0.120380,0.117268,0.985777
-0.216650,0.876303,0.114600,-0.190903,-0.017258,0.981457
-0.212909,0.869301,0.412131,-0.056491,-0.118324,0.991367
-0.177724,0.852364,0.412857,-0.393132,0.006858,0.919457
0.287019,0.752125,0.348503,-0.571275,0.103940,-0.814151
0.370484,0.714063,0.271492,0.241892,0.634021,0.734511
0.403007,0.698026,0.283077,0.684724,0.516597,0.514083
0.482947,0.660563,0.238087,0.302517,0.797122,0.522570
-0.532882,0.885937,0.436268,-0.435669,0.022721,0.899820
-0.394085,0.818912,0.446919,-0.507098,-0.155129,-0.847813
-0.323428,0.784980,0.417006,-0.067680,0.421827,-0.904147
-0.288891,0.768224,0.425029,-0.098604,0.184441,-0.977885
-0.218161,0.734351,0.418494,0.443584,-0.209695,-0.871356
-0.147288,0.702334,0.112249,0.523170,-0.503695,0.687448
-0.125414,0.688870,0.518432,0.388666,-0.646805,0.656188
-0.056555,0.655655,0.514835,-0.540429,-0.488776,0.684861
-0.017125,0.636984,0.472474,0.561187,-0.174229,0.809143
0.016404,0.620706,0.484750,0.638567,-0.769293,0.020496
0.060081,0.599881,0.424683,-0.742986,0.469955,-0.476564
0.095913,0.582765,0.423024,-0.462147,0.837340,0.292031
0.181681,0.542310,0.308804,0.318319,-0.746564,0.584222
0.335875,0.468224,0.240922,-0.655910,0.558878,0.507383
0.730465,0.280432,-0.122104,-0.077123,-0.074638,0.994224
-0.145344,0.836506,0.426378,0.443065,-0.026590,-0.896095
-0.008851,0.770437,0.446227,0.314843,-0.064857,-0.946925
0.060081,0.736745,0.459299,-0.645485,-0.126791,-0.753175
0.132825,0.702214,0.426205,-0.448771,0.377613,-0.809946
0.171175,0.684141,0.407981,-0.393586,-0.119312,-0.911512
0.327528,0.610233,0.315928,-0.605308,-0.009592,-0.795933
0.963016,0.311969,-0.151117,0.400121,0.073953,0.913474
-0.495251,0.585218,0.453489,0.833242,0.071663,-0.548244
-0.427472,0.552544,0.450688,0.113263,0.900794,0.419215
-0.395597,0.537642,0.486237,-0.042875,0.997003,-0.064397
-0.354512,0.516876,0.414379,0.044954,0.541446,0.839533
-0.325083,0.503710,0.471782,0.932672,-0.307605,-0.188420
-0.279753,0.475344,0.039940,-0.418028,0.056187,0.906695
-0.289539,0.486415,0.468947,0.932388,0.360974,-0.018695
-0.249677,0.466787,0.432222,0.871330,0.489170,-0.038692
-0.210463,0.447098,0.388408,-0.471153,0.247065,0.846743
-0.094042,0.385458,0.013832,0.368263,-0.149383,0.917642
-0.378112,0.668223,0.446089,0.986548,-0.161489,-0.025389
-0.311052,0.636266,0.482675,-0.627671,0.048330,0.776977
-0.060872,0.515440,0.421502,0.011480,-0.964643,0.263311
0.049215,0.462298,0.380697,-0.693276,0.279119,-0.664425
0.207512,0.385638,0.271630,0.056863,-0.904121,0.423475
0.458411,0.264812,0.265578,-0.419246,-0.893347,-0.161752
0.569722,0.209336,-0.142057,-0.098553,0.142080,0.984937
0.622823,0.187433,0.673041,-0.265316,-0.082944,0.960587
0.141531,0.150270,0.448648,0.993068,0.117506,0.002955
-0.623687,0.518193,0.445155,0.920744,0.342636,-0.186629
-0.494603,0.458708,0.551629,0.195693,-0.211391,0.957610
-0.348396,0.378217,0.129608,0.701438,-0.705335,-0.102409
-0.339618,0.380012,0.380662,0.617562,0.050516,0.784898
-0.272053,0.348116,0.406045,-0.413224,0.907768,-0.072133
-0.232695,0.328486,0.374542,0.263781,-0.820539,0.507085
-0.194848,0.309695,0.356041,-0.296645,-0.954745,0.021516
-0.157865,0.291562,0.344664,0.663966,0.464528,0.585972
-0.027918,0.224776,0.158413,-0.550533,0.811373,0.196436
0.009066,0.206464,0.143509,-0.585963,0.790723,0.177212
0.042524,0.191024,0.166228,-0.704338,0.686270,0.181498
0.126493,0.142670,-0.157065,0.144010,0.839316,0.524223
0.125917,0.154758,0.328584,-0.767954,0.611076,0.191919
0.513454,0.096948,0.282661,0.077030,0.071653,0.994451
-0.205282,0.102334,0.324089,0.929035,0.008893,0.369885
-0.136423,0.058767,0.052735,0.777116,-0.381174,0.500797
-0.124551,0.060084,0.234663,0.768694,0.594753,0.235327
-0.088502,0.042730,0.235908,0.833228,0.369734,0.411131
-0.054324,0.045781,0.741960,0.701542,-0.676032,-0.225430
-0.025544,0.033274,0.779445,0.504060,0.774074,0.383058
0.069866,-0.028127,0.370911,-0.561310,0.778601,0.280555
0.105411,-0.045302,0.365309,0.813576,0.065187,0.577792
0.788890,-0.394434,-0.171934,-0.358371,0.196155,-0.912740
0.822060,-0.409395,-0.148454,0.132042,0.325053,0.936432
0.903079,-0.449132,-0.167716,0.362867,0.040391,0.930965
-0.572456,0.284142,0.468981,0.748147,-0.583801,0.315360
-0.394445,0.197068,0.428556,0.450749,-0.030398,-0.892133
-0.340337,0.164393,0.255308,0.728562,-0.657436,0.192289
0.242481,-0.014661,0.486756,0.785074,0.499626,-0.366106
0.296733,-0.037881,0.573415,0.118032,-0.842585,0.525470
0.335516,-0.057211,0.554015,-0.231109,0.775436,-0.587611
0.837817,-0.321065,-0.139740,0.311742,-0.123616,0.942091
0.878256,-0.341232,-0.156546,0.246763,-0.178589,0.952478
0.958411,-0.380430,-0.177744,-0.493354,-0.074918,-0.866596
-0.412146,0.297786,0.416211,0.539362,0.303579,0.785448
-0.377824,0.281867,0.429871,-0.301563,0.620479,0.723924
-0.342352,0.264632,0.429559,-0.585027,0.794168,0.164444
-0.263203,0.213885,0.037589,0.039179,0.831658,-0.553905
-0.224853,0.194554,0.013210,-0.129340,-0.816723,0.562347
-0.220751,0.201197,0.280241,0.567501,0.325036,0.756501
-0.180314,0.180611,0.241822,0.986290,0.017364,-0.164105
-0.142467,0.161760,0.218722,0.850851,0.411678,0.326458
-0.135056,0.165530,0.441247,-0.542940,-0.749893,-0.377991
-0.105124,0.152424,0.482917,0.917896,0.395231,-0.035485
-0.077566,0.140994,0.541773,0.539261,0.789092,-0.294161
-0.056483,0.133932,0.632271,-0.225336,-0.974259,-0.006565
0.151892,0.018791,0.175185,0.078491,-0.775784,0.626098
0.146280,0.030222,0.439795,0.972649,0.230892,-0.025360
0.172327,0.019569,0.498894,0.621353,0.582553,-0.523978
-0.199669,-0.014602,0.386057,-0.627451,0.621855,0.468617
-0.166787,-0.029622,0.407463,-0.571232,0.446071,0.688996
-0.065189,-0.077558,0.429767,-0.249779,-0.526355,-0.812749
0.051734,-0.136744,0.356871,0.853977,0.221766,-0.470684
0.888544,-0.510174,-0.157791,0.252427,0.021855,0.967369
-0.756728,0.303471,0.415900,0.212880,0.726702,0.653136
-0.443877,0.153621,0.423196,-0.318857,0.881022,0.349471
-0.261117,0.037343,-0.268622,-0.466001,0.881924,-0.071087
-0.343935,0.119989,0.778650,-0.571334,0.799965,-0.183395
-0.259534,0.062358,0.359603,0.954703,-0.227990,0.191212
-0.184991,0.013406,0.035894,-0.737739,0.408075,-0.537787
-0.139229,-0.000179,0.242340,0.474063,-0.088682,0.876013
-0.077925,-0.037822,0.045646,-0.258073,-0.282298,0.923962
-0.070730,-0.032195,0.263089,0.880884,0.100452,-0.462550
-0.050511,-0.037343,0.377066,-0.083687,0.995575,-0.042746
-0.001151,-0.064692,0.285186,-0.321043,0.769025,0.552750
-0.023601,-0.029263,0.886057,-0.428616,0.850850,0.303879
0.003237,-0.040215,0.931841,0.615529,0.770319,0.166530
0.027558,-0.049851,0.982433,0.004830,0.931603,0.363445
0.655633,-0.397247,-0.127948,0.008272,-0.189351,0.981875
-0.301986,0.144884,0.223598,-0.704514,0.665339,-0.246949
-0.843719,0.233513,0.461685,0.386774,-0.597307,-0.702588
-0.106994,-0.121664,0.432119,-0.481306,-0.352831,-0.802406
-0.031515,-0.159725,0.387752,-0.731897,-0.253915,-0.632340
-0.001871,-0.172471,0.428245,-0.206357,0.734380,0.646609
0.762843,-0.562836,-0.144581,-0.062336,-0.231784,0.970768
-0.205138,-0.045960,0.421848,-0.165622,-0.813196,-0.557926
0.016621,-0.155356,0.353828,0.997644,-0.035403,-0.058759
0.168225,-0.222381,0.495021,-0.609074,0.229961,0.759044
0.614765,-0.462837,-0.132547,-0.428927,0.289033,-0.855851
0.131529,-0.168521,0.509579,0.274996,0.471735,-0.837761
0.614765,-0.428127,-0.143025,0.140761,-0.194900,0.970670
0.223557,-0.369419,-0.037451,-0.163494,-0.798734,0.579046
0.236652,-0.357749,0.480358,0.114831,-0.620157,0.776028
-0.067420,-0.214182,0.405111,0.997479,0.010373,-0.070203
-0.162686,-0.143866,0.472024,0.855247,-0.175358,0.487650
-0.049936,-0.199640,0.432499,0.755589,-0.603845,0.253884
-0.495827,0.011132,0.330763,0.009811,-0.235864,0.971737
-0.284285,-0.100658,0.057404,-0.623408,0.298167,-0.722813
-0.263995,-0.095871,0.454769,-0.489390,-0.237391,-0.839132
-0.250468,-0.079234,0.360641,0.985273,-0.167290,0.035357
-0.122680,-0.136983,0.453558,-0.755102,-0.133963,-0.641774
-0.044971,-0.176421,0.401895,0.927600,0.063714,0.368101
0.080515,-0.233273,0.491700,0.819615,0.439802,-0.367159
0.117571,-0.251466,0.482364,0.896296,0.433160,-0.095005
-0.921787,0.244944,0.392835,-0.302432,0.952967,0.019694
-0.471075,0.042131,0.757210,-0.568377,0.821838,-0.039112
-0.014679,-0.266787,0.398506,-0.211801,0.943993,0.253018
0.283925,-0.423518,-0.063144,-0.135399,-0.570679,0.809934
0.254569,-0.394254,0.465834,-0.173765,0.363823,-0.915117
0.300403,-0.398324,0.463483,-0.118575,-0.799959,0.588223
0.725715,-0.622502,-0.170586,-0.163388,-0.243592,0.956016
0.146351,-0.331418,-0.017117,0.016345,-0.529415,0.848206
0.200388,-0.485996,0.458296,-0.332002,0.364931,-0.869828
0.234781,-0.502453,0.465869,0.529739,0.213354,0.820888
0.209382,-0.469718,-0.026973,0.403010,0.112178,0.908294
0.293998,-0.496110,0.473857,-0.368512,-0.295856,0.881288
-0.857605,0.056913,0.432222,-0.098576,-0.145523,0.984432
-0.317096,-0.295272,0.455806,-0.534136,0.833477,-0.141472
0.282343,-0.560802,0.502489,0.175097,0.249461,0.952423
0.392358,-0.614123,0.486029,-0.035832,0.215060,0.975943
-0.029860,-0.543207,0.473200,0.211446,-0.479925,-0.851447
-0.262988,-0.571095,0.510824,0.189983,-0.100823,0.976597
0.085263,-0.698085,0.499793,-0.293937,0.018710,0.955642
-0.231545,-0.544943,0.514039,0.118566,0.146162,0.982130
0.452223,0.371455,-0.498202,-0.591401,-0.756623,-0.278867
0.082169,0.492041,-0.519607,0.899391,-0.071067,-0.431329
0.074975,0.406763,-0.964451,-0.234800,0.128343,0.963533
0.084544,0.482166,-0.523965,0.899391,-0.071067,-0.431329
0.072529,0.400658,-0.962757,-0.167000,0.118394,0.978823
0.027413,0.414663,-0.969500,0.233983,-0.409025,-0.882015
0.108001,0.468044,-0.525521,0.823353,-0.554265,-0.121987
-0.081523,0.519450,-0.590671,0.339161,0.422158,-0.840686
0.099295,0.386475,-0.966976,-0.225414,0.086494,0.970416
0.048928,0.403412,-0.967633,-0.199226,0.117745,0.972854
-0.070874,0.527768,-0.592607,-0.616579,0.111422,0.779369
0.110879,0.396649,-0.967771,0.004364,-0.141684,0.989902
0.320118,0.414543,-0.469396,0.411668,-0.624273,-0.663937
-0.057634,0.515560,-0.610416,0.358542,0.432839,0.827102
0.113253,0.393178,-0.964590,-0.268518,-0.137327,-0.953436
0.064397,0.409216,-0.967045,-0.039979,0.151735,0.987612
0.117571,0.348175,-0.966007,0.936938,0.001920,0.349490
0.060512,0.368941,-0.957639,0.284784,-0.123415,-0.950614
0.016908,0.382406,-0.964209,-0.342752,-0.093416,0.934770
0.077061,0.280312,-0.959195,0.320435,0.114925,0.940273
0.031299,0.294674,-0.964901,0.313210,-0.262825,-0.912591
-0.010001,0.306643,-0.974895,-0.386706,0.148411,0.910183
-0.062815,0.324896,-0.972128,0.301546,0.152455,-0.941184
-0.113397,0.341711,-0.972163,-0.033366,0.008062,0.999411
0.076917,0.203710,-0.965489,-0.346515,-0.014135,0.937938
-0.154195,0.276362,-0.989868,0.352831,-0.131882,-0.926346
-0.266657,0.317535,-0.970883,-0.026598,0.319034,0.947370
0.060008,0.149312,-0.961304,0.078288,0.359236,-0.929957
0.013599,0.163436,-0.967425,-0.264222,0.151414,0.952502
-0.051303,0.189408,-0.945881,0.337738,-0.088705,0.937051
-0.089869,0.199342,-0.961443,-0.440095,0.366601,-0.819708
-0.279249,0.260323,-0.973788,0.173490,0.277091,0.945051
-0.320909,0.271634,-0.986687,-0.249706,0.122401,0.960554
-0.368182,0.287193,-0.988243,-0.757432,0.290991,-0.584483
-0.146280,0.220108,-0.611211,0.840660,-0.538080,-0.061327
-0.152900,0.211670,-0.665572,-0.690206,0.723313,-0.020840
-0.156713,0.201197,-0.724117,0.074526,-0.985898,0.149835
-0.167794,0.194614,-0.776299,0.651752,0.751948,0.098959
-0.102461,0.142550,-0.929214,-0.515636,-0.735092,0.440180
-0.129156,0.145063,-0.961685,0.040630,-0.292124,0.955517
-0.178083,0.160802,-0.964037,-0.190477,-0.067764,0.979350
-0.218449,0.171634,-0.977730,0.315043,-0.180694,-0.931718
-0.313138,0.202634,-0.980912,-0.231279,0.038063,0.972142
-0.362354,0.218851,-0.982399,0.632492,0.113980,0.766135
-0.136567,0.197487,-0.536310,0.877106,-0.371243,0.304736
-0.140525,0.187493,-0.593506,-0.589247,-0.805770,-0.059354
-0.165780,0.189527,-0.625389,-0.459433,0.887997,-0.019573
0.040221,0.053382,-0.966007,-0.136911,0.116018,0.983766
-0.015183,0.073070,-0.960267,0.172047,0.276238,0.945565
-0.062311,0.088450,-0.962446,-0.193742,0.023437,0.980773
-0.108578,0.103231,-0.966076,-0.169539,0.033275,0.984962
-0.159951,0.120527,-0.965074,0.024413,-0.081311,0.996390
-0.208088,0.136506,-0.965731,0.421166,-0.227748,-0.877924
-0.252986,0.149970,-0.973581,-0.107580,0.298988,0.948173
-0.299252,0.164094,-0.979702,-0.504246,0.083411,0.859522
-0.350914,0.181748,-0.977903,0.325510,0.110792,-0.939025
0.035184,0.035847,-0.956048,-0.176828,0.015498,0.984120
-0.014391,0.051945,-0.958746,-0.023823,-0.088115,0.995825
-0.061520,0.066787,-0.963725,-0.224348,0.089711,0.970371
-0.107210,0.081089,-0.967806,0.065542,0.006803,-0.997827
-0.156642,0.097786,-0.967114,-0.084234,0.246368,0.965509
-0.206721,0.114543,-0.967287,0.055564,-0.027343,0.998081
-0.258886,0.132855,-0.962065,0.063461,0.235288,0.969852
-0.301483,0.145004,-0.972958,0.163742,0.180702,-0.969812
-0.341704,0.155775,-0.987067,0.193634,-0.410777,-0.890937
-0.030581,0.007003,-0.964451,0.037288,0.399534,0.915960
-0.079652,0.022742,-0.966906,-0.132510,0.075545,0.988299
-0.130954,0.040096,-0.966664,-0.251290,-0.308719,0.917358
-0.177724,0.054638,-0.971540,-0.107215,-0.057182,0.992590
-0.110303,-0.004907,-0.966250,-0.131809,0.615934,0.776693
-0.151965,0.006523,-0.978560,-0.089003,0.414746,0.905574
-0.356094,0.076541,-0.971022,0.443625,0.110080,-0.889426
-0.265722,0.005686,-0.963656,-0.073129,0.365667,-0.927868
-0.317240,0.023101,-0.962619,0.131551,-0.569292,-0.811542
-0.214780,-0.000478,-0.966388,-0.254343,-0.530439,-0.808668
-0.318175,0.008618,-0.954665,-0.264772,-0.286874,0.920651
-0.399842,0.031000,-0.982433,0.348765,0.061087,-0.935217
0.317095,-0.451466,-0.452487,0.714839,-0.244252,0.655245
0.177939,-0.440634,-0.410471,0.074019,-0.023123,0.996989
0.270830,-0.472950,-0.440176,-0.606728,0.055184,-0.792992
0.455173,-0.505326,-0.517705,-0.570314,0.229809,-0.788625
0.311124,-0.452005,-0.468186,0.714839,-0.244252,0.655245
-0.072673,-0.365709,0.423335,0.024888,0.377292,0.925760
-0.150238,-0.336325,0.457881,0.724487,-0.236988,0.647267
0.001870,-0.558647,0.475102,0.157385,0.735579,0.658904
-0.295654,-0.453859,0.496300,0.296718,0.862091,0.410802
-0.342135,-0.442609,0.444602,0.026821,-0.918688,0.394072
-0.001943,-0.603411,-0.035514,-0.146560,-0.102721,0.983854
-0.082675,-0.298743,0.423300,-0.530566,-0.053279,-0.845967
-0.181466,-0.268582,0.380939,-0.282810,0.264721,-0.921923
-0.070587,-0.286295,0.417249,-0.741324,-0.137586,-0.656894
0.211397,-0.420766,-0.046822,-0.497633,0.061508,-0.865204
0.156066,-0.325972,0.531191,0.817405,-0.284884,0.500690
-0.008779,-0.277917,0.410194,-0.114526,0.976128,0.184547
-0.048280,-0.264751,0.403866,0.905751,-0.411752,0.100374
-0.102389,-0.270138,0.428695,-0.695162,0.274477,-0.664389
0.304936,-0.445721,-0.062660,-0.111334,-0.601187,0.791314
-0.145848,-0.259006,0.372743,-0.006383,0.060057,0.998175
0.187509,-0.403590,-0.041324,-0.450979,0.374398,-0.810212
0.116060,-0.377139,-0.014801,0.870511,-0.140182,0.471761
0.274931,-0.602514,0.493291,0.427617,0.271061,0.862363
-0.027342,-0.502813,0.465765,-0.331373,0.377759,0.864575
-0.067491,-0.490125,0.457881,0.701205,0.285273,0.653400
-0.213340,-0.439198,0.465696,-0.511756,0.856435,0.068004
-0.181753,-0.433034,0.462169,-0.452550,0.266041,-0.851129
0.280975,-0.590664,0.469362,0.428298,0.315086,0.846925
-0.040869,-0.481209,0.463517,-0.219669,0.193145,0.956264
-0.043315,-0.451466,0.437201,-0.155010,0.220943,0.962889
-0.152900,-0.411789,0.455253,0.305152,0.500332,0.810277
0.202690,-0.590963,-0.040632,0.092032,-0.135150,0.986542
-0.415384,-0.317834,0.491044,0.125677,0.112459,0.985677
-0.042812,-0.409395,0.439173,0.589712,-0.050878,-0.806009
-0.147504,-0.372232,0.450411,-0.585398,-0.014886,-0.810609
-0.243633,-0.344285,0.405111,-0.627315,-0.765705,-0.142023
0.230608,-0.449850,0.464071,0.703502,0.016703,0.710497
-0.136854,-0.324416,0.456394,-0.665059,0.250784,-0.703423
-0.246367,-0.290126,0.423715,0.447228,-0.834494,-0.321880
0.040653,-0.722621,0.497338,-0.343269,0.217568,-0.913691
-0.099871,-0.611968,0.489487,0.593274,0.229997,0.771445
-0.263563,-0.551945,0.516218,0.114104,-0.038260,0.992732
-0.313499,-0.534291,0.521647,-0.223049,0.208835,-0.952175
-0.449921,-0.496708,0.466906,0.209896,0.513608,0.831956
-0.115557,-0.545123,0.494709,-0.574903,-0.077620,-0.814532
-0.254065,-0.498204,0.493844,0.325034,-0.605514,-0.726434
-0.475104,-0.424476,0.484439,-0.052858,0.096980,-0.993882
-0.085840,-0.517774,0.477488,0.256687,0.179130,0.949749
-0.155346,-0.490604,0.501729,0.343716,0.307529,0.887291
-0.227443,-0.469539,0.477143,0.462800,-0.745928,-0.478966
-0.045330,-0.521065,0.456048,-0.164441,0.224311,0.960543
-0.112174,-0.495033,0.479321,-0.580260,-0.133744,-0.803374
0.063102,-0.826152,0.506432,0.976074,0.191136,0.103663
-0.294215,-0.675883,0.518466,-0.054858,-0.018032,0.998331
-0.096777,-0.676720,0.493879,0.645746,-0.749659,-0.144998
-0.159520,-0.652483,0.510927,0.232949,0.245783,0.940917
-0.312059,-0.597666,0.528391,0.785598,-0.186809,-0.589863
0.074543,-0.731897,0.510201,0.038067,0.007793,0.999245
0.071808,-0.748533,0.511100,0.152397,0.246481,0.957091
0.030436,-0.735367,0.506467,-0.517773,-0.542527,-0.661495
-0.059721,-0.705745,0.502836,0.793512,-0.436970,-0.423552
-0.169522,-0.664751,0.521924,-0.235644,-0.058593,-0.970072
-0.307023,-0.618372,0.520402,0.961477,-0.263919,0.076863
-0.288099,-0.659964,0.535756,-0.314322,-0.025783,0.948966
-0.380415,-0.628844,0.534788,0.096711,0.269170,0.958225
-0.268168,-0.698025,0.522650,0.140864,-0.412750,0.899886
-0.303425,-0.616337,0.515285,0.855534,-0.513917,0.062854
-0.168082,-0.658348,0.517671,0.150222,0.279586,0.948296
-0.302346,-0.614063,0.511861,0.750528,-0.592723,0.292211
-0.092532,-0.679652,0.477004,-0.506750,0.459084,-0.729689
-0.306087,-0.600897,0.508403,-0.315090,-0.252631,-0.914820
-0.350842,-0.586355,0.506259,0.094046,-0.144896,0.984967
-0.266513,-0.614482,0.494917,0.147092,0.186883,0.971308
-0.378184,-0.572351,0.517671,0.200870,-0.062550,0.977619
0.040797,-0.539796,0.486617,-0.227110,0.785271,0.575996
-0.229385,-0.449671,0.480185,-0.406313,0.744395,0.529892
-0.314217,-0.422920,0.471160,-0.035540,-0.234876,0.971375
0.100518,-0.622382,0.512760,-0.029980,0.116661,0.992719
-0.099942,-0.562058,0.476831,-0.432531,-0.185158,-0.882402
0.206361,-0.720527,0.487758,0.226302,-0.050149,0.972765
0.018852,-0.656852,0.487655,-0.041748,0.728607,0.683659
-0.267809,-0.557630,0.497545,0.608115,0.224590,0.761416
0.210534,-0.766128,0.489695,0.282080,-0.029291,0.958944
-0.270543,-0.599581,0.507054,0.058774,-0.095529,0.993690
-0.315729,-0.584380,0.506743,0.220606,-0.119408,0.968026
0.075334,-0.746559,0.505602,0.232275,0.069687,0.970150
0.049719,-0.742908,0.482398,-0.154959,-0.706018,0.691033
-0.099655,-0.690125,0.492738,0.993501,0.083263,-0.077614
-0.168442,-0.661161,0.518985,0.199053,0.184347,0.962494
-0.046770,-0.118791,0.368698,-0.724094,-0.456153,-0.517312
-0.085625,-0.148893,0.407947,-0.668396,0.183188,-0.720895
-0.019716,-0.069419,0.932430,0.809073,-0.346192,-0.474924
-0.031371,-0.072471,0.896466,-0.131625,0.886589,0.443434
0.008346,-0.191442,0.351926,0.970044,-0.242045,-0.020700
-0.003957,-0.105386,0.999896,-0.311947,0.876593,0.366434
-0.024248,-0.103291,0.975413,-0.013959,0.923105,0.384295
0.014606,-0.219987,0.442251,0.846731,0.285189,-0.449126
-0.037632,-0.211370,0.395567,0.091317,-0.349663,0.932415
-0.435026,-0.059844,0.486928,0.327613,-0.044465,0.943765
-0.077350,-0.304248,0.427658,-0.717864,0.062851,-0.693341
0.187869,-0.381029,0.491458,0.791169,-0.225959,-0.568326
-0.093251,-0.366307,0.427312,0.099733,0.399018,0.911503
0.174701,-0.523459,0.461858,0.077954,0.190980,0.978494
-0.082242,-0.441591,0.436545,0.308411,0.232162,0.922488
0.674557,-0.222441,0.584860,-0.634775,0.739622,-0.223651
0.627356,-0.206702,0.584688,-0.426551,0.863552,-0.268947
0.538062,-0.167803,0.628571,-0.759983,-0.011577,0.649840
0.558641,-0.188389,0.559548,0.584804,-0.696246,-0.416228
0.437976,-0.151346,0.541047,-0.356717,-0.714962,-0.601317
0.344869,-0.110173,0.590498,0.949658,-0.245681,-0.194401
0.342711,-0.118791,0.542534,-0.630163,0.562365,-0.535388
0.260757,-0.093297,0.532194,0.963378,0.015370,0.267706
-0.049144,0.049671,0.725465,-0.670352,0.726741,0.149918
-0.061447,0.046559,0.688533,-0.641628,0.645475,0.414338
-0.079581,0.046380,0.657307,-0.123861,0.891737,0.435275
-0.061520,-0.057271,0.264714,0.968577,0.239002,-0.068826
-0.076702,-0.058946,0.229407,-0.531910,-0.108355,0.839840
-0.204059,0.002574,0.324123,0.924651,0.244629,0.291852
0.586343,-0.205326,0.625354,0.043994,-0.954125,0.296159
0.546337,-0.192878,0.619752,0.929829,0.067741,-0.361704
0.522736,-0.189706,0.594820,-0.685613,0.727601,-0.023045
0.324218,-0.129683,0.559029,-0.135917,-0.990678,0.009151
0.241977,-0.104189,0.548274,0.922662,-0.121541,0.365954
-0.040726,0.032196,0.756864,-0.735593,0.515776,0.439179
-0.054253,0.030282,0.723356,-0.503535,0.857964,0.101737
-0.078213,0.034052,0.701189,-0.704624,0.618835,0.347201
0.665923,-0.379532,-0.128432,-0.043445,-0.184663,0.981841
0.080155,-0.084620,0.368629,0.727199,-0.266780,-0.632463
0.044107,-0.074865,0.356007,0.734393,0.020966,-0.678401
0.007627,-0.064871,0.343903,-0.864364,0.354376,0.356781
-0.045978,-0.055176,0.301438,0.169106,0.930172,0.325858
0.514822,-0.198084,0.641192,0.729306,-0.291634,-0.618920
-0.031804,0.014662,0.788575,-0.769969,0.628035,-0.112783
-0.035473,0.007003,0.742721,0.851869,-0.231667,-0.469734
0.060585,-0.095691,0.381216,0.858838,-0.497159,-0.123408
-0.030292,-0.065110,0.380420,-0.064504,0.994896,-0.077597
-0.036625,-0.072232,0.333806,0.485894,-0.656825,-0.576617
-0.051734,-0.074266,0.297012,0.659051,0.596680,0.457848
-0.061951,-0.078815,0.256449,-0.734023,-0.659081,-0.163779
0.025831,-0.149491,0.044470,0.547813,0.718417,0.428694
-0.030292,-0.003351,0.819420,0.479127,-0.865125,-0.148312
-0.044755,-0.005206,0.784944,0.048212,-0.730624,-0.681075
-0.040509,-0.096349,0.320734,0.910252,0.414046,-0.002555
-0.061376,-0.095032,0.292067,0.460992,0.767923,0.444725
-0.028925,-0.031897,0.850647,-0.635964,0.715489,0.289180
0.005900,-0.138181,0.360122,-0.311604,-0.917982,-0.245381
-0.381422,0.263914,0.124040,0.363231,0.931595,0.013951
-0.186358,0.188390,0.226087,0.809733,0.261408,0.525356
0.686573,-0.018073,0.688879,-0.217351,-0.180788,0.959205
0.481003,0.046260,0.662702,-0.127840,-0.770478,0.624516
0.464671,0.046081,0.632686,0.859270,0.151314,-0.488630
-0.139085,0.202813,0.386230,0.998782,0.001940,0.049304
-0.144194,0.195153,0.337679,0.968696,0.203927,0.141568
-0.138365,0.181927,0.277958,0.982778,-0.071789,0.170275
0.577780,-0.055056,0.569542,0.201030,0.979377,0.020192
0.462009,-0.002094,0.641988,0.952102,0.143447,0.270046
0.316808,0.039677,0.604364,0.373081,0.311269,-0.874026
0.278745,0.050808,0.595270,-0.263575,-0.165219,0.950385
0.245863,0.059007,0.580538,-0.688289,0.440006,0.576761
0.206720,0.070736,0.572550,-0.309114,0.142174,0.940338
0.154770,0.070677,0.479874,0.927956,0.274653,-0.251920
-0.174989,0.223519,0.697662,0.765438,-0.637138,0.090333
-0.179091,0.215979,0.650771,0.914685,0.396711,-0.077277
-0.163836,0.197966,0.583166,0.508236,0.856859,0.086535
-0.174845,0.194495,0.545888,0.976181,0.203048,0.076431
-0.178083,0.186176,0.496542,0.943487,-0.093223,-0.318028
-0.149950,0.160503,0.412338,0.971258,0.092772,-0.219207
-0.141891,0.145662,0.348675,0.870734,0.469051,-0.147692
-0.149519,0.139438,0.302268,-0.647021,0.133916,0.750620
-0.178012,0.145063,0.281036,0.875519,-0.043553,0.481217
0.565908,-0.030041,0.680268,0.027881,-0.079432,0.996450
-0.189379,0.189946,0.892766,0.811348,0.495875,-0.309551
-0.216794,0.195452,0.873573,0.875904,-0.481729,-0.027007
0.151172,-0.008977,0.462376,0.984214,0.129692,0.120427
-0.078213,0.099163,0.620617,0.332110,-0.871166,0.361625
-0.094690,0.098385,0.587627,0.175051,0.923517,0.341281
-0.100806,0.092041,0.544228,0.122175,-0.979674,-0.159098
-0.111383,0.087672,0.503596,-0.056572,0.881725,0.468359
-0.166859,0.108259,0.513798,0.733772,-0.678839,0.027497
0.000143,0.003591,0.266028,0.677058,-0.321121,-0.662174
-0.044827,0.018493,0.265544,0.255006,0.615960,-0.745362
-0.075983,0.025973,0.249291,0.180597,0.400589,0.898284
-0.122751,0.041772,0.249291,-0.727600,0.625916,0.280763
-0.371853,0.162717,0.437790,0.079341,-0.798414,0.596859
-0.036264,-0.028965,0.035998,0.776235,0.580056,-0.246970
-0.416679,0.177558,0.436856,0.937304,-0.348322,-0.011512
-0.357821,0.122382,0.255550,0.745333,-0.613402,0.261183
-0.567852,0.232854,0.458261,0.748599,0.092296,0.656567
0.121744,-0.164991,-0.387579,-0.352275,-0.227722,0.907770
0.697941,-0.171993,0.573795,0.529436,-0.840177,-0.117473
0.361778,-0.056134,0.585587,0.905970,0.421006,-0.044404
0.283998,-0.022920,0.621032,0.324133,0.453887,-0.830014
0.218593,-0.006523,0.592434,-0.431764,-0.239623,0.869575
0.234781,-0.025014,0.525520,0.741801,0.660195,-0.117789
-0.156570,0.181329,0.905976,0.914931,0.294077,0.276440
0.061520,-0.052902,0.395532,0.922004,-0.386992,0.012078
0.043171,-0.052603,0.365274,-0.717490,0.242621,0.652950
0.169737,-0.134590,0.166263,0.103213,0.678704,-0.727124
-0.052598,-0.030102,0.315824,0.353096,0.910343,0.215868
-0.048640,-0.043267,0.256622,0.845961,-0.179143,-0.502252
-0.088934,-0.031119,0.248946,-0.411624,-0.153683,0.898302
-0.195425,0.019210,0.321357,0.784031,0.079293,0.615637
-0.006116,-0.099641,0.043122,-0.706080,-0.391147,0.590301
-0.509785,0.146260,0.427139,0.522378,0.753923,0.398399
-0.633400,0.196589,0.469845,0.165428,-0.383104,0.908771
-0.858684,0.262358,0.418044,-0.246473,0.966285,0.074465
0.499568,0.073190,0.277128,-0.237904,-0.963002,0.126608
0.342711,0.043926,-0.138633,0.178313,0.721065,0.669529
-0.164772,0.310054,0.349886,-0.716391,-0.420067,-0.557070
-0.369550,0.395512,0.435542,-0.649429,0.394260,0.650231
-0.134840,0.203890,-0.139360,0.941993,0.325912,0.080196
-0.126781,0.187852,-0.207310,0.767125,0.600991,-0.224343
-0.140525,0.160443,-0.369804,-0.171747,0.983618,0.054762
0.758526,0.032735,0.712877,-0.245452,-0.179105,0.952720
0.511512,0.109935,0.683830,-0.812940,-0.053577,0.579878
0.377680,0.144585,0.631683,0.713980,-0.145036,-0.684980
0.312203,0.161221,0.604122,-0.122864,-0.496564,0.859260
0.515613,0.028965,0.277647,0.796462,0.601628,-0.060758
0.318319,0.117714,0.393007,0.184134,0.724447,0.664282
0.141099,0.206284,0.541082,0.290391,0.546738,-0.785335
0.126277,0.194614,0.455702,0.922868,0.382931,0.040959
-0.241114,0.308139,0.405595,-0.517788,0.756595,-0.399325
-0.495395,0.400838,0.444049,0.874651,0.475064,-0.096437
-0.116995,0.182526,-0.021613,0.964568,0.259660,-0.046739
-0.127501,0.177200,-0.066844,-0.701997,0.539611,0.464779
-0.125270,0.164393,-0.128847,0.671945,0.736968,-0.073270
0.151388,0.127289,0.370876,0.936670,0.340580,0.081579
-0.146280,0.222083,0.343765,0.939980,0.271601,-0.206568
-0.144050,0.210293,0.288056,0.991456,-0.113136,0.064924
-0.301627,0.289468,0.421260,-0.614720,0.441999,-0.653266
-0.152469,0.181927,0.129366,0.867251,0.461188,-0.187568
0.534537,0.054758,0.657445,-0.459194,0.333853,0.823215
0.476039,0.077260,0.671796,-0.626836,0.766431,0.140211
0.438480,0.088031,0.662079,0.753756,-0.116812,-0.646689
0.641171,0.025793,0.680649,0.021131,-0.405604,0.913805
0.606489,0.035548,0.670136,-0.261784,-0.532622,0.804850
0.509569,0.069060,0.675634,0.016001,-0.152881,0.988115
0.472874,0.079833,0.667162,0.428826,-0.656264,-0.620826
0.149590,0.160563,0.519434,-0.552727,-0.574706,0.603495
0.063246,0.189168,0.516703,-0.244251,-0.713076,0.657163
0.139084,0.137224,0.378034,0.933431,0.349942,0.079035
-0.127501,0.214961,0.315513,0.991188,-0.045200,-0.124514
-0.140740,0.212149,0.278166,0.994521,0.074802,-0.073025
-0.324651,0.295033,0.387371,0.782561,0.491756,0.381803
-0.129731,0.152424,-0.015423,0.606229,0.788583,-0.103071
-0.736365,0.536566,-0.009544,-0.685400,-0.038057,-0.727171
0.658008,0.211910,0.708071,-0.454179,-0.112784,-0.883743
0.582170,0.234232,0.692475,-0.503368,0.151429,0.850700
0.502662,0.248774,0.630853,-0.517337,0.568762,0.639431
0.804288,0.084021,0.308182,-0.136155,0.158332,0.977953
0.677219,0.123579,0.293692,0.355223,-0.135134,-0.924963
0.264426,0.331239,0.644754,0.367061,0.360446,-0.857523
0.378039,0.227409,0.312470,-0.379071,0.078180,-0.922059
0.330407,0.243926,0.314821,-0.411141,-0.187441,-0.892092
0.271693,0.266128,0.328619,-0.123677,0.655451,0.745042
0.432939,0.121424,-0.129781,-0.681266,0.726778,0.087583
0.051158,0.327350,0.264956,0.433977,-0.831555,0.346670
-0.199238,0.458947,0.506536,0.177077,0.894921,-0.409585
-0.238092,0.470916,0.501003,0.053958,0.972013,-0.228646
-0.239387,0.460922,0.448163,0.362669,0.922440,0.132575
-0.291337,0.479593,0.455356,0.770260,0.581183,0.262535
-0.308462,0.478576,0.420845,-0.187794,0.645874,0.739987
0.683695,0.167744,0.701051,0.119764,-0.132963,0.983858
0.625701,0.189468,0.712808,-0.451398,-0.271451,0.850032
0.525399,0.215739,0.675289,-0.521833,-0.009418,0.852996
0.459562,0.232257,0.648212,0.748966,-0.295510,-0.593064
0.605123,0.112508,0.287918,-0.463905,-0.134737,-0.875579
0.238379,0.304788,0.641331,0.694521,0.311835,-0.648383
0.274212,0.233932,0.343350,0.093309,-0.044600,0.994638
-0.019787,0.315500,0.257936,-0.196853,0.907664,-0.370667
-0.250756,0.425673,0.425479,0.932953,0.359733,-0.013791
-0.271478,0.427110,0.397469,0.268990,0.784134,-0.559266
-0.700388,0.520467,0.143855,-0.602476,-0.274287,-0.749526
-0.787740,0.489647,-0.044436,0.090859,0.687227,0.720739
0.679090,0.146380,0.705097,-0.271909,-0.077926,0.959163
0.492301,0.199881,0.659900,-0.420392,-0.044051,0.906273
0.427039,0.216398,0.632063,-0.619349,0.310722,0.721012
0.604187,0.089228,0.286258,-0.694376,0.086397,-0.714407
0.239315,0.280072,0.637112,-0.746154,-0.354853,0.563323
0.233775,0.222861,0.335846,-0.009287,-0.148002,0.988943
0.034321,0.272054,0.246490,-0.814069,0.276718,-0.510606
-0.274428,0.415860,0.453731,0.816123,-0.308077,0.488909
-0.541949,0.504908,0.452348,0.133864,-0.505682,-0.852271
0.660885,0.102933,0.704025,0.283158,0.200575,-0.937865
0.580659,0.127529,0.691956,0.056265,0.310385,-0.948944
0.535113,0.142550,0.690573,-0.317151,0.416430,0.852057
0.270038,0.219929,0.632997,0.434722,0.325915,-0.839521
-0.024320,0.502514,0.035445,-0.006170,-0.227397,0.973782
0.528853,0.297487,0.302649,0.188645,-0.326678,0.926118
0.472442,0.318432,0.312988,-0.032149,-0.387573,0.921278
0.791768,0.121843,-0.152085,0.209375,-0.321852,0.923349
0.380126,0.339019,0.259388,0.665779,0.209463,-0.716145
0.301122,0.372233,0.295698,0.986282,0.163182,-0.024894
0.119585,0.443148,0.347880,-0.529656,0.076357,-0.844769
-0.054613,0.520407,0.446573,0.965314,0.241626,0.098928
-0.256152,0.582526,0.419392,-0.668363,0.470496,0.576128
-0.363577,0.622981,0.442078,0.939240,0.340245,-0.045411
-0.614693,0.613525,-0.041047,0.906911,-0.107639,0.407341
0.680529,0.311371,0.636870,0.047293,0.714211,0.698331
0.930348,0.167326,0.323674,0.226861,0.401873,0.887148
0.916391,0.165351,0.289197,-0.063499,0.311962,0.947970
0.803784,0.206942,0.308873,0.560751,-0.445210,-0.698102
0.779392,0.210353,0.285428,0.293663,-0.100206,-0.950642
0.734781,0.224596,0.281728,0.100221,0.197990,-0.975067
0.597855,0.269600,0.276921,-0.048490,-0.035637,0.998188
0.570513,0.292820,0.651152,-0.104522,0.609154,0.786134
0.871708,0.129624,0.331489,-0.072641,0.090641,0.993231
0.432076,0.339438,0.651878,-0.160801,-0.137254,0.977397
0.628076,0.202932,0.288920,-0.381064,0.352098,0.854878
0.575838,0.221365,0.293623,-0.136696,0.223845,0.964991
0.535328,0.233393,0.285601,0.235711,0.583160,0.777409
0.506691,0.238659,0.264334,0.553762,0.636669,-0.536657
0.377895,0.290126,0.306487,0.209781,0.786689,0.580614
0.359404,0.289947,0.273774,0.034061,0.904923,0.424210
0.322852,0.300179,0.264264,-0.287761,-0.815040,-0.502895
0.233990,0.339198,0.311882,-0.599878,-0.411873,-0.685935
0.022881,0.426571,0.396777,-0.115803,-0.546120,0.829664
-0.129299,0.501915,0.522789,-0.047526,-0.239993,0.969611
-0.041445,0.441831,0.365170,-0.314024,-0.299789,0.900842
-0.274356,0.553083,0.535341,0.145517,-0.926174,-0.347888
-0.243489,0.524895,0.443876,0.928814,0.176918,0.325584
-0.274860,0.531957,0.426759,0.424104,0.898268,-0.115106
-0.323716,0.549491,0.432845,0.555541,0.820809,0.132841
-0.406750,0.575943,0.425548,0.035519,0.414322,0.909437
-0.697511,0.611670,0.109482,0.883799,-0.454678,-0.110307
-0.629875,0.559964,-0.039560,0.414197,0.355771,0.837776
-0.398762,0.520049,0.477869,0.187084,-0.894304,0.406473
-0.723270,0.564274,0.152292,0.282399,0.495961,0.821142
0.851705,0.299462,-0.124421,0.282745,-0.079917,0.955860
0.468844,0.497786,0.254858,0.356543,0.281698,-0.890799
0.798244,0.318672,-0.117712,0.298411,0.217670,0.929285
0.367751,0.533632,0.264610,-0.713682,0.315426,-0.625432
0.273204,0.575345,0.319904,-0.598466,0.742898,-0.299900
0.661533,0.362777,-0.127014,-0.281596,0.541580,0.792083
0.149301,0.633453,0.409260,-0.392173,0.755130,-0.525338
0.098503,0.651526,0.414620,0.681357,-0.154409,0.715479
0.801051,0.274806,-0.120375,-0.356517,0.439859,-0.824269
0.194560,0.566607,0.358566,-0.650406,0.628898,-0.425980
0.144121,0.524596,0.038488,-0.001143,-0.130055,0.991506
-0.251979,0.725793,0.408189,0.012345,0.123991,0.992207
-0.344078,0.756853,0.409468,0.501059,0.256925,0.826396
-0.455389,0.799821,0.440383,-0.312672,-0.230485,0.921473
-0.260757,0.679175,0.140432,0.678959,0.314628,0.663343
-0.919628,0.762298,-0.176880,0.597953,-0.106747,-0.794391
0.477047,0.387253,0.315374,-0.048903,0.413150,0.909349
0.729673,0.218732,-0.127948,-0.306322,0.519984,-0.797361
0.325730,0.431299,0.279999,0.329851,0.915807,-0.229118
0.293567,0.438839,0.262951,-0.647829,0.752078,0.121225
0.158872,0.503232,0.364479,-0.122013,-0.771354,0.624601
0.108145,0.520827,0.368801,-0.289465,0.736109,-0.611844
0.733774,0.347757,-0.107961,-0.056558,0.150514,0.986989
0.240538,0.599642,0.352825,-0.502164,0.599411,-0.623329
0.088286,0.664273,0.424580,0.718261,0.003161,0.695766
