-0.346788,0.186577,0.029702,0.938802,-0.336311,0.074468
0.223710,0.406914,-0.982840,0.202925,-0.134214,-0.969953
0.559232,0.411762,0.584565,0.691793,0.186350,0.697636
0.390573,0.665320,0.572518,-0.738352,-0.052768,-0.672348
0.655617,-0.498182,-0.429814,0.151298,0.002322,-0.988486
0.821320,-0.297419,0.023238,0.445102,0.829943,0.336273
0.145370,-0.612256,0.282014,0.644693,-0.197113,-0.738592
0.316032,-0.097419,0.433631,-0.261180,-0.808941,0.526688
-0.391365,0.271246,0.364863,0.956450,-0.072129,-0.282845
-0.247711,-0.724759,0.275693,0.781357,0.490531,0.385824
0.013688,0.094052,0.598448,-0.441504,-0.543974,0.713559
0.216639,-0.661639,0.348891,0.852733,-0.406575,-0.327937
-0.402551,0.127991,0.196680,0.855939,-0.512344,0.069805
0.076470,0.005746,0.170480,-0.675790,-0.735745,0.044582
-0.195748,-0.538316,0.577308,-0.540847,-0.829579,0.138865
0.248137,0.182716,-0.483420,0.941415,-0.337247,-0.001183
0.249714,0.260247,0.670817,-0.088765,-0.663019,0.743321
0.222126,0.380606,-0.272578,-0.776425,0.524134,0.349925
0.004666,0.163996,0.613610,0.647431,0.677023,-0.349962
0.312915,0.392189,-0.977942,-0.133612,0.304307,0.943157
0.327475,-0.092929,0.246630,0.906099,-0.229378,-0.355487
0.324893,-0.110932,-0.089341,0.576882,0.762853,-0.291997
-0.087920,0.521526,0.338501,0.965145,0.021676,0.260815
-0.625968,-0.009562,-0.055758,0.605112,0.562501,0.563411
-0.498826,-0.608934,0.309024,0.980293,0.104907,0.167390
-0.276729,-0.512593,0.363675,0.865332,0.265546,0.425071
-0.162300,0.169428,0.571167,0.997040,-0.026670,0.072104
0.260372,0.245522,-0.979832,0.534660,0.407460,-0.740347
0.113924,-0.056341,0.304522,0.952532,0.018203,-0.303894
-0.784600,-0.074254,-0.150834,-0.556892,0.436350,-0.706732
0.320778,-0.414411,0.477082,0.857928,-0.475933,-0.193516
-0.683044,-0.037127,-0.168139,-0.513460,0.172245,-0.840649
-0.962333,0.065095,-0.186542,0.805989,-0.073377,0.587365
-0.281578,-0.033401,0.575201,0.219264,0.252538,0.942416
0.270921,-0.590123,0.529896,-0.537705,0.799974,0.266298
0.232307,-0.707969,0.128578,-0.659235,0.421175,0.622912
0.876973,-0.474119,0.354617,0.942820,0.295821,-0.153560
0.032473,0.848575,0.467880,0.211299,-0.605763,-0.767075
-0.006778,-0.172974,0.178295,-0.528286,-0.330759,-0.781993
-0.439052,-0.761841,0.369005,0.606880,0.673993,0.421225
-0.466067,-0.526195,0.033844,0.701723,-0.337731,0.627314
-0.371794,-0.414770,0.400229,-0.579923,0.781154,-0.231275
-0.394849,0.099798,-0.241535,0.312520,0.676518,0.666824
-0.699505,0.692076,-0.516337,0.338505,-0.404352,-0.849655
-0.343620,0.171134,-0.364269,-0.753773,0.463903,0.465425
0.139825,-0.243008,0.637991,0.509538,-0.633415,0.582372
-0.248768,-0.665544,0.477604,-0.472328,0.863450,-0.177088
-0.189051,0.737598,0.414436,-0.297448,0.953592,0.046761
0.850757,-0.456700,0.351700,0.900950,0.395849,-0.177746
0.714857,-0.625993,0.357300,0.130693,0.938913,0.318375
0.069296,-0.425814,0.299895,0.757167,0.369880,0.538411
-0.304421,-0.175443,0.003178,0.956612,-0.224236,-0.186042
0.919444,0.280045,0.474939,0.768483,0.511939,0.383865
-0.808659,-0.636947,0.152239,0.812236,0.524361,-0.255575
0.674183,-0.771852,0.558257,-0.631160,0.747598,-0.206722
-0.920127,0.915780,0.340842,-0.507817,0.109669,0.854456
0.534226,-0.644040,0.049780,0.215388,0.536811,0.815746
0.160136,-0.156768,-0.208294,0.891845,-0.306818,-0.332378
-0.578326,0.452480,0.426104,0.911749,-0.169114,0.374317
0.575634,0.771223,0.589084,0.446718,0.763398,-0.466547
-0.446071,-0.776700,0.186866,0.856665,-0.067366,0.511456
0.132071,0.301863,0.658861,0.484969,-0.174033,-0.857040
-0.072458,-0.674164,0.022770,-0.429561,-0.332189,-0.839719
0.207830,0.138002,-0.410655,0.968546,0.130109,-0.212110
0.337972,0.235600,0.166014,0.186897,0.971807,-0.143740
-0.328641,0.497598,0.583412,0.620263,0.752198,-0.222423
0.251987,0.212031,0.704328,0.707716,0.622845,-0.333468
-0.188046,0.254411,0.619804,0.833520,-0.375044,-0.405692
-0.315819,-0.401661,0.347127,0.171251,0.985172,0.010503
-0.512440,-0.122469,0.485311,0.524141,0.400696,0.751478
-0.527052,-0.158249,0.503300,0.735843,0.060776,0.674419
-0.817521,-0.293244,-0.037517,0.740909,0.295159,0.603269
0.030309,0.044759,0.030783,0.693526,0.674631,0.252772
-0.017223,-0.769607,0.485023,-0.111808,0.866341,-0.486777
0.169899,0.448934,-0.390343,-0.710339,0.650499,0.268830
-0.318195,0.360045,0.424286,0.813099,0.456703,-0.360960
0.283324,-0.021818,-0.987251,-0.231093,-0.108056,0.966913
-0.434254,0.337598,0.301785,0.482202,0.665319,-0.569941
-0.560552,-0.206734,0.493144,-0.559925,-0.517031,-0.647428
-0.619264,-0.208889,-0.138842,-0.497971,-0.452239,-0.739936
0.661419,-0.357262,-0.401291,0.002425,-0.003834,0.999990
0.639363,0.675511,0.532489,0.898245,0.021895,-0.438950
-0.212260,0.600180,0.379449,0.459562,0.816424,-0.349649
0.304794,0.168979,0.622325,0.930958,-0.329802,-0.156677
0.763497,-0.671740,-0.196265,0.502605,0.854849,0.128924
-0.372264,0.249787,0.494981,0.373772,-0.892790,0.251438
0.650652,-0.374770,0.427959,-0.562595,-0.487763,0.667513
0.675136,-0.510168,0.373020,0.901958,-0.116891,0.415702
0.309804,-0.185185,-0.254463,0.781448,0.384844,0.491155
0.026986,-0.943030,0.041515,0.618208,0.245494,0.746694
-0.314814,0.454501,0.227291,0.041326,-0.134196,0.990093
0.788819,-0.668777,0.054408,0.002834,0.464539,0.885548
0.510482,0.104242,0.557140,0.158274,0.567821,0.807793
0.639311,-0.766061,0.565909,-0.592749,0.790617,-0.153535
0.504152,0.772301,0.801457,0.053804,0.599093,0.798869
0.420750,-0.194388,-0.993536,0.184337,0.136754,-0.973303
0.521456,0.554703,0.505389,-0.043642,0.956422,0.288708
-0.687848,0.034703,0.256210,0.056175,0.978333,0.199269
0.828443,-0.502402,0.322889,0.978243,0.079551,-0.191603
0.166943,-0.023973,0.658411,0.955177,0.087495,-0.282809
0.243596,0.274299,0.096021,0.543384,0.762146,0.351947
0.219486,0.004265,-0.079491,0.443101,0.825842,0.348779
0.261692,0.097149,-0.993878,-0.230573,0.067180,0.970733
-0.240962,0.297374,-0.363657,0.812487,-0.503601,-0.293685
0.100523,-0.012660,0.205305,-0.711875,-0.702294,-0.004109
0.045340,-0.359012,0.632139,0.590002,-0.760790,0.270363
0.250558,0.231066,-0.459273,0.881103,-0.463458,0.094150
0.892751,-0.327363,0.191548,0.846787,-0.526205,0.077851
-0.117511,-0.491493,0.004349,-0.489862,-0.250793,-0.834948
0.360711,-0.155915,0.343381,-0.368162,0.795473,0.481331
0.207456,0.501953,-0.362685,-0.450647,0.826634,0.337036
0.653138,0.373288,0.354527,-0.039125,0.972974,0.227576
-0.654979,0.267879,0.493252,0.864954,-0.381991,0.325481
-0.135504,0.811852,0.390307,0.858336,0.118293,0.499265
0.624017,-0.493378,-0.081472,0.108494,0.392825,-0.913191
-0.872015,0.256655,0.375829,0.573244,-0.215600,0.790511
0.213155,0.109495,-0.454627,0.964494,-0.263457,0.018493
0.117511,-0.322694,0.262080,-0.729935,-0.067812,-0.680144
-0.209517,-0.512099,0.553053,0.248831,0.956046,0.155110
0.880245,-0.482065,0.213372,-0.346879,0.421044,0.838091
0.346099,-0.272144,0.542176,-0.340206,0.767537,0.543274
-0.404708,-0.471156,-0.026245,0.891829,-0.249584,0.377290
0.013482,0.536835,0.559103,-0.148768,0.663354,0.733368
-0.042706,0.201975,0.239572,0.865227,-0.446883,0.227327
-0.054626,0.267699,-0.210329,0.135157,0.987166,-0.085068
0.629446,0.248530,0.592758,-0.578756,0.365478,-0.729018
0.092769,0.787071,0.463361,0.420435,0.262023,0.868665
-0.037799,0.193221,0.619858,-0.659916,-0.448909,0.602488
0.609031,-0.620561,0.617463,0.866855,0.345163,0.359757
0.756162,0.716094,0.585159,0.870033,0.490725,0.047230
0.374216,-0.347699,0.384923,0.782991,0.620239,0.047201
-0.631345,0.644085,-0.514590,0.049148,0.419538,0.906406
0.079896,-0.024602,0.335224,0.379441,-0.911298,-0.159880
-0.149955,-0.337778,0.028388,-0.787333,-0.047519,-0.614694
0.532693,0.164085,0.616401,0.933250,0.316944,-0.169088
0.067287,-0.170909,0.171614,-0.737664,0.277912,0.615319
0.036324,-0.051223,0.556852,0.961741,-0.258508,-0.090710
0.448918,0.249293,0.001197,-0.177494,0.974633,-0.136331
0.237215,-0.330864,0.588418,-0.642584,0.748204,-0.165158
0.580335,0.777194,0.602859,0.419161,0.882414,-0.213659
0.106750,-0.352233,0.268401,-0.729706,-0.117632,-0.673566
0.695866,0.489383,0.649227,0.951823,-0.067118,-0.299212
0.789926,0.142626,0.532759,-0.710130,0.563784,0.421739
-0.378968,0.396543,0.500977,0.863585,0.101919,0.493795
0.368838,0.088081,0.654719,0.806251,-0.504700,-0.308605
0.372058,0.052525,-0.962852,0.133489,0.219859,-0.966355
0.093664,-0.394254,-0.171344,-0.337196,0.167389,0.926434
-0.058477,-0.259888,0.188684,-0.467645,-0.245254,-0.849210
-0.191208,-0.073401,0.513276,-0.325381,0.942447,-0.076951
0.616205,0.531807,0.753144,0.994563,0.056443,0.087508
-0.194802,0.270707,0.641934,0.919797,-0.380425,0.096176
0.520825,0.796857,0.552440,0.419047,0.021589,-0.907708
-0.948249,-0.121437,-0.114604,0.707393,-0.085227,0.701663
-0.183403,-0.544916,0.614006,0.921145,0.123894,-0.368974
-0.044180,-0.164669,0.468835,-0.531698,-0.823806,-0.196572
-0.040593,-0.704153,-0.106465,-0.500376,-0.247719,-0.829614
0.177756,0.258316,0.035302,0.389302,0.881959,0.265690
-0.398062,-0.309315,0.014414,-0.779954,0.338956,-0.526100
-0.113924,-0.587340,-0.556870,0.454940,0.664074,-0.593325
0.263908,0.128844,0.642312,-0.543277,0.486592,0.684163
-0.070880,-0.428283,0.452250,-0.149715,0.451359,-0.879694
0.629078,0.751560,0.433055,0.453026,0.634723,0.626014
-0.376643,-0.817104,0.196283,0.242877,0.732930,0.635471
-0.683154,-0.466397,-0.090709,0.876698,0.036446,0.479659
0.753316,-0.347520,0.331190,0.960998,0.262662,-0.086549
-0.001401,-0.218451,0.065212,0.291125,0.795431,0.531541
0.889686,-0.519686,0.222015,-0.114203,0.616986,0.778643
0.367203,-0.490864,0.527303,-0.096608,-0.531435,0.841572
0.861093,-0.557172,0.426699,0.342035,0.708922,-0.616799
0.718077,-0.366465,-0.066544,0.821540,0.021392,-0.569750
-0.095886,-0.398519,0.604156,0.511109,0.797999,-0.319320
0.750733,0.087407,0.520046,0.837832,0.104631,-0.535808
-0.596371,0.419394,0.317271,-0.157805,-0.777953,0.608183
0.200707,-0.092570,0.173037,0.467251,0.857679,0.214625
-0.069875,-0.601392,0.410997,0.011493,-0.689209,0.724471
0.495452,0.689517,0.905788,0.619410,0.783666,0.046892
0.659095,0.133558,0.470293,0.296134,-0.911678,-0.284864
-0.519505,0.430527,0.504938,0.070919,-0.995475,-0.063241
-0.352745,0.321481,0.181374,0.943639,-0.169593,0.284224
0.804171,-0.649697,0.170336,0.359787,0.860053,0.361749
0.852599,-0.488664,0.347343,0.919100,0.303946,-0.250743
-0.386825,-0.127946,0.278575,0.002284,-0.482830,0.875711
0.321460,0.394568,-0.057775,0.077654,-0.353499,0.932206
0.130545,0.092480,0.508666,-0.040584,0.925114,0.377513
0.174542,0.133378,0.584402,-0.091125,0.260296,0.961219
-0.184298,-0.612211,0.462892,-0.740273,0.666290,-0.089741
0.744345,-0.214141,0.332361,-0.691097,-0.194657,-0.696056
0.175598,0.274029,0.323249,0.995186,-0.086555,0.045972
-0.098043,0.799057,0.416759,0.993304,0.057287,-0.100327
-0.059797,-0.375802,0.381466,0.383698,0.920699,0.071341
-0.476197,0.046195,0.258407,-0.749118,0.277346,-0.601582
-0.375117,-0.711336,0.082066,0.920716,-0.389125,0.029399
0.419114,0.798025,0.780335,0.828138,0.542949,0.139259
0.548046,-0.298586,0.435180,0.748360,0.663270,-0.005421
-0.250139,0.198159,0.527555,-0.775217,-0.173196,-0.607489
0.919863,0.217643,0.277674,0.395385,0.610330,-0.686417
0.345887,0.252570,0.638603,0.328750,0.002715,-0.944413
0.089021,-0.005926,0.360326,0.048215,0.990752,0.126829
0.201602,-0.526824,0.285993,-0.530590,0.208002,0.821711
0.748724,-0.588956,0.159639,0.884382,-0.448016,-0.130962
0.050247,0.323098,0.259937,-0.413748,0.874319,-0.253729
0.527471,-0.440629,0.423223,-0.439497,0.694561,-0.569585
-0.415527,0.473670,0.367708,0.188660,-0.725869,0.661454
-0.747198,-0.054052,0.362504,-0.758126,-0.485903,-0.434905
-0.311652,-0.786891,0.311833,0.802711,0.298522,0.516274
0.007937,-0.281122,0.186200,0.727270,0.202797,0.655708
-0.581333,0.596229,-0.513294,0.056223,0.473832,0.878819
0.708791,0.598788,-0.136825,0.203064,-0.812278,0.546781
0.305264,0.743345,0.436206,0.283963,0.081769,0.955342
0.066552,0.580337,0.487868,0.078554,-0.850579,0.519946
-0.531483,-0.517980,0.233161,0.329768,-0.868099,-0.371022
-0.159454,-0.683951,0.268113,-0.263554,0.704784,-0.658649
0.162145,0.115376,0.095805,-0.678585,0.534255,-0.504077
0.029832,-0.024871,0.512861,0.972241,-0.101260,0.210937
0.279048,-0.127273,0.096472,-0.713540,0.091709,0.694586
0.168843,0.057194,-0.120979,0.961922,-0.258199,-0.089658
0.404921,-0.542536,0.473282,-0.593356,-0.444831,-0.670861
-0.371421,-0.752009,0.332577,0.421698,0.848141,0.320667
0.139142,-0.021998,0.124742,0.619918,0.741512,0.256635
-0.064440,0.411358,0.636334,0.745115,-0.195414,-0.637665
0.822583,-0.690550,0.086478,-0.052935,-0.993174,0.103936
-0.504262,-0.440404,0.385967,-0.149746,0.988474,-0.022258
0.040066,-0.971807,0.060368,0.635740,0.192730,0.747456
-0.326580,0.349495,0.583250,-0.057680,0.814073,0.577891
-0.266226,-0.679012,0.260694,0.944152,0.289765,-0.156886
0.394108,0.424467,0.603814,0.407684,0.837783,-0.363198
-0.680829,-0.316229,-0.100559,0.860945,0.115876,0.495324
0.617789,-0.596813,0.306557,0.195358,0.921906,0.334551
-0.476248,-0.726644,0.053669,-0.411007,-0.784095,-0.465046
0.517238,-0.022088,0.168967,-0.626333,-0.643120,-0.440571
-0.190841,-0.460337,-0.293538,0.152742,-0.059734,-0.986459
-0.231039,0.236094,0.601419,-0.630223,0.078517,0.772434
0.619477,-0.806016,0.069281,-0.263199,0.844500,0.466419
-0.082060,0.213468,0.442761,-0.813522,-0.107387,-0.571533
0.524199,0.292795,0.143884,-0.720318,0.599215,0.349404
0.710954,-0.725612,0.488210,0.134911,0.939918,0.313612
0.275036,0.274299,0.660805,0.799020,-0.551513,-0.239586
-0.014744,0.275331,0.030747,-0.399803,0.211232,-0.891930
-0.552953,-0.026308,0.524764,0.894372,-0.404429,-0.191143
0.128220,0.860741,0.699430,0.875286,-0.260550,0.407417
0.543718,-0.678025,0.118854,0.953421,-0.284722,-0.099609
0.196116,-0.575533,0.497502,0.579068,0.728531,-0.365955
0.019754,-0.035511,0.596935,-0.281763,-0.319908,-0.904582
-0.160613,-0.775398,0.258929,0.177405,0.983573,-0.033342
0.395531,0.098451,0.536144,0.663572,-0.241019,-0.708225
-0.093246,-0.436229,0.141146,0.648257,0.327591,0.687348
-0.976997,0.127946,-0.101694,0.903159,0.319413,0.286843
-0.743083,-0.079820,0.046142,0.005727,0.940457,0.339863
-0.062804,0.383030,0.651640,0.900487,0.346289,0.263073
-0.272453,-0.029270,0.549973,0.935463,-0.178342,0.305128
0.714226,0.455847,0.659527,0.994390,0.050823,-0.092771
0.189044,0.741908,0.457724,-0.462726,0.105453,-0.880207
0.029994,-0.152144,0.315489,0.769006,-0.623876,0.139314
0.429611,0.062581,-0.961862,-0.248825,0.085854,-0.964736
-0.303158,0.366644,0.588922,0.383106,-0.775355,-0.502050
-0.071511,-0.009473,0.607307,-0.611336,-0.512719,-0.602816
0.108862,-0.557890,0.478378,0.509285,0.773624,-0.377007
-0.036214,-0.042828,0.530994,0.234897,-0.004925,0.972008
-0.029414,-0.063524,0.609342,0.716935,0.613792,0.330551
-0.188787,-0.544287,0.186866,0.993886,0.082034,-0.073898
0.662997,0.647946,0.477082,0.973943,-0.172427,0.147324
-0.890903,-0.156184,0.070740,-0.697327,0.544771,0.465789
0.626651,-0.440135,0.257110,0.748972,0.633718,0.193499
-0.457360,0.445073,0.488210,0.534811,-0.841580,0.075635
0.237794,0.236409,0.036887,0.326788,-0.793180,-0.513883
-0.130332,0.584332,0.570753,0.165495,0.156426,0.973726
-0.879401,-0.160224,-0.134682,-0.718110,0.278010,-0.637988
0.660679,-0.530909,0.037355,0.425829,0.497825,-0.755540
0.363191,0.517666,0.335890,0.777555,-0.591924,-0.212215
-0.319670,-0.106173,-0.044396,-0.615379,-0.773230,-0.153051
-0.424388,-0.537957,-0.597007,0.868746,0.425421,-0.253568
0.263116,0.260157,0.622559,-0.353561,0.577450,0.735898
-0.268712,-0.082334,0.622847,0.342023,0.612428,0.712707
0.635409,-0.704871,0.025741,0.793162,0.605712,-0.063296
0.102422,0.663479,0.501625,0.781754,0.275916,0.559224
-0.024719,0.877082,0.448019,-0.011109,0.752688,0.658283
-0.413576,0.149585,0.616239,0.884915,0.136927,-0.445171
0.251878,0.312278,0.010237,-0.163645,0.883061,0.439800
0.082324,-0.376611,0.388794,0.212001,0.864473,0.455787
0.567198,-0.470303,0.042289,-0.171333,-0.099883,0.980137
0.239114,-0.627520,-0.490479,-0.562767,0.295593,0.771957
0.577959,0.689248,0.664335,0.922372,0.383865,0.043319
0.283375,0.053558,-0.971477,-0.211715,0.929431,0.302217
-0.212363,-0.084848,0.529230,-0.117631,0.958655,-0.259120
-0.111921,-0.923547,0.081490,0.519716,0.315811,0.793825
-0.010738,0.101908,-0.500203,-0.680266,0.717894,-0.147874
-0.298882,-0.758474,0.290171,0.323870,0.522259,0.788894
-0.268023,-0.359147,0.382582,-0.440027,0.867790,0.230905
0.442800,0.621773,-0.977546,-0.033126,-0.101511,0.994283
-0.444803,-0.802379,0.162503,0.981056,-0.088770,-0.172191
0.297041,0.202424,0.118980,0.052568,0.990263,0.128899
0.848278,-0.519820,0.370391,0.832633,-0.366807,-0.414940
-0.165732,0.618451,0.564919,-0.026091,0.419274,0.907485
-0.057215,0.485477,0.318910,0.899145,0.307290,0.311628
-0.141886,0.158878,0.638585,0.021705,-0.820133,0.571761
0.086542,-0.360000,0.269949,-0.724368,-0.088371,-0.683726
0.101946,0.740875,0.466080,0.459789,-0.076807,0.884700
-0.348424,-0.510079,0.280501,0.943457,-0.309902,0.117683
0.001980,0.090281,0.501355,0.913166,0.404911,-0.046638
-0.127589,-0.826352,0.128056,-0.871065,0.219295,-0.439495
-0.339138,-0.088215,-0.078969,-0.302316,-0.891924,-0.336270
0.727202,-0.544153,-0.009679,0.956556,0.257958,0.135863
0.467857,0.457957,0.425240,-0.287783,-0.599915,0.746514
0.805755,0.025006,-0.072198,0.204428,0.449245,0.869706
-0.250983,-0.380875,0.159495,0.528646,-0.769902,0.357471
-0.268074,0.038743,0.566918,0.904161,0.310797,0.293084
0.443592,0.683008,0.552350,-0.121460,0.385796,0.914554
-0.351006,-0.153895,-0.003250,0.839593,-0.143934,-0.523800
0.876027,-0.344242,0.491037,0.605229,0.437795,-0.664856
0.713749,0.680898,0.679316,0.477542,-0.465362,-0.745247
0.744719,0.127452,0.527537,0.770967,-0.367685,-0.520018
-0.355489,0.135533,0.585753,0.187922,0.266585,0.945314
0.251665,-0.052525,-0.989160,0.149597,0.175451,-0.973056
-0.593524,0.444489,0.478054,-0.600132,0.799901,-0.000505
0.814668,-0.303928,-0.007842,-0.586009,-0.744148,-0.320683
-0.271133,-0.642604,0.504056,0.087009,-0.423661,0.901632
0.230775,-0.742043,-0.015513,0.351233,0.376799,0.857122
0.244917,-0.035915,0.563046,-0.235698,-0.655889,0.717117
-0.284637,-0.377598,0.549757,-0.449976,0.716475,-0.533089
-0.047503,-0.112907,0.614402,0.924743,-0.009140,-0.380484
0.413048,-0.429270,0.437845,0.894936,0.244259,0.373399
0.299572,0.551919,0.453889,-0.569890,0.803165,0.173639
0.140881,-0.126330,0.557698,0.786187,0.362277,0.500665
-0.270714,-0.078474,0.615284,0.411830,0.908588,0.069741
-0.386722,-0.544646,0.127587,-0.762365,-0.031132,-0.646398
-0.329903,-0.247767,-0.486031,-0.926055,0.269320,0.264363
-0.121471,0.381504,0.597097,-0.104101,-0.994020,0.032972
-0.737912,-0.581863,-0.040921,0.956152,-0.013904,0.292542
-0.076257,0.191919,-0.333135,0.918499,-0.206074,0.337480
0.204133,0.058227,-0.212544,0.969524,0.222102,-0.103408
-0.465642,0.561122,0.450684,-0.812121,-0.089711,0.576551
-0.384139,0.414860,0.483708,0.645479,0.747722,-0.155783
-0.053364,-0.568530,0.006942,-0.422822,-0.010266,0.906155
0.437680,-0.577823,0.477262,-0.805170,0.308154,-0.506698
-0.435729,-0.787116,0.110715,-0.866299,0.059230,-0.496002
0.636040,0.664826,0.650506,0.904312,0.397546,0.155485
-0.507108,0.230887,0.566972,-0.091237,0.764547,0.638078
0.248452,0.213872,-0.241823,0.964276,-0.262797,0.033298
0.569729,-0.501549,0.285147,0.353404,0.449202,0.820563
0.498298,0.115511,0.570339,-0.503909,-0.732939,-0.457030
0.236899,0.201212,0.602571,0.864271,0.400962,0.303752
-0.502941,0.017778,0.352565,0.674613,-0.719415,0.165346
0.586241,-0.386532,0.428968,-0.054282,-0.614141,0.787327
0.863630,-0.528260,0.434514,0.261765,0.754371,-0.602000
0.923450,-0.489338,0.055650,0.525185,-0.006241,-0.850965
0.171007,0.077576,-0.206997,0.834524,-0.543790,0.088673
-0.112868,-0.508642,-0.002512,-0.395998,-0.358289,-0.845467
-0.029305,0.219035,0.641934,0.497730,0.100590,-0.861479
-0.051515,-0.313670,0.600699,-0.015425,0.482738,-0.875629
0.759807,-0.691942,0.473372,0.232931,0.968103,-0.092305
0.267920,-0.728620,0.152725,0.980103,-0.111523,-0.164198
0.379123,0.211852,-0.977600,-0.022664,-0.142771,0.989496
-0.853603,-0.086285,-0.145972,0.623257,-0.277430,0.731152
0.253462,0.377508,-0.176242,-0.093101,0.902810,0.419841
-0.521301,-0.172660,0.302019,0.966502,0.039100,0.253665
0.001555,0.115960,0.583898,0.246528,-0.632659,0.734144
0.300627,0.028732,0.229794,0.974239,-0.085397,-0.208724
0.421857,-0.879955,-0.370085,0.814592,-0.044027,-0.578361
0.636832,-0.678923,0.515418,0.307565,0.885699,-0.347765
-0.352114,-0.609607,0.112840,0.761053,0.078799,0.643886
0.296983,-0.148687,0.338951,0.063534,0.996963,0.045044
-0.235315,0.608844,0.512357,-0.532010,0.660776,-0.529471
0.695338,0.313670,0.175251,-0.532860,-0.839456,0.106652
-0.001504,-0.430393,0.576353,0.431240,0.739846,-0.516391
-0.167259,0.119282,0.497592,0.241326,-0.163095,0.956641
0.412520,0.136655,-0.152725,-0.308898,-0.199144,0.930013
-0.420222,0.469181,0.428391,0.709064,0.319837,0.628437
0.680513,0.200314,0.513672,0.942868,-0.023727,-0.332320
0.630714,-0.550527,0.289523,-0.475828,-0.830184,-0.290486
0.338346,-0.231560,-0.469933,0.997382,0.018457,0.069924
-0.120731,0.250999,-0.177772,0.650500,-0.754138,0.090143
0.871384,-0.692346,0.292746,-0.293299,0.909244,0.295382
0.070719,-0.034658,0.317775,0.746458,-0.662702,-0.060222
-0.194377,-0.608799,0.447875,0.121325,0.925646,0.358412
0.587928,-0.626577,0.357607,-0.056716,0.988022,0.143512
0.111921,-0.551201,0.481331,0.509285,0.773624,-0.377007
-0.261003,0.213917,0.649371,0.383846,-0.050602,-0.922010
0.062540,-0.133288,0.377756,-0.442615,0.816093,-0.371598
-0.428342,0.725342,0.480431,-0.045062,-0.992191,0.116304
-0.353325,-0.461549,0.223834,0.487709,-0.834349,-0.256906
0.687584,-0.063389,-0.061178,0.035945,0.271350,0.961809
-0.280001,-0.575084,0.397474,0.954974,0.209280,0.210301
0.263380,0.222896,0.532399,0.584424,0.726911,0.360623
0.426076,0.089966,-0.950625,0.047350,0.022371,0.998628
0.527419,0.766105,0.443103,0.050548,0.582472,0.811277
1.000000,0.306756,0.279061,0.897807,-0.430805,0.091374
0.083747,-0.375443,-0.184831,-0.397352,0.121445,0.909595
-0.304794,-0.760090,0.134880,0.973729,-0.188911,0.127137
-0.571629,0.306936,0.284679,0.190488,-0.681318,0.706767
-0.642055,0.172929,0.343309,0.064754,-0.901546,0.427811
0.827013,0.299529,0.383464,-0.645496,0.563997,0.515017
0.662527,-0.578631,0.301029,0.200634,0.877253,0.436088
0.082375,-0.017284,0.161458,0.893937,0.435205,-0.107110
0.806760,-0.442424,0.299715,0.926004,0.372545,0.061043
0.245181,0.223389,0.311239,0.704537,0.632581,-0.321665
0.327005,0.509630,-0.980319,-0.059039,0.020805,0.998039
0.649126,-0.692211,0.061790,-0.540111,-0.840128,-0.049645
0.625124,-0.601616,0.227795,-0.399205,0.737033,0.545360
0.594104,0.286599,0.438673,0.889685,-0.417733,0.184280
-0.183828,0.361706,-0.318100,-0.359222,0.901538,0.241222
-0.554376,-0.018721,0.562110,0.974127,0.036903,0.222968
-0.601168,0.062671,-0.069101,0.701769,0.354792,0.617772
0.844955,-0.589719,0.386435,0.922730,-0.186550,-0.337297
0.329324,0.448620,0.619156,0.000632,0.834566,0.550907
-0.487904,-0.799865,0.129046,-0.382878,0.921343,-0.067317
0.003880,-0.104287,0.634876,0.577538,0.758120,0.302826
0.376489,-0.228507,-0.994868,-0.149170,-0.107952,0.982901
0.141197,-0.451403,0.425726,-0.042237,0.742286,0.668751
0.347999,-0.485432,0.453979,-0.683033,-0.221543,0.695978
-0.923662,-0.132211,-0.125427,0.701940,-0.228512,0.674583
-0.302527,0.002604,0.577938,0.896140,-0.272851,0.349979
-0.751577,-0.094501,0.066724,-0.166624,0.924240,0.343536
0.082324,-0.102177,0.643627,-0.030790,-0.028998,0.999105
0.869432,0.209338,0.417731,-0.437670,0.858613,0.266887
0.349583,0.500022,0.568520,0.968556,-0.197628,-0.151138
-0.689800,-0.449473,-0.079257,0.872514,0.052386,0.485773
0.085859,-0.139843,0.656592,0.239087,0.763128,0.600395
0.005883,-0.672637,0.376928,0.987122,0.121157,0.104453
-0.130487,0.290011,0.611611,0.283190,0.033375,0.958483
0.373952,-0.661279,-0.141975,0.043082,0.327950,0.943712
-0.550635,-0.022492,0.544625,0.563777,-0.194409,0.802721
-0.177124,0.397935,-0.592920,-0.096717,0.943114,0.318091
-0.444384,-0.090595,0.439718,0.827080,0.141243,0.544048
0.635512,0.631785,0.611377,-0.089969,0.000087,0.995945
-0.059849,0.026128,0.119484,0.322754,0.932975,-0.159337
0.538077,-0.601167,0.216487,0.084465,0.898820,-0.430103
-0.320565,-0.540965,0.461524,-0.634517,-0.642840,-0.429121
0.624332,0.439327,0.426789,0.596916,0.683049,-0.420875
0.464167,-0.671874,-0.444580,-0.130265,0.633426,0.762760
0.673552,-0.655309,-0.065266,0.898203,-0.426106,-0.108001
-0.807494,0.011717,0.029342,0.549037,0.521804,0.652900
0.366571,-0.934186,-0.044342,0.137838,0.584557,0.799558
0.437841,-0.439461,0.535640,0.764269,-0.556707,-0.325529
0.084700,-0.535713,0.099209,0.911208,0.213222,-0.352472
-0.204455,0.223479,-0.127119,-0.317704,0.942016,-0.108024
-0.138981,-0.418586,0.577416,-0.705401,0.607543,-0.365106
0.187357,0.104691,-0.216541,0.954207,-0.296255,0.041501
-0.382394,-0.084400,0.400625,0.847156,0.103385,0.521189
0.284695,0.470213,-0.260532,0.929127,-0.232958,-0.287148
0.058110,-0.797710,0.040848,0.612707,0.246464,0.750896
0.333703,0.478833,0.499518,0.945966,0.094935,-0.310057
0.730261,-0.730954,0.516229,-0.137124,-0.983623,0.116975
0.440159,0.772256,0.796145,0.367001,0.767028,0.526287
-0.373584,0.654501,0.518209,0.798102,0.313236,-0.514700
-0.295875,-0.670348,0.457076,0.888272,-0.192127,-0.417205
-0.111290,-0.452166,0.170101,0.817194,-0.558859,-0.140960
-0.075993,-0.700875,0.205935,0.150843,0.469815,0.869782
0.345996,-0.360269,-0.455294,0.981907,-0.169418,-0.084598
0.184826,0.107160,-0.238329,-0.658351,0.694682,0.289811
0.724935,0.322918,0.474669,0.975228,-0.032578,-0.218791
-0.086967,-0.129248,0.657078,0.967734,0.220560,0.121841
0.005619,-0.739933,-0.101838,-0.282778,0.558038,0.780147
-0.048772,-0.920180,0.070362,0.611293,0.123778,0.781665
0.480833,0.757262,0.903393,0.179043,-0.353159,-0.918272
0.460471,0.678967,-0.978014,-0.042015,-0.113422,0.992658
0.148796,-0.032682,0.129298,-0.516246,-0.815837,-0.260575
-0.345043,0.161975,-0.074845,-0.520529,0.845488,-0.119158
-0.850493,0.135264,-0.173937,0.449608,-0.672420,-0.587966
-0.442433,-0.506442,0.042649,0.743350,-0.111637,0.659521
0.551053,0.773064,0.799566,-0.029435,0.577648,0.815755
0.297092,-0.074029,-0.990961,-0.080903,-0.210074,0.974332
0.136875,-0.610685,0.524206,0.392127,0.899607,0.192206
0.029884,0.588956,0.384617,0.276586,-0.627980,-0.727421
0.282796,0.258137,-0.699772,0.694122,-0.718513,-0.043974
0.422856,0.212525,-0.977996,-0.019802,-0.248339,0.968471
0.574527,0.550752,0.511799,0.890288,-0.230112,-0.392982
0.048141,-0.757127,-0.454195,-0.366733,0.280073,0.887167
0.205505,-0.587430,0.004259,0.113845,-0.204113,0.972305
0.534909,0.166644,0.633633,0.953636,0.289340,0.082827
-0.324790,0.124175,0.547128,0.984959,0.097373,0.142742
-0.080057,-0.315107,0.396069,0.239787,0.689904,0.683033
0.476718,0.660831,0.804410,0.730698,-0.611004,-0.304557
-0.076418,0.057194,-0.202388,0.642227,0.532526,0.551326
0.281791,0.360673,-0.234890,0.694034,0.133243,-0.707504
-0.440108,0.259125,0.484086,0.077562,-0.996676,0.024912
0.568306,0.687093,0.935914,0.674462,0.704735,-0.220112
0.183667,0.211493,0.018214,0.021574,0.925264,0.378710
-0.781857,-0.304242,0.122365,0.718731,0.343752,-0.604368
-0.098732,-0.207318,0.596647,-0.417281,0.907639,-0.045482
0.406344,0.758878,0.796199,0.765875,0.273826,0.581768
0.820947,0.352233,0.330668,0.089166,0.995772,0.022074
-0.485161,-0.825948,0.140372,-0.503843,0.760017,0.410507
-0.454462,-0.521706,0.484104,0.512551,0.536629,0.670314
-0.014956,-0.273042,0.515526,0.953241,-0.300114,0.035542
-0.425496,-0.048620,-0.089017,0.359847,0.765643,0.533199
0.379651,0.648620,0.472868,0.366453,-0.742426,-0.560818
0.797422,-0.531582,0.397041,0.783005,0.129667,0.608351
0.416422,-0.818451,-0.055164,0.048113,0.802099,0.595250
-0.487222,-0.343793,0.032061,-0.757377,0.129263,-0.640056
0.644747,-0.771538,-0.081004,0.816163,-0.558292,0.148956
-0.894174,0.154388,-0.179105,-0.187352,0.444722,-0.875855
0.451448,0.154703,0.416147,0.396743,0.280266,-0.874097
0.652713,-0.704826,0.380259,-0.035456,0.487426,0.872444
0.568834,-0.144018,0.487058,0.628875,0.181079,0.756126
-0.103111,-0.270438,0.261288,0.921385,-0.339676,-0.188864
-0.796521,-0.720718,0.090133,0.991752,-0.002121,-0.128157
-0.272189,0.245567,0.542861,0.951974,-0.159469,0.261373
0.318299,0.467879,-0.044828,0.102281,-0.173942,0.979430
-0.609611,0.148013,0.501733,0.076775,-0.734013,0.674781
-0.652764,0.284669,0.498420,-0.654891,0.751257,-0.082037
-0.034373,0.432233,0.628915,0.515104,0.383885,0.766355
0.215847,-0.227340,0.609900,0.366979,0.593005,0.716709
-0.381132,-0.525612,0.010021,0.908854,0.227531,0.349592
0.360608,-0.462581,0.474561,0.849656,0.135695,0.509581
0.375587,-0.186128,0.530472,0.833940,-0.519317,0.186691
-0.305638,0.240359,0.052553,0.536731,-0.833059,0.133914
-0.858143,-0.059035,0.049978,-0.066378,0.714438,0.696543
0.213632,0.129383,-0.467574,0.888578,-0.445512,0.109307
0.605129,0.697284,0.958674,-0.689227,-0.244563,-0.682023
-0.260900,-0.297508,0.426086,-0.664304,0.438519,-0.605311
0.194956,0.271021,0.570231,0.444290,0.889543,-0.106391
0.871802,-0.471919,0.060890,0.289461,-0.119737,-0.949671
-0.041173,-0.563681,0.017476,-0.634401,-0.210547,0.743778
0.691699,-0.732750,0.586905,-0.746700,0.659340,-0.087808
0.078737,-0.053064,-0.046773,0.778896,-0.627148,0.002423
0.827915,-0.703883,0.575075,0.175172,0.984383,0.017436
-0.545567,0.444938,0.437107,-0.662975,0.402736,0.631084
0.427608,0.382357,-0.973278,-0.000659,0.225448,0.974255
-0.173962,0.165836,0.432587,0.123975,-0.984987,0.120132
0.094881,0.912817,0.678596,0.976541,-0.084377,-0.198114
-0.351373,0.388956,0.485401,0.339262,0.774191,0.534349
0.365618,-0.761033,-0.102594,-0.221355,0.726744,0.650265
0.367518,0.453378,-0.976969,-0.028369,0.143795,0.989201
-0.049513,-0.127497,0.555195,0.972337,0.200992,-0.119012
0.194905,-0.607901,0.539187,0.212565,0.966985,-0.140554
-0.561396,0.427879,0.480917,0.070556,0.996870,-0.035666
0.547363,0.747924,0.328291,-0.672777,-0.136969,0.727056
-0.287065,-0.027116,0.125300,-0.049305,0.542616,0.838533
-0.374744,-0.268777,-0.489020,-0.926055,0.269320,0.264363
0.222442,-0.183838,0.261162,-0.681171,0.589865,0.433664
-0.415366,0.602694,0.381159,-0.607147,-0.239093,-0.757765
-0.287909,-0.608260,0.429778,0.805987,-0.497806,-0.320271
0.065123,-0.414366,0.586743,-0.506977,-0.861894,0.010643
-0.302102,0.450550,0.318064,-0.778654,0.528641,-0.337989
0.031101,0.741773,0.487220,0.319332,0.322334,0.891138
0.202182,0.494052,-0.399851,-0.739372,0.581598,0.339225
0.689433,-0.724040,0.375595,0.268850,0.343543,0.899832
-0.826859,-0.026487,0.429904,0.826793,0.514473,-0.227443
-0.112977,-0.656072,0.247045,0.535176,-0.617891,0.576018
-0.886472,-0.168575,0.082786,0.739096,-0.552879,-0.384788
0.237530,0.316768,0.565837,0.891992,-0.251272,-0.375782
-0.438530,-0.571358,0.458067,-0.278225,-0.850108,-0.447109
0.622117,0.710393,0.541438,0.982604,0.185221,-0.013476
0.400226,-0.369697,0.488408,0.557827,-0.738158,-0.379408
0.461314,-0.684130,-0.128452,-0.175794,0.442643,0.879297
0.279048,-0.270842,0.526276,0.826785,0.356470,-0.435151
-0.005986,0.476319,-0.542123,-0.020829,0.717119,0.696640
0.848748,0.155241,0.220557,0.609019,0.628876,-0.483334
0.352166,0.132480,-0.979274,-0.286695,0.169295,0.942945
0.560024,0.669944,0.961916,-0.627566,0.559560,0.541344
0.172855,-0.305903,0.085325,0.969684,0.160380,-0.184370
0.651817,0.480090,0.614888,0.880394,-0.071147,-0.468875
0.773575,-0.065365,0.398338,0.815664,-0.346845,-0.463024
0.251035,-0.275331,0.528257,0.759626,0.141442,-0.634793
-0.466434,-0.471874,0.440672,-0.528061,-0.815468,-0.236988
-0.430983,-0.255802,0.570573,-0.250558,-0.936736,-0.244431
0.634089,-0.105455,0.147179,-0.188042,0.636489,0.748012
0.582493,0.658092,0.978644,-0.720666,0.556080,0.414024
-0.187782,0.246824,0.640926,0.958375,-0.188048,0.214839
0.259426,-0.233266,0.527123,0.252826,0.642220,-0.723625
0.059900,0.329607,0.274703,0.654352,-0.740599,0.152762
-0.296455,-0.654186,0.248143,0.917323,0.375019,0.133715
0.790718,-0.707250,0.443049,-0.494949,-0.794478,-0.351895
0.089395,-0.334141,0.601401,-0.737607,0.610454,0.288584
0.639311,-0.656341,-0.117305,-0.138243,-0.344599,0.928515
0.662153,-0.482514,0.390865,-0.577608,-0.798509,0.169566
0.604176,0.753131,0.674022,0.847191,0.439610,-0.298347
-0.799902,-0.690101,0.071136,0.856263,-0.395434,-0.332333
-0.143734,0.745499,0.550622,-0.004306,0.995178,0.097988
-0.361664,0.241886,0.148709,0.884394,-0.289173,0.366368
-0.615471,-0.446869,0.158883,0.841299,0.305969,0.445645
-0.399698,0.188687,0.581359,0.176237,0.572829,0.800504
0.060538,0.532166,0.620434,0.106217,0.361087,0.926463
0.405346,0.202694,0.576083,0.590019,-0.639637,0.492689
0.296777,0.061773,0.637847,0.429317,-0.355665,-0.830174
0.227503,0.424198,-0.307962,0.740337,-0.640686,-0.203525
-0.423068,-0.406958,0.367132,-0.285071,0.958325,-0.018628
0.289860,-0.003636,0.652018,0.343126,0.141985,-0.928496
0.362192,0.217104,0.634948,0.675448,0.180768,-0.714907
-0.511590,-0.438698,0.449873,-0.181342,0.966370,-0.182332
0.719397,-0.655802,0.377684,0.332192,0.328079,0.884315
0.421432,-0.231470,-0.998253,-0.183447,-0.111269,0.976712
-0.175489,-0.292256,0.489903,0.852757,0.065258,0.518215
-0.034688,-0.150707,0.451638,0.860916,0.313867,0.400390
-0.956422,0.097419,-0.184759,-0.462251,0.193043,-0.865482
0.170530,0.415982,0.504488,0.028247,0.975946,0.216176
-0.890111,0.056835,-0.156957,-0.382515,0.878034,0.287644
-0.014061,0.306218,0.642276,-0.572857,0.695708,-0.433388
0.204294,-0.534635,0.459615,-0.079213,0.852675,0.516402
-0.286537,0.240224,-0.001792,0.556254,-0.831013,0.000021
0.206194,0.261145,-0.012686,0.937822,-0.340398,0.067959
-0.127113,-0.522334,0.494801,0.396347,0.905516,0.151492
0.458468,0.436498,0.595225,0.763332,0.360020,-0.536385
-0.036375,-0.606734,0.444778,-0.134331,-0.666130,0.733639
0.643903,0.524848,0.714772,0.985694,-0.156024,0.063754
-0.029620,0.373199,0.643843,0.117969,0.335593,0.934591
0.615046,-0.633580,0.362468,-0.202509,0.948054,0.245326
-0.101579,0.077082,0.608874,0.765575,0.348468,0.540800
0.346840,-0.276947,0.558239,-0.588539,0.580681,0.562522
0.753419,-0.728305,0.452214,-0.199553,-0.979306,0.033729
0.646485,0.254141,0.447803,0.774757,0.578931,-0.254145
-0.207727,0.077262,0.221079,0.511223,0.466051,0.722113
-0.298831,0.678788,0.378494,0.017038,-0.721500,0.692205
0.303893,0.159955,0.673302,0.875909,-0.226024,-0.426259
-0.417581,0.144691,-0.130847,-0.316899,0.945648,-0.072968
-0.708050,0.175264,0.318208,-0.388517,0.867867,-0.309616
0.797474,0.194029,0.194645,0.452497,0.882566,-0.127761
-0.099789,0.016476,0.623333,0.722500,0.458563,0.517411
0.727466,-0.668687,0.512861,0.305667,0.949937,-0.064706
0.044393,0.095623,0.553611,0.973871,0.227101,0.000339
0.008150,-0.360763,0.586815,0.124389,-0.230533,0.965081
-0.152118,-0.840404,0.287038,0.083307,-0.050858,0.995225
0.104058,-0.577464,-0.156308,-0.200881,0.389039,0.899053
-0.306642,-0.047228,0.579343,0.940926,0.334352,0.053539
-0.149852,0.342941,0.214254,0.688251,0.522655,0.503132
0.169583,-0.871380,-0.452503,-0.577046,0.213698,0.788258
-0.394211,-0.205208,0.562002,-0.019890,0.473978,0.880312
-0.204397,-0.334545,0.559913,0.131977,0.268950,0.954069
0.406872,-0.360718,0.495107,0.755882,-0.597068,-0.268612
-0.471818,-0.655668,-0.000945,0.889471,-0.133950,0.436919
0.875866,-0.496925,0.134790,0.936644,-0.148772,0.317121
0.203083,0.120718,0.613141,-0.540144,0.810137,0.227864
0.291760,0.156902,0.166842,0.946227,0.177700,-0.270328
0.056049,0.264557,-0.404839,0.913854,0.243406,0.325000
-0.394952,-0.565073,0.020195,-0.515399,-0.268719,0.813729
0.413202,0.619349,0.858700,0.157770,0.952211,0.261539
0.006095,-0.314388,0.186938,0.698714,0.153593,0.698719
-0.471180,0.436992,0.489236,-0.174933,0.945338,0.275199
0.380443,0.686240,0.565783,0.629428,0.103867,0.770086
0.230833,0.854949,0.467088,-0.230495,-0.255241,-0.939002
-0.451506,-0.008440,-0.215515,-0.430588,0.127741,-0.893463
0.209678,-0.519955,0.298580,-0.184382,0.578410,0.794635
0.076257,0.406689,-0.531462,0.639053,0.541833,0.545919
0.305213,0.436319,-0.049582,0.067578,-0.147896,0.986691
0.242540,-0.740382,0.193582,0.921669,-0.271322,0.277327
0.607608,-0.337464,0.448289,-0.602519,-0.684348,0.410655
0.663319,-0.625455,-0.074485,0.950294,-0.157753,-0.268430
0.378595,0.246869,0.455041,0.137015,0.987640,-0.076112
0.606339,0.128664,0.453187,-0.202272,0.606544,0.768889
0.414890,0.680494,0.835850,0.009229,0.993802,0.110781
0.143360,0.712772,-0.007032,-0.441268,-0.235392,-0.865952
0.096356,-0.537508,-0.040740,0.596633,0.647777,0.473724
0.117775,-0.900067,-0.431543,-0.640687,0.111256,0.759699
0.143624,0.008171,0.020951,-0.618616,-0.785034,-0.032168
0.272666,0.096296,-0.991123,-0.301169,0.147408,0.942108
-0.380816,0.084355,0.562362,-0.489323,-0.670002,-0.558266
0.775791,-0.589899,0.049132,-0.293196,0.007883,0.956020
0.778006,-0.597710,0.294349,-0.564942,-0.662215,-0.492253
0.879929,-0.356364,0.187676,0.842024,-0.522990,-0.132201
-0.293505,-0.860875,0.185587,0.252394,0.846765,-0.468280
-0.222390,0.408305,0.537081,-0.027717,0.183388,0.982650
-0.120518,0.231964,-0.263629,0.990137,0.032845,0.136196
0.212157,0.319776,0.594000,0.559170,0.797521,-0.226470
0.305528,-0.098451,0.604408,0.062704,0.994049,-0.089081
0.153014,0.753895,0.456824,0.227118,-0.024707,0.973554
0.351219,0.177598,-0.979094,-0.212727,-0.014075,0.977010
-0.143521,0.447363,-0.509476,0.005902,0.959431,0.281881
-0.043182,-0.314927,0.619156,0.722405,0.040490,0.690284
0.089233,0.302043,-0.406657,-0.725012,-0.547699,0.417593
0.495606,0.301459,0.636334,0.965954,0.132806,0.222025
0.753631,-0.714523,0.227993,-0.326703,-0.929052,0.173576
-0.743926,-0.695623,0.109328,-0.408372,0.484819,0.773423
-0.467703,0.411762,0.531192,0.437830,-0.635311,-0.636149
0.668696,0.632727,0.691831,-0.317753,0.632917,0.706009
0.064228,-0.033984,0.473697,0.906429,-0.338744,0.252269
-0.349371,0.173827,0.236961,0.989956,0.134597,-0.043258
0.595475,-0.000314,0.344209,-0.609384,0.273305,0.744282
-0.014796,0.356813,0.492262,0.915565,-0.387690,0.106948
-0.937379,-0.341863,0.122095,-0.535453,0.839182,0.095202
0.037747,-0.870483,0.010759,0.703892,0.201757,0.681051
-0.803327,-0.014725,0.360992,0.862419,0.321888,0.390668
0.482682,0.551919,-0.178295,-0.569841,0.522534,0.634224
-0.857879,0.083232,0.020879,-0.317668,-0.117500,-0.940894
-0.077732,0.341549,0.614510,-0.493103,-0.509933,-0.704854
0.188465,0.880000,-0.033754,0.341370,0.406539,0.847462
-0.122102,-0.304961,0.131189,-0.671678,-0.133298,-0.728753
-0.729418,-0.649473,0.084209,0.783798,-0.416986,-0.460200
-0.257893,-0.637531,0.399995,0.189867,0.918254,0.347505
0.235579,0.456296,-0.984802,-0.096229,0.041134,0.994509
0.617680,-0.678923,0.585177,0.800008,0.568867,0.190728
-0.471077,0.127767,0.442509,0.944964,0.325774,0.030236
0.263644,0.207497,-0.313418,0.905223,-0.424339,0.022546
-0.420962,0.237262,0.492352,-0.057435,0.998346,-0.002625
-0.029994,-0.682110,-0.110769,-0.871670,0.224467,-0.435667
-0.312335,0.159506,-0.345632,0.832371,-0.358320,-0.422805
-0.556804,0.418451,0.425780,-0.392803,-0.914496,-0.096970
-0.769776,0.174141,-0.169561,0.096626,-0.765406,0.636252
0.146155,0.478339,0.582134,0.259871,-0.788379,0.557607
0.107491,0.224916,-0.154003,-0.300302,0.040257,0.952994
-0.600485,-0.414231,0.155084,0.760057,0.436390,0.481537
0.576323,0.682873,0.904582,0.587422,0.783496,0.202655
0.800951,-0.694994,0.302992,0.039876,-0.492231,-0.869551
0.427183,0.770819,0.564361,0.543243,0.034973,-0.838847
0.070874,-0.407363,0.296293,0.815542,0.266583,0.513639
0.346363,0.743524,0.579739,-0.438096,0.621211,0.649745
-0.082852,0.101010,0.187820,-0.547553,-0.836759,0.004420
0.932156,-0.659035,0.376442,-0.028037,-0.730414,0.682429
0.370261,0.429226,0.529986,0.790535,0.591794,0.157590
-0.152859,-0.714703,0.236006,0.348700,0.192562,0.917240
0.114291,0.023973,0.573058,0.288595,0.954307,-0.077530
0.207037,0.882918,-0.984334,-0.041657,-0.078421,0.996050
-0.895758,-0.352817,0.110319,0.456856,-0.882806,-0.109254
0.434151,-0.566644,0.161008,-0.485801,-0.061504,0.871903
-0.139773,0.355241,0.567962,-0.456545,0.826473,0.329407
0.067602,-0.304153,0.616455,0.548718,-0.083984,-0.831778
0.065335,0.541414,0.630626,-0.122856,0.362136,0.923993
-0.451506,-0.422941,-0.251564,0.836664,-0.091610,0.540001
-0.702145,-0.722245,0.212634,0.856466,-0.486938,0.171339
-0.381499,0.370819,0.175576,0.964907,-0.257420,0.051866
0.120885,0.044983,0.120979,0.932912,-0.338394,0.123142
-0.028145,-0.109136,0.655043,-0.734715,-0.557465,-0.386558
-0.521617,-0.021190,-0.070686,0.493151,0.752427,0.436642
-0.434467,-0.823434,0.140516,0.001388,0.964491,0.264112
-0.348160,-0.236947,0.569349,-0.494456,0.853138,-0.166337
0.765397,0.281796,0.411483,0.291801,0.747128,0.597203
-0.193849,0.052750,-0.251961,0.962339,-0.252884,-0.099763
-0.170478,-0.694097,0.070920,0.533919,0.312292,0.785751
0.871010,-0.518833,0.993121,0.998315,-0.051832,-0.026089
0.286853,0.262177,0.036221,-0.391490,0.858261,0.331848
-0.494711,0.523098,0.433253,0.822506,0.253546,-0.509115
-0.540975,0.108777,-0.094059,-0.575800,-0.418011,-0.702652
-0.261003,-0.462447,0.345452,-0.614390,-0.611413,-0.498698
-0.570096,0.066038,0.552764,-0.767586,0.640651,-0.019452
-0.930836,-0.324848,0.070812,-0.033622,0.926510,0.374764
0.439689,0.433805,-0.980067,0.047592,0.185889,0.981418
0.155493,-0.588507,0.122113,0.961593,0.269805,-0.050433
-0.640998,0.396902,0.456446,-0.691241,0.710800,0.130190
0.595263,-0.744467,-0.114316,0.073917,-0.584031,-0.808359
-0.413202,0.241122,0.331893,0.940550,-0.336930,-0.042937
-0.425077,0.437262,0.369077,0.722473,0.016467,0.691202
0.226821,0.401751,-0.981399,0.210727,-0.129439,-0.968937
0.105481,-0.001347,0.085469,0.968649,0.248409,0.003336
0.318138,-0.299888,0.498888,-0.037580,-0.767383,0.640087
0.387829,0.789046,-0.284283,-0.236571,0.566906,0.789083
0.783757,-0.533737,0.421441,0.633201,0.708913,-0.310643
-0.060274,-0.216117,0.491415,0.419988,0.824820,0.378527
-0.203186,-0.698900,0.073099,0.293454,0.419321,0.859101
0.679406,-0.480404,0.240436,-0.526614,-0.804351,0.275131
-0.099840,0.033356,0.578550,-0.667855,0.644609,0.372087
0.768140,-0.660382,0.146801,-0.543315,0.817494,0.191080
-0.619373,-0.608081,0.235772,0.707018,-0.674081,0.213871
-0.002772,0.790303,0.486319,0.271729,0.475943,0.836446
0.003719,0.316678,-0.425420,0.747578,0.587955,-0.308928
-0.090399,0.747340,0.527159,-0.290001,0.927472,0.235999
0.531798,0.768889,0.603310,0.304071,0.916953,-0.258337
-0.199915,-0.616566,0.440096,-0.377416,-0.925376,-0.035167
0.447862,-0.280763,0.033214,-0.210837,0.022418,0.977264
0.196431,-0.302312,0.326887,0.290691,0.697561,0.654911
-0.489701,-0.485028,0.059413,0.820051,-0.021291,0.571894
-0.870327,0.092211,0.024138,-0.282245,-0.237964,-0.929360
0.050247,0.364714,-0.485275,0.664135,-0.736686,0.127352
0.659256,-0.551201,-0.072757,0.535021,0.085464,-0.840505
0.266548,0.277710,0.660211,0.900486,-0.362393,-0.240407
-0.690328,-0.657868,0.210203,-0.652720,0.746116,-0.131407
-0.141725,0.095084,0.203504,-0.576627,-0.767505,-0.280066
0.347207,-0.851403,-0.016773,0.788554,-0.125486,0.602026
-0.316032,-0.629495,0.247351,0.379442,0.891750,0.246590
-0.137558,0.698406,0.549253,-0.723267,0.690067,0.026329
0.918652,-0.681571,0.227165,-0.384165,0.856636,-0.344373
-0.527419,0.105589,-0.243209,0.075674,0.619208,0.781572
0.798897,-0.526061,0.413176,-0.645692,-0.761473,-0.056925
-0.550525,-0.213154,0.120835,0.134916,0.462999,0.876031
-0.257049,-0.906263,0.298652,-0.355443,-0.478485,-0.802940
-0.581758,0.543300,-0.480881,0.430917,0.087468,-0.898142
0.383927,-0.032278,0.582530,0.737875,0.648053,0.188595
0.070506,-0.583659,0.531516,-0.210734,-0.864946,-0.455478
-0.272086,0.965881,0.592848,-0.146248,0.848795,0.508094
-0.396323,-0.779169,0.342553,-0.598693,-0.762120,-0.246456
0.102422,0.285253,0.228191,-0.070728,-0.929563,0.361814
0.308858,0.820516,-0.982443,-0.113914,-0.032792,0.992949
0.086864,-0.855982,-0.486932,-0.366733,0.280073,0.887167
0.066024,-0.268418,0.485095,-0.168666,0.162426,0.972198
-0.511223,-0.027385,-0.075782,0.524327,0.737220,0.426131
-0.327211,0.261684,0.209933,0.866546,0.411945,0.281780
-0.284219,-0.634792,0.045098,0.273358,0.763697,0.584844
-0.186044,0.336341,-0.272866,0.065831,0.846853,0.527737
0.638783,0.704871,0.527267,0.948733,0.090212,-0.302932
-0.035532,0.271066,0.630698,-0.752276,0.655045,-0.070689
-0.487537,-0.320808,-0.640872,0.992069,0.101473,0.074176
-0.953678,-0.191380,0.062727,-0.772591,0.537237,0.338348
-0.378279,0.497643,-0.557698,0.548449,0.762511,0.343193
0.521089,0.225544,0.351952,0.617854,0.709287,-0.339365
-0.302843,0.186667,0.419820,-0.026016,-0.824191,0.565715
-0.176545,0.881212,0.395727,-0.465330,-0.599130,0.651545
-0.673764,-0.037082,-0.178565,-0.493437,0.542874,-0.679564
-0.476461,0.384018,0.540268,-0.681025,-0.023518,0.731882
-0.509375,-0.070572,0.306287,0.872941,0.302321,-0.382853
0.269079,-0.075645,0.127461,-0.671693,-0.531003,-0.516589
0.084906,0.716184,0.007086,-0.480483,-0.210813,-0.851290
-0.335287,0.170640,0.587464,-0.219778,0.086258,0.971729
0.193321,0.359057,-0.721597,0.701074,0.644433,-0.305289
-0.426868,-0.117935,0.414058,-0.742074,-0.176027,-0.646793
-0.064865,0.178496,-0.312626,0.911271,-0.230151,0.341490
0.795361,0.049966,0.502597,0.893143,0.447680,-0.043333
-0.135504,-0.317576,0.380385,-0.566171,0.810516,-0.150045
-0.195909,-0.687767,0.331479,0.500991,-0.852980,0.146398
0.610190,0.619080,0.685835,0.961027,0.188122,-0.202574
-0.190210,-0.302536,0.261810,0.339364,-0.854068,-0.394209
-0.221965,0.289338,-0.321287,0.839424,-0.540442,-0.057354
-0.202710,-0.665679,0.009210,0.128677,-0.149498,0.980353
-0.722404,0.023838,0.329426,0.847232,0.024329,0.530666
-0.636465,0.061594,0.234512,-0.048120,0.904254,0.424274
-0.490809,0.358474,0.419262,0.820780,0.469280,0.325725
0.925459,0.506846,0.481115,0.948037,-0.317901,-0.012795
-0.164412,0.269989,0.621010,0.875794,-0.460268,0.145394
-0.278101,-0.553939,0.388380,0.978630,0.120218,0.166824
0.434254,-0.470303,0.526529,-0.549892,0.570221,0.610301
-0.268499,-0.294007,-0.280952,0.389773,-0.128253,0.911937
-0.104799,0.233715,0.042577,0.317150,0.022726,0.948103
-0.318511,0.647228,0.391639,-0.008373,-0.713954,0.700142
-0.788612,-0.714972,0.145990,-0.509367,-0.840895,0.182869
-0.054420,-0.218092,0.586707,-0.831595,0.492680,0.256351
-0.027566,-0.843951,0.281168,-0.558835,0.582034,0.590712
-0.525519,0.198070,-0.155174,0.040141,0.562940,0.825522
-0.153072,0.371403,0.198642,0.727636,0.575192,0.373764
0.113872,0.394747,0.602859,0.034025,0.089737,0.995384
-0.224605,-0.330999,0.561444,-0.401744,-0.119985,-0.907858
-0.361503,-0.533827,-0.264295,0.385900,0.091046,0.918037
-0.194480,0.194523,-0.208474,0.809423,-0.486139,0.329398
-0.373217,-0.728305,0.159027,-0.460109,-0.636713,-0.618786
0.414522,0.611268,-0.255076,-0.412042,0.604804,0.681493
-0.807816,0.116768,-0.235862,-0.053645,-0.995526,0.077789
-0.185355,0.572391,0.428787,0.505264,0.848445,-0.157637
0.325208,-0.460606,-0.471680,0.933753,-0.150281,-0.324839
-0.447810,0.381145,0.391675,-0.113315,0.896039,0.429270
0.074725,0.043996,0.033268,0.549533,0.830381,0.092085
-0.784021,0.158025,0.340608,0.705872,-0.039807,0.707220
0.142884,-0.422222,0.021959,0.374411,-0.043966,0.926220
0.667750,0.719506,0.443967,0.525646,0.530747,0.664833
0.677983,-0.073042,0.394539,0.026782,0.780434,0.624665
-0.124743,0.996902,0.570249,0.026516,-0.997724,0.061997
0.821584,-0.656745,-0.085037,0.447084,0.717969,-0.533513
0.159080,0.542267,0.583304,0.103935,-0.674648,0.730786
-0.589145,0.424736,0.384563,0.477841,0.876929,-0.051612
0.023766,0.129787,0.617175,0.762011,0.555239,-0.333241
-0.122734,0.532705,0.352439,0.837427,0.522850,0.159198
0.199600,-0.044175,0.315381,0.511739,0.858476,-0.033800
0.695235,-0.727497,0.059522,0.315047,0.911285,-0.265152
0.558916,0.668418,0.957990,-0.752082,0.366743,0.547606
0.849224,-0.528126,0.431416,0.313238,0.762501,-0.566104
0.712906,-0.573692,0.199651,-0.117936,0.966911,-0.226217
-0.019175,0.363996,0.391585,-0.789154,-0.567284,-0.235423
-0.157077,0.100247,0.594018,0.989290,0.142048,0.033589
-0.965869,0.219080,0.379773,0.627056,-0.354305,0.693735
-0.500829,0.714478,0.486823,-0.174672,0.832814,-0.525271
-0.241014,-0.423479,0.060170,-0.652524,-0.199290,-0.731093
0.283324,-0.625993,-0.402786,0.897497,-0.135191,-0.419788
0.135768,0.000539,0.596899,0.774037,-0.530353,-0.345820
0.732528,0.284040,0.511313,0.862937,0.218607,-0.455577
-0.325260,-0.669136,0.267050,0.491169,0.547277,0.677674
0.438897,-0.496207,-0.112768,-0.787324,-0.347362,0.509372
