-0.537480,-0.289479,0.355934,0.018001,0.705746,0.708236
0.357108,-0.210615,0.622768,0.275424,-0.786076,-0.553377
-0.140328,-0.110919,0.507013,0.291108,-0.862419,0.414113
-0.614593,0.307189,0.291590,0.593180,0.331911,-0.733466
0.056679,0.246089,0.557797,0.916041,-0.294795,0.271966
0.257195,0.025868,0.903130,0.998069,0.054869,-0.029102
0.104030,-0.257986,0.545797,0.899229,0.399671,0.177904
0.414930,0.216969,0.211482,-0.558148,0.827808,-0.056605
0.149575,0.063442,0.533571,0.764442,0.478451,-0.432103
-0.028991,-0.554060,0.883071,0.119238,-0.860013,0.496145
-0.438684,-0.844751,0.825564,-0.601491,0.050629,-0.797274
0.135864,0.578015,0.862755,0.732653,0.095016,0.673938
0.110939,-0.304067,-0.107293,0.978357,0.205412,-0.024969
0.316769,-0.352192,0.385082,0.716013,0.287914,-0.635948
-0.096113,-0.638737,0.719155,0.041083,0.086157,0.995434
0.781258,0.534034,0.426680,-0.121079,0.287277,0.950164
-0.216697,-0.240008,0.965174,0.797397,-0.282927,0.533019
-0.202720,-0.422067,0.834507,0.814928,-0.512639,0.270359
-0.017297,-0.238825,0.035856,0.369820,0.093799,-0.924357
-0.651477,0.526875,0.293295,-0.431016,-0.105118,-0.896200
-0.090001,0.095848,0.955924,0.484172,-0.051198,0.873474
0.135228,-0.278873,-0.963437,0.728134,0.024923,-0.684982
0.181409,-0.294700,0.833028,0.319850,-0.465834,-0.825042
-0.517499,-0.335182,0.581507,0.293930,0.698133,0.652852
-0.421891,0.245445,0.693450,-0.546894,-0.276624,-0.790181
0.353335,0.004817,0.871988,-0.557173,0.408522,-0.722958
-0.041002,-0.145372,0.844883,0.404444,-0.693576,0.596135
-0.154837,-0.158882,0.859007,-0.446412,-0.712229,-0.541707
0.008584,-0.271553,0.575363,-0.014452,-0.999306,-0.034330
0.008795,-0.194305,0.275697,0.982111,0.067917,-0.175629
0.676986,-0.382393,0.597433,-0.150058,0.015927,0.988549
-0.588925,-0.271122,0.716533,0.837822,0.454581,-0.302343
0.568305,0.343524,0.374176,0.918270,-0.187041,-0.348993
0.563417,0.626087,0.523341,-0.524414,-0.394539,-0.754539
0.192360,-0.097731,0.117653,0.790694,0.308918,-0.528556
0.040418,0.361776,0.677750,0.713852,-0.605002,0.352688
0.704197,-0.112858,0.174501,0.053504,-0.161318,0.985451
0.204368,0.142303,0.852443,0.211281,0.057194,0.975751
0.302208,0.272092,0.784255,-0.323218,0.763133,-0.559605
0.101958,0.219068,0.747804,-0.893777,0.121973,0.431607
-0.510058,-0.474338,0.458530,0.278327,0.103761,0.954865
0.571546,0.223320,0.750603,0.383031,0.028705,-0.923289
-0.124599,-0.202220,0.956085,-0.311905,-0.931216,-0.188553
-0.160257,0.181225,0.755622,-0.603926,-0.737427,0.302449
-0.054340,0.405001,0.416723,-0.116054,0.598530,-0.792649
0.397923,0.091163,0.696377,0.423969,-0.694343,0.581497
-0.586321,-0.046807,0.582762,-0.453726,0.734506,-0.504612
-0.197193,-0.314617,0.302979,0.483875,0.213913,0.848591
0.950576,-0.356285,0.455587,-0.510795,0.740079,-0.437460
-0.004757,-0.018869,0.939999,0.383039,-0.520544,-0.763096
0.220898,0.309449,0.630473,0.959228,0.092258,-0.267152
0.150055,0.485210,0.413602,-0.053984,0.806386,0.588920
-0.015172,-0.514764,0.335810,0.062686,0.941673,0.330640
-0.342066,0.131375,0.833205,0.133865,-0.205811,-0.969393
0.339358,-0.459802,0.226394,0.565848,0.697584,0.439538
0.246724,-0.487631,0.456391,-0.470450,-0.017631,-0.882250
-0.695160,-0.563588,0.735949,0.099026,0.752403,0.651217
-0.101001,-0.354778,0.752614,-0.648444,0.428629,-0.629124
-0.137564,-0.304176,0.883248,0.197211,0.637463,0.744815
0.421518,0.253952,0.638420,0.773023,0.122983,0.622343
0.518774,-0.060104,0.591787,0.326770,-0.678256,0.658172
0.010709,-0.281134,0.353280,0.945299,-0.324148,-0.036578
0.716526,-0.128954,0.540955,-0.513885,0.582546,0.629732
-0.095847,0.485588,0.859955,0.605413,0.283993,-0.743521
-0.576596,-0.087341,0.882749,0.765447,0.492738,-0.413885
-0.244068,0.313274,0.893961,0.444283,0.827214,-0.343992
-0.741558,0.083143,0.845044,0.516248,0.712326,0.475479
-0.128796,-0.200603,0.444568,-0.738514,0.510908,-0.439967
-0.302208,-0.320433,0.912669,0.149472,-0.808405,-0.569333
0.138362,-0.157052,0.243895,0.383655,-0.706213,-0.595040
0.109347,0.168197,0.852427,0.576768,-0.628403,0.521966
-0.290410,-0.710494,0.823247,-0.261473,-0.742476,0.616734
-0.512556,-0.194952,0.881736,0.886948,-0.355158,-0.295273
-0.460312,-0.212231,0.467924,-0.138243,0.939776,-0.312587
0.330587,0.127607,0.842390,-0.367949,0.664617,-0.650306
0.064652,-0.254813,-0.284770,0.907697,-0.416901,-0.047740
-0.126299,-0.578985,0.376588,0.803556,0.451790,0.387534
0.131083,-0.241677,0.117717,-0.281235,0.954307,-0.101015
0.182846,-0.277152,-0.056285,0.145326,0.620698,0.770464
-0.111098,-0.264124,0.620001,0.185373,0.936889,0.296440
-0.133950,-0.471213,0.731380,-0.292029,0.946346,0.138379
0.031381,-0.496624,0.676962,0.883597,0.394208,0.252697
0.153562,0.024304,0.745745,0.938699,-0.340863,-0.051538
0.435868,0.823595,0.555014,-0.531525,-0.625929,0.570696
0.035102,-0.109950,0.799907,-0.522997,0.852247,-0.012205
0.271756,-0.091810,0.870411,0.548400,-0.007090,0.836186
0.362846,-0.327270,0.169868,0.638793,0.348506,0.685921
-0.534185,-0.277690,0.553373,-0.750625,0.632757,0.190215
0.848646,0.196026,0.273494,0.220214,0.101772,0.970128
-0.061035,-0.361398,0.186082,0.049669,-0.270767,0.961363
-0.151437,-0.531130,0.805488,0.750832,-0.333799,0.569938
-0.433847,-0.223320,0.826223,0.859802,0.389034,0.330748
-0.415459,-0.453073,0.888765,-0.059016,-0.735369,0.675092
0.137246,-0.364089,-0.024258,-0.435022,-0.896628,-0.082542
-0.640954,-0.182138,0.861049,-0.502223,-0.338168,-0.795874
0.039088,0.185154,0.915484,-0.680807,0.602342,-0.416757
0.384105,-0.144889,0.593765,0.311193,0.888275,0.337826
-0.270001,-0.396551,0.922723,-0.253356,0.842728,0.474995
-0.049929,0.221007,0.566081,0.259028,-0.098009,0.960884
-0.137353,-0.467070,0.739198,0.235557,-0.714728,0.658541
0.120346,-0.166528,0.553164,-0.283783,0.933996,0.217068
-0.078892,-0.239038,0.604044,-0.385408,0.922719,0.007142
-0.131242,-0.641322,0.764228,-0.723631,-0.195712,-0.661857
-0.608855,-0.489731,0.614902,0.208780,-0.401256,-0.891855
-0.336114,-0.657902,0.867050,-0.417465,0.748018,-0.515938
0.002366,-0.520524,0.468150,0.437559,0.244895,0.865199
-0.201818,-0.086964,0.850513,0.378559,0.062704,0.923451
-0.237477,-0.749899,0.353312,-0.542984,0.164766,0.823420
-0.048547,0.412483,0.423190,-0.089209,-0.390678,0.916194
0.633354,-0.375073,0.280024,0.178858,-0.348230,-0.920188
0.058009,-0.235000,0.391275,0.953708,-0.212525,-0.212778
-0.338560,0.339650,0.935849,0.308734,-0.666132,0.678934
-0.285999,0.200603,0.435769,-0.228917,0.090826,0.969199
-0.436611,-0.325332,0.887897,0.340209,0.571714,0.746593
-0.380595,-0.103329,0.823312,0.854374,0.512802,0.084143
-0.014323,0.000887,0.537094,-0.809554,-0.581905,-0.077513
0.472061,0.271284,0.329891,-0.713139,-0.230516,0.662038
-0.217868,-0.562244,0.857591,0.914962,-0.401129,0.044054
0.570644,0.223642,0.714249,-0.079098,0.914205,0.397458
-0.509951,0.389391,0.719235,0.010070,-0.721260,0.692592
0.011241,-0.187793,0.274796,0.982111,0.067917,-0.175629
0.019957,-0.549539,0.348905,0.904236,0.412963,0.108717
-0.436984,0.226067,0.616591,0.672698,0.530432,0.515867
-0.900036,-0.110380,0.375913,-0.095296,-0.002519,0.995446
-0.199956,-0.270206,0.443281,-0.535580,0.341054,-0.772552
-0.472379,-0.161468,0.772593,0.574677,0.790981,0.209989
-0.399305,-0.238338,0.780684,-0.885517,0.421614,-0.195194
-0.052001,0.198126,0.109610,0.256525,-0.909620,0.326781
0.002207,-0.227841,0.236978,-0.693973,-0.015534,-0.719833
0.790823,-0.222942,0.269376,-0.210690,0.341333,0.916025
-0.332446,-0.446292,0.324325,0.486409,0.124644,-0.864795
0.779876,-0.153448,0.545652,-0.149410,0.230418,0.961553
0.336380,0.543618,0.752694,0.307205,-0.873904,0.376720
-0.690220,0.620328,0.312132,0.421557,-0.417174,-0.805143
0.495708,0.224881,0.762282,0.981668,0.186746,-0.038116
0.550556,-0.619680,0.454847,0.119771,0.452995,0.883431
-0.239231,0.407101,0.461683,0.107706,0.647679,0.754262
-0.362580,0.212501,0.373838,0.936855,0.219110,-0.272570
0.020755,-0.304659,0.614757,0.205083,0.633040,0.746459
-0.500333,-0.222512,0.917173,-0.725228,0.105080,0.680443
-0.416789,0.423897,0.413876,-0.237708,0.386128,0.891291
-0.535884,0.214708,0.695911,-0.091342,-0.193886,0.976762
-0.143782,-0.314726,0.919988,0.980714,0.139412,0.136981
-0.382298,-0.367536,0.560853,0.563064,0.563000,0.604971
-0.548003,0.333404,0.848068,0.683338,0.462207,0.565167
0.334998,0.820044,0.710871,0.998712,-0.021266,0.046071
0.371403,-0.427396,-0.019544,-0.365274,0.200993,0.908943
0.479447,0.280434,0.337516,-0.802065,0.005453,0.597212
-0.631334,0.266601,0.357317,0.494826,-0.743669,-0.449559
0.118647,0.072001,0.830969,-0.701548,-0.474147,0.531991
-0.055349,0.064464,0.675707,-0.292360,0.923909,-0.246816
0.924483,0.691169,0.423672,0.434625,-0.068466,-0.898005
0.038449,-0.213092,0.130489,0.298736,0.943485,0.143499
0.693460,-0.033727,0.335843,0.543279,0.320376,-0.776020
0.064597,0.058812,0.451758,0.977660,0.207447,-0.033874
-0.285999,0.082390,0.431056,-0.012493,-0.119948,0.992702
-0.566177,-0.511426,0.240260,-0.575170,0.225956,0.786208
0.084740,0.631308,0.871811,-0.167121,0.870970,0.462041
0.315919,-0.501414,0.612956,0.744546,0.446874,-0.495938
-0.700687,-0.087394,0.612988,0.355911,-0.733235,-0.579391
-0.552255,-0.144672,0.879210,0.750590,0.345963,0.562961
0.065978,-0.246089,0.028343,0.915066,-0.383443,-0.125003
0.133422,-0.265741,-0.886433,-0.638001,0.747899,-0.183308
-0.305980,-0.677767,0.576698,0.211729,0.972203,-0.099960
0.204527,0.085028,0.951822,0.301472,0.470742,-0.829166
0.021232,-0.299438,0.445839,0.908961,-0.110826,0.401880
-0.257565,-0.025759,0.968488,0.218644,-0.081950,0.972357
0.175405,-0.050845,0.125824,0.958688,0.209549,-0.192369
0.141126,-0.099452,0.945951,0.991500,-0.068725,0.110472
0.083569,-0.312304,0.040408,0.945016,-0.327025,-0.000435
0.082985,-0.237639,0.057218,0.822616,-0.565725,-0.057082
-0.265804,-0.049120,0.967426,0.473464,-0.020692,0.880570
0.029682,-0.473208,0.275778,-0.405604,-0.851456,-0.332428
-0.345414,-0.293192,0.308513,-0.044451,-0.440834,0.896487
-0.586162,-0.407479,0.228984,-0.497921,0.161183,0.852112
0.058434,-0.329744,-0.266191,0.951099,-0.299335,-0.076222
0.036857,-0.540280,0.390101,0.489434,0.861826,0.133081
-0.695640,0.020591,0.511791,0.458615,0.042160,-0.887634
0.104563,0.648751,0.685471,0.803039,0.185684,-0.566259
0.027875,-0.019405,0.517711,0.987375,0.157969,-0.011636
0.434593,0.912954,0.566306,0.878736,0.200835,0.433000
0.193369,-0.423519,0.565357,0.630231,0.381311,0.676322
0.050302,-0.285333,-0.066982,0.856205,0.487557,0.170881
0.715517,-0.469813,0.429608,0.569355,0.214848,-0.793521
0.122685,-0.268540,-0.256877,0.931651,-0.344665,-0.115029
0.392078,0.184993,0.662677,0.165638,0.671355,0.722390
0.526160,0.083681,0.331210,-0.422625,0.177988,0.888655
-0.164561,0.555890,0.411495,0.205314,0.828543,0.520925
-0.220100,-0.496729,0.835440,0.917469,-0.360959,-0.167207
-0.369330,-0.323393,0.703423,0.002449,-0.994209,0.107437
-0.820318,-0.229458,0.506627,-0.401043,0.097491,0.910857
-0.164350,0.521276,0.855596,-0.604973,-0.497411,0.621764
-0.028086,-0.654725,0.614854,-0.667932,-0.606272,0.431626
-0.296149,-0.363819,0.919811,-0.374223,0.830303,0.412982
-0.164668,-0.166637,0.752791,0.116759,0.442325,0.889222
0.051152,-0.382015,0.831274,0.004909,-0.760041,0.649857
0.267345,0.378355,0.514831,0.378971,-0.881458,-0.281803
-0.034197,0.369205,0.895795,0.061267,0.034178,0.997536
0.528606,0.611338,0.566226,0.086299,0.548112,0.831941
0.203732,0.211745,0.820368,-0.369957,-0.877111,0.306280
0.599341,0.241030,0.704855,0.397289,0.162534,0.903186
-0.361837,0.258525,0.802336,-0.501803,-0.841571,0.199880
-0.624159,0.096009,0.534971,0.372407,0.703849,0.604904
-0.020434,-0.409792,0.645449,0.014698,0.764720,0.644195
-0.110833,0.088850,0.804025,0.076163,0.934290,0.348284
-0.472856,-0.126154,0.654538,0.976821,-0.165926,-0.135235
-0.663219,-0.264663,0.595985,0.571762,0.114597,0.812376
0.146549,-0.165076,-0.074896,0.982064,-0.146437,0.118774
0.357373,-0.512017,0.367178,-0.450055,-0.228406,0.863297
0.011877,-0.166637,0.296834,0.995272,0.025664,0.093676
-0.217813,0.299707,0.933147,-0.041576,0.283360,0.958112
-0.422102,-0.647621,0.448686,0.415183,0.412537,0.810825
-0.470040,-0.257017,0.323151,0.396218,-0.438625,0.806610
-0.074429,-0.049767,0.082119,0.879275,-0.276055,0.388161
-0.686499,-0.193822,0.677701,0.288787,-0.244202,0.925725
-0.146867,0.274461,0.848792,-0.457419,0.853899,-0.248242
-0.052268,0.011923,0.583438,0.963212,0.156830,0.218235
-0.184705,-0.378569,0.703359,0.183167,0.610500,0.770545
0.033934,-0.623396,0.360840,0.762828,-0.163533,-0.625580
0.352378,0.111675,0.805649,-0.726069,0.676760,0.121736
0.731460,-0.306919,0.277419,0.208055,-0.362606,-0.908422
-0.482104,-0.630394,0.815783,0.897294,0.054662,-0.438035
-0.232163,0.134605,0.575684,0.583035,0.181912,-0.791820
0.415939,0.265741,0.844449,0.687379,-0.290950,0.665477
0.060082,-0.305414,0.077213,0.888432,-0.452897,0.074652
0.311773,0.076900,0.282196,-0.597637,-0.232614,0.767282
0.330269,0.434233,0.670978,0.934880,-0.187216,0.301577
-0.499587,-0.534034,0.732426,-0.182406,-0.966579,-0.180145
-0.715514,0.085781,0.367934,-0.725623,-0.321033,0.608613
-0.749103,-0.274461,0.679551,-0.383032,0.619615,-0.685102
-0.640740,-0.523054,0.746743,0.726430,-0.636186,0.259937
0.169560,0.365489,0.883811,-0.082200,-0.643420,0.761088
-0.191932,-0.297391,0.949699,0.271568,0.253850,0.928338
-0.447717,-0.088902,0.648087,0.981667,-0.086982,-0.169598
-0.258843,-0.511643,0.814561,0.430656,-0.704751,0.563792
-0.053331,0.006164,0.755960,0.774129,0.630727,0.053934
0.164509,-0.235647,-0.815574,0.454737,-0.886310,0.087574
-0.009911,0.518424,0.645240,0.888488,-0.445365,-0.110629
-0.543698,0.317578,0.651176,0.949852,0.002927,-0.312687
0.052109,0.356499,0.766383,0.797920,0.320046,-0.510777
0.020700,-0.043255,0.459544,0.906340,-0.119069,0.405426
0.365771,0.252927,0.825934,0.873413,-0.374074,0.311799
-0.663433,-0.403602,0.716115,-0.624611,-0.516805,-0.585468
-0.235829,0.335343,0.893205,-0.214628,0.941475,-0.259922
0.133688,0.414477,0.626580,-0.296449,-0.939145,-0.173566
-0.041959,0.129437,0.791606,-0.169562,-0.019742,0.985322
0.168019,-0.270423,-0.701107,0.829634,0.556741,0.041803
-0.216165,-0.183863,0.970305,-0.714686,0.111331,-0.690528
0.034732,0.156678,0.564344,0.843362,-0.450685,0.292615
0.458454,-0.105215,0.722244,-0.622848,0.050922,-0.780684
-0.588075,-0.688478,0.768362,0.108031,0.499698,0.859436
-0.272395,0.089389,0.715391,0.084698,-0.929244,0.359628
-0.606036,-0.543349,0.831435,-0.613952,-0.688648,-0.385780
-0.233970,-0.596050,0.777403,0.569676,-0.818696,-0.072156
-0.358009,-0.146289,0.252614,-0.239112,0.380045,-0.893527
-0.096855,-0.713185,0.723579,-0.136163,0.541979,-0.829288
-0.606568,-0.045299,0.233423,-0.101492,0.801218,0.589703
0.081763,-0.125133,0.437779,0.954558,0.297886,0.009069
0.339199,0.421689,0.672763,0.934880,-0.187216,0.301577
-0.076235,0.091702,0.758936,0.693465,0.707203,0.137735
0.274361,0.397412,0.707831,0.624923,-0.043728,0.779461
-0.065288,-0.625009,0.606023,-0.501112,-0.856233,0.125505
-0.632183,-0.627378,0.760062,-0.201237,0.664105,0.720048
-0.496824,-0.286410,0.367661,-0.298056,0.686144,0.663603
0.094679,-0.237261,0.165734,0.876355,0.471039,-0.100622
-0.425929,-0.847334,0.481549,0.819508,-0.311034,-0.481316
0.471847,0.347779,0.810652,-0.482764,0.367879,0.794735
-0.547312,0.224289,0.290738,0.369385,0.124998,-0.920831
0.104189,-0.327162,-0.973603,0.499214,0.068704,-0.863751
0.357747,-0.322207,0.711852,0.346060,-0.131684,-0.928925
-0.415780,-0.331252,0.304153,-0.298651,-0.506276,0.809007
0.087452,-0.325276,-0.308416,0.949239,-0.284511,0.134163
0.077672,-0.160929,0.568735,0.651975,-0.749508,-0.114749
0.076663,-0.230640,0.009040,0.996432,-0.018045,0.082443
0.198150,-0.235539,-0.833703,-0.397720,0.887359,0.233265
-0.083037,-0.322532,0.942364,0.788377,-0.137619,0.599602
-0.718544,-0.162976,0.708169,-0.198823,0.907856,-0.369143
0.581857,0.032863,0.340459,0.495732,0.348061,-0.795678
0.323149,-0.002126,0.188528,0.071698,0.202688,-0.976615
0.102863,-0.530104,0.771483,-0.073489,-0.912610,0.402173
-0.364335,-0.516594,0.715455,-0.041788,0.461812,0.885993
0.320438,0.583506,0.697471,0.999987,0.000982,-0.004981
-0.553157,-0.320646,0.586108,-0.325664,-0.584506,-0.743166
-0.126672,0.111189,0.966815,0.127180,0.200472,0.971409
-0.577498,0.140043,0.630216,0.791252,-0.304020,0.530558
0.557092,0.491400,0.383554,0.201935,0.240676,0.949367
0.120505,0.472343,0.885677,0.879730,0.018041,0.475131
-0.243588,-0.585769,0.804378,0.937529,-0.324719,0.124891
0.315442,0.072862,0.277354,-0.616312,-0.084093,0.783000
-0.256770,-0.316125,0.706640,-0.066699,-0.865881,0.495783
-0.238858,-0.369096,0.914825,0.201250,0.927964,0.313657
0.591371,0.370174,0.766560,0.986416,0.124798,0.106816
0.079797,0.466800,0.741965,0.166339,-0.655146,0.736963
-0.462865,-0.184776,0.893189,0.852545,0.472123,0.224203
-0.522280,-0.049606,0.559888,-0.198849,0.915020,-0.350994
-0.072781,0.398594,0.596081,0.357444,0.933930,0.002939
-0.493849,0.322532,0.674356,0.500417,0.802185,0.325702
0.809264,0.132775,0.387623,0.278781,-0.066569,-0.958045
-0.151541,-0.253896,0.663273,0.985213,-0.075452,0.153825
0.225468,0.302829,0.834829,0.909084,-0.299677,-0.289413
-0.104614,-0.061395,0.915983,0.459434,0.886854,0.049095
-0.325433,-0.654294,0.442476,-0.754320,0.056068,0.654108
-0.803205,-0.041100,0.682222,-0.680640,0.487332,0.547025
0.308585,0.430626,0.798732,0.163626,-0.228958,0.959586
-0.602688,-0.405162,0.850063,0.078283,0.469773,0.879310
-0.657695,-0.378677,0.285285,-0.115796,-0.864345,0.489387
-0.499694,0.027589,0.758630,0.842891,0.445016,-0.302482
-0.555814,0.351117,0.356240,0.049111,0.125333,0.990899
-0.648074,0.038626,0.315928,0.008291,0.354094,0.935173
-0.084844,0.143650,0.959286,0.737008,0.245262,0.629815
0.318949,0.573008,0.714957,0.984392,-0.110625,-0.136875
0.390962,-0.168141,0.568365,0.507897,0.824891,-0.248186
0.666038,-0.195543,0.265451,-0.254208,0.293438,0.921560
-0.013949,0.617045,0.835296,0.621887,-0.691618,-0.367317
0.017991,0.375717,0.588183,0.560982,0.674313,-0.480210
0.167007,0.632008,0.857205,-0.494866,0.493617,-0.715158
-0.181889,0.512773,0.578886,0.012827,0.273963,0.961655
0.008053,0.066616,0.932423,0.000576,0.714690,0.699441
-0.665613,-0.220737,0.462793,-0.678105,-0.464081,0.569915
-0.153244,-0.417598,0.689702,0.580991,0.507153,0.636589
0.711372,-0.438646,0.423608,0.556123,0.165273,-0.814501
-0.416098,-0.933788,0.477753,0.743024,0.074704,-0.665082
0.094254,-0.144455,0.591787,0.751820,-0.658312,-0.037313
0.242313,-0.381802,0.608291,-0.108418,-0.105451,0.988497
-0.904499,-0.126477,0.598076,-0.134709,-0.640856,0.755750
-0.037972,-0.564018,0.836663,-0.312936,0.497981,-0.808756
-0.372995,-0.182407,0.463565,-0.130894,-0.846056,0.516775
-0.303590,-0.336099,0.858604,0.401122,0.842120,0.360465
-0.430393,0.371574,0.370299,0.996671,0.032093,-0.074943
-0.494751,-0.164967,0.834652,0.898460,0.247340,0.362756
-0.687722,-0.069093,0.237686,0.165290,0.929768,0.328953
-0.102863,0.153392,0.969935,-0.615090,-0.469802,-0.633207
-0.500171,0.043199,0.635396,-0.142246,-0.636342,0.758179
0.682568,0.105051,0.744008,-0.360401,0.408145,-0.838766
0.077672,-0.422980,0.240871,0.210265,0.860436,0.464153
-0.263783,-0.002556,0.900701,0.809489,0.111703,-0.576412
0.568516,0.472938,0.547341,0.617485,-0.637269,0.461085
0.160685,-0.395473,-0.982498,0.207631,0.211374,-0.955097
-0.363112,-0.512017,0.477785,0.426333,0.694157,-0.579988
-0.149468,-0.580006,0.718383,0.381572,0.317225,0.868200
-0.158450,-0.221759,0.644564,0.236868,-0.890196,0.389158
-0.394095,0.332652,0.418283,-0.163358,0.226377,0.960244
-0.175139,0.198343,0.955442,-0.211535,0.747693,0.629451
0.182473,-0.517346,0.476338,-0.474989,0.529868,0.702585
0.547685,0.398273,0.359023,0.568139,0.446712,-0.691134
0.196768,0.056818,0.922385,-0.473717,-0.519574,-0.711080
0.691229,-0.174387,0.698324,-0.419011,0.502057,-0.756551
0.199003,0.003686,0.958852,0.442339,-0.486435,-0.753470
-0.594131,0.135144,0.738313,-0.497957,-0.137105,-0.856295
-0.497939,0.318925,0.800502,-0.365535,0.857814,-0.361302
-0.247097,-0.597233,0.176688,-0.112444,-0.087768,0.989774
-0.345041,-0.604556,0.557861,0.939140,0.336236,-0.070442
0.062047,-0.243076,-0.164045,0.912638,0.383996,-0.140140
-0.005873,-0.388097,0.489673,-0.572077,0.372753,-0.730605
0.434700,0.203511,0.810813,-0.154044,0.100843,0.982904
-0.417586,-0.812184,0.469034,-0.742505,-0.086214,0.664269
-0.326283,-0.621566,0.552553,0.984169,-0.016458,-0.176466
-0.132037,0.425619,0.846813,0.962026,-0.224933,-0.154634
-0.401112,-0.228971,0.658511,-0.492385,0.674067,-0.550628
-0.501501,-0.301107,0.577663,-0.820386,-0.384047,-0.423645
0.121092,-0.086320,0.718801,0.845592,-0.530876,-0.056078
0.373050,-0.274030,0.709134,-0.387355,0.033586,0.921319
-0.658065,-0.606492,0.753901,-0.098256,0.493975,0.863907
-0.177156,0.168250,0.827462,0.763338,0.493116,0.417314
0.028248,-0.191666,0.347344,0.972003,0.233433,0.026807
0.115192,-0.360376,0.470080,0.898067,0.437733,0.043196
0.275159,-0.235165,-0.981759,-0.191524,0.241637,0.951278
-0.352164,-0.628673,0.446948,-0.011204,0.727382,0.686141
-0.180027,-0.445106,0.491410,0.125280,0.982689,-0.136478
0.150055,0.069202,0.349902,-0.240673,0.806173,-0.540521
0.035209,-0.464484,0.630409,-0.306188,0.526955,0.792822
-0.780460,-0.226711,0.675337,0.147628,0.326933,-0.933446
-0.589029,-0.619467,0.762475,0.068809,-0.582574,-0.809860
0.846943,0.680349,0.414020,0.304408,0.034803,-0.951906
0.081127,0.558745,0.769070,-0.727171,-0.104547,0.678449
-0.707544,-0.016070,0.673680,0.568128,-0.195203,0.799454
-0.431298,0.324146,0.391822,0.765901,0.642923,0.006741
-0.566498,0.133422,0.815381,-0.132890,-0.853043,0.504636
0.366089,0.144350,0.308481,0.840223,-0.101833,-0.532593
-0.039565,-0.226928,0.755574,-0.477164,0.849812,0.223905
-0.269842,-0.266762,0.435335,-0.005624,-0.633132,0.774023
0.079745,-0.133531,0.528488,-0.559684,0.825390,-0.074067
0.107965,-0.225203,-0.650613,0.997576,-0.051808,0.046450
-0.598066,-0.071193,0.635122,0.877589,-0.004547,0.479393
0.057795,-0.315426,-0.285268,0.911299,-0.407524,-0.058808
-0.027875,-0.438863,0.651063,-0.066849,0.748107,0.660202
-0.282544,0.090141,0.892417,-0.300401,0.793771,0.528854
-0.202668,-0.435469,0.303687,0.283042,0.126427,0.950738
-0.337071,-0.553255,0.673101,0.579547,-0.054861,0.813090
0.029364,0.366510,0.886900,0.495592,0.400511,0.770701
-0.629420,-0.068607,0.331451,0.704084,0.119425,-0.700002
-0.026438,-0.322532,0.395731,-0.263029,0.959955,-0.096450
-0.047113,-0.262455,0.941737,-0.582246,0.391641,-0.712465
0.181143,0.114474,0.151224,-0.339238,-0.211221,0.916681
0.078629,0.594703,0.764839,0.155936,-0.986976,0.039530
0.624107,0.488065,0.373226,-0.573329,0.765899,-0.291019
0.239711,0.437029,0.599379,0.221386,-0.922973,0.314816
0.873888,0.205394,0.273156,0.295207,0.136426,0.945643
-0.394306,-0.528274,0.716967,-0.093417,0.556032,0.825894
-0.394997,-0.972384,0.492633,0.884857,0.213189,-0.414220
-0.204793,0.229188,0.923157,-0.709769,0.537680,0.455114
0.213989,0.183429,0.814770,0.272024,0.726862,-0.630614
0.183323,0.461580,0.868224,0.300983,0.947212,-0.110445
0.014696,0.339434,0.681611,-0.587408,0.501001,-0.635570
-0.088247,-0.288727,0.772577,0.644382,-0.639039,-0.420002
0.082719,-0.254596,-0.316234,0.925497,-0.363142,0.107628
0.510217,-0.259225,0.580961,0.761742,0.644537,0.065732
0.527172,0.062578,0.831451,0.812972,0.397354,0.425660
-0.281695,0.394235,0.443731,0.763818,0.157237,-0.625987
0.004971,0.352461,0.581250,-0.619876,-0.593609,0.513207
-0.357108,-0.368988,0.914551,0.324042,-0.119963,-0.938406
-0.225627,-0.367966,0.775488,0.011603,-0.117046,0.993059
0.241518,0.278982,0.786201,-0.062624,0.668957,-0.740658
0.477481,0.282911,0.357173,0.779233,0.132660,-0.612534
-0.482422,0.267032,0.766432,0.343538,0.770436,-0.537038
-0.339410,0.005625,0.555223,0.192058,-0.604753,0.772908
-0.384900,-0.406184,0.303462,0.632903,0.073817,-0.770704
-0.663115,-0.535059,0.753241,0.466359,-0.601132,-0.648960
-0.727633,0.001804,0.690522,0.031882,0.597739,0.801056
-0.386388,0.391596,0.344368,-0.695897,-0.650298,0.304696
0.403982,0.054774,0.677509,-0.010671,-0.030689,0.999472
-0.668111,-0.148710,0.685552,-0.508881,-0.306792,-0.804313
0.163128,-0.038139,0.693546,0.924084,-0.310705,0.222555
0.447347,-0.188867,0.616897,0.261988,0.941787,0.210711
-0.097971,-0.299277,0.409758,0.726379,-0.111914,0.678121
0.288286,-0.245876,0.610591,-0.274871,0.185675,0.943383
0.320013,0.080396,0.804169,0.551126,-0.528596,-0.645636
-0.070124,-0.233765,0.629524,0.590913,0.791236,-0.157376
0.439215,-0.479181,0.271242,0.567620,-0.215347,-0.794628
-0.359816,-0.305520,0.313934,0.055047,-0.251579,0.966270
0.175830,0.307783,0.916433,0.602310,0.666872,0.438753
0.149150,-0.140690,0.560902,-0.521585,0.836297,0.168984
-0.504638,-0.408609,0.240919,-0.668473,0.313027,0.674654
0.332608,-0.208949,0.861757,0.701730,-0.324410,-0.634297
0.321553,0.275699,0.714474,-0.056110,0.906999,0.417378
0.792309,0.424058,0.543673,-0.071978,0.185900,0.979929
-0.412270,0.132023,0.890664,0.570283,0.756644,-0.319793
-0.403661,0.254757,0.763295,0.372976,0.659715,-0.652430
-0.324528,-0.200551,0.747096,-0.221310,-0.974828,-0.027062
-0.304972,-0.817675,0.473828,-0.178920,0.872928,0.453854
-0.432465,0.245659,0.604334,0.843171,0.341502,0.415258
0.076342,-0.228436,-0.439935,0.953572,0.036576,0.298937
0.394469,0.446022,0.538783,0.860152,-0.260925,-0.438242
0.067150,-0.262241,-0.148071,0.996139,0.071015,-0.051610
-0.337389,-0.598363,0.459351,0.755038,0.503851,-0.419586
-0.459677,-0.774285,0.470450,0.379399,-0.134375,-0.915423
-0.172216,-0.098917,0.517936,-0.299732,0.825971,-0.477423
-0.209629,0.405540,0.862336,-0.191341,0.811264,0.552485
0.277338,0.117540,0.926745,0.943762,0.260592,-0.203482
-0.100790,0.212714,0.625615,-0.636036,0.296342,-0.712488
-0.449154,-0.807069,0.843982,-0.379961,0.594315,-0.708815
0.047327,0.167928,0.316539,0.412314,0.721701,0.556007
0.254113,-0.124863,0.126484,0.943136,0.170808,-0.285166
-0.261872,-0.552391,0.809912,0.757766,0.088566,0.646488
-0.530412,-0.034640,0.625326,0.054772,-0.221635,0.973590
-0.478808,0.161843,0.352170,0.758154,0.314103,0.571439
0.113917,0.148010,0.705546,-0.624632,-0.566272,0.537746
0.051632,-0.270153,0.073271,-0.275130,0.957971,-0.081214
-0.254642,-0.674698,0.804443,-0.763076,0.619472,0.184309
-0.106155,0.110489,0.770695,-0.691609,-0.712593,-0.117847
-0.428693,-0.839853,0.472107,0.757456,-0.262414,-0.597828
0.078415,-0.306706,0.024853,0.995644,-0.035108,0.086372
-0.294397,0.157052,0.854116,0.190626,0.689849,0.698406
0.120668,0.142573,0.533089,0.573294,0.818678,-0.033168
0.283767,-0.295991,0.322797,0.519211,-0.582172,-0.625696
0.482953,0.660484,0.392160,-0.231373,-0.279180,0.931947
-0.705842,-0.179395,0.706045,-0.345524,-0.932057,0.109006
-0.154464,0.367049,0.898996,-0.278871,0.889291,0.362481
-0.475354,-0.853527,0.828893,0.684889,0.471275,0.555722
0.032445,0.139934,0.500547,-0.791449,0.466582,-0.394854
-0.101747,-0.089441,0.495560,0.482048,-0.775232,0.408222
0.712433,0.402688,0.401425,-0.124325,0.477877,0.869584
0.084526,-0.200120,0.222790,0.560571,-0.804663,-0.195645
0.090109,0.434500,0.675659,-0.688268,-0.031492,-0.724772
-0.610927,-0.179825,0.341264,0.175192,0.721055,-0.670364
0.404777,0.522945,0.522263,0.938385,0.047603,-0.342298
0.150321,0.050576,0.716244,0.986001,-0.102984,0.131131
-0.145589,-0.323446,0.664061,0.354341,0.848942,0.392098
0.259852,0.094987,0.652189,0.553968,0.498638,-0.666693
0.235407,-0.110111,0.935736,0.970140,-0.010892,0.242301
-0.727101,-0.052458,0.665814,-0.445083,-0.268793,-0.854196
0.307735,-0.521224,0.564247,0.467323,0.777542,-0.420757
0.268142,0.411247,0.704099,-0.581429,0.594022,-0.555947
-0.551509,-0.379916,0.282968,0.107378,-0.935940,0.335389
-0.478967,-0.175787,0.632436,-0.365301,-0.039658,0.930044
0.737889,0.635507,0.413715,-0.103600,0.070722,0.992102
-0.434379,-0.233709,0.739214,0.247907,0.336667,-0.908404
0.035686,-0.300621,-0.398031,0.962682,-0.248433,-0.107353
-0.341269,0.281459,0.788454,0.644306,0.755877,0.116274
0.784021,0.388636,0.396905,-0.469244,0.126929,0.873899
0.401323,0.143703,0.572853,-0.745008,0.597734,0.296104
-0.060824,0.030011,0.578467,-0.638778,-0.704184,-0.309980
0.058379,-0.351548,0.215809,-0.276221,-0.812369,-0.513574
0.067150,-0.248514,0.049416,0.914032,-0.399839,-0.068363
0.053756,-0.308913,-0.437184,0.898705,0.261386,0.352146
-0.439906,0.255565,0.343918,0.772944,0.599266,0.208416
-0.354821,-0.455925,0.696892,-0.800229,0.523050,-0.293347
0.300456,0.145211,0.950648,0.923737,0.117053,-0.364704
-0.447347,-0.568379,0.832481,-0.615468,0.212266,0.759040
-0.129594,0.538342,0.851543,0.464000,0.641625,-0.610755
0.528339,0.230479,0.818598,-0.469887,0.226560,-0.853157
0.107115,0.068124,0.873806,0.586022,0.806833,0.074827
0.481997,0.109467,0.832207,0.465111,0.840194,0.278830
0.815375,0.384493,0.547920,0.338276,0.158829,-0.927547
-0.031965,0.635777,0.621964,-0.403491,-0.112336,0.908061
-0.083462,-0.074692,0.969967,0.214494,-0.235232,0.947976
-0.448304,-0.027481,0.628704,0.135376,0.857503,0.496348
-0.208621,-0.500554,0.318470,-0.413087,0.415072,0.810601
0.070072,-0.239255,-0.147428,0.996139,0.071015,-0.051610
0.312571,0.088958,0.284078,-0.157037,-0.671347,0.724315
0.221589,-0.087072,0.908809,0.976685,-0.191302,-0.097421
-0.324317,0.424436,0.836132,0.229481,0.969031,-0.091202
0.060347,-0.237208,-0.075073,0.974168,-0.225819,-0.001363
-0.300612,-0.464162,0.313950,-0.103478,-0.042546,0.993721
0.413493,0.281728,0.836744,0.221537,0.762801,0.607500
-0.568305,-0.636585,0.773429,-0.121869,0.711947,0.691578
0.733426,0.821387,0.504424,-0.497585,-0.006427,-0.867392
-0.583875,-0.050897,0.620918,-0.865826,0.412786,0.282758
-0.441765,-0.264071,0.312309,0.019839,-0.569149,0.821995
-0.091010,-0.352247,0.789097,-0.265042,0.880805,0.392346
-0.107167,0.136922,0.724849,-0.205538,-0.944890,0.254825
0.812293,-0.289049,0.595695,-0.141100,-0.599357,0.787948
-0.645311,-0.439776,0.867854,0.392878,0.555941,0.732513
0.421573,-0.021830,0.793183,-0.141818,-0.284098,0.948249
0.027025,-0.073884,0.481678,-0.298568,0.833646,0.464642
0.543166,0.503245,0.568751,0.468380,0.098276,-0.878044
-0.570271,-0.114744,0.355516,0.050564,0.653036,-0.755637
0.412591,0.318708,0.634977,0.850309,0.045787,0.524289
-0.360030,-0.165450,0.471206,0.761197,0.188964,0.620381
0.856988,-0.225581,0.607422,0.136202,-0.840119,0.525023
0.604602,0.406349,0.831676,0.538078,-0.578533,-0.613001
0.149682,-0.191666,0.314690,-0.308375,-0.880388,-0.360308
0.079797,-0.312143,-0.978767,-0.692903,0.095378,0.714695
0.205750,0.127015,0.141717,-0.055574,-0.353853,0.933649
0.541681,0.142895,0.646334,0.162917,0.699381,0.695934
-0.636809,0.381368,0.342148,0.435992,0.512708,-0.739622
-0.618631,-0.440046,0.869945,0.204871,0.538870,0.817097
0.448677,-0.191022,0.571808,-0.586435,0.786508,-0.193645
-0.307735,-0.754098,0.326416,-0.203161,0.320836,0.925089
-0.314644,-0.425241,0.558006,0.900527,0.411041,-0.141760
0.279995,-0.051650,0.802384,-0.072497,-0.152903,0.985578
-0.413068,-0.957635,0.502654,0.939276,0.149723,-0.308776
-0.344616,-0.508357,0.711096,-0.150525,0.568890,0.808521
-0.593175,0.490056,0.345172,0.029767,0.140388,0.989649
0.729440,0.082012,0.528585,0.090525,0.381456,-0.919944
0.586535,0.159369,0.759225,0.076309,0.289796,0.954042
-0.322721,-0.211209,0.449361,-0.611818,-0.759463,0.221121
-0.211488,-0.303745,0.936461,0.442434,0.133922,0.886745
-0.448781,0.147955,0.896567,-0.377020,-0.202999,0.903685
-0.410411,0.055849,0.889682,0.013018,0.155474,0.987754
0.013739,0.215352,0.288952,0.377009,0.578095,0.723650
-0.035793,0.031463,0.593266,0.884606,0.435058,0.167922
-0.274893,-0.267893,0.495657,-0.142709,0.976629,0.160715
0.431191,-0.175626,0.642296,-0.486090,0.772398,0.408801
-0.368055,-0.108981,0.668243,0.984295,0.061750,-0.165381
-0.435547,-0.084164,0.646929,0.889017,-0.330512,-0.316876
-0.325699,-0.202381,0.625857,0.950681,0.268613,0.155088
-0.114605,-0.077866,0.978911,0.023162,-0.188568,0.981787
-0.665665,-0.447691,0.543899,0.777408,-0.623759,-0.080998
-0.346744,0.406562,0.946418,-0.407186,0.640673,-0.650952
-0.502990,-0.522945,0.801596,-0.166924,0.423051,0.890598
-0.490871,0.100908,0.697085,0.996737,0.032990,0.073672
-0.007787,-0.043469,0.422675,0.203467,0.979046,0.008323
-0.651315,0.362798,0.289403,0.798006,0.390537,-0.458985
-0.491351,0.022369,0.512820,-0.684691,-0.465036,0.561195
0.017618,0.346701,0.402229,-0.344476,-0.157570,0.925477
-0.682724,0.572256,0.302641,-0.243728,0.203006,0.948359
-0.094517,-0.542488,0.383296,0.724691,0.580690,0.370975
-0.331651,-0.594864,0.829666,-0.132184,0.674947,0.725930
-0.011079,0.022204,0.541807,-0.795228,-0.596790,-0.107027
-0.504583,0.008047,0.749316,0.901528,0.395540,-0.175484
0.273670,0.432725,0.505324,-0.505676,0.554691,0.660765
0.654825,0.229349,0.709584,-0.106749,0.741771,0.662103
-0.078467,-0.629695,0.602130,0.525963,0.741599,-0.416405
-0.392662,-0.312518,0.877312,-0.449984,-0.537510,-0.713161
-0.078788,0.098647,0.723257,-0.583185,0.789778,-0.190121
-0.170676,-0.191936,0.938133,0.978202,-0.186615,-0.091077
0.469826,0.881679,0.569797,0.799383,-0.039908,-0.599495
0.217336,-0.109250,0.874578,-0.018242,-0.229287,0.973188
-0.189061,0.204585,0.800260,-0.594782,-0.797944,-0.097567
-0.180718,-0.380133,0.689380,0.233247,0.705530,0.669196
0.080277,0.261272,0.563202,-0.257346,0.766199,-0.588823
-0.456274,0.052514,0.559180,0.178181,-0.348219,0.920323
-0.093774,-0.334265,0.777997,0.379090,-0.824807,-0.419505
0.119604,-0.085672,0.832497,0.979942,0.179309,-0.086964
-0.251346,-0.325437,0.452209,0.005171,-0.679913,0.733274
-0.162171,-0.075336,0.905591,-0.399215,-0.906081,0.140160
0.174607,0.096653,0.078676,0.149679,-0.961793,0.229238
0.569369,-0.065433,0.703294,0.202763,0.077757,-0.976136
-0.209311,-0.070332,0.958080,0.567669,-0.072749,0.820036
-0.095740,-0.545826,0.760030,-0.744807,-0.257452,-0.615614
-0.151116,-0.284419,0.025239,-0.144179,0.626763,0.765755
-0.335848,-0.588835,0.456101,0.981818,0.186853,0.033468
0.689370,-0.044169,0.326658,0.517177,0.356363,-0.778160
0.287329,0.072484,0.660844,-0.657312,0.072295,0.750143
-0.638561,-0.013810,0.855017,0.169374,0.605307,0.777764
-0.779769,-0.072806,0.506853,0.092109,-0.223660,-0.970305
-0.057263,-0.128576,0.431651,-0.789243,0.332928,0.515998
-0.051152,0.545557,0.844610,-0.542262,0.762820,0.352217
0.039779,0.033027,0.800840,-0.235497,-0.581836,0.778466
-0.184915,0.202111,0.925892,-0.770210,0.607515,0.194169
0.569794,0.433908,0.774137,0.981711,0.164506,0.095821
-0.077565,-0.231018,0.600360,-0.249242,0.959582,0.130696
0.363378,0.082012,0.596998,-0.711965,0.702039,-0.015713
0.247311,0.074475,0.925458,-0.179719,0.873320,0.452785
-0.247895,-0.362420,0.790319,0.097707,0.177175,0.979317
-0.332287,-0.112966,0.604543,0.546481,0.303226,0.780649
-0.422634,-0.255943,0.315735,0.019839,-0.569149,0.821995
0.302049,0.104998,0.446353,-0.212401,-0.167072,0.962794
-0.621291,-0.246254,0.879966,0.841743,0.336563,-0.422129
-0.423590,0.212340,0.303510,-0.616722,0.111268,0.779277
0.002259,-0.026998,0.509089,-0.680625,-0.582502,0.444343
-0.708446,-0.048207,0.320754,-0.025824,0.041507,0.998804
0.336114,0.761744,0.504440,0.723383,0.164305,0.670612
0.183271,0.116304,0.950021,0.991271,-0.072753,-0.109948
-0.540721,-0.039917,0.616334,0.210922,-0.959180,0.188377
0.837643,-0.037548,0.554950,-0.303170,0.403267,0.863402
-0.397923,0.249753,0.345462,0.884071,0.463995,0.055912
-0.919060,-0.062308,0.613728,-0.417551,-0.874128,0.248097
0.015386,-0.069793,0.393447,-0.283535,-0.921956,0.263829
-0.070549,-0.579523,0.168034,0.286076,-0.277753,-0.917068
-0.250179,-0.164751,0.963533,0.531317,0.356205,0.768648
-0.714719,-0.079913,0.667053,0.931289,-0.291362,-0.218653
0.080754,-0.132292,0.524515,-0.673225,0.696702,0.247739
0.064493,-0.262994,0.842116,-0.401285,0.848187,0.345758
-0.041638,-0.122977,0.852106,0.762833,0.533121,0.365879
0.633727,-0.066672,0.711595,-0.574161,-0.219968,-0.788640
0.155953,0.053749,0.674404,-0.172156,0.975128,0.139601
-0.013525,0.027589,0.545153,-0.795228,-0.596790,-0.107027
0.314112,-0.114474,0.498375,0.122254,0.973619,0.192663
0.084101,-0.225203,-0.511035,0.875843,0.317874,0.363118
-0.374377,-0.204533,0.775633,-0.801988,0.372432,-0.467023
-0.490820,0.310418,0.310298,-0.726909,0.581850,-0.364766
-0.589295,-0.170996,0.611315,0.768324,0.251778,-0.588460
0.074694,-0.611877,0.771451,-0.631367,0.733681,0.251173
-0.249540,-0.511912,0.578323,0.728799,0.650377,-0.214154
-0.374114,-0.659840,0.836132,-0.587690,0.320425,-0.742932
-0.196132,-0.283503,0.642506,-0.214462,-0.795058,-0.567353
0.312198,-0.235539,0.622977,-0.073840,0.166841,0.983215
0.081444,-0.158130,0.458386,0.995864,-0.060965,-0.067367
-0.283712,-0.651764,0.318534,-0.329997,0.204486,0.921568
-0.211861,-0.081634,0.953431,0.717891,0.120209,0.685698
0.378153,0.173149,0.824711,0.382368,-0.834472,-0.396801
-0.750271,0.112266,0.637438,-0.166863,0.210351,0.963280
-0.515160,-0.233170,0.897371,0.964334,-0.225382,-0.138792
0.038981,-0.181225,0.708651,0.663608,-0.745565,-0.061297
-0.234502,-0.507227,0.845687,0.969398,-0.244531,-0.021738
0.132199,-0.095687,0.896535,0.778242,-0.448355,-0.439678
-0.225147,-0.053914,0.481791,0.511242,0.821005,0.254132
-0.369544,0.524940,0.375366,0.332399,0.837469,0.433770
0.011348,-0.001748,0.533813,0.967192,0.245179,0.066541
-0.417479,-0.119908,0.913232,-0.219359,-0.151899,-0.963747
-0.387611,-0.110650,0.815977,-0.773392,-0.632387,-0.044169
-0.542317,0.394504,0.669835,-0.022458,-0.981743,0.188880
0.233652,0.565957,0.859586,-0.254909,-0.877859,-0.405445
-0.530357,-0.149354,0.874562,0.801834,0.520363,-0.293743
0.230888,0.587599,0.535067,0.983711,-0.149024,0.100519
-0.330003,0.287488,0.809011,0.559370,0.781695,0.275787
0.034784,-0.267623,0.344320,0.826389,-0.530829,-0.187886
-0.117158,0.230749,0.963453,-0.113563,0.495080,0.861393
-0.348336,-0.522354,0.530628,0.227270,0.171275,-0.958652
0.083199,-0.224828,-0.125664,0.984775,-0.111791,-0.133119
-0.481572,-0.509165,0.531464,0.121064,0.178159,0.976526
-0.179816,0.495599,0.826127,-0.535569,-0.518029,0.666942
0.203466,-0.235539,0.235337,0.304239,0.786172,0.537933
-0.038504,0.402471,0.580703,0.058114,0.972213,0.226771
-0.315546,-0.317525,0.886336,-0.170176,0.983294,0.064595
0.229507,-0.379916,-0.975533,-0.053011,-0.518468,0.853452
0.207930,0.143920,0.927034,-0.382349,0.655953,-0.650796
-0.018679,-0.382501,0.567127,0.887520,0.424506,-0.179172
0.471104,0.297769,0.455796,0.131121,-0.778129,0.614266
0.074429,-0.276504,-0.579609,-0.582248,0.787800,0.200892
0.099833,-0.251152,-0.768957,0.848713,0.504851,0.157514
-0.443147,-0.036740,0.855596,0.982886,0.058632,0.174637
-0.775889,-0.160929,0.610913,0.418618,0.892791,0.166379
0.853268,-0.264502,0.168742,0.049045,-0.413145,0.909343
-0.251613,-0.390413,0.447978,-0.635551,0.283462,0.718140
-0.317940,-0.295456,0.820851,0.287787,0.956427,-0.049247
-0.364176,-0.707856,0.801322,-0.613882,-0.214666,-0.759650
0.207612,0.501628,0.747579,-0.178164,-0.859489,0.479099
-0.464192,-0.264394,0.731445,-0.507581,-0.461297,-0.727713
-0.157123,0.395473,0.944889,0.524694,0.452219,-0.721245
-0.318417,-0.303476,0.312437,0.092468,-0.240243,0.966299
-0.139160,-0.208140,0.454589,-0.566484,0.564180,-0.600664
0.136769,-0.254487,-0.549159,0.931434,-0.199508,0.304346
0.689581,0.275535,0.777949,-0.132824,-0.372574,0.918448
-0.866499,-0.092023,0.388444,-0.008084,0.211198,0.977410
-0.204420,0.046321,0.708635,0.167290,-0.312415,0.935100
0.259320,-0.241999,0.618377,0.259124,0.202795,-0.944314
-0.302792,0.336634,0.683444,-0.201022,-0.260972,0.944184
0.257409,0.049284,0.270791,0.446707,0.286387,-0.847605
0.318579,0.598202,0.687225,0.976994,0.039106,-0.209652
-0.286797,0.043416,0.956118,0.107623,0.461924,0.880366
-0.136662,-0.341050,0.682334,-0.035537,0.912388,0.407782
-0.333351,-0.350201,0.529453,0.758776,0.097299,0.644044
-0.240665,-0.083359,0.519930,-0.310406,-0.949268,-0.050376
-0.538596,-0.041961,0.533491,0.591770,0.781747,-0.196672
-0.345096,-0.430787,0.929447,-0.148378,-0.875552,0.459775
0.165466,0.082660,0.951324,-0.143118,-0.387551,0.910671
0.683470,-0.054288,0.700560,-0.492868,-0.389314,-0.778149
-0.658065,-0.423089,0.715890,-0.556753,-0.443837,-0.702165
0.049718,0.099939,0.143583,0.535065,0.720360,-0.441347
0.023995,-0.201034,0.334025,0.980581,0.084005,-0.177214
-0.475195,0.315909,0.821430,-0.046668,-0.998522,-0.027846
0.110622,-0.181763,0.231783,-0.620256,0.754434,0.214736
0.280420,0.503728,0.683798,0.990696,0.132415,0.031420
-0.550818,-0.468631,0.881044,0.621643,-0.419856,-0.661272
-0.693726,-0.190053,0.691906,0.767726,0.213454,0.604180
0.233334,-0.606170,0.530467,-0.250251,-0.868198,0.428493
0.167328,0.117973,0.367693,-0.274954,0.794537,-0.541398
-0.714664,-0.149032,0.660699,-0.333943,-0.059780,0.940696
0.067733,-0.024790,0.454300,0.892498,0.429232,-0.138589
-0.092340,-0.530643,0.777241,-0.701970,-0.009786,-0.712139
0.202616,-0.484888,0.771499,0.204744,0.756692,-0.620884
-0.174607,-0.417868,0.653187,-0.623248,0.387403,-0.679324
0.189275,-0.131053,0.119004,-0.623563,-0.362533,0.692632
-0.178804,-0.109306,0.507592,-0.349488,-0.936088,0.039958
-0.025747,-0.535220,0.644613,0.981368,0.061521,-0.182020
-0.856508,-0.126424,0.382589,0.023131,0.308938,0.950801
-0.327239,-0.005894,0.555336,-0.536722,0.710130,-0.455680
0.028193,-0.052458,0.943072,-0.064494,0.316255,0.946479
-0.705948,-0.202111,0.610687,0.640379,0.518017,0.567074
0.081604,-0.429604,0.823794,0.057888,-0.541929,0.838429
-0.661626,-0.126746,0.351945,0.028536,-0.816856,0.576135
0.698456,-0.442845,0.429157,0.556123,0.165273,-0.814501
0.580901,0.447583,0.483222,-0.709670,0.684348,-0.167440
0.277497,0.149302,0.942509,0.989484,0.137361,0.045323
0.066991,-0.305414,0.499163,0.471427,-0.186135,0.862039
0.071402,-0.224937,-0.016392,-0.275356,0.952331,-0.131320
-0.576700,0.005086,0.578162,-0.328882,0.940441,-0.086060
0.346426,0.170619,0.843757,0.943721,-0.101598,0.314752
-0.180825,-0.086694,0.522456,0.405627,-0.825882,0.391644
-0.337496,-0.471377,0.551169,0.759573,0.603141,-0.243453
-0.208565,-0.533604,0.402664,-0.673188,0.615991,-0.409114
0.271545,-0.400263,0.597079,-0.701923,-0.253417,0.665646
0.380598,-0.197321,0.613824,0.292614,0.621805,0.726454
-0.736135,0.172018,0.762185,-0.506454,-0.296149,-0.809815
0.192678,0.266545,0.728533,-0.224999,0.793710,0.565154
0.166316,-0.214439,-0.855435,-0.587468,0.802878,0.101326
-0.067575,-0.289157,0.024933,0.130508,-0.467546,-0.874282
-0.041427,-0.519341,0.767268,0.841938,0.462324,-0.278202
-0.106528,-0.492961,0.741450,-0.257270,0.527419,0.809717
0.585844,0.007833,0.728871,0.092221,0.688656,-0.719200
-0.095315,0.119587,0.757729,-0.662395,-0.690566,-0.290435
-0.319532,-0.040669,0.604060,0.942750,0.309551,0.124100
-0.106953,0.567518,0.378985,-0.010249,0.977349,0.211386
0.740494,0.336795,0.263022,0.044200,0.586487,0.808752
0.165625,-0.407748,-0.987179,0.207631,0.211374,-0.955097
0.341165,0.145855,0.093717,-0.349068,0.932710,-0.090574
-0.613902,-0.112966,0.389811,0.417074,0.138757,0.898218
-0.694469,-0.222081,0.514316,-0.365035,0.183778,0.912675
-0.719501,-0.181763,0.710372,0.971802,0.234761,0.022081
-0.058538,0.353752,0.847585,0.780833,0.546315,0.303052
0.779023,0.559606,0.402262,-0.629452,0.529973,0.568259
0.386817,0.610852,0.795097,0.503265,0.753095,0.423760
-0.297744,-0.752968,0.819145,0.178806,0.983884,0.000041
0.557782,0.751407,0.579465,-0.413118,-0.177585,0.893195
0.344246,0.420289,0.546971,-0.558651,0.455566,0.693086
0.050834,0.399350,0.870556,0.201396,-0.863479,-0.462433
0.514310,0.334965,0.346556,-0.684791,-0.192963,0.702728
0.101640,0.114957,0.907232,-0.276558,-0.164221,-0.946862
-0.694203,-0.026728,0.677798,0.860247,0.170108,0.480665
0.146017,0.321241,0.839945,0.875464,-0.024741,0.482649
0.147610,0.665653,0.390439,0.829063,-0.220412,-0.513880
-0.138414,0.362206,0.950777,-0.505022,-0.423223,0.752220
-0.447717,0.056818,0.683798,-0.348958,0.517105,-0.781556
-0.212500,-0.593734,0.714345,0.247462,0.131423,0.959943
-0.392396,0.472882,0.359087,-0.409379,0.070340,0.909649
-0.203359,-0.040186,0.969951,-0.156652,-0.220320,0.962766
-0.035741,-0.258634,0.582666,-0.056486,0.995702,0.073399
-0.584407,-0.211692,0.725445,0.899642,-0.211118,-0.382194
-0.374805,-0.391060,0.782453,0.305515,-0.586503,0.750116
-0.077299,-0.158508,0.410916,0.819169,-0.131454,0.558285
0.622141,0.694829,0.413538,0.241710,-0.389633,-0.888686
-0.071665,-0.236508,0.820207,-0.532849,0.051721,-0.844629
-0.346105,0.368505,0.880176,-0.439918,0.586780,0.679824
-0.663910,-0.131106,0.592221,-0.433994,0.160193,0.886559
-0.089521,-0.294161,0.922385,-0.480347,0.243431,0.842620
0.304229,-0.136005,0.855789,0.821646,0.271289,0.501298
0.129808,-0.073401,0.725284,-0.675019,0.706374,-0.213037
-0.363644,-0.203511,0.487517,0.598638,0.798959,0.057421
0.565808,0.402311,0.360535,-0.221976,-0.360080,0.906128
-0.053967,0.356069,0.836583,0.676435,0.591020,-0.439468
0.056361,-0.225420,0.120419,-0.230215,0.973120,0.006211
-0.705579,-0.172449,0.594987,0.577094,0.401376,0.711238
0.181091,0.383793,0.501496,-0.003872,0.945449,0.325747
-0.372200,-0.196887,0.652495,-0.140863,-0.841731,0.521198
-0.151012,-0.314726,0.947029,0.030596,-0.025075,0.999217
-0.559482,-0.257717,0.860985,-0.679415,0.237205,-0.694356
0.045997,0.610260,0.653911,0.919685,0.265197,-0.289568
-0.549862,0.011385,0.879966,-0.580584,-0.284658,0.762818
-0.081496,0.240547,0.552472,-0.194563,-0.519796,0.831840
-0.642602,-0.107637,0.604334,-0.414068,-0.119649,0.902348
-0.279197,-0.564288,0.840379,0.206569,-0.864046,0.459079
-0.863469,-0.338303,0.415854,0.494625,0.867407,-0.054325
-0.275052,-0.337012,0.779976,0.544732,-0.062433,0.836283
-0.244811,-0.553146,0.805199,0.148033,-0.687373,0.711059
-0.097868,0.283881,0.940353,0.025682,-0.188173,0.981800
-0.337814,0.381532,0.953061,0.239573,-0.731343,0.638547
0.304495,-0.407962,0.573851,0.894298,-0.446139,0.034507
0.022189,-0.627756,0.746839,0.167550,0.392467,0.904376
0.190287,-0.477512,0.775826,0.038294,0.862472,-0.504654
0.454201,-0.084059,0.428305,0.311374,0.428464,-0.848213
0.595462,0.413613,0.820304,-0.494807,0.458539,0.738179
-0.241463,-0.168306,0.971496,-0.623879,-0.488160,-0.610307
0.142829,-0.068071,0.952241,0.857851,0.495811,0.135141
0.004384,-0.465023,0.711386,-0.380690,-0.912263,-0.151164
0.001620,-0.262402,0.246292,-0.677814,-0.262815,-0.686656
-0.573936,0.539580,0.335280,0.786455,-0.341070,-0.514936
-0.330535,0.430518,0.534263,0.833594,0.169993,-0.525570
0.636066,0.060048,0.529888,0.228189,-0.616552,0.753521
0.588075,-0.156622,0.577164,-0.102546,-0.521244,0.847224
0.148884,0.357790,0.850014,0.768471,0.511487,0.384491
0.106262,0.069254,-0.017952,0.823390,-0.533856,0.192424
-0.016447,-0.043738,0.427533,0.203467,0.979046,0.008323
0.766217,0.424488,0.229836,0.096252,0.669633,0.736429
0.125929,-0.141712,0.683074,0.790194,-0.477802,0.383795
0.055777,-0.269131,-0.128334,0.980746,0.184598,-0.063723
-0.029467,-0.139773,0.167246,-0.434258,-0.877736,0.202484
-0.452713,0.069793,0.570859,-0.028766,0.244716,0.969168
0.342547,0.044599,0.670720,0.104212,-0.991637,-0.076131
0.002632,-0.343041,0.209198,-0.022390,-0.054399,0.998268
-0.706056,0.161682,0.373516,0.682877,-0.045117,-0.729139
0.766003,-0.182138,0.272223,0.225671,-0.221888,-0.948598
-0.592750,-0.249914,0.853778,0.528968,0.427144,0.733308
0.041268,0.328775,0.435383,0.637936,0.128566,0.759282
-0.180027,-0.370118,0.932986,0.864194,0.217827,0.453564
-0.059653,-0.245123,0.599830,-0.249242,0.959582,0.130696
-0.638775,-0.227571,0.477126,-0.747952,-0.663159,-0.028073
-0.213827,-0.586361,0.791622,0.013333,-0.586262,0.810012
-0.373848,0.160930,0.350803,0.688367,0.717188,-0.108590
-0.031488,0.380294,0.609996,-0.448846,-0.714605,-0.536542
0.075758,-0.222407,0.279815,0.385995,0.434198,0.813929
0.579892,0.054719,0.733343,-0.151907,0.806988,-0.570696
-0.197725,-0.119534,0.493582,0.421332,0.900437,0.108131
-0.241411,0.471321,0.586156,0.107931,0.153309,0.982266
-0.546355,0.415069,0.349886,-0.303077,0.228973,0.925049
-0.416999,-0.965011,0.499308,0.884857,0.213189,-0.414220
0.557092,0.326137,0.370733,0.955039,0.052316,-0.291828
-0.234554,0.138535,0.839253,-0.689878,-0.344093,-0.636920
-0.541999,-0.114418,0.887623,0.816828,0.525302,-0.238434
-0.075278,-0.756253,0.718029,-0.120439,-0.249050,0.960973
0.406373,-0.565583,0.254625,-0.367647,-0.907495,0.203194
-0.658013,-0.126585,0.848744,0.764456,-0.062829,0.641607
0.580158,0.573977,0.411093,-0.473880,-0.134763,0.870216
0.119655,-0.284958,-0.835762,-0.450711,0.880589,0.146363
0.452823,-0.378946,0.722710,-0.050666,-0.926547,0.372752
0.095902,0.305145,0.899881,0.803201,0.457043,-0.382073
-0.439747,0.458994,0.828347,0.202258,-0.392997,0.897020
-0.038080,0.060478,0.627674,-0.127116,-0.941894,0.310929
