-0.479234,-0.589970,-0.122258,0.905752,0.361912,0.220529
-0.255823,-0.601392,-0.776486,0.450816,0.697492,0.557018
0.017793,0.186275,0.632915,0.900315,-0.174509,-0.398723
-0.626979,-0.911890,0.704795,-0.356111,0.306765,0.882655
-0.579735,-0.873401,0.641252,0.528462,0.724534,0.442468
-0.568082,-0.773773,0.841172,-0.251793,0.288975,0.923631
-0.196256,-0.633113,0.722844,-0.627483,-0.661455,-0.410783
0.591056,-0.190066,0.704346,0.120602,0.610112,0.783083
-0.769040,0.071146,0.806767,-0.449349,0.887763,0.099813
-0.242208,-0.287199,0.758972,0.693318,0.162360,0.702104
-0.149013,0.038656,0.789094,0.129236,-0.967857,0.215758
-0.366977,-0.703035,0.840926,0.008628,-0.164690,0.986308
0.564738,-0.630906,0.868732,-0.178409,0.980295,0.084806
-0.096801,-0.401368,0.262052,0.767948,0.239127,0.594201
0.415127,-0.600528,0.490559,-0.213509,-0.588032,0.780149
-0.326854,-0.794841,-0.551583,0.054267,-0.904550,0.422900
-0.207527,0.960792,-0.995108,0.066325,0.310658,0.948205
0.942724,-0.232106,0.576175,-0.745858,0.528384,0.405594
0.011965,0.618284,-0.966883,0.003973,0.266371,0.963862
0.054908,-0.520336,0.894525,-0.492668,0.315648,0.810953
-0.724521,-0.224187,0.774880,0.838380,-0.394662,0.375979
0.111038,-0.011974,-0.929075,0.034064,0.307905,0.950807
-0.439108,0.080456,0.764415,0.999893,0.004545,0.013925
0.467864,-0.768926,0.708717,-0.213039,-0.976995,-0.009784
-0.316058,0.292813,0.593400,-0.268754,-0.733282,0.624555
0.283098,-0.837457,-0.581936,-0.596705,0.798153,-0.083038
-0.413789,-0.250870,0.740677,0.751638,-0.137263,0.645135
-0.228117,-0.191602,0.763401,-0.579620,0.186576,-0.793241
-0.513148,-0.156425,0.752097,-0.506696,-0.576307,-0.641194
0.507034,-0.151194,0.608308,0.721962,-0.369398,-0.585078
-0.027730,-0.820852,0.852839,0.574197,0.714543,0.399658
-0.110271,-0.342100,0.907306,-0.027592,0.737499,0.674785
-0.772863,-0.120336,0.750346,0.976271,-0.140001,0.165210
-0.558096,-0.588386,0.664918,-0.487231,0.582602,-0.650524
0.207816,-0.106515,0.825366,0.856739,-0.454241,-0.244260
0.582508,-0.620924,0.889879,-0.135358,-0.798156,0.587047
0.702021,-0.105171,0.597829,-0.760089,0.337135,0.555523
0.449091,-0.656437,0.834355,-0.047405,-0.573961,0.817509
0.080466,0.154409,0.787559,0.865419,0.230994,0.444625
0.170316,-0.294829,-0.905699,0.011027,0.193233,0.981091
0.162768,-0.201920,0.592560,-0.594173,-0.725273,0.347762
0.275168,0.157672,0.413526,-0.033103,-0.242816,0.969507
0.195824,0.099076,0.430013,-0.413965,0.064594,-0.907998
0.805727,-0.194001,0.448077,0.011676,-0.721296,0.692529
0.590196,-0.291470,0.638878,-0.416260,0.082010,0.905540
-0.393299,-0.390378,0.834254,-0.400743,0.623827,0.671003
0.391961,-0.331782,0.848033,0.998217,0.025320,-0.054049
0.105735,-0.770366,0.091399,-0.803872,-0.278267,-0.525697
-0.537317,-0.626203,0.498563,0.193480,-0.852647,0.485344
-0.507034,-0.343731,-0.673805,-0.317009,-0.434318,-0.843133
0.212210,-0.818452,-0.556114,0.499888,-0.863922,-0.061252
-0.115767,-0.117792,-0.914905,0.037468,0.278339,0.959752
-0.081804,-0.922879,0.682388,-0.605910,0.699381,0.379131
0.855072,-0.175285,0.762432,0.624917,0.780290,-0.025027
-0.183454,0.566359,-0.962540,0.024592,0.222529,0.974616
0.205999,-0.727031,-0.073465,-0.814229,0.562185,-0.144843
0.177194,-0.432657,0.749144,0.719519,-0.681149,0.135381
0.216175,-0.000168,0.827118,0.822702,0.547879,0.151622
0.056582,-0.534253,0.489126,-0.491234,0.860690,0.133799
-0.071914,-0.092549,0.566854,-0.560913,0.221996,-0.797555
-0.049704,0.582052,-0.963221,0.075709,0.236853,0.968591
0.654638,-0.320120,0.393320,0.304983,-0.913497,0.269275
-0.708138,-0.691854,0.823470,0.939226,-0.281056,0.197136
-0.018033,-0.713737,0.956649,0.389349,0.870080,0.302272
-0.223292,-0.179892,0.616124,0.788010,0.609103,0.089635
-0.036138,-0.766431,0.824570,-0.378559,-0.909337,-0.172626
-0.039290,-0.792442,0.164436,-0.661756,0.675062,-0.326146
0.133823,-0.420660,0.863260,0.754127,0.656716,0.004088
0.820820,-0.427091,0.660720,0.925195,-0.212045,0.314722
-0.059448,-0.643575,0.824889,-0.095178,-0.427898,0.898801
0.535122,-0.198224,0.566579,-0.507300,0.771724,-0.383521
0.232511,0.631290,0.417116,0.428386,-0.775575,0.463648
0.044925,-0.752945,-0.880774,0.080546,0.264509,0.961014
0.627028,-0.673041,0.774055,0.971701,-0.231128,0.048758
-0.935275,-0.808230,0.239674,-0.077521,0.977010,0.198599
0.766699,-0.314601,0.440521,-0.105015,0.641553,0.759856
-0.133059,0.051374,0.808967,-0.046420,-0.769221,0.637294
0.159281,0.247558,0.795810,-0.124524,0.904709,-0.407425
-0.621008,-0.145867,0.566246,0.967640,-0.139907,0.209998
-0.679094,-0.814229,0.705128,0.661144,0.697048,0.277513
-0.733311,-0.915297,0.689119,0.895375,-0.245915,-0.371254
0.033604,-0.521680,0.562265,-0.490956,-0.689776,-0.532138
0.170841,-0.775261,-0.136501,0.027766,-0.999518,-0.013900
0.803674,-0.112034,0.713262,0.928872,0.258832,0.264959
0.218084,-0.446095,0.625793,-0.692189,-0.321036,0.646383
0.028590,-0.504931,-0.883177,-0.308184,-0.174474,-0.935191
-0.754903,0.197409,0.725044,0.832662,0.434409,0.343458
-0.105399,0.053965,0.440926,0.351016,0.887150,-0.299586
-0.287970,-0.458380,0.743745,-0.138302,0.988166,0.066334
-0.144569,0.809478,0.590606,0.148145,0.986320,-0.072292
-0.261363,0.622699,-0.954768,-0.159678,-0.182576,-0.970139
0.215982,-0.772573,0.065272,-0.233774,-0.822922,-0.517832
-0.053477,0.139436,-0.932795,0.098841,0.210077,0.972676
0.690750,-0.470234,0.090327,-0.039932,-0.632336,0.773665
0.261602,-0.119664,0.475839,0.658792,-0.164506,-0.734119
0.235519,-0.644439,0.924878,0.531397,0.484092,-0.695178
0.384701,-0.415477,0.876331,0.142156,0.917909,0.370452
0.258450,-0.434721,0.915600,0.262394,0.945827,0.191208
0.440207,-0.646263,0.915079,0.025133,-0.304713,0.952112
-0.063984,0.328278,0.718227,0.144236,0.869758,0.471929
-0.030403,0.565543,-0.964972,0.020437,0.230829,0.972780
-0.095513,0.688590,-0.968373,0.120510,0.230731,0.965526
0.134444,-0.484007,0.563510,0.936970,0.034481,-0.347703
0.030117,-0.741668,0.924979,-0.115701,0.891939,0.437102
0.246458,-0.858236,0.296052,-0.826687,-0.291370,0.481344
-0.286728,-0.265219,0.869267,-0.044198,-0.686097,0.726166
0.803578,-0.338452,0.521896,0.169016,-0.957363,0.234285
0.250855,-0.244823,0.873639,-0.396743,-0.841185,0.367428
-0.062503,-0.638488,0.828435,-0.355092,-0.933001,0.058467
-0.044736,-0.111074,0.712654,-0.245998,0.790213,-0.561291
-0.289165,-0.363791,0.915788,-0.736842,-0.472581,0.483458
0.016694,0.609790,0.457992,-0.383667,0.867014,-0.317940
-0.377106,-0.911266,-0.200897,0.056098,-0.848774,0.525772
-0.833383,-0.475945,0.827928,0.775522,-0.030881,0.630565
-0.096994,0.197648,0.840478,-0.135342,0.932828,-0.333937
-0.226443,-0.739556,-0.330327,0.448845,-0.036748,-0.892854
0.146864,-0.791386,0.783449,0.960562,0.189100,-0.203866
0.245648,-0.275153,0.898332,-0.394412,0.004243,0.918924
0.751988,-0.175285,0.621929,-0.164690,0.848405,0.503077
-0.011059,-0.841344,0.873552,0.931658,0.341284,-0.124651
-0.103586,0.307594,-0.943478,0.030641,0.163728,0.986030
-0.257733,-0.001464,-0.572310,0.431246,0.800404,-0.416389
-0.514725,-0.350930,0.831489,-0.480189,-0.818925,-0.314291
-0.765125,-0.105027,0.702131,0.818937,0.380962,0.429197
-0.223577,-0.411206,0.853490,0.372795,-0.925941,0.060471
0.025388,0.261044,-0.940250,-0.059527,-0.175323,-0.982710
0.425492,0.126095,0.519667,-0.446928,0.795996,-0.408222
0.107119,-0.322040,0.462218,-0.615522,0.758027,-0.215702
-0.484392,-0.007127,0.744990,-0.272553,0.009536,-0.962094
0.320212,0.262915,0.435325,-0.218538,-0.394791,0.892402
-0.254103,-0.735333,0.820807,0.789260,-0.398098,-0.467532
-0.042156,0.851470,0.621697,0.943203,0.192666,-0.270644
0.151782,-0.267666,-0.907190,0.039561,0.205378,0.977883
0.147628,-0.727031,0.016523,0.447422,0.731778,-0.514115
0.383934,-0.590066,0.876432,0.956001,-0.292257,0.025443
-0.702881,-0.475609,0.601245,0.483037,0.661426,-0.573751
0.123073,-0.397624,0.499591,-0.281491,0.900132,0.332455
0.681149,0.109346,0.747219,-0.745263,0.663279,0.068147
-0.430892,-0.690702,0.831171,0.186661,0.153111,0.970420
0.038715,0.137373,0.555202,0.074061,0.022915,0.996990
-0.482290,-0.494949,0.828218,0.306088,0.951784,-0.020420
0.050993,0.559304,0.547878,-0.595021,0.136258,0.792076
0.230601,-0.422819,0.637749,0.696602,0.330948,-0.636568
-0.788338,-0.029682,0.772115,0.547619,0.835514,-0.045043
-0.278608,-0.570822,-0.705316,0.693350,0.339825,0.635440
-0.509471,-0.057421,0.559602,-0.331135,-0.400640,0.854305
-0.820631,0.248086,0.637764,0.933995,0.249602,0.255640
0.191527,-0.519136,0.843763,0.938987,-0.049382,0.340390
-0.501730,-0.479112,-0.142812,-0.613042,0.294707,-0.733026
0.053427,0.185987,0.832922,-0.232510,0.846842,0.478327
0.217035,-0.814901,0.697876,-0.392883,0.914903,0.092713
-0.555901,-0.722807,0.824064,0.407281,-0.227984,-0.884390
0.178008,-0.001224,0.822095,0.499377,0.824087,-0.267401
0.128569,-0.263203,0.787718,0.044895,-0.993124,-0.108121
-0.311997,-0.253413,0.702855,0.981879,-0.148473,-0.117769
-0.216364,-0.439856,0.834876,0.756965,0.566244,0.326146
0.157564,-0.549130,0.372781,-0.310881,-0.910078,0.274063
0.126178,0.144667,-0.936356,0.260405,-0.199996,-0.944559
-0.656594,-0.821572,0.834471,-0.231780,-0.521260,0.821320
-0.267573,-0.090966,0.832517,-0.455830,-0.889294,0.037077
-0.754568,-0.490486,0.734540,0.922417,0.338164,0.186528
0.023286,0.457996,0.368453,0.833206,0.551380,-0.041810
0.188565,0.248470,0.639168,-0.609379,0.449635,0.653058
0.119586,0.226155,0.729372,0.911510,0.084342,0.402537
0.381786,0.072921,0.518278,-0.303412,-0.470668,0.828500
0.545629,-0.140972,0.769683,-0.528561,0.401258,-0.748074
0.743008,-0.652358,0.589535,-0.464241,0.472803,0.748958
-0.471015,-0.620876,-0.128540,0.938184,0.113498,-0.326999
0.052759,-0.780828,0.917409,0.907438,-0.372211,0.194974
0.392296,-0.490246,0.809691,-0.769519,-0.252238,0.586700
-0.247557,0.708794,-0.966376,0.075002,0.318683,0.944889
0.322411,-0.731878,0.736117,0.853900,-0.273002,0.443085
0.289547,-0.584979,-0.130827,0.327308,-0.214078,0.920348
-0.455443,-0.487846,0.841259,-0.201704,-0.931054,0.304062
-0.528195,-0.723431,0.820706,-0.127175,0.679768,0.722317
0.013303,-0.782555,0.733034,-0.123850,-0.925274,-0.358511
0.281617,-0.309946,0.886376,-0.589345,-0.484359,0.646582
-0.643507,-0.841728,0.839218,0.697955,0.698609,0.157496
-0.257686,-0.949130,-0.031532,0.200766,0.952974,0.227008
0.247511,0.005639,0.506249,-0.807590,0.532192,-0.254106
-0.272684,-0.319016,0.810458,0.538869,0.454978,0.708954
0.135875,-0.845615,0.776602,0.949427,-0.182882,-0.255231
0.251330,-0.583251,0.906380,0.876300,-0.178811,-0.447354
0.324178,-0.537564,0.781798,0.728424,0.642970,-0.236618
0.215839,-0.150474,0.467501,-0.655586,0.129669,0.743904
0.597555,-0.740420,0.753212,-0.740979,0.642577,0.195052
-0.304066,0.178788,0.680246,0.869187,-0.114837,0.480965
0.089731,-0.324439,-0.904165,-0.023261,0.129557,0.991299
-0.167975,0.810198,-0.981198,0.047855,0.330516,0.942586
0.158852,0.731926,0.420069,0.665544,-0.528929,-0.526579
0.088632,-0.074985,0.759522,-0.528170,-0.705583,0.472428
0.349971,-0.375213,0.952104,0.999947,0.005697,-0.008518
0.303445,-0.406743,0.888026,0.948106,0.016008,-0.317551
-0.850343,-0.786875,0.483192,-0.327940,-0.932375,0.152093
-0.678951,-0.072010,0.738375,-0.648112,0.402371,0.646567
0.625451,-0.423203,0.469122,0.077254,-0.233105,0.969378
-0.430606,-0.034721,0.720355,-0.590495,0.689624,-0.419206
-0.145622,0.118944,-0.928019,-0.005863,0.194323,0.980920
-0.747594,-0.153833,0.719255,0.836824,0.437141,0.329595
0.881297,-0.349538,0.481440,-0.654868,0.705476,0.271020
-0.613127,-0.540348,-0.025873,0.957015,-0.196424,0.213399
-0.324991,-0.334133,0.396374,-0.440741,-0.893277,0.088342
0.350403,-0.345123,0.887925,0.348773,0.561625,-0.750289
0.055529,0.281200,0.558820,0.818241,0.230327,-0.526718
-0.539230,-0.215885,0.512068,0.128061,-0.934690,0.331596
-0.026773,0.769070,0.538310,0.479314,0.869391,-0.120075
-0.426688,-0.221068,0.760116,-0.775290,-0.224792,-0.590250
0.815281,-0.551002,0.491804,0.500854,-0.672066,-0.545411
-0.052759,-0.028530,0.763561,-0.260263,0.963099,-0.068578
-0.002986,0.047487,-0.927223,0.172885,0.279445,0.944469
0.821156,-0.103347,0.685138,0.959257,0.221644,-0.175216
0.102248,-0.056317,0.402410,-0.518861,0.696426,-0.495757
-0.339225,-0.496293,-0.389036,0.389112,0.339948,0.856170
-0.282523,-0.182148,-0.575220,-0.505972,-0.520546,0.687768
-0.131385,-0.497013,-0.119407,0.285066,-0.589115,0.756096
-0.113761,0.368686,-0.945403,0.022637,0.179490,0.983499
0.560534,-0.229850,0.485710,0.461512,0.475439,0.748976
-0.022569,-0.167798,0.854503,-0.588946,-0.802856,0.092543
0.189186,0.262196,-0.943637,-0.131907,0.122797,0.983627
0.035132,0.204703,-0.940308,0.147814,0.119539,0.981764
0.504646,-0.670402,0.652021,0.019771,0.834880,0.550076
0.096755,0.032082,0.417304,-0.590897,-0.281938,0.755878
0.441067,0.171110,0.534923,-0.106084,0.502719,0.857916
0.237050,0.505363,-0.961455,0.132073,0.325277,0.936350
0.155748,-0.239880,-0.909607,0.143913,0.233496,0.961649
-0.024146,0.122975,0.761288,-0.677912,-0.450043,0.581289
0.147103,0.758224,0.419012,-0.619129,0.126611,0.775015
0.670449,-0.608446,0.841607,0.847887,0.290142,0.443740
-0.043255,0.047966,0.431373,-0.789401,0.597249,-0.141914
0.141368,-0.108434,0.614590,-0.322924,-0.659026,0.679267
0.094271,-0.921200,0.853085,-0.194573,0.937406,-0.288811
0.369844,-0.381452,0.830678,-0.591302,-0.500692,0.632194
-0.525568,-0.496485,0.811934,-0.753266,0.593893,-0.282633
0.290454,0.106515,0.430346,-0.380948,-0.148464,-0.912599
-0.246555,-0.427858,-0.130595,0.509530,-0.185829,-0.840147
0.348254,0.068170,0.744151,0.740606,0.446948,-0.501737
-0.653778,-0.647846,0.812658,-0.668879,0.696598,-0.259523
-0.685878,-0.291470,-0.560485,0.154375,-0.198530,0.967861
0.144234,-0.828914,0.683865,0.254635,0.885798,0.387973
-0.741862,-0.611710,0.839045,-0.721475,-0.500984,0.478006
0.439536,0.177780,0.530118,-0.257052,0.965897,-0.031093
0.460030,-0.284799,0.606267,-0.689563,0.345024,0.636758
-0.222528,-0.433089,0.315694,-0.588363,-0.799047,-0.123909
-0.439393,-0.153833,0.749463,0.675979,0.528891,0.513153
-0.031313,0.454253,0.419577,0.224175,0.581742,-0.781870
-0.695668,-0.361872,-0.545866,0.116787,0.000066,0.993157
-0.434618,-0.258404,0.444834,-0.350960,-0.916690,0.191068
-0.421241,-0.974325,0.633146,0.832050,0.543978,-0.108540
-0.421002,-0.031794,-0.540785,0.171498,0.266304,0.948510
-0.062410,-0.324727,0.564103,-0.291723,-0.896616,0.333133
0.586281,-0.614925,0.535314,-0.702062,0.658699,0.270600
-0.149013,-0.523983,0.847556,0.839115,0.525752,0.139536
-0.086722,0.690318,-0.973555,0.066694,0.233342,0.970105
-0.382360,-0.455645,0.946618,-0.713575,0.568568,0.409319
-0.137453,0.274049,-0.941263,0.031367,0.233394,0.971876
-0.823304,0.130606,0.762721,-0.478864,0.854423,-0.201621
0.384127,0.374493,0.566825,0.461345,0.880972,0.105117
0.047363,-0.550714,0.438220,0.708077,-0.676707,-0.201729
-0.048412,-0.329574,0.923517,0.813372,0.561281,-0.152935
-0.000980,0.818644,0.529510,0.500118,0.844606,-0.191108
-0.630323,-0.914433,-0.050118,0.308142,-0.503682,0.807064
-0.827558,-0.476905,0.834558,0.806367,0.073838,0.586789
-0.112612,-0.416773,-0.682765,0.173605,0.984662,-0.017387
0.017173,-0.569670,-0.888041,-0.325584,0.221834,-0.919122
-0.088539,0.586227,0.395216,-0.627942,0.568010,0.532028
0.177194,-0.205759,0.467357,-0.155935,-0.142658,0.977411
-0.149252,0.575765,-0.963134,0.006855,0.215299,0.976524
-0.162960,-0.247750,0.618006,-0.652766,-0.751064,-0.098991
0.327761,0.389658,0.569864,-0.696663,-0.709783,0.104256
-0.187323,-0.296845,0.924198,0.960944,0.247308,-0.124200
0.087725,0.360912,0.516743,-0.350539,0.751535,-0.558854
-0.020563,-0.294925,-0.531826,0.632220,0.277588,-0.723355
0.114857,0.334661,-0.946995,0.103445,0.105908,0.988981
0.517876,-0.085447,0.782754,-0.941512,0.099522,0.321949
0.822972,-0.009958,0.707516,0.918816,0.231083,0.319966
-0.604147,-0.555273,-0.009951,0.847547,-0.326369,0.418507
-0.046931,-0.601200,0.482120,-0.788780,0.460970,-0.406612
-0.067853,-0.421524,0.868022,0.989933,-0.136887,-0.035976
0.294276,-0.574661,0.768583,0.817166,0.436606,-0.376316
0.763930,-0.197696,0.681505,0.501546,-0.660754,-0.558440
0.424014,-0.789706,-0.065678,-0.135340,0.957167,0.255959
-0.698966,0.098548,0.755325,-0.566290,0.632357,-0.528621
-0.124412,-0.400024,0.936703,-0.726980,-0.662815,0.179377
-0.299865,-0.493269,0.902935,-0.162432,0.705482,0.689863
-0.513244,-0.545387,-0.091616,0.814347,-0.444984,0.372597
0.275310,-0.258020,0.904426,-0.654312,0.198874,0.729606
0.103058,-0.380156,0.344831,0.395172,-0.421313,0.816293
0.807015,-0.466155,0.614807,-0.747230,0.475870,-0.463892
-0.752512,-0.676545,0.851348,0.911494,-0.259043,-0.319492
-0.469441,-0.851230,0.794753,-0.553371,-0.741677,-0.379071
-0.786954,-0.530606,0.815929,-0.412199,0.215487,-0.885244
-0.034800,-0.307259,0.904020,0.925633,0.130063,-0.355368
0.011248,-0.520144,0.431518,0.950838,-0.032882,-0.307937
-0.618477,-0.780636,0.632596,0.921723,0.150550,0.357437
-0.767941,-0.500420,0.739533,0.949922,0.271906,0.153998
0.339892,-0.307019,0.912184,0.822971,0.503575,-0.262927
0.011105,0.478296,-0.958212,0.008333,0.326229,0.945254
-0.068952,0.590690,0.385258,-0.567885,0.421047,0.707266
-0.346723,-0.392969,0.854228,-0.203548,0.717054,-0.666635
0.028972,0.603935,0.455401,0.265616,-0.794856,0.545575
-0.260456,-0.814661,-0.011370,0.972759,-0.205001,-0.108233
-0.161911,-0.417349,0.775878,0.749052,-0.199540,0.631747
-0.067567,0.803671,0.548196,-0.401482,-0.901098,-0.163811
0.263608,-0.254421,0.889604,0.528653,0.716346,0.455385
0.114525,0.676161,0.537311,0.840208,0.527499,0.125681
-0.293512,-0.365663,0.910650,-0.666271,-0.097131,0.739357
-0.677994,-0.158344,0.677901,0.933887,0.116241,0.338148
-0.377774,-0.818020,0.453331,0.890236,0.333535,0.310217
0.129044,-0.711386,0.074840,0.932674,-0.120535,0.339987
-0.498340,-0.832178,0.875650,-0.651101,0.643076,-0.403138
-0.203612,0.973461,-0.993516,0.566717,0.409291,0.715061
-0.502448,-0.344019,0.542551,0.137433,-0.624721,0.768659
0.091405,-0.564391,0.190954,-0.420017,-0.906199,0.048886
0.049558,0.427331,0.592155,-0.310405,-0.094968,0.945849
-0.270153,0.194097,0.816175,0.356364,-0.663798,0.657554
0.529008,-0.304139,0.629151,-0.573379,0.174150,0.800568
-0.302635,-0.982867,0.167910,-0.227601,-0.070885,-0.971171
-0.501588,-0.912993,0.217514,-0.549117,-0.621884,-0.558329
-0.568750,-0.817684,0.632799,0.661250,0.735519,0.147514
-0.151736,0.272418,-0.940177,-0.001910,0.209269,0.977856
-0.106309,0.253557,0.659996,-0.111842,0.875779,-0.469577
-0.012779,-0.190642,0.842070,-0.294466,-0.793342,0.532821
-0.048030,-0.348866,0.809300,-0.272119,0.915258,-0.297077
-0.218420,-0.338452,-0.786561,-0.206434,-0.872924,0.442028
0.028829,-0.182292,-0.500228,-0.453233,-0.139590,0.880394
0.142899,-0.431602,0.878285,0.961056,-0.270081,0.058547
-0.287588,0.067163,0.717547,-0.365490,-0.454095,0.812536
0.179107,0.300156,0.637503,-0.698673,0.713626,0.050930
-0.068381,0.159208,0.767744,0.359130,-0.485088,0.797318
-0.061693,0.662579,0.496884,0.101523,0.698584,-0.708289
-0.249324,-0.967175,0.798097,-0.719350,0.691680,-0.064141
0.076308,-0.576677,-0.891225,-0.131345,-0.061535,-0.989425
-0.328571,-0.822004,0.829159,0.389307,0.173814,0.904560
-0.360910,-0.198464,0.496219,0.055677,-0.818597,0.571664
-0.357423,-0.929550,-0.096103,0.684796,-0.705511,-0.182505
-0.784852,0.128830,0.749477,0.081550,0.474757,0.876331
0.224487,0.073113,-0.935097,0.085270,0.128209,0.988075
0.708902,-0.510306,0.644885,0.153205,-0.764280,0.626421
0.747594,0.131038,0.490313,0.086268,-0.544843,0.834089
-0.051039,0.420516,0.489951,0.907043,0.232524,-0.351008
-0.030403,-0.002136,0.738390,0.746023,0.504412,0.434763
-0.228452,0.834961,0.563409,-0.397703,0.875767,-0.273613
0.122502,0.226539,-0.940872,-0.113702,0.324888,0.938893
-0.496048,-0.793545,0.877445,0.772608,-0.612311,0.167785
0.297474,-0.277840,0.893020,0.971154,0.233595,-0.047896
-0.135254,0.797864,0.624056,0.221384,0.949700,0.221492
-0.721512,-0.743539,0.832126,0.980889,0.007445,-0.194423
-0.403999,-0.863419,0.196584,0.182818,0.460152,0.868814
0.158231,-0.783611,-0.127064,0.487462,0.873107,0.008024
-0.002700,-0.572789,0.588942,0.977541,0.170335,0.124099
0.807208,-0.483959,0.075404,-0.112976,-0.346879,0.931081
0.018700,-0.745555,0.886217,0.650360,0.740015,-0.171494
0.801522,-0.570822,0.075694,0.064022,-0.418784,0.905826
-0.203947,-0.015621,0.807794,-0.114558,0.979185,-0.167549
-0.287541,-0.409766,-0.487592,-0.563211,0.212906,0.798414
-0.070530,0.704811,0.580112,-0.647536,-0.628129,0.431453
0.918601,-0.254805,0.653932,-0.731871,0.668692,-0.131208
-0.241158,0.815285,0.699729,0.915413,-0.314967,0.250629
-0.217321,-0.534541,0.683619,0.697175,0.676265,0.237932
0.883253,-0.375117,0.515412,0.005159,-0.775287,0.631588
-0.040532,-0.605183,-0.882439,-0.199335,0.147688,-0.968738
-0.781271,-0.792921,0.830722,-0.648265,0.759593,0.052646
-0.069002,-0.467451,0.692332,-0.324410,0.916030,-0.235895
-0.725905,-0.862987,0.805739,-0.267057,-0.944431,-0.191654
-0.221047,-0.342340,-0.541422,-0.693474,0.567455,-0.443947
0.629894,-0.714889,0.647852,0.883841,0.196403,0.424559
0.183740,-0.314025,0.463304,-0.480742,0.863498,-0.152504
0.674700,-0.182771,0.694909,-0.307454,-0.937994,0.160123
-0.638635,-0.750690,-0.041650,-0.743799,0.459860,-0.485069
-0.792639,0.262052,0.629238,0.933995,0.249602,0.255640
-0.023668,0.128446,0.735813,-0.413100,0.523480,-0.745196
-0.219662,-0.740372,0.559747,-0.107395,0.970634,0.215259
0.384080,-0.572933,0.904918,0.733284,0.679704,-0.017247
0.669397,-0.301020,0.684994,0.505703,0.637510,-0.581245
0.015691,-0.163815,0.855198,-0.505850,-0.429450,0.748123
0.317443,-0.781020,0.863188,-0.642327,0.651624,0.403488
0.571615,0.053533,0.716432,0.402329,0.020197,-0.915272
-0.055436,0.310042,0.475824,0.843365,0.164716,-0.511473
-0.625308,-0.818068,0.830476,0.113274,-0.548184,-0.828652
-0.117962,-0.846671,0.877329,0.591381,0.385402,0.708332
-0.048937,-0.713881,0.914138,0.094211,-0.965696,-0.241981
-0.091069,-0.468650,-0.896276,0.048375,0.250935,0.966795
0.121499,0.781644,-0.979996,0.022789,0.290151,0.956710
-0.247461,-0.830210,0.033530,-0.696289,0.702114,-0.149058
0.582651,0.293389,0.529524,0.320209,0.068321,0.944880
0.241444,0.434289,0.689929,-0.298433,0.408878,-0.862413
-0.733214,-0.801752,0.876027,0.634573,0.730177,0.253294
-0.788817,-0.751314,0.439537,-0.784480,0.365776,-0.500798
0.140843,0.269538,0.672068,0.859930,-0.509929,-0.022180
0.647518,-0.433425,0.752386,0.105053,-0.875679,0.471329
-0.087679,-0.465627,0.710990,0.150545,-0.963428,0.221682
0.150494,0.096245,-0.935082,-0.063914,-0.018600,0.997782
-0.290168,-0.368446,0.376819,-0.737855,-0.664814,0.116589
-0.591631,-0.331590,0.808706,0.102191,0.930651,-0.351348
0.648760,-0.485687,0.467415,0.057984,-0.502925,0.862383
-0.291839,-0.551242,-0.500025,0.339116,0.213138,-0.916282
-0.151304,0.453965,0.716620,0.921989,-0.039242,0.385223
-0.084049,0.145339,0.629774,-0.023969,-0.754976,0.655314
-0.125175,-0.420468,-0.901227,0.071918,0.084210,0.993849
0.263608,0.158344,0.770103,0.557159,0.341892,0.756759
0.035132,0.337109,0.570299,0.342691,0.473577,-0.811350
0.098857,-0.541548,0.553566,-0.416657,0.298356,0.858709
0.613223,-0.612190,0.593704,-0.246699,-0.921785,0.299086
-0.455586,-0.425171,0.746249,0.814573,0.439706,0.378325
0.640020,-0.423587,0.644002,0.171995,0.197565,-0.965083
0.670067,-0.564343,0.806289,0.919316,0.370025,0.133935
0.416130,-0.807510,0.775574,0.904392,-0.317836,-0.284702
0.322411,-0.104259,0.798314,0.448050,0.856790,0.255270
-0.532017,-0.924847,0.338013,0.345332,-0.275530,0.897123
0.302156,-0.640024,0.795274,0.994031,0.095603,-0.052553
-0.268001,0.096533,0.836266,0.812658,-0.566293,-0.137476
-0.583843,-0.024403,0.500532,0.904202,0.381608,0.191817
0.084381,0.302412,-0.944751,0.093568,0.181791,0.978875
0.216557,-0.213149,0.888431,0.596721,0.666942,0.446221
-0.129426,-0.087175,0.834022,-0.111143,0.596339,-0.795002
0.157086,-0.788554,-0.151366,-0.366239,-0.924767,-0.103323
-0.619908,-0.827810,0.655915,0.850936,0.426627,0.306427
-0.097661,-0.219868,0.927266,-0.296619,-0.922582,0.246696
0.025292,-0.025459,0.550136,-0.908365,0.317001,-0.272734
-0.572761,-0.670834,0.620264,0.825048,-0.288842,0.485660
0.393153,-0.705387,0.708254,-0.670050,-0.088774,-0.736989
-0.414556,-0.566551,0.835252,0.853570,0.084776,0.514034
-0.601852,-0.123167,0.552567,0.282392,-0.923998,0.257840
-0.336548,-0.365567,0.900908,-0.830536,0.413609,0.373011
0.468677,-0.194241,0.599030,-0.626741,0.586003,-0.513612
0.105256,-0.739220,0.726492,-0.543630,0.548248,0.635524
-0.131767,-0.064907,0.760058,-0.307077,0.880682,-0.360697
-0.515967,-0.902052,0.694981,-0.033573,0.906445,0.420988
0.047074,0.038848,0.787168,-0.541938,0.839440,-0.040531
-0.154888,-0.745507,0.886550,0.773923,-0.286680,0.564675
0.211874,-0.852334,0.881035,-0.259422,0.965268,-0.030947
0.068570,0.270114,0.827451,0.507412,-0.838004,-0.200703
0.240298,-0.152490,0.483814,0.749827,-0.156170,-0.642938
0.677280,-0.394313,0.785591,0.795390,-0.605679,0.022534
0.148056,-0.766959,-0.124878,0.487462,0.873107,0.008024
-0.520457,-0.378140,0.793740,-0.259245,-0.965280,0.032025
0.035039,0.149802,-0.938368,0.181157,0.150774,0.971828
-0.705987,0.029538,0.699280,0.866836,-0.497389,0.034642
-0.821680,-0.893461,0.158690,-0.209854,-0.961213,0.178970
0.664332,-0.679856,0.869904,-0.450998,-0.890892,0.053961
-0.562207,-0.861788,0.569256,0.777892,-0.537184,0.326064
-0.206285,-0.599952,0.890820,0.790483,0.172305,0.587748
-0.070387,0.621356,0.382537,0.488127,0.028760,-0.872298
0.163963,0.124223,-0.929365,-0.016915,0.065580,0.997704
-0.279850,-0.166215,0.666105,0.403224,-0.320547,0.857123
0.306839,0.038752,0.666959,-0.394604,0.790979,-0.467589
0.690079,-0.307690,0.690016,0.832693,0.551838,0.045803
-0.681149,-0.877481,0.792929,-0.375571,-0.834254,-0.403690
-0.484199,-0.813461,0.159009,0.800443,-0.497757,-0.333960
0.560248,-0.591602,0.910201,-0.244765,-0.947272,-0.206797
-0.323749,-0.478920,-0.569358,-0.211370,-0.976179,0.048955
0.165063,0.686527,-0.976450,-0.052459,0.248623,0.967179
0.642550,-0.644535,0.682620,0.975569,-0.146757,-0.163488
-0.502448,-0.030882,0.568547,0.417955,0.330423,-0.846247
0.019082,0.614685,0.455589,-0.272272,0.857122,-0.437277
-0.026534,-0.713977,0.865200,0.855945,-0.445059,-0.263214
0.624255,0.029298,0.708283,-0.085465,-0.346852,0.934018
0.054622,0.734661,0.558444,0.599627,0.678885,0.423748
0.686642,-0.456557,0.730820,-0.497440,0.811918,-0.305520
-0.613223,-0.851614,0.714941,0.898804,0.337558,0.279654
0.745827,-0.401128,0.805421,-0.302854,-0.059975,-0.951148
0.026630,0.030786,0.550686,-0.795395,0.405047,-0.450869
-0.282191,0.119088,0.883771,-0.615800,0.687896,-0.384173
-0.172419,0.214685,0.843025,-0.005910,0.892010,0.451978
0.016791,0.046431,0.829144,0.719366,0.582910,-0.377794
0.043398,-0.505507,0.352488,0.940781,0.329385,0.080234
0.607395,-0.091254,0.678755,0.763786,0.640685,-0.078448
-0.304020,-0.484151,-0.692289,0.971338,-0.136206,0.194811
-0.760489,-0.484583,0.739360,0.952227,0.250441,0.174764
-0.268479,-0.379436,0.374026,-0.737855,-0.664814,0.116589
-0.255534,-0.825651,0.817492,0.896900,0.182147,0.402979
0.068427,0.303179,0.669014,0.858696,0.069836,-0.507705
-0.143138,0.559640,-0.957185,-0.021890,0.270923,0.962352
-0.448041,-0.457133,0.878140,-0.762894,0.624545,-0.167142
0.117152,-0.542268,0.884784,-0.129231,-0.971182,0.200261
-0.477371,-0.177013,0.474391,0.868212,0.428939,0.249440
-0.228688,-0.955753,0.800094,-0.705736,0.706191,-0.056836
-0.382310,-0.686767,0.443315,0.777404,0.251298,0.576621
-0.025627,0.110690,0.825583,-0.634468,-0.207621,0.744543
-0.774630,-0.316425,0.690089,0.925495,-0.374399,0.057305
-0.084670,-0.012549,0.849379,0.459435,-0.636936,0.619058
-0.004849,0.690414,0.493222,-0.241497,-0.845278,0.476638
-0.934223,-0.782460,0.496349,-0.371497,-0.912941,0.168903
-0.122884,-0.807127,0.220004,-0.437600,0.895284,-0.083497
0.363776,-0.622843,0.820633,0.782730,-0.392970,-0.482605
-0.190332,-0.009190,0.819056,0.194708,0.962265,-0.190089
-0.321886,-0.410006,-0.110925,0.543364,0.324598,-0.774204
0.692374,-0.712394,0.853027,-0.651459,-0.752233,-0.098721
-0.414410,-0.292957,0.440174,-0.675452,-0.734770,-0.062270
0.016598,-0.352849,0.504107,0.903215,0.429137,0.006617
0.319927,0.084679,0.665005,-0.502856,0.639133,-0.581932
-0.039336,0.863707,-0.985656,0.055606,0.325015,0.944073
0.110224,0.132621,-0.935763,0.251103,-0.125611,-0.959776
-0.007379,-0.869754,0.879616,0.053736,-0.937124,0.344834
0.536842,-0.109922,0.769712,0.257688,-0.863217,0.434111
0.119875,-0.215309,0.858715,0.115370,-0.939390,0.322855
0.315483,-0.393833,0.740445,-0.531300,0.578830,-0.618608
-0.773437,-0.835969,0.901618,0.854260,0.480178,-0.199170
0.629702,0.245015,0.532101,0.823102,0.179267,-0.538857
-0.135304,0.832609,0.681882,-0.320591,-0.861214,0.394375
0.211157,-0.471290,0.330458,-0.477344,0.516883,0.710616
-0.771047,-0.061404,0.802410,0.980389,0.127685,0.150116
0.439297,-0.760288,0.687194,-0.247910,0.849874,-0.465032
0.322268,-0.396089,0.936486,0.285070,-0.921046,0.265349
-0.197976,-0.115633,0.833313,0.141035,-0.902243,0.407512
0.566265,-0.432466,0.767570,-0.283426,-0.933522,0.219561
-0.032123,-0.356161,0.915122,0.231318,0.820873,0.522168
0.738422,-0.295741,0.417594,0.399443,0.901987,-0.163903
0.658746,-0.109346,0.749361,-0.018030,0.999753,-0.012959
-0.810598,-0.521152,0.844429,-0.356177,0.600096,0.716256
0.613794,-0.059148,0.667378,-0.302394,-0.913500,0.272169
-0.254485,-0.948746,0.819287,0.273653,-0.731362,0.624679
0.747544,0.147163,0.748580,0.973035,-0.230252,0.013660
-0.244263,0.759280,-0.977420,0.038966,0.377286,0.925277
0.527956,-0.480024,0.651949,0.925598,-0.360310,0.115953
-0.426209,-0.741860,-0.104903,-0.588896,-0.806562,0.051574
0.116959,-0.697277,0.056486,0.455259,0.821077,0.344342
-0.019753,0.298092,-0.944476,0.019015,0.215483,0.976322
0.329049,-0.491830,0.658390,0.551084,0.834168,-0.021691
0.646565,-0.617612,0.631800,0.837266,0.479600,0.262619
0.260981,-0.545387,0.725421,0.950761,0.074439,-0.300854
-0.088682,-0.415237,-0.679349,0.876239,0.085682,-0.474198
-0.121499,0.031410,0.893222,0.912455,-0.341790,-0.224955
-0.092311,-0.323047,0.744628,0.344211,0.135112,0.929120
-0.180013,0.823203,0.531710,-0.129663,-0.587929,0.798453
0.691942,-0.472681,0.459902,-0.192559,0.471315,-0.860688
0.613270,-0.580948,0.741574,0.993682,0.068293,-0.089060
-0.572333,-0.857037,-0.196830,-0.165737,-0.208130,0.963957
-0.654731,-0.220828,-0.563322,0.027937,-0.264467,0.963990
0.422294,-0.227642,0.725609,0.791734,-0.473054,-0.386494
0.180156,-0.193425,-0.915064,0.199172,0.216947,0.955649
0.378252,-0.671458,0.429419,-0.623352,0.756327,0.198497
-0.774533,-0.191650,0.727215,0.861508,0.424666,0.278323
-0.039194,-0.498308,0.633667,-0.123981,-0.959440,0.253188
-0.144808,-0.611950,0.907306,0.876385,0.009978,-0.481508
0.691657,-0.023059,0.772882,0.018393,-0.906265,0.422309
-0.255295,-0.267762,0.907986,-0.342921,0.236504,0.909105
0.453773,-0.634073,0.621741,0.415534,-0.551084,-0.723628
0.144426,-0.213965,-0.909955,-0.127708,-0.206517,-0.970073
-0.071964,0.685183,0.637836,0.530479,-0.691953,-0.489686
0.338793,-0.425459,0.354254,-0.271861,-0.335522,0.901952
-0.602523,-0.915777,0.712177,0.425612,0.845838,0.321579
-0.770618,-0.636569,0.824672,0.798734,0.522027,-0.299187
0.304305,-0.202256,0.888489,-0.475511,-0.776671,-0.413123
-0.521506,-0.368206,0.789542,0.365820,0.857937,0.360722
0.534119,-0.089478,0.802367,0.952590,-0.301744,-0.039015
0.230408,0.458716,0.689191,0.201959,-0.516468,0.832150
-0.568225,-0.528974,-0.558835,0.207907,0.482712,0.850743
-0.766699,-0.333845,0.689090,0.948602,-0.315568,0.023909
0.014735,-0.616077,0.841433,0.513308,0.818568,-0.257800
-0.394445,-0.987379,0.731268,0.227800,-0.972739,0.043421
-0.426830,-0.946491,0.624491,0.779634,0.624449,0.047258
-0.709473,-0.493221,0.545707,-0.702069,0.445989,-0.555152
0.031263,0.700156,-0.976002,0.046208,0.246873,0.967946
-0.102294,-0.030690,0.765992,-0.133326,0.917624,-0.374421
0.052185,0.308698,0.500792,-0.104853,-0.425536,0.898847
0.873845,-0.221212,0.455531,-0.285817,-0.848406,0.445551
-0.050946,-0.823875,-0.284733,-0.032952,0.798428,0.601188
-0.057681,-0.244583,0.737709,-0.885174,0.453357,-0.104573
-0.234327,-0.747810,0.576798,0.388237,0.869936,0.304109
-0.160380,0.087990,-0.925457,-0.014539,0.218269,0.975780
-0.172229,0.842400,0.660040,0.340884,0.909773,-0.236879
-0.635291,-0.888374,0.826915,-0.368753,-0.815498,0.446076
0.325516,0.185603,0.499084,0.513871,0.281376,-0.810410
-0.368983,-0.770750,-0.502935,0.080138,0.855835,0.511003
0.142899,-0.531662,0.928062,-0.478934,-0.869178,-0.123091
-0.105399,-0.220108,-0.906973,0.047644,0.167611,0.984701
-0.215315,0.014901,0.871221,0.602459,0.184632,-0.776501
0.606153,0.041536,0.733353,-0.641992,0.039990,0.765668
-0.130240,0.035057,0.783029,-0.047462,0.967241,0.249385
0.604529,0.132621,0.658375,0.131981,-0.667758,0.732585
0.482243,0.294397,0.448352,0.526320,0.483979,-0.699108
-0.286871,0.041632,0.842547,0.920708,-0.060220,0.385578
-0.000837,-0.639352,0.857659,-0.666582,0.723669,-0.178803
0.374812,0.229178,0.427928,-0.396421,-0.261535,0.880028
-0.289736,-0.054877,0.851001,0.812561,-0.320540,0.486825
0.094414,0.077481,-0.931782,-0.001328,0.220444,0.975399
-0.158995,-0.948554,-0.038437,0.176942,-0.808283,0.561578
0.078171,0.043407,0.766021,-0.283347,0.555277,-0.781909
-0.107073,-0.466347,0.717894,-0.201647,-0.971786,-0.122356
-0.246219,-0.417540,0.848699,-0.022529,-0.976445,0.214588
-0.210968,0.647654,-0.963814,0.106751,0.214692,0.970830
0.150826,-0.851326,0.684907,0.254635,0.885798,0.387973
-0.530964,-0.403143,0.789209,0.108685,0.763284,0.636855
0.655973,-0.461500,0.785735,0.916571,0.134004,0.376750
-0.157514,-0.503875,-0.113704,-0.224123,-0.508243,0.831540
0.522081,-0.474169,-0.534185,-0.592269,-0.443888,0.672444
-0.465237,-0.851758,0.801238,-0.395100,-0.786739,-0.474276
0.416227,-0.694781,0.618947,-0.312391,0.490353,0.813613
0.045546,0.332358,0.502095,0.521908,0.430074,-0.736647
0.158995,-0.137373,0.885377,0.264586,0.716706,-0.645234
-0.760728,-0.399352,0.828102,0.772046,0.272186,0.574334
0.195778,0.234889,0.786503,0.242603,-0.891737,0.382033
-0.528098,-0.409286,0.529915,0.291108,-0.413229,0.862843
-0.722897,-0.516257,0.707024,0.789049,0.613883,0.023415
0.706561,-0.343491,0.804190,0.920259,-0.238783,-0.310011
0.027109,0.153689,0.557764,-0.153765,-0.007499,0.988079
-0.010341,-0.511890,0.269188,0.362337,0.932007,0.008674
-0.167261,-0.064475,0.583991,-0.499662,0.335213,-0.798730
-0.837541,-0.897924,-0.130176,0.100187,0.994940,-0.007559
-0.039240,0.688158,0.566622,0.445359,0.829401,0.337268
-0.594832,-0.840096,-0.069701,-0.119999,0.272436,-0.954662
0.619480,-0.087319,0.699381,0.956801,-0.172742,-0.233862
0.721704,-0.516929,0.781523,0.448168,-0.877184,-0.172316
-0.780122,-0.776797,0.876186,0.956571,-0.123424,0.264080
0.630084,-0.655429,0.598784,-0.461200,-0.811105,0.359727
0.210871,-0.214877,0.897188,0.768061,0.635301,0.080464
-0.729107,0.118656,0.768033,0.733910,0.471974,-0.488484
-0.485156,-0.702364,0.778469,0.826782,0.519314,-0.216206
-0.719791,-0.849790,0.901256,0.466997,0.806880,0.361744
0.489074,-0.177397,0.607570,-0.616375,0.478245,0.625590
-0.278751,-0.389466,0.931087,0.913776,0.066691,-0.400707
0.120971,0.614157,0.404234,-0.254961,-0.807954,0.531230
0.161144,-0.409670,0.837728,-0.403683,-0.897422,0.177971
0.085241,-0.706731,0.874985,0.377370,0.211701,0.901540
0.627171,-0.370750,0.475375,-0.256191,-0.115861,0.959657
0.059494,0.175189,0.652846,0.595760,-0.038449,-0.802241
0.267094,-0.569622,0.916048,0.622766,0.073638,-0.778935
-0.699540,0.181476,0.724263,0.781644,0.055602,0.621241
0.189853,-0.528830,0.842649,0.936494,-0.264744,0.229975
-0.791204,-0.504307,0.755556,0.946770,0.251356,0.201112
-0.750699,-0.763071,0.866141,0.866331,-0.207379,0.454384
-0.450857,-0.060828,0.569676,-0.718949,-0.416333,0.556578
-0.239581,-0.843311,0.333990,0.055333,0.996540,-0.062024
-0.803482,-0.550810,0.839262,0.954382,0.274070,-0.118490
0.177483,-0.551386,0.925298,0.309307,0.889655,0.335920
-0.181591,-0.803767,0.888952,0.952775,0.303295,0.015261
-0.546300,-0.762016,0.833023,-0.487974,0.205342,0.848361
-0.135829,-0.370654,0.831851,0.335337,-0.937912,-0.088716
-0.020420,-0.776365,0.897246,0.564561,0.098598,0.819481
-0.072439,0.693869,0.572585,0.326116,0.615193,-0.717764
-0.510092,-0.400552,0.850972,0.935014,0.250707,-0.250787
-0.275071,-0.248758,-0.143506,-0.491445,0.790882,-0.364673
0.505313,0.188530,0.524053,-0.434429,0.777071,-0.455448
-0.420670,-0.841824,0.737188,0.411865,0.905702,-0.100357
-0.427930,-0.321080,0.744281,0.863450,-0.070533,0.499479
-0.259642,-0.411926,0.972585,0.772669,-0.632429,-0.054929
-0.038333,-0.482376,0.678509,0.101775,-0.973288,0.205796
-0.058923,0.369886,-0.946561,0.060414,0.191072,0.979715
0.033843,-0.000408,0.554000,0.881765,-0.235233,0.408848
0.127709,-0.133629,0.601534,-0.459852,-0.647546,0.607635
-0.328382,-0.952250,0.062942,0.449911,-0.893067,-0.003472
0.333589,0.014517,0.505960,-0.656994,0.575376,0.487136
-0.023144,-0.296557,0.846166,-0.557187,0.616199,-0.556634
-0.707849,-0.717001,0.818954,-0.683014,-0.634196,-0.362337
0.131339,0.260804,0.669057,0.853592,-0.426473,-0.299168
-0.387853,0.035393,0.701191,0.917812,-0.204499,0.340297
0.784423,-0.587187,0.602316,-0.636773,0.746490,-0.193062
-0.361149,-0.313641,0.409054,-0.329059,-0.928465,0.172259
0.467100,0.157193,0.505337,-0.568585,0.728389,-0.382310
0.182355,0.306587,-0.946633,-0.080006,0.144634,0.986245
-0.165252,-0.558776,0.877720,0.936740,0.192046,0.292638
0.629798,-0.715561,0.650762,0.883841,0.196403,0.424559
-0.043733,-0.814037,0.843633,0.531685,0.795956,0.289424
0.046788,-0.718248,0.874710,0.194886,0.603262,0.773366
0.124365,-0.348626,-0.735191,0.173942,-0.938578,-0.298021
-0.655020,-0.624811,0.654511,-0.426413,0.495158,-0.756961
-0.377631,-0.296797,-0.121201,0.935484,0.209388,0.284651
0.524229,0.024403,0.639240,-0.009783,-0.569976,0.821603
-0.024196,0.620684,-0.968272,0.039954,0.245820,0.968492
0.708042,-0.415381,0.464881,-0.246830,0.292501,-0.923860
0.495045,-0.510786,0.681361,-0.280083,0.901457,0.330044
0.839786,-0.564583,0.062927,0.702010,0.636180,-0.320089
-0.469298,-0.885447,0.867747,0.888411,0.327721,0.321443
0.063556,-0.549706,0.196627,-0.288105,-0.948373,0.132604
-0.534501,-0.901188,0.570863,-0.715276,0.679878,-0.161694
-0.285914,-0.025171,0.849249,0.894766,0.025120,-0.445827
-0.268718,-0.035729,0.715433,0.437076,0.218692,-0.872433
-0.614894,-0.425267,0.564422,0.895943,-0.162318,0.413447
0.218277,0.150858,0.740358,0.111704,0.937626,-0.329211
0.286917,-0.140924,0.682808,0.545466,-0.434431,-0.716754
0.648139,-0.424307,0.758408,0.078638,-0.953609,0.290595
-0.233656,-0.748338,-0.341400,-0.577071,0.760129,0.298651
0.679333,-0.453341,0.070628,-0.137374,0.480647,-0.866087
0.356852,-0.276065,0.706546,-0.671674,0.617251,0.409701
0.590435,0.189010,0.538513,-0.305154,-0.180622,0.935017
0.327186,-0.635177,0.473320,0.089685,-0.860188,0.502028
-0.148106,-0.288926,-0.534185,0.471832,0.428356,-0.770640
-0.712007,-0.519184,0.823543,-0.084360,-0.943432,0.320654
-0.062028,-0.202448,-0.908710,-0.017226,0.226700,0.973812
-0.158185,0.492501,0.710469,-0.487163,0.799092,-0.352313
-0.717689,-0.456077,0.611406,0.726025,0.616205,-0.305254
0.194297,-0.462843,0.740431,0.838127,0.545357,0.011367
0.519786,0.046671,0.627487,0.029385,-0.549096,0.835243
-0.056771,0.136077,0.452506,0.193190,-0.582219,0.789746
0.032601,-0.666275,0.834644,-0.430357,-0.876363,0.216290
-0.302824,-0.331014,0.917206,-0.253530,-0.123123,0.959460
-0.052424,0.426995,0.502964,0.927447,0.262555,-0.266284
0.019560,-0.743587,0.607556,0.519102,0.792999,-0.318881
-0.104396,0.375069,0.762634,0.277315,0.502930,-0.818632
-0.383363,0.293485,0.611029,0.223371,0.944805,-0.239687
0.941771,-0.280624,0.594037,-0.775101,0.590080,0.225884
-0.361149,0.055261,0.729937,0.015040,-0.213909,0.976738
0.020563,-0.002903,0.564451,0.880824,-0.258995,0.396321
-0.717165,-0.727702,0.870454,0.988878,-0.115706,0.093453
0.483960,-0.539916,0.688583,-0.537128,-0.164105,0.827383
0.271441,-0.248230,0.888156,0.796354,0.574231,0.189945
-0.104539,0.820804,0.654395,0.764316,0.643245,-0.045349
0.547635,-0.178692,0.808808,0.836957,0.145408,0.527598
-0.166544,-0.370270,0.812137,-0.555751,0.276706,0.783948
-0.720509,-0.024403,0.667291,0.559566,-0.718232,0.413556
-0.619576,-0.739316,-0.048496,-0.576751,0.407837,-0.707832
-0.048555,-0.615549,-0.712466,0.537428,0.256622,-0.803316
-0.167975,0.936653,0.639834,0.877993,0.219658,0.425299
0.512384,-0.560264,-0.553117,0.687366,0.375776,-0.621547
0.657408,-0.453485,0.095900,-0.085476,-0.545506,0.833737
-0.288637,0.469994,0.712596,-0.438595,0.792443,0.423873
-0.130001,-0.337924,0.859613,0.954416,0.296421,-0.034989
-0.741958,-0.534061,0.714145,0.768455,0.638661,-0.039856
0.652822,-0.640984,0.705185,0.990259,0.094825,-0.101962
0.578639,0.215693,0.526962,0.593038,0.089410,0.800195
-0.668536,-0.720984,0.878082,0.957831,-0.260029,0.122253
-0.670210,-0.226971,0.701654,0.964164,-0.092318,0.248727
-0.027394,0.867498,-0.992198,0.055606,0.325015,0.944073
0.497765,-0.202064,0.808417,-0.208769,-0.976387,-0.055538
-0.469727,-0.956905,0.763257,0.318433,-0.912935,0.255246
-0.551982,-0.885879,-0.194326,0.045782,0.224412,-0.973418
0.035039,-0.158872,0.844994,-0.291104,-0.437692,0.850696
-0.062410,-0.827235,0.872133,0.153355,0.243435,0.957717
0.716975,-0.545723,0.018925,-0.245208,-0.356748,0.901445
0.624162,-0.570822,0.654308,0.955610,-0.291919,-0.039923
-0.536842,-0.280528,0.757018,0.706445,0.540471,-0.456976
0.193533,-0.761872,0.656740,0.332938,0.804258,0.492262
-0.576298,-0.860300,-0.078965,-0.077660,-0.395254,0.915283
-0.422244,-0.231626,0.451247,-0.321138,-0.894304,0.311595
0.862093,-0.157001,0.757351,0.624917,0.780290,-0.025027
-0.425399,-0.923023,0.861205,-0.665808,-0.268358,-0.696193
0.777638,-0.578116,-0.267248,-0.801148,-0.457511,-0.385806
-0.589339,-0.348434,0.545475,-0.385403,0.076733,-0.919552
-0.175716,0.029586,0.797561,0.383426,-0.885485,-0.262489
0.713963,-0.492406,0.648822,0.203533,0.740438,-0.640567
-0.323175,-0.571158,-0.350100,0.759503,-0.516287,-0.395731
-0.271584,-0.699292,-0.480659,0.675103,-0.572029,-0.465852
-0.298477,0.021476,0.730472,0.148746,-0.464416,0.873036
-0.124554,-0.293341,0.871540,-0.387854,0.812749,-0.434750
0.385990,-0.547594,0.643973,-0.112068,-0.781286,0.614030
0.165587,-0.395225,0.761346,0.991775,-0.097841,0.082521
-0.002793,-0.403719,-0.741487,-0.220652,0.746821,-0.627353
0.092836,0.094949,0.415292,-0.121143,-0.398159,0.909282
0.449997,-0.091206,0.792206,-0.279570,-0.955006,-0.099021
0.680957,-0.697469,0.847136,0.290138,0.932826,0.213674
-0.686499,0.007606,0.774417,0.990624,-0.023580,-0.134566
-0.151258,-0.727223,0.892310,-0.345118,-0.281879,0.895231
-0.356517,-0.503107,0.940800,0.296653,-0.930609,0.214393
-0.602952,-0.782507,-0.058238,0.351405,-0.471937,0.808573
-0.236476,0.092693,0.817536,0.494240,0.168470,0.852845
-0.217274,-0.479688,-0.115137,0.300646,0.522699,-0.797746
0.292031,0.098500,0.724306,-0.468656,-0.663032,0.583737
0.787624,-0.523647,0.810096,-0.506051,0.371683,0.778308
-0.065133,-0.562040,-0.725059,0.801521,0.232272,0.551011
-0.572429,-0.543899,-0.084017,0.936168,-0.116186,0.331798
0.084192,0.235657,0.818549,0.729083,0.436699,0.527003
-0.232271,-0.392969,0.957908,-0.656061,0.508414,0.557763
-0.195967,0.922400,-0.971717,0.992984,-0.090839,-0.075703
-0.510760,-0.913569,-0.198133,-0.063048,0.223158,-0.972741
0.882825,-0.224379,0.724031,-0.621938,-0.647300,0.440677
-0.519261,-0.349970,0.822023,-0.302479,-0.945466,-0.120832
-0.627982,-0.776701,0.624245,0.885325,-0.196765,0.421287
-0.678758,-0.660036,0.299787,-0.751568,0.654579,0.081680
0.155794,-0.736197,0.720774,-0.009436,-0.381680,0.924246
-0.015406,-0.048638,0.569922,0.638577,-0.433403,0.635910
-0.268479,-0.098356,0.709340,0.904100,0.197850,-0.378760
0.026441,-0.532909,0.418259,-0.101774,0.943985,0.313901
0.052570,0.292430,0.776414,0.626790,0.643739,-0.439016
-0.625736,-0.290414,0.832517,0.300774,0.837284,-0.456608
-0.213595,0.879832,0.676020,0.217145,0.918351,0.330876
0.124793,-0.374301,-0.734207,0.162331,-0.912953,-0.374388
-0.425446,-0.342148,0.808634,0.627837,0.718728,-0.298749
-0.254150,-0.757552,0.781885,0.910312,-0.261391,0.320947
0.376482,0.124367,0.537239,-0.411967,-0.582704,0.700528
0.432755,-0.213053,0.845500,0.347950,-0.456791,0.818702
0.067232,-0.163863,0.876924,-0.092222,-0.980812,0.171763
0.212638,-0.518272,0.383695,-0.315210,0.909527,-0.270929
-0.798132,-0.581908,0.815017,-0.702414,-0.321298,-0.635124
-0.164442,0.408710,0.634999,-0.371425,0.917968,0.139202
-0.521842,-0.141212,0.487621,0.903116,0.317583,0.289003
0.304402,-0.833185,0.868833,0.285504,0.139671,-0.948145
0.288687,-0.323095,0.683271,-0.681071,-0.298509,0.668607
0.804485,-0.199280,0.698527,0.836358,0.214249,-0.504581
-0.293894,-0.347714,0.902877,0.012847,-0.473026,0.880955
0.677755,-0.669682,0.885189,-0.306488,-0.944481,0.118407
-0.792161,-0.389370,0.802801,0.852427,0.416293,-0.316336
0.401465,0.041104,0.498390,-0.643455,0.649224,0.405553
-0.728917,-0.513617,0.705996,0.789049,0.613883,0.023415
0.017030,-0.199184,-0.905598,0.003013,0.198433,0.980110
-0.405145,-0.248422,0.445471,-0.257830,-0.899971,0.351533
-0.532206,-0.863803,0.560340,0.792308,-0.485152,0.369966
-0.100909,0.841200,-0.986669,0.056855,0.275838,0.959521
0.065037,-0.446671,-0.892325,-0.261043,0.436365,0.861070
-0.129283,0.569286,-0.963264,-0.031296,0.266929,0.963208
-0.449569,0.150954,0.756975,0.995249,0.084178,0.048922
0.063459,0.124991,-0.938802,0.037086,0.196365,0.979829
0.502066,0.355105,0.526919,-0.185288,0.090714,-0.978488
-0.550408,-0.439808,-0.553914,0.058895,-0.139105,0.988525
-0.156989,-0.515729,-0.405869,0.919330,0.250493,0.303455
0.161337,-0.212669,0.594398,-0.392208,-0.743357,0.541843
-0.299005,-0.257013,0.439986,-0.320081,-0.804215,0.500786
-0.359097,-0.976629,0.850422,0.600154,-0.719126,-0.350246
-0.130861,0.029538,0.892310,0.892196,-0.206978,-0.401431
0.198979,-0.807031,0.300076,-0.826687,-0.291370,0.481344
0.055768,-0.496581,0.301031,0.977409,0.173846,-0.120207
0.009817,-0.530222,0.563742,0.884611,0.288386,0.366466
-0.817669,-0.018932,0.792379,0.927308,0.327564,-0.181113
0.134012,-0.460828,0.905395,0.830563,0.037677,-0.555649
0.164920,0.221404,0.794623,-0.263986,0.799711,-0.539234
-0.165637,0.391338,0.696342,-0.148223,-0.563306,0.812845
-0.232750,0.891541,0.669390,0.917840,-0.396240,-0.023728
0.676610,0.020564,0.620901,-0.095592,-0.434608,0.895532
-0.162771,-0.719544,-0.135372,0.287398,-0.550680,0.783680
0.960352,-0.244679,0.585453,-0.692344,0.655866,0.300832
0.559816,-0.227499,0.796895,-0.343050,-0.730371,0.590657
0.304163,-0.675249,0.446181,0.452745,-0.802653,0.388292
-0.771047,-0.460924,0.632148,0.871829,0.408662,0.270016
0.643792,0.062891,0.717503,0.278186,-0.565474,-0.776435
0.660320,-0.606863,0.836005,0.713389,0.031101,0.700078
0.477368,0.218572,0.456950,0.886445,-0.151807,-0.437231
-0.236379,-0.449934,-0.105280,-0.215105,-0.314287,0.924637
-0.041057,0.190450,0.831214,-0.262952,0.633438,0.727745
-0.318781,-0.918320,0.760695,-0.489474,-0.049171,0.870630
0.308556,-0.495525,0.888895,-0.692973,0.498740,0.520622
0.603765,-0.693821,0.060843,0.863155,-0.128002,-0.488446
0.404045,0.099268,0.519175,0.501566,0.535713,-0.679296
-0.049893,-0.617996,0.480166,-0.803602,0.298498,-0.514901
0.049319,-0.474025,0.502747,0.997467,-0.065930,-0.026718
0.295804,-0.601392,-0.130349,0.327308,-0.214078,0.920348
-0.351406,0.423923,0.627400,0.021853,-0.972624,-0.231357
0.263943,-0.841392,0.317098,0.638060,0.566826,-0.521141
0.077168,-0.564103,0.179649,-0.689972,-0.716207,-0.104816
0.431798,-0.495477,0.866257,-0.740497,0.521027,-0.424494
0.492893,-0.521536,0.615661,0.869227,-0.413805,0.270575
0.324941,0.407079,0.566810,0.896892,0.375732,0.233261
0.202131,-0.788362,-0.091789,0.347032,-0.935752,0.062741
0.013257,0.161320,-0.935792,-0.196921,-0.158311,-0.967554
0.743008,-0.399352,0.653020,0.526470,-0.120124,-0.841665
-0.124315,-0.269826,0.758726,-0.181598,0.742439,-0.644830
-0.916167,0.037504,0.771145,0.206995,-0.819728,0.534041
0.033797,0.808998,-0.984324,0.114091,0.296088,0.948322
0.175142,0.447343,-0.954044,0.042088,0.199871,0.978918
-0.314291,-0.060300,0.666843,0.988235,0.137410,0.067161
-0.062314,0.348722,0.753255,-0.083146,-0.731843,0.676382
0.129954,0.296125,0.587480,0.657433,0.199886,-0.726517
-0.854737,-0.576437,0.830794,0.935234,0.115911,0.334517
0.683059,0.023971,0.637749,0.046193,-0.496664,0.866713
-0.677184,0.105267,0.674543,0.813217,-0.286706,0.506436
0.044258,0.032130,0.557185,-0.795395,0.405047,-0.450869
0.370225,-0.285711,0.581531,-0.458222,0.869064,-0.186443
