0.112532,-0.449738,0.585345,0.493190,0.163877,0.854346
-0.115096,-0.173442,0.670075,0.743917,-0.632717,-0.215075
0.043275,0.047031,0.195668,0.699142,-0.579490,0.418798
-0.377081,-0.108127,0.542772,-0.447142,-0.666604,-0.596409
0.402344,0.340776,0.731070,0.347904,-0.118837,-0.929968
0.663007,-0.086018,0.688466,-0.470041,0.099509,0.877018
0.452323,-0.220033,0.660903,0.778942,-0.626775,-0.020068
-0.174948,-0.181442,0.343563,0.509568,-0.858322,0.060204
-0.213152,-0.564942,0.541703,-0.522560,0.681425,-0.512436
0.145062,-0.521252,-0.144243,0.289000,0.325040,-0.900460
-0.098890,-0.355500,0.646021,-0.499630,-0.601105,0.623733
-0.347117,-0.437782,0.369898,-0.149017,0.357650,0.921890
-0.002779,-0.077711,-0.898777,0.651425,-0.756084,0.063109
0.415636,0.452595,0.278931,-0.560070,-0.815333,0.146812
0.295972,-0.202408,0.312188,-0.171589,0.502814,0.847193
-0.297876,0.269439,0.031774,-0.643945,0.071021,0.761769
0.016148,0.206716,-0.121704,0.411531,0.043973,0.910334
-0.163639,0.215859,0.305871,0.198269,-0.016028,0.980016
0.632926,-0.279767,0.075511,0.728568,0.605040,0.321116
0.178252,0.272603,0.752827,0.980824,0.051703,0.187910
0.429005,0.221573,0.612923,0.408898,-0.296359,-0.863119
0.257652,0.354886,0.347471,0.595449,-0.096557,0.797569
0.465110,0.207815,-0.225671,-0.015784,0.327526,0.944710
-0.024154,-0.636939,0.548068,-0.592336,0.149313,0.791735
0.467752,-0.373961,0.319589,-0.440570,-0.505428,-0.741917
-0.143662,-0.660454,0.557941,0.917476,0.348916,-0.191040
0.164221,-0.501648,0.299204,0.559149,-0.413175,-0.718776
-0.205728,0.551712,0.390378,0.835682,0.152525,-0.527609
-0.760867,-0.055030,-0.277415,-0.391747,0.485309,0.781671
-0.365617,-0.586612,0.617900,0.240027,0.364235,0.899844
-0.068265,0.338754,0.524827,0.953985,-0.025658,-0.298753
-0.118556,0.148916,0.299029,0.096745,-0.334781,0.937317
-0.025630,0.297482,0.793725,-0.691668,0.722131,-0.011065
-0.250150,0.221573,0.178122,0.188558,0.914574,0.357773
-0.381278,0.110677,-0.255068,-0.015113,0.342269,0.939481
-0.346495,-0.625203,0.608601,-0.606870,0.552487,-0.571373
-0.572958,0.232342,0.242324,-0.382779,-0.552599,0.740348
0.437943,-0.455759,0.137463,-0.047122,0.436384,0.898526
-0.557334,-0.023516,-0.242850,-0.276105,0.441782,0.853578
0.026603,0.539669,-0.120428,0.943701,0.329178,0.032710
0.121082,0.059778,-0.878089,-0.485375,0.819810,-0.303847
-0.619556,-0.127907,-0.207870,-0.323447,0.206872,0.923356
-0.002895,0.167905,0.304165,0.161643,-0.967273,0.195586
-0.308681,-0.051910,0.615427,0.023497,0.384111,0.922988
0.103632,-0.628676,-0.151213,-0.245580,0.293847,-0.923767
-0.110706,-0.173046,0.674094,-0.701276,0.677289,0.222465
0.197801,0.080655,0.078717,-0.559137,-0.790331,0.250484
0.114980,-0.024263,0.323768,0.920754,-0.313194,-0.232641
-0.468452,0.527538,-0.459653,-0.257627,-0.153313,0.954004
0.516177,-0.091073,0.691209,-0.146551,0.152985,0.977302
0.231068,-0.101227,-0.185571,0.378506,0.358482,0.853361
-0.255280,0.206760,0.721994,0.617034,-0.537232,-0.575023
-0.293912,0.135204,0.582186,0.129033,-0.801565,0.583819
0.532772,0.364863,0.606336,0.108771,-0.337578,0.934992
0.380114,-0.663487,0.092562,0.046502,0.255646,0.965651
0.113077,0.098062,0.349433,-0.763728,0.487548,-0.423103
-0.508366,-0.090632,0.334056,-0.042818,-0.340732,0.939185
0.095626,0.190673,-0.987766,0.126512,0.193778,0.972854
0.454577,0.271593,0.742826,0.461410,0.184087,-0.867878
0.388625,-0.318403,0.718055,0.361955,0.437988,0.822894
-0.142729,0.385654,0.918667,0.260394,0.934118,-0.244167
0.290220,-0.232165,-0.166733,0.411001,-0.009095,-0.911589
-0.203357,-0.348996,0.576492,0.408454,0.869901,-0.276473
0.051554,-0.004396,0.102069,0.969776,0.114733,-0.215338
0.496939,0.040174,0.573222,0.316471,-0.722117,0.615136
-0.466352,-0.076217,-0.209242,0.281505,-0.458635,-0.842858
-0.316881,0.442487,0.353022,0.583401,0.267707,0.766796
0.190106,-0.207683,0.677635,0.585310,0.089936,-0.805806
-0.189638,0.226276,0.577433,-0.485106,0.845828,-0.221918
-0.348711,0.406313,0.685659,-0.558437,0.696676,0.450322
-0.591302,-0.165531,-0.201921,0.398848,0.235429,-0.886281
0.014710,-0.395983,0.611631,-0.652965,-0.602334,0.459162
-0.462312,0.140478,0.340788,0.040522,0.994133,-0.100285
0.065273,0.264912,0.805178,-0.500126,0.761683,0.411962
-0.343892,-0.451012,0.374747,-0.149017,0.357650,0.921890
-0.454227,0.143818,0.323497,0.156619,0.986785,-0.041551
0.504829,0.316777,-0.620691,-0.061392,0.003778,0.998107
-0.484192,-0.547185,0.108848,-0.104638,0.321213,0.941208
0.064184,-0.503451,0.604469,0.793343,-0.032494,0.607907
-0.705291,-0.189882,0.158167,0.124148,-0.694234,0.708961
-0.093721,-0.224605,0.524046,-0.111486,0.600838,0.791558
-0.092127,-0.329656,0.642416,-0.556505,-0.647012,0.521226
0.444784,-0.030460,0.666582,0.745790,0.466873,-0.475212
-0.314782,-0.237703,0.627726,0.932228,0.211437,0.293675
0.348555,-0.392905,0.098560,-0.239435,0.966989,-0.087196
0.517771,0.146982,-0.625365,-0.139396,-0.281421,0.949406
-0.654650,-0.050811,-0.415996,0.575579,-0.667494,-0.472399
0.110356,-0.189969,0.377283,-0.365586,0.762083,0.534394
-0.619556,-0.124434,0.335205,-0.106800,-0.512671,0.851917
0.238647,0.346623,0.725328,-0.558737,-0.768870,0.310890
-0.444083,0.608809,-0.107444,-0.417249,-0.908791,-0.001382
0.277433,0.582656,0.735106,0.387445,-0.196463,0.900716
-0.133402,0.096875,0.832740,0.611326,0.759597,0.222018
0.218709,0.108611,-0.306111,-0.209728,0.977757,0.002136
0.123143,0.122281,0.670426,0.518545,0.544487,-0.659276
-0.547735,-0.348029,0.080790,0.034060,-0.123415,0.991770
0.481199,0.020219,0.055285,-0.462420,0.129994,0.877080
0.098463,-0.820622,0.328777,0.925141,-0.084393,-0.370123
0.214278,0.637466,0.723861,-0.143141,-0.296416,0.944271
-0.116612,0.396950,0.962181,-0.450140,0.892058,-0.040073
0.075921,-0.554701,0.300863,-0.573967,0.619168,0.535904
-0.350343,0.608105,0.371222,-0.093759,-0.837718,0.537994
0.093177,-0.851962,0.126410,-0.063458,0.290147,0.954876
0.242145,-0.432860,0.628188,-0.685885,0.239685,0.687105
-0.653990,0.204738,0.221348,-0.054612,-0.952612,-0.299246
0.147199,0.459979,-0.160528,-0.286702,0.392882,0.873754
0.273275,-0.439848,0.625955,0.630429,-0.352842,-0.691421
0.112221,0.314623,0.888233,0.955764,0.017261,0.293627
-0.180077,0.282493,0.858469,0.734996,0.022723,0.677690
0.137560,0.372336,0.878774,-0.576250,0.307791,-0.757100
0.387614,-0.167772,0.117940,-0.445607,-0.187934,-0.875280
-0.360914,-0.622917,0.627853,0.579081,-0.315353,0.751810
0.401605,0.651311,0.758378,-0.256318,0.498912,0.827881
0.117935,0.033801,-0.469574,0.998466,0.008178,-0.054766
0.208333,0.330974,0.746383,-0.492518,-0.107916,-0.863586
0.063252,-0.213002,0.107237,0.529964,0.065895,-0.845456
-0.041799,0.441827,0.866620,-0.596611,0.635158,0.490540
-0.367482,0.553690,0.733495,0.267331,-0.461684,0.845803
0.237715,0.428948,0.684542,0.868750,0.107343,-0.483477
0.241795,-0.612105,0.352400,-0.507519,0.094835,0.856406
0.194730,0.297306,0.740832,-0.531425,0.064313,-0.844661
-0.673656,0.234056,-0.042062,0.310899,-0.175007,-0.934192
0.297643,-0.481121,0.646484,0.674271,-0.335529,-0.657860
0.318941,-0.381170,-0.162235,-0.064703,-0.124341,0.990128
-0.604205,-0.138939,-0.200613,-0.197314,0.186760,0.962387
-0.632265,-0.102413,0.330866,-0.294212,-0.656291,0.694781
0.023998,-0.007077,-0.987399,0.015737,-0.103415,0.994514
0.443306,0.376160,0.776977,-0.651411,-0.116022,0.749802
0.222441,-0.197309,-0.174677,0.611938,0.418059,0.671386
0.060454,0.003253,0.348380,0.454352,-0.642984,0.616552
-0.285983,-0.025888,0.422822,-0.054049,-0.868032,0.493557
0.352519,-0.565865,0.545803,0.577073,-0.225614,-0.784911
-0.219681,-0.337787,-0.179956,-0.371487,0.435738,0.819835
-0.204368,-0.315019,0.603145,-0.747194,-0.642326,0.170640
-0.737899,0.202892,-0.290511,-0.330866,0.403861,0.852892
-0.571792,0.097930,0.536663,0.010302,-0.170147,0.985365
-0.487573,-0.214628,0.578374,-0.192764,-0.139353,-0.971300
-0.053070,0.441344,0.907741,-0.667866,0.670359,-0.323380
-0.141058,0.022109,0.575678,0.044942,0.988914,0.141528
0.212180,-0.661289,0.098767,0.093569,0.500566,0.860627
0.307359,-0.070545,0.385657,-0.792611,-0.202936,0.574964
0.035503,-0.815919,0.270285,0.502559,0.186713,-0.844140
-0.106119,0.211419,0.532898,-0.520316,-0.850683,-0.074892
-0.049144,0.224122,0.664077,0.829756,-0.556009,0.048569
-0.233555,-0.445870,0.633229,-0.086082,-0.665950,0.741013
0.516372,-0.225968,0.698914,-0.495263,0.479478,0.724441
0.238375,0.235858,0.140925,-0.521760,-0.345668,0.779923
-0.474436,0.054680,0.514603,-0.624285,-0.421646,0.657634
0.304910,-0.183288,-0.160512,0.911938,-0.326420,-0.248636
0.045141,-0.560106,0.057183,-0.713497,0.033214,0.699870
0.276617,-0.329480,-0.167483,-0.374240,0.016693,0.927182
-0.095121,-0.191376,0.704034,-0.742034,0.297282,0.600841
0.601951,-0.203728,0.041249,0.298228,0.499324,0.813471
0.592274,-0.652719,0.055939,0.159763,0.179475,0.970703
0.070170,0.210803,-0.990988,0.009635,0.224620,0.974399
-0.231573,0.132961,0.907167,-0.744397,0.595778,-0.301532
-0.412681,-0.230846,0.596111,-0.583764,-0.806195,-0.096277
-0.634558,-0.085447,-0.214920,-0.196131,0.607843,0.769454
-0.562776,0.439892,-0.353054,0.392355,0.914617,-0.097635
-0.376420,-0.640674,0.112963,-0.148567,0.234488,0.960699
-0.514156,0.097534,0.642161,0.792023,-0.421907,0.441242
0.819747,-0.112258,-0.150958,-0.276349,0.286688,0.917301
0.467441,0.186673,0.625189,-0.178242,0.882801,0.434617
0.243194,0.118501,0.784298,0.241409,-0.964454,-0.107475
0.107208,-0.535141,0.274512,-0.493515,0.536998,0.684161
-0.431453,0.512725,0.152074,-0.458210,-0.328025,0.826101
-0.089135,-0.412245,0.620436,0.196263,0.837821,0.509448
-0.528264,-0.365741,0.190835,0.044392,0.546042,0.836581
-0.085637,0.419454,-0.212464,0.379455,0.385114,0.841250
-0.097335,0.292779,0.809787,0.136767,-0.962182,0.235585
-0.289675,0.342534,-0.015440,0.887158,0.295491,-0.354450
-0.154777,0.396818,0.891758,-0.671919,-0.729449,0.128173
0.024621,0.057800,0.212081,-0.539650,0.636656,-0.550860
-0.449369,-0.057184,0.005615,-0.249629,0.638451,0.728056
0.106119,-0.690738,-0.177532,-0.002661,-0.461103,0.887343
-0.090961,0.830294,-0.178569,-0.048301,0.770807,0.635235
-0.062241,0.341919,0.536615,0.800629,0.333146,-0.498003
0.529935,-0.351369,-0.452618,-0.223450,-0.004935,-0.974703
0.092866,0.286229,0.590497,0.773258,0.036676,0.633030
-0.432230,-0.134368,0.651731,0.808510,0.480501,0.339751
0.417462,-0.342270,0.718230,0.153578,0.271483,0.950111
-0.169663,-0.447408,0.633117,0.273939,-0.193009,-0.942181
0.515711,-0.450792,0.136235,-0.178791,0.603685,0.776916
0.202153,0.615929,0.739429,-0.164112,-0.904290,0.394115
-0.543926,0.197178,0.532244,0.243923,-0.534356,0.809299
-0.166903,-0.337172,0.398928,-0.191263,-0.921670,0.337554
-0.439886,-0.504065,0.534749,-0.537222,0.300527,-0.788084
-0.401139,-0.004132,0.405723,-0.463492,0.697096,0.547021
0.089602,-0.151289,0.681862,-0.490374,-0.019637,-0.871291
-0.130060,0.395235,0.502752,0.832992,-0.024977,-0.552721
0.634559,-0.649993,0.190643,-0.328493,-0.437698,0.836966
-0.352714,-0.366666,0.618905,0.307506,0.415060,-0.856251
0.354890,0.531229,0.733176,-0.550763,0.423502,0.719239
-0.023804,0.197793,0.119264,0.064508,-0.439370,0.895987
0.459941,-0.322887,0.332413,-0.691808,0.439523,-0.572905
-0.399584,-0.117885,0.550668,0.107530,0.716476,0.689274
-0.358543,0.327326,0.517697,0.900493,0.059803,-0.430740
0.204951,0.559403,0.715550,0.604170,0.185510,-0.774961
0.339539,-0.489472,0.102739,-0.307753,-0.280573,0.909157
-0.027730,-0.194496,0.670043,-0.739601,0.666939,0.090459
-0.455665,0.742868,0.571930,0.098429,-0.862889,0.495715
0.247197,0.094370,-0.304452,-0.207250,0.977848,-0.029330
0.258234,-0.244209,0.354043,0.772349,-0.354324,-0.527193
0.063368,-0.049008,-0.114941,-0.369266,-0.839533,0.398530
-0.601329,0.775834,-0.217680,-0.439966,-0.381820,0.812800
-0.156099,0.204035,0.871581,0.437834,-0.886370,-0.150497
-0.258467,0.578085,0.381558,0.372651,0.489558,-0.788330
0.051359,0.011120,-0.150511,0.860066,-0.508712,0.038710
-0.396125,-0.062107,0.644155,0.605235,0.650595,0.458712
0.209848,0.586392,0.146587,0.483133,-0.001435,-0.875546
-0.095470,0.450134,0.161772,-0.312662,0.082777,-0.946251
-0.213230,-0.536504,0.569059,0.774521,-0.376123,0.508576
0.430365,-0.159158,0.086724,0.101555,0.587293,0.802978
-0.209226,-0.181838,-0.191505,0.404013,-0.053148,-0.913208
-0.300907,0.256824,-0.273300,0.235780,0.181116,0.954780
0.054702,0.101842,-0.439347,0.836896,0.320774,0.443520
-0.339732,-0.476726,0.106487,0.367933,-0.236250,-0.899339
0.013116,-0.241263,-0.849234,0.805504,-0.140024,-0.575809
-0.016887,0.532812,0.445632,0.675020,-0.500831,0.541771
0.093994,-0.289350,0.522530,0.432775,0.667854,-0.605538
-0.340588,-0.468418,0.349720,0.204386,0.306422,0.929695
0.169118,0.265307,-0.996044,-0.032157,0.146016,0.988759
-0.037835,0.262933,0.681687,0.865603,-0.498825,0.043652
0.174832,-0.833369,0.360120,-0.655496,0.499056,0.566805
-0.303822,0.499846,-0.221141,-0.481723,-0.493622,0.724072
-0.340121,-0.143818,0.297210,0.292935,-0.469910,0.832691
-0.120654,0.094458,0.892508,0.192667,0.978759,-0.070067
0.150192,-0.466792,-0.813711,-0.510414,-0.176778,0.841562
0.408096,-0.585952,-0.152728,-0.068960,0.225490,0.971802
-0.238529,-0.193311,0.376581,0.932225,-0.343628,0.113477
-0.332893,0.523449,0.339751,0.450298,0.633119,-0.629597
0.192864,0.092611,0.085735,-0.543622,-0.796467,0.264791
0.503974,0.030197,0.687413,0.724928,0.569450,0.387565
-0.304716,0.866116,-0.349417,-0.413001,-0.174702,0.893817
-0.163366,0.538482,-0.317197,0.839026,0.290548,-0.460020
0.003129,-0.237483,0.069721,-0.079840,0.109712,0.990752
-0.485785,0.760758,-0.228654,-0.159214,-0.038236,0.986503
-0.311012,0.077051,-0.239756,-0.022880,0.244777,0.969310
-0.186646,-0.351984,0.452108,0.477733,0.869104,0.128173
0.388975,0.075821,0.635430,-0.433981,-0.875746,-0.211494
-0.253143,-0.417695,0.365703,-0.056901,0.724889,-0.686512
-0.388702,0.362270,-0.083151,0.545045,0.674602,-0.497833
-0.035659,-0.427321,0.524078,0.091503,-0.846511,0.524449
0.446843,-0.496109,0.074267,-0.617570,-0.064883,-0.783835
0.011213,-0.233748,-0.146779,0.909073,0.216971,-0.355682
0.193525,-0.185573,0.683729,-0.621177,-0.309435,0.719993
-0.251666,-0.599577,0.551609,0.479517,-0.861109,0.168980
-0.206662,0.382313,0.647233,0.848874,-0.041938,0.526928
-0.583801,-0.174454,0.311582,-0.090190,-0.113649,0.989419
0.408834,-0.462529,0.082561,-0.558671,-0.116075,-0.821227
0.068693,0.008791,0.729045,-0.660566,0.625588,0.415081
0.025398,-0.050678,0.515560,0.677240,0.021282,-0.735454
0.397952,-0.782954,0.113872,0.318951,0.222052,0.921392
-0.791725,0.052041,0.173241,-0.235303,0.536968,-0.810122
0.433358,-0.399894,0.723223,0.176465,0.652982,0.736529
-0.243077,0.201618,0.736366,-0.288276,0.255737,0.922765
-0.142884,-0.252427,-0.154547,0.212185,0.588150,-0.780421
-0.043159,-0.039338,-0.985676,-0.070031,0.089851,0.993490
-0.197761,-0.547009,0.586493,-0.378350,0.160932,-0.911566
0.811818,-0.209485,-0.151516,-0.268083,0.287899,0.919373
-0.008258,0.232562,0.582170,-0.114831,0.917676,-0.380375
-0.104525,0.609687,0.597595,-0.161494,-0.154593,0.974690
-0.281747,0.337304,0.106439,-0.002623,-0.445379,0.895338
-0.178096,0.077580,-0.996650,-0.129111,-0.016278,0.991496
0.280582,0.090238,0.814014,0.936171,0.181154,-0.301276
-0.130215,-0.443541,0.636993,-0.118682,-0.701218,0.702999
0.382290,0.248429,0.172252,0.146064,-0.652601,0.743490
-0.615437,-0.009670,-0.415214,-0.550501,0.647265,0.527254
0.553215,-0.273790,-0.167547,-0.218189,0.256137,0.941694
0.496668,-0.541734,0.363629,-0.090938,0.546226,0.832687
0.227065,0.081227,0.099820,0.498162,0.856724,-0.133634
-0.233516,-0.613336,0.112756,0.147125,0.325465,-0.934038
0.223684,0.221792,0.609877,0.778262,-0.626367,0.044411
0.097569,0.020307,-0.917088,0.713599,-0.699085,-0.045350
-0.193175,0.383015,-0.214809,-0.099473,0.001126,0.995040
0.116885,-0.097051,0.580926,-0.017528,-0.557450,0.830025
-0.130643,-0.123687,0.322971,-0.295778,0.953728,0.054018
0.324110,0.285702,0.722473,0.035816,-0.077876,-0.996320
-0.183382,0.309129,0.880465,0.853357,-0.503250,-0.136092
0.670197,0.124698,-0.206482,0.424086,-0.565284,0.707535
0.398418,0.065184,0.659834,0.617458,0.541415,-0.570628
-0.259827,-0.579183,0.112213,0.276441,0.028149,-0.960619
0.024038,0.067910,0.214346,0.639156,-0.549557,0.538021
-0.166087,0.095557,-0.019348,0.341894,0.757284,-0.556443
0.487339,-0.015340,0.047422,0.428898,0.593293,-0.681212
0.609453,-0.557778,-0.185093,0.396341,0.092792,0.913402
-0.640776,0.377434,-0.343483,-0.263592,-0.570252,-0.778031
-0.348166,-0.336951,0.089196,0.280440,-0.310830,-0.908151
0.354579,-0.334403,0.618442,0.619163,-0.721300,-0.310425
0.249024,0.114721,0.762621,-0.719632,0.671222,0.177739
0.134762,0.213002,-0.142233,0.156319,0.180120,0.971144
0.014555,0.196826,0.512545,0.077773,0.694782,0.715003
0.241289,0.389434,0.758075,0.811243,0.071927,-0.580268
0.421853,0.214628,-0.638572,-0.074084,0.003837,0.997245
-0.430675,-0.403850,0.085320,-0.215119,0.153762,0.964407
0.264958,-0.595446,0.054424,-0.114495,0.958822,-0.259906
-0.160879,0.023516,0.907087,-0.123786,0.940100,0.317630
-0.407707,-0.155069,0.570159,-0.125154,0.645482,0.753452
-0.287460,0.274889,-0.049703,0.813768,0.552899,-0.179122
-0.437982,-0.070634,0.662578,0.624301,0.539677,0.564798
-0.072579,-0.108347,0.703795,-0.641572,0.470858,0.605540
-0.339189,0.018110,0.666741,0.905302,-0.337192,-0.258322
-0.375683,-0.609995,0.111288,-0.098606,0.239037,0.965991
0.169118,-0.659752,0.103600,0.106449,0.448284,0.887530
-0.218865,0.645599,0.692613,0.975081,0.012626,0.221489
0.895028,-0.678211,-0.144865,0.378083,0.181710,-0.907763
0.288004,0.218452,-0.984320,-0.246841,0.026691,0.968688
-0.004916,-0.363544,-0.838100,-0.598947,-0.297069,0.743648
-0.114591,0.620589,0.593511,-0.157224,-0.374227,0.913912
0.056956,0.186234,0.458265,0.291126,0.942152,0.166119
-0.344397,0.336820,-0.273555,0.456451,0.183404,-0.870641
-0.207011,-0.184388,0.376788,0.864926,-0.475559,0.160456
-0.247702,-0.380071,-0.167898,-0.074622,0.662989,0.744900
0.147238,0.381302,0.897166,0.956062,0.167263,-0.240768
0.466120,-0.513428,0.347886,0.173352,0.725399,0.666142
0.519753,-0.358577,-0.249741,0.990920,0.002836,0.134422
0.134878,0.169048,0.105402,-0.546435,-0.642717,0.536958
-0.183032,-0.054591,0.462380,0.901967,-0.330212,-0.278235
0.083539,-0.064964,0.106216,-0.663574,-0.357151,0.657353
-0.088358,-0.242363,0.513183,-0.148997,0.687604,0.710634
0.114319,-0.527976,-0.151484,-0.291633,-0.103975,0.950863
0.130488,-0.337260,0.244254,-0.486145,-0.606869,-0.628786
-0.187617,-0.144697,0.647441,0.125455,0.817915,0.561495
0.207206,0.106545,0.763977,0.987269,-0.100247,-0.123493
-0.318047,0.195332,0.924282,-0.179963,0.698021,0.693094
-0.460640,-0.309304,0.187979,0.318095,-0.692209,-0.647814
-0.429471,-0.430925,0.209465,-0.179488,0.361472,0.914944
0.558617,-0.330754,-0.165712,-0.157089,-0.146497,0.976658
-0.027069,0.386225,0.645909,-0.693062,0.285583,0.661897
-0.384583,-0.449958,0.529692,-0.104875,-0.984629,-0.139664
-0.111949,-0.146411,0.104780,-0.489201,0.586642,-0.645394
0.390607,0.447981,0.277846,0.147267,0.988960,-0.016470
0.327879,-0.443057,-0.160353,0.021127,0.081121,0.996480
0.081518,0.447277,-0.135757,-0.783633,0.564372,-0.259622
0.591808,-0.253923,0.311534,0.172209,-0.209824,0.962454
-0.455083,0.166366,0.615268,-0.726620,0.218779,-0.651275
0.223296,-0.225705,0.554623,0.953858,-0.204401,0.219944
0.040088,-0.693200,0.588710,-0.397367,0.243123,0.884867
-0.763860,0.248956,0.277543,0.387683,-0.248505,0.887664
0.260139,-0.528592,0.639481,0.766856,-0.324117,-0.553967
0.167642,0.108215,0.108896,0.918822,-0.062920,0.389625
0.767785,-0.530878,0.552039,0.194276,0.116050,-0.974058
-0.448553,0.491582,-0.258514,-0.199904,-0.477968,0.855327
0.019180,0.038064,-0.626992,0.844161,-0.500871,0.191102
-0.269233,0.396685,0.899574,0.426386,0.759996,-0.490511
-0.325547,-0.523889,0.358844,0.405407,-0.645584,-0.647199
-0.085598,-0.350006,0.088399,0.125210,0.628212,0.767901
-0.800509,0.047603,-0.043960,0.410350,0.247237,-0.877774
0.029867,-0.721726,-0.174980,0.184819,-0.349915,0.918369
0.407047,-0.209045,0.119056,0.188702,0.135363,0.972660
-0.240395,-0.516636,0.195971,-0.295023,0.234445,0.926281
-0.472066,0.373083,-0.339225,0.512637,0.844685,-0.153982
-0.232545,-0.261263,0.488332,-0.094964,0.170212,0.980821
-0.396708,-0.487011,0.227984,0.083557,0.264369,0.960795
-0.215017,0.065315,0.804109,0.794373,0.408128,0.449892
0.196635,0.390224,0.787584,0.834835,-0.546951,0.062417
0.380852,-0.401784,0.315107,-0.375992,0.582799,0.720399
-0.322594,-0.223551,0.228718,0.496680,-0.775684,-0.389390
-0.122365,0.370490,0.414879,0.989698,-0.130334,0.059259
0.645479,-0.520241,0.541384,-0.465754,-0.262278,0.845153
-0.364295,0.324426,0.644601,-0.600307,-0.763172,0.239167
-0.011290,0.115028,0.349864,0.169710,0.980232,0.101699
-0.093061,-0.186102,0.701562,0.815974,-0.301460,-0.493263
-0.337284,-0.608983,0.616113,-0.311951,0.407249,-0.858391
-0.507005,-0.409564,0.563109,0.370030,-0.698032,0.613049
0.223762,0.519274,-0.436492,0.450750,-0.282254,-0.846851
-0.075766,0.406707,0.008310,-0.068025,0.567876,0.820298
-0.183925,-0.454529,0.589252,0.368347,-0.844235,0.389343
-0.348516,0.217046,-0.472940,-0.536092,0.406537,0.739820
0.082607,0.344293,-0.860750,-0.653882,0.403859,0.639794
-0.006043,0.206409,0.567049,-0.302423,-0.916741,0.261011
-0.110200,-0.347193,-0.159252,-0.051801,0.430483,0.901111
-0.622510,0.802118,-0.216882,-0.238429,-0.282519,0.929158
-0.162395,-0.630037,0.590481,-0.306872,-0.867287,0.391974
-0.270049,-0.103292,0.629177,-0.442824,0.659616,0.607300
-0.131731,0.388247,0.939068,0.256990,0.944167,-0.206165
-0.351625,0.351061,0.861723,0.078541,-0.820557,0.566143
-0.138144,0.189793,0.307897,0.086602,-0.030514,0.995776
-0.510387,0.065491,-0.009826,0.009290,0.286503,0.958034
-0.473426,-0.292207,-0.353325,-0.631406,0.365009,0.684175
0.432619,0.282582,0.601088,0.166080,-0.378473,0.910591
0.710461,-0.505604,0.190978,0.184666,-0.463607,-0.866583
-0.350148,-0.334094,-0.308248,-0.400742,0.368592,0.838776
-0.076776,-0.524636,0.505942,-0.515372,-0.107770,-0.850163
-0.515516,-0.130324,-0.334886,0.401472,0.250204,-0.881032
-0.263830,0.236342,0.735632,0.501647,-0.606316,-0.617035
-0.168808,-0.198761,0.464805,-0.216563,0.508230,0.833548
0.317931,-0.095644,0.110252,-0.573047,-0.571308,-0.587558
0.561533,-0.091073,-0.244924,-0.581501,0.081566,-0.809447
0.942714,-0.324513,-0.125357,0.263503,-0.241753,-0.933875
0.632070,-0.472462,0.040738,0.238738,-0.322584,0.915939
-0.138960,-0.205222,0.695054,-0.405917,0.820518,0.402468
-0.181127,0.430091,0.718757,0.258157,0.944542,-0.202964
0.443268,-0.125532,0.081253,0.511129,0.653698,0.558056
-0.383960,0.580809,0.353484,-0.174088,-0.867685,0.465636
0.039001,-0.605599,0.283509,0.495327,-0.397970,-0.772186
0.213696,0.225265,0.689136,-0.351705,0.840300,-0.412552
-0.651892,0.309393,0.192589,-0.197874,-0.613674,0.764363
0.438993,0.073008,0.025776,-0.042344,0.581610,0.812365
-0.443345,-0.393960,-0.322189,-0.152045,0.554691,0.818047
-0.076776,-0.222935,0.069258,-0.121205,-0.035828,-0.991981
-0.233400,0.609160,0.685882,0.999137,0.022303,0.035034
-0.090185,-0.121841,0.106344,-0.568882,0.347873,-0.745224
-0.356133,-0.340689,0.090600,0.286894,-0.307774,-0.907175
0.301762,-0.604985,0.528592,0.498599,-0.355410,-0.790622
0.131148,0.552591,0.699791,0.205523,0.789736,-0.577995
-0.268883,-0.267812,0.102978,-0.138785,-0.070455,0.987813
-0.431997,0.138104,0.621983,-0.559106,0.808395,-0.184114
-0.427838,-0.125005,0.633324,0.682153,0.537503,0.495739
-0.205573,0.309877,0.312156,0.258657,-0.239355,0.935845
-0.329706,0.047251,0.475428,0.204832,0.898166,-0.389027
0.219875,0.345919,0.346067,0.748683,-0.001224,0.662927
0.065700,0.023164,0.126186,0.943109,-0.330684,-0.034541
0.380619,0.376467,0.720798,0.408330,-0.144772,-0.901281
0.223451,0.652323,0.774951,0.113059,-0.869327,0.481131
0.738947,-0.114368,-0.264049,-0.251111,-0.112232,-0.961430
0.419094,0.142368,0.711499,0.898071,0.065094,0.435006
-0.002779,-0.393037,-0.840875,0.609485,0.216716,-0.762602
0.045335,0.197838,-0.115531,0.411531,0.043973,0.910334
0.082918,0.091864,-0.442649,0.879003,0.266726,0.395234
-0.176735,-0.574699,0.526773,-0.063913,0.886019,0.459223
0.369503,0.498044,-0.425406,0.013104,0.102662,0.994630
-0.016575,0.178586,0.366819,0.831367,0.320221,-0.454189
0.025282,-0.800404,0.274417,0.420630,0.314436,-0.850999
-0.051747,0.091468,0.712727,-0.487234,-0.237173,-0.840447
0.089835,0.154104,-0.988005,0.073649,0.287074,0.955073
0.168808,0.473342,0.702487,-0.648417,0.324872,0.688487
0.288549,-0.008879,0.381159,0.247079,-0.070383,-0.966436
-0.724063,-0.176871,0.312220,0.489198,-0.101766,-0.866215
-0.624375,-0.229132,0.153941,-0.695167,-0.543406,0.470589
0.378131,-0.368467,-0.165712,0.002424,-0.075697,0.997128
-0.135889,-0.117972,-0.293829,-0.231175,0.336956,0.912698
0.417190,0.443585,0.288485,-0.563314,-0.564412,-0.603421
0.423136,0.434178,0.286444,-0.563314,-0.564412,-0.603421
0.120654,0.488726,-0.131003,0.051061,0.714456,0.697815
-0.151474,0.246363,0.799531,0.078345,0.658628,-0.748379
0.507627,0.393390,0.630405,-0.643229,0.654728,-0.396973
-0.403315,0.036130,0.368622,0.784263,-0.117866,0.609130
-0.313771,0.260823,0.709521,-0.441878,-0.063575,0.894819
-0.477429,-0.044350,-0.217903,-0.296563,0.426449,0.854512
0.229086,0.291899,0.709936,0.908236,-0.096465,-0.407187
0.250966,-0.169135,0.615587,0.362578,0.705485,-0.608957
0.343814,0.083425,0.050516,0.020989,0.698572,0.715232
-0.368182,0.145796,0.300273,-0.123787,0.236929,0.963608
0.546453,0.300954,-0.621585,0.000045,-0.039809,0.999207
-0.356638,-0.439937,0.355622,-0.314212,-0.322980,-0.892723
-0.561337,0.238099,0.175937,-0.195417,-0.597009,0.778070
0.128078,-0.329129,-0.801541,-0.072837,-0.111907,0.991046
0.312257,-0.589556,0.346658,0.450259,0.035052,-0.892210
-0.386836,0.699441,0.553347,-0.037001,-0.817608,0.574585
0.108724,0.428025,0.904311,-0.399166,-0.665586,0.630604
-0.415752,0.067821,-0.248289,0.012717,0.419021,0.907887
-0.661802,-0.048350,0.182317,0.702581,0.325740,-0.632672
0.387381,-0.559668,0.096837,0.147752,0.528000,-0.836293
-0.334525,-0.518044,0.580719,-0.241182,-0.931853,0.271075
-0.112920,0.023516,0.836712,0.417968,-0.029788,-0.907973
-0.162279,0.178981,0.862122,-0.564759,0.766933,-0.304731
0.536893,-0.017274,-0.001021,0.580898,0.419237,0.697709
0.636268,-0.571183,-0.177021,0.402960,0.091810,0.910601
-0.222518,-0.364687,0.561785,-0.007058,-0.842552,0.538568
0.072852,0.000088,-0.369563,0.526117,-0.848174,0.061664
-0.174248,-0.022636,-0.195126,0.995078,0.015533,0.097872
0.294185,-0.095337,0.366739,-0.080703,-0.655960,0.750469
0.611511,-0.093402,0.686632,-0.209406,-0.158912,0.964830
-0.763082,0.210628,0.297386,0.755425,0.516875,0.402706
0.446261,-0.313789,0.336194,-0.671236,0.295974,-0.679590
-0.163794,0.316866,0.854481,0.552021,-0.595876,0.583270
0.161579,-0.137532,-0.179908,0.067523,0.386547,0.919795
0.564291,-0.259022,0.122502,0.011982,0.589861,0.807416
0.324654,0.411102,0.716125,-0.487405,-0.051787,0.871639
0.040283,-0.687266,0.322333,0.723121,0.472837,-0.503509
-0.695536,-0.039690,-0.259678,0.516644,-0.569213,-0.639590
0.105692,0.055514,-0.620867,0.319668,-0.947528,-0.001893
-0.537825,-0.201705,0.592586,-0.513398,0.367557,-0.775451
-0.571831,0.095072,0.198284,-0.567081,-0.790574,0.231110
-0.036085,-0.423805,0.590225,0.638729,-0.477988,0.602953
0.075261,0.030064,-0.861771,0.105662,-0.963651,0.245381
-0.398768,0.078765,-0.026127,-0.092005,0.896943,0.432468
-0.296165,0.564326,0.363390,-0.510288,-0.667235,0.542590
-0.127612,0.297701,0.814301,-0.443158,0.890567,0.102475
0.103516,0.156961,0.739461,-0.299529,0.525835,-0.796103
-0.571481,-0.236165,-0.211698,-0.188626,-0.164006,0.968257
0.413342,0.409212,0.258482,0.474866,0.768333,-0.429147
0.260994,-0.591797,-0.150766,0.139563,-0.271507,0.952264
-0.541012,-0.105974,0.336720,0.047814,-0.477467,0.877348
-0.508248,0.081227,0.250203,-0.358063,-0.917846,0.171319
0.467441,-0.385214,0.126107,-0.114742,0.007249,0.993369
-0.643731,-0.463804,0.211842,-0.228056,0.637137,0.736238
0.095353,0.500418,-0.148167,0.659625,-0.671766,0.337083
-0.773382,0.410311,-0.502943,-0.241827,-0.278998,0.929344
-0.412215,-0.231022,0.154052,-0.419229,0.621256,0.662033
0.549756,0.437782,0.635414,-0.222755,0.620218,-0.752137
-0.060881,0.437871,0.154339,-0.567159,0.262311,-0.780720
-0.495035,-0.510966,0.480420,0.618074,-0.655924,-0.433299
0.153923,-0.330667,0.554767,-0.774639,0.523181,0.355269
0.307126,-0.491934,0.361205,-0.084601,0.502797,0.860254
-0.227687,-0.286449,0.401337,0.928654,0.263156,0.261440
-0.458775,-0.316513,0.593144,0.548022,0.188898,-0.814856
0.122637,0.294317,0.913292,-0.773508,0.470648,0.424471
-0.020035,-0.458310,0.332844,-0.133228,0.474261,-0.870245
0.275101,0.177882,-0.986601,-0.250408,0.059121,0.966333
-0.140436,-0.433738,0.573621,0.756704,-0.271704,0.594622
-0.724918,0.366533,-0.337661,0.227081,0.446428,0.865527
-0.238763,-0.018769,0.467516,-0.406859,-0.900659,-0.152574
0.317270,-0.076700,0.672196,-0.536050,0.068146,-0.841431
-0.372417,-0.170718,-0.120843,-0.259201,0.344892,-0.902144
-0.079186,0.231286,-0.341537,0.994188,0.104624,-0.025378
0.492547,0.408421,-0.629384,-0.182241,0.199575,0.962787
0.474865,-0.541998,0.136459,0.803043,0.248266,-0.541744
0.603156,-0.462089,0.159779,-0.585255,-0.301869,0.752563
0.362353,0.148741,0.595633,-0.556548,0.470314,0.684879
-0.305921,-0.171289,0.632766,0.822364,-0.227790,-0.521372
0.233207,0.251153,-0.422344,-0.299106,0.087161,0.950231
-0.334176,0.668981,0.520616,-0.184997,-0.808285,0.558973
0.037601,-0.086370,0.234970,0.915507,-0.348538,-0.200917
0.200599,-0.050196,0.139122,-0.161054,0.181444,0.970123
0.179418,0.244780,-0.414911,-0.097659,0.143149,0.984871
0.038379,-0.107511,0.301278,0.495389,0.804788,-0.326966
0.139698,0.556679,-0.157035,0.832068,-0.007963,-0.554616
0.503429,-0.062723,0.694543,0.081323,-0.085371,0.993025
0.103748,-0.078018,-0.981737,-0.042086,0.009140,0.999072
-0.060337,0.444377,0.442426,-0.476729,0.406056,-0.779646
-0.215483,-0.188871,0.118371,0.062205,-0.016250,0.997931
0.162123,0.600853,0.707128,0.017829,-0.757874,0.652157
-0.010785,0.222232,0.583462,-0.448571,-0.888806,0.093853
-0.379452,0.807657,0.443718,-0.739269,-0.668184,-0.083742
-0.336468,0.149444,0.500997,0.333981,-0.291821,0.896268
0.151979,0.344556,0.129424,-0.333303,-0.152036,0.930481
-0.686559,0.108259,0.171981,0.054166,-0.045814,0.997480
-0.354269,0.038373,0.668559,0.848835,-0.061821,-0.525031
0.283108,-0.193442,0.499179,0.370779,0.786627,-0.493701
-0.365927,0.618127,0.519484,-0.171066,-0.379112,0.909401
-0.251589,-0.458354,0.586238,-0.154614,-0.909505,0.385870
0.485591,-0.520021,0.358621,-0.246208,-0.588851,-0.769829
0.514584,-0.399983,-0.459302,-0.289725,0.000436,-0.957110
-0.494763,-0.261439,0.433637,-0.054493,0.457045,0.887773
0.116419,0.610347,0.731964,-0.726610,0.246355,-0.641363
0.579642,-0.060085,0.702726,0.234373,-0.152162,0.960165
0.001341,0.266362,0.894725,-0.118418,0.805935,-0.580039
-0.652591,0.271549,0.291596,0.250202,-0.671736,0.697259
0.153728,-0.025230,-0.116137,-0.408998,-0.845574,0.343110
-0.232506,-0.507714,0.106025,-0.110654,0.150250,0.982436
-0.400983,-0.130455,-0.770963,-0.293957,0.055738,-0.954192
0.646296,-0.451672,0.537843,0.430770,0.058364,-0.900573
0.373662,-0.004791,0.099182,0.661680,0.253932,0.705477
0.264103,0.600940,-0.431835,-0.350859,0.207166,0.913225
0.031150,-0.554305,0.550891,0.575757,0.290403,0.764310
-0.488079,-0.153268,-0.117860,-0.285785,-0.067498,0.955914
0.535493,-0.123115,0.064138,0.771629,0.203726,0.602565
-0.108685,-0.101798,0.885123,0.972311,0.042631,0.229770
0.503624,-0.824402,0.130844,-0.324550,0.063051,0.943765
-0.413264,-0.037404,0.406329,0.716571,-0.511485,-0.474246
0.444745,0.091337,0.675530,0.006582,-0.550982,0.834491
-0.441053,-0.295679,0.596749,-0.543269,-0.177467,0.820588
-0.056878,-0.143994,0.661318,0.732257,-0.193614,-0.652927
-0.497795,-0.278713,0.160449,-0.143423,-0.867789,-0.475785
-0.414197,0.558920,0.492240,0.308674,0.008809,0.951127
-0.332232,0.114457,0.163894,0.200190,0.975881,-0.087061
0.208877,0.132038,-0.987622,-0.052017,0.063774,0.996608
0.144401,0.116040,0.072799,0.169258,-0.882204,0.439394
-0.483920,0.116698,0.611982,0.866078,-0.196022,0.459874
-0.438720,-0.633906,0.108975,-0.093582,0.089870,0.991547
0.113775,0.453562,0.565996,-0.250076,-0.410416,0.876938
0.353374,-0.064261,0.630358,0.970563,-0.229292,-0.073709
-0.684887,-0.517999,0.232674,-0.195184,0.509589,0.837987
0.784148,-0.467275,0.560046,-0.097798,-0.085468,0.991529
0.225860,-0.195156,-0.441868,0.167386,-0.013756,0.985795
0.092984,-0.426223,0.497041,0.088840,-0.955121,0.282580
-0.031772,-0.551096,-0.149379,-0.369193,0.152616,-0.916736
0.176153,-0.345919,0.102324,0.181663,0.004649,0.983350
0.040399,0.196035,-0.114542,0.411531,0.043973,0.910334
0.155866,-0.005450,0.554384,0.349188,0.937052,-0.001236
0.095198,0.434927,0.898777,0.050049,-0.644936,0.762596
0.096014,-0.617774,0.332669,-0.162421,0.061157,0.984824
0.018908,-0.179069,0.520457,0.775165,0.164934,-0.609849
-0.311905,0.052130,0.579857,0.286370,0.803153,0.522434
0.268261,-0.827875,0.403825,-0.572146,0.605936,0.552712
-0.041449,-0.043514,0.152345,-0.172099,0.709430,0.683441
0.096519,0.231023,0.117796,-0.276146,-0.298085,0.913723
-0.582402,-0.219639,0.174437,0.844398,0.346206,-0.408819
-0.172188,0.063470,0.800026,-0.439733,0.869809,-0.223758
-0.501059,-0.142455,0.603464,0.158104,0.699748,0.696675
0.141875,-0.127027,0.579443,0.073177,-0.538225,0.839619
0.075650,0.005803,-0.300129,-0.191587,0.980599,0.041462
-0.029285,0.269087,-0.994704,-0.005819,0.172264,0.985034
-0.197645,-0.351501,0.601822,-0.090782,0.615489,0.782900
-0.237753,0.517911,0.382945,0.781187,0.265516,-0.565020
-0.500592,-0.500329,0.596095,0.872905,0.297038,-0.387048
0.112143,-0.765592,0.288852,-0.696594,-0.227757,0.680356
-0.389946,-0.267240,0.610547,0.649580,0.606863,0.457999
-0.080469,-0.066371,0.828195,0.153121,0.835741,0.527343
0.260682,-0.111862,0.738232,0.909995,-0.161132,-0.382028
0.228348,0.371280,0.678305,0.775082,-0.257554,-0.576987
-0.727716,0.167905,0.279776,-0.444526,0.350090,-0.824520
-0.402694,-0.217133,0.616879,0.583964,0.077493,-0.808072
-0.368143,0.675574,0.563779,-0.536429,-0.663028,0.522147
0.367172,0.623445,0.716172,0.299232,0.588448,-0.751126
-0.004139,-0.704540,0.584643,0.328564,-0.190855,-0.924997
-0.558034,0.202013,0.174517,-0.510369,-0.258461,0.820196
-0.056994,0.087468,-0.328139,-0.441791,-0.564083,-0.697589
-0.089290,0.560459,0.430495,-0.211337,0.374383,0.902870
-0.511824,-0.486088,-0.307467,0.038221,0.035837,0.998626
0.479023,0.001890,0.552661,0.324781,-0.614467,0.718991
0.475720,-0.019736,0.663376,-0.516461,0.013730,0.856201
0.615748,-0.437343,0.044853,0.183930,-0.420097,0.888644
0.191971,-0.146675,0.671638,0.854390,0.361790,-0.372997
0.159519,-0.784010,0.108896,0.043692,0.360171,0.931863
-0.130526,0.294009,0.443048,0.421008,-0.846511,-0.325841
-0.099667,0.128742,0.293318,0.016359,-0.810466,0.585558
-0.659392,0.225002,-0.279505,-0.220955,0.386118,0.895596
-0.004683,-0.343897,-0.841258,-0.598947,-0.297069,0.743648
0.232079,-0.633290,0.580607,0.567529,0.590231,0.574054
0.584423,-0.456375,0.056832,0.430672,-0.009843,0.902455
-0.437243,0.660279,0.404000,-0.135417,-0.685994,0.714895
0.589048,-0.477298,0.158997,0.602855,0.549705,-0.578265
0.276540,-0.681684,0.522770,0.927784,0.040242,-0.370942
-0.114436,0.309569,0.906401,-0.095900,-0.979137,0.179150
-0.260605,0.176563,0.301357,-0.196109,-0.308031,0.930945
-0.726900,0.230012,0.279393,-0.462954,0.394460,-0.793773
-0.255514,-0.016307,-0.146540,-0.066894,0.900152,-0.430408
-0.163600,0.012791,-0.994529,0.202607,-0.114740,-0.972515
-0.692504,-0.231813,0.160432,0.310978,-0.788060,0.531276
0.371252,-0.205002,0.586509,0.518978,-0.724987,-0.452830
-0.663940,-0.396950,0.198858,0.794173,0.433777,-0.425591
0.279066,-0.064524,0.728311,0.764861,-0.578960,-0.282475
0.147394,-0.057404,-0.438087,-0.560774,-0.476605,-0.677038
0.484620,-0.629994,-0.150958,0.082124,0.349727,0.933245
-0.246653,0.344337,0.716061,0.317014,0.472685,0.822235
-0.239734,0.400994,0.668496,0.834408,-0.364044,0.413805
0.297332,-0.008000,0.074490,-0.533922,0.060181,0.843389
0.116457,0.037448,-0.958656,0.733049,-0.616275,0.287828
0.199393,-0.650872,0.102946,0.019641,0.514986,0.856973
0.454733,-0.114588,0.672707,0.960010,0.260232,0.103245
-0.469112,0.680321,-0.224650,0.278251,0.228053,-0.933042
-0.240123,0.082941,0.590688,0.984997,0.112777,-0.130625
-0.123686,0.127115,0.430686,0.955783,0.274013,-0.106749
0.542606,-0.085315,0.382180,-0.295530,0.127501,0.946787
0.135773,-0.449738,0.071092,-0.584325,0.051459,0.809886
0.154855,-0.210101,0.571595,-0.188815,-0.136346,0.972501
0.139310,-0.233483,0.675705,0.154044,0.406351,0.900638
0.268300,-0.506351,0.633659,0.698862,-0.356101,-0.620310
-0.574240,-0.384861,0.367346,-0.364023,0.485085,0.795097
0.027574,0.052525,0.701259,0.846620,-0.009176,-0.532119
-0.021201,0.209749,0.509706,0.215476,0.973436,0.077416
0.114280,0.608896,0.754789,0.286641,0.186107,0.939788
-0.388663,0.761901,0.564784,-0.116406,-0.625663,0.771359
-0.101145,-0.425960,0.206147,-0.486044,0.330840,0.808892
-0.376770,0.161971,0.310880,-0.141976,0.201109,0.969225
-0.791143,0.056085,-0.032556,0.487470,0.133398,-0.862890
0.015332,-0.134324,0.693092,0.419265,-0.582585,0.696284
-0.398302,0.249440,0.598647,0.485636,-0.591247,0.643882
-0.423408,-0.623972,0.634935,0.689351,-0.275639,0.669939
-0.009696,0.061273,0.664795,0.459033,-0.694564,-0.553959
0.073551,0.022504,-0.817396,0.995100,0.063248,-0.076002
-0.466236,0.000967,0.377299,-0.151085,-0.125387,0.980536
0.169079,-0.041624,0.618267,0.913122,0.107326,-0.393305
-0.319213,-0.572722,0.614694,0.123815,0.433930,0.892398
0.031577,0.018857,-0.053722,-0.352633,-0.935215,0.031990
-0.754766,0.166278,0.252883,-0.292679,-0.410348,0.863686
0.056528,-0.084920,-0.154387,0.789992,-0.570429,0.224775
0.101961,-0.546965,0.106615,0.636798,-0.171313,0.751758
-0.231690,-0.173882,0.270923,-0.424528,0.895816,-0.131488
-0.287849,-0.665333,0.579810,-0.377105,-0.141208,-0.915342
0.213269,-0.373258,0.569713,0.798502,-0.178302,-0.574981
0.659820,-0.141576,-0.247667,0.256182,0.141682,0.956189
0.142263,0.593645,0.727545,0.193520,-0.944706,0.264728
0.439187,-0.540591,0.110108,-0.069763,-0.986741,0.146544
-0.050621,0.648983,-0.176415,-0.365523,0.525792,0.768073
0.512097,0.378181,0.241590,-0.024550,-0.921806,0.386874
0.083734,-0.131071,-0.828450,-0.676306,0.201796,0.708441
-0.450885,-0.375587,-0.323369,-0.152045,0.554691,0.818047
0.253182,0.384598,0.190675,0.910740,0.087178,-0.403675
0.049183,-0.010593,-0.037261,0.258976,0.960053,-0.105972
-0.219797,0.247506,-0.415996,0.274619,-0.961543,-0.004380
-0.431880,-0.464814,0.537684,-0.342429,0.129393,-0.930591
-0.396008,-0.580150,0.617246,0.525047,0.473755,0.707023
-0.576068,0.129181,0.525162,0.010302,-0.170147,0.985365
-0.520763,0.063690,0.669325,0.800508,-0.391511,0.453768
0.019063,-0.449607,0.585839,-0.160110,0.976081,0.147072
0.432074,0.620500,0.751009,0.980437,-0.030503,-0.194456
-0.802957,0.023998,0.178393,0.135423,-0.274293,0.952063
0.396436,0.029493,-0.657203,-0.094840,-0.186095,0.977944
0.333515,0.487626,0.216499,0.948698,-0.047919,-0.312530
0.141059,0.246890,-0.142759,0.013500,0.269182,0.962995
-0.173548,0.269835,0.805385,-0.200331,0.686281,-0.699203
-0.655934,0.693684,-0.342383,-0.310335,-0.046445,-0.949492
0.065234,-0.311503,0.092323,-0.322503,-0.206151,0.923847
0.150852,-0.003560,0.449970,0.964297,-0.253253,-0.077420
0.033288,0.256033,0.720415,0.278576,0.861858,-0.423787
-0.442374,-0.561030,0.637631,0.892606,0.174575,0.415665
0.478207,-0.068744,0.665162,0.823774,0.542033,-0.166121
-0.300518,-0.587622,0.574099,-0.537230,0.660182,-0.524922
0.126717,0.576019,0.744756,0.864822,0.469756,-0.177236
0.001885,-0.017713,0.368989,0.547120,0.133056,0.826412
0.270710,-0.362050,-0.168057,-0.162633,-0.022630,0.986427
0.304755,0.271240,0.610642,-0.343165,0.900098,-0.268443
0.413458,-0.404245,0.092785,0.464384,0.499059,0.731634
-0.215717,0.284867,0.818704,-0.668129,0.443794,-0.597203
-0.073784,0.385301,0.141563,0.294284,-0.370272,0.881076
-0.128699,0.034900,0.429538,0.776080,-0.540477,0.324937
0.502303,-0.084304,0.375800,-0.196867,0.409915,0.890625
0.055712,-0.103820,0.679342,0.473185,0.267303,0.839431
0.149453,0.118721,-0.850749,0.843971,-0.436989,0.311054
-0.031772,0.437035,0.821368,0.104031,-0.893766,0.436302
-0.007559,-0.624763,0.574099,0.523047,-0.285216,-0.803165
-0.327258,0.133884,0.018774,-0.525883,0.278349,0.803722
0.490021,-0.283812,-0.451566,0.186147,0.086828,0.978678
0.219914,-0.418004,0.296811,-0.088355,-0.465849,0.880442
0.358543,0.300866,0.606096,-0.304401,0.821286,-0.482524
0.534872,0.145225,-0.629704,0.099922,0.250664,-0.962903
-0.252250,0.135731,0.561275,-0.386451,0.659932,-0.644317
0.355006,0.151071,0.032906,0.261201,0.618360,0.741218
0.116535,0.244122,0.744517,0.314715,0.118214,-0.941796
-0.476418,-0.362313,-0.331042,-0.166198,-0.745639,-0.645291
-0.502303,0.051031,0.640901,0.752987,-0.194284,0.628700
-0.203630,-0.022153,0.531559,0.859953,0.297870,-0.414432
-0.048444,0.010154,0.838642,0.604055,0.242522,0.759145
0.897049,-0.573733,0.218972,-0.324220,0.035036,0.945333
0.330794,-0.004571,0.091270,0.834908,0.527004,0.158730
0.438916,0.061140,0.622813,0.439556,0.875747,0.199644
-0.092127,-0.351237,0.378862,-0.484131,0.870511,-0.088475
-0.212918,-0.320953,0.636706,-0.095770,0.050708,0.994111
0.337479,0.068130,0.386965,0.022417,0.157523,0.987261
-0.342492,-0.021933,0.619463,-0.520917,-0.218239,-0.825238
-0.014438,0.634917,-0.123363,-0.545674,-0.624664,-0.558601
0.130099,-0.003077,0.447530,0.953553,-0.284210,0.099806
0.215601,-0.453342,0.560732,0.300817,-0.348356,0.887782
0.714075,-0.365610,0.546951,-0.339812,0.132285,0.931143
-0.070092,-0.561030,0.588056,-0.288834,0.843002,-0.453786
-0.371407,-0.138104,0.637487,0.707933,0.371585,0.600629
0.405881,0.163114,0.112469,-0.017583,-0.926252,0.376494
-0.240473,0.438487,0.745586,0.039353,-0.381692,0.923451
-0.429587,-0.067294,0.668623,-0.588364,-0.652036,-0.478202
-0.116146,0.292603,0.834064,0.007747,-0.979277,0.202375
0.542217,-0.160652,0.737180,-0.598136,0.316173,0.736388
-0.082723,0.410311,0.945943,-0.470588,0.868260,-0.157072
-0.341443,0.658740,0.509227,0.001881,-0.735581,0.677435
-0.110317,0.256033,-0.131115,-0.554553,0.730055,0.399363
-0.330871,-0.638609,0.581660,-0.705779,0.051266,-0.706575
-0.363673,-0.627840,0.616145,0.688920,-0.155398,0.707983
-0.217583,0.468726,0.684048,0.881524,0.146978,0.448679
-0.401683,0.201529,0.173225,0.186932,-0.981186,0.048279
-0.396047,-0.343764,0.593671,0.613297,0.033324,-0.789149
-0.196673,0.532592,0.670458,-0.476047,-0.534987,-0.697974
0.209848,-0.216078,0.557319,0.921074,-0.227237,0.316204
0.314821,0.606654,0.715598,-0.027633,-0.806048,0.591205
-0.358815,0.352073,-0.078318,0.769072,0.509495,-0.385930
0.400323,0.603797,0.736318,-0.673903,0.655623,-0.340608
-0.053924,-0.406180,0.330164,-0.053244,-0.245985,0.967810
-0.112843,0.244209,0.855135,0.249463,-0.766553,-0.591747
0.340355,-0.159202,0.640406,0.900702,-0.319512,0.294359
0.476458,0.282669,0.605841,-0.169310,-0.096774,0.980800
0.201920,0.417784,0.144976,0.531427,0.149894,-0.833737
-0.397018,-0.441694,0.541703,0.235500,0.969683,-0.065221
0.297643,0.226803,-0.980365,-0.246841,0.026691,0.968688
-0.056334,-0.022724,0.823441,0.059888,0.439753,0.896120
-0.248440,0.565689,0.379325,0.542154,0.399532,-0.739218
-0.064884,0.067338,0.810346,-0.515476,-0.690085,0.508003
0.460407,-0.057667,0.551082,0.498944,-0.094440,-0.861473
-0.157342,0.022548,0.774712,-0.473150,-0.636632,-0.608957
0.415558,0.642081,0.735728,-0.546180,0.000354,0.837668
-0.268766,-0.497428,-0.137160,-0.102477,0.284454,0.953197
-0.240318,0.818029,-0.340389,-0.447887,0.075227,0.890920
0.479644,0.237572,-0.626434,0.218002,0.100694,-0.970740
-0.816910,0.100040,0.259694,-0.397366,0.806342,-0.438079
-0.542838,-0.633246,-0.318568,0.303715,-0.579311,0.756409
0.517771,0.299240,0.615794,-0.379723,-0.481954,0.789640
-0.295817,0.173048,0.720655,0.626134,-0.158520,-0.763432
0.363246,0.229660,0.575742,-0.715172,-0.086507,0.693574
0.559705,0.344468,0.615667,0.008790,0.002447,0.999958
0.292319,-0.313436,0.347630,0.290523,0.489023,-0.822467
-0.290453,0.187816,0.168871,-0.170569,0.979007,0.111587
0.080508,-0.142719,0.351602,0.755064,-0.162176,-0.635277
0.415674,-0.324909,-0.807730,-0.002188,0.162150,0.986764
-0.504285,0.021714,-0.147273,-0.080014,0.758350,0.646918
0.059249,0.738737,0.746431,0.170112,0.322746,0.931073
-0.223373,0.740451,-0.330244,0.312467,0.003910,-0.949921
-0.557995,-0.223155,0.166318,-0.558800,-0.724705,0.403168
-0.488505,0.615622,0.138006,-0.568034,-0.150405,0.809145
-0.408018,0.407367,0.191505,-0.750455,0.612094,0.249314
0.457959,-0.431937,0.127845,0.089150,0.543098,0.834923
0.156837,0.550658,0.769081,-0.748162,0.596649,0.290282
-0.166903,-0.068964,0.485317,0.844629,0.190212,-0.500421
-0.280737,-0.156784,0.595314,0.884963,-0.290493,0.363942
-0.042031,-0.259900,-0.162857,-0.789852,0.561753,-0.246106
-0.097803,0.255153,-0.367186,0.518151,0.490587,-0.700603
0.268572,-0.211859,-0.439698,0.124409,-0.030976,0.991747
0.241134,0.116391,0.740944,0.717597,0.696410,0.008260
0.401916,-0.534789,-0.157865,0.027074,0.242179,0.969854
-0.049378,0.079777,-0.984432,0.201129,0.073720,-0.976787
-0.261810,0.529428,0.366373,0.665630,0.489561,-0.563265
-0.807426,0.252296,0.290495,0.723314,0.569861,0.389968
0.735528,-0.369434,0.163064,-0.462449,0.558414,0.688705
-0.051709,-0.030724,-0.150065,0.005557,-0.112278,0.993661
0.344669,-0.270977,0.596685,-0.547568,-0.267161,-0.792966
0.005850,-0.420113,0.592762,-0.162995,-0.529379,0.832580
-0.977615,0.464155,-0.273220,-0.498349,0.111426,-0.859786
-0.214551,0.697860,-0.330675,-0.380808,-0.115916,0.917360
-0.093877,-0.054767,0.877977,0.971589,-0.138791,0.191709
-0.837042,0.161224,0.304994,0.998132,-0.016861,-0.058729
0.588582,-0.585645,-0.481106,-0.329251,0.144233,-0.933162
-0.609412,-0.145708,-0.195429,-0.197314,0.186760,0.962387
0.086648,0.168521,0.543346,0.861902,-0.373184,-0.343306
-0.128233,0.433695,0.863063,-0.538992,-0.360785,-0.761131
-0.504674,0.104962,0.240074,0.359235,0.928688,-0.092132
-0.389441,-0.106501,0.563077,0.154731,0.873217,0.462115
-0.603078,0.045141,0.358621,-0.131973,0.554476,-0.821669
-0.176385,0.574305,0.588248,-0.341313,-0.521461,0.782038
0.479528,-0.019516,0.699010,-0.510296,-0.569517,0.644397
0.721925,-0.396070,0.555931,-0.303561,0.114737,0.945878
0.628340,-0.091995,0.684494,-0.303078,-0.074816,0.950024
0.401333,0.268472,0.673807,-0.062331,-0.989416,-0.131037
0.406541,-0.887696,0.124208,-0.019553,-0.007192,0.999783
0.523211,-0.094018,0.666693,0.599821,0.481888,-0.638748
-0.287965,0.550745,0.357249,-0.587195,-0.604060,0.538807
-0.428032,-0.746648,-0.353325,-0.140781,-0.567889,0.810977
-0.594140,0.231815,0.161868,0.073086,0.086013,0.993610
-0.203435,-0.023778,0.557447,0.777083,-0.629396,-0.001999
-0.147937,0.318931,0.796325,-0.714413,-0.168385,-0.679161
0.161384,0.249659,0.843188,0.900303,-0.234708,-0.366560
0.087387,0.013363,-0.427416,0.979390,0.114298,0.166528
0.080858,0.030064,0.079291,0.939509,-0.336491,0.064005
-0.083577,0.032746,0.792162,-0.191065,0.954510,-0.228921
-0.296982,-0.318887,0.633595,-0.274365,0.548945,0.789546
0.101184,0.228473,0.112692,-0.276146,-0.298085,0.913723
-0.550339,0.089842,-0.024676,0.014991,0.514938,0.857096
0.269427,0.475715,0.680172,-0.832249,0.150941,0.533459
0.018092,-0.106764,0.264176,0.128614,0.991647,0.009771
0.752434,-0.575490,0.560828,0.291459,-0.038961,-0.955790
-0.358815,-0.643224,0.592315,0.822120,-0.244036,0.514359
-0.458969,-0.400905,0.506181,0.902154,0.431369,-0.006264
-0.207827,0.431937,0.699791,0.377535,0.920567,-0.100122
0.407552,-0.893279,0.117509,-0.019553,-0.007192,0.999783
0.083850,0.002021,-0.278436,-0.256482,0.951801,-0.168199
-0.056955,0.253132,0.790726,-0.117747,0.991908,0.047468
-0.766891,0.262319,0.291245,0.660225,0.681407,0.315893
-0.006859,-0.206408,0.511158,-0.476206,-0.033972,0.878677
0.527214,0.392247,0.240904,0.022540,-0.924387,0.380789
-0.174559,-0.000571,0.730353,0.660241,0.667330,-0.344605
0.184353,-0.766955,0.031870,0.033896,-0.866885,0.497355
-0.774509,0.047778,0.166510,0.107851,-0.277941,0.954525
0.149453,0.348600,0.848261,0.971932,-0.189564,-0.139331
0.638989,-0.528461,0.189894,-0.569495,0.424176,0.704096
0.486486,-0.075997,0.666885,-0.528089,-0.461339,0.712944
-0.193914,0.306712,0.726524,-0.235155,0.287489,0.928468
-0.298304,0.157971,0.657521,0.819493,0.151167,0.552792
0.448282,0.281175,0.596494,0.052225,0.174846,-0.983210
0.115058,-0.442925,0.321726,-0.682592,-0.226058,-0.694958
