0.077232,0.492601,0.691627,0.945723,-0.023030,0.324158
-0.061535,-0.002192,0.887062,0.806312,-0.340555,0.483616
-0.610960,-0.180619,0.446242,0.851198,-0.069498,0.520222
0.245731,-0.078269,-0.223411,0.272412,0.612743,0.741848
0.315986,0.176928,0.296708,-0.683318,0.321871,-0.655344
0.297813,-0.046224,0.315767,-0.004180,0.999852,-0.016687
0.226707,-0.109731,-0.201290,-0.246006,-0.571892,-0.782573
0.438567,0.272847,0.550826,-0.213019,-0.438094,0.873325
-0.478644,0.056491,0.248869,-0.612422,0.033470,-0.789822
-0.037806,0.089634,0.369918,0.648095,-0.634883,0.420591
0.293351,0.468667,0.082230,0.937153,0.196278,-0.288476
-0.104328,0.372456,0.366010,-0.374272,0.328373,-0.867232
-0.373992,0.230387,0.463659,0.175315,-0.372708,0.911237
0.557457,0.413162,0.289945,-0.595107,0.111508,-0.795873
-0.233927,0.431067,0.422306,-0.223837,-0.710944,0.666675
0.255182,0.154748,-0.069051,0.986731,-0.151835,0.057523
0.015292,0.076917,0.239305,0.222312,0.920635,0.320951
-0.077557,-0.082727,0.884330,0.955918,-0.029005,0.292198
-0.211699,-0.177952,0.815737,0.411241,0.515078,0.752048
0.083438,0.115468,0.646209,0.366023,0.871543,-0.326251
0.468179,0.133263,0.916205,0.990182,-0.042955,0.133022
-0.099744,-0.511857,-0.170574,0.694944,-0.658863,-0.288013
-0.232629,-0.445062,0.168706,-0.519995,0.199666,-0.830505
0.058004,0.398801,0.880231,0.802539,-0.389669,0.451762
0.135196,0.529470,0.878380,0.404774,0.877756,-0.256325
0.305845,0.246245,0.319520,0.906688,-0.417257,-0.061748
0.118241,0.335989,0.507986,0.905975,-0.164698,0.389980
0.830365,0.006577,0.238596,0.251138,-0.013671,0.967855
0.459903,0.351884,0.568156,-0.024402,-0.335304,0.941794
0.063521,0.092447,0.768192,-0.355187,0.924435,-0.138789
-0.010425,0.019549,-0.056356,-0.604990,-0.485496,-0.631094
-0.019593,0.114956,0.151912,-0.117708,0.743504,-0.658290
-0.415041,0.471663,0.710824,0.186794,-0.929145,0.319057
0.027136,-0.110790,0.201256,-0.118086,0.142954,-0.982660
-0.561311,-0.404867,0.218222,0.882613,-0.344323,0.320058
-0.011196,0.515621,-0.047207,0.298114,-0.621844,0.724181
0.155234,-0.042935,0.347798,-0.768388,0.571243,0.288550
-0.450047,0.395769,0.695829,0.971284,0.070747,0.227162
-0.330102,0.089232,0.821808,0.040764,0.804615,0.592396
-0.464204,0.109585,0.025779,0.324203,0.627274,0.708110
0.574534,0.596668,0.169380,0.829589,0.330637,-0.449956
0.109600,-0.375525,0.352398,-0.346812,0.339440,-0.874358
-0.203546,0.166441,0.764975,0.983936,0.060483,0.167964
-0.261266,0.159864,0.915669,0.232876,-0.968343,0.089893
0.081045,0.058318,-0.100528,-0.186239,0.971591,0.146033
0.029894,0.683012,0.133355,-0.549407,0.822092,0.149386
0.300571,0.184894,0.915582,0.548379,0.354349,-0.757441
-0.276762,0.732196,0.024343,0.049704,0.197804,-0.978981
0.086520,0.509190,0.330970,0.867415,0.480729,0.128418
-0.039630,-0.008112,-0.041137,0.320751,0.689835,0.649035
-0.024013,-0.435269,0.372772,0.853066,-0.521256,0.023899
0.265727,0.170168,0.430002,0.001610,-0.366972,0.930231
0.193445,0.147367,-0.979384,-0.113306,0.346628,0.931134
0.407496,0.249023,0.895710,0.788525,0.141661,0.598465
-0.097189,0.128037,0.075347,-0.516909,0.855973,-0.010771
-0.067295,0.225344,0.335830,0.299897,-0.550982,0.778769
-0.418975,-0.038367,0.059089,0.088840,0.823635,0.560118
-0.068552,-0.154200,0.858854,0.990922,0.115090,0.069477
-0.633878,0.552527,0.393077,-0.409459,0.428469,-0.805455
-0.385836,0.074835,0.656638,-0.672431,0.547874,0.497665
0.617978,0.269229,0.824419,-0.180628,-0.842223,0.507971
0.428548,0.474038,0.684120,-0.308466,-0.566497,0.764153
-0.347828,0.446085,0.734882,0.139552,0.439920,0.887128
0.381900,0.453429,0.772101,-0.706442,-0.330135,0.626059
0.044213,0.583696,0.595171,0.677518,0.679020,-0.282667
0.281385,0.219681,0.668658,-0.357712,0.931389,-0.067510
0.057113,-0.182958,0.170816,0.937891,-0.148920,0.313342
-0.358861,0.312712,0.596261,-0.113995,0.941401,0.317441
-0.440596,0.210326,0.795657,0.962705,0.265365,-0.052736
0.242364,0.086199,-0.961518,-0.488999,0.225636,0.842596
0.256967,-0.042058,-0.229793,0.422989,0.622833,0.658149
-0.220906,0.282932,0.884710,0.999232,-0.034623,-0.018347
0.456942,0.050060,0.590709,0.450302,0.867325,0.212073
-0.147528,0.305295,0.705618,0.972172,0.091074,0.215842
-0.143756,0.031169,0.974974,0.642607,0.039256,0.765190
0.275788,0.636168,0.182784,0.193769,0.523203,-0.829887
0.211576,-0.206380,0.816532,-0.680646,0.708940,-0.184731
0.342838,0.150400,0.916741,0.700362,-0.011565,-0.713695
-0.179735,-0.157964,0.803717,-0.147753,-0.858353,0.491325
-0.192796,0.841926,0.117720,0.121092,-0.376383,0.918516
-0.420192,0.048160,0.870217,-0.138353,-0.964089,-0.226697
-0.216445,0.454343,0.424831,0.305995,0.771115,-0.558345
0.121161,0.167866,0.956122,0.988438,-0.140715,0.056473
0.025798,-0.005189,0.487664,0.751074,-0.607631,-0.258210
0.315214,0.122483,0.918384,0.941994,0.195679,-0.272685
-0.163347,0.454379,0.820216,-0.708028,-0.703312,0.063625
0.225125,0.405050,0.601276,0.528936,-0.263013,-0.806877
-0.312620,0.736909,0.531041,0.933550,-0.164593,0.318422
-0.670263,-0.649505,-0.268465,0.132223,-0.619965,-0.773408
0.379467,0.301860,0.823018,0.903789,0.374803,-0.206614
0.272178,-0.010451,0.143836,-0.760941,-0.041482,0.647494
-0.236442,-0.267512,0.755394,0.858437,0.430267,0.279207
-0.076949,0.429788,0.700810,0.549193,0.718668,-0.426501
0.143106,0.238280,0.595707,-0.699424,-0.636147,0.325765
-0.036224,0.082947,0.715823,-0.683203,0.497648,-0.534396
0.308238,0.040633,0.162393,-0.422201,-0.089754,0.902048
0.028474,0.882559,0.080518,0.882147,-0.393306,0.259087
0.155316,-0.120400,0.841126,-0.076147,-0.648607,0.757305
-0.493490,0.232324,0.650896,-0.403968,-0.524966,-0.749146
0.725915,0.552819,0.253919,0.928631,0.354004,0.111021
-0.078652,0.630760,0.341347,0.519728,0.776243,0.356833
0.158642,0.147002,-0.029134,-0.208009,0.977450,-0.036394
0.116780,-0.076442,0.407086,-0.712165,-0.434083,-0.551718
0.111994,0.118098,0.933742,-0.083344,-0.734628,0.673331
0.361295,0.322871,0.833170,0.900952,0.118457,-0.417438
0.173691,0.162203,0.511082,0.939481,-0.338865,-0.050457
-0.021175,0.040158,0.877602,-0.463593,-0.188349,-0.865798
-0.802742,0.043520,0.266251,0.068949,0.526067,0.847643
-0.312376,0.244711,0.529605,-0.163741,-0.983728,0.073940
-0.684623,0.664888,0.440915,0.356582,0.313264,-0.880179
-0.011479,0.549092,0.394702,0.594967,0.801784,-0.056195
0.460146,0.157306,0.727237,0.901563,-0.045599,-0.430238
0.205572,0.141302,0.940245,-0.482506,-0.164430,-0.860320
0.032247,0.386926,0.710513,0.236683,0.950635,-0.200687
-0.317243,-0.001060,0.331973,-0.427626,0.632296,-0.646017
-0.017686,-0.148573,0.764630,0.905426,0.364060,-0.218321
-0.140307,0.521687,0.823883,-0.526932,0.816881,-0.234623
-0.418692,-0.044433,0.221076,0.500325,0.755821,-0.422386
-0.305358,-0.730113,0.166544,0.406832,0.728440,0.551237
-0.462663,-0.154127,0.341399,0.923873,-0.344008,0.167682
0.679025,0.317280,0.776494,-0.540893,0.841030,-0.010155
0.648724,0.061424,0.610443,-0.504600,0.825050,0.254303
-0.170933,0.745277,0.673830,0.242091,0.934117,0.262329
0.262686,0.117733,-0.456723,-0.651352,0.754164,0.083528
0.094795,0.557825,0.812416,-0.523874,-0.845349,0.104598
0.380643,0.082874,0.600498,-0.648415,0.739762,0.179753
0.225408,-0.069098,0.241173,0.787711,-0.213776,-0.577764
0.614042,0.412431,0.224916,0.959145,-0.197370,0.202697
0.207480,0.228048,0.852074,-0.732644,-0.625541,-0.268201
0.169837,0.712537,0.130830,0.777160,0.207596,0.594076
0.114996,0.321117,0.813800,0.864864,-0.492342,0.098024
0.228775,0.063982,0.748995,-0.602056,0.724747,0.335068
-0.315540,0.195747,0.618364,-0.214767,0.886631,-0.409585
-0.791669,0.245149,0.304110,-0.216946,-0.734387,0.643125
-0.109602,0.475171,0.763575,0.588961,0.780605,-0.209241
-0.719791,0.151679,0.603767,0.818943,0.132435,-0.558385
-0.158845,0.105675,0.942182,0.424836,0.904237,-0.043239
-0.031437,0.124749,0.407674,0.931686,0.295853,0.210790
-0.341947,-0.244163,0.647091,-0.724023,-0.287037,-0.627216
-0.517057,0.367084,-0.095599,0.466929,0.579245,0.668171
-0.035818,0.134797,0.612570,0.113291,0.971840,0.206620
0.199367,0.421310,0.848252,-0.299813,-0.919770,0.253252
0.111305,0.369350,0.572151,0.938861,-0.343088,-0.028808
0.215349,0.023349,0.912331,0.822876,-0.262822,0.503786
0.097473,0.352322,0.551587,0.913558,-0.369829,0.169230
-0.752079,0.695728,0.446190,0.377612,0.304373,-0.874509
-0.427047,0.357547,0.321059,-0.099798,-0.730253,0.675848
-0.161116,0.156064,0.957661,-0.646632,-0.023216,0.762448
0.529387,0.084372,0.280658,-0.044844,0.626439,0.778179
0.173894,0.163445,0.348697,0.843235,0.532745,-0.071671
-0.127815,-0.109804,0.473396,-0.779163,0.568232,-0.264606
0.201395,0.122228,-0.726511,-0.440495,-0.896974,-0.037434
-0.626050,-0.718018,-0.244200,-0.276869,0.554367,0.784870
0.495355,0.243870,0.227959,0.370562,0.245111,0.895882
-0.477833,0.297987,0.777860,0.230124,-0.484079,0.844222
-0.703769,0.433405,0.471804,-0.543947,0.831049,0.116097
0.012007,-0.339021,0.766325,-0.189758,-0.870840,0.453464
-0.019593,0.726897,0.729884,0.853613,-0.270966,0.444885
0.154220,0.407644,0.875302,-0.032701,-0.844654,0.534313
-0.607269,-0.720759,-0.235517,-0.276869,0.554367,0.784870
0.362146,0.120729,0.819732,0.574927,0.636166,-0.514540
-0.159169,0.002119,0.602919,-0.739555,0.649439,-0.176880
0.027056,0.036394,0.825405,-0.197210,0.855525,0.478732
0.233723,-0.013776,0.635348,0.567427,0.800164,0.194330
0.175394,0.109475,0.213674,0.069437,0.993622,0.088842
-0.317893,0.486681,0.636922,-0.700371,0.502890,0.506540
-0.132358,-0.285417,0.775474,0.973042,-0.195801,0.121863
-0.207480,0.207842,0.695847,0.955519,0.165281,0.244267
0.140064,0.175613,0.947094,0.846294,0.144209,0.512826
-0.370138,0.350970,0.754477,0.996242,0.057751,-0.064548
0.319474,0.241970,0.709112,0.823098,-0.556244,-0.114462
-0.044741,-0.366281,0.756449,-0.361445,0.804070,-0.472047
-0.221920,-0.350349,0.711187,0.406191,-0.909346,-0.089991
0.247718,0.411481,0.873520,0.970434,0.193433,-0.144366
0.758284,0.643768,0.219813,0.032513,0.447273,0.893806
0.413418,0.056820,0.725612,-0.656402,0.746247,0.110688
0.148582,0.194175,0.924022,0.760668,0.363438,0.537864
-0.093539,-0.003142,0.905983,0.845341,-0.284490,0.452177
0.299233,-0.025834,0.287974,0.137325,0.926938,0.349183
0.051474,0.114737,0.896523,0.866923,0.492879,-0.074260
-0.554131,0.321921,0.751451,-0.497380,0.544550,0.675335
-0.628849,-0.103482,0.268205,0.743784,0.062573,0.665484
0.393582,0.152702,-0.972674,-0.013486,0.281491,0.959469
-0.039144,-0.587204,0.261858,0.436256,-0.415559,-0.798117
-0.149069,0.347791,0.764197,0.905226,-0.330775,-0.266745
0.700969,0.543903,0.265317,0.936050,0.265864,0.230491
0.203261,0.229620,0.630782,0.924092,0.379756,0.042884
0.231533,0.055907,0.543580,-0.290317,0.764681,0.575307
0.054314,0.383856,0.709233,0.264889,0.844614,-0.465254
-0.173853,0.114042,0.657641,0.782463,-0.615362,0.095299
0.127976,-0.099792,0.918246,-0.632573,-0.213456,0.744505
0.398045,-0.063398,-0.954790,-0.033367,0.196863,0.979863
-0.187767,0.174553,0.757487,0.961185,0.265627,0.074603
0.218391,-0.086601,0.289911,0.098341,0.926480,-0.363269
-0.039955,-0.001060,0.853458,-0.724111,0.543135,-0.425050
-0.195392,-0.502503,0.460614,0.687550,-0.604690,-0.402025
0.610757,0.437242,0.182144,-0.698967,0.170927,0.694427
0.386565,0.325209,0.084963,0.546403,0.364079,-0.754248
0.638826,-0.148098,0.306843,-0.457877,-0.488196,-0.742976
0.533403,0.370227,0.097692,0.247355,-0.921676,0.298880
0.095363,-0.451748,0.627790,0.748550,0.501283,-0.434038
-0.318055,-0.105821,0.827480,-0.743531,0.255787,-0.617846
-0.498317,0.332225,0.596382,0.600984,0.798554,-0.033599
0.212834,0.339643,0.731181,0.293472,0.638846,-0.711161
-0.032085,-0.685241,0.260976,0.663087,-0.355757,-0.658599
-0.041009,0.741038,0.482130,-0.681810,-0.527490,0.506844
0.158114,0.001242,0.848425,-0.056010,0.998428,-0.002156
0.139333,0.106369,0.457034,0.803216,-0.276533,-0.527611
-0.100596,0.045347,-0.055077,0.311971,0.657907,0.685443
-0.267311,-0.038002,0.314263,-0.493197,0.618349,-0.611884
-0.410539,0.118866,0.424018,-0.070364,-0.751945,0.655460
0.068672,0.507363,0.374796,0.956949,-0.077552,0.279703
-0.386646,0.565608,0.648164,-0.448854,0.628700,-0.635032
0.301546,0.301714,0.620059,-0.132637,-0.250398,0.959014
0.338255,0.104615,0.483219,0.862746,-0.441770,-0.245983
-0.023933,-0.199693,0.835523,0.755034,0.414445,0.508093
-0.083723,0.136807,0.191882,0.160146,-0.905913,0.392014
-0.546951,0.618153,0.399286,0.781776,-0.552339,-0.289392
-0.181073,0.094895,0.664767,-0.602264,0.782316,-0.158931
-0.397802,-0.061644,0.619869,0.784351,0.318465,0.532328
0.119052,-0.466072,0.782565,-0.117956,-0.017602,0.992863
-0.254127,-0.435488,0.615078,-0.485396,-0.836549,0.254118
0.598954,0.173603,0.824142,0.799614,-0.586766,-0.127763
-0.151341,-0.485256,-0.057809,-0.397664,0.578315,-0.712331
-0.105100,0.758980,0.082143,0.824225,0.390536,-0.410043
-0.183062,0.395732,0.868574,0.657864,-0.384761,0.647436
-0.525210,-0.230241,0.674660,0.781873,0.148876,-0.605401
-0.001825,0.132532,0.856173,0.339522,0.901605,0.268017
0.125177,0.014214,0.564818,0.836141,-0.533594,-0.127066
-0.571371,-0.173749,0.407639,-0.830105,0.448993,-0.330651
0.182574,0.023751,0.715528,0.064689,0.778302,0.624549
-0.171784,-0.048124,0.036259,-0.043415,-0.976952,-0.208998
-0.343894,-0.281580,0.673761,0.799399,0.547689,0.246978
0.225854,0.239084,0.810099,0.939787,0.341283,0.018089
0.152841,0.007673,0.008898,0.927784,-0.373006,-0.009156
0.156167,-0.048343,-0.390154,0.933978,-0.330902,-0.134866
0.308279,0.618555,0.171145,-0.185146,-0.542546,0.819368
-0.423113,0.357584,0.795951,0.539573,0.744255,0.393632
0.719061,0.671356,0.268240,0.901045,0.412053,0.135393
-0.253600,-0.141082,0.812105,-0.430307,-0.238450,0.870619
-0.318501,0.259108,0.899861,-0.498025,-0.120433,0.858759
0.462013,0.330252,0.206980,0.696210,0.485836,0.528447
0.557944,0.221544,0.823381,-0.499993,0.285909,-0.817474
0.063724,0.128147,0.850224,0.284539,0.935918,-0.207593
-0.338945,0.154712,0.237282,-0.072959,0.741529,-0.666943
0.419056,0.343516,0.234756,0.956001,-0.169572,0.239389
-0.147245,-0.139255,0.438823,-0.312928,0.390027,-0.865999
0.099663,0.360946,0.207119,0.971951,0.194974,-0.131517
-0.086481,-0.082435,0.913178,-0.447439,-0.815464,-0.367174
0.124407,-0.414295,0.733931,0.484747,-0.871908,0.069262
-0.240377,0.153981,0.232214,-0.012557,-0.854018,0.520092
0.254858,0.030804,0.123410,0.820059,0.085793,-0.565811
0.054029,-0.226368,0.398715,0.830433,-0.553898,-0.059820
-0.006368,-0.134286,0.810410,0.967477,0.244784,0.063796
0.133087,-0.165637,-0.277700,0.874525,-0.477362,-0.085631
0.125624,0.400409,0.732962,-0.320390,-0.591604,0.739834
0.060926,0.334564,0.844845,-0.642409,0.750724,-0.154028
0.560905,0.324040,0.601536,0.827130,-0.093963,-0.554100
-0.255101,-0.048599,0.459836,0.929053,-0.006587,0.369888
-0.431875,-0.864399,0.250339,-0.193372,-0.826005,-0.529455
-0.202207,0.393795,0.706570,-0.614042,-0.229681,0.755115
0.460999,0.510176,0.299821,-0.759331,0.063004,0.647648
0.163591,-0.151131,0.391416,0.608558,0.251533,0.752588
0.142822,-0.040048,0.377805,0.548035,0.801080,0.240685
0.116253,0.354332,0.520006,0.895827,0.444160,-0.014731
0.115969,0.440238,0.537890,-0.613205,0.325601,-0.719697
-0.302073,-0.045602,0.408348,-0.193116,-0.835241,-0.514857
-0.464528,0.248365,0.696919,0.061629,-0.198022,0.978258
-0.281711,0.417949,0.734276,-0.270280,-0.693939,0.667380
-0.160954,0.134761,0.923970,-0.564615,-0.212462,0.797540
-0.303614,0.115541,-0.048210,0.372437,0.654521,0.657946
-0.688882,-0.105931,-0.266182,-0.029805,0.930810,0.364287
-0.090496,-0.339752,0.152449,0.314665,-0.504768,-0.803863
0.084695,0.197026,0.481680,0.870929,0.489149,0.047076
0.598061,0.361348,0.716376,0.868838,0.255279,-0.424209
0.237618,0.577703,0.834727,-0.458472,0.824845,-0.330808
0.382914,0.416925,0.279551,0.866759,-0.047516,-0.496459
0.107411,-0.481163,0.764180,-0.122618,0.712975,0.690385
-0.002110,0.273395,0.850085,-0.460750,0.861122,-0.214892
-0.224557,0.361713,0.633930,-0.511849,-0.729172,-0.454224
-0.091957,-0.639895,0.236209,-0.646104,0.277176,0.711142
-0.795482,-0.079000,-0.304664,-0.043268,0.898283,0.437281
0.438810,0.700259,0.616410,0.677847,-0.709387,0.193114
0.288159,0.277743,0.023080,-0.378733,-0.601351,0.703519
-0.048513,0.015055,0.941802,0.657163,-0.744944,0.114873
0.610675,0.492418,0.266908,-0.235284,0.970297,0.056255
0.090821,-0.105857,0.445689,0.923253,-0.381492,0.045480
0.786759,0.428655,0.325902,0.755461,0.648300,0.094793
0.106436,0.577192,0.854063,0.900530,0.410464,-0.143404
-0.508823,-0.012460,0.680091,-0.576430,0.778645,-0.247874
-0.303776,0.304527,0.763678,-0.105973,-0.862885,0.494164
0.465542,0.378339,0.847353,-0.714051,0.611753,0.340425
0.478521,0.148719,0.888100,0.333884,-0.929455,-0.156956
0.198840,-0.102459,0.228357,0.468967,0.879961,-0.075751
0.191904,0.101948,-0.317566,-0.359737,0.932981,-0.011622
-0.667789,0.661417,0.461151,-0.376859,-0.166079,0.911260
0.481199,0.129243,0.888602,-0.442540,0.896035,0.035775
-0.280778,0.117039,0.891230,-0.000173,-0.588043,0.808830
0.172312,0.301385,0.465941,0.801175,-0.546788,0.243190
-0.170364,0.434136,0.571961,-0.502031,-0.840898,0.202127
0.065022,0.130157,0.210889,-0.731247,-0.543646,-0.411979
-0.185251,0.373223,0.700205,0.689981,-0.123703,0.713179
-0.130614,0.059817,0.468086,-0.487419,0.871928,-0.046528
-0.596926,0.470457,0.698804,0.090463,-0.539496,0.837114
0.283333,0.205284,0.889691,0.008325,-0.999956,-0.004295
-0.599319,0.586802,0.536852,0.630167,-0.343950,0.696123
0.572263,0.313736,0.485347,-0.745856,0.174176,0.642931
0.454386,0.041144,0.791385,0.367215,-0.609544,0.702573
0.101083,0.539811,0.852818,0.478980,-0.106012,-0.871401
-0.091592,0.271093,0.892597,0.780256,0.571222,0.254766
-0.317243,0.525523,0.412413,0.945184,0.316160,-0.081667
-0.654160,0.474184,0.714975,-0.476704,0.607603,-0.635273
0.516853,0.518508,0.306376,0.316434,0.736589,-0.597751
0.005111,0.599262,0.517308,0.935754,0.331829,-0.119387
-0.199165,0.289692,0.299164,-0.287531,-0.957418,-0.026002
0.076826,0.555085,0.737026,-0.621967,-0.279224,0.731568
-0.201761,0.198012,0.903147,0.931562,-0.343845,-0.118165
-0.437878,0.234772,0.713090,-0.438469,0.894119,-0.091083
-0.283252,0.221763,0.844914,0.606044,0.617166,-0.501815
-0.192999,0.273285,0.500324,-0.710146,-0.401754,0.578175
-0.072121,0.049878,0.585226,0.934905,0.319775,0.153940
0.327587,0.299704,0.753578,0.883360,0.355751,-0.305150
-0.430577,0.333358,0.798753,-0.594472,0.602547,-0.532486
0.462986,0.064750,0.291588,0.120615,-0.506583,-0.853713
-0.412202,-0.042460,0.216164,-0.536897,-0.768318,0.348468
-0.163429,0.024628,0.864371,-0.294528,0.409800,0.863317
0.055246,0.027844,0.653871,-0.575282,0.137066,-0.806390
-0.751227,0.619907,0.451915,0.404155,-0.024411,-0.914365
-0.069322,-0.385866,-0.181262,-0.697942,0.634610,0.331885
0.232223,0.136515,-0.453160,-0.651352,0.754164,0.083528
0.493246,-0.038367,-0.950259,-0.086802,0.102537,0.990935
-0.215674,-0.386414,0.589983,0.874224,0.431522,0.222533
0.267959,0.190229,0.600827,0.478317,0.714317,-0.510846
-0.103436,0.258706,0.885108,0.797572,0.467190,0.381591
0.196974,0.452479,0.560183,0.719866,0.360141,-0.593373
-0.309901,-0.081412,-0.247797,0.315507,-0.205735,-0.926352
0.152030,0.015347,0.518761,-0.342799,0.874200,0.343894
0.485417,-0.039646,-0.950847,-0.086802,0.102537,0.990935
-0.239484,0.388643,0.532407,0.078243,-0.202427,0.976167
0.042347,0.190119,0.954790,0.733045,0.092562,-0.673853
0.065184,0.026346,0.846211,-0.623412,-0.169457,0.763310
-0.245366,0.080864,0.875907,0.016532,-0.236013,0.971609
0.625441,0.323236,0.753958,0.784037,-0.023864,-0.620255
0.242729,0.409215,0.601484,-0.072515,0.478479,0.875100
0.484281,0.228743,0.845554,0.238274,0.530250,0.813671
0.647669,0.318778,0.518830,0.840673,0.025960,-0.540920
-0.167364,0.497168,0.852385,0.163177,-0.747699,0.643676
-0.460026,0.600139,0.494599,-0.415362,0.483327,-0.770629
0.204275,0.219059,0.675352,-0.049023,0.990993,-0.124617
-0.108465,0.186246,0.582511,0.839689,-0.446851,0.308621
0.077799,0.005591,0.938723,0.976510,0.215443,-0.003486
0.347381,0.344685,0.471891,-0.673780,0.724411,-0.145770
0.363607,-0.155808,0.186589,-0.405132,0.221475,0.887027
-0.316189,-0.503563,0.179256,0.035229,0.315020,0.948431
0.136331,0.282092,0.230951,0.988896,0.109300,-0.100686
-0.352574,0.859648,0.475454,-0.639639,0.006811,-0.768645
-0.020972,0.113056,-0.016664,0.172493,0.835330,-0.521987
-0.318784,-0.253079,0.566963,-0.272009,0.823306,-0.498175
-0.090537,-0.393722,0.721392,0.891402,0.328614,0.312114
-0.448993,0.092009,0.532666,0.743830,0.444100,0.499492
-0.000243,0.692842,0.605566,0.196534,-0.929251,0.312836
0.217539,0.255929,-0.983846,-0.110941,0.174110,0.978457
-0.244311,0.243066,0.883171,0.100501,0.601214,0.792743
0.175678,0.204589,0.723519,-0.505094,-0.854944,0.118113
-0.402791,-0.787006,0.177008,-0.626462,-0.631754,-0.456543
-0.910721,-0.066175,-0.316943,0.049617,0.959014,0.278981
-0.229992,0.148829,0.831043,0.919560,-0.310836,-0.240398
-0.357076,-0.497205,0.179948,-0.508543,-0.145707,-0.848619
0.165050,0.128768,0.329119,-0.157679,-0.912606,0.377211
0.585851,0.605255,0.244234,-0.129678,0.478043,0.868711
-0.143431,0.138232,0.517533,0.778492,0.600286,0.183321
0.178476,-0.031461,0.774488,0.617852,0.728620,0.295586
0.352289,-0.073958,0.615510,0.786803,-0.212310,-0.579539
-0.451872,0.364052,0.725179,-0.457003,0.811443,-0.364293
-0.384457,0.004787,0.452417,-0.103956,0.771190,-0.628060
-0.142093,-0.111083,0.515319,-0.779247,0.626548,-0.014517
0.546668,-0.075639,0.207534,0.349292,0.189362,-0.917680
-0.412445,-0.273980,0.176800,0.986654,0.160212,0.029078
0.170527,0.116491,0.285656,0.774136,-0.625692,0.096038
-0.529226,0.119268,0.593286,-0.782337,0.549417,-0.293411
-0.179532,0.197793,0.937374,0.651531,0.326903,-0.684574
-0.226666,0.207293,0.814163,0.928033,0.367872,0.058525
0.071512,0.100340,0.198333,0.874999,-0.182969,0.448217
-0.320286,-0.052107,0.332907,-0.446179,0.440476,-0.779041
0.281954,-0.012716,0.154368,-0.687957,-0.056076,0.723582
-0.036061,-0.577630,0.252294,0.436256,-0.415559,-0.798117
-0.482335,-0.042021,0.631214,-0.619589,0.682172,0.388267
-0.236320,0.055980,-0.041240,0.247120,0.689068,0.681262
0.172392,-0.226769,0.835090,-0.131591,0.919603,0.370153
-0.138928,0.538934,0.673622,0.754308,0.304063,0.581863
0.242080,0.668506,0.081504,-0.486101,0.374954,-0.789376
-0.080072,0.135784,0.574209,0.859236,-0.407093,0.309822
-0.109520,0.031936,0.871946,-0.450282,-0.164276,0.877644
0.126800,0.029488,0.299233,0.614503,-0.748696,-0.248678
0.211414,0.094311,-0.597956,0.522275,-0.849931,-0.069607
0.060885,0.083202,0.888809,0.992994,0.025787,0.115317
-0.185089,0.551248,0.453939,-0.125332,0.489424,0.862992
-0.245772,0.131618,0.190533,-0.253727,-0.955533,-0.150263
-0.449358,-0.733328,-0.214348,0.060729,0.987460,-0.145722
0.192715,0.065078,0.741264,-0.271131,0.957518,0.098217
-0.337525,-0.093434,-0.255165,-0.277660,0.305181,0.910917
-0.445788,0.493076,0.361651,0.222978,0.731437,-0.644423
-0.182656,0.298462,0.807280,-0.688816,0.717741,-0.101887
-0.339958,0.108671,0.894136,0.787920,-0.421334,0.449064
0.282643,-0.015712,0.150252,-0.760941,-0.041482,0.647494
0.204640,0.007345,0.963576,0.635590,0.681985,-0.361831
0.605890,0.293127,0.427754,-0.214639,-0.741258,0.635977
-0.414758,0.033142,0.757556,-0.292863,0.814465,-0.500876
-0.539123,0.068513,0.661913,-0.652890,-0.708575,-0.267686
-0.466475,-0.024628,0.857038,-0.266810,-0.704019,0.658156
-0.430333,-0.458764,0.204611,0.712694,0.282901,0.641899
-0.613557,0.541674,0.525990,-0.648278,0.231253,-0.725436
-0.066119,0.136515,0.425384,0.844102,0.486624,0.225143
0.054841,0.605547,0.091864,0.168039,-0.594610,0.786258
-0.350181,-0.245040,0.132957,0.053589,0.842371,0.536227
-0.047662,0.008185,-0.252069,-0.092212,0.741982,0.664047
-0.696670,0.545730,0.411133,-0.586460,0.217737,-0.780164
0.250395,0.554902,0.246898,0.288954,0.086305,0.953445
-0.776255,0.054226,0.274812,-0.131419,0.363913,0.922115
-0.364865,-0.105748,0.604113,-0.621079,0.253595,0.741586
-0.352615,-0.833266,-0.075174,-0.703645,0.381236,0.599619
-0.401047,-0.068002,0.621858,0.797829,0.001536,0.602882
-0.287633,0.072533,0.716238,-0.606302,0.541664,-0.582235
-0.422870,-0.734425,0.211460,0.647245,0.632932,0.424819
0.501886,0.237110,0.553109,-0.494149,-0.335479,0.802042
0.183872,0.096832,-0.363052,0.877749,0.475975,0.054818
-0.025556,-0.289546,0.151117,-0.530110,0.427562,0.732239
-0.396301,0.338766,0.782409,0.536303,-0.680609,0.499150
-0.098447,-0.354515,0.760064,0.448995,0.757085,0.474579
-0.495843,-0.060730,0.182923,0.613262,-0.635149,0.469569
0.405914,0.025615,-0.958838,0.028057,0.133973,0.990588
0.333265,0.108890,0.456706,0.909779,-0.376608,-0.174549
-0.370828,0.012862,0.841195,0.845475,0.446608,0.292767
-0.185941,-0.138561,0.821756,-0.293436,0.647730,0.703094
0.042510,0.128074,0.892683,0.585268,0.658148,-0.473605
0.198191,0.137611,0.930646,-0.358031,-0.266286,0.894933
0.193404,0.194614,-0.076142,0.985649,-0.131639,-0.105675
-0.308604,0.441371,0.144233,0.226051,0.247724,0.942090
-0.408754,-0.354843,0.170954,0.557960,0.526226,0.641690
-0.412404,0.315672,0.805602,0.792792,-0.338921,0.506570
0.012818,-0.266050,0.850829,0.734996,0.676344,-0.048370
0.198799,0.281763,0.939657,0.998533,0.052586,-0.012944
0.189957,0.184748,0.527962,-0.403827,0.911626,0.076558
0.436214,0.297292,0.930491,0.749509,0.200730,-0.630828
0.210156,0.517229,0.799255,0.314356,0.770556,-0.554459
0.157911,0.063215,0.284912,0.933238,-0.356778,-0.042147
0.218594,0.251800,0.933292,0.851703,0.514467,-0.099630
-0.230520,-0.254796,0.542334,0.873233,-0.444070,0.200666
0.047863,0.207878,0.923832,-0.660584,0.218743,-0.718179
0.177625,-0.282311,0.416909,0.443147,-0.207896,0.872009
-0.188618,0.502320,0.467377,0.838777,-0.490597,-0.236152
0.421895,0.088245,0.919007,-0.264057,0.814924,-0.515919
-0.587678,0.308656,0.512950,0.518827,0.399342,0.755873
-0.006936,0.069317,0.293698,-0.628014,0.736756,-0.250577
0.257778,0.244820,-0.001358,0.889957,-0.255981,0.377425
0.206953,0.351920,0.735003,0.498037,0.661821,-0.560315
-0.393908,0.115321,0.851227,0.487207,-0.742343,0.459953
0.087940,0.376220,0.859753,0.909810,-0.296148,0.290763
-0.639962,-0.169511,0.295964,0.834382,0.194876,0.515586
0.356467,-0.049987,-0.959166,-0.007558,0.197565,0.980261
0.052285,-0.072715,0.632875,0.991926,-0.029235,0.123401
0.192512,0.542734,0.801762,0.427155,0.750751,-0.503896
-0.608688,0.192129,0.416062,0.246517,0.591430,0.767750
0.285319,0.688201,0.223739,0.420008,0.899442,0.120818
-0.370097,0.400482,0.362966,0.512988,0.177826,0.839775
0.109196,0.364454,0.304370,0.954380,-0.053832,-0.293701
0.077110,0.422370,0.283840,0.998339,-0.026958,0.050919
-0.247760,0.821720,0.433236,-0.324651,0.282999,-0.902504
0.269825,0.073629,0.897076,0.458104,-0.874345,-0.160195
0.185900,0.156868,0.324242,0.114273,-0.875022,0.470401
0.103922,0.078233,0.165334,0.832817,0.001073,0.553548
0.176084,0.119048,0.054281,0.952443,-0.302635,0.035568
-0.127409,0.764826,0.679554,-0.289868,0.776223,0.559871
0.527684,0.401396,0.313882,0.337997,-0.014636,0.941033
-0.100596,0.106004,0.533704,0.902302,-0.054286,-0.427674
-0.269948,0.553586,0.539152,0.907867,0.408189,-0.095705
-0.203951,-0.043008,0.041863,-0.094094,0.989759,0.107350
-0.404738,0.217159,-0.059245,-0.388358,0.084457,0.917630
0.404494,0.349289,0.825249,-0.355859,-0.033585,0.933936
-0.025515,0.406000,-0.049404,0.337729,-0.193523,0.921134
-0.687949,0.487741,0.542334,0.872962,-0.043787,0.485820
0.041496,0.392042,0.362499,0.386445,-0.198331,0.900736
-0.031517,0.417437,-0.045685,0.337729,-0.193523,0.921134
0.198596,0.339496,0.017425,0.699330,0.547500,-0.459545
0.553036,0.081156,0.569280,-0.258292,0.106602,0.960167
0.303533,0.217671,0.341243,0.734628,-0.484355,-0.475101
-0.293839,0.351482,0.529190,0.387319,0.000421,0.921946
-0.682107,0.462966,0.577841,0.832937,0.507103,0.221502
-0.344989,-0.123433,0.721893,0.760402,-0.059164,0.646752
-0.650956,0.613622,0.551656,-0.613647,0.555590,-0.561032
0.058775,-0.505901,0.616150,-0.121754,0.460526,0.879256
0.100149,0.555523,0.880680,-0.320886,-0.377576,0.868601
0.469720,0.241605,0.821877,0.228958,0.845591,-0.482238
-0.175314,0.379764,0.741731,0.790361,0.389684,-0.472733
-0.063197,0.339423,0.676078,0.330325,-0.558869,0.760626
-0.053706,-0.361348,-0.014761,-0.045498,0.284549,0.957581
0.117754,0.058720,0.960031,0.942350,0.058947,-0.329396
-0.388229,-0.011912,0.439289,-0.131739,-0.958038,0.254575
-0.489759,-0.666569,0.190256,0.691657,0.500383,-0.520795
-0.372085,-0.546169,0.204853,-0.655028,-0.044160,-0.754313
0.140267,-0.077319,-0.186313,-0.640282,-0.374145,-0.670861
-0.633919,0.535097,0.729036,-0.569965,0.385480,-0.725635
-0.225611,0.151277,0.820735,0.977691,-0.063208,-0.200310
-0.629985,0.294625,0.751036,-0.553422,0.823214,-0.126664
-0.135805,0.524902,0.761499,-0.439424,-0.836688,0.326895
-0.584838,0.599262,0.487215,-0.758452,0.392634,0.520182
0.086399,0.595279,0.342886,-0.754568,0.059489,-0.653520
0.236442,0.042643,-0.965721,-0.314244,0.172202,0.933594
0.416987,0.238864,0.283218,-0.590292,0.613766,-0.524259
0.273719,0.405598,0.899134,0.811574,0.584172,-0.009503
0.097473,0.470274,0.031521,0.817951,0.471006,-0.330318
0.171784,0.828114,0.138249,0.137890,-0.101998,0.985182
-0.563178,-0.002960,0.706172,-0.699203,0.582083,-0.415084
-0.118444,0.504403,0.816117,-0.604454,0.754827,-0.254698
-0.468868,0.718858,0.446692,-0.533998,0.791007,0.298588
-0.184603,0.122629,0.929384,0.670870,0.734098,0.105042
0.392731,0.016516,0.866464,0.956463,-0.178919,-0.230579
0.283616,0.505207,0.247105,-0.090931,-0.305820,0.947737
-0.194175,0.118062,0.728240,0.618375,0.597003,-0.511077
-0.070539,0.107831,0.471009,0.993940,0.109787,-0.005530
-0.238836,0.306574,0.501397,-0.039592,-0.263617,0.963815
0.077313,-0.030000,0.923469,0.905380,0.035165,0.423143
-0.087617,0.172470,0.584742,0.893287,-0.383204,0.234933
0.416948,0.288413,0.920771,0.879077,0.218069,-0.423874
-0.559932,0.389301,0.779175,0.279760,-0.946741,0.159426
0.284671,0.072058,0.581542,0.179346,-0.913869,0.364250
0.025960,-0.139401,0.205389,0.462292,0.025905,-0.886349
0.106600,0.312566,0.245791,0.993669,0.104982,0.040000
0.146798,0.014068,0.275694,0.918102,-0.373894,0.131497
-0.258103,0.033215,0.521840,0.289407,-0.955299,-0.060396
0.213280,-0.079585,0.895035,0.718341,-0.255510,-0.647072
-0.652416,0.285344,0.529501,-0.485583,-0.224086,-0.844982
-0.120473,0.693938,0.597541,-0.649607,-0.747731,0.137512
0.027380,0.304235,0.534845,-0.099477,0.007732,0.995010
-0.061818,-0.385830,0.426214,-0.566689,0.321285,-0.758710
-0.390257,-0.826068,-0.101860,0.929928,-0.242705,-0.276277
-0.196163,0.214857,0.909494,0.993133,-0.035541,0.111461
-0.170243,-0.258596,0.579778,0.784608,0.251288,0.566785
-0.385430,0.412321,0.598423,0.803896,0.587049,0.095526
0.081207,-0.151935,0.470507,0.977928,-0.037951,0.205467
-0.299071,0.203786,0.628257,-0.202645,0.881623,-0.426235
0.520018,0.040596,0.787840,-0.771103,0.626128,0.115602
-0.010182,-0.355720,0.355114,0.818672,-0.506626,0.270384
0.034924,0.393613,0.804201,0.625853,0.777304,-0.064080
-0.149028,0.079548,0.908578,-0.465446,-0.884984,-0.012815
0.180951,0.137063,0.894274,-0.473730,-0.640606,0.604320
-0.194337,0.352176,0.869110,-0.526117,0.596521,-0.606106
-0.191620,0.864362,0.124413,0.106995,-0.347668,0.931493
0.499654,0.493222,0.215403,-0.190951,0.981540,-0.010805
-0.197583,0.518837,0.727064,0.585243,0.809667,0.043936
-0.396383,0.464757,0.710617,-0.349278,0.876731,-0.330678
-0.091551,0.081558,0.902386,-0.544607,0.252470,0.799789
-0.041902,-0.023897,-0.033907,0.268420,0.706613,0.654713
-0.104531,0.286805,0.355027,-0.269050,0.412757,-0.870197
-0.243744,-0.252677,0.142919,0.371423,-0.364424,-0.853956
0.012534,-0.611832,-0.043627,0.914140,-0.095677,-0.393946
-0.141241,0.032448,0.972086,0.642607,0.039256,0.765190
-0.677930,0.602039,0.577565,-0.558107,0.561149,-0.611252
-0.455766,0.014835,0.065869,0.351206,0.600835,0.718089
0.355615,0.251252,0.920736,-0.071369,0.885752,0.458640
0.319353,0.553915,0.246033,0.049976,-0.107273,0.992973
0.401330,0.052874,-0.959996,0.123043,0.116136,0.985583
0.378858,0.051960,0.806709,0.228701,0.875920,-0.424805
-0.082059,0.291811,0.357760,-0.206002,0.422798,-0.882499
0.124731,0.254431,0.500393,0.924487,0.251357,-0.286606
-0.346408,0.499726,0.132801,0.245439,0.172844,0.953879
0.175435,0.224139,0.886146,-0.707567,0.610661,-0.355587
-0.284956,0.313809,0.528792,-0.552534,0.073471,-0.830246
-0.048474,-0.065151,0.813610,0.543307,-0.812856,0.209960
-0.232832,0.531626,0.758351,0.549609,-0.834663,-0.035605
-0.344867,-0.002339,0.820943,0.807785,0.441350,0.390760
-0.512068,0.017320,0.718175,-0.632453,0.546324,-0.549120
-0.200869,0.097453,0.648250,0.807663,-0.577218,0.120418
-0.677119,-0.063324,0.351257,0.736479,0.619861,0.270872
-0.120919,-0.253919,0.814146,-0.209693,-0.773174,0.598524
-0.199570,0.658750,0.028701,0.021273,-0.217348,0.975862
-0.284428,0.079256,0.709423,0.567409,-0.521359,0.637363
-0.150327,-0.127087,0.506758,-0.779247,0.626548,-0.014517
0.072202,-0.732671,0.078096,-0.647260,0.761168,0.040968
-0.524318,-0.713560,0.109159,0.106052,-0.940213,-0.323656
0.314404,0.031680,0.787494,0.323058,-0.688183,-0.649644
-0.279479,0.284832,0.279257,0.165707,0.903562,-0.395116
0.030746,-0.370044,0.187316,0.976748,0.203918,0.066187
-0.213199,0.221288,0.924195,-0.061142,-0.928128,0.367205
0.107573,0.097855,0.656102,0.647136,0.732284,-0.212076
0.259928,0.488143,0.929332,-0.512855,0.352977,-0.782552
0.211211,0.141082,-0.686767,0.550493,0.834059,0.036091
-0.323003,-0.055688,0.066958,0.225178,0.645139,0.730130
-0.368029,0.462601,0.687787,0.168416,-0.934610,0.313275
0.150124,0.725655,0.723277,0.920008,0.345649,0.184693
0.112360,0.441809,0.598786,0.742469,-0.407377,0.531775
-0.676226,0.321080,0.391451,0.738468,-0.219481,0.637569
0.367947,0.096686,0.819974,0.856554,0.419167,-0.301022
0.163915,0.048489,0.283114,0.931401,-0.346273,0.112196
-0.142661,0.181569,0.230796,0.433271,0.043804,0.900199
0.013142,0.007966,0.853821,-0.597268,0.608408,-0.522601
-0.484404,-0.189133,0.685677,-0.676082,0.254337,0.691539
-0.334280,-0.119012,0.822603,0.667664,-0.312356,0.675766
0.259401,0.205540,0.650343,-0.268254,0.947375,-0.174701
0.214578,0.083751,-0.217098,0.914274,0.355171,0.194826
-0.113861,-0.252896,0.775612,0.855947,-0.137794,0.498364
0.113089,0.227318,0.434257,0.831484,0.550677,-0.073416
0.442056,0.344356,0.104178,-0.023348,-0.898526,0.438299
-0.237658,0.069792,0.711948,0.779843,-0.207159,0.590703
0.192877,0.491395,0.916170,-0.421671,-0.077464,0.903434
-0.209224,0.062996,0.425574,0.935379,0.353562,0.007781
0.023769,0.003435,0.674435,0.828464,0.547748,0.116700
-0.126233,-0.026455,0.681924,-0.370692,0.685245,0.626918
0.214781,0.208280,-0.118464,0.892279,-0.392642,0.222868
0.169593,0.125078,0.132438,0.090832,0.952763,0.289816
0.282805,0.653378,0.171024,-0.386856,-0.394900,0.833304
0.329047,0.134797,0.916447,0.829291,0.053187,-0.556280
0.306128,0.551102,0.627167,-0.676375,-0.196156,0.709958
0.031152,0.228779,0.938689,-0.301439,0.526115,0.795197
0.370015,0.087222,0.573379,-0.293088,0.950968,0.098789
-0.246744,-0.054153,0.043039,0.106290,0.881273,0.460500
0.501359,-0.119597,0.634224,0.275457,0.358007,0.892163
0.075609,-0.172251,0.548734,0.160445,-0.955695,-0.246788
-0.571817,0.518910,0.492870,0.900053,-0.058342,0.431858
0.089360,0.276830,0.785903,-0.594639,-0.798471,-0.094064
-0.184806,-0.510469,-0.065592,-0.217634,-0.397194,0.891556
-0.239240,0.338912,0.862071,0.293357,-0.904588,-0.309292
0.536567,0.267256,0.829954,0.244693,0.675287,0.695782
-0.179005,0.244199,0.753647,0.938756,-0.095705,0.331024
0.613515,0.435378,0.762156,0.853934,0.027224,0.519669
0.008355,0.765338,0.771202,-0.216061,0.856926,0.467970
-0.241918,0.258413,0.558920,-0.129470,0.939899,0.315955
-0.161725,0.043593,0.296846,-0.497835,0.790608,-0.356510
-0.077638,-0.093397,0.863748,0.970895,-0.039209,0.236275
-0.336714,0.544305,0.409161,0.965853,0.255792,-0.041212
0.442827,-0.081595,0.280796,0.319352,0.864537,0.388059
0.041576,0.098842,0.883102,-0.627469,0.774177,0.083265
0.344907,0.327548,0.335501,-0.674550,0.737939,0.020691
0.929298,0.069646,0.236313,-0.067893,-0.004692,0.997682
0.376424,0.260350,0.923572,-0.716646,0.610973,-0.336349
0.486634,0.342091,0.571096,-0.559071,0.032909,0.828466
0.211130,0.262652,0.635798,0.774068,0.329495,0.540602
0.546951,0.580005,0.255113,-0.366113,0.135742,-0.920617
-0.073176,-0.178865,0.889311,0.674258,0.176970,-0.716979
-0.359308,-0.004494,0.824177,0.862160,0.433783,0.261749
-0.645683,0.447583,0.697680,0.311471,-0.692971,0.650212
-0.192878,-0.041400,0.094475,0.069558,-0.967197,-0.244320
0.172636,-0.376548,0.711827,0.821353,-0.568310,-0.049026
0.087413,-0.315234,-0.186537,0.599520,-0.760100,-0.250647
0.073621,-0.133117,0.175071,0.193871,-0.348730,0.916952
0.486959,0.285490,0.834174,0.351706,0.652164,0.671554
0.122905,0.512698,0.872085,0.528665,0.810426,-0.252434
0.278018,0.028465,0.162722,0.638431,-0.023232,-0.769329
0.229586,-0.271129,0.602643,-0.142819,0.934619,0.325714
-0.134467,-0.699273,0.229412,-0.499037,0.187741,0.845999
-0.578956,0.101180,0.629104,0.828221,-0.498036,0.256926
0.033099,0.296635,0.844257,-0.421249,0.900051,-0.111614
-0.313390,0.305295,0.759943,-0.104349,-0.954004,0.281048
-0.151706,-0.382833,0.811240,0.142039,0.359633,0.922220
-0.199408,0.375964,0.902957,-0.144511,-0.773998,-0.616476
0.060357,0.272774,0.788238,-0.666949,0.661124,-0.343650
0.516529,0.046625,0.774540,0.863976,-0.468838,-0.183674
-0.004786,-0.053641,0.191795,0.552777,-0.074130,-0.830026
0.389445,0.216648,0.540328,0.422459,0.173620,-0.889598
0.732528,0.502941,0.358659,-0.412846,-0.000217,-0.910801
-0.513244,-0.004641,0.206323,-0.301935,0.815221,-0.494216
0.730296,0.545474,0.262377,0.669169,0.236275,0.704548
-0.391150,-0.353528,0.700153,0.769411,0.604329,0.206864
0.256844,0.678591,0.096706,-0.453996,0.395398,-0.798466
0.169228,-0.020024,0.777445,0.678323,0.690490,0.251201
-0.013589,0.022765,0.889432,0.014211,-0.633228,0.773835
-0.466069,0.090693,0.547073,0.775525,0.419846,0.471476
-0.220826,0.271276,0.827498,-0.782373,0.616814,-0.086214
0.110453,0.498922,0.715961,-0.491450,0.004810,0.870893
-0.381373,0.269631,0.577755,-0.042408,-0.988929,0.142204
-0.035859,0.690467,0.703560,0.881447,-0.436417,0.180529
-0.464649,-0.188366,0.329309,0.934973,-0.331112,0.127240
-0.448141,-0.155808,0.139512,0.957360,0.021344,0.288107
0.309251,0.488727,0.084340,0.999694,-0.015868,0.018989
-0.490001,0.692586,0.545274,-0.135650,-0.822942,0.551693
-0.129600,0.631746,0.021334,-0.136368,-0.458928,0.877946
0.256276,0.128512,-0.976202,-0.135387,0.451958,0.881705
-0.218879,0.550554,0.452295,-0.244805,-0.484437,0.839876
0.566746,0.325246,0.426076,-0.292767,-0.718314,0.631121
0.503549,0.215077,0.549996,0.563574,0.443374,-0.696997
-0.129274,-0.340739,0.762987,0.203716,0.395142,0.895747
-0.279520,-0.136149,0.705515,-0.213580,0.665511,-0.715177
-0.141971,0.311543,0.366823,-0.130322,-0.718279,0.683441
0.322070,0.007747,0.780576,-0.094219,0.503252,0.858988
0.191052,0.142471,0.367601,0.560607,0.814973,0.146760
0.523789,0.216502,0.851382,0.902207,-0.169957,-0.396406
-0.223705,-0.109402,0.437543,0.424007,0.727480,0.539436
0.037236,-0.076698,0.209713,0.175790,-0.073213,0.981701
-0.716465,0.386524,0.449182,-0.767958,0.631166,0.108949
-0.397437,0.175503,0.774177,0.575965,0.762549,0.294591
-0.435201,0.354259,0.377909,0.343393,0.931268,-0.121739
0.257453,0.175942,0.595552,0.380327,0.906956,-0.181055
-0.321868,0.502320,0.630056,0.026985,-0.459479,0.887779
0.204843,0.363723,0.140809,0.035689,-0.309120,0.950353
0.745589,0.669566,0.223255,0.070920,0.399087,0.914166
0.108668,0.098367,0.236451,0.129991,-0.980954,-0.144329
-0.351681,-0.158476,0.651623,0.191323,-0.931097,0.310570
-0.653552,0.293602,0.524192,-0.485583,-0.224086,-0.844982
0.561919,-0.085797,0.275902,-0.240100,-0.938447,-0.248331
0.197947,0.274455,0.960048,0.617844,0.570158,-0.541469
0.182857,0.551211,0.176195,0.163634,0.544650,-0.822545
0.321948,-0.096467,0.172857,-0.357252,0.307032,0.882101
0.343771,0.084372,0.921013,0.912501,0.383969,0.141101
0.270352,0.234151,-0.987582,0.052241,-0.203070,-0.977770
-0.241066,-0.151387,0.817691,0.015983,0.151566,0.988318
-0.340689,0.555852,0.455910,-0.626269,-0.739321,0.247369
-0.310591,0.374868,0.503437,0.293135,-0.234610,-0.926839
-0.136860,-0.059707,0.910809,0.969518,-0.237921,0.058552
0.186995,0.115541,0.903769,0.297143,0.925125,-0.236326
-0.176044,0.385903,0.723156,0.793389,0.559760,-0.239171
0.547559,0.304052,0.503870,-0.639683,-0.113526,0.760209
0.224598,0.215515,0.838532,0.832046,0.543222,0.112292
-0.085711,-0.028501,0.900898,0.935078,-0.181849,0.304236
0.621466,0.221763,0.402952,-0.413302,-0.340592,0.844499
0.361537,0.040085,0.640813,-0.709694,0.668494,0.222376
0.230397,0.179413,0.627997,-0.148491,-0.986089,-0.074695
0.511986,0.408156,0.169242,0.810782,-0.326146,-0.486066
-0.133331,0.069061,0.831908,-0.497787,0.866973,0.023804
0.423032,0.463076,0.676614,-0.284725,-0.524612,0.802318
-0.259401,0.300435,0.741644,-0.236909,-0.757552,0.608267
-0.569262,0.121899,0.639551,0.863944,-0.219505,0.453231
-0.322517,0.382651,0.884174,0.838977,-0.320118,-0.440049
0.066117,0.573757,0.717552,-0.656981,0.073284,-0.750337
0.503103,0.261008,0.202432,-0.576922,-0.660059,-0.481126
0.432360,0.405196,0.809424,-0.809493,0.272848,-0.519880
-0.387012,0.533745,0.717777,-0.568504,0.819356,-0.073881
-0.192107,-0.424964,0.426491,0.247731,-0.155325,0.956297
-0.055410,-0.071254,0.886543,0.904875,0.419896,-0.069916
0.044051,-0.224321,0.579087,0.612813,-0.781509,-0.117063
-0.669533,-0.264150,0.206444,0.632276,-0.441799,-0.636428
-0.612704,0.063617,0.687666,0.626772,0.579314,0.521107
0.049486,0.141777,0.935039,0.416107,-0.103721,-0.903381
-0.298260,0.701356,0.652245,-0.312099,-0.796311,-0.518154
-0.609257,0.604341,0.540138,0.517892,-0.562085,0.644862
-0.463595,-0.152227,0.643252,0.923885,-0.324355,-0.203052
-0.130411,0.410092,0.559076,-0.292793,-0.834728,0.466371
-0.129518,-0.694778,-0.084859,-0.487709,0.336947,0.805361
0.125137,0.190485,-0.989830,0.003231,0.251432,0.967870
0.111710,-0.086564,0.442939,0.981397,-0.004087,0.191945
-0.285969,0.024409,0.542040,0.399675,-0.912654,0.085573
0.159372,0.055176,0.939501,-0.106485,0.755279,0.646695
0.250354,0.492747,0.802558,-0.289977,0.957029,-0.002965
0.283940,0.361201,0.046291,-0.540520,-0.451515,0.709910
-0.368029,0.162495,0.208779,0.029882,-0.857327,0.513903
0.074676,-0.051668,0.057221,0.796430,-0.576043,-0.184049
0.192755,0.145759,-0.013395,-0.882233,-0.345319,-0.320030
-0.001622,0.426353,0.751347,0.353411,0.896288,-0.267896
0.023769,0.055578,0.944309,0.161783,-0.881328,0.443946
0.194662,0.200972,0.666531,-0.363986,-0.887817,0.281596
0.005070,0.176271,0.308866,-0.667771,0.105604,-0.736838
0.321380,-0.092447,0.827982,-0.694382,0.717620,0.053431
0.232832,0.055688,-0.966102,-0.323549,0.151312,0.934035
0.226707,-0.000585,0.904375,0.931096,0.197445,-0.306717
0.140145,0.598093,0.891524,0.728015,0.650123,-0.217565
-0.131546,0.785216,0.099577,-0.185172,0.897408,-0.400462
0.136495,-0.409654,0.767622,-0.218447,0.736441,0.640262
-0.616842,0.459897,0.510183,0.684206,-0.444862,0.577892
0.068024,0.106552,0.866325,0.778907,0.567825,0.266231
-0.472194,0.044616,0.704114,0.659100,-0.548357,0.514677
-0.247597,-0.710381,0.133977,0.830082,0.045986,0.555742
0.408794,-0.239961,0.202328,0.618037,-0.239665,-0.748726
0.062061,0.137209,0.156824,-0.588671,-0.807459,-0.038427
0.106477,0.107684,0.089010,-0.361862,0.913147,-0.187667
0.015373,0.339496,0.930283,-0.813779,0.427397,0.393821
-0.419584,-0.099463,0.356549,0.779304,-0.492407,0.387583
-0.685029,0.441444,0.600187,0.982438,0.076441,0.170212
-0.128260,-0.093909,0.478429,-0.263676,0.889076,0.374192
-0.538191,-0.157379,0.239703,-0.070468,0.926951,-0.368504
-0.334361,0.396974,0.645085,0.266036,-0.173388,0.948241
0.163306,0.174444,0.357085,0.823732,0.555526,0.113385
0.188781,0.436913,0.883119,-0.024040,-0.964820,0.261811
-0.333712,-0.006870,0.498802,-0.226889,0.868266,0.441176
0.229383,0.086308,-0.370956,0.619033,0.778900,0.100564
0.021214,0.155735,0.216700,0.598329,0.800292,0.039183
0.177990,0.521869,0.586558,0.514710,-0.730282,0.449180
0.629253,0.278620,0.738116,0.419363,-0.716360,-0.557641
0.432969,-0.343004,0.256168,0.294184,0.686697,0.664758
0.100677,0.444002,0.656275,0.907341,-0.339469,0.247977
-0.581389,0.500164,0.705186,0.411961,-0.544982,0.730262
-0.515962,-0.143640,0.281056,-0.010808,-0.994650,0.102732
0.011925,-0.308437,0.349787,0.908963,-0.347060,0.230944
-0.014278,-0.268535,0.545032,0.852637,-0.167784,-0.494832
0.044740,-0.196112,0.566167,-0.376567,0.869938,0.318441
0.162536,0.224358,0.565735,-0.456032,-0.700692,0.548695
-0.208291,-0.667227,0.074741,0.977303,0.113932,0.178601
-0.538515,0.355136,0.754391,0.360218,-0.924341,0.125842
0.444368,0.120620,0.905551,0.777252,-0.596759,-0.199396
0.414149,0.565827,0.717344,-0.448541,0.833271,-0.323218
0.229789,0.051632,-0.957679,-0.534142,0.068324,0.842630
-0.073014,0.018087,-0.252173,-0.161960,0.730266,0.663687
-0.397599,-0.029415,0.548042,-0.032675,0.947999,0.316590
0.157425,0.282713,0.593407,0.310653,0.740641,-0.595773
-0.235185,0.779552,0.433357,0.326771,-0.226892,0.917464
0.764896,0.530858,0.257223,-0.187395,-0.888578,0.418704
-0.621182,0.359959,0.488391,0.828141,0.487790,0.276121
-0.190769,0.663756,0.344512,-0.710646,-0.647066,-0.276202
-0.195716,-0.309497,0.191363,0.662098,-0.677443,-0.320464
-0.171501,-0.526802,0.468501,-0.678008,0.654863,0.333856
0.360970,0.110571,0.817674,0.773987,0.582057,-0.249305
-0.032735,-0.804253,-0.016647,0.890637,-0.188243,-0.413922
0.495072,-0.048453,-0.951349,-0.105515,0.143418,0.984021
0.172515,0.329448,0.947509,0.225325,-0.944691,0.238301
0.465501,0.310812,0.943254,0.856089,0.232456,-0.461602
-0.391027,0.358096,0.652937,-0.769457,0.382026,-0.511852
-0.112807,0.756203,0.672135,0.229219,0.777585,0.585509
0.422018,0.045822,0.858145,0.948494,-0.186167,-0.256324
0.622277,0.350312,0.523569,0.848516,0.142554,-0.509607
0.436579,0.485110,0.683774,-0.141821,-0.629600,0.763866
0.200828,0.024044,-0.425938,0.888246,-0.453982,0.070134
-0.304101,-0.840867,0.236002,0.002701,0.770178,0.637824
-0.388270,-0.356488,0.706864,0.769411,0.604329,0.206864
-0.780027,-0.114335,-0.295203,-0.072473,0.930521,0.358998
-0.349288,0.272555,0.709614,0.089006,-0.974128,0.207730
-0.573805,-0.149998,0.415266,-0.764466,0.002150,-0.644661
-0.322476,-0.806884,-0.087955,0.761744,-0.491301,-0.422338
0.306210,0.104213,0.738946,0.767362,-0.330829,-0.549279
-0.110332,0.783060,0.703145,0.151181,0.954783,-0.255995
0.209670,0.140863,0.325833,-0.048915,0.968396,-0.244575
0.275220,0.220558,-0.986959,-0.057891,0.223131,0.973068
-0.375695,-0.273432,0.688773,0.861387,0.171662,0.478064
-0.109237,0.300800,0.909615,0.830369,0.411594,0.375603
-0.027015,-0.233493,0.718521,0.890694,-0.454601,-0.001287
0.063927,0.517265,0.845744,-0.223547,0.961416,-0.160334
0.218148,0.195856,-0.062929,0.998322,-0.026900,-0.051287
0.026082,0.560054,0.330261,-0.741746,0.043388,-0.669276
0.156005,-0.458691,0.641886,0.941706,-0.128594,-0.310892
-0.202288,-0.105675,0.608886,0.946646,-0.096181,0.307588
0.040765,0.535901,0.146758,-0.675354,-0.656562,0.335892
-0.102340,-0.923594,0.032299,-0.782164,0.270980,-0.561061
0.094227,0.392918,0.921307,-0.319545,0.691676,0.647668
-0.087049,0.169218,0.899013,-0.111093,0.190157,0.975448
0.156126,0.126576,0.497228,0.916343,-0.315847,-0.246082
-0.579565,0.460664,0.699444,0.199948,-0.490127,0.848408
0.056748,-0.493331,0.762364,-0.101928,0.946322,0.306734
-0.226301,0.173019,0.490241,-0.239056,-0.773463,0.587033
-0.117754,-0.386414,0.787234,-0.572095,-0.275320,-0.772597
-0.256359,0.088866,0.701277,-0.653530,0.598783,-0.462988
0.039103,0.121241,0.890297,0.733882,0.567508,-0.373298
-0.532431,0.359557,-0.081953,0.462295,0.568742,0.680306
-0.603456,0.458764,-0.113534,0.099846,0.859835,0.500714
-0.177585,0.881536,0.662501,0.926385,-0.182705,0.329286
0.271001,0.490043,0.568467,0.774786,0.012912,-0.632092
-0.620858,0.040560,0.613400,0.272578,0.906241,-0.323153
-0.437270,-0.185077,0.152327,0.628871,0.543453,0.556040
0.212104,0.093689,-0.342817,0.616895,0.780946,-0.097796
0.225652,0.107794,0.214313,0.156088,0.938075,-0.309276
-0.243338,0.144481,0.938879,0.386907,0.865570,0.317948
-0.499534,0.051485,0.897785,-0.208713,-0.778230,0.592281
-0.001583,-0.002558,0.671460,-0.569635,0.183201,-0.801220
-0.485783,0.237147,0.694619,0.258145,0.582157,-0.771008
0.217012,0.412650,0.874921,0.640566,0.714701,0.280854
0.276964,-0.464245,0.417757,-0.284414,0.907438,0.309298
0.213442,0.107465,-0.775111,-0.055207,-0.998146,0.025621
-0.317974,0.852925,0.458747,-0.618633,-0.069155,-0.782631
0.408591,-0.419228,0.303833,-0.288460,-0.584752,-0.758193
