-0.765902,-0.304684,0.336281,0.228287,0.416760,0.879884
0.039189,-0.321587,0.721967,0.569242,0.443123,0.692536
0.245414,-0.089613,-0.359718,0.966222,0.251177,0.057659
0.353154,-0.096417,-0.571327,0.472299,0.862271,0.182819
-0.131634,0.511129,0.509104,-0.042725,0.985288,0.165473
0.706385,0.023124,-0.133811,-0.593832,0.292037,0.749718
-0.181939,0.145569,0.436034,-0.572847,0.539466,-0.617108
0.209911,-0.526819,-0.982849,-0.170598,0.149019,0.974007
0.286360,-0.099668,-0.697574,0.485662,-0.866351,0.116482
0.318346,0.066207,0.673823,-0.290202,-0.524782,0.800242
-0.172876,-0.346163,0.688983,-0.626026,0.779786,-0.005090
0.155992,0.368962,0.822520,0.369451,0.847763,-0.380530
-0.748274,0.279761,0.483363,0.586821,0.809535,-0.017141
-0.022803,0.474504,0.339965,0.074321,0.805488,0.587934
0.592750,-0.172658,-0.974352,-0.043876,0.014533,0.998931
-0.267249,-0.166287,0.143265,0.134403,0.755199,0.641569
0.014136,-0.281061,0.946870,0.750162,0.206713,0.628114
0.191443,0.021217,0.747490,0.836423,-0.146472,-0.528150
-0.704058,-0.496435,0.463453,-0.561995,-0.377120,-0.736167
-0.534028,-0.384478,0.722328,-0.264093,0.425801,-0.865418
-0.822296,0.159353,0.636967,0.493191,-0.842532,0.216569
0.024831,0.304077,0.854360,0.456496,0.730810,-0.507472
-0.001510,0.473030,0.502003,0.920186,0.390902,-0.021277
-0.054045,-0.279934,0.695520,-0.510303,0.755116,0.411571
0.353650,-0.458423,-0.974838,0.365539,-0.323031,-0.872944
0.354937,-0.204473,0.550993,0.868511,0.391688,-0.303757
-0.810166,-0.179508,0.490841,0.045575,-0.853823,0.518565
-0.390688,0.632361,0.524233,0.390051,0.920038,-0.037299
-0.653701,-0.218170,0.581282,0.929084,0.356534,0.098421
-0.625034,-0.352275,0.313565,0.174044,-0.268935,0.947303
-0.083060,-0.081248,-0.739275,0.326513,-0.222632,0.918599
0.315822,-0.122814,-0.849359,0.911282,-0.400313,-0.096513
-0.223628,-0.864118,0.099400,-0.173225,0.384093,0.906899
-0.460501,0.136554,0.240353,-0.403902,0.775653,0.485000
0.392568,0.445809,0.615238,0.212560,-0.762781,0.610723
-0.150893,-0.155668,0.854266,0.231214,0.623921,-0.746500
-0.266508,-0.169885,0.581642,-0.046817,0.715584,-0.696956
0.068748,0.774050,0.564288,0.766545,-0.002203,-0.642186
-0.382516,-0.304163,0.411013,0.994431,0.021338,-0.103204
-0.169808,-0.104262,0.611773,0.288549,0.897796,0.332720
-0.393511,-0.184882,0.288199,0.765042,-0.633082,0.117972
-0.527987,-0.023600,0.698530,0.589363,0.736837,-0.331244
-0.064145,0.264980,0.761082,-0.301844,0.667876,0.680317
0.621716,-0.032833,-0.152028,-0.009135,0.159659,0.987130
0.701879,0.088399,-0.773921,0.568604,-0.245569,-0.785102
-0.845914,-0.181891,0.488771,0.273918,-0.619205,0.735904
-0.528878,-0.153372,0.525330,0.477872,-0.758852,0.442473
-0.508975,-0.561103,0.402046,0.328580,0.941816,-0.070838
-0.370685,-0.482955,0.683903,0.518190,0.670440,0.531027
0.272646,-0.306504,0.711793,0.296955,-0.940029,0.167822
0.249177,0.113061,0.675109,0.198711,-0.087769,0.976120
0.489712,-0.211972,0.377449,-0.105488,-0.992035,0.068837
-0.307306,0.280497,0.540897,0.726313,0.662605,0.182823
0.225260,0.233124,0.753666,0.897331,0.342418,-0.278471
-0.352761,0.096895,0.801873,-0.315255,0.846383,-0.429243
-0.631619,-0.089352,0.786573,-0.798226,0.512854,-0.315937
-0.273489,-0.249810,0.762728,0.278727,0.679843,0.678325
-0.284925,0.570986,0.465820,-0.139671,-0.783212,0.605864
-0.157231,-0.330083,0.120235,0.976409,-0.019617,0.215038
-0.608497,-0.186441,0.013929,0.017943,-0.147939,0.988834
-0.208279,-0.151811,0.426612,-0.548805,0.265574,-0.792644
-0.605475,-0.331513,0.578209,0.023409,0.408275,0.912559
0.241700,0.076567,0.551087,0.784769,-0.124634,0.607128
-0.189564,0.217173,0.777213,-0.261948,0.752614,-0.604115
0.837099,-0.211928,-0.962626,-0.108198,0.206639,0.972416
-0.350631,-0.195847,0.586345,0.082888,-0.991486,-0.100422
0.492435,0.344473,0.559083,0.922815,0.356595,-0.145782
-0.193770,-0.157402,0.334729,0.126322,0.129726,0.983470
-0.576065,-0.648137,0.385883,-0.112434,0.111105,-0.987428
-0.423118,-0.318510,0.711605,0.265624,0.907695,0.324858
0.845467,-0.238844,-0.960008,0.065464,0.116236,0.991062
-0.677270,-0.584639,0.489571,0.384225,0.305666,0.871171
-0.537394,0.091260,0.533279,0.036355,-0.886373,0.461542
-0.747086,0.213402,0.464205,0.764884,0.287522,0.576440
-0.107965,0.010815,0.448042,-0.451727,-0.828887,0.329984
-0.042854,0.153458,0.707686,0.854024,-0.326281,0.405195
-0.096278,0.822552,0.562297,-0.515816,-0.098948,-0.850966
-0.175898,-0.229569,0.146165,-0.708440,0.150631,-0.689509
-0.176541,0.885616,0.517586,0.423683,0.900802,0.095119
-0.253583,0.214702,0.588509,-0.737712,0.357527,-0.572674
-0.470652,-0.548404,0.079099,-0.486431,-0.198084,0.850969
-0.757978,0.199316,0.590437,0.715358,0.510815,0.476792
0.460401,-0.115359,-0.971170,0.293007,0.087316,0.952115
0.517787,-0.572373,-0.965542,-0.045148,0.038918,0.998222
0.413363,0.353792,0.485260,-0.638786,-0.184009,0.747057
-0.262595,-0.665041,0.440658,-0.075382,-0.451317,0.889174
0.246058,-0.107731,-0.400368,-0.737313,0.674547,0.036835
0.501894,0.030796,-0.576249,0.834626,0.038067,-0.549500
0.346173,-0.718267,-0.965934,-0.089685,0.097024,0.991233
-0.631371,-0.146132,0.730668,0.795337,-0.199051,-0.572554
0.203822,-0.061656,0.117852,0.956382,-0.245553,0.158228
0.311365,-0.157185,0.515767,0.769229,0.612589,-0.181718
0.476590,-0.459289,0.286600,0.312852,0.610503,0.727606
-0.268835,0.557029,0.457245,0.116419,-0.667114,0.735803
0.089397,-0.120301,0.596802,-0.440640,0.896806,-0.039698
0.285469,-0.675010,-0.974901,-0.220510,0.049322,0.974137
-0.584928,-0.072145,0.584934,0.242054,-0.945184,-0.219174
-0.399005,-0.428516,0.706102,0.838422,0.284902,-0.464628
0.069095,-0.183365,0.677743,-0.043576,0.993303,0.107004
0.049984,-0.525865,0.208340,0.577051,0.702891,0.415880
0.799223,-0.638601,-0.953878,-0.258888,0.194175,0.946189
0.282646,-0.549834,-0.977049,-0.186808,0.058658,0.980644
-0.343798,0.648571,0.521850,-0.223989,-0.974095,-0.031126
-0.140246,0.064126,0.458342,0.656912,0.684237,-0.316682
-0.744016,-0.526688,-0.041050,0.374145,-0.064210,-0.925145
-0.632807,-0.482825,-0.004398,0.786253,0.001362,-0.617904
-0.491495,-0.351148,0.182708,0.055089,-0.802452,0.594168
-0.702722,-0.349327,0.321121,-0.364444,0.245152,-0.898377
0.274526,-0.099278,-0.345075,0.985159,0.165759,-0.044550
0.424206,-0.176647,0.647015,0.971872,-0.105376,0.210621
-0.122374,-0.367011,0.675344,-0.679698,-0.511941,0.525287
-0.698908,-0.487723,-0.030547,-0.622045,0.153962,0.767695
0.096526,-0.153372,-0.997492,-0.275981,0.063301,0.959077
0.099001,0.139414,0.779769,-0.770361,-0.619019,0.152839
0.126037,-0.016319,0.545256,0.740071,-0.624368,0.249919
-0.864185,0.205644,0.498036,0.984109,0.136405,0.113684
0.191395,-0.085669,-0.062058,-0.408244,0.911094,-0.056969
-0.378654,-0.100666,0.372291,0.894419,-0.371346,-0.249233
0.090685,0.010337,0.866149,-0.485297,-0.230031,0.843547
0.557001,-0.648917,-0.966639,-0.085463,0.120773,0.988994
-0.077563,0.046313,-0.155148,0.027009,0.459986,0.887515
0.046517,0.550094,0.434889,0.059042,-0.111380,0.992022
-0.521649,-0.037037,0.780129,0.224068,-0.824226,0.520043
-0.043054,-0.238020,0.989057,0.445725,0.885632,0.130326
0.048004,0.004270,-0.152232,0.245814,0.431971,-0.867742
0.323447,0.024554,0.620004,0.831675,0.463164,-0.306260
0.175599,-0.431983,-0.982614,0.054431,0.121297,0.991123
-0.528086,-0.490063,0.353024,0.581550,0.563046,0.587178
0.287648,-0.297922,0.712718,-0.194085,0.947041,-0.255820
-0.281510,0.830483,0.384347,0.621743,0.776991,-0.098593
-0.251256,0.190560,0.240933,-0.626929,-0.377669,0.681414
-0.240860,-0.215699,0.896547,0.904493,0.276067,0.325083
0.247394,-0.105216,-0.115704,-0.056220,0.998382,0.008507
-0.266061,0.826496,0.378358,0.581363,0.812111,-0.049937
-0.335629,0.173743,0.697762,-0.179029,0.166110,0.969720
0.324487,-0.190993,0.380741,-0.005362,0.904939,0.425507
-0.327953,0.627723,0.358981,0.291226,0.339140,0.894523
-0.819426,-0.456949,0.602054,0.152270,-0.658184,0.737298
0.408213,-0.368051,-0.972785,0.226124,0.045184,0.973050
-0.485554,-0.035303,0.685534,0.245245,0.777806,0.578682
-0.298195,-0.249810,0.865365,0.888483,0.344971,0.302644
0.505457,-0.151854,-0.973427,-0.039848,0.226232,0.973258
-0.233136,-0.188566,0.883096,0.483860,0.715081,0.504519
0.402767,0.202956,0.435845,-0.022388,-0.949522,0.312901
-0.414849,-0.413519,0.457621,-0.736850,0.405132,-0.541221
-0.126681,0.307067,0.736453,0.875761,0.384281,-0.292181
-0.000222,0.575623,0.709943,0.733877,-0.641349,0.223822
0.283341,0.217736,0.585624,0.772698,-0.356690,0.525081
0.451290,0.222288,0.501579,0.403405,0.414101,-0.815957
0.078799,-0.371389,0.732832,0.809874,0.287633,0.511246
-0.746295,-0.199011,0.466573,-0.490202,0.520263,0.699305
0.789815,-0.611772,-0.955446,0.193213,-0.084253,-0.977533
0.175006,-0.617493,-0.982301,0.360703,-0.000478,-0.932681
0.337261,-0.017575,0.662003,0.181930,-0.363303,0.913735
0.129056,0.725159,0.372228,0.038000,0.169173,-0.984854
0.033643,0.179291,0.598871,0.961521,0.038918,-0.271960
0.577600,-0.077389,0.278526,0.437061,0.404637,0.803272
0.473719,-0.245477,0.470100,0.132058,0.837219,0.530683
0.293737,-0.054764,-0.160604,-0.368852,0.859621,0.353554
0.464016,0.251717,0.205894,0.014626,-0.846517,0.532160
0.239718,-0.296491,0.819620,0.907793,-0.209810,-0.363168
0.487485,0.390503,0.526772,0.928127,0.167597,-0.332402
0.289431,0.068808,0.873972,-0.093701,0.669306,0.737054
-0.254970,0.203823,0.458671,0.770466,0.621942,-0.139894
0.091425,-0.127234,0.660043,-0.508365,0.833894,0.214906
-0.175502,0.070715,0.362242,0.955724,0.004208,-0.294234
0.381425,-0.404461,-0.978272,-0.112491,-0.043502,0.992700
-0.302652,0.495351,0.451319,0.691930,0.354711,0.628819
0.086127,0.074226,-0.146698,-0.356788,0.118384,0.926654
0.441537,0.009991,0.688215,0.846481,0.098848,-0.523162
0.820710,-0.604967,-0.951448,-0.236743,0.109334,0.965401
-0.685194,-0.682249,0.467090,0.949915,0.307873,0.053623
-0.739214,0.127972,0.691209,0.638257,0.207089,0.741446
0.120591,0.007651,0.713141,-0.688528,-0.589603,0.422253
-0.878147,-0.124460,0.511723,0.179384,-0.821010,0.542000
0.086127,-0.110851,0.889257,-0.355196,-0.130227,-0.925676
-0.173075,-0.214052,0.875289,0.517475,-0.187445,0.834916
0.511202,-0.294063,-0.975528,-0.056311,0.017124,0.998266
-0.290621,-0.953188,0.110170,-0.187922,0.423771,0.886061
0.065085,0.068851,0.820325,0.991487,0.124465,-0.038232
-0.547198,0.065990,0.470116,0.157199,0.899058,0.408637
0.493822,0.193810,0.187443,-0.077200,-0.577442,0.812774
0.211990,-0.115229,-0.001246,0.823509,0.518213,0.230841
-0.274825,0.603103,0.528246,0.369599,0.863924,0.342100
-0.015771,-0.113581,0.533169,-0.655516,0.675899,-0.336836
0.033247,0.388553,0.476543,0.746232,0.626106,0.226116
-0.590030,-0.370305,0.317139,0.116670,-0.307029,0.944522
0.303293,-0.148820,-0.251421,0.396516,0.884583,-0.245534
-0.666479,-0.611165,0.232593,0.575771,-0.220094,-0.787430
-0.771296,-0.430033,-0.058421,-0.492854,0.181739,0.850921
-0.198179,-0.221290,0.843308,0.779305,0.435101,-0.450968
-0.424753,0.000672,0.600486,0.149418,0.702551,0.695770
-0.121482,0.476150,0.652126,0.011129,-0.826681,0.562561
-0.243683,0.259519,0.330903,0.967564,-0.197455,-0.157579
0.071622,0.138894,-0.150774,-0.364711,0.134791,0.921313
0.076028,-0.113408,0.866494,0.464982,-0.744011,0.479834
-0.197932,0.090133,0.434215,-0.770273,-0.118592,-0.626590
-0.700296,0.194851,0.677633,-0.028263,0.646125,0.762708
-0.700840,-0.052900,0.609924,0.084350,-0.957780,0.274850
0.440594,0.408230,0.509700,0.399663,0.858561,-0.321158
0.231649,0.033092,0.738836,0.946237,0.318263,0.057822
-0.262250,0.294671,0.477029,0.979033,0.179138,-0.096974
0.107765,-0.609691,-0.985405,-0.097087,-0.033989,0.994695
-0.154607,-0.401816,0.787764,0.659462,0.734886,-0.158279
-0.190503,-0.152894,0.399631,0.563208,-0.127285,0.816453
-0.759613,-0.139111,0.111691,-0.491578,0.166642,0.854741
-0.605379,0.059359,0.694172,-0.683493,-0.569033,-0.457208
0.281954,0.248683,0.576578,0.860191,-0.182309,0.476272
0.395291,-0.097327,-0.124938,-0.579939,0.449477,0.679442
0.045033,0.008734,-0.153486,0.245814,0.431971,-0.867742
-0.710000,-0.503413,0.465506,-0.562050,0.047862,-0.825718
0.020325,0.593611,0.639004,0.688183,-0.563710,0.456766
0.305671,-0.360466,-0.979996,0.272700,-0.024448,-0.961788
-0.639244,-0.133216,0.669010,0.273230,0.511754,0.814527
-0.060582,-0.340398,0.720729,0.868015,-0.489387,0.083971
0.095487,0.087793,0.876136,0.473909,0.320151,0.820313
0.350727,-0.074572,0.820921,-0.406122,-0.903493,0.136983
0.293393,-0.012764,0.841474,-0.236732,0.088054,-0.967577
-0.101528,-0.116008,0.905185,-0.642556,0.377325,0.666894
-0.014532,0.370782,0.281724,-0.214174,-0.570264,0.793050
0.364989,-0.240101,-0.585828,0.983349,-0.180435,-0.021618
0.585820,-0.122640,-0.974650,0.001969,-0.064127,0.997940
-0.429455,0.072882,0.520988,0.396757,0.826799,-0.398732
0.233580,-0.063694,-0.220427,0.360192,-0.903540,0.232114
-0.343006,-0.812236,0.089053,-0.000233,0.570314,0.821427
0.211099,-0.127321,0.900419,0.912417,-0.181576,-0.366777
-0.201842,0.085756,-0.262489,0.370433,0.927856,0.043169
-0.120939,0.311575,0.733819,0.551535,0.761934,0.339508
-0.144752,-0.273389,0.188759,-0.576372,0.814604,-0.064935
-0.113955,-0.396831,0.022285,0.557561,-0.288920,0.778236
-0.474414,-0.081031,0.500482,-0.555697,-0.036748,-0.830573
-0.478277,0.200572,0.494729,0.121656,-0.212526,0.969553
0.134305,-0.084281,0.218483,0.972440,0.233072,-0.006210
-0.022999,-0.175432,0.528278,0.845403,-0.289599,-0.448805
-0.286856,0.243613,0.462481,-0.737042,-0.472348,0.483380
0.380338,-0.515593,-0.970888,-0.215514,-0.016155,0.976367
-0.031863,-0.184665,0.958659,0.913039,-0.407839,-0.005114
0.072265,-0.269359,0.707325,0.584050,0.720370,0.374103
0.187581,-0.565265,-0.981862,-0.222008,0.102401,0.969653
0.193275,-0.175737,0.302497,0.778281,0.329467,0.534537
-0.145544,-0.196064,0.726921,-0.431461,-0.682871,-0.589515
-0.168222,0.106821,0.438589,0.895866,0.239773,-0.374077
0.630380,-0.084975,-0.135771,-0.510795,0.169758,0.842776
-0.534327,0.719480,0.618562,0.723231,-0.109014,0.681948
-0.591810,0.093948,0.658930,0.741080,0.425360,0.519490
-0.958507,0.241228,-0.229865,0.265726,-0.160422,-0.950608
-0.076819,-0.112802,0.588948,0.233081,0.886984,0.398664
-0.699008,-0.383612,0.597319,0.515596,0.777202,-0.360719
0.277300,0.225884,0.585796,0.772698,-0.356690,0.525081
0.095834,0.425396,0.816688,0.310534,0.839329,-0.446202
0.194462,0.002492,0.659494,0.922250,-0.380809,-0.066625
-0.311516,0.389117,0.315446,0.245056,0.437091,-0.865389
-0.029288,0.798280,0.548579,0.645238,0.288839,0.707277
0.548534,-0.086535,-0.073909,-0.689644,0.159901,0.706274
0.440594,-0.305116,-0.972032,0.147554,-0.132619,0.980122
0.397766,-0.087706,-0.786071,-0.259959,0.522916,-0.811776
-0.014879,-0.206337,0.632028,-0.793523,0.595986,-0.122969
-0.339984,-0.542856,0.717374,0.150160,0.973645,-0.171658
-0.157923,0.859046,0.510014,0.423683,0.900802,0.095119
0.039536,0.216782,0.233251,0.973732,-0.040484,0.224071
-0.659298,-0.145525,0.687870,-0.706863,-0.604877,-0.366700
0.284925,-0.095117,-0.651672,0.717013,-0.696193,-0.034746
0.164607,-0.164813,0.814964,-0.659061,-0.270724,0.701675
-0.643454,-0.213011,0.023665,0.223060,0.168337,0.960160
0.097814,-0.078040,0.773906,0.943398,-0.009464,0.331528
0.634838,-0.331123,-0.454486,-0.138915,-0.376591,-0.915905
-0.003688,0.566521,0.493898,0.507178,0.365966,-0.780281
-0.039884,0.547927,0.710994,-0.280466,0.763579,-0.581624
0.535759,-0.518540,-0.964053,-0.026230,-0.016711,-0.999516
0.131283,-0.459592,0.352412,-0.155128,-0.246126,0.956743
0.117125,0.129056,0.772557,0.424890,0.631711,-0.648390
-0.137524,-0.369915,0.649461,0.720356,0.352160,0.597554
0.651326,-0.122077,-0.422112,-0.329757,-0.074051,0.941157
0.100437,0.173395,0.313047,-0.394094,0.895199,-0.208107
-0.219966,-0.272913,0.826439,0.991325,0.008481,-0.131163
0.476790,-0.225798,0.482500,-0.140195,-0.977765,0.155951
-0.034190,0.729752,0.463359,0.490205,-0.234634,0.839432
-0.107965,-0.555512,0.001952,-0.633698,0.475075,-0.610516
-0.371129,0.103396,-0.176908,-0.476392,0.439243,0.761653
0.137720,-0.041154,-0.145522,0.805614,0.547729,-0.225786
-0.807195,-0.207940,0.485134,0.231416,-0.632082,0.739539
0.141485,-0.390373,0.345969,-0.210837,-0.103410,-0.972036
-0.613747,-0.261382,0.574133,0.911937,-0.190932,-0.363202
-0.112719,-0.255662,0.830923,0.608891,0.780120,0.143753
-0.136288,0.086493,0.526475,0.382831,-0.384532,0.839986
-0.605527,-0.138331,0.436896,-0.602126,0.103739,-0.791633
-0.316218,0.036994,0.769641,0.957414,-0.097747,0.271667
-0.268983,0.639686,0.353807,-0.080864,-0.187781,-0.978877
-0.631671,-0.421147,-0.012942,0.840858,-0.019783,-0.540894
0.373901,-0.470862,-0.965495,-0.388599,0.048477,0.920131
0.784714,-0.640292,-0.952483,-0.241253,0.249100,0.937948
0.238334,-0.095421,-0.547842,0.465650,0.735653,0.491919
-0.511550,0.723512,0.605957,0.641858,-0.180957,0.745166
0.093952,-0.058579,0.403613,-0.720562,-0.685162,-0.106507
-0.856609,0.213098,0.495607,0.981457,0.180413,0.064757
-0.252643,0.272262,0.530896,0.806533,0.575060,-0.137151
-0.216647,-0.119606,0.432350,0.575226,-0.499769,0.647569
0.627953,-0.384826,-0.965463,0.085920,-0.162351,-0.982985
-0.594980,-0.392671,-0.001826,-0.773330,-0.135718,0.619308
-0.146832,-0.322541,0.349073,0.151640,0.948417,0.278407
-0.715992,-0.670633,0.617590,0.951097,0.261985,0.163641
-0.008738,0.523351,0.651327,0.892177,-0.028081,0.450813
-0.356324,-0.465531,0.734352,0.978979,0.111598,-0.170723
0.191939,-0.203649,0.933655,-0.197035,0.849443,0.489513
0.333051,-0.486769,-0.193964,0.545574,-0.693286,-0.470855
-0.499519,-0.353011,0.310398,0.307872,0.290915,0.905861
0.725793,-0.677654,-0.951966,-0.195093,0.163828,0.967005
0.305868,0.509351,0.536241,0.336126,-0.296267,0.894005
-0.071077,-0.153587,0.531491,-0.677886,0.724393,-0.125399
0.021513,0.745747,0.536304,0.414349,-0.361259,0.835348
-0.495409,-0.158702,0.751958,0.139664,-0.158116,0.977493
0.610229,-0.178986,-0.974901,0.080348,-0.076940,-0.993793
-0.463867,0.082504,0.622779,0.869974,0.042649,0.491249
0.061866,0.037904,0.224268,0.880293,0.384246,0.278280
0.166638,-0.282188,0.941619,0.887742,0.291009,0.356691
-0.594732,0.158616,0.677037,-0.381253,0.882911,0.274072
-0.518978,-0.287345,0.185075,0.119163,0.901215,-0.416667
-0.346173,-0.039247,0.480494,-0.487447,0.370079,-0.790846
0.318397,-0.082417,-0.592773,0.035786,0.997321,0.063796
0.201939,-0.561754,-0.974979,-0.167589,0.066918,0.983583
-0.298146,0.037947,0.351095,0.457895,0.610038,0.646673
-0.543783,-0.229959,-0.082109,-0.288675,0.956306,-0.046326
-0.275916,-0.258652,0.436943,-0.831721,0.510291,-0.218732
0.086919,-0.121774,0.511534,0.097107,-0.975217,-0.198799
0.189412,-0.399779,-0.983853,-0.012490,0.106001,0.994288
0.448071,0.372168,0.502787,0.716351,0.421486,-0.556049
0.494218,-0.144963,-0.976296,0.053328,0.221387,0.973727
0.143117,0.659060,0.379016,0.079907,0.193067,0.977926
0.369543,-0.193247,-0.531868,-0.048486,0.852743,0.520076
0.440150,-0.606961,-0.967674,-0.148613,0.241586,0.958932
0.215804,-0.054461,0.753761,0.682383,0.472162,0.558046
-0.862502,-0.158876,0.499055,0.108499,-0.768537,0.630539
-0.098657,-0.362286,0.718989,-0.508292,0.257764,-0.821704
-0.218034,0.206683,0.345577,0.951872,0.235316,-0.196381
-0.003045,-0.232343,0.970464,0.461124,0.837609,0.292876
-0.116729,0.643240,0.358401,-0.125920,-0.602856,0.787851
0.283985,-0.254795,0.657064,0.519630,0.791606,-0.321472
0.298146,-0.417636,-0.980074,-0.089011,-0.041027,0.995185
-0.577007,-0.524434,0.250543,0.100868,0.443559,0.890551
-0.443964,0.406410,0.646827,0.209432,0.880489,0.425297
-0.269328,0.130963,0.804554,-0.686137,0.582543,-0.435728
0.329437,-0.074140,-0.637390,-0.276247,0.955908,0.099635
-0.071126,-0.217173,0.994105,0.396251,0.823646,0.405699
0.189760,-0.286913,-0.990343,-0.097242,0.019926,0.995061
-0.064988,0.477060,0.498946,0.217692,0.721872,0.656895
0.458817,-0.159612,-0.968834,-0.407988,0.123073,-0.904654
0.464312,-0.201439,-0.973694,0.005419,-0.176262,0.984328
-0.630383,-0.170926,0.354497,-0.691345,0.660270,0.293403
-0.385687,0.746484,0.513510,-0.332724,0.682921,-0.650318
0.471145,-0.256528,0.458969,0.032552,0.830657,0.555832
-0.978066,-0.465661,0.454407,0.063354,0.996854,-0.047626
0.253779,-0.703140,0.389739,-0.013473,0.173490,0.984744
0.055825,-0.139068,0.489806,0.290585,-0.951527,-0.100779
0.853786,-0.189519,-0.963551,-0.040724,0.150137,0.987826
0.574629,-0.362460,-0.970794,0.039570,-0.113765,-0.992719
0.377911,-0.502286,-0.228109,0.777914,-0.488244,-0.395560
0.362166,-0.272479,0.512146,0.752281,-0.380671,-0.537739
0.220706,-0.146132,-0.526757,0.981386,0.020573,-0.190938
-0.303792,0.157141,0.546447,-0.327524,0.771836,-0.544974
0.125094,-0.207507,0.804005,0.715587,0.260881,-0.647978
0.118708,-0.015018,0.600392,-0.332967,0.370021,0.867305
0.221398,-0.243699,0.401811,0.798462,0.362759,-0.480483
0.019633,0.045445,0.894682,0.517815,0.422432,0.743921
0.384744,-0.368224,0.663539,0.582971,-0.782844,-0.217485
-0.347808,0.037687,-0.157249,-0.688265,0.143381,0.711150
-0.618648,-0.319897,0.700678,0.749898,-0.300787,0.589220
0.286212,-0.179334,0.709034,0.836226,0.095723,0.539967
0.132226,-0.439655,0.167799,0.306508,0.284460,0.908370
0.599733,-0.217606,-0.972550,0.190351,-0.148909,-0.970357
0.037853,-0.708254,0.393690,0.866488,0.121984,0.484065
0.306663,-0.418590,-0.978648,-0.081446,-0.051156,0.995364
-0.030923,-0.316342,0.834152,0.955191,-0.294259,-0.031976
-0.455847,0.637085,0.642845,0.356818,0.573699,0.737259
0.084196,-0.153458,0.812737,-0.495709,0.777211,-0.387576
0.435744,-0.193247,-0.975356,0.134811,-0.375229,0.917076
-0.006611,-0.124591,0.531413,-0.655516,0.675899,-0.336836
0.187877,-0.639425,-0.979353,-0.343831,0.020719,0.938803
0.314336,-0.128882,0.776022,0.382899,0.775150,-0.502524
-0.078058,0.472120,0.434356,-0.020240,0.179502,0.983549
-0.405937,-0.318943,0.189434,-0.070623,-0.548703,0.833029
-0.306811,-0.000194,-0.156841,-0.646290,0.319630,0.692925
0.099101,-0.264980,0.854689,0.301977,-0.650322,0.697059
0.186542,-0.036863,0.697621,0.808297,0.410641,-0.421936
0.785805,-0.656069,-0.950664,-0.108486,0.130737,0.985464
0.454012,-0.332553,-0.980905,0.108856,-0.082238,0.990650
0.081473,0.373773,0.491828,0.916201,0.330446,-0.226675
0.527195,-0.353141,-0.971044,0.150793,-0.203916,-0.967305
0.363601,0.185099,0.429277,-0.238352,-0.749510,0.617594
-0.431190,-0.049000,0.763370,0.877178,0.433431,0.206631
-0.013640,0.418503,0.294830,0.936986,0.197999,-0.287843
0.812441,-0.223198,-0.961623,-0.149333,0.161334,0.975536
0.286164,-0.486855,-0.979871,-0.036925,0.081785,0.995966
-0.152477,-0.215872,0.822254,0.437237,0.855230,0.278218
-0.648951,-0.487982,-0.015214,0.766450,-0.019388,-0.642011
-0.351323,-0.062913,0.415011,-0.185112,-0.923518,-0.335929
0.865173,0.067075,-0.508838,-0.416476,-0.250643,0.873914
0.176046,-0.093297,-0.082720,0.682863,-0.662900,0.307021
-0.321220,0.383916,0.562312,0.751364,0.395622,-0.528143
0.199960,-0.097717,-0.109199,-0.200176,0.977182,-0.071031
0.370881,0.038381,0.720525,-0.304084,0.948779,0.085737
-0.001165,0.314176,0.261736,-0.249446,-0.456301,0.854146
-0.011216,0.088356,0.897096,-0.641218,0.585160,-0.496415
0.271159,-0.072405,0.434607,-0.187142,0.153332,-0.970292
0.026019,-0.268405,0.728473,0.953825,0.252245,0.163063
-0.743421,-0.188219,0.427427,0.804981,0.445781,-0.391516
-0.225759,-0.230999,0.000666,-0.027553,0.408525,0.912331
-0.217883,-0.447110,0.124985,-0.793736,0.557102,-0.244176
0.133117,-0.167718,0.519561,0.799979,0.079589,0.594726
0.104498,0.741239,0.581987,0.787110,-0.251476,-0.563220
0.244027,-0.057538,0.726953,-0.665254,0.648157,-0.370581
0.475058,-0.147476,-0.978381,0.278893,0.021980,0.960071
0.228282,-0.132479,-0.031142,0.822474,0.568691,0.011258
-0.670489,-0.449710,0.609281,0.856444,0.028909,0.515430
0.100636,-0.111544,0.636104,-0.155748,0.985342,0.069594
-0.383360,0.104869,0.699722,0.610400,0.462252,0.643222
0.102419,-0.139934,1.000000,0.808851,-0.587933,-0.009785
0.320277,-0.272176,-0.982332,0.232915,-0.067213,-0.970172
-0.105686,0.884272,0.425107,-0.454149,0.727254,-0.514636
0.530165,-0.462627,-0.965197,0.003282,0.058759,0.998267
0.462480,-0.446460,-0.198714,0.416330,0.736771,0.532765
-0.057363,-0.347854,0.384644,0.619595,0.784828,-0.012149
-0.514816,-0.442689,0.579902,0.998783,-0.049297,-0.001608
-0.042410,0.042801,0.780114,0.210763,-0.024939,0.977219
-0.596467,-0.350107,0.437742,0.823016,0.189091,0.535621
0.554230,0.029972,0.484899,-0.029834,0.750576,0.660111
-0.615279,0.312398,0.687635,-0.651091,0.272933,-0.708229
0.169162,-0.307631,0.934815,-0.658910,-0.555374,-0.507343
-0.425792,-0.466788,0.709598,0.280515,-0.172545,0.944214
0.669743,-0.820601,-0.951856,-0.174589,0.150572,0.973060
-0.651770,0.177774,0.535113,0.803577,0.408794,-0.432610
-0.658507,-0.125414,0.664527,-0.253157,0.580334,0.774031
-0.181987,0.814619,0.419353,0.316089,-0.829986,0.459577
0.155596,-0.087445,0.154584,0.949163,-0.047073,0.311244
-0.027109,0.027891,-0.151966,0.112270,0.581967,0.805426
-0.073305,0.474373,0.517492,-0.453956,-0.888638,-0.065165
-0.518334,-0.484428,0.602257,-0.153240,0.012392,0.988111
0.322012,-0.051731,0.878879,-0.317618,-0.890297,0.326327
0.771100,-0.495698,-0.958236,0.098891,0.116793,0.988221
0.045329,-0.338231,0.730041,0.401783,0.359343,0.842284
-0.811502,-0.354875,0.510108,-0.802004,0.555454,-0.219682
-0.540912,-0.443686,0.479694,-0.618296,-0.134815,-0.774296
0.099101,-0.228962,0.950602,0.810262,0.505521,-0.296520
-0.820069,-0.460504,-0.039545,0.441418,-0.176744,-0.879722
0.286360,-0.175866,-0.987239,-0.403937,-0.047764,0.913539
0.539525,0.439091,0.544252,-0.603241,-0.789916,0.110150
0.092764,0.341222,0.495732,0.783300,0.577599,-0.229826
-0.354741,-0.503543,0.710257,0.425947,0.902873,-0.058219
0.230757,-0.163037,0.924923,0.857844,-0.397626,-0.325571
0.295076,-0.090870,-0.441819,-0.120905,0.988476,-0.091085
-0.103411,-0.273172,0.319302,0.939110,0.317844,0.130567
-0.675191,-0.311617,0.459596,-0.403341,-0.546204,-0.734151
-0.362565,-0.310621,0.631166,0.072795,0.395150,0.915728
-0.199367,-0.364584,0.616461,-0.131315,0.768968,0.625656
-0.551704,0.144832,0.696210,-0.746253,0.651888,-0.134717
0.010422,0.557159,0.612886,0.950897,-0.246069,0.187737
0.315475,-0.074313,-0.750327,0.773577,-0.613930,0.157063
-0.538385,-0.291853,0.405181,-0.785912,0.476580,-0.393972
-0.798875,-0.380665,0.387780,0.618371,-0.378236,0.688879
-0.081525,0.571332,0.336437,0.946518,0.250156,-0.203777
-0.718812,-0.271265,0.494023,0.716380,-0.251142,-0.650943
-0.065136,-0.298268,0.870288,-0.209284,0.346634,0.914355
0.239174,0.337538,0.771773,-0.325629,0.615326,-0.717872
0.223876,-0.118696,-0.501094,0.765885,-0.616278,0.183362
0.078155,0.151594,0.851930,0.088191,-0.984989,0.148386
-0.605626,-0.329476,0.728928,0.413020,0.231964,-0.880686
-0.091924,0.650737,0.444813,-0.043508,-0.443728,0.895105
0.038445,-0.252541,0.710413,0.223429,0.850865,0.475508
0.050527,0.089569,0.706996,-0.544527,-0.728674,0.415360
0.064045,-0.096288,0.901642,0.863400,0.169749,0.475106
-0.478077,0.051514,0.631683,-0.708818,-0.291925,-0.642151
-0.377763,0.145266,0.238456,0.006413,0.284970,0.958515
0.712771,-0.155148,-0.971562,0.155762,-0.070123,-0.985303
-0.103658,0.566738,0.468422,0.894050,-0.447674,-0.016226
0.786694,-0.834081,-0.945961,-0.077224,0.050421,0.995738
0.087415,-0.074530,0.645463,-0.023405,0.996613,0.078836
0.427128,-0.253928,0.458107,0.399545,0.217477,-0.890544
-0.568588,0.267971,0.660607,-0.418870,0.630365,-0.653596
-0.908797,-0.189346,0.489728,0.651418,-0.018825,0.758486
0.020225,0.311055,0.372589,-0.403734,0.788736,0.463568
-0.171588,-0.296665,0.941352,-0.582064,-0.470129,0.663460
-0.153864,-0.442255,0.025969,0.504870,-0.193541,0.841218
0.701631,-0.165681,-0.750641,-0.464662,0.254404,0.848156
0.273786,-0.367792,-0.483378,0.030391,0.106320,0.993867
0.180005,-0.563574,-0.980827,0.256162,-0.219609,-0.941357
0.074245,-0.072189,0.885918,0.811775,0.541593,0.218398
-0.561755,-0.039161,0.822677,-0.712435,0.265460,0.649590
0.342607,0.087142,0.617386,0.875002,0.023136,0.483566
-0.147031,0.036820,0.436316,0.834305,0.513056,-0.201762
-0.362166,-0.171446,0.796261,0.615685,-0.044670,0.786726
0.043991,-0.608521,-0.988242,-0.185836,0.008424,0.982545
0.474067,-0.556378,-0.964601,-0.096310,-0.050707,0.994059
-0.334738,0.253364,0.287917,-0.118833,0.087752,0.989029
-0.063897,-0.097848,0.568991,0.874344,0.094652,0.475986
0.589730,-0.619574,-0.960604,0.111985,0.019183,-0.993525
-0.513629,0.030362,0.811170,0.723870,-0.655337,-0.215745
0.451093,-0.299439,-0.974023,0.123304,-0.011639,0.992301
-0.688510,0.240232,0.428822,-0.282239,-0.956140,-0.078345
0.053698,0.047223,-0.149520,-0.235936,-0.283175,0.929595
0.385684,0.051644,0.499635,0.405961,0.604689,0.685235
-0.667863,-0.108380,0.573177,0.552342,-0.727303,0.407368
0.265813,-0.177513,0.439044,0.736425,0.558609,-0.381620
0.214221,0.534187,0.323770,0.501492,0.524500,-0.688045
-0.617757,-0.222157,0.741658,0.759213,0.585412,0.284409
0.538930,-0.021693,-0.596880,0.693702,-0.336350,-0.636903
-0.053649,0.116573,0.730276,-0.161406,0.942301,0.293287
-0.896122,0.169494,0.665812,0.105878,-0.935970,-0.335784
0.616814,-0.283185,-0.478001,-0.575963,-0.216386,0.788317
-0.210854,0.242528,0.363574,0.906674,0.075786,-0.414968
0.119896,-0.530069,-0.017488,0.220894,-0.070167,-0.972771
-0.502290,-0.252454,0.671895,-0.513773,0.412225,0.752402
-0.183571,0.264677,0.576437,0.824212,0.394724,-0.406039
-0.682916,0.424745,0.539596,0.198301,-0.947036,0.252584
-0.431386,0.056845,0.527494,0.372942,0.780500,-0.501731
-0.316267,-0.752075,0.066416,0.077842,0.682905,0.726348
0.262148,-0.003446,0.911346,-0.774823,-0.407914,-0.482965
0.267497,-0.094077,-0.690049,-0.584160,0.802406,-0.122071
-0.299482,0.050431,0.345232,-0.412916,-0.573734,-0.707340
-0.162676,0.472596,0.422285,0.406724,0.904248,-0.130043
0.308198,-0.644887,-0.973474,-0.191425,0.046681,0.980396
-0.006562,0.591315,0.492737,0.765285,0.633703,0.112961
0.278240,-0.089093,-0.556402,-0.135685,0.986032,0.096591
0.108309,-0.222503,0.963457,-0.769326,-0.611032,0.186486
-0.479316,-0.010381,0.764907,0.905508,-0.068601,0.418748
0.202286,-0.081334,-0.125660,0.108192,0.975038,0.193894
0.424306,0.209718,0.197178,-0.051964,-0.763419,0.643810
0.135145,0.097414,0.646326,0.982661,-0.179018,0.048268
0.788428,-0.135513,-0.963237,-0.147346,0.088798,0.985091
0.691680,-0.334460,-0.962406,0.215184,-0.006072,-0.976555
-0.647168,-0.052468,0.646341,-0.693703,0.628049,0.352606
-0.405937,0.046269,0.511346,0.253653,0.854833,-0.452682
-0.588990,0.138028,0.430876,0.569384,0.675047,0.469163
0.117221,-0.063260,0.556230,0.965972,-0.215851,0.142500
0.149059,-0.473116,-0.983037,0.117834,0.014682,0.992925
-0.619737,-0.101012,0.669042,-0.455576,0.189996,0.869685
-0.052906,-0.056325,0.922853,-0.728094,0.585054,-0.357198
0.361326,0.489196,0.501047,-0.143248,-0.651317,0.745162
-0.121135,0.080858,0.526663,-0.521186,0.455202,-0.721912
0.199663,-0.309321,0.333851,-0.055741,0.419703,0.905948
0.032208,-0.601673,-0.024213,-0.008877,-0.196948,0.980374
0.252344,-0.186963,0.743272,-0.208503,-0.773252,0.598838
-0.370685,-0.048653,0.480666,-0.366454,0.029518,-0.929968
0.012005,0.032616,0.772150,0.218595,0.051826,0.974438
0.171392,0.145222,0.842994,-0.587061,0.482005,0.650408
0.289183,-0.095854,0.767321,-0.604012,-0.516348,0.607086
-0.440646,-0.422535,0.479631,0.754761,0.109143,0.646857
0.345282,-0.081117,-0.738413,0.701512,-0.708728,0.074735
0.691133,-0.275730,-0.040031,0.735412,0.109318,-0.668744
-0.244771,0.397611,0.444687,-0.013518,0.979896,0.199049
0.213873,-0.599375,-0.975371,-0.104496,0.332433,0.937320
0.097566,-0.067161,0.307984,-0.619874,0.781239,0.073639
0.256454,-0.053768,0.545334,0.166016,-0.553860,0.815891
0.183671,-0.345339,0.812361,0.856598,0.494172,-0.148439
0.231501,-0.124028,-0.521787,0.866659,-0.447796,-0.219956
0.021117,-0.168628,0.677884,-0.450113,-0.783625,-0.428170
0.194118,-0.329996,0.643911,-0.535271,0.284970,0.795158
-0.623895,-0.341656,0.159898,-0.405344,-0.194631,0.893205
-0.458322,0.437747,0.293278,-0.038400,-0.754139,0.655592
0.001310,0.091606,0.887768,0.180000,0.958817,0.219704
-0.749909,-0.205513,0.479396,0.119896,0.465934,-0.876659
0.251700,-0.026201,0.721952,-0.124694,-0.650391,0.749295
-0.358702,-0.318899,0.443935,0.989747,-0.110814,0.090118
0.228083,0.164727,0.241858,0.027194,-0.925371,-0.378086
-0.815663,-0.508354,0.391715,-0.854318,0.391135,-0.342278
-0.015027,-0.268318,0.740545,0.448868,0.190675,0.873018
0.093407,-0.100535,0.536868,-0.816344,0.574217,-0.062102
0.019482,-0.241359,0.274983,0.837949,-0.195979,0.509347
0.124450,0.698979,0.626290,0.843725,-0.536496,0.017346
-0.293393,0.667252,0.480870,-0.260934,-0.657810,0.706541
0.029781,0.628070,0.666863,0.436640,0.896858,0.070648
-0.618945,-0.358039,0.702450,-0.634525,-0.483845,-0.602720
0.077811,0.731487,0.566185,0.729840,-0.332809,-0.597136
0.153664,-0.120387,0.854783,-0.377623,0.818809,0.432381
-0.054885,-0.440782,0.667082,0.464270,0.880736,-0.093581
0.322604,0.132956,0.856022,0.937810,-0.291975,0.187787
0.121679,-0.060746,-0.172832,0.526900,0.734526,-0.427607
-0.241996,-0.178857,0.852291,0.341286,-0.775710,0.530846
-0.819426,-0.422751,0.608983,-0.689411,0.659333,-0.299988
0.081969,0.362027,0.480666,0.987206,0.150628,-0.052294
0.352263,-0.244739,-0.290770,-0.633684,-0.740547,-0.223682
-0.871562,-0.529766,0.392843,0.726102,0.065321,0.684477
0.222341,-0.310707,0.178977,-0.364255,0.244298,0.898686
-0.201398,-0.573239,0.037868,0.164749,-0.834041,-0.526530
-0.826555,-0.492534,0.485573,0.662309,0.381070,0.645083
0.013444,0.593957,0.445111,-0.030196,-0.019214,0.999359
0.026067,0.765555,0.540051,-0.566829,0.122565,-0.814667
-0.474958,0.013111,0.642798,0.859967,-0.462820,0.215068
-0.469068,-0.321328,0.686898,0.063160,-0.868721,0.491259
-0.393163,0.084759,0.540647,0.853205,-0.500340,0.147315
-0.022900,-0.397741,-0.016312,-0.557323,-0.013517,-0.830186
-0.109004,0.628199,0.479710,0.930603,0.196859,0.308584
0.461093,0.198665,-0.610802,-0.520139,0.847559,-0.105353
0.110388,0.067464,0.829010,0.995657,-0.027729,0.088874
-0.558488,-0.309668,0.258914,-0.081566,0.949541,0.302852
-0.645037,-0.337711,0.250527,0.754655,-0.364440,-0.545599
0.053002,-0.197884,0.888207,0.050031,-0.633708,0.771953
0.517835,0.139024,0.430233,0.395024,0.383232,-0.834919
-0.303097,0.027718,0.573568,-0.566273,0.424971,-0.706211
0.079198,-0.122943,0.640353,-0.450354,0.892630,0.019826
-0.292701,-0.336584,0.694015,0.247474,-0.160275,0.955546
-0.699304,0.018399,0.691460,0.226318,0.050184,0.972760
-0.141534,-0.354702,0.828932,-0.004245,0.999941,-0.009992
-0.394599,-0.296188,0.187929,-0.134124,-0.270680,0.953280
-0.135840,0.677914,0.381916,-0.435412,0.160912,-0.885734
0.537690,-0.020566,0.278244,0.242151,0.377224,0.893904
0.615131,-0.756279,-0.959694,-0.022484,0.166653,0.985759
-0.363405,-0.508658,0.682320,-0.146007,-0.802144,-0.579005
-0.454312,0.077043,0.633094,0.798359,0.130421,0.587889
0.184462,0.285481,-0.129626,-0.486861,0.168024,0.857166
-0.228878,0.096981,0.313972,0.944340,0.093764,-0.315327
0.187829,0.652949,0.583743,-0.741218,0.380016,-0.553338
-0.773526,-0.464273,0.387686,0.851916,-0.496952,0.165158
0.208180,0.121167,-0.126710,0.255886,0.161158,-0.953179
0.808827,0.048436,-0.534580,-0.637705,-0.235458,0.733411
0.259821,0.200355,0.578569,0.387196,-0.531687,0.753252
0.088950,-0.224020,0.941666,0.769382,0.438952,-0.464082
0.153317,0.159353,0.665389,-0.713087,-0.219135,0.665948
-0.740154,-0.676224,0.220443,-0.322153,0.284939,0.902789
0.291957,-0.251978,0.664417,0.757015,0.042739,-0.651998
-0.457730,0.067768,0.454862,0.921476,-0.113444,-0.371499
-0.748226,-0.360120,0.446820,0.928558,0.123196,-0.350148
-0.002549,0.729969,0.539847,0.482595,-0.165675,0.860032
0.471840,-0.187568,-0.275203,-0.189326,0.981723,-0.019353
-0.487932,-0.518020,0.500748,0.321619,-0.834928,0.446605
-0.332359,0.869882,0.395054,0.523047,0.801662,-0.289413
-0.363109,-0.653469,0.415591,-0.127045,0.792943,0.595903
-0.604436,-0.556683,0.261752,-0.509254,-0.412554,-0.755288
-0.468225,0.119043,0.377370,-0.645802,0.517227,-0.561618
-0.075632,0.225755,0.798801,-0.072197,0.974024,0.214629
-0.519570,0.031619,0.509653,0.129875,0.831050,-0.540823
0.129699,0.150771,0.862967,0.297218,-0.686715,-0.663388
-0.244571,0.149644,0.450817,-0.076257,-0.585179,0.807310
-0.795312,-0.475283,0.383233,0.911840,-0.261472,0.316512
0.540317,-0.154672,-0.974572,0.149689,0.137869,0.979074
0.200751,-0.610125,-0.977895,-0.404777,0.190925,0.894261
0.387219,-0.210237,0.630884,0.851039,-0.086891,0.517863
-0.163767,-0.308714,0.201725,0.038264,0.908760,0.415561
-0.018246,0.464231,0.652471,0.864378,-0.444219,0.235628
-0.051818,0.672930,0.656626,-0.300155,-0.951638,0.065515
0.352362,-0.341351,-0.977002,0.228902,-0.036455,-0.972767
0.224716,-0.324881,0.182865,0.353574,-0.211343,-0.911219
-0.302504,0.857530,0.417597,0.922668,-0.322374,-0.211561
-0.030724,0.344342,0.621572,0.788316,0.614770,0.024808
-0.737531,0.209630,0.583100,-0.590926,-0.663084,-0.459485
-0.624043,0.245260,0.667490,-0.442430,0.550505,-0.707955
0.141830,-0.164164,0.396104,0.731435,0.650412,0.204857
-0.159013,0.023991,-0.724523,0.166724,-0.367536,0.914943
0.816204,-0.024944,-0.517978,0.529632,0.245467,-0.811934
-0.590622,0.001452,0.684546,-0.715882,0.117486,-0.688266
-0.506400,-0.389723,0.473565,-0.618207,-0.754401,-0.220678
0.218231,-0.162386,0.284029,0.439301,0.867165,0.234607
-0.530513,-0.143749,0.544707,-0.397106,0.890844,-0.220690
-0.750949,-0.533623,0.466541,0.677142,-0.325817,0.659789
-0.208923,-0.480268,0.310837,0.782965,-0.618104,0.070096
-0.076227,-0.558763,0.051005,-0.303342,0.818027,0.488687
-0.485306,0.224671,0.684092,0.247581,-0.876982,-0.411832
-0.250860,-0.320894,0.773921,0.711203,0.428559,0.557250
0.235212,-0.075699,-0.484554,0.276471,-0.958222,-0.073310
-0.240712,0.588886,0.540631,-0.517318,-0.775966,-0.360915
-0.263782,0.629109,0.350218,-0.080864,-0.187781,-0.978877
-0.106925,0.580131,0.436723,0.517642,0.044191,-0.854455
-0.087614,-0.192207,0.935097,-0.091482,0.979385,0.180098
-0.132969,-0.305897,0.681019,-0.697457,0.330386,0.635924
0.261011,-0.522831,-0.978115,-0.100996,0.021600,0.994652
0.402520,0.062133,-0.624644,-0.070320,-0.397871,0.914742
0.380782,-0.058101,-0.878597,0.699723,-0.713912,0.026781
-0.126088,0.875648,0.528528,0.152439,0.930672,0.332583
-0.598794,-0.220251,0.556653,-0.510492,-0.526658,-0.679728
0.679301,-0.151291,-0.753149,-0.482464,0.202581,0.852167
-0.786349,0.299959,0.459941,0.841598,0.408579,0.353237
0.511797,0.418417,0.540035,0.906536,0.277309,-0.318265
-0.213577,-0.155582,0.423727,-0.548805,0.265574,-0.792644
0.121084,-0.114102,0.685189,0.730112,-0.654143,-0.197570
0.077859,-0.094944,0.793768,0.998467,-0.046847,-0.029475
-0.620876,0.235117,0.668383,-0.480834,0.464872,-0.743433
-0.254574,-0.082722,0.739118,0.269055,0.656238,0.704955
0.044142,0.092343,0.851021,0.774438,0.422913,0.470522
0.329240,-0.368658,0.518495,-0.724893,0.321611,0.609176
-0.065532,0.431333,0.658632,-0.452575,0.748553,-0.484607
0.179509,-0.337234,0.900827,0.968227,0.194258,-0.157483
0.264674,-0.461631,0.352177,-0.075798,0.401677,0.912639
-0.357563,0.058752,-0.172518,-0.806977,0.261227,0.529668
-0.466690,-0.104826,0.848544,0.753420,0.629269,0.190730
0.281558,-0.303557,0.186251,0.370055,-0.075533,-0.925934
0.366572,-0.290380,0.545162,0.814507,0.412666,-0.407780
-0.736143,-0.640206,0.212369,0.342094,-0.285619,-0.895206
-0.201099,0.496781,0.505028,-0.260558,0.942833,0.207787
-0.267101,0.025031,0.568912,-0.640954,0.290194,-0.710609
-0.515759,-0.359210,0.312734,0.234122,0.262749,0.936029
-0.232344,-0.221983,0.798503,-0.739181,0.402823,-0.539765
0.585916,-0.162776,-0.976594,0.015605,-0.031826,0.999372
-0.203178,-0.356999,0.807423,-0.478920,-0.876599,0.047005
0.029189,0.716489,0.531883,-0.770605,-0.298188,0.563251
-0.489516,0.246863,0.721513,0.883830,0.466657,0.032796
0.242293,-0.660663,-0.976484,-0.012890,-0.142980,0.989642
0.281410,-0.243959,0.662865,0.757015,0.042739,-0.651998
0.331667,-0.228225,0.701885,0.843649,0.494397,-0.209351
-0.288095,0.018616,0.344150,0.467224,0.630719,0.619593
-0.429407,-0.356175,0.651719,-0.567896,-0.554355,-0.608428
0.544475,0.244003,0.553753,0.756847,-0.227950,-0.612553
0.001558,0.486206,0.619236,0.850162,0.069222,0.521952
0.084988,0.020177,0.870225,-0.129188,-0.781722,0.610100
-0.159361,0.058882,0.425718,0.890770,0.445197,-0.091254
0.407569,0.534707,0.561293,-0.697148,-0.151560,0.700724
0.120192,-0.174956,0.907631,0.088818,-0.976585,0.195941
0.044686,-0.006090,0.854736,0.341373,0.740965,-0.578303
0.636569,-0.725505,-0.959475,-0.067501,0.071636,0.995144
-0.781895,-0.599853,0.484946,0.676332,0.048859,0.734975
-0.255565,-0.241705,0.795869,-0.101528,0.843667,-0.527179
0.085287,0.272523,0.635900,0.981895,0.186797,0.031466
0.724802,-0.749778,-0.951166,0.279225,-0.110617,-0.953833
0.032159,-0.120516,0.515783,0.342847,-0.908833,0.237653
-0.135593,-0.227921,0.612981,0.233355,0.260843,0.936753
0.174115,-0.320070,0.888740,0.939093,0.293192,-0.179285
-0.213529,-0.235637,0.003033,0.185789,0.351654,0.917508
-0.407769,-0.226665,0.274340,0.931496,-0.326193,0.160976
0.369691,-0.224498,-0.606428,0.826536,-0.014411,-0.562700
0.077315,0.411091,0.534752,0.880087,0.434343,-0.191816
0.833484,-0.347291,-0.957986,-0.071911,0.078314,0.994332
-0.614390,-0.284485,0.633251,0.889744,-0.419076,0.180915
0.032356,-0.138331,0.660435,0.528636,-0.837334,-0.139340
-0.305723,0.507055,0.446898,0.533698,-0.483205,0.694032
0.225312,0.604578,0.573631,-0.505271,0.188428,-0.842138
-0.261359,-0.354919,0.246028,-0.601101,-0.413621,-0.683810
0.601317,-0.091346,-0.975544,-0.045577,-0.044656,0.997962
0.056221,-0.743059,0.385444,0.866488,0.121984,0.484065
-0.352266,-0.518194,0.369814,-0.479506,0.623630,0.617381
-0.471244,-0.240491,0.017096,0.212970,-0.131277,0.968199
0.370930,-0.472423,-0.975011,0.379031,-0.270133,-0.885078
-0.738419,-0.243265,0.449171,0.618655,-0.328396,0.713738
-0.350927,0.102832,-0.181188,0.825606,-0.254012,-0.503839
0.264327,-0.090262,-0.522712,-0.737492,0.671571,0.071400
-0.626125,0.168108,0.654744,0.393525,0.086654,0.915221
0.221845,-0.094380,-0.246388,-0.419053,-0.899976,0.120155
0.481048,-0.135079,-0.973835,0.259892,0.066432,0.963350
0.582849,0.012462,-0.781039,0.490825,-0.292643,-0.820641
-0.310921,0.849078,0.391166,0.639045,0.768700,0.026865
0.118261,-0.119737,0.578554,-0.176510,0.974438,0.138979
-0.159062,0.486206,0.428744,0.073729,0.995781,0.054636
-0.066275,-0.302862,0.805260,0.987686,0.070485,-0.139670
0.361026,-0.058145,-0.950319,-0.031121,0.999146,-0.027166
-0.214369,0.196281,0.356504,0.845645,0.201871,-0.494098
-0.186989,-0.174305,0.852087,-0.118566,-0.859708,0.496835
0.074692,0.074876,0.699048,-0.672744,-0.524806,0.521531
-0.700939,-0.030665,0.227623,0.884668,-0.249405,-0.393903
0.632955,-0.765685,-0.956919,-0.066608,0.202696,0.976974
0.078207,0.098412,-0.147670,0.411574,-0.169791,-0.895420
0.577548,-0.482998,-0.966482,-0.091088,0.135266,0.986613
-0.430298,-0.227011,0.316434,0.949436,-0.214667,-0.229106
-0.522988,0.161780,0.552263,-0.306602,0.678044,-0.668020
0.134205,-0.238151,-0.992224,-0.206574,0.073622,0.975657
-0.078902,-0.129098,0.565134,0.798031,-0.408227,0.443280
-0.497932,-0.247946,0.399349,-0.696058,0.217764,-0.684165
0.121679,-0.168931,-0.993384,-0.300320,0.062668,0.951777
-0.186938,0.802224,0.398393,-0.592242,-0.743358,0.310916
0.219319,-0.112541,0.046224,0.969697,0.177604,0.167763
-0.300077,0.270615,0.516864,0.953700,0.287136,-0.089500
0.165599,-0.106126,0.433698,0.097599,0.989876,0.103053
0.027258,0.014716,-0.152483,-0.220974,-0.355068,0.908349
-0.573738,0.278331,0.671048,-0.365359,0.458846,-0.809921
-0.752085,-0.437574,0.401293,0.953968,-0.195178,0.227706
-0.081525,0.119779,0.671299,-0.303641,-0.865808,0.397716
-0.461344,0.105564,0.626510,0.800570,-0.129709,0.585033
-0.600921,-0.282448,0.421532,-0.619009,0.143545,-0.772155
-0.591613,0.275599,0.570135,0.068647,-0.201402,0.977100
-0.489715,-0.564224,0.381164,0.057091,0.879906,0.471705
-0.336617,0.289860,0.541540,0.774637,0.630328,-0.051232
0.187137,-0.647530,-0.978240,-0.279773,0.019789,0.959862
0.296064,-0.350845,0.194231,-0.589914,0.249465,0.767963
-0.172679,0.122857,0.224064,0.101497,-0.683575,0.722789
-0.361770,0.215960,0.711903,0.671932,0.698187,-0.247067
-0.532296,-0.076913,0.588477,0.507902,0.823456,-0.252894
-0.402471,-0.073013,0.741078,-0.574790,0.802128,-0.161888
0.295025,-0.079210,-0.692166,0.435006,-0.893578,0.110853
-0.591365,-0.435364,0.356582,0.434105,0.746887,0.503699
-0.472731,-0.223024,0.577315,-0.119499,0.951162,0.284625
-0.085583,0.104826,0.527102,0.549826,-0.372306,0.747716
-0.431338,0.058623,0.562516,0.940328,-0.317370,-0.122718
-0.330975,-0.256355,0.879412,0.742244,0.507884,-0.437181
0.071769,-0.163557,0.913808,0.125795,0.986851,0.101496
-0.168965,0.146566,0.706463,0.056333,0.856985,0.512253
0.693263,-0.144788,-0.975575,-0.088348,0.067544,0.993797
-0.606615,-0.470342,0.567078,-0.374688,-0.916122,0.142583
-0.168321,0.885487,0.487721,-0.779927,-0.625694,0.014879
-0.276212,0.168801,0.231887,-0.063502,-0.467405,0.881759
-0.628301,-0.177686,0.450880,0.860836,-0.508872,-0.003195
0.145544,-0.567475,-0.986314,-0.155478,-0.005680,0.987823
0.035922,0.403463,0.440016,0.862278,0.501448,-0.070891
0.242592,-0.510478,-0.979667,-0.188703,0.054591,0.980516
0.215605,-0.507401,-0.980843,0.164975,-0.020840,-0.986078
-0.701236,0.203260,0.663602,0.275248,0.959434,0.061028
0.075580,0.133000,0.198761,0.773258,0.090022,0.627669
0.167726,0.225581,0.605205,0.770039,-0.033246,0.637130
-0.104450,0.003880,0.505264,0.395997,-0.376618,0.837464
0.766642,-0.125458,-0.967125,0.218931,-0.026629,-0.975377
0.056272,0.163600,-0.150037,-0.640129,0.009600,0.768207
-0.506748,-0.372342,0.471260,-0.468106,-0.715233,-0.518959
0.261256,-0.408621,-0.983806,-0.185262,0.118855,0.975475
-0.330280,-0.047743,0.617496,-0.213672,0.464299,0.859518
0.518382,-0.334677,0.465506,0.554366,-0.001364,-0.832272
-0.004084,-0.223110,0.606177,0.910998,-0.383670,0.151259
0.130887,0.804694,0.593384,0.796712,0.048969,-0.602372
0.023840,-0.203173,0.938405,-0.725883,0.152082,0.670794
0.157774,-0.419717,0.347004,0.153450,-0.129458,0.979639
0.613892,0.356132,0.550022,0.960000,0.260570,-0.102490
0.484711,-0.390893,-0.973349,-0.112321,0.253255,0.960857
0.012501,0.544547,0.627639,-0.726814,0.507713,-0.462568
-0.507588,-0.078040,0.501282,-0.674002,-0.304978,-0.672837
0.302701,0.103483,0.801607,-0.680923,0.729469,-0.064953
0.223825,0.117525,0.351487,-0.836635,0.008116,0.547700
0.019878,-0.200399,0.762007,-0.712891,0.701253,-0.005552
-0.647760,-0.447890,-0.017927,0.759375,-0.102225,-0.642572
-0.067711,0.512083,0.491546,-0.041075,-0.193967,0.980148
-0.075732,-0.177817,0.916269,0.208853,0.703675,0.679133
0.618993,-0.376286,-0.451946,0.191281,0.505301,0.841476
-0.484961,0.208678,0.573600,-0.058726,-0.575446,0.815729
-0.022504,0.085885,0.895889,0.330285,0.792744,0.512317
-0.090141,-0.312832,0.862481,0.110928,0.723211,0.681660
0.371622,-0.273562,-0.256531,0.736968,0.606173,0.299054
0.532493,0.146739,0.498679,-0.598162,-0.483298,0.639238
-0.750154,-0.228355,0.447713,0.735967,0.489950,0.467227
0.243236,-0.347723,0.182144,0.330206,-0.197508,-0.923014
-0.077959,-0.270355,0.310476,-0.707264,-0.364398,-0.605799
-0.319981,0.450578,0.590280,0.729645,-0.277982,0.624776
0.093903,0.075396,0.860709,-0.536026,0.062555,0.841881
-0.097370,0.229569,0.756614,0.416501,-0.267763,-0.868810
0.261108,-0.127148,-0.616947,-0.514496,0.855763,-0.054434
-0.625826,0.376461,0.507991,0.448465,-0.592596,0.669110
0.382220,-0.665908,0.038934,-0.365942,0.057952,0.928832
0.245611,0.145136,0.743900,-0.572420,0.205076,-0.793901
0.555466,-0.363760,-0.975168,-0.143269,0.170798,0.974834
-0.851311,0.039161,-0.015309,0.373403,-0.491487,-0.786773
0.408113,0.592484,0.562861,0.797964,0.486980,-0.355111
0.318494,0.054027,-0.624221,0.201107,-0.221180,0.954272
-0.201794,0.037080,-0.359984,-0.381148,-0.923553,0.042138
0.348400,0.177037,0.474929,0.807502,0.384501,0.447325
-0.499171,-0.019439,0.624958,-0.703776,0.652002,-0.282122
0.255118,0.044145,0.811170,0.814552,-0.579793,-0.018546
-0.338748,0.320547,0.472310,0.730470,0.633053,-0.256236
-0.750105,-0.355612,0.653725,-0.335069,0.939935,0.065200
0.254523,0.100146,-0.617919,0.037585,-0.517712,0.854729
0.332063,-0.311531,0.456288,0.923954,-0.362554,0.121914
0.111628,-0.103223,0.607666,-0.679864,-0.532475,0.504237
0.236699,-0.083848,-0.289563,-0.788753,-0.597849,-0.142988
-0.019337,-0.717790,0.420529,0.897147,0.381017,0.223502
0.560072,-0.541339,-0.160321,-0.383976,0.600402,0.701484
-0.523384,0.249204,0.657111,0.048570,-0.780519,0.623243
-0.093012,0.632793,0.692855,0.806103,-0.132971,0.576642
0.050083,-0.242008,-0.100999,-0.173539,0.898217,0.403845
