-0.547757,-0.112245,0.808001,0.134547,0.126941,0.982743
0.270572,-0.618000,-0.353992,0.542956,-0.298153,0.785050
0.089000,0.347581,0.803224,0.294376,0.331081,-0.896509
-0.070202,-0.347468,0.896082,-0.018534,0.999768,0.010931
-0.400991,0.238070,0.643015,0.461850,0.659493,0.593097
0.640133,0.126050,-0.595818,0.293848,0.154557,0.943274
-0.255692,0.291429,0.577847,0.926668,-0.353223,-0.128531
0.372103,-0.123421,-0.103885,-0.171746,-0.945324,-0.277247
-0.366038,0.428651,0.844139,0.572935,0.278141,-0.770962
-0.607384,0.398536,0.483286,-0.168599,0.899668,0.402706
0.451117,-0.754495,-0.414498,-0.419308,0.039483,0.906985
0.032261,0.403006,0.757547,-0.603778,-0.756608,0.250991
0.237627,0.643481,-0.159365,0.124207,-0.348804,0.928928
0.209232,0.287797,0.809439,-0.289084,0.088390,0.953214
0.212316,-0.145099,-0.087138,0.996484,-0.005771,0.083589
0.439858,-0.198120,-0.597620,0.929915,0.355481,-0.094291
-0.515543,0.155548,0.695388,0.207137,0.619180,-0.757437
0.387034,-0.458428,-0.111969,0.749782,0.519311,0.410052
0.684289,0.163483,-0.058704,-0.636313,-0.657122,0.404100
-0.006119,0.718907,0.630897,0.866857,-0.062951,-0.494566
0.334948,-0.816963,-0.368094,0.890971,0.407827,0.199620
-0.325697,-0.046095,0.770210,-0.474834,0.788714,-0.390465
0.307288,0.231086,0.506100,0.846850,0.421968,0.323709
0.620842,0.135435,-0.101438,-0.661315,-0.423028,0.619443
0.571105,-0.121576,-0.187337,-0.252883,-0.536204,0.805317
0.412001,-0.214100,-0.563333,0.794892,0.604858,-0.047890
-0.070546,0.662196,0.337560,0.144394,-0.444729,-0.883949
0.314925,-0.552017,0.134072,0.988535,-0.061186,0.138041
0.042148,-0.333221,0.925012,-0.179546,0.546578,-0.817934
0.569882,-0.315675,0.160803,-0.351772,-0.641704,-0.681523
-0.060802,0.270924,0.903852,0.986480,0.025706,0.161854
0.319479,0.340652,0.644817,0.917639,0.043447,-0.395033
-0.108239,0.374624,0.901058,0.937071,0.298923,0.180397
-0.612817,0.379541,0.854240,-0.224676,0.821787,-0.523628
-0.340042,-0.502737,0.747016,0.263278,-0.161445,0.951115
-0.179568,-0.230640,0.444123,-0.544043,0.587317,-0.599229
-0.399081,-0.077663,0.814829,0.601201,-0.644823,0.471975
0.435893,-0.228682,-0.398545,-0.008353,-0.736480,0.676408
0.660839,-0.157447,-0.013986,0.609354,0.455720,-0.648850
-0.419152,0.421278,0.813671,0.874641,0.260006,-0.409145
0.528075,-0.254944,-0.168739,0.508042,0.703415,0.497093
0.120917,-0.217118,-0.326963,-0.557609,0.305429,-0.771871
0.915895,0.229579,-0.370458,0.523267,0.366647,-0.769260
-0.515986,0.726283,0.683320,-0.016797,-0.903919,0.427373
0.388211,-0.339758,-0.440155,0.957729,-0.254320,-0.134447
-0.238706,0.146276,0.866143,0.980098,-0.193502,-0.044337
-0.850004,0.215332,0.748553,-0.529942,0.262436,0.806405
0.192392,0.403399,-0.526699,0.482154,0.016414,0.875933
-0.275422,0.409264,0.847975,0.527571,0.207270,0.823838
0.564546,0.188401,0.190048,-0.205515,0.016780,0.978510
-0.663486,0.474187,0.895834,-0.557553,0.710132,-0.429939
-0.102416,-0.167838,0.606266,-0.694878,0.314084,-0.646913
-0.061292,0.377082,0.683600,0.131528,-0.275064,-0.952387
-0.638471,-0.153311,0.726004,0.354995,0.086048,-0.930900
-0.170218,0.272544,0.546090,0.720316,0.062900,-0.690788
0.541195,0.488547,-0.545859,-0.499850,-0.216667,0.838573
-0.475890,0.626215,0.848008,0.941693,0.231067,0.244586
0.027561,-0.187058,0.892974,0.779603,-0.082192,0.620857
-0.580998,0.304558,0.833774,0.077452,-0.996996,0.000565
0.022224,-0.371101,0.656555,0.569720,0.775190,-0.272945
-0.469624,0.428429,0.792263,-0.214011,0.839371,-0.499656
0.024818,0.704325,-0.490759,0.281229,-0.331545,0.900549
-0.459394,-0.270811,0.868044,0.556222,0.807023,0.198320
-0.465806,-0.080231,0.448371,-0.247863,0.783185,0.570250
-0.370248,0.259582,0.803769,-0.186660,0.194627,0.962953
0.178340,-0.169182,0.229063,0.993783,0.005037,-0.111218
0.199294,-0.199743,0.178096,-0.622407,-0.779261,-0.073225
-0.061636,-0.116604,0.297834,0.748682,0.360723,0.556197
-0.056446,-0.042126,0.963498,0.734471,0.092243,0.672341
-0.037941,0.668399,0.666259,0.912173,-0.378984,0.155918
-0.030205,0.104927,-0.199851,0.228376,0.460613,0.857718
-0.023402,0.079617,0.973268,0.246226,0.283200,-0.926915
-0.433300,0.402000,0.655216,0.340877,-0.150212,0.928030
0.194887,0.074423,0.728815,0.171353,-0.985210,0.000619
0.368434,0.486368,-0.161928,0.343237,0.272884,-0.898734
0.168943,0.194045,0.838767,0.871203,-0.028422,0.490099
0.251479,0.463851,-0.173434,0.086875,-0.327330,0.940908
0.010034,-0.289472,0.606414,0.569975,0.676042,0.467008
0.041610,-0.457313,0.208977,0.007338,0.433119,0.901307
-0.514958,0.671806,0.673847,-0.602803,0.417200,-0.680127
-0.350763,0.201923,0.415060,0.968633,0.143233,0.203063
-0.365401,0.342831,0.459778,-0.784163,0.587183,-0.200759
-0.767563,0.187453,0.529608,-0.235197,0.794925,-0.559264
0.121016,-0.205776,0.883220,-0.606607,0.778672,0.160306
0.174082,0.562520,-0.152091,0.133112,-0.340763,0.930678
-0.376708,-0.591517,0.744437,-0.430854,0.727498,-0.533959
0.216087,0.174041,0.539444,-0.134066,0.589656,0.796450
0.068535,-0.000839,0.927343,-0.451296,-0.861105,-0.234159
-0.620355,0.375016,0.880493,-0.171392,0.271065,-0.947179
-0.595976,-0.136441,0.723690,-0.086652,0.412499,0.906828
-0.163364,-0.250531,0.384295,-0.525664,0.651908,-0.546528
-0.816174,0.495585,0.713506,-0.254853,0.374504,-0.891514
0.062466,-0.690746,-0.255348,0.541933,0.831078,0.124975
-0.618007,-0.061683,0.500281,0.976864,0.180226,-0.115133
-0.027415,-0.703261,0.239147,-0.220248,-0.783474,0.581084
-0.753612,0.691138,0.614812,-0.543047,-0.285745,0.789588
-0.083520,-0.057492,0.319788,-0.362501,0.912392,-0.190087
-0.207081,-0.551233,0.742817,0.282064,0.041293,0.958506
-0.599696,-0.107833,0.548702,0.953994,0.262942,0.144073
-0.088707,0.123199,0.662771,-0.173414,0.133747,0.975725
0.435648,0.191194,0.068011,-0.191788,0.845257,-0.498757
-0.198269,0.093865,0.414035,-0.191271,-0.243860,0.950762
-0.504333,0.675158,0.667813,0.829087,0.556978,0.048898
0.037792,-0.133702,0.186956,0.837267,0.321547,0.442257
0.092522,-0.029668,0.758406,0.123355,0.431624,0.893579
0.149652,0.792212,0.674293,-0.387971,0.031200,-0.921143
0.285309,-0.152976,0.043941,-0.628030,0.697094,-0.345886
0.362852,-0.102748,-0.856786,0.959769,-0.279695,-0.024787
-0.447400,0.544252,0.585849,-0.009950,-0.798449,0.601981
-0.350467,-0.242094,0.730980,0.827941,-0.361798,-0.428504
0.495569,-0.144093,0.189568,0.807635,-0.211103,-0.550601
-0.762768,0.376131,0.791470,0.041291,0.270290,0.961893
0.299896,-0.490446,-0.221904,0.533576,0.031534,0.845164
-0.195183,-0.051180,0.434154,-0.225093,0.964021,-0.141408
0.584616,-0.156554,-0.310845,0.423670,-0.225394,-0.877326
-0.409019,-0.257515,0.586411,-0.165792,-0.885074,0.434921
-0.841829,0.329759,0.746090,-0.301546,0.004734,-0.953440
0.004649,-0.115038,0.286593,-0.023634,0.733521,0.679256
-0.473443,0.189967,0.781104,-0.072052,0.996180,-0.049342
-0.291820,-0.039892,0.345710,-0.557434,-0.828728,0.049772
0.447741,-0.526202,0.059878,-0.364417,0.056507,0.929520
-0.697167,0.545927,0.740569,-0.263344,-0.693335,0.670773
-0.692613,0.453681,0.732799,0.199868,-0.307148,0.930437
-0.006463,0.549391,0.354604,-0.322958,0.729680,0.602714
0.284720,-0.217452,0.114763,0.677613,0.729980,0.089270
0.355852,0.238128,0.103984,-0.326346,-0.893236,0.309237
-0.400940,0.496479,0.648868,0.752248,0.601392,0.269165
0.026727,0.097664,0.936833,0.764502,0.644180,0.023825
-0.336271,-0.577157,0.739709,-0.629648,0.719836,-0.292197
-0.435062,0.487261,0.889601,-0.728827,-0.443070,-0.522015
0.819159,-0.012348,-0.383501,-0.177709,-0.114283,-0.977425
-0.407941,-0.013354,0.952257,0.899417,-0.430465,-0.075823
0.597443,0.443178,-0.537295,0.571588,-0.033732,-0.819847
-0.400208,0.460219,0.878839,0.822188,0.504492,0.263616
0.267635,-0.092692,-0.180856,0.784356,-0.587765,-0.198290
0.326184,-0.939603,-0.391635,0.441488,-0.220617,-0.869722
-0.346063,-0.054307,0.869383,0.824838,0.201317,0.528311
0.115679,-0.390992,0.571599,-0.028914,0.984771,0.171438
0.496008,-0.208627,0.122367,0.027740,0.982887,0.182108
0.388456,-0.510614,0.063564,-0.070744,0.138876,0.987780
0.451117,0.386692,0.680559,0.867050,0.487938,0.100697
0.458656,0.546878,-0.148322,0.321086,0.326695,-0.888917
0.001613,0.016986,0.736700,0.118066,-0.763409,0.635033
0.487197,-0.238572,-0.976046,-0.529068,0.324949,-0.783898
0.169382,-0.680689,0.181981,-0.007724,-0.800658,0.599072
0.349634,-0.578722,0.063746,-0.050549,0.138905,0.989015
-0.135411,-0.143033,0.651926,0.609652,0.656850,-0.443703
-0.391982,-0.043411,0.316995,-0.161539,-0.933812,-0.319219
-0.091742,-0.344450,0.578525,0.750438,0.405285,0.522099
-0.328195,0.120686,0.657348,0.649357,0.735846,-0.192005
-0.493122,0.426250,0.903356,-0.111093,0.992629,0.048439
-0.014689,-0.172309,0.959150,0.985876,-0.165700,0.024313
0.364418,-0.119288,0.278476,0.401324,0.686810,-0.605996
0.024280,-0.345177,0.153100,-0.536279,-0.716677,-0.445846
-0.390366,-0.371994,0.632501,0.801193,0.429687,0.416483
0.539286,-0.135155,-0.360985,0.922842,-0.368994,-0.110481
-0.446665,-0.303665,0.532204,0.106337,0.777227,0.620170
0.477847,0.315065,0.686262,0.309829,-0.283503,0.907542
-0.153817,0.001064,-0.504546,-0.460650,-0.486052,-0.742668
-0.522595,0.225555,0.699272,0.480207,0.813744,0.327447
0.580260,0.309923,0.674756,-0.066913,-0.323038,0.944017
0.875850,-0.132918,-0.080840,0.968586,-0.105243,-0.225309
0.186613,0.130295,0.763316,0.536197,-0.305049,0.787044
-0.038578,-0.450888,0.360522,-0.432223,-0.897655,-0.086018
-0.289178,0.437592,0.848372,0.263420,-0.380097,0.886643
0.666322,-0.226728,-0.532187,-0.269736,0.846746,0.458545
0.216182,-0.118002,-0.035493,0.561411,0.825882,-0.052314
-0.083860,0.232539,0.918664,0.935434,0.011296,0.353321
-0.154893,0.471674,0.557282,0.785340,0.289058,0.547436
0.141232,-0.456641,0.366490,-0.448529,0.567281,0.690662
-0.405395,0.358869,0.811985,0.583214,0.558127,-0.590216
-0.456848,-0.018548,0.863696,-0.601663,0.391391,-0.696286
-0.541198,0.686500,0.654521,0.647633,0.699246,0.302699
-0.364714,-0.404459,0.530997,0.869485,0.411961,-0.272550
0.460126,0.000726,0.034006,0.315974,-0.011951,-0.948693
-0.741813,0.358978,0.726335,0.232936,0.879138,0.415760
0.092328,0.804168,0.295884,0.257370,-0.965949,-0.026506
-0.610713,0.296012,0.787188,0.661667,0.515221,-0.544742
0.326773,-0.167671,-0.213903,0.716496,0.474929,0.510957
0.435989,0.374845,0.682526,0.286878,-0.602566,0.744725
-0.401039,-0.152697,0.690726,0.140682,0.318575,0.937400
-0.552113,-0.072408,0.816879,0.371019,0.170421,0.912853
-0.100115,-0.075985,0.326583,0.304210,-0.942283,0.139855
-0.461252,0.421667,0.823690,-0.274125,0.760864,0.588168
0.352424,0.419713,0.645032,0.867423,-0.388190,-0.311266
-0.501593,0.373226,0.844850,-0.646587,0.077520,-0.758891
0.578793,0.539614,-0.385617,0.032610,0.218367,0.975322
-0.856318,0.170467,0.744817,0.146612,-0.366595,-0.918756
0.691582,-0.445299,-0.018400,0.316924,-0.205146,-0.925999
0.009642,-0.159794,0.195768,0.885301,0.186513,0.425975
0.787388,0.030842,-0.595123,0.360910,0.410040,0.837622
-0.073629,-0.254330,0.414416,0.332507,0.940354,-0.071933
-0.021002,-0.282992,0.732402,-0.287762,0.756595,0.587160
0.846380,0.120740,-0.615556,-0.259429,-0.202080,-0.944384
-0.508103,-0.295341,0.531410,0.802084,-0.581904,0.134348
0.514904,0.307355,0.674756,0.227739,0.649700,0.725275
-0.030842,0.624541,0.690841,-0.493970,0.592393,-0.636447
-0.503941,-0.018268,0.592974,-0.517590,-0.337169,-0.786396
0.062368,0.419993,0.629691,-0.495195,-0.711585,0.498426
0.045919,0.038218,0.946206,0.259960,0.853037,0.452491
-0.033878,-0.016986,0.644602,0.356128,-0.720436,0.595101
0.364615,-0.195494,0.443346,-0.210293,0.976986,0.035725
0.141576,-0.288578,0.516217,0.156073,0.900137,0.406688
0.147841,-0.604926,0.206365,0.733819,0.121837,0.668330
0.008907,-0.254610,0.401587,-0.010501,0.988935,0.147980
-0.049983,-0.604704,0.242850,0.424184,0.235986,0.874288
-0.480345,0.448597,0.803554,0.335121,0.448711,-0.828464
0.043812,-0.561402,0.214779,-0.044450,0.412603,0.909826
-0.110785,0.205889,0.777368,-0.483900,0.702048,-0.522465
-0.274931,0.340430,0.590412,0.995663,-0.077473,0.051516
-0.271310,0.207341,0.866358,-0.069620,-0.336287,0.939183
-0.449847,0.204548,0.833741,0.785020,0.287839,0.548537
-0.853186,0.275060,0.745776,-0.655771,-0.005646,-0.754939
0.237038,-0.083975,-0.098578,-0.121934,-0.992367,0.018409
0.288539,0.831156,0.266738,0.495673,0.543146,0.677717
0.508638,0.368086,-0.331509,-0.147768,-0.464728,0.873036
-0.499047,-0.188736,0.854092,0.796518,0.407274,-0.446864
0.168306,0.019332,-0.188990,-0.072221,-0.160532,0.984385
-0.128264,0.294669,0.778972,-0.463571,0.237593,-0.853611
-0.703334,0.416361,0.727261,-0.452991,0.206626,0.867240
-0.518678,0.159292,0.735940,-0.180808,0.983494,-0.006861
-0.403241,-0.336573,0.574773,-0.060495,-0.432952,0.899385
0.258333,0.699295,0.653314,-0.636336,-0.021590,-0.771109
0.099278,0.630294,0.605803,-0.665454,-0.674357,0.320020
0.538844,0.170409,0.186130,-0.205515,0.016780,0.978510
0.661183,0.094257,-0.095636,-0.601616,-0.533732,0.594296
-0.704362,0.416193,0.902579,0.952866,-0.291922,-0.082625
0.497182,0.122248,0.150422,-0.406723,-0.490282,0.770844
-0.349882,0.189854,0.314911,0.406298,0.276484,-0.870907
0.249080,-0.232652,0.062192,-0.773095,-0.592471,-0.226500
-0.075440,-0.000167,0.647694,0.563549,-0.396392,0.724767
0.232927,0.619344,0.658621,-0.000678,-0.174235,0.984704
0.082145,-0.144427,0.306927,0.236354,0.866396,0.439880
-0.013219,0.031735,0.794263,0.252467,-0.330485,0.909417
-0.404564,0.361774,0.884030,0.940686,-0.281400,0.189535
-0.148872,-0.330987,0.357232,0.936693,0.128555,0.325699
0.756400,0.166331,-0.384477,-0.033994,-0.160840,0.986395
-0.299654,-0.063750,0.760208,-0.531135,0.703146,-0.472738
-0.033095,0.870711,0.307604,-0.163021,-0.014548,-0.986515
0.281586,-0.182311,-0.346537,-0.361423,0.827767,-0.429157
-0.720419,0.361996,0.700926,0.390242,0.919716,-0.042819
-0.263476,-0.095764,0.291073,0.682187,-0.596932,0.422247
0.080726,-0.060957,0.857811,0.722824,0.664279,-0.190417
0.574974,-0.587943,-0.651562,-0.169117,0.252140,-0.952798
-0.376071,0.532238,0.793768,-0.615125,0.390344,-0.685020
0.218779,0.932840,0.248206,0.180119,0.347305,0.920291
-0.087042,0.265618,0.921690,0.872631,0.089722,0.480068
-0.608851,0.474466,0.904893,0.752388,0.133510,-0.645049
-0.546827,0.661248,0.685783,-0.676024,-0.719211,0.160395
0.468301,0.371831,0.687717,0.770346,0.127188,0.624813
0.123071,-0.200412,0.368705,0.820919,-0.461638,0.336129
-0.274050,-0.043971,0.508183,-0.700913,0.044527,-0.711856
-0.689383,0.040339,0.672971,-0.212681,0.977122,0.000363
0.458411,-0.231199,0.112101,0.641331,0.756926,-0.125528
-0.740101,0.304057,0.556191,-0.288970,0.645402,-0.707074
-0.216822,-0.169236,0.271169,-0.214350,0.267405,0.939441
-0.355559,0.452733,0.934138,0.922149,-0.372409,-0.104659
0.784843,0.425858,-0.379385,-0.068997,-0.019202,0.997432
0.134381,-0.040339,0.651447,0.813001,0.199091,-0.547168
-0.358057,0.356410,0.782724,-0.031373,0.960909,0.275080
0.118273,0.166389,0.792891,-0.039830,0.999117,0.013348
0.065744,0.076210,0.937163,0.764154,0.631253,-0.132622
0.024525,0.647559,0.318747,0.901090,0.057890,0.429751
0.062171,-0.392053,0.610398,0.751462,-0.454633,-0.478135
0.296567,0.546932,-0.277153,-0.285965,-0.834895,0.470292
-0.304548,-0.588611,0.741775,-0.202938,0.976566,-0.071656
-0.585599,-0.181697,0.817342,0.705508,0.225758,-0.671783
-0.503158,-0.047657,0.885849,-0.415128,0.531812,-0.738136
-0.140306,0.311713,-0.184576,-0.032576,-0.205481,0.978119
-0.509278,-0.074420,0.884956,0.066195,-0.911570,0.405782
0.408870,-0.045983,0.147016,0.911369,0.376953,-0.165267
-0.384345,-0.084589,0.469433,-0.026198,0.576844,0.816434
0.768884,0.080514,-0.378575,-0.258155,0.229010,0.938568
-0.385080,0.120795,0.629162,0.318870,-0.692407,0.647220
0.490185,-0.292715,-0.124533,0.368116,-0.653150,0.661729
-0.028347,-0.325285,0.640684,0.931405,-0.335571,-0.140982
-0.185639,-0.548774,0.749198,0.527178,-0.781556,0.333546
0.835414,0.090738,-0.391618,0.098032,0.094201,0.990715
-0.164344,-0.418035,0.669929,0.089066,0.739540,0.667195
0.330639,0.769640,0.260770,0.688671,0.287638,0.665580
0.050568,-0.055985,0.601868,-0.068493,-0.892232,0.446352
0.287804,-0.067995,-0.224814,0.454473,-0.885153,0.099791
-0.682774,0.471339,0.794875,0.195901,0.597961,0.777217
0.321875,-0.724547,-0.367317,0.448258,-0.229118,0.864043
0.452488,-0.526594,-0.421359,0.406390,0.840806,0.357622
0.191068,-0.175606,0.500562,-0.552915,0.579429,-0.598788
-0.620896,0.075150,0.887750,-0.152305,-0.361171,0.919977
0.238703,-0.218404,0.699074,-0.481084,-0.874121,-0.066865
0.651098,0.367360,-0.338651,0.497471,-0.790847,-0.356487
0.158954,0.121020,0.237014,0.670759,0.253763,0.696913
-0.240516,0.391443,0.353281,0.407664,0.513301,-0.755204
0.553189,0.313275,0.670756,0.179450,0.451693,0.873940
0.064226,0.781483,0.314581,-0.045225,0.327467,0.943780
0.060408,-0.168343,0.456555,-0.495208,0.865565,-0.074613
-0.089980,0.031176,-0.509522,-0.472788,-0.535036,-0.700149
0.265283,-0.038047,0.926368,0.441327,0.660114,-0.607849
0.096930,-0.024638,0.706563,0.769759,0.342454,0.538698
-0.433300,-0.254163,0.664721,-0.464033,0.838454,-0.285777
0.334556,-0.199464,-0.251215,0.563641,0.786258,0.253195
0.147157,-0.190134,0.632220,0.980365,0.129004,0.149138
0.355998,0.482456,0.511589,-0.509496,-0.148241,0.847608
0.302490,-0.372052,-0.048603,-0.345122,0.097981,0.933429
0.282028,0.436140,-0.170193,0.029712,-0.229470,0.972862
0.205363,0.889708,0.252323,0.371087,0.307887,0.876071
-0.609879,0.353839,0.823938,0.388379,0.921313,0.018556
0.624368,0.111802,0.006530,0.249837,0.583591,0.772660
-0.490430,-0.356744,0.724417,0.690518,0.701279,-0.177181
-0.493026,-0.282153,0.858125,0.230202,0.929089,0.289482
-0.072258,-0.456809,0.366590,-0.545438,-0.628319,-0.554719
0.363979,0.453906,-0.325740,0.204241,0.686895,-0.697467
-0.057817,0.065649,0.868210,0.151143,-0.789295,0.595121
0.134037,-0.319532,-0.122252,-0.137367,0.457422,0.878576
0.310372,-0.110738,-0.089684,0.520413,0.775786,0.356829
0.235667,-0.564028,-0.330121,0.725923,0.048304,0.686078
-0.008665,0.184603,0.956704,0.351619,0.256782,-0.900237
0.218142,0.150743,0.071665,-0.143197,0.040923,0.988848
-0.048515,0.248018,-0.191470,-0.014995,-0.182758,0.983043
0.137366,0.682701,0.286097,-0.277928,0.451870,0.847685
0.276545,-0.166778,0.058208,0.702203,-0.711430,-0.027917
0.123266,-0.135264,0.648223,0.985446,-0.135508,0.102632
0.358054,-0.194939,-0.293139,0.040995,0.837046,0.545595
0.432514,0.277127,0.661035,-0.250160,0.058351,0.966445
0.439270,0.354285,-0.328633,0.045567,-0.454686,0.889485
-0.406620,-0.151858,0.884840,-0.238858,0.970324,0.037653
0.207813,-0.135264,0.917424,0.087628,0.913542,0.397194
-0.112843,-0.395016,0.351909,-0.641290,-0.732682,-0.227870
-0.369268,0.456253,0.926137,0.807698,-0.521020,-0.275974
0.238018,0.033355,-0.087783,0.780926,-0.624563,0.008640
0.033582,0.941949,0.306117,0.768411,0.309590,0.560088
-0.467177,-0.044864,0.900942,-0.217536,-0.920644,0.324180
-0.674402,0.385686,0.732617,-0.338174,-0.368275,0.866032
0.655601,0.614034,-0.523640,-0.171290,0.056004,0.983628
-0.337446,0.181083,0.719325,0.012354,0.998018,0.061703
0.287069,0.231144,0.528798,-0.658636,-0.573525,-0.487101
0.668429,-0.279640,-0.005092,0.793714,0.339660,-0.504628
-0.038969,-0.110234,0.945925,0.764347,-0.157411,0.625296
-0.043717,-0.790868,0.233807,-0.832750,-0.407302,0.375010
0.458608,0.388257,-0.544503,-0.485100,0.059912,-0.872404
-0.270967,0.067494,0.423872,0.091505,0.273181,0.957601
0.124491,-0.121855,0.688907,0.434470,0.894879,0.102113
-0.165617,-0.191249,0.105852,-0.384405,-0.397847,0.833037
-0.176777,0.552075,0.321194,0.771748,-0.252384,0.583702
0.143778,0.433568,-0.333708,0.578511,0.384712,-0.719251
-0.455231,0.419154,0.911374,-0.015919,0.907284,0.420216
0.145003,-0.141859,0.447661,0.913139,-0.405900,-0.037721
-0.723799,-0.367861,0.570226,0.327203,0.096962,0.939966
-0.063300,-0.268411,0.408762,-0.237425,-0.971384,-0.006456
-0.396829,0.386859,0.924500,-0.466070,0.652016,-0.598042
-0.361678,-0.241030,0.763977,-0.471453,-0.149866,-0.869064
0.231113,0.923623,0.250273,0.287272,0.272770,0.918189
0.070689,-0.407419,0.636221,-0.082496,-0.300485,0.950212
0.603270,-0.365290,0.161051,0.405030,0.787278,0.464913
-0.348707,-0.600179,0.753331,-0.629648,0.719836,-0.292197
0.188328,-0.048329,-0.207654,0.332984,-0.219311,0.917074
-0.386598,0.552576,0.893238,-0.691182,0.713395,-0.115481
0.473246,0.082414,-0.317838,0.196730,0.339648,0.919748
0.200468,-0.107778,0.478955,-0.392934,0.611048,0.687185
0.291721,-0.259247,-0.504398,0.698732,-0.714417,0.037176
-0.255103,0.094257,0.882476,0.950697,-0.237390,-0.199550
-0.094680,0.013521,0.401951,0.800803,-0.318782,0.507043
0.446516,0.519334,-0.149496,-0.344717,-0.330743,0.878510
0.342684,-0.223209,-0.968358,-0.639937,-0.235199,0.731547
0.392323,0.215611,0.673946,0.609020,-0.535493,0.585100
0.198168,-0.153648,0.433262,0.897559,-0.386860,-0.211489
0.116904,0.043636,0.769516,-0.852119,-0.105464,0.512612
0.013362,-0.221811,0.476542,0.761790,-0.643552,-0.074276
0.003669,-0.250139,0.861167,-0.686601,0.468442,0.556004
-0.638420,0.081070,0.762374,0.424883,-0.877743,0.221454
0.169382,0.629346,0.635427,0.057862,-0.160265,0.985377
-0.228767,-0.463179,0.747826,0.982665,-0.046814,-0.179382
0.203552,0.002851,0.069780,0.581100,-0.227438,-0.781405
0.386792,-0.046597,-0.993916,-0.195146,0.703896,0.682970
-0.683557,0.395576,0.876029,0.745929,-0.420312,-0.516651
-0.223775,-0.404514,0.535526,-0.442441,-0.399233,0.803031
-0.002154,0.721812,0.678178,0.920994,-0.387717,0.038022
0.023644,0.690971,0.639147,0.779044,-0.605531,0.162552
-0.037451,0.082243,0.918499,-0.609740,-0.496268,0.618009
-0.027955,-0.019499,0.949959,0.775217,0.009091,0.631629
0.233414,0.394682,0.718846,0.367635,-0.202661,0.907620
-0.152153,0.316572,0.797537,-0.458782,0.143705,-0.876851
-0.172077,-0.448542,0.753596,-0.596392,-0.744354,-0.300422
0.008076,-0.709239,0.258423,-0.390906,-0.705488,-0.591167
-0.480345,-0.358865,0.490792,-0.521290,0.643063,-0.561005
-0.083666,0.154712,0.661481,0.776023,-0.456273,-0.435436
-0.391199,0.467817,0.908332,0.844478,-0.369576,-0.387648
-0.327657,-0.116604,0.659200,0.442539,-0.731110,0.519266
0.034317,0.544027,0.798429,0.726459,0.686293,-0.035481
0.450041,-0.028829,0.608547,0.691680,0.440792,-0.572085
-0.335390,-0.090178,0.679220,-0.357887,-0.917114,-0.175554
0.603954,0.137000,0.012349,-0.611060,0.644651,0.459380
0.162772,0.612247,0.271731,-0.290061,-0.120935,-0.949336
0.009741,0.039336,0.773417,0.909729,0.330985,0.250683
0.325599,0.765616,0.256968,0.422689,0.264811,0.866723
-0.310178,0.266958,0.574392,0.925323,0.083109,0.369959
0.030546,0.666834,0.616383,0.607195,-0.693646,0.387518
0.121016,0.002793,0.742602,0.984825,0.153717,0.080564
-0.405739,-0.134538,0.755761,-0.622829,-0.727369,0.288129
-0.034170,0.782824,0.577765,0.525841,0.764616,0.372631
0.115240,-0.169737,0.124020,0.751764,0.618829,0.227818
0.038037,-0.076265,0.943296,0.529787,0.776902,0.340219
0.175600,0.339649,0.827112,0.563457,0.380597,0.733255
0.094139,0.295453,0.277781,-0.661756,-0.116374,0.740632
0.111125,-0.129903,0.034799,-0.755585,0.629312,0.181817
0.223820,0.500448,-0.303306,0.330817,-0.876127,0.350659
0.199880,-0.055927,-0.539230,0.107303,0.171087,-0.979395
-0.451559,0.192088,0.748586,0.468543,-0.714788,0.519178
0.078180,-0.314393,-0.118549,0.431375,0.651817,0.623739
-0.633574,-0.014135,0.793222,0.594935,0.718427,0.360438
-0.227985,0.300313,-0.478691,-0.121137,-0.389342,0.913093
-0.202184,0.022517,0.461101,-0.670694,0.457920,-0.583505
-0.510843,-0.203263,0.814168,-0.192835,0.022013,0.980984
-0.129047,-0.504469,0.760489,0.483336,-0.815842,-0.317471
0.514904,0.507934,-0.581418,0.945088,-0.252788,-0.207141
-0.343957,-0.424685,0.653645,0.322754,0.548415,0.771408
-0.750771,0.322997,0.799454,-0.201522,-0.178964,0.962996
-0.428160,-0.302993,0.558952,-0.351771,-0.186326,-0.917355
0.389239,-0.196112,-0.837841,0.974832,-0.166394,-0.148374
-0.523426,0.646775,0.863134,-0.366769,0.748709,-0.552192
-0.369169,-0.328082,0.738668,-0.449532,0.410707,0.793247
0.129483,-0.123141,0.076294,0.015059,0.987096,0.159418
0.042931,0.758298,0.694825,0.089617,-0.479494,0.872957
-0.488180,0.139680,0.691486,-0.047115,-0.976576,0.209953
0.264647,0.675775,0.646140,0.900209,-0.309290,0.306534
0.325303,0.082693,0.581286,0.799062,0.392673,-0.455311
0.165223,-0.024359,0.692743,0.954696,-0.290701,-0.063627
-0.198514,-0.492288,0.726831,-0.056022,-0.980274,0.189536
-0.361484,0.191307,0.646371,0.861730,0.496019,0.106712
-0.556861,0.285059,0.802314,-0.494713,-0.727238,0.475799
0.387183,0.133760,0.646189,0.969959,-0.242143,-0.023371
-0.354922,0.213657,0.699669,-0.046218,-0.876144,0.479828
-0.445491,0.213824,0.818135,0.687327,0.719219,-0.101522
0.086747,0.395855,0.618813,0.713660,0.697389,-0.065870
0.203552,0.348812,0.514498,0.550928,0.539244,-0.636941
0.323053,-0.471394,0.054654,0.047402,-0.056343,0.997286
0.295196,0.787520,0.616399,0.886081,-0.216641,0.409789
-0.549274,0.064421,0.911870,0.780014,0.368792,-0.505540
0.893425,0.171920,-0.384708,-0.267894,-0.238214,0.933535
0.528711,-0.714269,-0.643577,-0.454430,0.491747,-0.742750
-0.173057,-0.481171,0.726930,0.109863,-0.219786,-0.969342
-0.453860,0.196337,0.727691,0.019001,-0.999281,-0.032800
-0.678417,0.675717,0.839907,0.222761,0.603261,0.765802
0.146470,-0.649960,0.194759,0.096941,-0.652493,0.751568
-0.604788,0.655212,0.735345,0.212091,0.867725,0.449524
-0.025750,0.405131,0.681865,-0.308607,0.518827,0.797233
-0.291183,0.191140,0.876707,-0.072859,0.103157,0.991993
-0.119303,-0.238517,0.405555,0.474717,0.879974,-0.017007
0.040828,0.101633,0.960076,0.858802,-0.046775,-0.510168
0.388994,-0.270085,-0.121425,0.193271,-0.373565,0.907246
0.397169,-0.218626,-0.454720,0.824550,0.345336,0.448174
-0.020856,0.595374,0.633807,0.978312,0.198528,0.059090
-0.547804,-0.240024,0.675847,0.774863,0.435108,0.458549
0.289567,-0.208402,0.145198,0.408632,0.911591,0.044971
-0.341656,-0.043578,0.812399,0.867482,0.462030,-0.184403
0.764429,0.137334,-0.063482,0.327957,0.637354,-0.697298
-0.058893,0.069840,0.798248,0.207766,-0.665204,0.717173
0.383559,-0.145938,0.581236,-0.673639,0.256317,0.693189
-0.096150,-0.211307,0.676806,0.946600,0.215625,-0.239695
0.160570,0.242429,-0.353662,0.388237,0.510067,-0.767531
0.110833,-0.167391,0.378806,-0.300598,0.929093,-0.215471
0.230429,-0.119789,0.492809,0.497826,-0.848236,-0.180733
-0.547559,0.043190,0.529426,0.464029,-0.513604,-0.721726
-0.311600,0.451223,0.853496,0.123658,0.590427,-0.797561
-0.749794,0.418540,0.800876,0.071824,-0.965708,0.249498
0.575267,0.294502,0.660770,-0.110789,-0.207334,0.971977
0.267244,-0.464130,0.164209,0.998736,-0.033873,-0.037143
-0.433446,0.033747,0.905588,-0.519663,-0.263688,0.812662
-0.649533,-0.172755,0.801041,-0.171843,-0.472823,0.864239
0.774707,0.182536,-0.610365,-0.272848,-0.149715,-0.950337
-0.379059,-0.001006,0.880608,-0.528242,0.836885,-0.143474
0.171291,0.108839,0.798578,0.941702,-0.266458,0.205420
0.166642,-0.175160,0.311076,0.683425,0.727271,-0.063302
0.185830,0.074365,0.751794,-0.652925,0.742254,-0.150824
0.247858,0.390099,0.535245,0.988127,0.079477,0.131487
-0.575954,-0.193094,0.817176,-0.673219,-0.307946,0.672269
0.144366,0.847023,0.310382,0.589956,0.379038,0.712939
-0.410439,-0.010449,0.948719,0.936530,-0.189272,-0.295108
0.142702,-0.267851,0.493271,0.706579,-0.687260,-0.168581
0.089732,-0.116491,0.142238,0.836846,-0.439994,0.325720
0.410191,0.224160,-0.583551,0.756141,-0.575840,-0.310901
-0.375485,-0.053635,0.379418,-0.442217,-0.617744,-0.650259
-0.051650,-0.264833,0.413159,-0.235317,-0.952567,-0.192983
-0.507906,0.442899,0.493222,-0.188338,-0.958812,-0.212624
-0.192150,-0.094032,0.488511,0.903929,-0.094006,0.417223
-0.284332,-0.377304,0.759993,0.331393,0.162395,0.929412
-0.273560,0.017992,0.537742,0.933070,0.339552,0.118683
0.392176,-0.184210,-0.745082,0.398486,0.917167,0.003738
0.462916,-0.159514,-0.692544,0.987855,0.093915,-0.123781
0.110441,0.496145,0.615540,0.924034,-0.382154,0.010919
0.370782,0.197844,0.530501,0.821817,0.495372,0.281468
0.088264,-0.067716,0.715011,0.907078,0.409528,0.097453
0.417876,-0.570398,0.068342,-0.237890,0.159539,0.958100
-0.218731,0.203543,0.530236,0.965842,-0.121399,0.228934
0.641943,0.118507,-0.382229,0.507164,-0.000125,0.861850
-0.475254,0.538721,0.858439,0.933421,0.353402,-0.061908
0.191119,0.613925,0.269119,-0.346540,-0.040472,-0.937162
-0.018947,-0.714269,0.262209,0.218690,0.739243,0.636941
-0.981203,0.086601,0.739990,0.205869,-0.972122,-0.112233
0.282614,0.015533,0.086146,0.489129,0.711872,-0.503975
-0.700788,0.372110,0.834601,0.485481,0.744277,0.458651
-0.558086,0.060677,0.524384,0.721062,-0.616864,-0.315511
-0.208793,0.452846,0.505257,0.942077,-0.302044,0.145808
0.313996,-0.117330,-0.334369,-0.338680,0.924495,-0.174941
0.221471,-0.490723,-0.204976,-0.608735,0.016577,-0.793200
0.119008,-0.560341,0.203455,0.358246,0.148781,0.921696
0.296077,-0.153144,0.000645,-0.104009,0.991758,0.074822
-0.472514,-0.429599,0.484444,0.538518,-0.842269,-0.024106
-0.220102,0.391385,0.358472,0.344488,0.555683,-0.756667
-0.527636,0.656777,0.867896,-0.652641,0.705789,-0.275540
0.041610,-0.141692,0.312498,0.166960,0.636028,-0.753388
-0.817205,0.361215,0.778674,-0.603157,-0.797616,-0.003218
-0.404272,0.474692,0.868276,-0.514811,-0.841015,0.166324
0.804719,-0.069953,-0.377038,-0.250884,-0.314713,-0.915430
0.064178,0.377304,0.294462,-0.405831,0.195678,0.892755
-0.155335,-0.034695,0.438998,-0.239120,0.970990,0.000708
0.437656,0.343448,-0.589073,0.581990,-0.356276,-0.730996
-0.451317,0.054924,0.890395,0.660669,0.688907,-0.298201
-0.491263,-0.364008,0.542635,0.068763,0.446298,0.892239
0.069318,-0.115823,0.087568,0.188812,0.981097,-0.042422
-0.615852,0.506426,0.719524,0.436331,-0.262471,0.860653
0.049786,0.934464,0.308828,0.768411,0.309590,0.560088
-0.687522,0.048946,0.732782,0.333368,-0.898902,0.284326
-0.058256,0.587329,0.660506,-0.664762,0.364034,-0.652358
0.260978,-0.091686,-0.136717,-0.141380,-0.987593,0.068348
0.016694,0.685552,0.342850,0.037732,0.256915,0.965697
0.194938,-0.223823,-0.133444,0.346241,0.153133,0.925563
0.363390,-0.290198,-0.358125,0.393563,-0.179679,-0.901567
0.186126,-0.641970,0.202381,0.796984,0.570807,-0.197475
0.082829,0.029389,-0.146619,0.450235,0.760309,0.468208
-0.343616,0.044308,0.630964,-0.523108,-0.851725,-0.030376
0.470404,0.327580,-0.558026,0.855735,-0.471381,-0.213350
0.569832,0.275954,0.666771,-0.089967,-0.533653,0.840905
0.144904,-0.140182,0.012085,-0.567093,-0.823534,0.014048
0.074069,-0.560508,0.210084,0.447166,0.451003,0.772424
0.018454,-0.261983,0.606761,0.506341,0.709179,0.490596
0.115141,-0.264554,0.189965,-0.360997,0.125438,0.924092
0.586526,0.328136,-0.328104,0.323514,0.611365,-0.722199
-0.405837,0.547604,0.622450,0.830403,0.515571,0.211229
-0.427378,0.364789,0.759993,0.700238,0.708583,0.087044
0.515200,0.122640,0.045677,-0.315657,-0.504693,0.803521
-0.399766,0.069560,0.828616,-0.058339,-0.584788,0.809085
-0.136927,-0.213265,0.094297,-0.090544,-0.184408,0.978670
0.302735,-0.050283,-0.188213,0.996896,0.073360,-0.028576
-0.368043,0.436082,0.625955,0.944644,0.266096,0.191942
-0.132716,-0.202478,0.644222,0.581206,0.458987,-0.671960
0.235374,-0.309418,0.327608,-0.654621,-0.755759,-0.017301
-0.426006,-0.028495,0.865994,-0.235363,-0.927236,-0.291268
-0.280659,-0.144932,0.764622,0.984060,0.132625,0.118476
-0.036522,-0.232986,0.572028,-0.051165,0.419129,0.906484
-0.608606,0.289308,0.763779,0.515691,0.856764,0.004419
0.040875,-0.034194,0.614102,0.239481,0.969457,0.052931
0.592155,0.656723,-0.523971,0.181678,-0.097164,-0.978546
0.328975,-0.142974,-0.370524,-0.208019,0.917514,-0.338964
0.325548,0.574756,0.522219,-0.123238,0.779157,0.614595
-0.232879,-0.601185,0.747512,0.294399,-0.556420,0.776999
0.018995,-0.239411,0.585121,0.303885,0.834972,0.458776
0.339842,-0.746952,-0.401207,-0.111664,0.974737,0.193439
0.415184,-0.653592,0.067714,-0.496326,0.092575,0.863186
-0.331524,0.093476,0.333014,0.865646,-0.409315,-0.288302
-0.222747,0.180244,0.575781,0.326558,-0.858553,-0.395281
0.457678,-0.120014,0.159993,0.972317,-0.072571,-0.222110
0.279285,0.319423,-0.100794,0.326832,0.604276,-0.726658
0.370735,0.097722,0.638519,0.910622,0.412824,-0.018543
-0.408087,-0.130906,0.746520,-0.105093,-0.834327,0.541160
0.308660,-0.696055,-0.358621,0.338521,-0.344203,0.875744
-0.684585,0.097217,0.728715,0.473451,-0.783522,0.402414
0.117541,0.555761,0.274723,0.109736,-0.945348,-0.307044
-0.042005,-0.363111,0.681534,0.437161,-0.796046,-0.418569
-0.603712,0.340150,0.799471,-0.688040,-0.613188,0.388074
-0.590003,0.311655,0.908167,0.356955,-0.912995,-0.197544
0.247905,-0.345235,0.574326,-0.555627,0.771220,0.310643
0.229840,-0.241648,0.127690,0.134230,-0.915220,-0.379941
0.248348,-0.253992,0.232369,-0.667717,-0.734472,0.121264
-0.593873,0.325231,0.840585,0.270005,-0.929422,-0.251540
-0.087434,0.707790,0.709522,0.929096,0.174684,0.325986
-0.656680,-0.011902,0.495255,0.829695,0.508602,0.230065
-0.068831,-0.308691,0.898148,-0.805695,0.460882,-0.372080
0.763057,0.397250,-0.549231,0.413051,-0.479042,0.774537
-0.325697,0.345736,0.429906,0.759970,-0.435939,0.482081
-0.048515,-0.206001,0.956654,-0.671668,0.717268,0.185441
0.381602,0.144652,0.692098,-0.613485,-0.489211,0.619926
0.110342,-0.044250,0.614845,0.811860,0.583822,-0.005916
-0.689039,0.354511,0.581716,-0.063555,-0.817232,0.572794
-0.078915,-0.117835,0.299372,0.479092,-0.697873,0.532394
-0.285945,-0.499159,0.739445,-0.481280,-0.616657,-0.622979
-0.251189,-0.126272,0.197619,0.947452,0.066147,0.312984
-0.548294,-0.042126,0.801108,0.379505,0.764708,0.520767
-0.099428,0.823834,0.588643,0.324858,0.726605,0.605403
0.076369,-0.012348,0.930749,-0.380147,-0.873158,-0.305095
-0.479954,-0.237399,0.809588,0.039141,-0.953626,0.298439
0.766287,0.158511,-0.028649,-0.484736,-0.798867,0.356150
0.035539,-0.282266,0.939461,0.436743,0.186288,-0.880087
-0.126304,0.538663,0.754125,-0.576786,0.335993,0.744598
-0.453373,-0.318526,0.644702,0.837833,-0.100979,0.536506
-0.377735,-0.360932,0.511093,0.730177,0.682398,-0.034271
0.118616,0.224160,0.550207,-0.291290,-0.731402,0.616604
0.373376,-0.125375,-0.732419,0.984125,0.177403,-0.005083
-0.424685,0.543359,0.822086,-0.412209,0.889527,-0.197040
0.480883,-0.593082,-0.406018,0.066653,0.624245,0.778380
-0.541001,0.160073,0.755646,0.807516,-0.587338,0.054323
-0.013562,-0.714883,0.251033,0.351489,0.857105,0.376598
-0.308758,-0.445245,0.409473,-0.214620,0.211862,0.953443
-0.450238,0.397028,0.916234,0.692018,0.605344,-0.393281
-0.255348,-0.254944,0.422334,-0.662991,0.747383,-0.043140
-0.473249,-0.168844,0.706381,0.117052,-0.909893,0.397986
-0.307730,0.276568,0.563746,0.921663,-0.011105,0.387831
0.387476,0.115376,0.164870,0.630939,0.025933,-0.775399
0.283495,-0.027489,0.022466,0.083565,-0.048513,0.995321
0.224017,0.002517,0.201025,-0.012136,0.285369,0.958341
0.437262,0.110517,-0.456075,0.939596,-0.342094,0.011439
-0.037060,-0.311655,0.691106,0.077976,0.798732,0.596613
-0.404612,-0.252373,0.712250,-0.254789,0.932869,0.254635
0.081948,-0.439826,-0.317639,-0.628352,-0.129136,-0.767136
-0.268128,0.492401,0.560308,0.028117,-0.183653,0.982589
-0.343224,-0.039333,0.783005,-0.279545,0.934571,-0.220073
0.300090,0.761704,0.611572,0.903344,-0.207619,0.375318
-0.613698,-0.119789,0.573186,0.968338,-0.240316,-0.067606
-0.398200,0.430049,0.841362,0.688910,0.452464,-0.566286
-0.075491,0.587776,0.674409,0.871212,-0.361125,0.332533
-0.304157,-0.085482,0.822301,0.908718,0.292029,-0.298246
0.017722,0.429490,-0.174475,-0.136221,-0.356494,0.924314
0.108971,0.665047,0.657712,0.813960,0.556803,0.165648
0.089636,-0.050116,0.877781,-0.419629,0.830271,0.366826
0.300924,0.224440,0.492478,0.859863,0.434946,0.267316
0.058988,0.222650,0.535245,-0.789318,-0.591698,0.163922
-0.376463,0.515143,0.870243,0.877537,0.215864,-0.428173
-0.416558,-0.221142,0.486742,0.421110,0.790175,0.445297
-0.015863,0.009276,0.878492,0.774208,0.456665,-0.438246
-0.631175,0.071798,0.726947,-0.592985,0.790038,0.155592
0.247905,-0.740473,0.169929,-0.133714,-0.006639,0.990998
0.576098,0.555482,-0.376095,-0.179926,0.342450,0.922147
0.164682,0.282658,-0.212779,-0.136214,-0.667903,0.731677
0.229891,0.370879,-0.176029,-0.033551,-0.267024,0.963106
-0.185051,0.634373,0.495305,-0.385739,-0.753663,-0.532163
0.834825,0.079450,-0.042470,0.450128,0.680222,-0.578518
-0.008716,0.717175,0.656538,0.865413,-0.399061,0.303003
-0.257748,0.393117,0.554108,0.893122,0.041474,0.447897
-0.000344,-0.159906,0.855166,-0.522133,0.707082,-0.476877
0.075389,0.817188,0.314647,-0.032103,0.297589,0.954154
-0.395947,-0.244495,0.794429,0.694783,-0.635111,0.337505
0.262251,0.591967,-0.268144,-0.699233,-0.712924,0.053035
-0.094387,0.728462,0.705042,0.868965,0.401066,0.289906
0.558376,0.219188,-0.343032,0.080007,-0.598674,0.796987
-0.006854,0.504974,0.674492,0.030639,0.411875,0.910725
0.222792,-0.192589,0.244123,-0.661063,0.627466,-0.411439
-0.676066,0.405520,0.798132,0.472657,0.762055,-0.442568
0.347234,0.167729,0.496627,0.786147,0.591669,0.178606
0.401331,-0.104873,-0.799570,0.868691,-0.493581,-0.041879
0.176825,-0.093640,0.444255,0.957775,-0.281482,-0.058608
-0.607089,0.627446,0.771251,0.186784,0.009573,0.982354
0.056885,-0.101967,0.817639,0.853291,0.518636,0.053956
-0.318060,0.343390,0.645346,0.960239,0.051371,0.274411
-0.106330,0.038272,0.422070,-0.647823,0.761311,0.027027
0.214371,-0.109173,-0.144900,-0.188510,-0.926513,0.325633
-0.366429,-0.572689,0.726434,0.416961,-0.881857,0.220162
-0.126059,-0.362555,0.846586,0.706171,0.581272,0.404283
0.096245,0.014807,0.393569,0.922153,0.382576,0.057183
0.291721,-0.034528,-0.220102,-0.407761,-0.877836,0.251267
-0.361338,0.316460,0.630154,-0.360092,0.590083,-0.722589
-0.596664,0.445749,0.755877,0.575916,0.657978,-0.485166
0.019580,-0.705720,0.247165,-0.398634,-0.795777,-0.455884
0.036812,0.013354,0.932716,-0.645025,-0.713170,-0.274467
-0.533656,-0.078891,0.815011,-0.011815,0.651100,0.758900
0.003475,-0.420269,0.868391,0.253180,0.907492,-0.335198
-0.731337,0.682088,0.618135,-0.543047,-0.285745,0.789588
-0.325990,-0.013576,0.815474,-0.736722,0.651440,-0.181291
0.649434,0.357638,-0.063763,0.918852,0.181170,-0.350555
0.343858,-0.742260,-0.373500,0.495091,-0.642657,0.584703
0.576931,-0.106155,-0.346702,0.764548,-0.347876,-0.542632
0.109461,0.712595,0.619491,-0.598156,-0.782924,0.170997
0.387524,-0.084309,0.104199,0.620689,0.540718,-0.567776
-0.072945,0.291375,0.911440,0.776823,0.315581,0.544935
0.119205,-0.115935,0.687651,-0.680739,0.678323,0.276537
0.280609,-0.572130,-0.222086,-0.565406,-0.059860,-0.822638
0.022078,-0.000614,-0.153298,0.161798,0.933044,0.321327
0.294216,0.507879,0.526517,-0.481965,0.670872,0.563597
0.666322,-0.327911,-0.376525,-0.210485,-0.570719,0.793710
0.170705,-0.150129,0.440998,0.896088,-0.441218,0.048508
0.247514,-0.721253,0.166606,0.122429,-0.289510,-0.949313
-0.458903,0.090178,0.935559,0.170862,0.758210,0.629225
0.082145,0.161192,0.806414,-0.141778,0.957508,0.251151
-0.433446,0.354732,0.661002,-0.016977,-0.313836,0.949326
-0.252558,0.686558,0.577533,0.655948,-0.232773,0.718018
0.186566,0.333947,0.809952,-0.482293,-0.574823,0.661039
-0.536743,-0.064309,0.865102,0.584028,0.339125,0.737500
0.544963,-0.276956,0.138155,0.458918,-0.072712,-0.885498
-0.131249,0.492680,0.334634,0.450230,-0.193842,0.871618
0.279874,-0.195887,-0.157365,0.434972,0.877121,-0.203615
-0.372695,0.503576,0.582328,-0.190172,-0.981494,0.022475
0.476867,0.208180,0.051777,-0.353400,0.208886,-0.911853
0.586770,0.266457,-0.369516,0.941863,0.023671,0.335162
-0.096245,0.704100,0.709390,0.843605,0.532669,0.067780
-0.463604,-0.219577,0.709142,0.947702,0.052370,-0.314831
-0.074266,-0.366576,0.699950,0.599720,-0.766277,-0.230556
-0.068735,0.360935,0.744966,0.649514,0.197118,0.734355
-0.444657,0.614706,0.611870,0.916794,0.374477,0.138769
0.459734,-0.207788,-0.171152,0.616101,0.640226,0.458836
-0.475744,0.319645,0.836485,-0.763898,-0.327822,0.555871
0.175501,0.156499,0.138155,-0.795724,0.594962,-0.113333
-0.425567,0.351046,0.873814,-0.665459,0.626628,-0.405589
0.456406,0.164489,-0.454786,0.919999,0.374003,-0.117147
-0.285064,-0.539444,0.716218,-0.579600,0.606029,-0.544787
0.251724,-0.028884,0.922450,0.441327,0.660114,-0.607849
-0.404711,-0.035479,0.436849,0.416057,-0.797684,-0.436573
-0.413965,-0.378978,0.515358,-0.550366,-0.834856,-0.010585
0.472803,-0.063078,0.179583,0.813381,0.214896,-0.540584
0.694717,0.108726,-0.080460,0.650932,0.568312,-0.503298
0.071472,-0.146552,0.486824,-0.457183,0.823886,-0.334956
0.198903,-0.140519,0.697768,0.493822,0.833693,-0.247175
0.925931,0.156499,-0.382410,-0.086484,0.017564,0.996098
0.485093,0.129122,0.054125,-0.367367,-0.556246,0.745408
-0.027465,-0.182144,0.907687,0.938828,-0.251814,0.234928
-0.566162,0.432341,0.920698,0.409920,-0.061116,-0.910071
0.237920,-0.176500,0.091982,-0.063276,-0.976041,0.208183
-0.096490,0.641916,0.469020,0.135410,0.882654,0.450095
0.064863,-0.082298,0.790097,-0.735396,-0.676303,-0.042502
0.083319,-0.308470,0.902843,0.900008,-0.075424,-0.429298
-0.635728,0.316126,0.849149,0.718770,-0.241605,-0.651917
0.199393,0.558946,0.270111,-0.413428,0.026015,-0.910165
0.003033,0.747348,0.681799,-0.236626,0.806963,-0.541127
-0.098450,-0.326796,0.849231,0.965588,0.256232,-0.044555
-0.066139,-0.076599,0.302595,0.893100,-0.341117,0.293277
-0.164685,-0.016035,0.421491,0.900694,-0.364763,0.236007
-0.242378,-0.424794,0.619011,-0.015863,0.756827,0.653423
-0.282715,0.003966,0.547909,-0.095701,-0.921604,0.376148
0.167816,-0.138787,0.599752,-0.361841,0.927542,0.093474
-0.001422,-0.205664,0.139180,-0.399499,0.916007,-0.036489
0.209722,0.622191,0.656373,0.139098,-0.489674,0.860738
0.386105,0.512459,-0.153629,0.289479,0.492442,-0.820794
-0.081168,0.346408,0.674392,-0.515007,0.767192,-0.382342
-0.711853,0.198625,0.789023,0.121409,-0.723386,-0.679685
0.181328,0.067381,0.700215,-0.573854,0.815512,0.075037
0.392616,-0.112133,-0.607704,0.906085,0.421105,0.040998
-0.037989,-0.297909,0.435328,0.790230,-0.346968,-0.505124
-0.122339,-0.041120,0.966490,-0.126331,-0.550144,0.825459
-0.094972,-0.096044,-0.195669,-0.403196,0.224576,-0.887130
-0.520832,-0.409820,0.477897,-0.585279,0.739860,0.331746
0.344444,-0.039387,0.564936,0.750065,0.172494,-0.638473
0.928818,0.241313,-0.368061,0.523267,0.366647,-0.769260
0.171437,0.712984,0.266358,-0.088389,0.081090,0.992780
0.164780,-0.440215,0.137097,-0.138063,0.135665,0.981088
0.210407,-0.288971,0.517176,-0.463591,-0.656481,0.595077
-0.754787,0.236171,0.743131,0.946313,-0.314139,0.076208
0.319820,-0.161134,0.251661,-0.476503,0.808364,0.345676
0.407009,-0.078498,-0.545098,0.996444,0.005448,-0.084078
0.293188,0.295620,0.775698,0.918825,-0.264962,0.292500
-0.580899,0.599844,0.856753,0.128605,-0.648441,0.750324
-0.716505,0.231871,0.538304,0.235418,-0.570000,0.787197
-0.424930,0.294393,0.799504,-0.551941,0.606184,0.572627
-0.712098,0.031793,0.857596,0.997854,0.009169,-0.064831
0.211189,0.027881,0.068408,0.776930,0.036158,-0.628548
0.005384,0.560454,0.395222,0.802430,-0.528711,0.276714
-0.632988,0.616438,0.846156,0.424608,0.783761,0.453240
0.078425,0.740193,0.652290,0.271952,0.927616,-0.256069
-0.223234,0.114036,0.523954,0.991709,-0.066988,-0.109663
-0.693641,0.626887,0.852075,0.424608,0.783761,0.453240
0.045528,-0.285171,0.903786,0.962415,0.271331,-0.011672
-0.067901,0.579673,0.672409,0.817888,-0.436760,0.374566
-0.250257,-0.104815,0.710911,-0.541574,0.791471,-0.283321
-0.439470,-0.286345,0.869516,0.550984,0.748764,0.368468
0.063004,-0.842887,0.225260,0.370519,-0.830498,0.415919
0.441669,-0.432842,0.088725,0.448676,0.516802,-0.729113
0.356488,-0.115765,-0.337924,-0.255901,0.937034,-0.237659
-0.648164,0.338418,0.556092,-0.331860,-0.725674,0.602716
0.228911,0.302103,0.104497,0.120279,-0.828402,0.547068
-0.049496,-0.367916,0.205323,-0.195688,0.026129,0.980318
-0.989184,0.144543,0.754984,-0.666612,0.417250,0.617682
0.554853,0.163483,0.191635,-0.321180,0.024263,0.946707
0.348654,0.079061,0.153315,0.903075,0.114657,-0.413895
0.368580,-0.625711,-0.422301,-0.712959,0.490578,0.501022
-0.292163,-0.149904,0.688924,0.872242,0.167896,-0.459352
0.195034,0.762543,0.655546,-0.376140,0.206114,-0.903347
-0.309395,0.717959,0.593371,0.180891,0.681664,0.708952
-0.547709,0.624371,0.746537,0.393325,0.750608,0.530926
0.091005,0.547826,-0.149264,-0.014427,-0.454989,0.890380
-0.419397,-0.168844,0.134237,-0.482400,-0.123721,-0.867170
0.340284,-0.193148,-0.460026,0.971083,0.063408,0.230167
-0.006071,-0.183204,0.289783,0.046667,0.872891,0.485679
-0.006807,-0.470108,0.383286,-0.230567,0.775567,0.587651
-0.139669,-0.116662,0.905654,-0.075113,0.648864,0.757188
0.208987,-0.259190,0.351413,0.570945,0.805329,-0.159585
-0.477799,-0.271258,0.788742,0.605068,-0.627624,0.489878
0.361678,0.179572,-0.139081,0.314066,0.664085,-0.678494
-0.331279,-0.235891,0.275004,-0.568870,0.456767,-0.683923
0.102365,-0.776679,0.190726,0.733394,-0.131999,0.666865
0.391489,-0.260308,-0.436287,0.878618,0.468969,-0.089989
0.422038,-0.812267,-0.401455,0.003247,0.839886,0.542754
-0.414843,0.426530,0.903042,-0.308969,-0.863058,-0.399586
0.152542,0.483350,0.578095,0.874271,0.114827,0.471662
0.074899,0.514751,0.640982,0.215944,0.142369,-0.965971
0.034903,-0.204102,0.906084,-0.459690,0.617923,0.637853
-0.008471,-0.299307,0.623822,0.549543,0.734245,0.398606
0.245506,-0.178846,0.059018,0.723022,-0.690537,0.019947
0.804474,0.140072,-0.601190,-0.409847,-0.255226,-0.875720
0.223574,-0.354565,0.572690,0.289665,-0.883511,-0.368106
-0.313509,0.793552,0.591701,0.009253,-0.733871,0.679225
-0.192933,-0.049447,0.449711,0.855199,-0.469543,0.219464
0.652811,-0.168343,-0.000331,0.775970,0.282794,-0.563825
-0.648603,0.648228,0.844040,0.222761,0.603261,0.765802
0.210699,-0.122640,-0.087568,-0.709502,-0.575991,-0.406007
0.488520,-0.230974,0.148140,0.768543,0.639699,0.011291
0.078670,0.498269,0.607158,0.115697,0.451740,0.884616
0.243059,-0.055367,-0.034121,0.475068,0.876387,0.079102
0.093210,-0.030842,0.952653,-0.312066,0.867414,-0.387566
-0.097569,0.311096,0.652686,-0.155341,-0.624046,0.765791
-0.342684,-0.048329,0.899802,0.796279,0.125871,0.591689
0.066871,-0.275115,0.668871,0.676827,-0.686750,0.265104
0.136682,0.074703,0.496082,0.989930,-0.070273,0.122885
0.783618,-0.194768,-0.059828,0.114588,0.944524,0.307806
0.451753,0.380602,0.683005,0.867050,0.487938,0.100697
-0.476870,0.215052,0.710878,-0.549809,-0.826516,0.120750
-0.649924,0.143033,0.714349,0.572492,0.616607,0.540416
-0.414649,0.577273,0.818284,0.626700,-0.511264,0.588095
0.257013,-0.299866,-0.117160,0.100744,-0.790677,0.603888
0.580113,0.272264,-0.380063,0.458460,-0.115676,0.881155
0.853428,-0.202424,-0.389883,0.116692,0.042167,0.992273
0.419884,0.137948,0.135560,-0.452836,-0.211996,0.866024
-0.286289,-0.263101,0.592610,0.441517,0.460008,0.770361
0.012971,-0.108112,0.901289,0.948248,-0.276829,0.155538
0.323836,-0.479998,0.060721,0.086851,-0.220185,0.971584
-0.269449,0.156666,0.883634,0.257367,0.454461,0.852777
-0.334754,0.353672,0.457547,0.778543,-0.625078,0.056102
-0.485974,0.276793,0.842321,-0.579089,0.795762,-0.177251
0.100503,0.064309,-0.457613,0.930022,0.351269,-0.108028
-0.005534,-0.397025,0.629757,0.588256,0.808538,0.014855
0.815048,0.139905,-0.390560,-0.194101,0.123265,-0.973206
-0.180987,-0.572802,0.734816,0.829114,-0.379472,0.410574
0.015516,-0.387807,0.880790,0.169268,-0.790100,0.589144
0.181328,-0.111130,0.002116,-0.568101,-0.822208,-0.035144
0.119498,0.301711,0.669582,-0.544617,-0.197016,-0.815216
0.202330,0.051514,0.760258,-0.512112,0.709699,-0.483806
-0.701867,0.069114,0.488560,-0.054092,-0.076212,0.995623
0.699219,-0.227062,-0.176971,0.648978,0.396115,-0.649554
-0.680963,0.103141,0.501025,0.411995,0.108714,-0.904678
0.467321,0.462677,0.659911,0.647596,0.665713,0.370737
-0.001422,0.781429,0.592693,0.272397,0.846208,0.457965
0.144074,-0.711196,0.226550,0.196821,0.882004,0.428171
-0.207179,0.396803,0.582278,0.534823,-0.644781,0.546098
-0.010282,0.078891,0.886196,0.807799,0.544013,-0.226959
0.127281,0.575206,0.636518,-0.914619,0.356928,-0.189934
-0.095122,-0.109118,0.613225,-0.362103,0.685085,-0.632092
0.124443,-0.014916,0.934485,-0.556078,-0.830753,-0.025038
0.053849,0.053025,-0.130947,-0.339451,0.535463,0.773339
-0.587852,0.248632,0.849975,0.028365,-0.960738,0.276005
-0.645863,0.266791,0.861002,-0.321220,-0.765043,0.558146
-0.129633,-0.218626,0.626913,0.923520,-0.028186,0.382513
0.272284,0.106493,0.575665,-0.697059,-0.029365,0.716412
-0.454646,-0.005306,0.971566,0.901031,-0.351791,-0.253744
0.022762,-0.327410,0.621706,0.876359,0.342077,0.339083
-0.590837,0.402781,0.914168,0.800436,0.331827,-0.499192
0.259508,0.650407,-0.335130,0.848340,0.527456,-0.045939
-0.546827,-0.207509,0.486758,0.264091,-0.719540,-0.642276
