-0.078885,-0.403145,0.278139,-0.015552,0.945767,0.324472
-0.146924,-0.044750,0.882934,0.332140,0.517651,-0.788493
0.346357,-0.182684,0.678562,0.959708,0.278783,-0.035220
0.751609,0.045218,0.683453,0.045430,0.210669,0.976501
0.338210,0.955931,-0.226249,-0.296354,-0.292206,0.909280
-0.197735,-0.511309,0.437908,0.488069,-0.868274,-0.088819
0.121744,-0.125446,0.927211,0.451658,-0.843368,0.291094
-0.055156,0.351049,0.770207,0.945333,0.079484,-0.316272
-0.439229,-0.337567,0.748983,0.946578,-0.244102,0.210722
0.192088,-0.158527,0.162959,0.892545,-0.356342,-0.276374
-0.536741,0.027879,0.756866,0.819560,0.312960,0.479976
-0.270519,-0.108886,0.887145,-0.044436,-0.906787,0.419240
0.199729,-0.170216,0.432677,0.784129,-0.293553,-0.546780
0.062248,0.153266,-0.971446,0.044941,0.116162,0.992213
-0.177848,-0.803581,0.559469,0.089549,-0.768873,0.633100
0.493729,0.194841,0.791218,-0.467631,-0.254212,0.846580
-0.024280,-0.057882,-0.942453,0.067228,0.852762,0.517954
0.165207,0.128056,0.944579,0.602803,0.737702,-0.304015
-0.718288,-0.303162,0.496151,0.588312,-0.689980,0.421683
0.067591,-0.179061,0.700055,0.863965,0.332219,0.378410
0.403803,-0.095755,0.355153,-0.666368,0.739496,0.095389
0.012986,-0.075883,-0.152354,0.774277,-0.534152,0.339376
-0.295150,-0.152604,0.592574,-0.814613,0.543448,-0.202658
0.060096,0.887783,-0.992996,-0.327281,-0.253696,-0.910234
0.179300,-0.032243,0.765585,0.923069,-0.175260,-0.342386
0.083928,-0.052466,0.895893,0.720356,0.157277,0.675538
-0.054906,-0.088040,0.873067,0.796200,0.581370,-0.167554
-0.111456,-0.756590,0.789786,0.887878,0.412768,0.203210
-0.486985,0.150266,0.763685,-0.622429,-0.435190,-0.650533
-0.137831,0.115432,0.628387,0.871406,-0.458638,0.174081
-0.374733,-0.279316,0.700637,0.520791,0.823117,0.226397
-0.522654,-0.434121,0.834659,0.851568,0.457722,-0.255583
-0.725484,0.184866,0.756993,0.131965,-0.584970,0.800247
0.326574,-0.215103,0.283073,0.813005,-0.380900,-0.440384
0.486588,-0.215181,0.545645,-0.510167,0.559832,0.652930
0.017633,-0.024528,-0.392625,0.885867,-0.449062,-0.116545
-0.148674,0.308773,0.617115,0.782854,0.235942,-0.575734
0.512762,0.495685,0.667262,-0.618076,-0.784160,0.055447
0.120396,-0.403807,0.870812,-0.670932,0.353640,0.651759
-0.176153,0.520700,0.554251,0.662947,0.578451,-0.475285
0.642602,0.545988,0.640112,0.999572,-0.029035,-0.003540
-0.093570,-0.174502,-0.963365,-0.125295,-0.118822,0.984978
-0.306090,-0.756434,0.557767,-0.317112,0.821709,0.473533
0.699304,-0.265406,0.615173,0.810580,0.562281,-0.163710
0.526349,-0.454032,0.836077,0.803696,-0.176742,0.568185
0.257480,0.096028,0.925808,-0.363727,0.922451,0.129567
0.309188,-0.159773,0.260658,0.842799,-0.034528,-0.537120
0.176147,0.115081,0.962344,0.834917,0.441231,-0.328981
0.489381,-0.484736,0.591227,0.487648,-0.765005,-0.420675
0.146875,-0.021021,0.561709,0.260102,-0.955837,0.136833
-0.407652,0.084182,0.828903,0.910987,-0.354364,0.211018
0.463756,-0.007150,0.782612,0.102632,0.993620,0.046758
-0.160066,-0.028697,0.320417,0.662754,0.726199,0.182736
0.902530,0.478346,0.628358,0.925528,-0.276071,0.259198
0.016487,-0.039880,-0.123857,0.942327,-0.334056,-0.020640
0.037666,-0.574003,0.791573,0.891977,-0.374993,-0.252501
0.491229,0.144733,0.809720,-0.002567,-0.511373,0.859355
0.066841,-0.181944,0.570230,-0.247310,-0.745149,-0.619347
-0.050259,-0.635528,0.652220,0.392400,-0.916195,-0.081299
0.176299,0.046192,-0.082401,-0.312732,0.761376,-0.567895
0.383874,-0.352491,0.663094,0.966535,-0.060770,-0.249231
0.206675,0.543689,-0.983228,0.030491,0.038064,0.998810
-0.108206,-0.358336,0.691208,0.298064,-0.927981,-0.223625
-0.239399,-0.908122,0.637248,0.871819,0.468155,-0.144090
-0.197485,0.682285,0.739228,0.806839,-0.585313,0.080127
-0.673276,0.247989,0.526973,-0.424419,0.898505,0.112058
0.030373,0.014748,0.468490,-0.711450,-0.636228,0.298417
-0.006595,-0.070389,0.783421,0.965018,0.134921,0.224802
0.019884,-0.306552,0.868459,-0.039968,-0.123538,0.991535
0.311335,0.177424,0.794082,-0.077856,-0.950269,0.301540
-0.123897,0.251144,-0.968554,-0.006612,0.001703,0.999977
-0.581856,-0.147577,0.784852,-0.705091,0.288302,-0.647865
-0.138435,0.789982,0.659649,-0.471631,0.766727,0.435538
-0.527203,-0.125757,0.780542,0.813195,0.088880,0.575165
-0.357743,0.062674,0.784059,0.849679,0.506906,0.145230
0.270519,0.388104,0.443324,0.800782,0.341841,-0.491826
0.017633,-0.435758,0.868884,-0.501816,0.422259,-0.754902
0.003949,0.690584,-0.986432,0.188080,-0.147531,0.971010
0.887596,-0.399170,0.758142,0.019069,-0.944395,0.328261
0.312231,-0.180113,0.368749,0.944743,-0.073507,-0.319465
0.495376,-0.551832,0.810486,-0.348707,0.689063,-0.635291
-0.115700,0.064388,0.524265,0.731958,0.680946,0.023451
0.412396,0.858170,0.578467,-0.580827,-0.100556,-0.807792
-0.142179,0.356426,-0.978024,-0.066798,-0.012228,0.997692
-0.265823,0.131719,0.822353,0.839940,-0.539925,0.054599
0.075384,-0.406768,0.853643,-0.181003,0.404968,0.896236
-0.073287,0.371661,0.863709,-0.569684,0.316569,-0.758449
0.224708,0.928033,-0.234770,0.243976,0.324360,-0.913929
-0.711397,-0.068519,0.478783,0.150975,-0.732627,0.663675
0.161810,0.201582,0.345271,-0.874727,0.462532,0.144625
-0.126690,0.643126,0.486779,-0.524208,0.727547,-0.442584
0.043911,-0.675700,0.825188,-0.656598,0.002587,0.754236
-0.081330,-0.463773,0.879560,0.750973,0.598001,-0.280062
0.377630,-0.233182,0.628174,-0.526182,0.639554,0.560449
-0.126891,0.379610,-0.972013,-0.084501,0.024105,0.996132
0.261530,-0.005786,0.974778,0.909176,-0.118606,0.399163
0.494077,0.402482,0.592276,-0.682822,0.670178,0.290889
-0.648749,-0.131173,0.446429,0.414878,-0.761176,0.498485
0.146778,0.177658,-0.973289,0.045915,0.094569,0.994459
-0.665184,-0.467163,0.483901,0.092399,0.905499,0.414167
0.346357,0.582575,0.566997,-0.319955,-0.846558,0.425405
-0.020731,-0.501179,0.623141,0.951224,-0.154059,0.267281
0.020829,0.145395,0.270696,-0.181931,-0.783686,0.593917
0.131086,0.011124,0.737499,0.895376,-0.438359,-0.078378
-0.091521,-0.084144,0.159074,0.457421,-0.882292,-0.111026
-0.165707,0.459760,0.612649,-0.156553,-0.950086,0.269866
0.500322,0.487268,0.607843,0.980838,-0.170193,0.094825
0.660787,0.480839,0.749734,0.989647,0.072559,-0.123835
0.521507,0.646866,0.581161,0.967727,0.234162,-0.093130
0.033623,-0.002357,-0.965165,0.216026,-0.050559,0.975078
0.008742,0.786008,-0.983100,0.101568,-0.103941,0.989384
0.520757,-0.209024,0.543788,0.718212,-0.194960,-0.667953
-0.533198,-0.159734,0.859243,0.858604,-0.054136,-0.509774
-0.487387,-0.417094,0.819730,0.956353,0.093629,-0.276808
-0.018085,0.344971,0.840911,0.797586,0.597240,0.084625
0.715842,-0.242728,0.740448,-0.535496,-0.736516,-0.413265
-0.008791,-0.057492,-0.274425,-0.726862,0.679886,0.097091
-0.408152,0.393014,0.622801,-0.372725,0.926976,0.042329
-0.526404,0.135771,0.715282,-0.443397,0.446797,-0.777027
0.299193,-0.037152,0.924759,-0.073859,-0.068548,0.994910
0.377227,0.373999,0.485262,-0.293544,-0.818023,0.494641
0.591394,-0.514661,0.784186,0.727328,0.685215,0.038397
-0.558774,0.238325,0.744687,0.219730,-0.876045,0.429259
0.876802,-0.414639,0.758198,-0.812515,0.115119,0.571461
0.067841,-0.514465,0.854040,-0.459364,0.783410,-0.418633
0.069640,-0.467864,0.809834,0.448974,0.120613,-0.885367
-0.654993,-0.169943,0.460905,0.637708,-0.451962,0.623746
0.056754,-0.059986,0.791729,-0.069585,0.991487,-0.110057
0.487387,-0.394845,0.544128,-0.020722,0.874283,0.484974
0.470800,0.423640,0.512001,0.857744,-0.503953,-0.101523
0.379575,-0.339438,0.664044,0.961493,-0.098730,-0.256482
0.604237,-0.525298,0.783406,0.661436,0.746214,-0.075277
0.400358,0.480021,0.647243,-0.142063,-0.945517,0.292943
-0.669428,-0.127745,0.477961,0.082814,-0.602257,0.793995
0.487283,-0.549339,0.719153,0.708997,0.568936,-0.416694
-0.464006,0.038477,0.644124,-0.029564,0.978110,0.205979
-0.024378,0.836467,-0.279146,-0.306548,-0.703040,0.641688
-0.071189,0.546806,0.443509,0.968175,-0.024830,-0.249038
0.851073,0.321280,0.640409,-0.386511,-0.447353,-0.806527
-0.296351,0.122952,0.367303,0.696453,-0.165851,0.698174
-0.488387,0.036997,0.736024,0.614938,0.229013,0.754589
0.339863,0.604668,0.482965,0.528360,0.084208,-0.844834
-0.375428,0.062752,0.641586,-0.709669,-0.601729,0.366460
-0.330721,-0.279550,0.823076,0.950766,0.306667,0.044719
0.507719,-0.430848,0.724923,-0.559384,0.300289,0.772604
-0.828046,-0.379299,0.731969,0.920662,-0.224088,-0.319633
-0.169854,-0.108730,0.635532,0.753012,-0.656196,-0.048784
0.268518,-0.166125,0.225979,0.120809,0.991771,-0.042365
-0.151620,0.122056,0.673614,-0.405032,-0.883908,-0.233785
-0.050107,0.341620,0.795840,-0.349581,0.928414,-0.125858
0.525050,0.568860,0.750018,-0.644785,0.379218,0.663661
-0.121348,0.023203,0.822097,0.824433,0.329137,0.460412
0.355249,-0.014514,0.827301,-0.065631,-0.972212,-0.224714
-0.012389,0.354478,-0.974976,0.070881,-0.145757,-0.986778
0.085129,-0.213934,0.905137,0.490381,0.468928,-0.734597
-0.174501,0.498685,0.510655,0.601730,0.797100,-0.050524
0.395315,-0.321943,0.663945,0.932853,-0.174179,-0.315353
0.324025,0.319800,0.858492,0.560039,0.114287,0.820546
-0.271372,0.584095,0.761870,0.958195,0.143894,0.247299
0.053254,0.484229,-0.982604,-0.014323,0.139574,0.990108
-0.521757,-0.432134,0.729573,0.997033,0.018246,-0.074783
-0.568916,-0.272068,0.825486,0.536148,-0.059159,0.842048
0.229105,-0.156812,0.589653,-0.628166,-0.641548,0.440254
-0.554627,-0.194374,0.417521,-0.664592,-0.073106,-0.743622
-0.386472,0.245378,0.403145,0.594801,-0.681533,0.426292
0.181794,-0.014164,0.630953,0.968970,-0.116688,-0.217903
-0.036672,-0.374155,0.290034,-0.145424,-0.957294,-0.249880
-0.483838,0.119601,0.697971,-0.166471,-0.868939,0.466083
-0.437625,-0.163124,0.685637,0.878643,-0.004790,0.477455
-0.296998,-0.971478,0.694696,0.730337,0.682948,-0.013781
-0.359896,-0.248144,0.795684,-0.205792,0.978515,-0.012600
-0.823850,-0.294083,0.573023,-0.073076,0.996957,-0.027141
-0.138331,0.524284,0.779522,0.353996,0.901642,0.248451
-0.310487,-0.283407,0.903946,0.970185,-0.218637,0.104585
0.151473,-0.456564,0.873293,0.747821,0.298554,-0.592983
0.596693,0.637164,0.610012,0.867332,0.492811,-0.069807
-0.427087,0.291083,0.816441,0.718848,0.695165,-0.001729
0.208322,-0.008825,0.613387,0.973392,-0.075323,-0.216412
0.209169,-0.019424,0.966484,-0.560594,-0.187841,0.806505
-0.010090,-0.605603,0.782201,0.821156,-0.510305,-0.255524
-0.139234,0.214518,0.882835,0.412795,0.899407,0.143764
-0.232252,0.537260,0.774021,0.320897,0.944590,0.069104
-0.222860,-0.057921,0.233919,0.666771,0.427406,0.610525
0.225306,-0.189854,0.579204,0.755683,0.451481,-0.474455
0.041917,0.365544,0.822480,0.916688,0.131632,0.377302
-0.297546,-0.779189,0.606440,0.900777,0.431588,0.048304
-0.274519,0.246937,0.779352,-0.284129,0.636334,-0.717182
0.767245,-0.647451,0.471255,-0.369884,-0.074366,0.926097
-0.171555,-0.753317,0.482980,0.643433,0.628929,0.436397
0.621172,0.195543,0.760226,0.027399,-0.917227,0.397421
0.102912,-0.436576,0.705329,-0.096244,0.739447,0.666299
-0.025976,0.540611,-0.984263,0.016422,0.130233,0.991347
0.375477,0.048335,0.672877,-0.724427,0.619067,0.303251
-0.674124,-0.096144,0.828633,-0.302458,0.158846,0.939833
-0.234551,-0.309708,0.280691,0.802413,0.563622,0.196120
0.309036,0.841415,0.616789,0.240912,0.562013,0.791267
-0.742266,-0.185373,0.823572,0.806892,-0.101631,0.581890
-0.128989,-0.358297,0.247444,-0.648236,-0.687001,-0.328359
-0.073939,0.675895,0.508811,-0.268235,0.908788,-0.319615
0.768044,-0.184165,0.805779,0.877757,-0.046020,-0.476891
0.912275,0.365154,0.619908,0.886393,-0.397451,0.237360
-0.526752,0.329151,0.787844,0.050589,-0.995113,0.084800
-0.051705,0.608720,0.452072,0.874906,-0.356863,0.327395
-0.339509,-0.647178,0.709512,-0.121906,-0.114790,0.985881
0.124891,0.621656,-0.982831,0.000579,0.081639,0.996662
0.270171,0.090689,0.701643,0.819294,-0.572225,-0.036274
-0.720739,-0.202868,0.795415,-0.759830,-0.647157,-0.062024
-0.180245,0.737497,0.652049,-0.715924,0.692004,0.092648
-0.281014,-0.519726,0.815476,0.743825,-0.621643,-0.245530
-0.025232,-0.060297,-0.348078,0.844371,-0.535733,0.005309
-0.665781,-0.477605,0.546042,-0.221037,0.958532,0.179888
0.335362,-0.211089,0.870188,-0.249124,-0.046344,0.967362
0.435332,0.877418,0.587285,-0.751896,-0.013567,0.659142
0.024878,-0.059635,0.453844,0.942228,0.333596,-0.030335
-0.138130,-0.378987,0.364510,0.963435,-0.252757,-0.088922
-0.059151,0.171891,0.928941,0.952092,-0.276356,0.130950
0.261975,0.077520,0.871252,0.793716,-0.100258,-0.599969
-0.217915,0.023944,0.896970,-0.059944,-0.420377,0.905367
-0.152169,0.507452,-0.979173,-0.098833,-0.160485,-0.982078
0.543736,-0.117185,0.431954,0.884562,-0.321307,-0.338102
0.506170,0.623254,0.612295,-0.328413,-0.319432,0.888880
-0.217664,0.236027,0.790594,0.689751,0.559734,-0.459283
-0.011041,-0.179139,0.412956,0.208069,0.869755,0.447476
-0.673825,0.040620,0.772277,0.786603,-0.552283,0.276114
0.272067,0.163709,0.747593,0.850854,-0.505351,0.143765
0.033373,0.089637,-0.969901,0.027506,0.003181,0.999617
-0.182593,0.465916,0.505834,0.601730,0.797100,-0.050524
-0.135435,0.364219,-0.972027,-0.073865,-0.011224,0.997205
-0.901280,-0.058271,0.602810,-0.255378,0.899017,-0.355739
0.043264,-0.520934,0.749422,-0.752888,-0.186074,-0.631297
0.163511,0.870950,-0.994017,0.097802,0.033315,0.994648
-0.166859,-0.436030,0.772390,-0.518322,0.825510,0.223328
-0.294698,-0.606149,0.761927,0.944380,0.037974,-0.326656
0.057553,-0.093261,0.023719,0.335308,0.941074,0.044136
0.479441,0.536753,0.721832,0.963615,0.266451,-0.021189
0.296046,-0.291551,0.646648,-0.113089,0.833200,0.541283
-0.148674,-0.395001,0.278664,0.320747,0.838998,0.439550
-0.379276,-0.299188,0.850581,-0.300024,-0.081662,-0.950430
-0.524002,-0.402404,0.805396,0.756590,0.651579,0.054927
0.176049,-0.189854,0.128479,0.881301,-0.350891,-0.316518
0.388771,0.292680,0.436519,0.524862,0.270933,-0.806918
-0.085977,0.123303,-0.968412,-0.018299,0.168181,0.985586
0.525849,-0.468565,0.681511,0.874861,0.410855,0.256546
0.162761,0.575678,-0.983455,-0.013875,0.008087,0.999871
-0.261975,-0.160903,0.544256,0.977293,0.082805,0.195041
0.069042,-0.102028,0.704380,0.916642,0.377519,0.131327
0.142429,0.509751,-0.981611,0.089942,0.084864,0.992325
0.247790,-0.393559,0.533963,0.692980,-0.246665,-0.677448
0.043710,-0.060648,-0.052529,0.819254,-0.552059,-0.155092
0.066694,-0.414405,0.877688,0.217763,0.055467,0.974424
-0.597541,-0.372246,0.442119,-0.157717,0.835614,0.526188
-0.168006,0.140213,0.710306,0.778986,-0.477209,0.406758
0.542589,0.453369,0.624700,0.780342,0.600633,-0.174087
0.138380,0.195893,0.323735,0.537419,0.463200,-0.704718
0.158913,-0.104171,0.877391,0.584600,-0.737179,-0.338836
-0.078586,-0.801477,0.689720,0.292925,0.953875,-0.065713
-0.102766,0.100625,-0.969149,0.225078,-0.272836,-0.935361
-0.509969,-0.365700,0.808600,0.979828,0.188590,-0.066105
0.682418,-0.318202,0.808217,0.101926,0.936915,0.334366
0.180196,0.715132,-0.986134,0.054540,0.041170,0.997662
-0.325721,0.252742,0.815930,0.215212,0.806619,-0.550500
-0.609384,0.051881,0.814215,0.934190,-0.245800,-0.258595
-0.266427,-0.353855,0.850666,0.637290,0.461597,-0.617081
0.594492,0.503828,0.750018,-0.228818,-0.507210,0.830891
-0.253187,0.049933,0.719961,-0.064630,-0.812779,0.578975
-0.007095,-0.229013,0.896687,0.842265,-0.172775,-0.510625
-0.574160,-0.304954,0.424539,-0.344578,-0.561291,-0.752475
-0.174702,-0.266029,0.804957,0.925636,-0.114219,-0.360767
0.071841,-0.807361,0.657848,0.788336,0.534810,-0.304145
-0.083129,-0.388806,0.863567,0.966804,-0.130948,-0.219413
0.274415,0.460890,0.475451,0.809109,0.534354,-0.244559
0.172903,0.245495,0.418060,-0.778355,0.456514,-0.430996
0.079281,-0.046777,0.629507,0.989840,0.138129,0.033717
-0.083331,0.295603,0.758269,-0.361534,0.617494,-0.698566
0.325221,0.266380,0.863681,0.796027,-0.162863,0.582938
0.005748,0.828206,-0.976522,0.123345,-0.165007,0.978549
0.444571,-0.014086,0.765670,0.189452,0.980004,0.060832
0.244241,0.834830,0.520437,-0.013334,-0.795561,0.605727
0.475343,-0.425861,0.821261,0.797159,0.553988,-0.240071
0.032019,0.266224,0.333830,-0.266466,-0.687081,0.675955
0.664281,0.616357,0.573887,0.918779,0.314383,0.238766
0.088374,-0.093885,0.707215,0.972459,-0.207815,0.105526
-0.041966,-0.507218,0.592205,0.825682,-0.436626,-0.357221
-0.339113,-0.335074,0.732310,-0.170950,0.854260,0.490933
0.082532,-0.094430,0.516879,-0.092907,0.995655,-0.006224
-0.515159,-0.176333,0.765145,0.553755,0.755451,-0.350212
-0.664836,-0.206842,0.821800,-0.276775,-0.566800,0.775972
-0.519007,-0.234546,0.745523,0.981387,0.002274,0.192026
-0.556774,0.310409,0.779819,0.106749,-0.853819,0.509507
0.018334,-0.525493,0.822806,0.571819,0.704378,-0.420564
0.232300,-0.073779,0.630074,0.854417,0.298490,-0.425295
0.201980,0.424809,0.690570,0.611042,0.457350,-0.646110
-0.129739,0.039412,0.897381,0.325565,0.344393,-0.880568
0.282307,-0.205089,0.608765,0.861230,0.253505,-0.440475
-0.269573,0.707690,0.708023,0.823625,-0.557079,0.106323
0.385771,-0.000253,0.914536,0.851329,0.496262,-0.170188
-0.616824,-0.009449,0.805850,-0.579568,-0.514219,-0.632203
0.029921,-0.063298,-0.032254,0.642961,-0.765210,0.032475
-0.178300,0.309435,0.912722,-0.312327,0.544863,0.778188
-0.186392,-0.081104,0.672522,0.868201,-0.241666,0.433388
-0.104760,0.188178,0.942424,0.772229,0.182114,0.608685
0.496827,-0.309708,0.679469,-0.258906,0.237589,0.936226
0.559524,0.581991,0.621454,0.951728,0.265993,-0.153169
-0.353852,-0.380156,0.638935,0.712943,-0.647560,-0.269033
-0.229306,0.562781,0.730509,0.933462,-0.258161,0.249003
-0.074537,0.550546,-0.980888,0.055963,0.105703,0.992822
0.900030,0.421107,0.694030,0.970184,-0.171450,-0.171312
-0.826747,-0.340762,0.692541,0.957141,-0.228602,-0.177825
-0.161212,0.147421,0.753222,0.149169,0.950196,-0.273635
0.199333,0.263262,0.350602,-0.812941,-0.281695,0.509681
-0.132087,-0.222350,0.828591,0.795837,0.484410,-0.363306
-0.079934,-0.137018,0.921852,0.580097,0.783041,0.224355
-0.148772,0.446239,0.636114,0.960739,0.262389,-0.090178
-0.428233,0.332073,0.720117,-0.689173,-0.618522,0.377454
-0.411500,0.196049,0.424624,0.849710,0.376162,0.369452
0.616672,0.726120,0.666766,0.737246,-0.658872,-0.149521
-0.509268,0.139628,0.709143,-0.480848,0.472838,-0.738383
0.787827,-0.475774,0.800250,0.932943,0.353161,0.069960
0.483435,0.535117,0.721691,0.963615,0.266451,-0.021189
0.294400,0.229753,0.806077,0.954309,-0.075844,-0.289037
-0.372684,-0.349997,0.612380,-0.374779,0.681386,0.628692
-0.268220,-0.599564,0.426396,0.100537,-0.941780,-0.320847
-0.127293,-0.134641,0.396864,-0.121702,0.976834,0.176022
0.490479,0.430264,0.551827,0.679730,-0.721271,0.133172
-0.533594,-0.438291,0.798888,0.858624,0.477489,0.186466
-0.440326,0.448304,0.739569,-0.749742,-0.660897,0.033196
0.137282,-0.131797,0.398664,-0.277064,0.844586,0.458159
0.566116,-0.335269,0.398948,0.045121,0.963524,0.263792
-0.063395,-0.022268,0.827159,-0.585242,-0.810813,0.008606
0.044509,-0.057414,0.600527,0.195429,-0.977692,-0.076983
-0.307389,-0.016073,0.766889,0.975884,0.096717,0.195695
0.252937,0.224415,0.823501,0.141265,0.985245,-0.096626
-0.263377,-0.440901,0.876498,-0.817463,0.444232,0.366623
0.093570,-0.257145,0.517531,-0.796942,0.493974,0.347668
-0.363244,-0.302539,0.868870,-0.483032,0.836719,0.258034
0.414244,0.768396,0.524265,0.988155,-0.054313,-0.143527
0.476447,-0.295291,0.347327,0.724533,0.689085,-0.014626
-0.215865,0.024489,0.645202,-0.406385,0.901803,-0.146979
0.186441,0.400417,0.575702,0.484088,0.703800,-0.519927
0.123293,-0.183581,0.091503,0.868407,-0.199684,-0.453867
-0.300193,0.214440,0.775779,-0.421015,0.531704,-0.734872
0.231105,0.299071,0.061659,0.007771,-0.893241,0.449510
-0.014438,0.282082,-0.972580,0.030809,-0.019562,0.999334
0.165158,-0.511309,0.874541,0.342875,0.567549,-0.748549
-0.151120,-0.264938,0.772730,0.948694,-0.004763,0.316159
-0.038618,-0.062090,-0.598798,0.836162,-0.538581,-0.103746
-0.039118,0.113990,-0.002595,0.390559,-0.601447,0.696940
0.082178,0.406339,-0.976522,-0.059031,-0.111272,-0.992035
0.136983,-0.109236,0.950463,0.739787,-0.607019,0.290247
0.467403,0.390286,0.599861,-0.295192,0.953348,-0.063161
-0.363244,-0.256833,0.796691,-0.205792,0.978515,-0.012600
0.050705,-0.639580,0.663945,-0.054683,-0.815266,-0.576499
0.373983,0.742212,0.499071,0.475897,0.470473,-0.743086
-0.136087,-0.284303,0.857046,0.163527,-0.586163,0.793519
-0.044015,-0.600538,0.745424,0.630258,0.716216,-0.299684
-0.022079,-0.125641,0.923242,0.999605,0.004035,0.027813
-0.127989,-0.668024,0.541562,0.951244,-0.281960,-0.125035
0.441576,-0.593135,0.692612,0.551686,0.780287,-0.294609
0.561372,-0.369947,0.798378,0.924505,-0.375122,0.067633
0.001997,-0.220869,0.924362,0.807721,0.542052,0.231876
0.884748,-0.384052,0.715424,-0.537837,0.668376,0.513815
0.424190,0.267159,0.864617,0.290000,0.956355,-0.035854
-0.121994,-0.286018,0.369402,-0.806085,0.169173,-0.567105
-0.363189,-0.261587,0.797471,0.920174,0.391505,-0.002179
0.393662,-0.151941,0.360129,0.808610,-0.546478,-0.217971
-0.490180,-0.395468,0.731289,-0.844676,0.352471,0.402849
-0.510116,0.263185,0.765982,-0.129397,-0.872776,0.470658
-0.615177,0.304487,0.609431,-0.589891,0.742847,0.316554
0.382374,-0.257184,0.292672,-0.493796,0.549074,0.674302
0.153516,0.663933,-0.326783,0.401213,0.797464,-0.450643
-0.160511,0.313331,0.622234,0.704930,0.335581,-0.624868
-0.145027,-0.370337,0.272284,-0.643479,-0.729627,-0.231473
-0.285008,0.115977,0.902769,-0.284627,-0.145074,0.947597
0.483490,-0.225233,0.693051,0.382774,0.645172,-0.661239
-0.044161,0.406846,0.861171,0.949256,-0.197059,-0.245115
0.239344,0.537688,-0.228730,0.385191,0.095049,0.917929
0.299394,0.011436,0.676903,0.757833,-0.438743,-0.482901
0.165207,0.099067,0.795784,-0.680096,-0.549383,0.485436
-0.167158,0.080948,0.331859,-0.733167,-0.623102,0.272417
0.449565,-0.577705,0.705769,0.428518,0.838112,-0.337551
0.015938,-0.457227,0.753194,0.908196,0.226177,0.352171
0.131336,0.392507,-0.977316,-0.120614,-0.056946,-0.991065
-0.006943,-0.063882,-0.063687,0.913180,-0.390590,-0.116366
-0.388418,0.358180,0.721549,-0.689173,-0.618522,0.377454
-0.390515,0.271094,0.831866,0.016635,-0.999523,0.026003
-0.415244,0.218337,0.429232,0.849218,0.389485,0.356555
-0.044411,-0.684584,0.701431,-0.328295,0.928317,0.174499
-0.377178,-0.301058,0.857485,0.285224,-0.558801,0.778709
-0.262877,-0.615578,0.451108,0.856104,-0.494630,-0.149757
0.588296,0.545364,0.536572,0.807905,-0.585289,0.068747
-0.219665,0.230221,0.928587,0.727367,0.670939,0.144144
0.271519,0.055544,0.989253,0.981150,0.045116,0.187908
0.066145,-0.066454,0.659705,0.746412,-0.643419,-0.169943
-0.118652,-0.290421,0.827258,0.785518,-0.130609,-0.604899
-0.197979,-0.669505,0.813392,0.120749,-0.814531,0.567414
-0.104114,0.517777,0.443892,0.827129,-0.480737,0.291119
0.332416,-0.204582,0.488013,0.821714,-0.028811,-0.569171
0.524300,0.448421,0.599422,0.933577,-0.342829,-0.104412
0.049558,-0.307526,0.661010,0.981716,0.181160,-0.058440
-0.053504,-0.161293,0.398792,-0.323367,-0.906086,-0.272840
-0.228757,0.596524,0.783591,0.430371,0.686542,0.586038
0.524154,-0.446395,0.751435,-0.145816,0.881112,0.449865
-0.042265,0.813867,0.658741,-0.551338,0.739118,0.386951
-0.104309,0.348127,0.082075,-0.009515,-0.745606,0.666319
0.800920,-0.394650,0.723548,0.856744,-0.515266,0.022146
0.043514,-0.046621,-0.320247,-0.482376,0.874301,0.053957
0.298998,0.351361,0.427417,-0.691506,-0.193066,0.696092
0.124744,-0.346374,0.858407,0.920139,-0.160275,-0.357291
-0.105608,0.151824,0.909518,-0.521887,0.519988,0.676200
-0.187240,0.676440,0.702621,0.827043,-0.549430,0.118850
-0.192686,0.463266,0.603547,-0.097517,0.987103,-0.126957
0.054351,0.040114,0.860704,0.034485,-0.918378,0.394198
-0.089575,0.480489,0.810160,0.333900,-0.763554,0.552717
0.007041,-0.045179,-0.224590,0.886669,-0.459444,-0.052241
0.006345,0.195854,0.702962,0.310951,-0.758839,0.572253
0.526252,-0.115432,0.420640,0.498244,0.776554,-0.385638
0.433082,0.039529,0.740235,-0.557043,-0.687429,0.465988
0.325769,-0.197062,0.841493,0.951665,0.267546,-0.150840
0.208370,-0.477683,0.770249,0.973706,0.226076,0.028040
-0.350651,0.200725,0.935732,0.903475,-0.428544,-0.009068
-0.284606,-0.067233,0.576241,0.343493,-0.807939,0.478798
0.396961,-0.031542,0.709654,0.565167,0.792865,-0.227927
-0.058553,0.390481,0.891554,0.773129,-0.630952,-0.064586
0.597639,0.647217,0.693491,0.662007,-0.543808,-0.515771
0.075634,-0.115237,0.371599,-0.117038,0.943000,0.311533
-0.291503,-0.782969,0.627338,0.897972,0.426400,0.108769
-0.270470,-0.927254,0.704720,-0.530616,-0.582223,0.616006
-0.133184,0.289758,-0.972254,0.251539,-0.201146,-0.946715
0.058748,0.701611,-0.255100,-0.246840,0.765261,0.594513
0.443723,-0.491360,0.756837,0.818830,-0.380846,-0.429505
0.297498,-0.435914,0.555626,0.760924,-0.242212,-0.601937
-0.590796,-0.227415,0.895141,-0.680839,0.727611,-0.083913
0.026878,-0.237429,0.615769,-0.468577,0.710225,0.525373
0.254785,0.162501,0.778175,-0.553803,0.807147,-0.204490
0.164011,0.198153,0.821020,0.654052,-0.481988,0.583013
-0.173555,0.048101,0.299590,0.836239,0.342859,0.427963
0.010090,-0.032048,-0.333773,-0.578047,0.815424,0.030759
-0.296747,-0.120575,0.877533,-0.409209,-0.359619,0.838583
-0.164511,0.458006,-0.168233,-0.696359,0.502300,-0.512619
0.035867,0.112470,0.276835,0.551619,0.644518,-0.529445
0.024232,0.606188,-0.980591,0.027846,0.081278,0.996302
-0.264573,-0.445070,0.739285,0.755478,-0.611362,-0.235560
0.040063,0.380233,0.775268,0.211309,0.933415,-0.289975
-0.124098,0.205790,0.870160,-0.694862,-0.666183,0.270864
0.025031,-0.254184,0.922830,0.433431,0.891189,-0.133866
-0.111157,-0.686182,0.566302,0.929428,0.062203,-0.363722
-0.045265,0.311149,0.767385,-0.420742,0.530819,-0.735668
0.334514,-0.207310,0.300753,0.538896,-0.560586,0.628756
0.174000,-0.138382,0.549629,-0.654321,0.269622,0.706518
0.473544,0.426991,0.500801,0.865301,-0.470036,-0.174129
-0.064444,-0.063843,0.942141,0.764949,-0.566881,-0.305775
0.882949,0.226285,0.747522,0.932780,0.353204,-0.071888
0.082928,0.447252,0.867608,0.323781,-0.554471,0.766634
-0.137136,0.225935,0.595905,-0.219735,-0.429320,0.876014
0.670727,-0.311695,0.763302,0.983371,0.027435,-0.179523
-0.125446,0.401469,0.622716,0.961886,-0.078448,-0.261958
0.054504,0.147694,0.283045,0.344455,0.714484,-0.608986
0.023183,0.419003,0.807055,0.350905,-0.232056,0.907202
0.752908,-0.385688,0.618065,0.969377,-0.117693,-0.215538
0.428435,0.518985,0.686005,-0.538548,0.514109,-0.667577
-0.004748,0.535233,-0.983582,-0.018762,0.128517,0.991530
-0.288252,-0.648113,0.471935,0.981022,0.109741,0.159852
0.436875,0.587446,0.601619,0.138145,0.797324,-0.587529
0.011340,-0.027879,-0.360540,0.706823,-0.701915,0.087842
-0.070189,-0.661166,0.797853,0.829617,-0.538192,-0.148612
0.436875,-0.301876,0.862178,-0.337590,-0.793692,0.506050
0.023829,0.035945,0.473410,0.869081,-0.284197,0.404882
-0.719386,0.241871,0.748387,-0.468020,0.492304,-0.733889
0.755957,-0.435602,0.646520,0.950183,-0.291820,-0.109518
-0.130739,-0.328801,0.238144,0.883791,-0.458079,-0.095276
0.426239,-0.139278,0.338607,0.945977,-0.243417,-0.214188
-0.377227,-0.273198,0.849361,0.797377,-0.602808,0.028522
-0.193838,-0.141187,0.468306,-0.280687,0.959726,-0.011886
-0.232002,-0.162540,0.517984,0.950960,0.076157,0.299793
0.165957,0.432718,0.732466,-0.686095,0.523591,-0.505100
0.043460,0.490269,0.580551,0.079493,-0.009962,0.996786
-0.031172,-0.039607,0.248607,0.837511,-0.545618,0.029610
0.287307,-0.408755,0.552607,0.801261,0.059705,-0.595329
0.371336,0.225077,0.743042,-0.561190,0.822871,0.089154
0.280209,-0.432134,0.547630,-0.545864,0.481428,0.685755
-0.098668,0.445810,0.598599,0.050148,-0.995357,-0.082156
-0.158267,-0.556742,0.482611,0.983042,0.081769,-0.164138
0.090520,-0.497283,0.861838,0.484796,0.072527,-0.871615
0.541388,-0.104093,0.435583,0.824034,-0.369372,-0.429573
0.710147,-0.652127,0.473041,-0.368280,0.003908,0.929707
-0.001247,0.197218,0.301986,-0.054086,-0.740340,0.670054
-0.281508,0.162306,0.879248,0.601009,-0.655623,0.457107
-0.031574,-0.541312,0.607517,0.985748,-0.149883,-0.076398
-0.000900,-0.046932,-0.556080,0.865589,-0.500571,0.013590
-0.517610,-0.411210,0.798250,0.943027,0.329648,0.045077
0.011889,0.266964,0.332653,0.076243,0.694161,-0.715771
0.085026,0.387753,0.726823,-0.811031,0.361636,0.459835
-0.168658,-0.159228,0.435839,0.553843,-0.820651,0.140674
-0.087923,0.129732,0.893355,0.788021,-0.176417,0.589830
-0.289253,-0.517544,0.743297,0.782785,-0.419138,-0.459968
0.531795,0.128602,0.795472,-0.559078,-0.298256,0.773612
0.031220,-0.405482,0.676222,0.960474,-0.112562,-0.254595
0.000247,-0.058193,-0.185261,-0.817511,0.572338,0.064076
-0.020036,-0.209921,0.893823,0.841936,0.539563,0.003913
0.433380,-0.559041,0.652546,-0.223201,0.935908,0.272501
-0.180050,-0.997506,0.706478,0.353991,0.768274,-0.533334
0.036319,-0.108029,0.717451,0.871403,0.396178,0.289308
0.953689,-0.348828,0.759091,0.390229,0.780707,0.488076
-0.107858,0.544897,0.665703,0.847575,-0.483566,0.218587
-0.161962,-0.104600,0.200119,-0.174397,0.982679,0.062666
0.661086,-0.268055,0.569804,0.732828,0.567380,-0.375558
0.164908,-0.165073,0.906781,-0.707126,0.640835,-0.298836
-0.064846,-0.586121,0.629138,-0.520268,0.687319,0.506867
-0.216268,0.741628,0.730041,0.877833,-0.478498,-0.021171
0.563372,0.596836,0.615131,-0.708536,-0.269956,0.651998
0.105961,-0.185840,0.875207,0.782514,-0.582076,-0.221043
-0.441174,-0.317930,0.874910,-0.488707,0.412710,0.768658
-0.280563,-0.144422,0.273163,-0.144850,-0.971496,-0.187655
0.005248,-0.286602,0.641700,0.510073,0.857812,-0.063115
-0.164658,-0.396598,0.307672,0.983615,-0.063230,0.168830
0.233752,0.831479,0.521274,-0.013334,-0.795561,0.605727
-0.007742,0.242261,0.634682,0.771003,-0.281991,-0.570995
0.235996,-0.197296,0.585527,0.736758,0.412922,-0.535429
0.292003,-0.190204,0.265578,-0.081218,0.876209,0.475038
0.566867,-0.104678,0.433925,0.756761,-0.409545,-0.509496
0.607981,0.514582,0.747834,-0.249100,-0.575002,0.779308
0.120097,-0.390364,0.891044,0.222677,0.858722,0.461532
-0.612330,-0.239338,0.857896,-0.597000,0.769968,0.225257
0.018682,-0.035009,0.450668,0.787054,0.597466,0.153557
-0.265676,-0.164722,0.729389,0.995227,0.069372,0.068641
0.336862,-0.433537,0.565140,-0.481196,0.144002,0.864704
-0.462756,-0.318670,0.858322,0.034615,-0.572429,0.819223
0.490833,0.439693,0.563991,0.792416,-0.608115,0.047675
-0.004748,-0.032321,0.919017,0.954563,-0.277350,-0.109022
0.428136,0.785190,0.511746,0.975712,-0.134878,-0.172609
-0.363189,-0.502309,0.739597,0.337202,0.892909,0.298343
0.748962,0.208089,0.691067,0.739196,-0.249947,-0.625393
-0.017237,-0.061427,-0.362681,0.834690,-0.533252,0.137603
0.026628,-0.175749,0.909617,0.111122,0.041216,0.992952
-0.096619,-0.271056,0.172274,0.602116,-0.775517,-0.189813
0.584802,-0.354712,0.430380,0.232777,0.952801,0.194899
0.007943,-0.197530,0.836771,0.923359,-0.349407,-0.159130
0.327520,0.212726,0.818199,-0.007583,-0.914331,0.404896
0.497278,-0.291668,0.670027,-0.387874,-0.226200,0.893525
0.472599,-0.443901,0.758383,-0.680883,0.620893,0.388445
0.303742,-0.194841,0.261948,-0.713978,0.391134,0.580731
-0.028525,-0.089326,-0.524988,0.750086,-0.638872,0.170917
-0.226208,-0.167021,0.720840,-0.681408,0.294641,0.669977
0.242045,0.158916,0.823444,-0.439141,0.845358,-0.304180
-0.520160,-0.193594,0.874612,0.005218,-0.975460,0.220116
0.289503,0.120965,0.718458,0.899466,-0.409696,0.152022
0.537442,-0.063648,0.869111,0.989898,-0.038270,0.136519
0.164609,0.012293,0.929437,-0.833917,-0.318432,-0.450759
0.242442,-0.112120,0.209079,0.891411,-0.451932,-0.033820
-0.316030,-0.133317,0.250408,0.157604,0.959306,0.234292
-0.146174,0.450408,0.654204,0.965845,-0.181968,0.184476
-0.125994,0.314422,-0.975983,-0.188611,0.098184,0.977131
0.219915,-0.010657,0.625707,0.971847,-0.047156,-0.230844
-0.170354,-0.322878,0.756199,0.958475,0.178230,0.222620
0.009791,-0.249547,0.621581,0.521021,-0.733168,-0.437039
-0.732229,0.242222,0.584889,-0.236149,0.971686,-0.007778
0.506969,-0.413743,0.557810,-0.100005,0.877419,0.469185
0.738168,-0.205712,0.784980,0.842003,-0.285365,-0.457818
0.002497,0.869781,0.642508,0.816598,-0.377930,-0.436275
0.889340,-0.422705,0.744843,-0.834002,0.541370,0.106577
-0.180446,0.536013,0.556009,0.582832,0.646053,-0.492872
-0.064048,-0.069844,-0.599053,0.869548,-0.491153,-0.051520
0.024579,-0.440901,0.894787,-0.273538,0.768532,-0.578390
0.415543,-0.133940,0.692725,0.427790,-0.753209,-0.499672
0.008291,-0.237468,0.606425,-0.432912,0.802926,0.409752
-0.281709,-0.186892,0.751960,0.904606,0.420457,-0.070019
-0.029074,-0.054531,-0.453249,0.829685,-0.555144,0.058634
-0.589046,-0.183619,0.842017,0.933344,0.177889,0.311808
0.921216,-0.350621,0.789985,0.197949,-0.919568,0.339428
0.577959,0.542247,0.530844,0.840531,-0.538334,0.060863
0.425684,-0.254496,0.319127,0.795874,0.525027,-0.301547
-0.252882,0.676830,0.722896,0.740409,-0.655888,0.146987
-0.053857,-0.605058,0.741766,0.315965,0.920534,-0.229746
-0.177300,0.545364,0.550877,0.662947,0.578451,-0.475285
0.568415,0.655672,0.615967,0.546052,0.736977,-0.398362
0.567318,-0.423523,0.825883,-0.625128,0.543340,-0.560354
-0.064944,0.050400,0.535225,-0.676301,-0.736178,0.025684
-0.130288,-0.676596,0.539152,0.958819,-0.268727,-0.091934
0.161011,-0.139200,-0.050175,0.512446,0.858690,-0.007089
-0.618025,-0.362894,0.794933,0.719777,0.693591,-0.029204
0.527898,0.635567,0.740774,0.962380,-0.081558,-0.259178
0.046558,-0.018800,-0.098918,-0.725090,0.687077,0.046586
0.372434,-0.320969,0.805183,-0.438492,0.878698,-0.188716
-0.170604,0.152799,0.766280,-0.403031,-0.914552,0.034074
0.075134,-0.409846,0.694895,0.765959,-0.264212,-0.586088
-0.059748,0.695494,-0.978861,-0.051822,-0.184555,0.981455
-0.076885,0.232559,-0.974182,0.102971,0.139901,0.984797
0.290454,-0.221804,0.480853,0.862629,0.010849,-0.505721
-0.268671,-0.678311,0.488778,0.992190,-0.058092,-0.110379
-0.238045,-0.211908,0.752215,0.442149,0.812250,0.380466
-0.087026,-0.628242,0.704280,0.981329,0.110979,0.157090
-0.103260,0.393208,-0.975146,-0.016697,0.008041,0.999828
0.552279,0.442537,0.653694,0.916433,0.380424,0.124211
0.438924,0.917863,0.603604,0.911868,0.217040,-0.348411
-0.096570,-0.010579,0.841181,-0.673793,-0.734898,-0.076990
0.500273,0.019696,0.868969,0.901588,-0.216177,0.374708
0.258078,0.209219,0.852608,0.232736,0.849132,-0.474141
-0.076836,0.831168,0.653070,0.516564,-0.715975,-0.469619
-0.010590,-0.101522,-0.400210,0.849597,-0.501351,-0.163806
-0.569166,-0.243196,0.784229,-0.827520,0.502713,0.249981
-0.042362,0.122796,-0.000369,0.344907,-0.615942,0.708276
0.350401,-0.204310,0.715906,-0.465449,0.475628,0.746415
-0.095271,0.585887,0.455446,0.690611,-0.484184,0.537236
0.298644,0.106548,0.740093,0.915031,-0.310277,0.257772
0.339460,0.647490,0.473339,-0.187904,-0.266231,0.945417
0.256279,0.090222,0.719762,0.933020,-0.335682,0.129580
-0.108011,-0.081260,0.929593,0.000337,0.780140,0.625605
-0.154766,0.004072,0.316816,0.724110,0.575748,0.379710
-0.122744,-0.108379,0.438022,-0.410523,0.895873,-0.169949
-0.238100,0.048335,0.324260,-0.664481,0.030296,-0.746691
-0.081879,0.183035,-0.961706,-0.097586,-0.176237,-0.979499
-0.353950,0.018567,0.659195,0.498815,0.863506,-0.074436
-0.060950,-0.074948,0.138800,0.720976,-0.634399,0.278804
0.331465,-0.185178,0.279033,0.883330,-0.215055,-0.416509
0.142777,-0.413236,0.906172,0.728139,0.426278,-0.536750
0.503023,0.636073,0.605164,-0.135656,0.744134,0.654111
0.161560,-0.063415,0.829768,-0.183115,0.579978,0.793785
-0.636906,-0.071480,0.495470,-0.370439,0.646649,-0.666799
-0.043563,0.380194,0.811365,-0.659120,0.743986,-0.109753
0.369287,-0.545442,0.686019,0.905901,0.280409,0.317355
-0.104864,0.555222,0.425673,0.743892,0.397761,-0.537040
0.137234,-0.675155,0.713794,-0.202450,0.912827,-0.354628
-0.039667,-0.160709,0.391065,0.337076,0.927385,0.162283
-0.037666,-0.071792,-0.723548,0.876293,-0.481779,-0.000251
0.012389,-0.058778,0.098535,0.906621,-0.333408,0.258607
-0.707299,0.187633,0.687125,-0.436262,-0.897355,-0.066547
0.683320,-0.252041,0.794252,-0.537130,0.680378,0.498575
0.411749,-0.140720,0.688075,-0.342453,0.845595,0.409506
-0.004998,-0.044400,-0.349170,0.821315,-0.570096,-0.020784
-0.547584,-0.027606,0.860165,0.115220,-0.874902,0.470395
-0.238496,-0.151825,0.602612,-0.708101,0.631668,-0.315577
-0.487485,0.408171,0.744006,0.971458,-0.227938,-0.065686
0.084526,0.449629,-0.978847,0.080406,0.112490,0.990394
0.102662,-0.039880,0.515844,-0.013422,-0.997194,0.073641
0.652841,-0.012410,0.484809,-0.319488,-0.780269,0.537687
-0.066347,-0.100859,0.302383,0.925355,-0.378788,-0.015415
-0.393418,0.180424,0.807140,0.831360,0.037278,0.554482
-0.161115,-0.099184,0.178611,-0.338551,0.936897,0.087219
0.487137,0.654893,0.618732,0.319796,0.801923,-0.504629
0.460609,-0.616163,0.694242,0.777170,-0.282701,-0.562216
-0.186691,-0.148006,0.460621,-0.305093,0.949945,-0.067254
0.334014,0.340139,0.433499,-0.603177,-0.311822,0.734128
0.498578,0.524129,0.691946,0.480560,0.542891,-0.688718
-0.459207,0.383545,0.577701,-0.411779,0.903912,-0.115679
-0.030775,-0.496503,0.631038,0.998573,-0.053134,-0.005335
-0.597492,-0.275302,0.424695,0.615462,0.464636,0.636648
-0.062450,-0.079429,-0.838161,0.972594,0.199502,-0.119415
-0.010590,0.889614,0.676931,0.928396,-0.353009,-0.116038
0.346003,0.066181,0.925397,0.872269,0.234314,0.429236
-0.349504,0.214401,0.876753,0.998151,0.055967,-0.023700
0.074134,0.276238,0.730878,0.904954,-0.304312,-0.297408
-0.173702,0.245339,0.734238,0.727869,-0.568167,0.383917
-0.170402,-0.829492,0.714743,0.245072,-0.574761,-0.780762
0.039764,0.659724,-0.232643,-0.095745,0.600227,0.794079
0.172854,0.117575,0.811039,0.504497,0.657860,-0.559198
-0.320927,-0.137603,0.301405,-0.336310,-0.921553,-0.194000
-0.024982,-0.040036,-0.782967,-0.792468,0.609063,-0.032199
-0.133239,-0.040464,-0.962259,-0.173163,0.065167,0.982735
-0.057303,-0.112003,0.328924,-0.492927,0.784429,0.376423
0.747566,-0.381909,0.630981,0.959677,-0.154163,-0.235062
-0.058950,-0.631631,0.781124,-0.900825,0.433782,0.018629
-0.051259,-0.049582,0.912424,-0.321076,0.934389,0.154362
-0.183197,0.482632,0.469582,-0.390600,-0.920221,0.025007
0.361390,0.005124,0.923596,0.908969,-0.294379,0.295155
0.669629,0.228740,0.807934,-0.611118,0.569974,0.549239
-0.150071,-0.400690,0.288177,0.990147,-0.061078,0.126009
0.363689,0.359310,0.450484,0.805698,0.043782,-0.590707
0.162163,0.475150,0.741171,-0.699602,0.669966,-0.248401
0.084977,0.234702,0.902556,0.239000,0.229287,0.943561
0.172701,-0.417990,0.907448,0.844777,-0.522435,0.115818
0.168054,0.461435,0.755646,0.817348,-0.493292,-0.297668
-0.008193,-0.068324,-0.254080,-0.746317,0.665589,-0.001733
-0.329971,0.166826,0.970524,-0.546347,0.825407,-0.142154
0.063944,0.169943,0.304311,-0.558049,-0.672297,0.486414
-0.357645,-0.272263,0.945572,0.937097,0.076795,0.340516
0.005046,-0.073506,-0.037784,0.668158,-0.741575,0.060261
-0.153321,0.136706,0.703713,0.896025,-0.403667,0.184910
0.134136,-0.159618,0.898303,0.801306,-0.594906,-0.063207
0.469702,-0.119250,0.381283,-0.779654,0.480139,0.402001
0.602188,0.031191,0.882438,0.588533,-0.776304,0.225792
0.387771,0.413119,0.601988,0.002623,-0.957988,0.286796
0.177501,0.547157,-0.983511,0.032657,0.090109,0.995396
0.210218,0.428978,-0.981753,0.085610,0.016126,0.996198
-0.125641,0.293616,0.955255,-0.757586,0.554859,0.343796
-0.401212,-0.067895,0.860618,-0.069607,0.677707,0.732030
-0.355548,-0.214090,0.886961,-0.776677,0.505588,-0.375703
-0.299845,-0.038516,0.578226,0.930730,-0.229784,0.284501
0.446967,0.901147,0.623495,0.978949,0.060609,-0.194897
0.131385,-0.205556,0.113011,0.988238,-0.031008,-0.149748
-0.359542,-0.254106,0.821431,0.970835,0.207300,0.120440
0.433033,0.252314,0.893766,-0.587127,0.599307,-0.544163
-0.033971,-0.073818,-0.666015,0.936750,-0.345069,-0.058539
0.056102,-0.637281,0.835226,-0.654202,0.197912,0.729966
0.097467,-0.566327,0.829456,-0.602982,-0.793961,0.077707
0.213420,0.530246,-0.982533,0.055549,0.057652,0.996790
-0.720685,0.169592,0.720840,-0.087492,0.981241,0.171790
-0.292851,0.265795,0.412318,0.188240,-0.900839,0.391222
-0.057949,0.569288,0.574242,-0.252891,-0.039462,0.966690
0.397364,-0.355530,0.669474,-0.519854,0.503557,0.690059
0.019481,0.757603,-0.981767,0.133462,0.075839,0.988148
-0.503920,-0.398898,0.815845,0.988621,0.123463,-0.085934
-0.109254,-0.474761,0.826124,-0.325334,0.005729,-0.945582
0.314134,-0.211089,0.580608,0.781951,0.527886,-0.331495
-0.033324,-0.146720,-0.936739,0.891300,0.343597,-0.295846
-0.125092,-0.392975,0.282676,0.611624,0.657668,0.439761
0.024482,0.405794,0.868700,-0.290518,0.548928,-0.783758
-0.791425,-0.347153,0.657054,0.233982,0.964242,0.124454
0.210218,0.629839,-0.984957,-0.016829,0.090327,0.995770
0.749164,-0.207232,0.741582,0.163434,-0.708744,0.686274
-0.147778,0.426211,0.653269,0.985602,-0.145439,0.086228
0.868459,0.057219,0.651482,-0.652523,0.523824,0.547560
0.132538,-0.031659,0.589199,-0.285936,0.937453,0.198552
-0.059901,-0.716535,0.759800,-0.807473,0.268817,-0.525096
0.027878,-0.507024,0.588561,0.986673,-0.162602,-0.006103
-0.232105,-0.485749,0.806601,-0.521555,0.669926,0.528374
-0.026476,-0.189386,-0.960586,-0.056460,-0.304024,0.950990
0.271067,-0.233377,0.284335,-0.277601,0.861948,0.424246
0.474544,-0.253794,0.680575,0.349282,0.880242,-0.321210
0.597639,0.112315,0.568826,0.942160,-0.071637,0.327417
-0.170055,0.479865,0.509917,0.601730,0.797100,-0.050524
-0.512317,0.306981,0.800051,-0.447244,-0.697615,0.559738
0.416598,-0.079234,0.421193,-0.436407,-0.735667,0.518019
-0.078482,-0.584017,0.765287,-0.660920,-0.706350,0.253482
-0.697608,-0.176294,0.722357,-0.010292,0.019860,0.999750
-0.072738,-0.091469,0.763146,0.939674,0.302961,0.158834
0.322177,0.525804,0.634965,-0.807159,0.332809,0.487577
-0.173604,-0.186152,0.496392,0.006120,0.993808,0.110943
-0.836888,-0.304565,0.633547,0.895757,0.443804,-0.025618
-0.507371,0.003916,0.804560,0.074398,0.996531,-0.037293
-0.061297,-0.356543,0.744800,-0.028448,0.991527,0.126749
-0.414097,0.088663,0.710788,-0.602509,-0.730414,-0.321680
-0.321275,0.148396,0.919697,0.849217,0.461215,-0.257120
0.084574,0.409340,0.743170,-0.435843,0.718102,0.542558
-0.506072,-0.232754,0.380389,0.859546,-0.070743,0.506138
0.315933,0.002318,0.678292,-0.791971,0.503654,0.345130
0.239698,0.847182,0.517772,-0.013334,-0.795561,0.605727
-0.472995,-0.224999,0.368452,-0.803165,0.432762,-0.409442
0.676624,-0.325216,0.789559,0.950470,0.230166,-0.208878
0.144978,-0.189425,0.133881,0.660647,-0.627087,-0.412683
0.233953,-0.093144,0.880822,-0.228850,-0.947601,-0.222891
-0.019731,0.437238,0.576751,0.107852,0.621819,0.775699
-0.381325,0.035750,0.720500,0.590314,0.550544,0.590281
-0.680271,-0.081845,0.478485,-0.043054,-0.546392,0.836422
0.389369,-0.413275,0.808005,0.680059,0.481849,-0.552577
-0.070591,-0.317696,0.685821,0.498280,-0.844917,-0.194503
-0.492778,-0.315942,0.445522,-0.238708,0.391902,0.888499
0.155565,0.079234,0.923752,0.241120,0.607310,-0.756991
0.391863,-0.383078,0.674195,-0.783405,0.220903,0.580929
-0.004296,0.298019,0.838671,0.929936,0.303054,-0.208273
0.555280,-0.111458,0.439766,0.813197,-0.364388,-0.453798
0.405255,-0.590251,0.704138,0.631446,0.667657,-0.394348
-0.126842,-0.074325,-0.959522,0.480223,0.038806,-0.876288
0.405352,-0.247521,0.638935,-0.598542,0.665654,0.445705
0.004144,-0.095950,-0.006805,0.765189,-0.643256,0.026596
0.394162,0.290031,0.857896,0.359181,0.638158,-0.680987
0.025177,0.358180,-0.976777,-0.064477,0.039240,0.997147
0.050308,0.353231,-0.974962,0.007341,0.034860,0.999365
-0.038569,-0.381052,0.524719,0.725490,-0.454079,-0.517182
0.542937,0.521245,0.589256,0.906482,-0.190048,-0.377058
-0.255480,-0.152877,0.858336,0.913433,-0.073316,0.400331
-0.325824,-0.330983,0.795911,0.896893,0.383719,0.219871
0.619422,0.736679,0.667858,0.737246,-0.658872,-0.149521
-0.026128,0.276121,-0.971900,-0.036701,-0.061372,0.997440
0.019682,0.726081,-0.985751,-0.185260,-0.005796,-0.982672
0.092021,-0.042218,0.560064,-0.324049,0.942984,-0.075980
0.529051,0.480839,0.631052,0.940934,0.135336,-0.310367
0.675874,0.204426,0.764607,0.601681,0.611988,-0.513274
-0.262426,-0.608136,0.444331,-0.730414,0.680527,0.058118
0.568513,0.594576,0.562134,0.826146,-0.447567,0.342297
0.020384,-0.036958,-0.329888,-0.551472,0.830198,0.081544
0.079629,-0.199478,0.728212,0.998546,0.048613,0.023297
0.120396,0.924487,-0.998667,0.028927,0.210894,0.977081
-0.025677,-0.193984,0.922348,0.815289,0.193461,0.545781
0.083526,0.515401,-0.980350,0.002562,0.139409,0.990232
0.376629,-0.149798,0.309841,0.869952,-0.487741,-0.072754
-0.106559,-0.087378,-0.958190,0.477030,0.031587,-0.878319
0.822252,0.084650,0.653595,0.883307,0.468715,-0.008659
-0.117353,0.262249,-0.970241,-0.012203,-0.024060,0.999636
0.166707,-0.070467,0.798633,0.894858,0.302071,-0.328606
-0.028976,-0.703442,0.814413,-0.751477,0.308579,0.583148
-0.366988,-0.077637,0.863993,0.530553,0.655624,0.537281
-0.063145,-0.087261,-0.833709,0.997224,-0.033379,-0.066552
-0.121695,0.104794,0.643075,-0.370085,0.909195,-0.190793
0.507268,0.474410,0.507096,0.867515,-0.489192,-0.090046
0.010340,0.795242,-0.983242,0.094196,-0.164253,0.981910
0.053504,-0.641567,0.795358,0.999882,0.011103,-0.010589
0.555078,0.740225,0.646676,-0.345526,-0.541781,0.766215
0.741468,-0.213778,0.821034,0.897950,-0.345400,-0.272735
-0.563122,0.270822,0.765415,-0.274397,0.854113,-0.441812
0.580752,0.443161,0.716799,0.884500,0.117045,-0.451620
-0.103010,0.543026,0.733997,0.375590,-0.582200,0.721093
0.788730,-0.389780,0.647555,0.960683,-0.214926,-0.175771
-0.074287,0.539169,-0.984929,0.046055,0.114273,0.992381
0.025775,-0.035205,-0.129259,-0.821062,0.541437,0.180841
0.249589,-0.033023,0.847901,0.943815,-0.237071,-0.230242
-0.550383,-0.175982,0.784243,-0.596663,-0.215792,-0.772934
0.617672,0.617799,0.694072,0.647490,-0.115933,-0.753204
-0.100412,-0.274523,0.150057,0.682567,-0.715270,-0.149972
-0.296400,-0.137953,0.290077,0.368861,0.898936,0.236339
-0.283057,-0.789515,0.743482,0.572778,0.689683,-0.443015
-0.066993,-0.074013,0.274099,0.939540,-0.342044,-0.016456
0.593144,0.165540,0.746913,-0.180644,-0.866425,0.465484
-0.539040,-0.375792,0.767442,-0.357906,-0.929367,-0.090448
0.339460,-0.186308,0.704720,-0.401672,0.816757,0.414208
-0.028476,0.057063,-0.965647,0.266149,0.280209,0.922306
0.047960,0.290966,0.189698,0.992703,-0.119834,-0.013419
0.241991,0.208400,0.409822,0.840261,-0.520646,-0.151289
0.297498,-0.177619,-0.009754,0.512964,0.858038,0.025252
0.065895,-0.045413,0.492507,0.689269,0.712090,-0.133552
-0.255431,0.299460,0.852041,0.787979,0.078937,0.610621
-0.390717,-0.246391,0.720769,0.027979,0.975142,0.219808
-0.684967,-0.487814,0.520692,-0.403819,0.905717,0.128864
0.296845,0.550624,0.448868,0.949687,-0.283749,0.132596
0.001198,-0.087767,-0.075170,0.887670,-0.451993,0.088007
0.104608,-0.342555,0.807877,0.418444,0.877852,0.232981
-0.574264,0.065558,0.788198,0.711635,-0.426034,0.558633
-0.014987,-0.049232,-0.521089,0.614624,-0.781136,0.109835
-0.034721,0.195620,-0.970468,0.195956,0.148426,0.969315
-0.149223,-0.656218,0.435470,-0.752156,-0.048087,0.657229
-0.363939,0.633852,0.724923,0.769987,-0.129940,-0.624688
0.105461,-0.423055,0.862660,0.888230,-0.453826,-0.071340
-0.055205,0.362154,0.772390,0.982791,0.123936,-0.136972
0.371635,-0.547429,0.568741,0.847251,0.505568,0.162993
-0.025378,-0.037075,-0.434563,0.907172,-0.413907,-0.075631
0.110553,0.392546,0.752499,0.719661,-0.513418,-0.467429
0.159712,0.265444,0.901365,0.150374,0.756342,0.636659
0.086678,-0.209881,0.137071,0.733074,-0.568215,-0.373810
0.322824,0.633813,0.481321,0.446630,-0.010274,-0.894660
-0.459707,0.089988,0.740561,-0.659944,0.426825,-0.618299
-0.099064,-0.765084,0.727404,0.239760,-0.131221,-0.961923
0.531197,-0.452045,0.740788,-0.079064,0.659397,0.747626
0.112505,-0.066804,0.522280,-0.563224,-0.825046,-0.045585
-0.454212,-0.161839,0.381311,-0.577209,0.587627,-0.567031
0.584454,0.501958,0.685098,0.197914,-0.078695,-0.977055
-0.807610,-0.323580,0.521600,0.918567,-0.193700,0.344550
-0.247339,-0.146370,0.297393,-0.306347,-0.926688,-0.217716
-0.004845,0.022735,0.889073,0.516016,-0.752065,-0.410032
0.184294,-0.341191,0.513873,0.649733,0.246602,-0.719051
-0.051308,-0.216934,0.120766,0.960163,-0.145419,0.238620
-0.315884,-0.114575,0.749507,0.966706,0.255860,0.003928
-0.029275,-0.137018,0.341245,0.198966,-0.955511,-0.217743
-0.628167,0.191958,0.782272,-0.583235,0.710009,-0.394618
-0.559573,-0.189464,0.886706,-0.100978,0.985038,-0.139656
-0.640607,-0.152175,0.476699,0.236378,-0.608985,0.757142
0.501621,-0.283719,0.675584,0.379112,0.754852,-0.535231
-0.153370,-0.150578,0.450513,0.612717,-0.767034,0.190362
-0.155620,-0.516102,0.500206,0.956566,0.002244,-0.291507
-0.302443,-0.119367,0.732196,0.952784,0.050144,0.299480
-0.291704,-0.097820,0.731317,0.952784,0.050144,0.299480
0.610079,0.519726,0.730693,0.344360,0.930903,0.121798
