0.318665,0.551054,0.863741,0.522798,-0.453414,0.721871
0.063852,0.273050,0.651830,-0.272148,0.908010,-0.318517
0.424594,-0.489775,0.372027,0.995003,0.073400,0.067689
-0.000491,-0.121715,0.964733,0.081985,-0.373565,0.923974
0.206389,-0.291040,0.913594,-0.366847,0.731388,0.574887
-0.046074,0.504638,0.626002,0.185337,0.978344,-0.092159
-0.417791,-0.200597,-0.001468,-0.003706,0.380205,0.924895
0.232371,-0.662157,0.718547,-0.689226,0.699263,0.189736
0.876539,0.281939,0.688999,-0.711077,0.680838,0.175580
0.695151,-0.093008,0.502440,0.338285,0.167046,-0.926099
0.207931,0.539810,0.848401,0.469522,0.648986,0.598637
1.000000,0.350668,0.752024,-0.079290,-0.805305,0.587534
-0.041867,0.835945,0.505824,-0.929977,0.222725,-0.292467
-0.412532,-0.360471,0.686244,-0.363728,0.908192,0.207097
-0.021249,-0.142762,0.877026,0.933886,0.346474,0.088390
0.123427,0.878567,0.570765,-0.502052,-0.864674,-0.016783
0.592763,0.604568,0.847995,0.825601,0.504649,0.252411
-0.090150,-0.216725,0.652613,0.355150,0.105190,-0.928872
-0.035415,0.050984,0.911846,0.918519,0.370561,-0.137867
-0.451699,-0.509452,0.547580,-0.716494,0.299773,-0.629899
-0.555314,-0.644694,0.066409,0.637575,0.724409,0.262164
0.132964,0.357203,0.975109,0.831735,-0.377101,0.407446
-0.297486,-0.164160,0.118653,0.504601,0.463378,-0.728463
-0.537957,-0.572523,0.568640,-0.709126,0.560879,-0.427265
0.356674,-0.730675,0.306414,0.852507,-0.231997,-0.468412
0.288860,0.072909,0.291633,-0.419572,0.902212,-0.099865
-0.294014,-0.097892,0.693935,-0.504887,-0.804471,-0.312916
0.190855,0.097857,-0.985960,-0.175427,0.231523,0.956882
0.407833,0.411033,0.931996,-0.001889,0.584002,0.811750
-0.028998,0.291180,0.754751,0.678212,-0.206630,0.705218
0.632667,0.440654,0.873558,0.914566,0.134544,0.381401
-0.198079,0.221539,0.577072,-0.441627,0.408345,-0.798887
0.234896,-0.329726,-0.035100,0.865779,-0.099825,-0.490368
0.451383,-0.202670,0.895527,0.760409,0.305358,0.573179
0.267646,-0.416831,0.915579,0.477366,-0.696263,0.536040
0.364143,0.209346,0.920893,0.849013,0.508088,0.144996
0.863741,0.297610,0.764722,-0.235393,-0.592184,0.770655
-0.316877,0.097962,0.964159,-0.549931,0.549646,0.628860
-0.842912,-0.442586,0.475437,-0.093826,-0.779162,0.619761
0.428662,0.620063,0.812658,0.936338,0.343881,0.070836
-0.066763,0.678988,0.670149,-0.711285,-0.324570,-0.623480
0.062660,0.482291,0.724504,0.870711,0.437037,-0.225523
0.100179,-0.513668,0.727189,-0.386575,0.326553,0.862510
0.270907,-0.362825,0.699291,0.613611,-0.289180,-0.734749
-0.527227,-0.116549,0.534743,0.349100,0.244589,0.904602
0.307760,0.569220,0.876187,0.342965,-0.572011,0.745103
-0.297661,-0.051124,0.556068,-0.242342,-0.803284,0.544063
0.203864,-0.560436,0.624687,0.956371,0.088736,0.278355
0.376310,0.126669,0.934346,-0.905088,0.332540,-0.265014
0.081069,0.350949,0.887626,0.996507,0.021595,0.080673
0.246923,0.200422,0.785837,0.073630,-0.894673,0.440612
-0.346471,-0.479691,0.509418,0.841136,-0.405006,0.358415
0.110312,-0.269958,0.900561,-0.328605,-0.335116,0.883015
0.159437,0.001265,0.815511,-0.498205,-0.860942,-0.102818
-0.331358,-0.314898,0.635287,0.306509,0.689117,0.656635
0.427855,-0.686297,0.301618,-0.815971,0.383985,0.432142
0.296329,0.161982,-0.979751,0.236091,-0.063947,-0.969624
-0.313370,0.115320,0.257387,0.083385,-0.333226,0.939153
-0.292051,-0.738826,0.088993,-0.524026,0.625415,-0.578146
0.078193,0.455165,0.876355,-0.460765,-0.285748,-0.840264
-0.267576,-0.053232,0.947463,-0.592457,0.328967,-0.735375
0.199656,-0.384294,0.952385,-0.369483,0.902671,-0.220608
-0.485150,-0.471644,0.726979,-0.349237,0.667404,-0.657727
-0.072408,-0.111103,0.919341,0.784187,0.536409,0.311956
0.316315,0.235735,0.604201,-0.303543,0.114804,-0.945876
-0.724920,-0.291321,0.048790,0.803239,-0.283276,0.523987
-0.808409,-0.237456,0.548167,-0.112852,-0.989752,0.087495
0.256461,-0.076212,0.065500,0.622648,0.744284,0.241559
0.582454,-0.112369,-0.959097,-0.144266,0.065281,0.987383
0.285284,0.257449,0.782579,0.321925,0.946750,-0.005315
-0.368702,-0.210154,0.932682,0.683918,0.081826,-0.724956
0.044427,-0.289283,0.932584,0.421513,0.868819,0.259768
0.462183,-0.154251,0.708828,0.041233,0.286759,0.957115
0.717206,0.328567,0.728056,-0.651265,0.745812,-0.140069
-0.218802,-0.013985,0.186796,-0.746527,0.032062,0.664582
-0.087100,-0.384329,0.140454,-0.392723,-0.333843,0.856923
-0.113679,0.212755,0.879110,-0.160557,0.984589,-0.069330
-0.168905,0.016198,0.861210,0.820347,-0.437399,0.368393
-0.286511,-0.414300,0.837801,-0.069757,0.593763,0.801610
0.279323,-0.075580,0.856945,0.988403,0.113215,-0.101200
-0.028472,-0.036226,0.934681,-0.021432,0.841301,0.540142
0.310004,-0.707765,0.015214,0.715622,0.404136,-0.569701
0.081139,-0.563598,0.605949,0.218504,-0.054918,0.974290
0.189172,-0.760682,-0.005370,-0.335933,-0.008363,0.941849
0.039518,-0.359698,0.707276,-0.713053,0.174468,-0.679055
-0.124864,0.358362,0.810491,0.944576,0.320752,-0.069958
-0.045794,0.520801,0.548922,0.822469,0.484573,0.297880
0.364739,0.725193,0.761533,0.120699,0.793820,0.596055
0.127599,-0.063633,0.907958,0.849004,-0.521076,-0.087592
-0.230338,-0.325229,0.823929,-0.321109,0.674313,0.664975
-0.012728,0.333450,0.860595,0.818369,0.087274,-0.568028
0.116028,0.658363,0.860063,-0.507277,-0.775359,0.376150
0.223641,-0.675334,0.746668,0.468491,-0.477034,0.743609
-0.002981,-0.696803,0.520759,0.186921,0.762044,0.619960
0.489919,-0.305692,0.888003,-0.269832,0.861791,0.429543
-0.182896,0.047962,0.911944,0.106828,0.519399,0.847828
0.405098,0.630218,0.648320,-0.321274,0.003794,0.946979
-0.107087,-0.530112,0.786690,-0.131591,0.743740,0.655389
-0.243031,0.070766,0.166492,-0.582584,-0.231089,0.779227
-0.030471,0.157344,0.922515,0.490210,0.307807,0.815444
-0.714086,-0.542059,0.419264,-0.668529,0.134802,0.731367
-0.762264,-0.419712,0.474934,-0.532468,0.785581,0.315182
0.282759,-0.311173,0.002601,-0.751158,0.280683,0.597477
-0.395912,-0.535910,0.540434,0.686481,-0.482163,0.544300
0.292121,-0.807624,0.007411,-0.498861,0.792162,0.351592
0.037063,-0.544483,0.835662,0.582434,-0.590229,-0.558927
-0.214103,0.322066,0.818923,0.113652,0.971383,-0.208565
-0.356429,-0.298630,0.613528,0.798454,0.449614,0.400398
-0.204390,0.051933,0.894030,0.641404,-0.668184,0.377002
-0.799187,-0.215530,0.141447,-0.199170,0.919323,-0.339377
0.457660,-0.182080,0.895499,0.790956,0.076027,0.607131
0.657141,0.353654,0.893093,0.579825,-0.801921,0.143963
0.218732,0.208433,0.514522,-0.253435,-0.949543,0.184767
0.344016,0.894167,0.740571,0.782495,0.411738,0.467090
0.135629,0.340619,0.953308,0.841886,-0.116096,0.527019
0.451734,0.216584,-0.983443,0.000500,0.255871,0.966711
-0.817280,-0.197997,0.508076,-0.365496,-0.892578,-0.264040
-0.339598,-0.373015,0.346464,0.504508,-0.310330,-0.805709
-0.443108,-0.050070,0.137391,0.718911,0.585401,-0.374796
-0.691925,-0.452530,0.460754,0.683602,-0.536598,0.494723
-0.345910,-0.006746,0.145432,-0.202331,0.306721,0.930046
-0.065220,0.101792,0.891108,-0.170912,0.690122,0.703222
0.479821,0.346205,0.699403,-0.060048,0.987191,0.147813
-0.721835,-0.246275,0.528954,0.267656,-0.029372,-0.963067
-0.067779,0.793992,0.608676,-0.680418,-0.730266,-0.061170
0.058347,0.122839,0.537651,0.142748,-0.874217,0.464077
0.317788,-0.619852,0.070828,0.811372,0.168968,-0.559576
-0.005400,-0.535839,-0.068101,0.488206,0.149080,-0.859901
-0.132578,0.600070,0.579282,0.781037,0.588772,-0.208156
0.441565,0.065074,-0.778090,-0.551603,-0.824333,-0.127315
0.170307,-0.056114,0.939618,-0.371310,0.585954,0.720269
-0.055121,0.084610,0.917789,0.966663,0.250195,0.054451
-0.568708,-0.325229,0.865042,0.228517,-0.847855,-0.478458
0.376591,0.325896,0.895359,-0.762918,0.635815,-0.117024
-0.136996,-0.102319,0.982576,0.278692,0.111035,0.953940
0.091378,0.319501,0.948931,-0.545644,0.811543,0.208976
0.338406,0.116198,0.715331,-0.273605,-0.686411,0.673780
-0.244960,0.215460,0.907525,0.729832,0.515859,0.448592
0.228094,0.854322,0.559382,0.628481,0.706899,0.324507
0.340370,0.234048,-0.988309,0.047591,-0.223852,-0.973461
-0.109226,0.873823,0.523821,0.737894,-0.565910,0.367776
-0.043796,0.128777,0.529555,-0.326598,-0.336353,-0.883289
0.533294,0.814125,0.736083,0.986932,0.150023,-0.058801
-0.498019,-0.403900,0.743648,-0.539215,0.046107,-0.840905
0.105789,-0.749719,-0.006321,-0.520918,-0.355070,-0.776254
-0.026298,0.415706,0.875753,-0.200194,0.011737,0.979686
0.162102,0.317674,0.942834,0.936372,0.087694,-0.339878
0.078159,0.465004,0.818224,0.050232,0.996539,-0.066232
-0.278271,-0.077231,0.506509,0.125320,-0.938745,0.321019
0.503033,0.842164,0.753017,0.914407,-0.386805,-0.119338
-0.246502,-0.670977,0.080967,0.142434,-0.463862,0.874383
0.034854,0.383099,0.523780,0.858857,0.491108,0.145527
-0.540306,0.026669,0.878942,-0.423411,0.861326,0.280784
-0.680143,-0.364968,0.421739,-0.016329,0.994804,0.100493
0.147691,0.661736,0.548727,0.588661,0.219177,0.778100
-0.122725,0.627336,0.544336,0.312002,0.907758,-0.280412
-0.240997,0.142551,0.915649,0.945014,-0.287014,-0.156750
-0.169010,-0.515144,0.749269,0.777925,-0.421742,0.465796
0.424629,-0.171012,0.365370,0.436892,-0.761089,0.479446
0.448684,0.088264,0.795388,-0.290800,0.750057,0.594011
-0.021635,-0.083556,0.403770,-0.699348,0.682986,-0.210814
0.184123,-0.315917,0.489253,-0.361203,0.554094,-0.750008
0.208107,0.256255,0.528814,0.530694,0.813722,-0.237108
0.082892,0.380780,0.902546,0.906564,0.343839,-0.244779
0.253691,-0.448454,0.032163,0.829400,-0.220510,-0.513294
0.295733,0.457871,0.937688,0.841575,-0.279678,0.462095
0.108910,0.278813,0.497979,0.580290,0.701285,-0.414081
0.278025,-0.236648,0.762442,-0.626542,-0.751583,-0.206320
0.617027,-0.160260,0.488596,-0.342653,-0.124919,-0.931120
0.581437,0.028778,-0.969921,-0.006858,0.179683,0.983701
-0.007574,0.459663,0.538980,0.797278,0.603563,-0.007642
0.203443,-0.367498,0.882508,-0.057233,0.839132,0.540908
-0.104737,0.010963,0.751465,0.906308,0.176478,0.384006
-0.157018,0.184329,0.901246,-0.662568,0.651985,0.368672
0.613907,-0.208082,0.476234,-0.485776,0.668481,-0.563165
0.856131,0.368728,0.778048,-0.354940,-0.381628,0.853450
0.156772,-0.458433,0.860175,-0.197997,-0.351254,0.915105
0.149058,0.110963,-0.993819,-0.077736,0.254845,0.963852
0.218030,-0.622031,0.690104,0.861742,-0.285970,-0.419072
-0.118026,-0.074420,0.486079,-0.285105,0.584315,-0.759797
0.717733,-0.346697,0.410762,0.502700,0.761336,-0.409463
0.295522,0.479621,0.567269,-0.034106,0.657433,0.752741
0.037308,-0.587843,0.845646,0.079335,0.217391,0.972855
0.112872,0.285207,0.494134,0.552290,0.693832,-0.462140
0.352221,-0.258257,-0.015410,-0.412954,0.161690,0.896284
-0.479505,-0.507625,0.633581,0.746655,-0.396072,0.534446
0.136436,-0.606992,0.603138,-0.069114,0.115628,0.990885
0.570182,0.537105,0.751535,-0.666748,0.106133,0.737687
0.434167,0.602319,0.860077,0.661413,0.064850,0.747213
0.438515,-0.056500,-0.968606,-0.037783,-0.045002,0.998272
0.554683,0.419571,0.883724,0.536500,0.373847,-0.756575
0.002700,0.287105,0.647593,-0.337797,-0.473240,0.813595
0.707949,0.058363,0.495868,0.122632,0.839988,0.528566
-0.193871,-0.332642,0.549076,0.972734,-0.138436,0.186078
0.202181,0.064160,0.847520,-0.562686,0.098164,0.820822
-0.214664,-0.510717,0.770413,0.803169,0.517898,-0.294451
-0.228935,0.075650,0.924753,0.990837,0.126292,-0.047890
-0.222939,-0.280780,0.389213,0.850674,0.121996,-0.511343
-0.223045,0.027372,0.915915,0.839165,0.347903,0.418049
0.213121,-0.027266,0.256856,-0.509925,0.839174,-0.189113
-0.657211,-0.439072,0.040693,-0.024218,0.647156,0.761973
0.470704,0.231483,0.762778,0.545518,0.127314,-0.828373
-0.055191,-0.077477,0.731985,0.853631,0.516294,-0.068962
-0.216522,-0.280569,0.898421,-0.711519,-0.407714,0.572285
-0.625758,-0.272944,0.472123,-0.013040,-0.513649,0.857901
0.544444,0.026001,-0.967278,0.041868,0.137343,0.989638
0.367755,0.037632,-0.206765,-0.924175,0.328645,-0.194664
-0.145166,0.003970,0.811330,-0.173682,0.855449,-0.487895
-0.380518,-0.315706,0.870649,0.662059,-0.301825,-0.685988
-0.137347,0.537491,0.415782,0.883601,0.460340,0.085651
0.221291,-0.645995,0.734488,0.798905,-0.554431,0.233146
-0.217118,-0.112369,0.657269,-0.523440,0.826267,-0.208074
-0.005155,0.167639,0.826558,0.108505,-0.787465,0.606734
-0.599531,-0.337281,0.034330,0.129015,0.381165,0.915461
-0.272275,-0.409698,0.842682,-0.069757,0.593763,0.801610
0.652863,0.042059,0.536015,-0.483369,-0.639202,-0.598143
0.457730,-0.322242,0.616283,-0.725821,0.332976,-0.601923
0.288755,-0.143008,0.934262,0.472359,0.818493,0.327026
0.263403,0.332115,0.732852,0.569138,0.696049,-0.437720
0.462008,0.114230,-0.971529,0.405074,0.434239,0.804582
-0.417546,-0.195327,0.747731,0.055721,0.448992,0.891797
0.316561,0.187386,-0.984534,-0.179551,0.194036,0.964423
0.193696,0.018201,0.907846,0.790261,-0.602398,-0.112269
-0.261650,-0.133486,0.699864,0.817579,0.360691,0.448851
-0.566149,-0.550492,0.687237,-0.262517,-0.727130,0.634324
0.159613,0.533731,0.858553,0.054331,0.386009,0.920894
-0.027981,0.525017,0.800898,-0.616387,-0.430529,-0.659327
0.320032,0.048243,0.142789,-0.694295,0.717674,0.053838
0.068341,0.305657,0.987806,0.740616,0.350075,0.573529
-0.677969,-0.661560,0.411028,-0.283865,0.062530,0.956823
-0.041411,-0.566057,0.544070,0.072771,-0.629300,0.773748
0.224938,0.635945,0.676176,0.640454,-0.153206,-0.752560
0.075073,0.787034,0.624058,0.815084,-0.093583,-0.571734
-0.397279,-0.256500,0.561984,0.329504,0.749974,0.573555
0.548722,0.529304,0.698774,-0.542296,-0.271944,-0.794960
0.073284,0.275123,0.920823,0.987920,0.048018,0.147340
-0.181949,0.044729,0.947505,0.341810,-0.885037,0.316031
0.129317,0.684189,0.741928,0.758409,0.645153,-0.092703
-0.532803,-0.508714,0.575100,0.982036,-0.123796,-0.142408
-0.325573,0.030147,0.138734,0.516488,-0.216632,-0.828439
0.288615,0.180253,0.918292,-0.622781,0.692034,-0.365011
-0.393983,-0.253303,0.060173,-0.043207,-0.752435,0.657248
0.167222,0.872804,0.544280,-0.444162,-0.794829,-0.413482
-0.069252,-0.116163,0.829341,0.967626,0.248134,-0.046142
0.081560,-0.519080,0.008992,-0.661501,0.744412,0.090918
-0.669448,-0.674526,0.417390,-0.273210,-0.037683,0.961216
0.606964,0.363633,0.825775,0.925268,-0.321183,-0.201796
-0.029103,0.126950,0.617485,0.643669,0.300941,-0.703651
-0.008661,0.779129,0.796241,-0.058121,-0.436831,0.897664
-0.436691,-0.422347,0.809833,0.864632,-0.498401,-0.063307
-0.415899,-0.197400,0.005244,0.098358,-0.105493,0.989544
-0.120867,-0.540232,0.129924,0.233779,-0.221755,-0.946664
0.115502,-0.402003,0.979374,0.383370,0.710537,-0.590055
-0.199341,-0.244694,0.417824,0.324475,-0.624313,0.710598
0.230443,0.036543,0.503279,0.731339,0.359687,0.579455
-0.092464,-0.408749,0.543231,0.031626,-0.096285,0.994851
-0.012273,0.838405,0.807946,0.465578,-0.250979,0.848673
0.634068,0.273998,0.621149,-0.730420,0.680660,0.056476
-0.152565,0.568904,0.457062,0.789111,0.562207,0.247443
-0.190820,0.035769,0.882983,-0.058393,-0.961331,0.269132
-0.657772,-0.341848,0.860623,-0.032138,0.957766,0.285749
-0.480837,-0.556044,0.646502,-0.606303,0.446180,-0.658271
-0.748098,-0.391638,0.449357,0.245785,-0.861864,-0.443599
0.362565,0.094027,-0.384920,0.352925,-0.932584,-0.075709
-0.292262,0.069676,0.894310,-0.583457,-0.443375,0.680439
0.276096,0.511806,0.865293,-0.372157,-0.106303,0.922062
-0.251902,-0.127864,0.686300,-0.858697,0.162152,-0.486155
0.377818,0.080921,-0.269637,0.994370,0.094918,-0.047109
0.343771,-0.586507,0.374488,0.947043,0.306780,0.094842
-0.488692,-0.174842,0.546713,0.124059,0.708635,0.694583
0.327746,-0.114090,0.251500,-0.627785,0.470465,0.620120
-0.643676,-0.661420,0.095062,0.206867,0.681194,0.702268
-0.892913,-0.255587,0.569856,-0.276419,-0.850656,0.447187
-0.408570,-0.418588,0.810854,-0.550762,0.804553,0.222162
-0.230864,0.035699,0.941939,0.711830,0.522914,-0.468890
-0.188120,0.161595,0.896813,-0.231296,0.291059,0.928325
0.290298,-0.097997,0.468781,0.833245,0.477970,-0.277936
-0.104141,0.659662,0.568038,-0.664776,-0.100238,0.740288
0.165013,-0.124701,0.668722,-0.217861,0.560318,0.799112
0.352432,0.564828,0.853044,0.213241,-0.972437,-0.094306
-0.187384,-0.177688,0.628812,-0.535747,-0.165389,-0.828023
-0.305235,-0.127653,0.102054,0.541014,0.767947,-0.342872
-0.096567,-0.570379,0.549342,-0.152372,0.682633,0.714699
0.000456,-0.136367,0.936737,0.030902,0.998990,0.032613
-0.741962,-0.539775,0.407434,0.556103,-0.315832,-0.768765
0.307830,0.420977,0.860553,-0.580291,-0.286252,-0.762445
-0.028858,-0.080323,0.609794,0.942629,0.317611,0.102832
-0.003121,0.706078,0.780481,0.602134,-0.785248,-0.144290
-0.931063,-0.502670,0.523416,0.586098,-0.810232,0.003556
0.017462,-0.146697,0.165891,0.105239,-0.158689,0.981704
-0.409166,-0.495643,0.344562,-0.167431,0.462018,0.870923
0.336933,0.120204,0.608004,0.529556,0.839976,0.118368
-0.158175,0.192340,0.550167,0.496258,-0.070692,0.865292
0.393106,-0.403865,0.717526,0.006562,0.793217,0.608904
-0.451453,-0.399649,0.473396,-0.722762,0.156831,0.673067
0.226831,0.535559,0.852918,-0.178376,-0.893833,-0.411393
0.243206,-0.737843,0.482401,-0.654929,0.475531,0.587315
0.297907,0.189107,0.530240,0.363193,0.803797,-0.471170
-0.529858,-0.233696,0.369342,-0.577674,0.250489,0.776883
-0.461657,-0.180464,0.747955,-0.312075,-0.300759,-0.901196
-0.668256,-0.637702,0.544895,0.649815,-0.298521,-0.699018
0.638557,0.406641,0.882675,0.867194,0.215404,0.448972
0.244819,-0.096416,0.662388,-0.042924,0.624193,0.780090
-0.100144,-0.370415,0.827509,0.907834,-0.408262,-0.095700
-0.271714,-0.335805,0.815119,-0.395170,0.574273,0.716973
0.049827,0.452424,0.801737,0.238996,0.970733,0.023635
0.252007,-0.660752,0.728168,0.826584,-0.558491,-0.069626
0.178618,0.267358,0.845954,-0.188876,-0.560075,0.806624
-0.045373,-0.233134,0.838388,0.826806,0.291572,0.481018
0.186577,-0.047400,0.927689,0.864236,-0.391408,-0.316064
-0.192819,-0.192305,0.918502,-0.033816,-0.824061,0.565491
0.507486,0.399438,0.877152,0.048226,-0.347663,0.936378
0.283986,0.060225,0.277817,0.785867,-0.598377,0.156071
0.229216,-0.309628,0.865182,-0.597630,0.688339,-0.411130
0.224517,0.116163,0.955713,0.228741,0.703911,0.672448
-0.469336,-0.210963,0.013606,-0.242077,-0.280127,-0.928939
-0.056383,-0.254884,0.647760,0.429141,0.669905,-0.605859
0.270732,-0.229586,0.670107,0.279976,0.699851,0.657132
-0.218591,-0.546381,0.548209,0.155997,-0.069506,0.985309
-0.388057,-0.516093,0.600159,0.806817,-0.521035,0.278512
-0.171745,0.110436,0.561186,0.128352,-0.012058,0.991655
0.481363,-0.321328,0.844513,0.875286,0.301295,-0.378280
0.183386,-0.182607,0.671379,0.160949,0.411557,0.897060
0.404116,-0.297505,0.671519,0.714103,0.585273,0.384073
0.297661,0.454638,0.931647,-0.820544,0.366955,-0.438237
0.161155,-0.437421,0.639874,0.869015,-0.186044,-0.458475
0.185560,0.225720,-0.995176,-0.160202,0.031129,0.986593
0.053543,0.434223,0.621023,-0.222401,-0.505573,0.833627
-0.239665,0.013458,0.933283,0.832580,0.212810,0.511392
-0.066272,0.137983,0.537763,0.237940,0.451176,0.860131
0.582735,0.552706,0.766973,0.561027,0.083396,-0.823586
-0.312318,-0.606009,0.088336,-0.006727,-0.237874,0.971273
-0.233213,0.009241,0.651550,-0.188867,0.122709,0.974306
-0.122655,0.326423,0.802310,0.884326,0.423351,-0.196829
0.383674,0.571082,0.872271,-0.131350,-0.327920,0.935530
-0.355728,-0.355587,0.649383,-0.731642,0.231699,0.641106
-0.227428,-0.323612,0.807806,-0.017393,0.516311,0.856225
-0.550826,-0.161771,0.538784,0.199398,-0.375871,0.904965
0.602230,-0.004041,-0.964341,-0.032630,0.127151,0.991347
-0.046110,-0.442059,0.134105,0.648321,0.016007,-0.761199
0.233844,0.239283,-0.991064,-0.136157,0.126027,0.982639
0.444125,0.175299,0.824880,-0.335809,0.365374,-0.868179
-0.300642,0.005200,0.151068,0.458787,-0.230576,-0.858108
0.510607,-0.275615,0.871894,0.994953,0.092180,0.039653
0.763140,-0.138545,0.481059,0.442098,-0.564734,0.696868
0.049967,-0.645186,0.778398,0.553301,0.536312,-0.637359
-0.266980,-0.654743,0.087497,0.088553,-0.387942,0.917420
0.251973,-0.253162,0.864986,0.088715,-0.683364,0.724668
-0.530559,-0.044940,0.842947,0.832253,-0.180159,0.524307
-0.360146,-0.590021,0.504160,0.895184,0.186693,0.404711
0.525264,0.500492,0.803261,0.568414,0.782901,-0.252925
0.466952,-0.301405,0.922222,-0.721683,0.552674,-0.416802
0.154283,0.159839,0.715960,0.121356,0.803105,0.583348
-0.779024,-0.658292,0.406175,0.932361,0.205044,-0.297757
-0.055998,0.028039,0.899414,0.232911,0.411689,0.881059
0.178337,0.753724,0.623624,-0.619331,-0.747398,0.240469
0.290403,0.219536,0.809903,0.533480,0.693490,-0.484222
-0.155720,0.278813,0.560795,0.653678,-0.150235,0.741710
-0.116905,0.851792,0.650026,-0.326422,-0.557314,0.763446
0.087801,0.090267,-0.990645,0.073443,-0.214933,-0.973863
0.518041,0.016550,0.559159,0.170719,0.227332,0.958736
0.146780,-0.572699,0.597069,-0.235074,0.078049,0.968839
-0.229005,0.262685,0.909343,0.714385,-0.158910,0.681470
0.046250,0.211982,0.675085,0.014308,-0.973308,0.229056
0.359655,-0.317709,0.117856,0.974104,0.215578,0.068171
0.169501,-0.681483,0.010194,0.961980,-0.226783,0.152198
0.120621,0.492586,0.863112,0.586223,0.211115,0.782159
0.087871,0.916585,0.570178,-0.620286,-0.763392,-0.180218
-0.272730,-0.595467,0.551691,0.007427,0.486041,0.873905
-0.151057,-0.022417,0.890716,0.433278,0.563840,0.703103
0.747186,-0.259276,0.500468,-0.551218,0.177918,-0.815171
-0.105158,0.728531,0.776048,0.108450,0.788198,0.605791
0.485816,0.422593,0.699543,-0.532448,0.622954,-0.573085
0.581227,-0.012122,0.565689,0.163549,0.599143,0.783760
0.492269,-0.018623,-0.968033,-0.063551,-0.034065,0.997397
0.011220,0.257590,0.903385,0.083555,-0.582712,0.808372
0.436131,-0.450808,0.340605,0.914989,0.338442,0.219666
0.308566,-0.007168,-0.134790,0.804229,-0.553038,0.217633
0.312598,0.457063,0.946707,0.814465,0.117246,0.568244
-0.036397,0.097786,0.913356,0.859164,0.058599,0.508333
-0.142641,0.356957,0.878942,0.870027,0.460816,0.175219
-0.539360,-0.242727,0.778621,0.037871,0.990893,-0.129220
0.837687,0.272312,0.675840,-0.526714,0.591155,0.610826
-0.001929,0.177442,0.907707,-0.482506,0.604777,-0.633587
0.484134,-0.070801,-0.967502,-0.088737,-0.027334,0.995680
0.056629,0.020520,0.933996,0.032775,0.867407,0.496519
0.419229,-0.806395,0.337417,-0.612566,0.607050,0.506215
0.690978,0.271152,0.708646,0.410253,-0.827526,0.383265
0.015639,0.547646,0.625470,0.833071,0.081298,-0.547160
0.443108,0.329304,0.561746,-0.320087,-0.707165,0.630446
0.220590,0.092727,0.457790,0.751496,-0.205393,0.626951
-0.221151,-0.253549,0.803219,0.611943,0.318854,0.723780
-0.494337,-0.202706,0.853197,0.298581,0.733031,-0.611159
-0.079982,-0.039178,0.758611,0.170802,0.972874,-0.156019
0.110523,-0.589072,0.600173,-0.504371,0.364479,-0.782793
0.375504,-0.023683,0.780593,0.985295,0.108838,-0.131710
-0.370560,-0.435348,0.573884,0.310639,-0.549201,0.775810
0.364599,0.067674,-0.261232,0.996460,-0.055010,-0.063571
-0.045093,0.035945,0.921229,0.660089,0.426202,0.618575
-0.206739,-0.592692,0.107634,-0.663000,0.339891,0.667012
-0.153582,-0.629129,0.123561,-0.655165,0.149564,0.740533
0.427995,-0.057695,-0.969795,-0.037196,-0.028869,0.998891
0.268663,-0.068939,0.863056,0.982545,0.157970,-0.098235
-0.202847,-0.327407,0.381228,0.713003,0.479308,-0.511754
-0.018444,-0.487351,0.165429,0.804153,-0.401980,-0.437894
-0.240296,0.143745,0.931157,0.934938,-0.302538,-0.185371
0.184684,0.218693,0.965152,0.883257,0.397291,0.249032
-0.231986,-0.212439,0.426018,-0.264998,0.608903,-0.747672
0.029454,0.546838,0.789781,-0.799315,0.451816,-0.396179
0.350398,0.164265,-0.977612,-0.110498,0.182869,0.976908
-0.135384,-0.008784,0.210653,-0.485138,-0.794687,0.364848
-0.516568,-0.448946,0.586315,-0.688282,0.668340,-0.282118
-0.410358,-0.293745,0.438240,-0.267257,0.574565,0.773594
-0.612048,-0.685383,0.582358,0.296357,0.236478,0.925338
0.147550,0.010893,0.141181,0.736131,0.676780,-0.008920
0.426979,0.112544,0.348716,0.390527,0.908590,-0.148164
-0.289597,0.660822,0.522941,-0.186886,-0.177725,0.966171
-0.388689,0.036859,0.533498,0.886411,-0.060298,-0.458954
-0.405589,-0.370696,0.803555,0.740265,0.126230,-0.660359
0.453382,-0.161736,0.861881,0.649363,0.592582,-0.476627
0.313195,-0.341216,0.947295,-0.383314,0.923458,-0.017173
0.160560,0.438897,0.924207,0.115870,0.523612,0.844041
-0.411270,0.181342,0.685587,-0.282923,-0.141212,0.948690
-0.492584,-0.134610,0.408161,-0.533638,-0.336863,0.775728
0.225148,-0.125966,0.547916,0.963438,-0.258445,-0.070662
0.149760,0.047962,0.497462,0.585017,0.235297,0.776138
0.326870,0.125334,0.486750,-0.169020,-0.898917,0.404205
-0.382412,-0.266058,0.857980,-0.713679,0.360380,-0.600657
-0.081314,-0.134504,0.555495,-0.672724,-0.196000,-0.713461
0.117956,0.335734,0.919313,0.798087,-0.367881,0.477201
-0.506855,-0.581131,0.561718,0.044789,0.448733,0.892543
0.370104,0.036226,-0.515445,0.863019,-0.498853,-0.079652
-0.401312,-0.429129,0.806435,-0.749827,0.660320,0.041673
0.314913,0.078672,0.911916,0.860389,0.509459,0.013530
0.154073,-0.013985,-0.981513,-0.045096,0.088039,0.995096
-0.108454,0.615390,0.542504,0.532164,0.794703,-0.291974
0.166731,0.223893,0.897149,0.604911,0.427069,0.672082
0.213121,-0.122137,0.541441,0.963438,-0.258445,-0.070662
-0.296645,-0.324947,0.625960,0.741953,-0.367032,0.561064
0.341457,-0.059979,-0.971655,0.163530,-0.008420,-0.986502
-0.590589,-0.177126,0.832613,0.944553,0.288149,-0.157447
-0.187033,0.658644,0.543874,0.675904,0.145938,-0.722396
0.371261,0.382396,0.942680,0.122053,0.150859,0.980992
0.816824,0.311946,0.757268,-0.779278,-0.444595,0.441657
-0.124268,-0.472066,0.114360,0.315804,-0.173048,-0.932911
0.855780,0.140934,0.460111,0.661620,0.287120,0.692691
-0.115397,-0.102811,0.595545,0.940609,-0.115997,0.319060
0.345384,-0.099965,0.694662,0.155155,-0.926441,-0.342979
-0.081805,0.015530,0.229601,-0.370263,-0.081253,0.925367
-0.218416,-0.130288,0.951826,0.129222,0.079793,-0.988400
-0.153372,-0.032221,0.189523,-0.443276,-0.703266,0.555808
-0.672534,-0.582712,0.446211,-0.238642,-0.799318,0.551490
-0.443213,-0.046768,0.123687,0.805588,0.056761,-0.589751
-0.622848,-0.028883,0.854861,0.868900,-0.156719,0.469524
-0.314107,0.027372,0.835466,0.935810,0.265933,0.231386
0.005996,0.403724,0.888381,0.637063,-0.013308,-0.770697
-0.468249,-0.437772,0.740208,-0.461709,0.377622,-0.802637
-0.745153,-0.388580,0.409182,-0.057095,0.978572,0.197831
0.392966,0.045748,-0.795011,0.611791,0.790747,0.020736
0.170939,0.114933,0.497112,-0.566329,0.676639,-0.470564
-0.289877,0.110787,0.246214,0.121507,-0.505727,0.854094
0.651391,0.114230,0.484233,0.208094,0.318864,0.924674
0.273292,-0.493851,0.700312,0.948138,-0.194345,-0.251525
-0.848557,-0.150632,0.571479,0.323224,-0.791732,0.518351
0.137066,0.645889,0.868817,0.541891,0.662373,-0.517316
-0.443809,-0.594132,0.611081,-0.428016,0.896937,-0.110937
-0.712543,-0.460401,0.090014,0.457102,0.121259,-0.881109
-0.062485,-0.082221,0.726727,0.942738,0.247157,-0.223962
-0.114625,0.509382,0.868719,0.819301,-0.336474,-0.464253
-0.654125,-0.591321,0.566067,-0.656902,0.534803,0.531475
0.578422,0.372066,0.903637,-0.748813,0.126190,0.650658
-0.357866,-0.406289,0.705556,-0.607669,0.785629,-0.116295
-0.190645,-0.476458,0.115017,0.999525,0.028967,-0.010528
-0.204320,-0.592762,0.107760,-0.663000,0.339891,0.667012
-0.915565,-0.518201,0.445190,0.210933,0.562191,-0.799656
0.149760,0.827231,0.521374,0.900667,-0.244867,-0.358941
-0.228269,0.103408,0.940680,0.849853,-0.512507,0.122830
0.155054,0.345081,0.875446,0.383627,0.913047,-0.138474
0.121919,0.677723,0.659591,0.601220,0.474357,0.643056
-0.199201,-0.257098,0.415866,0.367994,-0.553676,0.747009
0.383183,-0.491040,0.146956,-0.600289,0.080048,0.795767
0.010800,-0.545713,0.851869,0.236699,0.165104,0.957452
-0.435113,-0.402530,0.807232,0.934615,0.171038,-0.311835
0.079806,-0.156219,0.172309,-0.194534,-0.170385,0.965984
0.331954,0.236507,0.908713,0.714829,0.677507,0.173214
-0.604755,-0.132010,0.547818,-0.338609,0.714788,-0.611901
-0.244118,-0.614055,0.098306,-0.140975,-0.375395,0.916081
-0.344858,-0.436121,0.584581,0.831703,-0.555212,0.003068
0.581998,0.291602,0.769350,0.877047,0.203417,0.435212
-0.322276,-0.297752,0.037980,-0.660644,0.742670,0.109504
0.296118,-0.236121,0.906294,0.406825,-0.659924,-0.631660
0.461237,-0.062228,0.572751,0.094247,0.994625,-0.042886
0.961044,0.399754,0.698578,-0.467717,0.648668,-0.600393
0.065816,0.805201,0.801429,0.414322,-0.298038,0.859948
0.369578,0.294484,0.868090,-0.501310,-0.140170,-0.853839
0.273467,0.863914,0.481968,0.767858,0.283704,0.574374
0.300992,0.252495,-0.990407,-0.094031,0.189289,0.977409
0.409341,0.163668,0.904378,0.930410,-0.293486,-0.219553
-0.027560,-0.194167,0.660066,0.932868,-0.220713,-0.284680
-0.455766,0.047505,0.756359,-0.221968,0.974944,-0.014654
-0.407973,-0.006465,0.132217,-0.624443,0.154942,0.765548
0.237561,-0.144343,0.893443,-0.173145,-0.717707,0.674475
-0.411690,-0.387526,0.823971,0.107701,0.621731,-0.775791
0.138399,-0.039810,0.227238,0.188095,-0.977160,-0.098885
0.078229,-0.029832,0.774426,0.739289,-0.342650,-0.579692
0.526807,-0.141813,0.368447,0.047166,-0.415892,0.908190
0.028823,0.863493,0.657955,0.437119,0.815886,0.378492
0.061678,-0.084610,0.301758,-0.856970,0.272726,0.437290
0.234581,-0.010998,0.712296,0.640875,-0.171530,0.748235
-0.478804,-0.397224,0.874830,-0.394139,-0.794345,0.462245
0.365440,0.072980,-0.160017,0.866078,-0.490341,0.097342
0.376451,-0.252424,0.321279,0.951792,0.258888,-0.164523
-0.144676,0.042094,0.940163,0.798014,-0.039976,0.601312
0.212420,-0.150035,0.553467,0.976674,-0.115728,-0.180872
-0.171780,0.726810,0.801471,0.837008,-0.469672,-0.280759
-0.042147,-0.426809,0.887472,-0.537993,-0.205072,0.817624
0.441740,-0.838405,0.156829,0.288076,-0.094928,-0.952891
-0.175392,-0.594448,0.733957,0.854124,-0.382236,0.352659
0.134893,0.341813,0.904700,0.959154,0.282865,-0.003256
-0.169151,-0.513774,0.122023,0.849939,0.400389,-0.342480
-0.011326,-0.331869,0.629749,0.924035,0.380964,-0.032018
0.164417,0.030956,-0.984897,-0.049338,0.003382,0.998776
0.518742,0.015355,0.605543,0.760846,0.189149,0.620755
-0.740068,-0.178109,0.583561,0.542460,-0.719826,0.433114
-0.068726,0.397154,0.850513,-0.242194,0.919240,-0.310388
-0.238542,-0.389670,0.829369,0.354904,0.328440,0.875312
-0.208282,-0.235699,0.390989,-0.406031,0.598761,-0.690380
-0.018794,-0.044624,0.559732,0.587077,-0.796510,0.144612
-0.262702,-0.009487,0.909664,0.945457,-0.274905,-0.174750
-0.339949,-0.045503,0.640293,0.197240,0.792115,-0.577625
0.114380,0.111279,0.931353,-0.680928,-0.063610,-0.729582
-0.197167,-0.355798,0.871139,-0.684550,-0.331660,0.649148
0.174270,-0.007273,-0.985806,-0.078119,0.088821,0.992979
-0.014692,-0.395081,0.479590,0.821930,-0.525221,-0.220393
-0.341211,-0.046768,0.153095,-0.287303,-0.089142,0.953683
0.333567,0.249192,0.848597,0.188358,0.876085,-0.443843
0.727655,0.138194,0.575688,-0.217498,-0.830389,0.512980
-0.866335,-0.434996,0.481548,-0.362949,0.894018,-0.262677
-0.104106,-0.146978,0.930207,-0.090130,0.908664,0.407684
0.339949,-0.023717,-0.971165,-0.173130,-0.034774,0.984285
0.110137,-0.434048,0.766148,0.241668,-0.661362,0.710068
0.491672,0.286367,0.822335,-0.112899,0.061019,0.991731
0.066973,0.218693,0.823216,0.007877,-0.547143,0.837002
0.823837,0.058609,0.503615,-0.599529,-0.376352,-0.706345
0.187243,0.014546,0.835158,-0.320559,0.826323,0.463068
0.070234,-0.638440,0.016809,0.866133,0.072776,-0.494487
0.367895,-0.295643,0.868258,0.138463,0.783479,-0.605796
-0.566500,0.039986,0.832949,0.880264,-0.126381,0.457343
0.348715,0.235840,0.921648,0.903147,0.217534,0.370141
-0.173078,0.163985,0.908224,0.679810,0.260064,-0.685730
-0.061292,-0.325263,0.824223,-0.728403,0.460683,0.507148
-0.237316,-0.334715,0.827481,0.330144,-0.614028,-0.716920
0.077141,-0.300949,0.858763,0.229595,0.936775,0.264080
-0.204565,0.264828,0.558949,-0.521128,0.402189,-0.752775
0.812441,0.125018,0.470263,0.661620,0.287120,0.692691
0.329816,-0.114336,0.571604,0.590646,0.341608,-0.731055
0.518356,0.662825,0.710590,-0.300356,0.577718,-0.758965
0.268803,0.141567,0.849394,0.042929,0.208920,0.976990
0.450998,0.560752,0.782048,0.796922,0.416153,-0.437871
0.085417,-0.029515,0.298961,-0.621530,0.752523,0.217737
-0.358007,0.119360,0.485506,0.656801,-0.228999,-0.718451
0.127529,0.098384,-0.993260,0.093307,-0.243767,-0.965335
0.447702,-0.196276,0.620072,0.937469,0.347553,0.018954
0.074442,0.306114,0.935409,0.736634,0.102382,-0.668497
0.647779,-0.077231,0.481590,0.948386,0.030487,-0.315651
0.284477,-0.390724,0.031855,0.829226,-0.412482,-0.377151
0.394754,0.341040,0.686146,0.884087,-0.437489,0.164294
0.587538,0.449122,0.707458,-0.582701,0.688061,0.432472
0.469652,-0.316515,0.612871,0.553941,0.478155,-0.681555
0.208282,0.360752,0.903609,-0.203036,0.979168,0.002714
0.272485,-0.357941,0.793612,-0.596831,0.497888,-0.629206
-0.323083,-0.148454,0.930346,-0.680699,0.679913,0.272702
0.294610,0.705727,0.753604,-0.537495,-0.836107,0.109658
0.151093,-0.061736,0.837256,0.906735,-0.275130,-0.319585
0.328097,0.139389,0.628868,-0.575003,-0.817552,-0.031313
-0.188436,0.044729,0.204961,0.759396,0.352107,-0.547118
0.469652,-0.044905,0.274391,-0.418335,0.720229,0.553413
0.459694,0.088932,0.369496,0.559138,0.670664,-0.487416
0.300326,0.074631,0.980255,0.755593,0.645547,-0.111119
-0.530278,-0.179620,0.788354,0.726746,0.135824,0.673344
-0.310284,-0.028531,0.867741,0.654118,0.325697,0.682679
-0.551212,-0.063141,0.522213,-0.352465,-0.414995,-0.838778
-0.202988,-0.317815,0.382906,-0.764265,-0.503771,0.402633
-0.581683,-0.404111,0.745536,-0.006886,-0.645156,0.764020
0.447246,0.125123,-0.957769,0.441749,0.499010,0.745552
-0.433465,-0.507519,0.548237,-0.716494,0.299773,-0.629899
-0.224482,0.279480,0.596580,0.352433,-0.535589,0.767421
-0.020127,0.776809,0.816462,-0.463935,0.269933,-0.843742
0.417476,0.142129,-0.976381,-0.136354,0.410103,0.901789
-0.018058,0.036894,0.231405,-0.151250,0.468574,0.870380
0.017357,0.849473,0.662052,-0.108899,0.804721,0.583579
0.446509,0.448700,0.594692,0.341056,-0.940023,-0.006110
-0.186262,0.066023,0.169596,0.697068,0.143562,-0.702486
0.412918,0.381272,0.880410,0.433306,-0.678008,0.593760
-0.631474,-0.134048,0.133392,-0.512339,0.828450,-0.226227
-0.474631,-0.451335,0.749004,0.966932,0.097720,-0.235569
0.394124,-0.244589,0.900868,0.044661,-0.905885,0.421161
-0.521232,-0.602460,0.555243,-0.012465,0.554379,0.832171
-0.093552,-0.490478,0.545818,0.178597,-0.649881,0.738754
0.023633,0.713704,0.811931,0.824763,-0.246681,-0.508836
0.129247,-0.295748,0.826181,-0.360005,0.904909,0.227017
0.289386,0.525580,0.796353,0.939133,0.340877,0.042800
-0.623830,-0.651195,0.087245,0.213288,0.760886,0.612831
0.072128,0.294624,0.915775,0.988720,-0.075636,0.129272
-0.399699,0.053022,0.888940,-0.553891,0.780266,0.290500
0.269084,0.609100,0.827509,-0.161343,-0.142262,0.976591
0.425576,0.114266,-0.809778,-0.748742,-0.655367,-0.099397
0.071075,0.588440,0.838221,-0.009101,0.985127,0.171587
-0.057961,0.462544,0.514354,0.646568,0.695813,-0.312720
-0.008240,-0.032924,0.455706,0.618373,-0.778123,0.110180
-0.312879,-0.236297,0.039029,0.799511,-0.493231,0.342792
0.517164,0.731026,0.827859,0.229546,0.203069,0.951878
0.430450,0.494238,0.745396,0.828985,0.169110,-0.533090
0.013044,-0.023753,0.911888,-0.123471,-0.975283,-0.183241
-0.188155,-0.180886,0.263764,0.296602,-0.592555,-0.748937
0.358989,0.030393,-0.177022,0.823497,-0.560840,0.085508
-0.090010,0.035207,0.166380,0.308508,-0.011794,0.951149
-0.353343,-0.130991,0.907301,0.245026,0.962823,-0.113728
-0.067569,-0.170555,0.842220,0.988516,-0.148278,0.029167
0.391739,-0.809417,0.331487,-0.743184,0.313246,0.591232
0.601283,-0.256852,0.370251,0.814252,0.191410,-0.548048
0.283110,0.097013,0.859812,0.361598,-0.032442,-0.931769
-0.021459,0.472804,0.861588,-0.170758,0.861507,0.478171
0.276868,0.624491,0.710352,0.878429,0.029606,0.476955
-0.213156,0.086894,0.946791,-0.706501,0.344338,0.618294
0.226726,-0.044343,0.523584,0.920451,-0.339217,-0.194167
-0.081700,-0.115671,0.934905,0.889342,0.315876,0.330594
0.506119,0.821047,0.766623,0.873971,-0.417445,0.248824
-0.743329,-0.187596,0.078072,-0.568203,0.784490,-0.248435
0.355517,0.161420,0.820825,0.990003,0.085513,0.112172
0.363933,-0.694624,0.357064,0.973906,0.053460,0.220564
0.360146,0.223472,0.898533,-0.611961,-0.575849,-0.542127
0.225534,0.527231,0.686006,-0.185232,-0.444060,0.876641
0.613556,0.610822,0.864091,-0.680463,0.005287,0.732763
-0.497493,-0.031201,0.095915,-0.480281,0.632994,0.607164
-0.588450,-0.167850,0.075583,-0.438804,0.779969,-0.446206
0.529437,-0.106395,-0.963488,-0.190426,0.032941,0.981149
0.436586,0.551159,0.760484,0.641060,0.685612,-0.344932
0.191486,-0.479094,0.618352,0.977321,-0.176525,0.116972
-0.328868,0.109030,0.262337,0.133200,-0.338840,0.931367
0.480171,0.029023,0.817567,-0.936534,0.028826,-0.349388
-0.128406,-0.510085,0.713596,-0.385600,0.309452,0.869225
0.936779,0.440408,0.714743,0.062296,0.969370,0.237571
0.484730,0.824069,0.759492,-0.716392,0.696112,0.047012
-0.101126,-0.357062,0.891639,-0.416762,-0.684977,0.597592
0.725201,-0.058608,0.404064,0.950217,0.193702,0.244063
-0.125320,0.517217,0.425697,0.861413,0.474986,0.179877
-0.266138,0.191286,0.566556,-0.065282,0.521359,-0.850837
0.244574,0.133907,0.958300,0.674531,0.092639,-0.732411
0.179740,0.483977,0.832907,0.591240,-0.692065,0.414102
0.408815,-0.739775,0.355232,0.329946,-0.349183,0.877044
0.018619,0.478742,0.808589,0.443894,0.890980,0.095461
-0.368596,-0.541075,0.640139,0.181460,-0.552626,0.813435
-0.286967,-0.060190,0.951182,-0.280768,0.339331,-0.897788
-0.090887,-0.467920,0.550405,0.186235,-0.316695,0.930065
-0.233073,-0.550281,0.772049,0.964285,0.037882,-0.262144
0.322066,0.563001,0.844471,0.065762,0.996828,0.044826
0.168028,0.196943,-0.996490,-0.130808,0.000754,0.991407
0.568112,0.701616,0.806407,-0.673581,0.589663,-0.445630
-0.367860,0.822628,0.420998,0.791897,0.594467,0.139668
0.767383,0.027091,0.529121,-0.456169,-0.474185,-0.753033
-0.204986,-0.354849,0.571856,0.651745,-0.724100,0.225628
0.074021,0.298208,0.934360,-0.818367,-0.043315,0.573061
0.156387,-0.620626,0.654696,-0.633350,0.410842,0.655802
0.456713,0.178883,0.688607,-0.060437,0.840051,-0.539131
0.325081,-0.387070,0.774734,-0.331758,0.100277,-0.938020
0.303412,-0.297224,0.855673,0.019598,0.348993,0.936920
0.089099,0.025123,-0.987107,-0.108150,0.115176,0.987440
0.485150,0.606887,0.899372,-0.323130,-0.916754,0.234837
0.660893,0.013668,0.370544,-0.562599,-0.825638,0.042472
-0.048985,-0.011525,0.922627,0.041430,0.792791,0.608084
-0.316175,-0.152495,0.950385,-0.255050,0.007646,0.966898
-0.239700,-0.287281,0.812882,0.016947,0.533242,0.845793
-0.395456,0.022277,0.534547,0.865802,-0.160752,-0.473862
0.192644,0.050667,0.738278,0.883330,0.317881,0.344499
0.471721,0.611525,0.891485,-0.389217,-0.908689,0.150975
-0.787440,-0.711384,0.389353,-0.404714,-0.667562,0.624954
-0.218977,0.394800,0.798982,-0.501700,0.560366,-0.659005
0.259476,-0.063141,-0.009691,0.995329,-0.076892,0.058383
0.200638,0.019958,0.934290,0.893156,-0.301026,-0.334150
-0.806200,-0.498489,0.462167,0.124134,-0.608534,0.783758
-0.433991,-0.157589,0.892744,0.886067,0.216700,-0.409789
-0.197061,-0.521750,0.532394,0.912108,-0.032213,0.408681
-0.348049,-0.272944,0.527583,0.044717,-0.241152,0.969457
-0.721870,-0.214336,0.128931,-0.049154,0.182899,0.981902
0.113714,0.459100,0.793934,-0.028771,0.996548,0.077870
0.191206,0.640478,0.639678,0.179438,0.665848,0.724188
-0.524107,-0.782678,0.101914,0.328598,0.583768,0.742455
0.240822,0.365495,0.931339,0.413212,-0.728568,-0.546300
0.311757,0.054778,-0.192795,0.780297,-0.603836,0.162847
-0.803219,-0.236543,0.132749,0.293015,-0.900502,0.321306
-0.970196,-0.513704,0.492652,0.164365,-0.981620,0.096987
0.449525,0.206746,0.789725,0.177801,-0.942993,0.281336
-0.054840,-0.048419,0.539903,0.686056,-0.704030,0.183490
0.535082,-0.773331,0.183860,-0.061625,0.169479,-0.983605
0.443634,0.097295,-0.834599,0.993298,-0.115576,-0.001363
-0.295172,-0.207941,0.950959,0.275044,-0.030882,-0.960935
0.231284,0.397821,0.750850,-0.595116,-0.046278,-0.802306
-0.119114,0.181693,0.543273,0.516466,0.033804,0.855640
-0.056418,-0.716971,0.538938,0.957110,0.253266,-0.140705
-0.507837,-0.239810,0.501168,-0.319140,0.784588,-0.531575
0.052141,0.444448,0.884437,-0.021588,0.921305,0.388242
-0.442582,-0.310822,0.453748,-0.623809,0.758989,-0.186540
-0.727270,-0.563598,0.418467,-0.456407,0.574812,0.679179
-0.288965,-0.388334,0.834431,0.183788,0.468109,0.864347
0.603247,0.601335,0.677518,-0.172067,-0.243905,0.954413
0.369263,0.259557,0.868160,0.604033,0.794546,0.061968
-0.294646,-0.248278,0.830865,0.885652,0.173760,0.430614
-0.112767,0.701054,0.789137,-0.276668,-0.863077,-0.422555
0.512185,-0.103092,0.721385,-0.429101,-0.092072,0.898551
0.405028,0.757800,0.732377,-0.429715,0.847336,-0.312037
-0.115572,-0.147716,0.419530,-0.523972,0.423006,-0.739269
0.417441,-0.113211,0.706675,0.276498,-0.005802,-0.960997
0.196571,-0.235453,0.869223,0.124363,-0.534413,0.836024
-0.262387,-0.124245,0.129057,0.221423,0.759371,-0.611823
-0.001753,-0.190408,0.733062,0.895398,0.408327,0.177572
0.823066,-0.136648,0.475703,-0.269660,0.545480,-0.793559
0.100424,-0.194378,0.905455,0.355786,-0.128533,0.925687
0.726218,0.070309,0.569759,0.828459,-0.107327,0.549670
-0.587959,-0.136718,0.804981,-0.752941,0.591756,0.287932
-0.067113,-0.722242,0.505293,-0.572989,0.310325,0.758539
0.164872,0.431658,0.684356,-0.721873,0.129986,-0.679708
0.120376,0.761490,0.729091,-0.761729,-0.429188,-0.485352
0.345173,0.644835,0.681699,-0.106075,0.961065,-0.255150
0.457239,-0.414125,0.385955,0.733375,0.677042,-0.061442
0.130194,0.474807,0.864580,-0.554835,-0.342630,-0.758131
0.154073,-0.414512,0.852694,-0.657527,0.209134,-0.723824
-0.074301,-0.359557,0.687936,-0.643395,0.625172,-0.441818
-0.122585,0.548770,0.467341,0.815114,0.525265,-0.244307
0.067324,0.427091,0.873278,0.250321,-0.556135,0.792498
-0.237176,-0.097927,0.904532,-0.649572,0.705924,-0.282362
0.097339,0.261455,0.125463,-0.185347,0.144001,0.972065
-0.684842,-0.155481,0.772427,0.985787,-0.024420,-0.166216
-0.327396,-0.461841,0.547734,0.347993,-0.933033,0.091378
-0.415933,0.133064,0.264533,0.366708,-0.381767,0.848398
0.151653,0.429656,0.770287,0.216709,-0.090633,0.972020
0.324977,0.146029,-0.981849,-0.281894,0.090875,0.955132
0.037344,0.001441,0.526394,-0.650282,0.632038,-0.421498
0.237350,-0.347154,0.406525,-0.124248,-0.224163,0.966599
0.440618,0.209874,-0.983345,-0.036491,0.210950,0.976815
0.389670,0.075052,-0.361189,0.937236,0.340593,0.074738
-0.451033,-0.264476,0.858973,-0.154822,-0.458543,0.875082
-0.070970,-0.596065,0.765071,-0.367151,-0.301802,-0.879838
-0.766647,-0.475193,0.046231,0.445869,-0.425161,-0.787679
-0.177425,0.136999,0.821734,0.713471,0.660566,-0.233691
0.407974,0.367674,0.900631,0.842337,-0.500832,0.199088
0.366107,-0.088826,0.629679,-0.669178,-0.736872,0.096018
-0.229812,-0.063668,0.916670,0.756344,-0.590049,0.282464
-0.242259,0.669115,0.532855,-0.646180,0.024094,0.762804
0.081069,0.724631,0.770343,-0.452049,-0.775636,-0.440501
-0.678180,-0.469853,0.430773,0.111030,-0.569274,0.814616
-0.085908,0.197224,0.870481,0.336954,-0.924834,0.176476
-0.147586,0.426177,0.849114,-0.211126,0.696743,0.685547
0.952207,0.408854,0.701780,-0.470111,0.778736,-0.415410
-0.291034,-0.038967,0.808505,0.145218,-0.130421,0.980766
0.268172,-0.505727,0.721539,0.995238,-0.095617,-0.018941
-0.608682,-0.309592,0.838976,0.480763,-0.872459,-0.087647
-0.418809,-0.270590,0.860749,-0.384164,0.172987,-0.906914
0.107542,0.636472,0.861364,0.234172,0.942927,-0.236752
0.550124,-0.037878,-0.963264,0.178423,-0.039118,-0.983176
-0.107683,0.006922,0.228552,-0.666378,-0.245397,0.704074
0.179845,0.727020,0.610200,-0.625261,-0.779226,0.043088
-0.108559,-0.238721,0.856735,-0.548847,-0.343163,-0.762237
0.128266,0.040759,0.581351,0.479047,0.765205,0.430087
0.177706,0.020239,-0.984478,-0.058921,0.019232,0.998077
-0.534170,-0.137632,0.052118,0.150729,-0.551359,0.820539
0.507907,0.219958,-0.981276,-0.065798,0.110147,0.991735
0.095515,-0.044203,-0.982898,-0.067473,0.070716,0.995212
-0.368982,-0.119009,0.071919,0.343518,0.815638,-0.465542
0.162523,0.678777,0.557173,0.867591,0.050630,0.494695
0.381360,-0.274772,0.958901,-0.254374,0.223215,-0.940994
0.377468,0.172382,0.917188,0.981170,0.188927,0.040143
-0.411305,-0.098630,0.110053,0.585592,0.436965,-0.682747
0.365440,0.108820,-0.753758,0.652458,0.757472,0.023145
-0.585189,-0.069115,0.835955,0.908483,0.132491,0.396365
-0.342193,-0.138862,0.731244,-0.073809,0.123144,0.989640
-0.153336,-0.027231,0.848862,0.257143,0.954414,-0.151565
-0.031839,-0.497576,0.698634,0.123774,0.252282,-0.959705
0.061748,0.472031,0.639776,0.830318,0.555867,0.039791
-0.829027,-0.435734,0.047000,0.324955,0.082072,0.942162
-0.237350,0.168799,0.919789,0.969822,-0.118897,-0.212860
0.020057,-0.537913,0.788396,0.579281,0.584173,-0.568485
-0.001402,-0.510049,-0.053656,-0.615821,-0.195758,0.763179
0.634209,-0.076036,0.478626,0.972382,-0.169700,-0.160237
-0.205653,-0.479058,0.522912,-0.752453,-0.413284,-0.512845
0.428065,0.042199,-0.946498,-0.409737,0.381446,-0.828622
-0.050247,0.061911,0.914852,0.952570,0.304247,0.006612
0.104317,0.077477,0.924068,-0.316163,0.301884,0.899393
-0.714331,-0.452178,0.066186,-0.755987,0.470218,0.455388
-0.273467,0.203443,0.547832,-0.148166,0.567537,-0.809907
-0.321505,-0.073647,0.954063,0.183945,-0.479324,0.858145
0.183316,-0.705727,0.462251,-0.654929,0.475531,0.587315
-0.899541,-0.485558,0.539078,-0.581969,0.813070,-0.015129
0.089660,0.426072,0.705556,0.758552,0.510282,-0.405230
-0.233248,0.629234,0.636727,0.913328,-0.020698,-0.406697
-0.107893,-0.555025,0.515026,-0.266555,-0.656730,0.705446
0.077422,0.032186,0.638573,0.848158,0.528975,0.028511
0.218942,0.637843,0.846807,0.433897,-0.179811,0.882837
-0.622743,-0.161876,0.085301,-0.440129,0.645567,-0.624123
0.091448,0.449438,0.774231,-0.114444,-0.975143,0.189735
0.541043,0.018553,0.371481,-0.489587,-0.833196,0.257077
-0.422841,-0.349789,0.809833,0.820655,-0.537861,0.192954
0.359900,-0.210471,0.398107,-0.132357,-0.971908,-0.194620
0.235667,-0.027126,-0.978101,-0.145086,0.076262,0.986476
0.134893,0.955868,0.522829,-0.557659,-0.527434,-0.640960
-0.437147,0.147716,0.278531,0.366708,-0.381767,0.848398
0.161051,0.687913,0.776048,0.309106,0.726539,-0.613673
-0.379011,-0.301230,0.627763,0.749751,-0.471179,-0.464611
-0.206915,0.894167,0.554390,0.151614,0.401475,0.903234
-0.138084,0.647013,0.748682,0.538687,-0.582206,-0.608977
0.505102,-0.056360,0.709248,-0.825947,0.386196,0.410688
-0.368070,-0.604638,0.512299,0.856910,0.144722,0.494733
-0.038746,-0.226880,0.834067,0.983575,0.178747,0.025078
0.265262,-0.307765,-0.006838,0.733646,-0.065030,-0.676413
0.475683,0.614266,0.867713,0.616775,0.756603,-0.217120
-0.122655,-0.055130,0.162520,0.496666,0.176833,-0.849737
-0.059925,-0.491356,0.544602,0.066615,-0.479436,0.875045
0.327992,-0.137386,0.780258,-0.119382,0.985633,-0.119478
0.353729,-0.177723,0.403854,0.430485,0.256843,0.865283
-0.122831,0.204919,0.435402,0.822626,-0.277475,0.496280
-0.457239,-0.399086,0.332075,0.220170,0.254173,0.941765
-0.064588,0.118236,0.926095,0.972117,-0.109491,0.207364
-0.003857,0.231940,0.125981,0.104421,0.432856,0.895395
0.834321,0.430183,0.701277,0.204931,-0.825153,0.526428
-0.565378,-0.291146,0.376474,-0.386147,0.340133,0.857438
-0.608612,-0.283169,0.493015,0.065460,-0.689367,0.721449
0.309583,-0.017217,0.847128,-0.669171,0.100448,-0.736288
0.117956,-0.698840,0.612004,0.837013,0.508992,-0.200839
0.078789,-0.686788,0.613304,0.541846,0.260615,0.799051
0.320558,-0.088229,0.229489,0.311557,0.904067,-0.292567
-0.172938,-0.654287,0.296206,0.647989,0.753262,-0.112724
0.665381,0.611595,0.880871,0.255840,0.916994,-0.306052
-0.117606,-0.094624,0.614339,0.600326,-0.798787,-0.039345
-0.410919,-0.726388,0.028835,0.597814,0.801630,0.002815
-0.044426,-0.605552,0.769448,-0.405389,-0.386274,-0.828524
0.420456,0.113669,0.363748,0.111688,0.981032,0.158435
-0.593710,-0.128637,0.096796,0.665364,-0.636721,0.389714
-0.171991,0.537491,0.845702,0.914337,-0.310268,-0.260235
-0.129107,0.315495,0.768609,-0.064575,-0.980410,0.186082
-0.123321,0.097576,0.799891,0.932629,0.355700,0.060665
0.323504,-0.141567,0.938121,0.470816,0.487716,0.735163
-0.488867,-0.089529,0.757520,0.406863,-0.470476,0.783016
0.361409,-0.167006,0.894967,-0.287066,-0.428820,0.856567
-0.143308,-0.053795,0.718267,0.309907,0.949946,-0.039499
0.196501,0.554357,0.707080,-0.087866,-0.954872,0.283724
-0.185666,-0.163141,0.779195,0.909050,0.064001,0.411742
0.319612,0.046838,-0.133965,0.721942,-0.652557,0.230149
0.220940,0.278602,0.922977,0.322244,-0.274920,-0.905857
-0.109752,0.718869,0.788270,0.566822,0.818121,0.096910
-0.301028,-0.162298,0.831998,0.633945,-0.331620,0.698671
0.099232,0.489635,0.764134,0.015587,-0.158342,0.987261
-0.067253,0.553970,0.594356,0.930906,0.114400,-0.346882
