0.154975,-0.467925,-0.981410,-0.070718,-0.053949,0.996036
0.101206,-0.940758,-0.974471,-0.027291,-0.036741,0.998952
-0.145186,0.538131,0.748326,-0.243970,0.718245,-0.651616
0.362116,0.862258,0.897358,0.618203,0.381875,-0.687020
-0.178864,0.247987,0.407825,0.989062,0.058927,-0.135216
-0.539377,0.740143,0.243715,-0.418147,0.316662,0.851398
-0.516165,0.499668,0.463278,0.036145,-0.611643,0.790308
0.697560,0.323462,0.901353,0.049310,-0.673091,0.737914
-0.372078,0.032165,-0.505378,0.688690,0.710195,-0.146043
0.598125,-0.786420,-0.967195,-0.147592,-0.058018,0.987345
0.378659,-0.349990,0.215662,0.365830,0.659873,-0.656305
-0.488733,0.384639,0.445635,-0.513340,0.488997,-0.705240
-0.682537,0.669756,0.204643,-0.073786,-0.500732,0.862452
0.404236,-0.255193,-0.003144,0.669038,-0.323076,-0.669335
0.728621,0.201648,0.839045,0.704795,0.092034,0.703415
0.187558,-0.194801,0.501719,0.707766,0.117025,-0.696686
-0.280747,0.520928,0.479407,0.177130,0.329406,-0.927425
0.426606,-0.118055,0.325875,0.347488,-0.242423,0.905805
-0.777583,-0.449815,0.136257,-0.091519,-0.245845,0.964979
0.105258,0.187960,0.640068,0.922471,0.385043,-0.028071
0.676457,-0.419345,0.209143,0.079144,0.993825,0.077773
0.420527,0.761888,0.914959,0.209075,-0.002272,0.977897
0.322781,-0.927373,-0.966921,-0.068308,0.096588,0.992978
-0.179457,0.300201,0.739535,0.065256,-0.806752,0.587276
-0.148393,0.393665,0.153269,0.923989,0.073899,-0.375212
0.573393,-0.697377,-0.966543,-0.121478,0.102855,0.987251
-0.358657,-0.212065,-0.992345,-0.202366,0.072917,0.976592
-0.571368,-0.178085,0.447128,-0.404769,-0.143479,-0.903093
0.540389,0.231450,0.889198,0.896073,0.285120,-0.340235
-0.075462,-0.450844,-0.136972,0.219118,0.232440,-0.947607
0.334767,-0.675934,-0.973714,-0.329622,-0.120668,0.936370
0.026421,-0.421830,-0.975648,0.132266,-0.095258,-0.986626
-1.000000,-0.164698,-0.053508,-0.084712,-0.808173,0.582821
0.004811,-0.616269,-0.975985,-0.078841,-0.240164,0.967525
0.180129,-0.950814,-0.972873,0.146194,0.062045,-0.987308
0.454290,-0.195589,0.563208,-0.075940,-0.368854,0.926380
0.058494,0.273669,0.771478,-0.515806,0.856524,0.017618
0.419937,0.561330,0.965218,-0.694411,-0.176186,-0.697676
0.245208,0.499969,0.895633,0.741620,-0.480205,0.468405
0.643117,-0.322672,0.229415,0.347004,0.532934,-0.771732
-0.342619,-0.433945,0.157097,0.376277,0.729137,-0.571642
-0.152275,0.094677,0.310145,0.880791,0.330881,-0.338711
0.036716,0.372039,0.809352,-0.347622,0.894475,-0.281200
0.262091,0.335333,0.869032,0.871532,0.013451,-0.490155
0.027770,-0.380944,-0.974786,0.138796,-0.052745,-0.988915
0.075125,0.570053,0.917230,-0.573494,-0.521843,0.631494
-0.382292,0.630323,0.202435,0.672446,0.047338,0.738631
0.456655,0.208674,0.765338,-0.025119,-0.123073,0.992080
-0.400017,0.146164,0.187294,0.749963,0.611225,0.252903
-0.078587,0.604216,0.783528,0.621317,-0.392372,0.678239
-0.200052,0.450118,0.508532,0.397900,-0.183598,-0.898870
0.625389,-0.796110,-0.966606,-0.104764,-0.011455,0.994431
0.770996,0.194500,0.821359,-0.339674,0.940499,0.009143
-0.219972,0.059059,0.067240,0.940607,0.117164,-0.318638
-0.292310,-0.353079,0.254356,0.724125,-0.081817,-0.684799
-0.215920,-0.071779,-0.987572,-0.320686,0.176428,0.930609
0.390900,0.756617,0.878957,0.489009,0.780103,-0.390270
0.005570,0.231692,-0.007350,0.496227,-0.866254,-0.057982
-0.172618,-0.174693,-0.230803,0.941391,-0.308555,0.136295
0.694015,0.256951,0.743173,0.137593,-0.823068,0.551024
0.739680,0.373797,0.854522,0.018478,0.913743,0.405873
-0.206383,-0.071476,0.558455,0.200906,0.404766,0.892077
-0.155230,0.567630,0.860284,0.152983,0.984692,0.083534
-0.074787,-0.024955,0.522348,0.736040,-0.657158,0.162448
-0.266903,-0.421891,-0.987677,-0.120285,0.108603,0.986781
0.158689,-0.733174,-0.979707,-0.199765,-0.041977,0.978944
0.020004,-0.403718,-0.979581,-0.115736,0.153950,0.981277
-0.087788,0.630384,0.899082,-0.458732,-0.625942,0.630684
-0.111085,-0.561450,0.173247,-0.469502,-0.122653,-0.874371
0.551445,-0.334482,0.514063,0.340361,0.940277,-0.005784
0.336962,-0.122357,0.559780,-0.199810,-0.243476,0.949102
-0.076899,0.398146,0.819782,0.808019,0.232300,0.541425
0.474127,0.768368,0.885224,0.788234,-0.608494,0.091771
-0.387271,0.588285,0.512023,0.843942,0.066305,0.532321
-0.053684,0.019323,0.314772,0.106189,-0.909480,0.401959
-0.082806,-0.000545,0.319356,-0.266523,0.898124,-0.349769
0.796658,0.429706,0.827857,-0.408602,0.813668,0.413508
-0.238037,0.487130,0.505504,0.957892,0.164464,-0.235359
-0.382292,0.002969,0.606801,-0.577886,0.540861,-0.611161
-0.172872,-0.131868,-0.695480,-0.564202,-0.798965,0.208160
-0.021609,-0.023502,0.455308,-0.726473,0.645916,0.234581
0.102641,-0.298564,-0.980443,-0.067089,0.051725,0.996405
-0.200389,-0.059057,0.136362,-0.762976,0.640453,0.087685
-0.696210,-0.029196,0.204559,0.648037,0.211738,-0.731584
-0.215500,0.491551,0.470049,0.893324,-0.116471,0.434058
0.484931,0.672603,0.902068,0.765003,-0.450299,0.460435
-0.252470,0.003634,-0.984354,0.013694,-0.064097,0.997850
-0.022876,0.508208,0.858517,0.738697,0.423700,-0.524218
-0.552208,-0.056998,-0.040155,-0.140141,0.345165,-0.928020
-0.172787,0.638804,0.193182,0.682595,0.479319,-0.551650
0.078921,0.197468,0.611406,0.711291,0.302738,-0.634362
0.011562,-0.480828,-0.979392,0.260175,-0.035353,-0.964914
-0.180299,0.580775,0.850064,-0.282695,0.955098,0.088723
-0.360344,0.831245,0.258688,-0.334902,0.279046,-0.899986
0.123828,-0.389726,0.173226,-0.609311,0.144301,0.779690
0.466783,0.424921,0.891280,0.759932,0.498881,-0.416678
-0.400694,-0.405112,0.240792,0.823407,-0.180699,-0.537912
0.418080,0.876007,0.875740,-0.193623,0.620903,-0.759598
-0.323036,-0.234295,0.388163,0.606917,0.103018,0.788060
0.021354,0.293356,0.716761,0.245112,0.238139,-0.939792
0.573900,0.331518,0.906989,-0.165036,-0.369711,0.914372
-0.253652,0.257012,0.543167,-0.827113,0.389363,-0.405315
-0.150503,-0.336302,-0.984207,-0.175926,0.003621,0.984397
0.477587,-0.767640,-0.968078,0.128375,0.045663,0.990674
0.455472,0.707553,0.925284,0.708154,-0.449987,0.544086
-0.326413,0.183235,0.095461,-0.118821,-0.506039,0.854287
-0.293492,-0.396934,-0.382443,-0.284081,-0.415906,0.863898
0.015024,0.270460,0.508701,0.435337,0.531523,-0.726612
-0.785684,-0.060331,-0.026864,-0.490959,0.595132,-0.636221
0.329028,0.551154,0.947238,0.010203,-0.981299,0.192221
0.438254,0.528803,0.902005,-0.202015,-0.323048,0.924570
-0.261754,-0.370161,-0.983114,-0.171442,-0.001253,0.985193
0.787371,0.426373,0.827605,0.437939,0.734708,0.518086
0.361104,0.428978,0.974976,-0.559438,0.718024,0.414089
0.096987,-0.854926,-0.976868,-0.036895,0.154115,0.987364
0.231028,-0.624447,0.216588,0.608060,-0.342051,-0.716424
0.076812,-0.269004,0.297549,0.160757,-0.342526,0.925653
0.324301,0.008300,0.430010,0.964712,0.064717,-0.255231
0.341436,0.181235,0.758609,0.283031,0.713682,-0.640743
-0.020429,0.541826,0.251243,0.769119,-0.005158,-0.639084
-0.370390,0.185475,0.102905,0.103049,-0.181025,0.978065
0.211360,0.556062,0.928712,0.634725,0.682273,-0.362805
-0.140374,0.464474,0.774570,0.473994,0.863800,-0.170821
-0.046933,0.607608,0.907809,0.327633,0.457651,0.826566
-0.192707,-0.120601,-0.302112,0.996923,-0.016855,-0.076555
-0.153120,-0.176085,0.231792,0.957231,-0.276957,-0.083681
0.189330,0.395482,0.752342,0.719969,-0.674360,-0.163960
-0.182579,-0.041977,0.075441,0.938480,0.330594,0.099809
-0.395375,0.509238,0.469019,0.160064,-0.686999,0.708810
-0.114460,0.715912,0.882722,-0.542305,-0.836469,0.078897
0.563686,0.216791,0.881229,-0.565529,0.466705,0.679973
0.121886,-0.708099,-0.978361,-0.053198,0.016306,0.998451
0.083818,0.102975,0.389614,-0.400098,0.568950,-0.718483
-0.185196,-0.371797,-0.982588,-0.072512,0.060494,0.995531
-0.973751,-0.142467,-0.056473,-0.034173,0.986242,-0.161738
0.353590,0.385548,0.889535,0.149926,-0.674566,0.722830
-0.714950,-0.153189,-0.048587,0.475187,0.306858,0.824643
-0.583102,-0.167241,-0.041122,-0.376214,-0.030978,0.926015
0.465519,0.263735,0.871808,0.808769,0.467166,-0.357280
0.069805,0.257073,0.676112,0.500696,-0.730513,0.464386
-0.282181,-0.080985,0.380782,0.366959,-0.765913,0.527938
0.083226,0.284391,-0.008191,0.899631,-0.431523,0.066727
-0.053684,0.553819,0.521865,0.462689,0.350246,-0.814400
0.505611,-0.641104,0.247311,0.496692,-0.184019,-0.848194
0.023296,0.047672,0.483613,0.906800,-0.098160,-0.409974
0.301679,-0.809254,-0.973272,0.142633,-0.033504,-0.989208
-0.243691,-0.447998,-0.989212,-0.174724,0.145878,0.973751
-0.044063,0.676601,0.886296,0.590871,0.109166,-0.799346
0.079344,0.317282,0.738505,0.590094,0.354899,-0.725145
0.645901,-0.268338,0.261253,0.387233,0.773569,-0.501639
0.163246,-0.847416,-0.973314,0.010389,-0.025398,0.999623
0.511943,0.709674,0.842535,0.501425,0.863988,-0.045808
-0.188993,-0.234295,-0.320155,0.693197,0.549831,-0.466008
0.007005,0.060453,0.507860,0.968063,-0.139906,-0.208039
-0.474805,0.067237,-0.023395,0.151294,-0.628049,0.763325
0.334937,-0.833060,-0.973104,-0.054637,0.082189,0.995118
-0.186798,0.629535,0.532905,-0.195452,-0.854920,0.480532
-0.346333,-0.372220,-0.989654,-0.139245,0.020861,0.990038
0.089472,0.718639,0.261800,-0.179453,-0.360748,0.915236
0.009623,0.358835,0.767462,0.060592,-0.902909,0.425540
0.158774,-0.449512,0.185507,-0.504738,0.149670,0.850199
0.089388,0.629597,0.889724,0.505030,0.641805,-0.577089
-0.067106,0.056576,0.395144,0.321302,0.927889,-0.189175
-0.574323,-0.072990,-0.037505,0.072496,-0.600993,0.795960
0.476070,-0.275061,0.281062,-0.055590,0.887580,-0.457288
0.483919,-0.733962,-0.967994,0.062912,-0.031595,0.997519
-0.530853,-0.085528,0.165004,0.223427,-0.876917,0.425556
0.045158,-0.858683,-0.977604,-0.144819,-0.056294,0.987855
-0.004138,-0.175600,-0.982756,0.069482,0.078364,0.994501
0.360682,-0.635046,0.233810,-0.077693,0.187628,0.979163
-0.084916,-0.549760,-0.977247,-0.134368,-0.088319,0.986988
-0.150418,-0.149312,-0.501193,0.924248,-0.369788,-0.094984
0.674430,0.023805,0.321459,0.289129,-0.313994,0.904330
0.037562,-0.907140,-0.977121,-0.205185,-0.011589,0.978655
-0.254157,-0.180144,-0.985385,0.207411,-0.179976,-0.961556
0.603696,-0.687988,-0.966480,-0.070249,0.050981,0.996226
-0.089390,-0.495426,-0.980443,-0.077785,0.056096,0.995391
0.099771,0.540251,0.940194,-0.702954,0.698408,0.134468
0.423734,0.821614,0.916410,-0.327381,0.157107,0.931740
0.407021,0.155492,0.839738,-0.409765,0.429690,-0.804649
0.227145,0.440609,0.880955,0.869771,-0.444063,0.215187
0.296192,0.153856,0.841862,0.488782,0.759991,-0.428376
-0.423736,0.985282,0.281988,-0.275740,0.462080,0.842882
-0.184184,-0.164759,-0.700380,-0.182905,-0.909616,0.373020
0.015362,0.534376,0.261379,0.807315,-0.059645,-0.587099
0.655860,-0.511417,-0.017759,-0.083376,0.032791,0.995979
-0.162911,-0.010235,0.227397,-0.575093,0.813640,0.085187
0.486114,0.812769,0.891259,0.875387,-0.387383,0.289193
0.520469,-0.155309,0.478987,0.887786,-0.460176,0.008609
0.067948,0.628687,0.897925,-0.332412,-0.870826,0.362167
-0.470331,-0.072929,0.227607,0.864181,0.101670,-0.492803
-0.367351,0.207948,0.444815,0.938542,0.208912,-0.274763
-0.221239,-0.150342,0.223275,0.738785,0.428770,-0.519955
0.074110,0.372100,0.789690,0.531395,-0.747642,0.398310
0.063728,0.078685,0.550674,0.883286,-0.468585,0.015277
-0.052672,-0.737354,-0.978193,-0.048438,0.012081,0.998753
-0.203681,0.717670,0.889766,0.637292,0.714157,0.289550
0.255507,-0.569083,0.206010,0.930423,-0.366487,-0.000258
0.226386,0.435400,0.894498,-0.599492,0.794324,0.098275
0.063053,0.414260,0.854942,0.801012,0.450354,-0.394413
0.169663,-0.939789,-0.972494,-0.083879,0.064317,0.994398
0.322949,-0.117390,0.397500,0.941060,-0.337865,-0.015935
-0.225966,0.507966,0.476421,-0.041774,-0.762895,0.645171
-0.210013,-0.163727,-0.266153,0.995644,0.062379,0.069290
-0.056724,-0.416197,-0.979770,-0.027394,-0.183708,0.982599
0.458427,0.397420,0.949131,0.947553,0.286655,0.141322
-0.147296,-0.137258,-0.985448,0.014981,-0.002576,0.999884
-0.549846,-0.308133,-0.388037,-0.333081,0.535329,-0.776195
-0.024311,-0.221757,0.367449,-0.450392,0.470243,-0.758959
0.462142,-0.494638,-0.011114,0.306917,0.281365,0.909195
-0.383726,-0.151553,-0.359143,0.212972,-0.221585,0.951600
-0.069638,0.558363,0.769502,-0.429885,0.783596,-0.448527
0.202159,0.534496,0.912583,-0.084004,-0.730361,0.677877
0.411158,-0.838511,-0.963725,-0.125327,0.148168,0.980989
0.008608,0.076322,0.525461,0.972037,0.033254,0.232461
0.104246,0.627114,0.909218,0.780309,0.104630,-0.616579
-0.028615,-0.192683,0.297234,-0.090071,0.234384,0.967962
-0.294845,0.058756,0.140694,0.767388,0.347570,0.538805
-0.050730,0.210431,0.053172,-0.703569,0.646050,-0.295991
-0.199629,0.731601,0.201110,0.503093,0.538355,-0.676070
0.413522,-0.273789,0.499742,-0.436422,0.304396,-0.846687
0.623194,-0.734690,-0.968583,0.149248,-0.169901,-0.974094
-0.406096,-0.438487,0.140126,0.081291,0.714447,0.694951
0.764244,0.130354,0.863795,-0.194192,0.749162,0.633282
-0.740947,-0.184383,-0.387847,-0.672898,-0.614148,0.412347
0.253565,-0.822399,-0.973819,-0.293776,-0.048769,0.954629
0.151092,-0.452420,0.178799,-0.519069,0.175592,0.836501
0.157844,0.300928,0.855952,0.816161,-0.413378,-0.403731
-0.487636,-0.300320,0.425447,0.606503,0.210132,0.766811
0.323119,0.437640,0.973209,0.947970,-0.173450,-0.266961
-0.047945,-0.605488,-0.979055,0.060997,0.064359,0.996061
0.380012,0.232602,0.653380,0.667669,0.624574,0.405123
0.106271,0.639227,0.287203,0.906498,-0.417518,0.062777
-0.114545,0.632867,0.222392,0.908625,-0.263935,-0.323633
0.156157,0.189897,0.605392,0.258077,0.392906,-0.882622
0.504684,-0.715548,-0.964146,0.106036,-0.098545,0.989467
0.414872,0.364408,0.732932,0.933494,-0.344613,-0.099148
-0.159704,-0.149312,-0.234799,0.988557,-0.126074,-0.082825
0.420782,0.893694,0.899482,0.086363,0.996037,-0.021270
0.295770,-0.833544,-0.970644,-0.141277,-0.024051,0.989678
-0.040179,-0.088678,0.530781,0.089716,0.712375,0.696040
-0.076139,-0.549941,0.169504,-0.247231,0.216423,0.944478
0.332742,0.476711,0.722060,-0.080315,-0.710136,0.699469
-0.129993,0.547157,0.871513,-0.182986,0.563049,-0.805911
0.086435,0.428494,0.896075,-0.196386,0.951871,0.235315
-0.093275,-0.271608,-0.735435,0.485577,0.567997,-0.664525
0.182661,0.231027,0.724332,-0.008136,-0.675972,0.736882
-0.434373,0.593132,0.527248,0.892285,-0.363673,0.267525
0.278972,0.556727,0.930626,-0.313592,-0.947345,-0.064794
0.245546,0.309529,0.780605,0.603518,0.406388,-0.686014
-0.205961,-0.443515,-0.383263,-0.440926,-0.436620,0.784186
0.355280,-0.816706,0.265522,-0.487101,0.588233,0.645534
-0.107033,0.543582,0.850568,0.211675,0.731113,0.648589
0.461129,0.313648,0.875466,0.837482,-0.480377,-0.260503
-0.313753,-0.247802,-0.993039,0.204210,-0.156318,-0.966366
0.090318,0.320554,0.780584,0.830145,-0.105476,0.547479
-0.423399,-0.760252,-0.417793,0.944741,-0.318187,0.078879
0.364564,-0.649282,0.232591,-0.152920,0.257129,0.954201
-0.102474,-0.432612,-0.982651,0.190310,0.005350,-0.981710
-0.147803,-0.392937,-0.983450,-0.063002,-0.009799,0.997965
0.462731,0.839846,0.872417,-0.653530,-0.324963,0.683592
0.336625,0.434855,0.933906,-0.010144,-0.975515,0.219697
0.595763,-0.701011,-0.968499,-0.059372,-0.138474,0.988585
-0.134382,-0.132230,-0.190007,0.841705,-0.534786,0.074416
0.200386,0.292630,0.873217,-0.428761,-0.864235,0.263175
0.436060,0.747715,0.877717,0.151016,-0.983000,-0.104426
0.500042,0.619602,0.915716,0.472479,0.609424,-0.636684
0.399087,0.737355,0.862597,0.219790,0.965805,-0.137527
0.326748,-0.709309,-0.974702,-0.139553,0.047088,0.989094
0.522579,-0.764248,-0.969319,-0.072246,0.059618,0.995603
-0.140459,-0.027438,0.144563,0.982906,-0.168025,-0.075261
0.050897,-0.488338,-0.975165,0.104803,0.142584,-0.984218
-0.544104,-0.313041,-0.368627,-0.359514,0.684163,-0.634564
0.049800,-0.333817,-0.974492,-0.055968,0.061078,0.996563
0.031315,0.133988,0.580325,0.337242,0.598345,-0.726809
0.525701,0.701011,0.912204,-0.009931,-0.988017,0.154024
-0.597115,0.300928,0.445404,0.022483,-0.493454,0.869481
-0.262851,0.498940,0.480943,-0.080300,-0.527544,0.845724
0.580904,0.298504,0.880366,0.805177,0.128590,0.578925
0.267745,0.239386,0.780016,-0.605837,0.792821,-0.066301
0.093777,0.264099,0.683052,0.922514,0.383651,0.042189
0.131677,0.320312,0.772383,-0.537227,0.017573,-0.843255
0.241664,0.524988,0.877149,0.293895,-0.144676,-0.944825
-0.129655,-0.384820,-0.984375,-0.085709,0.028364,0.995916
0.432598,0.605126,0.900554,0.975844,-0.197295,-0.093820
0.794040,-0.038220,-0.066041,0.263315,-0.494944,0.828068
0.527473,-0.794535,-0.967657,-0.112338,-0.161601,-0.980441
-0.025241,0.701739,0.235198,0.658601,-0.214001,-0.721421
-0.366591,-0.254528,-0.994070,0.155143,-0.063212,-0.985868
-0.290793,0.100855,0.403514,0.706959,0.632285,0.316897
0.395627,-0.400871,0.530529,0.343786,-0.039483,0.938218
-0.061281,-0.399841,0.146814,0.398850,-0.457621,-0.794671
0.593568,-0.762311,-0.966480,0.210209,0.016272,-0.977521
0.121549,0.527228,0.847330,0.963190,0.163403,0.213458
0.435300,0.402993,0.887790,0.328804,0.217548,-0.919000
0.033424,-0.761462,0.173373,-0.708684,0.510882,-0.486587
-0.735123,-0.635410,-0.328146,-0.708695,-0.147787,-0.689863
-0.766016,-0.152824,-0.050122,-0.608535,0.728110,-0.315501
-0.463409,0.536314,0.500415,-0.371632,0.866410,-0.333501
0.301764,-0.488703,-0.976216,-0.038600,-0.107324,0.993474
-0.139024,-0.215699,0.423849,-0.421638,-0.896895,0.133421
-0.124929,-0.112787,-0.987214,-0.086208,-0.044703,0.995274
0.099686,0.422135,0.815177,-0.477954,-0.329106,-0.814401
0.364734,0.124780,0.579127,0.855949,0.506180,0.105514
-0.625899,-0.103700,-0.041963,-0.296046,-0.240738,0.924339
0.521567,0.327338,0.888904,0.478239,-0.173063,-0.861009
-0.176080,-0.573869,0.237869,-0.136510,-0.056292,0.989038
0.430656,0.300989,0.944967,0.215584,0.129697,0.967834
-0.396472,-0.130777,0.405091,0.237673,0.710161,0.662709
0.360682,-0.647768,0.236376,-0.152920,0.257129,0.954201
-0.022791,-0.255012,-0.980548,0.103733,-0.001566,0.994604
0.362284,-0.686533,0.244977,-0.566800,0.053913,0.822089
0.264961,0.665699,0.905202,-0.325370,-0.303073,0.895702
0.246728,-0.463261,0.536543,-0.494464,0.540923,-0.680374
-0.055879,0.437217,0.806765,0.009154,0.759108,0.650901
-0.578037,-0.816948,-0.358218,0.844343,0.018023,0.535500
0.060606,-0.664667,0.171312,0.381893,0.898486,-0.216517
-0.149743,0.136653,0.300409,0.576240,0.248744,-0.778507
-0.734870,0.406688,0.435415,-0.112002,-0.154325,0.981651
0.465349,0.754741,0.844849,0.250881,-0.153204,0.955818
0.371655,0.875099,0.870819,-0.307600,0.660108,-0.685302
-0.098759,-0.318190,-0.980906,0.234681,0.024271,-0.971769
0.167891,0.677024,0.262010,0.528502,-0.738321,-0.419007
0.094537,-0.601793,-0.976910,0.026300,0.062235,0.997715
-0.011057,0.673936,0.239888,-0.677931,0.254176,0.689786
-0.427366,0.112667,0.202267,-0.156197,0.574165,0.803702
0.151598,0.455449,0.845332,0.400199,0.722683,-0.563533
0.086435,0.375250,0.791540,0.725530,-0.564894,0.393067
-0.369123,-0.450602,0.385135,0.704920,-0.061478,0.706618
0.743732,-0.326549,0.250003,-0.118126,-0.834650,0.537964
-0.003546,-0.089950,0.580241,-0.039153,-0.243183,0.969190
-0.062379,0.033619,0.341436,-0.418762,0.892514,0.167502
0.759517,-0.414742,0.471185,0.437763,0.101009,0.893399
0.050307,0.010359,0.496189,0.751012,0.536062,-0.385511
0.130243,0.330730,0.902068,0.341936,-0.112824,-0.932926
0.615850,0.193350,0.919102,-0.760488,-0.303741,-0.573934
0.604201,-0.690652,-0.968393,-0.045237,-0.132682,0.990126
-0.406096,0.222910,0.124018,0.637845,0.338357,0.691858
-0.557527,0.980435,0.265921,-0.466745,0.469122,0.749715
-0.081456,0.295234,0.766558,-0.664037,-0.572287,-0.481188
-0.175235,-0.331697,0.367449,-0.650200,0.316726,-0.690598
0.066935,0.647951,0.899124,-0.148665,-0.681086,0.716952
-0.148223,0.286995,0.418928,0.975877,-0.109243,0.189025
-0.054192,0.685567,0.938154,-0.026640,0.950396,0.309901
0.493035,0.339877,0.891154,-0.513941,-0.057127,-0.855921
-0.014772,0.318979,0.833829,0.353227,0.932483,-0.075537
0.040684,0.615363,0.808552,0.496975,0.644528,0.581033
0.080949,-0.638499,-0.977793,0.015206,-0.023666,0.999604
-0.305479,0.205647,0.310272,-0.552200,0.683089,-0.477980
0.417827,-0.875763,-0.968099,0.079108,0.203498,-0.975874
-0.123154,0.386940,0.853765,0.172521,-0.946931,0.271215
-0.247153,-0.511902,-0.394892,-0.199525,-0.360810,0.911047
0.339072,0.510268,0.943453,0.898213,-0.259252,-0.354968
0.336454,0.567872,0.896096,-0.031572,0.997443,-0.064118
0.238457,0.338544,0.665135,0.063402,-0.730621,0.679833
-0.329873,-0.054454,-0.563418,0.656844,0.746050,-0.109391
0.055962,-0.504876,0.157580,0.431253,-0.069654,-0.899538
-0.067446,0.013993,0.557803,0.758446,-0.639890,-0.123697
0.247911,0.397723,0.956912,0.800065,-0.395945,-0.450693
0.500209,-0.482767,-0.012649,0.230473,0.191074,0.954135
-0.356462,-0.232903,-0.786030,-0.708004,-0.349936,0.613412
-0.443741,-0.500877,0.190533,0.384182,-0.877469,0.287144
-0.187221,-0.445393,0.178862,0.151519,0.630419,0.761323
0.601587,0.153130,0.826911,0.300156,0.946400,-0.119304
-0.755805,-0.142891,-0.063896,-0.589154,0.681526,-0.434074
0.318644,-0.543702,-0.975859,0.011790,0.063048,0.997941
-0.123831,-0.174510,-0.854501,0.897721,-0.440337,0.014148
-0.280832,-0.292931,0.404944,0.882694,-0.399099,0.248134
0.596267,0.147072,0.798185,-0.134941,0.971423,0.195262
-0.521822,0.719669,0.245061,-0.185837,-0.081281,0.979213
-0.128558,-0.094010,-0.104209,-0.703178,0.682751,-0.198473
-0.050310,0.278878,0.073759,0.746197,-0.182855,0.640120
0.488898,-0.724876,-0.968246,0.037682,-0.120753,0.991967
0.702877,-0.597855,0.520098,-0.058603,0.036532,0.997613
0.123068,0.693380,0.928354,0.062012,-0.674494,0.735671
0.087615,-0.807195,-0.977878,-0.082347,-0.062569,0.994638
0.111167,0.179963,0.407636,-0.446115,0.830699,-0.333049
-0.027773,-0.645951,0.179955,0.529273,-0.159985,-0.833232
-0.176417,-0.006117,0.571682,-0.011034,-0.629410,0.776995
-0.035452,-0.034767,0.505588,0.597105,-0.800089,-0.057649
-0.416815,-0.127143,0.405806,0.180871,0.683826,0.706872
0.245461,-0.358471,0.198734,-0.563489,0.081740,0.822070
0.426184,0.320008,0.831095,0.164474,-0.957729,0.236017
0.200304,0.586529,0.925936,0.424706,0.148389,0.893088
-0.090910,-0.554666,0.156192,-0.561026,0.129216,-0.817651
-0.122394,-0.148222,-0.816291,0.959192,0.229923,0.164578
0.212457,-0.443031,-0.975627,0.062492,0.119441,0.990873
-0.097579,0.131747,0.581251,-0.041120,0.561709,0.826312
0.068033,0.552609,0.903183,0.063108,-0.575965,0.815035
0.427871,-0.639106,0.530087,0.292569,0.491260,0.820406
0.337807,0.835787,0.902173,0.813084,0.083648,-0.576105
-0.086098,0.661580,0.794211,0.035037,-0.642123,0.765800
0.000251,-0.736385,-0.977099,-0.039388,-0.027309,0.998851
-0.335022,-0.246714,-0.798774,0.715659,0.421890,-0.556633
-0.435048,0.464535,0.202856,0.090333,-0.218655,0.971612
0.668016,-0.790416,-0.966249,0.172733,-0.121257,-0.977476
0.527643,-0.684717,-0.971064,0.053547,0.058575,0.996846
0.588841,0.914411,0.896432,-0.365127,0.693292,-0.621312
0.199881,0.646193,0.966270,-0.590829,-0.395850,0.703010
-0.089983,-0.568841,-0.979980,0.188853,0.115426,-0.975198
0.163586,0.290267,0.766957,-0.338142,-0.535998,0.773541
-0.109903,-0.467683,0.184014,-0.315840,-0.199798,-0.927538
-0.096482,-0.093584,-0.980990,-0.164961,-0.054756,0.984779
-0.152192,-0.157549,-0.469671,0.740481,-0.670681,0.043298
-0.487043,0.701921,0.587812,-0.236314,-0.923515,0.302120
0.355700,0.045733,0.741933,-0.015891,0.895958,0.443855
0.216594,0.166152,0.818016,-0.012798,0.909652,0.415174
0.617202,0.149131,0.861398,-0.564603,-0.731251,-0.382748
-0.597875,-0.217457,-0.058113,0.608828,-0.355323,-0.709277
-0.364651,-0.218002,-0.355505,0.028972,-0.395913,0.917831
0.524774,-0.753345,-0.966101,0.014496,0.123394,0.992252
-0.582004,-0.756314,-0.351993,0.835499,0.112574,0.537837
0.161981,0.545098,0.918639,0.131324,0.802520,-0.581993
0.520552,0.747289,0.870756,0.711854,0.686387,0.148780
0.344473,-0.549154,0.527753,-0.175011,-0.172001,0.969426
-0.575168,0.322613,0.154952,0.638094,0.593298,-0.490748
-0.323121,-0.379853,-0.990074,-0.022136,-0.016404,0.999620
0.404826,-0.740929,-0.968730,0.240174,-0.037693,-0.969998
0.362706,-0.814464,-0.973546,-0.171206,0.037310,0.984529
0.458597,0.780787,0.870441,0.838860,0.395300,0.374235
0.378492,-0.881701,-0.969950,0.051696,-0.067436,0.996383
0.440617,-0.471317,0.515346,0.657389,-0.260320,0.707159
-0.366338,0.678357,0.551095,-0.048252,-0.835787,0.546929
-0.076559,0.652130,0.226829,0.781731,-0.179725,-0.597156
-0.262094,-0.374280,0.149526,-0.259927,0.743531,0.616117
-0.052842,0.189836,0.568002,0.151506,0.854279,0.497246
0.093862,0.763584,0.953168,0.083774,-0.933624,0.348322
-0.158944,0.531288,0.868296,0.392393,0.906519,0.155724
0.676372,0.167605,0.809225,-0.161774,0.964111,0.210521
0.153962,-0.632018,-0.978445,-0.086044,0.028464,0.995885
-0.858868,0.525291,0.137855,0.701250,0.531247,-0.475420
0.321514,-0.009631,0.690980,0.555125,0.809084,0.192922
0.026335,0.539282,0.777388,-0.636460,0.390697,0.665037
-0.003041,0.515053,0.786725,-0.755337,0.039015,0.654174
0.164428,0.750258,0.953505,0.283195,0.926629,0.247305
0.581244,0.201406,0.888378,0.660925,0.697999,-0.275636
0.013334,-0.596158,0.188093,-0.142115,-0.300165,0.943241
-0.147633,-0.194681,-0.799089,0.567734,-0.817942,0.093003
0.000589,0.642438,0.865520,0.286666,0.954959,-0.076662
0.247740,-0.801017,-0.976511,-0.337538,-0.040322,0.940448
0.131425,0.408202,0.808510,0.094023,0.366991,0.925461
-0.288598,-0.012417,0.583669,-0.427483,-0.874682,-0.228452
-0.330211,-0.131200,-0.989696,0.163260,0.078217,-0.983478
0.150417,0.302684,0.883226,-0.004356,-0.998442,0.055624
-0.224699,-0.245865,-0.665219,-0.343959,0.922531,-0.175012
0.432093,0.896481,0.876560,0.015290,-0.849059,0.528077
-0.132945,-0.112787,0.317085,0.985258,-0.068312,0.156846
0.407443,0.303895,0.888946,-0.289979,0.725997,-0.623571
-0.085001,0.612272,0.908861,0.580055,0.246287,0.776453
-0.629021,-0.532678,-0.350857,0.716558,0.198611,0.668654
0.340254,0.148586,0.839907,0.017147,0.110370,0.993743
0.567316,0.244231,0.904760,0.687178,0.119195,-0.716645
-0.189838,0.534800,0.507923,0.548014,0.372640,-0.748879
0.556512,0.210856,0.873111,0.500760,0.725327,-0.472378
-0.177767,-0.595554,-0.984165,-0.049826,0.065136,0.996632
-0.114715,-0.046640,0.157055,0.817458,-0.472523,-0.329370
-0.127038,0.565570,0.774128,-0.335747,0.937937,0.086882
0.311722,0.596341,0.874352,0.093252,0.481545,-0.871446
0.343884,-0.040583,0.522853,0.269798,-0.960693,0.065401
-0.077742,-0.367376,-0.980359,-0.304733,0.059386,0.950585
-0.756310,-0.324792,-0.384630,-0.493833,-0.812957,0.308593
0.348948,-0.764189,-0.972662,-0.269816,0.138311,0.952927
0.161644,0.405901,0.850505,-0.707316,0.261353,0.656810
-0.141556,-0.062329,0.352035,0.489857,-0.314382,-0.813144
-0.432938,-0.238536,-0.998759,0.094423,-0.128119,-0.987254
-0.420529,-0.273486,-0.991399,-0.063006,0.093287,0.993644
0.398834,0.421832,0.896853,0.208657,-0.656406,0.724979
-0.089898,-0.682535,0.145405,0.596572,0.229343,-0.769093
-0.003378,0.226603,0.024362,-0.455586,0.887450,-0.069813
-0.119862,0.152765,0.525124,0.615297,0.359831,-0.701379
-0.600152,-0.680053,-0.367449,0.897453,0.028575,0.440184
0.099686,-0.842933,-0.970707,-0.140732,0.011114,0.989985
-0.306408,-0.053486,0.452343,0.549364,0.563737,-0.616766
0.097744,0.306499,0.743720,0.967882,-0.055229,-0.245264
0.257869,0.227574,0.844764,0.858853,-0.361791,-0.362599
0.112855,-0.731298,-0.977184,0.018035,0.070875,0.997322
-0.290708,0.038525,0.152071,0.294679,-0.169454,0.940452
0.086855,-0.525106,0.520098,-0.008174,-0.733092,0.680080
-0.198869,-0.041128,0.087407,0.977872,0.190224,-0.087076
0.269855,0.172391,0.755791,-0.569468,-0.657756,0.493014
-0.590868,-0.771093,-0.366903,0.948848,-0.013390,0.315449
0.302861,0.278455,0.945241,-0.374032,-0.925997,-0.051275
0.126023,-0.976860,-0.975670,-0.151810,-0.063630,0.986359
-0.042206,0.496881,0.520267,-0.570014,-0.454429,0.684528
0.528318,0.885396,0.899923,0.286273,-0.568349,0.771380
0.307251,-0.944453,-0.967826,-0.138952,0.131075,0.981586
-0.262009,-0.304015,-0.981431,0.281727,-0.134783,-0.949981
-0.041954,-0.602881,-0.981516,-0.108383,-0.027349,0.993733
0.233645,0.341875,0.932140,0.764739,0.579060,-0.282602
0.367688,-0.238414,-0.014415,-0.027328,0.790828,0.611428
-0.425594,-0.061118,-0.341626,-0.045303,-0.106532,0.993277
-0.819532,-0.284027,-0.433880,0.630121,0.722196,-0.285272
0.195915,-0.660549,-0.975459,0.001373,0.005540,0.999984
0.532118,-0.867042,-0.966543,0.057802,0.104076,0.992888
0.316787,0.297475,0.940236,0.216819,0.948859,0.229471
0.141806,0.437398,0.885455,-0.500192,-0.842232,-0.201131
0.446441,-0.319946,0.224978,0.391564,-0.863781,0.317114
-0.195577,-0.447027,-0.383831,0.420599,0.356723,-0.834174
0.093610,-0.471016,-0.969487,-0.000023,-0.001731,0.999999
0.627668,-0.599188,0.002513,0.125646,0.400731,0.907540
0.106018,-0.269610,0.301650,0.333090,-0.006574,0.942872
-0.221069,0.241869,0.732343,0.529685,0.319518,0.785711
0.286063,0.126599,0.789900,-0.624311,0.148769,0.766879
0.441124,0.024412,0.787418,0.859605,0.469810,-0.200894
0.572465,0.303775,0.789711,-0.520900,0.767826,-0.372970
0.050222,0.583621,0.278118,-0.680697,0.071083,0.729108
0.403646,-0.592888,-0.973567,0.283578,-0.100869,-0.953629
-0.149743,0.075232,0.378469,0.830943,0.520448,-0.196639
0.493205,0.263977,0.881018,-0.541623,-0.342413,0.767723
0.216087,0.346357,0.937123,0.956000,-0.130832,-0.262578
-0.249093,0.209342,0.523799,-0.272264,0.849437,-0.452029
0.464759,0.325702,0.594394,0.336426,-0.589874,-0.734075
0.025406,0.437095,0.807143,-0.043586,0.538641,0.841407
0.059424,-0.609788,-0.977289,-0.068670,0.084580,0.994048
-0.320589,-0.111454,0.582891,0.325965,0.570549,0.753804
-0.284038,0.509844,0.474066,-0.415798,-0.220187,0.882400
-0.232717,0.484706,0.504516,0.981362,0.079041,-0.175162
0.223261,0.133080,0.717350,0.745508,0.546485,-0.381539
0.139949,0.128172,0.677900,0.735331,-0.585890,-0.340619
-0.499367,-0.268641,0.417687,0.785933,0.132129,0.604029
-0.060861,0.704707,0.533725,-0.500458,0.223440,-0.836431
0.232632,-0.730570,-0.975438,-0.019053,-0.005002,0.999806
0.141046,0.481192,0.696931,-0.296991,-0.404785,0.864838
-0.142991,-0.156459,-0.587412,0.943701,0.327643,-0.045579
0.163079,0.473258,0.831222,-0.739508,-0.618346,-0.266039
0.502826,0.266036,0.761406,0.577397,-0.634870,0.513374
0.343294,-0.617540,0.229121,0.771637,-0.412612,-0.484074
-0.338229,0.007936,-0.013595,-0.601397,-0.119667,0.789938
0.580314,0.252106,0.885329,0.910030,-0.024333,0.413828
-0.117922,-0.309407,0.125070,0.155430,-0.537940,-0.828530
0.209420,0.407779,0.835238,0.512706,0.789376,0.337665
0.377394,-0.873038,-0.966080,0.005391,0.158034,0.987419
0.409976,0.365984,0.740650,0.889215,-0.454368,-0.053354
0.608253,0.340422,0.896832,0.335082,0.490329,-0.804548
0.207983,0.468352,0.730199,-0.425091,-0.457565,-0.780982
0.233222,-0.177902,0.553135,-0.168658,0.511904,-0.842323
-0.098002,0.023502,0.377375,0.244015,0.969701,-0.011700
-0.124589,0.666303,0.205232,-0.693321,-0.025242,0.720187
0.180214,-0.480950,-0.974933,-0.020076,-0.092693,0.995492
0.534565,0.203950,0.883352,-0.293995,-0.928924,-0.225095
0.009875,-0.221394,-0.979875,-0.125499,-0.077293,0.989078
0.917448,0.355443,0.911048,0.550196,-0.728288,-0.408510
0.696292,-0.795444,-0.959225,-0.186924,-0.007277,0.982347
0.486789,0.316979,0.865730,0.565973,-0.721883,-0.398196
0.051235,0.435642,0.295530,0.901744,-0.217492,-0.373570
0.303199,0.484100,0.946061,-0.818141,0.500705,0.282738
0.208323,0.189777,0.835301,0.643337,0.723400,-0.250619
-0.520469,-0.412018,0.141809,0.118975,0.211671,-0.970072
0.556090,0.208613,0.893509,-0.114954,-0.992523,0.041024
0.347343,0.877340,0.879483,0.884868,-0.336610,0.322029
0.249345,-0.546852,-0.977415,0.005261,-0.048518,0.998808
0.239469,0.329517,0.876749,-0.688110,0.711924,0.140245
-0.182156,0.212188,0.521486,-0.241649,-0.749437,0.616401
0.364564,-0.849475,-0.972010,0.356969,-0.165705,-0.919301
0.020764,0.219518,0.017317,0.514722,-0.855564,0.055428
0.104161,-0.572051,-0.978508,-0.060325,-0.129407,0.989755
-0.109565,-0.340298,0.327137,0.918640,0.313684,0.240214
-0.334937,-0.271004,-0.348271,0.175439,0.400253,-0.899454
-0.176164,-0.220182,-0.338114,0.843577,0.504482,-0.184052
-0.325821,-0.091647,-0.061899,0.217701,0.410695,0.885402
0.491685,-0.724998,-0.967111,0.037682,-0.120753,0.991967
-0.152445,-0.084377,0.016686,-0.533933,-0.843542,-0.057910
0.355280,0.353990,0.759240,0.819113,-0.570947,-0.055442
0.662277,-0.321400,0.224242,0.342440,0.561906,-0.752992
-0.341777,0.022413,-0.080888,0.785055,-0.068018,-0.615680
0.678060,0.261615,0.875172,0.605340,-0.687075,-0.401861
-0.440027,-0.403052,0.404187,-0.608292,0.126777,-0.783523
0.572888,0.243322,0.799321,-0.620617,0.544946,0.563798
-0.372078,0.513782,0.462395,-0.226292,-0.388012,0.893442
-0.242846,-0.045792,0.583290,0.680083,-0.085261,0.728161
-0.204611,0.239142,0.114597,-0.697446,-0.423798,0.577897
0.141806,0.287541,0.899482,0.487080,0.783971,0.384893
0.533130,0.590829,0.835596,0.818424,-0.272213,0.506046
0.259052,-0.696710,-0.974660,0.196238,0.029306,-0.980118
-0.114037,-0.031194,0.557383,0.720736,-0.373125,0.584225
-0.551448,-0.337754,-0.370183,-0.333568,0.442945,-0.832185
-0.136829,-0.331878,-0.984628,-0.261638,-0.057747,0.963437
0.589938,0.344115,0.829560,-0.647318,0.731306,-0.214872
0.280744,0.136472,0.731965,-0.868459,0.278786,0.409949
0.233475,0.372343,0.932813,0.893293,-0.443210,-0.074778
-0.185956,-0.020110,0.061163,0.991566,0.126097,0.029948
0.420527,0.426557,0.888252,0.777278,-0.202459,0.595692
0.038151,0.557938,0.854732,0.055978,-0.997887,0.032972
-0.198279,-0.242897,-0.954178,-0.690187,0.716444,-0.101736
0.244363,0.583501,0.909891,0.867354,-0.241873,0.434966
0.123321,0.176086,0.527353,0.873590,-0.316349,0.369816
-0.533048,0.750501,0.227523,-0.660711,-0.518036,0.543231
0.466616,-0.412199,0.508911,0.830967,0.229058,0.506978
-0.002956,0.419044,0.727885,0.928824,0.369469,-0.027915
0.537097,-0.433158,-0.030019,0.065137,0.043858,0.996912
0.161559,0.668726,0.286362,0.904216,-0.385272,0.184282
0.277622,0.802350,0.888799,0.960685,-0.268362,-0.071173
0.456317,0.588346,0.872712,-0.312122,-0.930526,-0.191575
-0.131510,-0.588890,-0.984060,-0.130732,0.091768,0.987161
0.371485,0.215640,0.887516,0.751105,-0.014328,-0.660028
0.728284,-0.349809,0.466327,0.202849,-0.136874,0.969597
-0.773361,0.324188,0.392221,-0.400156,0.615594,-0.678910
-0.255847,0.610638,0.495263,-0.557145,-0.464241,0.688527
0.723812,0.137138,0.880766,-0.441660,-0.790588,0.424155
-0.269098,0.572839,0.867118,0.907130,-0.418928,-0.040186
0.125938,0.239445,0.669425,0.825387,0.554307,0.107146
0.117497,-0.595432,0.033047,0.230724,-0.124177,0.965063
-0.148815,-0.159609,-0.544366,0.846013,-0.518425,0.124489
0.618382,-0.566114,0.510299,-0.114417,0.133449,0.984429
-0.167471,-0.380156,-0.984102,0.136274,0.040190,-0.989856
0.719167,-0.762189,-0.962400,-0.208649,-0.003927,0.977983
-0.083651,0.044038,0.324719,-0.309678,0.917298,-0.250326
0.084578,-0.290992,-0.976595,0.098761,0.080218,0.991873
0.495060,-0.376339,0.513012,0.858917,-0.408220,-0.309222
-0.167553,0.100189,0.381812,0.809646,-0.137445,-0.570599
0.005655,0.524200,0.857907,0.111789,-0.991796,-0.061999
-0.726851,0.156279,0.382674,-0.562136,-0.226194,0.795512
0.299314,0.048641,0.787145,0.830289,0.451265,-0.327079
-0.187391,0.617180,0.507733,0.735723,0.330220,-0.591326
0.529668,-0.721968,-0.970307,0.046570,0.036671,0.998242
0.557525,0.690473,0.833261,0.936992,0.185420,0.296083
-0.044568,0.647648,0.887474,-0.662754,0.747892,-0.037600
0.121381,-0.534556,0.521066,-0.015443,-0.637193,0.770550
0.025743,0.554062,0.938448,-0.619838,-0.294619,0.727324
0.035197,-0.660850,-0.979329,-0.069944,0.266290,0.961352
-0.248671,-0.455024,-0.985427,-0.133314,0.181613,0.974292
-0.140459,0.387243,0.508995,-0.203204,0.165158,0.965107
-0.192370,-0.114604,-0.093358,0.569715,-0.809428,0.142310
0.184181,0.709735,0.970581,-0.352255,0.200619,0.914149
-0.257535,0.843783,0.250255,-0.410986,0.618958,-0.669314
0.441039,-0.632382,0.546027,0.159412,0.313526,0.936103
-0.217777,-0.190380,-0.753625,-0.321015,-0.661327,-0.677935
0.435975,-0.747774,-0.966879,0.107321,-0.023327,-0.993951
0.235669,0.524745,0.904886,-0.361858,0.889248,-0.279817
0.258629,0.476347,0.665703,0.678983,0.335600,0.652959
-0.143496,0.508573,0.830507,-0.641648,-0.739898,0.202086
-0.101461,-0.555091,0.164898,-0.469502,-0.122653,-0.874371
-0.175235,0.498517,0.746202,-0.414586,0.469984,-0.779252
-0.430573,0.619542,0.517995,0.815675,-0.510879,0.271436
-0.036467,-0.432551,0.031091,-0.216669,-0.362988,0.906253
0.172532,0.440125,0.835427,-0.192408,-0.410172,0.891481
0.449395,-0.913743,-0.966185,-0.169265,0.042938,0.984635
-0.060269,0.592162,0.817321,-0.434851,0.595376,-0.675598
-0.312400,-0.183414,-0.987277,0.302906,-0.051864,-0.951608
0.054359,-0.965351,-0.977499,-0.092929,-0.001765,0.995671
0.381109,-0.748075,-0.971821,0.211114,-0.159770,-0.964316
-0.190850,-0.159792,-0.024530,0.965755,-0.190941,-0.175666
0.172870,0.374766,0.784369,0.277269,-0.754407,0.594973
0.077824,0.573567,0.909008,0.893247,-0.357958,0.271987
-0.577533,0.510994,0.211141,-0.046456,-0.140878,0.988936
-0.227823,-0.413410,-0.985679,-0.127576,-0.028787,0.991411
0.297204,-0.434672,0.528384,0.569497,-0.535120,0.623955
-0.550606,-0.141499,0.363454,0.587256,-0.502112,-0.634834
0.423059,-0.081046,0.558581,-0.543647,-0.009845,0.839256
-0.277032,0.590709,0.197472,0.572656,0.242773,0.783024
-0.016207,0.355262,0.831937,-0.004223,-0.854294,0.519773
0.147293,0.278394,0.630101,0.003317,-0.986705,0.162486
0.436902,-0.688776,0.214169,0.941311,-0.164155,-0.294934
-0.195915,-0.076805,-0.069953,-0.430588,0.824751,-0.366579
-0.501309,-0.312132,-0.383768,0.097479,-0.710422,0.696992
0.565544,-0.496637,-0.020661,-0.204404,-0.183669,-0.961501
0.599815,0.580653,0.823672,0.204948,0.682211,0.701843
-0.118934,0.594465,0.536543,-0.092134,-0.668408,0.738066
0.354942,-0.134047,-0.005730,0.264054,-0.289252,0.920113
0.169663,-0.597310,0.197683,0.731363,0.307311,-0.608825
-0.408291,0.987461,0.281168,0.276877,0.559375,-0.781306
0.831011,0.362288,0.878305,0.286427,-0.887614,-0.360696
0.802649,0.346781,0.900386,-0.189385,0.952758,0.237455
-0.199124,-0.384578,0.356157,-0.666634,0.209555,-0.715322
0.175824,0.203042,0.604004,-0.058081,-0.455062,0.888564
0.589601,0.386214,0.880556,0.770947,0.467243,0.432811
0.316957,-0.569144,0.224642,-0.483879,0.308318,0.819024
-0.141809,-0.058634,-0.985196,-0.146881,-0.003543,0.989148
-0.082301,0.625417,0.859779,0.964157,-0.026073,0.264049
0.434455,0.922043,0.922572,-0.013770,-0.995253,0.096343
0.343209,0.743110,0.853786,-0.445429,-0.894542,0.037261
-0.434880,-0.256162,-0.995983,-0.030982,0.085030,0.995897
-0.434625,-0.779574,-0.440714,-0.771712,0.084350,-0.630354
0.157929,-0.780059,-0.977457,0.102042,-0.159107,-0.981974
0.552798,-0.430431,0.519657,-0.142207,-0.133783,0.980754
0.282096,0.292689,0.934684,0.404465,0.892699,-0.198737
0.023803,-0.561208,-0.979665,0.035867,-0.096411,0.994695
0.228580,0.191291,0.398614,0.200691,-0.264124,0.943378
0.240059,-0.534495,-0.976216,0.030868,-0.121531,0.992108
-0.127880,0.155492,0.528720,-0.494775,-0.863718,0.095856
-0.173800,0.556243,0.882869,-0.178933,-0.877007,0.445917
0.487633,-0.679629,-0.970496,0.028993,0.078796,0.996469
0.370810,-0.297473,0.510846,-0.159147,0.811496,0.562269
-0.052587,0.915320,0.335380,0.584581,-0.096791,-0.805541
0.194225,0.075777,0.727507,0.787960,-0.472468,-0.394834
0.686249,0.160579,0.926293,0.783613,0.608911,0.123200
-0.229426,0.925313,0.285499,0.863052,0.203499,-0.462310
0.536507,0.491732,0.874205,-0.418566,-0.015593,-0.908053
0.434285,-0.783027,-0.968372,-0.187600,-0.015487,0.982123
-0.666921,0.312012,0.134953,-0.436270,-0.463954,0.770983
0.536927,0.415955,0.829560,0.279484,-0.387718,0.878387
0.434285,-0.062813,0.331952,0.157918,-0.311520,0.937026
-0.142906,-0.200436,-0.933801,0.842529,-0.535666,0.056634
-0.752851,0.850325,0.266027,0.743117,0.476784,-0.469525
0.116232,-0.819128,-0.977394,0.182494,0.066923,-0.980927
0.103738,0.433461,0.811391,0.582508,0.017843,0.812629
-0.069555,0.424375,0.806849,0.870426,-0.363465,-0.332043
-0.129570,0.491610,0.802643,0.824311,0.509400,-0.247029
0.023128,-0.443576,-0.979160,0.214983,-0.038449,-0.975861
0.179284,-0.234841,0.554817,0.896563,0.050372,0.440043
-0.237782,0.649526,0.519762,0.309928,0.816104,-0.487769
0.371823,-0.593737,-0.974345,0.165949,-0.086934,-0.982295
-0.065671,0.591254,0.528783,0.603058,0.734290,-0.311672
0.199544,0.037616,0.344612,-0.066342,-0.620217,0.781620
-0.056809,0.178933,0.328483,0.955458,0.080783,-0.283855
-0.015194,0.584832,0.896853,-0.832685,0.377990,-0.404672
0.126783,0.463627,0.924548,0.752893,-0.323938,0.572901
0.396639,0.539160,0.874037,0.879787,-0.196699,0.432763
0.049295,0.440609,0.898620,0.381103,0.643486,0.663842
0.533972,0.407657,0.875866,0.512316,0.246503,0.822659
-0.586479,0.109032,0.375672,0.419884,0.510689,-0.750262
0.008608,0.102794,0.508532,0.955671,0.275906,0.102802
-0.019417,0.595737,0.769754,0.063174,-0.541528,0.838306
0.651893,0.632928,0.810529,0.044539,0.661299,0.748799
0.468978,0.743352,0.929532,0.252260,-0.761587,-0.596951
0.115387,-0.171543,-0.006908,0.317489,0.668934,0.672107
0.533890,-0.307710,0.489249,0.144958,0.619567,0.771443
-0.161899,-0.072929,0.447065,0.750016,-0.558987,-0.353567
-0.347768,-0.033980,0.558750,0.826858,0.561002,-0.039789
0.716297,-0.743049,-0.964167,-0.207973,0.044685,0.977113
-0.140036,-0.068932,0.549055,-0.696997,0.703212,-0.140316
0.303621,0.151978,0.750681,0.627092,0.753656,-0.196872
0.603359,-0.807559,-0.968036,-0.211559,0.100364,0.972198
-0.378662,0.634502,0.538814,-0.533731,0.671596,-0.513896
0.112770,0.326367,0.762836,0.988861,0.078467,-0.126481
-0.025831,0.017567,0.325202,-0.245377,0.962252,-0.117731
0.122308,0.367194,0.795851,-0.070505,0.974030,-0.215162
-0.159282,-0.280209,-0.980212,-0.006949,-0.235767,0.971785
0.353000,-0.875098,-0.967342,0.303740,-0.237063,-0.922791
-0.073270,0.459326,0.760186,-0.186454,-0.977858,-0.095017
-0.381364,-0.354654,-0.388394,0.339766,0.293529,-0.893532
-0.077237,-0.666908,-0.977373,-0.140515,0.148461,0.978884
0.168818,0.343692,0.860305,-0.447451,0.394596,0.802547
0.183506,0.742565,0.927429,-0.325094,0.828731,-0.455542
-0.136407,-0.137136,-0.481721,0.896089,-0.441980,0.040968
0.021271,0.493549,0.903814,0.381856,-0.924101,0.014924
0.753016,-0.051850,0.302848,-0.572545,0.371052,-0.731104
0.473705,0.679267,0.896685,-0.825590,0.333462,-0.455198
-0.011480,0.689563,0.905286,0.129497,0.937608,-0.322679
0.526124,-0.228783,0.555827,-0.458693,0.082362,-0.884770
-0.075379,0.685929,0.906926,0.323339,0.253632,-0.911659
0.321261,-0.892300,-0.970265,0.306466,-0.173494,-0.935937
-0.514900,0.492581,0.450198,-0.014903,-0.507745,0.861379
0.597112,0.204737,0.908082,0.538120,0.790325,-0.292940
0.326918,-0.756921,-0.975964,-0.184225,0.103524,0.977417
0.666244,0.476711,0.836521,0.195992,-0.356708,0.913426
0.256012,0.622691,0.904865,-0.669357,0.212185,-0.711996
-0.178782,0.699680,0.192488,0.457862,0.363402,-0.811357
0.141724,-0.341995,-0.978088,-0.067829,0.065883,0.995519
0.548238,-0.172632,0.526029,0.535699,-0.732451,0.420169
0.429306,0.808650,0.918471,-0.203278,-0.041026,-0.978261
0.181734,0.204920,0.699202,0.569806,0.756951,-0.319915
0.133282,-0.451390,-0.975838,0.048601,-0.100059,0.993794
-0.244029,0.477012,0.463636,0.356566,0.321356,-0.877263
-0.203596,0.164032,0.557698,-0.392517,0.454746,0.799460
-0.268593,-0.260766,0.246575,0.934656,-0.335132,-0.118759
0.395457,0.034649,0.783297,-0.006148,0.952610,0.304134
-0.321094,-0.237203,-0.991652,-0.115305,0.092092,0.989052
0.368108,0.012722,0.798290,0.822271,-0.167550,-0.543872
0.272643,0.449149,0.894414,-0.172476,0.965222,0.196465
0.113192,0.143559,0.588863,0.865289,0.501273,-0.000134
0.542836,0.262282,0.755097,-0.666299,0.722531,-0.184379
-0.118764,0.620873,0.801361,0.918904,-0.218395,0.328509
0.165273,0.344903,0.839444,0.058052,-0.766972,0.639049
0.446441,-0.791568,-0.966312,0.020703,-0.016036,0.999657
-0.144593,0.107519,0.585456,0.238174,-0.636256,-0.733792
0.703384,-0.814828,-0.964524,-0.147520,0.023098,0.988789
-0.425509,0.156582,0.413061,0.437315,-0.319120,-0.840784
0.322781,-0.645344,0.217240,-0.294093,0.954218,-0.054570
-0.120031,-0.528014,0.003312,0.538848,0.414578,-0.733327
0.658140,0.356170,0.764287,0.034758,-0.896212,0.442261
0.450323,0.323339,0.595845,-0.281605,0.546817,0.788473
0.001096,0.476225,0.865057,0.883698,0.215848,-0.415316
0.034017,-0.351929,0.150389,0.442206,0.438482,-0.782424
0.335950,-0.626929,0.228553,0.818025,-0.500128,-0.284090
0.106440,0.572597,0.916852,0.410625,0.324649,-0.852051
0.533553,0.391181,0.907452,0.432172,0.857571,-0.278924
-0.006753,0.532559,0.528005,-0.527380,-0.306219,0.792528
0.266311,0.279849,0.847624,-0.326582,-0.884546,0.333051
-0.112098,0.682901,0.868233,0.877875,0.399067,-0.264730
-0.319154,-0.049791,-0.057399,0.173970,0.272419,0.946321
-0.154892,0.499485,0.167085,-0.166624,-0.422308,0.891006
-0.208071,0.296626,0.119749,0.803816,0.243281,-0.542858
0.033762,0.308742,0.739662,-0.124919,0.970758,-0.204998
-0.155990,-0.066083,0.085094,0.929125,0.350817,-0.116854
-0.602769,0.380885,0.162964,0.682940,0.603618,-0.411386
-0.704904,-0.012781,-0.014689,0.064165,-0.617937,0.783605
0.264708,0.337998,0.965449,0.388696,0.786850,-0.479357
0.163501,-0.970318,-0.976132,-0.134563,-0.076549,0.987944
-0.042796,-0.317766,-0.979896,0.035788,-0.039609,-0.998574
-0.355365,-0.170633,-0.993881,0.238831,-0.080647,-0.967707
-0.038744,-0.242593,-0.124060,-0.256237,-0.229727,0.938919
0.126951,-0.751650,-0.978445,0.169535,-0.006723,0.985501
-0.196422,-0.055242,0.090099,0.929125,0.350817,-0.116854
0.492275,0.424314,0.901374,-0.212907,-0.899808,0.380809
-0.033090,-0.286267,-0.978319,0.037802,0.007057,0.999260
0.069720,-0.484281,-0.972158,0.173374,0.171599,-0.969791
-0.365071,-0.277546,-0.373274,-0.329293,-0.645991,0.688667
-0.159789,-0.463867,-0.380424,0.453228,0.660456,-0.598651
-0.056472,0.647648,0.781005,0.380505,-0.425860,0.820889
-0.577533,-0.256768,-0.362423,0.394774,-0.685608,0.611633
0.172025,0.323158,0.897211,-0.384503,0.719673,-0.578126
0.553980,0.874129,0.886654,-0.075960,-0.679601,0.729639
0.199627,0.405052,0.858118,-0.402032,0.641489,0.653347
0.021523,0.660974,0.894330,0.631201,0.360030,-0.686996
0.547563,0.224302,0.905075,0.925507,-0.246658,0.287395
-0.143666,-0.450177,-0.375735,0.546962,0.711660,-0.440876
-0.414875,-0.051547,0.225630,-0.657134,0.152918,0.738100
0.517767,-0.876915,-0.966690,0.025203,0.085225,0.996043
0.048198,0.082199,0.566846,-0.869507,0.483158,0.102549
-0.577025,-0.718517,-0.369216,0.824852,0.134537,0.549107
-0.078164,-0.578229,-0.981747,-0.122542,0.005484,0.992448
-0.231453,-0.043430,0.017591,0.799752,-0.514850,0.308751
0.362031,0.893635,0.886023,-0.449435,0.741278,-0.498513
-0.046681,-0.047428,0.509794,0.784430,-0.584130,-0.208474
-0.181481,-0.122418,-0.161471,0.608475,-0.774012,0.175112
-0.354437,-0.452358,0.380634,0.716839,-0.029695,0.696606
0.188823,-0.182445,0.502792,0.800412,0.292944,-0.522995
0.685911,-0.295293,0.480312,0.322703,-0.005713,0.946483
-0.039422,0.174693,0.536922,0.244500,-0.921615,0.301405
-0.016124,-0.460718,0.161723,-0.067986,0.115784,0.990945
0.433105,-0.512567,0.533788,-0.467703,-0.057457,-0.882016
0.466953,-0.807315,-0.969550,-0.105363,0.093270,0.990050
0.673418,-0.132594,-0.061667,-0.389236,0.834330,-0.390369
0.018401,0.076384,0.472552,0.952461,-0.297754,0.064498
-0.182326,-0.650918,0.147402,-0.643148,-0.417766,0.641741
0.032160,0.145558,0.515998,0.824704,-0.194277,0.531150
0.593735,0.265493,0.850989,-0.012841,-0.379576,0.925071
-0.498862,-0.284511,0.410895,-0.477892,-0.197104,-0.856019
0.669198,0.004967,0.335885,-0.234942,0.307206,-0.922186
0.410230,0.248108,0.887327,0.152636,0.582208,0.798584
-0.286656,-0.380034,0.124039,-0.546008,0.744272,0.384623
-0.156497,-0.155854,0.053718,0.829293,0.004972,-0.558792
0.368446,-0.018656,0.629638,-0.362273,0.893059,-0.266839
0.060689,0.131202,0.480501,0.895090,-0.433080,-0.106095
-0.267748,-0.482887,-0.985763,-0.090993,0.139247,0.986068
-0.411920,-0.220365,0.421241,0.220030,-0.446981,0.867061
0.027515,-0.641771,-0.980065,-0.124183,0.301838,0.945237
0.080694,0.640257,0.907578,0.141551,0.700218,-0.699756
-0.039589,0.665941,0.944210,0.332164,0.398893,0.854723
-0.563519,-0.861892,-0.360047,0.896961,0.011682,0.441956
0.922932,-0.291537,0.246932,0.615173,-0.540604,0.573855
-0.218537,-0.131807,-0.515998,0.838355,-0.532591,0.116222
0.461297,0.769762,0.893278,-0.127569,0.972601,0.194352
0.262934,-0.164698,-0.042110,0.444659,0.722073,0.529990
0.094284,0.624872,0.293238,0.987761,-0.153592,0.027166
0.534143,-0.307407,0.277487,0.006763,-0.932934,0.359983
-0.637378,-0.260644,-0.040050,-0.032554,0.233822,0.971734
-0.381786,-0.294929,-0.990495,-0.191052,0.118863,0.974356
