0.057753,-0.563241,0.391612,-0.835118,0.472516,0.281612
-0.052141,-0.132824,-0.723500,-0.037434,-0.114269,0.992744
-0.286941,0.469411,0.820448,0.936274,-0.053554,0.347165
-0.042402,0.120918,0.112647,0.625090,-0.741097,0.245026
0.108541,-0.432356,0.793462,0.530561,-0.497992,-0.685936
0.743220,-0.169241,-0.946544,0.296106,-0.237848,-0.925067
-0.340503,0.352822,0.834215,0.379877,-0.823241,0.421861
-0.757558,-0.058363,0.615477,-0.529183,0.844081,-0.086562
-0.400217,0.431230,0.874452,-0.173693,0.984674,-0.015724
0.308986,-0.157903,-0.744356,0.940860,0.027371,-0.337690
-0.023062,-0.377618,0.676326,0.413567,0.426911,0.804182
0.259822,-0.073510,0.652352,0.709121,-0.659547,0.249290
0.292350,-0.491459,-0.569840,0.268218,0.153330,0.951078
-0.360317,0.427145,0.898092,0.675948,-0.544666,0.496420
-0.705754,-0.492585,0.477820,-0.071016,-0.367954,0.927128
-0.407994,0.299567,0.747246,0.120168,0.098715,0.987833
-0.035234,-0.558872,0.521160,0.251420,-0.934195,0.253114
-0.693582,-0.002571,0.586999,0.570252,-0.622405,0.536120
-0.759112,-0.499701,0.839418,-0.008770,-0.527181,0.849708
0.154054,0.034204,-0.244676,0.038601,-0.963087,0.266409
-0.408062,-0.237928,0.171352,-0.506317,0.829639,0.235252
-0.236897,-0.850236,0.826944,-0.512711,0.704325,-0.490973
-0.179280,-0.103165,0.773853,0.929851,-0.355094,0.096361
-0.226550,-0.225953,0.609377,-0.046476,0.962432,0.267515
-0.197470,0.151562,0.482399,-0.697863,-0.282937,-0.657977
0.142963,-0.061815,-0.694460,-0.591327,-0.806328,-0.012950
-0.169811,0.640097,0.754792,0.997814,0.012238,0.064944
-0.670387,0.040683,0.679278,0.200426,0.972216,-0.120935
0.037263,0.042231,0.445905,-0.477208,0.755336,-0.449155
0.152498,0.051389,-0.094012,0.996669,-0.034008,-0.074130
-0.587071,-0.761827,0.654983,0.432259,0.835943,0.338160
-0.005072,-0.037652,-0.152352,0.543538,0.239292,-0.804553
0.293838,-0.224685,0.572395,-0.491810,0.705294,0.510572
0.034421,0.029130,-0.023868,-0.075730,0.716350,0.693619
0.228038,-0.010882,-0.550079,-0.679126,-0.391754,-0.620739
-0.496178,0.095280,0.827963,0.150960,0.978145,-0.142978
-0.466018,0.045120,0.558111,-0.329472,0.879647,0.343029
0.010685,-0.010108,-0.196498,-0.478167,0.775908,-0.411489
-0.113546,-0.230601,0.586863,0.785033,0.448079,0.427725
0.382295,0.619037,0.736491,0.877582,-0.003372,0.479415
-0.129235,0.489206,-0.159928,-0.438862,-0.010172,-0.898497
0.197334,0.204326,0.779253,0.845506,-0.298034,-0.443053
-0.176845,-0.738932,0.817558,0.860396,-0.477568,-0.177896
-0.156083,-0.214538,0.596112,0.369045,0.529036,0.764151
0.487252,0.575220,0.692923,0.203256,-0.647715,0.734270
-0.413673,0.522876,0.621684,-0.129653,0.964741,-0.229050
-0.319200,0.541403,0.477607,-0.495540,0.654886,-0.570583
0.606951,0.687366,0.711087,0.141304,-0.955985,0.257150
-0.313587,-0.257861,0.734605,-0.426878,0.848357,-0.313155
0.430107,-0.287451,-0.391338,0.898709,-0.155304,-0.410125
0.063975,0.207285,0.853855,0.377317,0.918616,-0.117374
-0.219652,-0.170088,0.797645,-0.307349,0.820219,-0.482471
0.030500,-0.491386,-0.698689,0.738614,-0.341818,-0.581042
0.356056,-0.024551,-0.379320,0.753652,0.416666,-0.508329
-0.437277,-0.583036,0.795637,0.848645,0.312169,0.427027
-0.065733,0.222501,0.353779,-0.672189,-0.721432,0.166427
0.136066,0.025325,-0.519883,0.722632,-0.680123,0.123434
0.315616,0.044488,0.830412,0.847971,-0.027537,0.529327
0.177047,-0.580783,0.201381,-0.188116,0.648773,0.737364
-0.359370,0.532034,0.894274,0.817449,0.566750,-0.102819
0.330764,-0.155014,0.898473,-0.253507,-0.037893,0.966591
0.189288,-0.176215,-0.757637,0.805604,0.581182,-0.115019
0.550145,0.731115,0.534715,0.118468,0.639820,0.759339
-0.798405,-0.611706,0.636424,0.825799,0.326072,-0.460144
-0.068101,-0.185305,0.557153,0.857386,-0.508328,0.080574
0.059579,-0.431509,0.149933,-0.193499,0.906753,0.374644
0.230135,0.777886,0.864625,0.993776,0.111312,0.004312
-0.694461,0.007787,0.799258,-0.344044,-0.449993,0.824099
-0.104145,-0.344158,-0.187492,-0.254655,-0.028581,-0.966609
0.404139,0.414887,0.440809,0.940882,-0.041492,0.336184
0.119293,0.126061,-0.992409,-0.210364,0.201523,0.956627
0.211267,-0.203763,0.649537,0.838384,-0.107398,-0.534396
0.847501,0.358180,0.786768,0.070813,-0.717716,0.692726
-0.365863,-0.132966,0.099108,0.198169,-0.969689,0.142945
0.487320,0.649255,0.644654,0.816955,0.514802,-0.259930
-0.200515,-0.728294,0.707025,0.686094,-0.721439,-0.093815
-0.244810,0.137261,0.770156,-0.624698,-0.166110,-0.762994
0.159464,0.267655,0.910171,0.005992,0.537846,0.843022
0.130723,0.008629,-0.459824,0.993060,0.082872,0.083445
0.906674,0.075553,0.487830,0.866969,0.161528,0.471459
0.277136,0.211232,0.912666,0.249044,0.860305,0.444805
0.299250,0.574446,0.748616,-0.643380,0.741866,-0.188936
0.136132,-0.005245,-0.470731,0.995882,0.053318,0.073325
-0.428619,0.299778,0.860655,-0.259325,-0.886093,0.384173
0.284776,-0.130708,0.514802,0.821150,0.569704,-0.033906
0.030634,0.039131,0.709428,0.407103,-0.839708,-0.359387
0.589976,0.401502,-0.078724,-0.602818,-0.280911,0.746793
-0.311356,-0.008909,0.189789,0.988988,-0.014652,-0.147271
-0.225400,-0.772039,-0.694262,0.354426,-0.645244,-0.676789
-0.028201,-0.070196,0.884827,0.912441,0.399062,-0.090555
-0.575235,-0.395371,0.465955,-0.557709,0.807019,-0.194116
0.746737,0.381002,0.821483,0.198011,-0.967182,0.159220
0.243186,0.017929,0.781231,-0.044454,-0.976819,0.209402
0.571380,0.441583,0.851025,0.198139,-0.852275,0.484115
-0.475757,-0.341200,-0.033361,0.673827,-0.738784,0.012476
-0.799757,-0.588600,0.627936,0.825403,0.173003,-0.537382
0.074051,-0.188263,0.475341,0.982055,0.154491,0.108168
0.137216,-0.050894,-0.347314,0.873637,0.460536,0.157052
-0.298438,-0.254271,0.741101,-0.161870,-0.787471,0.594717
-0.248461,-0.826141,0.677406,0.958707,-0.269178,0.091785
0.004665,0.502870,0.806727,-0.538039,0.631247,-0.558606
0.500913,-0.410303,-0.951138,-0.319408,0.143855,0.936635
0.591871,0.009335,-0.962167,-0.138283,0.129868,0.981841
0.061540,0.162762,0.839525,0.703402,0.687648,-0.179903
0.462839,0.322957,0.547052,0.823681,0.455954,-0.337129
0.121390,-0.113592,0.021617,-0.590842,-0.651574,-0.475770
0.041387,-0.416151,0.676220,0.938205,0.281156,0.201800
0.186380,0.588179,0.824708,0.965427,-0.227571,0.127135
-0.446676,0.528018,0.917427,-0.556834,-0.748057,0.361035
0.893284,0.425735,0.573247,-0.475837,-0.785993,0.394707
0.262528,0.025256,-0.931605,0.867122,0.413309,0.277983
0.091094,0.004756,-1.000000,0.357127,-0.207649,-0.910682
-0.115372,0.421930,0.808841,0.098656,-0.886037,0.452995
-0.090959,-0.785423,0.820676,-0.406278,0.892720,-0.194906
0.083383,0.055336,0.454576,-0.632228,0.729488,-0.261025
0.389599,0.376070,0.837212,-0.671585,0.735860,0.086504
-0.223642,-0.825509,0.686123,0.911976,0.289187,0.290983
0.702712,-0.067663,0.466396,0.967478,0.040880,-0.249632
-0.033070,-0.233490,0.903736,-0.633237,0.763972,0.123930
-0.118010,-0.391708,0.040206,-0.253780,0.582230,0.772402
0.237709,-0.033988,-0.644533,0.948337,0.304270,0.089869
0.011158,0.070127,0.585813,0.959633,-0.265672,0.092316
0.569689,0.041951,0.573445,-0.352061,0.089709,0.931668
0.974165,0.094432,0.476801,0.193557,-0.390482,0.900033
0.612835,0.004261,0.564014,-0.174449,-0.329660,0.927843
0.174748,0.281535,0.972907,-0.038994,0.074343,0.996470
-0.769662,-0.332532,0.721857,-0.747517,-0.004956,-0.664224
0.189965,0.602763,0.824525,0.965427,-0.227571,0.127135
-0.686616,-0.040189,0.584276,0.586542,-0.654061,0.477675
0.179144,0.585573,0.856456,0.900567,-0.302525,0.312183
0.221004,0.684903,0.896404,0.860700,-0.496114,0.114310
-0.708866,0.011871,0.598728,0.669106,-0.642393,0.373668
-0.505445,0.267729,0.764467,-0.105071,0.243931,0.964084
-0.296680,0.124018,0.748038,-0.186662,0.262211,0.946785
0.072090,-0.009967,-0.194277,0.781538,-0.571618,-0.249903
0.101508,-0.029409,-0.098409,0.885490,0.453011,-0.103385
0.101508,-0.237928,0.757089,-0.702416,-0.340007,-0.625305
0.395617,-0.077032,0.027184,-0.347900,0.002916,0.937527
0.080071,0.447009,0.982597,0.911680,0.355991,-0.205207
0.087170,-0.263497,0.549562,0.379621,0.924644,0.030352
-0.523635,0.082316,0.567375,0.741820,-0.506831,0.439119
0.034355,-0.062521,0.805997,-0.164011,0.969258,0.183409
-0.083385,0.700683,0.927163,0.863863,0.499976,-0.061352
0.093799,0.022367,0.855787,0.748611,0.529504,-0.399008
-0.132211,-0.832693,0.268422,0.292077,0.900703,0.321598
0.020152,-0.343737,0.717902,0.265794,-0.944739,-0.191889
-0.327247,-0.230881,0.422097,-0.176440,0.493569,0.851621
-0.139244,0.304146,0.457740,0.478319,0.864974,-0.151760
0.270981,0.139798,0.317376,0.818929,-0.573123,0.029752
-0.270238,0.449404,0.464388,-0.217583,0.892062,-0.396085
-0.369582,-0.199747,0.411935,0.867456,0.230779,0.440752
0.159938,0.040472,-0.648914,0.743244,-0.652821,-0.146335
0.069182,-0.030256,0.203328,0.941313,0.176476,0.287725
0.261378,-0.028567,0.598911,-0.012210,-0.996426,0.083585
-0.100292,-0.342890,0.568197,0.986383,-0.146905,-0.073940
0.339419,-0.386002,-0.733738,0.940502,0.124377,-0.316207
0.118144,0.482232,0.852668,0.736241,-0.634677,0.234805
0.107323,0.010814,0.127191,0.260302,-0.965136,0.027504
0.155002,0.069000,0.192086,0.704938,-0.009271,-0.709208
0.079394,-0.038215,0.497140,0.761278,-0.214585,0.611890
-0.787314,-0.066184,0.606745,-0.577576,0.687674,-0.439899
0.023939,0.293298,0.886805,0.390514,0.192580,-0.900229
0.138365,-0.063221,0.080260,0.934984,0.299320,-0.190294
-0.069182,-0.120565,0.196300,-0.499099,0.660966,0.560379
-0.022453,0.036878,0.078268,-0.798546,0.428741,-0.422500
-0.207953,-0.759290,0.803882,0.533913,0.032724,-0.844906
0.324339,0.636648,0.626810,0.241806,0.837586,-0.489877
-0.531075,-0.421366,0.456356,0.838420,0.374566,0.395920
0.688171,0.360712,0.805571,0.000357,-0.901576,0.432622
-0.018057,-0.108449,0.786571,0.056487,0.987800,-0.145125
-0.053291,0.681098,0.912879,0.207130,-0.755724,0.621271
-0.515723,0.788386,0.641733,-0.175581,0.574075,0.799755
-0.506324,-0.542039,0.354341,0.545924,0.280707,-0.789411
0.338677,0.174951,-0.983662,-0.285792,0.367406,0.885062
0.171974,-0.196294,-0.011349,-0.019176,0.495406,0.868450
0.110163,0.022014,0.245527,-0.037840,0.935161,0.352197
0.235544,-0.096122,0.384051,0.982619,0.177474,0.054436
0.719619,0.284562,0.517007,0.254616,-0.619871,0.742247
0.087104,-0.519497,0.392844,0.609246,-0.623874,0.489490
-0.084939,0.429678,0.788822,-0.051161,-0.984823,0.165848
0.233245,-0.056179,0.877160,0.376787,-0.891760,0.250593
0.247175,-0.161351,0.332801,0.912443,0.235272,-0.334805
0.095760,-0.566057,0.444110,0.584404,0.627955,-0.513950
0.268546,-0.220106,-0.723926,0.968097,-0.021468,-0.249655
0.521809,0.740484,0.433917,0.647106,-0.555296,-0.522399
-0.740853,-0.629670,0.452826,-0.080409,-0.361945,0.928725
-0.259418,-0.277729,0.427087,0.250236,0.768150,0.589345
0.144181,-0.148040,-0.879046,0.942736,-0.086846,-0.322035
-0.156151,-0.507449,0.693136,0.960153,-0.090455,-0.264431
-0.054170,-0.885948,0.674075,-0.395610,-0.576060,0.715296
0.130723,-0.046178,-0.564835,0.968206,0.249808,-0.013152
0.299790,-0.100207,0.691250,0.316917,-0.381431,-0.868374
0.356190,0.221869,-0.385603,0.738162,-0.043010,-0.673251
0.137620,-0.020393,-0.661114,0.985521,-0.136250,-0.100916
0.198214,-0.034625,-0.115994,0.924258,0.269325,0.270577
0.122338,0.357122,0.965194,-0.399320,0.801737,-0.444703
-0.481909,0.716036,0.693151,0.128989,0.766288,0.629416
-0.028944,0.244622,0.944901,-0.279644,-0.958239,0.059809
0.817340,0.110917,0.491481,-0.335438,-0.941925,0.016063
0.672684,0.580715,0.687355,-0.270870,-0.747531,0.606487
-0.167715,-0.100770,0.808050,-0.350395,0.928444,0.123345
-0.503078,0.633548,0.689135,0.517724,0.147304,0.842771
-0.101982,-0.082879,0.794268,-0.137284,0.972663,0.187296
-0.675053,-0.465111,0.804825,-0.290185,0.694298,-0.658592
-0.056603,0.044062,0.152534,0.959863,0.279887,-0.018041
0.228240,0.042162,-0.699662,0.380975,0.915181,0.131536
0.273619,-0.389244,0.435575,0.783110,-0.621317,-0.026539
-0.419964,0.487869,0.476953,0.734284,-0.426243,0.528340
0.704268,-0.207142,0.468252,0.328679,-0.288381,-0.899337
-0.271388,0.331479,0.841046,0.222557,-0.784543,0.578758
-0.692973,0.090559,0.678684,0.187852,0.962013,0.198095
0.073442,0.051883,0.459033,0.256693,-0.869768,0.421442
0.391357,0.677645,0.462121,0.537584,-0.665741,0.517487
0.106242,0.382834,0.734772,0.482396,-0.845268,0.229815
-0.169203,0.602552,0.676509,0.317412,0.945694,-0.070086
-0.175223,-0.048220,-0.141110,-0.534518,0.674038,-0.509866
0.736389,0.244833,0.539506,-0.730351,0.652924,0.200693
0.140528,0.400729,0.977805,0.928534,0.368272,-0.046906
-0.072767,-0.311120,0.224078,0.710372,-0.493533,-0.501794
-0.245419,-0.240533,0.753438,-0.443933,-0.823477,0.353282
0.316629,0.259344,0.893057,0.812095,0.165709,0.559503
-0.413946,-0.208832,0.804065,0.115277,-0.793979,0.596916
0.200108,-0.057236,-0.511577,0.765127,0.617796,0.181408
0.454791,-0.093585,0.553517,0.158103,-0.418825,0.894197
-0.862515,-0.155577,0.642570,-0.354018,0.929121,0.106794
-0.019341,0.008629,0.558872,0.956261,-0.106564,0.272415
-0.852235,-0.202774,0.668279,0.764032,-0.645110,-0.009386
-0.087915,-0.523018,0.743611,0.664047,0.472403,-0.579549
0.642862,-0.116055,0.561093,-0.462649,0.869582,0.172579
0.101373,-0.058432,0.185150,-0.415486,-0.755678,-0.506283
-0.508825,-0.306610,0.791651,0.985171,0.082304,0.150545
0.350917,-0.175373,-0.408133,0.774261,-0.482517,-0.409508
0.357205,0.504211,0.726771,0.917466,0.006905,0.397754
0.380875,0.181994,-0.371775,-0.642863,0.284659,0.711123
-0.157164,-0.487301,0.790008,0.900052,0.252857,0.354922
-0.601542,-0.345074,0.433415,-0.201823,0.680773,0.704142
-0.082708,-0.108591,0.815809,0.007063,0.939921,0.341320
-0.013187,0.084217,-0.145522,-0.154486,-0.109119,0.981951
-0.686008,0.379875,0.541849,-0.546468,0.789825,-0.278475
-0.461013,-0.295620,0.791499,0.756695,-0.530906,0.381511
0.686412,0.321968,0.522240,0.144307,-0.582025,0.800264
-0.206871,-0.146913,0.775511,0.842629,-0.477603,-0.248741
-0.239063,-0.205732,0.179369,0.206344,-0.977092,-0.052089
0.730099,0.008913,-0.300977,0.619717,-0.405497,-0.671955
-0.088322,0.112254,0.481806,0.421550,0.757165,0.498996
-0.614864,-0.672713,0.845397,0.250688,0.555492,0.792833
0.064314,0.058294,0.424227,0.863457,-0.463086,-0.199986
0.659496,-0.339158,-0.238180,-0.671048,0.447101,0.591434
-0.214445,-0.627559,0.659426,0.687526,-0.726055,-0.012365
-0.036993,-0.747243,0.708729,-0.459344,-0.874388,0.156360
0.548319,0.022577,0.662438,0.970749,0.177911,-0.161229
0.024144,0.083159,0.728398,0.441189,-0.851771,-0.282556
-0.029757,-0.215527,-0.990173,0.285066,-0.155057,-0.945883
-0.005276,-0.094923,0.816539,-0.284505,0.948504,0.139273
0.015892,-0.135077,0.514163,0.790099,0.502948,0.350409
-0.003720,0.068437,0.835828,0.952717,0.225976,0.203138
-0.653005,-0.540418,0.463612,0.172349,-0.082516,-0.981574
0.765468,0.450037,0.572274,-0.307239,0.951147,-0.030390
-0.767295,-0.089501,0.650359,0.832660,-0.552608,0.036096
0.041387,0.024130,0.829135,-0.802847,0.209679,-0.558097
0.144856,0.018703,-0.619828,0.911304,-0.410661,-0.029716
0.471225,-0.395371,-0.949860,0.292441,-0.110469,-0.949881
-0.172042,-0.496670,0.795165,0.937138,0.187342,0.294406
-0.243593,0.419466,0.429810,-0.011775,-0.848572,0.528948
-0.126057,0.493222,0.816965,0.459272,0.082200,0.884484
0.099072,-0.628896,0.199039,0.009396,0.713916,0.700169
0.103943,0.488432,0.847694,-0.088477,-0.984195,0.153403
-0.084467,0.038851,0.897240,-0.761768,0.172634,0.624426
-0.670319,0.465253,0.692954,-0.558178,0.735182,-0.384635
-0.528572,0.127540,0.596933,-0.080719,0.610810,-0.787652
0.152296,-0.284983,-0.502434,0.955239,-0.159195,-0.249349
0.567592,-0.278572,-0.267297,-0.616506,0.633191,0.467963
-0.609184,0.261950,0.626506,-0.446753,0.894396,0.021633
0.293229,0.014898,-0.809115,0.458138,0.881100,-0.117356
0.170554,0.025183,-0.888539,-0.684182,0.713454,0.151259
-0.123689,0.057026,0.134401,0.992885,0.016939,0.117865
0.467979,0.092670,0.896160,0.107347,0.538534,0.835738
-0.341382,-0.309779,0.435119,-0.143684,0.560951,0.815285
-0.626496,-0.794302,0.657965,0.399782,0.777982,0.484684
-0.015352,0.604311,0.901180,-0.348904,-0.918203,-0.187534
0.395212,-0.176852,-0.403919,0.942684,-0.288923,-0.166942
0.135523,-0.002992,-0.363895,0.874510,-0.439750,-0.204578
0.502805,0.212427,0.417716,-0.061833,-0.479050,0.875607
-0.555488,0.447009,0.863773,-0.101486,-0.664005,0.740809
-0.647055,0.001023,0.667305,-0.242227,0.968311,-0.060819
-0.245149,-0.335774,0.681499,0.849493,0.229702,0.474973
0.449990,0.604453,0.609955,-0.802920,0.571583,-0.169150
-0.351998,-0.267092,0.766779,-0.550532,0.827140,0.112937
-0.246432,-0.849531,0.693243,0.156441,-0.635805,0.755829
-0.083992,0.565072,0.644320,-0.646779,0.341729,-0.681834
-0.118957,0.259060,0.050672,-0.499196,-0.359825,-0.788244
0.130114,-0.026099,-0.794785,0.988333,-0.068380,0.136098
-0.474673,0.075342,0.550764,-0.623041,0.782178,0.004153
-0.363900,0.533445,0.849428,-0.187717,0.813303,0.550728
-0.495435,-0.916102,0.824191,-0.701785,0.540425,-0.464155
0.588827,-0.319079,0.557609,-0.151747,0.969136,-0.194289
0.114559,0.017719,-0.354661,0.956374,-0.287214,0.053448
0.037600,0.062168,0.705412,0.453392,-0.789295,-0.414065
0.078108,-0.019546,-0.011561,0.968357,0.101638,-0.227933
-0.146818,-0.079917,0.119508,-0.796237,0.604163,0.031526
0.107798,0.410097,0.988028,0.816797,0.570161,-0.088083
-0.581255,0.516397,0.628773,-0.715209,0.520295,-0.466658
-0.318862,-0.215032,0.380994,0.830743,0.268105,0.487837
-0.030636,0.043078,0.660886,-0.135932,-0.988065,-0.072453
-0.181579,0.629601,0.917686,0.159062,-0.812790,0.560420
-0.267533,-0.363317,0.697882,0.961828,0.136586,0.237131
0.241564,-0.360432,-0.767631,0.907604,-0.108854,-0.405471
-0.257998,0.382623,0.840072,-0.675860,0.706128,0.211179
0.254954,-0.423125,-0.571103,0.375010,0.050217,0.925659
0.201730,0.214117,0.640273,0.676355,0.467836,-0.568923
0.087983,-0.459126,0.786981,0.560270,-0.526918,-0.639105
0.140394,-0.084075,-0.310241,0.756355,0.643983,0.114952
-0.117942,-0.393397,0.747824,0.011660,0.791140,0.611524
0.177318,0.098375,0.214083,-0.635832,0.757252,0.149285
0.035707,0.084359,0.238621,-0.083084,0.996542,0.001044
0.713531,0.239970,0.624315,0.898149,0.300512,-0.320967
0.196321,-0.301540,0.398092,0.905255,-0.359747,0.226043
0.151485,-0.047442,-0.283178,-0.643837,-0.647967,0.406956
0.046121,-0.222922,0.517433,0.846258,0.396631,0.355712
-0.081693,0.134514,0.643772,0.850949,0.521803,0.060062
-0.015622,0.451447,0.789780,0.085806,0.943825,-0.319111
-0.245419,0.286535,0.620284,-0.422278,-0.014197,-0.906355
-0.174680,-0.136981,0.788518,-0.717184,0.666250,0.204345
0.064043,0.298583,0.752784,-0.202309,-0.976380,-0.075847
0.127679,-0.033494,-0.516840,0.948097,0.306531,-0.084566
0.203827,0.040963,-0.565702,-0.129375,-0.980918,-0.145130
0.475959,-0.284772,-0.956173,0.277222,-0.164323,-0.946650
0.283965,-0.265187,0.746881,0.426167,0.062775,0.902464
0.131400,0.196153,0.968556,0.859172,0.318438,-0.400525
0.099140,-0.070832,-0.025177,0.450134,0.755603,0.475862
0.531480,0.329015,0.646008,0.062635,0.857036,0.511435
0.438291,0.641791,0.477409,0.314836,0.411152,-0.855472
0.643132,0.367759,0.811640,-0.233049,-0.817897,0.526053
0.129912,0.000813,-0.462030,0.991605,0.093418,0.089401
-0.243120,-0.518791,0.198749,-0.292985,0.579512,0.760477
-0.527152,-0.710047,0.840909,0.469512,0.531994,0.704656
-0.180091,-0.745059,0.817847,0.856260,-0.501848,0.122341
0.074864,0.044699,0.176098,-0.752496,0.564119,-0.339882
0.357205,0.216159,0.885314,0.790827,-0.105164,-0.602938
0.195914,-0.086469,-0.505157,-0.647192,-0.758154,0.079651
0.027117,-0.754638,0.274720,-0.202141,0.863938,0.461248
0.537634,0.656091,0.594788,-0.050927,-0.057505,0.997045
0.484547,-0.349301,0.519046,0.867607,0.309474,-0.389208
0.278556,0.232717,0.887520,-0.538711,-0.411676,0.735060
0.047541,0.089290,0.806560,0.891638,0.240128,-0.383823
-0.667951,0.361064,0.613301,0.245060,0.774625,0.583011
0.112530,-0.579794,0.776789,0.993114,0.057628,-0.101995
0.122878,-0.711315,0.389619,0.665666,-0.299844,-0.683361
0.121729,-0.032230,-0.684313,0.997434,-0.054962,-0.045886
0.267667,0.069211,-0.402078,-0.302011,0.891356,-0.338044
0.224319,-0.219401,0.402017,0.930148,-0.294723,0.219007
-0.311083,0.618332,0.505096,0.387751,-0.860445,-0.330582
0.154731,-0.066958,-0.842795,0.975570,0.212045,0.057444
-0.246839,-0.438905,0.782798,-0.071696,0.813057,0.577752
0.197268,0.014477,-0.168021,0.258018,0.966139,0.001150
-0.240144,-0.299709,0.177255,0.875937,0.334487,-0.347638
-0.307296,-0.214116,-0.095306,0.837078,-0.546294,-0.029374
0.457699,0.042020,0.557244,0.260549,-0.756717,0.599577
0.489213,0.829456,0.685210,-0.179415,0.592276,-0.785506
-0.497396,0.272376,0.761729,-0.393557,-0.633029,-0.666624
-0.339149,-0.546967,0.417686,0.937437,-0.116248,0.328173
0.024007,0.585995,0.637367,0.257815,-0.565291,0.783568
0.196321,-0.243212,-0.969423,0.225582,0.103274,-0.968735
-0.029012,-0.508365,0.785201,0.154349,0.886009,0.437224
0.194426,0.116902,0.200332,0.422281,-0.897066,-0.130195
0.426793,0.498364,0.643453,0.875112,0.087417,0.475960
0.831473,-0.120707,-0.940976,-0.239550,0.221505,0.945278
0.003382,0.265897,0.586102,-0.209461,-0.735542,0.644286
0.231014,0.156704,0.225630,0.547542,-0.817407,0.179006
-0.396024,0.689056,0.675763,0.367841,-0.444433,0.816807
-0.099615,0.657144,0.664948,-0.558336,0.657090,-0.506451
0.206601,-0.166846,0.317132,0.889274,-0.128972,-0.438814
0.023060,0.039625,0.372186,0.994888,-0.095043,0.034138
-0.227092,-0.590152,0.688527,0.345827,0.152171,-0.925877
-0.710286,-0.185584,0.557655,-0.652866,0.288058,-0.700563
0.407317,0.053857,0.283269,-0.683338,0.424575,0.593957
0.223033,-0.164735,0.352683,0.865215,0.487952,0.115353
0.368160,0.026524,-0.971659,-0.090976,0.197539,0.976064
-0.701156,0.077948,0.606958,0.795458,-0.546813,0.261232
0.093461,-0.232996,0.652291,-0.528232,0.849032,-0.010801
-0.198079,0.236449,0.787285,0.971162,-0.191367,0.142205
-0.089133,-0.503012,0.564044,0.985293,0.111184,0.129751
-0.592750,-0.315699,0.683187,0.857847,-0.136051,0.495569
0.209441,-0.111829,-0.478444,0.472105,0.859219,-0.197128
0.265840,-0.037935,-0.733936,0.889847,0.401733,0.216293
0.231082,-0.084849,0.352820,-0.734134,-0.675993,0.063870
0.011903,0.118596,0.659958,0.696275,0.516886,-0.498027
0.105971,0.035119,-0.007576,-0.270337,0.962054,-0.037022
-0.355245,0.615585,0.500213,0.944105,-0.314464,-0.098889
-0.571313,0.100912,0.726010,0.939214,0.223731,0.260426
0.101982,0.502096,0.756891,0.458610,-0.745205,-0.484093
-0.332184,-0.777744,0.684952,0.347995,0.817767,0.458428
-0.186109,-0.228769,0.161266,-0.796186,0.254234,0.549048
-0.530871,0.527176,0.631450,0.553133,-0.726324,0.408042
0.119362,0.020746,-0.079074,0.521747,-0.853074,-0.006770
0.110638,0.030046,-0.018544,0.034639,0.991889,-0.122297
-0.541828,-0.334931,0.145324,-0.652740,0.492172,-0.575931
0.110772,0.086474,-0.993520,0.364142,-0.238787,-0.900212
-0.897410,-0.273640,0.665084,0.909398,-0.391712,0.139849
0.255697,-0.075621,-0.941235,0.818622,-0.546004,0.178151
-0.644756,-0.142545,0.704317,-0.727152,-0.663442,0.176336
-0.259350,-0.065548,0.760131,-0.722825,0.433603,0.538063
0.511124,0.330705,0.643483,0.489457,0.773742,0.402188
0.041861,0.066747,0.055114,0.584072,0.787834,-0.195389
0.209643,-0.687999,0.480467,0.271383,0.468878,0.840538
-0.370800,-0.550772,0.139315,0.000779,0.460579,0.887618
-0.261040,0.213485,0.780805,0.888957,-0.236183,0.392395
0.364239,0.343806,0.802863,-0.092394,0.436645,0.894877
-0.079123,-0.153182,0.858221,0.500821,0.820839,0.274595
0.085616,0.160720,0.845579,0.957207,0.172901,-0.232076
-0.237168,-0.402414,0.663518,0.722552,0.667076,0.181462
0.126799,0.646718,0.877556,-0.394107,0.186693,-0.899903
-0.258539,-0.814235,0.688694,-0.391962,-0.802592,-0.449681
0.251910,0.231165,0.920637,-0.054711,0.850384,0.523310
0.253466,0.001165,-0.825088,0.435831,0.863268,-0.254596
0.304795,0.006235,0.280668,0.649743,0.117280,-0.751052
0.622168,0.163609,0.465590,-0.662220,0.742158,-0.103276
0.221206,0.107254,-0.259843,0.953541,0.129318,0.272096
0.856090,-0.272940,-0.237724,-0.227863,0.845943,0.482140
0.538513,-0.208411,-0.303472,0.776975,-0.555901,-0.295440
-0.555015,-0.519918,0.144974,0.525133,0.150747,0.837563
-0.001083,-0.029130,0.412970,0.993512,-0.061637,-0.095581
0.149726,-0.364586,0.043446,-0.554832,0.659984,0.506540
0.320416,0.155788,0.882986,0.750289,-0.513340,-0.416592
-0.266517,0.042515,0.480133,0.716512,-0.425052,0.553120
0.161222,0.166215,-0.229098,0.998646,-0.048516,-0.018773
0.216068,0.013982,-0.325469,-0.189490,-0.969653,0.154489
-0.255631,-0.727095,0.289081,0.403729,0.607354,0.684196
0.443836,0.261387,0.462821,-0.581696,0.780864,0.227775
0.808614,0.183826,0.503362,0.281447,-0.624617,0.728451
-0.235342,0.544787,0.806423,-0.566419,0.362135,-0.740289
0.554947,0.265824,0.903751,-0.174788,0.742057,0.647148
-0.309800,0.403123,0.558887,-0.643094,-0.756894,-0.116374
0.145601,0.310699,0.963627,0.654806,0.583500,-0.480371
0.543586,0.216232,0.713201,-0.403697,0.912528,-0.065730
-0.150876,-0.421930,0.738636,0.588180,0.573440,0.570273
0.297355,0.223701,-0.160171,0.883468,0.385773,-0.265828
0.332588,0.633548,0.741481,0.843758,-0.489685,0.219731
-0.949146,-0.120286,0.625624,-0.675012,-0.556220,-0.484746
0.137756,0.297877,0.967384,0.643136,0.056515,-0.763664
-0.169948,0.445036,0.856426,-0.565980,0.514883,0.643865
-0.086766,-0.550419,0.671230,0.076419,0.747746,0.659572
-0.235003,-0.219964,0.721690,0.862248,-0.353363,0.362853
0.212280,-0.189389,0.745421,0.081462,-0.029442,0.996241
0.904982,-0.021167,-0.939759,-0.324227,0.228974,0.917850
-0.602083,-0.461447,0.669922,-0.644722,0.662080,-0.382077
0.062014,0.034625,0.202248,0.869195,-0.493315,0.033770
0.455738,0.005740,0.592476,0.364938,-0.917801,0.156403
-0.234328,0.555351,0.860822,0.863356,-0.398774,0.309187
-0.271861,-0.337816,0.099245,0.807731,-0.000137,-0.589552
0.255495,-0.125708,-0.212456,0.989692,0.080490,-0.118453
-0.114155,-0.506249,0.792458,-0.276826,-0.641292,-0.715620
-0.545817,0.088305,0.810910,-0.002612,-0.914766,0.403976
-0.005817,-0.555635,0.798756,0.422281,-0.582049,-0.694908
0.145262,0.014266,0.759568,-0.163792,0.930534,0.327533
-0.381078,-0.457221,-0.510694,-0.375684,-0.293918,-0.878905
0.080543,0.278435,0.214753,-0.425506,-0.639692,0.640108
0.823763,-0.141208,-0.939409,-0.283432,0.220970,0.933188
0.123419,-0.021941,-0.310865,0.997938,-0.022068,-0.060276
-0.158652,-0.594379,0.789476,0.251754,0.645041,0.721486
0.063569,-0.668487,0.811747,0.969915,-0.141303,-0.198237
0.049504,0.431724,0.876932,0.879038,-0.438464,0.187195
0.315073,-0.312599,-0.961376,-0.244886,0.234291,0.940818
0.361533,0.115213,-0.178274,0.788598,-0.606765,-0.099742
0.095490,-0.346201,0.756830,-0.758449,0.609013,-0.232072
-0.723136,-0.375859,0.827370,-0.273854,0.247669,-0.929335
0.013119,-0.034483,0.302711,0.998797,-0.035683,-0.033632
0.566713,-0.064068,-0.953891,0.213600,-0.126672,-0.968674
0.356124,-0.285477,0.374041,0.782705,0.619317,0.061800
0.644147,-0.563525,0.435058,0.050888,-0.840926,0.538752
-0.089065,0.464763,0.628545,0.827766,-0.457883,0.324262
-0.501928,-0.334506,0.653766,-0.517320,0.107250,-0.849045
0.036789,0.129724,0.773853,0.332891,0.341106,0.879108
0.870900,0.333100,0.515623,-0.042294,0.584122,-0.810563
-0.061203,0.680182,0.944749,-0.027983,-0.698678,0.714889
-0.467438,-0.315557,0.651545,0.094657,0.527633,0.844182
-0.326436,0.428061,0.587821,0.737550,-0.549413,0.392640
0.219584,-0.368812,0.663229,0.836728,0.524572,-0.157196
-0.360992,-0.727942,0.806636,-0.045052,0.151007,0.987506
-0.366808,-0.268287,0.102546,-0.611216,-0.049350,-0.789924
-0.204706,-0.393750,0.666575,-0.542753,0.228453,-0.808226
0.351592,0.189252,0.820388,-0.777901,0.623884,0.075091
0.029891,-0.038567,0.825955,-0.604316,0.676436,-0.420996
0.221275,-0.468211,0.430662,0.577240,-0.798796,0.169466
0.210792,-0.169878,-0.967704,-0.160959,-0.012187,0.986886
0.408669,0.802192,0.790891,0.217260,0.879621,-0.423162
-0.378440,-0.310415,0.109529,0.630107,0.420060,0.653081
-0.855481,-0.247649,0.656474,0.884461,-0.417689,-0.208001
0.018868,0.351695,0.704043,-0.024269,-0.997078,-0.072428
0.327043,0.507028,0.788761,-0.095759,0.609248,0.787176
0.630689,-0.041384,0.582071,0.771896,0.539526,-0.336286
0.328465,-0.090206,0.555768,0.510930,-0.826621,0.235898
-0.581457,0.579726,0.701168,-0.652703,0.221950,-0.724374
0.218028,0.725195,0.865964,0.963870,-0.104156,0.245167
-0.215188,0.295341,0.769730,0.814107,0.453074,-0.363255
-0.184351,-0.395440,-0.740523,0.289180,-0.179368,-0.940320
-0.493879,-0.792539,0.666560,0.592151,-0.800408,-0.093295
0.332725,0.442710,0.893665,0.731298,0.079994,-0.677351
0.135523,0.041810,0.265441,0.186948,-0.981594,0.039043
-0.086697,0.246381,0.459474,0.419464,0.893371,-0.161054
0.293298,-0.306257,0.603246,0.076947,-0.959544,-0.270840
0.749239,-0.078016,0.555297,0.732128,-0.233567,0.639871
0.047407,-0.188052,-0.808446,0.945387,-0.241947,-0.218415
-0.089471,-0.323800,0.696407,0.195831,0.949358,0.245703
-0.553593,-0.375154,0.666895,0.840775,-0.044451,0.539557
0.637114,0.467790,0.585341,-0.525940,0.720818,-0.451453
-0.222222,-0.769291,0.831127,-0.578597,0.758932,0.298742
-0.160411,0.470326,0.778660,0.707360,-0.560238,-0.431017
-0.020559,0.505691,0.684389,0.486418,0.641414,-0.593284
-0.042470,-0.341974,0.632926,-0.578842,0.190326,0.792917
0.098465,-0.005177,-0.257241,0.867812,-0.489252,-0.086799
0.121661,-0.058857,0.013630,-0.586192,-0.548086,-0.596641
0.230405,-0.436157,0.461376,0.864287,-0.493735,0.096091
-0.125382,0.644749,0.901698,-0.232525,0.636580,-0.735322
-0.535742,-0.749285,0.850234,0.285795,0.550880,0.784125
-0.238249,-0.362827,0.671002,0.147546,-0.801800,0.579091
0.026375,-0.022857,0.392875,0.985878,0.039007,0.162857
0.173530,-0.069353,-0.627632,-0.388761,-0.891302,-0.233335
0.127477,-0.032299,-0.357704,0.870219,0.418662,0.259693
-0.699195,-0.103939,0.568425,0.614985,-0.533754,0.580431
0.578820,0.265333,0.766749,-0.820626,0.569538,-0.046898
0.036248,0.056815,-0.029056,0.206042,0.131037,-0.969730
-0.679312,0.024620,0.608540,0.566594,-0.779269,0.267788
0.241157,0.519144,0.695540,-0.755106,0.510570,-0.411259
-0.033272,0.106338,0.074571,0.326331,0.944922,-0.025095
0.104077,-0.065969,-0.087928,-0.760290,-0.649429,0.014178
0.050653,0.422493,0.772864,-0.178866,0.972126,-0.151583
0.175559,0.040963,-0.957497,-0.718513,0.677317,0.158054
0.656183,-0.273993,-0.249042,-0.716560,0.402332,0.569799
0.111990,-0.641859,0.206675,0.078561,0.769182,0.634182
0.354432,0.188968,0.380902,0.926491,-0.301582,-0.225082
0.120309,-0.055263,0.085417,0.963107,0.248687,-0.102857
-0.254277,-0.732942,0.668233,0.075977,0.328082,0.941589
-0.138163,-0.125002,0.182746,0.814250,-0.494521,-0.304051
0.461960,0.353459,0.555677,0.658510,0.632740,-0.407436
0.289647,0.669050,0.689835,0.872177,-0.376823,0.311948
0.420436,0.582615,0.687933,0.269637,0.885404,-0.378622
0.190167,0.176994,0.924455,0.107794,-0.929701,0.352188
0.755661,0.051815,-0.297234,-0.637866,0.375508,0.672399
-0.100967,0.292593,0.708790,-0.289888,0.731985,-0.616573
-0.000135,-0.206369,0.901591,0.694727,-0.680481,-0.233024
0.033949,-0.030467,0.392844,0.961443,0.091115,0.259472
-0.057889,-0.739353,0.764726,0.650686,-0.587861,0.480652
0.059850,-0.735126,0.387139,0.409347,-0.478429,-0.776879
0.370257,-0.149166,0.043112,-0.346484,0.446442,0.825008
0.197064,-0.254692,0.746029,0.350150,0.147169,-0.925060
0.396158,0.190447,0.320935,-0.142594,0.964488,-0.222330
0.504498,0.679055,0.678030,0.921066,-0.265310,-0.285042
0.185162,0.153324,0.830686,-0.129129,0.937445,0.323299
-0.233179,0.763096,0.850204,-0.437122,0.256848,-0.861948
0.152768,0.165019,0.736628,0.936667,0.182148,-0.299128
0.182863,-0.489275,-0.843434,0.867338,0.390025,0.309202
0.394874,-0.066747,0.560439,0.008043,-0.973518,0.228468
0.189219,-0.067590,-0.358753,-0.574457,-0.779224,-0.250619
-0.089201,0.744711,0.940139,0.947902,-0.298773,0.110527
-0.637182,-0.370786,0.826670,-0.358368,-0.914498,-0.187791
0.186989,-0.073579,-0.764330,0.901768,0.222487,0.370560
0.538377,0.088164,0.893026,-0.015435,-0.008992,0.999840
-0.527627,-0.608116,0.821422,-0.439245,-0.498753,-0.747201
0.675119,-0.267724,0.541393,-0.318981,0.248028,-0.914731
0.143302,-0.049768,-0.513554,0.806964,0.590580,0.004909
0.284033,-0.073790,0.685636,0.259098,0.158376,-0.952778
-0.362142,-0.177484,0.641718,0.689626,0.721223,-0.065219
0.260295,0.605790,0.683066,0.738220,-0.325459,0.590854
0.085548,0.042936,0.056894,0.983862,0.086721,-0.156507
-0.102050,0.727099,0.910612,-0.439921,0.721138,-0.535191
-0.481909,-0.301325,0.431940,0.076244,0.611534,0.787536
-0.390071,-0.377476,0.746501,0.692764,0.585640,0.420838
-0.525868,-0.565777,-0.728170,0.052500,0.328525,0.943035
0.229119,-0.406361,0.681042,-0.063670,0.284483,0.956564
0.512951,0.301257,0.675688,-0.293165,0.752125,0.590222
0.494826,0.384171,0.764862,0.432627,0.698007,-0.570632
0.326434,0.017156,0.830930,0.921430,-0.020455,0.388007
0.512138,0.032372,0.653401,0.831871,0.554767,0.014973
-0.717252,0.403755,0.699723,-0.789595,-0.345054,-0.507423
0.527286,0.352964,0.421717,0.760683,0.313439,0.568434
-0.262596,-0.736816,0.697487,-0.407940,0.892603,0.191953
-0.258605,-0.090838,0.737069,0.784028,-0.432805,0.444949
-0.066342,-0.603816,0.766840,-0.450463,0.630582,0.632020
-0.497125,0.037583,0.548649,-0.763858,0.557114,-0.325800
0.556299,-0.352891,-0.947015,-0.317360,0.260763,0.911748
-0.161899,-0.444610,0.672432,0.742036,0.636861,0.209262
0.065531,-0.274487,0.703115,0.338409,-0.885357,-0.318781
0.144315,-0.234406,0.742926,0.295894,0.647296,-0.702464
0.143234,-0.009545,-0.634036,0.983686,0.112989,0.139984
-0.092513,-0.136276,0.862389,0.934920,0.354714,0.010126
0.001555,-0.297594,0.938055,-0.367621,0.433901,0.822548
0.350983,0.227712,0.344712,0.886245,-0.462695,-0.021966
-0.059445,0.030115,0.269350,-0.242865,-0.966223,-0.086195
-0.289038,-0.286109,0.904284,-0.237562,0.875009,0.421810
-0.565700,0.624532,0.698993,0.744452,-0.366873,0.557849
0.044837,-0.202985,0.416423,0.820370,0.537367,0.195522
-0.255697,-0.182205,0.832755,-0.164487,0.972864,0.162723
0.338338,0.608611,0.759279,0.748440,-0.659104,0.073619
0.640292,-0.194742,0.474717,-0.705930,0.034276,-0.707452
-0.020220,-0.183262,0.578785,-0.577055,0.556276,0.597967
0.131332,0.175231,0.908498,-0.443757,0.431950,0.785175
-0.533104,-0.148883,0.554780,-0.102750,-0.159214,0.981882
-0.079462,0.058226,0.262946,-0.246324,-0.960907,-0.126421
-0.270779,-0.410940,0.461999,0.144337,0.629832,0.763203
-0.097720,-0.663835,0.781277,0.774448,0.457641,0.436800
0.664639,0.410450,0.819323,0.248544,0.853068,-0.458804
0.158044,-0.262865,0.636348,-0.058994,-0.624966,0.778420
0.559477,-0.383397,-0.242972,-0.573506,0.548990,0.608030
0.288293,0.040963,0.240325,0.842676,0.024587,-0.537860
-0.161224,-0.591347,0.650648,-0.660634,0.662370,0.353312
0.757692,0.463916,0.571620,0.378306,-0.900943,0.212572
0.102589,0.496038,0.889239,0.936705,-0.331839,0.111655
-0.719889,-0.245959,0.555708,-0.602080,0.259067,-0.755238
-0.156557,0.271740,0.363819,-0.414254,-0.871184,0.263499
0.149861,-0.453699,0.422539,0.438770,-0.898377,0.019982
0.194292,0.180515,0.933111,0.756077,0.654444,-0.007177
0.023128,-0.054558,0.047417,0.860427,0.453419,0.232544
0.511327,-0.092248,0.544344,0.265443,0.735580,-0.623268
-0.051194,0.440246,0.805601,-0.190874,0.959466,-0.207343
-0.852235,-0.132187,0.606076,0.584674,-0.448792,0.675827
-0.395483,-0.625654,0.391338,0.507130,0.839248,-0.196170
-0.554811,-0.193195,0.767950,0.358936,0.926109,0.116136
0.173733,0.064563,-0.479129,-0.513671,0.822108,0.245521
0.055926,0.074005,0.308644,0.933481,0.350736,-0.074811
0.597010,0.568173,0.662864,0.156764,0.987284,0.026359
0.403598,0.434751,0.648138,0.636269,0.084883,0.766783
0.504834,0.105070,0.891901,0.070257,0.363057,0.929114
0.223033,-0.048994,0.000882,0.740621,0.388689,-0.548088
-0.492189,-0.780844,0.850371,0.762001,0.395178,0.513019
0.346317,-0.050262,0.222648,0.610028,0.784811,-0.109257
-0.006696,0.053505,0.513082,0.351869,0.929047,-0.114276
0.703117,0.108733,0.621714,-0.004196,-0.754769,0.655977
0.639413,-0.374943,-0.230985,-0.585672,0.583546,0.562550
0.524651,0.582826,0.472998,-0.718283,0.420108,0.554598
-0.281125,0.522033,0.617592,-0.087760,0.921165,-0.379148
-0.080611,0.642354,0.673360,0.856869,0.040045,0.513977
-0.441266,0.060057,0.810986,-0.152718,-0.987476,-0.039593
0.066815,0.043147,0.027717,0.275918,0.927118,-0.253617
-0.262190,-0.149661,0.817147,0.093224,0.989085,-0.114106
0.444377,-0.030820,-0.968632,0.198458,-0.154938,-0.967786
-0.420911,-0.644533,0.779603,-0.553555,-0.569987,-0.607200
0.224589,-0.235533,0.648853,0.946369,0.300574,-0.118491
0.072428,0.075974,0.432563,0.737964,-0.638960,0.217117
-0.203625,0.596916,0.662164,0.767498,-0.182068,0.614653
0.112667,-0.611917,0.427985,0.558511,0.639275,-0.528576
-0.162169,0.624179,0.668751,-0.144251,0.945257,0.292712
0.140732,-0.006024,-0.453815,0.982777,-0.151305,0.106098
-0.264895,-0.089359,-0.701731,-0.030391,0.866450,0.498339
0.135998,0.014619,-0.756815,0.833855,-0.380995,0.399411
0.368701,0.127892,-0.084520,0.541420,-0.766621,-0.345189
0.068439,-0.003766,-0.209794,0.955952,-0.288224,0.055515
0.275241,0.130076,0.840635,-0.710941,0.684800,-0.160039
-0.254547,-0.279277,0.624376,0.297531,-0.954001,0.036828
-0.027119,0.132471,-0.054475,0.902097,0.019864,-0.431075
-0.055590,0.164809,0.657204,0.820506,0.565073,0.086390
0.570162,0.160156,0.766809,0.933837,0.306206,-0.184895
-0.118280,-0.198195,0.181210,-0.587899,0.549083,0.594039
0.290592,-0.119017,0.891156,0.745083,0.441586,-0.499852
-0.101442,0.317883,0.246060,-0.656921,-0.013953,-0.753830
-0.113005,-0.017014,0.879396,0.768304,0.433887,-0.470586
0.070602,0.282308,0.954926,0.267100,0.867685,-0.419262
-0.345101,-0.455389,0.456006,-0.037907,0.360543,0.931972
0.133090,0.021098,-0.166195,0.234864,0.959907,-0.153028
0.033272,0.023846,0.038152,0.989794,-0.119019,-0.078373
-0.084330,0.693283,0.925961,0.635371,0.745535,-0.201200
0.541285,0.401644,0.578693,0.176527,0.984220,-0.012212
0.031513,-0.164172,0.438009,0.507577,0.860953,0.033536
0.296071,-0.296398,-0.721796,0.966076,0.013640,-0.257897
0.155812,-0.076116,-0.149598,-0.032610,0.991804,-0.123535
-0.287009,0.110492,0.501886,-0.802051,0.084775,-0.591209
0.005544,0.670177,0.908939,0.271805,0.947127,-0.170506
0.132211,0.008629,-0.379305,0.978592,-0.204643,-0.021878
0.320214,-0.208832,0.576366,0.157231,0.754354,0.637361
0.277472,-0.098023,-0.819931,0.033816,-0.903644,0.426947
0.511935,0.305483,0.621105,0.986063,-0.038753,-0.161795
0.279165,0.054842,-0.398275,-0.243170,0.965295,-0.095262
-0.550145,-0.275756,0.570540,0.237502,0.325533,0.915216
-0.051735,-0.430383,-0.726375,-0.655953,0.327074,0.680256
-0.531143,0.373817,0.867516,-0.066400,-0.743487,0.665445
-0.100899,0.002571,0.887094,0.768304,0.433887,-0.470586
0.422667,-0.550209,0.361552,0.819120,-0.314111,-0.479976
0.150469,0.007855,-0.805251,0.937581,-0.263999,0.226377
0.565361,0.857137,0.523716,-0.422944,-0.275645,0.863214
-0.809021,-0.186853,0.648320,-0.551775,0.762808,0.337147
-0.475012,-0.378817,0.770902,0.778880,0.338749,0.527821
0.248393,-0.042441,-0.713642,-0.724349,-0.689430,0.002226
0.024210,0.417914,0.784547,-0.351193,-0.825402,0.442013
-0.232434,-0.873338,0.805723,0.715517,0.056979,0.696268
0.026509,-0.234333,0.928045,-0.742999,0.542185,0.392413
0.015147,-0.636364,0.821209,0.898017,-0.140614,-0.416885
0.056942,0.002644,0.438055,0.668939,-0.743246,0.010303
0.427943,0.261950,0.736278,0.121618,-0.988596,0.088813
0.395887,0.553029,0.602364,-0.503958,0.379621,-0.775831
-0.212485,0.296188,0.702978,-0.292003,0.211752,-0.932682
0.154865,-0.044415,0.110746,-0.794353,0.594811,-0.123301
-0.362953,0.428693,0.845807,0.838561,0.068742,0.540453
-0.251031,-0.166141,0.841807,-0.383982,0.880413,-0.278264
0.391492,-0.153677,-0.965133,-0.135189,0.055689,0.989254
0.085818,0.007997,0.074693,0.993567,0.054900,-0.099050
0.490971,0.187347,0.410293,0.195237,0.829394,-0.523438
0.009806,0.005740,0.496364,-0.534842,-0.833726,-0.137277
-0.456685,0.691314,0.669283,0.112394,-0.583898,0.804009
0.596131,-0.327321,-0.934404,-0.318891,0.419428,0.849935
-0.132347,-0.367191,-0.538594,0.168451,0.484826,0.858235
0.054777,-0.332394,0.113910,0.561147,-0.672089,-0.483125
-0.253602,0.351627,0.849823,-0.501813,0.859376,-0.098262
-0.094272,0.634038,0.668279,0.856869,0.040045,0.513977
0.293568,0.569230,0.730163,0.941653,0.086291,0.325337
0.232906,-0.037793,0.862906,-0.238735,0.926714,0.290185
0.484276,-0.253213,0.563070,-0.659669,0.462753,-0.592196
0.603975,0.406223,0.805464,-0.569858,-0.743192,0.350609
0.278351,-0.571625,0.467278,0.758227,0.504195,-0.413376
-0.013661,-0.053853,0.543523,0.995684,-0.056539,-0.073600
0.181375,-0.152477,-0.451929,0.958265,0.223291,-0.178517
0.573408,-0.409388,-0.939576,-0.590984,0.096964,0.800834
0.627173,-0.069985,-0.957269,0.151672,-0.136798,-0.978919
0.339892,-0.127118,-0.440885,-0.690147,-0.528284,0.494584
-0.384256,0.475185,0.848317,0.837187,0.531668,0.128248
-0.043620,0.473074,0.817923,-0.069621,-0.989440,-0.127124
-0.033881,0.009898,0.566949,0.986478,-0.028009,0.161483
0.156826,0.154945,0.943881,0.164281,0.948383,-0.271258
-0.152973,0.597690,0.683948,0.663889,0.739240,-0.113025
0.548589,0.454052,0.804628,0.616929,0.761967,-0.196990
0.451815,-0.299778,-0.955002,0.171387,-0.166682,-0.971001
-0.831203,-0.205943,0.681073,-0.665962,0.699526,-0.259147
-0.160681,0.335847,0.496471,-0.796936,0.387379,-0.463497
0.091364,0.116339,0.187219,-0.035708,-0.173594,0.984170
0.098531,0.172062,0.542899,0.970242,0.188782,-0.151632
0.034355,-0.764501,0.800079,-0.656811,0.154038,0.738154
0.333131,-0.293436,-0.961802,0.299450,-0.159500,-0.940686
0.170825,0.041741,-0.254047,0.108986,0.989360,0.096382
-0.597348,0.048151,0.593678,-0.699081,0.618549,-0.358723
0.465139,0.382059,0.577324,0.985864,-0.008863,-0.167315
0.425846,0.267655,0.466639,0.252315,-0.963938,0.084621
0.187800,0.789723,-0.099291,0.012755,-0.810066,0.586201
0.173937,0.638617,0.832588,0.982495,0.006354,0.186179
0.200378,-0.213695,-0.496349,0.964822,-0.195554,-0.175717
0.046662,0.037794,0.213947,0.975201,-0.165384,-0.147073
-0.202339,-0.267582,0.704987,-0.213618,-0.172029,0.961651
0.243659,-0.023282,-0.625091,0.823881,-0.561710,0.075511
-0.142423,0.318025,0.707010,-0.320072,0.090589,-0.943052
0.350510,0.215174,0.391870,0.898874,-0.436275,-0.041117
-0.020761,-0.485117,-0.703055,0.738614,-0.341818,-0.581042
-0.345776,-0.091401,0.392433,0.939919,-0.069487,0.334251
-0.292623,0.177557,0.782417,0.803977,-0.030106,0.593898
0.442078,-0.361348,0.519472,0.352178,0.540303,-0.764227
0.320957,0.164314,0.239123,0.839349,-0.529212,0.124205
0.418137,0.725547,0.644076,-0.537940,-0.763569,0.357187
0.399270,0.498717,0.596264,-0.765670,-0.414270,0.492066
-0.050247,-0.147193,0.536616,0.935083,0.093070,0.341991
-0.556097,-0.357048,0.665647,0.855433,0.023074,0.517398
-0.125448,0.135502,0.479326,-0.002575,0.363026,0.931776
0.421722,-0.328521,-0.339144,0.935078,-0.153461,-0.319498
-0.570975,-0.177062,-0.709079,-0.140408,-0.983546,-0.113678
-0.606817,0.039346,0.596355,0.564851,-0.709760,0.420932
0.109622,0.011450,-0.124042,-0.764813,0.632998,0.119891
0.491039,-0.137544,-0.961148,-0.238544,0.136342,0.961513
0.624940,-0.248212,-0.950347,-0.207764,0.226292,0.951644
-0.318387,-0.167835,-0.721948,-0.185849,-0.980049,-0.070450
-0.196659,-0.147051,0.822091,-0.216252,0.954825,-0.203825
0.215325,-0.160225,-0.872414,0.984169,-0.014304,-0.176654
0.273958,0.160367,0.839996,-0.835171,-0.073161,0.545102
-0.193684,-0.159451,0.798436,0.868930,-0.270161,0.414696
0.146614,0.120781,0.875669,0.214641,0.888926,-0.404649
0.110367,0.002502,0.253986,-0.198388,-0.940367,-0.276318
-0.479746,0.401008,0.860366,0.056509,-0.552520,0.831582
0.025902,0.223348,0.879351,0.783215,0.599050,-0.166475
-0.331913,-0.413756,0.391490,0.899951,-0.112820,-0.421142
0.067694,-0.212496,0.469301,0.995060,0.088584,0.044816
0.400758,-0.077032,0.218769,0.773987,0.585946,-0.240023
0.181645,0.396008,-0.156125,0.729209,0.134981,-0.670846
0.086359,0.049489,0.026211,-0.040243,-0.999185,0.003014
-0.020490,-0.393681,0.938359,0.768058,-0.110556,-0.630765
0.119091,0.030678,-0.272636,0.796351,-0.604641,0.015273
0.185028,-0.128597,0.343358,0.856155,0.507027,-0.099605
0.113546,0.082458,-0.203602,0.945060,0.013917,-0.326599
0.192127,0.030540,-0.940550,-0.517757,0.855472,-0.009729
0.064109,-0.027225,-0.038183,-0.431833,-0.701152,-0.567367
-0.491987,0.546829,0.610411,-0.176579,-0.980986,0.080542
-0.575843,-0.267797,0.678912,0.696021,-0.366407,0.617496
0.713939,0.395866,0.546672,0.238442,0.648712,-0.722716
-0.377899,0.517596,0.611217,0.053183,-0.955144,0.291326
-0.434910,-0.506464,0.828572,0.775467,0.330386,0.538048
-0.215797,0.606568,0.850310,0.894538,0.432404,-0.113263
0.408939,0.745979,0.759812,0.544341,0.836064,-0.068478
0.420909,0.254481,0.897758,-0.125308,-0.145739,0.981355
0.464462,-0.118944,-0.963247,0.217229,-0.120038,-0.968712
0.132886,0.251949,-0.225174,0.890502,0.063519,0.450524
-0.454657,0.648201,0.821620,0.246656,0.741990,0.623388
0.297355,0.704131,0.753605,-0.273630,0.567253,-0.776756
0.357205,0.307809,0.943881,0.377124,0.620925,0.687190
0.728341,-0.147193,0.473409,-0.509427,0.381074,0.771535
-0.728072,0.363743,0.620619,-0.436899,-0.697907,-0.567490
0.189424,-0.106265,0.866222,0.891731,-0.117537,-0.437037
0.243388,-0.548446,-0.564607,0.253177,0.091647,0.963069
0.036518,0.020957,0.522575,0.975201,0.146445,0.165941
-0.127206,-0.249408,0.599808,0.611222,0.374164,0.697430
0.063839,0.043362,0.096188,0.638927,0.678078,0.363294
-0.300197,0.101759,0.764254,-0.542695,-0.755619,0.366772
-0.013593,0.042936,0.251126,0.244520,0.965332,0.091345
0.331507,-0.196505,0.454880,0.655892,0.220800,-0.721840
0.618110,-0.172483,0.534456,-0.163509,-0.370956,0.914143
-0.237575,-0.437215,-0.737343,-0.228706,0.261302,0.937771
-0.417867,-0.780565,0.692421,0.042620,-0.947230,-0.317709
-0.611145,-0.453983,0.667412,-0.644722,0.662080,-0.382077
-0.196389,-0.043005,0.776211,-0.777867,-0.425053,0.462876
0.109150,0.443488,0.767281,-0.552086,0.812867,0.185604
-0.076013,0.025256,0.137139,0.960511,0.081858,0.265928
0.278419,-0.025819,0.265790,0.948004,0.162985,-0.273358
0.021978,-0.590363,0.201746,0.185643,0.830352,0.525406
0.093461,-0.038567,0.797919,0.012125,0.750653,0.660586
0.191518,0.021593,-0.165754,0.187552,0.979454,0.074121
0.775478,0.266035,0.562006,0.753913,-0.483304,-0.445008
-0.496383,0.427635,0.864169,0.011089,-0.693068,0.720787
0.129437,0.001165,-0.600113,0.980477,-0.195802,0.018048
-0.163184,-0.145503,-0.040632,0.751646,-0.545225,0.371157
-0.336986,0.131839,0.522955,-0.711079,0.235738,-0.662415
-0.604314,0.144588,0.605406,0.845222,-0.182715,0.502211
0.610334,-0.327041,-0.248266,0.483673,-0.556590,-0.675476
0.518699,-0.313936,-0.951594,0.442301,-0.164617,-0.881629
-0.629067,0.043009,0.803715,-0.344044,-0.449993,0.824099
0.583079,0.870453,0.509842,0.928458,-0.370742,0.022710
0.461824,-0.050473,0.560956,0.001474,-0.800276,0.599630
-0.429498,0.525697,0.609651,-0.028231,0.973348,-0.227589
0.689793,0.453773,0.569034,0.480575,-0.771328,0.417255
0.040914,-0.543304,-0.694216,0.690617,-0.455123,-0.562059
-0.165754,-0.432988,0.705367,0.155124,-0.483310,0.861596
0.317915,0.180235,0.344591,-0.825620,-0.454746,0.334004
-0.392979,0.592968,0.664917,0.859620,0.506151,0.069741
0.648541,0.195590,0.447411,0.944405,-0.327187,-0.032361
0.540678,0.245959,0.751050,0.743370,0.478185,-0.467697
-0.127072,-0.033141,0.873418,0.756890,0.443523,-0.480005
0.031445,-0.265892,0.078724,0.760551,-0.505026,-0.408058
0.047000,-0.030114,0.219104,0.933487,0.358589,-0.004070
0.062487,0.543519,0.891399,0.735968,0.675862,0.039519
-0.309393,-0.064842,0.742941,0.854440,0.296655,-0.426531
0.364103,0.187210,0.408832,-0.590288,-0.762079,0.266074
0.179819,-0.087033,0.281824,0.289639,0.932950,0.213808
-0.617638,-0.365433,0.829637,0.501165,0.624784,0.598730
-0.367417,0.472369,0.890669,0.925649,0.310806,-0.215810
-0.485292,-0.321546,0.136059,0.791834,-0.209946,0.573516
0.669439,0.298793,0.784060,0.138591,0.814141,-0.563885
0.090078,0.032230,0.238241,-0.671057,0.615627,0.413142
-0.374044,0.220037,0.812036,0.976665,-0.052339,0.208291
0.339690,0.755206,0.649172,-0.250049,-0.852324,0.459369
-0.526813,-0.349653,0.798740,0.982911,0.048547,0.177564
0.071751,-0.014193,-0.064455,0.398998,0.913080,0.084172
-0.157571,-0.725263,0.698491,-0.289583,0.270426,-0.918157
-0.016365,-0.321052,0.936169,0.753319,-0.045983,-0.656046
0.061676,-0.714557,0.242820,0.071256,0.907397,0.414190
0.175221,-0.111829,-0.517175,0.849350,0.521867,0.079119
-0.682357,-0.040752,0.575636,0.548840,-0.616710,0.564307
0.391289,0.226448,0.869158,0.666634,-0.468384,-0.579841
0.118414,-0.056247,-0.140745,-0.692259,-0.718863,-0.063346
0.507201,0.211864,0.749513,0.341681,0.939690,0.015415
