0.152023,-0.282373,0.465399,-0.728233,0.665538,0.163513
0.961665,-0.820941,-0.964366,-0.174350,-0.303360,-0.936790
0.535836,-0.382048,0.350582,-0.454008,-0.852018,-0.260657
-0.727217,0.429445,0.204730,0.144191,0.987066,-0.070066
-0.142498,0.168370,-0.282850,-0.121380,0.494037,0.860926
-0.038422,0.364312,0.776780,-0.516522,-0.487259,-0.704119
0.121052,0.249148,0.662089,-0.085241,-0.514213,-0.853416
-0.324938,-0.018432,0.282130,0.762523,-0.614860,-0.201260
0.431644,-0.494656,-0.056689,0.021912,0.910074,0.413866
0.884704,-0.233658,-0.971249,-0.082910,0.313454,0.945977
-0.072199,-0.710037,-0.033162,-0.281402,0.083090,0.955986
0.243127,-0.149241,0.714428,0.796554,-0.016558,0.604341
0.815749,-0.839994,-0.953541,-0.237345,-0.638886,-0.731773
0.063024,0.410238,0.701133,-0.468435,-0.218217,-0.856125
0.581709,-0.488692,0.141753,0.571279,0.818179,-0.064993
0.382674,-0.234201,0.620323,-0.625136,0.640688,-0.445785
0.372038,-0.121979,0.282756,0.949220,0.312880,0.032973
0.630445,-0.845337,-0.945470,-0.184179,0.024954,-0.982576
0.900715,-0.515566,-0.967714,-0.377381,0.264982,-0.887338
0.477984,-0.448265,0.298836,-0.303516,-0.944965,0.122142
0.935895,-0.311106,-0.975692,-0.033775,-0.043875,0.998466
0.616946,0.160161,0.233544,0.992279,-0.117936,-0.038396
-0.298408,0.246128,0.406051,0.573895,-0.693744,-0.435160
0.564295,-0.504027,-0.124046,-0.043136,0.997365,-0.058337
0.064485,0.029585,0.699537,-0.602199,0.305700,0.737498
0.331716,0.496127,0.348611,-0.158584,0.763490,0.626046
0.367713,-0.120431,0.618696,0.861249,-0.234667,-0.450756
-0.382556,0.123063,0.247122,0.629722,0.186386,0.754129
0.400556,0.456785,-0.117695,0.540958,0.559894,-0.627601
-0.057473,0.006428,0.238988,0.533542,0.535555,0.654609
0.065537,-0.002091,0.680046,0.805310,-0.528683,-0.268273
0.359591,0.764173,-0.072582,0.970365,0.225195,0.087632
0.957399,-0.831010,-0.968965,-0.103012,-0.472476,-0.875303
0.871263,-0.394749,-0.427700,0.132429,-0.298205,-0.945270
0.590475,-0.451905,-0.152797,0.890276,-0.336757,0.306599
-0.086399,0.622134,0.750814,-0.384594,0.151252,0.910610
-0.229511,-0.370198,0.553435,0.738637,0.652747,0.168335
0.733002,-0.431149,-0.953667,-0.212759,-0.169069,-0.962367
0.413294,-0.592394,-0.940558,0.238052,0.028962,0.970821
-0.168210,0.437267,-0.274371,0.017600,-0.238768,-0.970917
0.913630,-0.267271,-0.976317,0.029831,-0.114442,0.992982
0.830299,-0.821793,-0.957703,-0.008140,0.355158,0.934771
0.407451,0.221887,-0.120855,0.400127,-0.232355,-0.886515
-0.026793,0.034928,-0.270085,-0.347598,0.428258,-0.834129
0.888853,-0.359046,-0.969122,-0.361489,0.097025,-0.927314
0.109832,-0.427431,-0.276811,0.037822,0.997525,0.059266
0.843389,-0.611369,-0.962458,-0.291026,-0.106923,-0.950721
0.347904,-0.214064,0.843230,0.937882,-0.286598,-0.195548
0.649437,-0.341233,-0.955512,0.202921,-0.149333,0.967741
-0.881022,0.612376,0.116600,-0.293278,0.336057,0.895016
-0.220335,0.695864,0.724377,-0.016656,-0.627596,0.778361
0.343112,-0.899861,-0.941184,0.059139,0.068687,0.995884
-0.245756,0.110207,0.523495,0.217856,-0.974179,-0.059287
0.131980,0.185331,0.712364,-0.376367,0.395950,0.837599
0.121169,0.587360,0.680046,-0.004510,-0.998909,0.046476
0.166457,0.463677,0.648730,-0.104640,-0.457985,-0.882780
0.557692,-0.823498,-0.940089,0.096088,0.087968,0.991478
0.469978,-0.768819,-0.951633,0.060719,-0.098993,0.993234
0.258729,-0.308318,0.377049,-0.342943,-0.939333,-0.006638
-0.101592,-0.687190,-0.022275,0.252063,-0.527103,-0.811558
0.704777,-0.680839,-0.946064,-0.032178,0.040689,0.998654
0.022527,-0.286090,0.588506,-0.674393,0.284560,-0.681337
0.576450,-0.204538,0.049962,0.854352,0.112601,-0.507349
-0.341359,-0.323885,0.427887,0.438875,-0.672793,-0.595599
-0.066939,0.178594,0.461550,0.522832,0.307418,-0.795073
-0.632315,0.469950,0.289576,-0.207006,0.264724,0.941844
0.071556,0.235672,0.219059,-0.537723,-0.634586,-0.555116
0.340365,-0.322568,0.350113,0.132921,-0.924720,0.356686
-0.229276,0.176038,0.801934,0.183349,-0.192567,0.964003
0.723302,-0.590149,-0.948786,-0.175766,0.090954,-0.980221
0.271527,-0.106645,0.682831,0.899131,0.302678,0.316148
0.984982,-0.603083,-0.985421,-0.557851,0.003131,-0.829935
0.583988,-0.483039,-0.940933,-0.189956,-0.124647,-0.973848
0.860336,-0.577060,-0.967025,0.192427,0.020872,0.981089
0.188196,0.116868,0.713897,0.808212,0.054943,-0.586324
0.338787,-0.738847,-0.939025,0.018504,-0.161017,0.986778
0.900541,-0.456010,-0.974096,-0.266775,-0.211709,-0.940218
0.622673,-0.476843,-0.940152,0.369555,-0.000949,0.929208
-0.565288,0.143587,-0.237330,-0.422892,0.469292,0.775195
-0.244997,0.268045,0.220029,0.113294,-0.502202,-0.857297
-0.161958,0.302122,0.637186,-0.632597,0.771924,-0.062884
0.161665,0.368495,0.667282,0.576405,-0.103714,-0.810556
-0.128532,0.077602,0.401014,0.518611,0.362363,0.774426
0.271527,0.455158,0.358028,-0.008279,0.809030,0.587709
0.836260,-0.485439,-0.962020,0.314587,-0.049282,0.947949
0.147582,-0.200976,0.554342,0.517109,0.855904,0.005148
0.792082,-0.521608,-0.957296,0.084231,0.079751,0.993250
-0.331892,-0.368030,0.156270,0.485310,-0.268107,-0.832222
0.494930,-0.280592,0.659398,-0.200396,-0.536581,0.819709
-0.111702,-0.792053,-0.000407,-0.364166,0.809381,0.460745
-0.026092,0.273157,-0.311663,0.432395,-0.823917,0.366326
-0.877808,0.273776,-0.281911,0.032002,-0.154640,0.987452
-0.015281,0.078841,-0.271493,-0.757229,0.267176,-0.596005
-0.831118,0.347197,0.295489,-0.283422,0.060548,-0.957082
0.505040,-0.413724,0.319735,0.171565,0.907469,-0.383492
-0.469394,0.459108,0.138875,-0.280942,-0.895705,-0.344651
0.035676,-0.073808,0.230666,-0.323244,-0.499569,0.803707
0.884295,-0.399395,-0.970154,-0.226496,0.153938,-0.961770
-0.408385,0.126162,-0.219122,-0.002783,-0.026996,0.999632
0.399503,-0.053284,0.844168,0.938710,-0.245859,-0.241614
0.792432,-0.644284,-0.962990,0.117061,0.112156,-0.986771
0.934200,-0.763785,-0.971437,0.135474,-0.005090,0.990768
-0.331541,0.435332,0.144538,-0.715449,0.241146,0.655729
0.837663,-0.323885,-0.967025,0.015007,0.058213,0.998191
-0.751818,0.481490,0.288731,0.355326,0.702248,0.616921
0.304485,-0.190985,0.716525,-0.238923,-0.844350,0.479571
0.402483,0.399550,-0.315104,-0.642674,-0.738529,0.203827
0.464368,0.145059,-0.066512,0.501219,-0.696705,-0.513207
0.188604,-0.078686,-0.343543,0.505211,0.008526,0.862954
-0.180132,0.758751,0.735359,0.014900,0.939730,0.341592
0.725405,-0.741636,-0.952040,0.323497,-0.096116,0.941335
0.962542,-0.542518,-0.973846,-0.276308,0.035318,-0.960420
-0.078744,0.410316,-0.451852,0.221302,0.972166,-0.076936
0.888385,-0.639560,-0.961019,-0.108835,-0.025394,0.993735
-0.205610,0.681692,0.313133,0.794294,-0.540804,-0.276816
0.376596,-0.305452,0.555312,-0.075956,-0.950812,0.300313
0.974521,-0.712438,-0.989050,-0.048764,0.135559,0.989569
-0.758948,0.573420,0.146727,-0.693123,0.146399,0.705796
-0.410255,-0.490087,0.151076,-0.262221,0.949426,-0.172713
0.849409,-0.846886,-0.959361,0.118976,0.746457,0.654711
0.265741,0.174489,-0.577369,0.843191,0.534745,-0.055463
0.573470,-0.028268,-0.154830,-0.019108,-0.369547,0.929016
0.202279,0.025480,0.729633,0.635120,0.099696,0.765952
0.193864,-0.696716,-0.007102,0.343791,-0.692389,-0.634354
0.865245,-0.765722,-0.967025,0.358541,0.041855,0.932575
0.577151,-0.387391,-0.956576,0.226038,0.120628,0.966621
0.217998,-0.041124,0.700131,0.348700,0.209491,0.913522
0.531804,-0.637546,-0.946033,0.081212,0.090954,0.992538
0.849934,-0.235130,-0.972094,0.036779,0.037946,0.998603
0.048824,-0.440288,0.574146,0.845681,0.127614,0.518207
0.246340,-0.104012,0.702509,0.870636,0.415914,0.262694
0.178027,0.142116,0.698411,-0.624296,-0.168112,0.762885
0.677019,-0.400325,-0.953479,-0.147635,-0.234204,-0.960912
0.912111,-0.675341,-0.971875,0.274628,-0.174006,0.945675
0.148517,-0.104012,-0.341728,-0.379741,0.040091,-0.924224
-0.482425,-0.237918,0.297929,0.965948,-0.137765,-0.219009
0.313309,0.121205,0.228883,0.906418,0.068995,-0.416708
-0.282571,0.682621,0.661119,0.907027,0.047718,-0.418359
-0.663755,0.115939,-0.258948,-0.032517,0.204817,0.978260
0.491600,-0.373606,0.323301,0.389867,0.904190,-0.174481
0.245756,-0.189126,0.557095,-0.608129,0.319289,0.726797
-0.118773,0.015335,-0.255194,0.509687,0.638348,-0.576829
0.505975,0.212671,0.755381,-0.818499,0.574364,-0.012843
0.437079,-0.368262,0.471030,-0.770294,-0.612915,-0.176019
-0.102352,0.057156,0.252315,0.359059,0.353536,0.863764
0.955062,-0.358194,-0.973658,-0.268071,0.255601,0.928874
0.746910,-0.320167,-0.959892,0.161963,-0.014570,0.986689
0.462732,-0.559944,0.362564,0.657533,0.721417,0.217275
-0.314478,-0.293603,0.391471,-0.017471,0.991664,0.127657
0.494171,-0.343324,-0.407646,0.328421,-0.407375,0.852165
0.008503,-0.053516,0.409930,0.339724,0.826980,0.447987
-0.509130,0.429445,-0.329903,-0.171273,0.308976,0.935521
0.127480,-0.806924,0.022650,-0.225910,0.345936,0.910655
0.604558,-0.183163,-0.953448,0.056176,0.078824,0.995305
0.795471,-0.631041,-0.954668,-0.054233,-0.169993,-0.983952
-0.278948,-0.369346,0.156176,0.317177,0.588551,-0.743644
-0.142089,-0.316450,0.707045,-0.649133,0.699459,-0.298971
0.801023,-0.794455,-0.958704,0.347415,-0.038458,0.936922
0.431292,-0.314746,-0.940746,0.146192,-0.091713,0.984996
-0.025742,0.074814,-0.246997,0.295344,0.853884,0.428548
0.413002,-0.358658,0.346953,0.834747,0.520396,-0.179961
0.424865,0.017813,0.641972,-0.427274,0.199187,-0.881908
0.736274,-0.839451,-0.947003,0.038551,0.291718,0.955727
0.536070,-0.500697,-0.942373,0.015396,0.047619,0.998747
0.588137,-0.553981,-0.945251,-0.206294,0.207389,-0.956260
0.695894,-0.613150,-0.947910,0.108768,-0.180699,0.977506
-0.646750,0.488615,0.288574,0.214836,-0.296633,-0.930513
-0.173002,0.058472,-0.242335,-0.321778,-0.910428,0.259959
0.559152,-0.646608,-0.344356,0.635419,0.724364,0.267468
0.638042,-0.834108,-0.948129,0.102024,-0.041999,0.993895
0.958393,-0.644284,-0.976317,0.423744,-0.222097,0.878131
-0.411658,-0.599752,-0.167532,0.969677,-0.237536,-0.057477
-0.306180,0.024086,0.266049,0.685279,-0.708720,-0.167654
-0.765201,0.148389,-0.268740,-0.059032,0.378896,0.923554
0.153309,0.210425,0.377957,-0.219728,-0.605241,0.765116
0.414522,-0.001084,0.829214,0.915115,-0.401210,-0.039931
0.115851,0.356955,0.655362,-0.398778,0.189477,0.897260
0.419197,0.125620,0.779627,-0.579483,0.776435,-0.247686
0.432929,0.106335,0.783537,-0.641344,0.765216,-0.055877
0.305946,0.259526,0.486328,-0.505511,0.559665,0.656684
-0.113221,0.326828,0.810568,-0.363839,-0.170775,-0.915673
0.721723,-0.513166,-0.940433,0.374121,0.649295,0.662155
-0.065011,-0.025635,0.432924,0.438129,0.831443,0.341680
0.763740,-0.447568,-0.965774,0.171973,0.072506,0.982430
-0.046661,0.229476,0.624515,0.287389,0.886009,0.363862
0.830533,-0.560331,-0.958422,-0.372736,-0.128751,-0.918962
-0.095164,0.446251,0.759730,-0.380488,-0.216406,-0.899109
0.871030,-0.229786,-0.975035,0.015944,0.028652,0.999462
0.827086,-0.831397,-0.955450,0.065422,0.491983,0.868143
0.435267,-0.859046,-0.940746,0.014869,0.306056,0.951897
-0.588196,0.593789,0.085409,0.951422,0.125070,-0.281342
0.456538,-0.247599,-0.940464,0.234510,0.089880,0.967950
-0.486691,0.284697,0.214179,-0.700006,0.691697,-0.177612
0.043272,-0.279198,0.590289,-0.273828,0.621662,0.733862
0.668780,-0.540660,-0.518208,0.944556,0.231730,0.232625
-0.325288,-0.014483,0.313884,-0.785829,0.497412,-0.367497
-0.524909,0.087903,-0.224565,0.117865,-0.285773,0.951021
0.538115,-0.494966,0.297960,0.226660,0.955236,0.190132
-0.410898,0.232884,0.212145,0.629783,0.427766,-0.648375
0.149686,0.491016,0.648292,0.006719,0.646221,0.763121
0.145245,-0.067998,-0.274559,0.443471,0.852986,-0.275226
0.031877,0.185796,0.243868,0.314613,0.827670,0.464738
0.581709,-0.768665,-0.941184,-0.029639,0.024267,0.999266
0.925610,-0.213212,-0.966744,0.106822,0.066483,0.992053
0.053499,-0.086586,0.594794,-0.210727,0.759882,0.614959
0.581008,-0.538414,-0.295895,-0.007724,-0.999804,0.018239
-0.015573,0.113693,0.615317,0.653839,0.756203,0.025536
0.066822,0.550418,0.756726,-0.485242,-0.574105,-0.659503
-0.377531,0.242643,-0.267363,-0.047637,0.668805,0.741910
0.388867,-0.264869,0.577149,0.999968,-0.004330,-0.006671
0.500832,-0.457017,0.162714,0.257199,0.964506,-0.059812
0.402308,-0.503175,-0.340571,0.411548,0.406203,-0.815860
0.591760,-0.495120,-0.948317,0.122540,0.175023,0.976909
-0.111176,0.697878,0.749624,-0.177770,0.102831,0.978685
0.541621,-0.057233,0.677669,0.841296,0.108615,-0.529551
-0.266852,-0.279740,0.164967,0.740738,0.146383,-0.655651
0.145069,0.097739,0.707202,0.844469,0.068286,-0.531234
0.389686,-0.264560,-0.940246,0.008637,0.013002,0.999878
0.411015,-0.176812,0.652891,0.746215,-0.513259,-0.423944
-0.034448,-0.260378,0.428701,-0.008694,0.983165,0.182512
-0.255340,0.529895,0.757665,0.663165,-0.607517,-0.437191
0.666384,-0.504801,-0.460174,0.839746,-0.531371,-0.111675
-0.202162,0.195942,-0.307659,-0.107567,0.878892,0.464734
0.363156,-0.197181,-0.941622,0.025196,0.063956,0.997635
-0.521169,0.489312,0.329934,-0.698405,0.071470,0.712125
-0.138291,0.081784,0.431955,0.681371,0.565708,0.464444
0.238100,-0.169532,0.754505,-0.425950,0.735053,-0.527508
0.783549,-0.434170,-0.961425,0.035142,-0.068407,0.997038
0.906676,-0.567457,-0.969904,0.268380,-0.256312,-0.928588
-0.194858,0.334185,0.599737,0.957440,0.175568,-0.229095
-0.289058,0.585192,0.629052,0.973030,0.207186,-0.101418
-0.433864,0.014018,0.191246,0.710890,0.451219,-0.539478
0.681928,-0.530127,-0.815167,0.085374,-0.994261,0.064473
-0.514332,0.533921,0.316982,-0.581776,0.639516,0.502550
0.673806,-0.482187,-0.436022,0.797384,-0.573163,0.188847
0.478451,0.099907,0.888656,0.627941,-0.635004,0.449956
-0.103988,0.404972,0.428983,0.493814,-0.570116,-0.656594
0.353338,-0.286555,0.432956,-0.156179,0.959338,0.235114
0.435150,-0.065056,0.622794,-0.931951,0.352418,0.085261
0.827027,-0.363538,-0.967370,0.052348,0.201247,0.978141
0.267085,-0.163646,0.560255,0.836234,0.199376,-0.510844
-0.072199,-0.257822,0.580184,-0.762141,-0.357565,0.539711
-0.210986,0.406366,0.574021,-0.740752,0.469269,0.480701
0.357253,-0.478237,-0.344888,0.026537,0.792378,0.609453
0.425975,-0.346112,0.303153,0.935945,-0.138850,0.323616
-0.780570,0.626084,0.138562,-0.393830,-0.049720,0.917838
0.536538,-0.443773,0.187304,0.488415,0.866706,-0.101348
-0.442396,0.065675,-0.230415,-0.360629,0.557578,0.747699
0.802074,-0.260998,-0.958235,-0.490361,0.277283,-0.826233
-0.494113,0.364390,0.301715,0.965588,0.231596,-0.118332
-0.407334,-0.207714,0.355400,0.752987,-0.132877,-0.644480
-0.176743,-0.354399,0.173320,0.486628,-0.261265,-0.833627
0.204675,0.581010,0.689463,0.092557,0.934334,0.344170
0.326983,-0.234201,0.706576,0.750964,0.517450,-0.410242
-0.094463,0.946406,-0.282599,-0.174613,-0.178308,0.968358
0.481140,-0.512004,-0.336066,0.007673,-0.999648,0.025394
0.441285,-0.744269,-0.940464,0.194204,-0.199877,0.960382
0.359474,-0.256738,0.632149,0.782840,-0.317357,0.535207
0.377647,-0.250000,0.666562,-0.272049,0.956536,0.105012
0.364500,-0.254415,0.610719,0.665050,-0.698164,0.265095
0.721198,-0.651255,-0.953229,-0.036504,0.014486,-0.999229
-0.042747,0.165273,0.468997,-0.446786,-0.641862,0.623214
0.841110,-0.211509,-0.972563,-0.272200,0.080663,-0.958854
0.414872,-0.300340,-0.939244,0.062225,0.025086,0.997747
0.517311,-0.835347,-0.939995,-0.079136,0.177093,0.981008
0.396231,0.084340,0.826586,0.912622,-0.143376,-0.382837
0.639971,-0.632280,-0.942936,-0.142548,0.013050,0.989702
0.815923,-0.211664,-0.966212,-0.562167,0.073745,-0.823730
0.788459,-0.574814,-0.955826,0.251686,-0.049865,0.966523
0.609116,-0.396685,-0.950288,0.020035,-0.022446,0.999547
0.301271,0.128020,-0.113284,-0.467476,0.646606,0.602799
-0.771862,0.068386,-0.249406,0.082773,0.144129,0.986091
0.764324,-0.626316,-0.955450,0.046352,-0.123559,0.991254
0.478977,0.214297,-0.102803,0.930189,0.166436,0.327181
-0.809204,0.125465,-0.264798,-0.217420,0.573413,0.789890
0.069861,-0.093401,0.232230,0.503250,0.851219,0.148883
0.206078,-0.246128,0.545551,0.611387,-0.791189,-0.015023
0.125025,-0.188894,0.448567,-0.673976,-0.726847,-0.132097
-0.066238,-0.028656,0.439088,0.405161,0.869697,0.281906
0.488561,-0.682853,-0.936616,0.052245,0.013656,0.998541
-0.390329,0.203299,0.374233,-0.419963,0.213479,0.882076
0.823988,-0.686028,-0.960487,-0.328138,0.150971,-0.932488
0.551848,-0.408844,0.330841,0.683274,0.613222,-0.396353
-0.326808,0.528036,0.138562,0.186918,0.385152,0.903725
-0.103813,0.289498,0.697128,0.344110,0.915157,-0.209943
-0.259080,-0.243727,0.333312,-0.134088,0.956148,0.260387
-0.226647,0.456939,0.672726,-0.552000,-0.831210,-0.066222
-0.626530,0.475604,0.286447,-0.207006,0.264724,0.941844
0.638568,-0.454693,-0.269022,0.957427,-0.229314,0.175352
-0.124675,0.645833,0.750500,0.431609,0.536254,-0.725359
-0.256801,0.708643,0.689119,-0.612357,0.326009,0.720234
0.116436,-0.645446,-0.032881,-0.222246,0.709045,0.669225
0.742118,-0.672785,-0.952009,0.209687,-0.006256,0.977749
0.773791,-0.444780,-0.960800,0.228957,0.057742,0.971723
0.585508,-0.522769,-0.077368,0.795921,0.603170,-0.051931
-0.045376,0.289885,-0.311601,0.473185,-0.636366,0.609208
-0.052330,0.756273,0.760543,-0.005439,-0.147899,0.988988
-0.253645,0.679446,0.695720,-0.364072,0.806679,0.465532
-0.547874,0.516496,-0.340508,0.005245,0.060580,0.998150
0.543024,-0.746360,-0.945595,0.124593,0.022479,0.991953
-0.126311,-0.539111,-0.130710,-0.239321,0.876674,0.417335
0.056771,-0.044300,-0.300525,0.274954,-0.774926,0.569113
-0.146179,0.342627,0.617976,0.780341,-0.227794,-0.582390
0.707290,-0.668215,-0.945627,0.013350,0.035561,0.999278
-0.151381,0.482729,-0.311851,0.008173,0.231774,0.972735
0.173528,-0.061803,0.572863,0.020155,-0.995574,0.091794
0.495866,-0.015954,-0.001314,-0.440078,0.337581,0.832088
0.523681,-0.218633,-0.946815,0.071408,0.176853,0.981643
0.425858,-0.261927,0.279345,0.895856,0.406113,0.180316
-0.478101,0.054910,-0.231792,-0.107522,0.503875,0.857058
0.208064,-0.133751,0.539576,0.514248,0.852323,-0.095365
0.943257,-0.376781,-0.975973,0.311117,-0.362485,-0.878528
-0.484529,-0.502246,-0.265924,-0.301550,0.614704,0.728839
-0.295836,0.632203,0.638468,0.955841,0.152703,-0.251096
-0.197078,0.399861,-0.399950,-0.716089,-0.639049,-0.280772
0.053207,0.288104,0.688587,0.799958,0.599380,-0.028456
-0.449350,-0.228702,0.303467,0.861095,-0.446627,-0.242982
0.539050,-0.293293,0.683394,-0.593798,-0.604924,0.530538
0.750708,-0.503330,-0.952322,-0.463613,-0.229463,-0.855810
-0.136771,0.621205,0.721280,0.792813,0.434486,-0.427398
0.266442,-0.233736,-0.397197,-0.264705,-0.586287,0.765636
0.716055,-0.213600,-0.960643,0.005675,0.047355,0.998862
0.315997,0.142271,-0.121512,0.403994,-0.713241,-0.572780
-0.218057,-0.500155,-0.191747,-0.515986,0.510333,0.687981
0.799913,-0.534541,-0.950757,-0.162415,0.207194,0.964724
0.192111,0.435021,0.654330,-0.160882,0.679063,0.716234
-0.083243,0.419532,-0.291171,0.951748,-0.031623,0.305248
-0.711965,0.531676,0.105806,0.355687,0.454135,0.816853
-0.230036,0.288646,0.818702,0.034616,0.193212,0.980546
0.548926,-0.460424,-0.947879,0.046384,0.059072,0.997176
-0.433805,0.070090,-0.228695,-0.412493,0.575995,0.705747
-0.030651,0.076363,-0.254787,-0.344852,-0.925730,-0.155246
-0.064777,0.173405,0.464084,0.471284,0.583665,-0.661231
0.147173,-0.860827,0.018427,0.005107,-0.119980,0.992763
-0.106443,0.618417,0.756414,-0.127117,0.246607,0.960743
0.103871,0.286477,-0.392504,0.379998,-0.538473,-0.752095
0.647334,-0.542131,-0.712114,0.940874,-0.338494,0.013365
0.458407,0.112066,0.631617,0.594907,-0.430157,-0.679008
0.386706,-0.303129,-0.938712,0.017252,0.049592,0.998621
0.136596,0.168215,0.328619,-0.061463,-0.887783,0.456140
-0.091365,0.460657,-0.282318,0.563387,-0.026881,-0.825756
0.847655,-0.303826,-0.969278,0.029640,0.217341,0.975646
0.967976,-0.458721,-0.988237,0.544066,-0.039006,0.838135
0.454784,-0.040350,0.634307,-0.755139,0.440669,-0.485362
0.293850,-0.141264,-0.387717,0.632334,0.363133,0.684316
0.121928,0.184324,0.736954,0.831750,-0.001584,0.555148
0.313251,-0.191450,0.684426,0.941996,-0.095270,0.321820
0.796991,-0.266109,-0.963303,0.360934,-0.217127,0.906963
-0.002192,0.389250,0.747403,0.902881,0.246768,0.352010
0.501709,-0.537872,-0.299149,0.035352,0.999373,-0.002113
0.332242,-0.207326,0.682049,0.827726,-0.008992,0.561060
0.666325,-0.574582,-0.896102,-0.763997,0.629470,0.141692
-0.338086,0.049257,-0.193186,0.137907,0.558454,0.817992
0.863609,-0.648466,-0.964930,0.014638,0.123195,0.992275
-0.099372,0.360517,0.469215,-0.738004,0.268507,0.619075
0.470095,-0.747135,-0.940433,-0.041570,-0.291838,0.955564
0.236582,-0.394129,-0.384402,-0.432473,0.200230,0.879133
0.434916,-0.183163,-0.945282,0.099680,0.032073,0.994502
-0.214376,0.712825,0.723721,-0.590202,0.174453,0.788180
0.364909,0.355870,0.437680,-0.568088,0.759293,0.317412
-0.884937,0.668293,0.123983,-0.019169,0.033305,0.999261
0.171424,-0.445245,-0.222751,0.788845,0.325618,-0.521246
0.459401,0.144516,0.767770,-0.699266,0.710399,0.079749
0.377531,-0.300340,0.573489,0.192294,-0.932350,0.306180
0.281403,0.474442,0.345201,0.005604,0.796703,0.604345
-0.249905,0.067457,0.288512,-0.707124,0.678940,-0.197522
0.514857,-0.365629,-0.948067,0.128669,-0.107565,0.985837
0.709160,-0.847042,-0.953104,0.051054,0.065652,0.996536
0.641490,-0.180220,-0.953291,-0.250076,0.023822,-0.967933
0.591702,-0.857497,-0.945251,0.120353,0.152946,0.980879
-0.074595,0.191914,0.625485,0.159825,0.882568,0.442187
0.620335,0.197878,0.257008,0.992279,-0.117936,-0.038396
0.633835,-0.751161,-0.950288,0.223767,-0.057797,0.972927
-0.025216,0.314668,0.766519,0.932621,0.313630,0.178479
0.443507,-0.419764,0.351646,0.679127,0.683303,0.268110
0.118539,-0.385920,-0.244525,0.157341,0.987509,0.008307
0.252126,-0.102153,0.744337,0.630864,0.379466,0.676769
0.914098,-0.625465,-0.957264,-0.306970,0.198267,-0.930838
-0.304368,0.333720,0.543362,-0.684894,0.568531,0.455733
0.618174,-0.206784,-0.175979,0.710921,-0.250911,0.656990
-0.859284,0.073033,-0.248748,-0.042319,0.158572,0.986440
-0.865245,0.690520,0.116631,0.152263,0.386764,0.909522
-0.485055,0.280979,0.321737,0.795306,0.513629,-0.321983
0.755091,-0.271220,-0.958235,-0.074945,-0.193835,0.978167
-0.721899,0.439591,0.282161,0.824931,-0.316969,0.467994
-0.675676,0.558705,0.157396,-0.258430,0.370335,0.892225
0.336918,-0.258906,-0.384902,-0.061270,-0.255973,0.964740
-0.475120,0.658380,-0.354180,0.117922,0.046511,0.991933
-0.483769,0.256893,0.187492,-0.326438,-0.166559,-0.930428
-0.535252,0.185177,0.172507,0.542773,-0.443244,-0.713395
-0.811424,0.638863,0.149074,-0.252004,-0.046421,0.966612
0.508488,-0.334572,-0.945532,0.062036,-0.051629,0.996738
0.193631,-0.758442,0.021180,0.410621,-0.673522,-0.614621
-0.161490,-0.261617,0.184332,0.400980,0.171088,-0.899969
-0.242016,0.105406,0.807001,0.155658,0.197855,-0.967793
0.975807,-0.769516,-0.974910,0.085813,0.343586,0.935192
0.148458,-0.051193,-0.344575,0.480298,0.051514,0.875591
0.699518,-0.856025,-0.950538,0.109597,0.005976,0.993958
-0.371862,-0.475449,0.421255,0.911322,-0.185135,-0.367720
0.684733,-0.740938,-0.956388,-0.039266,-0.088112,0.995336
-0.148751,0.776332,0.761106,0.184868,0.718237,0.670790
-0.583755,0.423172,0.208203,0.334206,0.366959,-0.868129
0.087158,-0.106877,0.598580,0.114261,0.855423,0.505169
0.508196,-0.440675,0.190902,0.369272,0.925440,-0.084848
0.125201,-0.183396,0.583969,-0.292734,-0.687985,0.664066
0.891775,-0.584030,-0.972250,0.092897,0.234527,0.967661
0.560380,-0.858813,-0.940527,-0.118657,0.066424,-0.990711
-0.033806,0.213755,0.608778,0.354129,0.862535,0.361422
-0.782498,0.022150,-0.249687,0.005922,-0.078255,0.996916
-0.169379,0.741791,0.736203,0.345302,-0.462347,-0.816702
0.402016,-0.230096,0.714961,0.986573,0.007675,0.163141
0.362688,-0.733426,-0.939839,-0.013488,-0.149561,0.988661
0.626998,-0.564668,-0.349768,-0.010000,0.988345,0.151903
0.514039,-0.441062,0.218214,0.454550,0.876878,0.156425
0.440818,-0.555839,-0.046427,0.475623,-0.871762,0.117534
0.847713,-0.502478,-0.968465,0.297876,-0.028438,0.954181
0.772388,-0.245043,-0.957264,-0.088032,-0.049183,0.994903
-0.255222,0.452680,-0.315229,-0.106627,-0.770710,0.628201
0.648677,-0.200976,0.826743,-0.406147,-0.910737,-0.074855
-0.703316,0.324737,0.152202,0.840611,0.413622,-0.349700
0.332827,-0.845337,-0.936867,0.257264,-0.068439,0.963915
0.626530,-0.877246,-0.945971,0.116718,-0.026377,0.992815
-0.568619,0.134526,-0.246871,0.398337,-0.175742,-0.900246
0.589481,-0.569625,-0.328557,0.795682,0.445053,0.410875
0.101417,0.151952,0.698630,-0.874240,0.156918,0.459435
0.855427,-0.753407,-0.967182,-0.758752,0.222279,-0.612281
-0.191059,0.283457,0.582124,-0.155733,0.837389,-0.523953
0.544193,-0.305685,0.655769,0.490929,0.343803,-0.800493
0.879678,-0.413646,-0.977131,-0.184346,0.262202,-0.947242
0.444967,-0.511849,-0.341979,0.263583,0.869788,-0.417124
0.561490,-0.131738,-0.174446,0.863954,0.076849,0.497671
-0.798918,0.306459,0.296740,-0.479292,0.461275,-0.746663
0.518597,-0.541589,-0.064760,-0.224762,0.968194,-0.109918
0.670942,-0.284851,-0.954042,0.350702,0.155137,0.923548
-0.031761,-0.280592,0.603210,0.733102,0.068609,-0.676649
0.664631,-0.561106,-0.491710,0.999547,-0.013282,-0.027001
0.377356,-0.262624,0.522682,0.612906,0.789687,0.027205
-0.725288,0.349210,-0.285008,-0.031188,0.415060,0.909259
0.000613,-0.076673,0.418940,0.455219,0.882630,0.117216
0.484412,-0.765954,-0.940808,-0.173653,-0.239230,0.955308
0.408385,-0.150171,0.621261,0.833993,-0.124959,-0.537438
0.517429,-0.374380,0.556689,-0.516712,-0.835030,0.189036
-0.017268,0.288878,0.271430,0.334251,0.933057,0.132968
0.384251,-0.238383,0.419628,0.886971,0.412690,-0.207290
0.561665,-0.277881,0.672100,0.925196,-0.371423,-0.077827
0.324529,-0.329694,0.348673,-0.032817,-0.955849,0.292019
-0.482133,0.537949,0.059473,0.048512,-0.894984,-0.443453
0.443915,-0.352075,0.394819,-0.651097,-0.753913,0.087679
-0.393250,-0.276564,0.125078,0.093772,0.279351,0.955599
0.481783,-0.043913,0.012452,-0.448816,0.310551,0.837927
-0.402834,-0.311339,0.121543,-0.060946,-0.279249,0.958283
0.329437,-0.227385,0.785978,0.999249,0.028765,-0.025962
0.096976,0.594175,0.706326,-0.035398,0.998784,0.034301
0.641022,-0.600604,-0.688055,0.876071,-0.481172,-0.031192
0.592345,-0.493185,0.174352,0.297189,0.951861,-0.075091
-0.393016,-0.467239,0.131992,-0.376650,0.750494,0.543041
-0.900540,0.640799,0.117257,-0.293563,0.079841,0.952600
-0.069511,-0.328919,0.195845,-0.081426,0.233042,0.969052
0.582235,-0.454771,-0.940902,0.065533,0.096757,0.993148
0.835500,-0.378872,-0.965837,0.036591,0.056370,0.997739
0.563535,-0.407141,0.462802,0.257833,0.963988,-0.065193
0.320263,0.467085,0.348955,-0.108553,0.791265,0.601761
0.360584,-0.223125,-0.938806,0.114494,0.115686,0.986665
-0.287422,0.078222,0.542235,0.297526,-0.945494,0.132359
-0.176274,0.311338,0.598423,-0.430352,-0.878753,0.206372
-0.854726,0.678748,0.105587,-0.127033,-0.512090,-0.849486
0.454025,-0.385610,0.192498,-0.195085,-0.925531,0.324553
0.360818,0.729786,-0.074396,0.970365,0.225195,0.087632
0.277137,-0.302819,0.503660,-0.179745,-0.977495,0.110435
0.663345,-0.456552,-0.947941,0.045188,-0.073685,-0.996257
0.618349,-0.341930,-0.231323,0.996763,0.068208,0.042553
-0.193864,-0.289033,0.552027,0.995195,0.053288,-0.082137
0.182411,0.075666,0.321455,0.843032,-0.208498,-0.495808
-0.262002,-0.022924,0.579965,-0.594855,-0.056122,-0.801871
0.424573,-0.158612,0.658897,0.940175,-0.285979,-0.185167
-0.096450,0.216001,0.434363,0.548233,0.204300,-0.810988
0.483243,-0.624148,-0.938869,0.060907,0.164459,0.984502
-0.282513,0.941760,0.652609,0.870606,0.116457,-0.478000
0.479854,-0.350449,-0.399856,0.257850,-0.446787,0.856677
-0.391322,0.277881,0.330434,-0.255278,-0.205538,0.944768
0.151556,-0.301580,0.572957,0.000335,0.916547,0.399926
0.134317,-0.671623,-0.018364,-0.383930,0.376535,0.843101
0.609700,-0.313971,-0.625892,0.918997,0.283163,0.274340
0.950913,-0.378253,-0.966087,-0.137726,0.114929,0.983780
0.073367,-0.151719,0.517927,-0.742573,0.416553,0.524471
0.015165,0.068386,0.520805,0.569772,0.790829,0.223495
-0.134492,0.022382,0.453979,0.528747,0.488429,0.694164
0.048766,0.264173,-0.349424,-0.266502,-0.885141,-0.381447
0.687889,-0.743494,-0.946033,-0.134886,0.002513,0.990858
0.616946,-0.533148,-0.158866,0.865750,-0.411534,0.284811
0.603506,-0.855096,-0.943937,0.068865,-0.104774,0.992109
0.845843,-0.838987,-0.957546,0.092091,0.688610,0.719260
0.756552,-0.300883,-0.960206,0.261533,-0.120445,0.957650
-0.203039,0.201672,0.220373,-0.138709,0.339373,0.930369
0.200935,0.438894,0.665249,0.073545,0.559556,0.825523
-0.378174,0.434247,0.350206,0.088080,0.686052,0.722202
0.189599,0.745585,0.114410,-0.262351,0.405126,0.875811
0.727860,-0.232651,-0.961457,-0.079184,0.005664,-0.996844
-0.508722,0.301347,0.224471,-0.545798,0.829206,0.120512
0.653704,-0.546158,-0.330622,0.742900,0.638607,0.200702
0.338728,-0.512934,-0.358497,0.122244,0.858940,0.497271
-0.126837,0.065830,-0.243868,0.487869,0.745842,0.453546
-0.074887,0.329229,-0.299306,0.735243,0.001976,0.677801
-0.031585,0.614080,-0.292392,0.117875,-0.086117,-0.989287
0.548458,-0.323110,-0.464335,0.920168,0.331278,0.208676
0.480030,0.123683,0.824959,0.723052,-0.625816,-0.292491
0.500073,0.143664,0.640439,0.090358,0.306507,0.947570
-0.555529,0.124381,-0.236297,-0.382389,0.409061,0.828521
0.056070,0.048018,0.680766,0.862802,-0.096141,-0.496316
0.463258,-0.357032,-0.947723,0.144138,0.092186,0.985254
-0.300745,0.125000,0.398792,-0.705517,-0.681365,0.194906
0.487216,-0.102850,0.031504,-0.522633,0.158684,0.837660
-0.323476,0.384759,0.811600,-0.002351,0.472945,0.881089
0.431935,0.027107,0.850269,0.844759,-0.534984,-0.013206
0.146998,-0.447800,-0.263828,0.119143,0.989131,-0.086168
-0.003185,-0.698110,-0.051840,0.399135,-0.853946,-0.333867
0.149627,-0.765954,0.018802,-0.538680,0.793786,0.282362
-0.625127,0.437732,0.282787,0.646381,0.704775,0.292375
0.915558,-0.764947,-0.970467,0.202849,0.115909,0.972326
-0.339430,0.470957,0.351990,0.086046,0.651488,0.753764
-0.117311,-0.015877,0.434551,0.426183,0.903932,0.035699
0.789510,-0.334263,-0.963240,-0.213894,-0.100645,-0.971658
0.332885,-0.321561,0.420692,-0.031415,0.947223,0.319031
-0.150328,0.441372,0.755037,-0.114984,0.153207,0.981482
0.956230,-0.729553,-0.978570,0.182723,0.072170,0.980512
-0.840233,0.819160,0.087098,-0.083243,0.669071,0.738522
-0.248970,0.380499,0.408616,0.051030,0.808565,0.586190
-0.192812,0.640257,0.692185,-0.058484,-0.641636,0.764777
-0.743989,0.449582,0.307252,0.278312,0.436090,0.855785
-0.921928,0.695167,0.115567,0.459060,0.210848,0.863022
-0.435441,0.343169,-0.295270,-0.647327,-0.024844,0.761808
0.436552,-0.706552,-0.936835,-0.064355,-0.128580,0.989609
0.414989,-0.579073,-0.939056,-0.154135,-0.025164,-0.987729
0.621037,-0.407992,-0.271587,0.984586,-0.045102,-0.168987
0.777648,-0.381351,-0.959673,0.057690,0.120145,0.991079
0.377706,0.726378,-0.057471,0.967712,0.163045,0.192224
-0.119007,0.777184,-0.295676,-0.227644,0.086469,0.969898
0.685960,-0.377943,-0.955575,0.349723,-0.009061,0.936810
-0.454317,0.467239,0.326867,0.105905,-0.541638,-0.833914
0.801023,-0.655127,-0.959016,0.149349,-0.229133,0.961870
-0.220278,0.267115,0.413497,-0.202790,0.589291,0.782057
-0.225770,0.442999,0.609529,0.569378,-0.586167,0.576383
-0.092301,-0.283690,0.502221,-0.315665,0.913409,0.256981
0.508020,-0.521065,-0.945188,0.012992,-0.087486,0.996081
0.906267,-0.581242,-0.969966,-0.282330,0.223096,0.933016
0.535076,-0.566914,-0.262139,0.177811,0.969620,0.167987
0.704310,-0.811415,-0.951758,0.257845,0.064284,0.964045
0.419138,-0.285626,0.500625,0.683252,0.725255,-0.084692
-0.138758,0.055607,-0.254255,0.645300,0.384701,0.659995
0.158919,-0.832172,0.018928,0.552575,-0.020091,-0.833221
-0.792082,0.747599,0.083438,-0.032685,0.451765,0.891538
0.085405,0.213367,0.702540,0.722574,0.645754,0.246758
0.449876,-0.282915,-0.940433,0.146809,-0.147670,0.978080
0.263345,-0.152184,-0.372920,-0.544940,-0.837772,-0.034314
0.617939,-0.513863,-0.392911,0.803117,-0.462308,-0.375864
-0.294317,0.757202,0.658428,0.845693,0.048561,-0.531455
-0.255164,0.279895,0.398730,-0.273573,0.884973,0.376804
0.963535,-0.451983,-0.977068,0.588314,0.009197,0.808581
0.139868,-0.403346,-0.265643,0.119143,0.989131,-0.086168
0.542381,-0.360285,-0.955700,0.070999,-0.073572,0.994759
0.109540,0.182931,0.700632,0.075501,0.596222,0.799261
0.401256,-0.820941,-0.939776,-0.320240,0.022880,-0.947060
-0.136245,0.343789,0.630678,-0.751199,0.553031,0.360356
0.953017,-0.291357,-0.972939,-0.142264,0.258442,-0.955494
-0.087100,0.713910,0.755631,-0.065291,-0.052712,0.996473
0.587377,0.069083,0.176980,0.984336,-0.101499,-0.144157
-0.085230,0.030514,0.233794,0.471580,0.537207,0.699301
-0.010548,0.385843,0.736172,0.957412,0.183769,-0.222689
0.970723,-0.775712,-0.985171,0.425653,-0.751265,-0.504400
-0.172885,0.347970,0.704480,-0.739449,-0.672975,-0.017908
0.864660,-0.613382,-0.968559,0.236500,0.229413,0.944160
0.724704,-0.198575,-0.958078,0.061367,0.111210,0.991900
-0.393601,0.098823,0.367226,0.726621,-0.126372,-0.675316
0.334521,-0.598435,-0.936022,-0.218655,-0.082806,0.972282
-0.452505,0.295462,0.331341,0.707882,-0.197436,-0.678176
0.676844,-0.531443,-0.908022,0.320423,-0.931981,-0.169531
0.464251,-0.519052,-0.076336,0.189629,0.955259,0.226982
-0.331833,-0.020214,0.584188,-0.655449,-0.574061,-0.490756
0.136012,-0.672010,-0.010543,0.301716,-0.288780,-0.908611
0.403419,-0.342782,0.437930,0.717969,0.643642,-0.265038
0.273279,-0.189436,-0.400044,-0.609306,0.168736,-0.774773
0.525902,-0.652416,-0.944062,0.252169,0.184925,0.949849
0.957341,-0.844253,-0.961175,-0.008860,0.757516,0.652756
0.788341,-0.401487,-0.959924,0.115932,0.045223,0.992227
-0.189189,0.714141,0.315073,0.805594,-0.403069,-0.434229
-0.155120,0.280824,0.420723,0.207663,0.911183,0.355839
0.484061,0.318463,-0.135371,0.904280,0.399840,-0.149684
0.772797,-0.485362,-0.965680,-0.029587,0.181516,0.982943
0.487392,-0.177664,-0.945032,0.020496,-0.085865,0.996096
0.274799,-0.248141,0.238362,0.651756,0.713959,-0.255886
0.242250,-0.451595,-0.399700,0.330215,-0.199415,-0.922601
0.623257,-0.542054,-0.373702,0.369037,0.921256,0.122878
-0.555296,0.111756,-0.229414,-0.210180,0.470887,0.856790
0.828488,-0.783534,-0.959673,0.111983,0.019859,0.993512
-0.034741,0.342705,0.718246,0.892273,0.440405,-0.099455
0.421651,-0.802509,-0.939839,-0.187257,0.219490,-0.957475
0.330373,-0.332869,-0.938087,0.002380,0.066817,0.997762
-0.155705,-0.512779,-0.182393,-0.461525,0.646497,0.607483
0.539927,-0.359975,0.578964,-0.174337,-0.980067,0.095265
-0.249672,0.610595,0.311444,0.782898,-0.547489,-0.295509
0.721139,-0.589451,-0.946815,-0.182147,0.169098,-0.968622
0.667435,-0.820632,-0.950100,0.126003,0.093694,0.987595
0.573002,-0.754414,-0.946033,0.047475,-0.058403,0.997164
-0.456128,0.174334,-0.243462,-0.301537,0.193503,0.933612
0.734989,-0.461818,-0.956920,0.296782,0.130691,0.945960
0.097035,-0.327060,0.509761,-0.770523,0.619030,-0.151973
-0.447187,-0.324659,0.143536,-0.757920,0.202669,-0.620066
0.923623,-0.321871,-0.967808,-0.373327,0.850022,0.371604
0.944017,-0.494888,-0.974377,-0.323855,0.092443,-0.941580
-0.542031,0.106722,-0.230697,-0.388460,0.211497,0.896866
0.836084,-0.773544,-0.964648,0.064279,0.048263,0.996764
-0.416392,-0.589684,-0.147948,0.164818,0.583496,0.795215
-0.325990,-0.323420,0.411932,-0.327129,0.885355,0.330353
0.561607,-0.870121,-0.939651,-0.109840,0.028313,-0.993546
0.583345,-0.439668,-0.148667,0.911220,-0.264502,0.315781
-0.061154,-0.205003,0.734389,0.139663,-0.645350,0.751011
-0.529876,0.369811,-0.333438,-0.496079,0.494419,0.713762
-0.230095,0.627943,0.310318,0.829935,-0.464881,-0.308373
0.545303,-0.785625,-0.941090,0.016289,0.043597,0.998916
-0.457590,0.566992,0.315167,0.109026,-0.828039,-0.549968
0.556640,-0.837051,-0.937023,-0.053175,0.031343,0.998093
-0.084704,0.283767,0.258823,0.292386,-0.805259,-0.515818
0.587436,-0.451905,-0.947504,0.069032,0.198543,0.977658
-0.655457,0.230019,0.264735,-0.512995,0.820248,0.253039
-0.562074,0.294222,0.312571,-0.105874,-0.397656,0.911406
0.965288,-0.372599,-0.972281,-0.355766,-0.057302,-0.932817
0.203623,-0.914730,0.005318,0.153301,-0.147478,0.977113
-0.563711,0.325356,0.192216,-0.187722,0.580103,0.792616
0.860803,-0.260146,-0.969841,-0.108456,0.180509,0.977575
0.066414,-0.067689,0.451039,0.478889,0.836103,-0.267576
-0.776187,0.167208,-0.271180,-0.090603,0.405672,0.909517
0.725814,-0.764482,-0.949693,-0.254606,0.047072,-0.965898
0.686895,-0.370741,-0.951883,0.363455,-0.099809,0.926250
0.033747,-0.207094,0.594450,-0.344324,0.109157,-0.932483
0.532798,0.180298,-0.122294,0.892356,0.440839,0.096754
0.314828,-0.305762,0.364817,-0.127648,-0.985086,0.115378
0.505216,-0.382048,-0.949975,-0.088723,-0.013773,-0.995961
0.623200,-0.794144,-0.945251,0.021221,-0.055325,0.998243
0.381096,-0.193928,0.737079,0.717933,0.481298,0.502916
0.504981,-0.373064,0.391847,-0.304804,-0.925705,0.223974
0.353630,-0.227850,0.835127,0.943019,-0.291768,-0.159960
-0.263521,0.128795,0.445345,0.211353,0.906968,0.364334
-0.712725,-0.085115,-0.261138,-0.068501,-0.227748,0.971308
0.703608,-0.498838,-0.947097,0.235013,0.354246,0.905140
0.769876,-0.838987,-0.949224,-0.117290,0.301612,0.946189
0.010490,-0.130189,0.533475,0.849698,0.526394,0.030362
0.681110,-0.850759,-0.949756,0.110845,0.053553,0.992394
0.803068,-0.505034,-0.953635,0.228603,0.283840,0.931223
-0.009379,-0.227541,-0.249719,-0.164315,-0.074886,0.983561
0.415865,-0.363151,0.457077,0.724561,0.685138,0.074818
0.604441,-0.180065,0.700851,-0.737999,0.511019,-0.440700
0.526252,-0.367720,-0.416875,0.492189,-0.089607,0.865864
-0.617356,0.374922,0.170410,0.191723,-0.342336,-0.919809
-0.128240,0.266497,0.590789,0.581426,0.812727,-0.037670
0.089028,0.579848,0.658522,0.400648,0.741138,-0.538698
0.180774,0.288259,-0.650983,-0.010007,0.790986,0.611752
0.575924,-0.112298,0.686460,0.766739,0.613613,-0.188652
0.415865,-0.457481,-0.947191,-0.117116,0.021782,0.992879
0.864660,-0.736989,-0.975660,0.208962,-0.254850,0.944133
0.147816,0.190288,-0.252159,0.734218,-0.549369,-0.398896
0.335398,-0.248993,0.672413,0.224624,-0.576830,0.785373
-0.297531,0.020756,0.583125,0.839815,-0.491941,-0.229575
0.515442,-0.513475,-0.117695,-0.158087,-0.959521,-0.233082
0.343170,-0.200433,0.664310,0.761638,0.518585,0.388558
0.746618,-0.466543,-0.955168,0.432618,0.134361,0.891509
0.583404,-0.509681,0.024184,0.520032,0.853499,0.033277
0.538466,-0.380731,0.499624,-0.266417,-0.953430,0.141398
-0.280058,0.452448,0.762858,-0.690772,0.721491,0.047800
0.602980,-0.254027,-0.214116,0.976801,0.181151,-0.114208
-0.420950,0.095493,-0.223564,-0.197737,-0.183845,0.962861
0.559503,-0.614002,-0.947034,0.109971,-0.037540,0.993226
0.623141,-0.513786,-0.395977,0.860711,-0.494353,-0.121623
0.320613,-0.373838,-0.937805,-0.053677,-0.076378,-0.995633
0.610051,0.109743,0.684583,0.127467,0.989683,0.065413
0.313484,-0.290737,0.626799,0.219242,-0.974191,-0.053707
-0.350650,-0.755886,-0.138812,-0.162118,0.446668,0.879889
0.396523,-0.180685,0.652140,0.244414,-0.906187,0.345089
0.322483,-0.264947,0.659054,-0.403927,0.788739,-0.463394
0.118072,-0.001936,-0.218777,0.846441,-0.281737,-0.451844
0.046194,0.318773,0.215180,-0.258363,-0.696951,-0.668961
0.741125,-0.197800,-0.959986,-0.111131,0.031661,0.993301
-0.088912,-0.992720,0.021556,-0.010671,-0.931374,0.363908
-0.793543,0.221112,-0.269115,-0.173806,0.328862,0.928246
-0.091483,0.200899,0.468402,-0.080920,-0.589769,0.803508
0.409905,0.078919,0.774653,-0.643935,0.764914,0.015932
0.626589,-0.788104,-0.939839,0.100077,-0.021030,0.994757
0.385712,0.406289,0.426073,0.450716,-0.752291,-0.480534
0.375427,-0.528656,-0.934332,0.097094,0.098557,0.990383
-0.428020,0.050264,-0.206107,-0.492284,0.839208,0.231054
0.484938,0.139173,-0.071831,0.535972,-0.648726,-0.540267
0.081899,-0.128563,0.236704,0.514842,0.791015,0.330504
0.407918,-0.242797,0.678451,0.552813,0.819008,0.153697
-0.352170,0.426580,0.155456,-0.715449,0.241146,0.655729
-0.403769,-0.421856,0.153016,0.368299,-0.693812,0.618854
-0.381738,-0.298947,0.130209,0.289542,0.739266,-0.607990
0.425800,-0.378020,0.280847,0.450143,-0.887776,0.096050
0.400906,0.537794,-0.071581,0.559804,0.453946,-0.693219
0.308633,-0.341852,0.797053,0.990985,0.054757,0.122274
-0.656041,0.150635,0.102052,0.650711,0.217957,-0.727372
0.273221,-0.312810,0.224628,-0.093836,-0.331699,0.938707
0.541621,-0.400790,-0.949787,0.027063,-0.002153,0.999631
-0.199824,0.090613,0.421443,-0.094129,0.640252,0.762376
0.577560,-0.475836,-0.046240,0.890272,0.455221,-0.013739
-0.704777,0.438274,0.204073,-0.134391,0.986911,-0.089141
-0.453674,-0.257203,0.343042,0.890290,0.028249,-0.454517
0.655807,-0.721809,-0.948692,0.397471,0.119750,0.909768
0.337210,-0.364854,0.671505,0.703381,-0.600032,-0.381072
0.391906,-0.687887,-0.937117,0.256657,0.000280,0.966502
0.359415,-0.281986,0.574365,0.077243,-0.948559,0.307032
-0.481314,0.390257,-0.318421,-0.335591,0.621338,0.708038
0.153660,-0.087671,-0.345451,0.360958,0.184711,0.914107
0.408561,-0.339761,0.517457,0.215191,0.955676,-0.200939
0.310562,-0.270524,-0.937774,-0.090261,-0.071158,0.993373
-0.192345,0.742952,0.728226,0.652615,-0.477656,-0.588166
0.322075,-0.539265,-0.933175,0.114441,-0.005434,0.993415
-0.105274,0.041279,0.241115,0.359059,0.353536,0.863764
0.917078,-0.152649,-0.976662,0.139999,-0.051024,0.988836
0.177093,-0.140799,0.771211,0.003726,-0.883178,0.469023
0.214843,0.263940,0.396165,-0.353826,-0.623141,0.697498
0.716348,-0.434325,-0.959423,0.210109,0.191613,0.958717
0.373382,-0.336741,0.340039,0.228860,0.927458,-0.295711
-0.843798,0.681227,0.113378,0.210525,0.469218,0.857621
-0.437663,-0.343634,0.360311,0.879314,-0.055573,-0.472988
-0.215836,0.025170,0.528376,0.873939,-0.429752,-0.227033
-0.166574,0.123296,0.486141,0.409221,-0.874303,-0.261023
0.145478,-0.701905,-0.015111,0.295581,0.223214,-0.928874
-0.091308,-0.314204,0.192748,-0.139220,0.335199,0.931804
-0.485990,-0.253717,0.290859,0.967541,0.065832,-0.243990
0.325581,-0.851920,-0.943311,-0.269484,0.047004,-0.961857
-0.378583,-0.360053,0.435678,-0.055441,0.689294,0.722357
-0.091658,-0.276564,0.709079,-0.071490,-0.749555,0.658070
0.153076,-0.174876,0.231479,0.526924,0.849174,-0.035420
0.391322,-0.535935,-0.933926,0.101421,0.085081,0.991199
0.267085,-0.658845,0.010074,-0.200751,0.608732,0.767557
0.412534,-0.449349,-0.062351,0.081704,0.819254,0.567580
-0.657677,0.365784,0.295801,0.196629,0.393754,0.897939
-0.396757,0.410084,-0.291234,-0.433110,0.506572,0.745520
0.667085,-0.294764,-0.963709,0.198624,0.078171,0.976953
0.030475,-0.110130,0.559067,0.058888,-0.161388,0.985133
-0.341651,0.754879,0.638062,0.893173,0.029533,-0.448742
-0.351760,0.886926,0.606620,0.752071,0.070492,-0.655301
0.899196,-0.849597,-0.952697,0.316502,0.641475,0.698811
0.077224,0.183860,0.252816,0.402927,0.861532,0.308890
0.223374,-0.102230,-0.096202,0.724996,-0.388647,-0.568625
-0.535252,0.461818,-0.331717,0.045456,0.241967,0.969219
0.539108,-0.459185,0.002158,-0.687497,-0.716758,0.116645
0.327041,-0.292596,0.639563,-0.275141,0.929932,-0.243973
0.576976,-0.482109,-0.950194,-0.116678,0.154158,0.981133
-0.516026,0.281676,0.290326,-0.540411,0.634235,0.552903
-0.054668,-0.938274,0.040702,-0.198461,-0.977801,0.067221
-0.066822,-0.525635,-0.075835,0.021108,0.822871,0.567837
-0.183521,0.672784,0.750063,-0.263060,0.045173,0.963721
0.706706,-0.553748,-0.916312,-0.535850,0.782880,-0.316170
-0.004295,-0.117178,0.428451,0.508186,0.851782,0.127339
0.874360,-0.680839,-0.962927,0.192209,-0.145654,0.970485
-0.292564,0.820477,0.652359,0.676005,0.034690,-0.736080
0.007100,-0.273777,0.583969,0.276480,0.597613,-0.752607
-0.411307,0.447568,0.366318,-0.194552,0.950489,0.242321
0.850226,-0.284464,-0.970436,0.034195,0.162428,0.986128
0.196903,0.061338,0.721906,0.224890,0.197098,0.954241
-0.267728,0.560719,0.293893,-0.199107,0.803410,0.561149
0.949802,-0.549257,-0.977350,0.276643,0.018313,0.960798
0.956056,-0.486214,-0.974190,-0.419992,0.053269,-0.905963
0.454668,-0.150867,-0.531223,0.266825,0.449611,0.852440
0.299752,0.424179,0.372951,-0.146754,0.809924,0.567879
0.889438,-0.341852,-0.959267,0.357537,-0.075570,0.930837
0.654288,-0.561106,-0.399888,-0.401466,-0.906678,-0.129456
0.141388,0.119734,0.724659,-0.096710,-0.495920,0.862966
-0.422294,-0.533148,-0.252065,-0.708783,0.320508,0.628411
-0.065186,0.480793,0.753035,0.550434,-0.657894,0.514002
0.116786,-0.219563,0.556720,-0.107210,-0.991273,-0.076709
0.276202,-0.338987,0.233168,-0.139985,-0.287287,0.947560
0.544076,-0.609665,-0.946972,0.149978,-0.063989,0.986617
0.445610,-0.573885,-0.940120,-0.176017,0.077490,-0.981332
-0.186384,0.313584,0.386747,0.184865,0.692620,0.697211
-0.115033,0.689746,0.752440,0.138603,0.014140,-0.990247
0.944017,-0.756815,-0.974221,0.243823,0.003372,0.969814
0.376129,-0.365938,0.329495,-0.429013,-0.598051,0.676966
0.447947,-0.595182,-0.946503,0.093849,0.059523,0.993806
0.722834,-0.546778,-0.948411,-0.439280,0.141035,-0.887211
-0.006106,-0.927044,0.019428,-0.393650,0.899057,0.191666
0.261592,-0.143820,0.697410,0.316581,0.645946,0.694644
0.134434,0.609743,0.671036,0.191897,-0.923528,-0.332073
0.881373,-0.288956,-0.974065,0.121542,0.030503,0.992117
0.643944,-0.692844,-0.948098,0.127822,0.054575,0.990294
0.798918,-0.851766,-0.943687,0.238982,0.386531,0.890776
-0.303317,0.055142,0.536916,-0.610056,-0.545690,-0.574503
0.010781,-0.018123,-0.298273,0.638034,0.708814,0.300824
0.826559,-0.443851,-0.957578,0.164981,0.447877,0.878742
-0.318510,-0.246360,0.150670,0.746734,-0.003213,-0.665115
0.341066,0.742410,0.001345,0.153411,-0.986438,-0.058356
-0.421300,0.002323,0.185521,0.785060,0.368147,-0.498146
0.536479,-0.234356,0.688900,-0.211685,0.422477,0.881308
0.781622,-0.348049,-0.952259,0.071700,0.121087,0.990049
0.690109,-0.559634,-0.435303,0.126142,-0.973186,-0.192348
0.235063,-0.457791,-0.182424,0.769670,0.371370,-0.519319
-0.745916,0.300961,0.092854,-0.332708,0.931997,0.143827
0.424689,0.053903,0.790264,0.822755,-0.206186,0.529681
0.809378,-0.474752,-0.959016,0.132441,-0.078461,0.988081
-0.322192,0.140257,0.229602,0.356381,0.927906,-0.109468
0.137823,-0.768819,0.016581,-0.627215,0.751462,0.204709
0.847655,-0.451130,-0.966181,-0.278904,0.014407,-0.960211
-0.244821,-0.260687,0.397854,-0.053396,0.889299,0.454197
0.372681,-0.358581,0.326273,-0.199800,-0.780485,0.592388
-0.553777,0.061416,-0.226974,-0.036939,0.084489,0.995739
0.753454,-0.435951,-0.958860,-0.292683,-0.023710,-0.955916
0.541972,-0.457558,0.043236,0.454214,0.890875,0.005571
-0.200584,0.079073,-0.234920,0.387534,0.807014,0.445585
0.661826,-0.526332,-0.460894,-0.583130,0.811261,-0.042597
0.490957,-0.314669,0.626392,0.860348,0.509237,-0.021907
-0.095223,-0.315597,0.503441,0.764127,-0.610089,-0.209528
0.250256,0.126704,0.749531,0.542268,0.382548,-0.748066
0.013353,0.331552,-0.429765,0.023513,0.849571,0.526950
0.288649,-0.342782,0.652327,0.642086,-0.643270,-0.417049
0.505040,-0.286013,-0.946033,-0.050919,-0.098598,-0.993824
0.216830,0.033302,0.715368,0.176954,-0.138454,0.974432
-0.003886,0.335966,0.736078,0.861450,0.502811,0.071307
0.468050,-0.487298,-0.941997,0.307810,0.115884,0.944364
0.286545,0.454151,0.347047,0.005604,0.796703,0.604345
-0.045318,-0.018278,0.237987,0.480099,0.765671,-0.428081
0.208531,-0.028268,0.740802,0.231847,0.797993,0.556286
-0.520059,0.470492,0.273652,0.946183,-0.151109,-0.286188
0.381914,-0.212980,0.575898,0.959573,0.199633,-0.198407
0.549335,-0.615939,-0.945877,0.117897,0.068569,0.990656
-0.022937,0.526952,0.770898,-0.407957,0.618779,-0.671330
0.090431,-0.149241,0.450601,0.751021,0.660001,-0.019136
0.315763,-0.235053,-0.937930,-0.135523,0.037380,0.990069
-0.238452,0.577757,0.326805,0.904498,0.258526,-0.339187
0.054843,0.194160,0.725504,0.832296,0.433087,0.346004
0.069569,-0.262778,0.591603,0.481499,-0.681537,-0.551059
0.873659,-0.727850,-0.961175,0.256226,0.130530,0.957763
-0.520292,-0.517890,-0.270867,-0.146574,0.481863,0.863900
0.745332,-0.584495,-0.955293,0.294687,-0.064113,0.953441
-0.102995,0.178439,0.448067,-0.358121,0.797016,0.486328
0.187260,-0.106258,0.526342,0.608383,0.776202,0.165472
-0.247100,0.140490,0.412589,0.194607,0.944730,0.263843
0.134843,-0.797320,0.017332,-0.681931,0.549864,0.482305
-0.454551,-0.401255,0.185521,-0.727349,-0.671493,0.141635
0.154595,-0.415892,0.601927,-0.479589,0.453163,0.751424
0.432170,-0.387082,0.195595,0.093797,-0.944617,0.314486
0.407451,-0.799024,-0.942905,0.171380,-0.179954,0.968631
-0.417443,-0.278810,0.341885,0.885602,-0.151931,-0.438892
0.407567,-0.469098,-0.937336,-0.089980,-0.023564,0.995665
0.585975,-0.424256,-0.948505,0.046596,0.279276,0.959080
0.536245,0.030050,0.651984,-0.149395,0.208367,0.966573
0.419197,-0.077060,0.632336,-0.514358,0.571993,-0.638952
-0.432637,0.143743,0.371981,0.368254,0.133317,-0.920117
0.644412,-0.184944,0.795364,0.721656,0.691934,-0.020984
