-0.089602,0.406587,-0.127018,0.588682,0.624311,0.513506
-0.013613,-0.403204,0.461297,0.333792,-0.907981,0.253286
-0.589708,-0.630857,0.559363,-0.711941,0.682943,0.163489
-0.567746,0.074215,0.600795,0.849091,0.361108,0.385546
0.107538,0.143247,0.067987,-0.573527,0.519926,-0.633043
0.210497,-0.788131,0.212844,0.671306,0.737053,0.078115
-0.398862,0.230927,0.590839,0.467754,-0.865707,-0.178205
0.526905,-0.335342,0.438987,-0.003216,-0.249452,0.968382
-0.177791,0.025605,0.519228,-0.233389,-0.775564,0.586541
-0.488720,-0.203260,0.538577,-0.478024,-0.498566,-0.723136
-0.077871,0.197016,0.661096,-0.364481,0.930070,0.046091
-0.204675,-0.342411,0.855199,0.157798,0.899430,0.407585
-0.428401,0.279059,0.513305,0.874309,0.303243,0.378982
-0.009589,-0.041477,-0.370084,-0.711894,0.681588,0.169250
-0.609530,-0.876114,0.327213,-0.226854,-0.019533,0.973733
-0.257417,-0.037920,0.824625,0.482077,-0.825539,0.293407
0.557001,-0.591006,0.541792,0.538617,-0.484445,-0.689351
-0.758893,-0.541702,0.395580,-0.697420,0.325880,-0.638285
-0.422621,-0.177331,0.045282,-0.407749,-0.401957,0.819861
0.510210,-0.368036,0.449902,0.061694,-0.219958,0.973557
0.205360,0.127897,0.553694,-0.274645,-0.550401,-0.788434
-0.526649,0.204345,0.516408,0.340280,0.025584,0.939976
-0.607431,-0.899833,0.338664,-0.209715,-0.329579,-0.920542
0.440858,-0.703575,0.558827,-0.421089,0.754406,0.503544
0.130827,0.266268,-0.037187,-0.722310,0.092445,-0.685363
-0.289310,-0.717277,0.095091,-0.293437,-0.128481,-0.947305
0.551435,-0.443184,0.462002,0.177361,0.432480,0.884027
-0.124107,-0.711683,0.129895,0.726853,-0.046873,-0.685191
-0.044908,-0.346876,0.385963,-0.759992,0.168601,0.627683
-0.040712,-0.047461,-0.367573,-0.711894,0.681588,0.169250
-0.112333,-0.118877,-0.984065,-0.094037,0.288777,0.952767
-0.031852,-0.084490,0.175276,0.415995,0.895464,0.158405
-0.096623,-0.674219,0.563002,0.780734,0.502454,0.371476
0.282204,-0.321249,0.537843,-0.035397,0.855586,0.516449
-0.484138,-0.421373,0.324928,-0.629757,0.693598,-0.349754
-0.392140,0.164494,0.019729,0.240005,-0.085131,0.967032
-0.376386,-0.306679,0.777242,-0.543713,-0.572083,-0.614083
0.147652,0.004966,-0.941814,0.194672,0.081576,0.977470
0.315980,-0.756346,0.194596,-0.333831,0.919517,0.207473
-0.363543,0.009431,0.459548,-0.135861,-0.008995,0.990687
-0.747891,0.410967,-0.021506,-0.506953,-0.843923,0.175479
-0.667451,-0.149144,0.440200,-0.402132,0.452909,-0.795715
-0.565949,-0.733886,0.344813,-0.448283,0.869393,-0.207842
-0.056895,-0.011556,0.721031,0.779406,-0.209232,0.590549
0.028383,0.463478,0.013637,0.366536,0.211296,-0.906093
0.324671,0.239555,0.555894,0.047648,0.955460,-0.291247
-0.033136,0.204432,0.487780,0.772972,-0.074233,-0.630082
-0.612141,-0.805043,0.571265,0.065164,-0.823763,0.563177
-0.119826,-0.160202,0.774986,-0.127885,-0.956386,0.262622
0.112162,0.248445,0.103157,-0.235076,-0.971965,0.004834
-0.225224,0.272686,0.046918,0.741776,-0.272032,-0.612998
-0.014341,-0.126076,0.437238,-0.768156,0.296152,0.567654
-0.134809,-0.724085,0.523121,0.050909,0.549512,0.833933
-0.424633,-0.279448,0.567486,-0.422767,0.777059,-0.466313
-0.350058,-0.614335,0.540128,-0.397724,-0.678048,-0.618116
0.726058,-0.377664,0.603052,-0.112257,0.581571,0.805713
-0.399932,-0.234482,0.063361,-0.385199,0.051817,-0.921378
0.011473,0.354422,0.171779,-0.143708,-0.215104,-0.965960
-0.344622,0.396614,0.423277,-0.215644,0.413730,-0.884491
-0.297702,0.175205,0.090663,-0.361674,0.873817,0.325015
-0.043367,-0.522668,0.700921,-0.624643,0.232429,0.745518
-0.239437,-0.670056,0.111083,0.408485,-0.020470,-0.912536
-0.234043,-0.714155,0.559673,0.324595,0.396483,0.858743
-0.101203,-0.051274,-0.987308,-0.013006,0.086107,0.996201
0.221884,0.270256,0.565117,-0.262207,-0.806487,0.529931
-0.085364,-0.008346,0.337113,-0.185204,-0.970788,0.152544
-0.819470,-0.522538,0.622654,-0.022884,-0.568402,0.822433
0.101288,-0.234352,0.479911,0.718835,-0.314770,0.619835
-0.659789,-0.123040,0.440820,0.482302,-0.354292,0.801163
-0.076845,-0.270905,0.184668,0.859507,-0.292798,0.418948
-0.406695,-0.511393,0.480983,-0.278308,-0.380079,-0.882091
0.100518,-0.468507,0.039613,0.690954,-0.279701,-0.666595
-0.083608,0.099843,0.657063,-0.028590,0.812845,0.581778
-0.559528,0.472411,0.023762,0.040942,-0.526933,0.848920
-0.070937,0.108516,0.844566,-0.609946,0.481868,-0.629103
0.168971,-0.294624,0.090296,0.072067,-0.506243,0.859374
0.082066,0.186827,0.182919,0.782174,0.430951,0.449983
-0.785864,-0.714111,0.519736,0.692201,0.030835,-0.721046
0.084421,-0.344362,0.715023,-0.143366,0.661551,0.736068
0.399675,-0.525616,0.465104,0.786003,-0.249574,-0.565607
-0.039428,-0.078204,0.209855,0.403183,0.914932,-0.018518
-0.412003,-0.292933,0.798959,-0.498171,-0.579730,-0.644778
-0.136863,0.586020,0.295652,-0.292440,0.384981,-0.875368
0.446380,0.311755,0.527802,0.028563,0.914175,0.404312
-0.051587,-0.057041,0.635515,-0.645921,-0.371098,0.667138
0.411876,-0.512997,0.661942,0.765081,-0.388129,-0.513816
0.295346,-0.587104,0.098447,0.125165,0.103431,0.986730
-0.214007,0.360146,0.254841,0.385754,-0.154313,0.909605
0.202620,0.464953,0.081440,0.286099,0.456412,-0.842517
0.426173,-0.280184,0.519849,0.489070,0.761557,0.425255
-0.351985,-0.018451,0.297909,0.439749,0.877479,0.191446
0.007064,-0.536282,0.733666,-0.564222,0.490391,0.664206
-0.696605,-0.556751,0.582068,0.357459,0.460908,-0.812273
-0.108524,-0.554755,0.153530,-0.571862,0.011104,0.820275
-0.176335,-0.765149,0.538943,0.166151,0.446173,0.879388
0.164390,0.050020,0.040600,0.139535,-0.587903,0.796806
-0.352840,0.256989,0.409795,-0.040808,0.423709,0.904878
0.270473,0.057348,0.498696,-0.108360,0.077381,0.991095
-0.050474,-0.125078,0.364527,-0.952075,0.115498,0.283219
-0.398733,0.250483,0.774224,0.855425,0.161904,0.491970
-0.366754,-0.603799,0.542582,0.326422,0.641025,0.694648
-0.175521,-0.366908,0.848796,-0.316969,0.480489,-0.817717
-0.498009,-0.007653,0.488119,-0.138551,0.562935,-0.814806
0.121923,0.237735,-0.042913,-0.416854,0.322574,-0.849811
0.155572,0.505367,0.070920,0.748381,0.575115,-0.330408
-0.052057,0.096460,0.667950,-0.376855,0.492874,0.784255
0.017895,0.333913,0.527690,0.288624,0.288085,-0.913074
-0.097221,-0.669448,0.119685,-0.580816,-0.192600,0.790922
0.373475,-0.469029,0.607931,0.659465,-0.289689,-0.693676
-0.085748,-0.121002,-0.124734,0.482945,-0.720676,0.497384
-0.148252,-0.300825,0.805362,0.387002,0.787987,0.478860
-0.241406,-0.086615,0.838050,0.870429,0.135528,0.473270
0.183740,-0.022744,-0.952024,0.005488,0.093788,0.995577
-0.366155,0.507188,0.124734,-0.178738,0.381261,0.907024
0.322617,0.253778,0.517931,-0.000056,0.395124,0.918628
-0.601610,0.367387,-0.004583,-0.068601,-0.423801,0.903154
-0.181343,-0.733278,0.084007,0.276075,0.925437,-0.259517
0.287426,-0.283177,0.081243,-0.429236,0.040125,0.902300
-0.103857,-0.023350,-0.985700,0.033254,0.003804,0.999440
-0.465474,0.233876,0.265671,-0.536651,-0.589903,0.603340
-0.177191,0.655139,0.066548,0.892012,0.332792,0.305882
0.096579,0.044772,0.434390,-0.599653,-0.012070,0.800169
-0.234128,0.305856,0.008673,-0.777465,0.498374,0.383630
0.140031,0.599984,-0.002355,0.366319,0.117541,0.923035
-0.048718,-0.479348,0.704475,-0.446537,0.415079,0.792663
0.730125,-0.531947,0.484960,0.357463,0.051031,-0.932532
0.026628,0.034193,0.646092,0.109659,-0.854916,0.507044
-0.181215,-0.097847,0.203255,0.742569,-0.150611,0.652616
-0.322660,0.090476,0.528197,-0.585473,-0.365906,0.723418
-0.481100,0.707304,0.126821,-0.624063,0.138272,0.769042
-0.216705,-0.705266,0.530228,-0.328291,-0.640457,-0.694291
-0.040499,0.018668,0.687806,-0.818346,0.551733,-0.160935
-0.486665,0.031417,0.545881,-0.154944,-0.009093,-0.987881
0.527890,-0.663247,0.565230,-0.534871,0.577341,0.616920
0.181300,-0.541401,0.549802,0.954607,-0.094443,-0.282498
-0.605805,-0.237171,0.603277,-0.494251,-0.417851,-0.762310
0.795282,-0.429829,0.567373,-0.007807,-0.854818,0.518869
0.360460,-0.022397,0.577132,-0.863865,0.480051,0.152602
-0.084379,0.562822,-0.034170,0.081602,0.087837,0.992787
0.373945,0.007393,0.575017,0.911698,-0.306122,-0.274038
-0.102016,-0.117707,0.522331,-0.407688,-0.200281,0.890886
0.053727,0.286213,0.495452,-0.031781,0.995823,0.085600
0.534270,-0.490363,0.474186,0.086789,0.639691,0.763717
-0.352626,-0.277844,0.922917,0.933057,-0.276617,0.229974
0.305492,-0.469071,0.585650,-0.068958,0.617077,0.783875
-0.197568,-0.091170,-0.993569,-0.045945,0.093759,-0.994534
-0.658633,-0.565466,0.466289,0.624895,-0.760838,0.175020
0.140417,-0.125600,0.784913,-0.694207,-0.646296,0.316827
-0.070766,-0.335601,0.459774,-0.563535,0.792315,-0.233806
-0.594247,-0.156343,0.407313,-0.446737,0.148108,-0.882321
-0.236954,0.147281,0.419949,-0.712970,-0.594117,-0.372423
0.150177,-0.510308,0.532315,0.858677,0.494912,-0.133177
-0.102915,-0.648938,0.119262,-0.665474,-0.199067,0.719386
0.509825,-0.353599,0.452751,0.066644,-0.245646,0.967066
-0.055182,-0.130498,0.819013,0.955540,-0.208395,0.208601
-0.080355,-0.304641,0.503011,0.776592,-0.307805,0.549691
0.308318,-0.279882,-0.069651,-0.487227,0.157336,0.858985
-0.777002,-0.780587,0.626292,0.323767,0.536937,0.779021
0.339570,-0.541443,0.448830,-0.267081,0.306913,0.913495
-0.066699,0.528697,0.279942,0.052018,-0.280172,0.958539
0.376643,-0.258852,0.074304,-0.492670,0.028439,-0.869751
-0.004923,-0.034971,-0.400516,-0.765371,-0.641663,0.049750
0.332633,-0.028641,0.577414,-0.034719,0.140745,0.989437
0.188193,-0.659518,0.358238,0.607331,0.446661,-0.656995
0.489405,-0.547427,0.504224,-0.191562,0.100201,0.976352
-0.216833,0.076079,0.870373,-0.355829,0.908293,-0.219978
-0.338970,-0.124514,0.533472,-0.446053,0.364412,0.817460
0.262511,0.283135,0.643892,0.201175,0.957614,-0.206167
-0.532128,0.191337,-0.147946,-0.217855,-0.183603,0.958556
0.390427,-0.224594,0.437689,-0.246830,-0.967860,0.048178
0.220686,-0.591267,0.412277,-0.686185,-0.328321,0.649119
-0.214607,0.005400,-0.993034,0.088054,0.050934,0.994813
-0.527035,0.664421,0.145802,0.345502,0.838168,0.422022
-0.313669,0.657915,0.117119,0.005022,-0.302365,0.953179
0.517573,-0.404938,0.454302,-0.179731,0.226100,0.957379
0.239951,0.353165,0.012198,0.468715,-0.863705,0.185257
-0.411576,0.417602,0.442879,-0.365168,0.332381,-0.869583
-0.123807,-0.586150,0.565935,-0.645772,0.270474,0.714018
0.226678,0.038224,0.521626,0.739644,0.092578,0.666600
-0.388587,0.181623,0.594647,0.024209,-0.656675,0.753785
0.231302,0.272164,0.055520,0.113183,0.160786,0.980478
-0.037288,-0.005310,-0.257576,0.812821,-0.531761,-0.237808
-0.183655,0.296055,0.634246,0.483697,-0.770043,0.416018
-0.155529,-0.091863,0.694180,0.379851,-0.896210,0.229175
0.841730,-0.563082,0.468771,0.176341,-0.535930,0.825641
0.025515,0.354596,-0.116526,0.180892,-0.436579,0.881293
-0.735991,-0.286300,-0.064800,-0.257012,0.303005,-0.917678
-0.450148,0.785618,0.208896,0.809325,-0.566632,0.154669
-0.267478,-0.523837,0.480391,0.105740,0.419817,0.901428
0.012543,-0.637231,0.491362,-0.164236,0.857944,0.486785
-0.552121,0.055570,0.603277,0.897388,0.288370,0.333973
-0.358021,-0.370378,0.435828,0.277417,-0.086130,0.956881
-0.161950,0.289553,0.587511,0.762898,0.646001,0.025880
-0.201892,-0.167313,0.470322,0.214952,0.950597,-0.223968
-0.266365,-0.187128,-0.030024,-0.100214,-0.881341,-0.461731
0.072434,0.152267,0.449648,-0.962213,0.145029,0.230460
-0.124363,-0.195931,0.688201,0.201127,0.827850,0.523652
-0.457939,-0.162282,0.531018,0.334530,0.304906,0.891696
-0.100090,-0.097889,0.208106,0.867864,-0.136559,0.477664
-0.174151,0.166882,0.610610,-0.694746,0.279206,0.662852
-0.129972,0.059688,0.844171,0.145762,-0.754373,0.640058
-0.209470,0.823084,0.175332,-0.511087,-0.129921,-0.849653
-0.133396,-0.138478,-0.974447,-0.166217,0.212305,0.962963
-0.512222,-0.294407,0.599667,-0.527214,-0.391233,-0.754309
-0.544672,0.235263,0.216934,0.147803,0.162895,-0.975510
-0.162764,0.247707,0.091622,-0.254985,-0.103761,0.961362
0.001841,-0.077987,-0.046749,0.802814,0.537297,-0.258462
-0.536838,-0.608524,0.598595,0.338063,-0.130019,-0.932099
0.117171,0.233876,0.514293,0.771518,0.352662,-0.529518
-0.298087,-0.284347,0.857568,0.771916,-0.075911,0.631176
-0.329337,0.074258,0.564130,0.402953,0.349471,-0.845872
0.073120,0.643650,-0.080227,0.021363,0.965163,0.260776
-0.342567,0.211501,0.022719,0.578657,-0.519354,-0.628830
-0.205275,0.268565,-0.213634,0.311966,-0.572534,0.758210
-0.202577,-0.282788,0.471591,-0.544971,0.564288,0.620150
-0.418940,-0.210892,0.502785,0.785621,0.567494,-0.246477
0.460550,-0.380483,0.057918,0.554159,-0.332850,-0.762967
-0.209555,-0.608698,0.074051,-0.392044,0.238157,0.888584
0.064343,-0.021701,-0.959865,0.025202,0.061244,0.997805
-0.370692,0.663423,0.092355,-0.005761,-0.537900,0.842989
-0.417056,0.092861,0.537053,0.579081,-0.495114,0.647709
-0.429898,-0.558961,0.478670,-0.612331,0.342795,0.712420
0.148765,0.089132,0.837684,0.479099,0.767456,-0.426000
-0.415386,-0.197580,-0.040882,-0.053717,-0.988877,-0.138699
0.015883,0.249181,0.015132,-0.470616,0.121057,-0.873994
0.199794,-0.429136,0.802118,-0.494926,0.636830,0.591181
-0.532685,0.183098,0.246436,-0.246272,0.304541,0.920111
0.258915,-0.441146,0.568473,-0.435544,-0.627091,-0.645801
-0.712317,-0.539969,0.583055,0.023767,-0.428069,0.903433
-0.028212,-0.061379,-0.970019,0.666769,0.039484,-0.744218
-0.091528,0.206687,0.482732,0.882463,0.405523,-0.238349
-0.224111,-0.033931,0.795123,0.678653,-0.390867,0.621815
-0.512265,0.186872,0.517141,-0.235551,-0.245742,-0.940280
0.175050,-0.221516,0.782178,0.863501,0.340747,-0.371829
0.017980,0.044901,-0.968242,-0.156843,0.227195,0.961136
0.128387,-0.075645,0.802823,0.765029,0.559241,-0.319342
-0.831242,-0.468290,0.471986,-0.319099,0.426810,-0.846173
-0.375402,-0.247749,0.035862,-0.159827,-0.156774,-0.974616
0.102915,0.279493,-0.009914,-0.644961,-0.624952,-0.439840
0.011515,-0.535893,0.538548,-0.529299,0.433196,0.729509
0.005394,-0.286906,-0.029657,-0.487662,-0.116411,0.865236
-0.262982,-0.335819,0.014934,0.112625,0.688927,-0.716027
-0.501606,-0.565855,0.520921,0.394492,0.131458,0.909448
0.245601,0.239037,0.557502,-0.432593,-0.006663,-0.901565
0.203133,-0.580859,0.406270,0.634875,0.228175,-0.738153
-0.046149,0.452725,0.284145,0.175215,-0.482025,0.858459
-0.263197,0.570498,-0.136890,0.822990,0.028024,0.567365
-0.287213,0.390455,-0.054928,0.718119,0.341743,-0.606231
-0.401430,0.289206,-0.044690,-0.177788,-0.971404,-0.157368
0.135280,-0.033886,-0.954365,0.119132,0.104168,-0.987399
-0.670620,-0.848015,0.357617,0.808379,0.148464,-0.569634
0.292350,-0.402249,0.050415,-0.135501,0.478618,0.867505
-0.251595,-0.283177,0.822087,0.682455,0.669412,0.293500
0.872211,-0.586799,0.456530,-0.251650,0.555284,-0.792674
-0.065928,-0.432995,0.671476,0.188339,-0.541709,-0.819195
-0.076886,0.022008,0.710144,-0.763771,0.573947,0.295362
-0.551222,0.440974,0.011239,-0.121281,-0.415984,0.901248
0.297316,0.219870,0.534374,0.014468,-0.704289,0.709766
-0.158398,-0.394097,0.919307,0.152344,0.874953,0.459618
-0.086733,-0.180279,0.808831,-0.570435,0.763199,-0.303531
-0.109509,0.019189,0.762124,-0.602931,0.761756,-0.237070
-0.120725,-0.111636,0.681206,-0.021471,-0.850086,0.526206
-0.072906,-0.041389,0.656471,-0.602600,-0.779311,0.171894
0.193843,-0.488021,0.053490,-0.319187,0.352800,0.879575
-0.019692,0.349697,0.488711,-0.618122,-0.721073,0.313018
0.067468,0.582638,0.012960,-0.121987,-0.059050,0.990774
0.218288,-0.264487,0.341823,0.600349,0.538218,-0.591526
-0.505159,0.288468,-0.146310,0.364011,0.105500,-0.925400
0.073291,-0.429567,0.746527,0.708461,0.669861,-0.222191
-0.103216,-0.031025,-0.103693,0.120526,0.980942,-0.152402
-0.008305,-0.828675,0.559363,-0.448289,0.144399,-0.882149
-0.205745,0.390283,0.778511,0.305130,0.882259,-0.358491
0.126289,-0.507622,0.422882,-0.359067,0.042686,-0.932335
-0.364228,-0.101142,0.074558,0.681588,-0.415126,-0.602585
-0.029924,-0.705483,0.157338,-0.364961,-0.601673,0.710488
-0.147095,0.233918,0.227003,0.728479,-0.654177,0.203396
-0.272829,-0.450817,0.460648,-0.324941,-0.064347,0.943543
-0.384134,0.032110,0.524446,-0.262583,-0.649378,0.713694
-0.392868,0.244629,0.696747,0.117852,0.935667,0.332623
0.003682,0.250179,-0.035862,-0.143609,-0.782680,0.605631
0.255234,0.228844,0.063897,-0.097562,0.278618,0.955434
0.503789,-0.657914,0.553694,0.725494,-0.582314,-0.366836
0.024058,-0.130239,0.491673,0.032213,-0.940956,0.336992
-0.408108,-0.636450,0.549012,0.106270,-0.308834,0.945161
-0.022433,-0.142379,0.498301,-0.018470,0.914823,0.403433
0.357849,0.167660,0.557643,0.608302,-0.199893,-0.768122
0.236740,0.205734,0.499598,0.377322,0.575970,0.725180
0.163706,-0.003360,-0.956706,0.062004,0.081837,0.994715
-0.470311,-0.612817,0.538182,0.298030,0.590780,0.749771
-0.170770,0.196238,0.623584,0.128427,0.290108,0.948337
0.224324,-0.073218,0.053010,-0.472914,0.363040,0.802842
-0.496297,0.227328,0.501544,-0.671828,0.012464,-0.740602
-0.100262,0.304339,0.624938,-0.085599,-0.672668,0.734976
0.427030,-0.316437,0.030813,0.689073,0.132676,-0.712443
0.063572,-0.023524,-0.956763,0.060442,0.090465,0.994064
-0.519756,-0.043123,0.461691,0.442776,0.853689,0.274164
-0.827476,-0.556100,0.654271,-0.132050,0.527221,-0.839405
-0.605120,-0.493483,0.408752,0.501094,0.374876,0.779982
-0.800035,-0.188952,-0.111534,0.264017,0.889115,0.373856
0.197183,-0.520455,0.067987,-0.265189,0.363215,0.893168
0.047861,-0.450859,0.451030,-0.166209,-0.981112,-0.098966
0.216062,0.213147,0.052502,-0.580266,0.196791,0.790294
0.120981,0.261324,0.667217,-0.442003,0.892538,-0.089488
-0.270988,-0.103397,0.844989,-0.672914,-0.234580,-0.701540
-0.644078,-0.562952,0.507411,-0.616302,0.634416,0.466570
-0.313712,-0.670663,0.568924,-0.335669,-0.646098,-0.685481
-0.563679,0.039526,0.464596,0.929851,0.175191,0.323550
-0.460851,0.358196,-0.001565,0.586949,0.808964,-0.032685
-0.332934,0.098239,0.679993,0.912546,0.383622,0.141755
0.351598,-0.247966,0.068494,0.304147,0.519644,0.798414
-0.127917,-0.097109,0.791485,-0.049282,0.586733,0.808280
-0.016011,-0.158468,-0.019503,-0.559602,-0.523383,0.642585
-0.139005,-0.094899,0.290829,-0.045309,0.851616,0.522204
-0.385418,-0.244325,0.534148,0.104723,-0.819618,-0.563258
-0.504645,-0.599375,0.501488,0.886476,0.455994,0.078933
0.008819,0.687793,-0.007742,-0.230431,0.925746,-0.299828
-0.284858,-0.513995,0.471676,0.142234,0.313949,0.938725
0.293463,0.294843,0.070356,-0.272588,-0.238389,0.932130
-0.098592,-0.158034,0.226805,-0.565861,0.645451,-0.513024
0.225738,0.273033,0.644907,0.082229,0.988268,-0.128708
-0.834582,-0.511306,0.470407,0.396617,0.107846,0.911627
0.309173,-0.467726,0.571970,0.117107,0.839253,0.530981
0.240293,0.737875,0.039641,0.004450,-0.575706,0.817645
-0.036090,-0.399300,0.507354,0.193887,0.276240,0.941328
-0.126975,0.079331,0.291647,0.959447,0.279586,0.035963
-0.946230,-0.590572,0.539479,-0.677954,0.310253,0.666424
0.256646,-0.423282,0.538294,0.930281,-0.361301,-0.063547
-0.339141,0.234916,0.370620,0.174713,0.539367,0.823747
-0.283703,-0.017496,0.565004,-0.257173,0.287945,0.922470
0.149235,0.750929,0.051910,-0.197910,0.199433,-0.959718
0.106683,0.150533,0.852858,0.786543,0.370845,-0.493786
-0.794725,-0.171130,-0.113170,0.081553,0.896162,0.436169
-0.490431,-0.457494,0.345828,-0.646331,0.637150,-0.419877
-0.038529,-0.151441,0.722187,0.621391,-0.491012,0.610557
-0.019094,-0.093814,0.174289,-0.533577,-0.840454,-0.094511
0.203348,-0.147366,0.080171,-0.372049,0.101138,-0.922687
-0.128816,-0.111419,-0.988493,-0.202895,0.186079,0.961358
0.012628,0.402773,-0.097291,0.008723,0.815027,0.579358
-0.200907,0.079114,0.432951,0.876542,0.466238,0.119568
-0.235713,0.120005,0.505380,0.776393,0.114917,0.619683
0.025901,-0.131713,-0.969680,0.199675,0.386061,-0.900603
-0.548140,-0.602410,0.390701,-0.640184,-0.098612,-0.761866
0.373132,-0.491533,0.439072,-0.051175,0.436992,0.898008
0.292478,0.151703,0.512572,-0.503716,0.041620,0.862866
0.097178,-0.111506,0.498357,-0.146247,0.554168,0.819457
-0.485338,-0.182968,0.543202,-0.503914,-0.295067,-0.811792
-0.008476,0.714331,-0.089958,0.692109,0.504695,-0.516011
-0.142429,0.035710,0.806490,0.157429,-0.914614,0.372422
0.098891,0.140691,0.837289,0.816438,0.254357,-0.518393
-0.030994,0.911801,0.184330,-0.373960,0.698164,-0.610509
-0.576309,-0.545865,0.584888,-0.484862,-0.817863,0.309851
-0.071022,-0.043081,0.019193,-0.754806,-0.651951,-0.072298
-0.633845,-0.004617,0.480870,0.481561,-0.286596,-0.828228
-0.175649,-0.166966,0.694462,0.310955,0.038205,0.949656
0.220043,0.854909,0.190704,0.481986,-0.335979,-0.809202
-0.452074,-0.287253,0.040600,0.895024,-0.312091,-0.318640
-0.491631,-0.456150,0.259607,0.770250,-0.588944,-0.244662
-0.293806,-0.218351,0.031913,-0.122674,0.855473,0.503108
-0.573184,-0.824296,0.527859,-0.410718,-0.101166,-0.906133
-0.409307,-0.137393,0.341766,-0.231119,-0.859187,-0.456488
-0.093540,0.270603,0.178689,0.855757,0.438988,-0.273806
-0.003510,0.278408,0.368109,0.458165,0.032003,0.888291
-0.061562,-0.024652,0.087589,0.424877,0.902718,0.067680
-0.080740,-0.484509,0.705575,-0.361701,0.274638,0.890924
-0.312770,-0.177894,0.631707,0.097001,-0.862874,0.496023
0.390427,-0.617674,0.475258,0.018756,0.300337,0.953649
0.195428,-0.008955,0.566555,-0.190368,0.964026,-0.185510
0.796138,-0.460139,0.530369,0.129361,-0.843614,0.521134
-0.372062,0.522321,0.468066,0.168068,-0.570710,0.803768
0.048332,-0.371765,0.642115,-0.513434,0.847889,-0.132172
0.481485,-0.089955,0.524813,0.994829,-0.013024,-0.100721
-0.109594,-0.024911,-0.988662,0.033254,0.003804,0.999440
-0.364528,-0.677428,0.583760,0.314728,0.771220,0.553323
0.119997,-0.510308,0.402096,0.304351,-0.334967,0.891722
0.149151,-0.021529,0.553158,-0.082439,-0.380182,0.921230
-0.541633,-0.559787,0.437210,-0.368592,-0.172372,0.913470
-0.111434,0.125946,0.570447,0.213075,0.119793,0.969664
0.409136,-0.197146,0.060569,-0.380169,0.055308,0.923262
0.375016,0.165016,0.029967,-0.466820,-0.378246,-0.799380
-0.264994,-0.029768,0.843240,-0.417389,0.760956,-0.496722
-0.502033,0.673917,0.127272,0.404859,0.789596,0.461115
0.237082,0.279363,0.060230,0.113183,0.160786,0.980478
0.189392,-0.561779,0.073712,-0.476209,0.382543,0.791761
-0.136008,0.528567,0.301237,0.379179,-0.233005,0.895507
-0.136650,-0.126076,-0.979524,-0.176905,0.246829,0.952775
-0.589794,-0.709733,0.281578,0.226506,0.078039,0.970879
0.284858,-0.137435,0.508370,0.167731,0.688409,0.705663
0.065114,-0.460832,0.430751,0.515535,0.427714,0.742485
-0.714328,-0.599158,0.495565,-0.583263,0.808499,0.078317
-0.037759,0.355290,0.510344,-0.441958,-0.547012,0.710951
0.003125,-0.472194,0.695449,-0.696702,0.313436,0.645263
-0.003853,0.759644,-0.088830,0.467799,0.469756,-0.748661
0.106169,0.276762,0.541087,0.504884,0.850806,0.145678
-0.241920,0.238949,0.326367,0.711657,0.273847,0.646956
-0.079541,-0.838561,0.566301,-0.135727,-0.555264,-0.820524
-0.184084,-0.209072,0.238397,-0.615918,-0.056946,-0.785750
-0.262340,-0.141643,0.682419,-0.028930,0.692198,0.721127
-0.023075,0.658133,0.004752,-0.111847,0.495701,-0.861261
0.204290,0.743947,0.251287,0.403431,0.640961,0.653003
-0.213751,-0.198101,0.047595,-0.601795,0.658709,-0.451604
0.184340,0.169004,0.543710,-0.320162,-0.327821,0.888836
-0.168800,-0.428485,0.950755,-0.097368,0.906044,0.411830
-0.582174,-0.551415,0.325210,0.740439,0.656286,-0.145047
-0.601995,-0.209590,0.385878,0.173636,-0.187477,0.966800
-0.016567,-0.071005,-0.154574,0.928236,0.172406,0.329628
0.052614,-0.226068,0.608918,0.699513,0.240538,-0.672922
0.282204,0.125946,0.061133,-0.092715,-0.053002,0.994281
-0.480029,0.136051,0.528705,-0.140034,0.542373,0.828385
-0.063145,-0.380004,0.500952,0.222650,0.177868,0.958535
0.447364,-0.454459,0.453484,0.145538,-0.388023,-0.910086
-0.386789,0.270169,0.752958,0.921738,-0.123960,0.367469
-0.191660,0.108558,0.502024,0.956438,0.267632,0.116621
0.494884,-0.340199,0.443189,-0.028065,-0.251068,0.967562
0.055139,-0.313531,0.599160,0.767227,0.036366,-0.640344
-0.262597,-0.275113,0.275909,0.394401,-0.867755,-0.302405
-0.583244,-0.309672,0.000691,0.966215,0.074317,-0.246789
0.013570,-0.736834,0.586157,0.392625,-0.912641,-0.113722
-0.267392,-0.180930,-0.526195,-0.176102,0.808065,-0.562156
-0.511109,-0.606833,0.369012,-0.684634,-0.315569,-0.657033
-0.022090,0.610520,0.015470,-0.635230,-0.668366,0.387001
0.038914,0.323419,0.526985,-0.285070,0.021898,0.958257
-0.293634,0.469203,-0.026413,0.540041,0.665989,-0.514600
0.047690,-0.114931,0.052813,-0.695218,-0.700118,0.162808
0.291835,-0.450600,0.074615,0.214621,-0.442820,-0.870545
0.479772,-0.178675,0.088153,0.209516,0.073205,-0.975061
-0.222955,0.594735,0.053546,-0.437986,0.093082,-0.894150
-0.066569,-0.121825,0.227341,0.852028,-0.435874,-0.289936
-0.528576,0.116493,0.532992,0.256707,0.637902,0.726073
-0.335931,-0.705569,0.588555,0.455122,0.697449,0.553561
0.041097,0.362184,-0.082963,-0.122194,0.974604,-0.187658
0.958559,-0.433471,0.257548,-0.220746,0.087693,-0.971381
-0.630250,-0.771567,0.379701,-0.641142,0.762721,-0.084815
-0.025087,-0.034103,-0.502193,-0.564121,-0.823807,-0.055757
0.378997,-0.277453,0.005373,0.919384,0.374023,-0.121816
0.403057,-0.507143,0.665045,0.765081,-0.388129,-0.513816
0.197312,0.742385,0.037159,0.170054,0.388203,-0.905748
-0.449977,0.281314,0.521372,0.207741,0.505364,0.837527
-0.659960,-0.653492,0.576117,-0.291724,-0.716634,0.633508
0.203090,0.240077,0.037949,0.796967,0.150901,-0.584870
-0.048289,0.084016,0.545938,-0.513396,0.358173,-0.779831
-0.037030,0.085532,0.804374,-0.753492,0.567696,-0.331617
0.426088,-0.397178,0.436646,0.303821,-0.419960,-0.855176
0.235369,-0.572186,0.434643,-0.611456,-0.063980,0.788688
-0.045508,0.280663,0.156548,0.147130,-0.285874,0.946905
-0.776274,-0.181623,0.479488,0.623620,0.067292,0.778826
0.342523,-0.443444,0.067733,-0.122663,0.509090,0.851928
0.150905,0.009823,0.814359,0.900741,0.093201,-0.424239
-0.102358,-0.015675,0.665101,0.875515,0.480341,-0.052392
0.018837,-0.357153,-0.033718,-0.686832,-0.149041,0.711371
-0.298643,0.268523,0.547066,0.844609,0.431409,-0.317053
-0.392825,0.268089,0.268350,0.247524,-0.411257,0.877268
-0.169442,0.735750,0.115032,-0.682594,0.586941,-0.435392
-0.105570,-0.826334,0.093737,0.868513,0.485466,0.100043
-0.611242,-0.645297,0.543146,-0.003672,0.365645,0.930747
-0.622458,-0.133360,0.555922,0.373868,0.573592,0.728844
0.397191,-0.602714,0.101832,-0.120053,-0.020993,0.992545
-0.598699,0.096632,0.570673,-0.141358,0.919998,0.365542
0.181856,0.220910,0.035241,0.286018,0.952021,0.108853
-0.269275,0.083669,0.602967,0.527368,0.791990,0.307627
0.212294,-0.273985,0.523092,0.851742,0.310761,-0.421856
-0.254976,0.735491,0.191578,-0.076527,-0.519686,0.850923
-0.576394,-0.235347,0.036736,0.838103,-0.375969,-0.395260
-0.296032,0.451381,-0.019503,0.540041,0.665989,-0.514600
0.421764,-0.357457,0.460958,0.916298,-0.290024,0.276196
-0.101203,-0.238730,0.732679,-0.067002,-0.343402,0.936796
-0.654994,0.293195,-0.108601,0.887981,-0.454822,0.068017
0.063787,-0.421720,0.755835,0.804411,0.487758,-0.339138
0.184468,0.606314,-0.028839,0.612460,0.537592,0.579559
-0.075946,0.269258,0.153051,0.887455,0.391930,-0.242518
0.201336,-0.285562,0.450946,0.429550,-0.103371,-0.897107
-0.317865,0.386295,0.565935,0.776493,0.095233,-0.622888
-0.323901,-0.010948,0.469025,-0.161177,0.151937,-0.975160
-0.764116,-0.240855,0.445756,0.807336,-0.092055,0.582868
-0.405240,-0.736878,0.310601,0.175847,0.062309,0.982444
0.192688,0.204736,0.542300,0.507258,0.633822,0.583917
-0.224497,0.176116,0.585198,0.230927,0.567537,0.790300
0.218759,0.848015,0.195499,-0.575930,0.537356,0.616079
0.227150,0.068753,0.519398,-0.618386,-0.141515,-0.773028
0.316365,0.103397,0.062233,-0.303724,0.415972,0.857157
-0.155743,-0.074864,0.719479,0.647525,-0.599754,0.470114
-0.233872,-0.202826,0.841012,0.681031,-0.586479,0.438451
0.244402,-0.560305,0.430300,-0.534232,-0.014798,0.845208
0.259429,-0.441276,0.585170,0.171937,0.456368,0.873021
-0.092983,-0.158381,0.864986,-0.758152,0.651968,-0.012021
-0.087675,-0.627951,0.138357,0.762719,0.318906,-0.562636
-0.050816,-0.724476,0.631143,0.876097,0.459916,0.144678
-0.034805,-0.052619,-0.305693,-0.574830,0.814009,-0.083424
-0.076074,-0.025388,0.004301,0.923374,-0.372284,0.093728
0.039770,0.006223,-0.269140,-0.672300,0.735285,-0.085840
0.367138,-0.032542,0.526026,-0.043773,-0.652330,0.756670
-0.505844,0.308241,-0.081214,-0.170331,0.980938,-0.093532
-0.418896,0.045944,0.267335,-0.086155,0.646656,0.757901
0.157712,-0.059124,0.552989,-0.059981,-0.483168,0.873471
-0.082794,-0.156343,0.811708,0.831433,-0.509148,0.222455
0.080312,-0.110466,0.181255,0.433776,0.310859,-0.845698
0.167815,0.613772,0.024919,0.433270,0.028422,0.900816
-0.590650,0.203262,-0.019898,-0.488697,0.619068,0.614760
0.090500,-0.190556,0.672040,0.924317,0.267509,-0.272170
0.360418,0.248141,0.571660,0.209678,0.944493,-0.252920
0.269232,0.252132,0.551551,-0.138899,-0.989960,-0.026214
0.244873,-0.059037,0.508906,-0.375406,0.867645,-0.325980
-0.596601,0.525661,0.077294,-0.269599,0.685660,-0.676156
-0.263539,0.363616,-0.072528,0.795074,-0.044009,-0.604914
-0.029069,0.681764,0.027119,-0.483565,0.747897,-0.454769
-0.046149,0.149448,0.764070,0.906469,-0.074992,0.415561
-0.080569,-0.044250,0.120672,0.584302,0.799075,-0.141672
0.285886,0.306811,-0.071738,0.449122,-0.893443,0.006995
-0.244488,0.035016,-0.992216,0.088793,0.011844,0.995980
-0.934800,-0.482211,0.457743,-0.526285,0.244937,-0.814266
-0.070508,0.526180,0.283778,0.079044,-0.253785,0.964025
0.270174,0.615506,-0.090550,0.071318,-0.475291,0.876933
0.022646,0.311581,0.371607,0.848741,0.209212,0.485663
-0.681922,-0.527048,0.612162,0.357912,0.505050,-0.785381
-0.066527,-0.203260,0.737615,-0.625548,0.657401,-0.420134
-0.682392,-0.202783,-0.113311,-0.197818,-0.580944,-0.789539
-0.044779,0.106086,0.662281,0.956825,0.005079,-0.290620
-0.065243,-0.086398,0.214790,0.544265,0.728558,0.415907
0.014555,0.059733,0.479037,0.069873,0.765544,0.639578
0.078857,-0.001147,-0.958342,0.038738,0.101363,-0.994095
-0.639840,-0.734969,0.299883,0.290009,-0.888754,-0.354980
0.322617,0.279017,0.526787,0.736332,-0.152333,0.659250
0.093412,0.835615,0.013073,-0.227694,0.373446,0.899274
-0.245430,0.235350,0.612669,0.301525,-0.814415,0.495793
-0.398862,-0.616720,0.548476,0.157015,0.492064,0.856282
-0.173081,0.066715,0.436928,0.874341,0.420255,0.242722
0.010189,0.834877,0.040459,-0.858013,0.441821,-0.261933
0.107495,-0.546040,0.355812,0.317149,0.576856,-0.752764
0.538207,-0.241159,0.468376,0.562638,0.465087,-0.683471
-0.454642,-0.105565,0.316834,0.431805,0.873567,0.224557
-0.481314,0.106173,0.543146,-0.215902,0.472559,0.854444
-0.108396,-0.181102,0.643215,0.613599,-0.733801,-0.291605
0.848666,-0.455412,0.545712,0.051311,-0.848636,0.526482
0.023203,0.050539,-0.414985,-0.681653,0.731593,-0.011004
-0.155487,0.508228,0.300334,-0.326551,0.404015,-0.854480
0.459309,-0.642781,0.503688,-0.163728,0.431085,0.887332
0.013057,-0.076817,0.088096,-0.584324,-0.805163,-0.101378
0.238323,0.162936,0.064517,0.652976,0.076011,0.753555
-0.625798,-0.456497,0.380886,-0.515850,-0.425550,-0.743510
-0.427672,-0.383950,0.314831,-0.596099,0.071930,-0.799682
0.213279,0.158468,0.059948,-0.279138,0.412124,-0.867315
-0.078471,-0.614639,0.574706,-0.658064,0.184467,0.730016
-0.123036,0.162803,0.629902,-0.063529,0.970356,0.233181
-0.060191,0.083711,0.482309,-0.566742,-0.403385,0.718390
-0.341282,-0.295232,0.754819,0.248053,-0.866063,-0.434055
-0.255619,-0.278495,0.312349,0.442110,-0.492270,-0.749806
-0.107025,-0.128027,0.301096,-0.697336,-0.480651,-0.531693
-0.414487,0.248445,0.540776,0.844879,-0.035968,-0.533748
-0.090287,0.354292,0.721905,0.685563,0.657581,0.312396
-0.240678,0.225377,0.611316,0.249278,-0.845575,0.472084
-0.462733,-0.529086,0.526110,-0.629634,-0.092988,-0.771307
0.047733,-0.083537,-0.654722,0.832456,0.540389,0.122460
0.167002,-0.126727,0.515590,-0.493359,0.089064,-0.865254
0.427544,0.296535,0.509836,0.150002,0.383696,-0.911195
0.163020,-0.588102,0.573353,0.917266,0.031311,-0.397043
0.086605,0.953951,0.247028,-0.163481,0.599551,0.783462
0.818314,-0.675215,0.427733,-0.013200,-0.526641,0.849985
-0.370778,0.325587,-0.096670,-0.593425,0.535116,0.601247
-0.333362,0.230234,0.594224,-0.715664,0.116132,0.688723
-0.490260,-0.351950,0.567458,0.901167,-0.297551,0.315217
0.493257,-0.688225,0.119770,-0.072379,0.840750,0.536565
0.256176,-0.257896,0.531469,0.550517,0.644219,0.530955
-0.276125,-0.176505,0.491221,-0.172879,0.728732,0.662618
0.020805,-0.435162,0.436928,0.150521,0.347948,-0.925352
0.319491,-0.144070,0.620313,0.858664,0.076231,-0.506839
0.180145,-0.072956,0.555161,0.419024,0.490222,-0.764265
-0.109466,0.060252,0.132575,0.972575,0.232556,-0.003937
0.001412,-0.018536,-0.389996,0.855304,-0.514565,-0.060637
0.298215,0.243544,0.571688,-0.140214,0.977786,-0.155805
0.071749,0.564122,0.018883,-0.060299,0.126366,0.990149
-0.650200,-0.755306,0.575637,0.424852,0.490714,-0.760724
-0.033649,0.124777,0.739645,-0.689581,0.353786,-0.631912
-0.104628,-0.121825,0.811228,0.227142,0.615103,0.755020
0.136307,0.959673,0.247451,0.273158,0.647300,0.711609
-0.386746,0.195889,0.768216,0.894944,0.020572,0.445704
-0.071621,0.030289,-0.974729,-0.350540,-0.054012,0.934989
-0.472323,0.113197,0.552961,-0.783116,0.374804,0.496237
-0.292521,-0.112851,-0.995149,0.001512,-0.078384,0.996922
-0.146110,-0.669231,0.512487,0.034419,-0.166697,0.985407
-0.189691,-0.076121,-0.995544,0.060273,-0.087336,0.994354
-0.253222,-0.212324,0.289391,-0.241593,0.677836,0.694385
0.242305,-0.489236,0.436054,0.486803,0.443019,-0.752832
0.226979,-0.623398,0.144844,0.936117,0.208244,0.283408
-0.440130,-0.299827,0.206442,-0.726377,0.574323,0.377529
0.371077,-0.589576,0.467473,-0.303502,0.509350,0.805263
-0.094397,-0.152873,0.211208,0.727799,-0.426850,0.536756
-0.296887,0.413613,0.734117,-0.134137,-0.835848,0.532321
0.341666,0.347919,0.561225,-0.716072,0.692075,-0.090955
-0.327369,-0.649112,0.423531,0.837569,0.315029,-0.446357
0.022347,-0.844545,0.548194,-0.546666,0.123394,-0.828209
-0.097351,-0.065844,0.231487,-0.529816,-0.788525,-0.312288
0.298815,-0.076468,0.612049,0.637526,0.706894,0.306369
-0.224582,0.016889,-0.987252,0.114229,0.071422,0.990884
-0.172782,0.091821,0.624628,-0.425448,0.437821,0.792027
-0.542233,-0.144894,0.544443,0.651601,0.444959,0.614351
-0.110964,0.233746,0.586750,-0.547386,-0.747847,0.375624
-0.360846,-0.056912,0.471760,-0.172289,-0.297450,-0.939063
0.145340,0.034495,0.821495,0.753860,0.596510,-0.275447
-0.421337,-0.796717,0.334236,0.044753,0.159616,0.986164
-0.454001,-0.635930,0.512516,0.069410,0.813853,0.576911
-0.283402,0.493833,0.440736,0.372544,-0.417401,0.828847
0.292392,-0.629599,0.437154,0.418217,0.191917,-0.887841
-0.502589,-0.549465,0.417213,0.793771,0.537759,-0.284151
-0.254121,-0.657307,0.452299,0.078510,0.989122,-0.124390
0.910783,-0.575959,0.445389,-0.212966,0.467371,-0.858027
-0.427587,0.358672,-0.037667,-0.033807,-0.998203,-0.049485
-0.031380,0.353382,0.423559,0.962681,0.193298,0.189424
0.645490,-0.360535,0.449084,-0.109288,-0.096462,0.989319
-0.539236,0.705266,0.095655,-0.488018,0.299343,0.819898
0.185839,0.010125,-0.954929,0.095695,0.064004,0.993351
-0.164819,0.671747,0.054505,-0.649614,0.239709,-0.721485
-0.393938,0.278191,0.767201,0.954438,-0.039775,0.295745
-0.387389,-0.537801,0.501572,-0.049652,0.322475,0.945275
-0.793570,0.403813,-0.010111,-0.642387,-0.765941,0.025944
-0.472580,0.054747,0.240344,0.188761,0.001775,-0.982021
0.370092,-0.021529,0.068833,-0.404629,-0.625169,0.667412
-0.444839,0.097760,0.028134,0.362085,-0.037511,0.931390
-0.061304,-0.029292,0.005570,0.923374,-0.372284,0.093728
-0.097136,0.254818,0.501121,-0.181994,0.758018,-0.626328
-0.762147,0.385297,0.018121,-0.636866,-0.768131,0.066148
0.004409,-0.217657,0.521597,0.972201,0.162729,0.168359
0.250567,0.111030,0.519567,0.851185,-0.080817,0.518606
-0.073805,0.279580,0.167971,0.911917,0.248621,-0.326488
0.454686,-0.329663,0.536743,-0.908323,0.074423,-0.411595
-0.264310,-0.557661,0.122506,0.281147,0.629972,-0.723941
0.043152,-0.533551,-0.135028,0.148132,-0.839966,0.522029
-0.038487,-0.087353,-0.974390,0.697284,-0.051384,-0.714951
-0.019735,-0.535935,-0.115483,-0.462432,0.491627,-0.737875
0.366711,-0.239944,0.556148,0.898500,0.379997,0.219774
-0.030139,0.122781,0.779950,0.641598,0.508245,0.574490
-0.029924,-0.044989,-0.586298,0.660078,0.733158,-0.163634
0.750759,-0.680159,0.415239,0.213742,-0.584220,0.782944
-0.024915,-0.119962,0.298811,0.883010,0.056223,0.465975
0.010146,0.273681,0.397301,0.848741,0.209212,0.485663
0.190976,-0.251955,0.355784,0.473371,0.834662,0.281531
-0.004710,0.435250,-0.017642,0.562843,0.587843,-0.581075
0.486321,-0.432561,0.456417,0.323623,-0.466076,-0.823433
-0.065114,0.379226,0.244772,0.101045,-0.550123,0.828948
-0.609144,-0.518851,0.606605,0.180760,-0.752471,0.633335
-0.324843,0.694989,0.151556,-0.066411,-0.838667,0.540581
-0.168030,0.053879,0.842281,-0.242631,0.724495,-0.645165
0.105997,0.214058,0.148990,-0.457370,-0.637799,-0.619697
0.122821,-0.207682,0.693277,0.940521,0.092270,-0.326964
0.173295,0.115323,0.880160,0.900207,0.226603,-0.371858
-0.046877,0.344449,0.499203,-0.361682,-0.275508,0.890663
-0.373732,-0.146325,0.062459,-0.097019,-0.053706,0.993832
-0.124149,0.331613,0.677821,-0.292534,0.950142,-0.107956
-0.498223,-0.270950,0.504647,0.950213,-0.051228,0.307361
-0.649471,0.301608,-0.031970,-0.247356,-0.431164,0.867705
-0.318507,0.396572,0.422657,0.299944,-0.311586,0.901636
0.463290,0.004445,0.605336,0.867916,0.495727,0.031247
-0.024616,-0.056263,-0.515957,0.673617,0.738535,0.028376
-0.150734,-0.406457,0.907546,0.256648,0.798617,0.544374
-0.594632,0.555017,0.071766,-0.150139,0.767527,-0.623186
0.181728,0.323549,0.026103,0.804585,0.053540,-0.591419
0.588381,-0.390151,0.407257,0.288742,0.086705,0.953473
-0.001199,-0.192681,0.507467,0.881811,0.392879,-0.260875
-0.151804,0.427879,0.272186,0.332214,-0.602549,0.725650
0.037758,-0.005009,-0.961614,0.159987,-0.181049,-0.970374
0.184511,-0.490752,0.604321,-0.555331,0.569833,0.605721
0.139646,0.232878,0.542864,0.396720,0.431131,-0.810394
-0.498009,-0.275891,0.380971,-0.738241,0.577629,-0.348346
-0.138619,0.618629,0.031659,-0.441155,0.480939,-0.757680
-0.430669,-0.105260,0.485383,-0.352923,0.707838,0.611891
-0.308575,0.214537,0.407370,0.638920,0.754634,-0.149358
-0.088446,0.553326,-0.003258,0.969352,0.149000,0.195337
0.681193,-0.433167,0.648066,0.128999,0.607249,0.783969
-0.404597,0.005356,0.475145,-0.309729,0.516340,-0.798411
-0.120981,-0.336729,0.131813,0.963587,-0.249453,-0.096298
-0.511494,-0.303818,0.384693,-0.505336,0.435076,-0.745215
0.234984,-0.462785,0.053292,0.248712,-0.116103,-0.961594
0.065757,0.635800,0.024072,0.119963,0.451474,-0.884183
-0.607046,-0.245539,0.414449,0.066387,0.300882,0.951348
-0.166146,-0.050147,-0.134493,-0.789365,0.388368,-0.475471
0.646090,-0.508834,0.277602,-0.433497,-0.586829,0.683894
-0.283445,0.015026,0.540353,0.043644,0.860068,0.508310
-0.416542,-0.397525,0.274696,-0.802703,0.542991,-0.246635
0.449976,-0.040998,0.545148,0.342562,-0.212729,0.915094
-0.095038,0.484119,-0.007178,0.044058,0.323742,0.945119
-0.561797,0.228410,0.528620,0.280876,-0.091384,0.955383
-0.281819,0.181798,0.600654,0.019039,0.658391,-0.752435
0.106597,-0.300261,-0.124311,-0.815587,0.122700,-0.565475
-0.783552,-0.174033,0.486850,0.642071,0.100613,0.760015
0.371162,-0.472194,0.602911,-0.623594,0.326129,0.710472
-0.119354,-0.219912,0.723202,-0.132949,0.622039,0.771617
-0.189007,0.495047,0.045310,0.105362,-0.586348,0.803178
0.133225,0.913839,0.231262,-0.538479,-0.027166,-0.842201
-0.016653,0.194806,0.741958,-0.502813,-0.372006,-0.780250
0.412603,0.238211,0.584493,0.433378,-0.044338,0.900121
0.238281,0.751058,0.255715,-0.046114,0.618608,0.784346
0.200307,-0.511999,0.619072,-0.258593,-0.705382,0.659974
0.080440,0.024088,0.519454,0.865445,-0.472210,-0.167397
-0.215291,0.659477,0.155815,0.775149,0.504882,-0.379787
-0.762576,-0.461830,0.486737,0.413261,-0.163788,0.895762
0.356864,-0.252000,0.510767,0.372972,0.645083,0.666903
-0.218973,-0.201873,0.004809,0.209014,-0.871075,-0.444456
-0.124449,-0.415691,0.895418,-0.448471,-0.791380,-0.415442
0.489275,-0.375798,0.423108,-0.290149,-0.280835,0.914847
-0.604221,0.088264,0.279322,-0.766241,-0.173344,-0.618730
-0.022561,-0.066365,-0.121575,0.368179,0.928803,-0.042073
-0.545486,-0.259328,0.599836,0.471926,0.464291,0.749480
0.171026,0.164756,0.108234,-0.590357,-0.645664,0.484353
-0.239094,0.066929,-0.993034,-0.057547,-0.028772,-0.997928
-0.269704,0.553326,-0.090409,0.832206,-0.057855,0.551441
-0.280877,0.192075,0.569094,-0.367381,0.410838,-0.834412
-0.460336,-0.463521,0.503744,-0.619899,-0.240954,-0.746770
0.116186,0.054530,0.108037,-0.058085,0.996114,0.066203
-0.304722,0.221431,0.610046,-0.122669,-0.556846,0.821508
0.697504,-0.459011,0.319626,-0.177595,-0.684947,0.706617
0.009975,-0.125772,-0.969032,0.286006,0.293308,-0.912234
0.217689,0.147540,0.540184,0.265202,0.390249,0.881688
0.067682,-0.329054,0.660137,0.237921,-0.944841,0.225097
0.340168,-0.080805,0.280817,-0.452493,0.689317,0.565766
0.412945,-0.476140,0.635233,0.766486,-0.364657,-0.528700
-0.766514,-0.238730,0.486173,0.710959,-0.010529,0.703155
-0.231303,0.103961,0.583619,0.190271,0.468373,0.862800
-0.353911,0.123951,0.011973,0.257954,-0.091563,0.961809
0.315467,-0.487457,0.446800,-0.119344,-0.094417,-0.988353
0.187251,-0.497475,0.604744,-0.735479,0.342167,0.584802
0.126717,-0.294192,0.700611,0.820125,-0.209409,-0.532488
-0.136778,-0.248660,-0.055972,-0.681226,0.320087,-0.658388
-0.241406,0.019925,0.849840,-0.785852,0.424406,-0.449796
-0.655250,-0.752358,0.315283,-0.453268,0.675858,0.581176
-0.554475,-0.283002,0.406665,-0.484367,0.123204,-0.866146
-0.781198,-0.859158,0.524362,-0.297015,0.783896,-0.545242
-0.576822,-0.692821,0.437492,0.970450,0.158763,0.181717
-0.120382,-0.731934,0.084430,0.768306,0.616972,0.170446
0.303181,-0.596339,0.445135,0.363262,0.052995,-0.930179
-0.467144,0.156041,0.254023,-0.193735,0.102612,0.975673
-0.052913,-0.731631,0.547376,0.639830,0.356669,0.680739
-0.135579,-0.319862,0.820395,0.565948,0.724410,0.393615
0.345905,-0.300955,-0.016429,0.727261,0.615541,0.303646
0.279164,-0.580078,0.435066,-0.288014,-0.111970,0.951058
-0.240421,0.233529,0.609285,0.215144,-0.865327,0.452683
-0.617792,0.392843,0.005881,-0.137593,0.610191,-0.780215
0.171626,0.256338,0.570588,-0.487705,-0.822240,0.293369
0.181001,0.172733,0.056592,0.134182,0.514303,0.847046
0.373388,-0.528305,0.450974,0.207014,-0.334161,-0.919501
-0.227536,-0.686793,0.082286,0.880280,0.425234,-0.210436
-0.345263,0.375409,0.666765,-0.512298,0.679464,-0.525243
0.199023,-0.518113,0.555894,0.953990,-0.299752,-0.007161
0.139603,-0.275460,-0.189801,0.688346,0.676006,0.263052
0.340126,0.428051,-0.125467,0.937953,-0.282171,0.201555
-0.540178,-0.600502,0.457292,-0.548843,0.367741,0.750692
-0.385377,-0.206036,0.510203,0.059019,0.418784,0.906166
-0.321032,0.141990,0.266489,0.098920,0.393073,0.914171
0.416370,-0.568849,0.492829,-0.583555,0.074730,0.808627
0.483454,-0.584285,0.503208,0.306029,-0.276537,-0.910974
-0.734021,-0.657741,0.529382,0.820208,-0.074651,-0.567174
-0.644377,-0.811200,0.323490,0.650825,-0.320420,-0.688300
-0.212337,0.035276,0.568332,0.081918,0.926779,-0.366566
-0.302710,-0.019796,0.825894,0.143302,-0.939097,0.312347
0.224367,0.815842,0.193186,-0.424757,0.455930,0.782118
-0.251637,0.334519,-0.045733,0.876081,0.008728,-0.482085
0.378783,-0.251825,0.053038,-0.525544,-0.078786,0.847110
-0.308318,-0.613295,0.498555,0.083924,0.440436,0.893853
-0.717582,0.310106,-0.015950,0.308945,-0.442352,0.841949
-0.010703,-0.085879,0.450015,-0.727038,-0.086848,0.681082
0.128259,-0.079503,0.821466,0.753671,0.606667,-0.252855
0.208528,0.493833,0.101522,-0.371285,-0.655486,0.657636
-0.017680,-0.344534,0.046918,0.582378,0.531052,0.615483
-0.323644,-0.404027,0.014201,-0.532475,0.554325,-0.639683
0.113446,0.043991,0.253853,0.452681,-0.264851,-0.851431
0.040498,-0.139473,0.660448,0.584108,0.613805,-0.531095
0.120082,-0.254644,0.714346,0.790327,0.200795,-0.578848
-0.143671,-0.263793,0.773378,0.469327,0.704824,0.531936
-0.105955,0.026169,-0.982598,-0.124663,0.036792,0.991517
-0.190976,-0.116493,-0.994190,-0.163754,-0.070686,0.983966
0.374374,0.288425,0.525631,-0.406950,-0.302095,0.862050
-0.119183,-0.107949,0.297204,-0.295186,0.711550,0.637623
-0.119911,-0.797844,0.145126,0.780432,0.005032,-0.625221
-0.533756,0.080199,0.480560,0.397697,-0.749334,0.529468
0.041012,0.233831,0.533895,-0.738091,0.434485,-0.516183
-0.326684,0.244195,0.389770,-0.442387,-0.302415,0.844298
0.414829,-0.311970,0.050218,0.218461,0.395108,-0.892280
-0.039514,-0.669795,0.581137,-0.308841,0.946587,0.092688
-0.671005,-0.192464,0.404634,-0.297995,0.376748,-0.877075
-0.029796,-0.455023,0.455402,-0.219415,-0.958618,0.181409
-0.518601,0.491837,0.031406,-0.707264,0.576210,-0.409585
0.201592,0.235522,0.564355,0.266184,0.475399,-0.838536
-0.049402,0.347961,0.066041,0.712188,0.325760,0.621826
-0.128302,-0.388981,0.899028,0.458493,0.775252,0.434475
-0.321718,0.197278,0.059525,-0.451405,0.786566,0.421363
0.229333,0.198144,0.539648,0.391381,0.918166,-0.061580
-0.544115,-0.430263,0.386809,0.038927,0.429118,-0.902409
-0.491588,0.390718,0.255292,-0.030663,-0.017921,0.999369
-0.246885,0.457322,-0.129698,0.932022,-0.034066,0.360796
-0.049617,-0.341151,0.502447,-0.435028,0.868039,0.239287
0.144484,0.023567,-0.956001,0.057194,0.081545,0.995027
-0.449549,-0.342454,0.369068,0.781256,-0.066677,0.620640
-0.231988,0.480867,0.293537,0.037440,-0.509996,0.859362
-0.079071,-0.226677,0.178548,0.897088,-0.120575,0.425082
-0.351428,-0.734969,0.616533,0.281618,0.798831,0.531564
-0.301383,-0.401383,0.042349,0.436422,-0.342430,-0.832032
-0.292777,-0.111160,0.474835,0.586373,0.470146,0.659644
0.854018,-0.588188,0.451087,-0.209896,0.517650,-0.829447
-0.013357,-0.795199,0.540325,0.473151,0.188314,0.860619
0.306091,-0.677123,0.415070,-0.288770,-0.198332,0.936630
0.124064,-0.435162,0.778003,-0.311247,0.657068,0.686576
-0.869814,-0.597727,0.562353,-0.136004,-0.760149,0.635356
-0.032878,0.263621,0.239385,0.629750,-0.052533,-0.775019
-0.025387,0.041694,-0.973037,-0.170718,0.010953,0.985259
-0.044352,-0.382955,0.439861,0.497552,0.013821,0.867324
0.020078,-0.125295,0.525687,0.961909,0.273364,0.001678
-0.025258,0.667240,-0.116949,-0.472125,-0.321204,0.820930
-0.261741,-0.108775,0.331951,-0.533471,-0.259340,-0.805078
-0.551051,-0.441146,0.551861,-0.662549,0.732744,0.155288
-0.061989,0.387854,-0.109814,0.554854,0.813280,-0.175252
0.034163,0.252651,-0.145154,0.381869,0.549511,-0.743111
0.159767,-0.253082,0.727066,0.815777,0.140885,-0.560945
-0.755255,0.432301,0.099265,0.166159,-0.825931,0.538729
0.248042,0.147974,0.042885,0.029525,-0.458244,0.888336
0.130228,-0.013203,0.164164,-0.354534,-0.399364,-0.845467
0.471424,-0.385774,0.429172,0.066800,0.066548,0.995545
-0.647417,0.350174,-0.102904,0.682290,-0.698296,0.216478
0.345177,0.319256,0.537561,0.009462,-0.633967,0.773302
0.281176,-0.109164,0.067648,0.145533,0.012748,-0.989271
-0.180786,-0.455195,0.430413,-0.777831,-0.179616,-0.602260
-0.270774,0.554324,0.069933,0.622004,0.143329,0.769785
-0.088574,0.001886,0.532231,0.979462,-0.199884,0.026453
-0.704867,-0.090648,-0.137369,-0.071652,0.484278,0.871975
0.069224,-0.125555,0.207739,-0.420296,-0.892524,0.163560
-0.485637,-0.315439,0.061979,0.254797,-0.364158,-0.895806
-0.691639,0.353165,-0.009265,0.127177,-0.311970,0.941542
0.262853,0.124385,0.047454,0.184486,-0.076212,0.979876
-0.154030,-0.553498,0.504280,0.061532,0.451281,0.890258
0.281304,0.142382,0.511557,-0.445358,0.030692,0.894826
-0.204889,0.053834,-0.990354,-0.066437,-0.044614,0.996793
-0.090757,-0.106086,-0.055323,-0.669016,0.733623,-0.119225
0.327496,0.171000,0.543992,-0.426637,0.011780,0.904346
0.081510,0.137091,0.818364,0.820005,0.426950,-0.381191
-0.667666,0.245886,-0.120419,0.580019,-0.814584,0.005538
-0.604735,-0.771089,0.586580,0.274417,-0.214671,0.937343
0.342223,-0.544219,0.497144,0.112051,0.141133,0.983629
-0.196156,-0.399128,0.924300,0.125056,0.807155,0.576942
0.202876,0.010040,0.031603,-0.621479,-0.509695,-0.594958
-0.666809,0.263709,-0.163007,0.155260,-0.043057,0.986935
-0.168715,-0.214145,0.522838,-0.139769,-0.528516,0.837338
-0.055611,0.183055,0.529608,0.669210,-0.322076,-0.669646
-0.155273,0.140212,-0.260002,-0.311561,-0.337369,0.888320
0.163277,0.296707,0.621864,-0.146009,-0.982013,0.119716
0.847724,-0.409752,0.576934,0.122834,-0.855146,0.503624
0.134252,0.018321,-0.954958,-0.003947,0.096385,0.995336
-0.296032,-0.151703,0.907800,0.858222,0.192515,0.475807
-0.692025,0.511221,0.105273,0.495045,-0.218236,0.841013
-0.026115,-0.058907,-0.966493,0.795587,-0.068772,-0.601923
0.140930,0.018409,0.529805,-0.141697,0.370054,0.918140
-0.758979,-0.306158,-0.099181,0.947140,-0.192500,-0.256651
0.341753,-0.574789,0.460563,-0.378481,0.418550,0.825571
