-0.170341,0.625674,-0.982365,-0.128621,0.167180,0.977501
-0.411884,0.066456,0.389946,-0.646268,-0.699573,-0.304854
0.175076,0.595464,-0.972147,0.211839,0.213101,-0.953788
0.181391,0.290326,-0.974179,-0.434644,-0.053254,0.899026
0.075409,-0.015062,0.854251,-0.658811,-0.464811,0.591539
-0.089303,0.231483,0.289685,0.766846,-0.595060,0.240521
0.077410,0.924771,-0.976267,0.309561,0.191296,-0.931439
0.170762,0.018787,-0.964840,-0.033065,-0.313218,0.949105
-0.286007,0.203840,0.904354,0.839560,0.382555,0.385735
-0.333791,0.094431,-0.996319,0.081419,-0.053932,0.995220
-0.634059,-0.033186,0.555336,0.868407,0.019958,0.495451
0.044045,0.727966,0.915341,0.344630,0.872205,-0.347113
-0.117191,0.112802,0.863096,-0.232725,-0.077933,0.969415
-0.071727,0.708682,0.805274,-0.750565,0.297784,0.589895
-0.042782,0.680875,0.819503,0.201927,0.370179,-0.906749
-0.551125,-0.453282,-0.251834,-0.528142,0.265989,-0.806422
0.012892,0.299181,0.362725,0.469184,-0.879224,-0.082655
0.172131,0.105604,0.787694,0.922794,0.274996,0.269868
-0.218860,-0.361085,-0.969180,-0.162025,0.365297,0.916682
-0.387782,0.082017,0.586815,-0.214870,0.876414,0.430964
-0.261170,-0.591823,-0.958797,0.028339,0.097088,0.994872
0.087196,0.142681,0.120038,0.993907,0.099391,-0.047643
-0.014261,0.058346,0.137151,0.856596,0.515136,0.029640
-0.143400,0.144252,-0.063563,-0.460321,-0.858324,0.226680
-0.182023,0.149053,-0.966983,0.038583,0.255174,0.966125
-0.247593,-0.080691,-0.983931,0.334704,-0.175957,-0.925750
-0.095826,-0.599354,-0.966955,0.144830,-0.220336,-0.964612
0.148241,0.505503,-0.973657,-0.323117,0.230205,-0.917933
0.162659,0.253250,0.894163,0.819246,-0.042253,0.571884
-0.132560,-0.205909,-0.973190,0.232196,0.066087,-0.970421
-0.552914,0.375403,0.637138,-0.248683,0.968581,-0.002710
-0.066255,0.302573,0.419695,0.611230,0.749652,-0.253811
-0.093722,-0.282628,-0.971735,-0.005715,0.046409,0.998906
-0.189918,0.169082,-0.982530,-0.180730,-0.165167,0.969565
0.285060,-0.430935,-0.959099,-0.106847,0.061368,0.992380
0.005210,-0.015062,0.199753,0.539509,0.812479,0.220924
-0.088041,-0.123893,-0.980607,-0.176543,0.102493,0.978942
0.015314,0.250436,0.086801,0.801798,0.592741,-0.076014
-0.292640,-0.230572,-0.982338,0.124002,0.130448,-0.983670
-0.000157,0.267153,0.242082,0.800305,-0.598536,-0.035604
0.213281,0.146901,0.361187,0.966267,-0.244267,-0.081623
0.220755,-0.192419,0.827414,0.714292,-0.160255,0.681253
0.152660,0.290490,0.690839,0.675927,0.697848,0.236919
-0.143609,-0.074486,0.819393,0.301994,0.672522,0.675658
0.181076,-0.376065,-0.957506,-0.243734,0.070815,0.967253
-0.378204,0.489614,0.298036,-0.298447,0.159805,-0.940953
-0.245384,-0.024912,0.432578,0.321041,0.006950,0.947040
-0.744464,0.111148,0.575718,-0.283315,0.770233,-0.571379
-0.116141,0.075642,0.932756,0.843143,0.444354,0.302753
0.424722,-0.296118,0.096690,0.840038,-0.285576,-0.461283
-0.008787,-0.028801,-0.109078,0.767871,0.630129,0.115374
0.069306,0.077463,0.452877,-0.598418,0.789797,0.134595
-0.428932,-0.102955,0.863535,0.887501,0.322421,0.329222
-0.027314,0.065464,-0.874935,0.786533,-0.617379,0.014453
-0.184445,-0.807582,0.519407,-0.065593,-0.019872,0.997649
-0.247593,-0.268972,-0.967037,-0.369293,-0.459971,-0.807496
-0.071936,0.051312,-0.670705,0.365411,-0.871199,0.327852
0.109194,0.091698,0.901332,-0.674264,0.648053,0.354111
-0.176341,0.080444,-0.985030,0.225786,-0.129665,-0.965509
-0.334632,-0.653977,-0.978547,0.432074,0.204508,-0.878344
-0.157292,-0.114954,-0.227716,-0.179375,-0.195845,0.964090
-0.015102,0.602913,-0.977531,0.368780,-0.061875,-0.927455
-0.356839,0.048168,-0.991402,0.826126,-0.017251,-0.563222
-0.419673,0.729870,0.413103,0.846984,0.397887,-0.352569
-0.095405,0.093933,-0.959126,-0.721584,0.320605,0.613619
-0.126140,-0.599023,-0.963274,-0.017448,0.171091,0.985101
-0.129824,-0.381528,-0.973081,-0.082720,-0.116974,0.989684
0.215912,0.495822,0.477297,-0.805199,0.562899,-0.186544
-0.485240,0.347762,0.947507,0.761036,-0.226838,0.607757
-0.714468,0.022098,0.564263,-0.190176,0.140660,-0.971621
0.265590,0.205992,0.565389,0.651885,0.758317,0.001074
-0.253593,0.181910,0.911111,0.016562,0.257402,0.966162
-0.217598,0.106678,0.890043,0.638790,0.423938,-0.642047
-0.030680,0.095590,-0.263673,0.900169,0.421027,-0.111498
-0.199181,-0.433418,-0.977201,-0.257235,0.000031,-0.966349
0.035626,-0.308946,-0.968795,0.130041,-0.089214,-0.987487
-0.334526,0.383349,-0.987529,-0.158835,0.124394,0.979437
-0.729307,-0.258960,0.431671,-0.356258,-0.278763,-0.891836
-0.447353,0.442854,0.966570,0.704671,0.022693,-0.709171
0.148241,0.109575,0.499025,-0.560517,0.808882,0.177570
0.001314,0.761731,-0.963879,-0.184740,0.206887,0.960765
0.168868,0.323183,0.397445,0.894557,0.405520,0.187937
-0.030471,0.089215,-0.460926,-0.372070,0.885954,-0.276858
-0.488712,0.385170,0.238566,-0.484673,0.280289,-0.828571
-0.236753,0.299429,0.338250,-0.262569,0.670181,-0.694201
-0.969481,0.054374,0.616069,-0.523953,0.504600,-0.686187
-0.578805,-0.019282,0.483560,-0.420298,0.904986,-0.065953
0.017418,0.086321,-0.076418,0.970897,-0.238227,-0.024650
0.100037,-0.303319,-0.969372,-0.224586,-0.186218,0.956496
-0.110668,-0.051644,-0.971735,-0.240038,-0.005376,0.970749
-0.281273,0.815361,-0.987035,-0.125191,-0.162908,0.978666
-0.127190,0.825540,-0.978382,-0.038240,0.169125,-0.984852
0.460926,-0.470578,0.242714,0.096849,0.497788,0.861874
0.493552,-0.274518,0.147095,0.971774,-0.151093,-0.181177
-0.186025,0.380452,-0.981431,-0.250531,-0.164223,0.954078
0.254958,0.205083,0.722263,0.378383,0.333817,-0.863361
0.178131,0.702888,0.417470,-0.441089,0.059183,0.895510
0.272958,-0.089466,0.237962,-0.594882,0.722663,0.351957
0.746567,-0.004303,0.419256,0.934716,-0.352088,-0.048378
-0.053099,0.616074,-0.978657,0.272136,-0.089502,-0.958087
-0.376627,0.061491,0.383684,0.118380,0.843890,0.523293
-0.129191,0.195563,0.942892,0.965221,-0.206423,-0.160429
0.056044,0.456262,-0.944156,0.008137,0.767983,0.640419
-0.000684,0.004302,-0.969894,0.002426,-0.684182,0.729308
-0.122138,0.488207,-0.968905,-0.161142,0.395669,0.904146
-0.242120,-0.690639,0.542728,-0.373189,0.900279,-0.224117
-0.331263,0.735166,0.426123,0.183071,0.477413,0.859396
-0.058992,0.209798,-0.009202,0.044372,0.998911,0.014432
-0.105722,-0.513696,-0.966790,0.390080,-0.768554,-0.507112
-0.129612,0.005712,-0.977393,-0.135650,0.225867,0.964667
0.218754,0.193742,0.437632,-0.604232,0.796181,-0.031619
-0.895598,-0.117604,0.549073,-0.570420,0.820055,-0.046151
-0.237910,-0.605479,-0.965197,0.271920,0.208494,0.939462
-0.356418,0.410328,0.390661,0.763296,0.349893,0.543097
0.136977,0.811141,-0.960527,0.834269,-0.246011,-0.493431
0.063621,0.567243,-0.969702,-0.213765,0.283274,-0.934912
0.218966,0.258048,0.764593,0.247234,0.066936,0.966641
0.022258,0.275263,-0.983217,-0.061488,0.237063,0.969547
-0.012578,0.156666,-0.147754,0.831682,0.408354,-0.376234
-0.258748,0.228503,0.061585,0.847701,-0.260399,0.462163
-0.230648,-0.631465,-0.958412,0.042629,0.445583,0.894225
-0.323371,-0.026236,0.829831,0.251983,0.380408,0.889828
-0.572384,0.096830,0.976349,0.098287,0.868765,0.485373
-0.072569,0.541506,0.805411,0.940578,0.240902,0.239332
-0.488609,0.397336,0.251943,0.194841,-0.555379,0.808450
-0.119719,0.442770,-0.982338,-0.330928,-0.065236,0.941398
-0.600591,0.001820,0.322538,0.230484,-0.964572,-0.128365
0.371993,-0.174459,0.069002,-0.732377,0.500684,0.461454
-0.001317,0.005131,0.059333,-0.727489,0.640847,0.245104
0.082564,0.511628,-0.972833,0.026949,0.415734,0.909087
0.129294,0.437805,-0.972696,0.141594,0.343746,-0.928327
0.152869,0.088223,0.918885,0.218934,0.736816,0.639664
-0.009947,0.067532,-0.424145,0.468795,-0.867867,0.164431
-0.076041,0.678723,-0.978931,0.193638,-0.115954,-0.974197
-0.273169,0.090789,-0.988326,-0.272703,0.071778,0.959417
0.038992,0.063974,-0.960720,0.436704,-0.455245,0.775913
-0.016262,0.075809,0.326439,0.005247,-0.548722,0.835989
0.028152,0.101050,-0.737399,0.909976,-0.386593,-0.149965
0.210124,0.129272,0.325258,0.807729,-0.589491,0.008627
-0.395780,-0.322850,0.432441,-0.064561,-0.263430,0.962516
0.023100,0.078539,-0.262711,0.991580,0.014833,-0.128647
-0.106878,0.326160,-0.977311,0.000269,-0.051371,0.998680
-0.029103,-0.292809,-0.973328,-0.072721,0.236448,0.968919
-0.101720,0.145494,-0.159072,-0.552572,0.817493,-0.162388
0.035835,0.448731,-0.965389,0.136054,-0.370550,0.918794
0.020155,-0.016966,0.939129,-0.032020,0.992245,0.120106
-0.011630,0.047504,-0.511496,-0.262969,0.963705,0.046043
-0.146346,0.299098,0.519599,-0.285970,-0.957108,0.046543
-0.090777,0.474386,-0.973712,-0.191626,0.415194,0.889322
-0.134873,-0.117273,0.850762,0.656905,0.693188,-0.296591
-0.147399,-0.178349,-0.977448,0.184505,0.042416,-0.981916
-0.184657,0.608790,0.408186,-0.382468,-0.738914,0.554729
-0.180867,-0.149384,-0.235078,0.111625,-0.545818,0.830435
-0.496292,-0.279484,-0.255350,0.970847,-0.184820,-0.152633
-0.333791,0.582222,0.614751,0.424891,-0.893458,0.145602
-0.331895,0.453613,0.956847,0.109339,0.971061,-0.212332
0.226752,0.484151,0.828568,0.863021,0.273996,0.424407
-0.182656,0.833321,-0.986018,0.287928,-0.123849,-0.949610
-0.177183,0.168418,0.565554,-0.769218,0.626371,-0.126344
0.244225,-0.158570,-0.960582,-0.661755,-0.056273,0.747605
0.210545,0.046264,0.788628,0.676681,0.413909,0.608919
-0.403989,-0.074733,0.836012,0.168052,0.482635,0.859548
-0.081302,0.291152,0.360582,0.210081,-0.955455,-0.207297
-0.512393,0.109824,0.965032,0.074189,0.494021,0.866279
-0.301585,-0.498055,-0.965884,0.058162,-0.095165,0.993761
-0.823399,-0.100141,0.400385,0.961279,0.076294,-0.264807
0.097509,-0.156502,-0.970334,-0.082247,-0.170637,0.981895
0.233278,0.184061,0.446944,0.521338,-0.852461,-0.038961
-0.370416,-0.043862,0.396786,0.276888,0.097476,-0.955945
-0.052257,0.656378,-0.969702,-0.079807,-0.094178,0.992351
-0.369574,0.469421,0.989287,-0.200080,-0.648164,0.734746
-0.176868,0.702227,-0.981514,-0.028053,-0.230256,0.972726
0.266325,-0.367625,-0.963631,0.032876,0.137724,0.989925
-0.406305,0.165687,0.956682,0.121954,0.733295,0.668884
-0.061517,0.674586,-0.974262,-0.007952,0.024516,0.999668
0.131295,0.119839,0.158742,0.953998,0.091747,-0.285431
-0.124245,0.302656,0.731987,0.856186,0.150613,0.494229
-0.196759,0.101050,-0.986678,0.090947,-0.106954,0.990096
0.094352,0.021932,-0.972614,-0.030833,-0.156858,0.987140
-0.093302,-0.086899,0.371432,0.715020,-0.674508,-0.183808
-0.105722,0.457586,-0.984041,0.408037,0.085134,-0.908987
0.298216,0.348177,0.757945,-0.198990,-0.543557,0.815444
-0.119299,-0.436646,-0.972229,0.114273,-0.163689,-0.979871
0.301161,0.191757,0.541409,0.475749,0.871937,-0.115709
0.038784,0.057187,0.003571,0.727425,-0.677149,-0.111003
-0.232649,0.515517,0.721384,-0.707425,0.664118,-0.241862
0.396306,0.374658,0.771542,-0.716233,0.516334,-0.469477
-0.360629,0.434413,-0.991512,-0.030623,-0.013372,-0.999442
0.431351,-0.121162,0.299025,-0.073073,0.975581,0.207126
0.192234,0.065297,-0.961489,0.058101,0.004940,0.998298
-0.598169,0.411654,0.365032,0.831537,-0.078385,0.549910
0.204545,-0.183150,0.788765,0.553164,-0.113880,-0.825252
0.083512,0.881321,-0.976240,-0.195488,0.005980,0.980688
-0.448509,0.668792,0.291306,0.284847,0.861829,-0.419659
-0.295797,-0.622858,-0.973163,0.817067,0.333183,-0.470521
-0.160661,-0.195647,0.438099,-0.373610,-0.855149,-0.359355
-0.279272,-0.164695,0.409971,-0.237355,0.526043,0.816665
0.131189,0.804849,-0.953276,0.938358,0.267232,-0.219252
0.272219,-0.106844,-0.018294,-0.036823,0.904063,0.425811
0.210018,-0.102872,0.832468,-0.737525,0.239618,-0.631379
-0.089932,0.174873,-0.218844,0.568440,0.818105,0.087064
0.051201,0.568071,-0.962368,0.031438,-0.142693,0.989268
-0.225072,-0.202267,-0.979646,-0.119305,-0.112120,0.986507
0.137398,-0.216337,-0.963604,0.003106,0.208521,0.978013
-0.286849,0.596293,0.939404,0.384262,0.562554,0.732036
0.340105,0.218820,0.839308,-0.868789,0.043352,-0.493281
-0.043730,0.198958,-0.972614,-0.505809,0.221350,0.833764
-0.568174,0.399074,0.923912,0.562316,-0.435320,0.703063
0.146767,0.125219,-0.967862,0.067266,-0.005942,-0.997717
0.096880,0.144419,0.133251,0.974058,0.218959,-0.057160
-0.027314,-0.294794,-0.972614,-0.072786,0.227059,0.971157
-0.847815,-0.089629,0.530614,-0.694032,0.718882,0.039095
-0.342630,0.438550,0.896800,0.898802,-0.203853,-0.388071
0.095826,0.666971,-0.955308,-0.563260,0.136263,0.814966
0.186128,0.097492,0.787639,0.922794,0.274996,0.269868
-0.170448,-0.306877,-0.969317,-0.091547,0.312772,0.945406
-0.547968,-0.229332,0.427579,0.263991,-0.444970,-0.855751
0.170024,0.340892,0.511688,0.891054,0.089329,-0.445021
0.042255,0.098734,0.898668,-0.631491,-0.765795,0.121556
0.072778,-0.011670,-0.970691,0.073274,-0.171673,0.982425
-0.203495,0.273690,-0.979371,-0.235212,-0.086712,0.968068
0.069727,0.381611,0.760115,0.756388,-0.054465,-0.651851
-0.039731,0.071753,-0.716275,0.344049,-0.876250,-0.337367
-0.155291,0.463791,-0.973108,-0.014052,-0.020825,0.999684
0.037203,-0.286187,-0.970444,0.205445,-0.203665,-0.957242
-0.016997,-0.343209,-0.962176,0.001739,-0.168386,0.985720
-0.018786,0.588264,0.816317,0.330962,0.796440,-0.506110
0.070883,0.141686,0.853591,0.670004,-0.742344,-0.004435
-0.232857,0.115452,-0.978245,-0.478469,0.004535,0.878093
-0.323792,-0.151617,-0.982969,-0.173033,0.084417,0.981292
-0.297268,-0.029216,-0.977833,0.613259,-0.352500,-0.706865
-0.262432,0.644791,-0.987667,-0.025698,0.078920,0.996550
0.406726,-0.132169,0.041286,-0.675186,0.599357,0.429995
0.271904,0.411404,0.756270,0.877337,-0.322523,-0.355329
0.031415,0.953821,-0.966735,0.305386,0.309989,-0.900359
-0.487241,0.376479,0.517759,0.505857,0.346190,0.790102
-0.282008,0.080113,-0.991237,-0.085094,0.227362,0.970085
-0.101299,0.313416,0.368658,0.353565,0.901947,-0.247959
-0.181181,0.481173,0.924379,0.643399,0.567679,0.513593
0.030047,0.094264,-0.676116,-0.704202,0.707742,-0.056569
-0.345051,0.637342,-0.991073,-0.301969,-0.217231,0.928238
0.769930,-0.016635,0.469111,0.131260,0.867096,0.480537
-0.263695,0.391957,0.927070,0.355224,0.712583,0.605014
-0.099510,0.603327,-0.979591,0.262275,-0.066595,-0.962692
0.024995,0.124804,-0.486005,0.738900,-0.673262,-0.027306
-0.036047,-0.196723,0.414394,0.023609,0.896959,0.441482
0.222647,-0.330217,-0.964153,-0.061803,0.041320,0.997233
-0.178024,0.244890,-0.982365,0.059908,-0.050799,0.996910
-0.057624,0.640570,0.850570,0.784042,-0.282785,-0.552550
-0.647635,-0.148556,0.475264,0.833212,-0.418029,0.361952
0.125507,0.795166,-0.971597,-0.042208,-0.049225,0.997895
0.220543,0.364727,-0.969070,-0.264013,-0.028202,0.964107
-0.131086,0.096332,-0.186650,-0.476536,0.825002,-0.303785
0.005524,0.169824,-0.148853,-0.697412,-0.668037,0.259504
0.302741,0.380699,0.777064,-0.341570,-0.375639,0.861525
0.196862,0.348341,-0.968933,0.209256,0.035936,-0.977200
0.142556,0.664322,-0.969784,0.489766,0.136687,-0.861073
-0.437354,0.082843,0.573575,-0.219496,0.900096,0.376362
0.301479,-0.326491,-0.961654,0.113951,-0.035451,0.992854
-0.489977,-0.139784,-0.239857,-0.454169,-0.078396,0.887460
-0.380941,0.539435,0.662986,0.628334,0.732960,0.260704
0.101511,0.233385,-0.977695,-0.155963,0.072865,0.985072
0.143503,0.010594,0.289411,0.735603,-0.651123,-0.186887
0.134346,0.116611,0.084082,0.785391,0.595928,-0.167424
-0.234226,0.410328,-0.984837,0.172332,0.097747,-0.980177
-0.478293,-0.337334,0.440516,0.265280,-0.174808,0.948193
-0.003632,0.839032,-0.971323,-0.233996,-0.089921,0.968070
-0.122770,0.036497,0.921714,0.596145,0.802722,0.015782
-0.702259,-0.052222,0.544293,-0.103322,0.956474,0.272914
0.172025,0.492180,0.391485,0.361795,0.135599,-0.922343
0.031522,0.374080,-0.974372,-0.051248,-0.101856,0.993478
-0.021629,0.553258,0.393517,-0.289004,-0.073994,0.954464
-0.167923,0.298600,0.324461,0.022138,-0.997196,0.071478
0.169815,-0.119839,0.852575,-0.538924,0.340714,-0.770373
0.516604,-0.199206,0.355116,0.058065,-0.985524,-0.159284
-0.241594,0.155259,0.909188,-0.363163,-0.689894,-0.626226
0.017945,0.040139,-0.241560,0.998760,0.002283,0.049737
-0.017839,-0.120170,-0.962093,-0.080024,0.078061,0.993732
-0.231068,0.349995,-0.985030,0.069900,0.116919,0.990679
-0.653002,0.015807,0.530339,0.754901,-0.571871,0.321074
-0.002685,0.150210,0.307183,0.195724,0.965533,0.171576
0.127190,0.636100,0.448510,-0.654575,0.749786,0.096709
-0.055729,0.117520,-0.239940,-0.351634,-0.936127,0.004493
0.001314,-0.255482,-0.971790,0.082299,0.047338,0.995483
-0.312952,0.452123,0.966268,0.205541,0.974584,0.089106
-0.872232,-0.274933,0.479907,0.945023,-0.023710,0.326142
0.031203,-0.008856,0.298778,-0.191600,-0.981470,-0.002430
0.168340,0.195894,0.704354,-0.540100,-0.734010,-0.411728
-0.186655,0.588099,0.755336,0.167347,0.689645,-0.704545
-0.086987,0.247786,-0.973603,-0.252638,0.041688,0.966662
-0.143924,-0.235868,0.436506,0.425230,0.847091,0.318774
0.245487,0.207068,0.861915,0.520975,0.566841,0.638182
-0.282115,0.240502,0.060212,0.859937,-0.258872,0.439880
-0.264748,0.468095,0.915643,-0.301515,0.741680,0.599166
0.238540,0.146735,0.483340,-0.817573,0.467968,0.335531
-0.119613,0.056442,-0.304079,-0.202071,-0.969910,-0.135801
0.153290,0.639163,-0.976844,-0.011563,-0.119230,0.992799
-0.226334,-0.101051,-0.978822,0.143308,-0.081831,-0.986289
-0.060149,0.037823,-0.453646,-0.217817,-0.967230,0.130468
0.031942,0.297527,-0.975168,-0.178103,0.089694,0.979915
-0.164239,-0.519988,-0.970334,-0.345560,0.766311,0.541622
0.173605,0.533560,0.823568,0.962103,0.251461,0.105472
-0.166976,0.662420,-0.981294,-0.058084,-0.055920,0.996744
-0.550913,0.533808,0.288394,-0.575247,0.198625,-0.793498
0.340841,0.140279,0.813515,0.019516,-0.761864,0.647443
-0.289691,-0.224447,-0.975773,-0.052941,-0.011962,0.998526
-0.262853,0.251593,-0.981733,0.278222,-0.082280,-0.956986
0.030153,0.062319,0.353083,0.613237,-0.031665,-0.789264
0.299058,0.303071,0.676446,0.975649,0.157030,0.153138
0.172025,-0.351733,-0.965032,-0.145525,0.282120,0.948278
-0.133505,-0.914011,0.514572,0.619073,-0.143506,0.772111
-0.506079,0.340395,0.269881,0.167612,0.751223,0.638412
-0.330001,0.735992,-0.986568,0.072380,0.014729,0.997268
0.340208,0.147315,0.666145,0.791263,0.487596,-0.368989
-0.048994,-0.300505,-0.968191,-0.238468,0.330011,0.913360
-0.317686,0.498883,0.232001,0.912346,-0.392570,-0.116252
0.278431,-0.213854,-0.957506,0.284609,0.038748,-0.957860
-0.060361,-0.245551,-0.972833,-0.114339,0.036100,0.992786
0.267167,0.209386,0.566845,0.659952,0.749638,0.050073
-0.129191,0.713317,-0.983931,-0.042890,-0.138326,0.989458
0.062044,0.502027,-0.972998,-0.113998,0.098882,0.988548
0.066672,0.088968,-0.619915,0.404139,-0.910087,0.091726
0.140873,-0.356451,-0.964181,0.101030,0.346475,-0.932603
0.537442,0.041381,0.643593,0.401989,-0.611380,-0.681629
0.361258,-0.190103,0.374124,0.036667,0.943363,0.329729
-0.222123,0.544319,-0.986513,-0.075153,0.017038,0.997026
0.072039,0.777208,-0.975965,-0.239763,0.339758,0.909438
0.241276,-0.368453,-0.956737,-0.010011,0.019404,0.999762
-0.086251,0.841762,-0.977531,-0.031986,-0.159604,0.986663
-0.284218,0.642555,0.339734,0.897832,0.082048,-0.432626
-0.291272,0.451295,-0.995687,-0.198346,-0.185921,0.962337
-0.177603,0.346025,-0.983134,0.316109,-0.128642,-0.939961
0.097301,-0.032524,0.117292,0.253664,0.959910,0.119278
-0.386622,0.554084,0.402692,0.208667,-0.363247,0.908025
0.001105,-0.017297,0.211070,-0.534325,-0.814307,-0.226718
-0.098775,0.004553,0.972174,-0.401155,-0.577305,-0.711192
0.480397,0.105769,0.687955,-0.655879,-0.752276,0.062483
0.400832,0.494579,0.481994,-0.407229,0.272632,0.871686
-0.382203,-0.117437,0.429831,-0.242760,0.128785,-0.961500
-0.001738,0.264751,0.092817,0.773598,0.629687,-0.070998
0.127399,0.413472,-0.974811,-0.174966,-0.085604,0.980846
-0.098248,0.290741,0.492652,0.143689,0.963737,0.224864
0.060676,-0.089796,0.778767,0.074498,-0.339850,-0.937525
0.246961,-0.281800,-0.959786,-0.107318,-0.019348,0.994036
-0.179499,-0.260036,0.454635,0.559226,0.824943,-0.082066
0.238225,0.587521,0.752534,-0.297501,0.918854,-0.259231
0.247067,0.232476,0.556023,-0.267630,-0.946276,0.181484
0.238540,0.601506,0.810493,0.800832,-0.527892,0.282838
0.028258,0.255151,-0.973850,-0.003274,0.295166,0.955440
0.149712,0.122983,0.293943,0.087830,0.993378,0.074063
0.121823,0.014567,-0.965005,-0.279491,-0.118490,0.952809
-0.036047,0.375570,-0.976404,0.029095,-0.207302,0.977844
0.210230,-0.386410,-0.961956,0.076044,-0.072720,0.994449
0.499867,-0.014567,0.645845,0.299681,0.521189,-0.799096
0.068988,0.130432,0.316660,-0.345404,0.916374,0.202371
-0.052887,0.350659,0.570966,0.497607,0.539131,-0.679503
-0.104983,0.404868,-0.977091,0.611116,-0.034361,-0.790795
0.019734,0.811305,-0.976871,-0.090028,-0.180496,0.979447
0.033204,0.084417,-0.955363,0.698587,-0.299062,0.650029
-0.427882,0.260284,0.516962,0.927882,-0.216013,0.303930
-0.239911,-0.519243,-0.964593,-0.326554,-0.297554,-0.897120
-0.178551,-0.152281,-0.232111,0.111625,-0.545818,0.830435
-0.178972,-0.307375,-0.971927,-0.264898,0.322342,0.908804
-0.123930,0.131341,-0.253866,0.040764,0.977422,0.207327
0.082671,0.196308,-0.974756,-0.129308,0.198699,0.971493
0.201915,0.154844,0.889273,0.798314,0.559186,0.223620
0.092563,0.465531,-0.962890,0.016102,-0.357741,0.933682
0.023945,0.484979,-0.972037,-0.418163,-0.161991,-0.893811
-0.029205,0.609535,-0.974564,-0.282607,0.048726,0.957997
-0.063306,0.589590,0.472188,-0.077152,0.757887,0.647807
0.088356,-0.026897,0.342508,0.477226,0.405404,-0.779681
0.087302,0.604734,0.868452,0.611276,0.003638,0.791409
-0.208126,0.383763,0.713501,0.956876,0.239858,0.163877
-0.575856,0.342383,0.405741,-0.799713,-0.057178,-0.597653
0.209597,0.216915,0.616344,0.948470,0.025604,0.315831
0.025207,0.109575,-0.946051,0.910371,0.240672,0.336604
-0.170974,0.433832,-0.981843,-0.005963,-0.180201,0.983612
0.679629,-0.083672,0.441066,-0.433119,0.807194,-0.401056
0.370942,0.224861,0.729048,0.429958,0.330050,-0.840359
-0.016788,-0.047257,-0.970993,-0.103120,0.199846,0.974386
0.002579,-0.046842,0.395440,-0.831143,0.535302,0.150513
0.514391,-0.509973,0.237605,0.119609,0.517588,0.847228
-0.034890,0.017958,0.831974,0.860421,-0.286489,0.421426
-0.361997,0.247786,0.925422,0.079607,0.495000,0.865238
-0.281903,-0.165109,-0.973740,-0.197763,-0.156053,-0.967748
-0.540914,0.530497,0.304024,0.671633,0.356960,0.649221
-0.447247,0.426965,0.281665,0.409034,0.480422,-0.775813
0.033519,0.084500,-0.582502,0.612235,-0.786517,-0.080986
0.244118,0.194738,0.771790,0.811092,0.012898,0.584777
-0.151925,0.461973,-0.973328,0.215923,-0.113883,0.969746
-0.354417,-0.430771,-0.976734,-0.429233,-0.214338,0.877393
0.036047,0.324258,0.736849,0.989907,-0.141400,-0.009461
0.221176,0.134569,0.654113,0.731395,0.432271,0.527451
-0.355156,0.101050,-0.991402,-0.667942,0.256964,-0.698443
-0.291375,0.242821,0.894080,0.023590,0.471026,0.881804
-0.057412,0.055616,-0.816646,0.993989,0.107197,-0.022223
-0.538917,0.318960,0.351106,0.727959,-0.183489,0.660611
-0.274220,0.283456,0.328774,-0.257769,0.962486,-0.084713
-0.155188,-0.363154,-0.959621,0.272399,-0.034189,0.961577
-0.033837,-0.500042,-0.959539,-0.554551,-0.108918,0.824991
0.145713,0.201441,-0.972504,-0.131760,0.097171,0.986508
0.155079,0.259953,-0.969894,-0.204651,0.518330,0.830333
-0.322109,-0.079368,-0.982777,0.178485,-0.142749,-0.973533
-0.073411,0.062403,-0.756242,-0.377251,0.926108,0.002337
-0.159501,0.310933,0.472545,0.145180,0.985083,0.092381
-0.193496,0.145990,0.904876,-0.099991,-0.125417,-0.987052
-0.121717,0.062981,-0.974317,-0.494783,-0.462146,0.735942
0.061096,0.117604,-0.967944,-0.503270,-0.043267,-0.863046
-0.080358,-0.311348,0.477544,-0.538749,0.556965,0.632091
-0.487870,0.120915,0.375690,0.225772,0.682898,0.694750
-0.216756,-0.583796,-0.964071,0.070402,0.110260,0.991406
0.096459,0.186377,0.107925,0.755812,0.650317,-0.076398
-0.367679,0.385501,0.250707,0.994083,-0.105162,-0.027207
-0.406096,0.452453,0.388381,0.575058,0.793173,0.200464
-0.682050,-0.099727,0.476143,-0.629008,0.694985,-0.348345
0.021102,0.503103,0.762340,0.874300,0.176731,-0.452069
-0.809925,-0.062650,0.430298,0.534891,0.831801,-0.148323
-0.454088,0.327981,0.237715,-0.592862,-0.270374,-0.758560
-0.273272,0.286517,0.916632,0.050599,0.574892,0.816663
-0.097300,-0.195730,0.396044,0.021237,0.790413,0.612206
0.198757,0.165771,0.442302,0.151201,-0.988101,0.028199
-0.037309,0.046678,0.962176,-0.348416,-0.805795,-0.478853
0.431143,0.107589,0.706194,0.450963,0.819270,-0.354159
0.041308,0.135149,-0.316440,0.751957,-0.649657,-0.111828
-0.095617,0.320947,0.472051,-0.470891,0.842743,0.260857
-0.298007,0.175287,0.578822,0.440954,0.170073,0.881269
-0.042888,0.139286,-0.156627,0.477184,0.811657,-0.336910
0.200652,0.227260,0.723390,0.157385,0.407298,0.899633
-0.271381,-0.005876,-0.987859,0.417807,0.022165,-0.908265
0.295794,-0.111562,0.306963,-0.055707,0.998421,-0.007226
-0.318004,0.531408,0.258234,0.997147,0.061829,0.043293
0.124874,-0.302657,-0.966763,0.288470,0.274721,-0.917231
0.151292,0.170900,0.250845,0.904037,0.416317,0.096940
-0.272222,0.699744,-0.986678,0.292356,-0.086855,-0.952357
0.150238,0.253995,0.856421,-0.585628,-0.624042,-0.517312
-0.160237,-0.503434,-0.974729,-0.212293,-0.157136,0.964490
0.245698,-0.167342,-0.955308,-0.677458,-0.119751,0.725749
-0.292428,-0.011256,0.813981,-0.018560,0.223245,0.974586
0.227070,0.156418,0.485263,-0.820171,0.563703,0.097769
-0.042573,0.239015,0.148771,0.985801,0.164592,0.033263
0.610484,-0.168501,0.362890,0.462318,0.534456,-0.707544
-0.034996,-0.011587,-0.161022,0.997043,-0.021109,-0.073891
-0.317686,-0.505091,-0.969372,-0.215303,-0.308884,0.926410
-0.061096,0.332616,0.458866,-0.763368,0.621133,0.177381
-0.112245,0.762312,0.384727,0.085095,0.995389,-0.044276
0.015838,0.233138,0.158302,0.928737,0.321832,-0.184042
-0.015523,0.006290,-0.973767,-0.029606,-0.655409,0.754693
-0.330842,0.290160,-0.984810,0.464177,0.020294,0.885510
-0.110983,-0.230903,-0.974729,-0.161341,0.052520,0.985500
0.201915,0.630142,-0.972092,0.914147,0.236912,-0.328949
-0.325581,-0.334601,-0.973575,-0.226364,-0.052375,-0.972634
0.234226,0.023505,-0.958879,0.181269,0.007041,0.983408
-0.114140,0.115038,-0.673699,-0.182138,0.982851,-0.028793
0.004471,-0.388398,-0.967779,-0.132630,0.116356,0.984312
-0.071621,0.236365,0.384645,-0.614434,-0.785954,0.068902
-0.682789,-0.094762,0.471062,-0.670571,0.739906,-0.053603
-0.210442,0.245220,-0.975855,-0.104723,0.008703,0.994463
-0.540914,0.357362,0.516715,-0.276823,-0.302309,-0.912128
-0.410304,0.620708,0.269716,0.181408,-0.982756,0.035802
-0.142979,0.250269,0.702458,-0.664329,0.525672,0.531353
-0.300744,-0.421585,-0.976377,-0.005481,0.156304,0.987694
-0.838132,-0.080444,0.543552,-0.641644,0.766669,0.022602
-0.560176,0.214766,0.543442,-0.311151,0.906102,-0.286642
-0.009947,-0.026236,-0.180387,0.991972,0.120228,-0.039204
-0.520394,-0.216835,0.428705,-0.236409,0.561680,0.792860
-0.039310,0.328893,0.489988,0.737800,-0.656473,-0.157147
-0.329159,0.193164,-0.984398,-0.327576,0.052013,0.943392
-0.034785,-0.142431,-0.971680,0.194673,-0.063977,-0.978780
-0.041941,0.687414,0.821343,-0.068124,-0.465488,0.882429
-0.034996,0.474801,0.742013,-0.091299,0.651219,0.753378
-0.413882,0.605729,0.249004,-0.559882,0.582097,-0.589656
0.008997,0.036166,-0.176404,0.990179,-0.084730,-0.111202
0.120455,0.113878,-0.396044,-0.246531,0.964524,-0.094424
-0.227490,-0.136557,-0.217443,0.111625,-0.545818,0.830435
0.078039,0.769841,-0.971762,0.493298,-0.211139,-0.843847
-0.095197,0.427460,-0.973630,-0.563326,-0.167062,0.809169
-0.066884,0.426303,0.392556,-0.389242,-0.111730,0.914334
-0.475241,0.126459,0.933086,-0.367550,-0.788605,-0.492960
-0.502394,-0.040222,0.975251,0.792461,0.554384,-0.254292
-0.302953,-0.677481,-0.978657,-0.507641,-0.320543,0.799721
-0.161396,0.472482,0.397528,0.868809,-0.293988,-0.398425
-0.613641,0.397170,0.934624,0.027738,-0.122668,0.992060
0.182865,0.387072,0.723692,0.807176,-0.108697,-0.580217
-0.284537,0.353473,-0.983986,0.018074,0.046819,0.998740
-0.358628,0.339402,0.928334,-0.439215,0.455856,-0.774135
0.458928,0.146901,0.776871,0.775986,-0.630060,-0.029494
-0.377992,0.184061,0.553935,0.385384,-0.274639,-0.880939
-0.528077,-0.573949,-0.268452,0.064674,-0.329496,0.941939
0.217598,-0.395349,-0.958824,-0.048237,0.073177,0.996152
-0.609748,0.406024,0.411262,0.846686,-0.504899,0.167926
0.143712,-0.300257,-0.955446,-0.585807,-0.563102,0.582877
0.156659,0.363982,-0.969592,0.330225,0.155432,-0.931017
-0.381573,-0.340893,-0.980442,-0.381299,0.174631,0.907808
0.252434,-0.398907,-0.958605,-0.083252,-0.098134,0.991685
-0.243595,0.441199,-0.985689,0.285784,0.140614,-0.947921
-0.607432,-0.052800,0.458618,0.845014,-0.352148,-0.402422
-0.161605,-0.102541,-0.977338,-0.335143,-0.241996,0.910559
0.431249,-0.095093,0.602472,-0.669699,-0.023756,0.742253
0.241382,0.184640,0.481033,-0.722009,0.606938,-0.332159
-0.887704,0.247951,0.536135,-0.325773,0.581958,0.745115
0.029206,0.519904,-0.964208,-0.321040,0.241416,-0.915779
0.226331,0.221964,0.713913,0.991558,-0.109727,-0.069082
0.135294,0.117106,0.340558,0.815713,-0.285757,-0.502947
0.292955,-0.296782,-0.961709,-0.062775,-0.008071,0.997995
0.005210,0.018125,0.131273,0.817776,0.571980,-0.063887
-0.371996,0.067118,0.363192,-0.068021,0.742977,0.665851
-0.054781,0.765704,-0.978382,-0.094981,-0.291592,0.951815
-0.166763,0.325499,0.755803,-0.031947,-0.871836,0.488754
-0.298216,-0.622858,-0.968768,0.730405,0.253887,-0.634074
-0.307164,0.441778,0.382942,0.659298,0.216511,0.720034
0.109088,0.140693,0.051422,0.890026,0.442468,0.109885
-0.405463,0.096332,0.372202,0.249636,0.766229,0.592093
-0.537549,-0.351238,-0.251202,-0.965712,0.238807,0.101838
0.092881,0.260531,-0.974399,-0.022164,0.009682,0.999707
-0.109929,-0.296368,0.475374,0.446090,0.432953,0.783298
0.015314,0.450138,0.747233,-0.776198,-0.538156,-0.328488
-0.065936,0.629149,0.864277,0.129389,-0.507288,0.852008
0.000366,0.256641,0.073314,0.794123,0.607594,-0.014042
-0.113087,0.358603,0.867903,0.286479,0.947931,0.139129
-0.462298,0.376065,0.971048,-0.119907,0.562527,-0.818038
-0.311584,0.005959,-0.981541,-0.465598,-0.314242,0.827327
-0.298848,-0.525862,-0.973877,-0.315087,-0.213535,0.924729
-0.297586,0.408674,0.930559,0.538444,-0.485545,0.688712
-0.083936,0.037573,-0.668754,-0.370276,0.826420,-0.424177
-0.184760,0.417281,0.928554,-0.564315,0.323075,-0.759718
-0.336633,0.311595,-0.989205,0.250945,-0.051887,0.966610
-0.137927,-0.513035,-0.969812,-0.553561,0.037376,0.831970
-0.263380,-0.122072,-0.984947,-0.223444,0.100790,0.969492
-0.389359,0.233883,0.941601,-0.700012,0.016618,-0.713938
0.184866,0.139122,0.171762,0.686272,0.680194,-0.257616
-0.293796,0.013738,-0.993655,0.334918,-0.116967,-0.934959
0.090565,0.584458,0.473809,0.114536,0.747472,0.654345
-0.360735,-0.195895,0.425024,-0.041247,0.752861,0.656886
-0.072778,0.171481,-0.978382,-0.432152,0.343584,0.833783
0.166763,0.361666,0.763988,0.322606,-0.019534,-0.946332
0.203177,0.148058,0.378080,-0.015729,-0.997773,0.064819
0.075829,-0.465198,-0.961818,0.136383,0.185345,0.973163
-0.525549,0.345280,0.864359,-0.635278,0.715216,0.291356
0.119192,0.111231,-0.968054,0.021192,0.138224,0.990174
-0.525867,0.060415,0.959511,0.146016,0.175925,0.973514
-0.144030,0.497476,-0.979838,-0.164120,0.409753,0.897311
0.270745,-0.378879,-0.960033,-0.182558,0.097580,0.978341
-0.060781,0.084664,-0.373575,-0.558342,0.818495,0.135351
-0.005528,0.850039,-0.975223,0.072609,-0.209219,0.975169
0.100352,-0.019202,-0.971542,-0.110375,-0.025973,0.993551
0.245487,-0.031615,-0.961159,-0.584120,-0.496473,0.642121
-0.007210,0.052884,-0.564016,0.824837,-0.515589,-0.231972
0.159922,0.803773,-0.968658,0.833879,-0.195797,-0.516051
-0.300005,-0.042455,0.361324,-0.240704,-0.836812,-0.491739
-0.407885,0.156749,0.593627,-0.211608,0.069732,0.974864
-0.394309,0.221633,0.950282,0.843068,0.352709,0.405995
-0.041626,0.362906,0.756956,-0.755838,0.366688,-0.542447
-0.100984,-0.264752,-0.976240,-0.155341,0.143013,0.977454
-0.100249,-0.182652,-0.976789,-0.183254,-0.138885,0.973205
-0.302006,-0.635355,-0.975608,0.776501,0.289662,-0.559590
0.501026,0.355044,0.540173,0.578032,-0.522002,-0.627210
-0.004580,0.122817,-0.208460,0.297471,0.939945,0.167373
-0.054149,0.209550,-0.038786,-0.088994,-0.992320,-0.085909
0.248014,0.217744,0.692680,-0.505966,0.815250,0.281720
-0.440193,0.126706,0.283285,0.271276,0.962374,0.015688
-0.299163,0.441861,0.680044,-0.339884,-0.798809,-0.496369
-0.562492,0.287760,0.278368,0.960247,0.067701,-0.270817
0.102561,-0.504510,-0.962313,0.083657,-0.090100,0.992413
0.019313,0.855499,-0.975113,0.361763,0.089660,0.927949
0.063412,0.662170,-0.971625,-0.541803,0.043042,0.839403
-0.187602,0.467848,-0.981376,-0.181899,-0.117856,0.976229
-0.048994,0.346851,0.649361,-0.611316,0.774408,-0.163046
-0.009947,0.107011,-0.940201,0.284028,0.159934,-0.945383
0.080040,0.701648,-0.967999,-0.352397,0.245295,0.903131
0.076144,-0.394934,-0.961983,-0.006457,0.201784,0.979409
-0.039101,0.570801,-0.978602,0.262241,-0.088186,-0.960964
-0.467559,0.020277,0.320560,-0.399139,0.516016,0.757902
-0.384625,0.419019,0.943414,0.307044,0.110073,0.945308
0.003421,-0.002482,0.249444,0.592074,0.794609,-0.134331
0.244857,-0.183978,-0.961351,0.135407,-0.002744,-0.990786
0.611534,-0.456674,0.223294,-0.354385,0.798640,0.486400
-0.008052,0.119755,-0.807032,-0.605166,0.792328,-0.077395
-0.027523,0.706695,-0.978080,0.086795,0.030338,-0.995764
-0.445667,-0.206323,-0.236671,-0.459446,0.571445,0.679970
-0.123191,0.482827,-0.971323,-0.122628,0.382219,0.915899
0.216544,-0.469421,-0.960500,-0.304466,0.080944,0.949078
-0.159816,0.666887,0.788381,0.893695,0.212543,-0.395139
-0.248329,0.241248,-0.981101,-0.191386,0.035160,0.980885
0.174553,0.140446,0.268589,0.230333,0.963203,-0.138518
0.183077,0.132500,0.891471,-0.070395,0.820955,0.566636
0.626058,-0.353059,0.170581,-0.073997,0.915017,0.396570
-0.225387,0.136142,0.914353,-0.506371,-0.051740,-0.860762
-0.750884,-0.308200,0.437248,0.504138,0.421431,0.753818
-0.017630,0.049822,-0.935284,0.527853,0.771086,-0.356087
-0.057306,0.144750,-0.931685,0.004800,0.755333,0.655324
-0.262118,-0.237937,0.462903,0.241867,-0.822967,-0.514028
-0.044995,0.055285,-0.761104,0.475104,-0.855934,-0.204089
-0.225174,0.459821,-0.982255,-0.260634,-0.101841,0.960051
-0.268644,0.102376,0.080538,0.806841,0.569943,-0.155477
0.113402,0.624184,0.408982,0.371741,-0.033661,-0.927726
-0.009106,0.056111,-0.754045,0.698347,-0.713348,0.058696
0.240226,-0.329388,-0.963055,0.187693,0.021721,-0.981988
-0.171710,-0.002070,-0.977915,0.142336,-0.051923,-0.988456
-0.469139,-0.200198,-0.241231,-0.277649,0.090730,0.956388
-0.104457,0.020194,-0.974536,-0.069500,0.016072,0.997453
-0.126667,0.311595,0.846614,0.433262,0.424366,0.795109
0.002261,0.276092,0.159868,0.985961,0.155071,0.061924
0.014891,0.020111,-0.177146,0.986902,-0.067979,-0.146302
0.116244,0.297277,-0.973822,-0.072030,-0.026233,0.997057
-0.109827,-0.081189,0.376926,0.806972,-0.580327,0.109620
-0.384625,0.250022,0.328966,-0.395214,0.915024,0.080857
-0.512078,-0.011670,0.474111,0.408899,-0.883714,0.227708
-0.453667,-0.046759,0.834528,0.431429,0.514097,0.741333
-0.218651,0.569394,0.897816,0.013646,0.998571,0.051663
0.097301,0.164778,0.878753,0.790935,0.515624,0.329476
0.219490,0.333608,0.465568,0.960864,0.276864,0.009310
0.200652,-0.192998,-0.958000,-0.141685,-0.098229,0.985026
-0.236121,0.166018,0.701003,-0.098759,0.946136,-0.308339
0.152975,0.663165,0.408021,0.342413,0.089070,-0.935318
-0.165080,0.154102,0.907375,-0.325944,0.100473,-0.940035
0.270221,0.578664,0.784645,-0.478389,-0.851446,0.214903
-0.108773,0.255732,-0.980882,-0.117028,-0.015293,0.993011
-0.596171,0.280062,0.666886,-0.253462,0.443041,0.859926
0.053728,-0.111727,0.805576,0.595160,0.762110,0.254897
0.070883,0.077713,-0.538360,0.896725,-0.306137,-0.319630
0.114455,0.088389,0.110095,-0.556914,0.797121,0.233334
-0.276221,-0.160886,-0.967642,-0.045692,0.073399,0.996255
0.206861,-0.068525,-0.964593,0.034961,-0.139003,0.989675
-0.058674,0.125383,-0.969839,0.841998,-0.431759,-0.323454
0.008576,0.053214,-0.540393,-0.428255,0.887419,0.170545
-0.073096,0.039725,-0.547205,0.509857,-0.855035,0.094664
0.121717,-0.346022,-0.968054,-0.196931,0.054150,0.978921
0.078145,0.100636,-0.011235,0.923416,-0.383503,0.015114
0.002682,-0.012248,0.927730,0.086281,0.942101,0.324038
0.076989,0.118182,-0.095948,0.890613,0.454729,0.005428
-0.068043,0.259953,-0.981321,-0.066585,0.133907,0.988754
-0.109194,-0.316313,0.478835,-0.400565,0.536126,0.743046
-0.217704,-0.388812,-0.965801,-0.611207,0.482216,-0.627609
-0.016891,0.072664,-0.598517,0.747647,-0.663654,-0.024229
-0.025627,0.186130,-0.124488,-0.446717,0.893519,0.045478
0.186340,0.167011,0.739596,-0.546869,0.334799,0.767362
0.023626,0.598776,-0.973108,0.280265,-0.105472,-0.954111
0.177286,-0.074319,0.831259,-0.596524,0.799957,0.065029
0.668053,-0.083174,0.382475,-0.332756,0.921963,-0.198135
-0.161711,0.031201,-0.977778,0.309088,-0.243728,-0.919272
-0.314529,0.301086,-0.988024,-0.025761,0.026431,0.999319
-0.066255,0.007613,0.385084,0.668779,0.577726,-0.467939
0.072251,-0.120748,0.377943,-0.087486,0.710879,0.697852
-0.297374,0.144169,-0.992419,0.034314,-0.230397,0.972491
-0.018577,0.072912,-0.898942,0.130405,0.991068,0.027909
0.193075,0.320450,-0.968081,-0.139257,-0.077574,0.987213
-0.037836,0.245551,0.259195,-0.664800,0.698678,-0.264369
0.032363,0.950179,-0.974921,-0.387645,-0.476814,0.788910
0.326843,0.248779,0.463700,-0.733673,0.669481,0.116272
0.214020,-0.240089,-0.965197,-0.161701,0.280168,0.946234
-0.017209,-0.039642,0.965582,0.431793,0.731359,0.527890
-0.036888,0.099479,0.308859,0.939423,0.338214,-0.055636
-0.485976,0.419183,0.958714,-0.235357,-0.063946,0.969803
0.023626,0.151867,-0.949924,0.455314,0.638378,0.620615
-0.026260,0.002234,0.958907,-0.410239,-0.856200,-0.314048
0.008576,0.954977,-0.978877,0.302291,0.402727,-0.863962
-0.022576,0.722255,-0.978822,-0.256146,-0.151556,0.954683
-0.210650,0.292973,-0.984480,0.271256,-0.077355,-0.959394
-0.171501,0.046678,0.896031,-0.409920,-0.908425,0.082036
-0.364522,0.432675,0.969730,-0.142977,-0.686756,0.712688
0.131083,0.780767,-0.973987,-0.066587,0.001755,0.997779
0.225175,0.156585,0.250158,-0.678861,0.730377,0.075480
-0.197601,0.280476,0.552726,-0.486265,-0.548574,-0.680156
-0.013104,0.021270,-0.005741,0.769832,-0.620180,0.150784
0.276430,0.191841,0.366928,0.814625,-0.572532,-0.092697
-0.121402,-0.456758,0.495976,0.238677,0.634134,0.735464
0.142556,0.057601,0.765005,-0.304848,0.876955,-0.371508
-0.306743,0.376148,-0.987337,0.093084,-0.037664,-0.994946
-0.575015,0.149053,0.959264,-0.423995,-0.837985,-0.343525
-0.559964,0.129108,0.952039,0.475582,0.707189,0.523169
0.133611,-0.038401,-0.065788,-0.561212,-0.817473,0.129536
0.108141,-0.203426,-0.969729,0.200610,-0.165821,-0.965536
-0.023839,0.162295,-0.970389,-0.489420,0.460235,0.740711
-0.287902,-0.022263,0.435929,0.323095,-0.672912,0.665432
0.566173,-0.317720,0.175525,0.186640,0.978765,0.084759
-0.156977,-0.891500,0.511496,0.789935,-0.000440,-0.613191
0.408829,-0.194818,0.045159,-0.745641,0.488607,0.453081
-0.009106,0.716297,-0.968576,0.278273,-0.186972,-0.942128
0.008576,0.030125,0.123912,0.867918,0.395599,-0.300365
-0.351893,-0.546883,-0.973795,-0.366094,0.174430,0.914084
-0.643216,-0.012993,0.516468,-0.463534,0.816849,-0.343357
0.005104,-0.049823,0.352287,-0.752477,-0.132588,-0.645135
-0.437248,0.090127,0.969345,0.471318,-0.291726,-0.832319
0.615112,-0.109494,0.385249,-0.346657,0.927795,-0.137932
-0.116877,-0.338658,0.477764,0.494928,-0.528028,-0.690096
0.001211,0.220474,0.040049,0.374181,0.923303,-0.086604
-0.300531,-0.018787,0.824063,0.042650,0.347561,0.936687
-0.340317,-0.233469,-0.981431,0.002716,0.059155,0.998245
0.044886,0.017049,0.365005,0.174972,-0.981703,0.075126
0.013419,0.202847,-0.967257,0.121035,0.327234,0.937160
-0.126243,0.079782,-0.336767,-0.050455,0.986507,0.155753
0.264115,-0.278408,-0.960994,0.063536,-0.000825,0.997979
-0.107614,0.470578,0.909298,0.714432,0.231436,0.660321
-0.317584,0.530580,-0.988188,-0.295052,0.135283,0.945856
-0.246646,0.236529,-0.010301,-0.377385,-0.925972,-0.012499
-0.542180,0.132583,0.942810,-0.387356,-0.914888,0.113733
-0.680682,-0.057518,0.521522,-0.298612,0.825073,-0.479672
-0.279378,0.375818,-0.984617,-0.028709,0.055455,0.998048
-0.083197,0.017297,-0.973630,0.078471,-0.007410,-0.996889
0.161606,0.841762,-0.975443,-0.186721,0.099061,0.977406
-0.183392,-0.907970,0.521275,0.588599,0.148535,-0.794662
-0.261803,0.144666,0.931191,0.849379,0.090938,0.519890
0.257486,0.140362,0.370691,-0.575434,0.811630,-0.100657
-0.094882,-0.284449,0.478368,0.938715,0.288291,-0.188951
0.437457,-0.410659,0.179289,0.623105,0.656164,0.425662
-0.209703,-0.342133,-0.969400,-0.156486,0.399728,0.903178
0.055938,-0.030539,0.328032,-0.036494,-0.999325,-0.004115
-0.301585,0.210793,-0.986183,0.293921,-0.065802,-0.953562
-0.062779,0.260781,0.287708,0.722556,-0.638511,0.264983
0.216124,0.170569,0.711276,0.328910,0.937643,-0.112446
-0.047519,-0.078125,-0.974811,-0.026547,-0.015785,0.999523
0.015629,0.086154,0.168356,0.661165,-0.742680,0.106242
-0.148135,0.179177,-0.981074,0.210428,0.078287,-0.974470
-0.346734,0.584043,-0.989946,-0.069656,0.042855,0.996650
-0.228438,-0.113217,-0.979014,-0.318897,0.102119,0.942272
-0.297374,-0.075562,-0.979673,-0.139725,0.085356,0.986505
-0.068043,-0.329058,-0.967669,-0.246536,-0.028839,0.968704
-0.165186,0.571465,-0.981733,-0.101608,-0.059375,0.993051
0.058989,0.876356,-0.977613,-0.106529,0.124972,0.986425
0.243697,0.218572,0.504601,0.956592,-0.182370,-0.227315
0.377257,0.161136,0.712402,0.376931,0.712637,-0.591669
0.213596,0.035421,-0.966461,0.171406,0.063955,-0.983122
0.041835,0.690061,-0.969317,-0.423715,0.075443,0.902648
0.164657,0.081934,-0.964758,-0.146136,0.303882,0.941435
0.758984,0.504429,0.688669,0.706226,0.688055,-0.166809
-0.213387,-0.618307,-0.953935,-0.320829,-0.341069,-0.883595
-0.124771,0.061491,0.938058,-0.606393,-0.790972,-0.081547
0.180549,0.176861,0.805356,0.894205,0.282016,-0.347656
-0.370207,-0.030042,0.820739,-0.304771,-0.298091,-0.904575
0.197810,0.162957,-0.967559,0.066987,-0.198418,-0.977826
0.708048,-0.305554,0.150749,-0.129600,0.878627,0.459585
0.008682,0.111065,-0.716028,-0.278800,0.894813,0.348684
0.173393,0.268724,-0.971323,-0.202762,0.182834,0.962008
-0.109406,0.508897,-0.975827,-0.124548,0.404992,0.905798
0.179708,-0.053712,-0.966955,-0.036318,-0.090767,0.995210
-0.596274,0.128196,0.965719,0.400704,0.264842,0.877095
-0.045098,-0.310188,0.488642,-0.315214,0.752004,0.578905
-0.710151,0.162459,0.593270,0.963848,-0.007450,-0.266347
0.036468,0.027725,0.917374,0.895244,-0.172492,-0.410834
-0.328738,0.531903,0.389809,0.179078,-0.246702,0.952402
-0.165710,0.117604,0.363549,-0.223520,0.575195,0.786886
0.071830,0.334768,-0.979893,0.111984,0.047961,0.992552
-0.222544,0.661260,-0.982585,0.115802,0.212179,-0.970345
-0.050992,0.900852,-0.982777,-0.098495,0.282859,0.954091
-0.282536,-0.183895,0.440104,-0.060253,0.922471,0.381335
-0.200128,0.343459,0.447411,-0.647631,-0.444467,-0.618889
-0.452299,0.304808,0.395413,0.096159,-0.537228,0.837938
-0.117509,0.678061,0.798050,0.652388,-0.165343,-0.739629
-0.097406,-0.042789,-0.974262,-0.201035,0.042271,0.978672
0.059307,0.097328,-0.052685,0.898082,-0.363026,-0.248315
-0.361997,0.287593,0.521220,0.022311,0.972687,0.231048
0.196968,-0.309360,0.426205,0.759915,-0.579491,0.294481
0.237277,0.501863,0.422799,-0.794702,0.476050,0.376596
0.139084,0.381030,0.748386,0.281623,-0.609002,0.741489
-0.371048,0.728461,0.423074,-0.053728,-0.059208,0.996799
-0.060043,0.057768,-0.578410,0.961341,-0.264043,-0.078132
0.244330,0.551270,0.773795,0.757455,0.385516,-0.526915
0.149185,-0.388562,-0.965856,0.266658,0.010015,-0.963739
0.001526,0.088637,-0.117319,0.967697,0.250442,-0.028992
0.294217,-0.274352,-0.965197,0.017047,-0.128831,0.991520
0.363783,0.158403,0.691196,-0.410274,-0.899292,-0.151492
-0.072990,0.067368,0.856751,-0.678293,0.205969,-0.705334
-0.396518,-0.120251,0.403736,0.371971,0.614025,0.696140
-0.186340,0.822064,-0.979810,-0.358532,0.045712,0.932398
0.176236,0.174128,0.908914,-0.614366,-0.385732,-0.688307
-0.282429,0.238020,-0.983684,-0.259454,0.058875,0.963959
-0.381153,-0.504179,-0.981376,0.763311,0.027136,-0.645461
-0.548915,-0.033022,0.375443,0.712172,0.690144,0.128503
-0.614062,-0.164528,0.449279,0.191786,0.646552,-0.738369
-0.501238,-0.239593,-0.233896,0.708897,-0.164517,-0.685856
0.060676,0.093355,0.891608,0.468027,0.669090,-0.577294
-0.210021,-0.496484,-0.971268,0.418779,0.038626,0.907266
-0.182656,0.075726,0.931713,-0.718642,-0.693865,-0.045882
-0.009841,0.017049,-0.118995,0.944928,0.215576,-0.246247
0.086881,-0.406108,-0.963467,0.143462,-0.078644,0.986526
-0.056150,0.277415,0.375910,0.041279,-0.997026,0.065083
0.144660,0.707690,-0.965115,0.717383,0.695645,-0.037944
0.018680,-0.175371,-0.968933,-0.066080,0.057620,0.996149
-0.206864,-0.197385,-0.979179,0.101005,0.133334,-0.985911
0.076462,-0.029049,-0.974179,-0.058042,0.268601,0.961501
-0.595433,0.108087,0.351930,0.862954,-0.374039,-0.339714
-0.529759,0.007449,0.510891,0.905291,0.060941,0.420398
-0.063306,0.810065,-0.980277,-0.021152,-0.124787,0.991958
-0.174552,-1.000000,0.505480,-0.857499,0.231982,0.459217
0.283377,0.344204,0.702376,-0.000291,-0.943865,0.330330
0.191601,0.202600,0.678286,-0.501230,0.843922,0.191215
-0.011736,0.200779,0.012581,0.535137,0.828383,-0.165557
-0.237383,0.573203,0.879522,-0.385356,0.902056,0.194411
-0.079304,0.483406,-0.975470,-0.163428,0.420993,0.892220
0.059410,0.612762,-0.973493,-0.155350,0.079937,0.984620
0.236750,0.100305,-0.965142,-0.127647,0.123009,0.984162
-0.213387,0.607216,-0.982640,0.199413,-0.112237,-0.973467
-0.078569,0.345196,0.879495,-0.394140,-0.695082,0.601261
-0.068043,0.060746,-0.740558,0.823782,-0.563082,0.065739
-0.438616,0.169329,0.545914,-0.109167,0.399170,0.910355
0.251801,0.064719,-0.963549,0.059224,0.040124,0.997438
0.050044,0.604403,0.788353,-0.377670,0.612207,-0.694672
0.286428,0.208722,0.414284,-0.747829,0.662984,0.034713
-0.105616,0.664074,-0.981156,-0.423573,0.002309,0.905859
-0.758776,-0.168087,0.443401,-0.018485,-0.206755,0.978218
-0.210336,0.224861,0.031726,0.805743,0.500741,0.316285
-0.135191,0.565836,-0.982338,-0.124554,0.001324,0.992212
-0.202547,0.359264,0.362807,0.370304,0.557883,-0.742726
0.598696,-0.466027,0.229501,-0.378051,0.704608,0.600504
-0.155188,-0.909213,0.511111,0.252092,0.288659,-0.923648
0.256221,-0.158072,-0.952919,-0.327979,-0.119187,0.937136
-0.148347,-0.755607,0.521357,0.718027,0.042546,0.694714
-0.337369,-0.535298,-0.973493,-0.565901,-0.295310,0.769772
-0.031415,-0.521228,-0.964016,0.341684,0.127077,-0.931184
-0.507132,0.461559,0.261585,0.901378,-0.408780,0.142885
-0.302218,0.764131,-0.991128,-0.012137,0.084050,0.996388
-0.193287,0.443185,-0.980360,-0.294799,-0.087430,0.951551
0.040887,0.068692,-0.357753,0.929584,-0.107841,0.352481
-0.206443,0.316313,0.899080,-0.501047,0.009736,-0.865365
-0.377889,0.387817,0.650570,-0.661410,0.587699,0.465990
0.204230,-0.168418,0.418761,0.209187,0.972548,-0.101938
-0.139296,0.588430,0.896745,0.054956,0.873849,0.483082
0.203283,-0.029547,-0.964620,-0.208374,-0.397212,0.893758
0.106458,0.082926,0.900261,-0.521404,0.746865,0.412712
-0.099931,0.359928,0.396621,-0.457786,-0.278313,-0.844377
-0.256330,-0.650335,-0.956764,-0.492733,-0.191513,0.848845
-0.121508,0.305056,0.374042,0.270276,0.960922,0.059828
-0.061202,0.117023,-0.286444,0.277898,0.949488,-0.145759
-0.497027,-0.011670,0.432523,0.149153,-0.819497,0.553333
0.250959,0.202931,0.598242,0.849734,0.281140,0.445996
0.186970,0.299843,-0.975306,0.352992,0.084987,-0.931758
0.100246,-0.425639,-0.966680,0.109036,0.147857,-0.982980
-0.000684,0.738558,0.389974,-0.394321,0.117309,0.911455
-0.529233,0.330133,0.857355,0.227684,0.969554,0.090137
0.103930,0.611356,-0.953138,-0.556402,0.341724,-0.757391
-0.189812,0.581230,0.733718,-0.358884,-0.878411,-0.315589
0.260958,0.168584,0.719269,0.372909,0.806073,-0.459549
0.057200,0.138542,-0.372724,-0.652923,-0.756960,-0.026526
-0.478610,-0.183564,0.418129,-0.457164,0.831082,-0.316708
0.129085,0.433501,0.686389,0.302566,0.936025,-0.179753
-0.280955,0.514774,-0.986018,-0.325693,0.024395,0.945161
-0.421250,0.450716,0.276638,0.451605,-0.695177,-0.559269
-0.230545,-0.171812,-0.236945,-0.153745,0.719878,-0.676859
0.119613,0.043781,-0.966928,0.347776,0.195770,-0.916911
-0.527865,0.105271,0.962066,0.271074,0.225798,0.935700
-0.177922,0.408176,0.593545,0.632178,0.590213,-0.501995
-0.240017,-0.809898,0.514517,0.113259,-0.024760,0.993257
-0.022155,-0.540842,-0.951902,0.222220,-0.062353,0.973001
-0.094984,0.032193,-0.402362,-0.496536,-0.842978,-0.206977
-0.120140,0.156418,-0.974591,-0.122558,0.019354,0.992273
-0.254750,0.213523,0.880511,0.998692,0.036976,-0.035316
-0.544390,0.127535,0.959181,0.119614,0.735839,0.666509
