-0.013101,-0.799900,0.758655,0.954324,0.047896,-0.294910
-0.300007,0.062403,-0.985770,-0.051525,0.153573,0.986793
0.020056,-0.003097,-0.283437,0.486227,0.824439,-0.289627
0.232628,-0.456308,0.854061,0.282614,-0.908405,0.308107
-0.164914,-0.583912,0.741838,0.741042,0.670946,-0.026225
0.403853,-0.445416,0.242089,-0.615250,0.359286,0.701698
-0.461808,0.155933,-0.986029,0.033824,0.128692,0.991108
0.234200,0.229977,0.694749,-0.341178,-0.939997,-0.001842
-0.420180,0.452761,0.574635,-0.606689,0.373250,0.701864
-0.024545,-0.388209,0.585776,-0.471117,0.877610,-0.088603
-0.383657,0.072046,0.865090,-0.437791,0.000780,0.899077
-0.362170,-0.139046,0.855840,0.328195,0.786411,0.523303
-0.117954,0.161429,-0.992222,0.052422,0.267705,0.962074
-0.284803,-0.324607,0.858346,-0.697668,0.642318,-0.317314
-0.218770,0.164477,0.838036,-0.115259,-0.461399,0.879674
0.439814,0.289233,0.754564,-0.518965,-0.108819,0.847841
0.437626,0.324107,0.716062,-0.769447,0.629608,0.107447
0.599989,0.507769,-0.215876,0.764578,-0.251298,-0.593523
0.850372,0.190557,0.066622,-0.647904,0.617200,0.446413
-0.362564,0.088384,0.815834,-0.127071,0.418384,-0.899337
-0.085250,0.037622,0.137757,0.924476,0.344741,-0.162780
-0.125868,0.224632,0.287980,0.778945,0.620295,0.092081
0.060787,-0.351686,0.789767,0.801290,0.199931,-0.563882
-0.810147,-0.056208,0.864912,-0.645915,0.299945,-0.702016
-0.423994,-0.011042,0.837551,0.525509,0.300365,-0.796003
-0.566719,0.121709,0.438576,0.653851,0.755887,-0.033371
0.093550,0.833775,0.707168,0.664456,-0.630861,0.400641
-0.293220,0.240020,-0.373733,-0.074312,0.995172,-0.064110
-0.228420,0.523357,0.756133,0.815983,0.421151,-0.395984
0.431962,0.594304,0.022897,-0.338448,-0.850664,0.402272
-0.395662,0.093730,-0.985301,0.014712,0.120374,0.992620
0.234367,-0.748788,0.878737,-0.599217,0.463148,0.653019
0.342758,0.563128,0.283614,-0.404234,0.104460,-0.908671
0.073073,0.319061,0.575702,-0.427075,0.893468,-0.139001
0.468427,0.716663,-0.100435,0.873790,0.361235,-0.325577
-0.837189,0.264502,0.808703,-0.502777,0.737991,-0.450095
-0.660019,0.297327,0.920635,-0.653806,0.696144,-0.296515
0.410082,0.269248,0.325803,0.206665,0.369632,-0.905904
0.848913,0.026480,0.287689,0.751914,0.198603,0.628635
0.197174,-0.663502,0.845911,0.907367,-0.203741,-0.367660
-0.457600,0.141344,-0.979140,0.028128,0.011517,0.999538
0.605317,-0.182113,0.713540,0.006321,-0.242204,0.970205
0.357400,0.313015,0.307983,0.204747,-0.733270,0.648378
-0.036550,0.668998,0.745703,-0.144193,0.091797,0.985283
0.470896,0.057257,0.616759,0.801915,0.284239,-0.525491
-0.184888,0.680240,0.283048,0.582794,-0.684811,0.437475
0.747032,-0.008744,0.709901,-0.625135,0.767945,-0.139526
0.057421,-0.575069,0.849550,0.845908,-0.085872,0.526371
-0.552807,-0.039420,0.938681,-0.337584,0.941029,-0.022410
0.209234,0.066200,-0.633205,-0.639021,0.685018,-0.349860
0.050689,0.655308,0.278796,-0.107939,0.151922,0.982481
0.638306,-0.086085,0.850423,-0.301092,0.851924,0.428449
-0.072512,0.881339,0.722126,0.253383,-0.896514,-0.363400
-0.323685,0.026880,0.614220,-0.601402,-0.790344,0.116930
-0.412044,0.280539,0.374962,0.161743,0.482654,0.860747
0.029143,-0.434074,0.697062,0.955248,-0.078056,-0.285323
0.056017,0.071147,0.831261,0.939775,-0.332117,0.080752
-0.069933,0.750837,0.739429,0.920736,0.148353,0.360884
-0.199081,0.037872,-0.978736,-0.010536,0.219185,0.975627
-0.462818,0.343742,0.254588,0.792426,0.438451,-0.424054
0.223989,-0.160330,0.796737,0.738875,0.557504,0.378486
0.347976,0.014089,-0.994745,0.049554,0.062308,0.996826
-0.868102,0.165876,-0.986077,0.065830,0.126964,0.989720
0.147464,0.441719,0.629809,0.043776,0.669802,0.741248
0.300962,-0.274044,0.811290,0.513344,-0.189726,-0.836948
0.604868,0.371921,0.811080,0.007767,0.332043,0.943232
0.353024,0.514614,0.683446,0.826200,0.560899,-0.052780
0.033800,0.066300,-0.982035,0.189408,0.311140,0.931298
0.754829,-0.119410,0.301450,0.479181,0.303441,0.823595
-0.569356,0.302973,0.887583,0.747986,-0.100380,0.656080
0.444471,-0.446365,0.671690,-0.170504,-0.430901,0.886145
0.263655,-0.542943,0.804531,-0.176844,-0.020443,-0.984027
-0.001373,-0.547639,0.854643,0.214931,0.525362,0.823286
-0.248225,0.174069,0.729532,0.860685,0.377702,0.341412
0.181857,0.525856,0.050032,0.981137,0.178277,0.074748
-0.134617,0.676043,0.834430,-0.231632,0.123343,0.964952
-0.164407,0.262203,0.827590,0.463889,-0.860325,-0.211302
0.034307,-0.490032,0.823321,-0.698959,0.620801,-0.355054
0.855758,-0.202248,0.742016,0.895395,-0.360227,-0.261735
0.289124,0.124257,0.048738,-0.095036,0.991783,0.085641
-0.564418,0.337247,0.883281,0.410412,-0.900817,0.141741
0.008725,0.007094,0.312366,0.921072,0.379231,-0.088373
-0.479761,0.245815,0.370596,0.364299,0.293160,0.883936
0.351284,0.218036,-0.027118,0.918106,0.344372,-0.196188
-0.512189,0.330202,0.844294,0.503481,-0.304095,0.808723
0.803641,-0.260205,-0.986110,-0.027045,0.180202,0.983258
0.269599,-0.456807,0.735467,-0.255574,-0.695653,0.671378
0.453110,-0.194055,0.841707,0.987568,0.152936,0.036338
-0.236220,0.180515,0.743827,0.898047,0.237364,0.370364
0.346631,-0.096028,0.846655,0.532304,0.643677,-0.549847
0.043169,0.011991,0.897899,0.141022,0.710433,0.689491
0.296586,0.256907,-0.154364,0.041614,0.468881,0.882280
0.151560,0.789458,0.255914,0.911463,0.287359,0.294381
0.044967,-0.458206,0.607671,0.726669,0.681905,0.083413
-0.340067,0.019735,0.590967,0.278074,0.960547,0.004900
-0.203906,0.245016,0.274656,0.686781,0.534356,-0.492743
0.247609,0.863253,0.292104,-0.161911,-0.305023,0.938481
0.308649,0.514614,0.703190,0.943096,0.325279,-0.069014
0.207213,0.431226,0.843065,0.385615,-0.872319,0.300602
0.031222,-0.015139,0.953300,-0.001319,0.894166,0.447733
0.046032,-0.019286,-0.320613,0.631445,0.721003,0.285362
-0.867990,0.178416,0.797513,0.365155,0.537000,-0.760456
-0.628824,-0.066550,0.816141,0.678256,0.530136,0.508847
0.259950,0.202998,-0.630924,-0.305245,-0.703035,0.642314
-0.454569,0.254559,-0.993160,-0.129058,0.208476,0.969475
-0.449296,-0.063053,0.794586,-0.133967,0.810824,0.569752
0.096467,0.350537,-0.275836,0.863380,-0.489733,-0.121390
0.109709,-0.234724,0.397002,-0.300680,0.384608,0.872736
-0.139499,-0.581014,0.556023,0.316385,-0.320444,0.892870
-0.001935,0.156583,-0.301661,-0.718095,0.293572,-0.630995
0.677969,0.095878,0.835708,0.454228,0.681574,-0.573702
0.136414,0.618436,0.891399,0.960505,-0.263959,-0.088067
-0.545568,0.011542,0.798144,0.776367,0.439665,0.451607
0.417317,-0.042568,0.198493,0.536380,-0.456165,0.710078
-0.810428,0.081839,0.719361,-0.366516,0.468873,-0.803632
0.453672,-0.511866,0.747449,0.901062,0.209633,0.379659
0.445875,0.426530,0.347084,0.498244,-0.121695,-0.858454
-0.859237,0.053210,0.781973,0.783963,0.618075,-0.058176
-0.525820,0.498576,-0.719199,0.462749,0.002333,0.886486
0.154309,0.947090,0.315357,-0.709823,-0.009114,0.704321
0.615247,0.252111,0.801248,-0.538331,0.483224,0.690430
-0.318580,0.315563,0.689510,0.441493,0.730791,0.520604
0.540462,-0.266400,-0.978218,0.131204,0.125984,0.983318
0.564083,0.333150,0.827816,-0.182262,-0.911560,-0.368562
-0.107802,0.076492,-0.848968,-0.638615,-0.769026,-0.027765
0.416868,0.226330,0.732491,0.819420,0.454343,-0.349462
-0.393868,0.013090,0.714720,0.877472,-0.479018,-0.024179
0.484527,0.026830,0.801604,-0.496837,-0.388682,-0.775938
0.151505,0.944292,0.302971,0.569398,0.087739,-0.817367
-0.163288,0.583313,0.699892,0.662467,-0.566504,0.490113
0.350165,0.742244,0.459016,-0.593742,0.786026,0.172142
0.128895,-0.961279,0.260652,-0.080233,-0.371303,0.925039
0.260008,0.495279,-0.263207,0.502080,-0.099347,-0.859096
0.223259,-0.286335,0.405039,0.024750,0.253594,0.966994
-0.366940,0.288584,0.887680,0.157327,0.472781,0.867022
0.192291,0.380315,0.800585,-0.374842,-0.591322,0.714025
0.176974,0.165276,-0.626833,-0.322754,0.248590,-0.913254
-0.089622,-0.059755,0.096570,0.980645,0.194943,-0.018231
-0.530029,0.144142,0.922236,-0.135472,0.985850,-0.098723
0.186624,0.010143,0.554260,-0.442470,-0.494332,-0.748235
0.217483,0.478441,0.788975,0.975705,-0.020422,-0.218134
0.445762,-0.579415,0.292088,0.914226,-0.379274,0.142626
0.506186,0.330502,0.764347,-0.578166,0.327869,0.747146
0.037560,-0.036573,-0.707767,-0.427874,0.889640,0.159577
0.094841,0.248514,0.712893,0.261582,-0.881280,0.393599
-0.371819,0.379165,0.825811,0.851052,-0.516441,-0.094867
0.053548,-0.092831,0.765592,0.576501,0.807465,0.125089
-0.395440,-0.374619,0.147265,0.268611,-0.111876,0.956730
0.810596,-0.027180,0.830291,0.964073,0.264014,0.029318
0.390670,-0.303123,0.704128,0.887531,0.419072,-0.191489
-0.179330,-0.286285,0.605133,-0.348178,0.164714,-0.922844
0.161771,-0.008844,0.217655,-0.033104,0.618793,0.784857
0.732445,-0.280140,-0.985398,0.006653,0.078077,0.996925
0.659793,0.073445,0.315292,0.330297,0.042239,0.942931
-0.211535,0.713565,0.746624,0.933703,-0.320854,-0.158905
0.276893,0.318911,0.335053,0.178538,-0.728275,0.661619
-0.069259,0.708169,0.129445,-0.161962,0.200570,0.966199
-0.601335,0.039570,0.680891,0.418942,-0.659937,0.623675
0.454569,0.509368,0.514190,0.643162,0.193713,0.740823
-0.821088,0.215338,0.621271,0.202264,0.197370,0.959236
0.620466,0.158281,0.674569,-0.634719,0.149972,0.758051
-0.335858,-0.022183,0.550606,0.999793,-0.019583,0.005535
-0.461582,0.143692,0.714688,0.056003,-0.831907,0.552082
-0.098375,-0.124357,0.170405,0.960151,0.265832,0.086271
-0.250246,0.661454,0.340308,-0.165895,-0.599072,0.783321
0.636960,0.338146,0.328099,0.107108,-0.019306,0.994060
-0.430952,-0.033375,0.778028,0.914310,0.204538,0.349574
0.722740,0.069648,0.765075,0.387154,0.814959,-0.431224
-0.405538,-0.386810,0.549538,-0.141353,0.051758,0.988605
0.536367,0.123407,0.079559,-0.091714,-0.979260,0.180660
0.404079,0.348638,0.899161,0.956528,-0.260904,-0.130322
-0.369631,0.239470,0.837939,-0.507314,0.859040,0.068437
-0.233190,-0.222833,0.813489,-0.563220,-0.260998,0.784005
0.224269,-0.061054,0.831245,0.320705,-0.925023,0.203667
0.053548,-0.468599,0.464207,0.846614,0.478617,0.232743
0.262083,0.320909,-0.088825,0.897072,-0.362489,-0.252712
0.245534,0.260804,0.306140,-0.478171,0.038245,0.877434
0.004236,-0.244516,0.767339,0.330490,0.233429,-0.914488
0.841565,-0.104921,0.723727,0.852788,0.043335,-0.520456
-0.098936,-0.066450,0.087757,0.983844,0.173432,0.044399
-0.567223,0.242468,0.796737,0.723765,-0.615567,0.311836
-0.389492,0.515763,0.200353,-0.093956,0.224308,0.969979
0.199978,-0.749088,0.499491,0.874160,-0.128423,-0.468350
0.691155,-0.234774,0.158681,0.340724,0.498138,0.797349
0.727230,-0.195653,0.149270,-0.723704,-0.064102,-0.687126
0.455973,-0.152536,0.846073,0.115628,-0.321697,-0.939756
0.203960,0.071996,0.926651,0.240169,0.326437,0.914198
0.462202,0.021384,0.604373,0.264536,0.917772,-0.296168
0.045583,0.158081,0.892984,-0.386211,0.921732,0.035378
-0.083959,0.093230,0.324122,-0.291196,0.903212,-0.315297
0.818451,-0.189008,0.304814,0.403414,0.634794,0.659010
-0.312745,0.040720,0.543102,0.798637,-0.595437,-0.087366
-0.390670,0.333100,-0.131757,-0.415341,0.142244,0.898476
0.146344,-0.782013,0.469818,0.518547,0.048821,-0.853654
-0.352633,0.595803,0.224786,-0.156924,0.098345,0.982702
0.076552,0.099576,0.863117,0.908379,0.307622,-0.283226
-0.243736,0.650262,0.745816,0.904454,-0.211386,0.370511
0.191000,-0.489933,0.709642,0.183166,-0.890380,0.416741
0.627253,0.239920,0.816044,-0.699189,0.582689,0.414257
0.131028,-0.294030,0.824663,0.234507,0.908714,0.345319
0.214113,-0.798851,0.531912,-0.742764,-0.159899,-0.650180
-0.020676,0.010242,-0.437574,0.012950,0.998595,0.051375
-0.066060,-0.775069,0.724455,-0.040132,0.952793,0.300955
-0.121601,0.073395,0.325156,0.333969,-0.911413,0.240398
0.234761,0.884187,0.297521,0.014577,-0.210751,0.977431
0.166092,0.532001,0.795815,-0.359808,-0.930001,0.075072
0.280204,-0.542943,0.804353,-0.347800,0.018756,-0.937381
-0.245085,0.252011,0.086496,0.741400,-0.371636,-0.558760
0.258378,0.303123,0.623696,-0.711305,0.509164,-0.484559
0.588710,-0.352486,-0.968904,0.294612,0.230957,0.927288
0.616257,-0.401649,0.298928,-0.540352,0.808451,-0.233296
0.346740,-0.047414,0.836484,0.357404,0.011237,0.933882
-0.166934,0.565276,0.238709,-0.408563,-0.118511,0.905004
-0.133778,0.603697,0.581427,0.743863,0.617638,-0.255327
-0.044012,0.819735,0.569347,0.863284,-0.270034,0.426406
-0.385170,-0.026730,0.548455,0.489895,-0.778622,0.392110
-0.629780,0.360979,-0.996038,0.054735,-0.034301,0.997912
0.042498,0.261704,-0.380460,0.744288,0.667147,-0.030827
0.726891,0.254959,0.817160,-0.292914,0.120493,0.948516
-0.320596,0.051262,0.710855,0.846915,0.525610,0.080427
-0.153693,-0.311566,0.109280,-0.332895,0.726042,0.601701
-0.311173,0.458906,-0.038211,-0.537389,-0.843311,-0.006276
0.061013,0.700075,0.742598,-0.042999,0.350135,0.935712
0.574684,-0.140195,0.334050,0.056294,-0.413051,0.908967
0.064659,0.122558,0.843001,0.791019,0.609745,-0.049993
-0.010800,0.101824,0.396307,0.909195,0.376150,-0.178539
-0.036496,-0.914714,0.242687,-0.213165,-0.029470,0.976572
0.488400,0.746240,0.456590,-0.312327,0.450571,0.836324
0.582820,0.387959,0.782523,-0.729669,0.682486,-0.042387
-0.024041,-0.059605,0.045827,-0.678004,-0.655446,0.332718
-0.322843,0.114265,-0.555861,-0.070636,-0.772309,0.631308
0.215966,0.498626,0.563008,0.073399,0.340305,0.937446
0.233190,0.764077,0.128329,0.529631,-0.576266,-0.622422
-0.017587,0.146040,-0.988519,0.023411,0.274336,0.961349
0.392128,-0.372221,0.937889,0.030572,-0.977523,-0.208601
0.127268,-0.437372,0.871461,-0.665501,0.727109,0.168585
0.232179,0.623583,0.753125,-0.631185,0.711846,-0.308028
-0.220174,0.253410,0.835271,0.411113,0.460648,0.786632
0.221520,0.296328,-0.077764,0.971050,-0.021499,-0.237908
0.062526,-0.057707,-0.973448,-0.137259,0.051736,-0.989183
-0.479481,0.132451,0.916269,-0.239392,0.464067,-0.852838
0.029873,-0.678341,0.502563,-0.660451,0.221078,-0.717585
-0.355157,0.244466,0.929367,-0.742919,0.325633,-0.584837
0.036382,-0.850612,0.789703,0.872279,-0.472389,-0.126406
-0.884932,0.256508,0.493136,-0.329746,0.431209,-0.839837
0.801453,-0.014489,0.831228,0.961179,0.275613,-0.013154
-0.284467,0.091032,-0.563105,-0.115849,0.757335,-0.642669
0.664673,-0.248963,-0.983280,-0.137993,0.028691,-0.990018
0.169852,0.517562,0.117171,-0.620625,0.454625,-0.638859
-0.340851,-0.104622,-0.554745,-0.086207,0.343278,0.935269
-0.251704,-0.095278,-0.975405,0.029178,-0.014817,0.999464
-0.369183,0.041519,0.593862,0.208896,-0.976210,-0.058118
-0.644644,0.257307,-0.997316,0.043713,0.131751,0.990319
-0.064547,-0.669748,0.798580,0.546701,-0.798630,-0.251610
-0.407894,-0.230228,0.756036,0.739844,0.568096,0.360413
-0.074758,-0.685636,0.943339,0.545266,0.754400,0.365467
0.455298,-0.202998,0.769748,0.140084,-0.975982,0.166840
0.020056,0.430427,0.646109,0.707134,0.626715,-0.327398
-0.579512,-0.022433,0.860950,0.942409,0.269898,0.197534
0.022131,-0.301874,0.835611,0.001636,0.726097,0.687591
-0.000870,-0.242518,0.918921,0.917039,0.387617,-0.093766
0.229824,0.028379,0.787956,0.953319,-0.163988,0.253558
-0.816318,-0.060105,0.874371,0.650123,-0.587861,0.481413
-0.183090,-0.248164,0.641937,-0.626837,0.634094,-0.452770
0.364245,-0.515913,0.670316,-0.669132,0.207130,-0.713694
0.655865,0.295078,0.832134,-0.432697,-0.429024,0.792914
0.151337,0.528504,0.565709,0.527812,0.848893,0.028181
0.219332,-0.366025,0.174771,-0.688874,0.479793,0.543370
0.747480,0.093830,0.333436,-0.427528,0.345011,-0.835576
-0.096974,-0.656058,0.715076,0.612394,-0.470576,0.635241
-0.048895,-0.038571,0.423214,0.351490,-0.905155,0.239059
0.370864,-0.088184,0.818179,0.976440,-0.179089,-0.120381
-0.009790,0.219785,-0.164794,-0.614903,0.738239,-0.277302
0.370193,0.353985,0.919212,0.987805,-0.123828,-0.094387
0.016241,0.307369,0.250287,-0.245327,0.131090,0.960536
0.465509,-0.416238,0.659061,-0.142411,-0.502418,0.852816
0.070772,0.554634,0.541502,-0.323920,0.944979,-0.045718
0.540294,0.548189,0.766918,0.221297,0.964568,-0.143649
0.552861,0.053360,0.184861,0.636779,-0.591784,0.494272
0.329855,0.584012,0.672774,-0.811665,-0.513935,0.277617
-0.252995,0.004647,0.895328,-0.188491,-0.438400,0.878793
0.186736,-0.103622,0.987613,-0.636377,0.725672,0.261582
0.031725,-0.058756,-0.205058,0.990565,0.067189,-0.119445
-0.764931,-0.166825,0.679016,0.604875,-0.661910,-0.442720
0.311454,0.696977,0.136964,0.540609,-0.093381,-0.836076
-0.623438,0.105171,-0.990653,0.139712,0.148642,0.978972
0.433589,0.370972,0.812455,0.046814,0.838941,0.542205
0.477460,-0.151037,0.877217,0.419274,0.315941,0.851111
0.390502,-0.869948,0.711162,0.972940,0.197159,-0.120483
-0.179443,0.070697,0.885351,0.881129,0.288617,-0.374583
0.463208,-0.268299,0.718569,-0.663756,0.672175,0.328037
0.418553,0.050112,0.804919,0.394777,0.910456,-0.123375
0.201156,-0.756732,0.867838,-0.586743,0.499751,0.637167
-0.068193,0.077292,0.263806,0.573913,-0.774683,0.265500
-0.128895,-0.059305,0.923497,-0.707860,0.507301,0.491508
0.172879,0.290482,0.262577,0.942155,-0.334663,-0.018566
-0.089006,-0.361929,0.939991,0.991793,-0.025189,-0.125348
0.158182,0.300825,0.735337,0.843978,0.232032,-0.483593
-0.857665,0.109568,0.727867,-0.482249,0.462758,-0.743835
-0.143427,0.193705,0.873644,-0.134074,0.926942,0.350433
0.283234,-0.468349,0.705487,-0.108671,-0.912820,0.393638
0.664844,-0.074844,0.715545,-0.103927,0.126058,0.986564
0.681335,0.365776,0.173235,0.301262,0.935709,-0.183551
-0.260231,0.467699,0.599942,-0.088257,-0.744323,0.661962
0.270161,0.467499,0.566437,-0.240566,0.498598,0.832783
-0.245476,0.657857,0.770799,-0.119466,0.953661,-0.276149
-0.222756,0.866150,0.374768,0.766321,-0.562596,-0.310222
-0.784901,0.024831,0.637991,0.381365,0.284432,-0.879579
0.269209,-0.589808,0.805194,0.120807,-0.051817,0.991323
-0.323459,0.403148,0.923514,0.785437,0.618940,0.001693
0.128953,0.348239,0.283582,0.946475,-0.197665,-0.255173
-0.359307,0.687584,0.030126,-0.685943,0.401682,0.606740
0.015738,0.118511,0.529535,0.108653,-0.985705,0.128760
0.402113,-0.284237,0.887324,-0.615783,0.689084,0.382066
-0.096019,-0.235174,0.899274,0.996114,-0.084234,0.025701
-0.181970,0.663103,0.042722,0.483421,-0.088179,0.870935
0.399028,0.668149,0.736453,0.820936,0.075248,-0.566040
0.133664,0.465301,0.813118,0.067766,-0.399281,0.914321
0.285364,0.570772,0.557058,-0.197052,0.748551,0.633121
-0.081993,0.015688,0.160379,0.983509,0.174238,0.048492
-0.596510,0.328354,-0.988842,0.005768,-0.007657,0.999954
-0.339447,0.490532,0.920102,0.549557,-0.831478,0.081438
-0.430839,0.311217,0.253182,0.534988,0.591773,-0.602987
0.256752,0.407195,0.638120,-0.489300,-0.192208,0.850671
0.040532,-0.030577,-0.542957,0.866065,0.498880,-0.032397
-0.185446,0.757532,0.786161,-0.866311,0.387435,-0.315278
0.162277,-0.408094,0.861112,-0.580133,0.814493,-0.006842
0.173273,-0.710867,0.822399,0.890094,-0.344925,0.297925
-0.136301,0.830327,0.741579,-0.135586,-0.975534,0.173062
-0.712643,0.125506,0.514901,0.487872,-0.389850,-0.781024
0.465622,0.343742,0.245953,0.403461,-0.143117,-0.903735
0.514096,0.537897,0.778707,0.975714,0.172573,0.134911
0.255183,0.659705,0.542132,0.374613,0.881290,0.288084
0.197564,-0.720260,0.851264,-0.648710,0.441477,0.619898
-0.592247,0.221334,0.757426,0.490917,-0.848407,0.198004
-0.237117,-0.242518,0.851927,-0.615852,-0.071168,-0.784641
0.401552,-0.192006,0.810401,-0.584390,0.711002,0.391107
0.306235,-0.364227,0.591954,0.231595,0.510687,-0.827987
-0.047884,-0.056708,0.239178,0.952352,-0.166339,-0.255651
0.316052,0.467450,-0.084604,0.883711,-0.430701,-0.183169
0.319138,-0.431476,0.206724,-0.307504,0.745424,0.591426
0.334961,0.810642,0.077392,-0.440806,0.834953,-0.329460
-0.361105,0.437722,0.595285,-0.069546,-0.673429,0.735973
0.010913,-0.470647,0.701735,0.749612,-0.597912,-0.283871
-0.274257,-0.173769,-0.525396,0.071822,0.070832,0.994899
-0.368453,0.206945,-0.990508,-0.013346,0.026654,0.999556
0.050970,0.044117,0.889313,0.277343,0.604857,0.746478
0.106284,0.395953,0.800521,0.157210,-0.366736,0.916946
-0.283683,0.658306,0.784237,0.444601,0.816213,-0.368954
-0.417095,0.124057,0.567407,0.907021,0.273289,0.320354
-0.452494,-0.016388,-0.567132,0.456740,-0.191146,-0.868822
0.159360,0.673345,0.689834,0.071979,0.646858,0.759206
0.436000,0.010692,0.809673,-0.211368,-0.940848,-0.264818
0.365871,-0.262054,0.838392,0.939097,0.017033,-0.343231
-0.068865,-0.120160,0.556540,0.923127,-0.299941,0.240567
0.229262,-0.056608,0.844731,0.299334,-0.953623,-0.031673
-0.065163,0.142793,-0.988260,-0.053092,0.164424,0.984960
0.049343,-0.107919,0.780340,0.601496,0.236391,0.763100
-0.007602,0.044117,-0.778593,-0.019322,0.994606,0.101907
0.122779,0.550887,0.833638,-0.662747,0.654317,-0.364193
-0.066509,0.889533,0.752899,-0.189558,-0.980776,0.046324
-0.860302,0.102823,0.826442,0.807407,-0.015457,-0.589793
0.123957,-0.231376,0.809964,0.259964,0.965110,0.031338
0.249516,0.837871,0.303601,-0.134058,-0.615121,0.776952
0.120872,-0.170422,-0.977636,0.023450,0.171868,0.984841
0.521163,-0.012990,0.341990,-0.384601,-0.032517,-0.922510
0.002777,0.128154,0.536068,0.003833,-0.925745,0.378128
-0.090242,-0.529453,0.751847,0.355776,-0.644471,-0.676816
0.775419,0.060554,0.313966,0.045830,-0.345279,0.937380
-0.009845,0.127754,0.488834,0.623628,0.777655,-0.079628
-0.387584,-0.014539,0.715674,0.877472,-0.479018,-0.024179
0.456309,-0.179516,0.329700,-0.138369,-0.462372,0.875823
0.144995,0.560380,0.579308,0.424097,0.904233,0.050036
-0.369405,0.307719,0.830549,0.926167,0.358856,0.115920
0.123508,0.218786,0.617519,-0.554067,0.658954,-0.508712
0.149317,0.641619,0.689931,-0.007150,0.660251,0.751011
0.519650,0.307369,0.501463,-0.448420,0.252737,-0.857347
-0.375521,0.304172,0.804418,0.991925,-0.110441,0.062353
0.499282,-0.592156,0.469785,0.572029,-0.804615,-0.159305
0.765602,0.067499,0.803625,0.310383,0.906717,0.285529
-0.032455,0.130103,0.866949,-0.684495,0.702790,0.193784
0.391622,-0.355533,0.897867,0.775477,-0.479325,0.410953
0.073915,0.624482,0.860950,-0.715086,0.202728,0.668994
0.429884,-0.021934,0.783283,0.580027,0.786663,-0.211497
0.043060,-0.030377,-0.508255,0.829377,0.542313,-0.134281
-0.153357,-0.075793,0.917530,0.780924,-0.609606,-0.136155
-0.114030,0.075493,0.281658,-0.192569,0.980207,0.045941
-0.013831,-0.682788,0.462121,0.963573,-0.224440,-0.145442
0.172317,-0.768324,0.813748,0.315698,0.637101,0.703163
-0.187411,0.137697,0.826232,0.304363,0.383744,0.871839
-0.472748,-0.098326,0.854546,-0.688410,-0.725249,0.010274
-0.086876,-0.117912,0.642777,0.738575,-0.660042,0.137300
-0.095009,-0.000650,0.563752,0.892037,0.337626,0.300463
0.070323,-0.432675,0.495965,0.710676,0.666454,0.225340
0.323962,0.332600,0.530878,0.051874,0.657246,0.751889
0.048949,0.068798,0.171149,-0.350797,0.922531,-0.160865
-0.079189,-0.363627,0.497987,-0.541032,-0.831619,-0.125278
-0.339728,0.137797,-0.538801,-0.055105,-0.864611,0.499410
-0.865747,0.237972,-0.990152,0.088534,0.057488,0.994413
0.766557,-0.146290,0.343332,0.578162,-0.046697,0.814585
0.131364,0.755034,0.280898,-0.055463,0.998152,0.024817
0.375860,-0.244566,0.591436,0.113855,0.245009,-0.962812
0.350668,-0.788009,0.688281,-0.023143,-0.311355,0.950012
0.101069,0.603297,0.801750,0.207467,-0.767448,0.606614
-0.451484,-0.123157,0.691790,0.254451,0.675534,0.692032
0.104716,-0.543193,0.272182,0.641322,-0.050296,-0.765622
0.235432,0.429728,-0.270290,-0.804411,0.458967,0.377190
0.737102,0.221084,0.339047,0.233431,-0.086984,0.968475
0.196667,0.174069,0.787892,-0.121880,0.490223,0.863033
0.007602,0.484787,0.781003,-0.340335,-0.143274,-0.929325
0.270274,-0.135498,-0.980983,0.064907,0.213211,0.974848
-0.371090,-0.147090,0.852493,0.289373,0.721058,0.629554
0.157340,0.055958,0.891253,0.787118,-0.495053,-0.367922
0.302534,-0.220385,0.792306,0.945315,-0.277751,-0.170982
0.775532,-0.059506,0.718924,0.244527,0.396439,-0.884897
0.109931,-0.438271,0.839944,-0.314890,-0.751606,0.579596
0.117002,0.074694,0.875972,-0.603054,0.635111,0.482658
-0.518472,0.076443,-0.681457,-0.435645,-0.836388,-0.332669
0.299784,-0.400949,0.801701,0.891421,-0.354366,-0.282477
0.668490,0.113065,0.328504,0.492006,0.156532,-0.856404
-0.299448,0.281839,0.833557,0.308524,-0.404424,0.860961
0.784791,-0.182214,0.307676,0.277318,0.829551,0.484705
0.347134,-0.204497,0.803464,-0.335279,0.794426,0.506435
0.041991,0.835373,0.309875,-0.064965,0.021382,0.997658
0.081544,0.692680,0.088048,0.279096,-0.086666,0.956344
-0.389827,0.426030,0.590514,-0.176476,-0.636324,0.750965
0.494122,0.348289,0.127747,0.587585,0.588998,-0.554819
0.014166,-0.716313,0.936110,0.292811,0.937131,0.189859
0.216359,0.517562,0.610679,-0.128205,-0.815381,-0.564551
-0.544390,0.272546,0.815478,0.142608,-0.431866,0.890593
0.548037,0.314214,0.757572,-0.497952,0.754840,0.426919
0.127045,0.501374,0.609660,0.269314,-0.720437,-0.639093
0.460798,0.021334,0.599166,0.164419,0.984840,-0.055287
-0.335523,-0.278691,0.709238,0.985494,0.100696,-0.136611
0.521951,0.135398,0.745703,0.879030,0.316561,-0.356505
0.540462,0.343792,0.775004,0.555811,0.478791,-0.679583
0.640439,0.120759,0.803706,0.772922,0.387889,-0.502129
-0.015570,-0.133600,0.802542,0.564258,0.529805,0.633182
-0.029424,-0.449463,0.640061,0.938249,-0.311473,0.150576
0.268760,-0.223033,0.817532,0.197697,0.169517,0.965495
0.100114,0.336898,0.363901,-0.336635,-0.329712,0.882024
-0.030715,0.225631,0.511732,0.957657,0.181336,-0.223631
-0.098881,-0.345991,0.940169,0.991793,-0.025189,-0.125348
-0.236724,0.837622,0.737941,-0.604048,0.595621,-0.529491
-0.671631,0.333000,-0.994971,-0.138944,-0.014162,-0.990199
0.205419,0.024581,0.954997,0.909305,-0.042892,-0.413914
0.132541,0.350387,-0.277680,-0.834813,0.541135,0.101292
0.423097,-0.021134,0.869747,-0.058551,0.998277,0.003738
0.508542,0.410092,0.456105,-0.094762,-0.316987,0.943684
0.255519,-0.770422,0.762358,0.329164,0.943835,-0.028739
-0.720833,-0.128154,0.705939,0.832753,-0.498157,0.241582
0.512075,0.059056,0.800165,0.575845,-0.325755,-0.749857
0.295575,-0.754984,0.514287,0.200506,0.098845,0.974693
0.425902,-0.263702,0.584984,-0.212825,0.025068,-0.976769
0.356503,-0.363428,0.869391,0.977959,-0.176379,-0.111741
0.305002,0.234175,0.800747,0.594712,-0.478339,-0.646150
0.001486,-0.280090,0.890817,0.837890,0.516917,0.175319
-0.292210,-0.463802,0.135347,-0.176212,0.065353,0.982180
-0.209121,0.402848,0.887227,-0.635769,-0.759026,0.140278
-0.378216,0.130352,0.468265,0.026283,0.729348,0.683638
0.343206,0.505471,0.721398,-0.091945,-0.364714,0.926569
0.274369,0.163128,0.699148,0.065349,0.970234,0.233184
0.420573,0.075394,0.520625,-0.384202,0.794081,-0.470983
0.518975,0.403048,0.698614,0.523453,0.542582,0.656964
-0.688742,0.248764,0.805873,0.108366,0.606665,-0.787537
-0.797187,0.077042,0.647386,-0.367750,-0.135814,0.919954
-0.117954,-0.653460,0.769312,0.590374,0.796828,0.128542
0.328787,0.207494,-0.015475,0.981504,0.116896,-0.151611
-0.062920,-0.093830,0.559079,0.988075,0.112682,0.104932
-0.162668,0.785561,0.781617,0.915763,-0.176907,-0.360669
0.066228,0.385111,-0.400705,0.869538,0.066150,-0.489415
-0.602626,0.009043,0.836549,-0.447064,0.802288,-0.395559
-0.075823,-0.553085,0.677043,0.981481,-0.053005,-0.184079
0.536425,0.190957,0.802930,0.884306,-0.276501,-0.376231
0.228420,0.504272,-0.260685,-0.804411,0.458967,0.377190
-0.156275,0.375069,0.803302,-0.212241,-0.347116,-0.913490
0.756682,0.136148,0.853414,0.934802,0.354553,-0.020920
0.206429,0.378566,0.793778,-0.366607,-0.928494,-0.059147
-0.121882,0.845516,0.765479,0.907720,0.256269,-0.332219
0.245363,-0.125356,0.789848,-0.218279,-0.974653,-0.049041
-0.312296,-0.274744,0.137126,0.077425,0.003233,0.996993
0.101741,-0.034424,0.276111,0.860159,0.509872,-0.012562
0.184716,0.437872,0.107227,0.549766,-0.550320,0.628414
0.027014,0.708119,0.697466,0.952993,0.114702,0.280441
0.326770,-0.290982,0.813053,-0.721343,-0.248468,0.646473
0.425788,-0.036623,0.842192,0.052372,0.983846,0.171187
-0.428203,0.134499,0.704403,0.438138,0.673971,-0.594810
-0.291648,-0.321159,0.850746,-0.636032,0.696437,-0.332325
0.024041,-0.019286,0.390679,0.888321,0.458594,0.024036
-0.424891,0.296927,-0.992448,-0.180442,0.045208,0.982546
0.626469,0.083088,0.326644,-0.309436,0.397021,-0.864074
-0.132487,-0.392106,0.803302,0.025115,0.375588,0.926446
0.456422,-0.191756,0.737051,-0.838321,0.341433,-0.425019
0.508316,-0.544192,0.754370,0.614981,0.708361,-0.346443
-0.363797,0.812391,0.319125,-0.705730,-0.078702,0.704096
0.033016,0.251811,-0.346162,0.997787,0.031977,-0.058289
-0.066286,0.061304,0.929966,-0.158831,0.625292,0.764056
0.343206,-0.602798,0.639333,0.380860,-0.910098,0.163303
0.274202,0.510367,0.822141,0.994613,0.103025,0.011446
-0.242223,-0.035224,-0.561650,0.052668,0.268209,0.961920
0.001880,0.016937,-0.364839,-0.575354,-0.815189,0.066600
-0.269432,0.457007,0.899694,0.834155,0.394430,-0.385500
0.791523,-0.091681,0.702350,0.756719,0.374875,-0.535579
0.044628,0.072745,0.854967,-0.668515,0.579711,0.465857
-0.366769,0.023882,0.636196,0.877689,0.477527,0.040366
-0.281663,0.238871,0.844925,0.779970,0.624862,-0.034558
0.500854,0.077242,-0.071377,-0.057561,-0.998102,0.021890
-0.203625,-0.200050,0.672289,-0.371285,-0.355268,-0.857865
-0.334064,-0.064552,0.812293,-0.607083,0.143798,0.781519
-0.020336,-0.691582,0.688006,0.063700,0.950363,0.304552
-0.799995,0.021034,0.869132,-0.730552,0.603552,-0.319404
-0.173160,-0.282788,0.735046,-0.256064,0.533214,0.806296
-0.173440,-0.013590,0.878818,0.925098,0.084971,-0.370100
0.143985,0.591806,0.815931,0.961827,-0.248779,-0.114008
0.098881,0.338446,0.361314,-0.336635,-0.329712,0.882024
0.075148,-0.575768,0.837212,-0.266352,0.937648,0.223322
-0.001993,0.130752,0.545350,-0.340637,0.911226,-0.231589
0.463321,-0.257806,0.853576,0.640844,-0.653435,-0.402916
-0.194479,0.014839,0.855500,0.959828,-0.103732,-0.260712
0.237620,0.587160,0.298022,0.095605,0.096872,0.990694
0.198968,-0.166226,-0.976779,-0.042700,0.212656,0.976194
0.770426,-0.015488,0.303536,-0.180038,-0.520530,0.834647
-0.007379,-0.720260,0.932666,0.441388,0.877731,0.186453
0.537209,0.021284,0.648841,0.855916,0.241443,-0.457290
0.199081,0.983912,0.573956,0.267181,0.537587,-0.799759
0.869112,-0.339495,-0.974014,-0.072519,0.214747,0.973974
0.656146,-0.366475,0.264258,-0.278654,0.815464,0.507317
0.015792,0.023882,-0.868178,0.097820,0.993843,-0.052032
0.838534,-0.231826,-0.984751,-0.075577,0.194562,0.977974
0.345340,-0.227080,0.799906,-0.717406,0.584169,0.379573
0.240428,0.226180,0.868582,-0.688466,0.653669,0.314216
0.279026,0.025231,0.786549,-0.499888,0.834946,-0.230167
0.523968,-0.122708,0.936272,0.976279,-0.187811,-0.107736
0.152963,0.594904,0.083828,0.845223,0.534405,-0.003001
-0.413502,-0.133400,0.870749,-0.471823,-0.872871,-0.124414
-0.012933,-0.574169,0.830598,0.999872,0.013374,-0.008791
-0.465400,-0.026030,0.645915,0.027041,-0.996936,0.073401
-0.175180,0.601249,0.710629,0.671004,-0.630551,0.390075
-0.583943,0.140595,0.921363,0.829184,-0.487435,0.273607
0.286710,0.681339,0.761307,-0.536404,0.788265,-0.301513
-0.239251,-0.070947,0.606329,0.836526,0.210589,-0.505843
-0.496537,0.241719,0.542795,0.323676,0.047743,-0.944963
0.212432,0.087035,0.516065,0.287387,0.624073,0.726596
0.045080,-0.061304,0.422082,-0.707026,-0.616137,-0.347116
-0.133103,-0.137247,0.733979,0.025375,0.421672,0.906393
0.383431,0.256608,0.753432,-0.111731,0.883935,-0.454066
-0.045248,0.052860,0.299656,-0.166706,0.974407,0.150801
-0.512805,0.512016,-0.155997,0.464379,-0.108583,-0.878955
0.765769,0.023333,0.765415,-0.160506,0.959114,-0.233107
0.243962,-0.352386,0.348022,0.752592,0.630847,-0.188780
-0.114253,0.006745,0.050209,0.785166,0.532822,-0.315618
0.569469,0.029328,0.815802,-0.451169,0.084485,0.888430
-0.216582,0.000999,0.842887,0.999004,0.012214,-0.042908
0.046987,0.792056,0.306011,-0.148723,-0.329128,0.932500
0.050295,-0.488733,0.838602,0.757821,-0.470314,-0.452230
0.423659,-0.219485,0.861904,0.666743,-0.597154,-0.445939
-0.263261,-0.326405,0.745670,-0.371711,-0.846668,-0.380768
0.476563,0.070347,0.190068,-0.585203,0.443839,-0.678634
-0.291367,-0.003347,0.556540,0.811159,-0.571431,-0.124449
0.073241,0.055658,0.921816,-0.199896,0.734743,0.648223
0.557015,0.548938,0.752284,0.489209,0.573087,-0.657454
0.320093,0.525706,0.758413,-0.236820,0.094454,-0.966951
0.463434,-0.119810,0.840316,0.900247,0.112884,-0.420490
-0.586748,0.098776,0.891221,0.955729,0.131934,0.263012
0.217760,0.599750,0.883314,0.883051,0.438972,-0.165905
-0.967573,0.191007,0.503080,0.594807,-0.015660,0.803716
-0.042611,0.551986,0.580375,0.138832,-0.237838,0.961332
0.424556,0.034874,0.763523,0.205659,0.858459,-0.469843
0.101799,0.344642,0.770993,0.032849,-0.763964,0.644422
-0.070155,0.002748,0.555780,0.894574,0.270937,0.355430
-0.082668,0.407744,0.238386,-0.101645,-0.092192,0.990540
-0.118629,-0.064002,-0.976359,-0.283531,-0.100200,0.953714
0.370193,0.195404,0.424977,-0.251059,0.688841,-0.680050
-0.018878,0.087434,0.332029,0.850291,0.256231,-0.459729
-0.140845,-0.214389,0.865316,-0.149281,0.641538,0.752426
0.035821,0.016837,-0.975000,-0.465135,-0.163431,-0.870023
0.540575,0.220085,0.813845,-0.605013,0.026033,-0.795790
-0.076720,0.469498,0.805744,-0.634831,-0.755369,0.162503
-0.430446,-0.192756,-0.563768,-0.280958,0.206989,0.937133
0.046706,0.684387,0.748856,-0.185977,0.637173,0.747946
0.828717,-0.140045,-0.990993,0.109798,0.019833,0.993756
0.165698,0.785911,-0.137837,0.974061,0.131138,-0.184415
-0.332492,0.086035,-0.984040,0.009406,0.109813,0.993908
0.533562,-0.210392,0.329134,-0.089529,-0.456407,0.885255
-0.068307,-0.101924,0.604550,-0.208475,-0.966521,-0.149584
0.260231,-0.378916,0.601203,-0.503934,-0.845347,0.177313
-0.117506,0.018186,-0.655973,0.907797,0.067456,0.413950
-0.726836,0.178866,0.730228,0.064296,-0.878272,0.473820
-0.096187,0.591656,0.586747,-0.056539,-0.843976,0.533393
0.431736,-0.579415,0.275141,0.736093,-0.549504,-0.395237
-0.363797,0.416038,0.750053,-0.720021,-0.268264,0.640003
0.252153,0.390807,-0.131304,0.917026,-0.362872,-0.165490
0.308368,0.000949,-0.392232,0.151570,0.248349,0.956739
0.015906,-0.014689,-0.261412,0.849557,-0.458717,0.260446
0.449183,0.051212,0.407820,0.768291,-0.394469,0.504106
-0.802631,0.143192,0.494607,0.036626,0.341856,0.939038
-0.240709,0.040270,-0.980612,-0.050088,0.214281,0.975487
-0.119471,-0.227229,0.321858,0.118514,0.902126,0.414877
0.647226,0.513665,0.638298,0.778771,0.556666,0.289203
0.312632,0.372271,0.708462,0.924821,0.225336,-0.306480
-0.494516,-0.105071,0.482689,0.941577,0.253162,-0.222129
0.190719,-0.638921,0.658495,-0.291503,-0.756529,-0.585397
0.538949,0.343492,0.767420,-0.124845,-0.622845,0.772320
-0.064321,0.122458,0.913973,0.152788,0.740558,0.654392
-0.323346,0.188259,0.905629,0.943200,0.233573,0.236258
0.086818,0.677792,0.517197,-0.369702,-0.091825,-0.924602
-0.150382,0.184062,-0.995246,0.196300,0.307627,0.931038
0.051531,-0.622283,0.501528,-0.472743,0.043560,-0.880123
0.758756,0.301374,0.839475,0.966011,0.240632,-0.094444
0.136695,-0.591806,0.648712,-0.267509,-0.570345,-0.776624
-0.230331,0.850162,0.369852,0.766321,-0.562596,-0.310222
0.073018,-0.050962,0.925066,0.578805,-0.751088,-0.317571
0.090129,0.061354,0.872657,0.753760,-0.480806,-0.447963
0.699233,0.156882,0.348280,0.007450,-0.203689,0.979007
-0.127717,-0.271197,0.092447,0.694388,-0.596498,-0.402510
-0.544277,-0.047565,0.591873,-0.527378,0.745865,-0.406887
0.175628,0.508619,0.853511,0.904209,0.411895,0.112909
0.016299,0.246915,0.843680,0.388394,0.218608,-0.895187
-0.204409,0.883937,0.386168,-0.619772,0.748168,0.236911
0.438749,-0.281389,-0.970036,-0.274931,-0.187696,-0.942965
-0.478919,0.267999,-0.998949,-0.093350,0.080990,0.992334
0.322449,0.025880,-0.390695,-0.300840,-0.139018,-0.943488
-0.522848,-0.083437,0.610728,0.304672,-0.950106,0.066884
0.820862,-0.145341,0.710629,-0.716333,0.612748,0.333777
0.239137,0.106220,0.456849,0.942235,0.331919,-0.044976
0.116047,0.244766,0.840543,0.014607,-0.480770,0.876725
0.308927,0.697377,0.476917,0.885442,-0.298652,0.356090
0.391344,-0.339246,0.929949,-0.168792,0.951338,0.257810
-0.746864,-0.125606,0.730761,0.425458,-0.824362,-0.373381
-0.323627,0.466600,0.696577,0.885872,-0.309356,-0.345730
0.001092,0.240669,-0.349234,0.998685,-0.023773,-0.045421
0.794495,-0.313914,-0.980709,0.121572,-0.149698,-0.981229
0.558864,-0.425331,0.198461,0.045696,0.822153,0.567430
0.006088,0.165776,0.848887,0.822465,-0.141355,0.550972
-0.362845,0.130552,-0.580570,0.474023,-0.495954,0.727552
0.012200,-0.307869,0.782911,-0.288374,0.165071,0.943182
-0.204467,0.076942,0.347035,-0.352022,0.885377,-0.303625
0.296699,0.294229,-0.028703,0.926202,0.259892,-0.273139
-0.667535,0.211292,0.888618,-0.563481,-0.607515,0.559834
-0.226064,0.577517,0.736275,0.988002,0.154143,0.009585
0.407445,0.338196,0.081418,0.622746,0.674674,-0.396236
-0.378945,0.246665,0.830517,0.319169,-0.762154,-0.563252
-0.281156,-0.395254,0.208971,-0.690163,-0.476447,0.544678
0.464725,0.323008,0.524959,-0.548256,0.355450,-0.757014
-0.776319,0.270197,-0.993936,-0.062106,0.017910,-0.997909
0.528570,0.428428,0.142494,-0.590039,-0.088369,0.802524
0.138938,0.647914,0.686244,-0.019719,0.556341,0.830720
-0.615864,0.343143,0.931146,0.424263,-0.841523,0.334424
-0.130353,0.531651,0.282515,0.850535,-0.452872,0.267390
0.307639,0.282638,0.327032,-0.073613,-0.514492,0.854330
-0.020056,-0.099625,0.084507,0.991097,-0.131562,-0.020424
0.071392,-0.176768,-0.977846,0.059438,0.074272,0.995465
0.640100,0.314964,0.803852,0.924242,0.351994,-0.147909
0.006704,-0.061204,-0.037596,0.892811,0.448892,0.037206
0.178994,-0.056957,0.962565,-0.566380,0.599687,0.565322
0.109709,-0.716563,0.801750,0.637795,0.029222,-0.769652
0.051305,0.012641,-0.108148,-0.225464,0.973883,0.026809
0.260457,0.125805,0.377711,0.593633,0.285339,0.752451
0.021459,0.564527,0.532301,0.247578,0.968728,0.016465
0.410249,0.652560,0.747756,0.792687,0.054902,-0.607151
-0.146232,0.144292,-0.986756,0.239049,0.163604,0.957126
0.021179,-0.042918,-0.550428,0.979567,-0.200414,-0.016825
0.156723,0.880390,0.305655,-0.256210,0.460633,-0.849808
-0.879043,0.245965,0.526075,-0.631412,0.742003,-0.225280
-0.000983,0.045916,-0.956615,0.871971,0.468993,0.140399
0.101518,-0.127155,0.505668,0.134806,-0.970279,-0.200964
-0.047997,0.085886,-0.988681,0.042651,0.468262,0.882560
0.902156,0.036523,0.735855,0.675545,0.691491,-0.255888
-0.256810,0.357982,0.812535,0.622833,0.577730,0.527548
-0.320429,0.563727,0.316845,-0.255358,-0.249605,0.934071
0.366546,0.618486,0.721625,-0.637297,0.210457,0.741323
-0.055065,-0.479191,0.887793,-0.183595,0.955648,-0.230283
-0.911076,0.208743,-0.989198,0.011888,0.101836,0.994730
0.196444,-0.185561,0.695235,0.045938,0.961595,0.270602
0.215685,0.793055,0.279734,-0.072556,-0.283333,0.956273
0.519818,0.053960,0.338513,-0.530566,0.447834,-0.719683
0.040029,-0.542943,0.805598,0.981979,-0.069843,0.175610
0.077617,0.638871,0.772400,0.785165,-0.393043,-0.478573
-0.574348,0.140495,0.622257,0.194563,0.504728,0.841068
0.586244,0.201949,0.477418,-0.543855,0.076935,-0.835645
0.123902,0.083437,0.595624,-0.037894,0.994893,0.093552
-0.634827,0.055608,-0.982649,0.141835,0.232317,0.962243
0.277509,-0.412291,0.802073,0.921909,-0.331446,0.200570
0.192458,0.079740,0.448489,0.925475,0.296598,-0.235637
0.102021,0.154534,0.498278,0.030999,0.957708,0.286066
-0.664224,0.211441,0.871073,0.226573,-0.037537,0.973271
-0.171927,0.190357,0.252616,-0.052333,-0.761213,0.646386
-0.117170,-0.055059,0.706829,-0.360879,0.903332,0.231855
-0.107127,-0.136747,-0.974240,-0.078001,-0.082569,0.993528
0.104435,-0.342643,0.862664,0.953748,0.300533,0.006728
-0.119526,-0.720760,0.811032,0.680449,-0.318908,-0.659763
0.648630,-0.309868,-0.984541,0.142756,0.053134,0.988331
0.278184,-0.448764,0.796268,0.715627,0.333981,0.613461
0.095008,-0.455159,0.726201,-0.190193,-0.975966,0.106385
0.621137,0.034374,0.772028,0.673636,-0.540726,0.503816
-0.042721,0.075743,0.366019,0.518316,0.758750,-0.394521
-0.304047,0.432726,0.315147,0.486076,0.016085,0.873768
-0.560662,0.027430,0.902799,-0.529761,0.087434,0.843628
-0.158237,0.147639,0.235200,0.799624,0.551224,0.238228
-0.321665,-0.048014,0.888116,-0.568368,0.819803,-0.069865
0.341412,-0.236423,0.256351,-0.092901,-0.654864,0.750015
-0.076217,0.791706,0.128507,-0.228094,-0.165686,0.959438
0.272575,0.297227,-0.174140,0.368609,0.749592,0.549763
0.160031,0.729553,0.290487,-0.317805,-0.049803,-0.946847
-0.387358,0.579316,-0.058084,-0.767744,-0.625081,0.140864
0.534066,-0.065951,0.814217,0.293485,0.791710,0.535781
0.345901,-0.417737,0.647095,-0.164578,0.035739,0.985716
-0.040142,0.076592,-0.972623,0.071793,0.748149,0.659635
0.425227,0.837922,0.097314,0.167737,-0.985699,-0.016207
0.622147,0.530452,0.158988,-0.373874,0.347692,0.859842
0.337933,-0.118561,-0.981889,0.002878,0.236259,0.971686
0.612275,-0.130002,0.334357,0.271610,-0.226275,0.935429
-0.161884,0.521359,0.289064,0.840353,-0.471779,0.266893
0.037954,-0.092630,0.736857,0.841865,0.266547,-0.469271
0.217592,-0.405996,0.894633,-0.016278,-0.661244,0.749994
0.224437,-0.677592,0.287948,0.159451,0.129780,-0.978638
-0.030548,-0.164277,0.521240,-0.218408,0.975522,-0.025580
0.660916,0.228279,0.836629,-0.666205,0.316729,0.675170
0.557799,0.347390,0.360424,0.562640,0.826674,0.006805
-0.383489,-0.239021,0.774276,0.499171,0.866446,-0.009956
-0.192123,0.645766,0.722514,-0.221710,0.810497,-0.542162
0.029034,-0.059305,-0.223476,0.921039,-0.384332,-0.063063
0.073689,0.507270,0.805194,0.423750,-0.759027,-0.494281
0.101573,0.293680,-0.261008,0.834808,-0.541587,-0.098888
-0.102021,0.013440,-0.048560,0.841046,0.526225,-0.125413
-0.217705,0.035124,0.820798,0.870368,-0.302881,-0.388229
0.519705,0.329353,0.514804,0.378344,-0.528484,0.759974
-0.581194,0.276043,-0.995602,0.003625,0.145457,0.989358
-0.038177,-0.014489,-0.372229,-0.439907,-0.885484,0.149669
0.164298,0.743892,0.122378,-0.397512,0.509901,0.762880
-0.004010,0.108468,0.432302,0.619448,0.731817,-0.284126
0.113749,-0.234824,0.416035,-0.044934,0.213684,0.975869
0.077336,0.852810,0.289662,-0.063449,0.660874,0.747810
-0.599428,0.347139,0.916237,-0.526198,0.850140,-0.019412
0.198071,0.660205,0.892790,0.673424,0.730587,-0.112884
0.179501,-0.409443,0.877137,0.649751,-0.757210,0.066763
-0.764033,0.199850,-0.989651,-0.038224,0.125918,0.991304
0.023141,0.573470,0.801054,-0.381023,0.900109,0.211245
-0.248339,-0.272246,0.694960,0.632668,0.080119,0.770267
0.481388,-0.061154,-0.987128,0.013036,0.286995,0.957844
0.004236,-0.873944,0.260216,0.321080,0.194091,-0.926950
0.009060,0.104072,0.795443,0.301346,0.941323,0.151996
-0.354650,0.012591,0.617681,0.909648,0.408045,-0.077712
-0.040985,-0.618586,0.760612,0.023012,-0.976639,0.213649
0.709557,0.149888,0.666694,0.074577,0.397527,0.914555
-0.170581,-0.280689,0.734594,-0.256064,0.533214,0.806296
0.644363,0.344042,0.848224,0.366280,0.484062,-0.794684
0.122162,-0.573270,0.467586,-0.614167,-0.424574,-0.665233
-0.728517,0.160479,0.805000,0.409478,0.585855,0.699358
-0.361386,0.004547,0.614285,-0.800769,-0.596448,0.054953
0.366714,0.333000,0.039602,0.905451,0.348153,-0.242794
0.743272,0.342043,0.187723,0.313800,0.924725,-0.215437
0.370641,-0.414289,0.743309,-0.004310,-0.041611,-0.999125
0.119974,0.734249,0.091282,-0.030029,-0.197186,0.979906
-0.146064,0.772071,0.706376,0.906603,0.389180,-0.163126
0.515442,0.010292,0.184505,0.579505,-0.635229,0.510547
-0.006537,0.000050,0.424055,0.768014,0.040474,0.639153
-0.286882,-0.016488,0.293672,0.523150,-0.548707,0.652100
-0.049004,-0.282588,0.700409,-0.397410,0.868694,-0.295695
-0.005921,-0.778866,0.260183,0.711542,0.300930,-0.634940
0.204296,-0.369323,0.291198,0.814924,0.515828,-0.264236
-0.211871,0.737097,0.604955,-0.201908,0.106464,-0.973601
-0.170187,-0.037222,0.893808,0.936312,-0.247691,-0.248935
0.249290,-0.741944,0.681926,0.225005,0.614247,0.756355
0.387584,0.796053,0.445853,0.696599,-0.370780,-0.614224
0.074812,0.497577,0.137094,0.487850,-0.642319,0.591125
0.343432,-0.385561,0.806908,-0.396756,0.236789,-0.886857
-0.496197,0.015638,0.812778,0.627792,-0.729768,0.270769
0.002161,-0.073345,0.903947,0.347528,-0.488227,0.800536
0.132600,-0.309268,0.872787,-0.186923,0.124076,0.974508
0.226345,-0.105121,-0.982439,0.017712,0.149111,0.988662
0.166428,0.616588,0.296082,-0.043618,0.251816,0.966792
-0.829505,0.145341,0.736049,-0.395642,0.810189,-0.432505
0.427696,-0.348889,0.886402,0.906451,0.329155,0.264581
0.159247,0.877392,0.253262,0.968267,0.248077,0.030274
-0.054504,0.593805,0.813134,-0.265538,0.442807,0.856394
0.204354,-0.110467,-0.982309,0.010166,0.139229,0.990208
0.061180,0.146091,0.744086,0.669120,-0.726311,0.157324
-0.642456,0.151187,0.779127,0.655674,0.743779,-0.129940
0.712081,-0.175968,0.301677,-0.366571,-0.153705,-0.917606
0.080983,-0.054709,-0.977329,0.146596,-0.045071,0.988169
-0.066903,0.068998,0.313708,-0.270767,0.953324,-0.133636
0.293949,0.037771,-0.988681,0.139009,0.162457,0.976875
0.565654,0.051761,0.331350,-0.339044,0.500993,-0.796276
0.084068,-0.438721,0.824081,0.057990,-0.912011,0.406046
-0.792475,0.055458,0.710726,-0.385119,0.294367,-0.874661
0.179950,-0.151087,0.615223,0.947588,0.115256,-0.297982
-0.740975,0.381464,-0.992659,0.103402,0.097764,0.989823
0.319531,0.386360,0.799470,-0.014656,-0.862869,0.505215
-0.044741,-0.015338,-0.513106,0.839070,0.540876,0.058435
0.132541,-0.099825,0.645300,0.590328,0.801162,-0.098246
-0.814859,0.043817,0.784965,-0.686293,-0.726498,0.034689
0.663553,0.020185,0.804482,0.392680,-0.735743,-0.551802
0.076326,-0.241369,0.306140,0.471318,0.845922,-0.249551
-0.052651,0.219086,-0.475073,0.229238,-0.972703,-0.036035
-0.077394,0.285886,0.225029,0.907244,-0.220064,0.358443
-0.000421,0.050012,-0.945699,-0.663944,-0.692208,-0.282888
0.592863,0.350787,0.498844,-0.452342,0.132377,-0.881966
0.274931,0.746040,-0.032794,0.642966,0.723543,0.251159
-0.196612,-0.006345,0.859284,0.885374,0.437566,-0.157000
-0.034420,-0.962028,0.269287,0.200229,0.265226,0.943167
0.647507,0.278291,0.340114,-0.024781,0.323232,0.945995
0.092317,0.564476,0.849145,0.512413,0.397561,-0.761169
-0.061403,0.068599,0.210297,0.354280,0.915161,-0.192265
0.395439,0.221884,0.836209,0.295224,0.594214,-0.748166
0.573338,0.177017,0.358904,0.551517,-0.222491,0.803944
-0.794944,0.218086,0.502207,0.357342,0.248149,-0.900405
-0.431175,0.001699,0.589738,0.351776,-0.935619,0.029520
-0.059160,0.027130,0.013616,0.845819,-0.033448,0.532420
0.028921,0.005146,0.404812,0.967111,0.245123,0.067909
-0.738170,-0.061204,0.730325,0.200820,0.675491,0.709495
-0.415355,0.058806,-0.984573,0.034834,0.046139,0.998327
0.139160,-0.317612,0.261865,0.969964,0.103281,0.220234
0.541640,0.309418,0.499571,-0.268660,0.348813,-0.897859
0.034643,-0.298726,0.566194,-0.311815,0.860318,0.403266
0.819574,-0.007145,0.586925,0.027444,-0.249516,-0.967982
-0.055401,0.815688,0.620947,0.923173,-0.338985,0.181222
0.289573,0.169223,-0.026148,0.983077,0.125733,0.133236
-0.184888,-0.378516,0.825601,0.701650,0.398199,0.590867
-0.087660,0.141644,-0.993305,-0.011969,0.233866,0.972195
-0.192291,0.077692,0.420110,-0.612919,-0.683978,-0.395606
0.140958,0.047364,0.916479,0.578523,-0.713350,-0.395528
0.548766,0.394504,0.775036,0.712840,0.553537,0.430645
0.161548,0.108818,0.885400,0.945214,-0.055597,-0.321682
-0.429829,0.682788,0.020294,-0.739397,0.369115,0.563069
0.364022,0.350537,0.926246,0.989993,-0.082308,-0.114623
0.539901,0.322758,-0.148073,-0.242880,0.088085,0.966049
0.007656,0.301774,-0.067948,-0.150531,-0.860988,0.485840
0.143033,0.777767,0.290794,0.210540,-0.467272,0.858679
-0.349435,0.311017,0.687925,0.253962,0.696986,0.670607
0.046593,-0.194954,0.354926,0.655441,0.586297,-0.476082
-0.127943,-0.629228,0.772287,0.805342,0.545505,-0.232055
0.225728,-0.274494,0.135363,0.922033,-0.004500,-0.387084
0.165417,-0.468698,0.724713,0.103547,-0.881660,0.460384
-0.087267,0.149438,0.612911,0.197224,0.977214,0.078461
0.398634,0.271946,0.249915,-0.547779,0.057352,0.834655
0.390163,-0.201099,0.699875,0.651072,0.683702,-0.329632
-0.157566,0.994604,0.647321,0.923709,0.179625,-0.338373
0.498444,0.108169,0.222765,0.529927,-0.535061,0.657942
-0.344891,-0.005096,0.542634,-0.168846,-0.831530,0.529197
0.461192,0.249513,0.764444,0.691135,0.516526,-0.505502
0.406209,-0.139196,-0.982649,-0.037642,-0.304467,-0.951779
-0.281718,0.892331,0.789509,0.882398,-0.467033,-0.057047
-0.459226,0.297677,-0.998448,-0.021473,0.066603,0.997548
0.041207,-0.265651,0.867774,-0.661978,-0.716755,0.219198
0.444584,0.181364,-0.144726,0.020882,0.655410,0.754985
0.433250,-0.362078,0.546126,-0.539446,0.620446,0.569250
0.825912,0.164676,0.028056,-0.245853,0.676677,0.694021
-0.559032,0.200900,0.493637,0.527634,0.847237,-0.061586
-0.576650,-0.044716,0.925211,0.182662,-0.925248,0.332492
0.436897,-0.320360,0.789347,0.993636,0.029958,0.108585
0.421412,0.033675,0.801782,0.131763,0.930278,0.342377
-0.024151,0.117512,0.850665,0.349564,-0.519210,0.779888
-0.053380,0.523258,0.820410,0.836593,-0.547335,-0.023172
