0.350325,-0.429750,0.104402,0.866594,0.168156,-0.469829
-0.207060,0.552747,0.878638,0.847267,-0.332303,0.414383
0.781501,0.035541,-0.565644,-0.569832,-0.771192,0.283819
0.495835,0.273466,0.821740,0.644528,-0.764547,0.007190
0.585350,-0.797733,0.145158,0.277401,0.460621,0.843135
-0.618141,0.683992,0.683401,-0.794150,0.326558,-0.512529
-0.076823,0.490210,0.826126,0.881422,-0.127680,0.454744
-0.361893,0.029607,0.784962,0.713128,0.152604,0.684222
-0.339813,0.276433,0.786773,-0.262644,-0.391488,-0.881904
-0.205805,-0.391480,-0.961944,0.040500,0.119105,0.992055
-0.029684,0.552628,0.806716,0.169735,-0.784677,0.596215
-0.010445,0.452712,0.174424,0.085331,-0.278087,0.956758
0.708449,-0.091907,0.699171,0.107159,0.992972,-0.050240
0.029089,0.283672,-0.740193,0.421218,0.858139,-0.293552
-0.069218,0.434200,0.796825,-0.623817,0.250774,-0.740247
-0.104391,-0.124837,0.877786,-0.401307,-0.528051,-0.748409
0.411741,-0.253530,0.457992,0.775863,0.435456,0.456525
-0.902683,-0.146553,0.457939,0.047362,0.013570,0.998786
0.234958,0.183517,-0.013425,0.031092,-0.999503,-0.005194
0.132487,0.138068,0.495409,0.743248,0.597281,-0.301393
-0.329235,-0.403880,0.141979,-0.196531,0.323821,0.925481
0.265966,0.357482,0.777397,-0.396252,-0.187011,0.898894
-0.434747,-0.256497,-0.973309,0.307470,-0.082864,-0.947943
-0.493389,0.212709,0.359201,0.050724,0.326638,0.943787
-0.228283,0.666607,0.861945,-0.157049,-0.984861,0.073372
-0.105514,-0.566394,-0.948927,0.192426,-0.274873,-0.942028
-0.106241,-0.393200,-0.958623,-0.048756,0.009556,0.998765
-0.112654,-0.692417,-0.182185,0.040659,-0.166761,0.985159
0.627000,-0.236205,0.507450,-0.607694,0.329205,-0.722726
-0.936798,-0.083778,-0.233045,-0.198094,0.103545,0.974699
0.421062,-0.924528,0.083767,0.876544,-0.476210,0.069964
0.164021,0.195503,-0.229564,0.093476,-0.801251,0.590981
0.480562,0.198054,0.153593,-0.261786,-0.376934,0.888476
0.100753,-0.461255,0.418071,0.734463,0.151795,0.661455
-0.273437,0.455204,0.173270,-0.335255,-0.015877,0.941994
0.045286,-0.205411,0.732059,0.941989,-0.250022,-0.223932
0.528098,-0.164175,0.508533,0.145461,-0.430427,0.890827
-0.438385,-0.253649,-0.980803,0.306233,-0.022416,-0.951693
-0.070278,0.133855,0.387224,-0.679324,0.725595,-0.109687
-0.137710,-0.675982,0.509403,0.861737,-0.309893,0.401717
-0.318724,-0.498635,0.451883,0.159921,0.700669,0.695334
0.535964,0.271034,0.791479,0.021833,0.966335,0.256358
-0.140222,0.482378,0.322939,-0.343516,-0.137596,-0.929013
-0.345498,0.363356,0.569374,-0.371279,0.569501,-0.733363
-0.505025,0.664827,0.600451,-0.076095,-0.119344,0.989933
0.028692,0.575946,0.046403,-0.500527,0.711165,0.493678
-0.267685,-0.461730,0.590666,0.120936,0.783926,0.608962
-0.205541,-0.073039,0.785637,0.730235,-0.580236,-0.360670
-0.171956,0.843242,0.186766,-0.124295,-0.308436,0.943089
-0.289304,0.192536,0.847454,0.181170,-0.959895,-0.213961
0.532857,0.201199,0.299551,-0.033538,0.509197,0.859996
0.452465,0.333037,-0.534727,0.897718,-0.405771,0.171619
-0.253074,-0.122938,0.516577,0.359399,0.463579,0.809893
0.251686,0.305506,0.724192,-0.702857,-0.353020,0.617550
-0.081318,0.337368,0.923354,0.842469,0.511029,0.170571
-0.044891,-0.435683,0.607856,0.752507,-0.658372,-0.016723
-0.186237,0.364483,0.778782,0.932867,-0.086019,0.349799
0.100622,-0.070310,0.542700,0.997088,0.023546,0.072534
-0.652320,-0.315474,0.570919,0.302408,0.253376,0.918885
0.356736,0.238934,0.766831,0.816441,-0.412342,-0.404225
0.367645,-0.198529,0.737973,-0.534941,-0.047562,0.843550
0.811384,-0.075294,0.460567,0.510643,0.542869,-0.666736
0.110076,0.441557,0.709701,0.787239,-0.200217,0.583239
0.063664,0.116234,0.011738,0.234151,-0.967958,0.090723
-0.125280,0.195147,0.606329,0.916431,0.277997,0.287875
0.178566,0.132669,-0.102786,0.925431,0.300893,0.230304
-0.230199,0.349413,-0.977252,0.846021,-0.105430,-0.522621
-0.801666,-0.346565,0.778161,0.895712,0.439452,-0.067684
-0.459805,-0.019402,0.342757,0.162982,0.332868,0.928782
0.050376,0.412128,0.825345,-0.238522,0.661126,0.711351
-0.892636,0.230806,0.394541,0.512168,-0.217124,0.830988
0.109216,0.038151,0.318748,-0.716904,-0.096468,0.690466
-0.583366,0.263795,0.740228,0.882794,-0.127148,0.452226
0.190996,-0.008366,0.023370,-0.129419,-0.498209,0.857344
-0.778129,-0.013053,0.449291,0.074908,0.067908,0.994875
-0.059104,0.102231,0.022411,0.142280,-0.981837,-0.125511
-0.120852,0.745995,0.186056,-0.206340,-0.505978,-0.837502
0.509851,0.282782,0.490952,-0.543309,0.434160,-0.718554
0.308739,-0.362347,0.549093,0.702074,0.408531,0.583262
-0.501256,-0.166489,-0.987782,-0.322474,0.065102,0.944337
-0.137577,0.510561,0.308856,-0.265769,-0.096424,-0.959202
0.311384,-0.002729,-0.465078,-0.907585,0.387972,-0.160523
0.546211,-0.863415,0.138108,-0.640302,0.736900,-0.216776
0.833862,-0.330545,-0.225924,-0.355437,-0.052005,-0.933252
0.335382,-0.171710,0.632256,0.068501,0.990699,0.117568
-0.417162,0.207251,0.831134,0.971481,0.114693,-0.207534
-0.975275,0.083660,0.687876,-0.672760,0.088136,-0.734592
-0.639362,0.739468,0.121717,-0.189541,0.491365,0.850079
0.427276,0.235256,0.850012,0.685309,0.706241,-0.177694
0.426219,0.240774,0.706381,0.979877,-0.101623,-0.171796
-0.167459,0.492287,-0.964945,0.151835,0.207156,0.966453
0.544425,-0.153139,0.351121,-0.607299,0.261917,0.750058
0.312838,0.206064,0.845199,-0.055045,0.950739,-0.305065
0.126933,0.080693,0.884534,-0.442088,0.885250,-0.144538
-0.294327,0.479174,-0.269539,-0.235194,0.003618,0.971942
-0.250098,-0.011689,0.773774,0.419536,-0.605640,-0.676158
0.050641,-0.588525,-0.408695,-0.721524,0.687495,-0.082176
-0.278592,0.459060,0.317451,0.035262,-0.181566,0.982746
0.719422,-0.188561,-0.192538,0.235172,-0.283827,0.929589
-0.547137,0.636229,0.342366,-0.375488,-0.410821,-0.830804
-0.165278,-0.043135,0.784198,-0.185927,-0.920814,-0.342829
0.458879,-0.146019,0.581361,0.617503,0.237923,-0.749722
-0.232711,-0.008841,0.755874,-0.175624,0.540960,0.822508
0.167262,-0.124540,0.726821,0.636887,-0.765483,-0.091714
-0.493720,0.740358,0.321749,-0.333382,-0.167731,0.927751
-0.123695,0.250564,0.589565,0.867795,-0.336540,0.365614
0.470976,-0.388513,0.549182,0.072566,0.878770,0.471696
0.220414,0.341047,-0.122179,0.863223,0.228399,0.450199
-0.244148,0.453780,0.791124,0.884243,-0.360176,-0.297299
0.010181,0.410822,0.503188,-0.601022,-0.797782,-0.048130
-0.072656,0.406847,0.820728,0.646858,0.617245,0.447865
-0.355546,-0.035778,-0.970450,-0.209550,-0.101896,-0.972474
0.592357,0.271746,0.892881,-0.674220,0.738519,-0.003967
-0.242694,0.382936,0.787253,0.940942,0.270258,0.203931
0.129380,-0.362644,0.862016,0.880943,-0.281947,0.380061
-0.417096,-0.462679,-0.963222,-0.305775,0.210378,0.928570
-0.824672,0.495491,0.180604,-0.648557,0.567946,-0.506766
0.337168,0.146731,0.134592,-0.543086,0.832112,0.112464
-0.293270,0.412424,0.813713,0.224540,-0.638288,0.736322
0.152584,0.665717,0.055105,-0.380763,0.017379,0.924509
0.652254,-0.172422,0.771181,0.300546,0.752868,0.585544
-0.029882,0.113742,0.466818,0.202067,-0.973882,-0.103552
0.289699,-0.138009,-0.450285,-0.013881,0.248349,0.968571
0.236877,-0.303073,0.520254,-0.124146,-0.992241,-0.006684
-0.165940,-0.594814,0.211415,0.633964,0.091156,-0.767972
-0.052493,0.205293,0.671556,-0.321013,-0.919085,0.228547
-0.240446,0.601104,0.882066,-0.072470,0.327481,0.942074
-0.383776,0.145900,-0.954201,0.866858,0.194586,0.459014
0.076359,0.170879,0.295786,-0.685992,0.727383,-0.018132
0.060624,0.530675,0.772247,-0.373953,0.390229,-0.841356
-0.062409,0.112377,0.525563,0.658385,0.746680,-0.094858
-0.687757,0.134567,0.023317,-0.004461,-0.269214,0.963070
0.220745,0.195859,0.242262,-0.687295,0.697684,0.202144
0.242760,-0.672481,0.611905,-0.261082,-0.771200,-0.580591
-0.181475,-0.053400,0.770844,0.743146,0.634370,0.212858
0.505818,-0.129405,0.375202,-0.064331,-0.967868,-0.243092
0.033982,0.346268,0.770826,0.928902,-0.113416,0.352530
-0.319119,0.388810,0.886452,-0.264004,-0.597227,0.757378
-0.295320,0.534473,0.883184,0.861298,0.277921,-0.425353
0.463308,-0.170583,0.755732,0.525665,-0.593076,-0.609867
-0.025254,0.458348,0.776989,0.133114,-0.933850,0.331972
-0.355746,-0.111487,0.882883,-0.371518,-0.915135,-0.156532
-0.031270,-0.209742,0.678784,0.187069,-0.720058,-0.668223
0.614636,-0.286876,-0.204276,-0.173682,-0.626306,0.759984
0.057252,-0.144417,0.716041,0.884859,-0.216989,-0.412238
0.452598,0.121633,0.878372,0.867042,0.465620,0.177305
-0.202300,0.353032,0.901014,0.841412,-0.508561,-0.182733
-0.250034,0.525217,0.446502,0.586219,-0.130066,-0.799643
-0.711225,-0.034829,0.823960,0.487071,-0.851106,0.195908
0.492925,0.375756,0.759709,0.516195,-0.390589,-0.762223
0.492066,0.098374,-0.533981,0.817969,0.565833,-0.103731
-0.526181,0.441142,0.381346,0.299156,-0.316546,0.900169
0.472762,0.055358,0.753103,-0.196789,-0.519316,0.831616
0.417757,-0.048178,0.295164,0.976004,0.092469,-0.197143
-0.308805,0.545034,0.918844,0.945330,0.320101,0.062349
0.053617,0.276789,-0.823552,0.909425,0.388550,0.148240
-0.742100,0.456272,0.148284,0.428704,0.894543,-0.126517
0.282559,-0.426783,0.515778,-0.596567,0.488975,0.636405
0.050510,-0.457518,0.560654,0.328619,0.934945,0.133746
-0.732579,-0.282307,0.115537,0.259442,0.196579,-0.945540
0.569548,-0.451703,0.252668,0.505387,-0.244563,0.827510
0.795848,0.061944,-0.525279,-0.568086,-0.745633,0.348296
0.076954,0.208674,0.922200,0.158321,0.525851,0.835713
0.100622,0.276611,-0.694358,-0.511922,-0.856095,-0.070970
0.374785,-0.592204,0.573476,-0.501103,-0.786900,-0.360117
0.583762,-0.133084,0.737565,-0.543222,-0.785340,0.296901
0.320574,-0.045924,0.212907,0.985086,-0.143438,-0.095032
0.310591,0.373502,0.169985,0.343349,-0.332927,-0.878220
-0.213076,0.116530,0.710909,0.885120,-0.461334,-0.061112
0.378288,0.206064,0.259434,0.303280,0.891526,-0.336456
-0.663825,0.585618,0.090639,-0.137627,0.293169,-0.946103
0.281040,-0.004925,0.694838,0.161683,-0.265429,-0.950477
0.064195,-0.801531,-0.928504,-0.191473,0.460388,0.866822
0.144122,0.033583,0.878496,0.437574,0.884457,-0.162068
0.404470,0.628693,0.776260,0.574396,0.817980,0.031280
0.488297,0.058680,-0.477420,0.356665,0.810317,0.464947
-0.297105,0.570784,0.821260,0.364868,-0.930134,-0.041491
0.858390,-0.163641,0.393795,-0.395354,0.087044,0.914395
-0.145446,0.719473,0.189093,0.516269,0.425237,-0.743398
0.480298,-0.325679,0.488288,-0.464424,-0.764980,-0.446224
-0.345035,0.564673,-0.271119,-0.177081,-0.017181,0.984046
0.449820,0.123176,0.758786,0.118743,0.581206,0.805047
0.397196,0.385843,0.192875,-0.318027,0.526741,0.788291
0.009983,0.081108,-0.007743,0.939800,-0.320947,-0.117346
-0.009916,0.152486,-0.033066,0.813467,0.500463,0.296324
0.048922,0.156105,-0.167694,0.321888,-0.906510,-0.273179
-0.200251,0.273407,0.297793,-0.000144,-0.602358,0.798226
0.235620,0.777916,0.806166,0.817840,0.455045,0.352240
0.048526,0.088050,0.042141,0.950027,-0.293003,0.107689
-0.664749,0.071615,0.167498,-0.008585,0.015742,0.999839
0.346753,0.098552,0.281384,0.116123,-0.761918,0.637179
-0.866720,-0.269135,0.771910,0.921242,0.322184,-0.217968
0.540064,-0.112911,0.748113,-0.004882,0.992157,0.124906
-0.196813,-0.479352,0.794747,-0.472559,0.823664,0.313474
-0.452201,0.372790,0.361723,0.386414,-0.332681,0.860237
-0.605778,0.681203,0.677559,-0.747688,-0.334274,0.573780
0.045153,0.114216,-0.065937,0.774661,-0.590100,0.227336
-0.564922,-0.433191,0.109819,-0.404468,-0.215765,0.888736
-0.771320,0.666251,0.340324,-0.450022,0.120532,0.884846
0.910021,0.054586,0.191685,0.056761,0.753576,0.654905
0.505620,-0.184882,0.398625,-0.215421,0.829463,0.515349
-0.879015,0.634449,0.129140,0.400904,0.266238,-0.876581
0.853233,-0.043432,0.621424,0.702881,0.514433,-0.491241
0.040196,0.139314,0.077072,0.595600,0.798240,0.089854
-0.217507,0.315177,0.021772,-0.277019,0.770984,-0.573449
0.269933,-0.104248,0.675729,0.823780,0.565886,-0.034059
-0.019504,0.193782,-0.312479,0.512141,0.856348,0.066185
-0.096258,0.123591,0.389107,0.873394,-0.480457,0.079649
-0.574640,-0.338139,0.412495,-0.491478,-0.157262,-0.856574
0.489092,-0.464993,0.578448,-0.297417,0.071281,0.952083
-0.842126,0.811499,0.115342,0.552433,-0.504935,0.663219
-0.343449,0.215498,-0.981318,-0.032703,0.393913,0.918566
0.091498,0.008366,0.310579,-0.726514,-0.021666,0.686810
-0.960002,0.402575,0.133793,0.850017,-0.499853,-0.166188
0.316871,0.054646,0.680471,0.290570,0.950450,-0.110519
0.258031,0.311558,0.569693,-0.312788,0.930789,-0.189197
0.012495,0.112852,0.244037,-0.037944,0.991353,-0.125616
0.660056,0.299098,0.829394,0.457341,0.750175,-0.477573
0.056326,-0.558680,0.661416,-0.029539,0.814952,0.578775
-0.397396,0.197105,0.840990,-0.577993,0.605677,-0.546882
-0.242034,0.406491,0.754861,-0.432365,-0.889651,0.146909
-0.788707,0.547051,0.097707,0.264346,-0.396054,0.879353
0.373793,0.251157,0.829358,0.916308,0.389667,0.092411
-0.424566,-0.567284,0.509723,-0.665079,-0.728067,-0.166095
0.691524,-0.021657,-0.638490,0.165373,0.972438,-0.164364
-0.154172,0.222380,0.137238,0.363623,0.484113,-0.795873
-0.084491,0.494363,0.824262,0.881422,-0.127680,0.454744
-0.024528,-0.284146,0.561720,0.965068,-0.098497,-0.242782
0.311384,0.503797,0.709524,-0.155127,0.261119,0.952760
-0.501918,0.418951,0.135160,0.324433,0.943275,0.070538
-0.403015,-0.074107,-0.977535,-0.228835,0.223710,0.947411
0.308146,0.322119,0.731846,0.567337,0.654759,-0.499419
0.337299,0.232882,0.262933,0.324388,0.802411,-0.500908
0.492528,-0.214667,0.811049,-0.509188,0.839306,-0.190505
-0.051700,-0.165777,0.751647,-0.015795,-0.803076,0.595667
0.589316,-0.721431,0.259008,0.156398,0.639830,0.752434
0.482745,0.246885,0.273978,-0.002940,-0.992949,0.118508
-0.128190,-0.554171,0.543553,0.818423,-0.505703,0.272852
0.284675,-0.478699,0.550248,-0.594748,0.259463,0.760890
-0.334590,-0.296072,-0.965193,-0.280502,0.263868,0.922872
0.474283,0.415391,-0.535189,-0.728604,0.672550,0.129664
0.776279,-0.168862,-0.188826,0.317924,-0.266142,0.909996
-0.005354,-0.256378,0.725453,-0.501775,0.623096,0.599978
0.536030,-0.253293,0.426808,-0.109762,0.661330,0.742021
0.769734,-0.329358,0.214541,-0.125379,-0.003793,-0.992102
0.655494,0.250860,0.292714,-0.345679,0.691108,0.634725
0.086011,-0.241130,0.525013,-0.145045,0.468547,0.871450
-0.254793,0.231755,0.807285,0.339056,0.940762,0.002905
0.801864,-0.018690,0.212800,0.158048,0.782000,0.602907
0.269338,-0.901982,0.100194,0.436796,-0.678798,0.590290
0.273569,0.715676,-0.020032,0.080515,-0.878429,0.471042
-0.518379,0.413730,0.116833,0.284923,0.958083,-0.029917
-0.714399,-0.248606,0.565076,0.296845,0.198049,0.934162
0.008395,0.171888,0.768145,0.865927,-0.497729,0.049369
-0.071797,-0.320933,-0.511481,-0.848608,0.369794,0.378308
-0.014611,0.239706,0.574506,0.162604,0.861191,-0.481570
0.548525,0.171235,0.517039,0.423537,0.854414,0.300986
0.802195,-0.162513,0.236277,-0.610726,0.231608,0.757213
-0.362622,0.179779,-0.981460,0.630320,0.431853,0.645136
0.534642,0.012994,0.619453,-0.279529,0.832348,0.478603
-0.432435,-0.242494,-0.978193,0.332198,0.059509,-0.941331
-0.038146,-0.367153,0.716325,-0.091341,-0.040582,0.994992
-0.471705,-0.193960,0.049511,0.463393,-0.253128,-0.849231
-0.897395,0.373739,0.393706,-0.553907,-0.065736,-0.829979
-0.248710,-0.114988,0.893999,0.060216,0.891405,0.449188
0.603661,-0.185297,0.221768,-0.192138,0.096818,0.976580
0.288311,-0.821763,0.291098,0.155549,0.767890,0.621409
-0.399115,-0.021241,0.442152,0.328745,0.304684,0.893921
0.570936,-0.405126,0.505851,-0.609927,-0.622420,-0.490492
0.150667,0.147087,0.606205,0.813638,0.561083,-0.152248
0.397394,-0.846921,0.138357,-0.046255,0.603036,0.796372
-0.077615,0.131185,0.576300,0.806575,0.512652,0.294320
-0.024858,-0.524267,-0.021985,-0.083976,-0.058552,0.994746
0.081977,0.187730,0.582373,0.836571,0.547837,-0.004808
0.337763,0.139373,0.745503,0.867165,0.489757,0.090346
-0.547930,0.403821,0.714514,0.904500,0.291545,0.311259
0.115100,0.527471,0.781623,0.433100,-0.779389,0.452744
0.031932,-0.000712,0.783506,0.187679,0.751110,0.632938
0.618339,-0.055595,0.362593,0.449864,-0.735220,-0.507025
-0.159790,-0.166785,-0.143382,-0.739829,0.379773,0.555361
-0.209507,0.598256,0.800998,0.967463,-0.246117,-0.058670
0.254860,-0.684289,0.103728,0.402006,0.530739,0.746128
-0.449425,0.559808,0.613166,-0.113851,-0.202437,-0.972655
-0.800807,0.244156,0.656035,0.079101,0.734971,-0.673469
0.629974,0.323365,0.870008,0.385050,-0.879345,0.280157
-0.472300,-0.004569,0.687734,0.814231,-0.139042,0.563645
0.965820,-0.418595,-0.226652,0.135060,0.231131,0.963502
-0.293072,0.576065,0.830246,-0.647574,0.760868,0.041563
-0.021949,0.104960,0.841274,0.980002,-0.006398,0.198883
0.574176,-0.164353,0.798139,-0.060468,-0.959781,-0.274160
-0.135594,0.001187,0.957930,0.688388,-0.724111,-0.042248
0.151131,-0.196215,0.634920,0.188537,-0.802159,0.566564
-0.551301,-0.278450,0.559091,-0.308860,-0.168497,-0.936063
0.291682,-0.455144,0.551136,0.765655,-0.204869,-0.609755
-0.462384,0.543788,-0.059917,0.294064,0.211631,0.932062
0.485454,-0.041948,0.735185,-0.332738,0.746429,0.576306
0.547204,0.198232,0.775657,0.954955,-0.199425,0.219749
-0.009123,0.415154,0.782938,0.931321,0.173612,0.320157
-0.955573,0.406372,0.176697,-0.556745,0.719482,-0.415187
0.638171,-0.360389,0.356413,-0.108365,-0.079152,0.990955
-0.134999,-0.642103,0.512529,0.893563,-0.393539,0.216038
0.639164,-0.451466,0.165509,0.066345,-0.942979,0.326173
0.087927,0.182331,0.505478,0.795320,0.565043,-0.219526
0.590440,-0.206598,0.210492,-0.192138,0.096818,0.976580
-0.031072,0.512935,0.663458,0.893719,0.405461,-0.192009
-0.177773,-0.023674,0.197883,0.217618,-0.443771,0.869316
-0.341861,-0.330663,-0.969473,0.331491,-0.199483,-0.922128
-0.249174,-0.021953,0.967768,0.655430,-0.732168,-0.185315
0.447837,0.116649,-0.569320,0.761081,0.619655,-0.191790
0.306955,0.096713,-0.175348,-0.567879,0.761191,-0.313213
0.122437,0.872315,0.825416,0.893469,0.387576,-0.226933
-0.238727,0.068114,0.737138,0.598756,-0.679638,-0.423772
-0.628388,0.654563,0.127826,0.482837,0.701882,-0.523670
-0.139825,0.359796,-0.951022,-0.138153,0.420811,0.896567
-0.246265,0.456450,0.648221,0.408236,0.629633,0.660988
-0.700780,0.524979,0.103088,0.035793,-0.325502,0.944864
-0.030808,0.560520,0.817141,0.005703,-0.785193,0.619225
-0.098043,-0.262905,0.152244,0.344384,-0.396574,-0.850958
-0.513950,-0.276492,0.375664,-0.381923,-0.151031,-0.911770
0.504230,-0.323069,0.773952,-0.673273,-0.344385,-0.654296
0.597647,-0.827281,0.300723,0.038748,0.449669,0.892354
-0.380073,-0.171710,-0.974783,0.059320,-0.022455,0.997986
-0.244017,0.260235,0.313154,0.749538,0.311762,0.583950
-0.678962,0.730806,0.367335,-0.554844,-0.229811,-0.799584
-0.879546,0.549602,0.117455,0.063734,-0.388657,0.919176
0.047269,0.183992,-0.286942,0.252404,0.963696,0.087076
-0.000993,0.189332,-0.065316,0.926507,0.152840,0.343838
-0.243025,-0.173193,0.345439,-0.615674,0.756435,0.220799
0.373793,0.331672,0.587328,0.540234,-0.840636,0.038449
-0.842193,0.503085,0.725720,-0.694761,0.604442,-0.389818
-0.231587,0.206064,0.825505,-0.119336,0.989619,0.080086
0.279716,-0.646197,0.099341,0.175379,0.499028,0.848654
0.140817,-0.140501,0.788549,0.350816,0.861750,0.366490
0.047798,0.030616,0.295022,-0.630926,0.111910,0.767730
0.063599,-0.793639,-0.925556,-0.191473,0.460388,0.866822
-0.366653,0.573158,0.358047,-0.483657,-0.400948,-0.778021
0.147758,0.345141,0.442311,-0.650095,-0.205584,0.731513
-0.328309,-0.112258,-0.022962,0.462298,-0.583511,0.667679
0.212945,-0.555951,0.096890,-0.277934,0.722186,0.633403
-0.452730,0.485938,0.357710,0.383890,-0.111604,0.916609
-0.279321,0.629227,0.871002,0.867683,0.497025,0.009577
0.563401,-0.313397,0.728330,-0.038796,-0.997099,0.065479
-0.274957,0.249436,0.841541,0.120282,0.981680,0.147769
-0.089053,0.185416,0.142796,-0.375075,-0.568375,0.732303
-0.054278,0.130473,0.868036,0.391583,0.919715,0.028038
0.704747,-0.552332,-0.219584,0.029576,0.283287,0.958579
-0.084292,-0.849353,-0.923940,-0.180207,0.252807,0.950586
0.192384,0.352498,0.585516,0.276663,-0.541615,0.793795
0.093548,-0.107393,0.785157,-0.621299,-0.517365,0.588490
0.601547,-0.392488,0.219478,-0.507781,-0.293903,-0.809802
0.462646,-0.328527,0.357745,-0.343140,-0.242109,0.907545
0.548658,-0.301234,0.427963,0.168579,-0.670187,-0.722794
0.118340,0.227008,-0.413862,-0.495128,0.864874,0.082711
-0.056526,-0.443278,0.576442,0.036388,0.933061,0.357872
-0.823351,-0.049365,0.451137,-0.148812,0.011275,0.988801
0.801599,-0.152189,0.235620,-0.755356,0.411757,0.509798
0.493785,0.240358,0.896610,0.997635,-0.067970,0.010267
0.452863,-0.916340,0.150468,0.127535,-0.922419,-0.364524
-0.031337,0.489854,0.048001,-0.266534,0.511323,0.817012
0.102936,-0.127269,0.556516,-0.524543,-0.569564,-0.632813
-0.368043,0.395396,0.688231,0.420648,0.905110,-0.061892
0.506808,-0.140085,0.355632,0.766387,0.096458,-0.635095
-0.623496,-0.022369,0.249294,0.253665,-0.961640,-0.104416
-0.206400,0.377240,-0.038376,0.015771,0.258967,0.965757
0.057979,0.163819,-0.319121,0.514924,0.849160,0.117386
0.461258,-0.862941,0.077889,-0.706732,0.673273,-0.217331
-0.224052,-0.628753,0.184191,-0.140003,0.475982,0.868240
0.422714,-0.631363,0.557262,-0.551941,-0.293477,-0.780533
-0.452598,0.240655,0.858820,0.917476,0.239888,0.317319
0.174864,-0.865729,-0.505745,0.158922,0.665614,-0.729179
-0.248379,0.295241,0.900570,0.316583,0.933051,-0.170854
-0.420402,0.517266,0.599474,0.190711,-0.116174,0.974748
-0.198532,0.293165,-0.959209,0.868988,0.218994,-0.443735
0.732181,-0.212116,0.464829,0.504488,0.366979,-0.781549
0.599035,-0.222974,0.418391,-0.178316,0.440123,0.880054
-0.204350,0.552925,-0.967378,-0.375012,0.178516,0.909669
0.478117,-0.204106,0.782689,0.853004,-0.021837,-0.521447
-0.246991,0.368221,0.784856,-0.737086,0.488084,-0.467417
-0.437723,0.666429,0.103728,-0.545721,0.401341,0.735604
0.022478,0.211404,-0.298130,0.547369,0.832711,0.083548
0.068756,-0.890708,-0.517643,0.471517,0.682495,-0.558455
0.600885,0.034651,0.738630,-0.086404,-0.781357,0.618074
0.369562,0.120980,-0.497185,0.837819,0.217678,0.500676
-0.133346,0.293639,0.863064,0.017908,0.577606,0.816119
-0.483009,-0.538745,-0.198025,0.648575,0.320173,-0.690536
0.383578,0.040169,0.262933,-0.722691,0.447010,-0.527163
-0.524065,-0.358906,-0.982632,0.384632,-0.173630,-0.906593
-0.304179,0.491337,0.841416,0.505378,-0.559298,-0.657099
-0.088722,0.622167,0.489993,0.915282,0.301636,-0.266972
0.027106,-0.332977,0.233986,-0.061122,0.558221,0.827438
0.088787,0.135517,0.984603,-0.711186,0.468232,-0.524379
-0.539335,0.236442,0.814299,-0.691410,-0.280684,-0.665709
-0.294725,0.299810,0.931505,-0.389364,0.722467,-0.571347
0.106836,-0.011273,0.847064,0.951942,-0.026403,0.305139
0.406915,0.543847,-0.183037,0.486925,-0.215469,-0.846450
0.094539,-0.065029,0.659285,-0.700629,0.713478,-0.008281
-0.065847,0.491456,-0.202625,0.250818,0.094290,0.963431
-0.032394,0.557316,-0.208023,0.248362,0.047651,0.967494
-0.633281,-0.358906,0.126529,-0.400341,-0.106767,0.910125
0.088722,-0.722677,0.133597,-0.505796,-0.448504,-0.736895
0.634338,-0.387623,0.456607,0.701786,0.315307,-0.638810
0.737338,-0.448736,0.044556,-0.141404,0.344949,0.927909
0.115959,-0.356889,0.597734,0.367342,-0.099199,0.924781
-0.619596,0.751454,0.695619,-0.382927,-0.339583,0.859098
0.522543,-0.515486,0.561578,0.322711,0.109091,-0.940190
-0.066045,0.084846,0.479853,0.324958,0.936045,-0.134987
0.181409,-0.429928,0.756513,0.852542,-0.281109,0.440625
-0.955109,0.053400,0.455684,0.097647,-0.229517,0.968394
0.116621,0.115581,0.913108,0.445510,-0.073302,-0.892271
-0.215193,0.381749,0.881657,-0.294127,0.411483,0.862654
-0.031998,-0.900973,-0.544459,0.433341,0.580188,-0.689636
0.206003,-0.060757,-0.149278,0.942720,-0.079647,0.323937
0.576886,-0.646137,0.061942,0.076410,-0.051063,0.995768
-0.027370,0.211048,-0.236845,0.838713,0.528861,-0.129873
0.380338,0.109351,0.135728,-0.637943,0.618471,0.458827
-0.384173,-0.008841,0.836302,0.689466,0.714283,-0.120150
-0.578936,-0.363890,0.741045,0.426628,0.764804,0.482767
-0.222530,0.289427,0.906857,0.978187,0.159868,-0.132634
0.014214,-0.412721,0.823001,-0.685927,0.663214,0.299419
0.092953,0.434615,0.844116,-0.272206,0.959863,-0.067574
0.095201,0.254183,-0.861093,0.910039,0.411114,0.053038
-0.083101,0.627329,0.829838,-0.669858,0.045819,-0.741074
-0.225968,0.460069,0.591856,0.830524,0.463629,-0.308672
-0.162833,-0.719473,-0.029550,-0.020931,-0.177461,0.983905
0.291946,-0.586152,0.579762,0.170730,-0.922923,-0.345058
0.592952,-0.078972,0.753192,-0.579485,0.522887,0.625129
-0.199591,0.510621,0.873364,-0.232052,0.505754,-0.830882
-0.744612,0.690637,0.369874,0.611777,0.071900,0.787756
0.344572,-0.179661,0.825540,0.096954,-0.702456,-0.705092
0.701971,-0.166667,0.764895,-0.533059,0.722400,0.440439
-0.267552,0.543491,-0.981957,0.681728,-0.042153,-0.730391
0.060095,-0.953483,-0.906643,-0.226691,0.138553,0.964061
-0.572326,0.420909,0.370674,0.083366,-0.362926,0.928081
0.121842,0.180254,-0.070750,-0.236750,0.605134,-0.760107
0.169245,0.409280,0.507894,-0.295719,0.931112,-0.213496
-0.464167,0.283434,0.834011,-0.623084,0.666521,0.409288
0.076623,0.158063,0.444034,0.134439,-0.989591,0.051342
0.393494,-0.423994,0.557919,0.011511,0.567850,0.823051
-0.278461,0.414323,0.319280,0.330328,0.008436,0.943829
-0.116621,-0.697105,-0.174264,0.040659,-0.166761,0.985159
0.451539,0.406906,0.754968,-0.599880,0.623739,0.501092
-0.038808,-0.393378,0.786880,-0.515384,0.841925,0.159819
0.305367,0.108936,0.077285,-0.023882,0.997525,0.066136
-0.155626,-0.135813,0.948216,0.975462,-0.205108,-0.080026
0.192251,0.608876,0.841860,-0.608550,0.792055,0.048114
0.116554,-0.784384,-0.930902,-0.232351,0.410951,0.881551
-0.086275,0.459891,0.813500,-0.676210,0.597476,-0.431002
0.745207,0.275009,0.298965,-0.283565,0.845095,0.453218
-0.330821,0.497093,-0.277726,-0.243484,0.077437,0.966809
0.060228,0.218168,-0.765428,0.941738,0.335924,0.016850
-0.573186,0.235849,0.839818,-0.606602,-0.675717,-0.418857
0.176318,0.136644,-0.097281,0.478863,-0.616187,0.625303
0.216976,0.060104,0.239758,0.726115,0.600094,-0.335626
-0.417493,0.051264,0.631351,-0.177155,0.945376,0.273644
0.200648,-0.280705,0.817762,0.368722,0.124803,-0.921124
-0.122109,-0.711404,0.277637,0.419769,-0.852606,-0.311219
0.373662,-0.740240,0.128146,0.146189,0.546129,0.824847
-0.706863,0.638839,0.529541,-0.259818,0.380784,0.887411
0.217307,0.106859,-0.149527,0.979073,-0.093563,0.180725
-0.834524,0.493236,0.156630,-0.266424,0.877781,0.398144
0.622041,-0.021063,0.607697,0.064734,-0.047607,0.996766
-0.416898,-0.169633,-0.977820,-0.428497,-0.028766,0.903085
-0.356605,0.574048,0.845501,0.693201,-0.577932,-0.430659
-0.087796,0.064851,0.918932,0.993216,0.003800,0.116225
0.016066,-0.327459,0.609437,0.986972,-0.024080,-0.159081
-0.302063,0.179067,0.631298,0.104387,-0.744721,0.659162
0.289568,0.548178,0.710092,-0.153379,-0.334417,0.929860
0.052029,0.281892,0.631777,0.731048,-0.607348,-0.310961
0.309467,0.695799,0.772229,-0.418169,-0.649403,0.635146
0.335713,-0.312567,0.547868,-0.572472,-0.454030,-0.682739
0.340539,0.137593,0.271670,0.656602,-0.148107,-0.739553
0.653311,-0.163047,0.746373,0.888901,0.045662,-0.455818
0.106109,-0.582295,-0.936247,-0.124960,0.122192,0.984609
-0.084887,0.324493,0.792438,-0.597474,0.697859,-0.394991
0.332473,-0.007001,0.239953,0.969620,-0.195766,-0.146675
0.506015,-0.317669,-0.205200,-0.496839,-0.523857,0.691900
0.332671,0.154859,0.763989,0.934893,0.001725,-0.354926
-0.134008,-0.007417,0.312585,-0.494251,0.770192,0.403139
0.477257,-0.732882,0.282449,0.235263,-0.342272,-0.909671
-0.267950,0.712234,0.589263,-0.203463,0.009381,-0.979038
0.053021,0.261422,-0.830335,0.890812,0.435539,0.129458
-0.542047,0.570962,-0.290032,0.349874,-0.056410,-0.935097
0.317862,-0.514181,0.565129,0.339074,-0.399968,-0.851501
-0.211688,0.055595,0.663565,-0.487362,0.785919,-0.380540
-0.503901,0.242554,0.875584,0.152790,0.554306,0.818169
-0.396866,-0.396404,-0.973007,0.206827,-0.147871,-0.967139
-0.169642,-0.042245,0.868640,-0.589114,0.776109,0.224944
-0.069947,0.055298,0.308057,0.801008,-0.465489,0.376440
-0.409824,0.396760,0.862957,0.904997,-0.345493,0.248225
0.308210,-0.896404,0.139635,0.394962,0.531175,0.749572
-0.136851,0.731755,0.283621,-0.488407,-0.651218,-0.580839
0.023470,-0.300759,0.727318,0.041613,0.715378,-0.697497
-0.472100,0.436751,0.571789,0.633982,0.773106,-0.019348
-0.000264,0.132075,0.739998,0.729687,-0.683768,-0.004364
-0.607034,0.530023,-0.304186,0.266895,-0.125010,-0.955583
-0.020494,-0.090661,0.809540,0.010082,0.542390,0.840066
0.989157,-0.149994,0.242013,0.880361,0.461530,-0.109340
-0.378554,0.044618,-0.978743,0.141224,-0.684928,0.714793
0.219290,0.275958,-0.192946,-0.010532,0.099529,0.994979
-0.275023,0.174261,-0.973859,-0.311548,0.116060,0.943116
0.194036,0.406076,0.856316,-0.060587,0.990009,-0.127327
0.029815,0.470867,0.822415,-0.533072,0.196923,0.822833
0.320904,-0.090364,-0.446307,-0.039735,0.377912,0.924989
-0.556458,-0.031625,0.850935,-0.558108,0.826568,0.072809
0.212878,-0.234544,-0.157145,-0.153054,0.153078,-0.976290
0.478183,-0.311321,0.498677,0.407432,0.748429,0.523310
-0.280511,-0.550018,0.478130,-0.076738,0.686088,0.723460
0.847812,-0.116708,0.407913,0.323885,0.048374,-0.944859
-0.069616,0.180669,0.667418,-0.493209,0.746474,-0.446677
-0.202962,0.562062,0.852462,0.595005,0.800660,0.070098
-0.210036,0.389878,0.752695,0.595485,0.801846,-0.049399
0.123497,0.180313,0.553338,0.925057,0.376050,0.053451
0.413062,0.350243,0.711282,0.878160,-0.279332,-0.388341
0.379876,0.381808,-0.563336,0.833041,-0.540797,-0.116542
0.410484,-0.224991,0.540694,0.887182,0.280838,0.366111
0.158005,0.218286,-0.082044,0.056334,-0.889401,0.453643
-0.465027,-0.215735,0.545631,0.202418,0.858309,-0.471522
-0.671889,0.440904,0.661221,0.958914,-0.283260,0.015751
-0.320971,-0.555061,0.187850,0.549177,0.661758,0.510374
0.225704,-0.285333,0.352578,0.399677,0.487054,0.776554
-0.628124,0.520114,0.374936,0.365507,0.138629,0.920427
-0.642999,-0.025929,-0.222887,0.192460,-0.192385,-0.962262
-0.300277,-0.457577,-0.164604,0.230565,-0.410670,0.882151
-0.180947,0.033405,0.946938,-0.801023,0.479533,-0.358344
0.629312,-0.130473,0.400135,0.240537,0.963800,0.115029
0.233835,-0.011036,0.594733,0.848678,0.200829,0.489299
0.396470,-0.330367,0.123102,0.823785,0.559928,0.088648
0.486843,-0.735671,0.121717,0.262557,-0.580957,-0.770424
0.067433,0.122820,0.019463,0.051508,-0.990676,0.126124
0.284742,-0.094755,0.642841,-0.728554,-0.684120,0.034463
-0.787122,0.588525,0.770702,0.892150,0.148969,0.426470
0.132354,0.316127,-0.197279,-0.168498,-0.248711,0.953809
-0.363414,0.536549,0.790130,-0.123889,-0.531527,0.837932
0.722596,-0.214548,0.219744,0.165743,0.256639,-0.952190
0.384966,-0.683577,0.269059,-0.088439,0.296912,0.950801
-0.911478,0.094280,-0.009377,0.987260,0.067732,-0.143983
0.072459,-0.050433,0.704338,-0.723315,0.551629,0.415357
-0.933691,0.564673,0.106960,0.138187,-0.333462,0.932581
0.880339,-0.429394,-0.218945,0.215171,0.029531,0.976130
0.653973,-0.532396,0.150557,-0.505073,0.411081,0.758890
-0.041188,0.412246,0.840742,0.636367,0.699779,-0.324571
-0.102671,0.496618,0.312408,-0.216354,0.149063,0.964868
0.771320,0.248843,0.474774,-0.327813,-0.174796,-0.928432
-0.124554,0.179898,0.154339,-0.442038,-0.214828,0.870891
0.132553,-0.655809,0.306849,0.675756,0.715201,0.178442
-0.102143,-0.308295,-0.962689,-0.183236,0.201448,0.962207
-0.122240,-0.840157,-0.930191,-0.193310,0.202628,0.959986
0.056590,0.219532,-0.066843,0.384713,-0.165898,0.908005
-0.130306,0.174499,0.607626,0.828497,0.403153,0.388664
-0.144982,0.591373,0.187690,-0.167158,-0.007663,0.985900
0.121842,-0.219948,0.900481,0.295349,-0.935405,-0.194388
-0.140355,0.246173,0.139280,0.396268,0.471668,-0.787719
-0.519172,0.243681,0.798423,0.749617,0.118825,0.651118
-0.169378,-0.347514,0.563318,-0.351346,-0.293102,-0.889183
-0.199986,0.156283,0.509527,0.829728,-0.417071,0.370949
0.143460,0.205649,0.485518,0.100094,0.974857,-0.199084
0.659658,0.224754,0.473194,0.216778,0.140641,0.966037
-0.933160,0.052806,0.692724,-0.007249,0.442234,0.896870
-0.133875,-0.400558,-0.955781,0.079214,-0.036845,-0.996176
0.014940,0.570606,0.516542,-0.609346,-0.306439,0.731295
0.307879,0.221253,0.191170,-0.153696,0.732814,0.662843
-0.024858,0.110122,0.813642,0.280062,0.692287,0.665060
-0.156155,0.158597,0.484222,-0.276979,-0.960746,-0.015786
-0.222730,0.416696,0.798672,-0.126407,0.223741,0.966417
0.161443,0.578438,0.810996,0.296676,-0.913606,0.278041
0.348934,0.096654,0.712969,-0.247680,-0.705916,0.663579
0.773237,0.068708,-0.514198,0.245072,0.719471,0.649847
0.645114,-0.257921,0.467830,-0.222179,0.771617,0.596023
-0.207326,0.006289,0.765321,0.440058,0.594799,0.672728
0.264445,0.007120,0.676280,0.063800,-0.229878,0.971126
0.085415,0.126676,-0.090462,-0.206569,0.946035,-0.249695
-0.886419,0.070903,0.465575,-0.033096,-0.302649,0.952527
0.469853,-0.260828,0.466001,0.592862,0.803881,-0.047864
0.141413,-0.040584,0.809238,-0.133555,0.922237,0.362824
0.430185,0.150291,-0.529985,-0.597693,-0.720117,0.352413
0.188615,-0.113445,0.780878,-0.035968,0.786635,0.616369
0.097381,-0.137297,0.193586,0.832209,-0.235865,-0.501792
0.811118,-0.637356,-0.200654,-0.136753,0.433660,0.890639
-0.828508,0.635576,0.108913,-0.346130,-0.338021,-0.875177
0.619001,0.299454,0.803662,-0.480579,0.853540,0.201278
-0.054674,-0.417052,0.545293,-0.447461,-0.792916,0.413598
0.213407,-0.271805,-0.427661,-0.008835,0.248711,0.968538
-0.021487,0.760828,-0.192112,0.961937,0.209621,-0.175318
-0.032130,0.301115,0.617286,-0.150384,0.258066,0.954351
-0.410155,-0.287054,0.721315,0.011658,0.682115,0.731152
0.863413,-0.270618,-0.229511,-0.226996,-0.070522,-0.971339
-0.013090,-0.053874,0.798299,0.190462,0.456482,0.869108
0.802657,-0.437226,0.240752,-0.252333,-0.065774,-0.965403
0.011173,-0.235374,0.750955,0.911756,-0.305739,-0.274272
0.335249,-0.689747,0.096162,0.231488,0.385889,0.893030
-0.660320,-0.040881,0.244215,0.253665,-0.961640,-0.104416
-0.237339,0.034354,0.662695,-0.530105,0.785806,-0.318587
-0.289899,-0.518690,0.176289,0.346027,0.801375,0.487917
0.634469,-0.281120,0.708814,0.999442,-0.022531,0.024658
-0.753933,0.206123,0.013372,-0.035015,-0.370472,0.928183
-0.659063,0.552332,0.102360,-0.128605,-0.404233,0.905570
0.115826,-0.319153,0.736996,-0.473024,-0.217452,0.853793
-0.714532,0.096238,0.238248,-0.075553,0.914400,0.397698
-0.279518,-0.663581,-0.950791,0.289893,-0.253905,-0.922764
-0.481554,0.190993,0.827547,0.638705,0.768717,0.033619
-0.446053,0.553281,0.154570,0.462901,-0.016647,-0.886254
0.037022,0.404533,0.828488,-0.114507,0.746512,0.655445
0.443540,0.258218,0.269042,0.099264,-0.993791,-0.050251
0.045948,0.055476,0.609739,0.945743,-0.183032,-0.268459
-0.345763,0.381868,0.916198,0.812997,-0.008927,-0.582199
0.349596,-0.120446,0.774485,-0.329324,-0.787309,-0.521240
-0.064921,-0.668328,-0.034043,-0.051497,-0.164726,0.984994
-0.250827,0.458467,0.864698,0.571672,0.698057,-0.431170
-0.074111,-0.704699,0.482073,-0.727790,0.012839,-0.685679
-0.102143,-0.379257,-0.963719,0.046469,-0.006805,0.998897
0.036560,0.154622,0.705635,0.511239,0.855431,0.082906
0.120123,0.686662,0.516329,0.217411,0.149688,0.964534
-0.001257,-0.414916,0.635364,-0.324863,0.495293,0.805698
-0.074706,0.137000,0.401591,-0.424603,0.875532,-0.230556
0.463374,0.223626,0.289375,0.335823,0.870731,0.359236
-0.238068,0.129049,0.895189,0.832442,0.341586,0.436302
-0.069682,0.466714,0.447355,0.625693,0.661796,-0.412958
-0.583697,-0.287706,0.727034,0.536769,0.370949,0.757810
0.686169,-0.198647,0.796576,-0.056312,0.948686,0.311165
-0.104059,0.522962,0.311999,-0.608348,0.789603,0.080249
0.727158,-0.165777,0.764309,-0.297768,0.889955,0.345419
0.247653,0.278391,-0.438565,0.378419,-0.925336,-0.023498
-0.361629,0.329417,0.866580,0.826349,0.336276,-0.451737
0.074242,0.188145,0.493953,-0.149779,-0.919973,0.362237
-0.604918,0.191943,0.367104,0.104573,0.134606,0.985366
-0.663560,0.153079,-0.003197,-0.556417,-0.823221,-0.112722
-0.019173,-0.434200,0.490206,0.383579,-0.913842,0.133267
-0.711754,0.554883,0.731278,0.671055,-0.198724,0.714279
-0.694631,0.181085,0.643622,-0.049833,-0.566496,0.822556
-0.504363,-0.207607,0.696276,0.065419,0.697937,0.713165
-0.435673,-0.495194,-0.964199,-0.215270,0.174959,0.960754
-0.376636,0.564258,0.797748,-0.294152,-0.747958,0.595007
0.370819,0.233832,0.269042,0.407944,0.808449,-0.424254
0.020825,0.186959,-0.321518,0.444296,0.895684,0.018755
0.479109,-0.202741,0.649855,-0.266720,0.317447,0.909993
0.483009,0.476623,0.802010,0.999891,0.013962,0.004869
-0.123297,0.127210,0.578519,0.876278,0.415797,0.243412
-0.154369,-0.558799,-0.950507,-0.111599,0.330563,0.937163
0.030411,0.475436,0.806379,-0.491507,-0.821009,0.290458
0.033651,0.117242,-0.119941,-0.475947,0.875677,-0.081641
-0.258362,-0.131601,-0.973469,-0.173384,0.247242,0.953315
0.425162,-0.111250,0.358793,-0.202733,0.741547,0.639536
-0.019304,0.120446,0.782405,0.993687,0.062294,0.093305
-0.098505,-0.480479,-0.951661,-0.140422,0.210478,0.967461
0.090308,0.209980,0.525634,0.994574,0.104035,-0.000004
-0.893693,-0.122226,0.452807,0.047362,0.013570,0.998786
-0.585945,0.024683,0.178349,0.218884,0.934398,0.281052
0.089382,0.177584,0.323862,0.620323,-0.784049,-0.021611
0.785138,-0.181856,0.461455,-0.302817,-0.125120,0.944800
-0.326128,0.019936,0.650459,-0.291366,0.720805,0.628925
-0.031072,-0.648807,-0.939674,-0.170895,0.128300,0.976900
-0.030015,0.044559,0.868250,0.972613,0.212643,0.093848
-0.062607,-0.388691,0.750067,0.922738,-0.322103,-0.211669
0.192317,0.051204,0.905347,0.999675,-0.022984,-0.011004
0.602868,-0.072802,0.771767,0.482530,-0.299243,-0.823175
0.066375,-0.887386,-0.911687,0.237839,-0.379514,-0.894093
-0.353234,0.483980,0.816146,-0.583980,-0.768997,-0.260022
0.166799,0.124006,0.670899,-0.070382,-0.979533,0.188578
0.198532,0.739290,-0.549715,0.399749,0.372578,0.837488
0.435078,0.101697,0.566461,-0.427942,0.773097,0.468174
-0.299220,-0.454729,0.150415,-0.260025,0.649120,0.714864
0.475471,-0.213243,0.790680,0.836495,-0.299929,-0.458604
-0.225176,0.459653,0.811351,0.443985,-0.891691,-0.088114
0.183261,-0.029785,0.014011,0.776681,0.141040,0.613901
-0.121314,-0.666073,-0.942089,-0.188069,0.273618,0.943273
0.011569,-0.853151,-0.920566,-0.131863,0.433681,0.891366
0.298491,0.669218,0.770968,-0.481515,-0.601432,0.637514
-0.026973,0.123116,0.626982,-0.593923,0.803541,-0.039717
-0.255520,-0.319746,-0.960505,-0.080616,-0.245891,-0.965939
-0.112190,0.410348,0.805597,-0.383921,-0.839776,0.383902
-0.435475,0.000297,0.668289,0.908297,-0.077344,0.411113
-0.063402,-0.068530,0.807178,0.151205,0.528528,0.835341
-0.281966,0.310193,0.558647,-0.183009,0.605431,-0.774572
0.292608,0.124540,0.425263,0.188925,-0.667365,0.720368
0.007866,0.140382,0.874483,-0.030090,0.901501,0.431729
0.375181,-0.215379,0.469375,0.013182,0.960686,0.277322
-0.356208,0.060638,0.613131,0.676030,-0.705049,-0.214218
0.626933,-0.005459,0.641029,-0.610410,0.780872,0.132808
-0.734298,-0.392488,0.102218,-0.280603,-0.207344,0.937161
0.053814,-0.402575,0.625242,0.943727,0.322187,0.074671
0.037287,-0.091492,0.813447,-0.384468,0.564747,0.730236
0.205076,-0.164887,0.528760,0.119851,0.632787,0.764994
-0.296113,0.637534,0.859406,0.082957,-0.882361,0.463204
0.215788,0.181381,-0.082204,-0.093829,-0.990998,0.095493
-0.355877,0.803845,-0.269486,0.284462,0.046985,-0.957535
-0.387214,-0.016910,0.347072,0.012694,0.380532,0.924680
0.457225,-0.444524,0.555913,0.107314,0.325958,0.939274
-0.339416,-0.031387,0.870771,0.886436,-0.333806,-0.320632
-0.297765,-0.025157,0.571647,0.908501,0.191673,0.371331
-0.048922,0.115522,0.761627,0.984467,-0.174331,-0.020824
-0.753868,0.658538,0.162739,-0.707846,0.195217,0.678855
0.099893,-0.716744,0.277157,0.114274,0.548925,0.828023
0.552492,-0.080871,0.653638,-0.343749,-0.040334,0.938195
-0.624884,-0.017978,0.769388,0.974139,-0.124353,0.188649
-0.431904,-0.241604,0.608886,-0.814240,0.441960,0.376409
-0.078937,-0.770440,-0.204543,0.040659,-0.166761,0.985159
-0.269669,-0.103655,0.628261,-0.623407,-0.744048,0.240325
-0.343713,0.312923,0.045764,0.243724,-0.423552,0.872469
-0.221671,0.606800,-0.973806,-0.617522,0.025363,0.786145
-0.262395,-0.091017,0.824173,0.831206,0.026341,-0.555340
-0.093350,0.512638,0.648630,-0.474163,-0.329893,0.816297
0.206400,0.736086,0.807089,0.874528,0.379037,0.302541
-0.741307,0.726534,0.106072,-0.114701,0.094500,0.988895
-0.045948,0.443040,0.675037,0.821580,0.562386,0.093422
0.903807,-0.751098,-0.179361,-0.188865,0.458907,0.868179
-0.173211,-0.165421,-0.138907,-0.739829,0.379773,0.555361
-0.149941,-0.723448,-0.421214,-0.719481,0.284275,0.633668
0.040858,0.281714,0.437552,-0.441900,-0.250212,0.861463
-0.946119,-0.016969,0.704853,-0.100934,0.443367,0.890639
0.485983,-0.067165,-0.184316,-0.365299,-0.268502,0.891327
-0.011635,-0.089000,0.409423,0.053571,0.299454,0.952605
-0.610472,0.496855,0.654952,0.793021,0.203778,0.574101
0.842919,0.072564,0.169097,-0.043836,0.772905,0.633006
-0.624355,0.003382,0.207668,-0.303712,0.939620,0.157711
-0.159593,0.046280,0.938271,-0.676028,0.182628,-0.713886
-0.014016,-0.774178,0.334677,0.072904,0.542906,0.836623
-0.729803,0.509849,0.171902,0.256435,-0.291670,0.921504
0.215523,0.292512,-0.195379,0.296992,0.345239,-0.890284
-0.044162,0.466595,0.811120,-0.219832,0.951774,-0.214010
-0.152057,-0.153020,0.951626,0.768017,-0.623496,-0.146299
-0.229340,0.544203,0.322672,0.239268,-0.061726,-0.968990
-0.410155,-0.548475,-0.959298,-0.130200,0.071341,0.988918
0.052624,0.166963,0.413241,-0.539753,0.841733,-0.012323
-0.361100,0.676635,0.320825,0.070615,0.438329,0.896036
-0.238530,0.519817,0.604358,0.811782,-0.097389,-0.575782
0.084027,0.184704,0.505940,0.795320,0.565043,-0.219526
-0.404932,0.081405,0.805633,0.790251,-0.163669,0.590522
0.180616,0.167735,0.847472,-0.736547,0.572873,-0.359604
-0.111531,0.425596,0.185133,0.129962,-0.251909,0.958985
-0.325533,-0.520589,-0.164071,-0.418639,-0.080381,0.904589
-0.263652,0.211819,-0.976364,-0.201845,0.275530,0.939863
0.088589,0.579744,0.823871,-0.470688,0.869097,0.152065
0.464365,0.199537,0.803555,0.442867,-0.124041,0.887966
0.408039,0.207191,0.897249,-0.265974,-0.512130,0.816689
0.420071,-0.104604,0.314415,-0.640963,0.702436,0.309436
-0.383511,0.264804,-0.979755,0.856010,0.126473,0.501250
-0.531602,0.247063,0.694340,0.754978,0.642861,-0.129377
0.295517,-0.044737,-0.464350,0.953545,-0.198976,0.226187
-0.001455,0.245046,0.632629,0.284721,0.428606,0.857456
0.476859,-0.385072,0.806805,0.822510,0.326273,0.465858
0.219621,-0.372434,-0.159205,0.170794,-0.128375,0.976908
-0.184384,0.208556,0.510877,0.866059,-0.256846,0.428920
0.275683,0.247419,0.243363,0.183020,-0.982534,-0.033637
-0.282361,-0.381274,-0.150663,0.086095,-0.341031,0.936101
-0.720679,-0.042542,0.585942,0.885449,-0.253405,-0.389571
0.013288,0.044500,-0.579265,0.956175,0.237162,0.171710
-0.361695,0.608342,0.327769,0.295301,-0.120325,0.947797
-0.620586,0.663700,0.555859,-0.356012,-0.023817,0.934178
-0.354225,0.318856,0.337412,-0.377763,-0.431854,-0.819022
0.471174,0.482971,-0.171245,-0.400621,0.123784,0.907844
0.449556,-0.705886,0.426489,-0.378026,0.225739,0.897852
0.312243,0.284028,0.738648,0.885969,-0.175642,-0.429196
0.107497,-0.223567,0.730000,-0.712483,0.014631,0.701537
0.843976,0.076184,0.190389,0.051115,0.756482,0.652014
0.757768,0.068292,0.645132,0.325103,0.593323,0.736394
0.070475,0.265812,-0.896415,-0.827498,-0.556436,-0.075001
0.106638,-0.656995,-0.939621,-0.158671,0.141152,0.977190
-0.143462,0.699478,0.190140,-0.339894,-0.063357,0.938327
0.348670,-0.005043,0.215375,0.917991,-0.362686,-0.160470
-0.370621,0.883648,0.308785,-0.045875,0.223569,0.973608
-0.276478,-0.074344,0.960771,-0.207733,-0.378685,0.901911
-0.004231,-0.520885,-0.010158,-0.147236,-0.094437,0.984583
0.190996,-0.052925,0.104882,-0.267812,0.072967,0.960704
-0.486183,0.413433,0.074461,-0.345711,-0.934609,0.083606
0.956895,-0.203275,0.406421,0.254681,-0.290111,-0.922482
0.479969,-0.687789,0.287120,-0.109951,0.408339,0.906184
0.520493,-0.079981,0.743301,-0.281274,0.318374,0.905275
-0.082044,0.162335,0.886381,0.626172,-0.776635,-0.068896
-0.673543,0.419900,0.678304,0.719484,-0.130049,0.682224
0.688417,-0.080752,0.468914,0.830440,-0.122564,-0.543458
0.228216,-0.956034,-0.452292,-0.388000,-0.592934,0.705610
0.363084,-0.096357,0.780771,-0.329324,-0.787309,-0.521240
0.058773,0.228254,-0.059935,-0.433514,-0.053040,-0.899585
0.109017,-0.159191,0.017794,-0.572182,0.113753,-0.812200
0.412203,0.324137,0.231021,-0.139801,0.968976,0.203818
0.307219,-0.035659,0.707038,-0.351613,0.696843,0.625122
0.036758,0.529726,0.817176,0.921130,-0.375238,-0.103519
-0.552096,-0.144476,0.027401,-0.061441,0.832932,0.549954
0.024990,0.639255,-0.030793,-0.578789,0.667110,0.469006
-0.187294,-0.013172,0.818579,-0.307391,0.889220,-0.338819
-0.316541,0.539872,0.318233,0.321018,-0.050385,0.945732
0.336968,0.182034,0.488714,-0.188794,0.971295,-0.144719
-0.287585,-0.093509,0.827867,0.174025,0.507315,-0.844007
-0.174270,-0.224398,-0.139387,-0.390572,0.059864,0.918624
-0.082772,-0.417883,-0.960203,-0.076955,0.142977,0.986730
0.048062,0.172244,-0.269166,0.176989,0.977928,0.111050
0.083565,-0.245224,0.531122,-0.145045,0.468547,0.871450
-0.849728,0.545568,0.126796,0.750365,-0.600113,-0.277158
0.502115,0.179898,0.854132,0.808198,0.307867,-0.502030
-0.756908,0.489379,0.723748,0.576586,-0.337388,0.744123
0.068492,0.104901,0.435457,0.134118,0.989573,0.052505
-0.241703,0.229322,0.786862,-0.052352,0.870792,0.488857
0.346158,0.138424,0.191384,0.756420,0.197018,-0.623709
-0.061814,0.526819,0.824635,-0.056834,0.229412,-0.971669
-0.469126,-0.121514,0.467742,-0.602918,-0.293667,-0.741788
-0.795981,0.213718,0.784305,-0.780987,-0.045589,-0.622881
-0.130239,0.498101,0.185310,-0.012186,-0.113972,0.993409
0.223521,0.024801,-0.215944,-0.632074,-0.176920,0.754442
-0.587664,-0.336715,0.739323,0.431118,0.801983,0.413474
0.677243,-0.028777,-0.628900,0.165373,0.972438,-0.164364
0.562739,-0.191527,0.413472,-0.201163,0.638559,0.742816
-0.765965,0.811083,0.372325,0.166941,0.651969,0.739640
0.416236,-0.016673,0.294809,0.960518,-0.080986,-0.266170
0.996562,-0.082888,-0.553924,-0.530965,-0.780110,0.330915
-0.225573,0.294411,-0.975724,0.810367,-0.008972,-0.585854
-0.051171,0.202326,0.919145,-0.441026,0.662564,-0.605396
-0.363150,0.608402,0.834047,0.638538,0.737225,0.220838
0.471374,-0.841818,0.297775,0.145664,-0.387235,-0.910402
-0.634405,0.719888,0.681643,-0.339441,-0.410387,0.846382
0.407444,0.312389,-0.514802,0.976239,-0.216290,0.013288
0.421129,-0.589890,0.590293,-0.250853,-0.797504,-0.548689
0.016792,-0.406966,0.600238,0.270299,0.652485,-0.707956
-0.620255,0.347039,0.057467,-0.054847,0.625057,-0.778650
0.746000,-0.077548,0.653815,-0.330147,-0.766276,-0.551203
0.038543,0.125193,0.118272,0.799350,0.600865,0.001243
-0.393163,-0.107571,-0.976825,-0.219109,0.254286,0.941982
-0.503503,0.584846,-0.299355,0.349874,-0.056410,-0.935097
0.348142,0.249674,0.263448,0.430825,0.740674,-0.515550
0.201243,-0.817847,0.142139,-0.318490,-0.619906,-0.717133
-0.583300,0.390234,0.363357,-0.393635,0.355710,-0.847657
-0.789436,-0.333274,0.010886,-0.463796,0.264548,0.845522
-0.653047,0.744274,0.349807,-0.562572,-0.015952,-0.826594
-0.211688,0.462086,-0.966650,0.385488,-0.275025,-0.880772
-0.365331,0.355346,0.053826,0.209669,-0.346214,0.914426
-0.658006,0.307167,0.768979,0.903745,-0.377009,0.202754
-0.604258,0.442388,0.569711,0.145378,-0.901562,-0.407494
0.560358,0.313575,0.872902,0.391780,-0.918265,-0.057426
-0.320971,-0.014715,-0.978388,-0.295887,-0.196801,-0.934730
-0.037882,0.330901,0.873435,0.148854,0.313946,0.937699
0.416633,-0.569538,0.411483,-0.285838,0.073873,0.955426
-0.264314,0.572564,0.877164,-0.597047,0.042143,0.801099
-0.879875,-0.033939,0.454849,0.043546,-0.020589,0.998839
-0.282230,0.145425,0.775923,0.965131,-0.020928,0.260929
-0.270595,-0.698351,-0.947169,-0.246583,0.198483,0.948579
-0.452730,0.669811,0.596615,-0.040516,-0.166893,0.985142
0.550970,-0.539160,0.451049,0.833155,-0.015281,-0.552828
-0.133810,-0.016969,0.413170,0.792952,-0.485135,0.368607
-0.311583,0.607393,0.861253,-0.354116,0.753634,-0.553748
-0.202500,0.346446,-0.253858,0.660741,0.589752,-0.464342
-0.596918,0.494363,0.150450,0.187171,0.147077,0.971255
0.441690,0.361101,-0.563655,-0.759736,0.635105,0.139441
-0.445856,-0.197639,0.598427,-0.374532,0.536807,0.756018
-0.563267,0.382283,0.529843,-0.110142,-0.222554,0.968679
-0.128389,0.701555,0.469216,0.995215,-0.061108,-0.076238
0.483538,0.131423,0.868622,0.846373,0.456288,0.274688
0.092622,0.195799,0.563851,0.982630,0.175043,0.061630
-0.313038,-0.106384,0.833425,0.616030,0.772916,-0.152013
0.245537,0.306218,0.755998,0.769935,0.637817,0.019761
0.460796,-0.340335,0.809842,0.851232,0.313605,0.420780
0.055136,-0.161445,0.865959,-0.508130,0.827444,-0.239039
