0.046654,0.053904,0.935130,0.518761,0.596311,-0.612617
-0.058986,-0.217935,0.672910,-0.035279,0.974105,-0.223326
-0.156384,-0.324619,-0.001697,-0.253802,0.932391,-0.257353
0.308245,-0.932860,0.816206,0.354697,-0.705463,0.613605
0.686426,0.526975,0.713911,-0.245298,-0.756246,0.606564
0.675993,0.644529,0.812729,0.939869,-0.193430,-0.281480
-0.052187,-0.347577,-0.005476,0.506521,0.852419,0.129685
0.074548,-0.354745,0.076494,-0.869165,0.040250,0.492881
0.591160,-0.117811,0.887543,-0.146565,0.744767,0.651030
0.171253,-0.008457,0.676739,-0.326614,0.829609,-0.452848
-0.922427,-0.295664,0.773289,-0.116291,-0.867133,0.484310
0.041929,-0.420058,-0.352017,0.718984,0.641338,-0.267856
-0.492319,0.265022,0.889945,-0.141152,0.970515,0.195391
-0.824396,-0.575093,0.832751,0.893295,0.153283,0.422526
0.107339,0.530630,0.864128,0.776511,-0.275378,0.566743
0.432788,-0.399677,0.869470,-0.515407,-0.844911,0.143111
-0.005677,0.096493,0.899654,-0.078860,0.834862,0.544781
-0.202777,0.896502,0.691118,-0.216357,0.968874,0.120304
-0.293489,-0.231757,0.924245,-0.366737,0.743666,-0.558986
0.346857,0.069037,0.718127,-0.248974,0.916550,-0.312966
0.369335,0.186684,0.951456,-0.669097,0.703850,-0.238546
-0.005618,0.581231,0.428159,-0.440441,0.721039,-0.534896
-0.495893,0.295289,0.846290,0.981854,-0.134626,0.133563
-0.434571,0.359805,0.367823,0.875665,-0.142185,0.461513
0.157999,-0.557383,-0.460006,-0.090116,0.223464,0.970537
-0.495316,-0.069834,0.566046,0.657553,-0.220763,0.720338
-0.177075,-0.274440,0.108358,0.892422,-0.399503,-0.209715
-0.078006,-0.226462,0.674102,0.038149,-0.959033,0.280715
0.665964,0.303722,0.917123,-0.229129,-0.937561,0.261685
-0.465174,0.502940,0.429603,0.887517,0.303861,0.346384
0.073567,0.228524,0.775204,0.184051,-0.034439,0.982313
-0.095062,-0.195259,0.732976,-0.753335,-0.656627,0.036431
-0.171253,-0.311313,-0.987335,-0.127518,0.514798,0.847775
0.586492,0.557570,0.730994,0.112846,0.993580,0.007980
0.413308,-0.378593,0.914503,0.880064,0.473021,0.041696
0.197592,0.031696,0.686129,0.694682,-0.644864,0.318695
0.398956,0.552557,0.892834,-0.652654,-0.689884,-0.313214
0.296602,0.070021,0.872040,0.774311,-0.182480,-0.605924
0.624355,0.545248,0.763295,0.709493,0.516414,-0.479517
0.339713,0.220934,0.933383,0.954647,-0.291610,0.060111
0.235973,-0.125823,0.882101,-0.304220,0.887658,-0.345706
0.215458,0.211844,0.894598,0.894408,0.389846,0.219211
0.630581,0.366974,0.853160,0.925792,-0.193385,0.324825
-0.095639,-0.609905,0.875651,-0.340738,0.922720,0.180240
0.293893,-0.741608,0.868613,0.935352,0.297331,-0.191602
-0.000489,-0.338956,-0.980969,0.439898,0.289293,0.850176
0.432844,-0.389791,0.930107,-0.738624,0.655764,0.156232
-0.007116,0.693209,0.828367,0.798731,0.149715,-0.582764
-0.194019,-0.322370,0.008046,0.025368,-0.875391,0.482749
-0.570410,0.598379,0.642053,-0.297070,0.940095,-0.167243
-0.096100,-0.164242,0.873081,-0.249422,-0.689132,-0.680357
-0.023772,-0.075737,0.373669,0.737512,-0.543380,0.401015
-0.114543,-0.421885,0.862566,0.204730,-0.531633,0.821859
0.519352,-0.331084,-0.488830,0.200561,0.299122,0.932900
0.348415,0.164148,0.930829,-0.302790,0.920414,-0.247296
-0.741117,0.087591,0.782964,0.730179,0.146496,0.667366
-0.342995,-0.314827,0.891037,-0.592788,-0.574814,0.564084
-0.346973,-0.187340,0.859794,0.959196,0.233402,-0.159585
-0.486959,0.176471,0.757298,0.976772,-0.156275,0.146612
-0.517044,0.131539,0.820758,0.628880,0.179719,-0.756447
-0.543901,0.909059,0.732069,0.601141,0.725220,0.335686
0.255108,0.146391,0.944435,0.962703,0.010341,-0.270361
-0.106762,-0.327664,0.416098,0.594907,0.795144,0.117608
0.324440,0.250076,0.564451,-0.381437,0.907042,-0.178268
0.069131,-0.611263,0.733211,0.964309,0.144608,-0.221802
0.683084,0.370160,0.852689,-0.023014,-0.467247,0.883827
0.238509,-0.365896,0.684886,0.953456,-0.025734,-0.300433
0.306574,0.507672,0.864884,0.995467,0.036590,-0.087782
-0.108032,0.648792,0.813854,0.384817,-0.835255,0.392764
-0.805953,-0.003725,0.381547,0.157916,0.076520,0.984483
-0.071203,0.347342,0.335455,-0.282184,-0.675473,0.681255
-0.547703,-0.545716,0.080895,0.946533,-0.266462,0.181861
-0.708727,0.540938,0.500151,-0.048756,-0.983419,0.174672
-0.057372,-0.330944,-0.419995,-0.563716,-0.816507,-0.124663
-0.639512,0.189215,0.824722,0.200767,0.924595,0.323755
-0.100712,-0.228055,0.239863,0.461580,-0.875995,0.139917
-0.642854,0.563473,0.709595,0.834880,-0.535716,-0.126429
-0.820994,-0.407548,0.883596,0.566450,-0.670356,-0.479329
-0.139845,-0.423525,0.892398,0.555757,-0.247898,-0.793524
-0.651384,0.604001,0.724729,0.963339,-0.267414,0.021649
0.005333,0.587837,0.429452,-0.477546,0.730423,-0.488296
-0.096332,-0.554946,-0.974720,0.127886,0.131342,0.983054
0.145779,0.443578,0.844425,-0.425978,0.028224,0.904293
-0.369162,0.566800,0.658985,-0.661449,0.175669,0.729127
-0.860127,-0.404456,0.829812,0.001122,-0.854395,0.519623
0.191366,-0.136880,0.584876,-0.711446,0.682624,-0.166938
0.162434,0.512639,0.671902,0.314925,-0.159237,0.935663
-0.817536,-0.187903,0.373786,0.338895,-0.202127,0.918855
-0.066823,-0.451402,0.896345,-0.247769,0.963138,-0.104767
0.114082,0.445733,0.765159,-0.356659,0.813950,-0.458562
-0.043829,-0.457727,0.889895,0.597759,0.415069,-0.685859
-0.615652,0.029869,0.769795,-0.391408,0.028285,-0.919782
-0.551794,0.929065,0.661269,0.199312,-0.967356,0.156516
0.246694,-0.419777,0.681241,0.951961,-0.032375,-0.304504
-0.404028,-0.117764,0.986310,0.832376,0.476178,-0.283556
0.070745,0.165601,0.570262,-0.375549,0.826675,-0.419013
-0.115696,-0.322885,-0.207999,0.971386,-0.139222,-0.192421
-0.847562,-0.403847,0.903853,-0.289231,0.917701,-0.272341
-0.132753,-0.249842,0.911462,-0.228413,-0.459364,0.858378
-0.519637,-0.032071,0.579954,0.725886,-0.175051,0.665167
-0.527245,0.139316,0.894027,0.884344,-0.461341,0.071413
0.408524,-0.392415,0.821497,-0.209001,-0.975466,0.069177
-0.536120,0.253215,0.774146,0.422893,0.376495,-0.824265
0.314756,0.462740,0.909715,-0.802650,0.529832,-0.273917
-0.689307,0.167287,0.540162,0.106673,-0.930780,0.349671
-0.541942,-0.277157,0.863204,-0.669085,-0.420123,0.613044
0.214537,-0.499379,-0.457537,-0.277361,0.382187,0.881478
-0.396363,-0.424977,0.888921,0.393067,0.718008,0.574424
0.585222,-0.152013,0.878389,-0.274459,0.886833,0.371753
0.053108,0.764378,0.538281,0.916333,0.325468,-0.233246
-0.176842,-0.326399,0.045688,-0.452812,-0.888491,0.074461
-0.114198,-0.624382,-0.971495,0.129246,0.207262,0.969710
-0.310894,-0.260712,0.907095,-0.561540,-0.682689,-0.467555
-0.013631,0.326446,0.834481,-0.769623,0.211621,0.602409
-0.096332,-0.328976,-0.946367,0.865256,0.434845,0.249484
-0.081347,0.696863,0.755199,0.854296,-0.142194,-0.499959
0.170043,-0.657929,0.671179,-0.688237,0.395573,0.608155
0.368357,-0.755663,0.779991,0.890148,-0.451951,-0.058111
-0.157017,-0.319371,0.432929,-0.327712,-0.934909,-0.136202
-0.171942,-0.320496,0.043051,0.456874,0.888798,-0.036118
0.315044,-0.282264,-0.480163,0.022789,0.165271,0.985985
0.533011,0.621196,0.811184,-0.204381,-0.595538,-0.776893
-0.110740,-0.383278,-0.795663,-0.666669,-0.666233,0.334196
-0.351697,-0.283435,0.912403,-0.178482,0.976768,0.118614
-0.632597,-0.162462,0.848104,0.818559,0.245841,0.519157
-0.004179,0.726381,0.819666,0.837758,0.431997,-0.333977
-0.048729,-0.200693,0.321161,0.789745,-0.597946,-0.136976
0.145895,-0.723007,0.839151,-0.285367,0.933654,0.216461
-0.249976,-0.401082,-0.976652,-0.190384,0.054157,0.980215
0.379191,-0.363975,0.928831,-0.408487,0.673282,0.616303
-0.349509,-0.209736,0.948970,0.917469,0.394280,-0.052858
-0.439587,0.014688,0.407229,-0.670018,0.471922,-0.573033
-0.453763,-0.679903,0.842829,0.784037,-0.593741,0.180989
-0.188426,0.471455,0.786760,0.631797,0.388614,-0.670680
-0.280984,-0.388526,0.869117,0.673615,-0.601148,-0.429957
0.035647,-0.207206,0.362700,0.915102,0.104196,-0.389528
0.560616,0.630379,0.788709,-0.693483,-0.369995,-0.618211
0.420916,-0.414576,0.830131,-0.314859,0.947127,0.061765
0.065902,-0.486729,0.766789,0.154043,-0.955814,0.250381
0.012016,-0.418558,0.581920,0.060775,0.629370,0.774726
0.612483,0.682620,0.748631,0.922665,0.349669,0.162542
-0.086993,-0.352262,0.444217,-0.428676,-0.902551,0.040485
0.169754,-0.250170,0.696997,0.614693,0.674816,-0.408381
0.193962,-0.117202,0.599624,0.367765,-0.917961,0.148651
0.556870,0.194837,0.775910,-0.855300,0.091384,0.510010
-0.402818,-0.125120,0.941227,-0.026671,-0.859968,0.509651
0.023832,-0.095275,0.326150,0.828233,-0.425945,0.364143
-0.762096,0.008551,0.859123,0.811907,0.480423,0.331663
0.059679,0.043503,0.488343,-0.864345,0.321122,0.387025
0.001470,-0.392461,0.855326,0.761017,0.564370,0.319905
0.256836,0.253965,0.939245,0.765184,-0.266748,0.585951
-0.009364,-0.410640,0.878977,-0.172418,0.985001,-0.006744
0.268823,0.642702,0.824101,0.616163,0.483868,-0.621462
-0.122207,-0.087029,0.426429,-0.378319,0.704496,-0.600467
-0.418032,0.439548,0.386435,0.877590,-0.209582,0.431175
-0.369275,0.304941,0.315887,0.755811,-0.248443,0.605827
0.831944,0.100804,0.837639,-0.013649,-0.978272,0.206877
-0.105840,-0.047485,0.913915,-0.678387,-0.552494,0.484294
0.001643,-0.112892,0.327242,0.828233,-0.425945,0.364143
0.257300,0.109799,0.954329,-0.264598,0.615627,-0.742288
-0.502693,0.247640,0.772315,0.428591,0.295054,-0.853963
0.304671,0.461335,0.838697,-0.686327,0.384641,0.617257
0.165952,0.659288,0.831558,-0.592454,0.259049,-0.762818
-0.188774,-0.573969,0.926714,0.914397,-0.341721,0.217037
-0.273836,-0.565910,-0.970370,-0.114964,0.341551,0.932806
0.283579,0.399958,0.856435,0.003212,0.800206,0.599716
-0.522289,0.114578,0.880404,0.920325,0.337915,-0.197017
0.041870,0.602736,0.764000,0.016807,-0.944975,0.326710
-0.337173,-0.360836,0.841654,0.339036,-0.887868,-0.311038
0.076219,-0.138239,0.919811,0.248491,0.817015,-0.520326
-0.471801,0.159604,0.886132,0.935122,-0.081234,0.344889
0.472494,0.299740,0.872963,-0.685918,0.451922,-0.570336
-0.578306,-0.208986,0.905231,0.280167,-0.878504,-0.386960
0.374175,-0.479935,0.881698,0.791483,-0.608307,-0.059303
-0.130854,-0.317216,0.373501,-0.728051,-0.662839,-0.174889
-0.346396,0.634081,0.747959,0.730993,-0.036916,-0.681385
-0.281789,-0.532223,0.595760,-0.955956,-0.026434,-0.292319
-0.211768,-0.590039,-0.961350,0.259060,0.344605,0.902295
0.151773,-0.128962,0.764303,0.627372,0.113429,-0.770414
-0.693342,0.004849,0.854570,-0.617143,0.785269,0.049858
0.217418,0.683744,0.822606,-0.113211,0.831033,-0.544581
0.741465,0.297116,0.843232,-0.050427,0.704512,0.707899
0.547475,0.033336,0.729818,0.594107,0.568157,-0.569416
-0.175977,0.334036,0.742735,0.875685,0.480259,0.050273
0.477855,0.356900,0.904794,-0.651662,-0.608863,-0.452352
-0.469670,-0.046126,0.847818,-0.077236,-0.912269,0.402244
-0.570469,0.065945,0.891659,0.992484,-0.016667,0.121235
-0.185833,-0.309111,0.491585,0.792318,-0.575420,0.202793
0.529665,-0.116359,0.863087,-0.685067,-0.403352,-0.606622
-0.016395,0.021201,0.435449,-0.304404,-0.660042,0.686792
-0.613749,0.145782,0.794823,0.387383,0.914964,-0.113024
-0.530415,0.188746,0.858955,0.775669,-0.111841,0.621151
0.131026,0.484058,0.808580,-0.056906,-0.001185,0.998379
-0.125032,0.013189,0.903333,0.651386,-0.603304,-0.460132
-0.633462,-0.311641,0.898781,0.914868,-0.243727,0.321891
-0.546898,0.223511,0.897050,-0.085543,0.857327,0.507614
-0.679912,-0.741420,0.833608,0.412687,0.898243,-0.151159
-0.424659,0.934781,0.679427,0.370535,0.900474,-0.227707
-0.003370,-0.095181,0.357661,0.908092,-0.402275,0.116377
0.519640,-0.218310,0.871939,0.044674,0.998847,-0.017578
-0.087398,0.090964,0.767259,0.232220,-0.667600,0.707378
-0.140017,-0.309720,0.371620,0.715542,0.641805,0.275838
0.332277,0.672687,0.832482,-0.477849,0.224986,-0.849142
-0.554447,0.902687,0.748782,0.560876,0.773957,0.293954
0.057259,-0.056528,0.746515,0.632496,0.676323,-0.377539
-0.123590,-0.322791,0.416787,0.627446,0.770724,-0.110883
0.510938,-0.453042,0.824688,0.902244,-0.355057,-0.244726
0.188197,0.029447,0.709897,0.016840,-0.926287,0.376441
-0.375096,-0.099257,0.966557,0.712096,0.702056,0.005999
0.252745,-0.127884,0.875600,0.736593,-0.604863,0.302609
-0.185084,0.422166,0.559008,0.596171,-0.543681,0.590755
0.023715,0.328742,0.847650,0.909142,-0.116374,-0.399898
-0.126010,-0.513341,-0.979004,0.038448,0.098525,0.994392
-0.147449,-0.256682,-0.140038,0.865154,0.494483,-0.083636
-0.263234,0.250404,0.773020,0.887384,0.460809,-0.014324
0.357406,-0.328320,0.908019,-0.416641,0.564145,-0.712847
0.550472,0.308548,0.861340,0.382196,0.924077,0.002615
0.339541,-0.913744,0.834800,0.996453,0.058598,0.060394
-0.379708,-0.411624,0.806967,0.770594,-0.601647,0.210253
-0.192172,-0.050671,0.436792,0.345129,-0.640605,0.685939
-0.107395,-0.314124,-0.463752,0.387644,0.846618,0.364651
0.465290,0.249982,0.843300,0.968692,0.195730,-0.152728
0.065673,0.315436,0.874996,0.920644,-0.312544,-0.233944
-0.377288,0.528147,0.640189,0.559074,0.411022,0.720068
0.279833,-0.151358,0.896513,0.770891,0.621710,-0.138576
0.075874,0.070068,0.503443,0.936127,0.339526,0.091583
-0.002737,0.040926,0.771223,0.824097,0.315500,0.470451
0.497853,0.282123,0.885393,0.601045,0.798280,-0.038662
-0.191022,-0.060604,0.960426,0.132673,-0.899167,-0.417009
0.101521,-0.558695,0.812796,0.421445,-0.170760,0.890632
0.099157,0.497786,0.800148,-0.011972,0.506118,0.862381
-0.559463,-0.166913,0.837320,0.609418,0.326072,0.722694
-0.036220,0.419167,0.359694,-0.752900,-0.410264,0.514612
-0.353945,-0.632394,0.850388,0.587947,0.542914,-0.599635
0.637725,-0.117483,0.884251,-0.644192,0.764855,-0.003696
0.452036,-0.379155,0.970571,0.149405,0.986863,0.061472
-0.210442,0.308314,0.799829,0.569611,0.547187,-0.613294
0.388182,0.225713,0.922884,0.770880,0.321650,-0.549805
0.646083,0.247780,0.836782,0.967259,-0.251127,0.036684
0.260008,0.598426,0.883495,0.377882,0.907494,-0.183468
0.413308,-0.407079,0.938472,-0.561949,0.643551,-0.519668
0.006715,-0.503081,0.633184,0.597046,0.797749,0.084448
-0.724922,0.099773,0.782360,-0.577723,-0.094031,-0.810799
0.665504,0.292337,0.859055,-0.355424,0.933990,-0.036554
0.695245,-0.322557,0.703161,0.594439,0.803857,0.021339
0.398034,-0.016562,0.662143,-0.753370,-0.436973,0.491415
-0.658644,0.534519,0.627037,-0.044129,-0.973355,0.225018
0.800824,0.068335,0.930342,-0.321869,-0.783385,0.531703
0.246117,0.378171,0.769795,0.288768,0.924630,-0.248337
-0.293721,-0.356291,0.704135,0.933544,0.302880,0.191728
-0.540443,-0.021107,0.894396,-0.022936,-0.243839,0.969544
-0.444832,0.950149,0.789683,-0.402990,0.897690,0.178188
-0.010862,-0.255839,0.635670,-0.187495,0.949121,-0.253013
0.453591,-0.237894,0.629506,-0.739133,0.241939,0.628608
-0.500216,0.240237,0.870377,0.898169,-0.428507,-0.098356
0.619515,0.077658,0.764773,0.744944,0.350828,-0.567431
-0.467366,-0.181015,0.846088,0.233982,-0.730384,0.641709
-0.349566,-0.003631,0.894833,0.481800,0.876237,0.008811
0.375445,0.137255,0.918987,0.016839,-0.693592,0.720171
-0.367548,-0.631363,0.659707,0.974375,-0.199734,0.103441
-0.691611,0.301708,0.334263,0.744171,-0.352912,0.567153
0.522461,-0.416356,0.797494,-0.716747,-0.358104,0.598360
0.105091,-0.719493,0.845013,-0.725672,0.626820,0.283720
-0.040311,-0.207862,0.338882,0.999442,0.016843,-0.028861
-0.377576,0.892286,0.722428,0.163247,-0.986568,-0.005907
0.478144,-0.501862,0.847146,0.842703,0.029671,-0.537561
0.144168,-0.008551,0.921423,0.989172,-0.047440,0.138881
0.381034,0.507063,0.769258,-0.297468,-0.518072,0.801944
0.395959,0.001851,0.657977,-0.851734,-0.314361,0.419198
-0.136499,-0.287137,0.313989,0.486240,-0.871638,-0.061794
-0.671441,0.553494,0.716246,0.152946,-0.983491,0.096712
-0.168140,-0.333521,-0.958461,0.369125,-0.927340,-0.061547
-0.098809,-0.371331,-0.427050,0.510617,0.859283,-0.030067
0.264732,-0.701502,0.859206,0.618946,0.353747,-0.701262
0.287210,-0.904093,0.870461,0.157764,-0.547550,0.821766
0.096216,0.616980,0.746582,0.959809,-0.277993,0.038569
0.823070,0.078923,0.872359,0.018231,0.509796,0.860102
-0.723828,-0.659709,0.823630,0.865713,0.497615,0.054043
-0.518370,0.552370,0.534031,0.109071,-0.882387,0.457707
-0.140362,0.579216,0.797242,-0.130792,-0.784112,0.606680
-0.053397,-0.529646,0.832281,0.937002,0.328646,-0.118403
-0.468520,0.500410,0.430729,0.918201,0.320691,0.232519
0.420916,0.297819,0.907062,-0.021328,0.020712,0.999558
-0.006138,0.506454,0.670558,0.999837,-0.015665,0.008926
0.078294,-0.626116,0.862734,0.775033,0.611269,-0.160234
0.149064,-0.240331,0.680905,0.671918,0.662627,-0.330835
0.581824,0.120622,0.888249,-0.947331,-0.040618,0.317669
-0.054547,0.343126,0.722595,0.896248,-0.442289,0.033468
-0.313314,0.318013,0.327426,0.335162,-0.802813,0.493110
-0.173905,-0.335817,-0.709880,0.977621,0.049913,0.204368
-0.128778,-0.371003,-0.381043,0.905170,0.037896,-0.423357
0.400110,-0.019795,0.652266,-0.424877,-0.699992,0.574013
0.094834,-0.005786,0.830231,0.954320,-0.296084,0.040106
-0.047230,-0.395085,-0.894279,0.754164,0.618743,-0.219984
-0.353829,-0.605360,0.803625,0.905308,0.412525,-0.101196
-0.183818,-0.604048,0.951154,0.058728,-0.882989,0.465706
-0.106533,-0.302785,-0.411916,0.544090,-0.469560,0.695327
0.442817,-0.516902,0.797208,0.894644,0.444839,-0.041602
-0.138459,-0.285731,0.219135,0.082158,-0.922725,0.376601
-0.355155,-0.444140,0.888030,-0.202196,-0.734522,-0.647761
0.299486,0.271394,0.920835,-0.199078,0.953197,-0.227561
-0.158632,0.588212,0.756929,-0.398061,-0.828977,-0.392867
-0.004696,0.496287,0.714919,0.853344,-0.413436,0.317608
0.045848,-0.548528,0.887459,0.166789,0.985858,0.016309
-0.206235,-0.113641,-0.023835,-0.662365,-0.742885,0.096920
-0.370140,-0.142221,0.907364,0.183485,-0.948993,0.256408
-0.449440,-0.121700,0.579702,-0.671783,0.355588,-0.649819
-0.827854,-0.662333,0.728038,-0.235912,-0.955058,0.179471
-0.032246,0.065570,0.448819,-0.716020,-0.542913,0.438817
-0.026079,-0.050109,0.885292,0.869261,-0.379964,-0.316249
0.082846,0.089184,0.519367,-0.000412,-0.819671,0.572834
-0.207790,0.494834,0.627625,0.851341,0.435431,-0.292605
-0.102727,-0.262492,-0.120083,0.924625,0.377299,-0.052102
-0.739847,0.479186,0.682316,0.529229,0.440034,0.725456
-0.125665,-0.115187,0.999479,0.904135,-0.316189,0.287339
-0.039161,-0.336800,-0.082575,0.587205,0.809406,-0.007284
-0.238048,-0.536205,-0.973545,0.080171,0.221990,0.971747
-0.029421,0.128353,0.907599,0.861604,-0.441233,-0.250904
-0.280002,-0.263101,0.652132,-0.670963,-0.741254,0.018733
0.200013,0.155574,0.780226,-0.659896,-0.544927,0.517294
-0.103476,-0.127369,0.407935,-0.557409,0.667489,-0.493713
-0.615881,0.621149,0.725081,0.880941,-0.236234,0.410045
0.257933,-0.553119,0.885091,0.031993,-0.770473,0.636670
-0.617668,-0.181905,0.862163,0.944923,0.310901,0.102280
-0.795580,-0.378780,0.875097,0.212605,0.925510,0.313418
0.240296,-0.403706,0.664494,0.953666,0.033739,-0.298971
-0.052588,-0.358868,0.509037,0.938768,0.125796,-0.320765
-0.085322,-0.075316,0.916384,0.283408,0.898881,-0.334205
-0.301329,0.053623,0.220849,0.956568,-0.270529,0.108587
0.579115,0.778762,0.768132,0.989118,0.145913,0.018826
0.062792,-0.420104,0.826502,-0.467921,-0.882630,0.044872
-0.361494,0.304566,0.327074,-0.489201,0.618636,-0.614794
0.144744,0.219997,0.610592,0.706724,0.593821,-0.384601
-0.855287,-0.604235,0.787903,0.937957,0.233257,0.256571
0.425063,-0.383747,0.773793,0.819489,0.066179,-0.569262
0.089417,-0.407595,0.575436,-0.445791,0.830467,0.334058
0.093219,-0.415513,0.583549,-0.459992,0.839047,0.290530
0.581247,0.041394,0.872762,0.812631,0.563840,-0.147362
0.409561,0.462881,0.834498,0.389298,0.801295,-0.454284
-0.509207,-0.602221,-0.041707,0.877611,-0.307499,0.367754
-0.294125,-0.529927,0.585850,-0.910120,-0.233961,-0.341971
0.288765,-0.467754,0.866261,-0.571068,0.762187,0.304880
0.512261,0.626022,0.710502,0.995306,-0.079146,-0.055694
0.530531,-0.205285,0.869033,0.908677,-0.376723,-0.179959
-0.726305,0.177782,0.534871,0.001429,-0.943817,0.330466
0.258221,0.204207,0.837169,0.636965,0.418151,-0.647631
-0.146700,-0.394289,0.108291,0.893296,0.401898,-0.201248
-0.327321,-0.236536,0.691890,0.720313,-0.688796,0.081910
-0.745729,0.127838,0.854722,-0.631177,0.775592,0.008525
-0.510762,0.128634,0.703296,0.966148,0.181887,-0.182964
0.016395,0.497927,0.718480,0.790250,-0.493797,0.362863
0.298505,0.534706,0.848204,0.961407,0.275125,-0.001414
0.240757,-0.435050,0.939598,-0.460487,-0.887659,-0.003687
0.657090,-0.200459,0.859996,-0.314770,0.360386,0.878090
0.127051,-0.489212,0.870393,0.143402,0.937686,0.316513
0.294069,-0.888397,0.840192,0.978360,-0.166362,0.123029
0.047980,0.246234,0.597020,0.752238,-0.211684,0.623962
0.105439,-0.094104,0.739611,0.754081,0.498664,-0.427429
-0.868657,0.398271,0.708519,-0.764738,0.484627,-0.424631
0.505405,0.428257,0.836732,-0.222731,-0.429715,0.875063
-0.166986,-0.283716,0.014546,0.340856,-0.858174,0.383868
-0.377115,0.131820,0.839806,-0.167458,0.580061,0.797174
0.111317,0.531848,0.889794,0.672490,-0.186774,0.716151
0.655478,0.258931,0.885729,0.575212,0.286818,0.766072
0.638707,0.296788,0.889559,-0.604910,0.791308,0.088966
0.778636,0.115703,0.830164,-0.154218,-0.735527,0.659710
-0.350547,0.313046,0.314996,0.618815,-0.391754,0.680880
-0.629828,0.035303,0.860214,-0.324716,0.249375,0.912344
0.284730,-0.954881,0.809201,0.957846,-0.185319,0.219516
-0.616518,0.138614,0.806699,0.498585,0.842690,0.203191
-0.325418,0.690210,0.711509,0.784816,0.617610,-0.051214
0.369451,0.394991,0.863305,-0.381706,0.816754,0.432681
-0.875974,-0.358259,0.785585,0.987047,0.124546,0.101125
0.299370,-0.642233,0.931199,0.404829,0.198251,0.892642
0.820016,0.131539,0.892146,0.953496,0.098465,0.284869
0.604125,0.560897,0.773860,0.309139,0.934974,0.173943
-0.020198,0.633050,0.789868,-0.381332,0.842783,-0.379872
-0.358901,-0.422353,0.814190,0.516848,-0.855743,0.023906
-0.310032,0.202099,0.279034,0.281037,-0.638574,0.716409
0.524076,-0.288964,0.889005,-0.636959,-0.149071,-0.756347
0.259199,-0.170895,0.863019,0.304085,-0.395475,-0.866679
-0.402818,-0.137161,0.946535,0.929378,0.361290,0.075665
-0.042791,-0.539204,0.873014,0.927825,0.311273,-0.205549
0.724866,0.242673,0.908153,-0.201847,-0.490627,0.847669
0.281504,0.057886,0.902610,-0.292691,0.431636,-0.853242
0.022277,0.001148,0.752058,0.710709,0.692329,-0.124795
0.364610,0.080048,0.895169,-0.594106,0.031464,-0.803771
-0.250441,-0.002975,0.092787,-0.782136,0.523889,-0.337348
-0.736622,0.023590,0.881127,0.870600,0.241430,0.428680
0.094429,0.648886,0.705177,0.862826,-0.326624,-0.385808
-0.076852,-0.192447,0.921373,-0.701054,0.712066,0.038543
-0.040776,-0.185935,0.897806,-0.140948,0.589337,0.795497
0.132007,0.199522,0.579266,0.305736,-0.898844,0.314014
0.236722,0.144845,0.831710,0.767193,0.443956,-0.462945
-0.655359,0.593459,0.651191,0.531492,-0.754419,0.385185
0.357118,0.274346,0.902778,-0.208376,0.847448,0.488274
0.306574,-0.778996,0.812510,-0.883059,-0.037855,0.467732
-0.354177,-0.620681,0.884016,-0.151200,0.679221,0.718190
-0.489727,-0.077283,0.881530,-0.382813,-0.696868,-0.606489
-0.040139,0.200412,0.492962,0.775294,0.026867,0.631028
-0.468748,0.285075,0.778496,0.470590,0.315820,-0.823895
0.328590,0.262024,0.907868,0.863827,0.373228,0.338383
-0.318847,-0.449715,0.870864,-0.137202,0.876793,0.460880
0.122672,-0.131117,0.759079,0.909541,0.180505,-0.374371
0.180937,-0.561600,0.895102,0.265372,0.242858,0.933058
-0.653864,0.158526,0.790859,0.360394,0.930307,0.068158
0.045327,0.190854,0.847247,0.176419,0.959544,-0.219433
0.523788,-0.225572,0.854587,0.893159,0.054721,0.446400
-0.065613,-0.253637,0.877482,0.592474,0.458907,0.662101
-0.047691,0.564973,0.831558,-0.682624,0.251662,0.686069
-0.522750,-0.112517,0.880892,-0.150159,-0.236258,0.960018
0.319540,0.229086,0.570397,-0.281817,0.860927,-0.423538
0.711784,-0.145829,0.847936,0.597248,-0.071265,-0.798885
0.359939,-0.300724,0.916098,-0.109351,0.137867,0.984396
-0.064692,-0.170567,0.732909,-0.303018,0.920899,-0.245205
0.478260,-0.223323,0.862045,0.743309,-0.335048,0.578994
-0.097771,0.236489,0.683693,0.946928,-0.247353,0.205291
-0.011728,-0.007754,0.428528,0.305224,0.700271,-0.645336
-0.398551,0.037693,0.908573,-0.424963,-0.462587,0.778088
-0.367027,-0.012674,0.370830,0.795337,0.017814,0.605906
-0.686194,0.262820,0.770098,-0.703183,0.551438,-0.448831
0.284790,0.193947,0.544260,0.431641,-0.767989,0.473158
-0.281561,0.142174,0.244163,-0.211425,-0.720380,0.660569
0.740656,0.335020,0.860970,0.976271,0.114565,0.183766
-0.502636,-0.018296,0.858031,0.459772,0.887803,-0.020383
-0.117944,-0.135381,0.772668,-0.545731,-0.673085,0.499134
0.702849,-0.126619,0.866480,-0.292437,0.761688,-0.578198
-0.063137,-0.221730,-0.997262,0.044489,0.214038,0.975812
-0.117023,-0.272472,-0.086488,0.959015,0.279572,-0.046147
-0.636920,0.089746,0.762573,-0.462386,-0.083384,0.882749
-0.116674,-0.381966,-0.477072,0.230600,0.969164,-0.086864
0.467886,-0.413123,0.905483,0.456771,0.540899,0.706249
0.174194,-0.244407,0.703581,0.524167,0.776863,-0.348902
-0.054835,-0.589243,0.853311,0.812835,-0.580417,0.049150
-0.475087,-0.510577,0.875701,0.925092,-0.060796,0.374845
0.792178,0.426195,0.858904,0.512316,0.079330,-0.855125
-0.377172,-0.633940,0.771072,0.921725,0.375121,-0.098525
-0.205081,0.610139,0.745137,0.075836,0.942690,-0.324937
0.292971,-0.012393,0.890332,0.745664,0.550311,0.375690
-0.613289,0.084405,0.674707,-0.505685,0.431747,-0.746911
-0.898740,-0.355214,0.748446,0.930015,-0.109807,-0.350733
0.647005,0.293227,0.919357,-0.364195,0.637932,-0.678531
-0.258911,-0.621056,0.876944,0.573988,-0.488337,0.657316
-0.660952,-0.024668,0.630178,-0.467988,-0.835551,-0.287823
0.041641,-0.327430,0.059563,-0.884240,0.029441,0.466103
-0.011555,0.364116,0.343753,-0.272805,-0.623488,0.732694
0.398956,0.565254,0.860584,0.721183,0.580462,-0.378100
-0.483445,0.207206,0.882101,0.995691,-0.031295,0.087295
-0.279024,0.085764,0.243038,0.993712,-0.098308,0.053598
-0.430364,-0.410172,0.894430,0.953219,-0.069785,-0.294116
0.090743,-0.496427,0.730121,0.946648,-0.247786,-0.206056
0.055356,-0.366318,0.062754,-0.884240,0.029441,0.466103
-0.578363,0.911214,0.740804,0.281131,0.869908,0.405248
0.219088,0.078221,0.511976,-0.158632,-0.599936,0.784164
0.027346,-0.435050,0.855713,0.258015,-0.668588,0.697437
0.299254,0.665331,0.806128,0.528462,-0.728702,0.435570
-0.475259,0.627896,0.662546,-0.214390,0.975881,0.041158
-0.125609,0.168927,0.517755,-0.744406,0.061284,-0.664909
-0.119383,-0.363834,-0.701179,-0.626752,0.775076,0.080250
0.101981,-0.673437,0.890029,0.956725,0.251896,0.145687
-0.075870,0.277766,0.657456,0.938580,-0.052818,0.340994
0.292166,0.391009,0.870511,-0.629027,0.602312,0.491472
0.249058,-0.689179,0.883781,-0.421591,0.394029,0.816702
0.078523,-0.671610,0.819968,0.711357,-0.692287,-0.121284
-0.738064,-0.708248,0.845870,-0.726899,-0.592975,-0.346408
0.424951,0.586713,0.796016,-0.203314,-0.881417,0.426342
-0.238681,-0.352730,-0.980515,-0.288361,0.221954,0.931442
-0.682965,0.580106,0.710166,-0.208099,0.565070,-0.798368
-0.550296,-0.013611,0.811788,-0.330213,0.881815,-0.336693
-0.549086,-0.296320,0.856653,0.900220,0.435343,-0.008968
0.085614,0.285497,0.874609,0.905388,0.215464,-0.365852
-0.520502,-0.140816,0.922229,0.873554,0.422121,-0.242316
-0.701696,0.638625,0.703816,0.048202,-0.597820,0.800180
-0.449845,-0.300864,0.880976,0.339185,0.156767,0.927566
0.552836,0.221496,0.884033,0.876475,-0.365242,0.313672
0.124227,-0.682995,0.934155,0.924530,0.379117,-0.038925
-0.336540,0.153044,0.233295,-0.345675,-0.781068,0.520039
-0.059102,-0.506548,0.938909,-0.589090,-0.731279,-0.343810
0.599806,0.696910,0.767041,0.956478,0.172152,0.235615
-0.630233,-0.686602,0.241576,0.992237,-0.102174,0.070891
-0.406392,-0.544498,0.790540,0.978427,0.103604,-0.178737
0.369623,-0.337597,0.923943,-0.143858,0.588927,0.795280
0.321731,-0.254293,0.902476,0.782264,0.423159,-0.457164
-0.011555,-0.023450,0.426277,0.373094,0.647366,-0.664619
-0.640434,-0.622133,0.198878,0.970660,-0.237362,0.038438
0.282887,0.379624,0.768603,-0.499478,-0.789708,0.356206
0.100078,0.108628,0.927739,-0.625646,-0.130278,-0.769152
0.326283,0.280296,0.924866,0.310881,-0.878142,0.363621
-0.068842,-0.013048,0.953976,-0.096577,-0.792738,-0.601864
-0.055701,0.533816,0.734253,0.185363,-0.687030,0.702589
-0.449440,0.954319,0.815568,-0.538283,0.760831,0.362473
-0.082037,-0.355729,-0.641213,0.932266,0.361562,0.012375
0.143936,0.201162,0.851060,-0.034646,-0.903557,0.427066
0.277297,0.539391,0.881261,-0.198926,-0.280614,0.938980
-0.306458,-0.075737,0.932123,0.902473,-0.315520,0.293240
0.157654,-0.417246,0.590889,-0.507977,0.790328,0.342552
0.046193,-0.367208,0.908489,0.404289,0.839650,-0.362681
0.049190,-0.476093,0.711996,0.900748,-0.427913,-0.074456
-0.439587,-0.237566,0.825125,0.784868,-0.606590,0.126615
0.425929,0.048469,0.884184,-0.573573,0.787356,0.226019
-0.553008,-0.074051,0.929603,0.690273,-0.109713,-0.715183
0.199320,0.443718,0.876709,-0.643974,-0.404159,-0.649579
-0.443450,-0.617963,0.903635,0.986362,0.009834,-0.164298
0.046137,-0.217607,0.639870,-0.857228,0.503476,0.108041
0.425412,0.567503,0.788087,-0.483059,0.857147,0.178753
-0.612772,-0.302785,0.886670,0.463067,0.752898,0.467667
-0.304038,-0.260899,0.598649,-0.739121,-0.670717,-0.061959
0.632713,-0.132663,0.861172,-0.233818,0.970296,-0.062097
-0.624643,-0.634034,0.228995,0.994062,-0.090092,0.061030
0.510073,0.273409,0.888501,-0.465606,-0.759549,-0.454200
-0.006539,-0.419261,0.864145,0.578407,0.743379,0.335905
-0.762613,-0.678075,0.800316,0.309850,0.938135,0.154586
0.147105,0.543889,0.822622,0.879909,-0.021236,0.474668
0.659974,0.071755,0.770686,0.777018,0.324678,-0.539284
0.167623,-0.498442,0.927520,-0.731356,-0.673921,-0.104643
-0.196784,0.693302,0.746313,-0.655659,-0.634101,-0.409910
-0.469325,-0.115984,0.689891,0.457445,-0.640981,0.616350
-0.406737,-0.185841,0.628632,0.767638,0.636814,-0.072112
0.055873,0.033757,0.881261,0.967699,0.232787,-0.096790
-0.172519,0.577857,0.763245,0.726049,0.670628,0.152019
-0.162667,-0.371143,-0.774851,0.978189,0.199018,0.059476
0.535199,0.210767,0.766688,-0.894312,0.189551,0.405311
0.782266,-0.009581,0.854806,-0.525938,0.348600,0.775801
-0.066595,-0.397615,0.428209,0.894378,0.377087,-0.240610
0.361037,0.198585,0.897739,0.876421,-0.090144,-0.473032
-0.501194,-0.018999,0.729600,0.281251,0.784071,0.553291
-0.175055,-0.330100,-0.697517,0.946883,-0.181481,0.265475
0.342189,-0.779792,0.878977,0.559218,0.767098,-0.314382
0.212862,-0.099773,0.929738,-0.339329,-0.837858,-0.427609
-0.485981,-0.132289,0.554104,0.539614,-0.669019,0.511107
-0.006078,0.198117,0.627356,0.804722,-0.006645,0.593614
-0.206580,0.497599,0.793933,0.630202,-0.224842,-0.743163
0.416537,0.562583,0.807891,0.517311,-0.575688,0.633223
0.410771,-0.273643,0.888517,0.491177,0.124423,-0.862128
0.278680,-0.755898,0.734639,0.781098,-0.020678,-0.624065
-0.235051,-0.483262,0.917157,0.415642,0.907931,-0.053874
-0.669538,-0.036100,0.656432,0.612465,0.788654,-0.053967
-0.439415,-0.509406,0.872795,0.062238,0.388570,-0.919315
0.564303,-0.209689,0.749202,-0.416590,-0.870476,0.262155
-0.174655,-0.327102,0.113884,0.899807,0.227143,-0.372496
0.681470,0.299506,0.846911,0.620525,-0.631180,-0.465361
-0.503674,-0.137442,0.553516,0.563901,-0.615888,0.550179
-0.403684,-0.190526,0.716716,-0.676810,-0.735936,-0.018057
-0.082674,-0.459414,0.834078,0.855107,0.518357,-0.009943
0.354810,-0.849743,0.852588,-0.537346,-0.268938,0.799332
-0.247729,-0.342048,-0.139433,-0.241625,0.969825,0.032499
-0.458779,-0.027292,0.931401,-0.729821,-0.441514,0.521946
-0.859723,0.137630,0.723956,-0.612697,0.461100,-0.641864
-0.096849,-0.602268,-0.972201,0.218928,0.152182,0.963800
-0.550067,0.049031,0.612457,0.633070,-0.649551,0.421077
0.339769,0.682479,0.784728,-0.444642,0.656181,-0.609688
0.259547,0.261087,0.933601,0.405717,-0.324494,0.854457
-0.564187,-0.187903,0.537206,-0.534087,0.748724,-0.392636
0.404377,0.318950,0.881261,-0.387295,0.896930,0.213351
-0.855287,-0.458008,0.801256,-0.077019,0.862499,0.500163
-0.555889,-0.221215,0.841334,0.587060,0.327456,0.740360
-0.545283,-0.034320,0.859660,-0.068860,-0.916810,0.393341
-0.003141,0.639094,0.778211,0.979914,-0.103836,0.170254
0.057199,-0.377328,0.933769,0.605519,0.787672,0.113663
0.310376,0.270363,0.907465,0.573125,-0.668144,0.474458
-0.585626,0.921147,0.682450,0.294603,-0.954347,0.049301
0.232459,0.172207,0.945745,0.923311,0.343945,-0.170873
-0.556466,-0.033055,0.613381,0.681180,-0.513068,0.522259
-0.075526,-0.314920,-0.185541,0.878405,-0.471857,-0.075870
0.134716,-0.672500,0.939178,0.932767,0.356792,-0.051440
-0.073799,0.638860,0.794890,-0.320830,0.900892,-0.292337
0.606549,0.571111,0.736671,0.294245,-0.803664,0.517247
0.155579,-0.066835,0.767477,0.426816,0.132851,-0.894527
-0.371005,-0.761520,0.814039,0.744334,-0.582658,-0.326306
0.372849,-0.833720,0.811637,-0.597855,0.801438,-0.016310
0.108725,0.122075,0.908187,0.458124,-0.457945,0.761846
-0.000545,0.447513,0.400578,0.937156,0.167668,-0.305983
-0.098119,-0.366271,-0.616690,-0.072439,-0.996208,0.048192
0.673516,0.036569,0.888333,0.132029,0.775667,-0.617178
0.626662,0.308829,0.927789,0.225265,0.585725,-0.778577
-0.252400,0.529974,0.660900,0.834495,-0.095511,0.542674
0.250440,0.353574,0.693234,0.769354,-0.569640,0.289145
-0.279140,0.361726,0.724074,-0.829636,0.448331,-0.332722
-0.556867,0.125026,0.870091,0.325197,-0.910695,-0.254719
0.315276,0.173847,0.918853,0.517139,0.713661,-0.472499
-0.100367,-0.321105,0.418484,-0.626911,-0.768446,-0.128353
0.018182,-0.280858,0.592468,0.018694,-0.934312,0.355965
0.555833,-0.080001,0.868126,0.641120,0.477348,0.600920
0.403740,-0.786539,0.830651,0.572600,-0.765085,-0.294573
-0.473187,-0.007051,0.716565,0.737211,-0.172591,0.653247
-0.711320,0.505236,0.670844,-0.606201,-0.193582,-0.771393
0.051610,-0.528943,0.938355,0.097670,0.932573,-0.347516
-0.142666,-0.328648,-0.451087,0.822844,0.562646,0.079733
0.152754,0.016516,0.686112,-0.663011,0.662974,-0.347681
-0.527361,0.123714,0.901787,0.956642,-0.291244,-0.003591
-0.391003,-0.602408,0.870528,0.454710,0.648604,0.610370
0.754487,0.146016,0.892952,0.700608,-0.407966,-0.585416
-0.455839,0.002881,0.889626,-0.532117,-0.362591,-0.765101
-0.115869,-0.341767,-0.952515,0.930194,0.140205,0.339236
-0.451748,-0.480685,0.863658,0.299002,0.583889,0.754766
0.164682,0.420901,0.661790,-0.469386,0.301430,-0.829950
0.306053,0.581980,0.825881,-0.738321,0.544246,0.398343
0.536064,-0.399114,0.818037,0.596422,0.437358,-0.673051
0.295047,0.426289,0.789028,0.426455,0.697590,-0.575764
-0.335503,-0.248343,0.436272,0.914904,0.043777,0.401292
0.532606,-0.216483,0.714264,-0.656948,0.742838,0.128881
-0.598652,0.244875,0.896899,-0.482078,0.762396,0.431686
-0.411461,-0.035819,0.375752,0.846636,0.443910,0.293517
0.175288,-0.719165,0.927991,0.479203,0.872790,0.092750
0.231365,0.121419,0.520341,-0.806597,0.262794,0.529472
-0.022906,-0.418511,0.942403,-0.584152,0.265532,-0.766981
0.613753,0.038302,0.895623,-0.542702,-0.352529,0.762363
-0.094429,-0.326118,-0.256828,0.979364,0.136791,0.148775
-0.522634,-0.361960,0.896059,-0.027131,-0.665083,0.746276
-0.116847,-0.162415,0.773071,0.313100,0.872410,-0.375324
-0.002103,0.617776,0.768569,0.088504,0.995529,-0.033011
-0.229923,-0.535175,0.950650,0.950082,0.030575,-0.310499
-0.111257,-0.315717,-0.754124,-0.507540,-0.833637,-0.217835
-0.567761,0.096259,0.801105,-0.717143,-0.567691,0.404268
-0.331468,-0.224354,0.697921,0.974718,-0.186127,0.123618
-0.151600,-0.381920,-0.205798,0.997978,0.048739,-0.040795
0.060024,0.269942,0.602395,-0.056834,-0.804748,0.590890
0.206179,0.173285,0.846995,0.630435,0.760793,-0.154100
0.551798,0.456837,0.849632,0.648767,0.738176,0.184926
-0.159898,-0.268958,0.231599,0.213566,-0.966964,0.139178
-0.017838,0.294071,0.833087,0.891786,-0.073400,-0.446465
-0.003313,-0.507578,-0.975275,-0.018973,-0.030529,0.999354
-0.065497,-0.369457,0.492592,0.945237,0.018087,-0.325883
0.734778,-0.050296,0.872308,-0.130293,0.648495,0.749985
-0.260353,-0.551620,0.879817,0.212452,-0.934978,0.284043
0.422242,0.226603,0.580559,0.475701,0.357926,-0.803491
0.154946,0.374423,0.745087,0.754653,0.653228,-0.061586
0.306574,-0.434301,0.747506,0.890106,0.210530,-0.404213
-0.351525,0.554619,0.708671,-0.596265,0.626245,-0.502280
-0.198799,-0.343032,-0.522256,0.276302,0.960995,0.012066
0.182147,0.398880,0.542144,-0.134482,-0.395868,0.908407
-0.360111,-0.342516,0.873333,-0.047629,-0.406441,0.912435
0.553297,-0.219434,0.722058,-0.589286,0.804936,0.069420
0.702216,0.043690,0.806648,0.922371,-0.043698,-0.383827
-0.432612,0.966594,0.487637,0.941362,-0.115838,-0.316890
0.525286,0.239206,0.877045,-0.711551,-0.112284,0.693605
0.121458,-0.670017,0.905499,-0.280769,0.959775,0.000503
0.237299,-0.389275,0.670390,0.952349,0.024462,-0.304029
-0.179495,0.473282,0.561461,0.577219,-0.620358,0.531013
-0.132180,-0.163024,-1.000000,0.055758,0.121576,0.991015
-0.444716,0.418090,0.378758,0.816765,-0.168881,0.551702
0.053625,0.050015,0.813955,-0.529120,0.795658,-0.294890
0.103075,-0.453651,0.793647,0.779765,0.590317,-0.208547
0.109935,-0.569190,0.641331,0.688173,0.690888,0.221566
-0.213323,0.572938,0.726576,0.828262,0.448810,-0.335486
-0.518311,-0.462881,0.076511,0.953129,-0.240157,0.184037
0.437512,-0.433317,0.847532,0.132361,0.805430,-0.577722
-0.481774,0.567972,0.502772,0.625694,0.779927,-0.014875
0.558080,-0.142081,0.867874,-0.006482,0.939244,0.343190
-0.379476,-0.606719,0.778144,0.909227,0.401207,-0.111078
-0.449845,-0.062712,0.834867,-0.230091,-0.863217,0.449349
0.335851,-0.777684,0.765361,0.945116,-0.094262,-0.312844
-0.002621,0.145079,0.872829,0.883982,-0.465694,0.041306
0.102671,-0.211095,0.892549,0.711331,-0.633463,-0.304520
0.050688,0.057933,0.498455,0.848094,0.421201,-0.321444
-0.761347,0.055591,0.843720,0.951283,0.229463,0.205930
0.103304,-0.047626,0.799526,0.749573,0.657797,0.073787
-0.194997,-0.298241,0.332214,0.153808,0.982268,0.107206
-0.377400,-0.202989,0.746011,-0.600210,-0.795302,-0.085104
-0.228079,-0.562818,0.896127,0.777565,-0.187884,-0.600077
-0.052588,-0.599925,0.866715,-0.683147,0.722015,0.109561
-0.476473,-0.456134,0.003191,-0.920790,-0.264465,-0.286714
-0.082213,-0.371659,-0.652249,0.866154,-0.494489,-0.072511
0.096100,0.099726,0.512934,-0.667600,-0.333197,-0.665801
0.573698,-0.128259,0.868714,0.115577,0.854696,0.506100
-0.638418,0.613934,0.675043,0.010961,0.998418,0.055145
-0.507248,0.944901,0.698643,0.063240,0.973326,-0.220538
-0.063250,-0.494553,0.966053,-0.820188,-0.414418,0.394398
-0.538656,-0.218685,0.871300,-0.676749,-0.682272,0.276614
0.760942,0.592710,0.739897,-0.469960,0.496247,-0.729984
0.258162,-0.677326,0.836648,-0.092761,0.915724,0.390953
0.802727,0.562303,0.750210,-0.675111,0.191734,-0.712364
0.248020,0.386652,0.875584,0.723344,0.686259,0.076302
0.214016,0.295804,0.917459,0.148735,0.986426,0.069588
0.381727,0.087638,0.743844,-0.365605,0.888709,-0.276640
0.186815,-0.863237,0.886451,0.876987,0.443828,0.184146
0.235744,0.189542,0.884671,0.820931,0.512218,0.252397
-0.504019,-0.006349,0.927000,-0.761015,0.231954,0.605849
0.077833,-0.235036,0.652165,0.803239,0.486059,-0.344316
0.192925,0.458102,0.663352,0.450965,-0.307066,0.838058
0.728380,0.050859,0.826267,0.971911,0.018827,-0.234593
-0.146873,-0.360320,0.381093,0.587387,0.779974,0.215909
0.137020,-0.510811,0.853126,-0.065780,0.980601,0.184650
-0.203755,0.152997,0.734521,0.822105,0.351738,0.447687
-0.514797,-0.315810,0.928243,0.219612,-0.944703,0.243529
0.364783,0.101553,0.759213,-0.403607,0.878244,-0.256493
0.012825,0.116968,0.901670,0.978878,0.168010,0.116494
0.067921,-0.196477,0.668677,0.933571,0.348933,-0.081801
0.009712,-0.010518,0.754560,0.749970,0.355981,0.557515
-0.459817,0.032773,0.897857,-0.762571,0.565271,-0.314570
0.018355,-0.043128,0.422061,0.345250,0.731769,-0.587637
-0.549202,0.234568,0.887594,-0.207128,0.978261,-0.010164
-0.139556,-0.378078,-0.913999,0.915808,0.306932,-0.259016
-0.090338,-0.206878,0.721655,-0.020469,-0.993835,0.108968
-0.571968,0.197273,0.847398,-0.700875,0.574153,-0.423228
-0.578999,0.077096,0.844375,-0.284540,-0.932389,0.222907
0.069187,-0.740202,0.821178,-0.624236,0.466836,0.626413
0.249287,0.106894,0.850690,0.917879,0.177785,-0.354810
-0.206179,0.113313,0.589428,0.857696,0.478998,-0.186863
-0.559058,0.027151,0.723838,0.184735,0.629776,0.754490
-0.412847,-0.107410,0.820993,0.970821,-0.204052,0.125971
0.314988,-0.303394,0.341351,-0.253692,0.950297,0.180488
0.433766,-0.247734,0.898680,-0.653193,-0.363603,-0.664178
0.082557,-0.446342,0.788423,0.929489,0.350252,-0.115643
-0.963635,-0.182140,0.800047,0.358235,0.852432,-0.380824
-0.528800,0.946401,0.690547,0.087994,-0.986505,0.138076
-0.153792,-0.016750,0.892314,0.997205,0.055583,-0.049921
0.199147,-0.145454,0.841956,0.082056,0.988736,0.125173
0.058008,-0.210486,0.912537,-0.842100,0.525033,0.123323
-0.821687,-0.244126,0.785215,-0.112563,0.908743,-0.401891
-0.229690,-0.519807,-0.975980,0.050915,0.076185,0.995793
0.787510,0.443062,0.851715,0.462770,0.359568,-0.810281
-0.046826,-0.156230,0.835153,0.358880,0.918794,-0.164389
-0.472266,0.672781,0.673363,-0.092541,0.989269,-0.113061
-0.202317,-0.309204,0.116118,0.927049,-0.125476,-0.353320
-0.107050,0.513857,0.797931,-0.124695,0.224074,0.966562
-0.139035,-0.356994,-0.444838,0.586661,0.808705,0.042717
-0.157823,-0.313889,-0.085581,0.789214,0.608600,-0.082145
-0.311242,-0.777778,0.860164,-0.729852,0.237664,-0.640962
-0.084228,-0.565723,-0.975124,0.086500,0.105851,0.990613
-0.522173,0.508469,0.620217,-0.160360,0.805989,0.569795
0.108665,-0.197367,0.452548,0.721033,0.648201,-0.244841
-0.134311,-0.135896,0.898965,0.824479,-0.345046,0.448529
-0.028499,-0.113969,0.363339,0.887873,-0.349883,0.298770
0.588451,0.147000,0.904895,0.271704,-0.652450,0.707450
-0.276720,0.060042,0.132546,0.377162,0.858173,-0.348264
0.329800,-0.889568,0.834313,0.920468,-0.019904,-0.390312
0.096276,-0.442266,0.879850,-0.516930,-0.793104,0.322132
0.739330,0.393867,0.840192,-0.105223,0.070258,0.991964
0.320866,-0.851290,0.829140,0.922961,-0.351927,-0.155854
0.734145,0.323307,0.927940,0.727547,0.439417,0.526866
-0.109530,-0.147047,0.968472,0.727481,-0.633011,0.264705
-0.438490,-0.557383,-0.068532,0.939246,-0.212939,0.269212
0.232747,0.495818,0.885830,-0.491844,0.088659,0.866158
0.155751,0.242111,0.586606,0.481259,0.775265,-0.409088
-0.193326,-0.033804,0.443679,0.346433,-0.634710,0.690744
-0.152810,-0.276407,0.126197,0.944001,-0.188702,-0.270655
-0.688614,0.551854,0.660816,0.874839,-0.211418,0.435843
0.040603,-0.016516,0.785266,0.292047,-0.956047,-0.026121
0.232170,-0.650245,0.865673,0.046204,-0.196584,0.979398
-0.352967,-0.706609,0.809941,0.843571,-0.353277,-0.404456
0.565573,0.368941,0.920113,-0.144983,0.247453,0.957991
0.469958,-0.349310,0.906322,-0.305316,0.421626,-0.853823
-0.075526,-0.263570,0.633604,0.039055,-0.956865,0.287898
-0.081404,-0.363460,0.492458,-0.453054,0.664574,0.594208
0.342073,-0.387589,0.850522,-0.707864,-0.702712,-0.071587
0.021929,-0.027057,0.817298,0.775376,0.607890,-0.171060
-0.093103,0.563380,0.766621,-0.127753,0.991610,-0.019734
0.414289,0.193947,0.929670,-0.138173,-0.205155,0.968927
0.236321,-0.936608,0.864397,0.202976,-0.815005,0.542741
0.182376,0.492117,0.821295,0.963002,0.264447,0.051906
0.728785,0.053670,0.905785,0.555334,-0.570132,-0.605437
0.521251,-0.358587,0.861273,-0.463441,0.436669,0.771066
-0.033456,-0.134959,0.345937,0.952225,-0.305373,0.003830
0.307552,-0.875278,0.819985,0.983945,0.095830,0.150564
-0.044462,0.409328,0.363255,-0.752900,-0.410264,0.514612
-0.001354,-0.433223,0.583650,0.913336,-0.405669,0.035364
-0.799614,-0.084592,0.378926,-0.277779,0.146847,-0.949355
0.520618,0.460773,0.850808,-0.163037,-0.651218,0.741171
-0.438778,-0.269145,0.833809,-0.605507,0.683644,0.407421
0.305364,0.226088,0.570498,-0.281817,0.860927,-0.423538
-0.094890,0.434957,0.733631,-0.049754,0.900433,0.432141
0.558886,0.606812,0.779185,0.710041,-0.250329,0.658161
0.188658,0.309017,0.808966,-0.542852,0.296528,-0.785737
0.246923,-0.661911,0.878590,0.655724,-0.426169,-0.623223
0.599169,0.417246,0.641566,0.363483,-0.861592,0.354316
-0.248421,0.140394,0.264907,-0.105252,-0.837817,0.535709
-0.499928,0.116780,0.865959,0.783810,0.608461,0.124168
-0.066767,0.627287,0.800265,-0.333107,0.852763,-0.402287
-0.368930,0.132429,0.515000,0.759177,-0.101368,0.642943
0.719737,0.067538,0.888131,-0.429366,0.901654,0.051627
0.733913,0.267224,0.870528,0.425993,-0.488590,0.761453
0.229578,-0.412608,0.668139,0.953666,0.033739,-0.298971
-0.111546,-0.085904,0.959250,0.135148,0.812106,0.567643
0.226176,0.284419,0.675580,0.953171,0.157598,-0.258125
0.268363,0.000117,0.883596,-0.575987,-0.795792,0.186959
-0.200758,-0.305034,0.017620,0.627966,0.752698,-0.197747
-0.004580,0.650760,0.684147,0.863387,-0.429088,0.265417
0.165203,-0.155293,0.830282,-0.650817,0.758362,0.036377
-0.212229,-0.325228,0.497917,0.889781,-0.449943,0.076430
-0.578363,-0.218169,0.525095,0.495188,-0.795118,0.350109
0.658071,-0.286293,0.685491,0.696202,0.701223,-0.153585
-0.311010,-0.666690,0.875365,-0.575187,-0.556642,0.599425
-0.505289,0.575421,0.585984,-0.432414,0.804999,-0.406196
-0.675416,0.158432,0.776346,-0.014870,0.854706,0.518899
-0.019969,0.683370,0.825982,0.964703,0.228235,-0.131363
-0.337462,-0.102443,0.948500,-0.338804,0.935785,0.097567
0.684639,0.304706,0.880673,-0.199182,0.962632,-0.183483
0.421666,-0.288589,0.894548,0.882036,-0.343918,-0.322076
-0.202373,-0.524211,0.899536,-0.530274,0.368991,0.763319
0.817424,0.388479,0.865270,-0.621798,0.133556,0.771706
-0.367892,-0.252419,0.709595,-0.695103,-0.716056,-0.063997
0.661008,0.252700,0.884402,-0.404737,-0.522922,-0.750160
-0.416533,-0.174643,0.789868,0.950855,0.288259,-0.113057
0.190040,0.104833,0.911513,-0.095227,0.250280,0.963479
-0.695301,0.088809,0.855091,0.055345,-0.255365,-0.965259
-0.281905,-0.297023,0.595021,-0.781557,-0.622142,-0.045909
0.102442,0.179516,0.564047,-0.170067,0.859472,-0.482063
0.571679,0.793380,0.774885,0.899816,0.199297,0.388088
0.354522,-0.289901,0.391608,-0.729393,-0.660979,0.176331
0.022850,0.564739,0.735916,0.911293,0.027485,0.410839
-0.304900,-0.407361,0.864296,0.070092,-0.247653,-0.966310
0.191715,0.304332,0.932308,-0.189659,0.959375,-0.208874
0.162723,0.422494,0.663234,-0.469386,0.301430,-0.829950
-0.298156,0.481903,0.762505,0.479712,-0.362787,0.798913
-0.709709,0.023403,0.790590,0.805048,-0.566700,0.175356
-0.403279,-0.399817,0.865976,0.459809,0.681152,-0.569744
-0.693975,0.128306,0.790758,-0.605577,0.282442,0.743978
0.054663,-0.174081,0.898478,0.923828,-0.204125,-0.323843
-0.280350,0.407970,0.772365,0.899916,0.026042,0.435285
0.765209,-0.095790,0.884167,-0.637139,0.764649,0.096773
0.295279,0.459414,0.827359,0.857176,-0.475874,0.196960
-0.139845,-0.344625,-0.047553,-0.384732,-0.922629,-0.027145
0.249920,-0.470846,0.874038,-0.611604,0.714392,-0.339977
0.057720,-0.418933,0.559260,-0.575460,0.752765,0.319673
0.321960,-0.349216,0.867571,0.030870,-0.963872,0.264570
0.556406,-0.407033,0.894598,0.457769,0.840424,-0.290062
0.113565,-0.666690,0.906188,0.266726,0.963360,0.028179
0.054434,-0.508797,0.897941,0.184142,0.441548,-0.878139
0.159325,-0.431115,0.951456,0.062603,0.984939,0.161170
0.148315,-0.865955,0.778916,0.245329,0.958970,0.142089
-0.008847,0.160166,0.904777,0.949935,0.311824,0.019710
0.582401,0.090871,0.856586,0.699713,0.677536,-0.226598
-0.029076,0.605735,0.754577,0.426765,0.718951,-0.548617
0.482006,-0.448731,0.887510,0.807773,0.574127,-0.133717
-0.868485,-0.488275,0.818961,-0.206593,0.865950,0.455468
-0.226117,-0.401879,0.487201,-0.878081,-0.005035,-0.478486
-0.162895,0.017687,0.569187,0.938652,0.340883,0.052266
-0.323976,0.026636,0.858467,-0.331094,-0.291027,0.897597
0.112355,0.570361,0.845903,-0.621127,0.653418,0.432719
0.421377,0.235177,0.941260,0.766500,0.639698,-0.057143
0.341556,-0.399489,0.758172,0.674182,0.245128,-0.696700
-0.867504,-0.511373,0.848910,0.938355,0.342376,-0.047628
0.468980,0.188184,0.822589,0.866102,0.312965,-0.389769
-0.476874,-0.416544,0.872107,0.398188,0.449286,-0.799743
0.023139,0.671375,0.811032,-0.828960,-0.550469,-0.099044
0.037663,0.065898,0.913293,0.047019,-0.584985,0.809680
0.359710,-0.376438,0.848288,0.485371,0.841177,-0.238403
-0.445522,-0.431302,-0.038717,0.952885,0.172041,0.249823
0.686078,0.539626,0.726442,-0.321632,0.849354,-0.418510
0.304038,0.456696,0.837622,-0.686327,0.384641,0.617257
-0.075353,-0.154872,0.814073,0.890052,-0.442318,-0.110285
-0.278103,0.634830,0.691050,0.806949,0.161517,-0.568107
-0.048152,-0.561412,0.943763,0.475405,-0.760476,0.442341
-0.534910,0.542765,0.534350,-0.099992,0.934462,-0.341735
-0.587181,0.586900,0.648906,0.353839,-0.874339,0.332160
-0.086304,0.130133,0.882000,0.884569,-0.460849,-0.071804
-0.402125,-0.099023,0.677982,0.432406,-0.611613,0.662537
-0.208599,0.101225,0.590486,0.778536,0.574005,-0.253770
0.075413,0.226416,0.916854,0.297250,-0.763889,-0.572814
0.309166,0.460538,0.819784,0.906259,-0.369202,0.205876
