-0.123803,-0.154207,0.524848,-0.734264,0.645879,-0.209037
0.546330,-0.068221,0.425261,0.030460,-0.384637,0.922565
0.079893,-0.640224,0.467463,0.324468,0.773559,0.544359
0.046761,0.508666,0.405059,-0.203941,-0.948777,-0.241308
0.495147,0.474516,0.024990,0.927750,-0.320042,0.191972
-0.304712,0.188514,-0.595262,0.601887,0.676693,-0.424050
0.151759,0.103041,0.005998,0.308212,0.836484,0.453100
0.550099,0.665314,-0.983500,-0.088518,0.194314,0.976937
0.411430,0.701828,0.600317,-0.133445,-0.990623,0.029286
-0.513472,0.049590,0.322861,0.827613,-0.484355,-0.283650
-0.291135,-0.530566,0.518636,-0.321734,-0.325834,0.888999
-0.129837,0.158303,0.464864,-0.041398,-0.432538,0.900665
0.047297,-0.371159,0.179773,-0.766463,-0.058631,0.639607
0.071919,-0.232708,0.558542,0.461648,0.427000,0.777529
-0.118200,0.192453,0.364530,-0.129081,0.639027,0.758276
0.491056,0.448874,0.047827,0.998354,0.050623,0.026947
-0.465954,-0.417205,0.345289,0.935480,0.340175,0.095703
0.199599,0.401174,0.352444,0.534213,0.578717,0.616201
0.392898,0.471995,-0.226763,0.464908,0.881887,0.078330
0.523215,0.820545,-0.986793,-0.123450,-0.159963,0.979373
-0.323619,-0.542421,0.291802,0.956863,-0.179026,0.228829
0.435512,0.643690,0.688299,-0.530515,0.679382,0.506945
0.597994,0.408894,0.785518,-0.286901,-0.099766,-0.952751
-0.194969,-0.055656,0.555000,-0.657140,0.652211,-0.377873
0.613672,0.037065,0.399042,0.495935,0.832370,0.247403
0.047731,-0.341697,0.456872,0.773483,-0.631197,-0.057574
0.429153,0.452773,-0.282955,-0.206073,0.971738,-0.115149
0.587327,0.457697,0.716991,-0.138633,-0.599077,0.788598
0.120137,0.265834,0.593535,0.112443,-0.570220,0.813761
-0.458033,-0.439775,0.893382,-0.136502,-0.760490,0.634840
0.667224,0.312667,0.346481,0.510126,0.835341,-0.204881
0.257836,-0.104025,0.125556,-0.170923,0.867328,-0.467469
0.533342,0.103317,0.658236,0.997603,0.037426,-0.058209
-0.447961,0.184379,-0.586149,-0.316074,-0.776077,0.545713
0.519282,0.591067,-0.968833,0.041114,0.545490,0.837108
0.487604,-0.317591,0.341533,0.401895,0.064539,0.913408
-0.182201,-0.639199,0.574223,-0.231122,-0.643050,0.730116
0.927917,-0.009571,0.240575,0.398332,-0.324126,0.858064
0.448764,0.486135,-0.813161,0.867834,0.451426,0.207557
0.517723,0.477824,0.751362,-0.143418,-0.934142,0.326818
0.455228,0.508547,-0.980243,-0.092801,-0.375968,0.921974
0.507162,0.335434,0.776548,-0.626646,0.564839,0.536910
-0.023491,0.550890,0.586273,-0.660884,-0.669429,0.339261
-0.298083,-0.585710,0.575184,0.847411,0.526460,-0.068813
-0.441658,-0.128959,0.449931,-0.102238,0.218730,0.970415
0.704071,0.211320,0.673223,0.640899,-0.759303,-0.112725
-0.340320,-0.138648,-0.145954,-0.805021,0.572962,0.153806
0.902920,-0.138609,0.381350,0.811333,0.563547,-0.155417
-0.434598,0.174807,0.412677,0.334266,-0.331722,0.882172
-0.107694,0.011856,0.014631,-0.541155,0.380883,0.749720
0.145778,0.361825,0.646880,0.817215,-0.247173,-0.520639
0.483026,-0.163621,0.168346,0.897810,-0.199038,0.392837
-0.114645,0.067670,0.420402,-0.639699,-0.764741,-0.077179
-0.514116,0.073342,0.277954,0.923994,-0.310349,0.223425
0.011689,-0.296754,0.186537,0.012521,-0.093408,0.995549
0.142654,-0.300575,0.326528,-0.337225,-0.086800,0.937414
-0.034049,-0.033796,0.611317,0.926247,0.085907,-0.366998
0.306109,0.133646,0.009202,0.038586,0.000628,0.999255
-0.582428,-0.346148,0.974565,0.057964,-0.960599,0.271827
-0.074079,0.226524,-0.413638,0.043215,-0.137290,0.989588
0.141845,0.006775,0.595974,-0.391027,-0.665476,-0.635798
-0.466763,-0.403695,0.338881,0.935480,0.340175,0.095703
0.568309,0.622853,0.089424,0.288150,0.885219,-0.365182
0.385407,0.244958,0.523281,-0.637214,0.577970,0.509813
0.149549,0.635024,0.526183,-0.346377,0.843195,0.411150
0.510397,0.903852,-0.987416,-0.107311,0.015233,0.994109
0.314185,0.062864,-0.280980,0.688272,0.502250,0.523476
0.218453,-0.191508,0.359653,0.823719,0.556050,-0.110884
0.556077,-0.016779,0.162045,0.517306,-0.293446,0.803918
0.289248,-0.277926,0.528247,-0.815843,-0.574854,-0.062800
0.031297,-0.245628,0.501442,0.987980,-0.129374,0.084602
-0.016326,0.440208,0.488359,-0.388242,0.774535,0.499364
-0.287525,-0.317000,0.345911,0.274030,-0.961715,0.003488
0.501184,0.514456,0.503898,0.721603,-0.690351,0.052000
0.039162,0.582913,0.629917,0.959661,0.280183,0.023408
0.406044,-0.009808,0.276423,-0.448730,0.394136,0.802059
0.362186,0.638845,0.683707,-0.421672,0.566120,0.708309
0.556511,-0.441468,0.359742,-0.564529,-0.638370,-0.523250
-0.559263,-0.012486,-0.035367,-0.435467,-0.880860,0.185618
0.634894,0.458169,0.753943,0.325291,0.944471,-0.046471
-0.214366,-0.045494,0.613684,0.058090,-0.543531,0.837377
0.331534,0.094178,0.643124,-0.162435,-0.570445,0.805113
0.562600,0.657673,0.633708,-0.605870,-0.078315,-0.791699
0.271143,0.454782,-0.088908,0.894829,0.398800,0.200598
0.027095,0.398889,0.179719,-0.665959,-0.496745,-0.556546
-0.197235,0.199898,0.474405,-0.421372,-0.108013,0.900432
0.854702,0.498897,0.541917,0.372095,0.308786,-0.875327
0.085496,-0.269182,0.322007,0.054051,-0.238378,0.969667
0.430771,0.291240,0.508971,0.696918,-0.604964,-0.385127
-0.020959,-0.321293,0.527375,0.134551,-0.936912,0.322632
0.418486,0.474870,-0.572230,0.713573,-0.697395,0.066738
0.669966,0.156925,0.510074,0.328426,0.716733,0.615167
0.171531,0.496061,0.539230,-0.433956,0.780034,-0.450809
0.658760,0.249567,0.275035,-0.647416,0.195924,0.736524
0.022139,-0.082322,0.599106,-0.063514,0.600367,0.797199
-0.419946,-0.351032,0.808818,0.502685,0.385373,-0.773818
0.441168,0.926540,0.601474,-0.513997,-0.478858,-0.711689
-0.465524,-0.270009,0.338916,-0.303970,0.682057,0.665132
-0.026614,0.203600,0.552899,0.861496,-0.047616,-0.505527
0.134950,0.538877,0.589584,0.745165,0.035971,0.665910
0.754768,0.396920,0.123830,0.022025,-0.917485,0.397161
0.194482,0.462502,0.023709,-0.364693,-0.919636,-0.145840
0.124770,0.274421,-0.017159,-0.635495,0.663270,0.395245
0.632579,0.739483,0.219109,-0.177060,-0.866337,-0.467023
0.013360,0.672759,0.330230,0.951800,-0.177237,0.250329
0.006787,-0.188081,-0.177032,0.427844,-0.059023,0.901923
0.522143,0.659327,0.592414,-0.224798,0.427245,-0.875744
-0.101286,-0.267646,0.521181,0.017794,-0.658810,0.752099
-0.930722,0.025879,-0.146310,-0.541739,0.578211,0.610074
0.516106,0.386285,-0.194707,0.794198,0.599217,-0.100941
-0.150848,0.070309,-0.002225,0.424590,-0.633389,-0.646948
0.080702,-0.429021,-0.017212,-0.354641,-0.847337,0.395284
-0.182527,0.113794,0.440942,-0.099129,-0.904501,0.414790
-0.435029,0.116433,-0.492880,0.955518,0.189013,-0.226407
-0.334072,-0.385182,0.545851,0.693030,-0.571271,-0.439726
0.054357,-0.261620,0.426507,0.843799,-0.305287,0.441365
0.903190,0.114857,0.390232,-0.289708,-0.427414,0.856380
0.851414,0.040492,0.002937,-0.488396,-0.844564,-0.219499
-0.855945,-0.064046,-0.053042,-0.186993,-0.246425,0.950951
0.172284,-0.173704,0.229611,0.522859,0.201262,0.828319
-0.528663,0.139239,0.300683,-0.118850,-0.784117,0.609127
-0.057484,-0.080826,0.361717,-0.569067,-0.382763,-0.727774
-0.308914,-0.074090,0.399470,-0.759781,0.596562,0.258548
0.391392,0.897905,-0.989498,0.104670,0.056941,-0.992876
-0.396942,-0.327989,0.305721,-0.979369,0.189483,0.070237
0.443430,0.288168,0.563383,-0.530036,-0.748327,-0.398835
0.223412,-0.138806,0.530668,-0.381916,-0.485248,-0.786558
0.790267,-0.118796,0.404809,-0.447555,-0.478519,-0.755456
0.748566,0.753624,0.781852,0.882415,0.147888,0.446625
0.050908,0.156019,0.570717,0.840817,-0.538107,-0.058894
-0.624234,0.244801,0.232993,-0.498151,0.734801,0.460341
0.044604,-0.672089,0.358051,-0.380564,0.012589,0.924669
0.656826,0.756066,0.657969,-0.194988,-0.926116,0.322938
0.374043,0.699386,0.379997,0.701754,-0.239654,0.670900
0.494936,0.447968,-0.312787,0.351545,0.933078,0.076042
0.456465,-0.395975,0.387971,0.726112,-0.037401,0.686558
0.387459,-0.297660,0.363017,0.554086,-0.468539,0.688084
0.123744,0.198519,0.633762,0.018844,-0.396974,0.917636
-0.298731,-0.510871,0.506212,0.996612,0.068831,0.045019
0.150089,0.161573,-0.127354,0.028730,0.982937,0.181687
0.009963,0.649913,0.608255,0.123119,0.984704,-0.123286
0.284559,0.978533,0.530650,0.460227,0.763802,-0.452546
0.372643,0.296203,0.462621,-0.663251,0.741281,0.102963
0.312844,0.487868,0.032466,-0.574249,0.731676,-0.367271
-0.353413,0.102765,-0.007992,-0.594246,-0.793813,-0.129350
0.236502,-0.014298,0.426969,0.170253,0.786145,0.594129
0.464869,0.508035,-0.982610,-0.018039,-0.251649,0.967651
-0.316724,-0.073184,0.508099,0.915930,-0.300695,0.265811
-0.339836,-0.302229,0.337101,0.706563,0.370245,0.603065
-0.400227,0.075941,0.294044,0.104769,0.914336,0.391168
0.385137,0.472586,-0.585312,0.718209,-0.661938,-0.214507
0.463416,0.547424,-0.862910,0.982794,-0.000646,0.184706
-0.467569,0.185718,0.424442,0.138936,-0.339243,0.930382
-0.353413,0.230030,0.402994,0.261266,0.604117,-0.752850
0.572458,0.071727,0.562600,-0.292930,0.944316,-0.149863
0.257514,0.622065,0.532163,0.906861,-0.053886,-0.417972
0.763870,0.747243,0.896301,0.728693,0.682514,-0.056401
-0.532809,-0.070269,0.246805,-0.714736,-0.546783,0.436098
-0.440149,-0.253899,0.306593,-0.246668,0.672032,0.698232
0.787038,0.041122,0.019633,-0.035971,-0.529579,0.847498
-0.132099,0.031393,-0.145402,-0.477942,0.844874,-0.240330
0.034746,0.059241,0.493895,-0.367820,-0.306318,0.877996
0.037926,0.660036,0.501744,0.841565,-0.520324,0.145023
0.852440,0.498070,0.217507,0.547903,-0.005793,-0.836522
0.180044,-0.280920,0.075166,0.388981,0.742289,-0.545620
0.417355,0.697534,0.102417,0.445803,0.699391,-0.558669
0.077035,0.383764,0.617725,-0.419588,0.907591,-0.014969
-0.816293,-0.051481,-0.062387,-0.310034,0.325296,-0.893343
0.448764,0.708918,0.354811,0.765910,-0.079900,0.637964
-0.166957,-0.179258,0.265263,-0.796999,0.427460,-0.426697
0.790320,-0.047542,0.282012,0.800199,-0.198803,0.565826
0.186561,0.437884,0.048628,-0.230864,-0.969476,-0.082577
0.179988,-0.164369,0.346445,0.758488,0.568589,-0.318438
0.768341,-0.038207,0.008864,-0.423797,0.051804,0.904274
0.449408,0.448598,-0.305543,0.339228,0.939004,0.056525
0.805353,-0.142547,0.041739,-0.413608,0.378539,0.828032
-0.083237,-0.101308,0.554875,0.804686,0.590558,0.061003
0.014974,0.583740,0.647663,0.900496,0.264748,-0.344985
-0.276644,0.057468,-0.042612,0.654997,-0.073567,-0.752042
0.871616,0.363361,0.608380,0.477337,-0.657554,-0.582900
-0.275296,-0.568221,0.485369,0.996874,-0.075009,-0.024798
0.592819,0.358555,0.778328,-0.593892,0.705531,-0.386677
0.126170,0.181188,0.571108,0.379374,0.820273,-0.428050
0.298349,-0.268040,0.380834,0.977927,0.075638,-0.194774
-0.068746,0.323972,0.577124,0.773768,-0.547034,0.319433
0.098316,0.032338,0.110729,0.923378,-0.382285,-0.035098
-0.122511,-0.626950,0.445143,0.045230,0.313405,0.948542
0.572564,0.195604,0.612242,-0.319596,0.165953,0.932908
0.407175,0.075547,-0.966146,0.230052,0.119900,0.965764
0.018154,0.486332,0.608949,0.967938,-0.061184,0.243622
-0.162807,-0.306365,0.392474,0.704407,0.273885,0.654826
-0.106350,-0.666062,0.340856,0.910854,-0.329222,-0.248913
0.297376,0.240704,-0.399861,0.966390,0.082789,0.243383
-0.120788,-0.276666,0.522267,-0.104930,-0.756144,0.645938
0.056511,0.626792,0.521341,0.847291,-0.001286,0.531128
0.090938,0.694029,0.308017,0.939392,-0.205712,0.274274
-0.704991,0.121514,0.305596,0.272849,0.247962,0.929553
0.563837,0.404876,-0.382133,0.740491,0.661265,-0.120010
-0.212965,-0.494722,0.516909,-0.567176,0.768904,0.295125
-0.737153,-0.009926,-0.024047,0.493665,0.727014,-0.477226
0.401730,0.198007,0.672707,0.365751,0.809836,0.458686
0.523649,0.640381,0.666815,0.333186,0.651454,0.681612
0.332560,-0.461163,0.322594,0.384480,0.675563,-0.629118
0.376575,-0.298566,0.502670,-0.701054,-0.593103,-0.395919
0.434434,0.463487,-0.350237,-0.230347,-0.972745,0.026599
0.152838,-0.146250,0.338596,0.393741,0.784779,-0.478634
0.591148,0.370136,0.740273,0.316074,0.693538,0.647382
0.071219,0.010123,0.102613,0.999832,0.018331,0.000089
0.529357,0.903104,0.986028,0.985071,0.161504,-0.059595
0.161134,0.312589,0.314211,0.535877,-0.804617,0.255789
-0.004689,0.558965,0.381154,0.419272,0.907360,0.030136
0.504308,0.891287,0.971610,0.982799,-0.029162,-0.182363
0.405932,0.580708,-0.974173,0.798315,-0.152497,-0.582613
0.211075,-0.045651,0.062814,0.645033,0.475061,0.598539
0.108069,-0.025366,0.623474,-0.436276,-0.871328,0.224613
0.491865,0.384828,0.466662,0.534701,0.503763,0.678467
-0.624504,0.188672,0.242996,-0.521258,0.570836,0.634379
-0.199497,0.360564,-0.392083,-0.051875,-0.680584,0.730832
0.641306,-0.045218,0.021502,-0.470076,-0.255032,-0.844977
0.164149,0.086970,-0.004895,0.431180,0.840875,0.327130
-0.710269,-0.014849,-0.021395,0.226800,-0.785145,0.576289
0.511094,0.846857,-0.988003,-0.146824,-0.043440,0.988208
0.504038,0.457854,0.259158,-0.173848,-0.984447,0.025319
0.409654,-0.038561,0.434712,-0.672613,0.494091,-0.550878
0.147557,-0.069994,0.524243,-0.623008,-0.228102,0.748218
0.402486,-0.415550,0.393008,-0.087075,-0.656211,0.749536
0.195558,0.378210,0.554519,-0.553369,0.148998,-0.819501
0.797593,-0.111234,0.410737,-0.322307,-0.490361,-0.809731
0.469400,0.440011,-0.048379,0.978895,0.096589,-0.180097
-0.135762,0.274618,0.520006,-0.276342,0.388549,0.879013
-0.047195,0.231290,0.442099,0.882590,0.275570,-0.380915
0.249378,0.346896,-0.058293,-0.911460,0.385248,-0.144307
0.680310,-0.028241,0.572087,-0.611002,0.704242,0.361552
0.399145,0.774894,-0.993859,-0.081122,0.027094,0.996336
0.115448,0.047936,0.133067,-0.785918,0.616298,0.050097
0.087058,0.323460,0.639404,0.953300,-0.026946,-0.300822
0.154130,-0.427288,0.318661,0.340295,0.155580,0.927359
-0.538682,0.232709,0.428180,0.133876,-0.716494,0.684627
-0.226056,0.065976,0.544783,0.618052,-0.784736,-0.046922
-0.209033,-0.150307,0.550443,-0.446357,-0.321875,0.834962
0.565237,0.853947,0.567940,-0.671277,0.641761,0.370851
-0.498655,-0.122932,0.280535,0.816422,-0.337397,-0.468634
0.442996,-0.417402,0.381706,0.546051,-0.428060,0.720134
-0.574132,-0.258666,0.304937,0.441716,0.010336,0.897095
0.637485,-0.063494,0.584440,-0.597405,0.758003,-0.261799
-0.224494,0.475382,0.446477,0.488005,-0.858915,0.155295
-0.304982,-0.339649,0.327187,-0.242011,-0.449197,0.860031
0.099770,-0.134788,0.554448,-0.235997,-0.774024,0.587530
0.440412,0.275248,0.554412,-0.596549,0.710494,0.373266
-0.469940,-0.388766,0.810366,0.755333,0.190124,-0.627156
-0.409062,-0.282259,-0.194457,-0.663965,0.126401,0.737003
-0.504528,-0.248818,0.298405,-0.081016,0.177310,0.980815
-0.393549,0.046991,0.387081,0.328861,0.780326,-0.531923
0.457707,0.918229,-0.988181,0.084651,0.014720,-0.996302
0.012443,0.233299,0.570272,0.315947,0.744520,-0.588106
0.242483,-0.383567,0.344310,-0.096657,-0.437372,0.894071
0.742049,0.574444,0.683742,0.909159,-0.145258,0.390295
0.863751,-0.030487,0.422235,0.583499,0.771062,-0.254937
0.455123,0.470656,-0.661707,0.560028,-0.802272,-0.206707
0.265162,0.436230,0.005037,-0.693359,-0.710755,-0.118659
-0.153272,0.316803,0.467160,0.232360,-0.972621,-0.004114
0.151381,-0.321963,0.031790,-0.335139,0.820383,-0.463308
0.226536,-0.266819,0.344826,0.922777,0.303000,-0.238062
0.427325,0.463723,-0.986384,0.065117,-0.142454,0.987657
0.430988,-0.010083,0.475419,0.431655,-0.671319,-0.602499
0.435729,0.480700,-0.784237,0.596717,-0.801412,0.040826
-0.165339,0.099181,0.437257,0.628070,-0.563105,0.537067
0.289188,0.033008,0.244562,0.262553,0.943325,-0.202988
0.456682,0.564873,0.386458,-0.713816,-0.658791,0.237616
-0.301963,0.256342,0.476683,-0.648399,-0.148363,0.746704
0.148205,-0.170671,0.553540,0.327774,-0.134966,-0.935066
0.630534,0.667481,0.649585,0.817193,0.244497,-0.521935
-0.034697,0.334213,0.027713,-0.818024,0.097181,0.566915
0.562436,0.073027,0.517959,-0.675537,0.666995,0.314274
0.455064,-0.041713,0.490068,-0.496374,0.721820,0.482274
-0.979367,0.063219,0.231925,0.167029,0.171863,0.970858
0.428666,0.246849,0.585045,-0.335371,0.921458,0.196063
-0.631669,0.021191,-0.080079,-0.208540,0.856173,0.472736
-0.393762,-0.083780,0.467160,-0.279051,0.916868,0.285454
0.772110,0.706239,0.465968,0.663500,-0.747111,0.039914
0.582211,0.657043,0.417696,-0.661549,0.527659,-0.532849
0.492345,0.276666,0.557954,0.453013,0.735656,0.503577
-0.302825,-0.561564,0.312289,-0.670080,0.694873,-0.261046
0.266027,-0.324484,0.354544,0.650513,0.127451,-0.748725
0.475806,0.877856,-0.990460,0.155216,-0.011902,-0.987809
0.096863,0.497873,0.593731,-0.564214,0.814097,-0.137509
0.469775,0.673153,0.098946,-0.610696,-0.611823,0.502716
0.758911,-0.087246,0.256879,-0.628355,0.420423,-0.654534
-0.190014,-0.472270,0.496992,-0.149228,0.966659,0.208092
0.390852,-0.330904,0.410381,0.654893,-0.037357,-0.754797
-0.618309,-0.198007,0.312983,-0.354296,-0.005267,-0.935119
0.309983,-0.280841,0.528141,0.482817,0.874831,0.039486
-0.142552,-0.035843,0.552917,0.765223,-0.640386,0.065868
0.643838,-0.175161,0.292353,-0.408125,0.087004,0.908771
-0.196478,-0.131085,0.565270,0.413994,0.724522,-0.551068
-0.110013,-0.149125,0.209266,0.345109,0.466882,0.814200
-0.067345,-0.613400,0.310010,-0.437516,0.309599,0.844232
0.477318,0.498228,-0.582179,0.489298,-0.871055,-0.043014
-0.402167,-0.118205,-0.103948,-0.367770,0.300718,-0.879951
0.062975,-0.257169,0.325424,0.182711,-0.201920,0.962208
-0.202782,0.158894,0.482129,0.915389,-0.335075,-0.223133
0.379804,0.682291,0.376864,0.577452,-0.314572,0.753388
-0.503397,0.196235,-0.605052,-0.231929,-0.775679,0.586967
0.336006,-0.072278,0.433003,0.106911,-0.535021,0.838047
-0.095304,0.319521,0.492542,0.287420,0.956944,0.040598
0.198090,-0.182370,0.324730,0.533146,0.366015,-0.762750
0.155209,-0.384670,0.013670,0.494373,0.383259,0.780197
0.659411,0.617221,0.669378,-0.174155,0.807517,0.563547
0.344844,0.331613,-0.977786,0.142083,0.145781,0.979061
-0.268562,-0.450725,0.568527,0.310273,-0.128863,0.941873
-0.545472,-0.358122,0.950091,-0.342279,-0.908416,0.240054
0.050155,-0.278123,0.189901,0.738979,-0.044229,-0.672275
0.713442,0.776390,0.854971,-0.726409,-0.684354,0.063166
0.216461,-0.092287,0.146328,0.395211,-0.877533,0.271557
0.913370,-0.049669,-0.178741,-0.290538,-0.192900,0.937218
0.431257,0.448558,-0.290057,-0.205181,0.974713,-0.088515
-0.194055,0.466914,0.440390,0.062753,-0.997960,-0.011749
0.433894,0.474634,-0.334449,0.772157,0.579132,0.261496
-0.023221,-0.107767,0.351874,0.390733,0.301136,0.869853
0.851309,0.043170,0.367627,0.563948,-0.000022,0.825811
-0.875286,0.012604,-0.113417,-0.442696,0.617825,0.649856
0.509424,0.492949,0.764124,-0.182943,-0.958416,-0.219024
0.150411,0.270994,0.663700,-0.811762,0.156534,0.562619
0.407602,0.496297,-0.639796,-0.740068,0.672477,0.008574
-0.360091,-0.215180,-0.152131,0.856905,0.116354,-0.502170
0.589425,0.251261,-0.000107,-0.183719,0.378311,0.907264
0.883092,-0.044115,-0.163932,-0.289496,-0.180899,0.939930
0.268125,0.395699,0.773077,0.848073,-0.122078,-0.515625
0.486637,0.817867,0.612545,0.867086,0.492333,0.075964
0.299586,0.256696,0.679257,-0.730654,-0.350827,0.585717
-0.364294,0.277848,0.458403,0.699977,0.516414,-0.493304
0.533073,0.643729,-0.984995,-0.104241,0.249459,0.962759
-0.556839,-0.190365,0.319213,0.079451,-0.151632,0.985239
0.909759,0.469907,0.735983,-0.121295,-0.819150,0.560608
0.480442,0.760793,-0.992667,-0.165606,0.018306,0.986022
0.448224,0.608240,0.334520,0.202746,-0.588247,0.782853
0.291832,-0.255317,0.418444,0.821352,-0.565871,0.071914
0.694588,0.285923,0.741252,0.552948,-0.685452,-0.473712
0.079837,-0.109304,0.559200,0.439021,-0.074204,0.895408
0.746843,0.775130,0.541971,0.831110,0.545558,-0.107812
0.384171,0.197692,0.701577,0.849757,0.068083,-0.522760
0.541372,0.247952,0.747695,-0.217046,-0.698313,0.682093
-0.445374,-0.138806,0.246769,-0.711443,0.002935,0.702738
0.092661,0.072003,0.192980,-0.272657,0.947670,0.166074
-0.510131,-0.180479,-0.162365,0.105589,-0.853744,0.509875
0.396666,0.389357,0.306664,0.263493,-0.748297,-0.608788
0.423122,0.561722,-0.957228,0.905917,0.113305,-0.408014
0.512442,0.080747,0.526236,-0.200315,0.975745,0.088293
0.465468,0.671656,0.097754,-0.610696,-0.611823,0.502716
-0.148155,-0.104065,0.299847,-0.640877,0.546440,-0.539148
-0.790810,0.162478,0.216297,0.415236,-0.287371,-0.863132
-0.081619,0.085907,0.016286,0.368345,-0.438179,-0.819952
-0.487018,0.189381,-0.599427,-0.247599,-0.738445,0.627211
0.513843,0.367221,0.467801,0.731286,0.501190,0.462634
0.608931,0.440681,0.743174,0.581971,-0.802049,0.134264
-0.251430,0.461439,0.444911,-0.459195,0.887544,-0.037489
-0.733382,0.141996,0.266794,0.616996,-0.680741,-0.394851
0.020094,-0.274775,0.550977,-0.571724,0.811502,0.120816
0.122021,0.015716,-0.216137,-0.648070,0.282960,-0.707063
0.333908,0.896881,0.609466,0.420108,-0.435434,-0.796182
-0.332510,0.113124,0.569150,0.889613,0.442117,0.114548
0.541155,0.624232,0.564362,-0.514387,0.618553,-0.593968
0.414553,0.375374,0.323894,-0.405734,0.846734,0.344125
0.663988,0.572436,0.521395,-0.693035,-0.068942,0.717600
-0.493430,-0.163503,-0.094585,0.007928,-0.581176,0.813740
0.524293,0.423074,0.337350,-0.107894,0.990717,-0.082692
-0.079413,-0.130849,0.365811,-0.711498,0.463149,-0.528455
0.063676,-0.026784,0.491866,0.377829,0.809268,0.449813
-0.554577,-0.255002,0.309067,0.352292,-0.013071,0.935799
0.271899,0.457499,-0.077124,0.903091,0.364883,0.226468
0.270979,0.280211,0.645313,-0.738039,-0.523320,-0.425952
0.279383,-0.277769,0.586380,-0.617329,-0.728487,0.297003
0.531678,-0.078541,0.132890,0.717139,-0.620924,0.316489
-0.463962,-0.371908,0.947688,-0.658532,-0.653903,0.372486
0.724596,0.531314,0.023192,-0.410760,-0.272815,0.869970
0.425977,0.487514,-0.440746,0.006693,-0.997340,0.072578
0.112702,0.373680,0.153501,0.950142,0.162385,0.266198
-0.272011,0.115173,-0.016019,0.495134,0.693573,0.523259
-0.236505,-0.553884,0.242693,0.919821,-0.032711,0.390971
0.430823,0.008272,0.298850,0.647728,0.290500,-0.704314
0.350717,0.273948,0.467498,0.486421,-0.785662,-0.382269
0.143141,0.128998,0.302250,0.996585,-0.077261,0.029138
-0.720130,0.031550,0.001904,-0.146278,-0.697163,0.701831
-0.214310,0.126162,0.465113,0.935394,0.054281,0.349416
0.442838,0.610997,0.050354,-0.409573,-0.755947,0.510679
0.287900,0.523121,0.644441,-0.336729,-0.661933,-0.669670
0.524346,0.563692,0.712079,-0.260775,0.727388,0.634747
-0.668519,-0.222900,0.189438,0.174395,-0.960308,0.217702
0.537064,0.484008,-0.663949,-0.037880,0.941417,0.335110
-0.658444,0.005002,-0.106351,-0.386764,0.908399,0.158823
0.029896,-0.406570,0.310295,-0.352329,-0.876771,0.327316
0.549612,0.590003,0.481951,0.986850,0.036925,-0.157364
-0.150901,-0.217307,0.533694,-0.029333,-0.129225,0.991181
0.251641,-0.042382,0.589263,-0.673716,-0.684322,0.278944
0.476667,0.925359,0.775052,0.681573,0.731726,-0.005999
-0.193568,-0.429730,0.514044,0.243973,0.772934,-0.585705
-0.039382,0.064125,0.612260,-0.270915,-0.287726,0.918596
0.253042,-0.017764,0.617084,-0.059099,-0.916261,0.396199
0.484052,-0.378998,0.383806,0.876823,0.041749,0.478997
-0.269532,-0.067237,-0.147449,-0.786653,0.604199,-0.126965
0.694693,0.627186,0.034655,-0.712421,0.467350,0.523488
-0.528015,0.040886,-0.063259,0.939679,-0.137315,0.313286
0.399040,0.013471,0.275106,-0.240246,0.755948,0.608954
0.327871,0.440011,-0.142323,-0.276150,0.960811,-0.024153
0.321781,-0.079604,0.590581,-0.506550,-0.664179,0.549793
0.334605,0.104853,0.603610,-0.405809,0.913616,0.024990
0.471603,0.625611,-0.986935,0.159561,-0.269777,-0.949611
0.302387,-0.308610,0.390107,0.674795,0.543102,-0.499692
-0.022738,0.429101,0.497739,0.545368,-0.837666,-0.029816
-0.298678,0.126241,0.527535,-0.513982,-0.032115,-0.857200
0.507214,0.353592,0.072799,0.999110,-0.004366,-0.041957
0.348829,0.442650,0.664465,-0.458784,-0.848933,0.262355
0.433842,-0.398141,0.394254,-0.004978,0.968106,0.250491
0.621156,0.506578,0.728383,0.502811,0.233791,0.832179
0.519716,0.077005,0.175590,-0.233060,0.388629,0.891432
0.575852,0.349417,0.505625,0.784958,-0.265444,0.559804
0.378515,0.861549,0.613381,0.277592,0.221071,-0.934917
0.459214,0.058335,-0.452458,-0.590619,-0.159115,-0.791108
-0.448014,-0.352844,0.809209,0.383793,0.570202,-0.726342
-0.137702,0.266858,0.445089,-0.658405,0.352645,-0.664939
0.026233,-0.599023,0.561194,0.201364,0.568291,-0.797808
0.907925,0.494407,0.392207,0.332229,0.466349,-0.819843
-0.187051,-0.082795,0.560322,0.923835,0.187396,0.333783
-0.421400,0.102017,0.395785,0.538149,0.238125,-0.808512
0.736663,0.570624,0.714624,0.772917,0.633122,-0.041898
-0.143844,0.346069,0.464882,0.812659,0.434623,0.388185
0.295331,0.320624,-0.423249,0.805052,0.578099,0.133019
0.024727,0.108437,0.598377,0.993508,0.098337,0.057203
0.275240,0.382819,0.735253,0.879974,-0.287015,-0.378508
-0.374530,-0.373129,0.312093,-0.327063,-0.104684,0.939186
0.548159,0.509847,0.734221,-0.078504,0.742218,0.665544
0.615126,0.569324,0.500142,0.617116,-0.437213,-0.654227
0.166951,-0.715377,0.275800,0.930095,0.360984,-0.067930
0.615126,0.563731,0.588462,0.942516,-0.182458,-0.279950
-0.418006,-0.265086,-0.198854,-0.720069,0.019626,0.693625
0.350822,0.470222,0.736108,0.817875,-0.539323,-0.200529
-0.109256,0.363833,0.448364,0.627047,0.510606,0.588297
0.150145,-0.197928,0.468869,-0.290555,0.537090,0.791904
0.012603,-0.387860,-0.044089,-0.131617,-0.536483,0.833584
0.777772,0.095912,0.542416,0.826127,0.212198,0.522002
0.499027,0.663975,0.673009,0.185620,0.715921,0.673055
0.448007,0.475303,0.493396,-0.028758,-0.976216,0.214884
0.523971,0.903064,-0.986651,-0.100999,0.013459,0.994795
0.445423,0.897826,0.516322,-0.118169,0.300814,0.946334
-0.197501,-0.375689,0.288331,0.655424,0.341796,0.673494
0.355347,-0.289389,0.514827,0.491422,0.859319,0.141684
0.117819,0.113676,0.554466,0.080323,0.029659,0.996328
0.202453,0.068773,0.573564,0.786794,0.110851,0.607180
0.181714,-0.507956,0.209480,0.336732,0.463429,-0.819661
0.404321,-0.224437,0.379374,-0.538571,0.210178,-0.815945
0.354538,0.292264,0.749439,0.939643,-0.298862,-0.166587
-0.404215,0.039192,0.367520,0.125061,-0.876173,0.465491
0.652354,0.089688,0.296928,-0.679154,-0.176422,-0.712478
0.362515,0.283047,0.744456,-0.165239,-0.607146,0.777219
0.177726,-0.065031,0.578869,-0.748910,0.155046,-0.644279
0.628916,0.441154,0.743850,0.742504,0.669836,0.002793
0.412022,0.505081,-0.778844,0.260982,0.960025,0.101194
-0.040622,-0.652473,0.319836,0.266080,0.299130,0.916364
0.280626,0.054672,0.509594,0.655900,0.750703,-0.078999
0.512929,0.407161,0.426222,0.873696,-0.419842,-0.245739
-0.041862,0.361391,-0.028959,-0.512378,0.850899,-0.115925
-0.232359,0.066370,0.000445,-0.043948,-0.745475,0.665083
0.223895,0.641327,0.649906,-0.325404,0.767221,-0.552707
0.708918,0.750867,0.776548,0.882415,0.147888,0.446625
-0.338544,-0.499409,0.443701,-0.771753,-0.049387,0.634001
-0.671965,0.205373,0.253693,-0.461688,0.811436,0.358351
0.497468,0.532771,-0.931206,0.574008,-0.812713,-0.100060
0.707951,0.666260,0.396034,-0.632224,0.533888,-0.561476
0.856747,0.456988,0.702093,0.851071,0.182974,-0.492136
0.396344,0.124744,-0.969154,0.141045,0.151424,0.978354
-0.365695,-0.275287,-0.159873,0.841653,0.336000,-0.422758
-0.139590,-0.078305,0.264622,0.741912,-0.538086,0.400037
0.328088,-0.367811,0.041366,-0.489117,-0.826418,0.278924
0.052525,-0.390302,-0.030188,-0.057537,-0.821196,0.567739
0.206550,-0.209863,0.384447,0.456795,0.553030,0.696776
0.106504,0.388845,0.142288,0.904878,0.312373,0.289169
-0.635118,-0.081613,-0.043982,-0.677837,-0.407232,0.612127
-0.373237,-0.425595,0.535082,0.876550,-0.148699,-0.457766
-0.643305,-0.255475,0.327543,-0.626355,-0.103391,-0.772651
-0.181931,-0.088979,0.301502,-0.566074,0.697123,-0.439977
-0.179830,-0.049275,0.209373,0.166817,0.801368,0.574441
0.809713,0.014337,0.553665,0.674329,0.518958,0.525322
-0.135118,0.166851,0.374675,0.847000,0.137425,-0.513522
-0.629945,-0.085670,-0.043911,-0.686559,-0.392741,0.611875
-0.529794,0.117300,0.286195,-0.005575,-0.504889,0.863167
0.451190,-0.057941,0.179630,0.534962,0.441974,0.720052
0.889879,0.012920,0.239756,0.391422,-0.227365,0.891680
0.828574,0.529384,0.030793,-0.337250,0.737308,-0.585354
0.713606,0.415275,0.716564,0.458024,0.572998,0.679623
-0.633822,0.007405,-0.061657,-0.344352,0.881609,0.322782
0.456524,0.761226,0.141576,0.327508,0.585739,-0.741382
0.104298,-0.393966,-0.037254,0.262340,0.744856,-0.613488
0.479146,0.071805,-0.461465,-0.693304,-0.120280,-0.710536
0.670183,0.072987,0.573547,0.608498,0.655258,0.447624
0.057481,0.429928,0.608522,0.959137,0.216462,0.182208
0.432007,0.244367,0.561675,-0.702888,0.705622,-0.089699
0.017884,0.280330,0.262201,-0.625653,-0.371642,-0.685887
0.494397,0.666417,-0.985422,-0.130778,0.111468,0.985125
0.787840,0.723531,0.894824,0.728693,0.682514,-0.056401
0.255090,0.693792,0.533035,0.975396,0.178761,-0.129021
-0.542510,0.040886,-0.079687,0.115528,-0.793709,-0.597227
-0.000217,0.487356,0.169271,-0.478061,-0.480256,-0.735399
0.403130,0.007051,-0.286569,0.686938,0.147322,0.711627
0.576818,0.130258,0.351127,0.875591,0.205059,0.437368
0.120081,0.366669,0.169930,0.864527,0.081781,0.495889
-0.431261,-0.413778,0.325086,0.242604,0.753235,0.611375
0.500862,0.249015,0.579848,-0.110111,0.943699,0.311943
0.455011,0.466716,-0.052188,0.971238,0.163149,-0.173433
0.608175,0.251733,0.681535,0.967352,-0.167637,0.190071
0.067664,-0.066921,0.623634,-0.039213,-0.571702,0.819524
0.545739,0.125532,0.359564,0.875591,0.205059,0.437368
0.597619,0.838940,-0.983233,-0.165569,-0.060187,0.984360
-0.299592,-0.577280,0.273273,0.951610,0.107631,0.287842
-0.047626,-0.216520,0.542398,0.371477,0.681109,-0.630948
0.161673,-0.164330,0.484995,-0.180973,0.870742,0.457228
0.214251,-0.418387,-0.006176,0.848008,0.308110,0.431219
-0.800941,0.171577,0.045299,0.130637,-0.772832,0.621019
-0.318072,-0.098511,0.523566,-0.560045,-0.055850,-0.826578
0.033615,-0.240389,0.508294,0.885744,0.129694,0.445687
-0.247981,-0.212029,0.274252,-0.431715,-0.052847,-0.900461
-0.065405,0.386246,0.609839,-0.515192,0.793056,-0.325022
-0.135279,-0.203718,0.522890,0.491495,0.163452,0.855404
0.487071,0.479321,-0.205813,0.591794,0.798980,-0.106819
-0.130537,0.321609,0.504841,-0.330083,0.870685,0.364627
-0.216842,-0.122774,0.413228,-0.381350,-0.764348,-0.519946
-0.150309,-0.052151,0.550550,0.651018,-0.475904,0.591346
-0.210808,0.345518,0.475473,0.458903,0.344719,0.818887
-0.153758,-0.010674,0.350432,0.494481,0.666047,0.558453
0.491701,0.354537,0.067050,0.999737,0.020247,-0.010739
0.548270,0.065188,0.660496,0.908099,-0.122130,0.400549
-0.751536,-0.113597,-0.069488,-0.188429,0.028260,0.981680
-0.176868,0.015204,0.586594,-0.724733,0.676476,0.130924
0.238225,0.394872,0.680609,0.889487,-0.412607,0.196388
0.655800,0.628604,0.502047,0.964153,-0.265287,-0.005580
0.372103,0.322475,0.604268,0.827101,0.031710,0.561158
0.345002,-0.166732,0.019811,0.562411,-0.743860,-0.361063
-0.306113,-0.164408,-0.157008,-0.217769,0.004176,0.975991
-0.448336,-0.162084,0.235538,0.888475,0.197029,-0.414478
0.559904,0.698401,0.515539,-0.572089,-0.649930,0.500304
0.224112,-0.239838,0.524990,-0.542407,0.734032,0.408646
-0.350020,-0.391878,0.800114,-0.441493,-0.244123,0.863416
-0.255472,-0.245470,0.286124,0.705730,0.060886,0.705860
-0.788547,-0.026548,-0.057349,0.166356,-0.750407,0.639699
-0.372807,-0.325035,0.330729,0.930208,-0.131008,-0.342857
0.191411,-0.141051,0.371525,0.696189,0.646254,0.312534
0.930606,-0.092524,0.406892,0.418168,0.422264,-0.804256
0.706978,-0.075902,-0.000961,-0.000964,0.266939,0.963713
0.105051,0.468489,-0.338400,-0.228698,0.925092,0.303155
0.488577,0.806759,0.158752,-0.082719,-0.732366,0.675868
0.246255,-0.268394,0.543163,-0.039477,-0.926347,0.374596
0.155478,0.777887,0.473087,-0.397395,0.799334,0.450714
0.133605,0.563298,0.379997,-0.274707,-0.956418,-0.099000
0.659628,0.219946,0.278844,0.886833,0.068950,-0.456916
-0.332724,-0.433945,0.541277,0.906665,-0.074411,-0.415238
0.359121,-0.152277,-0.007316,-0.191867,0.877776,-0.438972
0.224543,0.488577,0.629187,-0.350496,0.793250,0.497903
0.442838,-0.419017,0.368374,-0.747684,-0.305835,-0.589435
0.681876,-0.005042,0.395055,0.107522,0.590422,0.799901
0.344193,0.591027,-0.217917,-0.382621,-0.119341,-0.916165
0.312844,0.402828,0.745737,0.962407,-0.062121,-0.264413
0.875010,-0.084449,0.220248,-0.588197,0.576149,-0.567517
-0.023652,0.207579,0.284753,0.660228,-0.050009,0.749399
0.166628,-0.324681,0.229273,0.984911,-0.021356,0.171737
0.812462,-0.020403,0.552063,-0.552094,0.065383,-0.831215
0.556728,0.669332,-0.988039,-0.040911,0.132465,0.990343
-0.817102,-0.167835,0.212061,0.715336,0.576845,0.394391
0.084148,0.448401,0.129775,0.897440,0.334657,0.287414
-0.057809,0.241216,0.563597,0.539514,0.464400,-0.702322
0.612489,-0.117102,0.282849,-0.109843,-0.504120,0.856620
0.085496,-0.001418,0.262700,-0.406147,0.909596,0.087637
0.046492,0.371947,0.025613,0.279101,-0.405514,0.870437
0.396021,0.509768,-0.836852,0.738292,0.644486,-0.198904
0.732191,0.012604,0.009451,-0.404897,-0.092733,0.909648
-0.511045,-0.239286,-0.185700,0.511201,-0.645600,0.567340
-0.912564,0.157673,0.058435,0.147949,-0.655503,0.740558
0.439984,0.948519,0.583496,0.302006,0.837490,0.455415
-0.374316,0.039546,0.367395,0.092509,-0.857073,0.506821
0.549454,-0.391563,0.320725,0.278360,-0.000599,0.960477
0.067664,0.545848,0.566000,0.875324,-0.158687,-0.456756
0.409003,0.508705,-0.869175,0.916543,0.286681,0.278860
-0.435838,-0.215810,-0.160532,0.784477,0.300422,-0.542534
-0.389290,-0.393453,0.311719,0.102543,0.155995,0.982421
0.822268,0.004530,0.549268,0.707123,0.447876,0.547160
-0.170781,-0.674689,0.527731,0.035834,-0.908725,0.415854
0.155100,-0.556011,0.189972,-0.564991,0.002697,0.825093
0.451296,-0.126674,0.378484,0.753728,-0.112634,0.647462
0.462554,0.687648,0.644495,0.096028,-0.876629,-0.471487
-0.926194,0.136718,0.045673,0.211040,-0.705036,0.677043
0.452861,0.712974,0.612153,-0.063402,0.892409,-0.446752
0.303038,0.697377,0.564398,0.879668,0.459963,-0.120904
0.428831,0.645068,0.681980,0.498561,-0.629104,-0.596376
-0.056622,-0.028005,0.354598,-0.413120,0.051964,-0.909193
0.317690,-0.106271,0.560090,0.020405,-0.998536,0.050089
0.280245,0.977352,0.190737,0.503487,0.351292,0.789363
0.062814,0.239483,0.004966,0.000184,0.394223,0.919015
0.097455,0.081810,0.079420,0.985863,0.118456,0.118504
-0.691737,-0.252403,-0.192660,-0.198496,-0.604451,0.771517
0.169699,0.030448,0.445392,-0.072816,-0.555528,0.828303
-0.160493,0.475303,0.490584,0.831614,0.338110,-0.440567
-0.378301,0.221719,0.493165,-0.364317,-0.373964,-0.852892
0.122938,0.299512,-0.026503,0.561973,-0.724024,-0.399968
0.059421,-0.226170,0.324570,0.233762,-0.062922,0.970256
-0.520798,-0.058965,-0.083497,0.122039,0.356354,-0.926347
0.397258,0.216638,0.562440,0.884517,-0.413601,-0.215789
-0.338814,-0.100441,0.455003,-0.397834,-0.917257,-0.019175
-0.511262,-0.100008,-0.085917,-0.165404,-0.212757,0.963004
0.198359,0.148692,-0.125076,0.061581,0.969946,0.235398
0.416388,0.200449,0.657292,0.159259,0.435076,0.886197
0.224221,0.692965,0.504806,-0.697514,0.300842,0.650360
0.704340,0.442808,0.773184,0.396368,-0.907616,-0.138297
0.426516,0.220222,-0.978018,0.240173,0.126173,0.962495
0.031622,0.528911,0.382614,-0.063896,0.973812,0.218191
0.383467,-0.230936,0.058666,-0.654115,0.307411,-0.691109
0.541424,0.387624,0.737994,0.989180,0.097114,0.109965
0.148688,-0.385064,0.314442,0.993524,-0.078311,0.082327
-0.065888,0.510202,0.496921,0.130717,0.942636,0.307165
0.026180,-0.594493,0.380496,0.408044,0.707558,-0.576942
0.815803,0.284583,0.593037,0.514859,0.680913,-0.520844
-0.411163,-0.017134,-0.016927,0.129697,-0.492065,0.860843
-0.581188,0.047739,-0.088854,-0.113605,0.602458,0.790024
0.446284,0.510675,0.757538,0.101981,0.974308,0.200809
-0.033243,0.086143,0.236410,0.167519,-0.297868,0.939794
0.358365,0.081929,0.644299,0.624413,0.601722,-0.498036
0.061844,-0.110525,0.500854,0.978426,-0.147655,0.144499
-0.250569,-0.507720,0.564184,-0.125426,-0.864923,0.485980
0.235049,0.607492,0.603022,0.840941,0.481445,-0.247039
0.371242,0.681267,-0.994037,-0.117791,0.055020,0.991513
0.390524,-0.127422,0.588320,-0.554728,-0.696023,0.455882
-0.035345,-0.248306,0.520220,-0.093943,0.332945,-0.938255
0.447258,0.432449,-0.396373,0.613934,0.789144,0.018336
0.085657,0.486884,0.586131,-0.582843,0.328831,-0.743078
-0.074349,0.043091,0.593126,-0.178654,-0.638310,0.748761
0.428186,0.916772,-0.990798,-0.107149,-0.050064,0.992982
-0.675253,-0.219434,0.197786,0.174395,-0.960308,0.217702
0.010180,-0.640066,0.545032,-0.507371,-0.786437,0.352266
0.429798,0.542894,-0.008063,0.500635,-0.738204,0.452127
-0.353736,-0.378762,0.315884,0.024051,0.263433,0.964378
0.372373,0.412163,-0.635008,0.831348,-0.533681,0.155066
0.898389,0.305499,0.586843,0.798624,-0.528013,0.288794
0.476937,0.738735,0.622619,0.068555,-0.723973,0.686413
-0.095252,0.174846,-0.416201,-0.110455,0.221473,-0.968891
0.306050,0.506735,0.706543,0.069315,-0.961881,0.264539
-0.055708,0.385733,0.218522,0.282256,0.917578,0.279969
-0.078873,0.232945,0.281567,-0.582309,0.778088,-0.235573
0.281915,0.199110,0.506550,-0.422568,0.730028,0.537117
0.257352,-0.356940,-0.009469,-0.447657,0.768922,-0.456467
0.656017,-0.097330,0.313552,-0.342057,0.784290,-0.517577
0.887992,0.162833,0.563259,-0.622570,0.597233,-0.505686
-0.337788,-0.140066,0.457602,0.745304,0.644550,-0.170519
0.183007,0.344651,0.682087,-0.428234,0.741992,0.515813
0.165444,-0.260989,0.520113,-0.340098,-0.498406,0.797449
0.043042,-0.370332,-0.025845,-0.196242,-0.821894,0.534771
0.513409,0.430321,0.797640,0.287693,-0.302891,-0.908564
0.076069,-0.001812,0.568420,-0.650144,-0.549945,-0.524283
-0.331754,-0.123287,-0.153092,0.053167,-0.339676,0.939039
-0.101447,-0.125019,0.576662,0.118062,-0.306051,0.944666
0.147988,0.653025,0.500712,0.387962,-0.709555,-0.588232
0.393437,0.876044,0.603966,-0.462267,0.702592,0.540993
0.247386,0.145108,0.584920,-0.440373,-0.812351,0.382305
0.031892,-0.640775,0.297640,-0.018428,-0.999488,0.026157
0.114208,0.054317,0.145082,-0.761348,0.646483,0.049080
0.445153,0.025091,-0.966484,0.219830,0.112908,0.968982
-0.692437,0.020088,-0.072924,0.729486,-0.637459,-0.247984
-0.493105,-0.190444,0.295753,-0.219413,0.073685,-0.972846
0.523379,-0.217504,0.378733,0.534819,-0.502885,0.679025
-0.544124,0.023988,0.355452,0.036992,-0.847471,0.529551
0.490622,0.932133,0.174344,0.878703,0.341971,0.333073
0.104998,-0.412557,0.041864,0.913094,0.386559,0.129735
-0.165448,-0.232472,0.358211,0.887764,-0.108695,0.447281
0.010558,0.522452,0.490994,0.472893,-0.629225,-0.616804
-0.332241,-0.499685,0.552437,-0.869957,0.387220,0.305345
0.553440,0.481054,-0.660069,0.060559,0.943712,0.325178
0.184999,0.041634,0.197181,0.273321,-0.928154,-0.252639
0.394890,0.716441,0.120341,-0.172740,0.872804,-0.456479
0.495528,0.764337,0.638692,-0.540172,0.832640,-0.122170
-0.299701,0.378407,0.486722,-0.046957,0.506297,0.861080
-0.010131,-0.593942,0.552348,0.018348,-0.908301,0.417915
-0.110065,0.148338,-0.277349,0.129149,-0.730193,0.670923
0.141309,0.112770,-0.076751,0.427269,0.864636,0.264283
0.795601,-0.108004,0.027696,-0.355880,0.516818,0.778620
0.248356,0.532614,0.637500,0.400362,-0.884876,0.238127
0.415527,0.639554,-0.990780,0.125233,-0.147247,-0.981140
0.611785,0.850323,-0.051814,0.566731,-0.453059,-0.688152
-0.361492,0.201001,0.404133,0.511273,-0.387393,0.767155
0.261015,0.395502,0.328397,0.651957,0.364855,0.664705
0.357879,0.641721,0.666210,-0.632338,0.236644,-0.737664
0.901947,0.449425,0.727902,0.957404,0.239232,-0.161694
-0.448445,0.203679,-0.565947,-0.382941,-0.841138,0.381893
0.465573,0.516425,-0.711491,-0.401850,0.913338,0.065798
0.312785,-0.311525,0.387117,0.615263,0.662851,-0.426708
-0.650362,0.182055,0.232210,-0.603924,0.722298,0.336989
0.463468,0.426264,0.599907,0.405322,0.910882,-0.077511
0.941977,0.534702,0.021680,-0.392271,0.445152,-0.804962
-0.767914,-0.101032,-0.066765,0.047865,-0.166645,0.984854
0.679830,-0.172601,0.281798,0.679386,-0.479137,-0.555754
0.438794,-0.195683,0.393240,0.102418,0.222822,0.969464
-0.372537,0.163778,-0.044142,-0.338750,0.631774,-0.697216
-0.216142,0.218962,-0.049197,0.467162,-0.546567,0.694999
0.916329,0.406176,0.617814,-0.614775,0.722667,0.315918
0.044229,-0.188593,0.491100,0.826007,-0.562571,0.035023
0.366283,0.458681,-0.197554,0.377707,0.925467,-0.029137
0.207303,-0.079920,0.073280,-0.534718,-0.503973,-0.678298
0.302604,0.392075,-0.243993,-0.395706,0.840117,-0.370972
0.913587,-0.054199,0.012353,-0.368375,-0.416283,-0.831269
0.299211,-0.490704,0.308177,0.051877,-0.452154,0.890430
-0.103009,0.157003,0.470578,-0.210665,-0.501187,0.839304
-0.674175,0.003781,0.250614,0.184023,-0.545112,0.817917
0.536847,0.602135,0.699779,-0.126839,-0.601411,-0.788807
-0.199066,-0.185993,0.273219,-0.772581,0.333910,-0.540021
0.451999,0.796557,0.577801,-0.552927,0.530164,0.642805
-0.407717,-0.189341,0.474138,-0.494447,0.525670,0.692238
-0.960404,0.137782,0.048645,-0.396513,0.836275,-0.378711
0.266563,0.216244,0.666548,0.434082,-0.227759,-0.871607
-0.376039,-0.501654,0.543768,-0.784723,-0.568859,-0.246189
0.701644,0.043682,0.436581,-0.100754,-0.730457,0.675486
0.058990,0.138373,-0.422716,0.024204,-0.331341,0.943201
0.482599,-0.030959,0.442401,0.262481,-0.700962,0.663141
0.592714,0.539389,0.523798,-0.191374,0.865880,-0.462199
0.662962,0.136994,0.516767,-0.054634,0.758294,0.649620
0.086519,0.530566,0.587466,-0.379240,0.257011,-0.888888
0.526825,0.711478,0.617778,-0.036947,-0.999146,-0.018476
-0.356968,0.389791,0.484194,0.835190,-0.544043,-0.080465
-0.434385,-0.445998,0.334200,0.411606,0.710030,0.571347
0.345002,0.237002,0.679274,0.835473,0.491356,0.246080
0.455281,0.090043,0.601812,0.798071,-0.448564,-0.402333
-0.009322,0.193674,-0.009576,-0.054226,-0.303307,0.951349
0.040297,-0.149559,0.482877,-0.680499,0.345392,-0.646239
-0.464445,0.190444,0.370599,0.474705,0.699348,0.534386
0.244854,-0.262604,0.552223,0.011219,-0.838655,0.544547
-0.166309,-0.464432,0.294543,-0.195752,0.516569,0.833569
0.181820,0.191705,-0.163059,0.959148,-0.282399,-0.016898
0.783480,0.450173,0.765868,0.826146,-0.563276,-0.014242
0.919400,0.590752,0.572781,-0.388048,-0.388707,0.835659
0.106882,-0.242673,0.556940,-0.411220,-0.510938,-0.754877
0.155531,-0.271624,0.242676,0.659195,-0.097109,0.745676
0.286926,-0.310107,0.049446,0.431854,-0.683149,0.588906
-0.405669,-0.487671,0.819070,0.789027,0.578897,0.205705
-0.417628,-0.337994,0.305685,0.536555,-0.052657,-0.842221
0.755629,0.403261,-0.091435,0.103922,0.981286,0.162107
0.489544,-0.098235,0.005215,0.863495,-0.504187,-0.013131
-0.529146,-0.346266,0.923516,0.980039,0.156663,-0.122396
0.720288,-0.035765,0.405664,0.015094,0.250246,0.968065
0.012551,0.519497,0.405557,0.609541,-0.775340,-0.165253
0.231869,0.398574,0.658111,0.989795,-0.108203,0.092730
0.712153,0.699858,0.515201,0.814214,-0.571425,-0.102617
0.249431,0.445959,0.006390,-0.349573,-0.913548,0.207917
0.410134,0.042500,-0.965647,0.219830,0.112908,0.968982
-0.203860,-0.000197,0.362856,0.343505,0.392050,0.853405
-0.266408,-0.164566,0.514524,0.944815,0.162616,-0.284394
0.269473,0.452812,-0.059485,0.956933,-0.199387,0.211006
0.115935,0.515047,0.170873,0.213045,0.973741,-0.080247
-0.035019,0.236450,-0.086754,-0.488602,-0.567832,-0.662446
0.455064,0.458642,-0.140330,0.171775,-0.980428,-0.096202
-0.049674,0.084450,0.614378,0.151544,-0.511633,0.845734
0.142115,0.112061,-0.066320,0.499752,0.837092,0.222540
0.684190,-0.003111,0.555534,-0.220060,0.109562,0.969314
-0.377279,0.206121,-0.451319,0.724499,-0.280924,-0.629431
-0.416928,-0.296715,-0.230928,-0.507735,0.567284,-0.648378
-0.561525,-0.327320,0.298209,-0.001679,-0.382144,0.924101
-0.127844,0.559083,0.462657,0.590743,-0.793266,-0.147486
0.670670,0.700016,0.549304,-0.286490,0.866815,0.408112
-0.349264,0.042579,0.362714,-0.422449,0.627195,-0.654342
-0.185272,-0.276508,0.361949,-0.034185,-0.237385,0.970814
0.124014,-0.380928,0.321117,0.968794,-0.236771,0.073334
0.426943,0.467347,-0.152718,0.172382,-0.984925,-0.014364
0.843818,0.034544,0.023904,0.799170,0.433174,0.416759
0.516750,-0.179100,0.261169,0.567753,0.495477,-0.657389
0.030597,0.492319,0.584600,0.964732,-0.058861,-0.256567
0.296245,-0.156255,0.503934,0.998462,0.052160,0.018801
0.282185,-0.271939,0.528283,-0.648972,-0.750099,-0.127229
0.086466,0.246376,0.586736,-0.664752,-0.045272,0.745691
0.521544,0.379431,-0.173116,0.830622,0.554504,-0.050913
0.346403,-0.064203,0.202325,-0.395780,-0.857808,0.327908
0.854110,0.264613,0.585579,0.181579,0.982826,-0.032910
0.701164,0.322436,-0.106867,0.217380,-0.928681,-0.300495
0.043960,-0.332401,0.186448,0.514476,-0.015294,-0.857368
-0.746097,-0.214235,0.797693,-0.490949,-0.436051,0.754207
0.343062,-0.264849,0.483874,-0.659561,-0.614042,-0.433512
0.215816,-0.452024,0.233705,-0.315774,-0.296961,0.901167
0.572241,0.105759,0.655708,-0.453143,0.498909,-0.738750
0.176486,0.313613,0.660745,0.841598,-0.198942,-0.502130
-0.483247,-0.134709,0.451817,-0.404746,0.391407,0.826427
0.137913,0.324366,0.642110,0.882002,0.029198,-0.470340
0.561147,0.484756,0.489659,0.926491,0.340203,-0.160864
0.376358,0.317118,0.604873,0.827101,0.031710,0.561158
0.471603,0.614109,0.063276,0.310249,0.804427,-0.506599
-0.488741,-0.174334,0.215176,-0.514676,0.851810,0.097615
0.184891,0.184654,0.485155,-0.108256,0.922675,0.370069
0.099717,-0.264889,0.388986,-0.683121,0.729431,-0.035730
0.130695,0.266110,0.615090,0.989064,0.045623,-0.140253
0.184460,0.299669,0.585383,0.672408,0.478765,0.564493
0.528929,0.711754,0.659054,0.796579,0.010733,-0.604439
0.455393,0.421183,0.122281,-0.067642,0.997404,0.024685
0.732731,0.760044,0.418390,0.726082,0.479395,-0.492936
0.637268,0.573657,0.023210,-0.466019,0.161961,-0.869825
0.393542,0.682961,0.667367,-0.001369,0.991494,0.130145
0.447146,0.802032,-0.993735,0.158235,0.036042,-0.986743
0.294522,0.525603,0.050372,-0.668061,0.715801,-0.203281
0.382606,0.725579,0.379570,0.797125,-0.261047,0.544468
-0.820173,-0.157633,0.795504,-0.418541,-0.328314,0.846779
-0.274974,0.150031,-0.060998,-0.376524,0.921425,-0.095942
-0.338327,0.020640,-0.038749,-0.390666,0.766359,0.509974
-0.279281,-0.480660,0.517425,0.215596,0.020289,0.976272
0.497843,-0.406215,0.358905,-0.632327,-0.427399,-0.646137
0.786657,0.420711,0.774198,0.856670,0.182605,-0.482464
0.492457,0.070663,0.168595,-0.134364,0.314447,0.939718
-0.125635,0.429928,0.488786,0.239387,0.965135,-0.105872
0.608392,0.215653,0.646987,0.333668,-0.925364,0.179906
0.446607,0.464708,-0.448560,-0.667837,-0.737296,-0.101923
0.698198,0.482984,0.529582,0.410697,0.211862,-0.886816
0.551664,-0.101308,0.100584,0.726768,-0.628481,0.277164
0.012064,0.096423,-0.162775,-0.483590,0.783052,0.391113
0.191842,0.199188,0.478463,-0.114389,0.927506,0.355877
0.890635,0.170829,0.502260,0.246754,0.853109,0.459692
0.380613,0.471640,-0.191182,0.377707,0.925467,-0.029137
0.618144,0.849102,-0.981275,-0.124794,-0.024281,0.991885
0.402808,0.715732,-0.982236,-0.055274,0.008503,0.998435
-0.340106,-0.199425,0.306023,-0.123033,0.475607,0.871011
-0.118848,-0.470064,0.556780,0.802302,0.119592,0.584816
0.539596,0.795494,0.641451,0.853140,-0.521454,0.015412
0.293713,0.451513,-0.103414,-0.333887,0.929945,-0.154019
0.643358,-0.122932,0.279627,0.253843,0.393445,-0.883609
0.227558,-0.254884,0.189598,0.943265,0.308209,-0.123524
-0.245827,0.099496,0.512406,0.966678,0.169886,0.191499
0.406313,0.294824,-0.473283,0.460935,0.859240,0.221914
0.277660,-0.219513,0.529084,0.833170,-0.491006,0.254443
0.425924,0.523476,0.719661,-0.491393,0.618706,0.612973
0.376522,0.695171,0.615215,0.521644,-0.684849,0.508792
0.629403,-0.007720,0.603823,-0.201490,-0.542558,0.815496
0.420262,0.496888,-0.856965,0.892869,0.407033,0.192634
0.935512,-0.103553,0.030401,0.059585,0.633705,0.771276
-0.507490,0.024973,0.298548,0.940080,-0.330400,-0.084172
0.593575,0.467150,0.763430,0.442588,0.848445,0.290271
0.098155,0.060344,0.559966,0.947648,0.148013,-0.282941
0.019229,0.326887,0.557118,0.965324,-0.219054,-0.142005
0.498540,0.486096,-0.124488,0.024822,0.998822,-0.041704
-0.035558,0.482748,0.479157,0.114723,-0.400179,-0.909228
-0.160762,0.175201,-0.064772,0.053233,0.285948,0.956765
0.503604,0.695722,0.643035,0.196417,0.911239,0.362028
0.871781,-0.069797,0.225535,-0.588197,0.576149,-0.567517
-0.474089,-0.164645,0.455003,-0.284002,0.397564,0.872517
0.452749,0.498464,-0.972589,-0.420884,-0.791440,0.443261
0.311653,0.408776,0.311719,-0.488497,-0.123204,-0.863824
0.499619,0.205766,0.700901,0.751410,-0.599304,0.276074
0.638827,0.058256,-0.011409,-0.341141,0.056843,0.938292
-0.252131,-0.193241,0.537058,-0.449823,-0.068288,0.890503
-0.635118,0.091540,-0.022374,0.518008,0.169530,-0.838408
0.290379,-0.090436,0.580293,0.621257,0.658591,-0.424614
0.378890,0.078108,0.632961,-0.038116,-0.886200,0.461732
0.013896,-0.037459,0.552686,0.908115,-0.389140,-0.154586
0.411594,0.511265,-0.883148,0.947730,-0.082277,-0.308282
0.630856,0.773318,0.638799,0.547472,0.810250,-0.209213
0.194966,0.290216,0.586985,0.798658,0.366646,0.477196
0.303518,0.257563,0.450465,0.141970,0.757933,0.636696
