-0.309354,0.432851,0.192661,0.126357,0.555061,0.822156
-0.342844,0.167418,0.884795,0.064785,-0.025257,0.997580
-0.386108,-0.820356,0.432011,-0.691169,-0.677895,0.250488
-0.224247,-0.366564,-0.559033,-0.404625,0.826086,-0.392250
0.249039,0.398696,0.604359,0.902540,-0.182758,0.389898
-0.668331,-0.465690,0.745190,-0.458819,0.139073,-0.877578
-0.360570,0.547195,0.693853,0.121821,-0.262847,0.957116
-0.514961,-0.216178,0.662353,0.200720,0.163833,0.965852
0.340941,-0.233328,-0.347965,-0.372597,-0.868744,-0.326275
0.197487,-0.094203,0.169232,0.874884,-0.483196,0.033170
0.034063,-0.240678,-0.195982,0.671502,-0.356735,0.649480
-0.495737,-0.472945,0.889035,-0.352443,-0.845470,0.401204
-0.427271,0.369768,0.751047,-0.764495,0.303888,0.568506
-0.260792,-0.557136,-0.535825,0.667253,0.568888,0.480770
0.170930,0.359450,0.916857,-0.197012,-0.392697,-0.898318
-0.220649,-0.006338,0.214814,0.639861,-0.203995,-0.740921
0.516590,-0.290900,0.894858,0.790135,-0.372116,0.487048
0.240076,0.815691,0.799064,-0.177726,-0.810580,0.558009
0.124199,-0.081200,-0.091452,0.847955,-0.529490,-0.024774
0.073597,-0.194695,0.015512,0.932051,0.215202,0.291494
-0.358941,0.041860,0.888626,-0.284946,0.041862,0.957629
0.211682,-0.525712,0.454946,-0.526325,0.849646,-0.032912
-0.144778,0.381782,0.668704,0.328531,0.935195,-0.132205
0.031145,0.270265,0.629831,-0.479529,-0.741381,0.469475
0.347056,-0.215989,0.564328,0.241730,0.944582,0.222107
-0.065106,-0.276105,-0.898314,0.661385,-0.747462,0.062210
0.175274,-0.128077,0.252290,0.906094,-0.417419,-0.068953
0.334490,0.276861,0.809790,0.971027,0.237696,-0.024627
-0.074546,-0.421827,-0.977201,-0.050473,-0.059572,0.996947
-0.264730,0.407222,0.305687,0.007698,-0.691727,0.722118
-0.363966,-0.795433,0.418202,-0.342093,-0.056280,0.937979
0.248972,-0.173494,0.247352,0.999440,0.030758,-0.013161
-0.185058,0.214387,0.417282,-0.833909,0.511523,-0.207221
0.126981,-0.281758,-0.723157,0.975296,0.218457,-0.032777
-0.593070,-0.057503,0.759952,-0.296785,0.339953,0.892385
0.113943,-0.196156,-0.660276,-0.056743,-0.995422,0.076906
-0.273697,-0.110456,0.652767,0.449207,0.533998,0.716281
0.094039,-0.239077,0.381679,-0.599159,0.800012,-0.031456
-0.158090,-0.028715,0.231960,-0.249671,0.093355,0.963820
-0.163459,-0.095992,0.223463,0.046023,-0.360350,0.931681
0.632670,-0.383053,0.113502,0.610286,-0.119378,-0.783134
0.244557,-0.129774,0.359748,-0.247383,0.964565,0.091742
-0.263644,-0.043746,0.639179,-0.071037,0.602083,0.795267
0.417151,-0.016465,0.331330,-0.523904,0.050549,0.850276
0.288232,-0.470165,-0.963153,0.033072,-0.073083,-0.996777
0.023197,-0.328731,0.365214,0.519040,-0.657322,0.546375
-0.229409,-0.506017,0.462881,0.830155,0.366413,-0.420220
0.162166,-0.154179,0.547710,0.447343,0.831278,0.329940
0.301341,-0.411840,0.719326,-0.055780,0.758652,0.649104
-0.541518,0.181174,0.802333,0.391949,-0.006402,-0.919965
0.190696,-0.374196,-0.671412,0.911168,-0.290007,-0.292692
0.619632,-0.381120,0.086378,0.659285,-0.037591,-0.750953
0.377145,-0.112342,0.551132,0.119694,-0.659639,0.741990
-0.388691,-0.466208,0.895828,0.150487,0.555486,0.817795
0.763968,-0.133636,0.575839,-0.054975,0.891004,0.450654
0.374633,-0.460365,0.916874,0.162146,-0.188986,-0.968500
0.923246,-0.160160,0.797769,0.180732,0.182583,0.966436
-0.088264,0.145980,0.660259,0.946131,0.217680,0.239690
-0.331770,0.368637,0.203116,0.280302,-0.506959,-0.815122
0.503821,-0.492778,-0.958573,0.068925,-0.112224,-0.991290
0.012530,-0.090152,0.889239,-0.009418,0.575317,0.817876
-0.142946,0.028620,0.890499,0.572459,0.382282,-0.725362
-0.172559,0.046854,0.745735,-0.161704,-0.335581,0.928029
-0.109187,-0.445760,0.637425,0.141470,-0.670241,0.728535
0.518493,-0.255706,0.912396,-0.756100,0.421698,-0.500482
0.223232,-0.459801,-0.217759,-0.316153,0.213419,0.924391
0.156461,-0.581210,0.799080,-0.515884,0.776513,-0.361789
0.310105,0.417444,0.642159,0.866600,0.427585,-0.257246
0.023741,-0.245811,-0.976775,-0.387283,-0.020507,0.921733
-0.115912,0.154271,0.887519,-0.104601,0.180986,0.977907
0.563594,-0.801935,-0.021267,-0.111411,0.117683,-0.986782
0.103006,-0.139194,-0.304785,0.656772,-0.733358,0.175606
0.552795,-0.203034,0.914337,0.889824,0.041041,0.454455
-0.065106,-0.173494,0.743794,0.932324,0.196273,0.303724
-0.416334,0.206143,0.926954,0.208504,0.028686,0.977601
-0.482968,-0.243977,0.749787,-0.401293,0.755003,0.518589
0.373273,0.150832,0.862609,0.984623,0.105276,-0.139410
0.659774,-0.133449,0.084437,-0.309596,0.021135,0.950633
-0.029445,-0.385738,0.317708,-0.521838,-0.646693,0.556303
0.359688,-0.470070,0.466304,0.864631,-0.443678,-0.235717
0.319818,0.239876,0.719173,0.609836,-0.539103,0.580920
0.280422,-0.612824,-0.195879,0.239883,-0.344438,-0.907645
-0.262015,-0.436196,0.442176,0.455217,-0.526586,-0.717973
-0.034743,0.434830,0.669113,0.258437,-0.798818,-0.543231
-0.474818,-0.022309,0.873268,0.698437,0.492260,0.519486
-0.127184,-0.675154,0.689086,0.112047,-0.983703,0.140623
-0.174462,-0.255283,0.904291,-0.333340,-0.307089,0.891393
0.128411,-0.220420,0.438583,0.189989,0.682613,0.705651
-0.316286,-0.423618,-0.549617,0.484023,-0.810064,-0.330935
-0.543081,-0.351203,0.588592,0.078436,-0.752996,0.653334
-0.468363,0.544322,0.691452,0.137758,0.163377,-0.976899
-0.463608,-0.345504,0.950979,0.391296,0.396673,0.830384
-0.539549,-0.965982,0.397719,-0.119672,-0.125829,0.984807
0.595176,0.011706,0.558744,0.949282,-0.163038,-0.268854
0.231042,0.106594,0.920620,0.914656,-0.401765,0.044594
-0.059261,0.067348,0.762592,0.739768,0.448609,-0.501491
-0.419054,-0.266164,0.894738,0.704071,-0.496330,0.507879
0.131127,-0.111304,0.085970,0.978941,0.156602,-0.130961
-0.086025,0.029894,0.900068,0.811729,-0.210036,0.544960
0.009272,-0.254858,0.463341,0.188941,0.627001,0.755759
0.384002,0.107442,0.311272,0.200897,-0.935106,0.291921
0.439293,-0.103391,0.763767,-0.465264,0.734715,0.493683
0.227850,0.765329,0.730393,0.961776,-0.249223,0.113467
0.077738,-0.162423,-0.381798,-0.700494,0.710068,-0.071493
-0.403292,0.832936,0.690175,0.514178,-0.843570,0.154956
0.126235,-0.186687,-0.180317,-0.085351,-0.212021,0.973531
0.053150,0.591622,0.895181,0.769162,-0.319573,0.553411
-0.249246,0.092366,0.887110,0.100439,0.529002,-0.842656
0.248906,-0.270641,-0.960242,0.682881,-0.025061,0.730100
0.018239,-0.237239,0.446245,-0.118622,0.958760,0.258280
0.178060,-0.188901,-0.829372,-0.280252,0.937222,0.207540
0.342844,-0.081999,0.964805,0.715561,-0.450779,0.533640
0.057632,0.520009,0.866985,0.409801,-0.471012,0.781160
0.027339,0.062308,0.529338,0.559320,0.776283,-0.290766
-0.335779,-0.375893,0.435195,0.685777,-0.229091,0.690816
-0.081950,-0.423946,0.227805,-0.504097,-0.812033,-0.294091
0.006146,-0.375372,-0.971888,-0.145851,-0.241504,0.959376
0.541315,-0.611127,0.740575,0.647640,0.576002,0.498783
0.501918,-0.211279,-0.382496,0.755502,0.265010,0.599154
-0.749840,-0.318272,0.597276,0.142690,-0.326140,0.934490
0.651960,0.025276,0.702758,0.902502,0.285509,-0.322452
-0.111633,-0.302019,0.495181,0.699898,-0.035407,0.713365
-0.021021,-0.623141,0.838890,-0.166022,-0.973680,0.156153
0.029171,0.157523,0.257330,-0.113080,0.665201,-0.738052
-0.383459,0.074885,0.870492,-0.043426,-0.882689,0.467946
-0.305147,-0.391015,0.429695,-0.459859,0.276323,-0.843905
0.131056,0.480200,0.609688,-0.222012,0.313811,-0.923165
0.049755,-0.334243,0.837987,0.890181,0.353275,-0.287705
0.823874,0.034369,0.773284,0.741469,-0.601594,-0.297168
0.009069,0.256695,0.637017,-0.479529,-0.741381,0.469475
0.047172,0.431485,0.861485,-0.315746,0.487595,-0.813975
-0.294414,0.159783,0.893377,-0.278714,-0.027816,0.959971
0.327969,-0.665826,0.474476,0.967589,-0.023908,-0.251396
0.241908,-0.062920,0.240661,0.956650,-0.083446,-0.279031
0.062797,-0.240442,0.751354,0.689235,0.568434,0.449264
0.337682,-0.833454,-0.012770,0.262725,0.200702,0.943766
-0.489286,0.053638,0.739247,-0.573651,0.224438,-0.787752
0.053490,-0.033946,0.913520,0.943388,0.061539,-0.325933
0.208900,0.742339,0.659476,-0.466054,0.398183,0.790091
0.163592,-0.295092,-0.703542,0.924140,0.070678,-0.375459
-0.518219,-0.563919,-0.133986,-0.447398,-0.224455,-0.865711
0.097435,-0.211043,-0.655508,-0.255848,0.947463,-0.191976
0.416538,0.484062,0.729729,0.939993,-0.311072,-0.140167
0.204348,-0.247416,-0.640031,0.652014,0.151445,0.742928
0.546543,-0.533344,0.875685,0.630793,0.559957,0.537166
-0.260655,-0.446890,0.449549,-0.440062,0.525614,0.728063
-0.252301,-0.909918,0.463443,0.893588,-0.194943,-0.404349
0.266496,-0.108713,0.436251,-0.457505,0.880130,-0.126733
0.492615,-0.219994,0.732181,0.473763,0.865959,-0.160200
0.606046,0.199736,0.295982,0.205811,0.190400,-0.959890
0.185327,-0.217734,-0.509705,0.867858,-0.492932,0.061970
-0.107965,-0.083978,0.788285,0.415681,0.867253,0.274012
0.565223,-0.315210,0.295692,0.679959,-0.048838,-0.731622
0.262421,-0.172645,0.930785,0.275382,0.029855,0.960871
-0.109934,-0.304610,-0.511561,-0.723835,0.625021,0.292254
0.105112,-0.369627,-0.709331,0.826767,-0.329103,-0.456233
0.565020,-0.508844,0.905585,-0.632043,-0.399872,-0.663795
-0.519985,0.019812,0.348987,0.045197,-0.093645,0.994579
-0.020478,0.654378,0.840984,-0.696204,0.474587,0.538580
-0.181115,-0.184283,0.912294,0.324269,0.118315,-0.938537
0.280762,-0.553979,0.058556,0.928732,-0.128479,-0.347779
-0.548242,-0.470211,0.639179,-0.471141,-0.731472,0.492924
0.021564,0.197758,0.923004,0.297932,0.665713,-0.684151
0.215214,-0.313090,0.506521,-0.265892,-0.902612,0.338515
-0.201968,-0.258061,-0.988558,-0.156027,0.132442,0.978833
0.368041,-0.278086,-0.965520,0.076823,0.094310,0.992574
-0.233824,0.086382,0.450911,-0.053938,0.186327,0.981006
0.252098,-0.395208,-0.966286,-0.079405,-0.287554,0.954467
0.624519,-0.233092,0.922748,0.052613,0.960789,0.272245
0.061031,0.898987,0.790703,0.650449,0.473992,0.593505
0.126711,-0.202186,-0.713366,0.809873,-0.582480,0.069448
0.094922,-0.185462,0.600273,0.894479,0.363501,0.260336
0.008998,0.000072,0.825592,0.958977,-0.093839,-0.267503
-0.284426,0.354078,0.779278,0.221968,-0.542891,0.809938
-0.453016,-0.346398,0.886055,-0.191490,0.604886,-0.772945
-0.017285,0.012931,0.841836,-0.548781,0.835895,-0.010913
0.082630,0.246567,0.385953,0.409084,0.221681,0.885160
-0.425982,0.045158,0.868619,-0.237519,-0.055588,-0.969791
0.747257,0.038469,0.730921,0.664683,0.340527,-0.665009
0.157887,-0.206002,-0.820399,-0.326817,0.928267,0.177515
-0.723689,-0.074322,0.572314,-0.274545,0.018074,0.961404
0.078281,0.373865,0.393598,0.113252,0.116371,0.986728
0.541924,-0.072720,0.761400,0.252021,0.254783,-0.933580
-0.027065,0.396904,0.679806,0.479965,0.798720,-0.362878
0.260249,-0.105369,0.457330,0.965520,-0.230028,0.121897
0.010089,-0.004687,0.214677,0.069580,-0.272144,0.959737
0.133502,-0.168263,-0.359033,0.836855,-0.531420,0.131400
-0.038342,-0.647923,0.696458,-0.768118,0.602725,0.216143
-0.099540,0.543238,0.694858,0.773905,-0.144085,-0.616693
-0.759213,0.276154,0.791010,0.048563,-0.163783,0.985300
-0.471352,0.820122,0.673983,0.326664,0.835781,0.441318
0.434812,0.437941,0.776469,0.828226,-0.451226,-0.332321
-0.007983,-0.159030,-0.970458,0.659495,-0.473039,-0.584210
0.095399,-0.188288,-0.385340,-0.299740,0.939895,0.163566
-0.539752,-0.410238,0.770083,0.782261,-0.222346,0.581920
-0.299915,-0.580126,-0.738992,0.113445,0.792117,0.599734
0.935203,-0.292783,0.919888,0.457693,0.045003,0.887971
0.098728,-0.114838,-0.163102,0.349097,0.925998,-0.143731
0.077941,-0.444725,-0.972110,-0.056216,-0.137523,0.988902
0.559859,-0.107301,0.563273,-0.580741,0.503037,0.640073
0.050907,-0.333679,-0.168738,-0.156041,0.878913,0.450737
0.459603,0.247272,0.930070,0.988011,0.011451,-0.153959
0.516864,-0.825255,-0.015239,0.250740,0.061555,0.966096
0.252235,-0.040117,0.291265,0.951761,-0.296513,0.078938
0.632604,-0.204731,0.911800,-0.191878,-0.980520,-0.041996
0.739513,-0.250242,0.103218,-0.618008,0.045991,0.784825
0.748480,-0.413864,0.894228,0.949194,0.188561,-0.251945
0.561011,-0.288872,0.296782,-0.674205,-0.112665,0.729900
0.461639,-0.062779,0.610097,0.068104,-0.822092,0.565266
-0.406758,-0.065321,0.894500,0.234418,0.728909,0.643226
0.219969,0.693621,0.734412,0.522195,-0.824306,-0.218707
-0.328918,-0.439399,-0.160957,0.020627,0.376869,0.926037
0.659638,-0.307673,0.093479,0.566520,-0.238629,-0.788740
-0.189133,0.868647,0.778359,-0.629051,0.680953,0.374964
-0.018848,-0.171185,0.663596,-0.050289,0.892392,0.448451
0.092004,-0.429648,0.871071,0.305048,-0.329752,-0.893425
-0.303584,0.027303,0.876384,0.279200,-0.893605,0.351449
-0.450976,0.838118,0.659101,0.212817,0.169272,0.962318
-0.033586,-0.191584,-0.974987,0.463829,-0.491566,-0.737039
-0.444728,0.800618,0.658045,0.053147,0.699956,0.712206
0.232058,-0.514969,0.501345,0.214784,0.962417,0.166195
-0.024213,-0.348943,0.768636,-0.157547,-0.062829,-0.985511
0.595586,-0.879954,-0.012038,-0.660290,-0.230767,0.714677
-0.280082,-0.076677,0.958011,-0.826504,0.191587,0.529325
0.084123,-0.218628,-0.923021,0.608469,-0.793529,-0.008809
0.297606,0.671057,0.675907,-0.453260,-0.040161,0.890473
-0.304873,-0.228003,0.877184,-0.350183,0.448897,0.822109
0.683140,0.127324,0.709467,0.855832,0.045868,-0.515217
0.431620,-0.614285,0.488286,0.917853,-0.367367,0.150292
0.508033,-0.155872,0.753738,0.040040,-0.015463,0.999078
-0.007029,-0.551247,-0.099319,-0.026524,0.372762,0.927548
-0.287349,0.743092,0.666303,0.086425,0.354940,0.930886
0.143626,-0.144094,0.138141,0.980637,0.176346,-0.085168
-0.279945,0.828838,0.650417,-0.144770,-0.189308,-0.971187
-0.469449,-0.520010,0.751711,0.266172,0.150510,0.952103
0.061574,-0.227014,0.894006,-0.773576,0.427935,0.467389
0.675599,-0.108854,0.301992,0.901738,0.376195,-0.212945
0.132279,-0.297025,-0.822254,0.822974,-0.300128,-0.482324
-0.496011,0.052743,0.770918,-0.620599,0.766689,-0.164452
-0.510612,-0.406092,0.770799,0.693690,0.168804,0.700214
0.107691,-0.278699,-0.766014,0.968364,-0.248328,-0.024568
-0.165901,0.225932,0.421658,-0.182867,0.552086,0.813487
0.382916,0.292783,0.354912,-0.831105,0.436088,0.345096
0.044457,-0.448351,-0.973455,-0.077620,-0.010542,0.996927
0.266836,0.132270,0.798996,0.881414,-0.264477,-0.391358
-0.544234,0.122755,0.804631,0.993515,-0.023656,-0.111216
0.258279,-0.194413,-0.966252,0.256311,0.210018,0.943503
-0.245303,-0.304797,0.712259,-0.337560,0.831767,0.440700
-0.763288,-0.109843,0.311851,-0.109522,-0.369552,0.922733
-0.301478,0.162986,0.283773,0.146512,0.583399,0.798861
0.635659,-0.554404,-0.813485,0.627845,-0.017070,-0.778151
0.447647,-0.502106,-0.959799,-0.121670,0.092020,0.988296
-0.570318,0.049822,0.582990,0.658759,0.498323,-0.563658
0.183561,-0.114036,-0.025438,0.990559,-0.123616,-0.059260
0.139211,0.166380,0.266831,-0.225603,-0.476990,0.849461
-0.304736,-0.111022,0.913656,-0.663923,-0.612980,0.428323
-0.503547,-0.385267,-0.587638,0.284339,0.918873,-0.273538
-0.086838,0.110128,0.651200,0.932411,0.299183,0.202728
0.636612,-0.360204,0.562745,0.398762,0.527560,-0.750113
-0.662556,-0.418201,0.569504,0.270565,-0.039796,0.961879
-0.153472,0.400720,0.868636,-0.483860,0.033716,-0.874496
0.068705,-0.627760,0.828520,0.258570,0.127060,0.957600
0.267110,0.024428,0.920194,0.385182,0.670362,0.634231
-0.087112,0.156108,0.798996,0.813846,0.367074,-0.450456
-0.149803,-0.740122,0.413077,0.357260,0.222634,0.907083
1.000000,-0.059952,0.774595,0.325445,0.523567,0.787378
0.519919,-0.025276,0.951439,0.108800,0.556021,0.824017
0.103346,-0.227249,-0.891708,-0.296408,0.947577,0.119333
0.291831,0.603401,0.677218,0.360064,0.548865,-0.754388
0.154152,-0.490989,0.519394,0.749461,0.377992,0.543535
-0.248632,-0.411745,0.929610,0.175150,-0.758397,0.627819
-0.076855,0.651080,0.649940,0.473579,-0.038365,0.879915
-0.302630,0.300133,0.812940,-0.388915,0.853996,-0.345596
-0.177451,0.269040,0.432113,-0.181025,0.895892,-0.405719
0.019868,0.093826,0.869283,-0.179732,-0.541629,0.821179
0.199187,-0.553038,0.838430,0.172018,-0.102231,-0.979775
-0.033043,0.255424,0.923055,0.948013,0.230167,-0.219759
-0.357648,-0.624320,-0.500187,0.783387,-0.099999,0.613437
0.293124,0.044499,0.897889,0.439309,0.645273,0.625004
-0.128544,0.397798,0.686634,0.480582,0.789806,-0.381113
-0.718934,-0.154883,0.549276,0.136114,-0.181164,0.973988
-0.289998,0.614520,0.677882,0.395821,-0.031100,0.917801
-0.234438,-0.268378,0.880810,-0.188778,-0.172018,0.966836
0.167397,-0.563356,0.533118,0.794659,0.546469,-0.264365
0.646529,-0.199690,0.903286,0.865173,0.499215,-0.047541
-0.032703,-0.561047,0.811255,0.786205,0.000108,-0.617966
-0.466667,0.071823,0.880606,-0.523747,-0.839266,-0.146018
0.114892,-0.191728,-0.478086,0.888437,-0.357853,0.287438
-0.050567,0.469411,0.394415,0.307672,0.036774,-0.950782
-0.855323,-0.598831,-0.769300,-0.506623,-0.611897,0.607384
-0.215554,0.429366,0.874783,0.001429,0.346675,0.937984
-0.056748,-0.534097,0.871173,0.933812,0.352746,0.059705
0.107218,0.400533,0.857262,0.992613,-0.103284,0.063649
0.412396,-0.126803,0.943606,-0.683455,-0.535027,0.496624
0.675259,0.098962,0.748357,0.427062,0.774323,-0.466950
0.221329,-0.783419,-0.088115,-0.410510,0.504339,-0.759686
0.063746,-0.054391,0.894790,0.982670,-0.162149,0.089820
0.688028,-0.314174,0.872093,-0.202004,-0.550663,-0.809917
-0.120596,0.077666,0.908071,0.732545,-0.087896,-0.675020
0.363423,0.083555,0.911204,-0.042492,-0.780533,0.623669
0.784345,-0.306730,0.808854,-0.324812,-0.031211,0.945264
-0.159856,0.209631,0.892593,0.213432,0.236938,-0.947791
-0.247140,0.351582,0.222374,-0.407690,0.636568,0.654652
-0.005126,0.420084,0.480215,0.531791,0.488643,-0.691683
0.305279,0.033946,0.299489,-0.735901,-0.664406,0.130440
-0.160059,0.263668,0.233305,0.143342,0.844859,0.515428
-0.495468,0.729192,0.675549,0.188382,0.281915,-0.940764
0.431280,-0.109608,0.753567,-0.195892,0.403181,-0.893908
0.314586,-0.464793,0.735212,-0.167952,-0.545263,-0.821267
-0.192595,-0.333820,0.581883,0.342713,0.213028,-0.914968
-0.501238,0.020989,0.881270,-0.057118,-0.171075,0.983601
0.026862,0.666625,0.932420,0.132990,-0.234088,0.963077
0.514215,-0.008267,0.590397,-0.698267,0.700791,-0.145999
0.087588,0.448446,0.634156,-0.665428,0.438602,-0.604015
-0.087792,-0.270782,-0.492270,-0.596658,0.795259,0.107527
0.034200,0.919953,0.781679,0.508615,0.757156,0.409909
-0.483851,-0.447080,-0.484233,-0.889380,0.139746,-0.435286
0.318392,-0.173307,0.520671,0.519107,0.853797,-0.039493
0.454371,-0.373489,-0.963920,-0.014702,-0.058463,0.998181
-0.469723,-0.335753,0.674681,-0.875824,0.443787,-0.189695
-0.107421,-0.207650,-0.986532,-0.193749,0.081694,0.977644
0.344539,-0.285200,-0.967172,0.125713,0.046225,0.990989
-0.096825,-0.169442,0.921573,-0.230558,-0.624988,-0.745810
-0.336932,0.771876,0.701549,0.995500,0.092167,-0.022033
0.009338,0.633318,0.897191,0.163492,-0.334287,0.928182
0.238446,-0.206520,0.941699,0.315276,0.769679,0.555153
-0.335236,-0.693575,-0.817759,0.296042,0.598067,-0.744765
-0.590015,-0.214151,0.921352,-0.011042,-0.230977,0.972896
0.312617,0.048502,0.568874,0.586791,0.768727,-0.254429
-0.147361,-0.182491,0.793581,-0.817897,0.247369,-0.519474
0.661673,-0.515771,0.013962,-0.174858,0.661687,-0.729106
-0.348142,-0.434784,0.888336,0.556520,-0.242005,-0.794807
0.044117,0.438881,0.894841,0.507823,0.856526,-0.092079
0.126235,-0.137923,0.112123,-0.817650,0.555711,0.150449
0.239599,0.509033,0.627907,-0.155143,-0.896587,0.414805
-0.179217,0.278886,0.605602,-0.629522,0.114235,-0.768539
0.047852,-0.092694,0.621301,0.857062,0.483015,0.179279
0.454782,-0.478975,-0.962183,0.138402,-0.100913,-0.985221
0.598368,-0.220466,0.837766,0.959206,-0.075745,-0.272374
0.106605,-0.175898,-0.466967,0.738390,-0.659927,0.138840
0.170113,-0.030507,0.920024,-0.710073,0.563301,0.422479
0.232808,-0.134484,0.468449,0.904533,-0.422605,-0.056784
0.080321,-0.252313,-0.689716,0.885032,-0.416533,-0.207891
-0.218203,0.289016,0.800817,0.237367,-0.871806,0.428500
-0.405605,0.903039,0.668057,-0.003447,0.226257,0.974062
0.077262,-0.148381,-0.180623,0.944505,-0.229032,0.235489
0.123113,-0.232667,0.443436,-0.198513,-0.616051,-0.762282
-0.169433,-0.314315,-0.974459,-0.152765,0.173312,0.972947
0.439837,-0.210148,0.929014,0.326001,0.382639,0.864471
0.367021,0.671103,0.699591,-0.670942,0.338212,0.659885
0.179486,-0.372264,-0.681321,0.897566,-0.307631,-0.315814
0.116861,0.331937,0.923634,-0.642664,0.756538,0.120970
-0.470129,0.797932,0.685050,0.806767,0.331312,-0.489244
-0.512718,-0.183811,0.914626,-0.352596,0.316465,-0.880640
-0.315673,0.772066,0.664635,0.000971,0.361293,0.932452
0.559316,-0.041814,0.957926,-0.431439,-0.472488,0.768515
0.518559,-0.280065,0.577405,0.083022,-0.123078,0.988918
-0.053490,-0.286612,0.889733,0.285362,0.889305,-0.357359
0.631584,0.152482,0.300324,0.705612,-0.338605,-0.622462
0.171609,-0.534287,0.854384,0.027712,0.552977,0.832736
-0.489216,0.696778,0.675226,-0.106419,-0.009657,0.994275
0.167331,-0.192809,-0.188609,0.652130,-0.721504,0.232719
0.144372,-0.164732,-0.038004,0.843689,-0.351702,-0.405579
-0.434605,-0.306258,0.923957,0.627079,-0.650837,-0.427999
0.311394,0.777625,0.672586,-0.690069,0.247573,0.680083
0.308202,-0.229840,0.939452,0.355993,-0.467595,0.809088
-0.302224,-0.358838,-0.546245,-0.632753,0.756522,-0.165219
-0.570451,-0.313136,0.923548,0.987297,0.153590,-0.040681
-0.021158,-0.212880,0.904121,0.520983,-0.069676,0.850718
0.120327,-0.136793,0.090329,0.969720,0.241254,-0.037946
0.585330,-0.407222,0.301583,-0.413370,0.428032,0.803688
0.414908,-0.326375,0.901566,-0.551084,0.574982,-0.604733
0.586756,-0.174296,0.935808,-0.282044,-0.729975,0.622565
-0.441876,-0.094154,0.902350,0.680380,0.719834,0.137556
0.420277,-0.367930,0.032641,-0.226270,-0.337894,0.913581
-0.359485,-0.549599,0.864873,0.106741,-0.632771,0.766946
-0.199999,0.439212,0.678818,-0.166993,-0.709921,0.684198
0.383053,-0.146639,-0.969470,-0.047372,0.105893,0.993248
-0.120667,0.028293,0.909944,0.854914,0.254571,-0.452013
0.070537,-0.166805,-0.401090,0.683278,-0.727046,0.067337
0.172219,0.725896,0.743504,0.783309,-0.444955,0.434099
0.145255,-0.178724,-0.907849,-0.443736,0.879298,0.173014
0.486227,0.208969,0.944032,-0.145557,0.125670,0.981336
0.038681,-0.297778,-0.016925,-0.656269,0.302566,0.691205
0.075155,0.427575,0.910642,0.516555,0.680794,-0.519317
-0.509799,-0.106689,0.698127,-0.664381,-0.486833,-0.567091
0.310034,0.064944,0.621710,0.947405,0.235691,-0.216505
0.451047,-0.249253,0.778239,-0.516252,0.856002,0.027290
0.241162,-0.110410,0.517027,0.782539,-0.593039,0.189571
0.186754,-0.064568,0.124349,0.730944,-0.680429,-0.052308
0.581864,-0.511860,0.020347,0.010040,-0.996407,0.084099
0.627848,-0.224563,0.951643,0.844195,-0.534055,0.046042
-0.336119,0.263151,0.621642,-0.093370,0.233787,-0.967794
0.418714,-0.603119,0.617129,0.999241,-0.027028,0.028067
-0.413959,-0.605569,-0.015903,0.863556,0.156195,0.479453
0.109324,0.251985,0.925336,0.140827,-0.101336,0.984834
-0.813754,-0.366846,-0.597480,-0.051570,0.998080,-0.034301
-0.600408,-0.551482,0.791436,-0.326481,-0.132647,0.935850
-0.390320,0.185554,0.875413,0.173503,-0.131363,-0.976033
-0.293597,0.008880,0.210012,0.408431,0.074089,-0.909778
-0.107894,-0.098867,0.769011,0.835482,0.222217,-0.502582
0.443232,-0.372876,-0.961876,0.016117,-0.102968,0.994554
0.351604,0.230217,0.939707,0.820693,-0.006679,0.571330
0.753505,0.156439,0.787383,-0.646101,-0.636623,0.421028
0.236341,-0.265460,0.028231,-0.580076,-0.170754,0.796464
-0.001325,0.552377,0.644441,0.468947,0.175700,0.865574
-0.066868,0.137029,0.915359,-0.336646,-0.264708,0.903659
0.378435,-0.260511,-0.970526,0.011132,0.131589,0.991242
0.484938,-0.361523,-0.960293,-0.065563,-0.003803,0.997841
0.737614,-0.455795,0.903763,0.948362,0.206322,-0.240918
0.184378,-0.259335,-0.683075,0.826138,0.324275,-0.460806
0.103209,-0.215140,-0.332913,0.988739,-0.145881,-0.033389
0.587979,-0.049963,0.347965,0.248838,-0.583808,0.772818
-0.157953,0.222444,0.791163,0.736798,0.381049,-0.558508
-0.421226,-0.444676,0.885714,0.416753,0.776548,0.472535
0.129427,-0.169111,-0.580317,-0.748096,0.605731,0.271005
0.578739,-0.235824,0.803695,0.924493,0.356045,-0.136181
0.656989,0.089870,0.745207,0.444471,0.733470,-0.514264
0.110477,-0.391628,-0.695505,0.887865,-0.339582,-0.310452
-0.148447,0.911709,0.747506,0.135177,0.983529,0.119988
0.571405,-0.132365,0.947880,-0.222541,-0.545582,0.807970
-0.387534,0.820168,0.715427,0.772850,0.514598,-0.371337
0.052673,-0.616781,-0.032828,0.849590,-0.442381,0.287221
-0.587299,-0.303101,0.750162,0.716078,0.596540,0.362452
0.003837,-0.249440,0.944032,0.634527,0.706788,-0.312772
0.106199,-0.238133,-0.841206,-0.604306,0.768525,0.210197
-0.485141,-0.440532,-0.467206,0.911437,-0.040802,0.409411
0.278179,-0.146308,0.547948,0.042461,-0.999087,0.004669
0.132690,-0.157569,0.592559,0.936700,0.155436,0.313739
-0.312480,0.003980,0.852307,0.302320,-0.812070,0.499144
-0.512992,-0.489716,0.765231,-0.723486,0.163259,-0.670757
-0.102260,-0.491979,0.882122,0.605581,0.307202,-0.734097
-0.524877,-0.347859,-0.157228,-0.053723,-0.003778,0.998549
0.222821,-0.241337,-0.894041,-0.203441,0.849032,0.487602
-0.332856,-0.751618,0.443998,0.250002,0.918217,0.307207
-0.110953,-0.668417,0.691197,0.112047,-0.983703,0.140623
0.475498,-0.510259,0.719496,0.407880,0.270759,0.871965
0.597693,-0.053543,0.454214,-0.247641,-0.004189,0.968843
0.170996,-0.216837,0.379227,-0.694652,0.719262,0.011024
-0.273697,-0.293445,0.914303,-0.553687,-0.042372,-0.831646
0.134659,-0.124684,0.059646,0.992776,-0.063918,-0.101537
-0.324980,-0.346070,-0.175481,0.098347,0.272637,0.957077
-0.046969,0.579186,0.874477,-0.128147,0.214239,0.968339
0.263918,-0.529763,-0.779602,0.971687,-0.036656,-0.233412
0.443302,0.223669,0.905449,-0.632453,0.759151,-0.153927
-0.108508,0.333395,0.848595,-0.634989,0.754665,-0.165134
0.318185,0.313657,0.717827,0.880344,-0.411335,0.236218
-0.246186,-0.225225,-0.988371,-0.190102,0.113931,0.975131
0.572221,-0.886692,-0.035144,0.928476,0.224795,-0.295633
0.258143,-0.015476,0.242568,0.906356,0.084941,-0.413889
-0.134928,0.979788,0.763017,-0.885581,0.015129,0.464238
-0.013890,0.159832,0.582241,0.560769,-0.230877,0.795132
0.152183,-0.093260,0.029338,0.936764,0.333788,-0.105157
0.649108,-0.431155,0.560446,0.047740,-0.842475,0.536616
0.317236,-0.549504,0.926443,0.176425,-0.490500,0.853395
-0.256513,-0.144801,0.890465,-0.554110,-0.316424,0.769960
0.304873,-0.214059,0.938090,-0.039609,0.381973,0.923324
0.256174,0.046101,0.259288,0.738110,0.405935,-0.538898
-0.002411,0.050153,0.878869,0.922748,-0.119361,0.366455
0.540362,-0.224377,0.771054,0.966057,-0.201991,-0.161036
-0.391949,-0.222398,-0.145054,-0.111737,0.527344,-0.842273
0.058312,0.234789,0.899779,-0.346585,0.047482,0.936816
0.052333,-0.318698,-0.185919,-0.209358,0.748492,0.629229
0.030394,-0.350685,-0.963460,0.026308,-0.575501,0.817378
0.262624,-0.474406,0.848749,0.437214,-0.160907,0.884846
-0.281371,-0.577063,0.843470,0.584445,0.350093,0.732024
-0.321377,-0.453676,0.855542,0.883918,0.464778,0.051668
-0.014093,-0.351393,0.350792,0.089729,-0.907615,0.410102
0.389914,0.038561,0.931398,-0.225681,0.969280,0.097801
0.074886,-0.325432,0.882632,0.872268,0.488855,-0.012994
-0.620581,-0.239545,-0.786310,-0.254269,0.162409,-0.953400
0.197147,-0.165014,0.198961,0.977793,0.208270,0.023323
0.381287,-0.335045,0.691963,0.977396,0.013267,-0.211000
-0.676278,-0.302255,0.752818,0.167142,-0.968369,0.185270
-0.606726,-0.491930,-0.098553,-0.630537,0.722609,-0.283302
-0.242182,0.550163,0.806402,-0.413184,0.233341,0.880245
-0.081270,0.935030,0.749157,0.097710,-0.957517,0.271318
-0.042960,0.187015,0.826290,0.972571,0.020840,-0.231673
-0.415791,-0.438881,0.908207,0.527461,0.474598,-0.704656
0.372390,-0.316530,0.043470,-0.217457,-0.137381,0.966353
-0.055459,-0.254481,-0.982718,-0.388830,0.100502,0.915811
-0.652706,-0.136698,0.755406,0.359960,-0.022782,0.932690
0.237356,-0.126852,0.445428,-0.726751,0.677627,0.112489
-0.410087,-0.698947,0.669879,-0.079234,0.854255,0.513780
0.142333,-0.519020,-0.970356,0.137603,-0.089320,-0.986452
0.431280,-0.045348,0.231143,0.234253,0.627597,-0.742460
-0.086162,0.097973,0.915699,0.005221,-0.223091,0.974784
0.100967,0.376551,0.844185,0.845042,-0.527608,0.086795
-0.196330,-0.295754,0.902605,-0.082628,0.841850,0.533349
-0.313430,-0.266213,0.916142,-0.441487,-0.234639,-0.866045
-0.201156,0.119597,0.900392,-0.013811,-0.109242,0.993919
0.400034,-0.472569,-0.966303,-0.150176,0.050135,0.987387
-0.560062,-0.309039,0.906538,0.908892,-0.031831,0.415814
0.087112,0.191302,0.902792,-0.647720,-0.248335,0.720269
0.053556,-0.216650,-0.235757,0.004943,0.989041,0.147556
-0.343996,-0.677791,-0.530513,0.759220,0.119652,0.639741
0.312277,0.096087,0.897463,0.326144,0.320389,0.889371
-0.065442,0.096463,0.595300,0.361298,0.411001,0.836984
0.085279,0.330191,0.897207,0.298105,-0.901341,-0.314195
-0.206383,-0.220135,-0.819530,0.366394,0.466033,0.805338
0.040381,-0.681184,-0.016823,0.548716,-0.062502,-0.833669
-0.484121,-0.191728,0.762830,0.444573,0.872773,-0.201548
-0.475701,-0.554450,0.666082,0.998012,0.060596,0.017299
-0.442962,0.045017,0.874715,0.866729,0.179506,0.465358
0.101103,-0.225648,-0.543794,0.704122,0.707628,-0.058944
-0.219563,0.388047,0.639962,-0.038207,-0.945659,0.322907
0.344813,-0.413723,0.712906,-0.120290,0.758129,0.640914
-0.394802,0.570846,0.699796,0.180862,0.853739,-0.488282
0.237563,-0.173776,0.535791,-0.208428,-0.936517,-0.281946
0.382713,-0.437846,-0.962881,-0.114647,-0.085875,0.989688
0.442349,0.219664,0.283331,-0.180273,-0.329724,0.926706
-0.501985,0.695602,0.679636,0.351098,-0.445955,-0.823319
-0.369061,0.845609,0.668449,-0.103897,0.121586,0.987128
-0.223501,-0.342110,-0.553601,-0.403589,0.824416,-0.396806
0.216234,-0.131045,0.407032,0.869792,-0.492662,-0.027307
-0.372796,-0.361428,0.892031,0.824288,-0.016337,0.565934
-0.438207,-0.812960,0.419819,-0.265968,-0.540698,0.798065
0.191782,-0.448963,0.225796,-0.686940,0.273573,0.673254
0.182339,0.398742,0.560770,0.323683,0.941236,-0.096453
0.271185,-0.493911,-0.761144,0.869000,0.491392,-0.058078
0.666702,-0.313041,0.785680,0.540532,0.426570,-0.725164
0.098931,-0.434548,-0.003048,-0.709262,-0.060267,0.702364
0.301411,-0.005064,0.938038,-0.108750,0.494005,0.862631
0.212158,-0.573624,-0.210472,0.249587,-0.339190,-0.907004
0.007983,0.317800,0.886191,0.076924,0.831791,0.549733
-0.596399,-0.267579,0.748050,-0.580918,-0.781458,-0.227721
-0.021564,-0.174011,0.946637,-0.140811,0.851488,0.505114
0.093699,-0.051705,0.232045,-0.032956,-0.166668,0.985462
0.689321,0.175236,0.302673,0.705612,-0.338605,-0.622462
0.568959,-0.597371,0.033867,0.758997,0.481847,0.437889
0.092207,-0.519161,-0.972280,-0.120748,0.004622,0.992672
0.151436,-0.098301,0.047046,0.999733,0.007277,-0.021948
0.229749,0.026030,0.295062,0.970296,-0.239838,0.031685
0.245237,-0.010953,0.712072,0.828160,0.301711,-0.472358
-0.158364,0.486561,0.667785,-0.191735,-0.310476,0.931044
0.413142,-0.569009,0.258948,0.143091,0.833545,0.533599
0.180166,-0.213021,-0.776043,0.503418,-0.840151,0.201783
0.094516,0.393937,0.386600,0.351605,0.328323,0.876685
0.485008,-0.395256,0.876298,0.640092,0.573643,0.511093
0.120936,0.414290,0.847829,0.959211,-0.213149,0.185692
0.135065,0.499093,0.634923,-0.166556,0.965330,-0.200992
0.656445,-0.028103,0.592150,0.658459,0.192789,-0.727505
0.218340,-0.440814,0.081100,0.738839,0.576188,0.349463
0.296860,0.586346,0.675141,0.463275,0.378121,-0.801499
-0.595379,-0.079267,0.900988,-0.104572,0.544065,0.832501
-0.205704,-0.092553,0.917657,-0.717704,0.413486,-0.560294
-0.487180,-0.773478,0.434293,0.433649,0.819736,-0.374141
0.047786,-0.325622,0.638226,0.393142,0.085768,0.915469
0.211073,-0.143481,0.392678,-0.753666,0.651321,-0.088136
-0.159176,0.044545,0.887042,-0.486348,-0.244993,0.838716
0.335439,0.237426,0.367717,0.331356,-0.334555,-0.882199
-0.342570,-0.692350,0.426205,-0.396980,0.715367,-0.575028
0.294007,-0.120397,0.457517,0.850419,-0.509598,-0.130757
0.015793,0.010907,0.899676,0.856143,0.124367,-0.501550
0.420277,-0.291230,0.253346,-0.651288,0.370275,0.662360
-0.074952,-0.180513,0.913298,0.797817,0.519762,0.305509
0.234164,-0.320064,0.492082,-0.550786,0.721222,0.420087
0.570385,-0.465406,0.896697,0.362844,0.293002,0.884587
-0.932417,-0.375703,-0.575975,0.158771,0.979654,-0.122763
0.164205,-0.155355,0.553125,0.428195,0.767477,0.477103
-0.258006,-0.161244,0.250417,-0.093580,0.590873,0.801319
-0.484598,-0.450755,-0.152716,0.157819,0.372135,0.914663
0.560265,-0.242280,0.751626,0.976611,-0.116688,-0.180594
-0.305213,0.077194,0.869181,-0.127845,-0.568744,0.812518
-0.251621,-0.764527,0.460531,0.857044,0.371120,0.357415
0.160267,-0.094390,0.062353,0.992776,-0.063918,-0.101537
-0.012464,-0.180608,0.780606,0.846668,0.310475,-0.432155
0.125555,-0.526324,0.002707,0.974590,0.127445,-0.184209
0.050775,-0.271064,0.380163,-0.589122,0.520262,-0.618274
0.174599,-0.137923,0.549838,0.023397,0.995872,0.087703
0.116724,-0.211845,0.440150,0.189989,0.682613,0.705651
0.258483,-0.293445,0.560565,-0.153451,0.521043,-0.839623
-0.100627,0.229417,0.239826,0.122466,0.596195,0.793444
0.040584,-0.164401,0.660531,0.998944,0.018942,0.041868
-0.129903,0.122565,0.648749,0.858535,0.512649,-0.010480
0.508440,-0.565947,0.334241,0.509441,-0.537681,-0.671840
-0.501579,-0.948223,0.392082,-0.122507,-0.188204,0.974459
-0.314586,-0.212693,0.854402,0.806590,-0.100139,0.582568
0.247683,0.041247,0.293019,0.969976,0.088153,-0.226660
-0.346173,0.229041,0.761451,0.275485,0.411503,-0.868777
0.371101,-0.018116,0.959799,-0.214701,0.537937,0.815186
0.207470,0.060044,0.732420,0.117148,-0.434521,0.893011
0.043710,-0.804761,-0.077984,-0.385611,0.286737,-0.876975
0.278112,0.221737,0.416891,0.914147,0.350333,0.203967
-0.405875,0.419377,0.761110,0.488407,0.833554,-0.258159
-0.537712,-0.355870,0.772910,0.721510,0.541246,0.431829
-0.296992,0.780264,0.667155,-0.118395,0.257874,0.958897
0.513332,-0.011048,0.751984,-0.447489,-0.113488,0.887059
0.183765,-0.333630,-0.686651,0.961009,-0.090558,-0.261269
0.462319,0.155731,0.943913,0.583120,0.099064,-0.806323
-0.120800,0.091000,0.614728,-0.682938,-0.730308,0.015675
-0.050364,0.117570,0.913758,-0.072761,-0.036187,0.996693
0.069451,0.746954,0.713383,-0.199414,-0.783644,0.588333
-0.058378,0.328072,0.888405,0.118288,0.807463,0.577937
0.415319,-0.391863,-0.960872,0.036505,0.003630,0.999327
0.395349,-0.282607,0.245377,-0.695696,0.477000,0.537102
-0.655969,0.722739,0.704665,0.657293,-0.134668,0.741506
0.524674,-0.334148,0.285527,-0.683206,0.148026,0.715065
-0.631923,-0.505218,-0.795743,-0.212125,-0.141098,0.967003
0.338971,0.279593,0.905806,-0.625947,0.757242,0.186481
-0.053287,-0.377871,-0.975702,-0.124458,0.082012,0.988830
0.039635,-0.364491,0.913400,-0.621571,-0.113236,0.775130
0.067685,-0.591812,-0.099796,0.909882,-0.248495,-0.332213
0.459537,-0.527500,0.522714,-0.558607,0.808116,0.186835
-0.391680,-0.251749,0.754248,0.579713,0.798998,-0.159796
0.338698,-0.393652,0.048919,0.655471,0.100991,0.748438
-0.322670,-0.315963,0.883126,-0.073572,-0.931121,-0.357214
0.592121,-0.015335,0.329372,-0.645617,0.685130,-0.337308
0.100967,-0.138582,-0.056751,0.992240,0.020323,-0.122663
0.311191,-0.410756,0.027567,0.990504,0.047630,0.128972
-0.045136,-0.034415,0.887638,-0.156244,0.139255,0.977853
0.254544,-0.238179,0.198144,0.860769,0.460190,-0.217489
0.145321,-0.229794,-0.480061,-0.790307,0.573448,-0.215807
0.468363,-0.292878,0.774255,-0.603636,-0.083251,-0.792901
0.722740,-0.106735,0.554674,0.215739,0.769277,0.601389
0.675056,0.166049,0.716874,0.946977,0.115342,-0.299885
0.061914,0.120917,0.560089,0.457072,0.811289,-0.364549
0.248226,-0.365339,0.900698,-0.331675,0.522065,-0.785774
0.662013,-0.535322,-0.802673,0.627845,-0.017070,-0.778151
0.115978,0.293160,0.932011,-0.110550,0.241672,0.964040
-0.378841,-0.269888,0.882190,0.920982,-0.102494,0.375883
0.240822,0.414617,0.612123,0.734174,-0.227823,0.639597
-0.777753,-0.416976,-0.616772,-0.409697,0.513720,-0.753817
0.245440,0.204023,0.704240,0.636862,-0.591848,0.494088
-0.237833,-0.518879,-0.766865,-0.464907,0.601329,0.649819
0.435421,-0.282561,0.916550,-0.545580,0.511242,-0.664059
0.430057,-0.152010,0.714865,0.638838,0.759457,0.122926
-0.220106,-0.211325,0.818100,0.853296,-0.149002,0.499685
-0.047918,-0.150832,0.780164,0.902576,0.117135,-0.414289
-0.220172,-0.581305,-0.563579,0.951085,0.008869,0.308801
0.024963,-0.488870,0.929763,0.848402,-0.378423,0.370149
0.220922,-0.080021,-0.982105,-0.177803,0.134256,0.974865
-0.065919,-0.714871,0.560548,0.288657,-0.811859,0.507506
0.550689,0.132741,0.289596,0.385995,0.138036,-0.912115
0.503821,-0.318272,0.069607,0.630276,0.022839,-0.776035
-0.541315,-0.118323,0.927141,0.194418,0.514653,0.835065
0.112720,-0.233279,0.628469,0.798202,0.178675,0.575281
0.075155,-0.246659,-0.612804,0.999385,-0.004167,-0.034828
0.126981,-0.006525,0.900392,0.770065,0.238206,-0.591826
0.327832,0.308567,0.922782,-0.463511,0.867406,0.181007
0.406078,0.380272,0.592474,-0.153800,-0.800347,-0.579474
-0.343930,0.282043,0.765418,0.200765,0.333196,-0.921235
0.011581,-0.423759,0.927294,-0.683954,-0.307638,-0.661488
0.132076,-0.569196,0.777354,-0.544047,0.832116,-0.107686
0.836170,-0.001625,0.755968,-0.242017,0.696477,0.675535
0.171813,-0.319497,-0.688745,0.955378,-0.014090,-0.295050
-0.625199,0.181125,0.778614,0.142121,0.196449,-0.970159
0.142536,-0.310971,-0.870220,-0.355391,0.825494,0.438471
-0.502735,-0.407975,0.758301,0.484480,0.144593,0.862770
-0.053287,-0.281902,-0.713741,0.062192,-0.890815,0.450091
0.233215,0.322841,0.932794,0.562409,0.744067,0.360638
0.219020,-0.537631,0.776486,0.616187,-0.786201,-0.046926
-0.373136,0.053874,0.889988,-0.303519,-0.260648,-0.916482
-0.789506,-0.125110,0.560191,-0.104557,-0.101570,0.989319
-0.353233,-0.592330,-0.032317,0.790176,0.128980,0.599154
0.448397,-0.052226,0.451252,-0.405343,0.286242,0.868195
0.413553,0.165060,0.601379,0.337713,0.515362,0.787624
0.280828,-0.496925,-0.038873,-0.877794,-0.090065,0.470495
0.191986,-0.551764,0.453755,0.807815,-0.391318,0.440800
0.558905,0.030553,0.469675,0.372387,0.767050,-0.522458
0.084396,-0.189278,-0.187740,-0.443192,0.549305,-0.708410
0.495874,-0.025607,0.955338,0.079517,0.502439,0.860948
0.330004,-0.470636,0.059850,-0.296007,0.360067,0.884721
-0.454985,-0.761985,0.417827,0.346646,-0.105216,0.932076
-0.249109,-0.425832,0.941205,0.080629,-0.260542,0.962090
0.271185,0.420084,0.594960,0.915346,-0.278359,0.290961
-0.338358,-0.214387,0.908616,0.376432,0.563148,-0.735638
-0.424825,-0.198652,-0.788200,0.269785,0.013462,0.962826
-0.471489,-0.130151,-0.137323,-0.276719,0.585959,-0.761629
-0.127731,-0.282138,0.641733,-0.266058,-0.805309,0.529802
-0.354456,-0.160726,0.577644,0.355526,0.934655,-0.004586
-0.147834,-0.277896,0.496799,-0.684427,0.152002,-0.713060
0.256986,-0.567548,0.784284,0.039215,0.997369,0.060962
0.016403,-0.026265,0.661876,-0.522030,-0.851861,-0.042626
-0.443708,-0.172174,0.908718,-0.094772,0.990898,-0.095602
0.748683,-0.387104,0.902248,-0.648651,-0.159440,0.744198
0.588046,-0.236908,0.830938,0.895456,-0.444178,-0.029392
-0.147087,-0.490989,0.774749,0.575696,-0.070128,-0.814651
-0.278995,0.709595,0.674970,0.365423,0.283240,0.886703
0.288709,-0.374667,0.225302,0.783785,-0.244658,-0.570810
-0.006009,-0.275306,0.461587,0.217119,0.605598,0.765578
-0.138871,-0.652446,0.432845,0.721959,0.290032,0.628217
0.338088,0.255801,0.786991,0.863289,0.302937,-0.403684
0.002411,-0.152246,0.796833,0.893419,0.308841,-0.326220
0.124129,-0.101740,-0.012498,0.875442,-0.314990,0.366583
-0.380880,-0.230171,0.905023,0.882761,-0.466965,0.051734
0.721243,-0.144707,0.576911,-0.186548,-0.795471,-0.576563
-0.288369,-0.032813,0.700579,0.769769,-0.152140,0.619926
-0.563320,-0.393229,-0.640133,0.175580,0.959968,-0.218249
0.742232,-0.380367,0.577354,0.285839,0.482494,-0.827947
0.306233,0.421732,0.533339,0.025355,0.327265,0.944592
-0.409884,0.788604,0.661485,0.168188,0.663300,0.729209
0.507420,-0.129633,0.940814,-0.150780,-0.453737,0.878287
-0.101646,-0.371700,-0.635229,-0.701562,0.673465,-0.232926
0.288709,-0.080728,0.916584,0.804264,-0.092026,-0.587104
-0.024893,-0.062825,0.791878,0.921064,-0.314178,0.230074
0.111837,0.401709,0.829968,-0.229483,0.848215,-0.477356
-0.359008,-0.673788,-0.046467,0.838648,0.148495,0.524041
0.026456,-0.246990,0.901737,-0.147820,-0.553694,0.819495
0.190763,-0.163081,0.304001,0.925279,0.361218,-0.115674
0.088538,-0.232857,-0.629321,0.801560,-0.542802,0.250733
-0.655019,0.081812,0.335927,-0.357018,0.145879,0.922636
-0.136014,-0.659089,0.684505,0.112047,-0.983703,0.140623
0.116795,0.031165,0.912617,0.762824,0.526796,-0.374948
-0.578398,0.050811,0.761740,0.492685,0.258617,-0.830891
0.575957,0.019999,0.545990,0.945060,-0.231175,-0.231126
0.122906,0.075216,0.571003,-0.385370,-0.879129,0.280395
-0.472169,-0.498245,0.778699,-0.523778,0.667376,-0.529402
-0.491662,0.164211,0.755525,0.746580,0.241655,0.619855
-0.335033,0.032531,0.207747,-0.155643,-0.176878,0.971848
-0.394939,-0.087230,0.455644,-0.051775,0.129698,0.990201
-0.267110,0.184895,0.275464,0.177804,0.469434,0.864880
0.343183,-0.369908,-0.961655,-0.096154,0.007602,0.995337
-0.241842,-0.567643,0.421454,0.701831,0.044706,0.710939
0.251622,0.532967,0.665929,0.452083,0.673105,-0.585277
0.048126,0.501589,0.923429,0.803396,0.498156,-0.326183
0.421226,0.221455,0.576588,-0.092201,0.748869,0.656273
0.269485,-0.421591,0.051456,0.466454,0.365150,0.805659
0.498386,-0.337590,0.065486,0.666868,0.041634,-0.744012
-0.463678,0.246613,0.798740,0.343078,-0.525765,-0.778376
0.384073,0.287978,0.952631,-0.425486,-0.904205,0.037079
0.118221,-0.587571,0.890192,0.081987,-0.627075,0.774632
0.234981,0.183624,0.702316,0.844477,0.011800,0.535461
0.107351,-0.125768,0.586532,0.854890,0.239941,0.459991
-0.241365,-0.313041,0.863664,0.536440,-0.521322,-0.663668
-0.335846,0.035171,0.886446,-0.090545,-0.692727,0.715493
0.538666,0.167087,0.899387,-0.484681,-0.043438,-0.873612
0.432635,-0.201573,0.960702,0.045208,-0.492728,0.869008
0.335576,0.265741,0.923480,0.794629,0.545213,0.267035
0.251215,0.338815,0.530257,-0.795447,-0.505518,0.334238
0.543011,-0.100138,0.476724,0.474345,0.678592,-0.560812
0.169027,-0.364301,0.034752,0.276364,0.833558,0.478335
-0.499269,-0.561705,0.623583,0.795764,0.200675,-0.571392
0.566923,-0.346493,0.074357,0.559073,0.030173,-0.828569
0.311121,-0.416691,-0.963886,0.124124,0.123064,-0.984606
-0.029714,-0.216133,-0.184863,0.404073,-0.432795,0.805862
0.364783,-0.516855,0.843896,-0.523781,-0.069334,-0.849027
0.210053,-0.122752,0.233356,0.948822,-0.302201,-0.091710
0.268669,-0.322278,0.918355,0.017621,-0.777685,0.628407
-0.138054,0.380885,0.871429,0.323054,-0.253710,0.911739
-0.321174,0.194741,0.881287,-0.476450,-0.054002,0.877542
-0.272951,-0.254999,-0.562047,0.394644,-0.378654,0.837184
0.076992,-0.260039,0.736404,0.642954,0.676164,0.359740
-0.251688,0.402040,0.201652,-0.549347,0.299554,0.780054
0.239056,-0.296930,0.430138,-0.242278,-0.362931,-0.899768
-0.082290,-0.681420,0.577456,0.369772,0.708105,-0.601545
0.566989,-0.512142,-0.957603,-0.079959,0.139589,0.986976
-0.298285,-0.118231,0.903763,0.393152,0.886058,-0.245627
-0.134725,-0.290241,-0.979653,-0.161056,0.158585,0.974121
-0.301204,0.266872,0.852069,0.456362,-0.752933,-0.474158
0.507760,-0.496453,0.895215,0.007288,0.566545,0.823999
-0.083919,0.974557,0.778733,0.811416,0.285615,-0.509930
-0.605909,-0.270736,-0.436966,0.448137,0.749952,0.486565
-0.145728,-0.261031,-0.986515,-0.178663,0.135393,0.974550
0.122773,-0.540647,0.045122,0.696784,0.360702,-0.619989
0.176497,-0.205720,-0.889750,-0.390477,0.902543,0.181506
-0.317845,-0.027680,0.335621,0.240700,-0.174857,0.954719
0.193072,-0.161951,0.552409,-0.010188,0.964049,0.265528
-0.039295,0.303055,0.643300,-0.195717,-0.513987,0.835172
-0.071491,-0.339568,0.391657,-0.610641,0.497353,-0.616244
0.121007,0.225461,0.449004,-0.203027,0.812599,-0.546317
0.349365,0.048787,0.947557,-0.265363,0.795889,0.544190
0.666022,-0.230171,0.067172,-0.399335,0.036451,0.916080
-0.579895,-0.170055,0.925234,0.048449,-0.096596,0.994144
-0.231925,0.154460,0.639316,-0.401842,-0.378266,0.833929
0.101717,-0.436713,0.520654,0.799255,0.368882,0.474466
-0.546203,0.078184,0.848851,-0.449351,-0.887026,0.106153
0.351264,-0.679393,0.045547,-0.567160,-0.661377,0.490826
-0.457360,0.213352,0.448204,-0.050265,0.178107,0.982726
0.314247,-0.149230,0.944339,-0.438630,0.394219,-0.807586
-0.191169,0.020425,0.681338,-0.663825,0.073047,-0.744312
0.263101,-0.476100,0.833271,0.049059,0.378791,0.924181
0.236204,-0.303949,-0.649481,0.957468,0.156285,-0.242550
0.159176,-0.433464,0.900613,0.677266,-0.631645,0.377274
-0.497569,-0.373443,0.931722,0.435788,0.835514,-0.334672
0.150960,0.108006,0.588507,-0.654640,0.671527,-0.347128
0.052404,-0.331181,0.533152,-0.685387,0.255346,-0.681941
0.262558,-0.220089,0.942840,-0.227381,-0.847685,-0.479300
-0.718594,-0.342677,0.591163,-0.287065,0.370696,-0.883277
0.355679,-0.298155,0.248459,-0.710627,0.468215,0.525152
-0.287212,-0.489388,0.415171,0.498725,-0.007338,0.866729
-0.364372,-0.258061,0.929116,-0.624332,0.382804,-0.680934
-0.624859,0.089870,0.790959,-0.633431,0.344136,0.693062
0.190696,-0.225225,-0.577848,0.946416,-0.275306,-0.168829
-0.020614,0.444912,0.389631,-0.172764,-0.164937,0.971055
0.724029,-0.366705,0.890141,0.381284,0.084607,-0.920578
0.319002,-0.410002,0.908616,0.483896,-0.585519,-0.650393
0.617998,-0.379001,0.555100,-0.024447,-0.707476,0.706314
0.051927,-0.073801,0.212038,0.206846,-0.017197,0.978222
-0.744405,-0.525712,-0.649038,0.397307,-0.763290,0.509447
-0.264664,0.316153,0.228844,-0.426188,0.386258,0.818027
-0.739513,-0.386069,0.585152,0.330066,-0.310272,0.891509
-0.192462,-0.724200,-0.051030,0.143503,-0.193313,0.970586
-0.364032,-0.276717,0.777218,0.487177,0.820851,0.298097
0.690133,-0.168263,0.943130,0.824268,0.556912,-0.102134
-0.386585,0.309226,0.774357,0.904605,0.133966,-0.404652
-0.128137,-0.183199,-0.987621,0.198813,-0.055638,-0.978457
0.627985,-0.015617,0.804665,0.445038,0.865313,0.230598
0.092887,-0.219241,-0.898485,-0.341836,0.925657,0.162198
-0.332517,0.920189,0.639707,0.282777,0.316756,0.905375
0.505654,-0.171561,0.590959,0.172126,0.556674,0.812703
0.084802,-0.243787,-0.593717,0.992874,-0.054752,-0.105848
-0.735371,-0.166239,0.557875,0.217709,-0.013754,0.975917
0.877805,-0.003557,0.750911,-0.533736,0.358432,0.765932
0.058448,0.457633,0.916448,0.666824,0.590439,-0.454673
0.581595,-0.569386,-0.818372,-0.667584,0.023918,0.744151
-0.253184,0.530235,0.816074,-0.517304,0.281893,0.808043
-0.122905,0.419753,0.662132,-0.117662,-0.752091,0.648471
0.164682,-0.105697,0.224604,0.834165,-0.151258,-0.530368
0.582884,-0.216745,0.594534,0.824977,0.253201,-0.505275
-0.197487,-0.339143,-0.076009,0.102583,-0.677915,0.727948
0.357242,0.080539,0.878291,-0.737531,-0.344241,-0.580987
-0.074409,0.654706,0.635740,0.423879,-0.025049,0.905372
-0.046019,-0.270593,0.466968,-0.742544,0.079222,-0.665096
0.350451,-0.449104,0.906930,0.145836,-0.486549,-0.861395
-0.259162,-0.910107,0.439111,-0.696359,0.199617,0.689375
-0.438004,-0.144143,0.597395,0.600536,0.752299,-0.270932
0.013484,-0.376128,0.002724,0.276230,-0.958998,-0.063402
-0.176228,0.303104,0.805704,0.356860,-0.656349,0.664723
0.192802,-0.133541,0.266559,0.927659,0.366518,0.071504
-0.718594,0.033426,0.771122,0.215064,-0.349963,0.911742
-0.514418,-0.253210,0.664277,0.927244,-0.086336,0.364368
-0.537920,-0.275918,0.562524,0.015536,0.469921,0.882572
-0.272678,-0.392947,-0.099762,0.151974,-0.400507,0.903603
0.066259,-0.546157,-0.110438,0.942214,-0.202164,-0.267137
0.017153,-0.303291,-0.889120,-0.450579,0.879212,0.154805
-0.287283,0.657864,0.694211,0.878417,0.392990,0.271924
-0.123656,-0.148948,0.903797,0.305012,0.943697,0.128080
-0.102123,0.329061,0.892729,-0.215563,0.635226,0.741633
0.468570,-0.506865,-0.960906,-0.108029,0.065667,0.991977
0.074546,0.103436,0.249430,-0.040195,-0.613709,0.788508
0.134588,-0.155119,-0.963937,-0.050087,0.840195,0.539966
-0.169230,-0.064898,0.957858,0.064300,-0.967060,0.246295
-0.369330,-0.221124,0.881679,0.536666,-0.439255,0.720447
-0.085412,-0.198934,0.753822,-0.785325,-0.200973,-0.585555
0.343250,-0.249394,0.427924,0.230071,0.355385,0.905963
0.148651,-0.164211,0.197395,0.984445,0.170684,0.041642
0.520462,-0.540222,0.607270,0.994765,0.102134,0.003295
-0.292511,-0.111681,0.671990,-0.314179,-0.919567,0.235983
0.107421,0.178207,0.600358,0.371343,0.662893,-0.650137
0.589948,-0.624602,0.023174,0.902800,0.361696,0.232655
0.500696,-0.282842,0.857041,0.785071,-0.606162,0.127405
-0.371644,-0.423805,0.872024,0.625214,-0.756409,-0.192231
-0.011581,0.294434,0.842636,0.200919,0.852468,0.482627
-0.278792,0.639017,0.685680,0.494467,-0.043186,0.868123
0.350994,0.115497,0.804768,-0.732284,-0.544235,0.409351
0.066193,-0.375562,-0.141478,-0.154333,0.753907,0.638596
-0.205094,0.811829,0.651626,0.271850,0.428723,0.861565
0.209646,-0.164119,0.386327,0.833106,-0.548732,0.069479
