0.320203,-0.093702,0.023988,0.886611,-0.412962,0.208287
0.257922,0.136033,0.075239,0.347907,0.194153,-0.917205
-0.063028,-0.446804,0.849556,-0.379787,0.758731,0.529234
-0.001438,0.210947,0.488540,-0.795636,-0.559537,0.232125
-0.102420,-0.034539,0.495264,0.396964,0.904214,-0.157532
-0.776986,0.273907,0.141531,0.189189,-0.082221,0.978492
-0.048363,0.260421,0.905360,0.979195,-0.165491,0.117431
-0.123986,0.021617,0.604420,0.918908,0.308232,-0.246172
0.144919,0.571361,0.570013,-0.615198,-0.202846,0.761830
0.074588,-0.275719,0.043074,0.226962,-0.300743,0.926305
0.313359,-0.258778,0.628583,0.752690,0.644240,-0.135695
0.291334,-0.063385,-0.976905,-0.386543,0.193170,0.901815
-0.464316,0.082765,0.787974,0.931400,-0.357328,0.069365
-0.030766,-0.043096,0.301921,-0.053951,0.988049,0.144390
0.236758,-0.203694,-0.762060,0.973733,-0.184470,-0.133471
0.325952,0.110193,0.839540,-0.228992,0.961808,0.149958
-0.401059,0.485394,0.264520,-0.267978,0.948543,-0.168682
0.268331,-0.883094,0.751606,0.286724,0.094190,-0.953372
-0.125251,-0.725498,0.844706,0.656360,0.359462,-0.663309
0.247571,-0.134844,-0.818179,-0.435000,0.896748,0.081349
-0.088677,0.884114,0.228030,0.850023,0.412928,-0.327033
0.254989,-0.150425,-0.356674,0.722791,-0.679531,-0.125739
0.072517,0.563825,0.543573,0.133569,-0.117708,0.984024
-0.149231,0.590174,0.153088,0.817323,-0.458261,-0.349256
-0.331991,0.022866,0.520127,-0.122737,-0.514146,0.848876
0.068204,0.520075,0.574880,0.195084,0.025354,-0.980459
-0.363160,0.273793,0.248954,0.191073,-0.879331,0.436198
0.083962,0.485847,0.409641,0.136273,0.983836,-0.116175
0.294324,-0.274246,0.957241,0.781659,-0.323564,-0.533213
0.419173,-0.196555,-0.231917,-0.012939,-0.633655,0.773507
-0.262753,-0.097385,0.523542,-0.136271,0.570516,0.809902
0.286504,-0.563880,0.507818,0.022867,-0.925920,0.377026
0.448330,0.081233,-0.844006,0.895478,-0.293538,-0.334596
0.649147,-0.066557,-0.962161,-0.047015,0.067809,0.996590
0.113003,-0.142321,0.516293,0.288232,-0.939427,0.185472
0.106849,0.870400,0.287983,0.975945,-0.072259,0.205695
-0.033986,0.426231,0.955648,0.236962,-0.829652,-0.505496
0.335901,-0.546427,0.948101,-0.474002,-0.240526,-0.847035
0.002358,-0.134615,0.275043,0.745483,0.666278,-0.018101
0.439300,0.725896,0.413475,0.103422,0.647240,0.755238
-0.141123,-0.243930,0.895799,0.775682,0.524977,0.350309
0.065731,0.092567,0.941587,0.977915,0.190381,0.086238
0.364829,-0.803756,0.905150,-0.519581,-0.365562,0.772270
0.319915,-0.202279,0.103605,0.800506,0.589883,-0.105963
0.445281,-0.326778,-0.961111,0.057037,0.008348,-0.998337
0.420266,-0.344234,0.086201,-0.192704,-0.216323,0.957115
-0.553684,0.115236,0.496262,0.107829,-0.814416,-0.570175
0.207545,-0.355849,0.568314,0.882901,0.464179,-0.070881
0.209730,0.090924,0.606240,-0.648144,0.223465,-0.727992
-0.215769,-0.641685,0.798060,-0.167678,-0.270204,0.948089
-0.338432,0.855212,0.334944,-0.061797,0.928206,0.366898
0.182357,-0.550280,0.899949,0.415476,0.818658,-0.396457
-0.620911,-0.277535,0.460997,-0.139361,0.848124,0.511140
-0.565184,0.303884,0.321129,0.048392,-0.654822,0.754232
0.241130,-0.415125,0.042496,-0.477762,-0.286464,0.830471
0.058428,0.271016,0.581552,0.440588,-0.465182,-0.767781
-0.281212,-0.166519,0.456444,0.109532,0.828230,0.549579
0.337397,0.250675,0.686435,0.301906,0.912372,0.276459
0.058312,0.122091,0.952881,0.901811,0.089403,0.422782
-0.385473,-0.115236,0.288036,-0.569687,-0.319080,-0.757393
0.040831,0.171109,0.799706,0.358078,0.674164,0.645975
-0.081891,0.698129,0.554131,0.661662,-0.400153,-0.634098
0.229168,-0.058000,-0.358197,0.659705,0.611092,-0.437442
0.011387,0.262064,0.169372,-0.523878,0.484858,-0.700332
-0.688999,0.243761,0.302499,0.122470,-0.237274,0.963692
-0.212548,0.341398,0.584213,0.235320,-0.211878,0.948542
0.154465,0.450259,0.550787,-0.374744,-0.424360,0.824309
-0.207775,-0.402203,0.949957,0.947894,0.047463,-0.315030
-0.367302,-0.153998,0.709583,0.740559,-0.671195,0.032706
-0.150383,0.325249,0.974226,0.795316,0.039127,0.604932
0.006786,-0.586888,0.843428,0.782284,-0.617295,-0.083534
0.446663,0.640042,0.405876,0.895897,-0.444241,-0.004345
0.352062,-0.207945,0.724309,0.278709,0.925734,-0.255613
-0.545344,0.435867,0.339462,-0.751607,-0.229250,-0.618491
0.668066,-0.195137,0.965663,0.837517,0.541763,-0.071125
0.296107,0.317373,0.624976,0.839521,0.220047,0.496774
-0.084939,-0.370244,0.502845,0.839563,0.301127,-0.452169
0.010294,0.354718,0.967940,-0.142618,-0.275946,0.950534
0.028237,0.084408,0.807025,0.830461,-0.499800,0.246039
0.349359,-0.048990,0.893768,-0.181467,0.970522,-0.158608
0.311002,-0.068539,-0.967344,0.377188,-0.293325,-0.878459
0.618782,0.010172,0.775928,0.992278,0.123965,0.004107
-0.532694,-0.092909,0.798235,0.125329,-0.649103,0.750305
-0.731440,0.463351,0.374919,-0.235591,0.267636,-0.934274
-0.029788,-0.502169,0.795714,-0.754475,0.235476,-0.612633
-0.323250,0.184031,0.774719,0.371595,0.854971,-0.361859
-0.390362,0.555776,0.201765,0.988734,0.139331,-0.054700
-0.576916,-0.381011,0.288631,0.921328,-0.304819,0.241329
-0.065271,0.446292,0.617919,-0.835829,0.117444,0.536281
0.014376,-0.204206,0.910963,-0.680623,-0.692682,-0.238629
-0.489332,0.818549,0.292973,0.996954,-0.009298,-0.077439
0.364138,0.676989,0.403670,0.439304,-0.070285,0.895585
0.092587,0.181423,0.930399,-0.112689,0.985832,0.124240
-0.117027,-0.025584,0.602021,0.940461,0.331126,-0.076738
-0.130197,-0.183917,0.421512,0.745609,-0.559373,0.362171
0.254012,-0.276003,0.503423,0.844415,-0.425802,-0.325049
0.121917,0.774575,0.195427,-0.376448,0.854316,-0.358373
0.143654,-0.008923,0.643396,0.983289,0.167677,0.070907
0.111334,0.639817,0.557388,-0.821756,0.536196,0.192901
0.162229,-0.091152,0.599972,0.637263,0.655821,0.404716
-0.005636,-0.253054,0.932745,0.294089,0.149343,0.944038
-0.625626,0.193553,0.308382,0.600687,0.449720,0.661005
-0.186555,-0.502791,0.949554,-0.321210,-0.243116,0.915269
-0.155442,-0.015160,-0.035212,0.717471,0.660432,0.221504
-0.279659,0.365596,0.810387,-0.537906,-0.113307,-0.835356
-0.600035,0.054714,0.325717,0.861855,0.083196,0.500284
-0.754673,-0.153089,0.580746,0.890874,-0.417879,-0.178103
0.322848,-0.459951,0.323720,0.165892,0.917945,0.360358
-0.267295,0.293629,0.803278,-0.378482,0.731533,-0.567107
-0.652539,0.664184,0.274833,-0.644926,-0.751196,-0.140623
0.006154,0.186639,0.923640,0.116280,0.992752,0.030375
0.490827,0.621171,0.421512,0.418966,0.880329,0.222458
-0.706309,-0.206018,0.556478,-0.501779,0.505934,-0.701604
0.025532,0.173603,0.162421,0.603367,0.138855,-0.785282
0.223475,0.202390,0.348742,0.026067,-0.769909,0.637621
-0.061591,0.105544,0.466740,0.651174,0.272259,-0.708411
-0.011905,0.466298,0.945562,-0.027642,0.008679,0.999580
-0.196274,0.344404,0.783825,0.936165,0.351559,0.001420
-0.325091,0.471680,0.819457,0.776380,0.314424,0.546234
0.026568,0.267391,0.955823,-0.677717,0.669776,-0.303481
0.389729,-0.039866,0.912399,0.688353,-0.583080,-0.431494
0.054172,-0.754853,0.907741,0.331415,-0.874366,-0.354470
-0.463051,0.063271,0.145524,-0.325403,-0.811392,0.485547
0.310138,0.167315,0.717497,-0.438303,-0.065340,-0.896449
-0.397205,0.414842,0.498223,0.368621,0.609183,0.702150
0.304733,-0.125664,0.200574,0.751904,0.572673,0.326628
0.562540,-0.036352,-0.947243,-0.082333,0.199628,0.976407
-0.101903,-0.010342,0.543275,-0.367290,0.927766,0.065939
-0.340675,-0.337490,0.848768,0.066106,-0.134293,0.988734
0.035310,0.137901,0.839103,0.453032,0.891464,0.007348
0.322732,0.105828,0.490116,0.529064,0.514691,-0.674673
-0.469320,-0.082879,0.806307,-0.219924,0.803190,-0.553642
-0.339008,-0.330406,0.396509,0.526361,-0.190801,0.828576
0.312899,-0.130593,0.925601,-0.128745,0.416253,0.900088
0.000747,-0.422153,0.894679,-0.287994,-0.860926,0.419364
0.214791,-0.148897,-0.328098,0.941636,-0.294307,0.163420
-0.051987,-0.757232,0.842045,-0.644761,0.590250,0.485684
-0.251365,0.290340,0.857418,-0.403770,0.673650,-0.619004
-0.419978,0.075623,0.135648,0.399342,0.624952,0.670791
-0.414802,0.327798,0.325857,0.698053,0.520669,0.491554
0.053884,-0.775311,0.856665,0.270055,-0.953869,0.131169
-0.380355,0.268864,0.439022,0.328572,0.265004,-0.906539
0.337283,-0.187375,0.799864,-0.524728,0.837730,0.151223
-0.567715,0.164935,0.361524,0.991262,0.107911,-0.075865
-0.174017,-0.205904,0.496279,0.851080,-0.320293,-0.416023
0.193686,0.755704,0.340565,0.728439,0.582843,-0.360097
-0.451205,0.324059,0.501147,0.231426,-0.933194,0.274939
0.210593,0.574308,0.542697,0.686539,0.260422,0.678855
-0.066652,0.097101,0.694455,0.503540,0.489792,-0.711724
0.580425,-0.396821,0.811945,0.846837,0.531328,0.023635
0.166369,-0.037825,-0.003625,-0.215022,-0.643063,0.735007
0.276325,0.341965,0.832134,-0.202795,-0.907625,-0.367547
-0.268848,0.289319,0.229273,0.178488,0.938994,0.293995
-0.321352,0.461480,0.810825,0.696844,0.252234,0.671406
0.031112,0.593857,0.094973,-0.228874,-0.476138,0.849064
0.069815,0.302694,0.094658,0.978321,0.116131,0.171472
-0.296165,0.364520,0.464481,-0.455835,-0.026803,-0.889661
-0.762493,-0.261383,0.463361,-0.616073,-0.483276,-0.622012
-0.095118,0.561272,0.418658,-0.633272,-0.769222,-0.085231
-0.299097,0.588247,0.144438,0.075425,-0.134325,0.988063
-0.482777,0.240360,0.107440,-0.294519,-0.257200,-0.920384
-0.111564,-0.450771,0.393707,-0.649843,0.739391,-0.176083
0.079360,0.885418,0.276864,0.931174,-0.351621,0.096325
-0.369371,-0.245971,0.802297,0.236615,-0.649459,-0.722645
-0.696877,-0.294590,0.543433,-0.359330,-0.000580,-0.933210
0.103744,-0.105942,-0.032183,0.221362,0.954890,-0.197947
0.252689,-0.608083,0.461417,-0.467902,-0.853595,0.229007
0.585313,-0.121752,0.323668,-0.119621,-0.113674,0.986290
0.272759,-0.132972,0.039677,0.872608,-0.483972,0.065779
-0.127264,-0.734055,0.819719,-0.597484,-0.236128,0.766326
-0.093451,0.598675,0.595139,0.814425,-0.512718,0.271723
0.353039,-0.813960,0.904257,-0.519581,-0.365562,0.772270
0.685951,-0.021960,-0.962582,-0.062159,0.119296,0.990911
-0.477831,0.699886,0.277180,-0.201252,-0.562342,0.802040
-0.411180,-0.173945,0.780953,-0.595589,-0.434759,0.675468
-0.286044,-0.224834,0.783790,0.950097,0.279848,0.137843
0.207201,0.528915,0.645060,0.057500,0.633797,-0.771360
0.488240,-0.204147,0.794488,-0.175869,0.967976,0.179142
0.131980,-0.015045,0.694945,0.972920,-0.168679,-0.158035
0.354706,-0.255548,0.949572,0.747408,0.116109,0.654141
-0.502559,-0.354206,0.244997,-0.184477,0.789843,0.584907
-0.210247,0.268750,0.626744,0.452026,0.512562,-0.730036
-0.566624,-0.339302,0.901385,0.809472,-0.528334,0.256161
0.277128,-0.178649,0.415332,0.914985,-0.122032,0.384591
-0.580597,-0.272548,0.290662,0.869178,-0.050249,0.491940
-0.200126,0.679652,0.141304,-0.139782,0.590506,0.794835
-0.451550,-0.064347,0.290329,-0.406397,-0.458814,-0.790146
0.542354,0.081575,0.559962,0.764019,-0.001998,-0.645191
-0.172984,-0.050124,0.719844,0.897865,-0.434669,0.070015
-0.254817,-0.185618,0.608937,0.940622,0.064267,0.333318
0.473805,-0.502508,-0.959255,-0.118171,0.087436,0.989136
0.011847,-0.238489,0.831206,0.350518,0.936243,0.024194
-0.614526,-0.330745,0.502233,-0.428340,-0.858434,0.282162
0.271897,-0.218542,0.727198,0.428219,-0.891942,0.145148
-0.327161,-0.117844,0.586262,0.239761,-0.489631,0.838317
-0.440164,0.518830,0.286215,-0.587077,-0.583353,-0.561284
-0.011847,0.694386,0.557196,0.512635,-0.487415,-0.706846
0.541492,-0.181368,-0.961689,-0.084834,-0.014358,0.996292
-0.496694,0.817699,0.294584,0.752889,-0.178544,-0.633467
-0.914890,-0.201882,0.584143,0.480196,0.876762,0.026467
-0.236586,0.102767,0.940835,0.010577,-0.745612,0.666297
0.270344,-0.204545,0.655390,0.089051,0.977439,0.191528
-0.563459,0.143456,0.493530,-0.215742,0.390761,0.894853
-0.238253,-0.189243,0.604472,0.926808,0.134984,0.350438
0.201680,-0.396707,0.914903,0.881937,0.432762,0.186826
-0.082294,-0.794805,0.836494,0.888289,0.112556,-0.445280
0.623670,0.021053,0.090736,-0.596294,0.305497,-0.742365
0.350970,0.412970,0.621579,-0.814062,0.372354,-0.445709
0.189948,-0.173319,-0.970916,-0.486804,0.438169,0.755665
-0.020473,-0.397503,0.479120,-0.575204,-0.708790,-0.408359
0.293864,-0.839911,0.781391,-0.707624,-0.358291,0.609012
0.349301,-0.152352,0.900632,0.148099,-0.823362,0.547851
0.277762,-0.207889,0.243351,0.967501,0.123390,0.220717
0.413537,-0.300031,0.855614,-0.224246,-0.389461,-0.893327
0.337972,0.283993,0.823081,-0.175015,0.549654,0.816854
-0.026166,0.392062,0.241145,-0.466847,0.852739,-0.234286
-0.326702,0.536511,0.247028,0.594768,0.775273,0.212610
-0.918454,-0.202220,0.600847,-0.349355,-0.683178,-0.641264
-0.350106,-0.153542,0.688571,0.660589,-0.722382,0.204417
-0.073667,0.684072,0.564340,0.808466,-0.404605,-0.427408
0.132612,0.035843,0.708795,0.897010,0.422151,0.131000
-0.017195,0.232993,0.158884,-0.491980,-0.129456,0.860928
0.426879,0.635338,0.435240,0.032001,0.745467,0.665774
-0.244177,0.557136,0.611091,-0.544128,0.607285,0.578904
-0.425787,0.087753,0.268197,-0.654907,0.401528,-0.640213
0.151073,0.785850,0.476563,0.589061,-0.440805,0.677273
-0.014894,-0.021337,0.136454,-0.508160,0.491761,-0.707068
0.522515,-0.440796,-0.957101,0.113164,-0.131077,-0.984892
0.530853,0.161874,-0.976835,-0.106222,0.174618,0.978890
-0.256828,0.087638,0.938838,0.010577,-0.745612,0.666297
0.599172,-0.076985,0.392254,-0.261436,0.609434,0.748492
-0.118753,0.439437,0.943303,0.512223,0.271285,0.814882
0.576974,-0.452072,0.235454,0.278649,0.070128,-0.957829
0.524527,0.014139,0.701844,-0.222275,-0.933427,0.281616
0.490713,-0.200239,-0.227452,0.010583,-0.687275,0.726320
0.408937,0.186013,0.606538,0.472959,0.359617,-0.804354
-0.119788,0.693027,0.178214,0.562253,0.799585,-0.211033
0.826729,-0.724536,0.311761,0.288843,-0.633124,0.718139
-0.279429,0.450996,0.851079,0.090427,-0.600201,0.794721
-0.012595,0.175190,0.507958,0.977869,0.121551,0.170287
0.112026,0.385601,0.959605,0.670575,-0.428771,0.605380
0.167922,-0.270393,-0.968412,0.324650,-0.035618,-0.945163
0.240037,-0.145044,-0.811612,0.537718,-0.785591,-0.306115
0.248203,-0.113309,-0.716780,-0.570549,0.770025,-0.285543
-0.431998,-0.077494,0.621999,-0.534210,0.700182,-0.473672
0.034620,0.610802,0.454693,-0.238472,-0.478456,0.845110
0.167635,-0.098461,-0.380154,0.897724,-0.428048,0.104245
0.609696,-0.702833,-0.950360,-0.133884,0.091519,0.986762
-0.725573,-0.403905,0.604227,0.398429,-0.369703,-0.839389
0.240497,0.543875,0.352244,-0.068935,0.691229,0.719340
0.391396,0.328649,0.803138,-0.614255,0.582080,0.532799
-0.018862,-0.025643,0.899161,0.681020,0.538543,0.496169
-0.184140,0.488226,0.156117,-0.520492,0.236679,0.820409
-0.125827,-0.006828,0.637355,0.925940,0.284358,0.248545
0.390419,-0.947184,0.838262,0.388159,0.384772,0.837427
0.238024,-0.096251,-0.571098,0.644916,-0.753622,0.127035
0.220772,-0.094722,-0.528270,-0.432981,0.899751,-0.054540
0.576745,-0.305472,0.823677,-0.179805,0.500738,0.846718
-0.310368,0.646673,0.308960,-0.052902,-0.653548,0.755034
-0.338778,-0.266142,0.396351,0.436462,-0.053059,0.898157
0.242108,-0.120223,-0.257604,0.566749,0.447433,-0.691809
-0.062280,-0.319469,0.893873,0.091332,0.946209,0.310399
0.141757,-0.030572,-0.231742,-0.195230,0.969637,-0.147276
-0.530163,0.367183,0.476423,-0.393111,-0.460927,-0.795619
-0.213182,0.006433,0.549281,0.071713,0.947084,0.312874
0.005406,-0.020600,0.073033,0.820630,0.564417,-0.089437
0.505492,-0.025529,0.404913,0.478995,0.513433,0.712004
0.519581,-0.366163,0.232284,-0.154922,0.218834,0.963385
0.163149,-0.084916,-0.333929,0.867817,-0.463087,0.180122
-0.410317,0.268297,0.038784,0.112103,0.041950,0.992811
0.218817,-0.117899,-0.131656,0.514103,0.718910,-0.467831
0.158089,0.558439,0.446937,0.545340,0.674350,-0.497851
0.303467,-0.200294,0.711054,0.113898,0.982736,-0.145802
0.170107,-0.342761,0.602301,0.541261,0.713663,0.444659
-0.003105,0.360722,0.922047,0.125788,-0.637589,0.760037
-0.054690,-0.377158,0.583215,-0.184496,0.971619,0.148045
-0.298004,0.377269,0.584493,0.516138,0.252873,0.818326
-0.136120,0.193325,0.739192,0.275566,-0.673288,0.686110
0.398069,0.634207,0.398837,0.886009,-0.462186,-0.037045
-0.437115,0.838437,0.176288,-0.740666,0.670261,0.046515
0.409511,0.414388,-0.389750,-0.289844,-0.733149,-0.615209
0.015182,-0.356132,0.758488,-0.368729,-0.476402,-0.798173
0.131922,-0.112912,-0.144403,-0.671209,-0.607082,-0.425358
-0.229686,-0.480295,0.832554,0.408214,0.734887,-0.541573
0.095118,0.058792,0.045123,0.328217,-0.827962,0.454700
0.079534,0.031931,0.956418,0.570846,-0.716027,0.401795
0.328023,-0.143287,-0.958712,0.194640,0.553111,0.810052
0.348497,-0.687586,0.822363,0.354778,0.753492,0.553518
-0.231583,0.074661,0.693352,-0.660107,-0.279319,0.697309
0.133303,0.278666,0.855842,0.106590,0.342584,0.933421
0.523493,0.532599,0.511232,-0.325023,0.683234,0.653874
0.118466,0.302356,0.917424,0.054272,-0.490451,0.869777
0.364943,-0.136770,0.779657,0.270901,0.910153,-0.313422
-0.341481,-0.025415,0.617412,-0.349740,-0.930011,0.112967
-0.743458,-0.150256,0.583916,0.882033,-0.469657,-0.037950
-0.064753,-0.113250,0.409816,0.837194,-0.382032,0.391355
0.265456,0.225626,-0.987848,0.454914,0.271650,-0.848092
0.292715,-0.240644,0.696976,0.490563,-0.857847,0.153120
-0.159009,-0.246763,0.948066,0.242623,-0.418625,0.875150
0.687618,-0.739267,0.284306,0.765203,0.634830,0.107027
0.230893,-0.141246,-0.780147,0.983482,-0.122732,0.133038
0.428548,-0.232595,0.227224,0.066933,0.391895,0.917572
-0.566336,-0.378064,0.321409,0.152545,-0.923698,0.351442
-0.358158,0.331088,0.822346,0.462075,-0.771320,-0.437666
-0.076715,-0.061175,0.914167,0.705078,0.443847,0.553051
0.067342,0.787946,0.522736,0.960498,0.159157,0.228283
-0.200702,-0.633751,0.812611,-0.623440,-0.146243,0.768073
0.238427,-0.131444,-0.840836,0.887053,-0.460017,0.038998
0.671978,-0.432353,-0.947908,-0.163499,0.097042,0.981759
0.212836,0.736718,0.343612,0.824932,0.450317,-0.341616
-0.042326,0.071545,0.167761,-0.543975,0.060707,-0.836903
-0.421819,0.280593,0.761289,0.189352,0.801881,0.566685
0.089079,0.025927,0.926687,-0.256695,0.888206,0.381049
0.590662,0.505057,0.144823,-0.082702,-0.198897,0.976525
0.105585,0.278895,-0.378281,-0.584560,0.503490,0.636229
0.733050,-0.325702,0.887097,-0.224754,-0.853160,0.470749
-0.298062,-0.188396,0.470190,-0.245821,-0.868155,-0.431137
0.222669,-0.103618,-0.580098,-0.815547,0.574479,-0.069691
-0.479614,0.841274,0.284709,-0.659702,-0.473813,0.583348
0.125999,0.065028,-0.993994,-0.203521,0.207695,0.956787
-0.416470,-0.228403,0.755389,-0.681087,0.627645,0.377069
-0.068721,0.434449,0.628285,0.812623,-0.439455,-0.382784
0.140146,-0.419770,-0.978691,-0.192644,-0.096166,0.976545
0.249526,-0.179441,-0.096987,0.945976,-0.324200,0.004973
-0.344643,-0.208796,0.867206,0.776988,-0.626133,-0.065167
0.235781,-0.244836,0.619093,-0.527620,-0.833965,-0.161617
0.195297,-0.062988,-0.982105,-0.286082,0.111275,0.951722
-0.025764,-0.069902,0.365884,0.967731,-0.244889,-0.059388
0.026280,0.251013,0.153035,0.765330,-0.565854,0.306723
0.259359,-0.120846,0.571991,0.763941,0.581920,-0.278860
-0.179942,-0.503075,0.948854,0.538664,-0.048074,-0.841148
-0.131290,0.562746,0.608884,-0.360704,0.932437,-0.021314
-0.169993,0.674042,0.022272,0.994243,0.060880,-0.088171
-0.134798,-0.275550,0.049325,-0.233850,0.173707,-0.956630
0.234977,0.375343,0.801387,-0.096444,0.478408,0.872826
0.602450,-0.157454,0.228835,0.128956,0.358480,-0.924588
0.457531,0.376989,0.468088,0.947111,0.218254,-0.235259
0.323480,-0.862241,0.837387,-0.387363,-0.486723,-0.782975
0.320491,0.267674,0.116510,-0.615765,-0.058640,0.785745
-0.384957,0.783357,0.339865,0.194683,0.359334,0.912676
-0.474265,-0.401750,0.503668,-0.405031,0.072467,-0.911427
0.396400,-0.153262,0.376320,-0.099687,0.905240,-0.413041
0.202541,0.105998,0.833202,0.542689,-0.353088,-0.762114
-0.134625,0.115405,0.912154,-0.095720,0.448028,0.888881
0.143538,-0.135695,0.026072,-0.377440,-0.866673,-0.326217
0.169016,-0.040603,0.711001,0.952225,-0.176401,-0.249301
0.092759,-0.326778,-0.974103,0.239101,-0.012079,-0.970920
-0.020473,0.541723,0.571851,0.580613,0.785626,0.213729
0.058830,0.189869,0.929593,-0.573098,-0.732851,-0.366726
-0.318074,-0.012154,0.201748,0.096280,0.331366,0.938577
-0.412272,-0.283882,0.852690,0.930474,-0.330287,0.158518
-0.663236,0.194798,0.285514,-0.340753,0.940100,0.009945
0.153545,-0.295272,0.905447,0.359235,0.852712,-0.379251
-0.099834,0.626045,0.625291,-0.130114,-0.011925,0.991427
0.319800,-0.804721,0.827301,0.281784,0.467855,0.837681
-0.771465,0.148613,0.293113,0.124239,0.940176,-0.317229
-0.118293,-0.070241,0.528077,0.795771,-0.446793,0.408808
0.238829,0.588984,0.467476,-0.469034,-0.318008,0.823941
-0.371442,-0.233844,0.863319,0.458859,-0.857191,0.233822
-0.218127,0.007907,0.656844,0.700368,0.509546,0.499847
0.406407,-0.311535,-0.966329,-0.013811,-0.026196,0.999561
0.284663,0.567111,0.380925,0.751690,-0.525309,-0.398763
-0.213008,0.259287,-0.014183,0.360947,-0.601958,0.712295
0.494451,0.491457,0.341528,-0.222867,0.909956,-0.349730
-0.123182,-0.117277,0.450474,0.857527,-0.514139,-0.017544
0.196100,0.064686,0.906550,0.121485,0.374683,0.919159
0.480878,-0.015668,0.618024,-0.747047,0.549200,0.374568
-0.301800,-0.334373,0.380645,0.804705,-0.079164,0.588373
-0.029444,-0.766132,0.862198,-0.348494,0.890051,0.293874
-0.135602,0.403338,0.205022,0.551271,0.765548,-0.331718
-0.627236,0.227324,0.119101,0.412610,0.564463,0.714937
0.625051,0.060041,0.394933,-0.006329,-0.396612,0.917965
0.265742,-0.691612,0.900807,0.393932,0.906839,0.149865
0.040657,-0.341004,0.908827,0.922814,-0.300384,-0.241211
-0.102996,-0.320545,0.907146,0.544578,-0.657639,0.520525
0.020933,0.108038,0.861778,-0.629459,-0.751381,-0.198009
-0.043935,-0.127985,0.837527,-0.378259,0.710611,0.593255
-0.374548,-0.106226,0.593056,-0.369881,0.881353,-0.293948
0.482891,-0.438531,0.071580,0.745523,-0.077698,-0.661935
0.275979,0.397330,0.418939,0.272399,-0.598839,0.753120
0.517108,-0.040547,0.385757,0.507003,0.494134,0.706243
-0.063603,-0.013800,0.420707,0.598676,-0.785220,0.158166
0.075796,0.070580,0.723871,0.857990,0.512058,-0.040619
0.790385,-0.750661,0.291608,-0.554465,0.798114,0.235762
-0.225890,-0.117387,0.743167,-0.621780,0.741821,0.251181
-0.028869,0.725896,0.252771,0.778541,0.247547,-0.576710
0.104262,0.260421,0.318082,-0.441042,0.868607,0.225841
0.001956,-0.040488,0.136699,-0.638588,-0.682660,0.355218
-0.017253,0.398918,0.964613,-0.215901,0.754776,0.619435
0.174305,-0.433145,0.517448,0.030950,-0.033614,0.998956
0.430445,0.406852,0.446324,0.905130,-0.378370,-0.193845
-0.204900,-0.003711,0.832852,-0.004483,0.039245,0.999220
-0.802231,-0.350183,0.592670,0.188304,0.176608,0.966101
-0.472598,-0.107813,0.775052,0.253548,-0.773114,0.581385
-0.030882,0.308080,0.189788,0.560857,-0.665409,0.492616
0.284433,-0.651321,0.452960,-0.355070,0.933815,-0.043756
0.405601,-0.110587,0.926967,-0.404541,0.019829,0.914305
0.527115,0.328310,0.844951,0.574605,0.539612,0.615343
-0.089137,0.011590,0.583075,0.944725,-0.016627,0.327441
-0.357353,-0.097216,0.144175,-0.564106,0.778698,0.274615
-0.175456,-0.025757,0.691128,0.905483,-0.369908,0.208009
-0.293806,0.449014,0.189351,0.728394,0.153101,0.667834
-0.478407,-0.421133,0.504421,-0.477783,0.141970,-0.866930
0.222497,0.177798,0.704750,-0.572484,0.057058,0.817928
0.151360,0.201712,0.948556,-0.718434,0.323880,-0.615593
0.148024,0.044570,0.968903,-0.073568,-0.869470,0.488477
-0.310484,0.017142,0.205775,0.392052,0.470174,0.790716
-0.226637,-0.008360,0.029557,0.099655,0.322430,-0.941333
0.063604,0.115291,0.075590,-0.463442,0.553820,-0.691740
-0.229052,-0.488679,0.930889,-0.286919,-0.118911,0.950546
0.151936,0.629161,0.466495,-0.366781,-0.454714,0.811608
0.008627,-0.170998,0.836862,-0.465563,-0.807156,-0.362973
0.244752,0.260874,0.372223,-0.074791,-0.866538,0.493475
-0.442177,-0.266484,0.511530,-0.235173,0.369370,-0.899032
-0.102938,0.277138,0.956856,0.529071,0.540812,0.653916
-0.632871,-0.393989,0.289559,0.961650,0.030309,0.272600
0.284893,0.199502,-0.991525,-0.180171,-0.046525,0.982534
0.004485,-0.007395,0.047942,0.871260,0.490682,-0.011716
0.406579,-0.199727,0.301518,-0.763141,0.619426,0.184197
-0.153891,-0.477743,0.948031,0.162714,-0.540957,-0.825161
-0.220656,0.216163,0.745496,-0.157753,0.844351,-0.512040
-0.023981,0.745220,0.246607,0.913703,-0.068478,-0.400570
-0.330324,0.419770,0.824990,0.726521,0.656846,0.201791
-0.105987,-0.508118,0.466793,-0.613609,0.716269,-0.332329
0.277186,-0.072337,-0.498853,-0.079624,0.972096,-0.220655
0.242222,-0.119826,-0.025407,0.660193,0.659264,-0.359882
-0.203922,0.118013,0.061302,-0.072004,0.860218,-0.504817
-0.603370,0.507609,0.412110,0.557575,0.702876,0.441674
-0.494221,-0.024564,0.554114,0.530261,0.740812,-0.412337
-0.592559,0.214575,0.127664,-0.334122,-0.594241,-0.731601
0.330554,0.365485,0.742239,0.967002,0.145168,0.209364
0.327679,-0.129289,-0.793245,-0.198187,0.976947,0.079344
-0.014608,0.231122,0.918387,0.931968,0.332668,0.144113
0.113521,0.305980,0.836231,0.917089,0.355634,-0.180198
0.441947,-0.724083,-0.953039,-0.134773,0.139679,0.980982
-0.635402,-0.149236,0.450754,0.852101,0.364665,-0.375425
-0.152683,0.332218,0.776593,0.842972,0.139989,-0.519423
0.224798,-0.558837,0.418098,0.760788,0.610932,0.219008
-0.134453,0.212763,0.606118,-0.805545,0.409965,-0.427815
0.056759,0.610463,0.088424,0.164013,-0.516157,0.840644
0.190695,-0.753607,0.819019,0.284364,-0.800268,0.527929
-0.734948,-0.168619,0.557196,0.173660,-0.535487,0.826496
0.021450,-0.491004,0.242213,0.739415,-0.666711,-0.093607
0.533614,0.457682,0.507643,0.094827,-0.706963,0.700864
-0.352983,0.169355,0.421775,0.509134,-0.520293,0.685622
-0.294784,-0.112687,0.701896,-0.261812,0.913169,-0.312375
-0.043132,0.365938,0.965401,-0.616482,0.367919,0.696122
0.592847,-0.530558,-0.949239,-0.181800,-0.002945,0.983331
-0.175169,-0.219677,0.482114,-0.087492,0.583494,0.807391
-0.697855,-0.091377,0.351036,0.106697,-0.332934,0.936894
0.551901,-0.199502,0.845406,-0.121083,0.985403,0.119663
-0.047903,0.489247,0.432456,0.859645,0.453555,0.235156
-0.778021,-0.317937,0.491832,-0.074897,-0.623253,0.778425
0.173558,-0.214689,0.877099,0.932876,0.307332,0.187854
-0.885732,-0.326269,0.591882,-0.151796,0.387715,0.909195
-0.086664,-0.504265,0.825445,-0.715901,0.668775,0.200564
0.681293,-0.250502,0.857085,0.366462,0.846941,0.385222
-0.069987,0.498146,0.373098,0.767360,0.600696,-0.224330
-0.001208,-0.309270,0.275253,0.796651,-0.177780,-0.577704
-0.442233,-0.328479,0.900142,0.895112,-0.425467,0.133239
-0.427052,0.089565,0.773389,-0.162603,0.525198,0.835301
-0.523607,0.002860,0.805624,-0.035980,0.625197,0.779637
-0.274082,0.501262,0.239253,-0.077156,-0.881571,0.465703
-0.672034,0.375173,0.139150,0.338978,-0.237845,0.910233
0.361551,-0.029552,0.637741,0.530880,-0.826478,0.187352
-0.084306,-0.684529,0.856490,0.471586,0.513476,-0.716903
-0.616367,-0.401750,0.296545,0.948579,-0.199486,0.245773
-0.060383,0.353016,0.323440,0.802822,0.401713,-0.440572
-0.096210,0.397613,0.641960,-0.335025,0.842478,0.421887
0.058830,-0.602189,0.516328,0.368489,0.929519,-0.014513
-0.212778,-0.710822,0.821033,0.372480,-0.724283,-0.580235
0.137789,0.492194,0.398785,-0.740594,-0.426612,0.519156
0.010984,0.019975,0.953179,0.204324,0.836805,-0.507947
0.116913,0.167823,-0.308294,0.227039,0.667698,0.708966
0.140146,-0.251069,-0.980354,0.298725,-0.129485,-0.945514
0.369775,-0.071033,-0.957206,-0.204635,0.033801,0.978255
0.079418,0.433713,0.513596,0.335400,0.892079,0.302824
0.467249,-0.013911,-0.953301,-0.093309,0.199809,0.975382
0.031342,-0.626726,0.817741,-0.273529,-0.125244,-0.953675
0.182241,-0.106112,0.923885,0.946882,-0.321550,-0.004510
-0.219277,0.553680,0.142109,0.147428,0.020850,0.988853
-0.472252,0.164935,0.514647,0.646859,-0.237536,-0.724672
-0.023405,0.343214,0.329394,0.755583,0.463045,-0.463340
0.154869,0.578615,0.260965,0.828948,0.045155,-0.557500
-0.084479,0.106565,0.513579,0.986188,-0.125318,0.108303
-0.427914,0.177739,0.765754,-0.330286,0.498165,-0.801712
0.369889,-0.222112,0.301728,-0.596431,0.713782,-0.367132
0.147392,-0.064402,-0.000490,-0.707961,0.703436,-0.062997
-0.107482,0.668660,0.095551,-0.631146,0.213499,-0.745703
-0.709299,0.244383,0.331005,-0.475946,-0.553403,0.683536
-0.592213,-0.186410,0.414561,-0.109516,0.986740,0.119796
0.413193,-0.226760,0.907181,0.999793,-0.015514,0.013146
-0.626834,0.394442,0.469192,-0.720695,0.196064,-0.664950
0.239577,-0.370981,0.940992,0.479715,0.135478,-0.866902
0.211053,0.128154,0.063560,-0.045734,-0.560417,0.826947
-0.547357,-0.352054,0.910052,-0.352474,0.659739,0.663707
-0.732130,-0.093473,0.558141,0.735994,-0.335908,0.587774
0.196044,-0.167314,0.937263,-0.555325,0.284578,-0.781428
-0.352809,0.425778,0.488873,0.737421,0.095314,0.668674
-0.014608,-0.089451,0.354065,0.985029,-0.084533,-0.150238
0.162689,0.394272,0.556127,0.384565,0.884572,0.263898
-0.473230,-0.309100,0.461487,0.204900,-0.390337,-0.897582
-0.232618,-0.168843,0.448057,-0.069131,0.825530,0.560108
-0.050952,0.258097,0.715782,0.213517,0.047691,-0.975775
-0.753925,0.186241,0.264608,-0.696962,-0.297146,0.652647
0.569096,-0.022243,-0.969428,-0.146018,-0.009682,0.989235
-0.094600,-0.541723,0.810387,0.814864,-0.542331,-0.204633
0.043130,-0.110362,0.074276,0.782320,0.620837,0.050374
-0.083558,-0.012780,0.592285,0.893961,0.312363,0.321346
0.301341,0.046271,0.438059,0.974171,0.131889,0.183291
0.185348,0.067861,0.065959,-0.203478,-0.730841,0.651512
0.155730,0.590855,0.451296,-0.352436,-0.610630,0.709168
-0.215711,0.146005,0.652851,-0.070396,0.943072,0.325055
0.251539,0.140509,0.318800,-0.254121,0.834985,-0.488081
-0.370464,0.413143,0.298436,0.093330,0.546158,0.832467
0.134107,-0.092512,0.609532,0.494241,0.500945,0.710478
0.026108,-0.423568,0.445641,-0.663152,-0.748366,0.013323
-0.338778,0.240644,0.635289,-0.044075,0.991600,0.121602
0.416586,-0.767660,0.806009,0.317372,0.417758,0.851325
0.250618,0.226761,-0.992909,0.281413,0.025651,-0.959244
-0.310082,0.188223,0.093590,0.197630,0.830878,-0.520176
0.117487,-0.194967,0.933761,0.022182,-0.547490,0.836518
0.373743,-0.566941,-0.962494,-0.169856,0.096453,0.980737
-0.283455,0.708159,0.307892,0.101883,-0.377700,0.920306
0.330842,-0.091094,0.081613,0.949896,-0.311417,-0.026768
-0.677441,0.587057,0.317610,0.790147,-0.447035,-0.419318
0.434183,0.689572,0.382693,-0.503516,0.813187,-0.291889
0.183565,-0.072281,0.929681,0.884003,0.136965,0.446966
0.172408,-0.460857,0.316769,0.411458,0.354108,0.839827
-0.414860,-0.297143,0.889618,0.601989,-0.758085,0.250830
-0.690437,-0.267335,0.561958,0.651291,0.444730,0.614846
-0.297544,0.257758,0.240356,0.126403,-0.854694,0.503509
0.690437,0.017370,-0.963475,-0.051618,0.145252,0.988047
0.217840,-0.124585,-0.980354,-0.327922,0.388078,0.861315
0.058542,0.835549,0.264905,-0.660914,0.551879,-0.508549
-0.584565,0.429064,0.143615,0.138967,-0.634186,0.760590
-0.124102,-0.182502,0.580869,-0.073194,0.669416,0.739273
-0.724366,0.192816,0.257621,0.954646,-0.116315,0.274085
-0.204900,-0.036525,0.474024,-0.534039,-0.715860,-0.449830
0.093853,-0.119203,0.934461,-0.316941,-0.348178,0.882225
-0.441026,-0.119034,0.216053,-0.618414,0.101587,0.779259
-0.293980,-0.207378,0.654375,0.749531,0.377772,0.543591
0.689861,-0.416031,-0.950605,-0.164714,0.096285,0.981631
0.167520,0.552148,0.472168,-0.524461,-0.593161,0.610820
0.154753,-0.227608,0.710283,0.854438,0.443820,0.270110
-0.035885,-0.665883,0.875366,0.237570,-0.649638,0.722171
-0.659152,0.118238,0.506014,-0.540601,0.628339,-0.559411
0.178331,0.678521,0.340145,0.913178,0.325995,-0.244609
-0.040197,0.380105,0.955508,-0.423024,0.422266,0.801712
0.161194,-0.022921,0.018193,0.778079,-0.481367,0.403582
-0.370522,-0.272887,0.859379,-0.577235,0.777462,-0.249707
0.669217,-0.036466,0.385985,-0.246203,0.925323,0.288379
0.286504,0.177739,0.647003,0.810285,-0.574025,-0.118036
0.298178,0.308927,0.598221,0.831123,0.512489,0.215845
0.194261,-0.655285,0.846965,0.051971,0.977451,0.204667
-0.321123,-0.191284,0.794470,-0.453572,0.889121,0.061121
0.170223,-0.081008,-0.374096,0.874974,-0.457661,0.158013
0.090746,0.592498,0.560242,0.896327,-0.399346,-0.192667
-0.299729,0.124755,0.744830,0.806460,-0.573350,0.144541
-0.105987,-0.130593,0.451367,0.860674,-0.509076,0.009059
-0.439358,0.024623,0.444188,0.832469,0.549031,0.074565
0.028869,0.704870,0.125020,0.047039,0.168454,0.984586
0.034448,-0.030233,0.891422,0.967004,-0.205572,0.150477
0.447696,-0.035504,-0.960498,0.203338,-0.022977,0.978839
-0.630916,0.596465,0.290049,0.489839,0.021146,0.871557
-0.502847,-0.358228,0.893033,-0.096460,-0.633837,0.767428
0.166657,-0.218767,0.712297,0.824388,0.565989,0.006402
-0.264708,0.268352,0.576859,0.262083,0.075482,0.962089
-0.080165,0.051484,0.905762,0.582079,0.720832,0.376279
-0.427856,0.235318,0.781706,-0.107065,0.994024,0.021303
-0.796826,-0.267277,0.597240,0.842256,-0.335451,0.421991
-0.208234,-0.707931,0.819124,-0.153888,0.395017,0.905693
0.200528,0.589949,0.457460,-0.414891,-0.558339,0.718417
0.278108,0.347351,0.410534,-0.191059,0.618194,-0.762452
0.295531,-0.145780,0.391133,0.970625,-0.185080,0.153730
-0.792456,0.398125,0.356761,0.538105,-0.620549,0.570406
0.031571,0.182219,0.577752,0.064287,-0.997767,-0.018116
0.412502,-0.171451,0.283238,0.932417,-0.118818,-0.341293
0.301914,-0.542968,-0.966942,-0.146481,0.114990,0.982507
-0.337684,0.013344,0.331022,-0.397001,0.904582,0.155308
0.250733,-0.102144,0.448828,0.970873,-0.186985,-0.149805
-0.537870,0.249879,0.789270,0.060931,-0.415242,0.907668
0.189372,0.022811,0.608079,0.804998,-0.307311,0.507482
-0.407384,0.277705,0.811735,0.217145,0.877492,-0.427616
0.207487,0.474626,0.640087,-0.072556,-0.340734,0.937356
0.245672,0.488794,0.663988,0.749302,0.647169,0.140425
0.826386,-0.770379,0.304390,-0.514613,-0.763747,0.389697
0.593019,-0.634034,-0.950027,-0.191187,0.160415,0.968357
-0.821036,-0.265066,0.582392,-0.489911,-0.869207,-0.066837
0.293001,-0.418695,0.782038,0.354219,0.624893,-0.695728
-0.498937,-0.183180,0.748490,0.655513,0.032164,0.754498
0.633907,-0.279915,-0.953477,0.136502,-0.160440,-0.977561
0.717695,-0.386563,0.246555,-0.378327,0.225960,0.897670
0.350970,0.398011,-0.380049,-0.289844,-0.733149,-0.615209
-0.099660,-0.116879,0.947103,0.134356,-0.629474,-0.765318
-0.731612,0.100218,0.493320,-0.138563,0.373189,0.917349
-0.205762,0.153884,-0.032008,0.746937,-0.044734,0.663388
0.469206,0.394214,0.134072,0.492378,0.093975,-0.865293
0.334924,0.198935,0.512984,-0.322427,-0.700029,0.637181
0.354880,0.484318,0.395528,-0.312865,0.069231,0.947271
0.087872,0.321794,0.940239,0.908130,-0.417337,0.033611
-0.302260,0.364973,0.615013,0.574143,0.817142,0.051363
0.048593,-0.503075,0.827354,0.606209,0.790749,-0.085008
0.284893,-0.264160,0.651993,0.867951,0.467202,-0.168477
0.839151,-0.844784,0.283168,-0.605435,-0.767754,0.209769
0.582552,-0.166692,0.818056,0.822738,0.450180,0.347044
-0.633562,0.436431,0.396579,0.200714,0.831201,0.518477
-0.568751,-0.035674,0.282730,0.910137,0.368689,-0.188995
0.362470,0.603774,0.394950,0.073151,-0.216763,0.973480
0.003681,0.539568,0.212096,0.638418,-0.304599,0.706853
0.322502,0.048651,0.924988,0.863151,-0.033764,0.503816
-0.666858,0.350408,0.310868,-0.235073,0.825158,-0.513668
0.138133,-0.294137,0.666089,-0.761655,0.645084,-0.061229
-0.052045,-0.292439,0.908214,0.161843,0.986815,-0.001814
-0.307781,0.458647,0.841554,0.735350,0.511485,-0.444572
-0.068837,0.868076,0.224055,0.842629,0.406023,-0.353725
-0.415378,0.556911,0.230761,0.888590,0.265367,0.374151
-0.590432,0.375173,0.476038,-0.247499,0.161454,-0.955341
-0.422221,-0.405039,0.487997,-0.587306,0.277694,-0.760235
-0.623901,-0.069787,0.305861,-0.444335,0.024261,-0.895532
-0.408478,0.206188,0.759661,-0.343262,0.695119,0.631649
-0.690782,0.625252,0.316384,-0.756150,0.515005,0.403742
-0.061820,0.008360,0.460034,-0.623374,-0.608941,0.490506
0.042440,-0.130025,0.147397,-0.667623,-0.744316,-0.016519
0.302146,-0.077608,-0.863599,0.843428,-0.534514,0.054072
-0.353557,-0.132066,0.708428,0.886662,-0.461217,0.033322
0.218357,0.653075,0.620196,0.922318,0.056289,-0.382310
0.325321,-0.104071,-0.609953,0.820860,-0.544473,0.172448
0.261774,-0.681582,0.835496,0.278100,-0.808921,0.517984
-0.383922,-0.300996,0.820648,-0.170276,0.928911,0.328833
-0.083790,0.513105,0.958975,0.365287,-0.141452,0.920085
0.352579,0.086390,0.902996,-0.076100,0.689291,-0.720476
-0.334868,0.166633,0.816760,-0.450929,-0.604544,0.656650
0.193054,-0.026152,0.953231,0.200850,0.599708,-0.774603
-0.647364,0.180064,0.331617,-0.528270,-0.000849,0.849076
-0.349992,0.243193,0.798865,-0.132019,-0.841784,0.523421
-0.011099,-0.121354,0.233475,0.918603,0.395149,0.005111
0.268733,-0.444424,0.936317,0.645816,0.090895,0.758063
-0.074530,-0.007734,0.524155,0.791864,-0.576995,0.200074
0.077751,0.201882,0.893155,-0.750891,0.372942,0.545048
0.262408,-0.193553,0.543521,0.872616,0.427501,0.236186
-0.246363,-0.707706,0.825340,-0.415828,0.791595,-0.447734
-0.135890,-0.132066,0.829647,0.310224,-0.154770,0.937980
-0.422681,-0.307796,0.868502,0.961967,-0.252430,0.104399
0.180114,0.418127,0.534801,-0.219133,-0.413587,0.883701
-0.596987,0.266142,0.486526,-0.048753,0.085344,0.995158
0.595607,0.164368,0.874332,-0.714673,-0.657597,0.238346
0.066594,-0.597541,0.831801,0.394380,0.174760,0.902177
-0.200644,-0.465616,0.262629,0.193077,0.965939,0.172286
0.245442,-0.113026,0.446341,0.970873,-0.186985,-0.149805
-0.495773,0.075114,0.579521,0.862632,0.264618,-0.431096
0.267066,-0.124415,-0.157150,0.517751,-0.853842,0.053731
0.053425,-0.106112,0.036035,0.548632,0.835479,0.031273
0.394387,-0.225626,0.826303,0.900795,0.423330,0.096749
0.259015,0.429690,0.641698,-0.180599,0.102385,0.978213
-0.432630,0.107246,0.274133,0.754741,-0.357385,0.550130
-0.557882,0.600657,0.257306,0.282415,0.789960,0.544247
-0.716660,0.353808,0.333806,0.242021,-0.660912,0.710367
0.315717,-0.727141,0.907391,-0.607699,-0.036738,-0.793317
0.536375,0.068539,-0.972877,-0.063126,0.167613,0.983830
0.320317,-0.515768,0.944582,0.375912,0.739042,0.559024
0.151704,-0.018784,-0.258217,0.746255,0.650677,0.140438
0.094025,0.571078,0.207998,0.398434,-0.219920,0.890441
0.130773,0.026833,0.955350,-0.159069,-0.702566,0.693613
-0.266721,-0.560082,0.810492,0.209368,-0.202965,0.956541
0.526655,0.183066,0.188090,0.341372,0.784717,0.517381
-0.740698,-0.280707,0.394880,0.823982,0.381138,0.419270
-0.638622,-0.344404,0.578978,-0.043407,0.901943,0.429667
-0.069815,-0.483920,0.806149,0.751457,-0.630826,0.193313
0.093393,-0.008754,0.932780,0.096428,0.922659,0.373365
0.205014,-0.182274,0.923570,0.820565,-0.311423,0.479259
0.255679,-0.126854,-0.378316,0.838023,-0.506593,0.202682
-0.217610,-0.555268,0.951323,0.184842,0.128892,0.974279
0.590086,-0.245064,0.088827,-0.060322,-0.136696,0.988775
0.063833,-0.281329,0.912136,-0.672951,0.736015,-0.073612
0.067859,0.585753,0.564567,0.917935,-0.396701,-0.004901
-0.215251,0.464880,0.604577,-0.302946,-0.140666,0.942569
-0.418943,0.148499,0.046628,-0.696267,-0.269342,0.665332
0.026856,0.260307,0.815552,0.397301,-0.081120,-0.914096
0.234977,-0.160456,-0.449633,0.974999,0.142881,-0.170183
-0.064811,0.472475,0.035317,0.570216,0.104894,-0.814770
0.268791,0.264160,0.635342,0.916966,0.391923,-0.074630
0.024095,0.664693,0.260037,-0.280764,0.040176,0.958936
-0.327334,0.818380,0.174590,-0.051877,-0.510802,0.858132
0.606878,-0.208173,0.808180,0.886271,0.266739,0.378648
0.329920,-0.407872,-0.967029,-0.106904,0.050434,0.992989
0.220312,-0.686341,0.875331,-0.563382,-0.820741,-0.094783
0.179710,-0.255658,0.744340,-0.472393,0.164954,0.865814
0.342286,0.321794,-0.979461,-0.335838,0.219152,0.916071
0.006614,-0.119940,0.175220,0.948693,0.181683,-0.258791
0.508310,-0.247728,0.752850,0.702839,0.232366,-0.672327
-0.028351,-0.071092,0.229921,0.855072,0.518210,-0.017585
-0.040141,0.699090,0.112500,0.284007,-0.477204,0.831635
-0.047214,0.406454,0.958677,-0.197685,0.153266,0.968210
0.676807,-0.521607,0.245032,0.490667,0.072174,-0.868353
0.141296,0.513787,0.515067,0.525981,-0.767642,0.366155
-0.432400,0.526650,0.500114,-0.151997,0.275279,0.949273
-0.032837,0.633979,0.549299,0.956068,0.248755,-0.155097
0.076945,-0.433598,0.554359,-0.109284,0.830046,0.546883
0.218701,0.528915,0.450281,-0.207636,0.519607,0.828792
0.269308,-0.167823,-0.046086,-0.540410,-0.605950,0.583765
-0.285756,-0.481938,0.931940,-0.255627,0.196626,0.946569
-0.157341,0.644065,0.617639,0.037744,-0.017571,0.999133
0.165219,-0.180178,0.653342,0.795814,0.309517,0.520461
-0.448388,-0.455188,0.493880,-0.385857,-0.006013,-0.922539
-0.074702,-0.005015,0.553413,0.365242,0.891923,0.266591
-0.368681,0.454908,0.487314,-0.710414,-0.079444,-0.699286
0.085283,-0.542121,0.458598,0.375914,-0.875451,-0.303765
-0.472598,-0.381917,0.923377,-0.650635,0.726898,0.219757
0.289090,-0.113987,-0.801579,0.317043,-0.936443,-0.150194
-0.271609,0.650356,0.155347,0.459522,0.072298,0.885219
-0.576285,0.394158,0.340600,0.207676,-0.801204,0.561197
0.531945,0.738873,0.383078,0.390924,-0.916226,0.087792
-0.290816,-0.243418,0.403425,-0.635191,0.350574,-0.688208
-0.275117,-0.093363,0.811525,0.002500,0.036593,0.999327
0.070906,0.251750,0.884961,0.916163,0.400049,0.024608
-0.385359,0.113534,0.716254,0.858869,-0.451938,-0.241033
0.415550,0.641516,0.438322,0.077916,0.733080,0.675664
-0.093105,0.037825,0.373466,0.748572,0.594670,-0.293269
0.281960,-0.209757,0.237905,0.878521,0.425418,0.217303
-0.063546,-0.006828,0.544659,0.831336,-0.543709,-0.115158
0.238198,0.667187,0.470873,-0.547824,-0.338271,-0.765155
-0.141181,-0.624685,0.805712,-0.683690,0.114718,-0.720700
-0.238945,-0.683619,0.837684,0.419924,0.143972,0.896067
0.204496,-0.142664,0.906971,-0.558517,-0.827512,-0.057291
0.275289,-0.003372,-0.980126,-0.185280,0.349905,0.918280
0.142561,-0.495483,0.491271,0.952504,0.061630,0.298225
0.274196,-0.129573,-0.095883,0.903428,-0.426575,-0.043026
0.005808,-0.019466,0.079617,0.779064,0.589807,-0.212570
-0.325378,0.388603,0.824990,0.794693,-0.289359,0.533606
0.470413,-0.115066,0.940029,-0.115295,-0.132342,0.984476
-0.400196,0.646728,0.153858,0.842203,0.436960,-0.315848
0.353615,-0.105658,-0.957731,-0.042438,0.156036,0.986839
0.617804,-0.166125,0.887500,0.832831,0.444040,-0.330487
0.369947,-0.323776,0.423736,-0.231044,0.632994,0.738875
-0.280924,0.414728,0.134930,0.317307,-0.542466,0.777848
0.342458,-0.286998,0.223880,0.753409,0.380868,0.536017
0.142101,0.084975,0.002504,0.991653,-0.093276,-0.089021
0.389441,0.518999,0.315263,0.601600,0.500319,-0.622702
-0.590432,-0.165104,0.213672,-0.601834,-0.748913,0.277354
-0.499167,-0.158304,0.220535,-0.670430,0.105355,0.734454
-0.602508,-0.321451,0.554342,-0.306715,0.913059,0.268791
-0.194203,-0.156036,0.564725,-0.557753,-0.359699,-0.748016
0.162575,0.129856,-0.994099,0.096634,-0.224333,-0.969710
0.061763,0.645708,0.578067,-0.390591,0.436028,-0.810752
0.041291,0.762957,0.486999,-0.088793,-0.411983,0.906855
-0.613836,0.329216,0.482884,0.298234,-0.174029,0.938494
-0.132957,-0.329784,0.899634,0.808001,-0.124485,0.575880
-0.166083,-0.383675,0.850939,-0.211472,-0.398072,0.892647
-0.379262,0.271472,0.736968,0.924348,0.019071,0.381074
-0.320433,0.423399,0.843515,-0.035996,-0.838185,0.544197
0.504744,-0.192304,0.831294,0.452836,-0.874108,0.175715
0.272874,-0.160286,-0.036525,0.970538,0.198371,-0.136767
0.739088,-0.208228,0.893296,-0.567683,-0.823247,0.000354
-0.668583,-0.254130,0.313232,0.712915,0.574486,0.402141
-0.277590,0.287452,0.322127,0.621693,0.390878,0.678757
0.462937,-0.356699,0.851692,0.608409,-0.772417,0.182240
-0.620335,-0.379479,0.605540,-0.207299,0.690069,0.693420
-0.120536,0.017311,0.444205,0.045318,-0.963378,0.264290
0.243775,-0.071659,0.039047,0.491840,0.870119,0.031422
-0.390189,0.102483,0.762375,0.076881,0.703116,0.706907
-0.728564,-0.434958,0.602091,-0.111093,0.990211,-0.084497
0.278108,-0.506873,0.954737,0.804150,-0.304148,-0.510721
-0.119788,0.705154,0.100611,-0.422392,0.353775,-0.834523
0.311116,-0.598333,0.755196,0.447332,-0.123992,-0.885731
-0.126920,0.369507,0.612737,-0.671730,0.600058,-0.434407
0.273046,-0.391495,0.365761,0.676753,0.736192,0.005106
0.196100,0.140112,0.095288,-0.163672,-0.439931,0.882991
0.491287,-0.647693,-0.955718,-0.217559,0.173225,0.960553
-0.131174,-0.137054,0.417065,0.782355,-0.582429,0.220673
-0.495257,-0.120334,0.309958,-0.573832,-0.756145,-0.314580
-0.110013,0.329386,0.955087,-0.663344,0.695511,-0.276114
-0.095406,0.319923,0.950185,0.992242,-0.026656,-0.121428
0.062970,0.249879,0.088809,0.936880,0.062871,0.343952
-0.495543,0.383561,0.832957,0.289106,-0.953827,0.081434
0.332567,0.429690,-0.386756,0.045966,0.841665,0.538041
-0.120939,-0.013517,0.590079,0.941686,0.104667,0.319800
-0.005348,-0.462047,0.237835,-0.327066,0.843615,0.425842
0.283801,-0.341851,0.893733,0.383056,-0.432046,0.816459
-0.555985,0.223983,0.478752,0.427828,-0.103501,0.897915
-0.424464,0.373530,0.333981,0.664038,0.575299,0.477582
-0.096671,0.307115,0.939118,0.932715,0.259773,0.250121
0.058140,-0.412687,0.774352,0.186559,0.646369,0.739867
0.230491,0.683395,0.476090,0.141976,0.078566,0.986747
-0.369545,-0.000481,0.426643,0.363596,-0.191137,0.911737
0.582034,-0.749640,-0.944371,-0.109704,0.111557,0.987684
-0.479211,-0.441419,0.882317,0.775483,0.535496,0.334471
-0.831561,0.187829,0.288386,0.813655,-0.342382,0.469830
-0.189889,0.219618,0.742204,-0.511505,0.694442,-0.506076
-0.206855,0.734283,0.218592,0.049341,-0.177514,0.982881
0.537006,-0.016291,-0.973700,-0.033338,-0.022841,0.999183
-0.042152,0.168505,0.731243,0.239191,0.635022,-0.734530
0.146759,0.014762,0.683423,0.972944,-0.141330,-0.182774
0.217494,-0.616467,0.746914,-0.422905,0.255481,-0.869414
0.235033,0.126228,-0.298892,-0.730270,-0.102977,-0.675353
-0.393525,-0.300201,0.402602,0.278654,-0.063074,0.958318
-0.418425,-0.093020,0.584668,0.526546,0.605043,-0.597221
0.231757,-0.089510,-0.102222,0.749090,0.630836,0.202261
-0.170683,0.270507,0.582970,0.830705,0.499189,0.246452
-0.436426,0.309664,0.836862,-0.445816,-0.860788,0.245544
-0.117545,-0.837759,0.836004,0.847711,-0.356678,-0.392641
0.314452,0.257132,0.102905,-0.837051,0.496705,-0.229410
0.542699,0.100616,0.863721,0.553524,0.073018,0.829626
0.623958,-0.080441,-0.963072,0.165009,0.285870,0.943955
0.310138,0.223247,-0.300573,0.603773,-0.557275,-0.570002
0.476278,-0.745220,-0.952023,-0.215870,0.134137,0.967165
0.067630,-0.470265,0.423264,-0.186389,-0.948532,-0.256021
-0.109495,0.580880,0.457985,0.925035,0.379840,-0.005664
0.205476,-0.641007,0.758628,0.409069,-0.272591,0.870837
0.604233,-0.211175,0.770202,-0.295634,-0.385544,0.874046
0.119328,-0.095230,-0.067973,0.142800,0.971597,0.188699
0.014434,-0.219618,0.852253,0.719432,-0.574573,-0.390235
-0.722583,0.590686,0.348742,0.940575,-0.270632,0.205126
-0.403474,0.790838,0.309643,-0.229562,-0.800014,0.554328
-0.102880,0.016066,0.595577,0.966471,0.079465,0.244169
-0.383692,0.640893,0.210222,0.994781,0.074494,-0.069719
0.285410,-0.494120,0.935634,-0.616136,0.516586,0.594572
-0.281902,-0.036410,0.819457,-0.288605,-0.588612,0.755144
0.457991,0.231236,0.835899,0.298930,0.360844,0.883421
0.474093,0.639250,0.382974,0.762303,-0.644786,0.056076
-0.442579,0.108152,0.257183,0.499606,0.774213,0.388572
0.004947,0.444141,0.951498,0.188171,0.895423,0.403496
0.552706,-0.658460,0.307611,0.293808,0.806810,0.512577
-0.087066,0.635736,0.222637,0.458201,0.571141,0.681066
0.509288,-0.220753,0.325927,-0.577861,0.675345,0.458241
0.191730,0.731278,0.269825,-0.681697,0.256116,0.685342
-0.551555,0.402656,0.200154,-0.502780,-0.012566,0.864323
0.173673,-0.039129,-0.158131,-0.625138,-0.771987,0.115055
-0.584277,-0.366163,0.568122,0.536858,-0.809501,-0.237680
0.271781,-0.187659,-0.612824,0.868970,-0.454615,0.195492
0.253436,0.315274,0.666369,-0.684425,-0.643839,0.342102
0.070562,-0.431900,0.911173,0.679557,-0.093049,-0.727698
-0.066708,0.836058,0.225053,0.886183,0.345356,-0.308883
0.646616,-0.054092,0.360789,-0.180102,0.955122,0.235172
-0.071194,0.363614,0.958309,0.938572,-0.208135,-0.275249
0.326586,0.365824,-0.353084,0.064759,0.717858,0.693171
0.173213,-0.133370,-0.980196,-0.232738,0.367231,0.900541
-0.287021,-0.507042,0.934303,-0.308960,0.357506,0.881325
0.012365,-0.142380,0.652186,0.067563,-0.174686,0.982303
-0.460694,0.206755,0.041306,0.200158,0.030207,0.979298
-0.100753,-0.025021,0.521108,0.073982,-0.993697,0.084226
-0.420094,0.681126,0.215142,0.763033,-0.600471,-0.239199
-0.343838,0.376646,0.602266,0.107405,0.964453,-0.241443
0.435390,-0.141021,0.300555,0.930078,-0.166163,-0.327635
0.222152,0.389399,0.797237,-0.554913,-0.392757,-0.733358
-0.124504,-0.518660,0.957977,-0.296846,0.262651,0.918094
-0.374145,-0.096648,0.594071,-0.177225,0.981417,-0.073568
-0.537640,-0.210722,0.498871,0.846326,0.213605,-0.487961
0.121053,-0.518487,0.801509,0.418054,0.745990,0.518392
0.198055,-0.188396,0.616606,0.860705,0.481932,0.164097
0.326126,-0.188679,0.768819,-0.324272,0.939826,0.107588
-0.060785,-0.091436,0.328991,0.671641,-0.703701,0.231741
