-0.568156,-0.523014,-0.468726,-0.123687,0.103780,0.986880
-0.174893,0.895373,-0.526503,-0.279972,0.089906,0.955789
-0.290790,-0.471069,0.088730,0.652889,0.145315,-0.743384
0.674765,0.170493,-0.426398,0.467994,0.434571,0.769500
-0.676755,0.267559,0.116687,0.362125,-0.214149,0.907196
-0.698596,0.209918,0.712486,0.182638,0.325898,0.927596
0.054299,-0.512262,0.282481,0.531346,-0.084470,-0.842933
0.352180,0.251750,-0.904928,0.522203,-0.546759,-0.654491
0.322938,-0.595974,0.404492,-0.292276,0.548997,0.783057
0.264351,0.312042,-0.045819,-0.546878,0.141542,0.825161
-0.106305,-0.169461,-0.969541,-0.144027,-0.209717,0.967096
0.616178,0.274040,0.051842,-0.588548,0.022837,0.808140
-0.488236,-0.172456,0.880433,-0.499649,0.240980,-0.832033
0.334167,0.330797,-0.010327,-0.073747,0.053066,0.995864
-0.298035,0.129054,0.094926,-0.098633,-0.062867,0.993136
0.075580,-0.110298,-0.402688,0.848924,0.477161,0.227257
-0.407503,-0.749797,-0.494414,-0.186357,-0.143968,-0.971877
0.033682,0.249000,0.073457,0.908522,0.296828,-0.294075
-0.550548,-0.200196,0.911067,0.437928,-0.422732,0.793421
0.256443,-0.479661,0.474487,0.357389,0.923161,0.141584
-0.241594,-0.182423,-0.988130,-0.360971,-0.020755,0.932346
-0.315235,-0.020842,-0.152383,0.060137,0.963879,0.259462
-0.423373,-0.229065,0.909757,-0.630930,-0.014397,-0.775706
0.321920,-0.012544,-0.503083,-0.092422,0.918110,0.385399
0.127429,0.627544,-0.337057,-0.209511,0.218262,0.953135
0.239448,0.756573,-0.509280,0.128761,-0.283797,0.950200
0.434343,0.295250,-0.445016,0.705294,0.596872,-0.382497
-0.371218,0.509856,0.001513,-0.182450,-0.119237,0.975958
0.530286,-0.443132,0.313929,-0.072537,0.106770,0.991634
-0.277010,0.029337,0.178362,0.191614,-0.407593,0.892834
0.126919,-0.182324,-0.924681,0.347196,-0.504462,-0.790552
-0.312020,-0.173340,0.728050,0.920421,0.133266,0.367513
0.166673,0.407291,-0.005993,-0.568442,0.038878,-0.821804
0.624647,0.294563,-0.308547,-0.039525,0.701351,0.711720
-0.687523,0.297852,0.649095,-0.106205,-0.991981,0.068511
-0.595561,-0.324217,-0.128498,0.038820,-0.555659,0.830503
0.233172,-0.362907,0.123844,-0.601592,-0.132187,-0.787790
0.454453,-0.139069,-0.785070,0.719316,-0.425148,-0.549394
-0.153613,-0.605401,-0.604934,0.943284,-0.282654,0.174130
-0.057106,-0.001890,-0.665677,-0.732052,0.024588,-0.680805
-0.090637,0.757850,-0.012887,-0.213182,-0.320875,0.922818
0.529931,-0.192291,-0.823500,-0.381220,-0.374157,0.845386
-0.334220,0.473917,-0.031303,-0.039295,-0.648620,0.760098
0.033579,-0.073671,-0.446500,-0.236344,0.970840,-0.040151
-0.126155,0.148890,-0.455955,-0.763902,0.378066,-0.522991
-0.619548,-0.139069,0.075900,0.042588,0.799113,0.599671
-0.051646,-0.142555,0.142492,0.037368,0.972809,0.228573
0.432917,-0.199411,-0.820795,-0.544327,0.205343,-0.813353
0.130186,0.005769,-0.112643,-0.205552,-0.574645,0.792169
-0.367695,-0.055701,-0.129953,0.097250,-0.011063,-0.995199
-0.568103,-0.429188,0.111334,0.110190,-0.456130,0.883065
0.001478,-0.445194,0.394193,0.136750,-0.108054,0.984695
0.514519,0.248362,-0.382644,-0.727168,-0.675165,-0.124015
-0.182802,-0.142752,-0.684704,0.016245,-0.913401,0.406736
-0.341976,-0.558758,0.470094,-0.053850,0.422820,0.904612
-0.059199,-0.112213,-0.106592,0.863895,0.441037,0.243251
-0.246186,0.339782,-0.063507,-0.037863,-0.414667,0.909185
-0.555192,0.046717,0.750800,0.977209,0.059071,0.203893
-0.079561,0.088352,-0.355879,-0.458425,-0.876113,-0.149240
0.523041,-0.276690,-0.849334,-0.335665,0.787615,-0.516711
-0.079869,0.184878,-0.057020,-0.506556,0.806305,-0.305406
-0.289768,-0.065913,0.722698,-0.323880,0.903323,0.281266
0.618115,-0.050203,-0.853668,-0.240114,0.514473,0.823203
-0.010922,0.010090,-0.658812,0.149498,0.443590,0.883673
-0.137282,-0.138922,0.514226,0.904960,0.380358,0.190725
0.319316,-0.078237,0.088934,-0.332988,-0.215098,0.918070
-0.380404,-0.318915,0.121429,-0.339874,-0.680569,0.649085
0.738557,0.291175,-0.282917,0.003160,0.985655,0.168742
0.234346,-0.061839,0.087130,-0.081840,0.095242,0.992084
0.252359,0.231227,-0.943998,-0.171387,0.204854,0.963671
-0.789182,0.149724,-0.333478,0.403732,-0.751952,0.521123
0.378513,-0.150313,-0.427823,0.790903,0.488842,0.368110
-0.821333,-0.245415,-0.186420,-0.188236,0.183783,0.964775
-0.515796,0.027274,-0.273317,-0.672513,-0.237273,0.701019
0.119265,-0.086976,0.471287,-0.644145,-0.147437,0.750560
0.373411,-0.139266,-0.260895,0.223848,-0.349339,0.909865
-0.108958,-0.238345,-0.977425,0.289366,-0.057072,-0.955516
0.012349,0.715969,-0.356316,0.440882,0.684816,-0.580216
0.241336,0.408961,-0.067347,-0.506342,0.261631,0.821685
0.016177,0.560967,-0.517688,-0.533914,0.609317,-0.586233
0.424547,0.251356,-0.001047,-0.089024,-0.099737,0.991023
0.422404,-0.400859,-0.620265,0.883700,0.389834,0.259043
-0.056343,-0.067681,-0.160557,-0.230716,-0.938980,-0.255123
0.574585,0.007389,-0.873014,0.440100,0.256292,0.860596
0.242815,-0.760501,0.333188,-0.109090,-0.277211,0.954596
0.337126,0.476863,-0.017804,0.178275,0.533442,0.826836
0.091450,0.343072,-0.535492,-0.133364,0.847854,0.513184
-0.273182,-0.120363,-0.999360,-0.223353,0.171852,0.959469
0.645012,0.133227,0.043172,-0.157285,-0.017578,0.987397
0.077265,-0.085946,-0.637196,0.669522,0.742791,-0.001725
-0.286656,-0.072787,0.212312,0.249006,0.961935,0.112591
0.267466,0.148742,0.007913,0.766668,0.022693,0.641642
0.066242,0.303891,-0.027957,-0.430423,0.294705,-0.853162
0.486909,-0.347932,-0.155786,0.937235,0.187716,0.293860
-0.562696,-0.562833,-0.497876,-0.114963,0.053920,0.991905
0.097574,0.227986,-0.019230,-0.097658,0.946785,0.306694
0.047001,-0.135436,-0.429161,-0.615047,0.467411,0.635015
-0.071244,-0.122523,-0.966981,-0.094733,0.214189,0.972188
0.349427,0.246201,-0.920463,0.423151,-0.462036,-0.779401
-0.179484,0.108335,-0.841595,-0.632225,0.627627,-0.454286
-0.628273,0.260931,0.626666,-0.327364,-0.838950,0.434737
0.328654,0.400025,-0.016815,0.309602,0.283936,0.907484
-0.072674,0.199411,-0.022284,-0.362669,0.774715,-0.517965
0.060728,0.185909,-0.309013,0.257915,0.270647,0.927486
0.069506,0.560084,0.145750,-0.053975,-0.475583,0.878014
0.195252,-0.064097,0.276313,-0.069892,0.347556,0.935051
-0.150395,-0.081674,-0.967010,-0.284388,0.562280,-0.776508
-0.380914,0.655530,-0.466777,0.397056,-0.323961,0.858717
-0.236386,0.115061,0.566649,0.882282,-0.096052,0.460817
-0.267008,-0.387554,0.736051,-0.075757,0.565125,0.821520
-0.391682,-0.005081,-0.156863,0.162846,0.918046,0.361486
-0.226537,-0.065177,0.582388,0.704141,0.392501,0.591717
0.079050,0.268050,-0.522662,0.911110,-0.083932,-0.403528
0.503904,0.240997,0.021673,-0.287108,0.185359,0.939793
0.196224,-0.493408,-0.911474,-0.139299,0.335455,0.931701
0.251798,0.228870,-0.288125,0.136416,-0.233928,0.962636
-0.160602,-0.210163,-0.083057,0.334239,-0.177219,0.925677
-0.210003,0.047306,0.464305,0.872816,0.485929,0.045448
-0.074001,0.007733,-0.234159,0.774791,0.481896,0.409237
0.151108,-0.406554,-0.440885,0.497275,0.268998,0.824838
-0.644554,0.008028,-0.004713,0.444898,-0.479093,-0.756661
0.065426,0.160673,-0.317217,0.153921,0.369071,0.916567
-0.239859,0.690340,-0.008786,-0.072969,-0.522138,0.849734
0.020005,-0.170050,0.595712,-0.267708,0.586007,0.764806
-0.043992,-0.215810,0.422994,-0.572172,0.296462,0.764676
-0.234143,0.373364,-0.142899,0.184691,0.463591,-0.866587
0.560500,0.416129,-0.062780,0.817635,-0.575680,-0.008090
0.703546,-0.354461,-0.299587,-0.175229,-0.538316,0.824324
-0.282523,0.294072,-0.641764,0.822779,0.005662,-0.568333
0.053228,-0.266969,0.628731,0.595890,-0.228025,-0.770013
-0.260629,0.153161,0.539710,0.904137,0.344153,0.253170
0.207858,0.769388,-0.313667,0.311637,0.290024,-0.904858
-0.484666,0.340911,0.544045,0.355269,-0.748615,0.559784
0.369941,-0.445980,-0.557485,0.903137,0.002855,0.429343
-0.294718,0.501854,-0.701198,0.896665,0.410321,0.166216
-0.140241,-0.547416,-0.566387,0.933819,-0.343515,0.099904
-0.313039,-0.111378,0.733200,0.768953,0.300704,-0.564171
-0.370860,0.098908,0.608454,-0.620914,-0.136668,-0.771873
0.390303,0.170051,-0.876244,0.125270,0.981046,0.147839
0.344680,-0.370565,0.081457,0.227904,0.573831,0.786625
-0.519827,-0.305315,0.128702,0.175036,0.005222,-0.984548
0.009901,-0.379305,0.128644,0.385422,0.347700,-0.854725
-0.814596,-0.142457,0.031099,-0.061941,0.326025,0.943330
-0.185916,0.026096,0.424885,0.846994,0.436454,-0.303495
-0.004390,-0.220424,-0.943940,-0.287665,-0.101188,0.952371
-0.081501,-0.310224,-0.429860,-0.140640,0.014622,0.989953
-0.022556,0.225973,0.088788,-0.329894,-0.073469,-0.941155
-0.424752,0.810777,0.035027,0.023699,-0.475784,0.879243
-0.174790,-0.016914,0.039332,-0.384099,-0.314682,0.868011
0.045011,-0.238640,0.377204,0.308219,-0.221793,0.925100
0.216074,-0.170885,0.143801,0.793644,-0.483398,0.369398
0.247512,-0.192684,-0.671205,-0.566513,-0.736889,-0.368859
-0.142281,0.563717,-0.268080,0.158411,0.934111,0.319910
0.083541,-0.278409,0.652645,0.615118,-0.175445,-0.768667
0.425874,0.362514,-0.028917,0.380820,-0.898358,-0.218927
-0.798367,0.256905,0.614709,-0.263036,-0.944445,-0.197068
0.135597,0.845489,-0.310292,-0.386860,-0.538752,0.748389
0.023170,-0.198183,0.618956,-0.545781,0.416369,0.727159
-0.338201,0.186990,-0.245098,0.272563,-0.185463,-0.944094
-0.403316,0.183896,-0.018328,0.342094,0.566504,-0.749697
-0.500281,-0.106518,-0.589922,0.172909,0.117765,0.977872
-0.453381,-0.232552,0.144761,-0.381704,-0.349079,0.855830
0.782239,-0.556941,-0.414935,-0.019085,0.150351,0.988448
-0.565502,0.094096,0.651597,-0.093249,-0.299196,0.949624
-0.126514,-0.031643,-0.089690,-0.211481,-0.684944,0.697228
0.043531,-0.674972,0.124746,0.442195,0.125507,-0.888094
0.415461,0.559347,-0.562373,-0.059799,-0.874301,0.481686
-0.111765,0.555714,-0.033746,-0.323060,0.019765,-0.946172
-0.096761,0.659212,-0.230668,-0.028212,0.782803,0.621630
-0.715335,-0.097582,-0.374382,-0.500105,-0.690167,0.523034
0.473129,-0.040628,0.122796,-0.501571,0.329528,0.799898
0.382291,0.242273,-0.905102,-0.218827,0.415484,0.882886
0.634446,0.253811,0.019899,0.581430,-0.031549,-0.812985
0.355856,0.414067,-0.534677,-0.197967,0.802433,0.562949
0.615514,0.564159,0.025804,-0.347585,-0.253577,0.902709
0.342484,0.155910,-0.838744,0.816467,-0.519652,-0.251680
0.405257,0.658182,-0.529877,-0.247592,-0.778618,0.576587
0.089665,0.136320,-0.285041,-0.010448,0.860827,0.508790
-0.303548,-0.066797,0.717374,-0.470025,0.871193,0.141775
-0.119265,-0.092525,-0.600832,-0.010787,-0.582542,0.812729
-0.632814,0.324414,-0.280357,-0.690715,-0.347098,-0.634379
0.371676,-0.244286,-0.865451,-0.034247,-0.402409,0.914819
0.593365,-0.273990,-0.863007,-0.118836,0.085748,0.989204
-0.555345,0.154781,-0.250567,-0.470655,0.058038,0.880407
0.121306,-0.064637,0.078286,0.376977,-0.357235,0.854559
-0.159836,-0.090266,0.390790,0.876728,0.474533,-0.078531
-0.070325,-0.096453,-0.319544,0.264360,0.955035,-0.134247
-0.030468,0.084276,-0.970530,-0.468842,-0.418445,-0.777876
0.025362,0.156106,-0.095479,0.392093,0.466432,-0.792909
-0.367390,0.670947,-0.454442,0.472728,-0.237097,0.848713
0.386119,0.448190,-0.509833,-0.178080,0.522184,0.834033
0.579230,-0.233976,-0.857363,0.901438,-0.270591,-0.337920
-0.754224,0.254351,-0.255047,0.071678,-0.289367,0.954531
-0.845062,-0.420351,0.084599,-0.115774,0.268953,0.956170
-0.608830,0.218215,-0.600541,0.201982,0.023768,0.979101
0.118091,-0.182521,-0.905161,-0.473138,0.870026,0.138544
-0.131310,-0.619934,0.105429,-0.288472,-0.473074,0.832457
0.892473,0.103818,-0.511113,0.227080,0.045382,0.972818
0.630721,-0.058451,-0.845668,-0.144999,0.364876,0.919696
0.003571,0.640408,-0.311020,0.291343,0.545390,0.785919
-0.084357,0.593470,-0.204224,0.375279,-0.382822,-0.844164
0.521714,0.437241,-0.085937,-0.637889,0.119137,0.760858
-0.637203,-0.641782,-0.472130,-0.067318,0.422233,0.903984
-0.200410,-0.031349,0.533485,0.861244,0.262858,0.434930
-0.012451,0.727311,-0.328068,-0.506120,-0.724878,0.467327
-0.183721,-0.636381,-0.480363,-0.181489,0.078001,0.980295
-0.175248,0.309439,-0.070053,-0.786486,0.002765,0.617602
-0.051085,0.792660,-0.010880,0.297333,0.406423,-0.863952
0.611073,-0.544617,-0.396899,0.152992,0.041036,-0.987375
0.171268,0.342630,-0.513673,-0.412452,0.853097,0.319546
0.141515,0.072738,-0.952697,-0.118515,0.239371,0.963668
0.206225,-0.497386,0.370338,0.786935,0.588465,0.185584
-0.357693,0.027225,-0.208995,-0.568620,-0.301096,0.765514
0.134983,-0.389371,0.419300,0.471112,0.875940,-0.103840
0.741668,0.154535,-0.452755,0.730913,0.259903,0.631044
0.106762,-0.184337,0.378280,0.893167,0.033756,0.448457
-0.150906,-0.059874,-0.590911,0.028321,-0.678718,0.733852
-0.005973,0.181589,-0.541281,-0.624764,-0.037343,0.779920
0.104772,-0.154192,-0.022313,0.477316,0.874540,-0.085721
0.055729,0.039008,-0.957933,-0.292973,0.090538,0.951824
-0.182344,0.073770,-0.433962,-0.003659,-0.900062,0.435746
0.648276,-0.375132,-0.464130,-0.103877,0.439696,0.892119
0.145854,-0.600736,-0.899313,-0.345884,0.188412,0.919166
0.408010,-0.750485,-0.346192,0.249332,0.323694,0.912719
0.125797,0.468222,-0.039681,-0.296070,0.261998,0.918531
0.473129,0.210164,0.010851,0.532176,-0.288349,-0.796017
0.059863,-0.409107,0.441002,0.326147,0.505960,-0.798519
-0.472774,-0.285774,0.145459,-0.167931,0.006369,0.985778
-0.156213,0.591949,-0.529499,0.175074,0.087657,0.980645
0.259097,0.191408,-0.929976,0.545265,-0.262546,-0.796087
0.181933,-0.118792,0.298045,0.267934,-0.482021,-0.834187
0.273998,0.439597,-0.013586,0.441965,-0.313302,-0.840541
-0.021690,0.238689,-0.071188,0.260386,-0.462912,0.847297
-0.915080,-0.092132,-0.197446,0.029397,0.133776,0.990575
-0.483237,0.283909,-0.262029,0.502557,0.126823,-0.855191
0.388976,0.426390,-0.522692,-0.201502,0.968799,0.144307
-0.343406,0.189248,0.089748,0.000545,-0.013140,0.999914
0.223220,-0.461495,-0.905626,-0.261700,0.106355,0.959272
-0.270528,0.215221,0.543463,-0.840343,0.063580,-0.538313
-0.045216,0.698687,-0.240327,0.201477,-0.261200,0.944024
0.553252,-0.134013,-0.844970,-0.527071,0.668577,0.524596
-0.340035,-0.692304,-0.481759,0.104067,0.024706,0.994263
0.493136,0.265055,0.001280,-0.168513,0.062317,0.983728
-0.531872,0.309243,0.672951,0.787723,0.512168,0.342312
0.008726,-0.189591,0.378629,0.690251,0.553951,0.465502
0.607145,0.508629,-0.014168,-0.536783,0.787120,-0.303821
-0.248176,-0.206677,0.700646,-0.693688,-0.404986,-0.595637
-0.330339,0.216153,0.543521,-0.220651,-0.093013,0.970908
-0.178058,-0.065865,-0.965293,-0.425011,-0.166336,0.889774
-0.461445,-0.382595,0.944697,-0.665408,-0.491831,-0.561547
-0.105896,-0.066650,-0.444464,-0.262329,0.247229,0.932771
-0.141976,-0.158610,0.308315,0.020429,0.990814,0.133681
0.318957,0.036849,-0.019986,-0.422918,-0.893300,0.152172
-0.042204,0.433411,-0.166783,-0.080134,0.369883,0.925616
-0.231642,0.763987,-0.541572,0.148044,-0.066983,-0.986710
-0.524879,-0.127826,-0.058503,0.147992,-0.970394,0.190876
0.341309,-0.050153,0.104789,-0.415007,-0.039293,0.908969
0.175504,0.569461,-0.133967,0.105747,0.141515,-0.984272
0.350803,0.300798,-0.468523,0.155914,-0.971641,0.177778
0.411736,-0.479857,0.101530,0.200947,-0.193861,-0.960228
0.175759,-0.013919,0.081515,0.112181,-0.079477,0.990504
0.211125,0.595729,-0.349770,0.682441,0.168178,0.711330
0.161724,0.281748,-0.034590,-0.309138,0.744845,0.591303
0.134983,0.676495,-0.343719,0.301857,-0.081194,-0.949890
-0.363054,-0.031741,0.637546,0.091694,-0.149059,0.984568
-0.078234,0.460218,-0.074155,0.382362,-0.075002,0.920964
-0.159634,0.572309,-0.514458,-0.395110,0.036792,-0.917897
-0.432356,0.639131,-0.498982,-0.497930,0.465523,0.731679
0.151619,-0.497974,0.406558,0.032593,-0.763964,0.644436
0.497166,0.054818,0.132339,-0.493158,-0.172065,0.852754
-0.952131,-0.305511,-0.190347,0.058686,0.031990,0.997764
-0.375454,0.064686,-0.209228,0.071863,0.107360,0.991620
-0.390714,-0.102933,0.741752,0.047561,0.193221,0.980002
0.603419,0.424967,0.063391,0.284195,-0.027580,-0.958370
0.563001,-0.295053,-0.417961,-0.650135,-0.118231,-0.750564
0.066802,0.167006,-0.498836,-0.866527,0.497670,0.038147
0.651849,0.105880,0.050736,-0.093952,0.185197,0.978200
0.505025,0.415932,0.004539,-0.638827,0.094340,0.763544
0.014084,-0.120167,-0.115203,0.370183,-0.910035,0.186550
-0.432867,0.737180,-0.516233,-0.102832,-0.383841,0.917656
-0.138914,-0.165141,-0.966486,-0.181123,-0.175107,0.967746
-0.440676,-0.013231,0.719323,-0.291384,0.953752,0.073839
-0.665682,-0.275856,0.085675,0.396673,-0.635022,-0.662871
0.063180,-0.218313,0.314075,0.821775,0.404613,-0.401215
0.179840,-0.014459,-0.942689,0.262322,-0.098971,-0.959892
-0.183263,-0.581539,-0.148368,0.499101,-0.254372,-0.828367
-0.138864,-0.121983,0.360505,-0.725740,-0.684250,-0.071445
0.701197,0.404787,-0.466020,0.164312,-0.093142,0.982001
-0.248637,0.401793,-0.031419,-0.187167,-0.260211,0.947237
0.050829,-0.197840,0.646506,-0.497971,0.357212,0.790205
0.395099,0.011710,-0.831530,0.221629,0.525849,0.821196
-0.315693,0.591310,-0.469104,-0.453810,-0.229004,-0.861170
0.317531,0.404542,-0.105836,0.004847,0.511621,0.859197
0.255779,0.696674,-0.315180,0.189001,0.526122,-0.829141
-0.225568,0.639966,-0.283964,0.349076,0.348290,0.869965
0.494718,0.041316,0.138739,-0.452480,-0.241768,0.858377
-0.680530,-0.236038,0.089428,-0.412704,0.382059,0.826866
0.267619,-0.127237,-0.112207,-0.115746,-0.551882,0.825850
0.268690,0.095570,-0.893175,0.786054,-0.334013,-0.520149
-0.323552,0.775378,-0.511258,0.110523,0.548290,0.828953
0.261289,-0.408862,-0.906557,0.220604,0.195753,-0.955518
-0.170299,0.361336,-0.153837,-0.262280,-0.404473,-0.876134
-0.371779,0.650866,-0.459940,-0.241794,0.386397,-0.890075
-0.025415,-0.154388,0.406412,0.048659,-0.997180,0.057137
0.117222,0.473131,-0.119974,0.383789,0.811029,0.441518
0.020055,0.494931,0.113894,0.378252,-0.174734,0.909062
-0.138353,-0.051528,-0.613254,0.284261,-0.198995,0.937868
-0.526309,0.200589,-0.259353,-0.363681,0.292100,0.884541
0.052920,0.694366,-0.342119,-0.145026,0.140871,0.979348
-0.375401,-0.044948,0.728196,0.663706,0.600465,0.446022
-0.622862,-0.194255,-0.138506,0.130457,0.898832,0.418428
0.487062,0.257690,-0.320358,-0.362960,0.763988,0.533462
0.062311,-0.114422,-0.056874,0.411770,0.910823,0.029108
0.061086,-0.205352,-0.403648,-0.018767,-0.500371,0.865607
0.311659,0.387946,-0.011433,-0.120994,-0.173106,0.977443
0.156824,0.231374,-0.017833,0.179103,-0.882626,-0.434618
0.148199,0.136075,-0.952697,-0.187270,-0.024162,0.982011
0.065426,0.252977,-0.315151,0.989462,0.064409,0.129676
-0.154734,-0.118056,0.396608,0.699373,0.713773,0.037476
0.160450,0.009157,-0.081020,0.126891,-0.753786,0.644752
-0.233785,0.013183,0.040816,0.125266,0.989275,0.075117
0.297372,-0.501510,0.080381,0.034466,-0.000328,0.999406
0.252412,-0.034737,0.499913,0.354926,0.197224,-0.913854
0.139322,0.113784,-0.950544,-0.104178,0.179998,0.978135
0.737790,-0.871756,-0.387939,0.984421,0.009128,0.175592
-0.091708,-0.305020,0.412318,-0.704196,0.621292,0.343662
-0.617199,-0.430023,-0.187380,-0.299082,-0.266437,0.916276
0.025160,0.635448,-0.049194,-0.005374,-0.491676,0.870762
0.055218,-0.095078,-0.540612,-0.714249,-0.624829,0.315337
1.000000,0.146140,-0.507418,0.199748,0.004357,0.979838
-0.631540,0.193470,0.713475,-0.101256,0.904867,-0.413478
0.172545,-0.125862,0.169401,-0.026391,-0.829400,0.558031
-0.206991,0.786376,0.010822,-0.332880,0.129177,-0.934079
-0.534575,-0.164551,0.936231,0.476585,-0.701616,0.529718
0.053838,-0.072198,-0.220283,-0.269010,0.959754,-0.080665
-0.159889,-0.154732,0.293565,-0.447817,0.892982,-0.045194
0.052667,-0.285185,0.643946,-0.551232,0.237805,0.799745
0.032203,-0.256806,0.634055,-0.680453,0.174985,0.711592
-0.775199,0.303646,-0.230261,-0.023367,-0.401870,0.915398
0.005256,0.274432,0.075377,-0.630493,-0.150751,-0.761415
-0.304159,0.409451,-0.176412,0.863708,-0.211170,-0.457619
0.040725,-0.134111,0.066126,0.280220,0.957046,0.074433
0.127021,-0.853247,0.361902,-0.040098,0.227930,0.972851
0.610615,-0.308310,-0.819689,0.667768,-0.141576,0.730781
0.551262,-0.118301,-0.799790,0.457054,0.124209,0.880724
0.224650,0.213011,0.022924,0.452351,0.712503,0.536393
-0.416280,-0.716313,-0.455315,0.225891,0.232207,0.946072
0.208471,-0.240849,-0.878047,0.636000,0.498520,0.589051
0.024596,0.357408,0.149357,0.730214,0.322617,0.602250
0.184331,0.483884,-0.572264,-0.516095,0.783630,-0.345789
-0.117889,-0.524634,0.069995,0.151754,-0.382657,0.911342
-0.140393,0.449221,-0.062198,-0.517964,-0.011716,-0.855322
-0.056953,-0.106812,0.017077,0.165449,-0.963395,0.210942
-0.641900,0.368308,-0.295368,0.288577,0.762966,0.578452
-0.430926,-0.365558,0.918776,-0.765855,-0.470529,-0.438257
0.664455,-0.111133,-0.860127,0.046668,-0.248986,0.967382
0.106507,-0.406064,0.396404,-0.080022,0.913812,0.398175
0.024497,-0.059482,-0.512742,0.327181,0.944941,0.006299
0.060015,-0.486092,-0.924827,0.040209,0.202725,0.978410
-0.032000,-0.574371,0.380200,-0.108270,-0.133529,0.985113
0.323296,0.247674,-0.931140,-0.488154,0.351863,0.798685
-0.096402,-0.916484,-0.428289,-0.091226,0.451283,0.887706
0.112936,-0.037634,-0.942136,-0.033041,0.349599,0.936317
0.475581,-0.350239,-0.830104,0.660032,-0.478402,0.579214
-0.876702,-0.192144,0.062431,0.288810,0.547343,0.785496
0.592243,-0.049760,-0.848112,-0.431965,0.491943,0.755909
-0.563817,-0.031693,0.182056,0.476917,0.696514,-0.536115
0.181627,-0.326280,-0.908797,-0.321821,-0.399505,0.858386
0.190710,0.540101,-0.524640,-0.104240,0.348890,0.931349
0.341721,-0.362465,-0.891837,-0.217960,-0.139504,0.965936
-0.407503,0.234319,-0.200064,0.742161,0.466228,-0.481485
0.356569,-0.183454,0.498778,0.548746,0.254587,-0.796281
-0.160144,-0.039253,-0.967156,-0.044032,0.638855,0.768066
0.217809,-0.479514,0.094548,0.196054,-0.296698,0.934630
-0.006789,0.096649,-0.972857,-0.153675,0.177166,0.972109
-0.389692,0.013674,0.718858,-0.263189,0.890677,0.370710
-0.127227,-0.684792,0.073981,-0.598041,-0.127175,0.791312
-0.410309,0.156304,-0.171176,0.354323,-0.464634,-0.811524
-0.076144,-0.370173,0.375284,0.675104,0.699722,-0.233719
0.001478,-0.045342,0.222959,0.411107,-0.098886,-0.906208
-0.449961,0.724267,-0.517019,-0.228784,0.007724,0.973447
-0.067976,0.539413,-0.168994,-0.013606,0.235710,0.971728
-0.111559,0.304775,-0.566591,-0.251733,-0.226097,0.941016
-0.111254,-0.259751,-0.962617,-0.142788,0.301497,0.942715
0.549580,0.131067,-0.381975,-0.515911,0.106987,-0.849935
0.686040,0.419320,-0.461162,-0.003692,-0.115471,0.993304
-0.596529,-0.401595,0.111334,-0.005886,-0.324072,0.946014
-0.184998,0.709341,-0.296969,-0.144688,-0.372075,-0.916856
0.045724,-0.046275,-0.786263,0.377265,-0.925735,-0.026172
-0.463539,0.134160,0.080032,0.462692,0.136142,-0.876003
-0.466700,0.039696,0.741287,-0.551974,-0.798761,-0.239383
-0.365960,-0.318816,0.838483,-0.634019,-0.052651,-0.771523
0.434957,-0.308064,-0.841683,0.801955,-0.211226,-0.558795
0.315232,0.054769,-0.090330,-0.130844,-0.892072,0.432536
0.114469,-0.469841,-0.918165,-0.074207,0.314352,0.946402
-0.556317,-0.068123,0.717316,-0.339356,0.561404,0.754760
-0.767135,-0.093900,-0.308605,0.166268,0.866152,-0.471312
-0.045624,-0.391040,-0.951155,-0.077054,0.198343,0.977099
0.239040,-0.111427,0.088381,0.378080,-0.316612,-0.869950
0.349679,-0.044556,-0.779717,0.467428,0.388900,0.793894
0.328299,-0.310028,-0.024902,-0.749020,0.447637,-0.488456
0.507629,-0.449220,0.317042,-0.072537,0.106770,0.991634
0.268129,-0.402184,0.123291,-0.475979,-0.091625,-0.874671
0.467924,0.295397,-0.330570,0.360328,-0.761467,-0.538824
0.395560,-0.106026,-0.462937,0.186928,0.759942,0.622532
-0.327227,0.158119,-0.013440,-0.328021,-0.145055,0.933467
-0.206583,0.921935,-0.521237,-0.094685,0.103950,0.990065
0.682468,0.398012,-0.468784,0.161006,-0.127580,0.978673
0.159631,-0.529545,-0.902368,0.234320,-0.171042,-0.956995
0.100536,-0.129594,-0.432041,-0.103199,0.841821,0.529799
0.105638,0.335216,0.078373,-0.087053,-0.131293,0.987514
0.179176,-0.390745,0.314336,0.153411,-0.054958,0.986633
0.516509,0.275709,-0.017077,0.198567,0.052820,-0.978663
0.382955,-0.118056,-0.453889,-0.751249,-0.534137,-0.387715
0.048942,-0.153455,-0.377552,-0.480558,0.281608,-0.830518
-0.567493,-0.030710,0.043870,-0.085559,0.288006,0.953799
0.809388,0.135977,0.043172,-0.074897,0.152269,0.985497
-0.043073,-0.066994,-0.193198,0.261133,0.939047,-0.223605
0.002195,-0.092917,-0.161372,0.002117,0.834258,0.551370
-0.330186,-0.410384,0.751906,0.066951,0.155314,0.985594
0.109211,-0.252141,0.661459,0.345264,-0.140819,-0.927881
-0.064915,0.566466,-0.531710,0.187958,-0.164204,0.968354
-0.410770,0.808273,0.022517,0.163642,-0.331265,0.929239
0.034140,0.380042,-0.318235,0.893849,-0.200951,0.400816
-0.631948,0.273352,-0.279485,-0.334146,0.005186,-0.942507
0.494104,-0.572800,-0.412114,-0.102299,-0.024590,-0.994450
-0.278897,-0.015785,-0.248007,-0.538561,0.840477,0.059582
0.370604,0.607807,-0.109996,-0.012435,0.347496,-0.937599
0.412502,-0.707917,0.403212,0.453695,0.184845,-0.871776
-0.531819,-0.013085,-0.186856,-0.478817,-0.786061,0.390951
0.365808,0.496502,-0.574562,0.740712,-0.638980,0.207485
-0.026640,-0.134013,0.186304,-0.168135,0.960206,-0.223013
-0.155039,-0.159298,0.246814,-0.585699,0.794251,-0.161622
0.313089,0.445244,0.158579,0.440357,0.354433,-0.824902
-0.048789,0.351025,-0.531361,-0.106358,-0.254812,0.961124
0.621127,-0.097631,-0.844591,-0.054388,-0.252071,0.966179
0.083847,0.100871,-0.305347,0.100408,0.117611,0.987971
-0.219955,0.907942,-0.537004,-0.080128,-0.035134,0.996165
0.066341,0.305806,-0.556496,0.485214,-0.650231,-0.584609
-0.216177,0.658525,-0.006458,0.032929,-0.555259,0.831026
0.414443,0.219787,-0.004567,0.180107,0.059990,-0.981816
0.708445,0.181637,0.050852,-0.129104,-0.223806,0.966045
-0.608525,-0.014017,0.260110,0.234992,-0.264708,0.935259
-0.285635,0.233092,-0.457526,0.231576,0.313283,0.920992
0.438835,0.047159,-0.862891,-0.035868,0.671349,0.740273
0.137076,0.861937,-0.448449,-0.021512,-0.728888,0.684295
0.321867,0.246397,-0.023942,0.033631,0.124712,0.991623
0.338606,-0.085847,-0.831471,0.927296,-0.078597,0.365985
-0.324013,0.151492,0.594781,0.300398,0.010816,0.953753
-0.074611,0.778177,-0.333071,0.243769,-0.249454,0.937203
-0.827457,0.299669,-0.241665,0.069161,0.543285,-0.836695
-0.064457,-0.063360,-0.957613,-0.115327,0.148374,0.982184
-0.075683,-0.235940,0.609531,0.030341,0.695789,0.717605
-0.386325,0.694563,-0.534561,0.507995,0.367131,0.779202
0.112375,-0.031693,-0.275208,-0.651822,0.749506,0.115623
0.087267,0.435571,-0.611771,-0.053821,0.089413,0.994539
0.004032,0.790745,-0.501105,-0.575143,0.201965,0.792730
0.589998,-0.126451,-0.855298,0.146980,0.392484,-0.907939
-0.683592,-0.461937,0.106476,0.202824,-0.259349,0.944246
-0.002400,0.051971,-0.485891,0.947066,0.068937,-0.313550
-0.456904,-0.174960,0.180107,-0.555105,-0.443213,0.703861
0.403316,0.228820,-0.816926,-0.233255,0.924795,0.300576
0.287572,0.529692,-0.346425,0.168178,0.439541,0.882338
0.315948,-0.506615,0.350294,-0.305920,-0.204997,-0.929725
-0.356519,-0.278213,0.829348,0.236270,0.032169,0.971155
0.728197,0.101952,0.038489,-0.028105,0.208360,0.977648
-0.163001,-0.095618,-0.964450,-0.480707,0.351201,-0.803479
-0.269353,0.903130,-0.514779,0.323648,-0.196401,0.925569
-0.222712,-0.714840,-0.486647,-0.183314,0.131552,0.974212
-0.352336,-0.319013,0.832752,0.111590,0.116982,0.986845
-0.477674,0.091150,0.644877,0.114470,-0.750635,0.650725
0.276907,0.212618,-0.008640,-0.668339,-0.265460,-0.694877
-0.238377,-0.160623,-0.977017,-0.347009,-0.061910,0.935816
0.555856,-0.249589,-0.873596,-0.330150,-0.038126,-0.943158
-0.203163,-0.166220,0.609618,0.575960,0.643561,0.504083
0.345088,0.485504,-0.110839,-0.110648,0.158086,0.981206
0.674151,-0.492083,-0.418572,0.101926,0.223940,0.969258
-0.743403,-0.504946,-0.177431,0.289094,0.006586,-0.957278
-0.150345,0.822757,-0.019491,-0.138937,-0.587678,-0.797076
0.198878,0.032086,-0.237214,0.260290,-0.028687,0.965104
-0.523449,-0.217429,-0.074882,0.479002,-0.771483,0.418774
-0.333809,0.239818,-0.215075,0.998537,0.019137,-0.050579
-0.097577,-0.438763,0.110083,0.966317,0.079078,0.244904
0.012654,0.012103,-0.965759,-0.203730,0.060607,0.977149
-0.060831,-0.258426,-0.961802,0.314211,0.143935,-0.938379
-0.046338,0.235989,0.071013,-0.633845,0.366495,-0.681118
-0.118297,-0.137106,0.299703,0.190095,0.930373,0.313481
-0.363409,0.138137,0.092308,0.043788,-0.102159,0.993804
0.182493,0.625089,-0.514138,0.168226,-0.176778,0.969768
-0.737535,0.293090,0.649328,-0.035548,-0.997491,-0.061226
-0.059812,-0.348422,-0.959970,0.193176,-0.263581,-0.945097
0.000765,0.424328,0.117065,-0.635707,0.115757,-0.763202
0.543353,-0.466552,0.118985,-0.208406,0.241969,0.947638
0.196326,0.109955,-0.539681,0.741755,0.240936,0.625899
-0.740650,-0.643255,-0.464595,-0.027512,0.445073,0.895071
0.315385,0.362612,-0.022604,-0.138333,-0.125150,0.982447
0.215716,0.343710,-0.025833,0.272885,0.623447,-0.732699
-0.039245,-0.216252,-0.952929,0.447104,-0.035739,-0.893767
0.438072,0.150461,-0.860330,0.765761,0.240772,-0.596354
0.518755,-0.201424,-0.835951,0.553976,0.335958,-0.761736
-0.105027,0.240358,-0.533077,0.864056,0.424642,-0.270344
0.089562,0.940837,-0.294874,-0.337273,-0.463699,0.819286
-0.684819,0.347294,-0.252633,0.419338,-0.301094,0.856445
-0.307323,0.546827,-0.016640,-0.615702,-0.375974,0.692499
-0.551928,0.206727,-0.268575,-0.289716,0.286123,0.913344
-0.550651,-0.596906,-0.486327,-0.089246,0.033553,0.995444
-0.234552,-0.119233,-0.635655,-0.308095,0.939005,-0.152795
-0.155603,-0.371498,0.434660,-0.135118,0.473236,0.870512
-0.227303,0.462477,-0.011782,-0.096727,-0.314992,0.944152
0.021229,-0.047502,-0.666026,-0.064530,0.997616,0.024472
0.115487,-0.050399,-0.465555,0.364393,-0.910140,-0.197137
0.769889,0.206579,-0.483796,0.625962,0.142846,0.766660
0.054707,-0.052903,-0.736865,-0.048172,-0.908943,0.414128
0.257972,0.342630,-0.025601,-0.149421,-0.567686,0.809571
-0.126716,0.093065,-0.585442,-0.583630,-0.662716,0.469238
-0.193059,-0.032380,-0.483156,-0.530317,0.088711,0.843146
0.262464,-0.242175,0.692151,0.380581,0.576568,-0.722999
-0.213882,-0.064932,-0.510909,-0.678870,0.634998,0.368664
0.750038,0.089432,0.046343,-0.367916,0.272990,0.888884
0.243276,0.034884,0.081254,0.640316,0.297785,0.708039
0.034140,-0.340763,-0.948217,-0.117454,-0.204275,0.971842
-0.441492,-0.397864,0.864636,0.561869,0.378075,0.735774
-0.304467,0.070333,-0.180776,0.527450,0.695785,0.487523
0.324010,0.246889,-0.023797,-0.140716,0.127252,0.981838
-0.343661,-0.132048,0.126229,-0.132827,-0.810952,0.569836
0.519979,0.005573,-0.827893,0.564804,-0.590174,-0.576794
0.212299,0.304038,-0.066067,-0.423150,0.811832,0.402335
-0.683695,-0.083294,-0.315093,0.158812,-0.905292,0.393987
-0.374074,-0.007144,0.715570,-0.446051,0.879140,0.167787
-0.004185,0.498564,0.119189,-0.079291,-0.286326,0.954846
-0.107937,0.138923,0.010561,0.817672,-0.565851,-0.105946
-0.686349,-0.264171,-0.134724,0.799815,0.344167,-0.491778
-0.128298,-0.110937,0.255949,-0.107924,0.962553,-0.248687
0.107731,-0.605597,0.314889,-0.111298,0.270571,0.956245
-0.444706,0.020155,0.663089,0.246535,0.265328,0.932106
0.073692,-0.185565,-0.591697,-0.091063,-0.366361,0.926006
0.164072,0.217184,0.059115,0.489560,0.228248,0.841566
-0.762594,0.315528,-0.238698,-0.087119,0.323641,-0.942161
-0.129423,-0.032380,-0.955228,-0.262699,0.147974,-0.953464
-0.396121,-0.101902,0.112818,-0.682221,0.641675,0.350469
-0.229599,0.549037,0.004626,0.078446,-0.169733,0.982363
0.031742,0.307574,-0.317944,0.995196,-0.079690,-0.056874
0.412655,-0.396244,-0.822104,0.841859,-0.475629,0.255050
0.496247,-0.034000,-0.829609,0.775763,-0.308175,-0.550655
-0.037102,-0.031545,-0.563129,0.553011,0.803211,-0.221431
-0.086859,-0.139266,0.192471,-0.185010,0.981356,0.052067
-0.104669,-0.051381,-0.073777,-0.555868,-0.484814,0.675253
-0.626435,-0.046078,0.028277,0.330995,0.634258,0.698684
-0.080380,0.008666,-0.665910,-0.326029,0.043275,0.944369
0.140393,-0.155174,-0.608803,-0.565158,-0.681474,-0.464961
0.326408,-0.227052,0.714843,0.345313,0.564282,-0.749897
0.068843,0.417209,-0.606767,-0.123697,0.633777,0.763561
-0.133248,0.554192,-0.522633,0.284209,-0.048911,0.957514
-0.006839,-0.407978,-0.945191,-0.367269,0.310467,0.876769
0.121919,-0.374445,0.324199,-0.159864,-0.133806,0.978028
-0.102221,-0.890365,0.113109,-0.263112,0.245584,0.932985
0.391374,0.270504,-0.899866,-0.585079,0.431498,0.686653
-0.660782,0.227053,0.719934,-0.310590,0.049598,-0.949249
0.125286,-0.351369,-0.428899,-0.378653,-0.514000,0.769692
0.689563,-0.222536,-0.869814,0.163549,-0.011754,0.986465
-0.065273,-0.132294,0.258771,0.431764,0.901098,0.040041
-0.025210,-0.116632,0.401699,0.025943,-0.906848,0.420659
0.058227,-0.243157,-0.888840,0.972035,-0.232159,-0.035343
-0.189589,-0.713760,-0.469657,-0.299729,0.144512,0.943016
0.529779,-0.219688,-0.457846,-0.518980,-0.292655,-0.803127
0.485377,-0.139658,0.335661,-0.299905,0.196307,0.933553
-0.359428,-0.421136,0.074940,0.489676,0.411715,-0.768576
-0.283339,-0.054032,0.741636,0.406521,-0.237328,0.882279
0.379790,-0.528120,-0.534270,-0.788889,-0.585927,-0.185322
-0.246238,0.044311,-0.209024,0.424079,0.705818,0.567431
-0.080941,-0.320781,-0.962704,0.016781,0.287932,0.957504
0.476907,0.113932,-0.855443,-0.356491,-0.258030,0.897962
0.166982,-0.077894,-0.926776,0.244805,-0.176334,-0.953403
-0.458894,-0.008911,-0.177169,-0.056822,-0.862679,0.502550
0.585914,-0.670750,0.446937,-0.423928,0.079551,0.902195
0.475989,0.491838,-0.111421,0.352527,-0.401235,-0.845420
-0.054200,-0.123260,0.052074,-0.043417,-0.920077,-0.389324
0.315846,0.556303,-0.115465,-0.106078,0.169408,0.979821
0.309364,-0.484325,-0.902543,-0.053149,0.154209,0.986608
0.327533,-0.247821,0.300547,0.258159,-0.133421,0.956845
-0.045777,-0.378520,0.427329,0.095501,-0.554995,0.826354
0.290634,0.089825,-0.812998,0.850309,-0.407847,-0.332618
-0.391122,0.144372,0.605312,0.408596,-0.142532,0.901518
-0.577545,0.299521,0.675540,0.457597,-0.645440,0.611565
-0.096353,-0.696625,-0.484261,-0.116955,0.166490,0.979083
-0.286656,-0.086486,0.234683,-0.380195,-0.771596,0.509992
-0.161571,0.323138,0.031914,0.098722,0.915013,-0.391159
-0.080632,0.561507,-0.168325,0.275610,0.677260,0.682172
-0.163054,-0.106370,0.396928,0.742122,0.670222,-0.007535
-0.268946,-0.196366,0.716763,0.742045,0.131303,0.657365
0.256954,0.078041,-0.024408,0.187535,0.952110,-0.241488
-0.043329,0.642960,-0.531070,0.469013,0.230365,0.852619
0.223067,0.227347,-0.001484,0.162386,0.609544,0.775943
-0.148968,-0.427273,0.437395,0.173883,0.071544,0.982164
0.074150,0.333645,0.053413,-0.215110,-0.164926,0.962563
-0.487370,0.036603,0.693548,-0.279308,-0.751666,-0.597482
0.007807,0.375279,-0.069937,-0.027204,0.299029,0.953856
-0.243379,0.939758,-0.534677,0.635216,0.760146,-0.136671
0.155497,-0.056143,-0.160092,0.119797,0.367714,-0.922191
-0.014598,0.713171,-0.365742,0.302249,0.888780,0.344552
-0.165807,-0.098564,0.469570,0.954671,0.250310,0.161085
-0.203522,0.823051,-0.531652,0.045446,-0.287162,0.956803
-0.052972,-0.033558,-0.622564,-0.341237,-0.895643,-0.285275
-0.132637,0.184191,-0.027666,-0.456097,0.521730,-0.720954
-0.230110,0.038026,0.370454,0.938008,0.318429,-0.136906
0.063943,0.785050,-0.497934,-0.152219,-0.672642,0.724142
0.209440,-0.239769,0.673678,0.444547,0.392535,-0.805167
-0.359020,0.767227,-0.541019,0.052205,0.655585,0.753315
0.041438,-0.523652,-0.914325,0.027292,0.173744,0.984413
0.240214,0.308556,-0.594053,0.923918,-0.345910,0.163467
-0.781934,-0.458844,0.144382,0.824299,-0.149631,0.546023
-0.148660,0.535633,-0.515797,0.437877,-0.054258,0.897396
0.053278,-0.112164,-0.401815,0.974557,0.221267,0.035761
0.073692,-0.435081,-0.445336,-0.109234,-0.202514,0.973168
0.447307,-0.017111,-0.480566,-0.404571,0.913288,-0.047188
0.594028,0.363595,0.025281,0.390273,0.247853,-0.886711
0.330644,0.232159,-0.307732,-0.270908,0.901294,0.338052
0.457054,-0.182865,-0.446064,0.451864,0.127738,0.882894
-0.467569,0.085013,0.074010,-0.572377,-0.449527,0.685791
-0.210717,-0.139806,0.624629,0.632768,0.734741,0.244461
-0.395102,-0.227936,0.174696,0.273003,0.457958,-0.846017
-0.489974,0.235351,0.000233,0.023935,-0.762965,0.645996
0.476244,-0.674727,0.444435,-0.458126,-0.053531,0.887274
0.004643,0.023444,0.034910,-0.271005,0.438264,-0.857019
-0.536619,0.321075,0.559638,-0.513800,-0.687759,-0.512833
0.565347,0.355984,0.041136,0.425295,0.206042,-0.881289
-0.773464,0.216055,-0.257462,-0.097237,0.524483,-0.845850
0.147180,-0.168479,0.314307,-0.658897,0.412920,0.628770
-0.418629,-0.134111,0.836941,0.770784,0.476902,0.422441
-0.160907,0.979330,-0.528074,0.215726,0.031018,-0.975961
0.044195,0.397128,-0.305609,0.719472,-0.180060,0.670775
-0.166981,0.409403,-0.062344,-0.445695,0.385090,-0.808122
0.504770,0.180607,0.009135,-0.313948,0.629733,0.710544
0.254044,0.252338,-0.003142,0.373490,0.384488,0.844200
0.038990,0.072395,-0.205039,0.268672,-0.958694,0.093385
0.566063,0.011268,-0.872927,0.452519,0.277747,0.847398
-0.636337,0.407782,-0.327370,-0.226334,0.720700,0.655260
0.244653,0.231668,0.008844,-0.132105,-0.415625,-0.899891
-0.424444,-0.180508,-0.573777,0.343685,0.450415,0.824019
-0.080327,-0.077353,-0.441933,-0.494824,-0.027302,0.868564
0.303393,-0.191359,-0.898121,-0.579709,0.701906,0.413842
-0.406073,0.128415,0.095392,0.048346,-0.076571,0.995891
-0.327124,-0.243942,0.165358,-0.055450,-0.588876,0.806319
-0.340088,-0.431398,0.860592,-0.349851,-0.685606,-0.638395
0.074558,-0.577955,0.141764,0.169387,0.173396,0.970176
-0.638686,0.255382,0.124193,0.142659,-0.337396,0.930490
0.062208,-0.243991,0.303805,0.818959,0.425261,-0.385305
0.117988,-0.625727,0.038750,0.265304,-0.278811,0.922973
0.103290,-0.178838,0.287747,-0.284266,0.766864,0.575424
-0.062821,-0.108531,-0.437249,0.258962,0.950912,-0.169427
0.103701,-0.617823,-0.494676,0.222316,-0.353377,0.908680
-0.192803,-0.038615,-0.965468,-0.680522,0.410211,0.607138
-0.304772,-0.526009,0.450952,0.013500,0.341114,0.939925
0.104464,-0.192341,0.062809,0.334172,0.873879,0.353079
0.398264,-0.413084,-0.620469,0.889611,0.385700,0.244596
0.043581,-0.091788,-0.483127,0.208500,0.956675,0.203225
0.328043,0.164110,-0.898004,0.631411,-0.435251,-0.641776
0.333043,0.555370,-0.366702,0.193641,0.330604,0.923691
0.012962,-0.068172,-0.940449,0.616333,-0.640605,-0.457994
-0.007197,-0.152424,0.355763,-0.115442,0.972347,0.203015
0.439040,0.214877,-0.895735,-0.546877,0.457350,0.701253
0.384332,0.168528,-0.846250,-0.368383,-0.547083,-0.751661
-0.616075,0.182963,-0.274393,-0.331224,-0.067306,0.941148
0.143863,-0.138185,-0.614709,-0.529489,-0.667704,-0.523271
0.084815,0.560133,-0.097632,-0.778102,-0.353436,-0.519268
0.372595,-0.037732,-0.889480,-0.559768,-0.131250,0.818189
0.231384,0.146827,-0.946326,0.219365,-0.207111,-0.953407
0.243429,0.545993,-0.532961,-0.724907,-0.292668,0.623582
-0.446544,0.293090,0.666550,0.751215,0.602654,0.269228
-0.661598,-0.201669,-0.154564,-0.564796,0.492582,0.662095
0.149426,0.018142,-0.941671,0.309645,-0.088882,-0.946689
-0.274970,-0.116730,-0.994182,-0.223353,0.171852,0.959469
-0.140752,-0.226856,-0.974079,0.055529,-0.004731,0.998446
0.565552,-0.263041,-0.875196,0.088775,0.145670,0.985342
0.055421,-0.063754,-0.483214,0.259690,0.953250,0.154516
0.134880,-0.689211,0.335952,0.168410,-0.009145,-0.985675
0.439704,-0.302369,0.321202,-0.051284,-0.148459,0.987588
-0.275988,-0.342923,0.706464,0.008833,0.506124,0.862416
0.307781,0.363938,-0.361611,0.242726,0.118782,0.962795
-0.460321,-0.213060,0.890673,0.559847,0.055643,0.826726
-0.161418,-0.076863,0.166812,0.825501,0.564277,-0.011801
0.417913,-0.437437,-0.382731,0.170315,0.099034,0.980400
-0.316356,-0.378569,0.101094,0.506770,0.562877,-0.652958
0.373461,0.456340,-0.516175,-0.299581,0.793202,0.530171
0.322835,-0.048238,-0.789347,-0.727531,-0.511625,-0.457097
-0.507682,0.312140,0.580759,-0.423443,0.671955,0.607595
-0.095792,0.646348,-0.056816,0.141959,-0.554740,0.819824
-0.006022,-0.061397,-0.659597,-0.164900,0.985105,-0.048743
0.223830,0.521493,-0.599144,0.383826,0.918347,-0.096519
0.271447,-0.040235,-0.923751,-0.265271,-0.100185,0.958955
0.113397,-0.037142,-0.463344,0.364393,-0.910140,-0.197137
-0.144477,-0.152964,0.195613,0.057214,0.938309,0.341032
-0.145498,0.000123,-0.206290,-0.435406,-0.897418,-0.071146
-0.329012,0.298392,-0.201315,0.982252,-0.178706,-0.056972
0.640776,0.016129,-0.233403,-0.324276,0.031474,0.945439
-0.127380,-0.045342,-0.630157,-0.250398,0.964412,-0.084914
0.040519,-0.065521,-0.477396,0.340853,0.922486,0.181214
-0.460832,-0.061298,-0.125618,-0.504720,0.324898,0.799812
-0.109366,-0.058942,-0.103247,-0.143684,-0.883508,0.445835
0.269914,-0.162145,-0.172834,0.097165,0.898482,0.428122
-0.646491,-0.021333,0.248560,0.020269,-0.851188,0.524470
-0.150140,0.507696,-0.034183,-0.468544,0.223681,-0.854654
0.163561,0.005327,0.077064,-0.142376,0.074840,-0.986979
0.430518,-0.352448,-0.826933,0.895491,-0.377781,-0.235326
0.608114,-0.666871,0.458690,-0.410840,0.063697,0.909480
0.025057,0.449270,-0.077937,-0.796235,0.592702,-0.121305
0.538301,-0.075684,-0.857799,0.311224,0.711746,0.629728
0.317275,0.192832,-0.921016,0.592742,-0.449121,-0.668541
0.350190,-0.419221,-0.172747,-0.011242,-0.387142,0.921952
-0.226335,0.360550,0.061646,-0.079568,-0.911717,0.403039
0.430313,-0.173192,-0.833129,-0.684315,0.697304,0.213260
-0.840981,0.220228,-0.258597,0.001053,-0.058458,0.998289
-0.060987,-0.150902,0.303631,-0.502822,-0.858520,-0.100567
0.159939,0.443525,0.065573,0.787966,0.406285,-0.462647
0.098851,0.569117,-0.581777,0.668859,0.451807,-0.590337
-0.313500,0.147858,0.577181,0.486501,0.207612,0.848654
0.024139,-0.188511,0.610258,-0.313126,0.692984,0.649404
0.062566,0.188119,0.069530,0.788194,0.056004,-0.612873
-0.540699,-0.080054,-0.586606,-0.158183,-0.085983,-0.983659
-0.368359,0.756279,-0.302263,0.235796,0.276331,0.931688
-0.471550,-0.037388,0.670652,-0.481195,0.490458,0.726569
-0.643738,0.041169,0.655554,-0.514221,-0.568015,-0.642601
-0.547284,-0.171032,-0.095566,-0.308978,0.864361,-0.396753
-0.488289,0.282141,0.628120,0.509940,0.422855,0.749103
-0.139322,0.716902,-0.021441,-0.059704,0.095973,0.993592
-0.317225,0.658672,-0.510182,0.359881,0.455057,0.814499
0.213474,-0.432920,0.713795,-0.066893,0.468636,0.880855
0.507579,0.159494,-0.360854,-0.520119,0.184823,-0.833857
-0.628528,0.212078,0.682202,-0.568810,-0.217096,-0.793300
-0.082675,-0.123260,0.042358,0.220413,0.914283,0.339859
-0.290329,-0.185466,0.735236,0.934422,0.310275,0.174884
-0.453739,0.201326,0.059987,-0.776043,0.424459,0.466467
0.024036,0.029287,-0.652179,-0.072507,0.048933,0.996167
-0.208932,0.132049,0.462006,0.956565,0.287325,0.049279
0.156519,-0.294513,0.676762,-0.072515,0.223797,0.971934
-0.354429,0.277329,0.601385,0.075405,0.667427,0.740848
-0.264252,-0.053835,0.097050,-0.029025,0.662793,0.748240
-0.145751,0.039598,-0.653605,-0.323774,0.936581,0.134112
-0.121000,-0.024475,-0.695613,0.524904,0.715685,-0.460728
-0.210003,-0.117564,-0.687991,-0.064314,0.968414,-0.240911
-0.218678,-0.062231,0.394543,0.902157,0.292197,-0.317387
0.075019,-0.068368,-0.152470,0.205141,0.708251,-0.675499
-0.378719,-0.015490,0.716996,0.111063,0.761628,0.638426
0.006481,-0.002676,-0.960086,0.279018,-0.107698,-0.954228
-0.093443,0.187136,-0.568715,-0.479360,-0.113396,0.870262
-0.022201,0.285578,0.091814,-0.739992,0.612130,-0.278763
-0.728555,-0.305118,0.090388,-0.464991,0.655217,0.595377
0.122225,-0.186940,-0.868767,0.400026,-0.835190,-0.377409
0.128654,0.468516,0.011200,0.984658,-0.173753,0.016051
0.005359,-0.528219,0.381335,-0.196449,-0.164480,0.966620
0.706097,-0.479955,-0.420637,0.014971,0.209866,0.977616
-0.296147,0.190770,-0.636556,-0.085823,-0.239293,0.967147
-0.104364,0.439647,-0.047390,0.265511,0.273867,0.924392
0.241797,0.189690,-0.312591,-0.468618,0.779511,0.415644
-0.273182,0.716460,-0.527812,0.364769,0.385266,0.847652
-0.067313,0.309096,0.046198,0.227807,0.883216,-0.409919
-0.149224,0.041660,0.483331,0.877796,0.430400,-0.210311
0.090584,0.506616,-0.321144,-0.668362,0.175268,-0.722893
-0.302988,-0.069497,0.725869,-0.354482,0.706045,0.613060
-0.460118,-0.321959,-0.570577,0.105908,0.326778,0.939148
0.469609,-0.136270,-0.815151,-0.635142,0.770306,-0.056779
0.253328,-0.377292,-0.899750,0.229292,0.302362,-0.925204
-0.012146,0.048239,-0.711002,-0.225998,-0.663039,0.713656
-0.261292,0.874702,-0.536335,-0.115823,-0.037308,0.992569
0.482826,-0.624353,0.127422,0.266848,-0.137625,-0.953861
-0.051748,0.570984,-0.584250,0.681426,0.358724,0.637947
-0.394744,-0.645219,0.496829,0.073940,0.373509,0.924675
0.123704,-0.074751,0.590417,0.328279,-0.035766,-0.943904
0.000254,-0.034344,-0.724268,0.195296,0.932464,-0.303925
-0.072876,0.177121,-0.557660,0.418685,0.172605,-0.891577
0.255063,-0.412397,0.386222,0.982200,0.176886,0.063202
-0.308040,-0.521100,0.077500,0.633374,0.128698,-0.763069
0.641695,-0.613600,-0.399721,-0.325748,-0.193226,0.925501
0.332532,-0.441463,0.308315,0.185223,0.191141,0.963928
0.365552,0.298245,-0.936667,-0.376192,0.372761,0.848251
-0.321561,0.098858,-0.218304,0.528990,0.543308,0.651909
0.101249,0.391924,-0.060918,0.251322,0.751535,0.609945
-0.286604,0.065522,0.558794,-0.238980,-0.124510,-0.963009
0.147638,0.261618,-0.546081,0.607093,0.194640,0.770424
-0.255985,0.515945,-0.044365,-0.592767,0.416916,-0.689064
0.061137,-0.059040,-0.931372,-0.313448,0.699148,0.642606
-0.157593,0.614189,-0.209082,-0.329505,0.421060,0.845065
0.182852,-0.444212,-0.920783,-0.251625,0.002579,0.967821
-0.473388,0.055947,-0.143800,-0.050988,-0.171264,0.983905
-0.265476,0.697067,-0.012887,-0.284610,-0.548464,0.786247
-0.467264,0.151443,0.251847,-0.394554,0.143744,-0.907560
-0.801890,0.201670,-0.284721,-0.276254,0.592087,-0.757045
0.723091,-0.213158,-0.864490,-0.123355,-0.084177,-0.988786
-0.631437,-0.045194,0.000756,-0.562256,-0.329206,-0.758612
-0.100181,-0.144912,-0.959417,0.150776,-0.030965,-0.988083
-0.850114,0.244434,-0.266539,0.354844,0.109395,-0.928503
-0.246083,0.043771,-0.708559,0.562282,0.826384,0.030464
-0.098698,-0.069497,-0.447984,-0.262329,0.247229,0.932771
0.172134,-0.105290,-0.152644,0.254502,-0.686973,0.680659
0.178615,-0.187038,-0.397481,0.709975,0.691635,-0.132579
0.097321,-0.047600,-0.092308,-0.729950,0.652399,0.203835
0.251593,-0.106910,-0.474021,-0.036044,0.971245,0.235340
0.547128,0.443869,0.018619,-0.342980,0.020395,0.939121
-0.083389,-0.078924,-0.620905,-0.252486,0.346646,-0.903376
0.834599,0.275169,-0.498516,0.402057,0.012166,0.915534
0.182138,0.385933,-0.507447,0.327062,-0.431693,-0.840638
0.476294,0.103621,-0.861465,0.538351,0.230006,-0.810725
-0.013526,-0.096698,-0.693024,-0.521563,0.825312,-0.216407
0.072773,-0.159445,0.581777,-0.531102,0.737981,0.416311
-0.295637,0.323776,-0.735527,0.862353,0.445806,0.240009
0.414134,0.238199,-0.336504,-0.463876,0.878098,-0.117315
-0.226895,-0.071560,0.217606,-0.512121,0.239556,-0.824831
0.073437,0.471217,0.116891,-0.077269,0.312611,-0.946733
0.027967,-0.051970,-0.681707,0.372630,-0.927160,-0.038998
0.329317,0.320437,-0.945278,0.346760,-0.251731,-0.903543
-0.393928,0.169903,0.628673,0.970237,0.222787,0.094897
-0.633378,-0.074064,0.041252,-0.686938,-0.278514,-0.671227
0.343708,-0.219442,-0.058271,0.916327,0.253254,0.310172
-0.680328,0.309930,0.642695,-0.003369,-0.999203,0.039771
0.238834,-0.791383,0.328621,0.023224,0.155565,0.987553
-0.689463,-0.038665,-0.220021,-0.064547,0.742179,0.667087
-0.036134,0.253173,0.098039,-0.721514,0.533002,-0.441957
-0.109161,-0.723039,0.093326,0.491139,-0.162768,-0.855739
0.248073,0.377440,-0.498516,0.128343,0.422738,0.897118
-0.019292,-0.324021,-0.954471,-0.293736,0.181322,0.938532
0.615412,-0.166613,-0.817769,0.728976,-0.024600,0.684097
-0.333248,0.164748,0.593152,0.396115,0.102564,0.912455
0.045164,-0.062821,-0.533484,0.446395,0.751982,-0.485031
0.377850,0.466651,-0.594053,0.719908,-0.527743,0.450799
0.469049,0.406604,0.002269,0.336537,-0.210238,-0.917901
0.010919,0.622978,-0.100628,0.138213,-0.864949,0.482452
0.373155,0.178152,-0.348432,0.405484,-0.047825,0.912850
0.154071,0.337327,0.098941,-0.372359,-0.357992,0.856266
0.469304,0.346950,-0.027579,-0.736479,0.389413,0.553133
-0.352233,-0.490953,0.442166,-0.061490,0.409146,0.910395
0.308700,-0.350534,0.080526,0.504475,0.620350,0.600559
0.140085,-0.129250,-0.931430,0.296619,-0.040865,-0.954121
0.574177,-0.044163,-0.267411,-0.230929,0.627574,-0.743520
0.147536,-0.212962,-0.618316,0.331180,0.740975,0.584188
0.736719,0.194992,-0.457148,0.725304,0.258235,0.638160
-0.105741,0.595729,-0.189678,0.362319,-0.378575,-0.851708
0.499820,0.368848,-0.098068,0.027977,-0.342156,-0.939227
0.098954,-0.034049,-0.135626,0.170378,-0.943873,0.282976
0.146720,0.660243,-0.054460,0.509706,-0.382182,0.770802
0.436284,-0.266233,0.341799,-0.298699,-0.279131,0.912614
-0.031845,-0.132000,-0.100745,-0.044352,0.998956,-0.010975
-0.339117,-0.321124,0.747251,-0.706570,0.357204,-0.610872
-0.598928,0.361826,0.577151,0.614983,-0.421670,0.666326
