-0.149539,0.772031,-0.990606,0.070673,0.055835,0.995936
0.055241,0.001451,0.389448,0.882045,0.422202,-0.209145
-0.846425,-0.084660,0.719446,0.839552,-0.314155,0.443237
0.042791,-0.055768,0.779783,0.943715,0.290364,0.158400
-0.079584,0.221234,-0.295838,-0.315746,0.948004,-0.039918
0.072263,0.273904,0.384213,0.220029,0.087837,0.971531
-0.129579,-0.082711,0.514164,0.907709,-0.388567,-0.158367
0.184470,-0.211011,0.790428,-0.197949,0.781927,0.591106
0.053935,0.939705,0.728957,0.237364,0.963517,0.123665
0.007068,0.726940,0.813085,0.855794,-0.516844,-0.022085
-0.712112,-0.280402,0.260340,-0.514994,0.712243,-0.476960
-0.063447,0.173110,-0.632337,0.302032,-0.947166,0.107948
-0.310247,0.320122,0.545838,-0.625799,0.282783,-0.726917
-0.709826,0.214563,0.736795,0.015358,0.998326,0.055759
0.421196,-0.021030,0.544602,0.231881,0.423431,0.875750
-0.649573,0.292530,0.841298,0.457016,-0.870102,-0.184550
0.231246,-0.280922,0.879501,0.897978,-0.044282,0.437806
-0.641691,0.109653,0.343203,0.394091,-0.014386,-0.918959
0.234838,-0.704286,0.458278,0.568491,-0.579063,-0.584383
0.636143,0.019600,0.639971,-0.481266,-0.728732,-0.487168
0.457992,-0.130141,0.815456,-0.349740,0.653986,0.670809
0.133405,-0.570138,0.831133,0.822180,0.562571,0.086796
0.381371,0.365430,0.592810,0.272636,-0.809463,0.520038
-0.280771,0.148550,0.939838,0.205023,0.973611,0.100235
-0.144922,0.154224,0.090556,-0.026413,-0.948887,0.314507
0.659276,0.053993,0.629806,0.998986,0.043141,0.012841
-0.636049,0.211574,0.872753,-0.450598,0.041781,0.891749
-0.369943,0.378165,0.395512,0.275852,0.050548,0.959870
0.380995,0.578845,0.529303,-0.739389,-0.188472,-0.646361
-0.412753,0.075347,0.595137,0.589737,-0.544269,0.596642
0.373116,-0.443701,0.552208,0.775256,-0.596154,-0.208752
-0.625230,-0.384099,0.168591,-0.325418,-0.941615,0.086395
-0.435792,0.402118,0.771261,0.864278,0.008675,0.502940
0.133311,-0.012063,0.848933,-0.537963,0.687074,0.488391
-0.097585,0.184328,-0.675673,-0.708233,-0.676421,-0.202138
-0.024505,0.209928,0.582238,0.949682,-0.214194,0.228529
0.261422,0.643905,0.462437,-0.629150,-0.227038,-0.743387
-0.632784,-0.128018,0.808868,0.562081,0.813653,-0.148436
-0.001141,0.455742,0.903860,0.304701,0.560522,-0.770047
0.274806,0.536006,0.721526,0.622595,0.716257,-0.315201
-0.012940,-0.470990,0.872433,0.960944,-0.195114,-0.196256
0.083877,0.966127,0.694419,0.541572,0.801682,-0.252994
-0.444839,-0.083144,0.984352,0.869075,-0.478845,0.124158
0.010706,-0.562082,0.720930,0.396068,-0.500774,0.769646
-0.041948,0.344335,0.901402,-0.647774,0.112463,0.753486
-0.076040,0.022979,0.680850,-0.475590,-0.809272,-0.344809
0.597016,-0.049012,0.490795,-0.573771,-0.049053,-0.817546
-0.531257,-0.044117,0.733349,0.890017,0.359944,0.279841
0.024787,0.410478,0.887936,0.797593,-0.603102,-0.010629
-0.663845,-0.033808,0.625865,0.818000,-0.270202,0.507807
0.157936,-0.461894,0.455442,-0.653301,-0.006176,-0.757073
-0.014246,0.013579,0.699959,0.293720,0.940450,0.171121
-0.257920,0.005263,0.900137,0.761904,-0.554016,-0.335512
0.063123,0.641652,0.761474,0.640663,0.109144,-0.760025
-0.375539,0.336495,0.562373,-0.018918,-0.608313,0.793471
-0.018584,-0.612198,0.793075,0.121066,0.844674,0.521411
0.098613,0.274035,0.641877,0.211879,-0.976565,0.037785
-0.759682,-0.194291,0.719374,0.059140,0.598281,0.799101
-0.251439,0.642778,-0.981778,0.040152,0.086214,0.995467
-0.708056,-0.227731,0.305640,0.394056,-0.674298,0.624533
-0.703157,-0.236870,0.179803,0.182221,-0.682998,0.707325
-0.068950,0.177225,0.908819,-0.326774,-0.377573,-0.866405
-0.306748,-0.337232,0.657452,0.414134,0.437983,0.797912
-0.066852,0.624586,0.657422,0.314395,0.947453,-0.059072
-0.733378,0.098867,0.687642,0.921303,0.231318,0.312559
-0.013361,0.272518,0.917588,-0.168668,-0.179251,0.969237
-0.158773,0.190349,-0.860232,0.878703,-0.477189,0.013113
0.171041,-0.466961,0.800288,0.960097,-0.254276,-0.116440
-0.040830,0.095186,-0.960517,0.264669,0.090357,0.960097
0.225650,0.488489,0.571680,-0.734184,-0.030459,0.678267
-0.242857,0.135382,0.286240,-0.706576,0.706569,0.038853
0.073103,0.897473,0.761678,0.990625,-0.060570,0.122448
0.360151,0.191909,0.845588,0.953905,0.244545,-0.173964
0.151172,0.981504,0.741056,0.701888,-0.681101,0.208456
0.375399,0.308817,0.573134,-0.117453,-0.990668,-0.069152
0.335108,-0.221450,0.686740,0.554986,0.830975,0.038347
0.221081,-0.438330,0.452330,-0.182035,0.326949,0.927344
-0.212263,0.103805,0.891542,-0.654673,0.018294,-0.755691
0.291269,0.844498,0.573847,0.951684,0.215959,-0.218308
-0.729182,0.064518,0.431039,0.579152,0.688310,-0.436821
-0.123234,-0.245273,0.782924,0.913946,-0.018743,0.405403
-0.320927,0.175795,0.685053,0.702080,0.113736,0.702957
0.319623,0.299980,0.127930,0.541054,-0.838564,0.063814
-0.099871,0.388387,0.898901,-0.200416,-0.815110,0.543534
0.044701,-0.099170,0.104561,0.818636,-0.283517,-0.499453
-0.308661,0.638144,0.761838,-0.899939,0.259740,-0.350208
-0.676577,0.041345,0.632322,-0.432054,-0.852176,-0.295170
0.339118,-0.411388,0.455355,0.755863,-0.386218,-0.528683
0.418492,0.359929,0.568888,-0.666883,0.707881,-0.232749
-0.208625,0.128625,0.209601,0.447459,0.885428,0.125689
0.266690,-0.206506,0.898901,-0.788664,0.599451,0.136630
-0.081403,-0.323024,0.617518,0.349150,0.763410,0.543414
-0.311553,0.221103,0.866049,0.999164,0.040852,0.001231
-0.301013,0.244060,0.709514,0.993005,-0.009003,0.117731
0.035515,0.289411,0.162818,-0.383346,0.545361,-0.745404
-0.506026,-0.316831,0.738308,-0.423449,0.879453,0.217379
0.206809,0.319429,0.874847,0.810011,0.475241,0.343552
-0.252372,0.513265,-0.978623,-0.188031,-0.240053,-0.952376
-0.189039,-0.224352,0.348278,0.115579,0.295530,0.948316
0.022365,0.132307,0.495012,0.890721,0.355189,-0.283649
0.092319,0.798237,0.756181,-0.502062,0.565678,0.654173
0.046101,-0.860482,0.383020,0.952022,-0.247593,-0.179869
-0.691732,-0.109826,0.804331,0.647439,-0.714299,0.265707
-0.057151,0.775020,-0.992802,-0.008286,0.025523,0.999640
0.033090,-0.112685,0.997368,0.573167,-0.809166,-0.129344
-0.544874,-0.145605,0.727765,0.663461,-0.705146,-0.250178
-0.126593,0.196413,-0.543017,0.033036,0.999030,0.029101
-0.651998,-0.383926,0.761867,0.250336,0.957027,0.146393
-0.401794,0.320945,0.751120,0.342798,-0.848650,0.402843
-0.738507,0.084097,0.856422,-0.229608,-0.715023,0.660320
-0.438545,-0.060577,0.619583,-0.391249,0.901070,0.187074
-0.211005,-0.466701,0.665421,0.808723,-0.436677,-0.394057
-0.231804,0.739155,0.476616,0.170455,-0.782839,0.598421
-0.251066,0.800923,-0.990547,0.014681,0.098442,0.995034
-0.021755,0.718277,0.766171,-0.186864,0.837946,0.512766
0.003615,0.594135,0.819310,0.485152,0.779818,-0.395615
-0.102017,0.192905,-0.448999,-0.210861,0.972636,0.097557
0.463964,-0.198926,0.560497,0.305875,0.269425,0.913154
0.192958,-0.764452,0.530321,0.968321,-0.245489,-0.045705
-0.656942,-0.338661,0.774141,0.896969,-0.354329,-0.264382
-0.047590,0.242284,0.535033,0.156987,-0.987600,0.000707
0.490687,-0.164707,0.545954,0.486375,0.455692,0.745509
-0.023247,0.188573,0.336615,-0.835956,0.543427,0.076578
0.004036,0.049401,0.637208,0.010385,0.985903,0.166994
-0.080469,0.638923,0.823760,0.074217,-0.488909,0.869172
-0.034394,0.194075,0.089553,-0.568166,0.822374,0.029814
-0.227187,0.202694,-0.958961,0.133851,0.224385,0.965264
-0.049924,0.891409,-0.994517,0.030839,0.051182,0.998213
0.027727,0.487882,0.455195,0.663350,0.746701,0.049022
0.092783,0.755701,0.766593,0.214136,0.415801,0.883886
-0.236654,0.628094,-0.982811,0.074599,0.031306,0.996722
-0.070769,0.953609,0.716683,-0.048592,0.995936,-0.075831
-0.509057,0.272215,0.756719,-0.524719,0.764608,-0.374226
-0.172763,0.548048,0.710924,0.946647,0.160207,0.279631
0.004221,0.375826,0.696149,0.887545,-0.202710,-0.413731
0.147207,0.603144,0.760703,-0.109698,-0.992460,0.054674
0.412711,-0.313581,0.834536,0.978390,0.001988,-0.206760
-0.281660,0.091763,0.575156,0.802091,-0.104085,0.588061
0.368918,-0.006779,0.901824,0.562892,-0.633875,0.530429
-0.235954,-0.629611,0.581772,0.760834,0.493543,0.421362
0.531633,-0.208845,0.525900,-0.612556,0.789813,0.031155
0.455894,-0.066078,0.857440,0.211353,0.154814,-0.965071
0.434395,0.264592,0.490227,0.882792,0.158543,-0.442201
0.366165,0.598727,0.703173,0.299613,0.551237,0.778698
0.146137,0.361402,0.607774,0.030248,0.844785,0.534251
-0.428050,0.202218,0.873582,0.756674,-0.645192,0.105697
0.403756,-0.140883,0.519836,-0.741243,-0.604014,0.292788
-0.405105,0.446733,0.848060,0.080296,-0.446793,0.891027
-0.423573,-0.019644,0.981313,0.955623,-0.067419,0.286773
-0.178686,0.023975,-0.953900,0.082955,0.116080,0.989770
-0.619352,0.296472,0.561224,-0.778215,0.381648,0.498725
-0.736458,-0.166656,0.713120,0.153800,0.444048,0.882704
0.038080,-0.913413,0.363112,0.871565,-0.420830,-0.251548
0.263798,-0.336929,0.874629,-0.395955,0.906674,-0.145469
-0.052907,0.083317,0.624615,0.110003,-0.819609,-0.562264
-0.492363,-0.452884,0.740460,0.188220,0.771069,0.608298
0.243933,-0.326316,0.870659,-0.803809,0.570647,0.168087
-0.209186,0.302276,0.466509,-0.139381,0.346485,0.927643
-0.035931,0.529898,-0.984861,0.095557,0.093810,0.990994
-0.796851,0.084660,0.415566,0.379171,-0.229244,-0.896480
0.696679,0.003010,0.727561,-0.001411,0.991075,0.133297
-0.506772,-0.103069,0.860843,0.130121,0.811471,-0.569722
-0.127712,0.638707,0.622637,-0.108917,-0.866020,0.488003
-0.046659,0.288199,-0.967105,0.119877,0.083632,0.989260
-0.257687,-0.418318,0.728186,-0.426475,-0.497714,-0.755249
0.030010,-0.101553,0.954060,-0.610946,0.766122,-0.199505
0.042418,0.728327,0.767466,0.413546,0.892450,-0.180312
-0.073242,0.195937,0.872913,0.424886,0.904228,0.042941
-0.031035,0.212224,0.197909,-0.280118,-0.959261,0.036765
0.365326,-0.345852,0.796042,0.897652,-0.414187,-0.150565
-0.478091,0.327962,0.847158,0.521873,-0.852062,0.040484
-0.639639,-0.152968,0.308083,0.261517,-0.923174,0.281707
-0.083874,-0.061790,-0.954744,0.190293,0.152579,0.969798
-0.169452,0.249042,-0.971090,0.092482,0.212086,0.972865
0.017887,-0.658155,0.804912,-0.312227,0.942193,0.121602
-0.105934,0.027873,0.791243,0.852629,0.515892,0.082941
0.090825,0.327183,0.937482,0.963933,0.144522,-0.223487
-0.285016,0.481255,0.757853,-0.188232,0.771049,-0.608319
-0.029216,-0.297338,0.476296,0.633055,-0.749936,-0.191931
-0.135921,-0.053603,0.518411,0.936575,-0.335402,-0.101652
-0.169546,0.772118,-0.989050,0.069222,0.091135,0.993430
-0.406739,0.319213,0.724900,0.729891,-0.680333,0.066379
0.041903,-0.033505,0.857149,-0.257543,0.957631,0.128896
0.058088,0.509497,0.832485,-0.111835,-0.955865,0.271690
-0.664636,-0.109436,0.603106,-0.602281,0.620682,-0.502007
-0.584656,0.090854,0.922227,0.328313,0.101322,-0.939119
-0.605034,-0.428757,0.624353,-0.483463,0.820364,0.305395
0.161107,0.021376,0.852452,0.776167,0.176750,-0.605247
0.148747,0.526823,0.892415,-0.713802,-0.474245,-0.515342
-0.068392,0.593226,0.579329,0.422836,0.888309,-0.179210
-0.385518,0.020726,0.697022,-0.530859,0.847448,-0.004542
0.242208,0.141273,0.508595,-0.308185,-0.176450,0.934820
0.031923,0.460204,0.442383,0.520215,0.819393,-0.240773
-0.154528,0.169818,0.904921,-0.493691,0.868431,0.045791
-0.024832,0.614926,0.694070,0.986718,0.149757,-0.062933
-0.380856,-0.073701,0.370383,-0.744738,-0.337911,-0.575484
-0.065500,0.575726,-0.984861,0.039332,0.119309,0.992078
0.241647,-0.177355,0.600038,-0.247024,0.945359,0.212782
0.065782,-0.797674,0.521567,0.868906,-0.199191,-0.453128
-0.090170,0.702424,0.803284,0.848821,-0.528608,0.008679
-0.005664,0.378815,-0.977954,0.223239,0.215349,0.950678
-0.812754,0.084616,0.629385,0.814951,0.014824,-0.579340
-0.047450,-0.170771,0.947880,0.675440,0.483160,-0.557079
-0.120997,0.220323,-0.676677,-0.559575,-0.814432,-0.153548
-0.022174,0.380634,0.881479,-0.165693,0.842247,0.512997
0.011078,0.456825,0.832790,-0.849949,0.335759,0.406021
-0.353618,0.089295,0.716741,0.063065,0.985365,0.158365
0.190955,0.581617,0.467076,0.940938,-0.171644,0.291846
-0.236654,0.874342,-0.990838,0.094505,0.078149,0.992452
0.021525,-0.403418,0.752938,-0.083061,0.995244,-0.050893
-0.275830,0.217248,0.806236,0.728264,0.665194,0.164766
0.146277,-0.559743,0.840353,-0.499989,0.490333,-0.713852
0.144130,-0.110389,0.423230,-0.588273,-0.766474,-0.257782
0.291548,0.788621,0.407364,0.934074,0.225140,0.277160
0.137182,-0.854460,0.520461,0.333480,0.051819,-0.941332
0.176497,0.183072,0.858022,-0.450132,-0.792230,0.412011
-0.727130,-0.148637,0.456663,-0.622726,-0.006012,-0.782417
0.015787,0.185325,0.467570,0.948728,0.296818,0.108691
-0.484481,0.334156,0.492103,0.366993,0.887926,0.277316
-0.643743,-0.013623,0.768658,0.362023,0.663777,0.654477
0.069838,-0.422867,0.698898,0.455383,0.866688,-0.203664
-0.527058,0.292834,0.776366,0.824377,0.199112,0.529866
-0.308989,0.623373,-0.981138,-0.155939,-0.222519,-0.962376
0.061632,0.427977,0.866311,0.942485,-0.163375,0.291599
-0.352314,0.113465,0.594395,0.554089,-0.832449,-0.003821
-0.016065,-0.184112,0.413763,0.929112,-0.254101,-0.268671
0.033881,0.019513,0.377479,0.916226,0.381068,-0.123762
0.051279,-0.948325,0.418795,0.944051,0.329492,-0.014226
-0.033972,-0.664219,0.719984,-0.063308,0.508402,0.858789
-0.746156,0.025275,0.757402,0.433860,-0.836533,-0.334631
0.121325,-0.367162,0.765357,0.997329,-0.056889,-0.045817
0.373441,-0.045460,0.870223,0.488514,-0.236266,0.839960
-0.458083,0.103026,0.922154,-0.598713,-0.497907,0.627401
-0.679560,-0.076777,0.625167,-0.530343,0.623208,-0.574759
0.279422,0.015572,0.515880,-0.433824,0.176900,0.883461
0.180041,0.362484,0.561282,-0.776730,0.365827,0.512699
-0.682313,0.099647,0.340527,-0.438925,-0.112655,0.891433
-0.083828,-0.441362,0.744488,0.888360,0.449467,0.093788
-0.165254,0.766530,-0.991100,0.080708,0.078837,0.993615
-0.340701,-0.320989,0.498851,0.189512,0.205351,0.960165
-0.397738,0.087215,0.785091,0.957150,0.087147,0.276169
-0.062702,-0.634505,0.182988,0.368294,0.596627,0.713019
-0.684783,0.115934,0.835932,0.772362,-0.622748,-0.125068
-0.183488,0.179477,-0.957710,-0.054391,0.487714,0.871308
0.430572,-0.146255,0.553560,-0.213292,-0.344764,0.914136
-0.757769,-0.450068,0.241769,0.136373,0.956004,0.259729
0.011263,0.054988,0.628643,-0.012384,0.892635,0.450610
0.173651,-0.602755,0.809377,0.925170,0.369814,-0.085428
-0.106680,0.188617,-0.161465,0.049065,-0.998044,-0.038733
-0.334220,0.642258,0.473024,0.897464,0.408437,-0.166547
0.054262,0.238992,0.942892,0.975280,-0.156179,0.156325
-0.120063,-0.298551,0.170903,0.926380,-0.261454,-0.271040
-0.112927,-0.040695,0.959674,0.927977,-0.027571,-0.371617
-0.371574,-0.352262,0.769094,-0.351707,-0.935426,-0.035793
-0.479118,0.174496,0.839131,0.820641,-0.559997,0.113808
0.850857,0.021766,0.595399,-0.031765,0.998692,0.040078
-0.772693,-0.171594,0.355389,-0.008117,-0.921659,0.387916
-0.123374,-0.109826,-0.949945,0.197900,0.075630,0.977300
0.259090,0.510537,0.748109,-0.058339,0.943604,0.325896
-0.219399,0.076083,0.347217,0.945918,0.312106,0.088477
-0.064008,0.168258,-0.858414,0.565774,-0.800828,0.196402
0.186056,1.000000,0.493805,-0.166130,0.669640,-0.723867
-0.039896,0.680030,0.858676,-0.171108,0.714864,0.678006
-0.407670,0.543716,0.725903,0.894239,0.434751,0.106432
0.194450,0.290668,0.042450,0.890646,-0.256217,-0.375635
0.234278,0.760510,0.730106,0.855527,0.476712,-0.202036
-0.026651,0.701687,0.529521,0.985835,-0.164190,0.034223
-0.062189,-0.442445,0.492874,-0.432705,-0.608890,-0.664845
0.727506,0.010981,0.696833,0.126378,0.976342,0.175455
-0.540958,-0.146991,0.769400,0.315910,0.833347,0.453578
-0.862795,-0.303749,0.195626,-0.159299,0.982601,-0.095495
-0.068392,0.850735,-0.995681,0.016018,0.160336,0.986932
-0.051695,-0.410348,0.484745,0.944599,-0.147391,0.293271
0.150239,0.846707,0.477735,-0.495411,0.756731,-0.426528
0.350217,0.441925,0.802557,0.891155,-0.315054,-0.326472
0.066015,0.360146,0.939707,0.942048,-0.063247,-0.329463
-0.163996,-0.370541,0.725699,0.705279,0.665930,-0.243142
0.106822,-0.580404,0.817332,-0.739526,-0.657427,0.144538
-0.345272,0.322981,0.898464,0.742413,0.644724,0.182080
0.206297,-0.749767,0.468137,0.631186,-0.750503,-0.195833
-0.672751,-0.207416,0.795983,-0.820926,-0.038512,-0.569735
-0.559053,0.292444,0.893244,-0.401613,-0.308521,0.862277
-0.241738,0.054123,0.386103,0.986809,0.131658,-0.094204
-0.527619,0.133953,0.708961,0.949660,-0.131287,0.284448
0.064475,0.748987,0.468516,0.082000,-0.794699,0.601440
-0.357629,0.348104,0.844148,-0.718282,-0.689802,-0.090793
0.162504,-0.759990,0.544035,0.221103,0.157328,0.962477
-0.666734,-0.300501,0.542508,-0.168823,-0.970913,-0.169782
-0.246449,-0.534360,0.135638,0.797867,-0.500882,-0.335448
-0.372647,0.286380,0.557690,0.754084,-0.038449,0.655652
-0.186802,0.494120,0.691045,0.764880,0.389229,-0.513283
-0.709360,0.265241,0.336586,0.501178,-0.066998,-0.862747
0.281102,0.420657,0.345661,0.640022,0.759101,0.118902
-0.468065,-0.415546,0.375923,-0.637881,0.264725,-0.723207
-0.418583,0.067333,0.854604,0.453358,-0.884477,-0.110307
-0.165909,0.314881,-0.969912,0.056695,0.164566,0.984735
-0.507845,-0.103112,0.867998,0.278611,0.948875,-0.148362
0.050673,-0.022415,0.785847,0.684449,0.692445,-0.228145
0.156117,0.614536,0.620921,-0.205571,-0.965090,0.162303
0.237682,0.002274,0.923012,0.996455,0.066003,-0.052159
-0.239313,-0.148940,0.853601,0.273639,-0.219743,-0.936395
-0.156441,0.139670,-0.937264,-0.641617,0.135235,0.755010
-0.696349,0.309077,0.879603,-0.606312,0.718404,-0.341001
0.073942,0.920993,0.755730,0.869773,-0.375154,0.320553
-0.082428,0.184069,-0.432828,-0.102728,-0.987430,-0.120123
-0.655402,-0.413034,0.777893,0.961827,-0.267217,0.059020
-0.064427,0.177615,0.776322,0.755351,-0.654646,-0.029720
-0.134754,0.935590,0.473082,0.271715,0.746792,0.607019
0.093204,0.737899,0.580871,0.705833,0.445864,-0.550459
0.372277,-0.421177,0.465927,0.904601,-0.277045,-0.323951
-0.241926,0.757911,-0.988744,0.005022,0.219971,0.975493
-0.245749,0.136291,0.485603,-0.134047,-0.980015,0.146974
-0.523654,0.351049,0.713004,0.953203,0.290194,0.084800
0.271635,-0.205164,0.932363,-0.807491,0.585435,-0.072271
0.231901,0.737595,0.479844,-0.399924,0.296026,-0.867427
0.026466,0.136422,0.482724,0.866361,0.493966,0.073592
-0.125381,0.177008,-0.791257,0.819239,-0.571237,0.050347
-0.022874,0.489095,0.736505,0.889922,0.163126,-0.425944
0.310577,0.425812,0.777500,-0.823508,0.567164,0.012657
0.177616,0.734001,0.680051,0.902797,0.125082,0.411476
-0.713652,-0.138891,0.586106,-0.182631,-0.573527,0.798569
-0.030523,0.614926,0.869205,-0.605644,-0.206256,-0.768540
-0.001096,0.162801,0.366325,0.889908,0.455630,-0.021562
0.299758,0.636411,0.538232,0.331748,0.431548,0.838874
0.538020,-0.200918,0.745259,-0.352206,-0.873883,0.335082
0.837567,0.169081,0.419406,-0.284718,0.956329,-0.066113
-0.275084,-0.161371,0.354619,-0.504714,-0.119662,-0.854953
-0.697003,-0.412601,0.272076,0.888070,-0.082744,-0.452200
0.171786,-0.471076,0.789788,0.999459,0.016028,-0.028706
-0.329321,0.542936,0.771290,0.029695,-0.734897,0.677528
-0.173557,-0.470124,0.535455,-0.468229,-0.398294,-0.788748
0.268930,0.691595,0.731138,0.893657,-0.118357,-0.432862
-0.194077,0.634418,-0.984178,0.074466,0.053665,0.995779
0.384169,0.021592,0.742918,0.883543,-0.240401,-0.401944
0.007068,0.189483,0.868027,0.723777,0.582353,0.370150
-0.035373,0.021592,-0.957594,0.149559,0.048480,0.987564
0.142218,0.688000,0.817085,0.532963,-0.843467,-0.067178
-0.140444,0.395188,-0.971671,0.130027,0.084297,0.987921
0.165445,0.166179,0.668009,0.963136,-0.042439,-0.265645
-0.150845,0.426201,-0.976194,0.238572,0.235064,0.942246
-0.052067,-0.383493,0.693226,-0.055035,0.789032,0.611882
0.098288,0.450155,0.860901,0.431411,-0.894006,-0.120990
-0.566980,-0.089988,0.375749,0.342213,0.635172,-0.692422
-0.931443,-0.170511,0.561282,-0.033395,0.021739,0.999206
-0.311693,0.217378,0.830842,-0.478889,0.874429,-0.077713
-0.297235,0.589067,-0.975758,-0.209818,-0.258266,-0.943014
-0.041809,0.227211,0.256195,0.968484,-0.183429,-0.168498
0.312908,0.161848,0.264484,-0.706603,0.631611,0.319029
-0.318407,-0.451628,0.510921,-0.170901,0.584736,0.793018
-0.004919,0.258918,0.892516,0.869973,-0.456329,0.186844
-0.107192,-0.633899,0.195117,0.129255,0.468190,0.874123
0.386500,-0.368375,0.824836,0.932310,0.036305,-0.359834
-0.022034,-0.627055,0.435286,-0.575700,0.206263,0.791218
-0.167540,0.829727,0.692703,0.096036,-0.940069,0.327181
0.075015,0.210751,-0.388285,0.467922,0.878476,0.096588
0.093996,-0.192385,0.666817,0.205660,0.141607,0.968324
-0.048803,-0.667512,0.156317,0.908829,0.354920,0.219229
-0.515354,-0.286380,0.763306,-0.411892,-0.520026,-0.748277
-0.249759,-0.128755,0.465752,0.357696,0.793552,0.492269
0.006925,0.009421,0.680894,0.023680,0.953443,0.300644
-0.034721,0.531847,0.752240,-0.007694,-0.969224,0.246062
-0.218514,0.825396,-0.991347,0.039089,0.064875,0.997128
0.515542,0.386915,0.200105,-0.264076,0.903930,0.336413
-0.382299,-0.303143,0.707114,-0.472739,-0.874163,-0.111163
-0.655730,0.240855,0.795169,0.915844,0.226561,-0.331513
0.093577,-0.454010,0.698621,-0.301011,0.499859,0.812117
-0.518340,-0.253980,0.388895,0.779783,-0.281676,-0.559104
0.257878,-0.015486,0.918736,0.997751,0.024252,-0.062484
-0.102017,-0.027051,0.885143,0.820479,0.036448,0.570513
0.242487,0.100556,0.970581,0.987722,-0.117990,-0.102392
0.383375,0.514955,0.147345,0.734379,0.520260,-0.435910
-0.062841,-0.333897,0.455471,0.916538,-0.351900,-0.190064
-0.862980,-0.175579,0.726252,0.894424,0.362360,0.262110
-0.290381,-0.362658,0.679716,0.702737,-0.668597,0.243185
0.064942,0.194248,-0.018236,0.760156,-0.361885,-0.539632
0.403568,0.122907,0.828602,0.669005,0.680758,0.298330
-0.064148,-0.685921,0.183235,0.754331,0.108584,0.647452
-0.283945,0.283218,0.609738,0.053871,-0.519321,0.852880
-0.099264,0.912677,0.484425,0.466954,0.622832,0.627722
-0.113303,-0.019644,-0.956431,0.155114,0.243639,0.957382
0.093577,0.083707,0.616151,0.346416,-0.853856,-0.388491
-0.073288,0.410738,0.678000,0.288750,0.940271,-0.180319
-0.024226,-0.163407,0.961273,-0.232254,-0.565685,0.791239
-0.147532,0.523921,0.702417,-0.605831,-0.182371,0.774409
0.311323,0.451671,0.713644,0.853671,0.517709,0.056767
-0.965162,-0.259351,0.574807,0.648913,-0.760631,0.018806
0.241462,0.172027,0.222427,-0.616728,0.673056,0.408218
0.193986,0.494553,0.480877,0.890105,-0.443055,-0.106841
0.279750,-0.470253,0.342708,-0.289881,-0.901050,0.322610
-0.232271,0.014532,0.382468,0.098188,0.803652,0.586944
-0.276994,0.620254,-0.982767,0.104527,0.183886,0.977374
0.111111,0.814307,0.783899,-0.634689,-0.602096,-0.484408
-0.430709,0.121824,0.959601,0.894128,0.446906,-0.028445
-0.347322,-0.038789,0.931374,-0.175947,-0.977257,-0.118371
-0.025345,0.255625,0.268454,0.995491,0.015918,-0.093515
-0.742006,-0.064302,0.643374,-0.495810,0.649822,-0.576111
0.211893,0.422953,0.843581,0.997923,-0.031205,0.056361
0.348025,-0.460897,0.567099,0.828600,-0.522923,-0.199934
-0.050391,0.540554,0.457972,0.813782,0.569095,0.117858
-0.326104,0.135555,0.394567,-0.255614,0.264719,0.929831
-0.106400,0.270093,0.903205,-0.844715,0.298809,0.444037
0.066994,-0.421913,0.504857,-0.003669,0.235057,0.971975
-0.144828,0.433175,0.356131,-0.353645,-0.837577,0.416414
0.299430,0.259264,0.816866,0.974913,0.177565,-0.134220
0.343735,-0.572435,0.517044,0.893892,-0.447461,-0.027117
-0.471655,0.175492,0.857484,-0.508452,0.797335,-0.325166
-0.347697,0.077556,0.722733,0.705302,-0.708788,0.012975
-0.065545,0.445130,-0.979786,0.111127,0.177914,0.977751
-0.087139,0.198060,-0.811806,0.838013,-0.544197,0.039802
-0.521650,-0.327486,0.494474,-0.328568,0.925802,-0.186904
-0.094414,0.194118,-0.685737,-0.005846,0.999511,0.030718
-0.363367,-0.375566,0.352350,-0.676507,0.464320,-0.571616
-0.698261,0.055812,0.799503,0.829438,-0.348870,0.436259
0.016114,0.460031,0.862981,0.641234,0.682055,0.351596
0.306612,0.297815,0.844323,0.745530,0.524799,-0.410817
-0.014665,-0.240725,0.920045,-0.702008,0.697098,0.145737
0.228403,0.643515,0.797074,0.352926,-0.859816,0.368998
-0.440828,0.513438,0.783899,-0.437008,0.859357,-0.265573
-0.408649,0.066727,0.943386,0.949165,0.077114,0.305186
0.335387,0.290538,0.091021,0.810415,0.474152,-0.344104
0.191140,0.161241,0.358312,0.760185,0.351692,-0.546289
-0.673312,-0.488532,0.312431,0.509227,0.847141,0.151791
0.380810,-0.289845,0.733960,0.143838,-0.969386,-0.199001
0.264498,0.378468,0.078253,0.919242,0.068095,-0.387759
0.067182,0.978732,0.374222,0.182974,-0.971467,0.150904
0.142590,0.260130,0.657292,-0.033363,-0.353974,0.934660
-0.087978,-0.086393,0.857600,0.893932,-0.323857,0.309842
-0.578406,0.131960,0.913370,0.757673,-0.065732,-0.649316
0.108920,-0.480953,0.287461,-0.469682,0.451113,0.758878
-0.058270,0.402681,0.672663,0.427683,0.887405,-0.172043
0.381183,0.184069,0.868463,0.588246,0.808664,0.005396
-0.031314,0.287982,-0.968690,0.180923,0.127190,0.975238
-0.027491,0.551643,0.741871,0.077359,-0.930588,0.357800
-0.150936,0.572737,-0.983945,0.068723,0.053241,0.996214
0.413502,0.316570,0.179120,0.362973,-0.930919,-0.040510
-0.560499,0.326533,0.803851,-0.620311,0.735325,-0.272967
0.085462,-0.405237,0.682915,-0.209423,0.826543,0.522464
-0.490729,-0.496416,0.670627,0.786463,0.309253,-0.534639
0.147301,-0.008858,0.848903,-0.742529,0.115066,0.659857
0.280589,-0.603015,0.501571,-0.651750,0.552635,0.519439
-0.352545,-0.028913,0.361861,0.942053,-0.335189,-0.013592
-0.339582,0.770775,-0.987886,0.067880,0.190478,0.979342
0.134011,-0.513049,0.796042,0.959956,-0.269663,0.075938
-0.473753,-0.220454,0.711026,0.826321,0.476323,0.300517
-0.047872,0.143352,-0.328384,-0.263447,-0.953741,-0.144824
0.018072,0.003963,0.185591,0.405650,0.894988,0.185593
-0.476599,-0.249475,0.435359,0.495926,-0.830373,-0.254043
-0.242905,-0.256838,0.352146,0.025375,0.238055,0.970920
-0.096233,-0.383709,0.829184,0.839755,0.429282,-0.332458
0.216837,0.653261,0.655837,0.411568,0.240098,-0.879184
-0.217908,-0.575726,0.700890,0.746040,-0.665486,0.023509
-0.067504,0.196760,-0.968239,-0.304385,-0.351648,-0.885265
-0.356416,0.061790,0.891847,-0.491849,0.371171,-0.787602
-0.249341,0.138501,0.403627,0.823037,0.515565,-0.238331
-0.085553,-0.741841,0.774533,0.892256,0.327969,-0.310348
-0.350447,-0.171810,0.703333,-0.472756,-0.879918,-0.047385
-0.172484,-0.170078,-0.948127,0.195135,0.094855,0.976179
0.297145,-0.030082,0.717192,0.827035,0.507935,-0.240865
-0.540724,-0.358543,0.494532,-0.422069,-0.813852,-0.399377
0.208255,0.743227,0.752036,0.530479,-0.370525,-0.762432
-0.311180,-0.169255,0.703479,0.993761,-0.111530,-0.000229
0.190955,-0.570918,0.472995,-0.545908,0.823969,0.151850
0.205879,0.190003,0.670772,0.843936,-0.405386,-0.351331
-0.166748,-0.540121,0.091152,-0.578378,-0.518966,-0.629406
-0.191837,0.183896,-0.959717,-0.004710,0.407620,0.913140
0.109108,0.912677,0.735414,0.682033,0.588356,0.434359
-0.189227,0.167305,0.165275,0.851115,0.500369,0.158849
0.267530,-0.048059,0.710444,-0.060736,0.689043,0.722171
0.249341,-0.818552,0.568335,0.841004,-0.331553,-0.427534
-0.688094,-0.474152,0.635362,-0.018290,0.999623,0.020494
0.206109,-0.183939,0.778343,0.545286,-0.805609,-0.231641
-0.641973,0.078856,0.735617,-0.332762,0.744566,-0.578698
-0.060277,0.778658,-0.991827,-0.012612,0.028493,0.999514
-0.081076,0.718190,-0.988453,0.056680,0.095269,0.993837
-0.039383,0.529075,-0.984032,0.095557,0.093810,0.990994
-0.492409,-0.091677,0.620019,-0.211392,0.958508,0.191247
-0.235630,-0.559006,0.685780,0.897741,-0.420743,-0.130526
-0.007017,0.242805,0.876272,0.991545,0.119905,-0.049604
-0.177380,0.461807,0.695437,0.775945,0.354604,-0.521695
-0.055008,-0.333810,0.590091,-0.527154,-0.813331,-0.246174
-0.027212,0.366036,0.487653,-0.022721,-0.532618,0.846051
0.216092,0.097915,0.513001,-0.117478,0.095811,0.988443
0.653492,0.056722,0.590789,0.656978,0.751826,0.056019
0.235490,0.263986,0.051917,0.801087,-0.112317,-0.587916
-0.747929,-0.273515,0.299139,0.725206,-0.351721,0.591920
-0.192119,0.347238,-0.972297,0.005865,0.087949,0.996108
-0.037143,0.686787,-0.990271,0.088113,0.087639,0.992248
-0.312578,-0.500185,0.538610,-0.340609,0.573895,0.744735
-0.100616,0.137202,0.080594,0.250321,0.963416,0.095751
0.245051,0.120005,0.966770,0.987992,-0.122331,-0.094381
0.158309,0.447599,0.456300,0.577569,-0.815649,-0.033633
0.139653,0.156693,0.345835,-0.208188,-0.956161,0.205948
0.160546,0.157256,0.680312,0.967704,-0.111608,-0.226036
0.093389,0.438460,0.312053,-0.236180,-0.682636,0.691539
0.249856,-0.133000,0.791751,0.138064,-0.987950,0.069952
-0.114840,-0.297599,0.781892,0.887753,-0.460272,0.006618
-0.240759,-0.612024,0.575897,0.989862,0.044511,0.134881
0.591747,0.007558,0.541053,-0.304602,-0.187299,0.933883
-0.318174,0.126632,0.574123,0.812703,-0.222266,0.538620
-0.293877,0.075607,0.758449,-0.205053,0.975460,0.080193
-0.218932,0.501483,0.470130,-0.125121,-0.057396,0.990480
-0.485272,-0.088601,0.907044,-0.692209,-0.711120,-0.123104
0.535271,-0.256925,0.732927,-0.673428,0.363014,0.643984
0.377452,0.021246,0.730542,-0.854277,0.202912,0.478578
-0.324892,0.442445,0.749346,0.499638,0.630061,-0.594462
0.469512,0.456609,0.637383,-0.225191,-0.938808,0.260630
0.206157,-0.648626,0.366951,0.836523,-0.547816,0.011236
-0.250832,0.307647,0.482244,0.010475,0.341732,0.939739
-0.815225,-0.132264,0.713862,-0.027056,0.286196,0.957789
-0.438451,-0.256925,0.606815,0.460484,-0.886153,-0.051831
0.182185,0.207372,0.055494,-0.679046,0.506821,0.531064
0.315145,0.257055,0.225714,-0.659437,0.514005,0.548582
0.277697,0.089121,0.078457,-0.114529,0.459397,0.880817
-0.446891,-0.260044,0.766913,0.840838,0.033056,-0.540277
-0.150751,0.405627,0.876142,-0.015506,0.991546,0.128829
-0.096512,-0.400559,0.071273,-0.283300,0.194762,0.939047
-0.014107,0.227471,0.539454,0.156987,-0.987600,0.000707
-0.146926,0.585213,0.800332,0.310396,0.881608,-0.355559
0.166797,0.672016,0.772410,0.306444,-0.819142,0.484870
-0.232877,0.153878,0.266942,0.584645,-0.806298,-0.089856
-0.206061,-0.593096,0.570895,-0.771720,0.360078,0.524206
0.321348,0.118402,0.600518,-0.504638,-0.271163,0.819641
-0.125614,0.507981,0.740736,0.171417,0.918903,-0.355294
-0.064193,0.139280,-0.431898,0.073983,0.975758,0.205966
-0.356231,0.480389,0.852321,-0.036963,-0.748332,0.662294
-0.374978,0.340134,0.712480,0.703699,-0.444943,0.553925
-0.019797,0.550387,0.868230,-0.174214,-0.208289,0.962427
-0.142124,0.136465,0.054214,-0.273856,0.953711,0.124250
-0.973741,-0.219891,0.554971,0.954628,-0.292737,0.054688
0.101599,0.449115,0.890742,-0.537594,0.826341,0.167789
-0.076319,0.752063,0.755119,0.697204,0.665653,-0.266105
-0.396338,-0.016568,0.547205,-0.669075,-0.584764,-0.458683
0.662820,0.044507,0.607993,0.795664,0.602802,0.059560
-0.072496,0.561562,0.874571,-0.167575,-0.083718,0.982298
-0.161243,0.765837,-0.989471,0.080708,0.078837,0.993615
0.353109,0.017868,0.742671,0.727791,-0.638335,-0.250696
0.130980,-0.231196,0.799444,-0.080264,0.993243,0.083826
-0.113722,0.175795,-0.249258,-0.114129,0.986740,-0.115406
0.080751,-0.220021,0.790835,-0.572565,0.819559,-0.022190
-0.246170,0.551946,0.392226,0.197210,-0.534083,0.822109
-0.445818,0.214606,0.879007,0.828695,-0.404673,0.386658
-0.219772,0.143135,0.251076,0.565517,-0.822873,-0.055421
-0.589831,-0.375350,0.534757,-0.687079,0.726125,-0.025775
-0.772648,-0.037706,0.690012,0.950112,-0.292060,0.109494
0.004734,0.249128,-0.967221,0.147623,0.099540,0.984022
-0.103602,0.783727,-0.991362,-0.066108,0.025218,-0.997494
0.314867,0.453707,0.152972,0.886373,0.198824,-0.418106
-0.045540,0.163667,-0.423419,0.136618,0.990144,-0.030824
-0.009302,0.538345,0.742351,0.139304,0.894213,-0.425415
-0.092923,0.885301,-0.996248,0.012997,0.058517,0.998202
-0.271913,0.138501,0.931796,0.289431,0.935321,0.203479
0.255031,-0.674832,0.486883,0.795808,-0.605114,0.022962
0.518528,-0.089122,0.866573,-0.551863,-0.226931,0.802465
-0.682686,-0.157170,0.791548,-0.669822,0.623878,-0.402636
0.229103,0.299850,0.803720,0.609947,0.784108,-0.114629
0.409913,-0.346545,0.697836,0.599424,0.780823,-0.176088
-0.318968,0.289498,0.791635,0.840940,0.539070,0.047161
-0.222385,0.709268,0.747441,0.865146,-0.362267,-0.346822
-0.021243,0.235614,0.565470,0.149425,0.988128,-0.035712
-0.112976,0.304009,0.947749,-0.776299,0.611107,0.154623
-0.435326,0.116584,0.816386,0.443832,0.885973,0.134408
-0.425392,0.246356,0.683061,0.076843,-0.972069,0.221759
-0.570712,-0.339874,0.598729,-0.498751,0.852800,-0.154855
0.004500,0.123124,0.807705,0.915344,0.367580,0.164408
0.506447,0.211011,0.513583,0.800229,0.291032,-0.524341
-0.061816,-0.091201,0.973678,-0.431829,-0.581154,0.689771
-0.078699,-0.143526,0.853019,0.970603,-0.226090,-0.082544
-0.134569,0.174453,-0.432712,0.056285,-0.998232,0.019077
-0.079724,0.045719,0.959368,0.147051,-0.126362,0.981024
-0.514702,0.103762,0.819746,-0.153848,0.955413,-0.252027
-0.809068,0.103805,0.306876,0.700445,0.272122,-0.659792
0.361876,-0.198883,0.227110,0.847862,-0.306512,0.432644
-0.103415,0.183592,-0.310293,0.607247,-0.738019,0.294242
-0.176728,-0.279276,0.352728,-0.104860,0.233582,0.966666
-0.952524,-0.244147,0.352597,0.748175,-0.645243,0.154579
0.992118,0.204297,0.634780,-0.742613,0.500586,-0.444904
0.331422,0.233751,0.844003,0.935734,0.304681,-0.177682
-0.197060,0.856409,0.752719,0.187618,0.939766,0.285725
-0.599999,-0.183982,0.347871,0.248001,0.964828,-0.087190
-0.652186,-0.370758,0.161640,-0.365508,-0.928180,-0.069895
0.058179,0.696229,0.704278,0.894959,0.386030,0.223671
-0.577241,-0.422953,0.574632,-0.317502,0.698188,0.641659
-0.941796,-0.255236,0.252298,-0.564900,-0.814843,0.130072
-0.800862,-0.337752,0.264208,-0.465115,-0.881697,0.079237
-0.175982,0.145518,0.805320,0.061749,0.983486,0.170123
0.086023,-0.549217,0.429585,0.013577,-0.749084,0.662336
-0.692477,-0.260650,0.789570,0.379217,0.658823,0.649728
-0.282733,0.043294,0.706343,0.016668,-0.993664,0.111147
-0.041994,0.172850,-0.155023,0.016992,0.999168,-0.037065
-0.095160,0.353345,-0.976790,0.109001,0.271766,0.956170
0.290524,0.193728,0.778678,-0.772892,0.541727,0.330410
-0.271259,0.239209,-0.961026,0.177309,0.276633,0.944476
0.282081,0.160115,0.897519,-0.070941,-0.915651,0.395664
0.145297,-0.176358,0.300681,-0.783626,0.323614,0.530287
-0.141190,-0.128539,-0.946367,0.186170,0.071634,0.979903
-0.553502,0.010721,0.717759,0.624462,0.322679,0.711285
-0.738974,-0.174843,0.718123,0.059140,0.598281,0.799101
-0.108686,0.196413,-0.780845,0.766943,-0.639158,-0.057232
-0.334544,-0.448899,0.666395,0.601325,0.579551,0.550025
0.166330,-0.544799,0.756093,0.868467,-0.437627,-0.232912
-0.088724,0.212873,-0.605942,-0.420340,0.907128,0.020803
-0.448431,0.107704,0.886496,-0.558175,-0.338478,0.757544
0.188108,-0.485760,0.727648,-0.636975,-0.581379,-0.506222
-0.385146,0.115934,0.817026,0.951830,0.304189,0.038578
-0.195429,0.869101,-0.994416,0.161375,0.180886,0.970175
-0.054120,0.183072,-0.435606,0.113966,0.972996,0.200724
-0.108125,0.178568,-0.256675,0.006245,-0.998529,0.053858
-0.477997,-0.101423,0.895599,0.740221,0.662008,0.117555
0.243839,0.040651,0.948927,0.981332,-0.127264,0.144191
-0.508312,0.059710,0.895541,0.639285,0.679335,0.360304
-0.797691,0.099517,0.311980,0.700445,0.272122,-0.659792
-0.185589,0.019947,0.872070,0.221188,0.872893,-0.434896
-0.051695,0.169081,0.144858,-0.430684,0.900789,-0.055590
0.053983,0.683365,0.442979,0.198413,-0.578617,0.791097
-0.163344,0.613757,-0.984032,0.039711,0.016897,0.999068
0.110366,0.308817,0.624935,0.490052,-0.778562,-0.392034
-0.054865,0.183679,0.599456,0.912655,0.054793,0.405042
0.010706,-0.632772,0.477779,-0.075953,0.920739,-0.382716
0.029125,-0.008295,0.805829,-0.385594,0.907391,-0.167210
0.176776,-0.431010,0.212306,-0.128980,0.989880,0.059172
-0.006552,-0.140883,0.793017,0.593791,0.421578,0.685336
-0.093902,-0.615273,0.170118,0.087121,0.339100,0.936707
-0.184843,0.780955,-0.990097,0.030050,0.061323,0.997666
-0.450577,-0.127499,0.909386,-0.620013,-0.495029,0.608712
-0.255262,0.104108,0.399439,0.968629,0.200025,-0.147473
0.437287,-0.120525,0.541548,0.392852,0.191832,0.899371
-0.494415,-0.122994,0.689896,0.933067,-0.054943,0.355482
-0.749654,0.016092,0.424495,-0.686018,-0.066451,0.724544
-0.441061,0.581487,0.777660,-0.416508,0.822411,-0.387506
-0.333192,-0.259351,0.620717,0.555717,0.831354,0.005389
-0.028983,-0.218072,0.062358,0.916357,-0.249785,-0.312885
-0.304790,0.777143,-0.987973,0.097884,0.149429,0.983916
-0.208768,0.165096,0.169362,0.963814,0.103425,0.245694
-0.021801,0.198623,0.474972,0.776184,-0.531725,-0.338832
-0.146880,-0.120915,0.550724,0.184465,0.723284,0.665457
-0.268788,0.801356,0.794762,0.013029,-0.988740,0.149076
-0.262258,0.134559,0.360625,0.992987,0.062883,0.100108
-0.102623,0.125463,-0.586441,-0.552840,0.824051,0.123723
0.147256,0.958634,0.545852,0.554201,0.673995,-0.488458
-0.372974,-0.015312,0.346388,-0.895464,0.437403,-0.082596
0.014016,0.433652,0.854342,-0.801295,0.382494,0.460028
-0.420541,0.055378,0.943706,0.990612,0.094861,0.098438
-0.282311,0.559959,0.786516,-0.213680,0.731947,-0.646989
-0.402122,-0.032811,0.377421,0.707520,0.335597,0.621924
-0.615062,-0.347974,0.072712,-0.072631,-0.991548,-0.107507
-0.072121,0.082841,0.670133,0.572868,0.660101,-0.485891
-0.352172,0.008988,0.516346,-0.632886,-0.682727,-0.365157
-0.185356,-0.629568,0.160564,0.663280,0.150775,-0.733026
-0.346997,0.352002,0.888823,0.697014,0.715280,0.050464
0.034397,-0.035281,0.902056,0.808011,-0.572913,-0.137435
0.214925,0.401728,0.832994,0.961304,0.175137,-0.212652
-0.144688,0.162498,-0.926851,-0.708082,0.705735,-0.023600
0.272847,0.382020,0.381610,0.837684,-0.524055,0.153791
-0.378710,-0.373400,0.145585,0.230468,0.911868,0.339679
0.252233,-0.720097,0.535062,0.912186,-0.395346,-0.107789
0.165163,-0.641566,0.693648,0.758372,-0.564448,0.325991
-0.167867,0.145258,0.038494,-0.242044,0.967906,0.067625
-0.537320,0.409872,0.478710,0.071500,0.154249,0.985441
-0.493342,-0.397267,0.636510,0.863010,-0.061470,0.501434
0.357492,-0.351829,0.390248,0.966500,-0.254896,-0.030084
-0.111484,-0.274208,0.586281,0.568820,0.724875,0.388587
0.019564,0.152405,0.411887,0.912517,0.408978,-0.006990
0.081406,0.209062,0.155430,-0.067208,-0.904278,0.421622
-0.135827,0.112468,-0.884605,0.825568,-0.563722,0.025599
0.313981,0.201481,0.818873,0.924835,0.222954,-0.308176
0.067555,0.166483,0.306788,0.133764,0.989196,-0.059989
0.442277,-0.064908,0.850067,0.835278,0.473423,0.279608
0.024181,-0.100730,1.000000,-0.583094,0.772295,0.252116
0.429126,-0.182596,0.382249,-0.713502,0.570148,0.407244
0.006786,0.719057,0.712829,-0.263725,0.872324,-0.411703
-0.338370,0.150023,0.919551,-0.649852,0.474245,-0.593957
-0.002681,0.421177,0.742452,0.809134,0.326762,-0.488393
-0.884200,-0.212354,0.574908,0.931340,0.209540,0.297822
0.252933,-0.606480,0.492423,0.949845,0.309766,-0.042881
0.424694,-0.128755,0.821811,0.361684,-0.220445,-0.905864
0.623878,0.092630,0.440012,0.054854,-0.986614,-0.153569
-0.233577,0.434648,-0.970784,-0.112057,-0.099258,-0.988732
-0.628540,-0.400515,0.323178,0.555930,0.613277,0.561099
-0.227235,0.435904,0.802862,0.259718,0.933393,-0.247636
0.342896,-0.369459,0.445742,-0.329425,0.729197,0.599792
-0.615156,-0.314881,0.540065,0.300098,0.856034,0.420889
0.128415,-0.669547,0.518745,0.375401,-0.666698,-0.643885
0.150706,0.095099,0.662541,0.954225,-0.290546,-0.070975
0.302089,-0.456263,0.517975,0.795527,-0.565684,-0.217114
-0.172902,-0.003487,-0.955951,0.218618,0.178035,0.959432
0.605131,0.103069,0.572785,0.601303,0.776152,-0.189797
-0.151591,0.152145,0.063769,-0.138334,0.989939,0.029744
-0.308709,0.715938,0.492743,0.413658,-0.835100,0.362622
0.146883,-0.063262,0.877974,0.343943,-0.889343,-0.301284
0.045495,-0.759860,0.551931,0.477281,0.828293,0.293486
0.023389,0.442185,0.424059,0.945547,0.281905,-0.162696
-0.099592,0.232019,-0.966567,-0.214048,-0.330861,-0.919083
0.157048,0.627488,0.722995,-0.447913,-0.890765,0.076892
0.007441,0.109176,0.413879,0.879511,0.472606,-0.055719
0.507287,0.020033,0.523704,0.032841,0.030708,0.998989
0.278210,-0.238517,0.699087,0.160188,0.874351,0.458094
-0.278116,0.308643,0.482404,-0.225785,-0.420945,-0.878536
0.376148,-0.164230,0.500843,0.967553,-0.174397,0.182828
-0.485600,0.331601,0.854720,0.188894,-0.948181,0.255484
0.255637,-0.405107,0.183410,-0.819065,0.538818,-0.196998
-0.215901,0.043554,0.384853,0.979100,0.150492,0.136808
-0.309968,-0.124510,0.481008,-0.903707,0.270336,-0.332013
-0.378895,0.333290,0.699799,0.367825,-0.841983,0.394675
-0.851788,-0.014792,0.152580,-0.843886,0.380652,0.378101
-0.575656,-0.062353,0.787360,-0.312996,0.682325,0.660656
0.291127,0.640872,0.536894,-0.380852,-0.309916,-0.871151
0.450859,-0.315618,0.487581,0.933524,-0.306740,0.185587
-0.722559,0.222749,0.516215,0.818928,-0.148316,-0.554399
0.132520,0.973708,0.502545,-0.323291,0.425643,-0.845170
0.302507,0.165313,0.913239,-0.354135,0.925790,0.132289
-0.021474,0.347107,0.908804,-0.235017,0.690167,0.684424
-0.427538,-0.388994,0.702533,-0.276093,0.880089,0.386285
-0.258899,0.540944,-0.980935,0.257707,0.189042,0.947550
-0.217908,0.807593,-0.988919,0.013643,0.072624,0.997266
-0.065406,0.962749,0.371939,-0.433719,0.762410,-0.480228
-0.216322,0.141446,0.888663,0.706016,-0.394625,0.588058
0.191979,0.936500,0.547190,0.211870,-0.492964,0.843859
0.188575,0.720789,0.675353,0.864282,0.247859,0.437701
-0.318735,0.144002,0.908499,0.802428,-0.209824,0.558644
0.195150,0.638187,0.733102,0.122362,0.990055,-0.069418
-0.281053,0.594092,-0.980586,0.161608,0.211903,0.963836
-0.406223,0.056505,0.825374,-0.547293,-0.669373,-0.502404
0.240574,0.124034,0.947676,0.754042,-0.630320,0.184710
0.323167,0.408442,0.791548,-0.737200,0.672194,0.068498
-0.346949,0.143872,0.903481,0.362138,0.788697,-0.496804
0.115216,-0.460810,0.297816,0.131053,-0.990777,-0.034431
-0.170010,0.229030,-0.963906,0.129091,0.187444,0.973756
-0.381835,-0.017045,0.956227,0.909231,0.118360,-0.399111
0.236845,-0.286553,0.380912,-0.420856,-0.117466,0.899490
-0.211051,0.156434,0.188383,0.289241,0.940673,0.177412
0.278070,0.825136,0.555189,-0.429157,0.725776,0.537655
-0.046380,0.170771,0.028372,0.070884,-0.997100,0.027698
-0.772505,-0.158729,0.353150,-0.008117,-0.921659,0.387916
-0.492036,-0.084530,0.624702,-0.301915,0.941013,0.152782
-0.379455,0.050657,0.908208,0.704118,-0.679742,0.205351
0.175982,-0.419747,0.815179,-0.839212,0.530734,-0.118512
-0.293131,0.132523,0.482244,-0.148466,-0.981828,0.118205
0.205691,0.062049,0.503650,-0.221815,0.122225,0.967398
0.037474,-0.327096,0.571854,0.569638,0.774746,-0.274375
-0.250366,0.140190,0.450163,0.975492,0.114563,0.187859
0.209841,-0.236697,0.797598,-0.503398,0.778894,0.374053
-0.282360,0.102679,0.276555,0.700112,-0.712510,-0.046603
-0.940116,-0.308730,0.606451,-0.517735,0.465145,0.718046
-0.172529,0.144608,0.186682,0.859301,-0.510637,0.029195
0.419519,0.499924,0.484192,0.772970,0.604214,-0.193502
-0.199112,0.813918,-0.991696,0.070562,0.103327,0.992141
0.205039,-0.240899,0.331540,-0.251388,0.827590,0.501895
-0.072542,0.366383,-0.973794,0.122533,0.328394,0.936559
-0.703206,-0.103372,0.262027,0.996197,-0.058488,-0.064581
-0.089145,-0.633682,0.318757,-0.239544,-0.016473,-0.970746
-0.377124,0.059104,0.970028,0.992790,0.106171,0.055643
0.158636,-0.125679,0.273253,0.837253,0.386871,-0.386443
-0.282266,0.233189,0.828282,0.903988,-0.415389,0.101283
0.221454,-0.835965,0.550244,0.851743,-0.341383,-0.397481
0.364255,-0.301194,0.470261,-0.079316,0.773624,0.628661
-0.537041,0.008815,0.576028,0.387069,0.500263,0.774541
-0.396990,0.272605,0.640844,-0.535870,0.836479,-0.114655
-0.530278,-0.352695,0.074079,-0.029512,0.989240,0.143292
-0.450156,-0.259654,0.687555,-0.055588,0.980162,0.190243
0.148841,0.497542,0.808039,0.218075,-0.827621,0.517192
-0.215295,-0.353952,0.704162,0.243700,-0.969563,-0.023618
-0.501921,-0.181816,0.828093,0.456384,-0.844552,0.280082
0.141660,-1.000000,0.738730,0.522705,0.360900,0.772354
-0.014525,0.298811,0.935373,0.922204,0.368989,0.115706
-0.690379,-0.225262,0.185562,0.187951,-0.685872,0.703032
-0.838076,-0.304659,0.205645,-0.159299,0.982601,-0.095495
0.024275,-0.232842,0.426589,-0.506617,-0.831663,-0.227326
0.109386,0.196803,0.006457,-0.827664,0.196145,0.525832
0.265059,-0.509540,0.317332,0.543941,0.578909,-0.607448
0.258296,-0.394322,0.163559,0.956201,0.263219,0.128045
-0.108686,0.869231,-0.995375,0.022376,0.139907,0.989912
-0.319902,-0.106318,0.886350,-0.270880,-0.346024,0.898271
-0.092501,0.096095,0.132206,-0.584656,-0.736629,-0.339935
-0.331279,-0.354168,0.768062,0.437493,-0.569453,0.695933
-0.074082,-0.353562,0.606727,-0.409990,-0.743721,-0.528003
-0.309082,0.100427,0.619903,0.198291,0.977673,0.069539
-0.312393,-0.073874,0.567972,-0.104485,-0.290732,0.951083
-0.739535,-0.047365,0.450570,0.546978,0.395084,0.738054
0.010284,0.482988,0.849267,0.678351,0.632492,0.373889
-0.129670,0.151842,-0.802178,0.858903,-0.511886,0.016057
0.033602,0.471726,0.861788,0.402750,0.763396,0.504994
0.484808,-0.252940,0.764993,0.498151,0.238166,0.833740
-0.097773,0.189873,-0.130315,0.663516,-0.742501,0.091867
-0.239874,0.147424,0.404514,0.823037,0.515565,-0.238331
-0.051649,0.266325,0.916119,0.323615,0.477486,-0.816872
-0.339582,-0.427804,0.664127,0.352830,-0.046653,0.934524
-0.319808,0.024712,0.320967,-0.794077,0.605038,0.058054
0.193331,-0.787842,0.515371,0.979848,0.180844,-0.084817
-0.409115,0.312629,0.494837,0.185862,0.099547,0.977520
0.232459,-0.375350,0.117416,0.984846,0.067870,0.159601
-0.015832,0.121608,0.563827,0.135854,0.842528,0.521239
-0.046147,-0.115587,0.341705,-0.295897,0.892181,0.341260
-0.053047,0.667078,0.815645,0.258140,0.913954,-0.313134
-0.298215,0.079332,0.912469,0.023888,0.983932,0.176940
-0.429217,0.353692,0.875967,-0.455429,0.666462,-0.590265
-0.030150,0.357807,0.329707,-0.231929,0.873222,-0.428594
0.132286,0.516817,0.878396,0.964359,0.144379,0.221734
0.024508,0.184285,0.963397,0.954657,0.292566,-0.055100
-0.635628,0.150499,0.817259,0.926737,-0.153593,0.342881
-0.176728,0.144348,0.812489,0.966270,0.224506,-0.126171
0.038265,-0.146211,0.999913,-0.422761,0.906240,0.001501
-0.307215,0.656509,-0.982665,0.105263,0.153081,0.982591
-0.052907,-0.295173,0.443270,0.860603,-0.344892,-0.374715
0.120394,0.906136,0.503723,-0.202840,0.420284,-0.884430
0.113676,-0.581790,0.671165,0.875083,0.070662,0.478787
-0.132750,0.190436,0.908673,0.736391,0.607611,0.297553
-0.206715,0.073441,0.910520,0.470112,0.754164,-0.458510
-0.383793,0.143656,0.780830,0.790733,0.593783,0.148875
-0.498844,0.184112,0.913443,0.326360,-0.944876,-0.026423
-0.361548,0.259654,0.652522,0.212250,-0.956390,-0.200669
-0.440737,-0.414030,0.811747,0.155861,-0.976672,-0.147712
-0.947113,-0.251727,0.576363,-0.235881,0.945533,0.224337
-0.126733,0.272649,0.946760,0.902395,-0.350168,-0.251128
-0.622523,0.006996,0.607702,-0.800557,0.014009,-0.599093
-0.248362,0.569315,0.715083,0.907557,0.416591,0.052836
-0.272565,0.214043,-0.960110,-0.144772,-0.194996,-0.970061
-0.243324,-0.502263,0.203057,-0.493506,0.180554,-0.850795
0.022689,0.180560,0.469533,0.962525,0.265203,0.056688
-0.082894,0.209884,-0.568757,0.994037,0.000508,0.109045
-0.265802,0.739415,0.757271,0.796508,0.553281,-0.243833
-0.898518,-0.246876,0.583765,0.573985,-0.734096,-0.362828
-0.809908,-0.080675,0.649977,-0.429023,0.900934,-0.065252
-0.587688,-0.176792,0.432377,0.464411,0.462985,0.754961
-0.027491,-0.029606,0.233989,0.131970,0.890145,0.436148
-0.722653,0.040868,0.838506,0.752122,-0.632443,-0.185279
0.151873,-0.559830,0.759365,-0.395413,0.879628,0.264391
0.254658,0.104542,0.932668,0.890862,0.183321,-0.415642
0.103372,-0.325147,0.440143,-0.541051,-0.799255,-0.261640
0.005901,0.022026,0.698083,0.338174,0.928795,0.151583
-0.566095,0.037879,0.582325,-0.450781,-0.416222,-0.789655
-0.121882,0.167739,-0.060410,-0.163504,-0.980015,-0.113299
-0.194774,0.770949,0.795300,0.904114,-0.367800,0.217488
0.133450,-0.461980,0.881929,0.794927,-0.499234,0.344756
-0.528971,-0.065471,0.713789,0.839648,0.012036,0.542997
0.171226,0.744309,0.475961,0.141924,-0.698357,0.701538
0.399884,-0.386352,0.834972,0.900542,0.095865,-0.424068
-0.123143,0.184892,-0.161233,-0.564114,0.824544,0.043624
0.318316,-0.006433,0.517916,-0.086208,0.487867,0.868651
0.069092,-0.606350,0.172081,0.057380,0.187705,0.980548
-0.618746,0.173067,0.785556,0.979361,0.186745,-0.077314
-0.527058,0.243107,0.705006,-0.708179,0.194753,-0.678641
-0.237076,0.854721,-0.990925,-0.069462,-0.101654,-0.992392
-0.446939,0.211357,0.955951,0.438191,0.867474,0.235536
-0.159285,0.570702,-0.984599,0.070961,0.073823,0.994743
0.434255,-0.318433,0.884751,0.043487,-0.310256,0.949658
-0.104348,0.190652,-0.468341,-0.223747,0.974626,-0.006435
-0.021661,0.206290,0.166293,0.552097,-0.826413,0.110596
-0.180551,-0.286466,0.358647,-0.104860,0.233582,0.966666
-0.276621,0.337751,0.740795,0.813700,0.149287,-0.561788
0.283761,0.065515,0.811907,0.488335,-0.334909,-0.805832
-0.385146,0.011240,0.932159,-0.702732,-0.265066,-0.660233
0.253261,-0.201395,0.935184,0.244706,0.943570,-0.223147
