-0.043620,0.053115,0.163797,0.854716,-0.280800,0.436591
-0.520631,0.428872,0.262738,0.955324,-0.157778,-0.249923
0.305948,-0.687211,0.041569,0.789571,-0.046134,-0.611923
-0.328080,0.827055,0.728648,-0.594313,0.708343,-0.380845
-0.122407,-0.843324,0.205945,0.290859,-0.536739,0.792030
-0.318053,0.623422,0.107517,0.036491,-0.975187,-0.218355
0.311123,0.136098,0.753322,-0.649855,0.581602,0.489313
0.209325,0.177358,-0.974035,-0.107588,0.255939,0.960687
0.360474,0.243662,0.652272,0.877379,-0.151367,-0.455295
0.003004,-0.094427,-0.251911,-0.846689,0.308672,-0.433404
0.338709,-0.505902,0.044893,-0.163712,-0.203500,0.965291
-0.376554,0.476958,0.476993,0.210610,0.767964,-0.604875
-0.552653,0.603458,0.300613,0.739080,-0.650891,0.173499
-0.030728,0.111978,0.473783,0.998261,0.039759,-0.043529
0.116308,0.036590,0.032984,0.681663,0.718333,0.139044
0.121390,0.446628,0.507004,-0.057948,-0.883101,0.465591
-0.589991,0.182284,0.257876,-0.582603,0.185508,0.791303
-0.361535,0.063276,0.718467,-0.013405,0.348358,0.937266
0.064924,0.042287,-0.978764,0.235315,-0.007331,-0.971891
-0.062519,0.638509,0.811254,0.656990,0.750888,0.067308
-0.076521,0.380427,0.815870,0.366985,-0.153131,-0.917536
-0.053971,0.096993,0.516843,0.636517,-0.753353,0.165242
0.427800,0.460022,0.489453,-0.315287,0.134208,-0.939459
-0.330483,-0.153136,0.526321,0.953681,0.242813,0.177576
-0.396376,-0.358411,0.391880,0.796887,0.012505,0.603999
-0.365140,0.778251,0.722855,0.397447,-0.857783,0.325952
0.293471,-0.174741,0.768802,0.081444,0.995339,0.051643
-0.111593,0.062352,0.870345,0.946638,0.262482,-0.187030
-0.210203,0.777533,0.673584,0.926834,-0.023970,0.374705
-0.026893,0.529354,0.834218,0.716459,-0.640003,-0.277637
-0.275588,0.717643,0.674211,-0.678855,0.529681,-0.508521
0.433622,-0.231602,0.069358,0.129510,0.325906,0.936489
0.319163,0.951863,0.760236,0.477196,0.843398,-0.246908
-0.158356,0.152776,0.516159,0.758031,0.634035,0.152934
0.156509,-0.230781,0.219203,-0.765579,-0.245059,-0.594841
-0.229518,0.017500,0.793665,0.891746,0.319110,0.320870
-0.069359,0.380940,0.218861,-0.542185,-0.001215,0.840258
0.138858,-0.048651,0.944252,0.977159,-0.160457,0.139333
0.153274,0.657446,0.779230,-0.352439,0.747774,-0.562691
0.288804,0.317151,0.773342,0.627352,0.749866,0.210073
0.140197,0.647080,0.869604,-0.386436,0.364213,-0.847358
0.256596,0.282818,0.638349,0.282312,0.612210,-0.738579
-0.441477,-0.216874,0.173351,-0.014782,-0.019570,0.999699
0.331778,0.347070,0.663270,0.810407,0.236961,-0.535808
0.057114,0.527147,0.837523,0.590292,0.096535,-0.801396
-0.445219,0.050292,0.390740,-0.623417,-0.451034,-0.638686
-0.087149,-0.015858,0.747376,0.587137,0.322101,0.742644
-0.316250,-0.478498,0.766238,0.291761,0.698781,-0.653131
-0.081605,-0.399672,0.880925,-0.071602,-0.997396,0.008607
0.367266,0.796212,0.762781,0.815774,0.434404,-0.381845
0.202717,0.178590,0.450116,0.974966,0.213022,0.063744
-0.221801,0.197475,0.423885,0.294414,0.736551,-0.608944
-0.306271,-0.236683,0.607123,-0.538064,0.747216,0.390070
-0.360287,0.757518,0.729313,0.297739,-0.901082,0.315281
0.107065,-0.409628,0.503794,0.919055,-0.152364,0.363487
0.070562,0.125269,-0.223040,0.167589,-0.983985,0.060719
0.049258,0.667146,0.767985,-0.697907,-0.525460,0.486639
-0.380203,0.492456,0.838910,0.533684,0.620021,-0.575113
-0.432143,0.262085,0.133710,0.127324,-0.437130,0.890340
-0.548588,-0.166068,0.477183,-0.573885,-0.818889,-0.008771
-0.424841,-0.757570,0.509321,-0.322290,0.939285,-0.117779
-0.078508,-0.769168,0.223344,0.001345,-0.974469,0.224518
-0.039646,0.113620,0.450287,0.640973,-0.748270,0.171015
0.097039,0.680591,0.795071,-0.029206,-0.497279,0.867099
0.199066,-0.445654,0.525694,0.631369,0.771334,-0.080111
-0.164595,-0.218054,0.884420,-0.126411,-0.097751,0.987150
-0.004251,-0.760700,0.562809,-0.668849,-0.346869,-0.657513
0.235572,0.167299,0.865255,-0.487873,0.782175,-0.387533
-0.524467,-0.114288,0.674647,-0.677219,0.007087,-0.735748
-0.243195,0.246587,0.127651,0.332680,0.928321,-0.165964
0.599696,-0.339218,0.072321,0.907812,-0.324115,-0.266132
0.433206,-0.577440,0.127328,-0.620721,0.353036,0.700050
0.090200,-0.417787,0.508296,-0.791322,-0.001554,-0.611398
0.260848,0.308683,0.641388,-0.273006,-0.637261,0.720671
0.192598,0.591399,0.636773,-0.954471,0.284347,-0.090178
-0.466660,0.292312,0.747186,0.878998,-0.415248,0.234374
-0.395313,-0.570410,0.636412,0.741157,-0.477125,-0.472269
0.032070,0.098429,0.044988,-0.461731,-0.827244,-0.320112
-0.164826,0.625269,0.692844,-0.591048,-0.720440,0.362808
0.215518,0.351278,0.625870,0.211405,0.943030,-0.256910
0.334735,0.414400,0.819574,0.708560,-0.181784,-0.681834
-0.086918,-0.224982,0.888219,-0.089699,0.930035,0.356356
0.068573,-0.139947,0.155648,-0.597038,0.705758,-0.381381
0.067373,0.134661,-0.373987,0.814724,-0.574069,-0.081668
-0.138994,-0.393719,-0.194340,0.229907,0.114871,0.966409
-0.199943,0.856050,0.685493,0.760316,0.119242,-0.638514
0.192874,-0.213692,0.433022,0.810197,0.577281,-0.101627
-0.279099,-0.608848,0.620229,-0.040442,-0.983004,0.179071
-0.052353,0.918351,0.701353,0.254210,0.910684,0.325624
-0.392033,-0.280407,0.601501,0.765546,-0.643328,-0.008333
-0.645764,-0.063687,0.249233,-0.677541,0.272524,0.683132
-0.605748,-0.631069,0.527461,-0.270169,0.430140,0.861387
-0.399102,0.685620,0.673052,-0.419925,0.834945,0.355712
-0.511297,-0.628965,0.608263,0.529025,0.846640,0.057739
-0.171341,0.179770,0.828748,0.605561,0.770603,-0.198663
-0.696225,0.635841,0.141688,0.383309,0.032779,0.923038
-0.017051,-0.443139,-0.030172,-0.477387,0.857406,0.192240
-0.510512,0.020014,0.272767,0.395345,0.159156,-0.904639
-0.349937,-0.000718,0.189553,0.051953,0.986423,-0.155792
0.287094,0.312891,0.454770,-0.098268,-0.741304,0.663936
-0.017743,0.638099,0.423277,-0.383197,0.292739,-0.876050
0.050691,0.138202,-0.074980,-0.687267,-0.698727,-0.198605
-0.679219,0.259366,0.197892,0.698169,-0.171839,-0.695005
0.364309,0.089141,-0.968527,0.075853,0.225153,0.971366
-0.201423,0.947655,0.707982,-0.664199,0.406438,-0.627414
-0.040986,0.105512,0.291286,0.658505,0.750873,0.050611
-0.115198,0.135020,0.810228,-0.618936,0.758302,-0.204687
0.083454,0.081392,-0.432357,0.948255,0.155994,0.276547
0.028881,0.145899,0.102085,-0.709675,0.698572,-0.091424
-0.050043,0.065175,0.596505,0.330488,-0.931202,0.153758
0.345871,-0.344093,0.098039,0.919188,0.218944,-0.327348
0.265515,0.563379,0.571813,-0.442019,0.807501,-0.390591
-0.018622,0.151750,0.486756,0.980873,0.147298,-0.127248
0.358440,-0.159704,-0.953692,0.139239,0.030790,0.989780
-0.075551,-0.480653,0.519483,-0.715426,-0.229904,-0.659781
0.051015,-0.687519,0.550539,-0.375605,0.615541,0.692842
-0.509219,0.454480,-0.096139,-0.157344,0.238863,0.958221
0.100273,0.155804,-0.980835,-0.233951,0.290587,0.927807
-0.033085,0.616545,0.868750,-0.742183,0.300581,0.599012
0.331315,0.470030,0.835567,-0.517419,0.240935,-0.821114
0.298970,0.234681,0.686443,-0.470978,0.815477,0.336417
-0.260107,0.335985,0.787853,-0.132072,-0.891821,0.432680
0.041635,0.129067,0.845140,0.413220,-0.583233,-0.699348
0.252946,0.256697,0.624939,0.714361,0.466689,-0.521431
-0.563606,0.447860,0.126359,0.223044,0.876339,0.426945
0.233169,0.039156,-0.952989,0.377393,-0.132670,0.916501
-0.239684,0.707123,0.108049,0.600218,0.751633,0.273469
-0.022596,0.077953,0.082103,0.974021,-0.094832,0.205645
-0.175731,0.236939,0.467952,0.504938,-0.862146,0.041731
-0.318099,-0.336190,0.750719,0.333429,-0.097600,0.937709
-0.364770,0.335010,0.130861,-0.394805,-0.605018,0.691435
0.221755,0.439854,0.635766,0.963300,0.171031,0.206884
0.039094,0.072257,0.847115,0.492967,0.868864,0.045373
0.153274,0.493944,0.823524,0.896010,-0.075795,0.437516
-0.239822,-0.833471,0.367738,0.841052,0.261652,0.473467
0.165843,0.445089,0.521288,0.099523,-0.941418,0.322223
0.067743,0.251514,0.689862,-0.615961,-0.761681,0.201081
0.176518,-0.424818,0.566437,0.606427,0.744153,-0.280147
0.360011,0.867494,0.661731,0.987955,-0.128336,-0.086457
0.154429,0.942728,0.683651,0.782933,-0.192871,0.591453
-0.332748,0.630196,0.654684,0.197128,-0.447663,0.872203
-0.028141,0.103715,0.363408,-0.653665,-0.753326,0.072263
-0.238113,-0.202094,0.654495,0.879563,0.072362,-0.470248
0.133311,0.714359,0.800199,-0.290387,0.343230,0.893235
-0.404140,-0.448579,0.549133,-0.609802,0.787590,0.088570
-0.264960,0.012316,0.864647,0.121515,0.944059,-0.306573
0.254101,0.939905,0.797540,0.161471,0.925604,-0.342322
0.213161,-0.120292,-0.952685,0.069549,0.694837,0.715797
-0.293609,0.251308,0.076195,-0.021136,-0.984316,0.175142
-0.317452,-0.082675,0.895911,-0.655365,-0.545469,-0.522456
-0.043389,0.719901,0.824208,-0.443081,0.703452,-0.555729
0.249019,0.091861,0.426525,0.879963,0.440918,-0.176794
0.184511,0.803654,0.813647,0.074595,-0.735141,0.673798
0.073379,0.131325,-0.172363,-0.136600,0.990205,-0.028876
-0.034424,0.099713,0.396818,0.164495,0.986336,-0.009051
0.007995,0.123319,0.028938,0.607161,0.751818,0.257147
0.012430,0.570768,0.831255,0.364306,-0.630981,-0.684941
0.186544,0.346659,0.668113,0.984398,0.149244,-0.093200
-0.448130,0.510777,-0.093613,-0.107641,0.239359,0.964946
-0.359871,-0.032639,0.443164,0.215948,0.110252,0.970160
-0.032299,-0.543262,0.674590,-0.353579,-0.614719,0.705055
-0.038491,0.604126,0.856289,0.974275,-0.194492,-0.113850
-0.035349,0.419480,0.848483,0.966931,0.009602,0.254856
0.005499,0.079698,0.605071,0.553884,0.726612,-0.406507
-0.084562,0.125782,0.819042,-0.394342,-0.871506,-0.291498
0.124533,-0.355897,0.554414,0.433119,0.856861,-0.279636
0.049166,-0.659191,0.532361,0.219241,-0.500917,-0.837267
-0.187930,0.398491,0.479842,0.361126,0.077309,0.929307
-0.328450,0.304680,-0.084971,0.295886,0.101556,0.949810
-0.321935,0.748435,0.079671,0.592294,0.141058,-0.793278
0.318978,0.802935,0.724906,-0.569687,-0.720853,0.394751
-0.194445,0.641691,0.659832,0.907076,0.286148,0.308758
0.309181,0.062045,0.715561,0.874113,-0.384814,-0.296387
-0.420775,-0.653752,0.657913,-0.494952,0.860119,-0.123361
-0.005960,0.106179,0.825671,-0.211859,0.971546,-0.105893
-0.418003,0.306322,0.868275,-0.515099,0.686009,-0.513872
-0.485005,-0.110028,0.639869,-0.593567,0.536305,-0.600046
0.404094,-0.305912,0.590997,-0.515558,-0.220836,0.827908
-0.211126,-0.527097,0.591662,-0.588103,-0.417120,-0.692925
0.456217,-0.230011,0.574529,-0.544705,0.030606,0.838069
-0.114597,0.526737,0.474809,-0.432535,0.058377,0.899725
-0.385378,0.401365,0.817313,0.610699,0.047644,-0.790428
-0.158356,0.044493,0.735353,-0.791663,0.288959,-0.538305
-0.220645,0.021656,0.167045,0.128540,-0.962907,0.237252
-0.121991,0.099404,0.903984,0.989148,0.104051,-0.103731
-0.264128,0.677614,0.661010,-0.077107,-0.818867,0.568780
0.423594,-0.299600,0.400902,0.049261,-0.828812,0.557354
0.155354,-0.197116,0.769752,0.429045,0.510016,-0.745523
0.415324,-0.203275,0.568849,-0.218606,-0.384436,0.896895
-0.045747,0.137637,0.487421,0.998905,0.033561,0.032591
-0.455662,-0.756030,0.553692,0.973758,-0.106516,0.201119
0.068944,0.114492,-0.005271,0.911261,0.287628,0.294743
-0.378632,-0.263574,0.609915,0.765510,-0.626138,-0.148138
0.433344,0.464693,0.483869,-0.315287,0.134208,-0.939459
0.149115,-0.127374,0.779724,0.518290,0.574756,-0.633270
-0.365509,-0.103511,0.464096,0.494006,0.485176,-0.721500
-0.499006,0.214359,0.864343,0.849194,0.468218,0.244218
-0.514439,-0.043108,0.700176,0.823878,0.121243,-0.553648
-0.221939,-0.067382,0.342780,0.435755,-0.895354,-0.091977
-0.058685,0.483834,0.924004,0.676245,0.624730,0.390391
0.115106,-0.094478,0.934679,0.930490,0.241228,-0.275676
0.103276,-0.195679,0.891866,-0.197971,0.975974,-0.091004
-0.315142,0.697680,0.582354,0.768863,0.235059,-0.594641
-0.176470,-0.349636,0.294439,0.707021,0.184051,0.682822
-0.357377,-0.276096,0.611928,-0.828445,0.536478,0.160841
-0.493831,0.574669,0.067097,0.452107,0.342699,0.823503
-0.065107,-0.638459,0.298371,-0.508599,-0.318876,-0.799778
-0.735732,0.184235,0.146702,0.930472,-0.364942,-0.032227
-0.141397,0.153033,0.869585,0.789477,0.613441,0.020407
-0.032947,0.103664,0.474125,0.998261,0.039759,-0.043529
-0.057900,-0.096069,0.730225,-0.765439,-0.572486,-0.293877
-0.385795,0.618854,0.335733,-0.366933,-0.311609,0.876505
-0.249525,-0.178282,0.805423,-0.597722,0.468568,-0.650517
0.006609,-0.331007,0.863583,-0.434072,0.742972,0.509484
0.090616,0.631325,0.777254,-0.319223,-0.720140,0.616032
-0.340834,-0.013087,0.872890,-0.389477,-0.443954,-0.806977
-0.489441,-0.378272,0.427551,-0.711170,0.052360,-0.701067
0.156740,0.096017,-0.976295,-0.214994,0.284461,0.934269
-0.433529,0.834342,0.578707,0.066022,-0.782122,0.619618
-0.077306,-0.436365,0.612764,0.853148,-0.411473,0.320669
-0.469247,-0.400390,0.629574,-0.661379,0.736032,-0.144342
0.059471,-0.004157,-0.977302,0.227035,-0.216285,-0.949566
-0.517674,-0.132865,0.681030,0.646465,-0.277646,-0.710631
0.105679,0.692394,0.805765,0.134092,0.928847,-0.345344
-0.023751,0.597301,0.807303,0.850687,-0.155203,0.502238
-0.178919,-0.329827,0.767928,0.803791,-0.427370,0.413855
-0.095051,0.267577,0.986172,0.001689,-0.192247,0.981345
0.223281,-0.118034,0.759514,0.856355,0.506545,-0.100336
0.047918,0.570153,0.732504,-0.349780,-0.389783,0.851894
0.139828,-0.096736,0.521573,0.839607,-0.430343,0.331458
-0.299062,0.297906,0.112247,-0.382498,-0.892439,0.239265
-0.078646,0.763060,0.697194,-0.814606,0.567720,0.118789
0.209417,0.069691,0.650468,0.812045,-0.281244,-0.511356
0.123470,-0.032793,0.704411,0.041008,-0.978110,-0.204005
-0.684995,0.533716,0.183076,-0.612458,-0.350969,0.708319
-0.316713,0.037257,-0.158611,0.518525,0.450299,-0.726886
0.038446,-0.614492,0.518040,-0.243519,0.488693,0.837782
0.108683,0.133378,0.874828,-0.282680,0.596887,-0.750878
-0.298368,-0.584163,0.436270,-0.441016,-0.683795,0.581317
0.246061,0.113825,-0.969039,0.110992,0.227190,0.967505
-0.311353,-0.124859,0.459765,0.455954,0.816958,0.353109
-0.119541,-0.791543,0.256698,-0.570870,0.812098,0.120853
-0.224527,-0.306990,0.840524,-0.336090,0.212506,0.917543
0.225729,-0.095556,-0.949532,-0.042156,0.661891,0.748414
-0.444988,-0.615929,0.451180,0.752978,-0.655051,-0.062706
-0.061596,0.572308,0.789145,0.322961,0.194514,-0.926208
-0.022087,-0.250334,-0.249746,0.286860,0.279399,0.916323
0.119218,-0.312430,0.679434,-0.217526,0.970617,0.102885
-0.321981,0.540747,0.596657,0.793662,-0.511802,-0.328876
-0.337692,0.303654,0.123263,0.199456,-0.206222,0.957961
0.394067,0.743713,0.756285,0.792510,0.542229,-0.279135
-0.343144,-0.071385,0.931602,-0.599519,0.725570,0.337823
0.270829,-0.202864,0.121193,0.726717,0.624175,-0.286858
-0.368097,-0.546957,0.667430,0.694828,-0.707016,-0.131691
0.326371,-0.276352,0.083451,0.739137,0.549715,-0.389217
-0.810776,0.435235,0.134413,0.080876,-0.136685,0.987308
-0.215840,0.301396,0.579904,-0.238353,-0.571162,0.785469
0.273278,-0.132044,-0.955553,0.359537,0.378677,0.852840
-0.136453,0.092066,0.838321,-0.246154,-0.951943,-0.182244
0.034518,-0.540952,0.726369,-0.240398,0.077576,0.967570
-0.540178,0.399877,0.245624,0.872388,0.082432,-0.481813
-0.060902,0.456276,0.845672,-0.649020,-0.289160,0.703675
0.027448,0.066714,0.053099,0.029474,0.940349,0.338932
0.156555,0.121523,0.859822,-0.553309,0.810758,-0.191103
-0.662954,0.460792,0.160378,0.937184,0.346806,0.037566
-0.408852,-0.013548,0.280745,0.013130,0.949533,0.313392
-0.053278,-0.283383,0.825481,0.360691,0.048689,-0.931413
-0.184787,0.131171,0.218557,0.129975,-0.176821,0.975623
-0.079109,0.280150,0.443715,0.041176,-0.903021,0.427618
-0.177580,0.233603,0.563246,0.357104,-0.411263,0.838653
0.392219,0.046290,-0.965392,0.130437,0.137359,0.981896
0.130910,-0.253310,0.489833,-0.798244,0.239624,-0.552618
-0.208816,-0.328236,0.556503,0.579120,-0.313538,-0.752538
-0.281178,-0.042185,0.842557,0.889323,0.119673,0.441342
0.402800,-0.170943,0.559409,-0.468413,-0.146467,0.871284
-0.508478,0.547419,0.303557,0.869459,0.415531,-0.267160
-0.341573,-0.373705,0.650430,0.417698,-0.908548,-0.008326
0.121759,-0.108232,0.386182,0.304282,0.647140,0.699016
-0.383253,0.364723,0.788955,0.990064,-0.088969,0.108897
-0.459867,-0.935698,0.525030,0.863818,0.362203,0.350183
-0.011044,0.009442,0.922200,-0.166628,-0.947532,0.272798
0.126843,-0.472801,0.775868,0.455664,0.628561,-0.630302
0.287834,-0.360002,0.482179,0.992209,0.118123,-0.039600
-0.944411,0.394488,0.176542,0.660733,0.744227,-0.097766
-0.230441,0.284050,0.979125,-0.343395,0.903012,0.258164
0.352802,-0.287694,0.071485,-0.659688,0.564490,0.496148
0.456911,-0.320897,0.595118,0.905016,0.019135,0.424946
-0.322998,-0.255774,0.794102,-0.554597,0.588229,0.588564
-0.159880,0.497280,0.817446,0.394888,0.833360,0.386748
-0.404509,-0.006672,0.179961,0.039416,0.986983,0.155921
0.590500,-0.665350,0.148735,0.153668,0.899222,0.409617
-0.910171,0.390691,0.132684,0.297548,0.654655,0.694904
-0.409824,0.447962,0.356228,-0.649513,-0.119688,-0.750872
-0.076844,0.163040,-0.003827,0.334317,0.882835,0.329901
-0.283536,0.120445,0.918572,0.116342,-0.091879,0.988950
-0.381544,-0.301345,0.798129,0.634598,-0.770490,0.060252
0.057853,0.250436,0.863545,0.621927,0.604485,0.497801
0.253131,-0.817202,0.101667,0.686886,-0.530996,-0.496217
0.325123,-0.152725,-0.953787,-0.142748,0.046232,-0.988679
-0.200499,-0.176332,0.780483,0.932065,-0.349067,0.096988
0.226516,0.816792,0.707337,0.274787,-0.164468,0.947334
-0.064414,0.377553,0.820466,-0.474358,0.314907,0.822081
0.203456,0.669557,0.777387,0.089255,-0.418517,0.903812
0.078925,0.465821,0.774177,0.709578,0.674386,0.204212
-0.204749,0.491378,0.658749,0.203019,-0.580026,0.788894
0.171943,0.200605,0.585716,0.981887,0.005705,0.189382
-0.460006,0.290362,0.836289,0.614166,-0.782748,0.100529
-0.355436,0.397516,0.656717,0.985521,0.167977,0.023072
-0.057945,0.067997,0.458493,0.950934,-0.308567,0.022606
-0.116676,-0.274197,0.101572,0.298030,0.420691,0.856853
-0.166350,-0.339269,0.574738,0.741019,-0.300233,-0.600626
-0.085069,0.638304,0.206933,0.833425,-0.316962,-0.452700
0.396932,-0.283897,0.403675,0.087695,0.995358,0.039639
-0.389168,0.366673,0.809355,0.982388,-0.043320,-0.181764
0.207800,0.312122,0.681162,-0.597297,-0.799969,-0.057322
-0.660135,-0.584882,0.531222,0.173254,-0.239556,-0.955299
0.337369,-0.277327,0.464324,0.781697,0.470620,-0.409226
-0.237835,0.436518,0.823847,0.200289,-0.761171,0.616850
-0.090476,0.438520,0.619678,0.070704,0.327537,-0.942189
0.393559,0.726008,0.734004,0.938066,0.209449,-0.275979
-0.455616,-0.486452,0.536597,0.992739,-0.080938,-0.088982
0.157203,0.591040,0.811805,-0.377611,0.181231,0.908056
0.135807,-0.406805,-0.066565,-0.106820,0.949484,0.295074
-0.035857,0.582726,0.621672,-0.472512,-0.626715,-0.619646
-0.248555,-0.721800,0.452301,0.949433,-0.268980,0.161948
0.041542,0.465360,0.565260,-0.378030,-0.409192,0.830455
0.056929,0.399209,0.195536,-0.611825,-0.430903,-0.663320
0.047549,0.100020,-0.315200,0.909509,-0.414001,-0.037377
-0.128690,0.143180,0.926017,-0.513902,-0.757773,-0.402099
0.273232,0.332546,0.876100,-0.146805,-0.447434,0.882185
-0.270227,0.059324,0.925030,0.984581,0.166952,-0.052220
0.163302,-0.026378,0.006638,0.850370,0.488037,-0.196698
0.304099,0.113055,0.699549,0.933152,-0.124659,-0.337175
-0.552008,-0.607821,0.678655,0.065098,0.977478,0.200746
0.110439,0.620086,0.871371,0.916542,-0.199822,0.346442
0.383485,0.600277,0.821359,0.836979,-0.500345,-0.221635
-0.187699,-0.277020,0.108600,-0.496616,-0.367982,-0.786106
0.252853,0.250333,0.725818,0.894011,0.423124,0.147347
0.426413,-0.492148,0.104136,-0.343725,0.399537,0.849837
0.184050,0.920302,0.669690,0.913946,-0.286854,0.287084
-0.193752,-0.381299,0.945126,-0.700301,-0.572193,-0.426818
0.063213,-0.096018,0.771860,-0.122598,0.762649,0.635088
0.326002,0.679103,0.802555,-0.532518,-0.498843,0.683798
-0.386488,0.277635,0.827057,0.924247,0.171573,-0.341072
-0.390647,0.279329,0.377292,0.450214,-0.097430,-0.887589
0.503489,-0.638100,0.161176,-0.142016,0.597066,0.789522
-0.331038,0.222981,0.387986,0.436721,0.245502,-0.865450
0.047780,0.593862,0.732827,0.828081,0.334963,-0.449535
0.287834,-0.249616,0.041322,0.195309,0.471681,0.859867
-0.353772,0.060146,0.711838,0.146087,0.083505,0.985741
0.298323,0.134712,0.572382,-0.382051,-0.763304,0.520965
-0.305577,0.044391,0.458569,0.931145,-0.177741,-0.318399
-0.551267,0.264138,0.711249,0.202733,-0.977706,0.054682
-0.373688,-0.342965,0.790664,-0.279466,0.959262,-0.041410
-0.228363,0.120753,0.024018,-0.397669,0.379352,-0.835435
-0.160158,0.543313,0.900660,0.762274,-0.616921,0.195825
-0.555704,-0.180130,0.712446,0.151730,0.795424,-0.586753
-0.004713,0.498614,0.216829,-0.306472,-0.316686,0.897655
0.153643,0.132351,0.876879,0.611952,-0.483644,0.625782
0.313433,0.233655,0.879994,0.832742,-0.343400,-0.434301
0.082715,0.080365,-0.097716,0.817845,0.575264,0.014187
0.216857,0.499230,0.816914,-0.763070,-0.071896,-0.642305
0.019870,-0.346916,0.768631,0.909710,-0.036037,-0.413677
0.426505,-0.220723,0.066091,0.135805,0.321443,0.937140
-0.331916,-0.750796,0.462197,0.709710,0.618364,-0.337546
-0.282334,-0.739608,0.394330,0.986405,0.041742,-0.158940
-0.360796,0.810889,0.745420,-0.346519,0.922179,-0.171784
0.099672,0.057118,-0.049223,0.724245,0.689517,-0.005987
0.143570,0.923381,0.687545,-0.526571,0.515941,-0.675669
0.132757,0.529919,0.719930,0.086632,0.968118,-0.235038
0.374013,-0.530997,0.455378,0.788222,0.580928,0.203050
-0.338062,-0.591964,0.720196,-0.282958,0.946527,-0.154989
0.311677,0.446474,0.832433,0.847313,-0.476829,0.233867
0.065431,0.102894,-0.486338,-0.121248,-0.985076,0.122162
-0.068943,-0.410602,0.684581,0.493092,-0.150568,0.856849
-0.465458,0.590116,0.329921,-0.068392,-0.203707,0.976640
0.098379,0.238325,-0.990218,0.075674,-0.055909,-0.995564
-0.231366,-0.294109,0.698884,0.906320,0.347624,-0.240296
-0.706344,0.470132,0.121801,0.037198,-0.423109,0.905315
0.355020,-0.434055,0.070193,-0.539681,-0.077644,0.838282
0.119218,0.099764,-0.618975,-0.687582,-0.725745,0.022913
-0.312508,-0.154726,0.776286,-0.614037,0.397442,0.681908
-0.169585,0.735605,0.595650,-0.538898,0.791345,-0.288724
0.444342,-0.428770,0.077240,-0.135768,0.833152,0.536120
0.023197,-0.687006,0.532779,-0.356914,0.480825,0.800887
-0.043805,0.095094,0.829299,-0.450873,-0.190720,0.871974
0.131695,0.249102,-0.986856,-0.144796,0.188641,0.971313
-0.365371,-0.384533,0.702968,0.950860,0.200238,-0.236158
0.039879,0.272606,0.904231,0.422121,0.521426,0.741572
-0.344485,0.387047,0.325362,0.772239,0.457470,0.440872
-0.102952,-0.606128,0.568792,-0.578242,-0.570698,-0.583044
-0.296058,-0.012625,0.914944,0.981563,0.132227,0.138024
-0.175593,0.574309,0.669177,0.680138,0.586832,-0.439365
-0.277667,0.497228,0.863697,0.779937,-0.604666,-0.161482
-0.360796,-0.495638,0.396382,0.889537,0.103946,0.444882
0.311077,0.041004,-0.965297,0.070338,0.226762,0.971407
-0.137608,-0.473314,0.293148,0.396645,0.293969,0.869629
0.410009,-0.443139,0.544157,0.843871,0.138619,-0.518331
-0.338339,-0.816689,0.438682,-0.551042,-0.755251,0.354892
0.026894,0.131684,-0.844437,-0.225558,-0.967347,0.115600
0.037152,0.076209,0.706786,0.633045,0.592793,-0.497846
-0.685365,0.497228,0.134299,0.484463,0.871364,-0.077587
-0.248186,-0.058812,0.382972,0.828009,-0.558142,0.053660
-0.021626,0.424869,0.194796,-0.509786,0.455332,0.729926
0.007117,0.101303,-0.413989,0.027883,0.989254,0.143522
0.498592,-0.614236,0.153084,-0.408959,0.589510,0.696584
-0.279422,0.299959,0.880431,0.772103,-0.470922,0.426719
0.157063,0.447039,0.839859,0.473233,0.870396,-0.135874
0.078879,0.127989,-0.163683,-0.356222,0.933690,-0.036439
0.145511,-0.002412,-0.959751,0.513510,-0.290892,-0.807273
-0.182108,0.125885,0.967140,0.476053,0.836891,0.270161
0.369345,0.766088,0.725039,-0.483483,0.044928,0.874200
0.056144,0.128451,0.883508,-0.215628,0.466981,-0.857574
-0.120235,-0.032998,0.236735,0.813659,0.021298,0.580952
0.182294,0.623935,0.695275,0.687618,-0.042307,0.724839
-0.247354,0.009956,0.486528,-0.599989,0.601997,0.526890
-0.094312,0.668685,0.801111,0.770278,0.302798,-0.561235
-0.212837,0.778713,0.743369,0.213740,0.932394,-0.291475
0.169955,0.922560,0.673964,0.863947,-0.404679,0.299719
0.046163,0.320897,0.227694,0.469195,0.178296,0.864909
-0.107989,-0.164170,-0.245434,-0.592315,0.796368,-0.122315
0.353127,-0.024633,0.508752,-0.173620,0.982781,0.063228
-0.788272,0.439495,0.119996,-0.669771,-0.378619,0.638792
-0.160343,-0.315406,0.558384,0.682967,-0.278585,-0.675239
-0.184186,0.210305,0.024512,-0.402396,0.120485,-0.907503
-0.607781,-0.607770,0.545373,0.055564,0.762791,0.644253
-0.022042,-0.214411,0.162866,-0.626415,0.207111,-0.751471
-0.000553,0.159550,0.892303,0.204768,-0.932339,0.298018
-0.056282,0.664220,0.422746,0.296542,0.305481,0.904845
0.018346,0.291696,0.646992,0.850447,0.508040,-0.136515
0.018622,0.148158,-0.005480,-0.362231,-0.931958,0.015588
-0.055265,-0.572924,0.507118,0.883852,-0.358783,0.300133
-0.127673,-0.559581,0.581177,-0.195433,-0.965956,-0.169516
-0.075320,0.122755,0.699663,0.916140,-0.384392,0.113713
0.148699,0.585753,0.766922,-0.709577,0.424761,-0.562209
0.260986,0.791183,0.692825,-0.393773,-0.875392,-0.280415
-0.035165,0.294827,0.107479,0.251338,0.576139,-0.777749
0.335567,0.450888,0.499748,-0.301959,0.045822,-0.952219
-0.172033,-0.344555,0.900527,0.709620,0.625355,0.324608
-0.291715,0.162065,0.803428,-0.063240,0.523025,0.849968
0.028187,-0.248692,0.914830,0.772851,-0.195148,0.603837
-0.410563,0.378015,0.712313,0.893455,0.053554,0.445949
-0.219167,0.735246,0.700214,-0.658539,-0.261484,0.705658
-0.071623,-0.101303,0.553920,0.825784,-0.241666,-0.509587
-0.491243,0.522734,-0.094354,-0.107641,0.239359,0.964946
-0.180768,-0.204557,0.853174,0.763234,-0.347651,0.544622
0.327388,-0.353998,0.058189,0.798066,0.181017,-0.574738
0.065247,-0.196757,0.797065,-0.544716,0.486345,0.683194
-0.586802,-0.882172,0.576656,-0.168830,-0.835591,-0.522766
0.222495,-0.146413,0.471124,0.797225,-0.394381,-0.457051
0.509312,0.578158,0.489776,-0.498363,0.217417,0.839264
0.154891,-0.010623,0.860867,0.732875,0.678647,-0.048298
-0.183632,-0.288617,0.887212,0.980712,-0.113265,-0.159299
0.009381,-0.644925,0.295047,0.292871,0.527565,0.797434
0.274295,0.138458,-0.970065,-0.010092,-0.227437,-0.973740
-0.003465,-0.498922,0.724089,-0.100171,-0.118879,0.987843
0.148561,-0.707226,-0.003181,-0.674285,0.066166,0.735501
-0.058176,0.235913,0.951470,-0.217757,0.881339,-0.419314
0.196479,0.272862,0.456897,0.866849,-0.268714,0.419958
-0.190009,0.747357,0.742039,0.431021,0.709202,-0.557901
-0.101150,0.770142,0.659357,-0.907425,0.417051,-0.051472
-0.562450,-0.570718,0.605603,0.971586,0.221884,0.082392
-0.251327,-0.480653,0.682093,0.826898,-0.358078,-0.433612
0.160899,0.103869,-0.746047,0.988799,0.146652,0.027755
-0.082620,0.250949,0.814160,0.664437,0.028382,0.746805
0.208355,0.381710,0.634266,0.594901,0.058925,-0.801636
0.106696,0.162835,-0.628035,-0.480223,-0.870974,0.103872
-0.019639,0.146002,0.143245,-0.563159,0.815119,-0.135766
-0.066540,-0.506774,0.493727,-0.319177,0.386639,-0.865238
0.023336,0.253207,0.634551,0.672025,0.629605,-0.389846
-0.025876,0.126142,0.239793,-0.371794,-0.922817,-0.100885
-0.255857,-0.867341,0.404131,0.971590,0.221967,0.082122
-0.439120,0.326952,0.707166,-0.723075,0.496919,-0.479827
-0.046855,-0.512881,0.741982,0.678510,-0.674219,-0.291639
0.322907,0.277789,0.681637,0.541293,-0.817091,-0.198405
0.326741,-0.500616,0.462558,-0.685876,-0.676551,-0.268052
0.192690,0.207072,-0.980246,-0.217285,0.324236,0.920683
0.136455,0.632659,0.684999,-0.410332,0.232799,-0.881721
0.262603,-0.293185,0.500755,0.996406,0.050154,-0.068263
-0.254055,0.514575,0.633582,0.535983,0.811640,-0.232299
-0.436255,-0.309402,0.823239,0.199466,0.404154,0.892677
-0.439397,-0.465873,-0.113671,-0.065656,0.764361,0.641437
0.082991,0.090527,0.889207,0.905990,0.046273,-0.420763
-0.668684,0.684184,0.123890,-0.883803,0.324096,-0.337423
-0.269904,-0.326234,0.803675,0.791272,-0.364326,0.491075
0.160391,0.531920,0.743065,0.987381,-0.059219,0.146875
0.058916,0.472236,0.804701,-0.342165,-0.879811,-0.329933
-0.537683,0.464590,-0.091296,-0.048934,0.267393,0.962344
0.157617,0.613261,0.803903,-0.514049,-0.017554,0.857581
-0.319532,-0.029098,0.656128,0.854919,-0.223097,-0.468339
0.118526,0.246330,-0.987692,-0.075458,0.075010,0.994324
0.112703,0.059940,0.029546,-0.516536,-0.854479,0.055278
0.037799,0.050857,0.674913,0.993512,0.113635,-0.004484
0.320733,0.839474,0.743445,0.569255,0.791997,-0.220655
-0.350769,0.774864,0.715295,0.149360,-0.760112,0.632393
-0.657917,-0.418814,0.524194,0.930055,-0.267031,0.252373
0.280902,-0.238993,0.488770,0.862573,0.484179,-0.146760
0.510374,0.381351,0.522617,0.822714,0.108600,-0.557986
-0.360796,-0.298317,0.831084,-0.005334,-0.901037,0.433710
-0.137655,0.018064,0.907840,0.983926,0.077905,0.160686
-0.020285,-0.181618,0.869908,0.512258,-0.748219,-0.421615
-0.521417,-0.789028,0.518838,-0.533475,-0.594369,-0.601772
-0.518368,-0.634815,0.565127,0.215656,0.311522,0.925444
-0.388707,-0.318845,0.779914,0.924261,-0.251221,0.287453
0.186313,0.100893,-0.852794,-0.242875,-0.963361,0.113788
0.428678,0.718977,0.767567,0.855646,0.253899,-0.451006
-0.247678,0.613209,0.494411,0.534797,-0.101405,0.838874
-0.112610,0.058811,0.704089,0.681112,-0.728936,-0.068841
-0.574326,-0.440624,0.500774,0.342099,0.897240,0.279157
0.264406,0.141024,-0.973047,0.070643,0.284110,0.956186
-0.314172,-0.325875,0.442101,0.699447,-0.240098,-0.673147
-0.304006,-0.182285,0.958593,0.886581,0.462559,-0.003764
-0.309366,0.100636,0.925030,0.895963,-0.046299,-0.441709
-0.362783,-0.717285,0.500508,0.780432,0.372139,0.502432
-0.184742,0.072975,0.999715,0.491582,0.867061,0.080943
0.658842,-0.520220,0.032243,0.338117,-0.792562,0.507466
-0.444064,0.587396,0.327698,-0.099810,-0.286056,0.953001
-0.252298,0.844863,0.642224,0.889408,-0.079610,0.450128
-0.486391,0.529149,0.597227,0.595490,0.713612,-0.368985
-0.276465,0.053679,0.231360,-0.617602,0.546938,-0.565179
0.012523,-0.666530,0.288095,0.640741,-0.526606,-0.558692
-0.386211,0.210972,0.664846,0.084554,0.905919,0.414923
-0.268933,-0.811916,0.296396,0.960046,0.128464,0.248614
0.179706,0.901929,0.666746,0.905314,-0.393803,0.159144
-0.395822,0.451196,0.817750,0.952404,0.194475,-0.234748
-0.144031,0.508672,0.599981,-0.120104,-0.722652,0.680697
-0.032577,0.233809,0.593219,0.847637,0.495802,0.188924
-0.036782,0.329775,0.127860,0.233513,0.570506,-0.787397
-0.790629,0.164631,0.193884,0.759777,-0.558822,0.332351
0.251191,-0.290876,0.449395,0.788350,0.269864,-0.552881
-0.189732,-0.169712,0.273527,0.933400,-0.195174,0.301117
0.165150,0.646618,0.804302,0.339874,0.779725,-0.525846
0.077077,0.587499,0.782250,0.787454,0.603956,-0.123095
-0.221430,-0.326286,0.463355,0.263042,-0.377413,0.887901
0.359873,-0.164477,0.587825,0.879638,0.283764,-0.381726
0.020933,0.363543,0.870193,0.212238,-0.975786,-0.052884
-0.111963,0.313610,0.447153,-0.096398,-0.796255,0.597231
-0.435331,-0.401262,0.669500,-0.624051,0.760468,-0.179580
0.096392,0.091039,-0.414673,-0.831673,-0.193526,-0.520449
0.049721,0.291388,0.373608,-0.508470,-0.117230,-0.853062
0.319071,-0.111670,-0.953559,0.220817,0.109036,0.969201
0.437872,0.142256,0.376685,-0.158491,-0.163300,0.973763
-0.588097,0.563789,0.204483,0.638366,-0.345606,-0.687783
-0.312370,-0.565893,0.461266,0.734174,0.385273,0.559064
-0.423917,-0.295853,0.675046,0.342112,-0.285304,0.895300
-0.119726,0.493996,0.152457,0.789101,0.310389,-0.530074
-0.380989,0.045058,0.892986,-0.576412,0.072418,-0.813944
-0.182893,-0.037360,0.303576,-0.059250,0.997132,0.047086
-0.407421,-0.541055,0.660117,0.844521,-0.535201,-0.018568
0.640820,-0.714051,0.025823,-0.552290,0.699328,-0.453780
0.487040,0.080724,0.534356,0.354214,-0.380576,-0.854221
0.285153,-0.165966,-0.951565,-0.392022,0.064465,-0.917694
0.074720,0.139946,0.879349,0.750541,-0.333737,0.570357
-0.197402,0.161808,0.555591,0.743408,-0.309156,0.593099
-0.424148,-0.407318,0.749143,0.851887,-0.181207,0.491377
-0.577884,-0.128503,0.467743,-0.099448,0.824771,0.556653
-0.125733,0.081546,0.857999,0.728720,-0.638242,0.248222
0.209557,0.492507,0.726236,-0.524602,-0.768442,0.366456
-0.158218,0.135379,0.963588,-0.645491,-0.690778,-0.325834
-0.163255,-0.376065,0.918648,0.753354,0.515073,0.408849
0.002635,0.131890,0.183969,-0.535681,0.836272,0.117026
0.055543,0.141281,-0.280726,0.938720,0.329973,0.099610
0.085810,0.082264,0.832908,0.615668,0.778256,-0.123577
-0.460561,-0.456174,0.522371,0.929986,0.090974,-0.356160
-0.677740,0.684543,0.117242,-0.252475,0.559313,0.789573
-0.224111,0.299548,0.848578,0.315536,-0.432078,0.844835
-0.216995,0.511649,0.058531,-0.038204,-0.388373,0.920710
0.148977,0.577697,0.695408,0.996318,-0.019632,-0.083455
-0.349660,0.678230,0.537395,0.731472,0.313239,-0.605665
0.346935,0.788566,0.721620,0.675867,0.718367,0.164779
0.283676,0.448116,0.807797,0.516867,-0.296965,-0.802907
0.245922,-0.079493,-0.955800,0.090096,0.199486,0.975750
0.122084,-0.019142,0.913766,0.987292,0.056117,-0.148678
-0.015988,0.881197,0.681998,0.058573,0.517090,-0.853924
-0.859432,0.383198,0.124878,0.025012,-0.671507,0.740576
0.265284,-0.041055,0.443715,0.967251,-0.242365,-0.075394
-0.444064,0.647028,0.342932,-0.179776,-0.373941,0.909862
-0.385287,-0.719491,0.452890,-0.531934,-0.777717,0.334967
-0.120974,0.043570,0.165411,-0.268181,0.787783,-0.554505
-0.364261,0.307503,0.547500,0.269279,0.851964,-0.449051
0.003143,-0.223135,0.610105,0.102753,0.857101,0.504796
-0.377570,-0.230268,-0.168280,0.275522,0.179861,0.944319
-0.055958,-0.287489,0.827342,-0.249857,-0.146223,0.957178
-0.390462,0.722262,0.700841,0.120701,-0.733912,0.668435
0.132341,0.114954,-0.610333,-0.648847,-0.760406,0.027931
0.312325,0.077081,-0.966874,-0.178913,0.035993,0.983206
-0.202393,-0.405881,0.680384,0.906522,0.157940,-0.391501
0.137472,-0.166992,0.510119,0.890595,-0.224542,0.395502
0.205999,-0.082624,0.737120,-0.515978,-0.710943,-0.477836
0.435654,-0.199323,0.071409,-0.090942,-0.100877,-0.990734
0.126289,0.012932,0.939104,0.999053,0.002201,0.043456
-0.102998,-0.452376,0.535856,-0.680941,-0.128677,-0.720945
0.090200,0.103869,-0.981765,-0.209770,0.181218,0.960810
-0.621875,-0.037052,0.679643,-0.608880,0.217038,0.762994
0.791970,-0.475367,0.038150,0.432978,0.338549,-0.835413
0.368468,-0.460382,0.081799,0.882024,0.313600,-0.351695
-0.227947,0.427076,0.491353,0.343360,-0.138311,0.928964
-0.051661,-0.314790,0.823353,-0.378265,0.207927,0.902043
0.193660,0.018475,-0.953787,0.021387,0.199900,0.979583
-0.120465,-0.111054,0.861893,-0.679487,0.072031,-0.730143
0.427938,0.504567,0.724944,0.866235,-0.499568,-0.008318
-0.269027,-0.641589,0.358374,0.966968,0.070168,0.245051
0.113442,0.888484,0.695161,-0.722001,0.382984,-0.576227
0.044129,0.142513,-0.238444,0.123262,-0.974695,0.186486
-0.064368,0.593657,0.840410,0.999918,-0.003572,0.012264
-0.401783,-0.354409,0.783788,-0.665804,0.705075,-0.244079
-0.282657,-0.093914,0.857505,0.828626,-0.421639,-0.368238
-0.496650,0.670225,0.568792,-0.722020,0.155496,-0.674172
0.090800,0.166478,0.893366,-0.291248,0.936675,0.194458
0.031469,0.350662,0.387910,0.453928,-0.233288,0.859957
0.406636,-0.281946,0.584159,0.645269,0.421922,-0.636875
0.088629,0.199630,0.199278,-0.481940,0.875784,0.027137
-0.229148,-0.716720,0.435282,0.919775,-0.278218,0.276784
0.477428,0.212563,0.381908,-0.083021,-0.267570,0.959955
0.351601,-0.549113,0.462064,0.825051,0.520555,0.219804
0.109330,0.212101,0.654912,-0.532331,0.447242,-0.718748
0.332472,-0.418916,0.059784,0.773385,0.148703,-0.616249
-0.119125,-0.360361,-0.187540,-0.506937,-0.006158,-0.861961
0.021719,0.568459,0.411254,-0.468506,0.337808,-0.816326
-0.553901,0.604434,0.305437,0.739080,-0.650891,0.173499
0.296799,0.378682,0.820048,0.990801,-0.015411,0.134449
0.055681,0.656471,0.810266,-0.500146,0.294770,-0.814226
0.040665,-0.437905,0.719683,0.842409,-0.331158,-0.425067
0.149947,0.040388,0.139275,0.801629,0.492932,0.338244
0.564254,0.118905,0.529341,-0.185742,0.426704,0.885112
-0.436347,0.261264,0.386258,-0.169241,0.241588,0.955507
-0.486391,0.102894,0.432091,-0.520902,-0.395637,-0.756394
-0.021855,-0.741404,0.266423,-0.743669,0.549175,-0.381265
-0.035488,0.109720,0.464685,-0.528165,0.848664,0.028487
0.008780,0.185672,0.587008,0.964748,-0.066327,-0.254680
-0.263480,0.196602,0.921839,0.458653,-0.720867,0.519604
-0.071668,0.030073,0.714782,0.111731,-0.808918,0.577207
-0.047641,0.043877,0.168090,0.643794,-0.557331,0.524321
-0.024999,-0.224059,0.750491,0.856643,0.494859,0.145870
-0.319347,0.506979,0.660022,-0.582591,-0.593263,-0.555541
-0.181645,-0.105922,0.794273,-0.374645,0.919005,0.122764
-0.044036,0.108129,0.379610,-0.277251,-0.953505,-0.118157
-0.597847,0.108745,0.093803,0.260065,-0.964148,-0.052772
-0.240238,-0.044494,0.886186,0.119413,-0.124231,0.985042
-0.230210,0.592835,0.171053,0.038890,-0.897574,0.439145
-0.191303,0.176845,0.908391,-0.276654,0.867772,-0.412838
-0.461023,-0.430822,0.526739,-0.448995,0.818986,0.357302
-0.072778,-0.419840,0.829546,0.835876,-0.368554,-0.406791
-0.486715,-0.792159,0.537775,-0.688963,0.323909,0.648393
-0.173005,0.808375,0.734137,0.585947,0.786660,-0.194508
-0.165472,0.204711,0.016706,-0.418101,0.113529,-0.901278
-0.148144,0.279021,0.819441,-0.692532,0.064205,-0.718524
-0.424380,0.315047,0.810608,-0.160753,0.569461,0.806147
-0.337877,-0.429847,0.629688,0.541235,0.197327,-0.817390
-0.381589,0.782921,0.561062,0.113828,0.617328,-0.778428
0.293517,-0.045674,-0.952799,-0.082776,0.009985,0.996518
0.084562,0.247716,0.852073,0.176428,-0.613627,0.769633
0.286633,-0.299292,0.038834,0.526675,0.325439,0.785304
0.326880,0.353587,0.668759,0.807577,0.237567,-0.539798
0.143662,-0.325260,0.477240,0.866758,-0.082759,0.491814
0.118017,0.511803,0.793608,-0.350290,0.512219,0.784174
-0.126011,0.688340,0.664732,0.129485,0.251887,0.959055
0.400212,-0.168326,0.067496,0.167514,-0.011942,0.985797
-0.045422,-0.108078,-0.249860,-0.621793,0.065924,-0.780402
0.008826,0.859283,0.691457,0.144903,0.801950,-0.579551
-0.023335,0.367905,0.844057,0.214521,0.965246,0.149270
-0.045607,0.133121,0.850287,-0.193367,0.965088,-0.176675
-0.061088,-0.636303,0.280593,0.360673,-0.176722,0.915797
-0.034148,0.122293,0.475227,0.995374,-0.082963,-0.048460
0.499006,-0.272709,0.081096,0.157691,0.607108,0.778815
-0.098747,0.401570,0.194587,0.593793,0.548582,0.588615
-0.354050,0.012265,0.253697,0.036293,0.871173,0.489633
-0.790489,0.286462,0.143986,-0.515040,0.100653,0.851236
-0.581720,-0.203275,0.586229,-0.738228,0.641966,-0.207123
-0.393651,0.361131,0.790892,0.983628,0.071249,-0.165525
0.478860,-0.261162,0.072663,0.103397,0.542080,0.833941
0.156186,0.123730,-0.604483,0.655110,0.753967,0.048628
-0.440044,0.518372,-0.100014,-0.107641,0.239359,0.964946
-0.325308,-0.055066,0.882919,-0.432129,0.291711,-0.853328
-0.741555,0.573232,0.153426,-0.675455,0.228790,0.701010
0.024814,-0.532691,0.512057,0.549498,0.061706,-0.833213
-0.228501,0.330288,0.575137,-0.238968,-0.540682,0.806571
-0.026245,0.121420,0.377064,0.846076,0.522982,0.103180
0.191304,0.175305,-0.979980,-0.183221,0.272669,0.944501
0.190471,-0.088782,0.750017,-0.092746,0.849482,0.519402
0.058593,0.876834,0.711230,-0.327631,0.828593,0.453974
-0.805830,0.634661,0.130234,0.698136,0.246255,-0.672283
-0.021579,-0.355691,0.263574,0.157700,0.238475,0.958259
0.004991,0.126912,0.875873,0.015761,-0.573244,0.819233
0.256273,-0.527302,0.057030,0.235176,-0.164218,0.957980
0.088075,0.216668,0.180208,0.406399,-0.911864,-0.057818
-0.291159,-0.015704,0.889017,0.516305,-0.299335,0.802389
0.162747,0.528636,0.727964,0.994182,0.102541,-0.032988
0.226700,-0.415580,0.508657,0.699116,-0.593200,-0.399187
0.260432,0.246844,0.617893,0.776736,0.456336,-0.434095
-0.381960,0.480704,0.688133,-0.594249,0.220531,-0.773456
-0.337183,0.658370,0.528069,0.935130,0.284674,0.210931
-0.212837,0.555013,0.780388,-0.423328,-0.904741,0.047292
-0.433066,-0.646618,0.555838,-0.494932,0.208039,-0.843660
0.371287,0.078210,-0.967843,0.132016,0.126738,0.983112
0.283536,-0.211331,0.118040,0.723067,0.686351,-0.078079
-0.244906,-0.053936,0.491600,-0.805511,0.248807,0.537817
0.000786,-0.325927,-0.087003,0.210848,0.972320,0.100684
-0.298969,-0.678590,0.397122,0.905890,0.423108,-0.018497
-0.351138,0.693524,0.060639,0.228506,0.045798,-0.972465
-0.086364,-0.200657,0.794083,0.632983,-0.763348,-0.128965
-0.252391,0.150210,0.706539,0.876628,-0.370608,0.306877
-0.258674,-0.363184,0.171585,0.862205,0.283190,0.420007
0.072640,0.391204,0.358849,0.474401,-0.181947,0.861301
0.426275,-0.364262,0.582487,-0.063379,-0.522491,0.850286
0.361767,0.502668,0.744090,0.224753,0.969363,-0.099103
-0.303036,-0.241764,0.865350,0.497464,0.199355,-0.844267
-0.058361,0.513240,0.820694,-0.391034,0.919953,0.027909
-0.463611,-0.668480,0.484914,-0.421175,0.906688,0.022974
0.013816,-0.222724,0.819118,0.466142,0.279139,0.839520
0.068250,-0.494355,0.790626,-0.685438,-0.168200,0.708437
0.351371,-0.415837,0.097412,0.895324,0.321253,-0.308531
0.578485,0.557426,0.556921,0.930135,-0.152461,-0.334072
-0.041542,-0.100842,0.646897,0.956453,0.177741,0.231530
-0.108220,0.584317,0.197379,0.911207,0.104976,-0.398349
0.185574,0.354049,0.837865,-0.480168,0.684870,0.548080
-0.407513,0.723391,0.677003,0.138373,0.745793,-0.651648
0.166675,0.802474,0.658521,-0.609706,0.040539,-0.791590
-0.153043,0.003284,0.687905,0.551071,0.199811,0.810183
0.308304,0.168736,-0.974718,-0.051061,0.238045,0.969911
-0.055450,0.493687,0.827665,-0.585667,0.399146,0.705462
-0.322674,0.436056,0.593333,-0.119889,0.061064,0.990908
-0.338062,0.316637,0.602203,0.830770,-0.555204,0.039613
0.104709,0.114338,-0.982297,-0.153535,0.195135,0.968684
-0.053740,0.096479,0.535097,0.375268,-0.926195,0.036562
-0.335521,-0.050806,0.746579,0.479273,-0.654573,-0.584663
0.053002,0.148824,-0.107270,0.856155,0.510793,0.078033
0.027864,0.756954,0.813875,-0.206551,-0.733886,0.647108
-0.008363,0.508467,0.847172,-0.263096,0.729967,0.630816
-0.027124,0.417274,0.820713,-0.693942,0.711512,-0.110433
0.252114,-0.015345,0.648796,0.844538,-0.463242,-0.268631
-0.383392,0.445909,0.333131,0.949990,0.224444,0.217125
-0.422346,0.253721,0.070174,0.136849,0.748745,0.648578
0.489118,-0.591759,0.089321,-0.515607,-0.715555,-0.471308
-0.363569,-0.130812,0.556503,0.576714,0.674303,-0.461212
0.212975,0.507698,0.789601,-0.241455,0.199191,-0.949749
-0.866873,0.657292,0.106396,0.608836,-0.148073,-0.779354
0.188300,0.360310,0.471979,0.124262,-0.770387,0.625350
0.337785,0.042184,-0.963265,0.097472,0.139785,0.985373
-0.451227,0.664836,0.062900,0.150138,-0.109014,-0.982636
-0.085670,0.053166,0.983114,0.527585,0.761141,0.377251
-0.306500,0.699528,0.129721,-0.057963,-0.988999,0.136092
0.376231,-0.146413,0.075892,0.211647,-0.076381,0.974357
-0.149438,0.555578,0.891106,0.792620,-0.572008,0.211093
-0.360703,-0.147285,0.912759,0.236703,-0.687502,0.686522
-0.358347,0.258493,0.128715,0.134546,-0.311682,0.940613
0.293101,0.504926,0.490574,-0.302312,-0.192401,-0.933589
-0.268656,0.327466,0.775735,0.300254,-0.812900,0.499040
-0.062381,-0.650467,0.576200,0.980863,0.194639,0.004884
-0.147959,0.226008,0.121383,-0.199734,0.372944,-0.906101
-0.494848,-0.662630,0.493480,-0.626272,-0.201173,0.753202
-0.340002,-0.448168,-0.132437,-0.065525,0.796280,0.601369
-0.149992,0.010777,0.884021,0.027537,-0.897193,0.440780
-0.000462,0.422303,0.898172,-0.335046,-0.630984,0.699716
0.002219,0.098070,0.291020,-0.463378,-0.863716,-0.198182
-0.564114,0.437083,0.131526,-0.059223,0.260504,0.963655
-0.376184,0.339936,-0.080830,-0.057559,0.180814,0.981831
0.290375,-0.459305,0.393248,0.949874,0.267575,-0.161686
0.042881,-0.282460,0.805480,0.548667,-0.769226,0.327499
0.242271,0.011854,0.447324,0.995032,-0.041010,-0.090714
-0.002727,0.099302,0.937737,-0.253250,-0.922206,-0.292234
-0.284460,-0.676024,0.375735,0.940475,0.299899,0.159898
-0.001986,0.687878,0.582772,-0.124466,-0.040018,0.991417
-0.359226,0.756902,0.171490,0.403546,0.838979,-0.365056
-0.803843,0.731705,0.130785,-0.200949,0.078721,0.976434
-0.024536,-0.527199,0.277611,-0.395872,-0.205276,-0.895068
0.528349,-0.438264,0.105504,0.031625,0.845054,0.533745
0.013863,0.114441,0.825747,-0.078060,0.872293,0.482712
0.028327,0.049574,0.644864,0.575934,0.779161,0.247405
-0.399102,-0.400750,0.562600,-0.459255,0.749638,0.476579
-0.024906,0.589757,0.621729,-0.612797,-0.600985,-0.513125
-0.240654,0.711383,0.705418,0.597207,0.802081,0.003059
-0.083036,-0.322539,0.855321,0.531511,0.594856,0.603028
-0.193845,-0.362517,0.944746,0.742461,0.541874,0.393858
0.597709,-0.581136,0.066584,0.373180,0.520278,0.768145
0.166766,0.001642,-0.954015,0.368776,-0.231096,-0.900333
-0.269719,0.207687,0.947025,0.154851,-0.805009,0.572697
-0.106696,-0.532075,-0.162600,-0.300908,-0.611722,-0.731608
-0.909939,0.743200,0.106472,-0.644875,-0.057640,0.762111
0.289127,0.731037,0.806240,0.367671,-0.034357,-0.929321
-0.085717,-0.092374,0.089112,-0.059596,0.142369,0.988018
-0.093526,-0.678026,0.649556,0.108737,-0.971141,-0.212275
-0.280855,-0.877348,0.326331,0.809819,0.112008,0.575889
-0.049674,-0.260187,0.865901,0.190562,-0.483630,0.854276
-0.547155,-0.757211,0.579068,0.005070,0.532126,0.846650
-0.424471,0.253105,0.146721,-0.042662,-0.261127,0.964361
-0.426551,0.354716,-0.082065,0.003598,0.511272,0.859411
0.251514,0.088165,0.469111,0.862009,0.494779,0.110154
0.092972,0.042133,0.894943,0.195797,0.876975,0.438838
0.516705,0.009956,0.545942,0.381780,-0.303635,-0.872955
-0.392541,0.232064,0.123187,-0.292486,0.855410,-0.427463
-0.025599,0.416658,0.885921,-0.720791,-0.666690,0.189695
-0.419666,-0.105101,0.617931,-0.034367,-0.971642,0.233947
-0.451273,-0.563174,0.608301,-0.266988,-0.693872,-0.668774
-0.013122,-0.463923,0.266442,0.293973,0.128714,0.947107
0.114782,-0.069384,0.795983,0.017497,-0.895025,0.445672
0.090384,0.360669,0.198234,0.869411,0.481227,-0.112004
-0.214592,-0.181823,0.696073,0.790916,-0.276276,-0.546007
-0.511021,0.110181,0.164386,-0.018443,0.413441,0.910344
0.144356,0.882890,0.682397,0.738016,-0.470535,0.483662
-0.069775,0.146926,0.695617,0.906186,-0.326917,0.268238
-0.262372,0.568767,0.844912,0.566699,-0.823897,0.006795
-0.074627,0.058247,0.644940,0.448338,0.891510,0.064837
-0.192921,0.117366,0.958004,0.819928,0.263924,0.507998
0.291114,0.084009,0.781927,-0.691952,0.249485,-0.677466
0.504413,-0.486811,0.096595,-0.553600,0.114007,-0.824942
-0.214915,0.934414,0.705931,-0.664199,0.406438,-0.627414
-0.339494,-0.279021,0.600988,0.827712,-0.554227,-0.087894
0.112610,0.132710,-0.972363,-0.234571,0.247748,0.939999
0.086364,0.189213,0.198632,-0.481940,0.875784,0.027137
-0.428723,0.034486,0.936407,0.862994,0.026369,0.504526
0.007532,0.053833,0.068446,0.883841,0.247520,0.396936
0.114875,0.287386,0.853687,-0.254425,0.934140,-0.250301
0.477704,-0.355024,0.433439,0.513438,0.569658,0.641772
0.091539,0.538540,0.857049,-0.023067,-0.221274,0.974939
-0.276881,-0.242123,0.710945,-0.526906,-0.387372,-0.756513
0.105218,-0.452376,0.808253,-0.310292,0.259083,0.914656
-0.099394,-0.769373,0.284012,0.499742,-0.253990,-0.828098
-0.426690,-0.550652,0.608319,-0.237097,0.795592,0.557511
-0.180259,-0.132300,0.731687,-0.593984,0.749358,0.292653
-0.283952,-0.329468,0.345173,0.781773,-0.021597,0.623188
-0.480984,0.273786,0.861608,-0.769788,0.615535,-0.168946
0.026294,-0.025608,-0.975098,-0.160251,0.306616,0.938247
-0.022272,0.114184,0.302455,-0.568853,-0.786620,-0.240071
-0.186867,-0.067587,0.878361,-0.289817,-0.041990,-0.956160
0.291808,0.461870,0.713776,0.002201,-0.317336,0.948311
-0.806201,0.303243,0.141099,-0.641927,0.418100,0.642746
0.393374,-0.330545,0.116102,0.240540,-0.073338,-0.967865
-0.221292,0.350251,0.871675,0.738434,0.087410,0.668636
0.258307,-0.027918,-0.956389,0.096719,0.017703,-0.995154
-0.033547,-0.110952,0.597892,0.787956,-0.184161,-0.587546
-0.898387,0.764600,0.101477,0.551982,0.186454,-0.812743
0.327019,0.261726,0.665473,0.822511,-0.567875,-0.031537
0.302851,-0.385662,0.529379,-0.708942,0.235414,0.664817
-0.322582,0.702248,0.189382,0.825443,0.295575,-0.480914
-0.485374,-0.609053,0.627846,0.002164,0.831216,0.555946
0.114782,-0.080571,0.388157,0.228525,0.675736,0.700826
-0.023243,0.107513,0.559827,-0.288371,0.942271,0.170199
0.031976,-0.829416,0.596619,-0.769534,-0.624581,-0.133104
-0.456540,0.302833,0.216088,0.450067,0.837554,0.309746
0.142369,-0.105871,-0.962258,0.235143,0.072269,-0.969270
-0.216441,-0.056964,0.858949,0.364912,0.837941,0.405825
-0.198003,-0.122755,0.547310,0.823521,0.000550,0.567286
-0.451919,0.298214,0.859993,-0.600715,0.695278,-0.394627
0.187977,0.231294,0.413647,0.842548,-0.535049,-0.061938
-0.185943,0.336806,0.851275,0.816411,0.012369,0.577339
0.109746,0.824951,0.670336,-0.208388,0.621972,-0.754801
-0.019915,0.503182,0.630695,0.080244,0.483430,0.871697
0.006008,-0.185826,0.162353,-0.648930,0.288812,-0.703902
-0.149530,0.774094,0.600627,-0.475730,0.012705,-0.879500
-0.359641,0.270194,0.343863,-0.485412,-0.653094,-0.581243
-0.379233,-0.037207,0.732561,-0.120932,0.720515,0.682813
