-0.195012,-0.414587,0.568677,-0.131696,0.528855,0.838433
-0.687460,-0.339460,0.244460,0.610244,-0.111984,0.784258
0.568054,-0.402648,0.406247,-0.008771,0.746155,0.665714
-0.577008,-0.311752,-0.355562,-0.054833,0.488751,0.870698
0.025828,-0.435853,0.633890,-0.042850,0.440731,0.896616
-0.358710,0.122741,-0.178040,-0.043185,-0.061872,0.997149
0.303750,0.320414,0.923597,-0.363565,0.929158,0.066977
-0.336597,-0.525917,-0.193054,0.436879,-0.565341,0.699662
0.202973,0.183931,0.845312,0.488715,0.849499,0.198770
-0.238706,-0.267664,-0.345939,-0.349533,0.423330,0.835834
-0.278390,0.520142,0.458750,0.769423,0.610668,-0.187279
0.485553,0.256337,0.871485,-0.488055,-0.867203,0.098796
0.208048,0.030123,-0.725089,-0.538506,-0.836212,0.103734
-0.480715,0.775397,-0.970943,-0.030729,-0.107944,0.993682
0.521645,0.447847,0.557095,-0.532705,-0.825884,-0.184775
0.107738,0.327410,0.569633,0.918182,0.309945,0.246730
-0.662280,0.661123,-0.886061,0.755683,-0.654731,-0.016474
0.283292,-0.432522,0.538930,-0.094174,-0.476774,0.873967
-0.578542,0.351676,-0.718020,-0.006491,0.406489,0.913633
0.652440,-0.544685,0.354763,-0.555856,0.462064,0.691029
-0.404528,0.307032,0.048898,0.570020,-0.031823,-0.821014
-0.742305,-0.494322,-0.513510,-0.168644,0.440483,0.881779
-0.168593,0.626531,-0.959393,0.247558,0.045658,-0.967797
0.121127,0.361670,0.865342,0.874095,-0.138257,0.465664
-0.443212,-0.362781,0.530561,0.785564,-0.293441,0.544776
0.014685,0.065937,-0.125255,0.999664,-0.025620,-0.003970
-0.319846,-0.089759,0.637808,0.427576,0.735208,0.525973
-0.285942,0.205864,0.476664,-0.586678,-0.729517,0.351588
-0.559559,-0.187984,0.435194,0.328920,0.646787,0.688097
0.058674,-0.560843,0.611290,-0.698842,0.698633,-0.153400
0.138994,-0.053166,0.870341,0.821992,0.566595,0.057436
-0.762115,-0.612260,-0.489844,-0.140225,0.526706,0.838402
-0.325331,-0.119687,0.703492,0.822108,0.434520,-0.367873
0.050245,0.132069,0.037285,0.926041,-0.373559,-0.053860
-0.714469,0.633471,-0.981303,0.093074,0.111081,-0.989443
-0.500115,-0.214414,0.030091,-0.420248,0.431988,-0.797983
0.146897,0.095089,-0.622167,0.507434,0.827489,-0.240359
-0.250677,-0.047058,0.457371,-0.608727,0.056311,-0.791379
-0.413547,-0.432078,0.315738,-0.557029,-0.273688,-0.784101
0.177973,0.012466,0.819735,0.348105,0.277365,0.895484
-0.442794,-0.363669,0.280177,0.869203,-0.482745,-0.106977
-0.844968,0.499320,-0.985237,0.076226,-0.024830,-0.996781
-0.505305,0.834531,-0.970301,-0.112733,-0.011180,0.993562
-0.217946,0.147838,0.533774,0.192074,0.205124,0.959704
0.176670,-0.164941,0.261496,0.265415,0.054362,-0.962601
-0.231572,-0.306755,0.722926,0.075045,0.786256,0.613327
0.858768,-0.200866,0.100006,-0.145246,0.715600,-0.683243
0.020760,-0.377495,0.698696,0.422849,-0.670213,-0.609929
0.108271,0.507260,0.883867,-0.674661,0.152628,0.722175
-0.795494,0.182265,-0.991192,-0.170746,0.167725,0.970935
0.078369,0.146173,-0.908191,-0.033388,0.957882,0.285215
-0.179441,0.230961,0.766480,0.431249,0.506001,-0.746986
-0.052008,-0.112579,0.443986,-0.261292,-0.142837,0.954633
-0.221545,-0.057331,0.726405,0.431496,0.877580,0.208962
-0.215764,-0.468669,0.633749,-0.524149,-0.822293,0.221590
-0.541333,-0.019962,0.545764,0.030719,-0.852399,0.521989
-0.491621,-0.137344,0.563818,-0.110805,0.904064,0.412783
-0.777210,0.504150,-0.983340,-0.114317,-0.057322,0.991789
-0.659624,0.244732,-0.982980,-0.165261,0.293242,0.941646
-0.204621,-0.307032,0.728772,-0.039542,0.854539,0.517880
-0.577721,0.205808,-0.978858,0.109785,-0.086319,0.990200
-0.174251,-0.340626,0.681190,0.506945,0.451076,0.734532
-0.097236,0.274938,0.529464,-0.262375,-0.660604,0.703393
0.335711,-0.608151,0.518979,0.669628,-0.664362,-0.331997
-0.004830,0.216025,0.056797,0.923818,0.361062,-0.127259
-0.317254,0.392376,-0.966712,-0.071690,-0.042792,0.996509
-0.727915,-0.524585,-0.504294,-0.340516,0.490742,0.802010
0.006371,-0.311974,0.397580,-0.296655,0.620281,0.726118
0.149014,0.219745,-0.870576,0.041683,0.993677,0.104255
0.113223,0.453122,0.901796,0.700730,-0.711031,-0.058411
0.083624,0.372664,0.777388,-0.581645,-0.311343,-0.751502
-0.776267,0.479774,-0.985660,0.136595,-0.024928,-0.990313
0.070825,-0.094478,0.807385,0.313963,0.756205,0.574092
-0.107616,-0.645354,0.549823,-0.556868,-0.810480,-0.181713
0.128498,0.161165,0.868508,0.786736,0.349625,0.508733
0.436553,-0.274827,0.349669,0.736662,0.523673,-0.427897
0.389433,0.247175,0.484531,0.403424,0.894902,0.190786
0.762590,0.006691,0.592358,0.471151,-0.765805,-0.437674
-0.274734,-0.142786,0.344262,0.288481,0.744286,-0.602343
-0.827750,0.153336,-0.706736,0.988380,0.013181,0.151428
-0.400166,0.042394,-0.177319,0.058828,-0.205133,0.976964
-0.114044,0.016963,0.829546,-0.665458,-0.744395,-0.055152
-0.422279,0.734196,0.604551,0.643720,0.755336,0.122845
0.709991,-0.066881,0.065057,-0.580023,-0.724106,0.373154
-0.710049,0.837641,0.647275,0.830333,0.172721,-0.529824
-0.757220,0.708987,-0.976319,0.118977,0.108757,-0.986923
-0.069407,-0.000472,0.777764,-0.389205,-0.290437,0.874166
0.081083,-0.313529,0.263533,-0.489789,0.291219,-0.821765
-0.421804,0.421750,-0.971931,0.155446,0.014254,-0.987742
0.542283,-0.147228,0.462935,-0.334181,0.409648,0.848829
0.850338,-0.517810,0.793186,-0.600571,-0.797683,-0.054920
0.896689,-0.608707,0.747986,-0.581750,0.766306,-0.272658
0.594709,0.136456,0.689151,0.348775,0.713620,-0.607538
-0.549647,0.892779,-0.971147,0.163056,-0.027136,-0.986244
-0.918917,0.463783,0.504921,0.644457,0.588745,0.487907
-0.693061,-0.565452,0.353070,-0.586063,0.528056,-0.614562
-0.267125,0.013742,0.188619,-0.091015,0.887059,0.452596
-0.498229,-0.227408,0.622449,0.980984,0.112825,0.157927
-0.451526,0.160554,0.679967,0.997434,-0.071590,-0.000272
-0.635214,0.592604,-0.977212,-0.192953,-0.001944,0.981206
0.265009,-0.329354,0.719133,0.549716,0.452446,-0.702214
-0.269371,0.010689,0.720449,0.203475,0.267037,0.941960
-0.107969,0.598101,0.820001,0.853793,0.093708,0.512110
-0.106673,0.538243,0.738379,-0.318864,-0.938591,0.131805
0.575540,-0.720314,0.460333,-0.809373,-0.531797,0.249214
0.074302,-0.519254,0.615679,0.397929,-0.833708,0.382863
0.704621,-0.713596,0.429333,-0.650677,0.216051,-0.727971
0.852339,0.170493,0.323872,0.617824,0.685124,-0.385874
-0.596350,0.156501,-0.160157,-0.394468,0.346725,-0.850986
-0.595825,0.765734,0.019622,0.975692,0.078467,0.204615
-0.593939,0.347511,-0.972103,-0.041914,0.015866,0.998995
-0.021401,0.536633,0.797746,0.008586,-0.907828,0.419254
0.457249,0.401705,0.619236,0.652808,0.749893,0.107250
-0.258876,-0.149505,0.545137,-0.558307,0.008047,-0.829595
-0.102548,-0.364891,0.194308,0.522645,-0.153359,-0.838644
0.616585,0.254782,0.765947,-0.443587,-0.842410,-0.305903
-0.113339,-0.350010,0.673416,-0.441787,-0.895307,-0.057011
-0.219659,0.327466,0.694370,0.851986,0.273413,0.446503
0.133746,-0.456843,0.451979,0.711378,0.575511,-0.403396
0.595825,0.207307,0.736232,-0.489472,-0.868992,-0.072593
-0.047409,0.032233,0.825565,0.094826,0.216273,-0.971717
-0.468212,-0.059830,0.362630,0.676418,-0.309246,0.668450
-0.052304,-0.556900,0.600226,-0.288190,-0.953087,0.092585
-0.472222,-0.350399,0.523211,0.083643,0.662742,0.744162
-0.589569,0.800161,0.598314,-0.284030,-0.950048,-0.129367
-0.688166,0.298759,0.037880,-0.339005,-0.306104,0.889593
-0.541628,-0.019629,-0.193336,0.026478,-0.655490,0.754740
-0.263411,0.003692,-0.189371,0.282145,-0.280753,0.917373
0.352051,-0.408368,0.552378,-0.060044,-0.377721,0.923971
-0.945040,0.387323,-0.486271,0.874607,-0.341630,0.344023
0.060150,0.154113,0.029355,0.933313,-0.355203,0.052503
-0.036798,0.307754,0.767420,-0.553055,0.620624,0.555838
-0.343082,0.277159,0.669138,0.205541,0.420932,0.883498
0.650612,0.059274,0.570981,0.870685,-0.231191,-0.434118
0.217183,-0.403593,0.588095,-0.601187,0.733540,-0.317006
0.566988,0.121130,0.503276,0.683456,0.703413,0.195187
-0.654737,-0.567617,0.348823,-0.453411,0.608882,-0.650908
-0.779276,0.612537,-0.278736,-0.612878,-0.773214,-0.162853
-0.277505,-0.579389,0.620161,-0.634706,0.716807,-0.288680
-0.659624,0.713374,-0.721421,-0.698145,0.668763,-0.255635
-0.769133,0.301091,-0.024669,0.834283,0.542486,-0.098387
-0.421041,-0.272884,0.416168,-0.662434,-0.251695,-0.705571
0.214411,0.485660,0.873115,0.526336,0.700276,-0.482269
-0.575893,0.805269,-0.759929,0.250982,-0.933378,0.256540
0.006903,-0.130126,0.279096,0.746961,-0.600842,0.284672
0.006666,-0.071268,0.816929,-0.525343,0.832597,-0.175489
-0.569342,-0.374774,0.577626,0.896083,-0.414108,0.159843
-0.139634,-0.644299,0.249726,-0.155744,-0.159394,0.974852
-0.760466,0.368722,-0.186628,-0.006163,0.096868,0.995278
-0.442211,-0.070213,0.543099,0.768558,-0.353777,-0.533067
0.101720,0.356617,0.834373,0.690918,0.207335,0.692564
-0.236402,0.671396,0.762703,0.748809,-0.638403,0.178120
-0.430535,0.121130,0.518729,0.763982,0.372765,0.526666
-0.067103,0.225909,0.505846,-0.577513,-0.624610,0.525681
0.182220,-0.138177,-0.504670,0.963674,0.140950,-0.226861
-0.188346,0.111469,0.784190,0.845632,-0.330418,-0.419203
-0.418032,-0.603265,0.224399,-0.462101,0.779005,-0.423809
0.105442,-0.279547,0.261480,0.482345,-0.147870,-0.863411
0.128966,-0.115689,0.766135,-0.124638,0.620327,-0.774377
-0.025590,0.227574,-0.951729,-0.304281,0.122364,0.944690
-0.357825,-0.389433,0.499075,-0.649243,0.297106,-0.700152
-0.112691,0.418085,0.677225,-0.048712,0.043578,0.997862
0.012266,-0.374386,0.252155,0.629494,-0.053294,-0.775175
0.801922,0.203753,0.332900,0.381371,0.893602,-0.236711
-0.656500,-0.394320,0.464705,0.382535,0.157620,0.910397
-0.129139,-0.369277,0.562596,0.208920,0.538371,0.816400
0.229801,0.445126,0.961524,0.944372,0.173579,0.279340
0.061510,0.331797,-0.727189,0.955063,-0.272252,0.117187
0.338605,0.317694,0.878679,0.020802,0.780751,0.624496
0.018637,-0.028402,0.511284,0.762288,-0.067651,-0.643693
-0.452469,0.352453,-0.473435,0.916434,-0.046815,-0.397439
0.149309,-0.647852,0.518352,0.973332,0.133262,0.186727
0.027541,0.042283,0.230746,0.748066,-0.662574,-0.037339
-0.726087,0.101030,-0.160236,0.090886,-0.374737,0.922666
0.607796,-0.681446,0.405542,0.988885,-0.137759,-0.055942
-0.233221,0.025236,0.715152,-0.688274,0.133062,-0.713144
-0.623423,0.328632,0.573394,-0.285512,0.667129,0.688056
0.260294,-0.451623,0.519559,0.633900,0.326820,-0.700970
-0.165052,0.055165,0.596245,0.339123,-0.817654,0.465229
-0.466564,0.351676,-0.474516,0.916434,-0.046815,-0.397439
-0.727267,0.801327,-0.972432,0.086613,0.154115,-0.984249
-0.203498,-0.403926,0.695123,0.967644,-0.173223,-0.183464
0.205154,-0.115744,-0.073535,-0.553320,-0.769974,-0.317769
-0.682688,0.704933,-0.767169,0.869612,-0.493721,-0.003698
0.159811,-0.379772,0.610538,-0.143895,0.986576,0.077217
-0.195479,-0.319082,0.681472,-0.750673,-0.155195,-0.642187
-0.212345,-0.408701,0.377566,-0.232590,0.972570,0.003001
-0.309293,-0.078653,0.718945,0.993692,-0.084865,-0.073304
-0.029247,0.512591,0.763862,-0.165996,-0.605141,0.778620
-0.172481,0.363835,-0.101777,0.484768,0.874406,0.020327
-0.314714,0.491379,-0.959393,-0.089586,0.009856,0.995930
0.091873,-0.056220,0.835815,-0.517433,-0.154729,0.841619
0.422517,0.299536,0.815629,0.303004,0.943534,-0.133907
0.562331,0.217469,0.799486,0.970428,0.235863,-0.051354
0.145479,0.030456,-0.116415,0.584390,0.807897,-0.076099
-0.283343,0.073766,0.714729,-0.570244,0.093050,0.816189
0.105795,-0.495322,0.588126,0.117595,0.983896,0.134609
-0.040570,-0.745468,0.190907,-0.728885,0.684547,0.011026
-0.082026,0.434243,0.758346,0.169121,0.848054,-0.502197
-0.293550,0.596824,-0.963750,0.203841,0.181977,-0.961942
-0.157328,-0.450457,0.378663,0.465493,0.281763,0.839003
-0.148366,-0.534857,0.578488,-0.656640,0.416057,0.629063
0.026835,0.000639,0.816209,-0.670571,-0.504799,0.543611
-0.770724,-0.264111,0.454033,0.915218,0.043756,-0.400577
0.917974,-0.594436,0.761935,-0.644401,0.758935,-0.093627
-0.137633,0.035287,0.791556,-0.623216,0.781804,-0.019605
-0.559322,0.031955,0.565793,0.248357,0.932368,-0.262695
-0.641168,0.197479,0.568426,0.943038,-0.230653,0.239747
-0.640282,0.690774,-0.883052,0.936457,0.337084,0.097073
-0.654967,-0.236514,0.253722,-0.487531,-0.061134,-0.870963
0.805283,-0.225131,0.089803,0.132797,-0.896296,0.423106
0.178973,0.533302,0.920572,0.626922,0.684523,-0.372018
0.202800,-0.760460,0.545732,0.078634,0.975005,0.207803
-0.333292,0.618146,0.538304,0.161862,-0.808091,0.566384
0.575893,-0.228740,0.620271,-0.660628,0.695308,-0.283050
-0.069875,-0.002471,-0.716469,-0.620567,0.784110,0.008247
-0.084264,0.610261,0.831505,0.729580,-0.310214,0.609492
-0.528837,-0.308976,0.616666,0.993427,-0.106542,-0.041860
0.089929,0.151448,-0.407203,0.925919,0.374947,0.045701
-0.383710,-0.000583,0.620976,0.054332,0.328074,0.943088
-0.191355,0.329853,0.521597,0.262771,0.660110,-0.703709
-0.651548,-0.214304,0.245682,-0.487531,-0.061134,-0.870963
0.771437,-0.656348,0.641288,0.531425,-0.168534,0.830171
-0.691412,0.788778,0.566436,0.799584,0.586088,0.131020
0.093586,0.500375,0.552064,0.177295,-0.851871,0.492830
-0.212525,0.453344,0.420932,0.934916,0.182998,0.304047
0.065872,0.197479,0.847710,0.099661,-0.970734,-0.218504
0.025713,-0.203421,0.780256,-0.657339,0.414653,-0.629261
0.869976,-0.587773,0.749757,-0.647131,0.717604,-0.257423
0.014570,0.091979,0.838714,-0.341103,-0.930509,-0.133422
0.305341,0.314417,0.930132,-0.363565,0.929158,0.066977
-0.360359,-0.003693,0.706470,0.761801,0.567787,0.311892
-0.309703,0.179100,0.682835,-0.504980,0.823140,0.259685
0.818082,-0.686888,0.631947,-0.655875,0.307530,-0.689386
0.004484,-0.649074,0.252312,0.106445,0.620965,0.776577
-0.596178,-0.304756,0.354387,-0.523259,0.462251,-0.715907
0.059207,0.339515,0.235166,0.995582,-0.082887,-0.044117
-0.456363,-0.084483,0.046610,-0.171029,0.981352,-0.087733
-0.721898,-0.669619,0.288296,-0.103222,-0.235729,0.966321
0.526180,0.224354,0.494201,0.181392,0.348531,0.919578
-0.178614,0.311252,0.688713,0.935209,0.352060,-0.037924
-0.053542,-0.570616,0.641852,-0.274717,0.961186,0.025551
-0.103549,0.041394,0.848980,-0.228649,-0.911195,0.342701
0.092168,0.044559,0.564445,-0.358831,-0.895753,0.262424
0.618176,-0.083429,0.450788,-0.164194,0.225418,0.960327
-0.349035,-0.178656,0.332383,0.781698,0.262361,0.565787
-0.233516,-0.009800,0.760226,0.877003,0.096129,-0.470770
0.070292,0.359449,0.833668,0.913799,-0.189413,-0.359296
-0.062388,0.551459,0.815660,0.014699,0.132241,0.991109
0.363490,-0.299592,0.684763,0.969730,0.070479,0.233786
0.404175,0.002415,0.112043,-0.515904,-0.631081,0.579292
-0.382472,0.485715,0.538946,0.864653,0.459038,0.204107
-0.407299,0.451512,-0.970222,-0.083691,0.016569,0.996354
0.017219,-0.595603,0.611996,0.679365,0.669096,-0.301288
-0.313245,0.008745,0.603595,0.040179,-0.711495,0.701542
0.180859,0.184652,0.795913,0.400730,0.354559,0.844810
0.162583,-0.457897,0.450334,-0.066152,0.626522,0.776592
-0.516801,0.154280,0.446055,-0.649306,0.536568,-0.538977
-0.535675,-0.222244,-0.368414,-0.249660,0.536105,0.806388
-0.377872,0.041062,0.639235,0.665106,0.592154,-0.454959
-0.260409,0.161110,0.669937,0.833328,-0.518923,-0.190484
0.110985,0.555790,0.879635,-0.618775,-0.743129,0.254711
0.172488,0.124962,-0.542410,-0.456777,-0.799721,-0.389617
-0.368377,0.072212,0.557111,-0.216186,-0.901190,0.375659
-0.659984,0.739804,0.571247,-0.616525,-0.768407,0.171605
0.246019,-0.424526,0.542331,0.634365,0.215036,-0.742523
0.085567,-0.157112,0.828464,0.833245,-0.318834,-0.451717
-0.018694,-0.417530,0.672836,0.153570,0.937657,-0.311794
0.213943,0.493545,0.915995,0.798151,-0.173217,-0.577019
0.034084,-0.164274,0.354011,0.987662,0.154520,-0.025454
0.643176,0.025792,0.449895,0.562426,-0.206493,-0.800648
-0.314778,-0.191927,0.460709,-0.495137,-0.432663,-0.753420
-0.185517,-0.077765,0.717409,0.874865,0.245560,-0.417505
-0.972106,0.237902,0.570276,0.986641,0.086623,0.137969
0.331054,0.350565,0.616368,0.118075,-0.956259,0.267631
-0.302865,0.651794,0.775867,0.775850,-0.560123,-0.290376
0.123128,-0.114967,-0.029245,0.820906,0.200308,0.534780
0.150965,-0.644854,0.532442,-0.185530,0.526116,-0.829928
-0.128729,-0.351898,0.734022,-0.424410,0.852373,-0.305510
0.485200,-0.292651,0.642353,0.636623,0.723580,-0.266725
0.684336,0.056831,0.414130,0.103723,0.847991,0.519761
0.347567,0.079486,0.114394,-0.029980,-0.237514,0.970921
-0.585387,-0.371665,0.570417,0.998361,0.005901,0.056930
0.311417,-0.079597,0.803686,0.853486,-0.473300,-0.218058
0.312244,-0.114357,0.757374,0.106052,-0.945232,0.308690
-0.706803,-0.514312,0.365937,0.689600,-0.090130,0.718560
0.726209,0.140620,0.400088,-0.398374,0.519961,-0.755604
-0.510373,-0.072045,0.501113,0.723367,-0.585375,0.366165
0.946278,0.113856,0.353039,0.573594,0.071711,-0.815995
0.088339,0.096033,0.828668,0.076621,-0.323743,-0.943038
0.187172,0.242844,0.786321,-0.379351,-0.698322,0.606992
0.197257,-0.124074,0.256763,0.419544,0.360895,-0.832909
-0.524352,0.707876,0.602310,-0.603634,0.787054,0.127167
0.048064,0.143063,0.075667,0.991425,-0.053298,-0.119310
0.121480,0.562897,-0.280366,0.671984,0.680027,-0.293260
0.786589,-0.035564,0.614597,0.865376,0.342839,-0.365494
-0.633739,0.257170,0.498793,0.958482,-0.226811,0.172826
-0.012144,-0.049946,0.556797,0.811897,-0.020597,0.583438
0.242485,0.230573,0.798561,-0.643195,-0.148727,-0.751120
-0.618464,0.563397,0.076748,0.190332,0.560782,-0.805790
0.014627,-0.237569,0.730323,-0.508339,0.518741,-0.687386
-0.110035,-0.125962,0.734821,0.785029,0.614891,-0.075090
0.008314,0.084372,0.030013,0.719657,-0.685510,-0.110316
-0.006363,-0.511258,0.636398,0.544710,-0.399719,0.737235
0.204981,0.452011,0.862301,-0.171613,-0.746462,0.642918
0.094644,-0.114579,0.322274,0.042248,0.877070,0.478500
-0.863958,0.520419,0.210450,0.997909,-0.044883,-0.046502
-0.441974,0.796052,-0.382644,0.343901,-0.247834,0.905710
0.746314,-0.112635,0.114441,0.047934,-0.116072,0.992083
-0.565333,0.270052,0.598361,-0.337114,0.939416,-0.062060
-0.160927,-0.100420,0.774849,-0.172873,0.224407,0.959039
-0.175432,-0.291763,0.620553,0.805876,0.590472,-0.043673
-0.149777,0.499819,0.762044,0.906004,0.026552,-0.422436
-0.266362,-0.015575,0.730574,-0.515396,-0.835579,-0.190200
-0.385891,-0.031789,0.638529,0.823688,-0.003930,-0.567029
-0.094759,0.040062,0.840814,0.487568,0.806169,-0.335215
0.179153,0.528971,0.475990,0.829060,0.536859,0.156341
-0.274439,0.434965,0.661599,-0.338225,-0.780152,0.526276
-0.194832,-0.360060,0.610397,0.550107,0.348789,0.758768
-0.309408,-0.027236,0.715168,-0.547060,-0.112351,0.829520
-0.401871,-0.287321,0.023399,0.278303,-0.939778,0.198408
-0.360243,0.577000,0.492399,0.722848,0.172432,0.669148
0.496818,-0.503484,0.584005,0.166559,-0.970895,-0.172108
-0.204917,0.502485,0.717754,0.086534,-0.456619,0.885444
0.023704,-0.508204,0.122277,-0.438243,-0.195389,0.877364
-0.480536,-0.021461,0.461022,0.098807,0.589122,0.801981
-0.031723,0.037786,-0.183102,0.620262,-0.493809,-0.609450
0.580197,-0.589439,0.361063,-0.505293,0.518207,0.690029
0.106500,0.157500,0.856032,0.777388,0.437741,0.451719
0.079434,0.346622,0.814406,0.062719,-0.321602,0.944796
-0.706623,0.109248,0.024089,-0.493162,0.710515,0.501957
0.583206,-0.844249,0.437811,-0.177203,-0.108213,0.978207
-0.216888,0.091868,0.447340,0.856456,0.490746,-0.160163
0.001713,-0.715206,0.254490,0.253817,0.914962,0.313722
0.332350,-0.433077,0.541579,0.047930,0.660986,-0.748866
0.269666,0.391932,0.896781,0.808362,0.585466,0.061485
-0.590340,-0.254227,-0.270006,-0.653202,0.448153,0.610317
-0.342492,-0.453289,0.557722,-0.517703,0.855554,0.003321
0.707573,-0.109914,0.123484,-0.094990,-0.215503,0.971872
-0.067103,0.333907,-0.496066,0.841175,0.538895,0.044905
-0.330989,-0.137122,0.657540,0.770054,0.100912,-0.629948
0.590757,0.021183,0.672257,0.300381,-0.621043,0.723931
-0.581025,0.150282,0.612529,0.851004,0.523684,-0.039329
-0.512619,-0.224132,0.592969,0.950503,-0.045165,-0.307416
-0.007134,0.026569,0.494013,-0.578928,0.642226,0.502383
0.094824,0.516810,0.918628,0.991285,-0.085937,0.099848
-0.024763,0.578722,0.811287,-0.206525,-0.694842,0.688870
-0.588684,0.410644,-0.180359,-0.141582,0.120400,0.982577
-0.589929,0.705655,-0.030561,-0.581190,0.636897,-0.506537
-0.469155,-0.444127,0.256528,0.525820,-0.561112,0.639270
-0.059495,-0.430967,0.611071,0.056789,-0.200847,0.977975
-0.297027,0.137511,0.650346,-0.342520,-0.034034,0.938894
0.078786,-0.474222,0.632589,0.300720,-0.939178,0.165866
-0.240707,0.058108,-0.377629,0.772041,-0.014977,-0.635397
0.130147,0.559732,0.403583,0.423279,0.897058,0.126972
0.550835,-0.584663,0.368037,-0.576415,0.480588,0.660894
-0.123719,0.297926,0.768345,0.273643,-0.955240,-0.112407
-0.444565,0.748243,0.533962,-0.158419,-0.158526,0.974563
0.580024,-0.359561,0.567596,-0.247090,0.753589,0.609139
-0.130377,0.019850,0.800191,-0.669246,-0.450697,-0.590748
0.656507,0.213193,0.832649,0.416116,0.802744,0.427142
0.193953,-0.050612,0.356455,-0.146066,-0.303687,0.941509
-0.583854,0.652683,-0.969987,-0.153520,-0.180723,0.971479
-0.213706,-0.584109,0.589412,0.390597,-0.857742,0.334236
0.502419,0.206918,0.691079,-0.307029,-0.701857,0.642752
-0.542456,0.519975,0.556170,-0.467448,-0.023177,0.883717
-0.877872,-0.078320,-0.671348,-0.544215,0.079225,-0.835197
0.016038,-0.593770,0.240824,0.113646,-0.031881,0.993010
0.110805,0.314417,-0.943109,-0.228270,0.146284,0.962545
-0.713231,-0.040229,0.380058,0.258323,0.228986,0.938528
0.035207,0.057831,-0.125521,0.999664,-0.025620,-0.003970
0.266131,-0.701435,0.562909,0.668660,-0.513489,0.537795
0.204801,0.434632,0.820612,-0.609619,-0.781986,0.129860
-0.124892,0.278103,0.754474,-0.697267,0.716147,0.030846
0.718896,-0.098198,0.121446,-0.117020,-0.200831,0.972612
0.009847,-0.517921,0.098737,0.599057,0.334225,-0.727616
0.074655,0.001971,0.661411,0.940467,-0.316526,0.123824
-0.286114,-0.566173,0.534965,0.910881,0.407028,-0.068000
-0.494925,0.762348,-0.965959,0.073352,-0.075185,0.994468
0.042931,-0.710097,0.258424,0.151761,0.495800,0.855074
0.206982,0.213637,0.454111,-0.404000,0.260495,0.876885
-0.179031,-0.513868,0.209275,0.400796,-0.273557,-0.874374
-0.625252,0.628973,0.534495,0.924479,-0.213639,-0.315748
-0.628671,0.452067,0.013760,0.419349,-0.394074,0.817834
-0.248078,-0.396097,0.658621,0.887652,0.388703,-0.246949
-0.512856,0.817596,0.529449,0.206815,0.812971,0.544340
0.408537,-0.073322,0.735448,-0.216551,0.592203,0.776145
0.139699,-0.493934,0.462135,-0.191006,0.703551,0.684495
-0.688756,0.584441,-0.622246,0.962760,0.258962,0.077668
-0.491801,0.828090,-0.965395,-0.151808,-0.012679,0.988329
-0.264418,0.232682,-0.959001,-0.156255,0.032184,0.987192
0.806817,-0.091202,0.634658,0.903237,0.306824,-0.300037
-0.455831,-0.501985,0.339482,-0.254461,0.194123,0.947399
0.469515,-0.253561,0.637119,-0.624566,-0.743857,0.237893
0.238180,0.443072,0.946353,0.965677,0.222879,0.133389
-0.312064,-0.244677,0.551907,0.703683,-0.243715,0.667408
-0.580435,0.121186,0.471570,-0.533579,0.521212,-0.666057
0.019875,-0.384492,0.708147,0.116239,0.760142,0.639274
-0.290246,-0.027569,0.713663,0.406376,-0.418144,0.812413
0.529607,0.254394,0.841551,0.464948,0.841507,0.275118
-0.273085,-0.182765,0.677366,0.933187,-0.229441,0.276620
-0.153261,0.080097,0.612717,-0.188425,0.955576,-0.226649
-0.278866,-0.514812,0.516456,0.831341,0.432127,-0.349483
-0.388310,-0.236847,0.032050,0.111427,-0.356229,0.927731
0.169774,-0.678559,0.515531,0.275680,0.903361,-0.328542
0.007789,-0.412921,0.365640,0.591412,-0.599323,-0.539484
0.073474,0.083595,-0.627700,-0.663228,-0.730728,0.161758
-0.109207,0.313918,-0.960443,-0.111697,-0.101739,0.988521
-0.163166,0.423582,0.739194,0.881295,0.289156,-0.373775
0.184401,-0.332797,0.718349,0.061452,-0.898162,0.435348
-0.735164,0.135511,-0.287199,-0.630214,-0.381734,-0.676098
0.022113,0.015797,0.120929,0.937195,-0.347833,0.026016
-0.773085,0.297315,0.503479,0.937395,0.318379,-0.141158
-0.027771,0.080596,0.813654,0.946780,-0.269051,-0.176687
0.029665,-0.054333,-0.161270,0.263805,-0.645862,-0.716428
0.078606,0.168661,-0.861957,0.287899,0.919163,0.268802
-0.582969,-0.353508,0.026408,0.466698,-0.183388,0.865195
0.445335,0.374996,0.360060,-0.205934,0.080899,0.975216
-0.407709,-0.235570,0.506849,0.092365,0.874388,0.476356
-0.354053,-0.486549,0.220465,-0.522711,0.812411,-0.258384
-0.676785,0.620756,-0.622073,0.963515,0.251133,0.092577
-0.168888,0.546628,0.756528,-0.675636,-0.711713,0.192300
0.699201,0.104694,0.581810,-0.679086,0.499684,0.537735
-0.505953,-0.203198,0.232157,-0.398779,-0.161565,-0.902702
-0.208631,0.277714,-0.959267,-0.184830,0.084074,0.979168
0.034142,-0.590272,0.628123,-0.266800,-0.908802,0.320774
0.362547,0.475777,0.342961,0.655934,0.268692,-0.705376
-0.110682,0.059218,0.828010,0.727981,0.601222,0.329507
0.434012,0.045337,0.734617,-0.615029,0.374003,-0.694162
0.206867,-0.170827,0.781729,0.828773,-0.293440,0.476475
-0.058026,0.247064,0.045764,0.898732,0.437446,-0.030362
-0.354758,0.704656,0.606526,0.814273,0.577667,0.057102
0.007076,-0.542797,0.624957,-0.668428,0.023275,0.743412
0.316787,0.221411,0.138216,0.711283,-0.272591,0.647897
-0.295371,-0.246176,0.658668,0.922483,0.375268,-0.090553
0.029607,-0.588106,0.589835,-0.677641,0.095978,-0.729103
-0.750497,0.725533,-0.978733,-0.167991,0.028946,0.985363
0.521350,-0.462173,0.593157,0.940652,-0.307533,-0.143514
-0.630672,0.325578,0.573128,-0.171157,0.609182,0.774340
0.568997,-0.542130,0.482682,0.428764,-0.114958,0.896073
-0.223726,0.174102,0.456493,0.727825,0.465624,0.503453
-0.196127,0.494045,0.509780,0.838517,0.453113,0.302617
-0.232220,-0.167828,0.531235,-0.681044,0.225825,-0.696550
-0.303513,0.305922,-0.966100,-0.185859,0.034474,0.981971
0.503714,-0.080430,0.661254,-0.156817,0.609871,0.776831
-0.640520,0.625920,0.529245,0.924479,-0.213639,-0.315748
0.102311,0.178655,0.806147,0.073396,0.706906,0.703489
-0.883062,0.527693,-0.246717,0.905083,0.380815,0.189219
-0.448870,-0.106194,0.364684,0.276963,0.089956,0.956660
-0.755629,-0.489270,0.375874,0.783114,-0.008800,0.621816
0.540635,0.389433,0.370388,0.298371,0.588119,0.751725
0.004837,0.433688,-0.302370,0.979140,0.183547,-0.087151
-0.752210,0.495822,-0.985299,0.235723,0.039875,-0.971002
-0.115757,0.023404,0.713350,0.759123,-0.321644,-0.565931
-0.285884,-0.592215,0.618531,0.578181,-0.724759,0.374741
-0.439498,-0.323635,0.034354,0.174969,0.967822,-0.180851
0.734466,-0.211805,0.110852,0.112969,-0.659049,0.743567
-0.216592,-0.430356,0.703523,0.984494,-0.152806,-0.086147
0.485020,-0.043061,0.126540,0.234451,0.605520,-0.760512
-0.672833,0.751853,-0.370232,-0.686540,0.263021,-0.677852
-0.140462,0.574836,-0.957010,0.330575,-0.011650,-0.943708
0.003714,-0.333019,0.687882,-0.720628,0.469501,0.510161
0.105442,-0.531581,0.248394,-0.321627,-0.252608,0.912549
-0.173013,0.046781,0.776776,-0.662904,0.354404,0.659512
-0.632623,0.311919,-0.615240,0.986001,-0.092254,-0.138894
-0.344673,0.459840,0.668291,-0.445939,-0.843080,0.300589
-0.255687,0.071323,-0.369997,0.776946,-0.016978,-0.629338
-0.064750,-0.112080,0.043476,-0.499427,0.330070,-0.801016
-0.433307,0.100586,0.658872,0.112415,-0.987299,0.112270
-0.019752,-0.507538,0.555888,0.079626,-0.970479,0.227664
-0.183804,-0.276604,0.757891,-0.583858,-0.656385,0.477775
0.071710,0.179488,-0.659436,0.990661,0.118973,0.066598
0.005248,0.208418,-0.943469,0.372208,-0.316601,-0.872482
-0.464202,0.473167,-0.970802,0.108081,0.078367,-0.991048
0.194659,-0.124795,-0.022725,0.301437,0.279518,0.911595
0.062684,0.172436,-0.594443,0.893116,0.420706,-0.159215
0.726029,0.056165,0.592201,-0.676755,0.255419,0.690481
0.283523,-0.102640,-0.116917,-0.471266,-0.878826,-0.074655
0.109092,0.378106,0.860985,0.934163,-0.102885,0.341694
0.113281,-0.309142,0.797840,-0.737261,0.675431,0.015457
-0.051361,0.070213,0.833511,0.097559,-0.230377,0.968199
-0.089454,0.470668,0.624549,0.641643,0.725514,-0.248845
-0.865138,-0.003582,0.488653,0.285321,-0.124756,0.950278
0.084624,-0.584386,0.240730,-0.833734,0.460386,0.304849
-0.688699,-0.248064,0.251747,-0.550097,0.035898,-0.834329
0.619709,-0.085150,0.119409,0.188588,0.458024,-0.868705
0.006846,-0.320025,0.685923,-0.905338,0.411690,-0.104280
0.162993,-0.246897,0.784832,-0.530323,-0.068847,-0.844996
0.532378,-0.695106,0.334937,0.147134,-0.273339,0.950598
-0.330759,-0.440851,-0.173260,0.943935,-0.107206,0.312240
-0.278095,0.639357,-0.686346,0.623161,0.549085,-0.556935
0.215354,-0.037897,0.630333,0.489978,0.424513,0.761387
-0.079665,0.066215,0.634533,-0.114166,0.164509,0.979746
-0.819313,0.506871,-0.724853,-0.766556,-0.193494,-0.612333
0.085862,-0.313807,0.800849,-0.737261,0.675431,0.015457
-0.763000,0.384436,0.178400,0.989150,0.142061,0.037421
-0.092046,-0.247286,0.766025,-0.703780,0.636589,0.315353
-0.138339,0.606207,0.845218,0.593456,-0.684827,0.422874
0.731572,0.250562,0.769630,0.138387,0.985382,0.099359
-0.657033,0.850967,-0.973341,-0.046080,-0.033507,0.998376
-0.950936,0.278381,-0.992446,-0.274862,-0.000387,0.961484
-0.800094,0.543963,-0.740620,0.811283,0.063283,0.581218
-0.213346,-0.354563,0.358430,0.400826,-0.540030,-0.740072
0.148251,-0.124129,0.832665,0.866490,-0.350594,-0.355358
-0.761877,0.536633,-0.983591,-0.233716,-0.138968,0.962323
-0.517161,0.848969,-0.962856,-0.128646,0.003070,0.991686
-0.519990,-0.410423,0.449002,-0.563927,0.090415,-0.820861
-0.738879,0.594214,-0.131994,0.982693,0.169111,0.075604
0.211582,-0.037175,-0.682381,-0.719740,-0.689042,-0.084825
-0.331759,0.073378,-0.178635,-0.077708,-0.241615,0.967256
-0.555607,-0.366945,0.551813,0.465507,0.836614,-0.288757
0.523827,0.272828,0.848698,0.764180,0.600729,0.234850
-0.713994,0.389711,-0.984766,0.193710,0.108785,-0.975009
-0.049770,-0.040451,0.024763,-0.831238,0.550295,-0.078858
0.188879,0.455898,0.514936,0.937287,0.315664,0.147812
-0.038914,-0.099975,0.823778,-0.404449,0.886807,-0.223595
-0.512856,0.046836,0.601730,0.675564,0.552622,-0.488080
-0.561265,0.268775,0.537285,-0.607680,0.761221,0.226423
-0.183926,0.022405,0.176206,-0.009313,0.763210,0.646083
0.214649,0.059274,-0.680798,-0.630969,-0.767361,-0.114171
-0.441679,0.138344,-0.227941,0.463370,-0.155645,-0.872389
-0.049352,0.317694,0.099395,0.863262,0.479455,-0.157803
-0.446516,-0.314196,0.573457,-0.825342,-0.017826,-0.564352
-0.090872,-0.263389,0.794157,0.299696,-0.896635,-0.325925
-0.304218,0.660957,0.780961,0.851563,-0.521812,-0.050513
0.687050,-0.287376,0.461446,-0.629669,-0.699934,0.337061
-0.301684,0.707599,0.552080,0.923115,0.158885,0.350163
0.721430,-0.070657,0.582218,0.918928,0.053254,-0.390814
-0.493392,0.788889,-0.963342,0.001266,-0.124189,0.992258
0.096538,0.057942,0.821913,0.228790,0.246520,0.941745
0.646955,-0.701214,0.439677,0.832709,0.200733,0.516044
-0.113281,0.215081,0.791806,0.747750,-0.121780,-0.652717
-0.153376,-0.436298,0.679999,0.609475,-0.702196,0.368051
-0.834826,0.213970,-0.703805,0.986585,0.100631,0.128540
-0.459307,-0.588550,0.319124,0.815913,-0.514518,0.263738
0.532493,0.033621,-0.582422,-0.216850,-0.873102,0.436657
0.185286,0.492156,0.871877,0.202903,0.776808,-0.596154
-0.746135,0.628918,-0.984327,-0.076668,-0.105299,0.991481
-0.568874,-0.502707,0.338025,0.614551,0.234761,0.753136
0.046768,-0.424693,0.726624,-0.072010,0.955822,0.284988
-0.899100,-0.334351,0.391687,0.885595,0.273851,0.375136
-0.382587,0.579166,0.536705,0.900407,-0.432052,0.050980
0.524237,-0.602432,0.351566,-0.599428,0.576985,0.554774
-0.744069,0.222077,-0.984531,0.153604,0.202328,-0.967197
0.218363,0.071657,0.821114,0.606307,0.036805,-0.794379
-0.806695,-0.457509,0.330408,-0.618247,0.138165,0.773745
0.039922,-0.667009,0.243519,-0.174697,0.717286,0.674523
-0.224554,0.509925,0.624549,0.214706,-0.174938,-0.960884
-0.867909,0.589994,-0.986647,-0.110301,-0.097934,0.989061
0.791484,0.135234,0.443218,-0.430584,0.708507,0.559120
-0.427937,-0.504095,0.311068,-0.637071,-0.048195,-0.769297
-0.775151,-0.253450,-0.539793,-0.601704,-0.112606,-0.790741
-0.676195,-0.042450,0.070558,0.131677,-0.129133,0.982846
0.036683,0.056553,-0.124471,0.995545,0.039837,-0.085463
-0.729449,-0.354618,0.436871,0.958042,-0.184096,-0.219690
-0.086921,0.227907,0.827164,0.264829,0.872291,0.411064
0.028779,0.069879,-0.100226,-0.682584,-0.727065,0.073867
-0.130910,-0.005358,0.747344,0.660533,-0.605210,-0.444317
-0.133386,0.344846,0.700859,0.880827,-0.408099,-0.239998
0.135099,0.014520,0.845438,-0.608559,-0.793078,0.026160
-0.625425,0.784114,-0.701172,0.702709,-0.703963,0.103129
-0.646242,0.773675,-0.366784,-0.470609,0.271480,-0.839539
-0.216945,0.003137,0.772388,0.852538,-0.361431,-0.377555
-0.899928,0.310808,0.528101,0.945466,-0.312493,0.091882
-0.623539,0.043283,-0.168088,0.127683,-0.574502,0.808483
-0.033904,-0.617646,0.243974,0.410330,-0.063262,0.909740
0.922927,-0.585719,0.753158,-0.498075,0.840913,-0.211629
-0.220307,0.606485,0.631289,-0.414121,-0.536564,0.735257
0.094061,0.200255,-0.075071,0.997261,0.067225,-0.030832
-0.503002,0.039007,0.629894,-0.130136,0.977922,0.163501
0.048531,0.560620,0.172068,-0.469183,0.529539,0.706722
-0.809113,0.758682,0.225951,0.876561,-0.450793,-0.168603
-0.721192,-0.324745,0.401592,0.053780,-0.223031,0.973327
-0.360179,-0.056387,0.340140,-0.505345,0.212432,-0.836361
-0.584502,0.674838,0.148591,-0.162388,0.887029,-0.432214
-0.305694,0.777339,-0.224070,-0.033582,0.985710,0.165069
0.096948,0.326744,0.813434,0.883194,-0.426524,-0.195051
0.211762,-0.133569,-0.242454,0.729840,0.467495,-0.498781
0.075540,0.091535,0.028477,-0.644586,0.761466,-0.068404
0.401821,0.185652,0.722722,0.368900,0.044607,0.928398
-0.556666,0.522030,-0.972855,-0.110693,0.013247,0.993766
0.206687,0.392987,0.821271,0.912496,0.046298,-0.406457
-0.920328,0.230628,-0.990346,0.330102,0.048318,-0.942708
0.562453,-0.104029,0.657227,0.939673,-0.089767,0.330086
0.044522,0.222744,-0.527568,0.824888,0.526400,0.206065
-0.213346,0.599600,0.497320,-0.590994,-0.804685,-0.056631
0.317730,0.154169,0.775977,0.730486,0.224996,0.644801
-0.341427,-0.310753,0.708131,0.379747,0.620006,0.686574
0.941031,-0.363280,0.520766,-0.389802,-0.276093,0.878537
-0.407004,0.454066,-0.968906,-0.083691,0.016569,0.996354
0.596710,0.069547,0.666473,-0.232972,-0.519829,0.821889
0.124899,-0.495988,0.577516,0.007219,-0.999930,-0.009325
-0.170299,0.519143,0.459440,0.622055,0.649206,-0.437698
-0.619940,0.897221,0.369793,0.622708,0.779911,0.063035
0.008494,-0.028624,0.045873,0.804420,-0.457326,0.379158
0.042636,-0.435020,0.118390,0.257565,0.293395,-0.920641
-0.161453,0.072600,0.802370,0.947145,-0.314988,-0.060814
-0.173071,-0.430856,0.651710,0.144668,0.989240,-0.021798
-0.273618,0.238679,0.666959,-0.050587,0.835554,0.547075
0.317607,-0.098254,-0.672899,0.709224,0.704633,-0.022235
-0.532134,-0.084594,-0.385199,-0.224596,0.478865,0.848672
0.109862,-0.292207,0.753769,-0.081582,-0.542502,0.836084
-0.209163,-0.343013,0.684262,0.768741,0.255317,0.586388
-0.759286,-0.236625,0.415337,0.330885,-0.312718,-0.890350
-0.121178,-0.490325,0.597342,0.920958,0.334790,-0.199379
0.065692,-0.257336,0.376877,0.967620,0.117042,-0.223635
-0.673899,0.905272,-0.973561,-0.084331,0.069660,0.994000
-0.307580,0.549737,-0.412736,0.103771,-0.077644,0.991566
-0.930355,0.241955,-0.994405,0.302198,0.081275,-0.949774
-0.354405,0.650795,-0.965097,-0.012438,-0.107353,0.994143
-0.580550,-0.018573,-0.184199,0.162631,-0.461342,0.872190
0.001828,-0.203032,0.783719,0.877782,-0.450967,0.161642
-0.300151,-0.268442,0.708773,-0.766609,0.104737,-0.633514
-0.233573,-0.385047,0.610679,0.915588,0.117691,-0.384510
0.974705,-0.389211,0.527474,-0.389802,-0.276093,0.878537
0.527483,-0.418474,0.593643,-0.704074,0.332363,0.627547
0.066988,-0.700325,0.536439,-0.222047,0.926021,-0.305255
-0.051008,0.129681,0.683697,-0.719301,-0.358473,-0.595066
-0.080903,-0.228407,0.793546,0.841058,-0.528218,0.116649
0.042226,0.139010,-0.424490,0.954930,0.291351,-0.056771
0.067874,0.105750,-0.449237,0.685372,0.715428,0.135750
0.006666,-0.495711,0.634564,-0.160426,-0.601200,0.782830
0.188763,-0.322691,0.758189,0.016851,-0.156163,0.987588
-0.005190,0.073433,-0.046892,0.954126,0.288491,0.080100
0.186525,0.150337,-0.883114,0.081781,-0.995075,-0.056016
-0.762000,0.695106,-0.981538,-0.096341,-0.097019,0.990609
-0.071113,0.283211,-0.955224,-0.377754,-0.059333,0.924003
-0.087921,-0.045282,0.453014,-0.063399,-0.514466,0.855164
0.169479,-0.428968,0.248205,-0.304736,-0.264286,0.915035
0.301332,0.314806,0.890825,0.581452,-0.807313,-0.100787
-0.009077,-0.542575,0.603423,0.905725,0.420514,-0.053203
-0.415203,-0.115023,0.359888,-0.613870,-0.134855,-0.777803
0.357357,0.352730,0.876971,0.161539,0.706021,0.689521
0.137403,-0.073045,-0.802244,-0.503253,-0.812528,-0.294168
0.041693,0.479885,0.662414,0.812975,0.134718,0.566501
-0.094702,0.574447,0.797119,0.928272,0.361355,-0.087939
0.580082,0.270663,0.359684,0.475733,0.176187,0.861764
-0.183926,0.310530,0.685249,0.934215,0.353194,0.049960
0.126548,-0.263444,-0.285130,-0.270786,-0.477476,0.835878
0.568939,0.097865,0.676316,-0.143792,-0.369874,0.917887
-0.651605,0.805769,0.541642,-0.626192,-0.691589,-0.359985
-0.926461,0.356062,-0.993621,-0.257580,-0.010062,0.966205
-0.043874,-0.590938,0.254490,0.360626,-0.428962,0.828216
-0.931536,0.377773,-0.024277,0.937456,0.108336,0.330817
-0.507724,0.715539,0.621885,-0.389865,0.326106,-0.861197
-0.057789,-0.318804,0.711689,0.309385,0.943077,-0.122010
-0.926109,0.232294,-0.169404,0.532627,0.337308,0.776229
0.267665,-0.144452,-0.205905,0.531583,0.832414,-0.156544
-0.257458,0.061439,0.654374,0.888650,-0.035655,0.457199
-0.149014,0.037619,0.810394,0.782059,0.119264,-0.611686
-0.031838,-0.430190,0.553302,0.882885,0.432434,0.183074
-0.337540,-0.293207,0.029966,0.269426,-0.431243,0.861069
-0.089749,0.516422,0.808169,0.412021,0.907439,0.082418
0.682746,-0.110192,0.573441,-0.674113,0.330850,0.660386
-0.263706,-0.451678,0.224947,-0.339032,0.417613,-0.843005
-0.719306,-0.456287,0.356283,0.519486,0.329423,0.788426
-0.375101,-0.193870,0.569696,-0.413812,-0.496413,-0.763108
-0.473640,0.185097,0.620741,-0.601349,0.687398,0.407263
0.062806,0.400316,0.591966,0.841400,-0.121758,0.526517
0.170602,0.369499,0.826772,-0.790064,0.573175,-0.217416
-0.250914,0.289875,0.641178,-0.078556,0.431796,0.898544
-0.517456,0.577500,0.577297,0.287665,-0.679904,0.674522
-0.317485,0.522085,-0.965771,0.199901,-0.027092,-0.979441
-0.030723,-0.696882,0.235856,0.967813,0.197854,0.155540
0.670184,0.080541,0.569194,-0.893966,0.242871,0.376615
0.274503,-0.412144,0.542629,-0.196133,-0.175582,0.964729
0.252800,-0.340570,0.756731,0.939996,0.081387,-0.331338
-0.200727,-0.448513,0.716014,0.945601,-0.283616,-0.159375
-0.142996,-0.365224,-0.311381,-0.517494,0.408265,0.752010
0.526360,0.297815,0.869229,0.105685,0.989064,0.102878
-0.576778,-0.133013,0.027803,-0.160836,-0.106062,0.981266
-0.875986,-0.432300,0.310770,-0.429284,0.852513,0.298221
-0.019990,-0.570782,0.645347,-0.026877,0.718733,0.694766
0.509199,-0.209917,0.547456,0.036003,0.298912,0.953601
-0.220954,-0.538077,0.593126,0.600202,-0.556797,0.574225
-0.286409,0.084428,-0.175783,0.012015,-0.315209,0.948946
0.276742,-0.621200,0.528508,-0.664756,0.735428,0.131321
0.339958,-0.354840,0.662493,0.736525,-0.480577,-0.476001
0.899280,-0.520975,0.517663,-0.083428,0.050874,0.995214
-0.568579,-0.406647,0.570714,0.761303,0.047857,0.646627
-0.379168,0.783170,0.201439,-0.709227,-0.623878,-0.328289
-0.710992,0.060607,0.385528,0.309229,0.430066,0.848187
-0.356054,-0.047114,0.701313,0.944642,0.273703,0.180936
-0.475525,-0.480163,0.542896,-0.595704,0.179648,-0.782856
-0.124071,0.315639,0.703507,0.624145,-0.700240,-0.346563
-0.110625,-0.090147,0.659248,-0.673198,0.667385,-0.318437
-0.703088,-0.332908,-0.219399,0.830480,0.130036,0.541658
0.100900,0.393098,0.847836,-0.543991,0.786467,0.292478
-0.822380,0.479108,-0.986005,-0.073337,0.003169,0.997302
-0.243010,0.192371,-0.962104,0.190412,-0.025273,-0.981379
-0.890081,-0.298593,0.410635,0.876971,-0.170725,0.449193
0.254751,-0.699381,0.540435,-0.551383,0.789536,0.269463
0.062036,0.112746,0.156647,-0.607056,0.794647,-0.004457
-0.763706,-0.050390,-0.673981,0.159401,-0.195579,-0.967647
0.142946,0.302646,-0.641695,0.995017,-0.020333,0.097613
0.132566,0.561120,0.402486,0.423279,0.897058,0.126972
-0.136510,0.524251,0.751246,0.368948,0.904044,0.215827
-0.347560,0.628251,-0.958938,0.115940,0.053993,-0.991788
-0.310941,-0.281490,0.670329,0.963008,0.263258,0.057534
-0.524763,0.287543,0.555152,0.804822,-0.555794,0.208217
0.095587,-0.606541,0.233881,0.845381,-0.528348,-0.078608
-0.064750,0.305255,-0.958186,-0.304924,-0.015964,0.952243
0.058501,0.078542,0.182350,0.734670,-0.676989,-0.044127
-0.203794,-0.042783,0.710764,0.892678,0.322691,-0.314636
-0.673841,-0.440406,0.469768,0.022659,-0.834004,0.551293
0.020638,-0.548016,0.606369,0.771710,-0.324395,0.547020
-0.117168,0.038285,0.478999,0.133385,0.930553,-0.340997
-0.628311,0.199034,0.581481,0.878107,-0.449406,-0.164203
-0.057018,-0.630695,0.617638,-0.452508,0.753642,-0.476718
-0.355759,-0.088037,0.492148,0.822291,0.393988,0.410623
0.291132,-0.426580,0.539698,-0.043270,-0.361471,0.931379
0.146127,-0.702435,0.496254,0.914729,0.396695,0.076831
0.003894,-0.103529,-0.257390,-0.350998,-0.593281,0.724443
0.745782,0.168272,0.309814,-0.378281,0.925062,0.034105
0.284883,0.127294,0.851456,0.785798,0.513757,0.344348
0.083796,0.136456,-0.620036,0.862912,0.500164,-0.072243
0.110099,-0.614648,0.230370,0.521150,-0.818723,0.241030
0.054254,0.259557,0.744601,-0.065342,0.882687,0.465396
0.045407,0.171548,-0.384838,0.694343,0.202670,-0.690516
0.607738,-0.330298,0.569868,-0.583708,0.479159,0.655509
0.088986,-0.035453,0.834530,0.880795,-0.002785,-0.473489
0.312597,0.382659,0.857365,-0.422756,-0.888116,0.180354
-0.150842,-0.257281,0.736906,0.973388,0.228131,-0.021718
0.651670,0.326355,0.485738,0.747672,-0.331599,-0.575351
0.458372,-0.642189,0.348745,-0.516233,0.282481,0.808522
-0.157385,-0.734751,0.245290,-0.063747,0.076774,0.995009
-0.175317,-0.197313,0.595195,-0.490830,0.780956,-0.386256
-0.575302,-0.503318,0.330517,0.831877,-0.313491,0.457935
0.122013,0.070990,-0.390214,0.830868,0.531280,0.165532
0.005607,0.079430,0.373601,0.141208,0.984153,-0.107253
-0.890023,0.012577,0.495565,0.001086,0.057760,0.998330
0.010560,0.240456,-0.949378,-0.291630,0.117118,0.949334
-0.006011,-0.213748,0.774081,-0.233718,0.908145,-0.347346
-0.129377,-0.075266,-0.221108,0.365077,-0.477947,0.798927
-0.020400,-0.150893,0.252766,0.195335,0.956965,-0.214620
-0.059559,0.057497,0.678181,-0.289266,-0.434958,-0.852723
-0.495220,0.793442,-0.969705,0.037545,-0.126874,0.991208
0.163288,-0.648519,0.467370,-0.686034,0.175101,0.706185
0.350806,-0.207807,0.332790,0.616268,0.714037,-0.332213
-0.659329,0.022182,-0.260650,0.467558,0.294124,0.833595
-0.655795,0.333241,-0.612858,0.984974,-0.027375,0.170517
0.061150,0.141397,-0.624534,0.857103,0.504650,-0.103450
0.182573,0.066881,-0.504185,0.488288,0.830527,-0.267955
-0.271437,-0.468336,0.588471,-0.068612,0.465649,0.882306
-0.585502,-0.296205,0.361298,-0.595055,0.560771,-0.575712
0.304045,-0.145229,-0.079773,-0.520750,-0.819321,-0.239860
0.097185,-0.543075,0.589897,-0.491465,0.860177,0.136227
-0.029780,-0.411533,0.690922,0.064493,0.997494,-0.029081
-0.116995,0.256059,0.644939,0.821121,0.564500,-0.084260
0.218896,0.487826,-0.209965,0.992155,-0.080337,0.095787
0.695012,0.151725,0.564132,0.928640,-0.039739,0.368847
-0.612511,0.077320,0.507962,-0.622258,0.490945,0.609729
-0.360769,0.133513,-0.186848,0.045350,0.089516,-0.994952
0.772733,-0.045726,0.633091,0.903409,0.344347,-0.255493
-0.573884,0.220411,-0.979735,0.115835,-0.085703,0.989564
0.064217,0.186041,0.820926,-0.376141,0.864414,-0.333626
-0.300561,0.569227,0.620036,0.506211,0.287246,-0.813167
0.056083,0.143674,-0.689731,0.820667,0.565791,-0.079911
-0.035027,-0.015519,0.800489,-0.295393,0.912402,-0.283313
-0.093111,-0.305589,-0.134439,0.973596,-0.184256,-0.134763
-0.738821,0.200755,-0.983074,-0.233128,-0.208703,0.949787
-0.575540,-0.369555,0.552142,0.980851,0.191513,-0.035414
-0.029132,-0.556789,0.094113,-0.404172,-0.156638,0.901171
0.192830,0.332574,0.817979,0.920090,-0.386185,-0.065543
0.008904,-0.055721,0.021362,-0.714302,0.686118,-0.137895
1.000000,-0.441351,0.515547,-0.403713,-0.100279,0.909374
-0.188936,-0.449679,0.666944,-0.252822,0.961067,-0.111492
-0.140995,-0.622866,0.572219,-0.152075,-0.959620,0.236648
-0.028714,0.075099,0.830925,-0.770039,0.474235,-0.426780
-0.439080,-0.530970,0.510422,0.562282,-0.024877,0.826571
-0.388547,0.108359,-0.598423,0.212170,0.401842,0.890790
0.509437,-0.294206,0.623264,0.078101,0.909488,0.408327
-0.437079,0.562064,0.547754,0.576134,-0.811472,-0.097889
0.127196,-0.441795,0.707802,-0.146311,0.894047,-0.423407
-0.928765,0.303090,-0.698947,0.973887,-0.110403,0.198380
0.209639,-0.171271,0.778187,0.753713,-0.302251,0.583576
0.369148,0.027457,0.736279,0.250663,0.530287,-0.809916
-0.100302,-0.547239,0.261574,-0.030027,-0.367526,0.929528
-0.136042,-0.299203,0.710090,0.685334,0.663385,0.300396
0.647545,0.233515,0.568191,0.905377,0.424306,-0.016016
0.932184,0.154169,0.354669,-0.523492,-0.155286,0.837761
0.207335,-0.689441,0.553098,0.661781,0.716520,0.220556
-0.132033,-0.011466,0.673620,0.690025,-0.503478,0.519977
-0.013915,-0.115023,-0.175501,0.219316,0.800552,0.557689
0.085625,0.325078,0.813450,-0.576014,0.817185,-0.020421
-0.751857,-0.221578,0.041281,-0.599227,0.265393,0.755310
0.761589,0.131514,0.309328,-0.618216,0.146903,0.772159
-0.669004,-0.478387,0.275413,-0.135061,0.209073,0.968528
-0.880406,-0.053500,-0.682444,0.464544,0.058961,0.883585
-0.150842,0.524696,-0.949864,-0.207577,-0.053589,0.976750
0.211172,-0.546073,0.530311,0.201281,-0.071539,-0.976918
0.014447,0.280324,0.658668,0.358550,0.060721,0.931534
-0.183631,-0.225131,0.750008,0.289677,0.492032,0.820970
0.778218,0.150726,0.540874,-0.536228,-0.153302,-0.830035
0.000180,-0.601599,0.648685,-0.605991,-0.049860,-0.793907
0.016571,-0.383770,0.622183,-0.029788,0.769863,0.637513
-0.341549,0.190150,-0.966649,-0.250752,0.044027,0.967050
0.015628,-0.046225,0.469392,0.905490,-0.248097,-0.344291
-0.458487,0.313029,-0.980535,-0.101525,-0.060254,0.993007
0.268255,-0.750854,0.233442,-0.426347,-0.533929,-0.730170
-0.282522,-0.279714,0.696361,0.189360,0.960695,0.202996
-0.326274,0.650518,0.758079,0.447124,0.881901,0.149433
-0.226555,0.577500,-0.956258,-0.168734,-0.031833,0.985147
0.404118,-0.313029,0.560229,0.994789,0.075998,-0.067965
-0.789303,0.237125,-0.983450,-0.356445,-0.190394,0.914711
0.419918,-0.100975,0.735526,-0.829826,-0.036193,-0.556847
0.532018,-0.639079,0.352522,-0.502684,0.617933,0.604539
-0.249734,-0.428413,0.520296,0.826690,-0.211864,-0.521246
-0.348503,0.713539,0.664812,0.630940,0.719589,0.290011
-0.182918,0.524307,0.726280,0.046820,-0.666623,0.743923
-0.256925,0.075210,0.712629,-0.653358,0.038324,0.756078
-0.112806,0.205031,0.787340,-0.571005,0.336654,0.748744
-0.195479,-0.163497,0.720810,0.736692,0.587082,0.335589
0.241304,0.101529,-0.404366,0.715908,0.684475,0.137730
-0.774496,0.619867,-0.230731,-0.658590,-0.751944,-0.028971
0.161517,0.343957,-0.940930,-0.210498,0.163434,0.963836
0.204391,0.488325,0.885747,0.711787,0.691170,0.125069
-0.003657,0.201032,0.497069,0.740378,0.659347,0.130774
-0.826980,0.548682,0.189418,0.999118,-0.027054,-0.032121
0.191535,-0.742525,0.494515,-0.689988,0.688671,0.222820
-0.178319,0.085594,-0.182303,0.221861,-0.373428,0.900738
0.074064,0.389988,-0.947090,-0.037844,0.089080,0.995305
0.684927,-0.601543,0.441777,0.870686,-0.265139,-0.414256
0.062158,-0.249896,0.106542,-0.201919,0.074411,0.976571
0.100309,0.184097,0.846409,0.800773,0.230919,-0.552665
0.232695,-0.306477,0.746920,-0.069294,0.878987,0.471784
0.151022,0.112080,0.853540,0.519372,0.403565,0.753252
-0.257515,-0.286210,0.709808,0.120040,0.873839,0.471164
0.306579,0.213470,0.074272,-0.181860,0.954844,0.234949
-0.685337,0.214415,0.497101,-0.426989,0.589278,-0.685880
-0.214706,-0.536633,0.261151,-0.027405,-0.665677,0.745736
-0.133919,-0.290874,0.746717,0.795284,-0.362423,0.485977
-0.328988,0.695217,0.548444,0.769193,0.611371,-0.185923
-0.051123,0.410589,0.737015,0.958486,0.056527,-0.279480
-0.148186,0.491823,0.753205,0.433098,0.595186,0.676890
-0.526123,0.441128,0.543836,0.776281,0.345152,-0.527501
-0.682033,0.626475,-0.975849,-0.256408,-0.086052,0.962730
-0.253210,-0.450179,0.657133,0.786438,0.514749,-0.341392
0.467744,0.013354,0.422437,-0.417572,0.467771,0.778989
-0.382947,0.364446,-0.967323,-0.189005,-0.102973,0.976562
0.055377,0.327410,0.833307,0.976424,-0.002679,-0.215844
0.685049,0.232294,0.842914,-0.402869,-0.786493,-0.468109
0.208516,-0.423249,0.284989,-0.578294,0.268180,0.770491
-0.584855,0.441461,-0.279880,0.997244,0.073485,-0.010188
0.532141,-0.042283,0.663370,0.477544,-0.237554,-0.845884
-0.033199,-0.260113,0.734147,-0.597076,0.672342,-0.437557
-0.036503,0.521752,0.800959,-0.141369,0.986830,-0.078623
0.139879,-0.532136,0.469407,0.733417,-0.163511,-0.659821
