-0.196326,-0.056382,0.719700,0.341751,0.102239,-0.934213
-0.536211,0.284836,0.608646,0.056508,-0.621029,0.781748
0.151098,-0.025563,0.940177,0.042659,0.983951,0.173265
-0.379223,-0.258556,0.586546,-0.069136,-0.018787,0.997430
-0.348033,0.584841,0.605130,0.933851,-0.341564,0.106094
0.465526,-0.169146,-0.703233,-0.748546,-0.644078,-0.157614
0.196912,-0.024189,0.517485,0.901972,0.352399,0.249524
-0.225304,0.400645,0.576268,-0.107983,-0.990993,-0.079205
-0.385768,-0.483665,0.686031,0.954868,-0.291007,-0.059523
0.031890,0.341635,0.554366,0.102270,-0.943848,0.314152
0.041324,-0.167234,0.580896,-0.590990,0.748988,0.299579
-0.092148,-0.426984,0.610027,-0.653440,-0.506100,0.562920
-0.566769,0.235860,0.022611,-0.193816,-0.453297,0.870033
-0.488275,-0.460551,0.812565,0.760378,0.647128,-0.055232
-0.419982,0.214716,0.393928,-0.114443,0.500518,0.858129
0.246067,-0.119274,0.187174,0.281787,0.958912,0.032914
-0.140129,0.304425,0.538419,-0.021035,0.295503,0.955110
0.198899,-0.074359,0.449769,0.721326,-0.672714,0.164755
0.143289,0.705907,0.508552,0.406797,0.187612,0.894046
-0.464036,0.627127,0.675663,0.597315,-0.687265,0.413378
0.424677,-0.196201,-0.627607,-0.715458,0.695339,-0.067996
-0.027330,-0.147226,0.690085,-0.161307,0.656571,0.736814
-0.300955,-0.664994,0.651949,-0.065846,-0.199412,0.977701
0.142883,0.111569,0.871582,0.348864,-0.292284,-0.890429
-0.612449,0.173923,0.650890,0.498205,-0.847000,0.185425
0.305875,0.296004,0.647751,0.046616,-0.480723,0.875633
-0.553003,-0.392463,0.552769,0.363101,-0.129675,0.922682
-0.709449,0.032969,0.408278,0.151783,0.589719,0.793218
-0.112821,-0.222183,0.680021,-0.253346,-0.945081,-0.206490
-0.514094,-0.261840,0.556464,-0.260882,-0.300320,0.917469
-0.174344,0.203129,0.555119,0.770148,0.437037,0.464618
-0.370422,-0.149197,0.693349,0.129520,0.848754,-0.512680
-0.018168,0.422147,0.542401,0.729608,0.029317,0.683237
-0.396420,0.577017,0.640289,0.470808,-0.175226,0.864659
0.152858,0.440722,0.543531,-0.130258,-0.463769,0.876328
0.011984,-0.166218,0.660559,0.667908,-0.624693,0.404547
0.056625,-0.244281,-0.269330,-0.326339,0.921102,-0.212304
0.111422,0.364511,0.572322,0.337578,-0.870570,0.357980
0.109617,0.112166,0.568555,0.131612,0.365269,-0.921551
0.065291,-0.007645,0.724257,0.902334,0.386313,0.191195
-0.419215,0.236935,0.600395,0.482455,0.632105,0.606367
0.007561,0.643672,0.491726,0.972595,0.106743,-0.206555
-0.490983,-0.607956,-0.258406,-0.526122,0.823865,-0.210814
0.545149,-0.129368,-0.969416,-0.493760,-0.683969,-0.537017
-0.410955,-0.573374,0.687268,-0.686900,0.698682,0.200030
0.365773,-0.071612,-0.298444,0.943383,-0.306407,0.127052
0.466429,-0.187900,-0.808924,-0.662305,0.585822,-0.467081
-0.430003,0.163949,0.405803,-0.088325,0.612817,0.785273
0.007200,-0.199546,0.871635,0.315357,-0.051943,-0.947551
-0.030806,-0.218300,0.770716,0.994233,-0.056307,0.091275
0.015911,0.592427,0.495601,0.864855,-0.037103,-0.500649
-0.473109,0.521352,0.657599,-0.712473,0.156515,-0.684021
-0.493918,0.570328,0.676362,-0.444759,0.362131,-0.819176
-0.087905,0.219972,-0.063133,0.146283,-0.704160,0.694809
-0.097836,-0.196560,0.593183,0.289945,-0.955032,-0.062014
0.074545,-0.184316,0.370178,-0.318130,0.427719,0.846079
0.044573,0.167114,0.568160,-0.489589,-0.074020,0.868806
-0.142612,0.052260,0.803399,0.089716,0.503854,0.859117
-0.511431,0.034283,0.605023,0.598228,0.678272,-0.426697
0.033334,-0.006391,0.850020,0.930299,0.352111,0.102772
-0.554402,0.293197,0.650316,0.029758,0.858878,0.511316
-0.456363,-0.199367,0.587192,-0.373111,0.638353,0.673271
-0.270622,-0.182225,0.679214,0.290081,0.943654,-0.159277
-0.480918,0.037927,0.011758,-0.078706,-0.034196,0.996311
-0.615744,0.225527,0.679501,0.128515,-0.822005,0.554790
-0.591189,-0.340381,0.579210,-0.106997,-0.166211,0.980268
0.160306,0.319775,0.645867,0.252532,-0.897721,-0.361004
0.057798,0.358837,0.574438,0.702814,-0.007483,-0.711334
0.471439,-0.167055,-0.724598,0.987004,0.066915,-0.146100
-0.476585,0.301260,0.611068,0.872804,0.187148,0.450765
0.487689,-0.212984,-0.519189,0.766345,0.642072,-0.021431
0.442687,0.326823,0.642943,-0.346901,0.488725,0.800504
0.077253,0.102013,0.508982,0.369345,0.869696,-0.327434
0.306687,0.460790,0.632504,-0.326067,-0.054840,-0.943755
-0.476765,-0.196500,0.568590,-0.140523,-0.572211,-0.807977
-0.272744,-0.403751,0.637526,0.432912,-0.218188,-0.874632
-0.385452,-0.253181,0.567478,0.056061,0.836063,0.545762
0.158907,-0.078182,0.870792,0.529432,0.791052,0.306492
0.167799,0.271218,0.657294,0.207611,0.655510,0.726089
0.095263,-0.115630,0.461375,0.749315,-0.547802,0.372074
-0.156785,-0.182583,0.609776,0.374016,0.801743,0.466176
0.190999,0.522069,0.491708,0.456865,0.395660,-0.796698
0.229367,0.133608,0.910866,0.033193,-0.867217,0.496823
0.229412,0.342710,0.643446,-0.441991,-0.278265,-0.852768
0.111693,0.027235,0.829625,0.859711,-0.371180,-0.350886
-0.384369,-0.562324,0.693421,0.945792,-0.314207,0.082164
-0.039111,-0.043481,0.957020,0.995878,-0.088987,0.017548
0.002731,0.015410,0.786609,0.503635,0.620721,0.600880
0.137466,0.199068,0.900677,0.784370,0.619977,0.019771
0.587172,-0.129487,-0.978331,0.070955,0.249800,0.965694
-0.102620,0.218479,0.535064,0.112851,0.424294,-0.898465
-0.604730,0.362360,0.656020,0.974550,0.185338,0.126100
-0.074138,-0.306218,0.649240,0.902154,-0.359005,0.239236
0.501049,-0.329212,-0.975084,0.012014,0.046938,0.998826
0.201923,-0.092456,0.358662,0.101965,-0.979871,0.171630
0.001286,0.711641,0.488712,-0.059470,0.343970,0.937096
-0.500237,-0.370901,0.796960,0.678454,-0.684407,0.266999
-0.624410,-0.239324,0.559926,0.160864,0.958910,0.233698
-0.505879,0.218240,0.637419,0.335314,0.896905,0.288316
-0.505157,0.383324,0.634674,0.895022,0.195090,0.401094
-0.742761,0.213582,0.747881,0.633132,0.499095,0.591649
-0.437179,-0.474945,0.776044,0.934997,-0.063487,0.348928
-0.412219,0.056382,0.020135,-0.273204,0.031395,0.961444
-0.098603,0.236098,0.532212,-0.108735,-0.370928,0.922274
0.122616,0.278683,0.523476,-0.477848,-0.464725,0.745448
-0.741723,0.033925,0.408314,-0.152720,0.775098,0.613106
-0.666298,0.173505,0.699915,-0.031845,-0.387155,0.921465
-0.370150,0.375858,0.509592,0.548413,0.109385,-0.829022
0.135029,0.175595,0.876730,0.767716,0.497580,-0.403764
0.298608,-0.116586,0.047150,0.896195,-0.412951,-0.162191
-0.090658,0.121663,-0.096265,0.178339,0.790027,-0.586560
-0.333995,-0.236039,0.681205,0.843403,-0.035848,0.536085
-0.070663,-0.130024,0.970384,0.607774,0.084997,0.789548
0.187344,0.600669,0.502507,-0.564786,-0.101206,0.819008
0.431673,-0.162038,-0.455904,0.772025,0.531117,0.349131
-0.297388,-0.670131,0.647267,-0.065846,-0.199412,0.977701
-0.448058,-0.162336,0.628073,-0.561355,-0.035877,0.826797
-0.022727,-0.259512,0.862882,0.671327,-0.131068,-0.729480
-0.376831,0.610523,0.647356,-0.584018,0.104977,0.804924
-0.655014,-0.325688,-0.128087,0.794934,-0.306270,0.523717
0.437992,-0.195007,-0.654532,0.865418,-0.496397,0.068126
-0.339141,0.621991,0.673492,-0.617058,-0.648462,0.445798
-0.430815,-0.100400,0.448047,0.394972,0.815400,0.423226
0.218940,0.183419,0.610404,0.901750,-0.286243,-0.323901
0.438353,-0.147285,-0.610960,0.776610,-0.603639,0.180269
-0.132772,0.341635,0.538490,-0.026590,0.253343,0.967011
-0.474463,0.057158,0.622745,0.138471,0.124711,0.982483
0.123474,-0.081765,0.360689,-0.284770,-0.350474,-0.892230
-0.604053,-0.320970,0.583945,-0.161547,0.082277,0.983429
-0.233925,0.263215,0.573452,0.418873,-0.192801,0.887340
0.141033,0.062235,0.795094,-0.599244,0.646359,-0.472362
-0.214426,0.573135,0.540984,-0.138062,0.117908,0.983380
-0.379584,0.434808,0.595982,-0.132974,0.680763,-0.720333
-0.481911,-0.153258,0.712579,-0.361157,0.793485,-0.489844
-0.072694,0.846324,0.506310,0.411238,-0.293285,0.863057
0.087680,0.121723,0.965756,-0.411207,0.190110,-0.891497
0.166806,0.459416,0.646334,0.228825,0.620974,-0.749687
0.039293,-0.246073,-0.279196,0.282854,-0.932946,0.222723
-0.216457,-0.636206,-0.334481,-0.806579,0.357292,-0.470927
-0.660565,0.311772,0.697708,0.613155,0.310055,0.726572
-0.087183,0.157081,0.805103,0.392827,-0.419841,0.818181
-0.067097,-0.282207,0.684165,0.991233,-0.085688,0.100573
0.212801,0.330227,0.653204,-0.062371,0.236965,0.969514
0.515584,-0.021203,-0.987838,-0.218632,0.314724,0.923660
0.539958,-0.085350,-0.982223,-0.006519,0.361955,0.932173
0.559954,-0.269128,-0.974151,-0.081325,0.046613,0.995597
-0.542531,0.360748,0.378053,0.007068,-0.190645,0.981634
-0.610327,-0.609269,0.550114,0.158781,0.192055,-0.968454
0.099957,0.097712,0.712561,0.914475,-0.172571,-0.365997
-0.090297,-0.172191,0.964877,0.834917,0.457050,-0.306626
-0.646121,-0.717195,-0.247357,-0.131855,0.205856,0.969659
0.495498,-0.201577,-0.960106,-0.119344,0.656489,-0.744835
-0.652125,-0.176133,0.753657,0.297888,-0.888494,0.349057
-0.036268,0.202652,0.524804,-0.281409,0.491684,-0.824049
0.180889,0.118318,0.895690,0.407889,0.818890,-0.403789
-0.573089,-0.157917,0.733638,0.091853,-0.798811,0.594528
0.245346,-0.055546,-0.087977,-0.726647,-0.293984,-0.620933
-0.225214,-0.616078,-0.333280,-0.735493,0.309965,-0.602471
0.468686,-0.160904,-0.805086,0.873609,-0.341341,0.346834
0.134443,0.038584,0.825714,0.893812,-0.410307,-0.180964
0.172087,-0.111628,0.412512,0.662087,-0.718949,0.211549
-0.399354,0.224870,0.653401,-0.482217,0.855434,-0.188943
0.398903,-0.004300,-0.998009,-0.240591,0.106353,0.964782
0.421698,-0.183838,-0.987838,0.347057,0.008547,-0.937805
0.152362,0.142686,0.888354,0.548765,0.799347,0.244746
-0.051254,-0.330884,0.590278,-0.708415,0.705178,-0.029521
-0.058250,-0.170578,0.967909,0.590662,0.171310,0.788524
0.428152,-0.145554,-0.499637,-0.087287,-0.847814,0.523060
0.162021,-0.081706,0.871008,0.443222,0.686738,0.576147
0.478210,-0.108344,-0.980376,0.296772,-0.541286,-0.786725
-0.260737,-0.140357,0.690713,-0.817064,0.576542,-0.002652
0.168431,0.127217,0.873591,0.621060,0.775445,-0.113888
0.151865,0.063430,0.871420,-0.002465,-0.542841,0.839832
0.060913,-0.129248,0.515297,-0.341914,0.867372,-0.361610
0.219753,-0.113242,0.264631,0.259171,-0.964271,-0.054886
-0.542756,-0.338111,0.570922,-0.206040,0.862137,0.462891
-0.265386,-0.392582,-0.263949,-0.344257,0.154825,-0.926022
-0.166309,-0.219136,0.640127,0.074449,0.994941,0.067454
0.108082,0.484800,0.552877,0.903141,0.051555,0.426238
-0.007876,0.162575,0.527530,0.373474,0.639633,0.671853
-0.452346,-0.071134,0.457805,0.614835,0.782631,0.097296
-0.308628,-0.064385,0.541235,0.681904,0.726695,-0.083194
0.416100,-0.381115,-0.974420,-0.236642,0.184989,0.953824
-0.056490,-0.229469,0.955836,-0.649257,0.404438,0.644124
0.210906,0.476557,0.527154,0.669829,0.257532,0.696424
-0.606310,-0.166099,0.743307,-0.406475,0.712118,-0.572421
-0.072649,0.592188,0.532768,0.221136,0.377460,0.899235
0.307725,-0.009974,0.049285,0.934956,-0.285565,0.210500
-0.409330,-0.687870,0.649060,-0.583014,0.073216,-0.809156
0.109481,0.188855,0.804673,0.127045,0.654630,0.745198
-0.033966,-0.090187,0.933073,-0.453796,0.875510,0.165987
-0.429100,0.150332,0.026593,0.005293,-0.261919,0.965075
-0.295899,-0.235859,0.719700,-0.519301,0.517798,0.679862
-0.380352,0.440065,0.605058,0.193727,0.583602,-0.788593
-0.548128,0.262438,0.659626,0.952200,0.264805,0.152296
0.080322,0.165860,0.574976,-0.614826,0.221604,-0.756889
-0.171861,-0.261005,0.578026,0.128968,0.923204,-0.362025
0.528358,-0.283223,-0.978134,0.029370,0.175559,0.984031
0.474102,-0.339963,-0.974331,0.137309,-0.078453,-0.987417
0.187163,0.410679,0.486901,0.819166,-0.176122,0.545847
-0.010314,-0.258137,0.682479,0.884874,-0.464293,0.037807
-0.369879,0.201040,0.600664,-0.120644,0.990807,0.061210
0.166084,0.047483,0.431992,0.065848,-0.649809,0.757240
-0.180031,-0.285851,0.572357,0.306384,0.787765,-0.534374
-0.138775,-0.119274,0.532284,-0.126612,0.580264,0.804527
0.210590,0.155109,0.911332,-0.258208,-0.936926,0.235583
-0.151278,-0.216030,0.655321,0.043188,-0.997964,0.046941
-0.579634,-0.278444,0.576501,-0.019975,0.568852,0.822197
-0.837911,-0.234367,0.449733,-0.389528,0.529121,0.753856
-0.385091,-0.262976,0.592861,-0.248591,-0.465703,0.849307
-0.042993,-0.322881,0.598170,-0.506252,0.844325,-0.175566
-0.610192,-0.273845,-0.129719,0.262798,-0.648185,0.714698
-0.634386,-0.769575,-0.275017,0.901550,-0.389467,0.188477
0.072784,-0.020606,0.836907,-0.138021,0.987208,0.079811
-0.234151,-0.130921,0.712740,0.311194,0.138609,-0.940184
0.236273,-0.096936,0.276757,0.932136,-0.358071,0.053926
0.089440,0.237352,0.671106,0.190979,0.587859,0.786097
0.083527,-0.100102,0.345998,-0.106244,-0.152548,-0.982569
0.583786,-0.297020,-0.971102,-0.142284,0.085239,0.986149
-0.209867,0.290031,0.562689,0.906900,-0.318699,0.275612
0.108894,0.010632,0.549325,0.672840,0.664857,-0.324424
0.403598,0.339246,0.639643,0.390999,0.031417,-0.919855
0.042362,0.354655,0.558868,-0.667395,0.186447,0.720986
-0.421743,-0.193036,0.618476,-0.365524,0.369187,0.854455
-0.667381,0.101057,0.401408,-0.330398,0.299617,0.895023
0.216593,0.434749,0.485340,-0.182606,0.105857,0.977471
0.018665,0.375380,0.537306,0.536469,0.293217,0.791343
0.389153,0.408887,0.633634,0.508920,-0.053042,0.859178
0.350381,0.438870,0.635194,-0.050366,0.208089,0.976812
-0.429777,0.537777,0.641778,0.343855,-0.503930,0.792350
-0.620303,-0.155110,0.448155,-0.129045,0.401368,0.906780
0.454558,-0.160724,-0.661815,0.929461,-0.366895,0.038600
-0.816109,-0.225168,0.449715,-0.308686,0.631012,0.711714
-0.633032,0.024189,0.041087,-0.288038,-0.000600,-0.957619
-0.322711,0.593203,0.684757,0.526812,0.707020,-0.471796
-0.849872,-0.230185,0.451060,-0.417061,0.535328,0.734496
0.474960,-0.276175,-0.978259,-0.053547,0.088138,0.994668
0.250401,-0.284478,0.061644,0.913067,-0.008764,-0.407715
-0.494188,-0.149794,0.729172,0.561249,-0.596272,0.573985
-0.071385,-0.332258,0.648648,0.914554,-0.387321,-0.116509
0.287097,-0.196201,0.074900,0.859274,-0.486129,0.159142
-0.040150,-0.276056,0.657348,0.912557,-0.279650,-0.298387
-0.516576,-0.032969,0.448406,0.535681,0.618319,-0.575089
0.270126,0.622230,0.510956,0.113629,-0.653282,0.748539
-0.204495,-0.313027,0.734714,0.114241,0.320888,0.940202
0.442145,0.317207,0.645616,-0.427425,0.442744,0.788216
-0.192760,-0.149675,0.533235,0.188006,0.921922,0.338693
0.290483,0.653288,0.525970,-0.859183,0.324019,0.396001
0.168386,-0.156184,0.112965,-0.182676,-0.056780,-0.981532
-0.598727,0.326167,0.684022,0.850557,-0.136074,0.507973
0.393802,-0.164367,-0.436872,-0.206007,-0.954013,-0.217762
0.134397,-0.137908,0.435975,-0.653398,0.619647,-0.434866
-0.592272,-0.157080,0.448011,0.108615,0.267897,0.957306
0.358234,-0.143881,-0.285385,0.988941,-0.109424,0.100113
-0.241960,0.074419,0.763971,-0.071167,-0.502570,0.861602
0.193076,0.102252,0.884963,0.481846,0.757018,-0.441303
-0.754678,-0.069642,0.413893,-0.178048,-0.131171,0.975240
0.622199,-0.292301,-0.970510,-0.189629,0.032405,0.981321
0.155476,0.402079,0.641473,0.131947,-0.847378,0.514335
0.350697,-0.006929,-0.068299,0.286433,0.204714,-0.935974
0.000203,0.682255,0.489376,-0.192393,0.144762,0.970582
-0.913923,-0.272651,0.449195,0.200752,-0.688841,-0.696560
0.284660,-0.218479,0.087098,-0.337652,0.731246,-0.592680
0.593762,-0.211670,-0.977649,-0.169265,0.042360,0.984660
-0.655239,0.014991,0.415238,-0.199952,0.613239,0.764171
-0.849376,-0.188377,0.446630,-0.301199,0.550524,0.778590
-0.238123,-0.058174,0.520427,0.262967,0.829061,0.493464
0.480647,0.036075,-0.992340,-0.279536,0.164009,0.946023
-0.019747,-0.366003,0.854594,-0.773442,0.289631,-0.563827
-0.385407,-0.507496,0.652684,0.232607,0.656920,0.717182
0.096752,-0.052977,0.560411,0.906797,-0.228660,0.354167
-0.148119,0.564893,0.531961,0.206587,0.056819,0.976777
-0.315444,0.423102,0.569433,0.985179,0.041863,0.166345
-0.122797,-0.135041,0.946760,0.315647,0.930261,0.187034
-0.563745,0.292719,0.666747,-0.581027,-0.527278,-0.619988
0.107224,0.155050,0.840603,0.996599,-0.005634,-0.082209
-0.704439,-0.464433,0.596018,0.545356,-0.308113,0.779521
0.463766,-0.192916,-0.731952,-0.472761,0.838609,0.270612
-0.479789,0.234725,0.639392,0.693061,0.628383,0.353272
-0.475547,0.603476,0.673420,-0.650141,0.664280,-0.368849
-0.492157,0.333632,0.623014,0.797070,-0.309373,0.518621
-0.117471,0.089411,0.956267,0.338858,-0.935195,0.102887
0.182513,-0.066655,0.915853,0.504262,0.750773,-0.426686
-0.830734,-0.157976,0.422378,0.040416,0.811639,0.582759
-0.023404,-0.026459,0.909162,0.812084,-0.258150,0.523333
-0.434697,-0.489159,0.646872,0.028871,0.711057,0.702541
-0.792006,-0.305441,0.608090,0.672996,0.633975,0.380990
-0.015911,0.448366,0.566563,0.719439,0.420007,-0.553174
0.010810,0.644926,0.491959,0.992521,-0.043224,-0.114162
-0.319055,0.133249,-0.000170,0.280337,-0.289411,0.915234
-0.538242,-0.403571,0.804762,0.756090,-0.629183,0.180158
0.183687,-0.031118,0.477160,-0.151168,-0.855138,0.495870
0.546051,-0.154333,-0.979712,-0.223708,0.088325,-0.970646
-0.348440,0.582631,0.650137,0.700052,0.230533,-0.675856
-0.475863,0.083318,0.640899,0.914843,0.402610,0.031107
-0.224988,0.112106,0.785748,0.520113,0.787021,-0.331783
0.401251,-0.480380,-0.980717,-0.268441,-0.019829,0.963092
0.264980,0.322463,0.661474,-0.194818,-0.209739,0.958152
0.090298,0.322701,0.527530,0.284781,-0.021012,-0.958362
-0.468415,-0.337275,0.727324,0.351911,0.825466,0.441321
0.138279,0.023831,0.785515,0.327577,-0.731656,0.597806
-0.419937,0.455116,0.627499,0.909896,-0.383970,0.157025
-0.099190,0.809174,0.501036,-0.497842,0.218728,-0.839233
0.417274,-0.197216,-0.588807,0.827838,-0.552411,0.097600
0.052202,0.098071,0.975192,0.091252,-0.756094,0.648070
-0.309260,0.502657,0.588322,-0.675472,-0.121570,-0.727295
0.486425,-0.187422,-0.910095,0.748943,-0.648827,-0.134561
-0.037442,0.175476,0.521647,0.122914,-0.963732,0.236882
0.025525,0.749269,0.485645,-0.641022,0.404362,0.652366
-0.432350,-0.510541,0.774160,0.802522,0.185732,0.566976
-0.381390,-0.000239,0.530024,0.656249,0.025825,-0.754102
0.034959,-0.151705,0.582510,-0.595396,0.758738,-0.264236
0.312239,-0.125187,-0.028602,0.638453,-0.767227,0.061163
0.097746,0.382070,0.575371,-0.252651,0.904015,0.344854
0.225846,0.018217,0.773640,0.386814,-0.539053,0.748196
-0.018890,-0.219913,0.864963,0.559948,-0.180719,-0.808578
0.459252,-0.296900,-0.972931,-0.173464,0.138644,0.975032
-0.459748,-0.104999,0.466003,-0.011848,-0.321055,0.946986
0.270216,-0.178224,-0.248558,-0.341102,0.939911,-0.014688
-0.201200,-0.155169,0.529790,-0.067358,0.936972,0.342851
-0.559322,-0.184674,0.717010,-0.205383,0.970649,-0.125136
-0.172673,-0.159529,0.551854,0.257318,0.787996,0.559330
0.550791,-0.310816,-0.971210,-0.029954,0.091622,0.995343
0.245120,-0.098847,0.083026,0.377485,-0.878912,0.291579
-0.393712,-0.488801,-0.256900,-0.430802,0.874136,-0.224269
0.273105,0.001075,0.183389,0.937050,0.343609,0.062214
0.432621,-0.162695,-0.468873,-0.068011,-0.948894,0.308181
-0.634837,0.017798,0.036836,-0.288038,-0.000600,-0.957619
-0.281139,-0.191662,0.551280,-0.092039,0.629247,0.771736
0.112866,0.029863,0.917413,-0.619588,-0.739423,0.263371
-0.173441,0.156065,0.559998,0.866977,-0.110209,0.486009
-0.606130,0.192140,0.696058,-0.464102,0.885510,0.021931
0.476630,-0.169981,-0.796709,-0.609798,0.585098,-0.534608
0.278025,0.250672,0.644325,-0.025051,-0.073697,0.996966
0.511657,-0.180254,-0.860783,-0.544329,0.239005,-0.804104
0.485161,-0.013140,-0.988843,-0.031517,0.146625,0.988690
0.621070,-0.224810,-0.974385,-0.300499,0.116698,0.946616
0.127537,-0.048080,0.540374,0.066466,-0.980032,0.187403
-0.479428,0.237831,0.641257,0.572053,0.673394,0.468290
0.056490,0.848414,0.471313,-0.706233,-0.114341,0.698685
0.318965,-0.179478,-0.095529,0.970201,0.149329,-0.190814
0.042227,-0.145315,0.510812,0.319475,-0.817164,0.479769
0.110700,0.778235,0.509413,0.676696,-0.061292,-0.733707
0.437676,-0.145135,-0.527477,0.434477,0.891556,0.127900
0.097700,0.024965,0.898058,0.092749,-0.950094,0.297857
-0.020109,-0.265902,0.587497,0.776135,0.479498,-0.409506
-0.195197,0.612256,0.534114,-0.002123,-0.101866,0.994796
0.274504,0.296183,0.646998,-0.111094,0.627035,-0.771029
0.029904,-0.319417,0.587641,0.291734,-0.224632,0.929748
-0.150331,0.216867,0.540356,-0.400652,0.348212,-0.847482
-0.398858,-0.204742,0.594152,-0.231029,-0.740529,0.631064
0.108263,-0.077763,0.632647,-0.265698,0.958799,-0.100545
0.272654,0.626888,0.516929,-0.132343,-0.579586,0.804093
-0.414520,-0.452129,0.740275,0.976075,-0.069393,0.206062
-0.894784,-0.252166,0.441715,-0.270318,0.492079,0.827518
-0.598727,-0.694917,-0.248505,0.748644,-0.262348,-0.608856
0.249724,-0.089530,0.287645,0.636256,-0.732433,0.242322
0.122300,0.066655,0.506094,0.528860,0.840820,-0.115453
-0.446162,0.207907,0.631517,-0.693223,-0.648728,-0.313997
1.000000,0.250194,0.417427,0.368137,0.211294,0.905444
-0.061184,-0.085708,0.385354,0.239941,-0.901491,0.360198
0.072513,-0.021621,0.744473,0.494022,0.827607,-0.266476
-0.106683,-0.222003,0.709960,-0.585583,0.230508,-0.777148
0.054865,0.078839,0.955872,0.420316,-0.907348,-0.007420
-0.580943,0.199367,0.691735,0.808277,-0.557788,0.188578
-0.515358,-0.397360,0.793174,-0.614307,0.715795,-0.332061
0.097610,-0.150989,0.362716,-0.691578,0.093659,-0.716204
-0.301586,-0.533537,0.651087,-0.235621,0.265845,0.934778
0.169875,-0.132175,0.366250,0.041716,-0.106313,0.993457
-0.586720,0.472197,0.683358,0.043977,-0.121766,0.991584
-0.036493,0.480021,0.527369,0.842969,0.112204,-0.526130
-0.190593,0.410380,0.543782,0.367101,0.092441,0.925576
0.009682,-0.205041,0.586887,-0.817356,0.571404,-0.073663
-0.429461,-0.362719,0.565666,-0.042341,-0.394435,0.917948
-0.443138,-0.584125,0.721189,0.638219,-0.649188,0.413801
0.098649,0.336977,0.639392,0.954832,0.284908,-0.084404
-0.461148,-0.201995,-0.089860,-0.694869,0.385769,0.606910
-0.004040,0.139641,0.525539,0.448592,0.139585,0.882769
0.053962,-0.057397,0.371452,-0.062395,-0.988210,0.139812
-0.142431,-0.230664,0.604395,0.485686,-0.807669,0.334334
-0.043355,-0.323000,0.576573,-0.388372,0.383565,0.837881
-0.263987,0.112226,0.780349,0.122484,0.522510,-0.843790
0.327631,-0.157021,-0.251626,0.868973,-0.478588,-0.125854
-0.507233,0.539329,0.660451,0.386930,-0.581946,0.715279
0.294049,0.302574,0.650962,0.102698,-0.764022,0.636965
-0.180256,0.114734,-0.025194,-0.739848,0.069775,-0.669146
-0.050757,-0.323120,0.644379,-0.679613,0.689649,-0.250020
0.023991,0.426268,0.566259,-0.203435,-0.329979,0.921807
-0.577738,0.285732,0.380080,0.007232,0.056990,0.998349
0.028053,0.634474,0.508857,-0.342743,0.359266,0.868018
-0.460787,0.690318,0.539836,0.152616,0.038533,0.987534
0.391907,-0.172012,-0.452890,-0.063464,-0.997916,0.011647
0.323884,-0.013260,0.049679,0.934956,-0.285565,0.210500
-0.571374,0.044018,0.432082,0.517385,-0.207239,-0.830280
-0.709134,-0.029027,0.420620,-0.218712,0.262462,0.939829
-0.410278,-0.123156,0.545773,-0.447828,0.313010,0.837541
-0.062042,0.247208,0.810843,0.855626,0.216065,-0.470341
0.081316,0.152721,0.577524,0.749182,-0.245700,0.615107
-0.982667,-0.245894,0.436405,-0.218432,-0.538404,-0.813885
-0.604595,0.327718,0.689690,0.579386,-0.429167,0.692912
0.139001,0.022039,0.939854,0.378938,0.914787,-0.139898
0.072288,0.363137,0.578995,-0.760827,0.537055,0.364301
-0.148660,-0.233769,0.710283,-0.583627,0.240410,-0.775618
-0.350019,0.456190,0.597220,-0.739817,-0.672644,0.014845
-0.306777,-0.538374,0.647661,-0.318725,0.278310,0.906067
-0.318965,0.144538,-0.003614,0.280337,-0.289411,0.915234
0.489178,-0.176612,-0.728418,0.851025,-0.497729,-0.167400
0.176194,-0.048677,0.914992,0.457302,0.687260,-0.564402
0.388522,-0.141133,-0.408422,0.662791,-0.729806,0.167603
0.165948,0.163173,0.929791,-0.128915,0.976750,-0.171287
0.112370,0.082661,0.461034,-0.252310,-0.966023,-0.056021
-0.308718,-0.217464,0.577075,-0.182264,0.806405,0.562575
-0.011577,-0.249537,0.583192,0.437878,-0.018784,-0.898838
-0.545148,-0.273667,-0.107117,-0.642703,0.276846,0.714345
-0.320047,-0.021980,0.428226,0.024059,0.224515,0.974173
0.077975,0.048080,0.704955,-0.903316,0.396817,-0.162963
0.246067,-0.117302,0.109682,0.350577,0.934558,-0.060803
0.148706,0.071074,0.795901,-0.608295,0.529318,-0.591439
-0.413618,-0.224571,0.585111,0.083155,0.852625,0.515865
-0.477804,-0.483605,0.653975,-0.441541,0.774729,0.452589
-0.530072,0.234964,0.665276,0.692652,0.200552,0.692829
-0.200569,0.199008,0.556034,-0.465494,-0.870959,0.157306
-0.439617,-0.332079,0.717637,0.087328,0.667384,0.739575
0.200659,-0.028012,0.926006,0.007649,-0.980448,0.196631
0.215148,0.572358,0.641401,-0.469048,0.308972,-0.827363
0.328850,-0.135758,-0.196897,-0.162344,0.985833,0.042167
-0.354172,-0.258257,0.708776,0.563153,-0.615605,0.551261
-0.645309,0.301260,0.366608,-0.828283,0.108106,0.549783
-0.464488,-0.037389,0.600359,-0.444732,-0.217845,0.868768
-0.431989,0.443707,0.641204,-0.737368,0.047511,-0.673818
-0.128349,0.382189,0.521449,-0.271380,-0.433899,-0.859118
0.074906,-0.074956,0.573900,-0.406290,0.506595,0.760454
-0.667652,0.352864,0.711144,-0.556466,0.650293,-0.517170
0.155161,0.449442,0.626620,0.965059,0.256006,-0.055879
-0.595387,0.343487,0.690838,0.790268,-0.336406,0.512159
0.415875,0.019052,-0.995175,0.352687,-0.461015,-0.814295
0.150737,0.012543,0.780295,-0.298424,-0.950591,0.085561
0.122345,0.138923,0.810108,0.996237,0.076518,-0.040704
0.023720,-0.156364,0.671949,-0.557545,0.766269,-0.319336
0.157192,0.501403,0.652218,0.205112,0.364395,-0.908375
-0.678485,-0.175595,0.450289,-0.459538,0.875812,-0.147572
0.201201,-0.289135,0.051922,0.943119,-0.259156,-0.208240
0.468144,-0.200621,-0.823203,0.941723,-0.336388,-0.001195
-0.350425,-0.309622,0.699951,-0.490018,0.391859,-0.778671
0.157507,0.623125,0.502022,0.913005,0.111309,0.392470
0.396511,-0.156902,-0.254155,-0.137454,-0.989530,-0.044019
0.497935,-0.441915,-0.970492,-0.054407,0.085746,0.994830
-0.287323,0.482350,0.599605,-0.645937,-0.044963,-0.762066
-0.477352,0.446694,0.642208,0.860572,-0.508366,-0.031296
0.047056,0.370901,0.570653,0.603797,-0.589276,-0.536826
-0.449141,0.170817,0.629149,0.761826,0.217305,0.610246
-0.452120,-0.182106,0.613543,0.746847,-0.468703,-0.471738
-0.180528,-0.108164,0.721422,0.130314,0.080891,-0.988167
-0.047823,0.064146,0.876604,0.854078,0.414804,-0.313828
-0.608476,0.124948,0.403381,0.751252,-0.627765,-0.203794
-0.190909,-0.298513,0.727880,-0.320300,-0.217871,-0.921922
-0.616150,-0.731589,-0.260577,-0.650067,0.759682,-0.017185
-0.694644,-0.097952,0.422611,-0.623790,0.320475,0.712869
-0.458665,0.072508,0.651626,0.889876,0.176810,0.420547
-0.185764,-0.374186,-0.270335,0.250088,-0.844386,0.473781
0.392178,-0.117601,-0.084515,0.942096,-0.335021,0.014680
0.288813,-0.155169,-0.043832,0.734962,-0.638575,0.228148
-0.532871,0.278325,0.622566,-0.427971,0.784216,0.449273
-0.295267,0.366302,0.590385,-0.312094,-0.627217,0.713580
-0.074996,0.152900,0.799955,-0.043139,-0.306878,0.950771
-0.165587,0.104521,-0.075690,0.763605,-0.601917,0.233674
-0.230721,-0.410918,0.646944,0.835478,-0.094062,-0.541414
-0.497845,0.422266,0.650818,0.390306,-0.839770,-0.377422
0.074454,0.201517,0.574959,0.960364,0.210678,-0.182527
-0.360762,0.395449,0.590941,-0.261854,-0.862401,0.433241
-0.270938,0.383145,0.538670,0.546362,0.619748,-0.563384
0.213929,0.004480,0.150653,0.730848,0.604264,-0.317374
-0.378320,-0.080212,0.562796,-0.047670,0.169959,0.984297
0.039970,-0.051365,0.369550,0.321011,-0.850943,0.415749
0.057708,0.913157,0.510579,-0.557169,-0.643819,0.524461
-0.494143,0.289972,0.635840,0.477438,0.598577,0.643241
-0.203774,0.011109,0.739199,0.956944,0.276286,-0.089015
-0.681735,-0.131219,0.431490,-0.243837,0.592850,0.767510
-0.185131,0.314639,0.544482,0.313688,0.333639,0.888980
0.333408,-0.164069,-0.326104,-0.642759,-0.764707,-0.045656
-0.454242,0.150272,0.644845,0.909321,-0.086529,0.406999
-0.193257,-0.204922,0.665079,0.243030,-0.910471,0.334632
-0.193166,0.079496,-0.093215,0.839456,-0.542431,0.032884
0.303031,-0.168548,0.063420,0.554300,-0.467192,-0.688828
-0.397504,0.497282,0.626961,-0.244113,0.751416,-0.613012
0.263716,-0.050887,-0.087762,0.013684,-0.032883,0.999366
0.230179,-0.214896,0.222584,0.992769,-0.022763,0.117860
-0.482497,0.227379,0.638226,0.153458,0.981801,0.111881
-0.530705,-0.166577,0.729961,-0.260487,0.860722,-0.437383
0.126543,0.187421,0.804547,0.017797,0.733027,0.679967
0.191947,-0.003942,0.564913,-0.503829,0.455555,0.733911
0.531969,-0.363257,-0.970187,-0.145321,0.169030,0.974839
-0.610147,0.274622,0.362967,-0.174620,0.138428,0.974857
-0.492609,-0.550080,0.690605,-0.410356,0.790126,0.455312
-0.773906,-0.208147,0.453626,-0.342184,0.611269,0.713625
-0.107766,0.160366,0.530400,0.239575,-0.459263,0.855384
0.145411,-0.019411,0.913252,0.645345,0.711658,-0.277620
0.525108,-0.124590,-0.967048,0.240955,0.745012,0.622011
-0.000429,-0.200502,0.509556,-0.717665,0.517839,-0.465617
-0.206256,-0.578032,-0.322858,-0.806579,0.357292,-0.470927
-0.389740,-0.515558,0.694856,0.962037,-0.268254,0.050246
0.366855,0.736427,0.523082,-0.133765,-0.358340,0.923959
0.449728,-0.324613,-0.979264,0.244340,0.044726,-0.968658
0.127671,0.228155,0.572555,-0.019786,-0.263234,0.964529
0.007605,-0.223735,0.893233,0.973043,-0.167724,0.158292
-0.427926,0.604730,0.638585,-0.547331,0.380013,-0.745666
-0.582748,0.233471,0.679968,0.895925,-0.046539,0.441760
-0.484303,0.384698,0.635661,0.902538,0.086689,0.421794
-0.424767,-0.361763,0.692058,0.268661,-0.819350,0.506446
-0.373716,-0.134922,0.696650,-0.072092,-0.400639,0.913395
0.325239,0.000776,-0.086632,0.260061,0.281177,-0.923747
-0.128665,-0.171953,0.550347,0.019062,0.778970,0.626772
-0.447380,-0.039897,0.701045,0.154518,0.162600,0.974518
0.013067,-0.177328,0.866882,-0.790807,-0.163869,0.589721
-0.461012,0.522606,0.537683,0.239484,0.903732,0.354847
-0.607303,-0.613331,0.549953,0.158781,0.192055,-0.968454
-0.003543,0.187004,0.551119,-0.358834,-0.663866,0.656140
-0.014692,-0.166279,0.672362,0.736857,-0.410214,0.537370
0.072513,-0.199487,0.371272,-0.015713,0.016270,0.999744
0.128394,0.447232,0.536015,-0.444751,-0.156548,0.881867
0.035862,0.096757,0.518436,-0.079489,-0.968556,0.235758
0.141529,-0.149077,0.355558,-0.317376,0.109126,-0.942000
-0.274955,-0.486173,0.650639,0.160489,0.052809,0.985624
0.099100,-0.097653,0.366465,0.290329,0.085095,0.953136
0.151459,0.480738,0.646639,0.285435,0.623908,-0.727506
0.312690,-0.144120,-0.057895,0.853219,0.458023,0.249464
0.296893,0.383623,0.660074,-0.340143,0.408133,0.847189
-0.013383,0.104820,0.987354,-0.578618,0.646077,-0.497781
-0.222235,-0.312847,0.728633,0.147401,0.278245,0.949133
-0.104290,0.218539,0.531154,0.091904,-0.279623,0.955701
-0.260015,-0.253838,0.749298,0.263232,0.351790,0.898306
-0.591595,0.205101,0.683484,0.688219,-0.584675,-0.429547
-0.456092,-0.549125,0.776115,0.833529,0.375238,0.405494
0.486876,-0.168250,-0.841446,0.940280,-0.282695,0.189626
-0.501094,-0.389177,0.796726,0.616685,-0.643301,0.453721
0.547722,-0.203428,-0.973165,-0.000151,-0.152546,0.988296
0.132050,0.556949,0.641616,0.792671,0.607832,-0.047036
-0.437812,0.117721,0.636737,0.968745,-0.066966,0.238848
-0.025029,0.170937,0.520893,0.135763,0.960853,-0.241514
0.004401,-0.197635,0.865142,0.568500,-0.195331,-0.799158
-0.594123,0.279639,0.681941,0.805374,0.348955,0.479169
0.382699,-0.197456,-0.427059,-0.356662,0.932833,-0.051131
-0.338960,0.204682,0.604879,-0.223299,0.972743,-0.062526
0.389560,0.746998,0.523584,-0.167660,-0.311336,0.935393
0.149428,0.156005,0.919978,-0.509107,0.836096,0.204339
0.131238,0.585857,0.531243,0.148275,0.114305,0.982318
0.159449,0.365347,0.751379,0.578944,-0.359418,-0.731876
0.008599,-0.215373,0.871761,0.809706,-0.203046,-0.550590
0.494504,-0.027713,-0.988537,-0.058521,0.165120,0.984536
-0.020424,0.352445,0.531064,0.716043,-0.532467,0.451400
0.110158,0.412052,0.534580,-0.699787,0.365453,0.613793
-0.454648,-0.013379,0.599874,0.258127,-0.261636,0.930009
-0.021057,0.953174,0.501197,0.341736,0.475083,-0.810872
-0.265566,-0.393298,0.651913,-0.345262,-0.169654,0.923045
0.142116,0.059966,0.854433,0.915415,0.323930,-0.238924
-0.484619,-0.489040,0.813983,0.787976,0.611998,-0.067466
0.327947,-0.222600,-0.988430,-0.179512,0.143422,0.973245
-0.509941,-0.366721,0.796170,0.842388,-0.484316,0.236266
0.058385,0.267694,0.568662,0.631506,0.203666,0.748145
-0.513282,-0.278982,0.620521,0.497845,0.267154,-0.825094
-0.383782,-0.199426,0.617059,0.111670,-0.989077,0.096216
0.163466,0.066356,0.870954,-0.387024,0.563665,-0.729722
-0.088312,-0.104163,0.951639,0.503582,-0.851109,-0.148384
-0.411677,0.188616,0.620557,0.805433,-0.119553,0.580504
-0.033741,0.232456,0.533306,-0.462502,-0.657377,0.594935
0.091743,0.408111,0.540984,0.880060,0.124133,0.458351
-0.325555,0.400884,0.587049,-0.029830,-0.831288,0.555041
-0.043264,-0.312728,0.917916,0.938505,-0.255359,0.232381
-0.213749,-0.126740,0.569093,-0.462291,-0.879758,0.110964
0.413257,-0.004181,-0.991605,-0.293679,0.220382,0.930153
0.006026,0.575524,0.489789,0.864855,-0.037103,-0.500649
-0.723713,0.024965,0.411974,0.148198,0.607738,0.780187
0.105374,-0.074240,0.615373,-0.478929,-0.856786,-0.191164
0.128394,0.068028,0.828961,0.926378,-0.073069,-0.369439
0.173757,0.268829,0.658729,0.131971,0.632476,0.763255
-0.222235,0.675924,0.534544,-0.089102,-0.353115,0.931327
0.399310,0.294571,0.652522,-0.271904,0.475026,0.836910
-0.309486,0.397599,0.546903,-0.594817,0.496510,0.632195
-0.205940,0.548766,0.533019,0.019510,0.069249,0.997409
0.099054,0.015349,0.916498,0.750866,0.657574,-0.061625
-0.008057,0.667204,0.485573,-0.066599,0.087418,0.993943
-0.069579,0.597085,0.528607,0.202865,0.046246,0.978114
-0.212846,-0.265245,0.676506,-0.596541,0.385019,-0.704201
-0.316798,-0.321926,-0.264182,-0.242155,0.710352,0.660879
0.536257,-0.023652,-0.986259,-0.090123,0.151553,0.984332
0.247512,0.608792,0.520265,-0.216163,-0.134918,0.966991
-0.423864,-0.585260,0.782340,0.852383,0.448436,0.268977
0.193121,0.190169,0.563281,-0.417680,0.678706,0.604071
-0.012751,-0.102312,0.729782,-0.169257,-0.033035,-0.985018
0.268275,0.473093,0.485663,-0.061454,-0.505318,0.860742
-0.531743,0.149435,0.721745,-0.169983,0.820021,0.546508
0.086777,-0.136177,0.363308,-0.573133,0.091779,-0.814307
0.538062,-0.377710,-0.971299,-0.148902,0.185610,0.971276
-0.005574,-0.108702,0.539585,-0.487452,0.411574,-0.770063
-0.622470,0.177506,0.702910,-0.541557,0.760253,0.358791
0.143244,0.278863,0.655769,0.118861,0.434927,0.892586
-0.294500,-0.163591,0.688632,-0.302248,-0.918280,0.255750
0.181521,0.150690,0.935262,0.253156,-0.837069,0.485002
0.165452,0.087201,0.802036,-0.626405,0.245939,-0.739682
0.122120,0.204205,0.896910,0.886864,0.377226,0.266784
0.307319,0.881860,0.518812,-0.006289,0.405525,0.914062
0.310885,-0.044616,0.058451,0.840920,-0.513862,-0.169706
0.411768,0.008242,-0.995264,-0.260977,0.308603,0.914689
-0.629556,0.301141,0.705834,-0.397205,0.174876,-0.900914
0.076892,0.242310,0.645885,-0.763273,-0.610499,-0.211434
-0.117154,-0.178044,0.551155,0.067404,0.842535,0.534408
-0.207972,-0.583288,0.653401,-0.009555,0.297063,0.954810
-0.168024,-0.295228,-0.348078,-0.714949,-0.631402,-0.300300
0.107676,0.444364,0.537719,-0.631577,0.257242,0.731394
-0.279108,-0.152661,0.708166,-0.407492,-0.189210,0.893392
0.087635,0.093114,0.456873,-0.064992,-0.993978,-0.088230
-0.664853,-0.131817,0.456873,-0.577070,0.808722,-0.113835
0.000203,0.230544,0.554419,-0.643818,0.062151,0.762650
-0.243223,-0.202055,0.682156,-0.232096,-0.645293,0.727825
0.538740,0.047004,-0.989614,0.191002,-0.176792,-0.965538
-0.031122,0.036015,0.793551,-0.048223,-0.459128,0.887060
-0.232797,-0.265365,0.582098,-0.299733,0.924794,0.234343
-0.408969,0.145314,0.018055,0.063006,-0.116578,0.991181
-0.224717,-0.062832,-0.043957,-0.688803,0.698335,-0.194623
-0.098061,-0.099206,0.968806,0.644751,-0.331078,0.688973
-0.179761,-0.165383,0.562725,0.126917,0.961562,0.243498
0.207655,-0.269306,0.028799,0.286876,0.923228,0.255642
0.500282,-0.345995,-0.975138,-0.025696,0.068362,0.997330
0.524250,0.081288,-0.993560,0.007854,0.209957,0.977679
0.356700,-0.127098,-0.134185,0.119154,0.992778,-0.013922
0.284750,-0.202354,0.094776,0.902613,-0.174693,0.393411
-0.585637,0.130503,0.378842,-0.332781,0.637294,0.695064
0.520684,-0.311533,-0.977039,0.009038,0.142405,0.989767
0.136654,-0.003524,0.943603,-0.619263,0.645765,0.446656
-0.574533,-0.745565,-0.243877,-0.567006,0.494879,0.658483
0.404906,-0.264469,-0.983425,-0.083326,0.187198,0.978782
0.083031,0.399151,0.571927,0.575928,0.414433,-0.704665
0.146900,-0.084752,0.558061,0.939102,0.303915,0.160387
0.120856,-0.043182,0.542186,0.272689,0.865856,-0.419444
-0.610869,-0.274025,-0.124660,-0.502014,0.646879,-0.574047
-0.533955,0.366481,0.381551,0.007068,-0.190645,0.981634
0.410504,-0.185809,-0.489825,0.318788,0.933649,-0.163321
-0.323072,-0.459953,-0.249868,-0.186071,0.087184,-0.978661
-0.355797,-0.252046,0.711826,-0.787347,0.272268,-0.553132
-0.402604,-0.466165,0.725189,0.953893,0.026468,0.298977
0.174434,0.396464,0.629293,-0.045266,-0.746749,0.663564
0.297298,-0.135698,0.021696,0.954888,-0.019189,0.296344
-0.661559,-0.034402,0.425248,-0.273729,0.215515,0.937350
-0.388612,-0.072627,0.521916,0.291915,-0.262182,-0.919808
0.382247,-0.111688,-0.983892,-0.258914,0.131830,0.956862
0.069083,0.118259,0.559568,-0.630405,-0.342789,0.696481
-0.119231,0.039778,0.935315,-0.209085,0.479082,-0.852504
-0.365772,-0.125724,0.545791,0.295592,-0.155207,-0.942622
0.186395,0.402616,0.641347,-0.069716,-0.897535,0.435396
-0.062719,-0.036254,0.955137,-0.712406,0.698521,0.067426
0.263626,0.349937,0.656881,-0.284607,0.404854,0.868961
0.061365,0.117900,0.482237,-0.255680,-0.955108,0.149657
-0.472297,0.123454,0.640109,0.896174,-0.349998,0.272714
-0.475547,0.062773,0.615983,-0.571955,0.743624,0.346253
-0.202600,0.214777,0.565164,-0.464002,-0.882111,0.081135
-0.246789,0.094487,-0.024369,0.597714,0.031722,0.801081
-0.237852,0.108941,0.776976,0.472414,0.720564,-0.507556
-0.070933,-0.144538,0.542975,0.043617,0.286619,0.957051
0.088583,0.370602,0.550383,0.908183,0.125302,0.399378
-0.044619,0.197754,0.559065,-0.427202,0.142246,0.892897
-0.653930,-0.157140,0.444424,0.294003,-0.775686,-0.558456
-0.623914,0.083318,0.396547,-0.650660,0.615436,0.444838
-0.047462,-0.036911,0.969398,0.561174,-0.822274,-0.094595
0.409736,-0.391327,-0.977111,-0.331876,0.165535,0.928685
-0.353179,0.447590,0.582062,-0.477415,-0.765602,0.431194
-0.484845,-0.148062,0.724813,0.530569,-0.643717,0.551475
0.014918,-0.047124,0.872048,0.847331,-0.097901,0.521963
-0.458214,-0.490952,0.668972,-0.509637,0.633106,0.582620
0.326593,0.280953,0.643249,-0.494913,0.043599,-0.867848
0.039789,-0.131936,0.729459,-0.197634,0.639713,0.742770
-0.000835,-0.266022,0.866738,0.704192,-0.265214,-0.658616
-0.152542,-0.130442,0.716866,0.400276,0.767529,-0.500679
0.212304,-0.051723,0.504121,0.926353,-0.356946,0.120249
-0.527816,-0.319238,-0.091511,-0.530582,0.234827,0.814457
-0.387122,0.070178,0.014646,0.007801,0.312839,0.949774
-0.311517,-0.127396,0.543585,-0.157554,0.839205,0.520491
0.144147,0.011647,0.930544,0.408500,0.803461,-0.433102
0.049945,-0.192916,0.499439,-0.548078,0.831811,-0.087758
-0.497664,-0.031476,0.471474,0.730386,0.658303,-0.182138
0.533729,-0.148360,-0.964859,-0.790335,0.611946,0.029865
-0.482679,-0.157319,0.723162,0.544710,-0.641547,0.540101
0.258119,-0.003703,0.753388,0.418707,-0.628115,0.655862
-0.024171,0.101953,0.517359,-0.324199,0.902185,0.284531
-0.050938,-0.360270,0.584681,0.308844,0.225232,-0.924059
-0.379268,0.599235,0.647823,0.564626,0.263061,-0.782302
-0.618362,-0.365884,0.581542,0.453474,-0.506829,-0.733134
-0.551333,0.273189,0.626458,0.162134,-0.985593,0.048156
-0.027963,-0.206833,0.574115,-0.456237,0.252279,0.853348
-0.257081,0.003703,0.689834,-0.612099,0.375691,0.695838
-0.289444,-0.489399,0.645598,-0.314763,0.098941,-0.943999
-0.047417,-0.246730,0.964752,0.990583,0.006043,0.136778
0.023720,-0.006391,0.898704,-0.720444,0.628066,-0.294098
-0.451353,-0.420414,0.564142,0.036566,0.365456,0.930110
-0.421472,-0.048677,0.541396,-0.686102,0.726921,0.029149
0.207520,0.384698,0.530956,0.293040,0.878087,0.378273
-0.040060,-0.215672,0.550599,0.858945,0.199902,0.471436
0.238258,-0.120408,0.257150,0.891690,-0.413521,0.184089
-0.740143,-0.077286,0.412799,-0.163360,-0.261768,0.951205
-0.119095,0.294810,0.538885,-0.116834,0.050050,0.991890
0.098739,-0.023771,0.574492,0.163313,-0.678501,0.716215
-0.081767,-0.409724,0.607211,0.885742,0.148803,-0.439680
-0.402514,-0.244938,0.588179,0.017225,-0.301284,0.953379
-0.733101,-0.228931,0.460855,0.123810,0.516709,0.847162
-0.498657,-0.386490,0.795004,0.451258,-0.651064,0.610313
-0.052292,-0.365944,0.624073,-0.569375,0.789823,-0.228019
-0.426166,0.626053,0.669743,0.391461,-0.753761,0.527828
0.117922,0.063788,-0.102794,-0.351989,-0.848409,-0.395355
-0.162021,-0.059070,0.725351,-0.632351,-0.506316,0.586325
-0.659618,-0.449919,0.581865,0.356564,-0.329222,0.874343
-0.426798,-0.709550,0.660971,-0.618125,0.163007,-0.768993
-0.594664,-0.336140,-0.139621,0.509546,0.746976,-0.427071
-0.161705,0.254793,0.544912,0.105742,-0.260552,0.959652
-0.655826,0.358717,0.719790,0.413458,-0.600940,0.684049
-0.071656,-0.113122,0.723647,-0.188524,0.979410,0.072212
-0.053149,0.790121,0.491762,0.341566,-0.070315,0.937224
0.072469,0.096040,0.516355,0.490213,0.812846,-0.314598
-0.708863,0.018037,0.413731,0.303870,0.510255,0.804552
-0.304566,-0.573434,0.647356,0.340604,-0.020646,0.939980
-0.012074,0.017560,0.878398,0.795760,0.512583,-0.322529
-0.591460,-0.274682,0.563478,0.041531,0.999087,0.010043
0.043941,0.022457,0.717081,0.621923,-0.417853,-0.662276
-0.444131,-0.236218,0.576268,-0.302021,-0.902127,-0.308141
0.085423,-0.028549,0.806108,-0.342325,0.925013,0.164818
0.103704,0.036612,0.922400,0.748919,0.600927,-0.279297
0.085874,0.385713,0.532248,0.904456,0.209769,-0.371425
-0.389604,0.492504,0.611265,-0.059994,-0.734073,0.676416
0.442687,-0.332975,-0.973452,-0.191726,-0.004908,0.981436
-0.460020,0.084752,0.626297,-0.687700,0.703718,-0.178467
0.048365,0.341516,0.531405,-0.084570,-0.891331,0.445394
0.003092,-0.062176,0.378501,-0.330165,0.513465,-0.792051
0.002822,0.734695,0.479134,0.114918,0.295072,0.948539
-0.300819,-0.111868,0.432746,-0.414198,-0.100765,-0.904592
0.496807,-0.177029,-0.925485,-0.610605,0.791088,0.036628
0.183462,0.270382,0.652989,0.089648,0.849222,0.520370
-0.410909,0.019889,0.534975,0.671115,0.733692,-0.106305
0.067232,0.279997,0.570546,-0.628420,0.137549,-0.765616
0.342752,-0.206354,-0.070434,0.987555,0.137837,-0.075736
0.455776,0.358956,0.653814,0.268528,-0.379964,-0.885167
0.270442,-0.090784,0.234531,0.990330,0.050542,0.129199
0.122977,-0.082960,0.615624,0.216860,-0.975449,0.038359
-0.554267,0.375799,0.383363,-0.117322,0.000396,0.993094
0.215103,0.032192,0.793085,0.567609,-0.786699,0.242745
-0.502584,0.317625,0.621938,-0.624157,0.044273,-0.780043
0.580898,-0.217941,-0.975891,0.127134,-0.082568,0.988443
0.355390,-0.117422,-0.278264,0.960558,0.102721,0.258411
-0.600262,-0.179180,0.734714,-0.431779,0.660981,-0.613735
-0.625132,0.031118,0.033194,-0.288038,-0.000600,-0.957619
0.237717,0.127337,0.900713,0.518101,0.332650,-0.787982
-0.011668,0.656752,0.485035,0.042042,-0.338690,-0.939958
-0.192263,-0.450815,-0.304650,0.649949,-0.279204,0.706832
0.604460,-0.316610,-0.972322,-0.094310,0.054141,0.994070
-0.383647,-0.432240,0.710408,0.901602,-0.110643,0.418178
-0.207520,-0.528818,-0.304507,0.648266,-0.294775,0.702039
0.583019,-0.096996,-0.980950,-0.504743,0.115886,0.855456
-0.575436,0.011228,0.427795,-0.482907,0.037061,0.874887
-0.697127,-0.083079,0.426737,-0.621652,0.316755,0.716391
-0.093818,0.446156,0.536033,0.266109,0.911501,-0.313611
-0.371504,0.552410,0.627320,0.212410,-0.186936,0.959133
0.252929,-0.059846,0.379811,0.242464,0.964391,-0.105644
0.518969,-0.250374,-0.975819,0.013329,-0.041089,0.999067
0.426798,0.414740,0.627732,0.289928,-0.554994,-0.779694
0.227245,0.438154,0.644773,0.502647,0.029613,0.863984
0.155115,0.285194,0.757747,0.955166,-0.215895,-0.202603
-0.172132,-0.282446,0.604233,0.740283,-0.625191,0.247218
-0.698436,-0.440184,0.573775,0.983625,0.088135,-0.157206
0.120721,0.175775,0.582510,0.560460,0.537276,-0.630253
0.084204,0.093711,0.466308,-0.249774,-0.967879,0.028705
-0.655691,-0.604073,0.541414,-0.043053,-0.150604,0.987656
0.427746,-0.254315,-0.979551,-0.286603,0.026114,0.957694
0.150601,0.728544,0.508857,0.002948,-0.341048,0.940041
-0.294049,0.376515,0.562043,-0.345601,-0.812037,-0.470272
0.634566,0.407992,0.403955,0.225930,-0.150163,0.962500
0.218940,-0.199845,0.075259,0.883983,-0.443710,0.147296
0.132321,0.269128,0.530365,-0.798465,-0.366824,0.477383
0.231759,0.373231,0.647984,0.085069,0.332977,0.939090
0.331738,-0.290449,-0.060675,-0.302926,-0.194807,-0.932891
-0.790290,-0.125903,0.415597,-0.321443,0.550601,0.770398
-0.203728,-0.129368,0.525432,0.146068,0.845574,0.513487
0.219391,0.261303,0.655572,-0.070359,0.409615,0.909541
0.175563,0.120110,0.896462,0.475008,0.768904,-0.427965
-0.611817,0.342292,0.697583,0.821114,0.027862,0.570084
-0.446117,0.059906,0.533683,0.654016,0.743895,0.137415
0.140672,-0.058651,0.571550,0.719795,0.561788,0.407786
-0.364283,-0.099863,0.712113,0.303273,0.488397,-0.818226
0.159177,-0.031058,0.537360,0.928526,-0.104646,0.356214
0.267959,-0.124828,0.055312,0.921962,-0.336766,-0.191246
-0.600803,-0.349638,0.580681,0.087435,0.067055,0.993911
-0.066645,-0.114794,0.962420,-0.675425,-0.109480,-0.729256
0.194159,0.419638,0.502776,0.628640,-0.768436,-0.119654
0.165768,0.603953,0.507386,-0.711006,-0.503806,-0.490560
-0.221107,0.096936,0.779380,0.472414,0.720564,-0.507556
-0.164910,-0.124231,0.530562,-0.205147,0.847124,0.490199
0.119231,0.064027,0.812386,0.984684,-0.069877,0.159730
0.616737,-0.280715,-0.972393,-0.163013,0.065221,0.984466
-0.196009,0.287821,0.538688,-0.015156,-0.078822,0.996773
0.593446,-0.308368,-0.971514,-0.128970,-0.000040,0.991648
-0.374754,-0.088395,0.596466,0.383222,0.876576,0.291128
-0.702634,0.070536,0.399991,-0.007079,0.618232,0.785964
-0.141438,0.188377,-0.075169,0.306533,-0.797256,0.520019
-0.168431,-0.252404,0.586188,-0.317858,0.902862,-0.289494
-0.410278,0.069820,0.418306,0.221696,0.519539,0.825185
0.116523,0.005793,0.928642,0.571625,0.739662,-0.355169
-0.613351,0.089769,0.411166,-0.627412,0.392360,0.672613
0.044122,0.040673,0.885071,0.229521,0.970277,0.076698
0.353495,-0.191244,-0.361550,0.660439,-0.750819,-0.009550
0.138369,0.194589,0.941145,0.442276,0.844020,0.303353
-0.029091,-0.092815,0.703825,-0.395963,0.891918,-0.218394
0.225169,0.439646,0.644630,0.774768,0.137596,0.617092
-0.469995,-0.525175,0.633006,-0.543136,0.823345,-0.164639
-0.397323,-0.165144,0.663895,0.510616,0.854388,-0.096402
-0.464352,-0.550798,0.668990,0.066106,0.927227,0.368619
-0.535580,-0.878277,-0.284058,-0.270438,0.039937,0.961909
-0.067412,0.571283,0.490488,0.146111,0.755392,0.638776
0.423277,-0.011647,-0.989686,0.106566,0.067122,0.992037
-0.465210,0.077286,0.619696,-0.146827,0.173277,0.973867
-0.528854,0.298931,0.641831,0.489481,0.558368,0.669801
0.163556,-0.135639,0.345818,-0.554208,0.095994,-0.826825
-0.219030,-0.176193,0.703754,0.482745,0.596001,-0.641670
-0.048500,0.415995,0.513413,0.261940,0.070925,-0.962474
-0.454738,-0.329809,0.726624,0.190340,0.827993,0.527445
-0.317926,-0.204204,0.554132,-0.103379,0.864659,0.491607
0.441062,-0.116944,-0.743235,0.894507,-0.037934,-0.445442
-0.053646,0.545003,0.519512,-0.516622,-0.243809,-0.820768
-0.503081,0.418145,0.638997,-0.450441,0.773789,-0.445368
0.295629,0.451114,0.638513,0.182626,0.227022,0.956613
-0.642059,-0.258914,0.538060,0.439689,-0.113444,-0.890957
-0.592995,-0.323598,-0.140553,0.559467,0.652004,-0.511749
0.441107,-0.056501,-0.988394,-0.169972,0.401244,0.900063
0.633618,-0.247387,-0.969864,0.326422,-0.076298,-0.942140
0.043581,0.083259,0.968931,0.039022,-0.780178,0.624339
-0.042181,0.511199,0.544213,0.809852,0.528062,0.255521
-0.408653,-0.126620,0.610494,0.239212,0.766942,0.595464
-0.006928,0.015827,0.944159,-0.645623,0.761106,0.062357
0.005394,-0.164845,0.658245,0.693240,-0.617478,0.371671
-0.853348,-0.303410,0.500767,0.398596,0.892803,0.209820
-0.522399,-0.126441,0.449482,0.313965,-0.262588,-0.912400
-0.480241,0.169026,0.630656,-0.674396,0.060991,-0.735846
-0.505112,0.358837,0.610799,0.794261,-0.607375,0.015644
-0.179805,0.077466,0.793444,-0.519974,-0.039804,0.853254
0.184861,0.742699,0.515924,-0.440012,-0.259199,0.859770
-0.725473,-0.047722,0.426162,-0.339406,-0.079105,0.937308
-0.528222,-0.416353,0.810395,-0.712823,0.635471,-0.296749
0.599449,-0.146569,-0.977344,-0.007046,0.092196,0.995716
0.333544,-0.218300,-0.992287,-0.108149,0.129173,0.985707
-0.394615,-0.301678,0.584125,-0.132369,-0.522195,0.842491
0.124828,0.900496,0.527046,0.096772,-0.047872,0.994155
0.131147,0.033626,0.931046,0.546046,0.826482,-0.136975
0.018665,0.097593,0.969093,-0.240822,0.626412,-0.741359
0.024532,-0.089829,0.676434,0.654048,-0.560315,0.508201
