0.352023,0.185226,0.284458,-0.620975,0.580082,0.527158
-0.041477,0.149873,-0.820854,0.204003,-0.791368,-0.576298
0.238879,0.461921,0.473661,-0.670007,0.725752,-0.156124
0.430713,-0.535675,0.236926,-0.587437,-0.809264,0.003038
0.094839,0.656073,0.723679,0.089142,0.054870,0.994506
-0.448468,-0.244292,0.381882,0.066752,0.306063,0.949668
0.216411,0.704006,0.380430,0.866978,0.375482,0.327662
-0.204524,0.210618,0.841688,0.137528,0.878454,0.457607
-0.050203,0.340352,0.656120,0.659626,0.242538,-0.711385
0.289583,-0.264488,-0.983096,0.209923,-0.050024,-0.976437
-0.059080,0.148349,0.546909,0.603724,0.444907,-0.661495
0.146096,0.441100,0.534564,-0.597025,0.288700,0.748474
0.661267,-0.408754,0.238890,0.882757,-0.452007,0.128181
0.264857,-0.660371,-0.963537,-0.005752,0.280657,0.959791
0.519183,0.005840,0.681821,-0.805171,-0.154198,-0.572645
0.422840,0.315311,0.346592,0.970446,0.125702,0.205995
0.509353,-0.219290,0.293885,-0.743673,0.616840,-0.257796
0.501579,-0.171006,0.576920,-0.016555,-0.619862,0.784536
0.299864,0.322655,0.828229,-0.049179,0.515278,0.855611
0.635137,-0.069125,0.618837,-0.606272,0.339865,0.718976
-0.012738,0.097955,0.669066,0.880711,0.426798,-0.205407
0.521941,-0.731898,0.205727,0.380476,0.027946,0.924368
0.142836,0.504189,0.849268,-0.326198,-0.513462,0.793695
0.773459,0.020802,0.334892,-0.165404,-0.960207,0.225041
0.250664,-0.374964,0.125940,0.848728,-0.037433,-0.527503
0.247605,-0.016974,0.896008,0.798606,0.594908,-0.091178
0.203921,-0.477586,0.444558,0.162462,0.973413,0.161471
0.232910,0.456022,0.544050,0.621029,0.621273,-0.477853
0.664878,-0.549036,-0.262568,0.650623,0.226569,-0.724815
0.313256,0.786706,0.501737,0.480268,0.832141,-0.277278
-0.064647,-0.494853,-0.975399,-0.165832,-0.034988,0.985533
0.379809,0.534972,0.286408,-0.430394,0.381364,0.818121
0.104719,-0.057054,0.905156,-0.479027,0.285658,0.830019
0.301469,0.581773,0.236119,-0.209538,-0.960468,0.183288
-0.328302,0.344023,0.795901,0.249489,0.029403,-0.967931
0.381062,0.375705,0.312695,0.322587,0.728042,0.604891
-0.423090,-0.241909,-0.995924,-0.008103,0.110997,0.993788
0.564270,0.337304,0.345434,0.726635,0.601083,0.332717
0.421536,0.247339,0.868855,0.413017,0.422789,-0.806639
-0.227093,0.569857,0.441773,0.920497,0.290546,-0.261281
0.261949,0.619040,0.234067,-0.165800,-0.756536,-0.632585
0.585335,0.066938,0.636562,-0.646278,-0.354961,0.675520
-0.276092,-0.115338,-0.151158,0.525884,0.816685,-0.237637
-0.180099,-0.146200,-0.148181,0.631353,0.763651,-0.135023
0.348562,-0.032053,0.761520,0.756524,0.364187,0.543176
0.246250,0.487431,0.803114,0.370005,-0.308833,0.876195
-0.786248,0.736898,0.176683,-0.161354,0.892608,0.420970
0.078288,0.310897,0.962174,0.998878,0.018286,0.043689
-0.128944,0.557200,0.669418,0.183113,-0.376624,0.908088
-0.346407,0.089673,-0.167871,-0.592034,0.206916,0.778898
-0.566879,-0.753071,0.256308,0.928091,-0.125983,0.350393
-0.173579,-0.265465,0.662454,-0.081699,-0.310798,0.946958
0.628818,0.430943,0.306186,0.598185,0.388365,0.700961
0.406690,-0.470711,-0.690531,-0.425125,0.299395,0.854185
0.604193,-0.541847,0.252481,0.398538,0.198744,-0.895359
0.869501,0.251753,0.275866,0.895269,0.130215,0.426071
0.179697,0.727171,0.575879,0.227029,-0.000947,0.973887
0.022317,-0.283669,0.113947,-0.137598,0.815044,0.562823
0.654295,-0.012793,0.434735,-0.645208,0.718332,-0.260203
0.348963,0.255815,0.418036,-0.427479,0.032403,-0.903445
-0.108231,0.205032,0.197898,0.303502,0.785316,0.539597
0.562717,-0.138544,0.331022,0.216207,-0.884238,0.413977
-0.048548,-0.217259,-0.099858,0.491375,-0.844749,0.212013
0.765183,0.225540,0.692260,0.793404,0.555032,-0.249899
-0.477757,0.677325,0.239433,0.128538,0.154976,0.979520
-0.325192,-0.017052,0.214010,0.660453,-0.533330,0.528546
0.083656,0.596500,-0.087982,0.792043,-0.608357,-0.050683
-0.654697,0.726156,0.271907,0.786620,0.600707,0.142759
-0.173981,0.353439,-0.340332,0.026562,0.631817,0.774662
-0.974572,-0.353868,0.257217,0.215590,-0.552586,0.805090
0.631827,0.419615,0.298151,-0.404551,-0.893019,-0.197117
0.442901,-0.122956,0.724750,-0.686506,0.227342,-0.690670
0.481267,-0.499814,0.533670,0.940026,0.279493,0.195537
-0.026682,0.837959,0.343015,-0.814257,-0.381449,0.437587
0.460704,0.129324,0.408037,0.145839,0.364251,0.919811
-0.284768,-0.271168,0.393435,-0.587860,0.092176,0.803694
-0.183511,0.555755,0.479467,0.817208,0.414107,-0.400858
-0.769647,0.340899,0.173428,0.076107,0.262713,0.961868
0.310296,0.219056,0.309162,-0.236896,0.415778,0.878071
0.559606,0.407661,0.583606,0.556185,-0.698252,-0.450669
0.707006,0.020177,0.354582,0.522281,-0.154893,-0.838589
-0.386229,-0.278318,0.377058,-0.147127,-0.450733,-0.880451
0.670746,0.240229,0.707024,-0.068078,-0.164694,0.983993
-0.509855,-0.737602,0.252159,0.077399,-0.470192,0.879164
-0.026732,-0.306365,0.122421,-0.292112,0.791609,0.536681
0.185314,-0.054280,-0.140440,-0.390416,-0.462973,-0.795758
0.154471,0.683927,0.575923,0.587600,0.049642,0.807628
0.683434,0.397816,0.271849,0.387393,0.667790,0.635596
0.077186,-0.676738,0.528025,0.280562,0.941116,0.188644
-0.451427,-0.685919,0.034996,0.480936,0.409184,-0.775416
-0.035909,-0.325038,-0.584104,0.781952,0.610378,-0.126450
-0.164552,0.191046,0.195346,0.032161,0.033117,0.998934
0.499523,-0.259019,0.276086,0.666810,0.264267,0.696798
0.785295,0.334804,0.297477,-0.042636,-0.878859,0.475172
0.221826,-0.705685,0.211928,0.129067,-0.928194,0.348996
0.462911,-0.143895,0.640374,-0.257332,-0.904487,0.340123
-0.583580,0.547317,-0.383744,-0.142787,-0.094936,0.985190
-0.120317,0.410473,-0.376912,-0.110263,0.849241,0.516364
0.380461,-0.366603,0.568739,-0.898312,0.371820,-0.234063
0.384723,-0.711233,0.231970,-0.072697,-0.992534,0.097934
-0.033001,0.718616,0.663422,0.238929,-0.115676,0.964122
0.175133,0.141864,0.894278,0.883813,0.275477,0.378136
0.191986,-0.166396,-0.686836,0.180809,0.661295,0.728009
-0.352876,-0.170068,0.170804,0.563669,-0.712268,0.418272
0.207633,0.661074,0.812834,-0.284525,0.031113,0.958164
0.412507,-0.056272,-0.119929,0.393473,-0.789387,-0.471219
0.447716,-0.026076,0.697494,-0.309097,0.634653,0.708290
-0.511911,-0.563411,0.289296,0.997239,0.031744,-0.067137
0.139776,-0.071157,0.765816,0.452636,-0.447549,0.771246
-0.027935,-0.209641,-0.228628,-0.503068,0.863588,0.033731
0.391644,-0.168506,0.721319,-0.000216,-0.996981,0.077642
-0.351021,0.520714,0.237175,0.082164,0.566010,0.820294
-0.076533,-0.513760,0.412494,-0.360865,0.932091,0.031360
0.119464,0.612985,0.863254,0.205216,-0.401617,0.892519
0.340789,0.009981,0.755318,0.749654,0.422579,0.509358
-0.088871,-0.186163,0.047561,-0.106132,0.976801,-0.186001
0.496012,0.057914,-0.153298,-0.584718,0.560082,0.586867
0.542405,0.010372,0.626578,0.986062,-0.083129,0.144120
0.423040,-0.265386,-0.978096,-0.164124,-0.124533,0.978547
0.468729,0.319452,0.739836,0.982616,-0.061001,-0.175340
-0.319575,0.145379,0.367411,0.632656,0.774433,0.000744
0.010081,0.876087,0.354920,-0.192606,-0.572600,0.796889
0.552485,0.439537,0.688507,-0.214744,-0.974174,0.069791
0.408245,-0.095650,0.016523,-0.458892,0.868496,-0.187438
0.528060,0.257418,0.749674,0.891349,0.191602,0.410836
-0.358042,-0.404105,0.122363,-0.584690,0.045905,0.809957
0.069613,0.484228,0.279869,-0.260700,-0.819495,-0.510357
0.177441,0.824989,0.576378,-0.108312,-0.089509,-0.990079
-0.709715,0.544036,-0.401762,0.609550,-0.027003,-0.792287
0.323537,0.435241,0.782984,-0.479194,-0.753173,-0.450670
0.154973,-0.584623,-0.724002,0.611849,0.178739,-0.770515
-0.125232,-0.349414,0.126746,0.456228,-0.797305,-0.395172
-0.071469,0.033147,0.412700,-0.468413,-0.882477,-0.042692
0.509705,-0.490243,-0.035891,-0.379132,-0.571692,-0.727618
0.004514,0.566889,0.379946,0.323726,0.417357,0.849126
0.287276,-0.520167,-0.971836,0.088622,-0.132577,-0.987203
-0.074478,0.076275,0.507646,-0.264712,-0.954768,0.135448
0.082552,-0.009277,0.790022,0.900134,-0.030133,0.434571
0.088670,0.415513,0.505931,0.960737,-0.137572,-0.240951
0.278851,-0.417582,0.393743,0.925031,-0.304622,0.226989
0.215407,0.069360,0.492369,0.635812,0.614782,-0.466676
0.828577,-0.488212,0.297228,-0.532531,-0.370941,0.760798
-0.308792,-0.218665,0.407612,0.347262,-0.909677,0.227809
-0.083454,-0.846826,0.278344,-0.252916,0.504578,0.825491
-0.140579,0.340079,0.047986,0.901091,-0.384356,-0.200762
0.182807,-0.121159,0.076458,-0.336019,-0.413157,-0.846400
0.692461,-0.370237,-0.251177,-0.333767,0.594164,0.731825
0.327048,-0.083891,0.764936,0.731387,0.237102,0.639419
0.715833,0.338828,0.704708,0.124628,0.111818,0.985883
0.452730,0.169990,0.772032,0.774539,0.320772,0.545156
0.077937,-0.319647,-0.248332,-0.657384,-0.397546,0.640158
0.197000,0.366057,0.327943,0.123513,0.857068,0.500179
0.138573,0.810145,0.586362,-0.400892,-0.788189,-0.466952
0.331711,0.557943,0.807600,0.382603,0.382082,0.841206
0.567431,-0.217102,0.547686,0.237388,0.539956,-0.807523
0.308340,-0.144208,-0.710822,-0.374173,-0.585342,-0.719284
0.692763,0.026779,0.347501,0.259028,-0.048937,0.964629
0.280104,-0.127487,0.003123,0.313717,-0.699157,0.642465
0.282360,-0.075532,-0.122334,0.302854,0.715622,0.629415
-0.290687,-0.041428,0.586934,0.035133,-0.014009,0.999284
0.269522,-0.006426,0.820062,-0.414301,0.545362,0.728653
0.819098,0.465788,0.268667,0.933001,-0.356673,0.047894
-0.088921,-0.434615,0.332693,-0.499089,0.004869,0.866537
-0.087467,0.103229,-0.300365,-0.163099,-0.507748,-0.845926
0.593109,0.610797,0.465480,0.314185,0.906430,0.282264
0.433171,-0.728031,-0.331344,0.359358,-0.262519,-0.895514
0.114850,-0.206907,0.586582,-0.605569,0.709657,-0.360101
0.169267,0.247847,0.836278,0.148303,0.019916,-0.988741
-0.195446,-0.422973,0.645608,-0.102678,-0.582403,0.806389
0.408044,0.470555,0.775536,0.563307,-0.716450,-0.411562
0.761071,0.471375,0.470201,0.827664,0.158850,-0.538274
0.032097,0.785652,0.653555,-0.747113,0.376895,-0.547515
-0.372186,-0.336367,-0.988315,-0.006602,0.071262,0.997436
-0.359146,-0.217259,0.384858,-0.534151,0.797915,0.279311
0.029639,-0.306561,-0.629496,-0.340690,0.940168,-0.003835
0.637294,0.101627,0.660006,-0.454878,-0.413237,0.788873
0.100205,-0.216946,0.582125,0.800509,-0.590767,-0.100894
-0.207984,-0.725569,0.280983,-0.158410,-0.377903,0.912193
-0.117910,0.397035,0.735628,-0.300076,-0.156802,-0.940940
0.498770,0.529269,0.524814,-0.680275,0.323311,-0.657796
0.226892,-0.108698,0.827760,-0.742870,-0.399171,-0.537408
-0.181956,0.166514,0.552495,0.085589,-0.850828,0.518427
0.025929,0.713889,0.698521,0.523066,0.802894,0.285942
0.329354,0.352228,0.395297,-0.635243,-0.495355,-0.592528
0.118310,0.945504,0.567141,-0.389770,0.259282,-0.883658
0.265560,0.205656,0.865175,-0.041629,0.317850,-0.947227
-0.528914,0.339219,-0.295292,-0.100982,0.895627,0.433192
-0.403481,0.712170,-0.389300,-0.477556,-0.404316,-0.780044
-0.085311,0.151318,0.662571,0.668058,0.658864,-0.345829
0.472140,-0.151239,0.928585,0.309125,-0.037339,-0.950288
-0.170871,0.299881,0.250224,-0.274199,-0.396027,0.876343
0.311701,0.372385,0.321111,-0.144526,-0.724602,-0.673842
0.346456,0.602242,0.809477,0.489047,0.213838,0.845640
-0.231657,0.689709,0.709810,0.097619,0.986198,0.133734
-0.327901,0.436802,0.562406,-0.470536,-0.865271,-0.172921
0.348763,-0.690802,-0.794288,0.959715,-0.195798,0.201519
-0.553539,0.239565,-0.209905,-0.700673,0.661294,0.267859
-0.119665,0.139520,-0.787177,0.243747,-0.788138,-0.565177
0.282913,-0.422232,-0.783996,0.473081,0.849679,0.232893
-0.006269,0.451999,0.643424,0.074540,-0.485664,0.870962
0.136366,0.480321,-0.444104,0.529657,-0.846597,-0.052325
0.241987,-0.109909,-0.132201,0.294033,0.692060,0.659241
0.727067,0.179209,0.347281,0.203394,0.299618,-0.932127
-0.120569,0.828310,0.290498,0.747504,-0.357488,-0.559857
-0.411054,0.026428,0.595863,0.072730,-0.968410,-0.238523
-0.291038,-0.417232,-0.983433,-0.021612,0.187373,0.982051
0.697177,0.246557,0.725952,-0.003454,0.933280,0.359133
0.632730,0.235190,0.353145,0.602505,0.298748,0.740093
-0.062140,0.073852,0.484584,0.382957,-0.825861,0.413882
-0.458048,0.721195,0.227660,0.059469,0.912474,0.404790
0.186118,0.809793,0.368393,0.969873,-0.169599,0.174879
-0.460304,-0.302068,-0.991497,-0.138820,0.116522,0.983439
0.438638,0.429615,0.541235,0.706903,0.377870,0.597915
0.057626,0.889954,0.670298,-0.439555,-0.322558,0.838301
0.429059,-0.193742,0.925257,-0.494950,0.539074,0.681486
-0.284467,0.128386,0.414048,0.977877,0.198678,0.065448
0.587642,0.189874,0.323310,0.190760,0.201251,-0.960785
0.497166,0.413442,0.308326,-0.406987,0.096005,0.908375
-0.847335,0.311092,-0.350785,-0.481574,0.736388,0.475204
-0.031697,0.868860,0.597637,-0.233797,-0.148720,0.960844
0.395607,0.499033,0.813831,0.213540,0.387560,0.896771
-0.107729,-0.201281,-0.126952,0.746353,0.614290,-0.256134
-0.174934,-0.022990,0.591640,0.799333,-0.242696,0.549696
-0.056472,-0.151708,-0.003094,-0.120283,0.987776,-0.099145
0.145744,0.779166,0.372278,0.739401,-0.670713,0.058564
0.035558,0.491884,0.833888,-0.490776,-0.523147,0.696747
0.453131,0.203040,0.758060,0.975302,0.034817,0.218112
0.387983,-0.182178,-0.975868,-0.354418,0.022667,0.934812
0.293495,0.624743,0.547847,-0.156037,0.715805,-0.680643
0.560560,0.325351,0.715821,-0.431797,0.672637,0.600925
-0.107277,-0.202141,-0.096984,0.366904,-0.930141,-0.014830
0.499774,-0.565912,0.243787,-0.044085,0.989760,-0.135761
0.584833,0.068109,0.630668,0.608243,0.178252,-0.773477
-0.072019,-0.087954,0.471213,-0.817923,-0.178049,-0.547083
0.575806,0.543450,0.169117,0.863221,0.359095,-0.354824
-0.063594,-0.113502,0.151979,0.825015,-0.556062,0.100725
-0.081498,-0.547317,0.394798,0.071791,0.991928,0.104524
0.280655,-0.334024,0.624511,0.632347,0.667284,0.393534
0.586789,0.199992,0.315349,0.041858,-0.839799,0.541281
-0.181352,0.868078,0.566540,-0.517885,0.246474,0.819174
-0.387532,0.618336,0.235225,-0.343146,-0.799191,-0.493503
-0.232409,-0.034045,-0.043925,0.863634,0.436601,0.252025
0.301771,-0.197335,0.582154,-0.130482,0.108038,0.985547
0.641607,0.205579,0.705280,0.467349,0.277008,0.839555
0.097196,-0.018536,0.863386,0.217537,0.926621,0.306678
0.691358,0.401800,0.533025,-0.146590,-0.083141,0.985697
0.737448,-0.115612,0.702274,-0.741152,0.291921,0.604545
0.576057,0.137372,0.810415,-0.379250,-0.632229,0.675615
0.141331,0.061312,0.458076,0.211762,0.435487,-0.874933
0.245499,-0.751743,-0.345302,-0.559155,0.436842,-0.704639
-0.086364,-0.867961,0.307622,-0.414753,0.908055,0.058445
0.083504,0.480633,0.510930,-0.702294,0.127375,0.700399
0.800190,-0.499267,0.286803,-0.525375,-0.315479,0.790224
0.167712,0.628923,0.881464,-0.102180,-0.327701,0.939240
-0.002859,-0.264801,-0.453311,0.937204,-0.348614,0.010801
-0.059732,-0.286521,-0.607225,0.588775,-0.805218,0.070484
0.375044,0.392308,0.829680,-0.245345,0.263856,-0.932838
0.432619,0.223626,0.772032,0.893985,-0.381054,0.235775
0.205225,-0.770494,-0.753134,0.797560,0.173696,-0.577692
-0.531672,-0.656620,0.168208,-0.542925,0.495337,-0.678140
0.452479,-0.149990,0.623030,0.391538,0.081895,-0.916510
0.354180,-0.653690,0.485273,-0.282527,0.150499,0.947380
0.134661,-0.214798,-0.216649,-0.323512,0.837396,-0.440577
0.163749,-0.727562,0.180685,-0.024987,-0.800228,0.599175
0.155022,-0.291052,0.679857,-0.525443,-0.768408,0.365319
0.146195,-0.149559,0.039057,0.654638,-0.608249,0.448868
0.391895,0.048773,0.105151,0.086358,-0.924498,0.371275
-0.233964,0.604078,0.656780,-0.386830,0.450072,0.804859
0.066503,0.413560,0.924407,-0.458399,-0.877838,0.138819
0.048246,-0.246010,-0.990016,-0.043989,0.243182,0.968983
0.067756,-0.233392,-0.108918,0.383462,0.766679,-0.514936
0.792417,0.244721,0.288196,0.784176,0.246194,0.569611
0.423742,0.713342,0.582169,0.138568,-0.132999,-0.981382
0.683835,0.623571,0.463193,0.270315,0.864502,0.423752
0.482221,-0.079946,0.604703,-0.762214,0.646821,0.025539
0.154471,-0.074360,0.692773,-0.381906,0.174892,0.907503
0.234414,0.668847,0.363101,0.604390,0.727260,0.325277
0.442549,0.625134,0.241779,-0.201542,0.717434,0.666835
-0.010984,-0.203742,-0.110839,0.630976,-0.743733,0.220750
-0.475400,0.719476,0.745290,0.509341,0.593706,-0.622965
-0.069261,-0.149286,0.103127,-0.600203,0.774170,-0.201040
0.353679,0.724476,0.522732,0.300371,0.677066,0.671833
-0.748383,-0.410551,0.220960,-0.148065,0.270064,-0.951390
-0.717489,-0.397269,0.235797,-0.000463,0.828739,0.559636
0.036963,-0.332421,-0.604278,-0.672385,-0.701453,-0.236350
-0.149656,0.674044,0.735951,0.723711,0.426253,0.542725
0.171673,-0.100533,0.897606,-0.295924,-0.700830,0.649050
0.277446,0.817997,0.562464,0.911237,0.206588,0.356327
0.359045,0.459344,0.565587,0.784872,0.046836,0.617885
0.232509,-0.201242,0.921709,-0.543343,-0.656266,-0.523539
-0.815387,-0.272731,0.300570,0.232027,0.813304,-0.533573
0.030291,0.502158,0.858973,-0.432919,-0.656385,0.617851
0.067456,0.156474,0.815092,0.816617,-0.330639,-0.473090
0.423944,-0.715101,0.219669,-0.106800,-0.780498,0.615969
0.178745,-0.176944,0.224068,-0.435589,-0.882280,-0.178449
0.098901,0.843115,0.246881,-0.375552,-0.891271,0.254160
0.667836,0.339492,0.731919,-0.569888,-0.783043,0.249143
-0.156928,0.797254,0.380342,-0.187162,0.441889,0.877328
0.132353,-0.168896,0.606126,0.259975,-0.873684,0.411204
0.633481,0.139129,0.706115,0.586462,-0.806070,0.079457
0.507297,0.242573,0.764540,0.951683,-0.236065,0.196399
0.456442,-0.244721,0.478910,-0.028129,0.547452,0.836365
0.072721,0.572514,0.210623,-0.208915,0.455151,0.865559
-0.547069,0.348712,0.407275,0.838046,0.156065,0.522802
0.473042,0.295858,0.718856,0.122618,-0.108570,-0.986497
0.747680,0.435982,0.516633,0.319207,0.213208,0.923390
0.147651,0.218079,0.491782,0.486722,0.143540,-0.861683
0.556547,0.551692,0.150366,0.788816,0.416838,-0.451681
-0.102663,0.917025,0.556702,0.314667,0.652167,0.689683
0.113545,0.931597,0.589720,0.874206,0.098702,0.475417
0.433923,-0.016700,0.698081,-0.005150,0.760947,0.648794
0.686143,0.283005,0.701834,0.936004,-0.170709,0.307823
-0.485079,0.752798,0.762561,0.442448,0.414713,-0.795143
0.224434,-0.410434,-0.976982,0.029109,0.071430,0.997021
0.562515,-0.364338,0.264064,0.231741,-0.358242,0.904411
-0.059481,-0.019670,0.316771,0.989888,-0.137013,-0.036730
0.583128,-0.600132,0.250106,-0.302459,-0.048339,0.951936
0.807413,-0.612242,0.277142,-0.333891,0.085903,0.938689
0.024022,0.453601,0.759819,-0.064247,-0.995237,-0.073324
0.119865,-0.421333,-0.247717,0.897342,0.007795,0.441268
0.016601,0.321250,0.341417,0.984074,-0.011625,0.177378
0.025026,-0.274606,-0.649523,-0.285067,0.956730,0.058346
0.835247,0.505713,0.264210,0.931126,-0.354782,0.084468
0.393750,0.512471,0.729822,0.934348,0.051662,-0.352597
-0.713426,0.323593,0.304485,0.327430,-0.770307,0.547190
0.034305,0.108269,0.751712,0.103622,0.951865,0.288471
0.046993,0.510049,0.968918,-0.294470,-0.757906,0.582122
-0.183511,0.296522,-0.229390,-0.629757,0.568625,0.529218
-0.284167,0.721429,0.759218,-0.201690,0.744808,-0.636068
-0.501480,-0.343634,0.354245,-0.369637,-0.258280,0.892558
0.044737,0.158544,0.916548,0.345979,0.827154,0.442848
0.549275,0.256675,0.741317,0.500797,-0.187958,0.844911
-0.220222,0.697873,0.215080,-0.493242,-0.495269,-0.715137
0.457896,0.167647,0.763147,-0.700810,-0.248649,-0.668610
0.395757,-0.299607,-0.979724,-0.087312,-0.029550,0.995743
0.150459,-0.278825,-0.986761,-0.032986,0.294773,0.954998
0.139877,0.673653,0.138094,0.452673,0.450998,0.769213
-0.131902,0.667558,0.737534,-0.614386,0.214601,-0.759261
0.300366,0.589702,0.268770,-0.087975,0.926165,0.366714
-0.270675,0.619860,0.661516,0.491978,0.425589,-0.759495
-0.166408,0.032248,0.426144,0.375306,0.909088,0.180846
0.666783,-0.017168,0.353615,-0.066896,-0.100392,-0.992697
0.085812,0.001348,0.806017,0.876883,-0.462367,0.131503
0.795375,0.046546,0.360491,0.377881,-0.230099,0.896806
0.473042,0.402895,0.523890,0.266691,-0.236249,0.934378
0.263253,-0.629900,-0.965356,-0.034504,0.245311,0.968830
0.111590,0.096627,0.925594,0.564388,0.749233,0.346579
0.528863,-0.333242,0.278637,-0.706190,-0.200245,-0.679115
0.090275,0.462352,0.835677,0.149257,0.656539,-0.739377
0.753046,0.369025,0.522307,-0.438654,-0.372517,0.817810
-0.021465,0.460867,0.306948,0.054662,0.758805,0.649021
-0.028889,-0.418950,0.182415,0.079979,0.894492,0.439872
0.344199,0.123620,0.747929,0.188419,0.813382,-0.550371
-0.084659,-0.182257,0.438577,-0.649397,0.759776,0.032014
0.302522,-0.205969,-0.674374,0.482668,0.440220,0.757125
0.606398,0.612008,0.478235,0.080316,0.883940,0.460652
0.248609,-0.245737,-0.986585,-0.061364,0.081808,0.994757
0.362806,-0.232533,0.580556,-0.115088,-0.222297,0.968163
0.308692,0.271364,-0.371208,0.138607,-0.187724,0.972393
-0.443453,-0.750336,0.136218,-0.712485,0.228590,-0.663409
0.198806,-0.211751,0.012389,0.468062,-0.545555,0.695190
0.600431,0.113152,0.768250,-0.040463,-0.978778,-0.200887
0.285270,-0.380471,0.630683,0.350854,0.908757,0.225968
-0.486032,0.797098,0.191520,-0.099844,0.070464,0.992505
-0.247907,0.138192,0.454719,0.930754,-0.023906,-0.364864
0.474597,0.223197,0.727330,-0.611407,0.787397,-0.078662
-0.092783,-0.488212,-0.972716,-0.253029,-0.015213,0.967339
0.585485,0.496650,0.296260,-0.564894,0.780752,-0.267061
-0.400421,-0.258511,0.380621,-0.162931,0.756024,0.633941
-0.022970,-0.220970,-0.135397,-0.376323,0.874602,-0.305699
0.090727,0.247768,0.634905,0.937112,-0.299450,0.179304
0.419329,-0.105143,0.918806,0.602538,0.495517,-0.625629
0.013592,0.639471,0.660299,0.372034,0.405925,0.834755
0.314408,-0.195695,-0.982744,0.204956,-0.106165,-0.972996
-0.183711,0.149833,0.583371,-0.348096,0.915994,0.199458
0.205727,-0.194406,0.945621,0.271723,0.886788,0.373863
0.432167,-0.052132,0.704796,0.655847,0.511476,0.555209
0.337529,0.539465,0.722067,0.331992,0.904581,-0.267421
-0.385526,-0.368518,-0.987333,-0.043027,0.106231,0.993410
-0.204123,0.311405,0.734749,-0.396941,0.264966,-0.878767
0.299815,-0.645058,-0.337854,-0.673444,0.400963,-0.621049
0.379608,0.707834,0.213072,-0.608321,0.048246,0.792223
-0.140277,0.498057,0.264606,-0.271538,0.682351,-0.678723
-0.112392,0.190617,0.571671,-0.037780,0.767884,-0.639474
0.021566,0.460476,0.774422,-0.249456,0.961375,-0.116315
0.674808,0.296795,0.157755,0.928007,0.320968,-0.189161
0.540147,0.246011,0.735218,0.223177,0.176992,0.958575
-0.228648,0.128074,0.537408,-0.426282,0.843600,-0.326532
0.431867,-0.517471,-0.022241,0.836502,0.200394,0.510007
0.491900,-0.072601,0.708139,0.858562,0.505396,-0.086296
0.177089,-0.158310,0.591420,-0.356085,0.567449,-0.742432
-0.040874,0.085337,0.596376,0.759151,-0.602303,-0.246821
0.180952,0.043811,0.886668,0.684696,-0.188838,0.703940
-0.595918,0.554739,-0.356562,-0.179028,-0.014068,0.983743
0.059180,0.397035,0.527849,-0.605855,0.398991,0.688291
0.309694,-0.173350,-0.229434,0.029312,-0.490356,0.871029
-0.138673,0.646073,0.477854,-0.726205,0.011030,0.687390
0.428909,0.375510,0.787793,0.888329,0.188168,-0.418886
0.492351,0.290193,0.778381,0.979727,-0.009523,0.200109
0.434876,-0.512784,0.419019,-0.049016,0.813112,0.580041
0.076734,-0.242807,-0.990588,-0.025143,0.229722,0.972931
0.392898,0.449577,0.599968,-0.137665,0.189477,0.972187
-0.098400,0.234330,0.894776,0.776561,0.268181,0.570115
-0.366067,0.609977,0.577771,-0.691254,0.670306,0.269923
-0.472692,0.406098,0.646297,-0.246175,0.818682,0.518804
-0.162144,0.713811,0.133110,-0.079262,-0.882267,0.464028
0.279853,0.078579,0.326330,0.533511,0.086532,-0.841355
0.036210,0.155770,0.898617,0.467646,-0.497432,0.730663
0.476403,-0.482313,0.539519,0.932263,-0.194876,0.304811
-0.083104,0.585483,0.744572,0.972383,0.232342,-0.022081
0.387682,0.184913,0.316141,-0.450836,0.348836,0.821621
0.220823,0.461569,0.548448,0.541437,0.754274,-0.371371
-0.125483,0.184327,-0.077060,0.992179,-0.080723,-0.095213
0.186669,-0.355548,-0.979504,0.010203,0.107357,0.994168
-0.098953,0.430318,0.817907,0.484087,-0.029990,0.874506
-0.008476,0.168350,0.929010,-0.294826,-0.927953,-0.227995
0.750940,-0.105651,0.368774,0.190400,0.345685,0.918830
-0.131050,0.880814,0.569663,-0.256313,-0.555388,-0.791105
0.089222,-0.515714,-0.715396,-0.709768,-0.456234,0.536731
-0.288982,0.690958,0.221077,0.183822,0.461929,0.867659
-0.335122,-0.237299,-0.993564,-0.107314,0.100798,0.989102
0.190381,-0.058616,-0.133227,0.335051,0.505522,0.795102
0.114299,0.108893,-0.782149,0.325780,0.289667,0.899978
0.090125,-0.217806,-0.992992,-0.032159,0.059668,0.997700
-0.473294,0.767408,0.186799,-0.330641,0.293197,0.897058
-0.282310,0.455749,0.858431,-0.258914,0.851152,-0.456623
-0.766689,0.205148,0.294911,-0.325481,-0.811500,0.485315
0.316866,-0.290817,-0.979885,-0.238677,-0.110897,0.964746
0.686945,0.255659,0.519155,0.225040,-0.512097,0.828924
0.366167,0.436608,0.843257,-0.152072,0.933422,0.324958
0.745123,-0.476493,0.277127,0.172541,0.604956,-0.777340
0.153167,0.658105,0.587374,0.807200,0.261178,0.529353
-0.070616,-0.128113,0.156758,0.735184,-0.657082,0.166578
0.378104,-0.220579,0.732652,-0.698878,0.438706,0.564895
0.188173,-0.484345,-0.976293,0.127329,-0.013603,0.991767
0.374492,-0.268902,-0.979460,0.026925,-0.010512,0.999582
0.067857,0.135848,0.321990,-0.289679,-0.669440,-0.684059
0.440192,-0.174561,-0.973742,-0.262688,-0.011824,0.964808
-0.075832,-0.241245,-0.126145,-0.205828,0.960560,-0.186975
0.202317,-0.469187,-0.973405,0.115798,0.001578,0.993272
0.202417,-0.438521,-0.974651,0.085170,0.062532,0.994402
0.058679,0.364767,-0.361180,-0.068414,0.643812,0.762119
0.384122,0.495751,0.759687,0.988560,-0.064697,-0.136246
-0.034204,0.705724,0.529300,-0.503487,-0.687836,0.522859
0.210642,-0.196671,0.866949,-0.160640,-0.112725,0.980555
-0.084959,0.081860,0.539153,0.844818,0.366218,-0.390087
-0.307488,0.732914,0.218086,0.217172,-0.500925,0.837801
0.143186,0.082016,0.948011,0.414078,0.879851,0.233241
0.556648,0.560521,0.511135,-0.074729,-0.995332,-0.061078
0.844777,0.351954,0.295879,0.805230,0.545618,0.232174
-0.452129,0.749946,0.721451,-0.156801,0.899653,0.407477
-0.034305,-0.294255,-0.389403,0.857418,-0.308427,0.411956
0.505290,0.281559,0.576891,-0.505037,-0.651784,-0.565788
-0.415517,0.603375,0.547480,0.561631,-0.819014,-0.117415
0.400872,-0.117761,0.456683,0.327517,0.867917,-0.373434
0.466673,0.150497,0.644787,-0.288898,0.491833,0.821364
-0.373439,-0.100377,0.340288,0.822012,-0.526723,-0.216470
0.361653,0.265269,0.631269,0.870146,0.492579,-0.014570
0.160539,0.791824,0.515431,0.910658,-0.370559,-0.182725
-0.045438,0.002715,-0.730614,-0.444366,0.483479,0.754180
0.195044,0.288279,0.680824,0.041231,0.645318,0.762800
0.474797,0.578100,0.256381,0.562086,-0.658414,-0.500550
-0.310548,0.402739,0.278828,0.511459,0.330061,0.793391
0.375496,0.271364,0.311053,-0.408288,0.344266,0.845448
-0.146748,0.645291,0.226091,-0.108932,0.806455,0.581175
0.166258,0.047561,0.467254,0.658698,0.315583,-0.683026
-0.186670,-0.255151,-0.989634,-0.033245,0.048877,0.998251
1.000000,-0.485985,0.305262,-0.361153,-0.488821,0.794117
0.259039,0.628416,0.819784,0.317555,0.007601,-0.948209
0.819500,-0.679903,0.297022,-0.456436,0.254397,0.852613
-0.264558,-0.512276,0.336974,-0.561331,0.210177,0.800458
0.015447,-0.249760,-0.157213,0.677312,0.653076,-0.338734
-0.607653,-0.667636,0.193367,0.451493,-0.875926,-0.170024
-0.328201,-0.301326,0.315378,0.210630,0.323999,0.922312
-0.127690,-0.454538,-0.151597,-0.284656,0.564656,-0.774684
0.109333,-0.137097,0.480112,-0.148725,0.674772,0.722885
0.367471,-0.180929,-0.981937,-0.288175,0.107188,0.951560
-0.084458,-0.178780,-0.996349,-0.029092,0.127499,0.991412
-0.053062,-0.056859,-0.298533,0.871018,-0.023017,0.490711
0.026430,-0.505361,-0.971088,-0.003252,-0.096270,0.995350
0.385175,0.310507,0.410662,0.597328,0.429033,0.677592
0.314509,-0.655136,0.252071,0.230014,-0.845574,0.481766
0.010883,0.170889,0.402407,-0.672302,-0.198691,0.713114
-0.102614,0.740844,0.587110,0.001082,0.893000,0.450055
0.472590,0.723031,0.220315,-0.549735,0.789184,0.273825
0.425296,0.592984,0.251514,0.459877,0.887948,0.007768
0.010332,0.168389,0.691557,-0.642749,-0.277650,-0.713992
0.738252,0.290349,0.507133,-0.661652,-0.225386,-0.715135
0.230051,0.473367,0.748721,0.140016,0.988961,-0.048501
0.527058,0.621814,0.471946,0.197930,0.791422,0.578338
-0.463214,0.769048,0.193089,0.334153,-0.339489,-0.879255
0.043884,0.291795,0.673538,-0.214764,0.856217,0.469860
0.230302,0.434029,0.475699,-0.315108,0.949048,-0.003976
0.275992,-0.041350,-0.758720,0.128997,0.922422,0.364001
-0.006420,-0.656737,0.257217,-0.253223,-0.142225,-0.956896
-0.091128,-0.604938,0.329717,-0.610122,0.545770,-0.574357
0.326295,-0.405551,0.590174,0.646918,0.551748,-0.526376
-0.099904,-0.069438,0.302388,0.998205,-0.058886,0.010958
0.098551,-0.017130,0.900699,-0.042466,0.271827,0.961409
-0.221978,0.769479,0.767399,-0.311524,-0.491827,0.813055
0.606801,-0.210696,0.545794,0.200200,-0.244517,0.948753
0.536235,0.162685,0.529638,-0.583820,-0.293284,-0.757059
0.684687,0.212180,0.710015,0.067121,-0.281407,0.957238
0.254927,0.815848,0.230504,0.293666,0.904775,-0.308452
0.091128,0.563490,0.384286,-0.280796,-0.154689,-0.947219
-0.226390,0.345821,0.593546,0.617501,0.734396,0.281702
0.521992,0.499970,0.280133,0.040611,0.828767,0.558119
0.380811,-0.285582,0.575747,-0.200015,-0.029977,-0.979334
0.408295,0.425240,0.829534,0.984264,0.172086,0.040131
-0.526958,0.793776,0.183207,-0.264734,-0.141054,0.953950
-0.267818,0.705647,0.738443,0.068079,0.950199,-0.304117
0.177842,0.632440,0.699474,0.839659,-0.261336,0.476105
0.005265,-0.341290,-0.540898,0.930843,-0.116260,0.346431
-0.135915,0.173389,0.577961,-0.055837,0.983360,-0.172873
0.278047,0.558099,0.519477,0.420295,0.379778,0.824088
0.031295,-0.357775,-0.685062,0.023777,-0.929949,0.366919
-0.301320,-0.262613,-0.990690,-0.058506,0.149430,0.987040
-0.072270,-0.083970,0.241324,-0.569985,0.799753,-0.188450
0.310897,-0.133230,0.726172,0.150314,0.204656,-0.967224
-0.015097,0.722992,0.176302,-0.514098,-0.253648,-0.819369
-0.324540,-0.288552,0.303341,0.365199,0.267181,0.891764
0.484177,0.708264,0.571657,-0.326177,0.676605,-0.660162
0.749084,-0.563021,0.277098,0.443279,0.045093,-0.895249
-0.291238,-0.499541,0.333734,-0.553644,0.216174,0.804206
-0.013341,-0.420473,-0.943965,-0.251950,-0.693865,0.674591
0.013039,0.203508,0.899028,0.146779,0.767203,0.624384
0.527107,0.534660,0.266102,-0.172300,0.672049,0.720183
0.786198,0.252260,0.293137,0.686838,-0.100255,0.719863
0.136065,0.587202,0.559825,0.987993,-0.083273,0.130136
0.274386,0.683419,0.828830,-0.358466,-0.411454,0.837979
0.527810,0.256167,0.817292,-0.642315,0.324285,0.694457
0.684588,0.443991,0.507470,0.886514,-0.434218,-0.159835
-0.011987,0.146004,0.388934,-0.877835,0.041509,0.477161
0.606048,-0.210188,0.243347,-0.701151,-0.133304,-0.700441
0.191634,-0.237455,-0.986321,-0.107256,0.076969,0.991248
0.316014,-0.135926,0.586274,-0.165761,-0.847729,0.503864
0.703946,0.255855,0.691996,0.999865,-0.001136,-0.016404
0.010281,0.217728,0.387409,0.882606,-0.118230,-0.455003
0.208185,0.456961,0.457710,0.792023,-0.458758,0.402792
0.651738,0.433990,0.250575,-0.445067,-0.890280,0.096526
0.307789,-0.532120,0.580395,0.976953,0.141231,-0.160054
0.580821,-0.016856,0.615494,-0.138913,-0.144978,0.979635
0.062791,0.163115,0.914217,-0.118669,-0.965773,-0.230653
0.528462,0.229955,0.598179,0.197934,0.806814,0.556663
0.157480,0.102878,0.566569,0.403454,-0.839291,0.364438
0.688500,-0.703420,0.189321,-0.885141,-0.278720,-0.372613
0.306736,0.442155,0.882036,0.117487,-0.552829,0.824970
0.670645,-0.214875,0.559591,0.180799,-0.381252,0.906619
0.689703,0.267848,0.677013,-0.721369,0.681295,-0.124354
0.372536,-0.135457,0.734397,-0.635766,0.034408,0.771114
-0.353779,0.448248,0.700661,0.912852,-0.379975,0.149399
0.192637,0.203625,0.870189,-0.371165,0.421832,0.827221
-0.174532,0.352384,0.255956,0.046712,-0.320563,0.946075
0.068408,-0.364767,-0.786781,0.494484,0.861728,-0.113622
0.219118,0.540246,0.811881,0.013198,-0.248799,0.968465
0.358142,-0.319999,-0.980149,-0.038911,-0.032697,0.998708
0.895430,-0.030685,0.325113,-0.318609,0.081844,-0.944346
0.025478,0.818114,0.656018,0.803974,-0.033355,0.593728
-0.104418,0.418364,0.956999,0.058408,-0.778576,0.624826
0.053061,-0.523136,-0.278300,0.807238,-0.151808,0.570369
-0.019961,0.696896,0.530825,-0.503487,-0.687836,0.522859
0.036812,-0.342306,-0.923630,0.295708,0.924627,0.240043
0.616831,-0.079399,0.288636,0.907803,-0.334363,0.253170
-0.563820,0.645174,0.753178,-0.465748,0.394468,0.792132
-0.161142,-0.022247,0.604674,0.860117,-0.126243,-0.494228
0.198053,0.728148,0.380679,0.743023,0.542166,0.392393
0.354331,-0.435318,-0.974622,0.013819,0.077520,0.996895
0.874818,-0.602438,0.283578,-0.214565,0.198854,-0.956253
-0.366117,0.410317,-0.517791,0.114480,-0.935505,0.334251
0.630221,-0.092993,0.642265,-0.215360,-0.598924,0.771304
-0.110136,-0.171826,0.060580,-0.124492,0.985236,-0.117523
0.701188,0.476414,0.525635,-0.608159,-0.077319,-0.790041
-0.688751,0.380315,-0.345859,0.286473,-0.796805,-0.532011
0.351823,-0.246088,-0.980354,0.107156,-0.007696,-0.994212
-0.296404,-0.320311,-0.628748,-0.532780,0.536840,0.654177
0.073323,0.498252,0.792719,-0.507375,0.800752,-0.318380
-0.096595,0.449967,0.647910,0.004504,-0.521788,0.853064
0.315362,0.446374,0.741009,-0.216177,-0.964421,-0.152185
0.805858,-0.816512,0.319439,-0.649614,0.304202,0.696752
0.629118,0.617321,0.508496,0.144108,-0.912287,0.383360
0.424997,-0.677090,0.436480,0.796269,0.495735,0.346702
-0.008626,0.061351,0.691586,-0.486886,-0.398762,0.777130
-0.285923,0.222260,0.218790,-0.068572,0.993506,-0.090792
-0.363309,0.394925,0.782031,-0.350663,0.419744,0.837168
0.088469,-0.320311,0.106543,0.271944,0.737772,-0.617851
0.074778,-0.244018,-0.990734,-0.025143,0.229722,0.972931
0.101910,0.480868,0.223218,0.801897,0.596207,0.038709
0.335273,0.279254,0.840368,0.889937,-0.264862,0.371296
-0.316114,0.231283,0.233920,-0.094910,0.980251,-0.173496
0.187471,-0.153895,0.745085,0.363667,-0.654586,0.662769
0.131853,0.375588,0.825986,0.021481,-0.069651,0.997340
0.408346,-0.030295,-0.141364,-0.409631,0.574632,0.708520
-0.455539,0.771627,0.195053,-0.407419,0.477832,0.778258
-0.165254,0.114518,-0.308150,0.473144,0.464698,0.748459
0.463964,-0.237885,0.291158,-0.613041,-0.766373,0.191969
0.343498,0.222689,0.747005,0.088833,-0.965841,0.243433
-0.128442,-0.387776,-0.871729,0.022627,0.999236,-0.031859
0.508000,0.121432,0.748369,0.025105,-0.798739,0.601154
0.143538,0.803894,0.656677,-0.067035,-0.748653,0.659564
-0.175435,0.196437,0.560309,-0.581456,0.793620,-0.179097
0.241487,0.288084,0.655563,0.608454,0.523775,0.596191
0.339987,-0.420122,0.628601,-0.103688,-0.963636,0.246280
0.378404,0.671270,0.194995,-0.309471,0.318347,0.896037
-0.160640,-0.676738,-0.202296,0.181111,-0.636277,0.749900
0.232108,0.808465,0.509493,0.275674,0.839931,-0.467460
-0.616330,-0.602906,0.281687,-0.507421,0.767698,-0.391361
-0.448268,0.704279,0.661149,-0.488933,0.835236,-0.251646
0.242089,-0.481532,0.309308,0.127502,-0.740527,0.659821
-0.012086,0.771666,0.340874,-0.394928,-0.058752,0.916831
0.568634,-0.719905,0.217529,-0.305022,-0.160864,0.938661
0.268769,0.376800,0.548771,-0.192074,0.853661,0.484118
0.007823,0.439029,0.786532,0.819536,-0.568488,0.071985
0.709464,0.358791,0.708549,0.206636,0.289417,0.934634
0.184713,-0.224603,-0.000806,0.360982,0.690744,-0.626550
0.407844,0.193781,0.897401,0.835521,0.343131,-0.429145
0.361101,-0.214993,0.579486,-0.215832,-0.199519,0.955829
0.296956,-0.073969,0.596258,0.955846,0.226575,-0.187141
0.248107,0.417622,-0.333426,-0.758596,0.535530,0.371132
0.379708,-0.023693,0.744293,0.667359,0.404547,0.625279
0.412758,-0.537551,-0.339672,-0.098756,-0.062772,0.993130
0.419027,0.320586,0.547319,-0.611714,0.748251,0.256761
0.343447,0.551301,0.278740,-0.167418,0.159645,0.972875
0.446562,0.404300,0.561643,0.628082,0.675231,0.386751
0.224936,0.463913,0.820517,-0.809658,0.231793,-0.539190
0.421836,0.408519,0.541015,0.793507,0.607828,0.029860
-0.042229,0.154286,0.225402,-0.398683,0.603298,0.690712
0.015396,-0.813778,0.158972,0.292620,0.940936,-0.170331
0.558904,-0.808973,0.228584,-0.454701,-0.202406,0.867340
0.773259,0.034240,0.689812,0.663220,-0.549704,-0.507902
0.314058,-0.181280,-0.704649,-0.445791,-0.547702,-0.708020
0.106173,-0.177725,0.601639,-0.050456,-0.972695,0.226538
0.027282,0.036232,0.890568,-0.339920,-0.338699,-0.877347
0.020312,0.171787,0.925272,-0.323536,-0.894425,-0.308754
-0.020563,-0.458327,-0.971469,0.267222,0.307784,-0.913160
0.269522,-0.029709,0.917369,0.717464,0.293979,-0.631523
0.508350,0.165224,0.735614,-0.074695,-0.877671,0.473407
0.590902,-0.161317,0.247790,-0.756040,0.305541,-0.578834
0.096745,0.553646,0.725776,-0.021125,0.237646,0.971122
0.140930,0.511847,-0.378436,0.724047,-0.194082,-0.661882
-0.375045,0.796082,0.183383,0.206090,0.351451,0.913241
0.018757,0.081704,-0.238553,-0.159107,0.928701,0.334960
-0.231406,0.013263,0.611404,0.261710,0.423668,-0.867187
0.019158,0.181944,0.932089,-0.583967,0.771501,-0.252526
-0.241587,-0.423599,-0.385444,0.345086,0.173465,-0.922402
-0.566629,0.666503,0.734382,0.318534,-0.248514,-0.914755
0.043232,-0.411958,-0.871773,0.038638,-0.999248,0.003194
-0.017454,0.760260,0.319058,-0.281295,0.635009,0.719470
-0.210643,0.639979,-0.399783,0.021563,0.689383,0.724076
0.339335,0.512862,0.548683,0.932371,-0.342847,0.114631
0.260744,0.634665,0.511766,-0.729967,0.336588,-0.594859
-0.515924,-0.788073,0.223701,0.175718,-0.673342,0.718146
-0.006771,-0.226165,-0.270134,-0.549102,0.831585,-0.083387
0.037514,-0.273942,-0.619687,0.414965,0.905881,-0.084759
0.113446,-0.182373,-0.069055,-0.087492,0.921985,0.377212
0.458799,-0.005449,0.693125,-0.079437,0.898086,0.432587
0.506744,0.329531,0.553506,0.397264,0.905134,0.151373
0.275741,0.733149,0.110165,-0.451302,-0.644566,-0.617140
0.212347,0.139755,0.709898,-0.687690,0.294735,0.663486
0.301720,-0.186007,0.864633,0.102356,-0.118734,0.987636
-0.501329,-0.623923,0.049804,0.449892,0.516006,-0.728928
0.180199,0.472235,0.555339,-0.704748,-0.331991,0.626987
-0.283314,0.556107,0.735394,0.818937,-0.199529,-0.538080
-0.027133,0.216829,-0.039322,0.188636,0.978734,0.080597
0.271978,-0.666464,-0.965473,-0.014732,0.254988,0.966832
0.499674,0.148310,0.928512,0.995137,0.091534,-0.036391
-0.789157,-0.517198,0.222719,0.197167,-0.006979,0.980345
0.414864,0.743656,0.492266,0.814177,-0.221561,0.536680
0.436330,0.386292,0.344173,0.315273,0.801695,0.507827
0.233863,0.406918,0.341167,0.028183,0.979577,0.199085
0.275089,0.167178,0.910904,-0.115749,0.991346,-0.061936
0.366317,0.037131,0.710690,-0.257889,-0.663095,0.702708
0.388184,-0.164365,0.920360,0.313438,-0.115489,-0.942560
0.401173,-0.465905,-0.713285,-0.319297,0.138686,0.937452
-0.088119,0.230384,0.550896,-0.172592,0.454716,-0.873754
0.669140,-0.645214,0.253933,-0.662515,-0.164010,0.730873
-0.190681,0.183976,0.571613,-0.668792,0.700920,-0.247848
0.048447,-0.493407,0.412260,-0.060673,-0.772454,0.632165
0.593961,-0.235580,0.487765,0.754575,0.284293,-0.591434
0.521941,0.336915,0.566262,0.689893,0.095334,0.717606
0.227645,0.012794,0.704840,-0.483476,-0.263315,0.834815
-0.578314,0.362775,0.170965,-0.088715,-0.356178,-0.930197
0.730527,0.223119,0.696600,-0.424030,-0.241555,0.872840
-0.064898,0.732953,0.608589,-0.263601,0.956855,0.122242
0.535282,-0.240307,0.266322,-0.480807,-0.377015,-0.791634
0.272230,-0.401253,0.573299,0.775761,-0.575336,0.259199
-0.037565,-0.205617,-0.057619,-0.530296,0.844029,0.080007
0.261447,-0.055061,0.030378,0.091618,-0.774668,0.625696
-0.135664,0.851124,0.569326,0.195151,0.855935,0.478844
0.221526,-0.298279,-0.985016,0.066631,0.180426,0.981329
0.365013,0.245347,0.601683,-0.790845,0.586453,-0.175035
0.414163,-0.173702,0.326843,-0.376206,0.002395,0.926533
0.908120,-0.840147,0.333983,-0.682114,0.305359,0.664437
-0.773960,-0.300115,0.296187,0.223704,0.824714,-0.519426
0.563418,0.548411,0.533787,-0.018944,0.255341,0.966666
0.597321,-0.509463,0.280133,0.247410,-0.929501,0.273524
0.892923,0.136433,0.673215,0.772785,-0.287605,-0.565763
-0.188725,0.419615,0.433885,0.926870,-0.178415,-0.330272
0.254426,0.019122,0.818200,0.245296,0.788021,0.564671
0.301520,-0.407152,0.229815,0.324648,0.850889,-0.413029
-0.251868,0.248003,0.212163,-0.352845,0.901765,-0.249642
0.536185,0.416606,0.537760,-0.284392,0.098807,0.953603
0.341893,0.549232,0.528318,-0.558742,0.707928,0.432024
-0.422288,-0.459069,-0.436319,-0.330516,0.461108,0.823492
-0.352876,-0.563763,0.160731,0.083646,-0.355983,0.930741
0.082552,0.666699,0.669521,0.140407,0.781293,-0.608167
0.284316,-0.159092,0.362455,0.903715,0.253653,0.344906
0.458147,0.392425,0.552480,0.415600,-0.751602,0.512222
0.705151,0.401449,0.519082,0.234210,-0.337747,0.911632
0.269573,0.188430,0.421555,-0.625681,-0.048644,-0.778561
0.340890,0.487665,0.275236,0.345557,0.360735,0.866291
0.266663,-0.073070,-0.226795,0.902603,-0.037554,-0.428832
-0.000903,0.356017,0.380269,0.991458,-0.129955,-0.011043
0.167661,-0.541770,0.416805,-0.075351,-0.484049,0.871791
-0.421235,0.764947,0.201621,-0.148661,0.666243,0.730766
0.146697,0.601656,0.672292,0.954345,-0.089572,0.284960
0.173880,-0.232611,-0.027871,0.189117,0.892801,0.408829
0.035659,0.568646,0.687877,-0.191472,-0.814642,0.547446
-0.315211,0.111510,-0.169777,-0.605300,0.795994,0.002367
0.075078,-0.367736,-0.815503,0.384848,0.917170,0.103398
0.817143,0.487821,0.254373,0.933001,-0.356673,0.047894
0.054165,-0.359532,-0.740071,0.997807,0.022434,0.062277
0.339335,0.701779,0.346357,0.458695,0.496467,0.736966
-0.899694,-0.332773,0.256704,0.238787,-0.540337,0.806856
0.281910,-0.237103,0.867829,-0.110740,0.288642,0.951011
0.294598,-0.166319,-0.988095,-0.197705,0.117168,0.973234
-0.182557,0.127331,0.539519,0.196190,0.589842,-0.783323
-0.107879,-0.100728,0.231384,-0.082369,0.996586,0.005578
-0.132856,0.156278,0.544504,-0.144216,-0.814608,0.561797
0.106375,0.868977,0.573563,-0.301396,0.064090,-0.951343
-0.551131,0.730102,0.206166,-0.294207,0.807288,0.511594
0.105320,0.383831,1.000000,0.628364,0.234120,0.741854
0.806710,-0.626579,0.287199,-0.019390,0.408849,0.912396
0.847184,0.084322,0.686322,-0.691744,0.644850,0.325053
-0.009178,-0.703224,0.289354,0.327256,-0.064700,0.942718
0.007823,-0.745180,-0.339672,-0.725812,0.667597,0.165866
0.328251,-0.239565,0.878971,0.455804,-0.047131,-0.888832
-0.238277,0.428287,-0.363717,-0.101566,0.188363,0.976833
-0.069211,0.047053,-0.305394,0.970293,0.025628,-0.240574
-0.136416,-0.130418,0.399417,0.832844,0.487796,0.261585
0.014343,-0.465555,-0.962203,-0.106798,-0.461666,0.880601
0.030493,-0.299372,-0.136115,-0.067257,0.428489,0.901040
-0.310397,0.291325,0.788599,-0.115861,-0.610243,0.783696
-0.613220,-0.858703,0.253742,0.958249,-0.283123,0.040005
0.388283,-0.006661,0.732124,0.581198,0.581817,0.568945
0.484829,0.491338,0.525650,-0.356608,-0.137554,-0.924072
0.841816,0.158115,0.651913,0.773349,-0.014790,-0.633808
0.647425,-0.203117,0.432346,-0.461080,-0.637233,-0.617527
0.375646,-0.586265,0.477649,-0.684905,0.347211,0.640585
-0.317319,0.377151,0.800724,-0.021766,0.212979,0.976814
0.405136,0.074087,0.909804,-0.650427,0.668168,0.361243
0.294799,-0.410161,0.582638,-0.680272,0.724737,0.109483
0.165304,0.518174,0.135719,0.963027,-0.265087,0.048040
-0.031045,0.344493,0.737212,-0.154552,0.233153,0.960080
0.240031,0.050687,0.853930,-0.881913,0.417947,-0.218059
-0.528863,0.727406,0.214553,-0.246254,0.832663,0.496015
0.267617,0.120886,0.855074,0.264242,0.863067,-0.430455
-0.035709,-0.143270,0.233583,0.592040,0.804262,-0.051501
-0.041477,-0.258199,-0.212940,-0.666047,0.745699,0.017716
0.155524,0.239213,0.510109,0.627234,0.243106,-0.739917
0.309042,-0.125339,0.587799,0.490998,0.725973,-0.481543
0.715132,0.264918,0.535048,0.442691,-0.505892,0.740336
-0.607603,0.469343,-0.388509,0.314915,-0.138119,-0.939016
0.327700,-0.135535,0.308385,0.894243,0.426741,0.134988
0.295250,-0.053421,0.355653,0.940768,-0.325850,-0.093687
0.347410,0.499073,0.286759,0.474149,-0.571404,-0.669836
0.362405,-0.291404,-0.107863,-0.254411,0.714986,-0.651207
0.343046,-0.432193,0.007800,-0.183854,-0.867601,0.462024
-0.090626,0.205305,0.947249,0.102433,0.607241,0.787887
0.846380,0.183389,0.372733,0.692009,0.219296,-0.687774
0.754049,-0.684786,0.286393,-0.609943,-0.046059,0.791106
0.485280,-0.177764,0.459498,0.031189,0.911956,0.409100
0.316717,-0.586226,0.280162,0.342727,-0.625422,0.700989
0.072221,0.589897,0.872257,0.132278,-0.427946,0.894072
0.632829,-0.175225,0.650051,-0.644958,0.323190,0.692515
0.410201,0.179561,0.756740,-0.063641,0.493527,0.867399
-0.020915,-0.326835,0.652602,-0.405974,-0.523736,0.748923
0.433372,0.285973,0.364229,0.899791,0.423772,0.103887
-0.019159,0.447507,0.946296,0.275133,-0.499430,0.821505
0.493554,-0.059750,0.603721,0.874050,-0.288496,-0.390906
0.104970,0.273824,0.481637,0.735116,0.198165,-0.648332
0.347761,-0.192218,0.579339,-0.289499,-0.238465,0.926998
0.095040,-0.222728,0.665914,0.423998,0.863781,0.272227
0.013391,-0.281715,0.111161,-0.128184,0.813178,0.567724
0.226189,0.500401,0.101705,-0.527686,0.844254,-0.093712
0.102362,0.174405,0.789552,0.905455,-0.200908,0.373880
-0.350218,-0.986756,-0.408756,0.614172,-0.273553,-0.740245
-0.038167,-0.545013,0.424018,-0.316432,-0.567916,0.759831
0.379408,-0.392894,0.593957,-0.369951,-0.081793,0.925444
-0.027986,-0.137957,-0.067735,0.822008,0.532996,-0.200546
0.154521,0.629118,0.594587,0.782906,0.588539,0.201692
-0.546417,0.381175,0.541396,0.281673,0.191926,-0.940120
0.029339,0.002441,0.427229,0.764648,0.627047,0.148744
0.434927,0.260425,0.790916,0.970829,-0.195192,-0.139255
0.691659,0.415122,0.527248,0.522844,0.465622,0.714024
0.810823,-0.752836,0.275001,0.511666,0.470782,-0.718722
0.160790,-0.360392,-0.979797,-0.091648,-0.243285,-0.965615
0.598977,0.437897,0.580893,0.253722,0.727350,0.637642
-0.231908,-0.828232,0.275544,-0.100762,-0.117415,0.987958
-0.464267,-0.632165,0.162300,-0.487691,0.414412,-0.768388
0.416219,0.565286,0.781797,0.455099,0.870873,-0.185649
0.335773,-0.115885,0.571276,0.083865,0.246725,0.965450
-0.856162,-0.657324,0.238084,0.166440,0.083350,0.982522
0.179798,0.481532,0.547173,-0.430636,-0.349110,0.832271
0.576156,0.547785,0.517982,0.960607,0.187423,0.205197
0.065549,0.196906,0.316566,0.565764,0.048606,0.823133
-0.137821,-0.107252,0.111602,0.372468,0.763798,-0.527144
0.443201,-0.075180,-0.213556,-0.031731,0.686074,0.726839
0.615476,-0.036037,0.352794,0.330528,-0.271903,-0.903781
0.173479,0.024592,0.772003,-0.446096,0.007844,-0.894951
0.168564,-0.422036,-0.973712,0.113207,0.021395,0.993341
-0.316867,0.728812,0.666368,-0.230718,0.938593,0.256538
0.479813,-0.116549,0.587051,0.283974,-0.766661,0.575838
-0.120868,0.577866,0.247585,-0.024791,0.479246,0.877331
-0.010683,0.090962,0.629862,0.898119,-0.418444,0.135230
0.558704,0.448444,0.670239,-0.376214,-0.892661,0.248234
0.635488,-0.655097,0.204774,0.219635,0.808889,-0.545398
0.439991,-0.486024,0.417215,-0.212025,-0.726291,-0.653870
-0.022369,-0.170928,0.051652,-0.491306,0.856709,-0.157060
0.808365,0.057952,0.666398,-0.536041,0.814157,0.223179
0.023170,-0.031272,0.247496,0.719796,-0.511909,-0.468874
0.084458,-0.403598,-0.813861,0.384774,0.922709,0.023609
0.374192,0.210539,0.852493,0.896442,0.439077,0.060019
0.217112,0.054749,0.570161,-0.472952,-0.644146,0.601160
0.254927,0.521457,0.784480,0.914405,-0.240978,0.325259
-0.104017,-0.826825,0.271776,-0.088776,-0.000507,0.996052
0.275591,-0.375745,0.395795,0.909657,-0.376933,-0.174485
0.529314,-0.214954,0.489994,0.288385,-0.026332,-0.957152
0.791463,-0.772447,0.309836,-0.669945,0.293048,0.682127
-0.063494,0.000918,-0.732535,-0.562888,0.446237,0.695723
0.344651,0.105846,0.889439,-0.634851,-0.622365,-0.457849
-0.198957,0.072212,0.611081,0.420437,-0.133023,0.897518
-0.188626,-0.506025,-0.156128,-0.419161,0.674313,-0.607952
-0.047696,0.421138,0.790696,0.057068,0.888666,0.454991
0.151261,0.380940,-0.349920,-0.562834,0.807322,0.177338
-0.205779,0.645447,0.227337,0.621371,-0.633596,-0.460927
-0.828828,-0.504814,0.227792,-0.277308,0.068591,-0.958329
0.235117,0.260698,0.839518,-0.346786,0.326154,0.879411
0.432118,-0.480829,-0.349290,0.956403,0.157515,0.245931
-0.075881,0.114675,-0.299368,0.414065,0.373422,0.830124
-0.155174,-0.238314,-0.988770,0.027231,0.121809,0.992180
0.293946,-0.259605,-0.685487,-0.499497,-0.088466,-0.861787
-0.135563,0.716976,0.378583,-0.355771,-0.232072,0.905301
0.106725,0.092877,0.831542,0.890942,0.265118,-0.368692
0.655148,0.375628,0.517791,0.059491,-0.366973,0.928327
-0.036561,-0.152450,-0.057487,-0.608450,-0.792426,0.043013
0.511209,0.141668,0.750290,0.913439,0.073699,0.400246
-0.302122,-0.214055,0.378979,-0.571377,0.697495,0.432469
0.443101,0.108463,0.404944,-0.154768,0.163227,0.974373
-0.000903,0.061195,0.166347,0.833194,-0.265140,-0.485272
0.107677,0.833700,0.581407,0.145710,0.141760,0.979118
-0.016601,0.485712,0.719911,-0.162721,0.781208,0.602691
0.427905,0.495322,0.765596,0.927806,-0.370986,0.039316
0.235919,0.296208,0.602225,0.690041,0.708807,0.146412
-0.265862,-0.616305,0.355007,0.211848,-0.925116,0.315090
