-0.059633,0.064695,-0.470093,0.952657,-0.271351,0.137160
-0.177793,-0.635299,-0.108530,0.489633,-0.126628,0.862685
0.264739,-0.330245,0.708514,-0.367087,0.121512,-0.922216
0.311379,0.497309,0.243775,-0.129644,0.567841,0.812864
-0.700206,0.070077,-0.633975,0.879929,-0.321791,0.349536
-0.472794,0.070965,-0.312540,0.141794,-0.188699,0.971744
-0.162308,-0.305720,-0.982153,-0.118462,-0.155890,0.980645
0.299396,-0.088553,0.786927,-0.009130,0.159642,0.987133
0.027252,-0.059146,0.727308,0.966871,0.255182,-0.006544
-0.568342,0.106365,-0.706004,0.408408,0.698112,0.588084
0.013057,-0.009987,0.531469,-0.669228,-0.731223,0.132087
-0.056070,0.251346,0.651209,0.859534,0.165013,-0.483706
-0.381915,0.759585,-0.207189,-0.175725,0.742270,0.646650
0.335895,-0.635966,-0.188506,0.256878,0.754355,0.604121
0.518695,0.056816,-0.517247,-0.110775,-0.758559,0.642120
-0.001751,-0.080287,0.805778,0.469986,-0.552539,0.688342
-0.303634,0.165400,0.442821,0.558281,0.787003,0.262579
-0.413745,-0.668535,-0.579209,-0.024865,0.014837,0.999581
0.233341,-0.443821,0.377067,-0.145832,0.703092,0.695984
0.357216,0.020973,0.099300,-0.542874,0.450309,-0.708879
-0.124335,0.155690,-0.047293,0.036835,0.634688,0.771890
0.106887,-0.168396,0.479239,-0.303061,-0.926892,0.221418
-0.056868,-0.085724,-0.436519,-0.271287,-0.962496,0.002092
-0.227872,-0.794152,-0.091743,-0.431110,0.344964,-0.833753
-0.020676,0.162348,0.639218,0.291849,0.579805,-0.760691
-0.033886,-0.002275,-0.983157,-0.327152,0.002125,0.944969
0.155979,0.265106,-0.088620,-0.151382,0.268475,0.951317
0.009432,0.271986,-0.098631,0.141458,0.099394,0.984942
0.203969,-0.107973,0.576141,-0.282497,-0.496724,-0.820647
-0.573320,0.347722,-0.692228,0.200621,0.099957,0.974556
0.071982,-0.143983,0.739717,0.876640,0.472730,0.089598
0.249625,0.503357,-0.137754,-0.150963,0.238942,-0.959227
-0.049064,-0.722522,0.148602,0.085897,-0.264384,0.960585
-0.378291,-0.294901,0.298876,-0.003700,-0.987499,0.157583
0.202926,-0.070632,-0.428237,-0.264689,-0.515543,-0.814957
-0.680789,0.150697,-0.657260,0.790041,-0.491215,-0.366801
0.542476,-0.274427,-0.226402,-0.085078,-0.966860,0.240713
-0.585363,-0.302003,-0.681409,0.028526,-0.634917,0.772053
-0.062706,-0.134329,-0.872591,0.586664,0.808432,0.047573
0.509416,0.530267,0.253061,-0.201161,0.489832,0.848292
-0.289501,-0.088776,0.662949,0.135735,-0.073492,0.988016
-0.148176,-0.074238,-0.699506,-0.719435,0.015695,-0.694382
-0.420073,-0.579815,0.006609,0.052973,0.336632,0.940145
0.315677,-0.236975,0.174424,-0.141290,0.174644,0.974442
-0.240162,-0.521223,0.352779,-0.187520,0.852311,0.488264
0.393530,0.410420,0.683082,-0.067457,-0.304581,0.950095
-0.031859,0.039782,-0.029280,0.918090,0.031177,-0.395144
-0.085255,0.573157,-0.102981,0.281922,0.333141,0.899743
0.103384,0.578982,0.522434,0.881443,-0.356426,-0.309868
-0.653629,0.266826,-0.707565,-0.197613,-0.323032,0.925527
0.212879,-0.159851,-0.293913,0.134847,0.921423,-0.364412
-0.185843,-0.208234,0.937342,0.434210,0.771036,0.465795
0.101171,0.411530,0.594546,0.393845,0.310423,-0.865173
-0.166180,-0.086445,-0.095619,0.128880,-0.735409,0.665255
0.295522,-0.284192,0.719082,-0.318070,-0.060936,0.946107
-0.325508,0.167119,0.301386,0.058509,0.101914,-0.993071
-0.196350,-0.156301,-0.159560,-0.365162,0.927783,-0.076658
-0.439429,-0.731787,0.302418,-0.580899,-0.106278,0.807007
-0.468862,-0.464296,0.320543,0.983568,0.150508,0.099704
-0.064304,0.031627,-0.977775,-0.198593,-0.203811,0.958656
-0.371101,-0.046385,-0.045816,0.256273,0.125365,0.958440
0.222098,-0.104755,0.150331,-0.682767,0.430417,-0.590398
-0.218962,-0.216668,-0.993140,-0.219274,0.035132,0.975031
0.124829,-0.153804,0.117760,-0.527547,-0.849485,-0.008310
0.470953,-0.423015,-0.310449,-0.765556,-0.440127,0.469268
0.271805,-0.386340,0.193135,0.192291,0.242508,0.950902
-0.553657,-0.003662,-0.773877,0.070408,-0.699082,0.711567
-0.054532,-0.049992,0.400825,0.270432,0.906494,0.324246
0.178961,-0.156190,0.706645,0.171012,0.963059,-0.208021
-0.161203,-0.172557,0.064053,0.068411,0.524854,0.848439
0.461491,0.053043,0.176933,-0.039914,-0.508595,0.860080
0.154996,-0.563114,-0.403112,0.297365,-0.230586,0.926501
-0.041753,0.380514,-0.126209,0.285576,0.932597,0.220703
0.283727,0.362482,-0.207691,0.908032,-0.078817,0.411418
0.429106,-0.062809,-0.122975,0.885620,-0.238569,0.398450
0.450123,0.182878,0.505424,-0.243618,0.243519,-0.938802
-0.407292,0.124008,0.315580,0.091304,0.108888,-0.989852
0.215336,0.265994,0.692228,0.231713,0.159366,-0.959641
-0.115241,-0.079232,-0.746410,0.322108,0.931984,-0.166292
-0.458723,0.152250,0.470874,-0.686554,0.373603,0.623750
0.381117,0.266382,0.505647,0.185543,-0.017733,0.982476
0.203908,0.006436,0.152115,-0.366885,-0.498541,0.785399
-0.210729,-0.181990,-0.537966,-0.531027,0.733687,-0.423927
-0.196534,0.209732,-0.528066,0.177982,0.485773,-0.855773
0.185168,0.230484,0.596330,-0.035572,0.056076,0.997793
-0.435127,-0.688731,0.281643,-0.609719,0.571598,0.549107
-0.016252,-0.102314,0.489362,0.934105,0.221106,-0.280287
0.369258,0.394718,0.658905,0.052140,-0.496969,0.866201
-0.502842,-0.126394,0.435180,0.116648,-0.098742,0.988253
-0.031613,0.139877,0.194445,0.276419,0.204245,-0.939083
0.101603,0.351329,0.182929,-0.575697,-0.359930,0.734182
-0.398138,0.306442,-0.694152,0.343240,0.731085,0.589661
-0.014900,0.563946,-0.115000,0.441496,0.429151,0.787979
0.043105,0.498197,-0.128580,0.402604,0.389493,0.828375
-0.156532,0.353215,0.643764,0.140095,-0.090958,0.985951
-0.418783,0.293347,0.550626,-0.117908,-0.768541,0.628842
0.169499,-0.260723,-0.542288,-0.301123,0.311344,0.901327
0.266461,-0.596460,-0.453501,0.903739,0.426923,-0.031499
-0.248334,-0.584087,0.301024,0.989447,-0.133668,-0.055930
-0.013918,0.131221,0.544938,0.729886,-0.061390,-0.680807
-0.033886,-0.108916,-0.140766,0.104384,0.994495,0.009135
-0.531905,-0.629474,-0.579627,0.155108,0.161642,0.974584
0.391317,-0.283360,-0.619810,0.072597,0.622676,0.779105
-0.356417,-0.342562,0.261398,-0.616491,0.781246,0.097944
-0.185412,-0.261221,1.000000,0.464886,0.775638,0.426926
0.216259,0.084059,0.392042,-0.070376,0.556637,0.827770
0.064487,-0.595184,0.189760,-0.012976,-0.202146,0.979269
-0.477956,0.322255,-0.753130,0.154948,-0.485926,0.860155
0.013242,-0.056595,0.398121,-0.226605,0.900099,0.372118
-0.272728,0.097487,-0.560776,0.979484,-0.201160,-0.012093
0.405449,0.212617,-0.401969,-0.109490,0.207732,0.972039
0.030755,-0.297786,0.929199,-0.125552,0.835373,0.535152
0.209744,-0.177662,-0.947826,0.437366,-0.431147,-0.789192
0.523795,0.126339,0.621204,0.612615,0.238350,-0.753587
-0.237272,-0.030572,-0.284543,0.050910,0.880039,0.472164
0.012320,0.040282,-0.975210,0.021563,-0.000354,0.999767
0.034196,0.466071,0.499373,0.713572,0.251229,-0.653987
-0.616884,-0.242800,-0.069128,0.177982,-0.942692,0.282231
-0.415712,-0.259391,0.344079,0.298991,-0.941871,0.153243
-0.399919,-0.470344,-0.581969,-0.430174,-0.686300,-0.586467
0.231069,0.154914,0.353058,0.876367,-0.479133,-0.049107
0.194075,-0.459635,-0.202197,-0.396461,-0.261328,0.880072
0.451230,-0.532430,-0.584535,-0.072542,0.294384,-0.952930
0.454117,0.431892,0.538858,0.939659,0.339047,-0.045684
0.616024,0.048382,-0.172109,-0.072822,-0.665032,0.743256
-0.277766,0.047773,-0.351802,0.191447,0.549149,0.813501
-0.034318,-0.101537,0.208137,0.150969,-0.983974,-0.094883
0.402377,0.519281,0.582750,0.167070,0.713807,0.680123
-0.616823,-0.300783,0.289423,-0.298713,0.357616,0.884806
-0.052321,-0.006492,0.705697,0.016687,0.111463,0.993628
0.075977,-0.009100,0.526979,0.285287,0.790749,-0.541597
-0.235922,-0.412806,0.349907,0.020514,0.436004,0.899711
-0.060677,0.251789,0.206046,0.320760,0.133181,-0.937750
-0.719254,0.159851,-0.685815,-0.507359,0.422270,0.751182
-0.419644,-0.368640,0.230111,0.539448,-0.825213,-0.167392
0.112171,-0.069523,-0.499094,-0.521826,0.794497,-0.310599
-0.022581,0.074127,0.786983,0.875018,-0.170271,-0.453157
-0.091400,-0.136659,-0.914057,0.519817,0.849441,-0.090776
-0.659590,-0.345281,-0.488664,-0.586805,-0.302341,-0.751166
-0.456817,0.328525,0.464153,-0.050773,-0.257640,0.964906
-0.539893,0.152916,-0.701514,0.484759,0.057117,-0.872781
0.186394,-0.203462,-0.526561,0.419598,0.323405,-0.848143
-0.655350,0.120568,0.475754,0.095680,-0.049717,0.994170
0.545547,0.357821,0.578567,0.838616,-0.430794,0.333376
-0.477833,0.123676,-0.740331,0.786865,0.424784,0.447663
-0.530370,-0.093159,-0.181228,-0.787279,-0.310628,-0.532636
-0.033948,0.318815,0.564206,-0.067699,0.131603,0.988988
0.642816,-0.454585,-0.255096,-0.174707,-0.081251,0.981262
-0.728409,-0.122177,-0.640445,0.323960,-0.162000,0.932098
0.194938,0.275370,0.703104,-0.255177,-0.511719,0.820383
-0.379950,-0.049104,0.645242,0.203600,0.460942,0.863759
-0.371716,0.184486,0.123365,0.593043,0.164474,-0.788193
-0.805524,0.036786,-0.680098,-0.467845,0.160836,-0.869053
-0.141356,0.119902,0.652297,0.249867,-0.307827,0.918046
0.217057,-0.368362,-0.184992,-0.215285,0.099091,0.971511
-0.479123,0.011208,-0.656953,-0.445543,-0.383357,0.809030
0.110450,-0.453698,0.140571,0.550025,0.325866,0.768950
-0.441949,0.118682,-0.653328,0.094185,0.664065,0.741719
-0.552060,0.240692,-0.053345,-0.413921,-0.593324,-0.690388
-0.425849,0.380347,-0.165333,0.473962,0.639177,0.605651
0.206429,-0.786828,-0.408076,-0.080735,0.197464,0.976980
-0.112537,-0.094712,-0.978612,0.388849,-0.416012,-0.822028
-0.420505,0.063197,-0.582025,-0.451863,-0.892074,0.004875
0.151801,-0.254398,-0.880539,0.299256,-0.868102,-0.396036
0.173737,0.350719,0.722623,0.190669,0.392930,-0.899584
0.054656,0.079066,-0.582722,-0.425677,0.533814,-0.730645
-0.607606,0.347500,0.565601,-0.367347,0.811454,0.454530
-0.653814,-0.420352,0.192549,-0.405894,0.911286,0.069344
-0.068789,0.266770,0.674493,0.589364,0.194935,0.783996
0.059265,-0.043833,0.669557,0.706834,0.489691,0.510478
-0.495345,0.011596,0.616938,-0.031390,0.775707,0.630312
0.008633,0.072741,-0.124508,-0.166984,-0.370640,0.913642
-0.589357,-0.197803,-0.721926,0.240685,0.138456,0.960677
-0.412516,0.085669,-0.205041,-0.503118,0.248150,0.827825
0.060925,-0.131665,-0.961964,0.374095,-0.055427,-0.925732
0.429905,-0.083116,0.145060,-0.149325,0.213171,0.965536
0.034563,0.173001,0.214021,-0.441409,0.722775,-0.531747
0.033397,-0.103978,0.648532,0.139195,0.966350,0.216314
-0.431381,0.331299,-0.699785,-0.656874,0.735713,-0.165052
0.381548,-0.321534,-0.106801,0.276419,0.031639,0.960516
0.382898,0.049825,-0.489557,0.019260,-0.659714,0.751270
-0.190574,-0.234534,0.950448,-0.442034,-0.771099,-0.458270
0.124090,-0.257948,-0.928725,-0.203603,0.965706,0.161116
-0.848043,-0.396493,0.194389,0.304308,0.916151,-0.260889
0.026146,-0.125950,-0.108363,-0.156102,0.933478,0.322878
-0.059449,0.065305,0.765902,0.892308,0.219238,0.394615
-0.456512,0.132941,0.294136,-0.132344,-0.142656,0.980884
0.142339,-0.375021,0.312930,-0.563157,0.064720,0.823812
0.084520,-0.205182,-0.953626,0.338126,-0.068868,-0.938578
0.852652,0.163347,-0.140543,-0.439829,0.056636,0.896294
0.335831,0.327415,-0.392209,-0.755057,-0.061760,-0.652744
0.863161,-0.028907,-0.140487,-0.353352,-0.082323,0.931861
-0.151739,-0.243966,0.953738,0.402739,0.813924,0.418724
-0.140863,-0.306387,-0.725468,0.255224,-0.188495,0.948330
-0.168085,-0.267824,-0.979839,0.367407,0.024578,-0.929735
-0.214968,-0.304722,-0.993586,-0.353161,0.066024,0.933230
0.534795,0.557399,0.462843,-0.149657,0.123338,0.981015
-0.455713,0.315042,-0.145478,-0.108334,0.089466,0.990081
-0.344864,-0.653776,0.187390,-0.114152,-0.664587,0.738440
-0.275983,-0.314820,-0.993670,-0.187065,0.032094,0.981823
0.223141,0.325418,-0.184880,0.984833,-0.157605,0.072562
-0.310884,0.025689,-0.071192,0.046272,0.185408,0.981572
0.169008,0.616712,-0.134352,0.498242,0.533201,0.683704
-0.254293,-0.456195,-0.143833,0.741635,0.609787,-0.279531
0.170482,0.616712,-0.161289,-0.404043,-0.817821,-0.409779
-0.217119,-0.676358,0.248766,0.952508,0.304316,0.010972
0.139268,0.434556,0.584395,-0.451673,-0.498139,-0.740168
-0.159727,-0.485102,-0.154959,0.926147,-0.368462,-0.080547
0.691357,-0.409754,-0.280165,-0.107711,0.307444,0.945450
-0.401087,0.037563,-0.080422,0.435918,0.186951,0.880355
0.039049,-0.000055,0.445470,0.827689,-0.405362,0.388089
-0.715751,-0.324697,-0.478654,-0.564354,-0.648416,-0.510942
0.075733,-0.557954,0.182957,-0.165723,-0.384226,0.908243
0.416880,0.466459,0.585873,-0.163778,0.102890,0.981117
0.058957,0.122732,0.424472,0.964315,-0.057531,0.258433
-0.236781,-0.669755,0.179945,-0.000219,-0.865055,0.501677
-0.693876,-0.364534,0.298737,0.096078,0.090475,-0.991253
-0.144857,0.034067,0.809152,-0.487378,0.303128,0.818887
-0.112906,0.244688,0.507069,0.798235,-0.509689,-0.320995
-0.661495,0.182600,-0.639441,-0.734458,0.160111,0.659497
0.006728,-0.125673,0.781601,0.169083,-0.871141,0.461003
0.728962,-0.061089,0.664678,0.768704,0.595442,-0.233543
0.036960,-0.121788,0.744458,0.208747,0.956423,0.204158
0.218779,-0.002996,-0.960096,-0.401124,0.054833,0.914381
-0.478140,-0.338568,0.360670,-0.540096,-0.282397,-0.792810
0.406435,-0.221273,-0.301888,0.029217,0.536774,0.843220
-0.493256,-0.421795,-0.350102,0.007224,0.201476,0.979467
0.019509,-0.049160,0.733220,0.978842,-0.004497,-0.204567
-0.166979,-0.080009,0.328881,0.603837,0.393759,-0.693062
0.077390,-0.753593,-0.530688,-0.230989,0.211224,-0.949752
-0.350639,-0.540643,0.330471,-0.490830,0.070154,0.868427
-0.490797,0.157410,-0.740749,0.735917,0.280244,0.616352
-0.111309,-0.208733,0.892502,-0.581418,-0.648412,-0.491442
0.043534,0.127670,0.625554,-0.307079,-0.226211,0.924408
0.299089,0.038506,0.165305,-0.300081,0.478915,-0.824980
0.230821,0.121566,-0.958451,-0.157472,-0.016079,0.987393
0.041876,0.013206,0.829118,0.779540,0.626351,0.001393
-0.313650,-0.235588,-0.551685,0.510729,-0.717646,0.473434
-0.400350,-0.548022,-0.009509,-0.075316,0.334479,0.939389
-0.089619,-0.393275,-0.159449,-0.469152,0.882959,-0.016750
0.897263,0.117516,-0.128078,0.351084,-0.009379,-0.936297
0.218715,-0.023193,-0.955550,-0.428032,0.492968,0.757477
0.320102,-0.179937,0.008561,0.215711,0.459455,-0.861609
0.126610,-0.298285,-0.180447,-0.259036,-0.387338,0.884799
0.511937,0.095101,0.473746,-0.390387,0.259099,-0.883440
-0.252633,-0.287910,0.284041,0.450628,-0.750875,0.482826
-0.069648,-0.193531,-0.964808,0.286696,0.033078,-0.957450
-0.384004,-0.320313,0.311676,0.145693,-0.530786,0.834889
-0.558818,-0.237585,0.309278,-0.230452,-0.914335,0.332991
0.248395,0.104977,-0.472073,0.055836,-0.618685,0.783653
-0.621923,0.323032,0.553247,0.253717,0.967278,0.001126
-0.575347,0.299673,-0.701012,-0.002880,-0.223284,0.974749
-0.320715,-0.501915,-0.010457,-0.728514,0.387416,-0.564957
-0.039847,-0.779837,-0.524413,-0.087773,-0.254393,0.963110
0.814740,-0.314931,-0.266557,0.329901,-0.095980,-0.939124
-0.119664,0.441492,0.451716,-0.181627,-0.074567,0.980536
0.149652,-0.379071,-0.396503,0.928794,0.330571,0.167527
-0.277519,0.186373,0.144837,-0.119308,-0.003998,0.992849
-0.040646,-0.118571,-0.181116,-0.278642,0.918038,-0.282073
0.149776,0.517283,0.549538,-0.120812,0.934954,0.333564
0.735109,0.263441,0.662809,0.950416,-0.053311,0.306379
0.081261,0.078899,-0.966593,-0.148446,0.317211,0.936665
0.039173,0.049492,0.550291,0.909709,0.414209,0.029325
-0.133614,-0.111080,0.870918,-0.515268,-0.005107,-0.857014
0.261668,0.467403,-0.209838,0.995395,0.054792,-0.078653
-0.245200,-0.090995,0.830401,-0.490438,-0.856281,-0.162029
0.406004,0.343561,0.333956,0.591968,-0.426667,-0.683761
0.044519,-0.079010,0.457823,0.429243,0.893003,-0.135265
0.223448,0.384232,0.576894,0.408773,0.276629,0.869701
-0.311315,0.287133,-0.761412,0.900111,-0.434892,-0.025852
-0.167286,-0.583754,-0.091269,0.322287,-0.228919,0.918546
0.237950,0.601731,0.539472,-0.074465,-0.381601,0.921323
-0.106148,-0.128836,-0.980452,0.420864,-0.041999,-0.906151
0.166488,0.398768,0.613313,-0.356437,-0.667428,-0.653829
0.201265,0.601177,0.543655,0.135345,-0.518486,0.844307
-0.528219,0.007713,-0.444522,-0.144446,-0.352829,-0.924471
-0.552551,0.108140,-0.709294,-0.022855,0.317868,0.947859
0.428123,0.131055,0.497504,-0.220704,0.435526,-0.872701
-0.300439,0.444987,-0.123253,-0.527551,-0.077115,0.846016
-0.628252,-0.518726,0.190541,0.116010,-0.270458,0.955717
-0.197270,-0.655828,0.334124,-0.109337,0.792898,-0.599465
-0.058466,0.880209,-0.231031,0.798083,-0.327695,-0.505647
0.541860,0.147755,-0.182566,0.840392,0.137700,-0.524195
0.358446,0.554347,0.577090,0.418104,0.791129,0.446435
0.253496,0.280198,-0.398678,0.310171,-0.204333,0.928462
-0.193031,-0.194918,0.060595,-0.762965,0.572556,-0.300108
-0.229407,-0.529379,0.365355,-0.073704,0.395765,0.915390
0.475254,0.232314,-0.090182,0.395172,0.623169,0.674907
-0.353835,0.208123,-0.705083,0.374178,0.876609,0.302569
-0.091707,0.028408,0.788405,-0.018165,0.999654,-0.019035
-0.181725,0.086112,0.636681,0.037329,-0.098218,-0.994465
-0.446065,0.057593,0.427763,0.592462,0.320705,-0.739011
-0.285998,0.790768,-0.219152,-0.044051,0.643200,0.764430
-0.650495,-0.524996,-0.569002,0.285360,0.095894,0.953611
-0.033519,-0.048549,-0.056496,0.884303,0.443784,-0.145132
-0.230452,-0.298563,-0.993001,-0.284683,0.005615,0.958605
0.731298,0.255008,0.671454,0.780633,0.131277,0.611047
0.000583,0.223714,0.199018,-0.286751,-0.309611,0.906595
-0.060493,0.251845,-0.452832,-0.209511,-0.040743,0.976957
0.057360,0.111025,0.416023,0.930951,0.122757,0.343891
0.242005,-0.669201,-0.402443,-0.032707,0.219535,0.975056
-0.191619,-0.140376,-0.059284,-0.305055,0.865090,0.398197
-0.631755,-0.226378,-0.726667,-0.143923,-0.075057,-0.986738
-0.750530,0.281695,-0.686149,-0.450090,0.109261,-0.886274
0.327659,-0.633524,-0.429770,-0.485990,-0.383380,-0.785388
0.483670,0.511625,-0.115251,-0.294823,0.310254,0.903782
-0.183447,-0.187094,0.921475,0.496272,0.541108,0.678908
0.034809,-0.006048,0.359220,0.999026,-0.043708,-0.006093
-0.674582,0.230039,-0.717074,-0.396112,0.239466,-0.886426
-0.449690,-0.195472,-0.051030,-0.765675,-0.193711,-0.613366
0.028911,-0.048216,0.593821,0.961768,-0.245076,-0.122232
-0.115241,-0.099484,-0.958562,0.468750,-0.211007,-0.857758
0.005500,-0.628974,0.196035,0.132045,-0.369666,0.919734
-0.271805,0.311713,-0.789799,0.441040,-0.367532,-0.818782
0.138037,-0.141486,0.788461,0.069340,-0.805476,0.588558
0.693877,-0.453032,-0.277404,-0.155463,0.254025,0.954622
0.218224,-0.222438,-0.082374,-0.098098,-0.003977,0.995169
-0.368092,-0.212118,0.352165,-0.188304,0.672284,-0.715944
0.645888,-0.369861,0.092970,-0.181335,-0.344269,0.921193
-0.726935,0.113744,-0.687348,0.312510,-0.581709,-0.750967
-0.053919,-0.104588,0.410223,-0.485298,0.495144,0.720638
-0.176503,0.229263,-0.041354,0.057247,0.711397,0.700455
-0.052321,-0.174500,-0.706952,-0.550019,0.749994,-0.367407
0.209009,-0.146701,-0.950754,0.402039,-0.066273,-0.913221
0.000092,-0.098874,0.212961,0.164099,0.986428,-0.005656
-0.364036,0.067470,-0.692479,0.667938,0.239071,0.704772
0.218104,-0.327359,0.372131,0.810036,0.551238,-0.199946
0.602447,0.529879,0.482725,-0.196057,0.079717,-0.977347
-0.113951,-0.200022,0.122110,0.815840,-0.191162,-0.545768
-0.362806,0.184043,-0.673740,0.242903,0.157351,0.957204
0.082615,-0.564168,-0.069435,-0.329111,0.102585,0.938702
-0.581061,-0.217778,-0.038119,0.241833,0.950738,-0.193943
-0.027620,0.827776,-0.186219,-0.281388,0.213674,0.935502
0.554885,-0.520501,-0.548841,0.331494,-0.938278,-0.098724
0.103875,-0.061199,0.812833,0.296057,0.344094,0.891038
-0.447479,0.337624,-0.155350,-0.024923,0.312816,0.949487
0.578974,0.167119,0.458883,-0.409223,0.435288,-0.801910
-0.017850,0.718637,-0.175120,-0.013977,0.468634,0.883282
-0.005560,-0.220496,-0.964892,0.320168,0.149576,-0.935478
-0.436234,0.215114,-0.712250,-0.408916,0.335965,0.848478
-0.453009,-0.028907,0.638856,-0.150248,0.770581,0.619379
0.154138,-0.585752,0.171830,0.289218,-0.175625,0.941015
0.667947,0.064695,-0.170241,-0.164146,-0.024841,0.986123
-0.083474,-0.120901,-0.096428,0.032430,0.981547,-0.188452
-0.298841,-0.802918,-0.081565,-0.302638,0.808601,-0.504554
-0.425543,0.143983,0.632080,-0.015251,-0.449195,0.893304
-0.075118,0.131609,0.820000,0.076327,0.176737,0.981294
0.226643,-0.353049,-0.501994,-0.205026,0.085511,-0.975014
-0.230821,-0.206292,0.324308,0.220684,-0.975312,-0.008070
-0.242618,0.383510,-0.110845,-0.144847,-0.206265,0.967716
0.337369,-0.244910,0.180056,0.502876,0.799291,-0.329012
-0.396170,-0.830384,-0.082457,-0.381286,0.840294,-0.385392
-0.022335,0.057760,0.783916,0.297483,-0.483658,0.823152
0.121078,-0.088998,0.436742,-0.581059,0.679173,0.448436
-0.295584,0.241802,0.145004,0.342301,-0.380437,-0.859126
-0.159360,0.866060,-0.260868,-0.410102,0.741367,0.531217
-0.501552,-0.711202,0.272218,0.013364,0.307671,0.951399
-0.216626,-0.034956,0.633167,0.111044,-0.123783,0.986077
0.798520,0.062088,-0.155656,-0.305042,0.129852,0.943445
-0.384190,-0.028186,0.128998,-0.621805,0.648780,0.438684
0.119912,0.291295,-0.389839,-0.005527,-0.202394,0.979289
0.420011,0.677190,0.453975,-0.031763,0.140978,0.989503
-0.224247,-0.355435,0.361033,-0.213443,-0.798017,0.563569
0.536269,0.464851,0.496082,-0.489130,0.056391,-0.870386
0.213555,-0.101481,-0.945986,0.160085,0.287110,-0.944426
-0.261053,-0.024025,-0.350938,-0.057550,-0.921802,0.383366
-0.762143,-0.445264,0.186359,-0.226306,-0.973348,0.037140
-0.505606,-0.706320,-0.320822,-0.267849,0.228520,0.935968
0.328765,-0.663098,-0.541786,0.636151,0.153042,-0.756234
0.232602,0.166343,0.344720,0.506524,-0.855175,-0.110041
-0.138714,-0.235255,0.361340,-0.149796,0.273912,-0.950018
-0.264494,-0.314487,0.201947,-0.435177,0.699852,-0.566416
0.633354,0.274927,0.691587,-0.522652,-0.416040,0.744141
-0.193462,-0.199357,0.369817,-0.269986,0.703219,-0.657717
-0.526621,-0.480941,-0.342628,-0.282915,0.518369,0.807002
-0.523180,-0.575931,0.202839,-0.777982,0.477033,0.408881
0.061783,0.216945,0.583419,-0.498374,0.068134,0.864280
-0.402070,-0.466681,0.386855,0.990421,0.067174,0.120636
-0.870472,-0.250513,-0.079222,-0.125077,0.149733,-0.980783
-0.008018,0.217000,-0.105072,0.131154,-0.151847,0.979664
0.060679,-0.006658,0.640362,0.905563,0.395310,-0.153902
-0.021598,-0.167342,0.724018,-0.340439,0.790078,0.509783
-0.330485,-0.290517,0.270378,-0.276730,0.787375,-0.550873
0.033089,0.902291,-0.189035,-0.077065,-0.438819,0.895264
0.170542,-0.140654,0.913862,-0.335873,0.721909,0.605009
-0.166056,-0.022139,0.795767,-0.630757,0.222663,0.743348
-0.007036,-0.002885,0.703438,0.408515,0.323806,-0.853385
-0.680851,0.144871,-0.679819,-0.330131,0.582854,0.742492
0.123782,-0.580203,0.180168,0.092934,-0.364407,0.926591
-0.286859,-0.406536,0.263294,0.796871,0.302835,0.522770
0.214537,0.772902,-0.206938,0.018477,0.803189,0.595438
0.055394,-0.364257,0.770252,-0.307679,0.950216,-0.049230
-0.177977,-0.431338,0.344079,-0.356523,-0.097658,0.929168
0.157269,0.853631,-0.214579,0.740109,0.311355,0.596068
-0.243724,-0.229651,-0.691196,-0.436590,-0.435198,0.787396
-0.042490,-0.022304,0.400686,0.974086,-0.048972,0.220813
0.422779,0.353437,-0.101140,-0.002747,0.164404,0.986389
0.294232,0.052544,0.416637,0.755165,0.581299,0.303014
0.166979,0.096931,0.417501,-0.307495,-0.029230,-0.951101
-0.391871,0.059369,-0.470706,0.368168,0.879443,0.301716
0.491291,-0.485769,-0.304732,0.821712,0.528951,-0.212134
-0.606931,0.247018,-0.714815,-0.183174,-0.588567,0.787424
-0.269039,-0.375964,-0.297008,-0.258606,0.017719,-0.965820
-0.589848,-0.282639,0.279440,0.158218,0.323455,-0.932922
-0.010968,-0.100538,0.014054,0.787913,-0.614328,-0.042359
0.028358,0.062531,0.421739,-0.607345,0.215783,0.764571
0.115858,-0.231593,-0.930007,-0.279531,0.702085,0.654935
0.305479,-0.030406,0.170324,-0.391368,0.053427,-0.918682
0.037329,0.173001,0.177268,-0.501670,0.660656,-0.558445
-0.372945,-0.052988,-0.412426,-0.015961,-0.148511,0.988782
0.444899,0.106919,0.811327,0.524008,0.464624,-0.713821
0.008388,-0.296122,0.843061,0.821983,-0.546150,-0.161440
0.036345,0.057038,-0.977998,-0.042527,0.150671,0.987669
-0.010722,-0.091494,-0.614344,0.833733,0.141254,-0.533795
0.415282,0.533873,-0.117091,-0.131242,0.358577,0.924228
0.018281,0.906508,-0.181980,-0.060181,-0.340280,0.938397
0.229407,0.648616,0.559940,-0.039193,-0.796325,0.603597
-0.036528,-0.776840,-0.119210,0.344485,-0.058266,0.936982
-0.524163,-0.413139,0.199381,-0.327243,0.441608,-0.835401
0.496635,0.249237,-0.149215,0.126424,0.679881,0.722342
-0.534609,-0.297841,0.391149,0.370155,-0.928935,-0.008108
0.285445,0.453642,0.595131,0.318808,-0.120570,-0.940119
-0.035670,-0.699940,-0.521346,0.106755,-0.144959,0.983662
0.453071,0.511180,0.490338,0.302378,0.287600,0.908765
0.134658,0.358320,0.538022,-0.618649,0.706386,0.343936
0.144675,0.670477,-0.175427,-0.220593,-0.448696,-0.866031
0.568158,0.181768,-0.467165,-0.155530,-0.434157,0.887309
0.185536,-0.221661,0.710884,-0.184582,-0.210727,0.959960
-0.021291,0.212950,0.563175,0.262181,0.341587,-0.902541
-0.421303,-0.211729,0.073506,-0.209684,0.834271,-0.509926
0.038250,-0.113244,-0.961490,-0.083809,0.000589,0.996482
-0.066269,-0.780947,-0.121441,0.309465,0.024131,0.950605
-0.684845,-0.047162,0.087226,0.306372,0.103674,0.946249
0.167347,-0.181046,-0.960932,-0.007217,0.134835,0.990842
0.048696,-0.139100,0.641533,0.816602,0.576957,-0.016761
0.551079,0.206958,0.492234,0.223690,-0.117977,0.967494
0.063750,-0.181768,-0.185606,0.603205,0.227295,0.764513
0.434207,-0.267492,-0.111625,0.467355,0.411819,0.782294
-0.122614,0.361815,0.182259,-0.544353,0.343400,0.765347
-0.732832,0.247406,-0.683417,0.217312,0.286159,0.933214
-0.135641,0.495644,0.155740,-0.044010,-0.174937,0.983596
0.092628,0.105365,-0.977134,-0.151659,0.446087,0.882046
0.093243,0.674361,-0.161764,0.260139,0.798690,0.542606
-0.171035,-0.504411,0.329690,0.857508,0.207034,-0.470974
-0.451411,-0.303390,0.294052,0.608024,0.694512,-0.384656
0.030939,-0.123787,-0.631940,0.648994,0.757017,-0.075704
0.001690,-0.123009,0.087783,0.326677,0.944869,-0.022470
-0.543764,0.209066,-0.486685,-0.039903,-0.663368,0.747229
-0.598759,0.131498,-0.293188,0.227201,-0.002521,0.973845
-0.294418,-0.025523,-0.327933,-0.455112,0.448021,-0.769513
-0.328090,-0.050935,-0.403642,0.098479,0.018289,0.994971
-0.166180,-0.896743,-0.557820,-0.264111,-0.226082,0.937620
-0.105042,-0.078345,-0.706729,-0.304555,0.920890,0.243328
-0.385173,-0.359762,-0.363765,-0.256869,0.190546,0.947476
0.081077,-0.249736,-0.937592,-0.056854,0.993026,0.103284
0.294723,0.355657,0.569003,0.583971,-0.480734,0.654120
0.384312,-0.586584,-0.527760,-0.489125,0.136831,0.861414
0.000523,0.466681,0.520343,-0.153272,0.988143,-0.009000
0.843314,0.024746,-0.141853,0.365966,-0.097232,-0.925535
-0.295462,-0.317872,-0.998689,-0.182708,0.027790,0.982774
0.270391,0.314765,0.526589,0.066195,-0.062709,0.995834
0.392548,0.577540,0.221104,-0.147700,0.469863,0.870295
0.408524,-0.282694,-0.203675,0.494549,0.047811,0.867834
0.504687,-0.106808,-0.183598,0.337262,-0.260329,0.904701
0.382470,0.659879,0.542985,-0.413374,0.107527,-0.904190
0.022705,-0.150752,-0.088620,-0.674263,-0.719650,-0.165750
-0.450674,0.286079,-0.772455,0.908184,0.386286,-0.161196
0.131771,0.103756,-0.974764,-0.238749,0.226764,0.944234
-0.050292,-0.099428,0.190820,-0.015472,0.999238,0.035833
-0.239730,-0.184376,0.383425,-0.425067,0.483204,-0.765397
0.149468,-0.207124,0.705920,-0.178245,0.415329,0.892037
0.037575,0.705044,-0.168177,0.108745,0.489100,0.865422
-0.461057,-0.006825,-0.617551,-0.357506,0.767018,0.532797
0.061108,-0.133441,-0.960152,-0.443358,0.125284,0.887546
-0.635932,0.116184,-0.637852,-0.793444,0.608325,0.019681
0.049434,-0.079842,0.629877,0.891969,-0.446138,-0.073159
-0.544994,0.333297,-0.174117,-0.104702,0.089519,0.990466
0.042244,-0.009432,0.428404,0.840946,0.052215,-0.538595
0.084520,0.086334,0.421712,0.715276,0.643578,0.272374
0.683676,-0.187760,-0.279998,0.185659,0.142877,-0.972171
0.306091,0.411530,-0.178969,0.993018,-0.098077,0.065547
0.044702,0.663819,-0.154597,0.125739,0.546343,0.828070
0.116409,-0.134051,-0.949639,0.151816,-0.014764,0.988299
-0.468862,0.121123,0.468950,-0.591937,0.013258,0.805875
0.278811,-0.701937,-0.107526,0.901786,-0.365815,0.230135
-0.016498,-0.053099,0.607429,0.947565,-0.289476,0.135367
0.060309,0.535039,-0.120465,0.290328,0.310753,0.905065
-0.575471,-0.246574,-0.086612,-0.435511,0.826683,-0.356266
0.262343,0.085613,-0.953905,-0.343047,0.225002,0.911972
-0.128144,0.290518,0.737180,0.793075,-0.593934,-0.135178
0.097852,0.403429,0.592482,0.495244,-0.027245,-0.868326
0.111372,-0.201798,-0.432949,0.949399,0.256661,-0.181014
0.324280,-0.622538,-0.179666,0.394885,0.813147,0.427619
0.390519,0.021361,-0.414768,0.095120,0.216964,-0.971534
-0.511751,-0.738557,0.271939,0.254365,-0.650647,-0.715511
0.196168,-0.533152,-0.050807,-0.014884,0.378127,0.925634
0.413869,0.132664,-0.062408,-0.475394,-0.341302,-0.810872
-0.024362,0.461077,0.469898,0.317861,0.227640,-0.920405
0.034010,-0.552683,0.304342,0.716851,0.195094,-0.669375
-0.104303,0.046107,0.158027,0.248353,0.294960,0.922670
0.088941,0.185264,0.483478,0.921475,0.041255,0.386241
-0.064364,0.080619,0.900811,0.772623,-0.597534,0.214494
0.101108,0.368973,0.196091,0.338893,0.332361,-0.880163
-0.339272,0.000721,0.130950,-0.689892,0.421569,0.588497
-0.089619,-0.423736,-0.562673,-0.620626,0.153451,0.768945
-0.084456,0.545193,0.169014,-0.144934,-0.010136,0.989389
-0.104181,-0.108140,0.162907,-0.116405,-0.987528,-0.106008
0.014287,-0.354714,0.704805,-0.531630,0.467071,-0.706551
0.305356,-0.233368,0.703327,-0.342877,-0.895762,0.282923
-0.690313,0.098652,-0.301944,0.228787,-0.114746,0.966690
-0.095640,-0.271153,-0.060957,-0.203348,0.595534,0.777167
-0.224492,-0.316152,0.260701,0.798632,-0.592224,0.107041
-0.037205,-0.006991,-0.437774,-0.513063,-0.529828,-0.675313
-0.582904,-0.348610,-0.707482,0.208434,-0.749118,0.628790
-0.065286,-0.300227,0.861158,0.905665,-0.372661,-0.202223
-0.005991,-0.076735,0.675804,0.867225,-0.493126,0.068897
-0.243295,-0.470399,-0.749477,0.559457,0.146273,-0.815850
-0.525884,-0.612884,-0.338278,-0.132783,0.018995,0.990963
0.004639,-0.145869,-0.118318,0.148360,0.964744,0.217391
0.090355,0.533873,0.171189,0.022995,-0.201754,-0.979166
0.068913,0.531376,0.523605,0.876151,-0.177966,-0.447982
0.806137,0.143594,-0.157274,-0.370760,-0.001815,0.928727
-0.204092,0.265660,0.644990,0.412353,0.272299,0.869378
0.019388,-0.095489,0.436101,-0.654736,-0.746569,-0.118131
0.051706,0.710814,-0.171189,0.461972,0.463558,0.756105
-0.319733,-0.011153,-0.357826,0.269741,-0.744853,0.610274
-0.314203,0.013261,0.653551,0.409993,0.144937,-0.900500
0.044211,-0.020141,0.429380,0.930098,-0.153795,-0.333564
-0.465421,0.253177,0.311174,-0.187735,-0.156817,0.969621
-0.373252,-0.236143,-0.527258,0.205549,0.352381,-0.913004
-0.478264,-0.448982,0.379856,-0.518674,0.407842,0.751427
-0.302406,-0.391943,-0.303171,-0.227902,-0.141913,-0.963287
0.028788,-0.544360,-0.502607,-0.695601,0.426010,-0.578494
-0.430582,0.363258,-0.496891,0.444574,0.102176,0.889895
-0.162677,0.844199,-0.228410,-0.188816,0.945976,0.263587
0.454792,0.557399,0.527760,0.361080,0.775870,0.517347
-0.259885,-0.483716,0.343103,0.253336,-0.384731,0.887583
-0.592614,0.120845,-0.702574,0.749748,0.591812,0.296035
-0.536882,0.056983,-0.700287,0.868205,0.491623,-0.067288
0.293805,-0.023137,-0.423357,0.369719,-0.339990,-0.864705
-0.012442,0.465960,0.165863,0.013322,-0.065094,0.997790
-0.205690,-0.010653,0.319010,-0.371127,0.204101,0.905874
-0.024670,-0.096321,0.690778,0.056411,0.995059,-0.081704
-0.368705,0.328247,-0.163353,-0.074226,0.484797,0.871471
0.088758,0.573933,0.515825,-0.750705,0.310759,0.582984
0.608650,-0.492593,0.098854,0.247904,0.072492,-0.966069
-0.262157,-0.032125,-0.445303,0.782878,0.618427,0.068194
-0.463823,0.134329,-0.061125,0.153996,0.343744,0.926351
0.636118,0.319702,0.500851,0.896200,-0.152621,0.416573
0.148486,-0.517450,-0.500069,-0.223019,0.666617,0.711255
-0.003779,-0.242302,0.133153,-0.683577,0.157360,-0.712714
0.308183,0.529212,-0.172443,0.806843,-0.589426,-0.039765
0.030939,-0.561561,0.173643,0.291363,-0.208929,-0.933518
-0.055577,-0.019642,-0.983046,-0.307037,0.080161,0.948316
0.023258,-0.105642,0.242966,-0.133632,0.990992,-0.008834
0.177731,0.612052,0.553554,-0.319115,0.840173,-0.438492
0.497865,0.516008,0.527230,0.696528,-0.022538,0.717176
-0.603736,0.261055,-0.061236,0.680976,0.513777,0.521829
-0.000461,0.002331,0.506846,0.814731,0.502862,-0.288693
-0.149774,-0.133552,-0.654750,0.072425,-0.985726,-0.151985
-0.014163,-0.212672,-0.779928,0.824177,0.353168,-0.442724
-0.302528,-0.091827,-0.603469,-0.025974,-0.245142,0.969139
0.004639,-0.010431,0.606787,0.922719,0.353755,-0.153127
-0.079296,0.057205,-0.459747,0.952657,-0.271351,0.137160
-0.035670,-0.120013,0.233652,-0.294850,0.951569,0.087061
0.001136,-0.640071,-0.520761,-0.424159,0.134666,-0.895519
0.014471,-0.573933,-0.510415,-0.549180,0.365634,-0.751474
-0.153952,-0.138046,-0.989403,-0.151208,-0.017517,0.988347
-0.526130,-0.028020,-0.684253,-0.280742,-0.475359,0.833797
0.074075,0.137269,0.438164,0.917934,0.395353,-0.033057
-0.584933,-0.052433,-0.305485,0.425379,0.226403,-0.876239
0.032045,0.018643,0.726611,0.982252,-0.186392,-0.020968
0.074319,0.605504,0.170548,0.003551,0.214151,0.976794
0.011213,-0.221495,-0.946850,0.074361,0.392652,0.916676
0.294232,-0.252178,0.693706,0.184290,0.129868,0.974254
0.299333,0.146258,-0.450322,-0.614334,0.628476,-0.477086
0.129314,-0.546469,0.206827,0.276513,-0.266585,0.923295
-0.612707,-0.188758,-0.382672,-0.572889,0.818731,-0.038428
0.567731,-0.382233,0.086222,-0.177160,-0.217197,0.959917
0.126426,-0.065306,-0.714369,0.442619,-0.404712,-0.800185
-0.524654,-0.552628,-0.573910,-0.124027,0.278652,0.952350
0.340564,0.040005,0.612671,-0.054929,-0.299082,0.952645
0.098036,-0.106031,0.718357,0.114147,0.806308,0.580378
-0.111678,0.883427,-0.224589,-0.218250,0.970893,0.098655
0.530925,0.133829,-0.166560,0.884065,-0.046706,-0.465024
-0.121755,0.973811,-0.310225,-0.007064,0.651485,0.758629
-0.278441,0.146590,0.641505,0.701910,0.619018,-0.352334
-0.074319,0.258781,0.193832,-0.299489,-0.127719,0.945513
-0.553473,0.298008,-0.162377,-0.097678,0.189012,0.977105
0.156965,-0.294679,-0.186526,-0.101118,-0.281815,0.954126
-0.451903,-0.240471,0.184072,0.161466,0.521386,0.837905
0.170114,-0.216168,0.703466,0.502890,-0.010816,-0.864283
0.467082,0.273706,0.584981,0.860731,-0.506505,-0.050945
-0.479922,-0.472896,-0.320543,-0.585179,0.515849,0.625672
0.293621,0.533985,-0.206547,0.883041,-0.135841,-0.449205
-0.395004,-0.334462,0.230641,0.142904,-0.913418,0.381111
0.515867,0.551074,0.523326,-0.456395,-0.419081,-0.784904
0.402134,-0.154636,-0.418114,0.093290,-0.065525,0.993480
0.313711,-0.004772,0.759628,0.399577,0.267645,-0.876758
-0.019939,0.184931,-0.462229,0.444066,0.082595,-0.892179
-0.183201,-0.119126,-0.051365,0.420972,-0.624938,-0.657446
0.278563,0.297231,-0.386743,0.189915,-0.448755,0.873242
-0.841101,0.149919,-0.695268,0.607755,-0.057884,0.792013
-0.150757,0.860456,-0.255570,-0.430560,0.777909,0.457685
-0.650495,-0.357821,-0.503918,-0.606945,-0.235334,-0.759102
-0.327659,0.289797,-0.500349,0.068985,-0.079562,0.994440
0.041753,0.639017,-0.136443,-0.562729,-0.337951,-0.754404
-0.715198,-0.389058,-0.437495,-0.421839,-0.892369,-0.160406
-0.746965,-0.043999,0.105491,0.164564,0.024263,0.986068
-0.331469,-0.007047,0.290399,-0.099941,-0.201741,0.974327
-0.102338,-0.104366,0.343521,0.053656,0.687898,0.723821
-0.561583,-0.794318,0.048158,-0.056118,0.436212,0.898092
0.077946,-0.139877,0.709378,-0.246823,-0.315424,0.916289
0.121817,-0.585807,0.195923,0.093147,-0.316925,0.943865
-0.467941,0.247906,0.309361,-0.187735,-0.156817,0.969621
-0.702908,-0.000333,-0.289451,0.519482,0.097789,0.848867
-0.454361,-0.556955,-0.303617,0.758694,-0.141755,-0.635837
-0.047159,0.353271,-0.118150,0.320993,0.936838,0.138919
-0.233709,0.157854,0.640389,0.211071,0.732389,-0.647345
0.261668,-0.640515,0.174061,-0.414118,-0.518625,0.748020
0.642201,0.581590,0.453195,-0.220951,-0.226973,-0.948506
0.640420,0.336459,0.496807,0.822152,-0.306960,0.479418
-0.690496,-0.115630,-0.452692,-0.454634,0.890156,0.030504
-0.011643,-0.221828,0.826497,0.891950,-0.336999,0.301423
0.368399,-0.051490,-0.170854,0.285658,-0.122230,-0.950505
-0.162308,0.038063,-0.474777,-0.347807,0.058730,0.935725
-0.096317,0.461077,0.605365,0.010388,0.903188,0.429119
-0.454974,-0.394663,0.401969,-0.549509,0.349650,0.758805
-0.116839,-0.150141,-0.980313,-0.327794,0.006385,0.944728
0.005438,-0.051545,0.670115,-0.749459,0.630870,-0.200783
-0.013119,-0.106309,0.234907,-0.230326,0.967616,0.103296
0.101295,-0.124619,0.671761,0.079893,0.985191,0.151707
0.012689,-0.135993,0.254455,0.070231,0.991100,0.113084
-0.321822,0.174222,0.464851,-0.586972,-0.778149,0.223490
0.424928,-0.308883,-0.298792,-0.141781,-0.164417,0.976148
0.679558,-0.237863,-0.636485,-0.097585,-0.153198,0.983365
-0.054963,-0.121677,0.831070,0.197523,0.382679,0.902519
0.089005,0.350053,0.688603,-0.670869,-0.268513,0.691256
-0.576023,-0.193697,0.442180,0.299516,0.100466,0.948787
0.165257,0.062864,-0.962912,-0.224389,0.107666,0.968534
0.311870,0.280309,0.520370,0.403511,-0.087994,0.910734
-0.670282,-0.324973,-0.061125,-0.028899,0.297029,0.954431
-0.164153,0.251956,-0.470762,0.349657,-0.218943,-0.910936
0.150143,-0.183044,-0.954853,0.024809,0.165043,0.985974
0.739962,0.234034,-0.141630,-0.090728,0.316716,-0.944171
0.147380,-0.632914,0.181925,0.308795,-0.093218,0.946550
-0.270453,-0.066027,-0.662168,0.482581,0.720440,-0.498079
-0.265415,-0.523109,-0.300716,0.176832,0.313027,0.933137
-0.553841,-0.281640,0.300521,0.277725,0.939414,-0.200923
0.017175,-0.080287,0.427986,0.497914,0.857933,0.126620
-0.095640,0.334073,0.644990,-0.593237,0.234579,0.770093
0.001198,-0.069855,0.425337,0.709248,0.702895,0.053908
0.579589,0.265605,-0.144753,-0.809491,0.523213,-0.266408
0.230637,-0.618043,-0.174061,0.141680,0.137696,0.980289
-0.299824,-0.361760,0.371964,0.323590,-0.347059,0.880250
-0.119664,-0.232425,0.917403,-0.531434,-0.721831,-0.443326
0.261176,0.141098,0.578958,0.964857,0.030907,0.260953
-0.615470,-0.263053,-0.360698,0.395737,-0.263775,-0.879667
0.027068,-0.069189,0.345306,0.877121,0.421374,-0.230439
0.284646,0.522055,0.548730,0.033714,-0.093610,0.995038
-0.243233,-0.310492,-0.991105,-0.246812,0.023943,0.968768
-0.283787,-0.073406,0.051198,-0.110238,-0.272899,0.955706
0.743956,0.208955,0.677812,0.991036,-0.122290,-0.053788
-0.107253,-0.081063,0.297900,0.126604,-0.742861,0.657365
-0.000030,0.778228,-0.192075,-0.208397,0.537032,0.817415
-0.369012,-0.405093,0.408020,0.378035,-0.222101,-0.898755
-0.141049,0.237308,-0.756476,-0.161757,-0.158243,0.974060
-0.200344,-0.245464,-0.575332,-0.625811,0.678276,-0.385101
-0.177669,-0.156079,-0.534787,-0.541163,0.748445,-0.383369
-0.183754,-0.106531,-0.058922,-0.600987,0.430346,0.673511
0.363299,0.051934,-0.580073,0.391945,0.667819,-0.632769
0.608650,0.110637,0.668414,0.228714,0.529955,0.816601
0.038987,-0.118571,-0.962606,-0.045513,0.066082,0.996776
0.559986,-0.444599,0.092134,-0.172904,-0.064055,0.982854
0.155488,-0.672807,-0.443713,0.436607,0.339944,-0.832954
-0.380625,-0.038839,0.634896,-0.518698,-0.169184,0.838051
-0.488647,0.297952,-0.156884,0.185494,-0.207168,-0.960559
-0.160588,-0.102148,-0.662196,0.404252,0.823654,-0.397712
0.227135,-0.275814,-0.094225,-0.375349,-0.817344,0.437107
-0.375832,0.096821,-0.780011,-0.147107,0.590692,0.793374
-0.254908,0.066914,0.210619,0.401740,0.759437,0.511722
0.418230,-0.426289,-0.527537,-0.084592,-0.332954,0.939141
-0.141908,-0.534872,-0.087895,-0.576230,0.209620,-0.789948
0.256875,0.566165,-0.123784,0.087039,0.067503,0.993915
-0.100187,-0.144149,0.858844,0.697581,0.639694,0.322758
-0.026391,-0.090884,0.331558,-0.311767,0.579686,0.752838
-0.814924,0.014149,-0.845570,0.308683,0.877472,-0.367093
0.342713,-0.276813,-0.516661,-0.300925,-0.265170,-0.916040
0.304557,0.103257,-0.090907,0.936337,0.339733,0.088629
-0.188669,-0.586528,0.258805,0.910620,0.219753,0.349971
-0.500260,-0.484381,-0.576838,-0.853562,0.396269,0.338235
0.336262,-0.023970,0.525529,0.785679,-0.591516,-0.181153
0.298290,-0.371858,0.138786,0.949316,0.261993,0.173663
0.486805,0.529212,0.537185,0.063861,0.902731,0.425439
-0.400165,-0.018254,-0.410976,0.822427,-0.563422,0.078550
-0.867522,0.059202,-0.803547,0.259244,0.888008,-0.379781
-0.436112,-0.505244,-0.643429,-0.000749,-0.988348,0.152210
0.275675,0.099706,-0.953794,-0.195799,0.194372,0.961188
0.415342,0.064030,0.472631,-0.174324,0.361504,-0.915929
0.116409,-0.077180,0.922562,0.929363,-0.366556,0.043832
0.055025,-0.239805,-0.835587,-0.604985,-0.764758,-0.221673
-0.435313,-0.341952,0.274058,0.017947,-0.242707,0.969934
0.278443,-0.603118,-0.184295,-0.422010,-0.851195,0.312050
-0.009740,-0.102980,-0.199660,-0.693612,0.720316,-0.006896
-0.027681,0.373357,0.157497,0.555533,0.748336,-0.362458
-0.180865,0.356378,0.149299,-0.469319,0.435761,0.768018
-0.321883,0.211231,0.192800,0.961207,-0.252862,0.110194
0.372086,-0.476669,0.376231,0.374556,0.189934,-0.907542
0.293249,-0.679299,0.170799,-0.366547,-0.516354,0.773965
0.006053,-0.113910,-0.195867,0.984652,-0.089136,0.150048
-0.344251,-0.603950,0.198991,-0.012148,-0.613718,0.789432
0.295462,-0.632081,-0.090711,0.924496,0.096859,0.368681
0.557038,0.728902,0.461783,-0.086153,0.451698,0.888001
0.018527,-0.109305,-0.957391,0.088866,-0.040823,-0.995207
0.716121,0.103257,-0.169683,0.069993,-0.362558,0.929329
-0.017604,0.176386,0.186219,-0.233487,-0.230529,0.944638
-0.677715,-0.375076,0.285826,-0.027270,0.087911,0.995755
-0.346831,-0.012595,-0.617663,-0.109481,0.977966,0.177754
-0.065162,0.496699,0.570202,0.045163,0.988962,0.141119
0.312669,-0.232592,-0.536767,0.395684,0.219472,0.891777
0.304126,0.407646,0.283930,0.028026,0.508802,0.860427
-0.186764,-0.766132,0.009983,-0.388356,-0.918811,0.070471
-0.212081,-0.524441,-0.217311,-0.869920,0.148823,0.470203
-0.020738,-0.028907,-0.974680,0.545554,-0.296321,-0.783942
0.034256,-0.002885,0.423496,0.939513,-0.074522,-0.334308
-0.148298,0.162404,0.535624,0.352195,0.052795,-0.934436
-0.430828,-0.662764,0.000725,0.134654,0.036129,0.990234
-0.286060,-0.260834,0.299490,-0.120923,0.831235,-0.542610
-0.645826,-0.012817,-0.324614,0.171780,-0.364892,0.915066
-0.147623,-0.519947,-0.085804,-0.516866,0.140170,-0.844513
-0.027620,-0.722077,-0.140654,0.717483,-0.066439,0.693400
0.054718,-0.111524,-0.547558,0.023858,-0.926742,0.374941
-0.226028,-0.727404,0.010764,-0.545386,-0.819265,0.177084
0.613627,0.449370,0.487549,0.084371,0.024139,0.996142
-0.024302,-0.541586,-0.219598,0.132488,-0.043669,-0.990222
0.233709,-0.175387,-0.376816,0.111577,0.985939,0.124395
0.626101,0.513844,0.492262,-0.017244,-0.245633,0.969210
-0.199913,0.808689,-0.207133,-0.307319,0.775661,0.551276
0.352423,-0.051102,-0.175399,0.283198,-0.119768,-0.951554
-0.870840,-0.278588,-0.077995,0.033638,0.308953,0.950482
-0.266890,-0.513400,-0.035443,-0.669271,0.299557,-0.679957
-0.254908,0.158964,0.167536,-0.288050,0.423060,0.859097
-0.729577,-0.079010,-0.777000,-0.230015,0.087366,0.969258
-0.513165,-0.045664,0.113410,-0.374132,0.881051,0.289439
-0.346094,0.165954,0.122083,0.581718,0.286981,-0.761082
0.254662,-0.221217,-0.067399,0.004212,-0.237552,0.971366
-0.705550,0.031293,-0.627088,-0.416626,0.794629,-0.441574
0.523919,0.302225,0.661973,0.155489,-0.260241,0.952942
-0.492028,-0.306886,0.342629,0.561945,-0.777478,-0.282394
-0.182586,-0.671309,0.298291,0.895619,0.415871,-0.157853
-0.029401,0.039727,0.507153,0.833224,0.534257,-0.142504
-0.565640,0.258781,-0.705139,0.071050,-0.161291,0.984346
-0.583274,-0.046552,0.622152,-0.127499,0.648735,0.750258
0.574305,0.302669,0.462229,0.854384,-0.033399,0.518567
-0.260008,-0.552183,0.279329,0.786395,0.514278,-0.342202
0.030078,0.091827,0.421433,0.467524,-0.379294,0.798472
0.080526,0.169617,0.643373,0.135529,0.376102,-0.916613
0.255585,0.085446,0.405705,0.186721,0.642793,0.742935
-0.209806,-0.121401,-0.795767,-0.293682,-0.932290,0.211155
-0.384865,-0.499251,0.385210,0.797579,0.583183,-0.154159
-0.039664,0.219497,0.196927,0.343706,0.252347,-0.904537
-0.009308,-0.130001,-0.794066,0.935552,0.302713,-0.181955
0.374235,-0.336404,0.094197,0.219767,0.063754,-0.973467
0.085870,0.454585,0.539500,0.846639,-0.508559,0.156747
0.286000,0.096155,0.500237,-0.018845,0.713419,-0.700484
-0.522872,-0.396161,0.091158,-0.334677,0.594860,-0.730844
0.148298,0.438773,-0.111346,0.135905,0.251656,0.958227
-0.792067,0.130833,-0.710744,0.671946,0.601400,0.432211
-0.030569,-0.249736,-0.963553,0.330828,0.105150,-0.937815
-0.513287,-0.432503,-0.349433,-0.112848,0.291474,0.949899
0.157025,0.397270,0.583893,-0.462116,-0.194189,-0.865297
0.078561,-0.473950,-0.419090,0.897167,-0.159174,-0.412014
-0.151801,0.120734,0.530242,0.464759,0.493154,-0.735390
0.006237,0.782833,-0.190625,-0.208397,0.537032,0.817415
0.491107,0.598014,0.479016,-0.557475,-0.602185,-0.571485
-0.490983,-0.420296,0.191796,-0.598660,0.661738,0.451342
-0.146147,0.349719,0.638828,0.029200,-0.116258,0.992790
0.730559,0.130056,0.387608,0.712456,-0.258769,0.652262
-0.044579,-0.639184,-0.518195,0.225198,-0.132498,0.965262
0.007773,-0.223659,-0.490143,0.946743,0.211199,-0.243050
0.804172,0.180825,-0.159003,-0.218155,-0.120153,0.968489
0.832562,0.092992,-0.157971,-0.362899,0.002296,0.931826
-0.496759,-0.492815,-0.331251,-0.313227,0.533020,0.785989
0.663830,0.123232,-0.154764,0.040000,-0.243976,0.968956
0.417311,0.494534,-0.112713,-0.266711,0.335211,0.903603
0.147192,-0.193753,0.700845,0.630792,0.392229,0.669521
-0.158745,-0.105421,-0.993363,-0.052327,0.059695,0.996844
0.664628,-0.155412,0.579515,0.054385,-0.496364,0.866409
0.088698,0.223659,-0.110538,0.304421,-0.132375,0.943295
0.141788,-0.531266,-0.503667,-0.121565,0.754213,0.645278
-0.619650,0.221328,0.059396,-0.697092,0.422368,0.579368
-0.381608,-0.634356,0.241153,-0.040328,-0.931097,-0.362535
-0.560415,-0.439605,0.401746,-0.005048,-0.587412,0.809272
0.048327,0.267270,0.473216,0.875537,-0.038209,0.481638
0.165197,-0.252844,0.731296,-0.209280,0.805448,-0.554487
-0.435866,-0.540698,0.398427,0.681840,-0.052384,-0.729623
0.264001,-0.366143,-0.503248,-0.268795,0.066832,-0.960876
-0.329810,0.014814,-0.625024,-0.002939,0.994740,0.102392
0.139144,-0.602841,-0.417305,-0.266393,-0.382933,0.884532
0.333315,-0.427842,0.193748,0.071850,0.057319,0.995767
-0.347630,0.057926,-0.698001,0.670759,0.006201,0.741649
0.388677,-0.057149,0.141351,0.051508,0.189500,0.980529
0.331901,0.150697,0.582415,0.313709,-0.325777,-0.891883
-0.242005,0.526439,0.467583,-0.514332,0.702618,-0.491722
0.025409,-0.101204,-0.450991,-0.443479,-0.828603,0.341678
-0.230022,0.134273,-0.501966,-0.281539,0.110020,0.953221
0.047836,-0.010764,0.570759,0.639747,0.716823,0.277288
0.210423,-0.006048,-0.712362,0.542641,-0.257422,-0.799547
-0.249438,0.358486,0.638856,-0.198806,-0.071800,-0.977405
-0.245997,-0.569828,0.224868,0.324287,-0.493114,0.807265
0.608036,0.508628,0.477427,-0.002963,-0.006429,0.999975
-0.491658,-0.024358,0.461365,0.146526,-0.475656,0.867342
-0.236966,-0.573767,0.245085,0.698030,0.422700,-0.577996
-0.526375,0.038339,-0.656340,0.827342,0.518513,-0.215983
0.313711,-0.223326,0.696523,-0.426259,-0.894050,0.137760
0.150327,-0.476114,0.128273,-0.404882,-0.773737,-0.487238
0.557038,0.233480,0.630936,0.703770,-0.078847,-0.706039
-0.616884,-0.178550,-0.682301,0.958746,-0.092793,0.268692
-0.025161,-0.048549,0.389671,0.513140,0.748631,0.419809
0.322438,0.165622,-0.455927,-0.616229,0.629234,-0.473632
0.790224,-0.074294,-0.158250,0.425164,0.234532,-0.874203
-0.012504,0.240193,0.564039,0.041039,0.168628,0.984825
-0.166056,-0.137602,0.285770,-0.812880,-0.377503,0.443528
-0.216688,-0.147700,-0.995956,-0.348146,-0.066063,0.935110
0.164830,0.116184,0.366973,-0.306685,0.935831,0.173681
0.051031,-0.498086,-0.506232,-0.709183,-0.038374,-0.703980
0.086301,-0.130112,0.774630,0.504733,0.851940,0.139435
0.492090,0.035621,-0.168567,-0.600028,0.572357,-0.558905
-0.377246,-0.310603,-0.532277,0.404259,-0.347409,-0.846098
-0.030078,-0.127115,0.011099,-0.592617,0.801501,0.080004
-0.492948,0.381790,0.471236,-0.024923,-0.336805,0.941245
-0.513165,-0.184098,0.333733,0.325768,0.640823,-0.695141
-0.097054,-0.208844,-0.966872,0.397620,0.159374,-0.903603
-0.062952,-0.230428,0.181590,0.850414,-0.045382,0.524153
0.254171,0.029740,0.604501,-0.245750,-0.111763,0.962869
0.114995,0.451590,0.584284,0.343808,0.827323,0.444221
0.783526,0.093880,-0.162405,-0.256865,0.093631,0.961901
0.259579,-0.003385,0.397451,-0.270215,0.698637,0.662488
-0.009246,-0.033790,0.466161,0.918344,0.265809,-0.293242
-0.552182,0.049048,-0.670505,-0.239248,0.111067,0.964585
-0.016498,-0.078289,0.304983,0.193139,0.871459,-0.450840
0.081141,0.564667,0.534731,0.721676,-0.692117,-0.012556
0.072046,-0.663319,-0.444745,0.732901,0.181230,-0.655753
-0.447909,-0.420185,0.383313,0.573842,0.795998,-0.192595
