0.012726,-0.864267,-0.975759,-0.083188,0.018629,0.996360
-0.412779,-0.346856,-0.820086,0.565657,0.744513,-0.354587
0.042466,0.310335,0.720560,0.978633,0.152660,-0.137742
0.250135,0.677204,0.918204,0.260140,-0.513302,0.817831
0.135297,0.476045,0.850922,0.699745,0.691919,0.177777
-0.308609,0.126959,0.195753,0.706514,-0.452047,-0.544511
0.611795,-0.247584,0.286035,0.542936,0.820794,-0.177534
0.548116,-0.164313,-0.048775,0.151205,-0.918793,0.364631
0.490150,-0.141473,0.312461,0.047428,-0.578803,0.814087
0.783676,-0.373740,0.473974,-0.003348,-0.076853,0.997037
-0.089513,-0.474736,-0.978091,0.125628,-0.135402,0.982794
0.419919,0.419837,0.846301,-0.381116,0.919621,-0.095126
-0.293149,0.607852,0.882641,0.746616,0.657335,-0.102350
0.661947,0.448506,0.835714,-0.393016,0.872482,-0.290368
0.211742,0.439941,0.730496,-0.268713,0.926030,0.265070
-0.484017,-0.234141,0.465803,0.509980,-0.113397,0.852679
-0.308524,0.832387,0.259631,-0.286896,0.356840,-0.889020
0.287099,0.230454,0.789837,-0.680697,0.705836,-0.196081
0.038854,-0.186438,0.544259,0.265730,0.427150,0.864251
0.526609,0.698736,0.881885,0.507285,0.215752,-0.834334
0.464861,-0.234141,0.553523,-0.378478,-0.837540,0.394058
-0.085647,0.210587,0.736840,0.073332,-0.968896,0.236351
-0.592556,-0.687732,-0.365941,0.948505,-0.069000,0.309156
0.169487,0.431554,0.819581,0.628727,0.596410,-0.498996
-0.496367,0.925175,0.275805,0.494936,-0.401579,-0.770567
-0.088085,-0.286661,-0.733521,-0.167025,0.429543,0.887466
0.064981,0.034350,0.341007,-0.096489,0.991544,-0.086780
0.290209,-0.446185,-0.972756,0.070462,0.017328,0.997364
0.200824,-0.632952,-0.971243,-0.055096,0.087483,0.994641
0.128408,0.531063,0.760513,-0.015738,-0.998636,0.049781
0.158399,-0.415672,0.174264,-0.607115,0.236081,0.758734
-0.322217,0.209101,0.205772,0.537992,0.253869,-0.803813
0.924980,0.359524,0.889615,-0.590880,0.740294,0.320664
0.372536,-0.677858,-0.964731,-0.272285,0.053845,0.960709
-0.027850,0.541175,0.815191,0.257062,0.346285,0.902223
-0.041122,0.009666,0.448851,0.964263,-0.264561,-0.014289
-0.519469,0.142126,0.169853,0.551458,0.485395,0.678443
0.690089,0.116788,0.830883,-0.271569,0.960150,-0.066051
-0.005335,-0.109413,0.327417,0.540824,0.676046,0.500472
-0.097410,0.853501,0.352897,-0.254537,-0.588645,0.767273
-0.057420,-0.301651,-0.979141,-0.041606,0.087921,0.995258
0.560969,-0.136951,-0.036508,0.135937,-0.866898,0.479593
-0.317848,-0.240862,0.395412,0.460446,0.585339,0.667358
0.589365,0.424298,0.854472,0.812916,-0.358806,0.458722
0.640273,-0.822750,-0.964059,-0.148686,0.083676,0.985338
0.350862,-0.842497,-0.971789,0.215922,-0.087524,-0.972480
0.395050,-0.300164,0.524871,0.248835,-0.818165,0.518350
0.169402,0.533621,0.661996,0.524419,0.487811,0.697872
0.583568,0.600595,0.942906,-0.090834,0.844906,0.527146
0.162431,-0.886454,-0.971327,-0.115478,-0.005752,0.993293
0.868357,0.328298,0.905243,-0.435891,0.852435,0.288709
0.267609,0.159018,0.777318,0.725049,0.684098,0.079459
0.750660,0.414959,0.832059,0.305523,0.757979,0.576302
-0.010209,0.518215,0.256669,0.832422,-0.027683,-0.553451
0.175789,0.050171,0.730517,-0.599788,0.695679,0.395329
0.118073,0.073903,0.683401,0.927143,-0.019791,-0.374186
-0.193599,-0.294811,-0.981914,-0.158339,0.091427,0.983143
0.434199,-0.593516,-0.969227,-0.170161,0.166606,0.971230
-0.442013,-0.414066,0.143007,0.374899,0.911227,-0.170632
0.130256,0.320209,0.746881,0.943987,-0.109051,-0.311443
-0.119504,-0.565026,-0.982334,-0.099213,-0.067980,0.992741
0.133194,0.322825,0.857371,-0.057072,-0.801873,0.594762
0.590792,0.877948,0.896547,-0.725871,-0.687508,0.021066
0.143780,0.296416,0.913582,0.215541,-0.552588,0.805102
0.276767,-0.564491,-0.975318,-0.083875,-0.000800,0.996476
0.376737,0.467064,0.903983,-0.448886,0.231454,-0.863093
0.614735,-0.408535,0.219132,-0.208426,-0.289750,0.934132
0.231822,0.121070,0.631643,-0.312279,0.945033,0.096930
-0.080271,0.257814,0.702412,-0.111815,0.989904,0.087101
0.335825,-0.766304,-0.972777,0.164607,-0.066009,-0.984148
0.425210,0.572044,0.969584,-0.731407,0.370790,-0.572327
0.139581,0.601606,0.925072,0.596575,-0.728665,-0.336370
0.450412,0.776060,0.901399,0.873957,-0.086107,0.478314
0.220313,0.143197,0.818216,0.817918,0.575145,-0.014774
-0.352041,-0.321873,0.417762,0.187529,0.021795,0.982017
-0.184777,0.330915,0.137273,0.836653,-0.387448,0.387163
0.071616,0.268640,0.038735,0.848927,-0.464474,0.252165
-0.220313,0.505130,0.477608,0.939058,0.314114,-0.139652
-0.648087,-0.035837,0.439755,0.482217,-0.270165,0.833353
-0.343135,-0.093888,0.272109,-0.645375,-0.340397,0.683828
-0.185787,0.177161,0.109482,0.103863,-0.501538,0.858878
-0.284917,-0.022156,0.593665,-0.456541,0.241846,-0.856201
0.194691,-0.609754,0.193127,0.595091,-0.474848,-0.648372
-0.088252,-0.306408,-0.979582,-0.035536,0.073774,0.996642
-0.287186,0.419301,0.458367,-0.202099,-0.711685,0.672801
-0.685892,-0.325382,-0.388712,0.464429,0.777157,-0.424656
0.100853,-0.796103,-0.976074,0.121552,-0.063268,0.990567
0.203090,-0.682795,-0.974646,0.148499,0.078361,-0.985803
0.182172,-0.510007,-0.974016,0.004595,-0.064043,0.997937
-0.165959,-0.177694,-0.677268,-0.518195,0.854864,-0.026091
0.004243,0.451956,0.903647,-0.758142,-0.617925,0.208301
0.406477,0.541711,0.782821,-0.625531,-0.564452,0.538614
-0.121098,-0.269591,0.107570,0.973699,-0.152314,-0.169443
-0.674550,0.637710,0.205520,0.391858,-0.519327,0.759438
-0.753519,0.821502,0.251355,-0.579509,-0.431590,0.691303
-0.136976,0.532788,0.795194,0.935339,-0.002401,-0.353745
-0.328601,-0.401040,-0.989077,-0.140133,-0.010522,0.990077
0.035577,-0.782482,0.195585,-0.046022,-0.335078,0.941066
0.728566,0.225635,0.683884,-0.199088,0.978388,0.055862
-0.090267,0.419717,0.794711,0.221352,0.730403,0.646154
-0.038182,0.467480,0.817145,-0.532144,0.757974,-0.377224
-0.639183,-0.329131,0.144772,0.351514,0.302304,-0.886030
0.383627,0.037562,0.791917,0.005385,0.744480,0.667623
-0.202336,0.230335,0.122317,0.863519,-0.197370,0.464091
0.287940,0.410558,0.908940,0.236257,0.925093,-0.297297
-0.229555,0.851897,0.292148,0.877050,0.098105,-0.470275
0.065317,0.564907,0.265198,-0.719603,0.650556,0.242793
-0.168648,-0.157294,-0.675902,0.070034,-0.990563,0.117811
-0.526107,0.284699,0.440659,0.356431,0.437368,-0.825630
0.295921,-0.847554,-0.972125,-0.197384,-0.032470,0.979788
0.150584,-0.542602,-0.975507,0.065433,0.013667,0.997763
0.514595,0.192744,0.895328,0.022362,-0.974371,0.223833
-0.059520,-0.182989,0.351699,-0.153435,0.044563,0.987153
0.261056,0.169726,0.654350,0.313200,0.093573,0.945066
-0.397573,-0.609159,0.144940,0.085205,-0.037119,0.995672
-0.131518,0.881101,0.309814,0.752631,0.278524,-0.596633
-0.160162,-0.194408,0.062996,-0.644420,0.382717,0.662005
0.327088,-0.639136,-0.972209,-0.102377,0.085323,0.991080
-0.035662,-0.516253,-0.977713,-0.047161,0.012221,0.998813
0.336246,-0.325204,0.523673,0.985438,-0.166911,-0.032456
-0.315749,-0.004313,-0.043335,-0.628937,0.729241,0.269530
0.069096,0.121785,0.579402,-0.802083,-0.525799,0.283194
0.039525,-0.237234,0.566777,0.335941,0.520675,0.784883
-0.514008,-0.195004,-0.994412,0.100127,-0.004313,-0.994965
-0.018272,-0.016565,0.474751,-0.549260,0.808057,0.212972
0.254673,0.387420,0.708041,-0.091637,-0.932084,0.350461
0.450412,-0.611717,-0.969857,-0.073024,0.195236,0.978034
-0.018861,-0.771776,-0.980297,-0.066987,0.003162,0.997749
-0.244846,0.496386,0.877200,-0.384188,-0.876089,0.291321
0.090518,0.451836,0.810402,0.500705,0.442255,-0.744114
0.485697,-0.537665,-0.017939,0.293648,0.146902,0.944558
-0.547360,-0.434171,-0.379742,0.315344,0.176525,0.932415
0.897088,0.133205,0.843192,0.070332,-0.907495,-0.414132
-0.341371,-0.053322,0.559236,0.974198,0.207737,0.088224
0.469484,0.261681,0.856825,0.707313,-0.449928,-0.545227
0.107321,-0.160505,0.305844,0.904206,0.418291,-0.086282
0.090603,0.214096,0.736147,0.847921,0.530098,-0.005099
-0.042130,-0.415672,-0.977314,-0.211034,-0.195623,0.957704
0.420337,-0.019420,0.355775,-0.622865,0.513078,-0.590584
0.176545,-0.444163,0.179284,-0.535977,0.117893,0.835960
0.260048,-0.340014,0.557766,0.405904,0.392636,0.825275
-0.219475,-0.079851,0.585745,0.478374,0.037170,0.877369
0.049775,-0.456238,-0.972819,-0.259781,-0.025439,0.965332
0.586424,0.654900,0.826114,0.696300,-0.355633,0.623451
0.092702,0.550157,0.886443,0.845934,-0.526200,0.086653
-0.110933,-0.005977,0.371235,-0.023966,-0.992863,0.116830
0.142016,0.139331,0.772045,-0.378049,0.867414,-0.323529
-0.463856,-0.122201,-0.047179,-0.222343,0.148877,-0.963535
-0.149495,0.181383,0.497900,-0.577616,-0.046701,0.814971
-0.060445,-0.553487,-0.978658,-0.080049,-0.056074,0.995212
-0.155376,-0.130765,-0.015229,0.044024,-0.998644,0.027794
0.529716,-0.800148,-0.965488,0.082850,0.160613,0.983534
-0.184274,0.056060,0.067113,-0.933791,0.351094,-0.069051
0.243330,0.130945,0.638470,0.036738,0.984939,0.168955
0.360189,-0.315212,0.245893,-0.066252,-0.967223,0.245132
0.490486,-0.598393,0.250809,-0.303307,0.161720,0.939069
0.290544,0.273398,0.672352,0.037571,-0.582042,0.812290
0.231991,0.006097,0.608978,0.633168,0.725522,0.269659
0.258872,0.391941,0.834223,0.891729,0.339573,-0.299182
0.120258,0.486929,0.850271,0.820529,0.444947,-0.358823
0.239634,-0.694929,-0.973680,-0.046503,-0.027475,0.998540
-0.009619,-0.586676,0.177793,-0.562837,0.079495,0.822737
0.124206,0.617725,0.264399,-0.713384,0.395502,-0.578500
-0.164364,-0.176268,0.300214,0.260730,0.309771,0.914364
-0.144454,-0.079971,0.158215,0.844215,-0.518809,-0.134678
0.168310,0.392952,0.864324,-0.660057,0.694897,-0.285381
-0.053892,-0.174246,0.594883,0.386848,0.568866,-0.725769
0.417734,0.296298,0.843675,-0.154321,-0.965363,0.210380
0.259628,0.602142,0.889867,0.274198,-0.457565,0.845843
-0.154955,-0.182631,0.372222,0.623629,0.099635,0.775345
0.593815,-0.419479,0.215666,-0.350984,-0.009076,0.936337
0.235603,0.137131,0.702285,0.879500,-0.346667,-0.326040
-0.640106,-0.613025,0.170042,-0.493269,0.188461,-0.849216
-0.026925,0.559674,0.277528,-0.867323,0.087821,0.489936
-0.398329,-0.161338,0.224320,0.542331,0.798401,-0.261596
0.176124,-0.071763,0.510146,0.377579,0.143762,-0.914750
-0.093628,0.525235,0.933076,0.055300,0.987474,0.147770
0.401352,-0.274586,-0.013402,-0.363285,0.277924,0.889260
-0.285253,-0.357859,0.250746,0.659510,0.114727,-0.742889
-0.117655,-0.086393,0.501848,-0.245321,0.968831,0.034417
-0.336079,-0.013115,-0.529597,0.615512,0.773787,0.149664
0.328936,0.275599,0.808470,-0.753672,0.377631,-0.537934
-0.492083,-0.248357,0.413246,-0.845013,0.268226,-0.462609
-0.083463,-0.330022,-0.722304,-0.150113,0.348020,0.925391
-0.004915,0.440475,0.830399,-0.494103,-0.321879,0.807624
-0.327257,0.618914,0.549721,0.001392,-0.941536,0.336909
-0.784686,0.500788,0.161660,0.667754,0.492595,-0.558081
-0.595751,0.353993,0.153174,0.675937,0.647479,-0.351967
0.082791,0.293800,0.876486,-0.591518,0.321792,-0.739294
0.674296,-0.150096,-0.059488,-0.384811,0.501422,-0.774917
0.438147,0.899658,0.899593,-0.168489,0.858492,0.484358
0.255513,0.373800,0.946267,0.832383,-0.520586,-0.190076
0.318687,-0.853501,-0.970214,0.118815,-0.158845,-0.980128
0.644811,-0.336803,0.230265,0.305597,0.509636,-0.804290
-0.234931,0.442142,0.753623,0.779110,-0.287754,-0.556943
-0.114799,-0.022156,0.334013,-0.426280,0.892082,-0.149919
0.299197,0.186498,0.806411,0.165680,0.886780,0.431476
-0.110010,-0.144743,-0.983006,0.100801,0.147558,-0.983903
0.409669,-0.735613,-0.967504,0.122948,0.012989,-0.992328
-0.052295,0.022811,0.449691,0.913258,-0.406381,0.028549
0.470996,0.101621,0.811935,0.270407,-0.952567,-0.139632
0.271557,0.521844,0.921732,0.424251,0.654265,-0.626057
-0.155040,-0.146052,-0.600870,0.996306,-0.083767,-0.018882
0.628849,0.198870,0.912301,0.643175,0.763786,-0.054368
0.153779,0.394559,0.870625,-0.015771,-0.687672,0.725850
0.723777,-0.761426,-0.961896,-0.092906,0.052689,0.994280
0.267358,-0.689932,0.207390,0.948805,0.313633,0.037451
-0.390851,0.631822,0.213187,-0.006808,-0.660844,0.750493
-0.451002,0.372194,0.452065,-0.494022,-0.345332,0.797927
0.199562,0.322825,0.904172,0.367017,0.239442,-0.898869
0.718149,0.224624,0.751859,0.629049,-0.082907,0.772932
0.413532,0.253235,0.593181,0.789216,-0.489964,-0.370233
0.628175,0.305993,0.838928,0.455902,-0.635576,-0.623055
-0.147310,-0.096863,-0.028946,0.348600,-0.937074,-0.019238
-0.072459,-0.491451,-0.979414,0.029697,0.039497,0.998778
0.632376,0.625517,0.927341,0.833387,0.530983,0.153373
0.101189,0.339837,0.822606,-0.625667,0.777815,0.059541
0.148485,0.379211,0.893249,0.899876,-0.038064,-0.434481
0.071198,0.238840,0.860648,0.744371,0.626306,-0.231631
0.251647,-0.690290,-0.977419,-0.086521,0.008672,0.996212
0.138655,-0.692134,-0.977776,0.062399,-0.075603,0.995184
0.649177,-0.744357,-0.963954,-0.162324,0.072016,0.984106
0.405049,0.546588,0.878713,-0.181861,-0.180088,0.966693
-0.717226,-0.294038,-0.364492,0.271982,0.601132,-0.751443
-0.165121,-0.121546,-0.475591,-0.453930,0.875278,-0.166841
0.015752,0.096388,0.505104,0.989379,0.021791,0.143719
0.596000,-0.122677,0.316326,0.343611,-0.300343,0.889790
0.774182,-0.175494,0.294270,-0.684715,0.040644,-0.727676
-0.056918,0.412937,0.792211,0.328905,-0.879349,-0.344335
0.345150,0.454038,0.881906,-0.136425,0.514816,-0.846376
-0.506112,0.189591,0.406671,-0.322826,0.204307,0.924144
-0.404377,0.083598,0.200395,-0.133722,0.169406,0.976432
-0.027514,0.483778,0.911818,0.908952,0.233253,0.345541
0.620194,-0.575851,0.510839,-0.130057,0.193959,0.972350
0.421765,0.185607,0.811494,0.792008,0.569354,0.220360
0.447556,0.373621,0.897513,0.836899,-0.024065,-0.546828
-0.032134,0.422097,0.736336,0.637360,0.769699,0.036564
0.023648,0.025071,0.557997,-0.272563,0.869885,-0.411107
0.275759,-0.465219,0.224531,-0.640584,-0.153222,0.752446
0.575923,0.305577,0.907091,-0.152496,0.222175,0.963007
0.142185,0.013294,0.341680,0.322765,0.853354,-0.409402
0.067667,0.045652,0.516384,0.934429,0.203684,-0.292155
0.191079,0.468313,0.913918,0.717934,-0.589203,0.370690
0.001805,0.391524,0.728186,0.783774,0.575519,-0.233400
0.480572,0.237116,0.883859,0.762923,-0.287551,0.579020
-0.404882,-0.175137,0.415200,-0.687004,0.569886,-0.450839
0.003318,-0.209814,0.556926,0.469084,0.525011,0.710158
0.675473,0.258172,0.746734,-0.261425,-0.847050,0.462777
0.263074,0.431436,0.879490,0.425588,-0.771351,-0.473174
0.416306,-0.194348,0.423266,-0.589599,-0.793036,-0.153189
0.017936,-0.304506,-0.978175,-0.106310,0.083757,0.990799
0.462510,0.716997,0.891757,-0.077032,0.996990,-0.008738
-0.310790,0.227421,0.417973,0.025145,-0.352665,0.935412
0.570547,0.854454,0.870646,-0.237837,-0.773136,0.587957
0.217037,-0.890618,-0.967252,-0.134488,0.084877,0.987273
-0.320956,-0.306053,0.160232,0.999869,0.015049,-0.005878
0.681436,-0.461471,-0.024367,-0.031629,-0.017163,0.999352
-0.436888,-0.511791,0.191425,-0.575307,0.451415,-0.682089
0.486620,0.109949,0.786834,-0.018332,0.661836,0.749425
0.414289,0.355122,0.583309,-0.554445,0.258365,0.791099
0.166295,-0.779449,0.174075,-0.368483,0.262971,-0.891665
-0.441341,-0.282259,-0.364219,0.048510,0.820651,-0.569366
0.585078,0.596015,0.927824,0.049981,-0.983473,-0.174021
0.013819,0.095852,0.438768,0.834931,-0.538903,0.111689
-0.701936,-0.171806,0.441583,0.257754,-0.129098,0.957547
0.799302,0.125294,0.848822,-0.065275,0.886198,0.458684
-0.148907,-0.543138,-0.978910,0.075197,-0.079303,0.994010
-0.131097,-0.223911,-0.964920,0.730900,0.498160,0.466499
-0.156132,0.563598,0.911335,0.949113,-0.194116,-0.247999
0.522661,-0.148966,-0.015061,-0.340503,0.923270,-0.177847
0.110598,0.252699,0.742638,0.970256,0.078722,-0.228922
-0.252573,-0.030542,0.427341,0.008550,-0.438981,-0.898456
-0.219139,0.433813,0.467504,0.957308,0.210838,0.197758
-0.104634,-0.617129,0.173234,-0.546823,0.023552,0.836917
0.256772,0.271971,0.668235,0.561943,-0.531394,0.633909
0.444449,0.096743,0.803323,-0.099027,0.988406,0.115100
0.350275,-0.239256,-0.020439,0.416132,0.886698,-0.201498
-0.199565,-0.022394,-0.983174,-0.163728,-0.059356,0.984718
0.108664,0.676551,0.944839,0.585929,0.707638,-0.394886
-0.145713,-0.216416,-0.960866,0.302664,0.776789,0.552262
-0.463267,-0.162587,-0.994244,-0.133688,0.074383,0.988228
-0.144539,0.864507,0.327858,0.936594,0.349438,-0.026178
0.277272,-0.457189,-0.974772,0.059268,-0.065518,0.996090
0.325240,-0.643003,0.237806,-0.269660,0.280630,0.921157
0.481498,0.885561,0.902617,-0.238864,0.870996,0.429314
-0.182426,0.273873,0.422153,-0.659555,-0.450943,0.601364
0.412525,0.080089,0.734697,0.900220,-0.278146,-0.335021
-0.537531,-0.354231,-0.370899,-0.270495,0.195528,-0.942657
-0.259882,-0.000922,0.562177,0.192401,0.981092,0.020958
-0.279792,-0.288981,-0.827165,0.069410,0.526681,0.847224
0.329944,0.193042,0.808617,-0.614728,-0.765032,-0.191926
-0.712606,0.418766,0.143028,0.723888,0.573347,-0.383744
0.660854,-0.140461,0.308322,-0.480366,0.195193,-0.855072
0.460326,0.105903,0.788178,-0.489285,0.434225,0.756339
-0.406982,0.215109,0.428034,-0.516758,-0.504559,0.691651
-0.681103,0.780698,0.268328,0.545679,0.403852,-0.734261
0.309193,-0.242469,0.292673,0.398066,-0.793587,0.460178
0.551139,0.186380,0.878461,0.970802,0.065282,-0.230828
-0.187215,0.560625,0.500483,-0.055198,0.918634,0.391236
0.496282,0.713250,0.924589,-0.112312,0.894041,0.433677
0.068593,-0.546171,-0.976200,-0.269150,0.028427,0.962679
-0.551898,-0.260312,-0.346658,0.198409,-0.589874,0.782740
0.591716,-0.343821,0.504768,-0.175261,-0.884448,-0.432477
0.217793,-0.467359,0.189997,-0.700665,0.068438,0.710201
-0.175368,-0.423465,-0.983616,-0.020096,0.176619,0.984074
-0.242743,0.309621,0.420283,-0.104881,-0.567009,0.817007
-0.477800,-0.576624,0.154875,-0.492004,0.502660,-0.710820
-0.713529,0.100372,0.472167,-0.452807,-0.096069,-0.886418
0.306757,0.466113,0.936584,0.809136,-0.587516,-0.011132
0.561809,0.200477,0.675986,-0.379634,0.885145,-0.269064
0.205610,-0.663227,-0.974877,-0.004427,0.001357,0.999989
0.160583,0.207197,0.668634,0.899933,0.244122,0.361281
-0.912127,-0.320922,-0.346112,0.151953,-0.215593,0.964588
-0.235688,-0.420550,-0.984246,0.227565,-0.138208,-0.963905
-0.034318,0.687732,0.538105,0.761841,0.178097,0.622800
0.193765,0.163896,0.502983,0.134153,-0.848662,0.511640
0.524676,0.165442,0.894845,-0.339173,-0.937326,-0.079881
0.411938,0.300640,0.886464,0.651851,-0.087736,-0.753255
-0.052129,0.644491,0.946708,0.741558,0.516306,0.428392
-0.144203,0.411926,0.152187,0.964691,-0.034719,-0.261087
-0.119671,-0.046007,0.256606,0.924487,-0.365679,-0.107712
0.040618,0.308135,0.813448,0.332142,-0.843262,-0.422600
0.077751,0.392655,0.908856,0.755597,0.218805,0.617411
-0.156635,0.636639,0.908856,0.996613,-0.026293,-0.077923
-0.001553,-0.453443,0.338067,0.802465,0.271298,0.531458
0.062461,-0.370945,-0.973638,-0.005766,0.183287,0.983043
-0.170328,-0.147954,0.009159,-0.237699,-0.958689,0.156253
0.384885,-0.676789,-0.968050,-0.135800,0.275719,0.951597
0.483679,0.719554,0.873482,-0.056544,0.984821,0.164104
0.268450,0.633726,0.905306,0.696464,-0.217870,0.683718
-0.121016,0.536596,0.521300,0.474123,0.745203,-0.468914
0.400009,-0.519404,-0.974373,0.003087,0.140746,0.990041
0.412189,0.672803,0.924295,-0.533345,-0.845649,0.020526
0.434871,0.470454,0.892703,0.823028,-0.293546,0.486268
-0.362624,-0.462424,0.385813,0.659955,-0.327718,0.676063
0.447556,-0.065932,0.327921,0.008036,0.069879,0.997523
-0.339356,0.461711,0.473029,-0.461290,-0.694207,0.552529
-0.293654,-0.450765,-0.986325,0.026764,0.047937,0.998492
0.329693,0.047138,0.582763,-0.495927,0.578110,-0.647954
0.253747,0.587212,0.916502,0.838215,0.232301,0.493387
0.690343,0.799614,0.847204,-0.470920,0.476401,-0.742480
0.365311,-0.273220,-0.011679,-0.231251,0.213012,0.949289
-0.749401,-0.190602,-0.052304,0.256553,-0.216965,0.941863
-0.440419,-0.164966,0.073730,-0.738838,0.390952,-0.548885
0.011129,-0.058735,0.535836,-0.641613,-0.255554,-0.723204
0.099843,0.247762,0.828215,0.472219,0.775308,-0.419412
-0.270383,0.441011,0.455300,0.009337,-0.582814,0.812552
-0.306086,-0.062602,0.534344,0.606135,0.744091,-0.280942
-0.063722,-0.188520,-0.977755,0.015309,-0.130313,0.991355
0.242574,0.458618,0.886275,0.808612,-0.130303,-0.573731
0.184526,0.359882,0.824749,-0.416155,0.297670,0.859190
-0.248458,-0.449636,-0.984960,-0.117153,0.131213,0.984408
-0.078002,0.226053,0.714280,-0.136129,0.984736,0.108460
0.398832,0.649071,0.946435,-0.543263,-0.244514,-0.803168
0.340614,-0.656148,-0.972966,-0.005371,-0.080942,0.996704
0.666149,0.394855,0.870016,0.722846,0.578854,0.377388
0.094551,-0.683093,0.186615,-0.222302,-0.303498,0.926537
-0.039528,0.658588,0.502206,0.851762,-0.486599,-0.194223
0.079850,0.591138,0.290699,0.952849,-0.266447,-0.145206
-0.235352,-0.139926,-0.984813,0.326200,0.052068,-0.943866
-0.028606,-0.188402,0.553481,-0.386222,-0.570124,-0.725115
-0.488555,-0.420788,0.151830,0.202612,0.898074,-0.390399
-0.067501,-0.011033,0.325022,0.578476,-0.813178,0.064093
0.239046,0.664832,0.915704,0.342083,-0.713657,0.611288
0.532993,0.298260,0.885435,0.868822,0.391149,-0.303564
0.510060,0.122737,0.827921,-0.030005,-0.789159,0.613456
-0.199731,-0.309621,-0.982481,0.248067,-0.090721,-0.964486
-0.161675,-0.266616,-0.984477,-0.175635,-0.026321,0.984103
-0.676735,-0.026022,0.451729,0.525742,-0.214435,0.823173
0.457050,-0.359346,0.207852,-0.195371,-0.718104,0.667950
0.625908,-0.296356,0.266605,0.344111,0.934769,-0.088287
0.311547,-0.737577,-0.971432,-0.269579,0.043415,0.961999
-0.229386,-0.240029,-0.746776,-0.277616,0.617385,0.736047
0.108580,0.662752,0.274251,0.817011,0.565764,-0.111374
0.402529,-0.046423,0.569907,-0.768899,-0.295455,-0.567010
0.415968,-0.069203,0.336617,0.401932,0.192135,0.895285
-0.365901,0.130469,0.415137,0.239643,0.927182,0.287932
-0.000966,0.706647,0.241293,0.721798,-0.053814,-0.690008
0.631369,0.436849,0.880078,-0.368316,0.306812,-0.877616
0.254673,0.094068,0.728165,0.784608,-0.204557,-0.585275
0.032470,-0.454454,-0.974541,-0.217118,-0.089686,0.972016
-0.072123,0.588283,0.889090,0.902530,0.307139,-0.301836
-0.441426,-0.795033,-0.438663,0.839178,-0.030821,-0.542983
0.655394,0.162647,0.920178,0.952346,0.081670,-0.293884
0.649431,0.359048,0.875625,-0.923186,0.135354,-0.359732
-0.116058,0.586439,0.218733,-0.428068,0.801191,0.418151
-0.149410,0.470513,0.168004,-0.747718,-0.268339,0.607381
-0.148738,0.619153,0.201025,0.858932,-0.166325,-0.484327
0.010291,0.207554,-0.006239,-0.756168,0.653355,-0.036585
-0.055490,0.231821,0.033567,0.509981,-0.849005,0.138236
-0.219221,-0.013948,0.543251,0.289633,-0.956796,-0.025574
0.304071,-0.685472,-0.009159,0.318041,0.092903,0.943514
0.100599,0.565800,0.924253,0.854536,-0.454217,-0.251903
0.054310,0.205294,0.054930,0.565080,-0.748615,0.346785
-0.044568,0.345607,0.858862,-0.015516,0.440649,0.897545
-0.269124,0.155747,0.126371,-0.364665,0.397575,-0.841994
-0.374553,0.193160,0.400706,-0.512752,-0.257280,0.819080
-0.138068,-0.565204,-0.978721,-0.100130,0.035318,0.994347
-0.354812,-0.763331,-0.424043,-0.431877,0.667027,-0.607090
-0.045742,-0.759346,-0.974541,-0.034990,0.005868,0.999370
-0.148823,0.543375,0.514746,0.345349,0.753530,-0.559398
-0.411938,0.575317,0.541528,-0.515275,0.787542,-0.338038
-0.422944,-0.202261,-0.048649,-0.696925,0.596302,0.398395
0.091108,0.175792,0.607465,-0.560048,-0.679126,0.474483
0.570883,0.365234,0.901630,-0.404563,-0.659120,0.633947
0.428571,-0.467359,0.528547,0.441391,-0.060321,0.895285
-0.094133,-0.055762,0.492564,0.584213,-0.779338,-0.226555
-0.082624,-0.650795,0.166282,0.502717,0.236949,-0.831343
-0.143447,0.076045,0.579822,-0.480952,0.049864,0.875328
-0.397153,-0.438810,0.142167,-0.220903,0.301693,0.927461
-0.223423,0.717294,0.239256,0.953308,0.038590,0.299524
0.302389,0.104951,0.460887,-0.682906,-0.716135,0.144191
0.560717,-0.439166,-0.018212,0.154420,-0.146695,0.977054
0.611374,0.329666,0.863568,0.567984,-0.737873,-0.364607
-0.040787,-0.655019,-0.975276,-0.015927,0.092770,0.995560
-0.923049,-0.201248,-0.047872,0.174800,0.181512,0.967728
0.629267,-0.450587,-0.020796,0.076791,-0.038651,0.996298
-0.704792,-0.478067,-0.039953,-0.118491,0.032314,0.992429
0.275926,0.340550,0.838844,0.959436,-0.208450,0.189821
0.061199,-0.177339,0.595849,-0.497685,0.048677,-0.865991
-0.190658,-0.151761,-0.142251,0.998209,-0.055887,0.021358
-0.467804,0.046067,-0.022266,-0.392485,0.592536,-0.703460
-0.129333,0.185309,0.511091,0.814825,-0.527581,-0.240247
0.242995,-0.185189,0.514284,0.611398,0.402082,-0.681559
-0.364388,-0.389859,0.392577,0.484962,-0.503697,0.714913
-0.020961,0.181145,0.007604,0.420632,-0.907117,-0.014423
-0.143529,0.550395,0.179725,-0.199211,-0.590360,0.782170
-0.314236,0.429116,0.456497,-0.239494,-0.742131,0.626006
0.021128,0.292372,0.863190,-0.140053,0.885988,0.442052
0.000546,-0.329962,-0.977608,-0.109073,0.051333,0.992707
0.572562,-0.329546,0.489203,0.654951,0.510944,0.556754
-0.253749,0.518215,0.478238,0.255692,0.619102,-0.742519
0.534254,-0.161695,0.311137,0.275971,-0.283260,0.918479
0.614146,-0.330260,0.482166,0.561016,0.766554,0.312499
0.108749,-0.395212,0.162606,-0.464376,0.270877,0.843197
-0.306927,-0.151821,-0.990043,-0.180497,-0.049452,0.982332
-0.569706,-0.745130,-0.368609,0.974853,-0.055920,0.215720
0.230478,-0.458320,-0.971579,-0.002317,-0.008999,0.999957
0.010375,-0.798067,0.182666,0.382149,0.285859,-0.878776
-0.054564,0.196373,0.038924,0.595745,-0.803136,-0.007814
-0.127567,-0.140699,-0.440596,0.951369,-0.304835,-0.044422
0.129331,-0.140639,0.529513,-0.204278,0.977577,-0.051134
0.033898,0.516371,0.903689,-0.663082,0.477717,-0.576289
-0.352795,-0.022989,0.606562,-0.605877,0.453041,-0.653962
0.574495,-0.246691,0.314246,0.595353,0.749586,-0.289266
0.736211,-0.320327,0.292274,0.806007,0.587331,-0.073450
-0.313649,-0.338170,0.185313,0.958048,0.061836,-0.279857
0.635904,-0.699687,-0.963072,-0.055578,-0.028112,0.998058
-0.219221,0.099421,0.580368,-0.058000,0.639413,0.766673
-0.149325,-0.144743,-0.403941,0.997212,-0.073486,-0.012992
0.482085,-0.684104,-0.967252,0.191598,0.048433,0.980278
-0.368339,-0.213322,-0.990421,0.165069,0.064386,-0.984178
0.467971,0.346023,0.908163,-0.768213,0.175166,-0.615764
0.019195,0.585250,0.254338,-0.546859,0.319027,0.774059
0.635738,0.273042,0.894215,0.584068,-0.119472,0.802864
0.478808,0.661919,0.879028,0.177440,0.556635,0.811587
-0.033142,0.223137,0.696425,-0.052103,-0.996881,-0.059279
0.504851,-0.184416,0.469353,-0.653376,-0.688642,-0.314440
-0.152938,-0.072000,-0.979435,-0.196484,-0.004643,0.980496
-0.137566,-0.173590,-0.585661,0.997140,-0.075349,-0.005787
-0.253749,-0.132074,-0.986640,-0.290677,-0.045904,0.955720
-0.141683,-0.138973,-0.983510,-0.025705,-0.000751,0.999669
-0.242325,-0.402111,0.156787,-0.575216,0.799275,0.174028
-0.260051,0.560149,0.186468,-0.215752,0.103687,-0.970927
0.411097,-0.325918,-0.021909,0.363139,0.130829,0.922504
0.079010,0.144684,0.593223,0.681144,0.224159,-0.696990
0.603645,0.306886,0.783368,0.725041,-0.613797,0.312358
-0.111018,0.242231,0.781330,0.848988,0.527057,0.037820
0.346998,0.503108,0.929064,-0.417898,0.691403,0.589342
0.583735,0.361904,0.917027,0.458685,0.052258,0.887061
0.060443,0.372016,0.841869,-0.468693,0.806354,0.360722
-0.457219,-0.117323,-0.045603,0.141085,-0.191209,0.971357
-0.800648,-0.234081,-0.352119,0.238952,-0.282108,0.929149
-0.070106,0.237174,0.699450,-0.111815,0.989904,0.087101
0.108834,-0.964074,-0.975213,-0.114912,-0.029736,0.992931
0.672281,-0.771479,-0.963366,-0.141869,0.089731,0.985810
-0.168984,0.524401,0.176175,-0.032863,-0.535965,0.843600
0.281892,0.473725,0.890182,0.997436,-0.048232,-0.052871
0.506866,0.672862,0.887661,0.929141,-0.009400,0.369605
0.336077,-0.682795,-0.975633,-0.346311,0.059608,0.936224
0.635232,-0.752149,-0.965866,0.224560,-0.011908,-0.974387
0.433107,-0.617487,0.526845,0.144689,0.153380,-0.977517
-0.249381,0.526246,0.479078,0.204640,0.678233,-0.705778
0.741000,0.370885,0.841028,0.392253,-0.888407,-0.238474
-0.538120,-0.651033,0.148658,-0.332430,0.351159,-0.875316
0.068339,0.530766,0.921144,-0.454705,0.881571,-0.126787
0.332044,0.602082,0.952947,0.162904,-0.053778,0.985175
0.590036,-0.216416,0.290216,0.997956,-0.017293,0.061514
0.385390,0.411331,0.936521,0.811974,-0.582650,0.034900
0.269878,-0.744654,-0.972651,0.156277,-0.019387,-0.987523
-0.107490,0.838216,0.327585,-0.110736,-0.962195,-0.248834
-0.177552,0.543138,0.513759,0.006808,0.963646,0.267094
0.206030,0.421561,0.834664,0.727768,0.557247,0.399788
-0.069434,0.439941,0.806285,0.870072,-0.267205,0.414217
-0.288699,0.542722,0.194366,-0.500471,-0.057257,-0.863858
-0.120006,-0.070274,0.375961,0.343635,-0.697618,0.628685
0.342545,0.531241,0.963765,-0.041336,-0.193471,0.980235
-0.146469,-0.062781,0.162374,0.862943,-0.494929,-0.101857
0.420506,-0.809249,-0.969143,0.209662,-0.071772,-0.975136
-0.060276,0.142484,0.593161,-0.079454,-0.571453,0.816779
0.443441,0.260670,0.889678,0.792185,0.558057,0.247011
-0.112782,0.538498,0.825022,0.897817,0.030465,0.439314
-0.287186,-0.227301,-0.755157,-0.426958,0.897257,-0.112410
0.088924,0.596849,0.288808,0.880717,-0.462470,-0.102268
-0.022894,-0.654246,0.180860,0.274212,0.184701,-0.943766
-0.210822,-0.173115,-0.982229,0.217640,-0.186548,-0.958036
0.356827,0.159018,0.862496,-0.606591,0.794758,0.020169
0.760741,-0.831911,-0.963828,0.162479,0.122071,-0.979132
0.388667,-0.696059,0.229488,-0.550127,-0.403286,-0.731246
0.435963,0.054631,0.770470,0.931445,-0.207663,-0.298807
0.356827,0.172104,0.885876,-0.615830,0.727563,0.302333
-0.165541,-0.256090,0.435512,0.411696,-0.800669,0.435242
-0.349352,-0.337101,-0.985506,-0.147795,-0.024391,0.988717
0.292980,0.165502,0.764168,-0.203746,-0.843355,0.497233
-0.312723,-0.430900,-0.986787,0.707125,0.471504,-0.526934
-0.524509,-0.654839,-0.387997,0.760213,0.219698,0.611400
0.198806,0.137606,0.585115,-0.189283,0.412024,-0.891296
0.237870,0.443866,0.870058,0.919596,0.135332,-0.368820
0.416389,0.256625,0.809814,0.671829,0.132225,-0.728809
0.070608,0.516371,0.890833,-0.712281,0.308259,-0.630581
-0.048601,-0.211300,-0.980549,-0.044928,0.047388,0.997866
0.839543,0.300342,0.893858,-0.268951,0.798244,0.538955
0.050698,-0.283806,0.286855,-0.137044,0.545790,-0.826639
-0.330954,0.028462,-0.060770,-0.624039,0.766641,0.151116
-0.252070,-0.140579,0.457631,0.887863,-0.336726,-0.313553
0.035997,0.464209,0.841743,0.652368,-0.404147,0.641156
0.016423,0.482112,0.852960,0.747052,0.543365,0.382972
0.131095,-0.356490,-0.119817,-0.030352,-0.335465,0.941564
-0.092369,-0.343227,-0.980297,-0.270830,-0.064758,0.960447
0.415632,-0.349056,0.212704,-0.009613,-0.989787,0.142232
0.549544,-0.264476,0.244360,-0.109807,-0.658940,0.744137
-0.317261,0.103643,0.575852,0.641861,-0.629523,-0.437852
0.138489,0.445888,0.931122,-0.389333,0.576750,-0.718178
0.096484,-0.138973,0.313238,-0.166408,-0.555588,0.814635
0.420672,0.340194,0.873230,-0.834102,0.492642,0.248148
-0.048683,0.523866,0.522392,0.447588,0.750258,-0.486597
-0.042130,0.474559,0.886653,-0.421425,-0.872813,-0.246166
0.082201,0.543257,0.909108,0.686466,-0.185611,-0.703074
0.087998,0.429889,0.692959,0.724094,-0.392117,0.567391
0.025412,0.195599,0.018401,0.567288,-0.823464,0.009586
0.357666,-0.820075,-0.970508,-0.061674,0.134649,0.988972
0.652117,-0.311405,0.236819,0.292886,0.656974,-0.694696
-0.368505,0.606484,0.192224,0.163529,-0.798629,0.579180
0.521064,-0.362201,0.212389,-0.265787,-0.584281,0.766794
0.261897,0.174424,0.792022,0.935700,0.331698,-0.120176
0.342378,-0.391168,0.199219,-0.516558,0.101681,0.850193
0.542656,-0.837085,-0.964500,-0.019550,0.079744,0.996624
-0.241315,0.527910,0.507793,0.306509,-0.951434,-0.028724
0.233334,-0.808773,-0.973932,-0.166665,0.055125,0.984471
-0.195196,-0.063672,-0.984708,-0.292362,-0.067806,0.953901
0.091190,0.644609,0.930597,0.393408,0.600606,-0.696062
0.384047,-0.754527,-0.969647,0.201969,-0.057460,-0.977705
-0.531147,0.055049,0.208776,-0.067921,0.082009,0.994314
0.593313,0.114528,0.907239,0.755458,0.387345,-0.528439
0.431258,0.393250,0.880981,0.939868,0.232954,-0.249760
0.445036,0.613681,0.910663,-0.114216,-0.101022,-0.988306
0.083547,-0.549264,-0.972714,-0.085051,-0.144077,0.985905
-0.034739,0.640505,0.907743,-0.209136,0.965724,-0.153748
0.153189,0.098945,0.618178,-0.306745,0.652588,0.692846
-0.067501,-0.191375,-0.979708,-0.032539,-0.036838,0.998791
0.594741,0.225695,0.876192,-0.414051,-0.165219,-0.895134
-0.077330,-0.523033,-0.976348,0.016950,0.063771,0.997821
-0.531231,0.149383,0.407428,-0.120178,0.503880,0.855373
0.267945,-0.277144,0.001533,0.279302,0.242368,0.929112
0.089595,0.470037,0.870646,0.624606,-0.746851,0.228211
-0.493175,0.412699,0.460425,-0.198781,-0.314329,0.928269
0.479059,0.356669,0.885414,0.316685,0.917871,0.239216
-0.219306,-0.054275,0.578435,0.546918,-0.356924,0.757289
0.773175,0.362737,0.882032,-0.285000,0.809511,0.513291
-0.152771,-0.168595,-0.159644,0.990008,-0.120702,-0.072902
-0.158734,0.410795,0.150338,0.944598,-0.318924,0.077597
0.239298,-0.624029,-0.974457,-0.022369,0.106808,0.994028
-0.307852,-0.029769,-0.988594,-0.064681,-0.135314,0.988689
0.167218,-0.852074,-0.971138,0.027547,-0.020033,0.999420
-0.287268,0.561338,0.491661,0.983521,0.173880,0.049512
-0.355400,-0.072238,0.352771,0.211651,0.753542,0.622398
0.578945,0.180432,0.899761,-0.512138,-0.322209,0.796175
-0.011047,0.673874,0.916187,0.083013,-0.964902,0.249146
0.125719,0.576506,0.812461,0.977147,0.205640,0.053804
0.378501,0.740432,0.855585,-0.272188,0.545879,-0.792421
0.090183,-0.193635,-0.005104,0.354705,0.934971,0.003588
-0.054733,0.548550,0.897051,0.868745,-0.018490,-0.494914
0.208215,-0.540222,-0.978091,0.136691,-0.030505,0.990144
0.124962,0.117264,0.599609,-0.428134,0.801184,0.418098
0.591295,-0.687197,-0.964962,0.173562,-0.019650,-0.984627
0.587431,0.511971,0.827837,0.545930,0.127888,0.828013
0.209727,0.156698,0.463912,-0.248898,-0.953912,0.167636
-0.258874,-0.222424,-0.757363,0.495595,-0.830090,0.255609
0.192422,0.641101,0.912028,-0.186926,0.603776,-0.774928
0.598604,-0.747510,-0.966832,0.015773,-0.095928,-0.995263
0.680344,0.272327,0.862433,-0.699691,0.101660,0.707176
0.291636,-0.491806,-0.975297,0.029918,-0.002931,0.999548
-0.047760,0.498290,0.748918,-0.183349,0.513645,0.838184
0.195109,0.127494,0.638995,0.161195,0.985507,-0.052837
-0.514177,0.142306,0.399235,0.030300,0.115960,0.992792
-0.408074,-0.755004,-0.426711,0.943183,-0.017432,-0.331816
0.329439,-0.241278,-0.017687,0.265083,0.396325,0.879009
0.100935,0.396996,0.789018,0.588635,0.785369,-0.191585
-0.595246,-0.087702,0.431626,0.591493,0.096068,0.800566
-0.014324,-0.505903,-0.976873,-0.137978,0.026198,0.990089
-0.142355,0.669294,0.872222,-0.128243,-0.766187,0.629691
0.117822,0.347629,0.745767,0.756898,0.616972,-0.215523
0.127903,0.327346,0.759253,0.983954,0.153636,0.090721
0.288947,-0.044580,0.339054,-0.092483,-0.508068,0.856337
0.147057,-0.426558,0.178066,-0.595420,0.181404,0.782667
0.552652,-0.742750,-0.966034,-0.046448,0.026864,0.998559
-0.117404,0.271258,0.097677,-0.798631,-0.173802,-0.576178
-0.069265,-0.339063,-0.978616,-0.145119,-0.113719,0.982857
-0.147477,0.137844,0.392051,0.899281,-0.083807,0.429267
-0.168479,-0.131658,-0.639709,-0.050575,-0.996182,0.071160
0.410341,-0.151285,-0.020039,-0.582522,0.287206,-0.760382
-0.200067,-0.199286,-0.802294,-0.691407,0.706970,-0.148829
0.193430,0.569189,0.916271,0.220134,-0.521512,0.824358
0.272313,-0.586141,0.201907,-0.587676,0.236296,0.773822
0.633889,-0.206007,-0.045309,-0.354668,0.746794,-0.562592
0.321796,0.323598,0.835084,-0.112944,-0.684372,0.720332
0.042550,0.334246,0.811557,-0.441822,0.680190,0.584922
-0.793841,-0.159851,-0.338676,-0.062289,-0.450093,0.890806
-0.137481,-0.216773,-0.931668,-0.255564,0.964803,-0.061993
-0.165623,0.541115,0.872096,-0.161877,0.040955,-0.985961
0.091190,-0.128683,0.547767,-0.206497,0.142660,0.967991
0.527868,0.708015,0.915494,-0.395037,0.535263,0.746619
0.627167,-0.801694,-0.964437,-0.132135,0.027463,0.990851
-0.226446,0.543851,0.176889,0.202360,-0.572798,0.794325
0.123703,0.654782,0.293492,0.931091,0.262822,-0.252971
0.081781,0.301651,0.775890,-0.459115,0.466239,-0.756197
0.464190,-0.660430,-0.961202,0.182752,-0.134447,0.973923
-0.271560,0.508402,0.521363,-0.607010,0.385232,-0.695079
0.553492,-0.677382,-0.964458,-0.040249,0.107075,0.993436
-0.301802,-0.176090,-0.988909,0.228539,-0.123127,-0.965717
0.454278,-0.240625,0.000840,-0.629174,-0.278574,0.725628
-0.423364,-0.303673,-0.990106,0.076704,0.133000,0.988143
0.207628,-0.200535,0.508423,-0.449528,-0.430016,0.782950
0.003905,-0.382959,0.151914,0.621757,0.057542,-0.781094
0.092702,0.601131,0.285783,0.877277,-0.395807,-0.271519
0.133784,-0.352862,0.571840,0.317239,-0.187632,0.929599
-0.594659,-0.038097,-0.015712,0.165157,-0.501789,0.849076
-0.541143,0.955688,0.261228,-0.457757,0.416367,0.785555
0.281051,0.767910,0.888922,0.989574,-0.105275,-0.098288
0.295500,0.110542,0.742974,0.925112,-0.047198,-0.376749
0.730750,-0.102156,0.309268,-0.249086,-0.032632,-0.967931
-0.361281,0.594111,0.195480,0.163529,-0.798629,0.579180
-0.420339,-0.211718,-0.732681,-0.660036,0.751228,-0.003006
-0.272316,0.544031,0.193883,-0.391200,-0.175665,-0.903385
-0.062966,-0.615940,-0.980024,0.007340,0.210289,0.977612
-0.581048,-0.202855,-0.052913,0.853418,-0.448376,0.265777
0.217960,-0.289636,0.308785,0.345626,0.777525,0.525355
-0.112195,0.488595,0.918729,0.256334,0.446540,0.857260
-0.176799,-0.522082,-0.984414,-0.082302,0.028534,0.996199
0.213424,-0.062186,0.522287,-0.151599,-0.946618,-0.284487
0.680849,-0.118810,0.311914,-0.464705,0.605068,-0.646484
0.596253,0.669532,0.821493,0.325320,-0.731089,0.599729
0.299618,0.433280,0.926249,0.799444,-0.418442,0.431040
0.389169,0.252759,0.779230,0.944214,-0.321857,-0.069769
-0.736380,0.457963,0.152880,0.723888,0.573347,-0.383744
-0.343135,-0.065932,0.230454,-0.317581,0.092859,0.943674
0.045071,-0.137189,0.365206,-0.080347,-0.996535,-0.021487
-0.045324,0.253888,0.074780,0.809397,0.587015,-0.017033
0.410089,0.029829,0.786897,0.053799,0.674169,0.736615
0.425967,-0.778736,-0.966307,-0.046126,0.177671,0.983008
-0.106147,-0.446483,-0.977377,0.044484,-0.172949,-0.983926
0.391102,-0.758691,-0.967546,-0.108059,0.095864,0.989512
0.017767,0.017874,0.451288,0.989498,0.087442,-0.115099
0.025076,-0.270662,0.561064,0.348805,0.695900,0.627741
-0.324486,-0.357442,0.196257,0.942421,0.328636,-0.061976
0.000546,-0.147954,-0.008780,0.357346,0.933927,-0.009189
0.518292,-0.624386,-0.968722,0.150328,0.001203,0.988635
0.669171,0.424061,0.834013,-0.265352,0.312629,0.912059
-0.025245,0.029829,0.583372,-0.748046,0.363570,-0.555197
-0.350023,0.043747,-0.073352,-0.674592,0.724608,0.140957
-0.241315,-0.452609,0.151704,-0.319657,0.788146,0.525970
0.140924,0.238127,0.745263,0.734820,0.672816,0.085778
0.096987,0.395152,0.885435,0.881399,-0.452397,0.135914
0.135715,0.397116,0.775448,0.804958,0.440208,-0.397819
0.065568,0.337219,0.799122,-0.678491,0.607059,-0.413677
0.295751,-0.873428,-0.970403,-0.054998,0.207087,0.976775
0.529634,-0.654364,-0.967735,-0.005595,0.009321,0.999941
0.414204,-0.340074,0.238835,-0.145192,0.953052,-0.265729
0.381106,0.179658,0.850439,0.885462,-0.096645,0.454551
0.074054,0.367494,0.824560,-0.396863,-0.848271,0.350623
-0.212586,0.539689,0.868063,-0.510033,-0.849353,-0.135890
0.300540,-0.446781,0.528904,-0.284364,-0.129791,-0.949890
-0.154704,-0.163658,-0.410726,0.999992,0.000788,0.004043
0.084470,-0.510720,-0.976537,-0.102245,0.041909,0.993876
0.310539,-0.947360,-0.965656,-0.097820,0.267409,0.958605
0.119755,0.232952,0.653762,-0.038140,-0.877400,0.478241
-0.621288,-0.543018,-0.349368,0.737939,0.258996,0.623190
-0.071788,0.371003,0.819981,0.952821,-0.003794,-0.303508
-0.335825,0.463673,0.215204,-0.279827,0.382168,0.880707
0.465618,-0.401814,-0.015313,-0.295252,-0.588221,0.752876
0.714537,-0.319851,0.275869,-0.628952,-0.770491,-0.103739
0.669171,-0.812402,-0.968239,0.198373,0.056923,-0.978472
-0.249296,-0.579063,-0.417132,-0.144380,-0.535153,0.832325
-0.149243,0.527910,0.924946,0.911629,0.350604,-0.214499
-0.120427,0.159494,0.038672,-0.572464,0.814176,-0.096963
0.185198,0.374276,0.871970,0.676990,0.547451,-0.491917
0.118409,0.330617,0.875814,0.874267,-0.325623,0.360038
-0.690763,-0.320684,-0.377158,0.323341,0.866693,-0.379861
0.087747,0.274647,0.708692,0.991957,0.016795,0.125456
0.120678,-0.496088,-0.974016,-0.020963,0.003388,0.999775
0.597176,0.146171,0.879049,-0.536844,-0.828392,0.159892
-0.738313,0.373681,0.438180,0.118200,-0.510132,0.851935
0.041205,-0.514884,0.161156,-0.289689,0.279563,0.915383
-0.135297,-0.398483,0.172562,-0.460782,0.328165,-0.824613
0.194102,0.646631,0.942591,0.978423,-0.176768,0.106964
0.175117,0.485145,0.929337,-0.570193,0.523416,-0.633179
0.269627,-0.761011,0.198483,0.895565,-0.311419,-0.317776
-0.292983,-0.328059,-0.985380,-0.194352,0.123227,0.973161
0.338261,0.820135,0.906104,0.948627,-0.207377,-0.238961
0.076238,0.367970,0.877810,0.954387,0.171441,-0.244445
0.615153,-0.375405,0.510713,0.322696,0.213873,0.922023
-0.142185,-0.013056,0.397114,-0.217110,-0.935194,-0.279778
-0.147897,0.514111,0.750368,-0.521189,0.771997,-0.363843
0.574159,0.770112,0.855354,0.269211,-0.597859,0.755043
0.406898,-0.692252,-0.969773,0.003066,-0.027545,0.999616
0.594825,-0.155985,-0.031215,-0.330496,0.889660,-0.315083
0.510060,-0.164431,0.312629,-0.029876,-0.356565,0.933793
-0.131600,-0.195837,-0.979225,-0.064185,0.062310,0.995991
0.120091,0.431496,0.790510,-0.393306,-0.798423,-0.455884
0.127903,0.154974,0.680187,0.919014,0.215100,-0.330371
-0.523335,-0.261323,0.414528,0.167839,0.094913,0.981235
-0.536438,-0.324015,0.144394,0.135159,0.086455,0.987045
0.056159,-0.736506,-0.973512,0.008974,0.037963,0.999239
-0.607090,0.367852,0.160799,0.714257,0.590257,-0.376076
0.053218,0.428283,0.782254,0.235787,0.969693,0.064026
0.319527,-0.170617,0.516847,-0.696951,0.529079,-0.484081
-0.211158,-0.188878,-0.757615,-0.754894,0.487360,-0.438881
0.073128,0.348938,0.838886,0.811447,0.486016,0.324564
0.438483,-0.752743,-0.971663,-0.111103,0.035291,0.993182
0.372118,-0.679166,-0.966811,-0.265592,0.159264,0.950840
-0.089764,-0.397592,-0.974373,-0.243520,0.109232,0.963725
-0.362457,-0.351553,0.370142,-0.585241,0.449513,-0.674856
-0.460831,-0.044580,0.400685,0.879755,-0.100319,0.464723
-0.113538,0.529161,0.750347,0.045116,-0.602185,0.797081
0.253831,0.495495,0.903647,0.544141,-0.811590,0.212678
-0.140591,-0.169724,-0.697643,0.125061,-0.991394,0.038691
0.348006,0.758038,0.877599,-0.566638,0.368476,-0.736985
-0.421431,-0.373502,-0.383229,-0.112752,-0.511200,0.852034
0.535934,-0.460402,0.519703,0.092161,0.218204,0.971542
0.385811,0.166513,0.797610,0.822982,0.568055,-0.003737
-0.012729,0.522795,0.251985,0.685924,-0.050754,-0.725901
-0.106062,0.516193,0.178633,0.848108,0.353831,-0.394355
-0.710253,-0.470632,-0.350040,0.536410,0.316053,0.782544
0.635904,-0.694869,-0.966496,-0.129394,-0.044384,0.990599
-0.023230,0.306886,0.849242,0.061906,0.858144,0.509663
-0.162180,-0.015792,0.291350,0.420820,0.885947,0.194956
0.382029,0.293205,0.870773,0.891725,-0.395069,-0.220785
-0.188894,0.489131,0.741734,-0.719633,0.685856,-0.108304
0.804007,0.250260,0.684389,0.196765,-0.979108,0.051286
0.678078,0.206959,0.874154,0.507405,-0.215028,-0.834448
0.164531,0.646454,0.273495,-0.145433,0.984881,-0.094117
0.174360,0.262216,0.818006,0.512502,-0.538720,0.668673
0.085393,-0.884847,-0.972314,-0.077013,0.039871,0.996233
0.721175,-0.302899,0.476242,0.103791,-0.160606,0.981546
0.357835,-0.007940,0.543377,-0.001251,-0.988813,0.149157
0.771496,-0.811687,-0.957715,-0.092512,-0.074746,0.992902
-0.370605,-0.058200,-0.052367,0.966276,-0.016239,0.256996
-0.180326,-0.418528,-0.985884,0.015908,0.081180,0.996572
0.459906,-0.616832,-0.963849,0.120335,0.344960,0.930871
0.060697,0.397056,0.835042,-0.523898,-0.372014,0.766248
0.536523,-0.838096,-0.964416,-0.019601,0.037090,0.999120
0.296928,0.126185,0.792316,0.761245,0.524575,-0.381217
-0.468307,0.961576,0.271310,-0.362341,0.665578,0.652469
0.427646,0.182752,0.795173,-0.576901,-0.774903,0.258284
0.455370,-0.121605,0.327711,-0.749478,-0.524469,0.403999
0.201916,0.076460,0.378923,-0.164774,0.826064,-0.538950
0.183685,0.584239,0.941499,0.783101,0.621719,-0.014781
-0.091613,0.649131,0.923224,0.974813,-0.213044,-0.065965
0.689251,0.290469,0.765912,0.887004,0.093703,0.452155
-0.067670,0.496328,0.842310,0.996430,-0.028184,-0.079583
0.401855,0.394379,0.875310,0.382609,0.923356,-0.031999
-0.012980,-0.261740,-0.975990,-0.034736,-0.071180,0.996858
0.841894,-0.250379,0.265408,0.034645,-0.555484,0.830805
0.336328,0.424061,0.952548,0.889024,0.450901,-0.079523
0.497541,0.389739,0.907491,0.582873,0.202188,-0.787007
-0.018608,-0.313130,-0.978805,-0.046511,0.074864,0.996108
-0.668418,-0.555330,-0.318657,-0.768307,-0.211230,-0.604224
0.174276,-0.064624,0.556085,0.614555,0.653014,0.442600
0.783761,0.415793,0.828761,0.170005,0.841449,0.512895
0.479059,-0.468728,0.511091,-0.015589,-0.081263,0.996571
-0.807703,-0.291956,-0.398605,0.596478,0.785883,-0.163102
0.664131,0.355420,0.861635,-0.109824,-0.122214,-0.986409
-0.048347,-0.722825,0.160547,0.010867,-0.189810,0.981761
-0.143362,0.596669,0.199261,0.662389,0.569228,-0.487053
0.356492,0.509769,0.900853,-0.357150,0.504977,0.785775
0.499054,0.189353,0.907722,0.640806,0.745344,-0.183928
0.560969,0.293027,0.856531,0.040187,0.879681,0.473863
0.178224,0.630750,0.959942,-0.678802,-0.113542,0.725491
0.050362,-0.511673,0.158825,-0.289689,0.279563,0.915383
-0.385475,-0.162707,-0.992081,0.200374,-0.045064,-0.978683
-0.041963,0.005918,0.429694,0.934417,-0.356157,0.004056
0.006509,0.656566,0.801769,0.376367,0.878733,-0.293556
0.463602,-0.783613,-0.964143,-0.014276,0.043036,0.998972
-0.081196,0.131956,0.530626,-0.662231,0.700557,0.265838
-0.328685,-0.312892,-0.378419,0.236361,0.558399,-0.795188
0.354474,0.000982,0.788766,-0.223192,-0.234004,0.946270
-0.028437,0.324194,0.843066,0.264521,0.963192,-0.047849
-0.351451,-0.305873,0.155506,0.850375,-0.004078,-0.526162
-0.184946,0.092699,0.087069,0.729770,-0.385714,0.564501
-0.273911,0.128267,0.484519,-0.753411,0.657382,0.014833
-0.567521,-0.477592,0.155001,0.050435,0.448787,0.892214
-0.358509,0.581205,0.235012,-0.122140,-0.687097,0.716226
-0.016257,0.564074,0.253855,0.852273,-0.073167,-0.517954
0.398916,0.450647,0.897429,-0.661158,0.672528,-0.332529
-0.524427,0.474855,0.564635,0.720568,0.089022,0.687645
-0.200403,-0.137487,-0.071567,-0.092158,-0.992714,0.077622
0.612466,0.347807,0.903815,0.782140,0.621841,-0.039637
0.119501,0.284759,0.897030,0.421874,0.862879,-0.278322
0.605242,0.610708,0.845314,0.809829,-0.011811,0.586547
0.388415,0.861116,0.916691,0.339225,-0.858959,-0.383558
-0.168479,-0.142008,-0.138344,0.567304,0.820409,0.071382
0.004410,0.604877,0.253623,0.951515,-0.126988,-0.280165
0.136640,-0.362439,-0.974919,-0.101713,0.054016,0.993346
-0.347672,0.462542,0.208104,0.303819,-0.348477,-0.886712
-0.314823,0.187569,0.404802,0.499324,0.211813,-0.840125
-0.146805,-0.066230,-0.981956,-0.176384,-0.021674,0.984083
-0.145882,-0.154438,0.062492,0.960068,0.104216,-0.259631
0.411012,-0.174661,0.336218,0.984042,0.085689,-0.155947
0.147057,-0.821799,-0.966811,-0.127494,0.046619,0.990743
0.266938,-0.224921,-0.008969,-0.283415,0.257894,-0.923670
-0.082119,-0.459747,-0.979141,-0.020913,-0.025195,0.999464
0.465367,0.046721,0.355648,0.358647,-0.693386,0.624970
-0.173186,0.687673,0.890791,0.757566,0.569962,0.318179
-0.204100,-0.107924,-0.983405,-0.142038,0.109470,0.983789
-0.158734,-0.478780,-0.984561,-0.031321,0.038449,0.998770
0.099927,-0.184714,0.300130,-0.114294,-0.640080,0.759760
-0.308019,-0.078425,-0.988573,-0.093293,-0.116425,0.988808
0.208971,0.474201,0.872201,0.401855,0.693761,-0.597669
-0.218549,-0.489011,-0.985443,0.074680,0.134501,0.988095
-0.195783,0.288387,0.420325,0.610169,0.435555,-0.661804
-0.423700,-0.681784,-0.455867,-0.273493,-0.175013,0.945818
0.737975,0.144386,0.815191,0.012696,0.999549,-0.027204
-0.197211,-0.108580,-0.983300,-0.142038,0.109470,0.983789
-0.219221,0.650320,0.554027,-0.184926,-0.916055,0.355872
-0.239300,-0.466468,-0.982607,-0.184296,0.074501,0.980043
0.080437,0.414662,0.843255,0.209608,-0.047093,0.976651
0.394294,-0.302246,0.197811,0.041061,-0.993152,0.109379
0.555256,0.138440,0.879784,0.806330,0.578179,0.124664
-0.021464,-0.391286,0.040814,0.202452,0.476709,-0.855430
-0.459319,-0.826201,-0.440533,0.839178,-0.030821,-0.542983
-0.537195,-0.653175,-0.380078,0.858992,0.054328,0.509099
0.281471,-0.886394,-0.969248,-0.157776,0.113890,0.980885
0.856764,-0.222899,0.283599,0.882384,-0.003229,0.470520
-0.733103,-0.471226,0.125782,0.011559,-0.009139,0.999891
0.034485,0.337279,0.813175,-0.201307,0.975595,0.087694
0.010040,-0.551226,-0.976726,-0.008406,0.033842,0.999392
-0.075061,-0.524937,-0.977881,0.016950,0.063771,0.997821
0.246356,0.409724,0.951918,0.691381,-0.329052,-0.643209
-0.384803,-0.135880,-0.051569,0.239854,-0.195496,0.950921
