0.153110,-0.760936,0.655483,0.505379,0.168356,0.846315
0.477389,0.608104,0.648255,-0.709910,-0.463109,0.530620
-0.209693,-0.754104,0.661083,-0.052477,-0.996589,0.063696
0.447138,-0.292924,0.909645,-0.233876,0.499033,0.834427
-0.439172,0.879477,0.567503,0.387879,-0.208023,-0.897929
-0.479208,0.092609,0.133129,-0.037516,0.521155,0.852637
0.196373,-0.546982,0.700976,0.979501,-0.198315,-0.035326
-0.111487,0.161162,0.663766,-0.070703,-0.120457,0.990198
-0.317683,0.009426,0.635559,-0.233494,0.203192,-0.950891
0.458767,0.566487,0.702149,0.012914,-0.796635,0.604322
0.441708,0.161032,0.819377,0.635427,0.658755,0.402833
-0.341069,0.728680,0.459114,0.899281,-0.230751,0.371549
0.368015,0.606931,0.650088,-0.316156,0.692208,-0.648763
0.565349,-0.060614,0.920787,0.814353,0.310880,-0.490084
0.825079,0.324919,0.671727,0.914153,-0.294561,-0.278491
0.126933,0.056572,0.514401,0.693381,0.360052,0.624168
0.462072,0.716763,0.411129,0.691482,-0.138761,-0.708941
0.402621,0.713112,0.166497,0.393021,-0.698853,-0.597611
-0.299727,0.197330,0.449072,0.403806,0.801782,0.440552
0.408255,0.276105,0.847189,-0.441444,0.277435,-0.853321
-0.254364,0.543201,0.709875,-0.115339,-0.874774,0.470604
-0.243759,0.812436,0.574129,0.797129,0.563502,-0.216914
-0.561046,0.490971,0.564512,-0.486733,-0.873371,0.017753
0.390787,-0.571781,0.498802,0.980558,0.188785,0.053536
0.258181,0.388936,0.768460,-0.227295,0.498684,-0.836452
0.430617,-0.568078,0.937281,-0.125832,0.568802,0.812792
-0.459638,0.528364,0.385399,0.627384,0.598708,0.497933
0.274215,-0.178086,0.126605,0.903344,-0.220929,-0.367641
-0.459587,-0.335845,0.811167,-0.201481,-0.322123,0.925009
-0.453644,0.425807,0.433399,-0.473193,0.843874,0.252912
-0.521548,0.456525,0.540248,-0.335273,0.836971,-0.432517
0.024039,-0.068749,0.659500,0.887016,-0.358451,0.291058
-0.433306,0.418011,0.881290,0.432304,-0.724826,0.536414
-0.083234,-0.386459,0.814569,0.932961,0.321128,-0.162665
-0.511149,-0.280903,0.748580,0.732709,0.550183,0.400546
-0.681587,0.440879,0.757186,-0.559723,0.414154,-0.717764
-0.015791,0.830402,0.720416,-0.636818,0.167556,0.752587
0.273524,-0.183796,0.138495,0.912881,-0.113059,-0.392258
0.520242,0.795669,0.449790,0.886901,-0.120534,0.445958
-0.172884,-0.617022,0.900672,0.673282,0.703951,0.226150
-0.796212,0.053547,0.692722,0.198208,0.957199,0.210909
0.580128,0.076833,0.367498,0.736413,0.656163,-0.164759
0.642679,0.529251,0.674000,-0.131628,0.274549,-0.952521
0.403056,-0.624715,0.441639,-0.492264,-0.156699,-0.856225
0.482409,0.731287,0.517157,-0.205227,0.122810,0.970979
0.230799,-0.445364,0.925259,-0.171016,0.178091,0.969039
0.622828,0.329170,0.813161,0.957469,0.253036,-0.138656
0.568858,-0.407241,0.880396,0.706151,0.481129,0.519486
0.287483,-0.082674,0.822236,0.916310,-0.207822,0.342324
-0.857635,0.102153,0.630383,-0.531314,0.612176,0.585616
0.432128,0.141240,0.712704,-0.334481,0.460984,-0.821959
0.293477,-0.272637,0.198560,0.948018,-0.200115,-0.247419
0.039843,0.246848,0.855912,-0.653011,-0.538726,-0.532307
0.356975,-0.569043,0.902256,0.453767,-0.855011,0.251101
-0.039126,0.778276,0.563544,-0.758270,0.651602,0.021014
-0.212689,0.702604,0.497042,0.959215,0.198722,-0.201035
-0.163330,-0.227969,0.352823,0.945782,-0.186593,0.265856
0.436201,-0.282364,0.881246,-0.108343,0.939658,0.324507
-0.771314,0.051252,0.673985,0.184772,0.944450,0.271798
-0.315787,0.832749,0.581313,-0.559527,-0.538826,-0.629758
0.550518,0.247135,0.406159,-0.100198,-0.194020,0.975867
0.803614,0.137199,0.781391,0.485418,0.874166,0.014266
-0.010207,0.097928,-0.457648,-0.350070,-0.933463,-0.078090
0.161512,0.312559,0.420879,0.562854,-0.411564,0.716806
-0.434843,0.466199,0.413871,0.135850,0.769144,0.624470
-0.298062,-0.256131,0.799849,-0.425558,0.370840,-0.825456
0.020658,-0.097042,0.845972,0.110404,-0.721139,0.683937
0.138817,-0.018501,0.546405,-0.029311,0.861622,0.506703
0.388968,0.202988,0.582149,0.728518,-0.435059,-0.529136
0.084156,0.198529,0.829743,0.060560,0.622529,0.780250
-0.308564,0.319548,0.667344,-0.721995,-0.418199,0.551210
0.212945,-0.719605,0.903956,-0.334558,0.697793,-0.633368
0.139023,0.786933,0.673164,-0.655936,-0.070364,0.751530
0.202162,0.843231,0.690742,-0.283817,0.069003,0.956392
-0.385408,0.390683,0.811387,0.654412,0.016911,0.755949
-0.384383,0.812931,0.596531,-0.555295,0.050699,0.830106
-0.167685,-0.061265,0.776098,0.446488,0.256365,-0.857278
0.209078,-0.537517,0.773797,0.770926,-0.450207,-0.450541
-0.615066,0.556683,0.747319,-0.200714,0.358288,-0.911780
0.595804,-0.117798,0.924276,-0.537659,-0.489660,0.686408
0.238048,0.815330,0.468908,0.289396,0.029772,-0.956746
0.158233,0.196730,0.572605,-0.534378,-0.591935,0.603369
0.384127,0.058554,0.502628,0.888948,0.449317,-0.088796
0.100626,0.122883,0.770278,0.345670,0.519191,0.781635
0.124115,0.739658,0.778048,0.272675,-0.092632,0.957636
-0.403491,0.740101,0.594669,0.899969,0.151883,-0.408640
0.807072,0.343173,0.688177,0.114957,0.849706,0.514572
0.940677,0.395690,0.574423,-0.053251,-0.878806,0.474199
-0.444449,-0.440984,0.561609,0.972563,-0.149293,-0.178418
-0.771289,0.392508,0.520983,-0.234580,0.514934,0.824509
0.584713,0.634389,0.183518,-0.579412,0.088176,-0.810251
-0.556384,0.271307,0.390662,-0.141273,-0.133556,0.980920
0.443373,-0.413891,0.924526,0.788129,0.258495,-0.558599
0.589401,0.084604,0.448148,-0.200640,0.122439,0.971984
-0.375239,-0.411518,0.734065,0.230032,0.795855,0.560090
0.014562,0.687219,0.454203,0.336518,-0.353982,0.872612
0.084592,0.684220,0.167816,0.088161,0.805615,0.585843
-0.185743,0.414491,0.548106,-0.570040,0.761811,-0.307732
-0.431539,0.318948,0.535381,0.030319,0.802984,0.595229
-0.047681,-0.118893,0.866322,0.047244,-0.042175,0.997993
-0.567321,0.245544,0.536715,0.974216,-0.158221,0.160842
-0.454746,-0.408780,0.820052,-0.090321,0.856293,-0.508531
-0.005699,-0.447529,0.617672,-0.680895,0.303791,-0.666404
-0.274804,0.554570,0.785760,-0.678413,-0.734675,-0.002895
-0.336996,0.259912,0.883226,0.840681,-0.079558,-0.535654
-0.454413,0.517960,0.705462,0.169619,0.046869,0.984395
-0.131440,-0.163170,0.857144,0.444510,0.288044,0.848199
0.055852,0.680987,0.640910,0.816801,0.170565,-0.551130
0.610533,0.721926,0.461621,-0.352010,0.242340,-0.904080
0.847671,0.293368,0.490591,-0.478368,0.816834,-0.322408
-0.135667,-0.639057,0.895321,-0.669734,-0.741180,-0.045929
0.107005,-0.020613,0.171570,-0.474756,0.876139,0.083584
0.209744,0.029114,0.824406,0.829027,-0.451600,-0.329806
-0.592474,0.471206,0.769589,-0.571512,0.222764,0.789778
-0.035028,0.053625,0.520207,-0.638443,0.609101,-0.470518
0.561584,-0.724351,0.826253,0.579624,-0.292714,-0.760497
-0.479284,-0.135295,0.828995,0.819861,-0.482118,-0.308854
-0.189816,0.751731,0.636702,0.832994,0.327457,-0.445974
-0.479054,0.141449,0.450391,-0.069921,0.952944,0.294972
-0.304543,0.522080,0.606266,0.331528,0.940381,0.075976
-0.090509,0.485886,0.460932,0.863365,-0.490513,0.118308
-0.524827,-0.212741,0.502936,0.118984,-0.080817,0.989602
0.286382,0.592641,0.476913,0.564735,0.066253,0.822609
0.041764,-0.694781,0.940359,0.377684,0.709141,0.595377
0.920723,0.328205,0.534457,0.931674,-0.113737,-0.345033
-0.029341,0.869542,0.620824,0.932524,0.095444,0.348267
-0.246014,-0.339574,0.126165,0.310971,0.871520,0.379144
0.235461,-0.784769,0.641511,0.658560,0.067554,-0.749490
0.736761,0.590686,0.719302,-0.447113,0.577790,-0.682825
0.168172,0.688288,0.472339,0.180258,-0.082863,0.980123
-0.266403,0.039127,0.607439,-0.399911,0.211734,-0.891762
0.784480,0.109741,0.432637,0.174881,-0.433917,-0.883817
-0.809019,0.433735,0.172523,-0.319926,0.477481,0.818327
0.372600,0.606722,0.639268,-0.311355,0.638931,-0.703438
-0.122501,0.267239,0.454540,-0.098540,-0.948814,0.300069
-0.099986,0.073208,0.925625,0.654351,-0.626133,0.424009
-0.307104,-0.220198,0.587104,0.761843,-0.514398,0.393688
-0.131773,-0.623594,0.905261,0.534379,0.738466,0.411226
0.404465,0.107629,0.874766,0.550498,0.158407,0.819670
0.354312,-0.083117,0.869752,0.729680,-0.243058,-0.639132
-0.262561,-0.793139,0.618875,-0.044735,-0.998523,0.030824
0.641296,-0.129845,0.904220,-0.012551,0.866874,-0.498370
0.565810,-0.005593,0.932325,0.409066,0.130293,-0.903155
0.741397,0.060874,0.888812,-0.314701,-0.276317,-0.908082
-0.110385,-0.382469,0.532434,0.186615,0.617693,0.763957
-0.275983,0.756216,0.456915,0.958346,0.159665,-0.236812
0.713170,0.402521,0.702896,-0.253034,-0.127149,0.959066
-0.133848,-0.867169,0.771421,0.374115,0.797663,0.473045
0.498316,0.522862,0.677225,0.482529,0.857280,0.179547
0.137614,0.706098,0.146235,0.088161,0.805615,0.585843
0.195784,-0.522054,0.891216,0.841649,0.484280,-0.238957
-0.282233,-0.213497,0.809232,0.426254,-0.410707,0.805994
-0.366606,0.923128,0.383303,-0.174862,0.057804,0.982895
0.034464,0.437724,0.789836,-0.217910,0.516352,-0.828189
0.070888,-0.250134,0.841354,0.896063,-0.069095,0.438517
-0.019557,-0.353942,0.847629,-0.384825,-0.077063,0.919767
0.629487,0.239625,0.816548,-0.797996,0.199874,-0.568553
0.107389,0.318844,0.716590,0.025659,-0.973063,0.229107
0.557946,0.251933,0.722733,-0.928162,0.234512,0.288997
0.409639,-0.168829,0.894500,-0.624795,0.287490,-0.725934
0.173141,0.063899,0.917752,0.249564,-0.683040,0.686421
0.099653,-0.018631,0.279401,-0.506865,0.844309,-0.173866
-0.643601,0.507295,0.751541,0.792497,-0.586782,-0.166238
0.184232,-0.019075,0.883211,-0.544875,0.225483,0.807631
0.439531,0.618978,0.681022,0.727558,-0.606060,-0.321483
0.205031,-0.560907,0.771744,0.740377,-0.603963,-0.295078
0.569012,0.114930,0.880983,0.794042,0.598324,-0.107262
-0.460637,0.341634,0.853464,-0.725504,0.464778,-0.507568
0.008799,0.798980,0.695947,-0.214523,-0.660160,0.719840
-0.059182,0.325624,0.854578,-0.337099,0.165387,-0.926829
0.064894,0.150367,0.931900,-0.209700,0.073624,0.974990
-0.285793,0.902789,0.396043,0.648528,-0.002723,-0.761186
-0.571240,0.236652,0.784910,-0.696767,0.035140,0.716437
0.459664,0.014824,0.804863,0.445250,-0.728145,0.521112
-0.058337,-0.712304,0.415381,-0.687479,0.390441,0.612314
-0.483280,-0.124526,0.832191,0.438008,-0.744590,-0.503722
0.206106,0.312586,0.449336,-0.526538,0.421568,-0.738266
-0.385151,0.366120,0.816533,-0.468316,0.425521,-0.774346
0.832405,0.338662,0.694217,-0.487711,0.736661,0.468474
0.329568,0.818981,0.489521,-0.372363,0.755179,0.539491
0.837323,0.519212,0.586606,-0.293819,-0.338928,0.893755
-0.285690,0.377280,0.456563,0.338555,-0.882560,0.326296
-0.323036,0.337436,0.889398,0.399056,-0.490254,-0.774859
0.377621,0.290995,0.684072,0.880823,-0.358973,-0.308689
0.511866,-0.396654,0.792240,0.848434,-0.526663,-0.052771
0.410894,0.688497,0.187726,-0.139984,0.619855,0.772130
-0.231721,0.255844,0.898312,-0.189264,0.292012,-0.937501
-0.077650,-0.013938,0.912152,-0.294317,-0.169615,0.940536
-0.335408,-0.688549,0.656670,0.292863,0.951330,0.095931
0.418040,-0.267266,0.951106,0.410086,0.807165,0.424634
-0.020350,0.716111,0.705359,0.498039,-0.246050,0.831514
-0.464018,0.409197,0.853860,-0.690123,0.546172,-0.474792
0.172372,-0.471466,0.634752,0.153069,0.980460,-0.123562
0.249600,0.250264,0.756599,-0.571539,-0.700460,0.427433
-0.331515,0.521219,0.821093,-0.469192,0.218275,0.855695
0.388584,-0.472666,0.836560,0.932864,-0.087028,0.349557
-0.429208,0.385051,0.704362,-0.614509,0.696798,-0.369934
0.485662,0.288857,0.319410,-0.007434,0.358146,0.933636
0.104878,-0.722995,0.770996,0.750936,-0.581916,0.312201
-0.008337,0.782996,0.477455,0.780499,-0.582761,0.226298
0.485227,0.574049,0.423796,-0.117213,-0.399138,0.909368
0.002651,-0.314724,0.128334,0.281961,0.600216,0.748491
0.398932,-0.471519,0.772228,-0.456706,-0.747632,-0.482148
-0.355208,0.824326,0.331564,0.851766,-0.023963,-0.523375
0.306182,0.197825,0.711414,0.439083,0.847221,-0.299037
-0.265814,0.085620,0.814642,0.752087,0.372079,0.543988
0.765577,0.019388,0.855517,-0.749679,0.413776,-0.516498
0.621752,-0.135634,0.773093,-0.620102,0.751801,0.224206
0.224831,0.501714,0.826664,0.947522,0.192344,-0.255354
-0.522496,0.019883,0.154240,-0.060120,0.317458,0.946365
-0.635840,0.516213,0.750442,-0.465477,0.530862,0.708179
0.628873,-0.077772,0.757230,0.755705,-0.633588,-0.165758
0.587941,0.058475,0.869767,0.710708,0.558718,-0.427466
-0.107081,-0.234697,0.915993,0.349748,-0.046657,0.935681
0.873849,0.303094,0.760323,0.847917,-0.529198,0.031396
0.212100,0.698666,0.715930,0.263814,0.381586,-0.885886
0.522803,0.295506,0.641555,0.340333,-0.529382,0.777128
0.232489,0.450032,0.795099,-0.292778,-0.857957,0.422127
0.376237,-0.487894,0.958407,-0.067360,-0.329119,0.941883
-0.433870,0.444582,0.436390,0.686150,0.584676,0.432842
-0.596368,0.754208,0.716736,-0.809546,0.400134,0.429568
-0.158361,0.630999,0.753374,0.691373,0.639894,0.335468
-0.432384,0.770844,0.660072,-0.237281,-0.701844,-0.671649
-0.030110,0.219573,0.627393,0.855386,-0.369375,0.363147
0.040765,-0.534648,0.885703,0.928136,0.298236,-0.222753
0.448777,-0.682212,0.893870,0.596364,0.199099,0.777631
0.219221,0.684559,0.552856,0.048217,-0.960082,0.275533
0.541527,0.155973,0.683603,0.589096,0.473827,-0.654564
0.528874,0.722395,0.512656,0.240621,0.240791,0.940277
0.093787,-0.829854,0.642391,0.535169,0.380209,0.754344
-0.385126,0.590764,0.792167,-0.670623,0.681803,-0.292248
0.600722,-0.114200,0.659661,0.995186,-0.085372,0.048132
0.026575,0.956088,0.677489,-0.190757,-0.848756,0.493179
-0.096195,0.216678,0.676477,-0.197202,-0.507819,0.838589
0.067200,0.695589,0.659383,0.944814,-0.062534,0.321583
0.277980,-0.024081,0.846485,0.893743,-0.157434,0.420045
0.700798,0.178112,0.748873,-0.223886,0.621232,-0.750963
-0.126958,-0.171515,0.872347,0.820385,0.516385,0.245592
0.047425,0.715094,0.703747,0.386628,0.460258,0.799175
-0.372062,-0.198503,0.824553,-0.320095,0.902437,-0.288353
0.236127,-0.081970,0.541714,0.171283,0.128621,0.976790
0.741295,0.465208,0.261207,0.136902,0.874625,0.465068
0.870955,0.534309,0.586826,0.395359,0.266343,-0.879064
-0.056134,-0.693686,0.905481,0.282737,0.917643,0.279270
-0.163100,0.624871,0.709508,-0.684643,0.150098,-0.713257
-0.330234,-0.284528,0.546450,0.850828,-0.350692,0.391289
0.518833,0.325702,0.416876,-0.271998,0.380275,-0.883973
0.882660,0.260564,0.371075,0.566530,-0.812544,0.137171
-0.470422,0.416863,0.507715,-0.577133,0.374532,-0.725702
-0.273216,0.580933,0.762434,0.284615,0.873350,0.395291
0.470166,0.364581,0.638769,-0.316045,0.335242,-0.887541
0.026729,-0.432691,0.835284,-0.090945,0.253016,0.963178
-0.807456,0.369066,0.543151,0.246954,-0.853368,-0.459104
0.485739,0.028905,0.307491,-0.802904,0.203878,0.560159
0.079366,-0.041239,0.876364,-0.063233,-0.530550,0.845292
0.685557,0.103196,0.819773,0.658625,0.500886,-0.561539
0.104827,0.113834,-0.208412,0.437504,0.130196,-0.889741
-0.512762,0.460045,0.440847,0.458088,0.598188,0.657516
0.561788,0.534101,0.202577,0.120376,0.475979,0.871179
0.473034,0.588756,0.423738,-0.117213,-0.399138,0.909368
0.130774,0.762005,0.680348,-0.644350,-0.089197,0.759511
0.040996,-0.073521,0.523534,-0.536840,0.132561,0.833205
0.445320,-0.696111,0.831942,0.542179,0.654403,0.527066
0.566732,0.149168,0.440187,-0.317510,0.021161,0.948019
0.303851,0.165100,0.498288,0.868743,-0.332085,-0.367431
0.883557,0.121553,0.477924,0.043977,0.314628,0.948196
0.469910,-0.360644,0.885498,0.892358,-0.447625,0.057705
-0.115431,-0.171332,0.557812,-0.164289,0.645323,0.746035
0.531102,0.331178,0.634268,-0.036622,-0.450529,0.892010
0.384204,-0.015372,0.233233,0.751838,0.147466,-0.642645
0.219580,-0.154982,0.903472,0.486468,-0.647729,-0.586341
0.039152,-0.464869,0.882815,0.531549,0.768041,0.357168
0.278160,0.823440,0.474069,0.300418,0.387672,0.871470
-0.094658,-0.565914,0.850195,0.288712,0.244374,0.925704
-0.649825,0.009087,0.723524,0.185967,0.421598,0.887509
0.733456,0.032556,0.795847,0.496469,0.782292,-0.376215
-0.022144,0.583619,0.266133,0.478395,0.312911,0.820503
0.402774,-0.742969,0.848142,-0.026105,0.706887,0.706845
-0.463916,0.206900,-0.003614,0.221413,-0.906390,-0.359769
-0.173294,-0.634180,0.913222,0.744695,0.594275,0.303754
0.519448,-0.410370,0.937251,-0.602042,0.170601,-0.780026
-0.836708,0.090001,0.519664,0.770872,0.609392,-0.185467
0.203417,0.196052,0.863991,-0.073255,-0.969471,-0.234008
0.486508,0.697258,0.168637,-0.344279,0.624337,0.701196
0.089433,0.685498,0.172009,0.088161,0.805615,0.585843
0.336510,-0.213158,0.875631,0.754427,-0.338804,0.562185
-0.084976,0.506278,0.473849,0.872036,-0.468425,0.141885
-0.123884,0.264580,0.816401,-0.334721,-0.825120,0.455125
0.165380,-0.684246,0.865984,0.456224,-0.839155,0.296107
0.221552,0.177460,0.466166,0.106652,0.664871,-0.739305
0.644984,0.054512,0.874444,0.928682,0.336698,0.155512
0.357565,0.783726,0.131472,-0.106354,0.654337,0.748687
0.039408,-0.703073,0.309236,0.131357,0.573804,0.808390
0.451493,-0.590999,0.951282,0.674427,-0.353966,-0.647963
-0.636480,0.467399,0.757596,0.070185,0.231440,0.970314
0.446575,-0.360513,0.904880,-0.576183,0.813144,-0.082527
0.439275,-0.679657,0.838173,0.938512,0.310506,-0.150934
0.099115,-0.014876,0.137600,-0.468734,0.883086,-0.021165
-0.147705,0.631521,0.441800,0.292977,0.955452,-0.035732
0.489761,0.100249,0.845518,-0.313159,-0.655427,0.687275
-0.599775,0.026454,0.654838,-0.524233,0.533339,0.663874
0.261613,0.686384,0.640910,0.468796,-0.875568,-0.116666
-0.573827,0.706411,0.720959,0.833077,-0.390199,-0.392079
0.755357,0.455769,0.263596,-0.554565,-0.634579,-0.538300
0.365966,-0.523905,0.883841,0.750106,-0.366162,0.550697
-0.568218,-0.060275,0.702354,0.687808,0.238665,0.685536
0.578566,-0.142909,0.622862,0.894992,-0.335239,0.294285
0.654974,0.428806,0.726662,-0.139997,0.893029,0.427669
-0.479412,0.518690,0.382057,0.496762,0.738819,0.455384
-0.113229,0.044681,0.049547,0.311673,0.936183,-0.162544
-0.149550,-0.069323,0.840460,-0.331012,0.918324,-0.217052
0.861938,0.311647,0.715080,-0.708045,0.523372,0.474082
0.857507,-0.012868,0.445656,0.175234,0.752855,0.634431
0.471011,-0.505574,0.681550,0.711089,-0.129388,-0.691094
-0.020683,0.273602,0.438765,-0.599272,0.723332,-0.343021
-0.171937,0.758458,0.516820,0.259448,-0.827330,0.498209
0.383205,-0.497699,0.883460,0.734437,-0.269820,0.622736
0.112179,-0.484374,0.601575,-0.671373,0.593793,0.443472
-0.090714,0.200355,0.929056,-0.684674,0.625815,0.373600
0.306822,-0.654102,0.948716,0.298607,0.205409,-0.932009
-0.019736,0.369561,0.577956,0.921001,-0.147587,-0.360520
0.108157,0.040405,0.800582,0.340273,0.933376,-0.114120
-0.712196,0.605601,0.318839,0.042273,0.651158,0.757764
-0.568576,0.418975,0.377394,0.214656,0.096042,-0.971956
0.275906,0.220433,0.684086,-0.107557,0.990199,-0.089090
0.657919,0.264006,0.855399,0.799907,-0.239082,-0.550444
-0.094735,-0.528703,0.211799,0.036307,-0.782401,-0.621716
0.355080,0.130497,0.588614,0.797894,0.263726,-0.542046
0.541374,0.352456,0.723715,-0.096591,-0.382536,-0.918878
-0.208694,0.066011,0.479874,-0.118836,0.269649,0.955598
0.248729,-0.353290,0.922209,-0.407864,0.145447,0.901384
0.144530,-0.019179,0.624563,-0.536509,0.769265,-0.346972
-0.258360,0.376133,0.426553,0.444616,-0.802370,0.398143
-0.182490,-0.098658,0.842893,-0.105478,0.062660,0.992445
0.518705,0.495117,0.679688,0.777704,0.523032,-0.348732
0.514684,0.025620,0.428414,0.462214,-0.699126,-0.545510
0.152495,0.100901,0.350213,-0.477429,0.327976,-0.815164
0.140278,-0.169481,0.781024,-0.201675,0.961538,-0.186474
0.165866,-0.277461,0.855561,0.935084,0.207362,-0.287436
0.081646,-0.971551,0.400998,0.486770,-0.331380,-0.808234
0.230107,0.852984,0.479816,-0.125281,-0.117525,0.985136
-0.536712,0.672434,0.522684,-0.513206,-0.795346,0.322560
-1.000000,0.247265,0.252014,0.265399,0.258459,0.928850
-0.438122,0.179181,0.064735,-0.232709,0.833494,0.501132
0.059746,-0.279573,0.859314,0.850335,0.220496,0.477821
-0.233463,0.415664,0.603129,-0.600076,0.642963,-0.475928
0.676874,-0.203562,0.466621,0.361258,-0.260313,-0.895394
0.688913,0.280330,0.866674,0.812326,-0.097309,-0.575029
-0.055109,-0.428650,0.173549,-0.026816,0.438304,0.898427
0.487993,0.535300,0.411862,-0.237482,-0.321670,0.916587
0.714783,0.162284,0.415894,-0.017842,0.227418,0.973634
-0.299804,0.075190,0.850517,0.959755,-0.043000,0.277528
-0.567244,0.753686,0.754063,0.819868,-0.432427,-0.375265
0.671162,0.118867,0.683925,-0.593065,0.473352,0.651315
0.227597,0.146768,0.908662,-0.073908,0.641283,0.763737
-0.675388,0.623463,0.336784,-0.300867,0.330460,0.894581
-0.132491,0.306379,0.239596,-0.515126,0.546645,-0.660170
0.697878,0.134617,0.417052,0.060422,-0.272732,-0.960191
0.072835,0.121631,-0.206770,0.312848,0.146396,-0.938453
0.591757,0.673555,0.457971,0.123289,0.452903,-0.882994
0.622981,0.071826,0.706532,-0.401325,-0.139717,0.905217
0.094889,-0.026324,0.293651,-0.494750,0.829896,-0.257869
0.443552,-0.675485,0.801682,0.354712,0.718001,0.598877
-0.340761,0.918721,0.343322,0.623540,-0.291585,-0.725379
-0.653693,0.069558,0.446975,-0.523253,0.603730,0.601428
-0.078342,0.187734,0.910114,-0.938682,0.283896,-0.195649
0.101241,0.679865,0.476004,-0.243507,0.278738,0.928983
0.184693,-0.086559,0.911668,-0.306251,0.402536,0.862656
-0.565195,-0.286640,0.797987,0.732045,0.611287,0.300729
0.065278,-0.401113,0.838774,0.265330,-0.236335,0.934744
0.398522,-0.120953,0.726105,0.952562,0.001400,0.304340
0.380669,0.109402,0.846280,0.839463,-0.531144,-0.114839
0.613171,0.481845,0.490518,0.231901,0.564124,0.792456
0.679154,0.451336,0.430159,0.110776,0.271887,-0.955932
0.409844,0.529459,0.536993,0.726551,-0.213454,-0.653117
0.228724,0.281529,0.881833,0.823701,-0.557150,-0.105362
0.456872,-0.625002,0.939406,-0.697981,0.712414,0.072721
-0.150805,0.088697,0.122455,-0.061612,-0.936315,0.345714
0.629539,-0.108802,0.596561,-0.493475,-0.469043,-0.732449
-0.103290,-0.576552,0.869063,0.140656,0.373436,0.916931
-0.646982,0.132740,0.779162,0.870498,-0.246523,0.425981
-0.598699,0.714207,0.690127,0.746592,-0.524301,-0.409522
-0.214508,-0.516213,0.863052,0.062978,0.556787,0.828265
0.591834,0.374907,0.779265,0.836439,0.019722,-0.547705
0.589811,0.162649,0.848318,0.864316,-0.487486,-0.123752
-0.241557,0.532354,0.604228,-0.186164,-0.387463,-0.902893
0.027164,0.068071,-0.993960,0.226949,-0.044002,0.972912
0.595394,0.154982,0.861703,-0.859865,0.272598,-0.431652
0.023450,-0.391935,0.116811,0.183806,0.546900,0.816772
-0.825310,0.270577,0.580155,-0.362956,0.347732,0.864491
0.287253,0.306327,0.893078,-0.243916,0.435415,-0.866556
0.064664,0.744768,0.499183,-0.791866,0.539850,-0.285500
0.272781,-0.146091,0.110829,0.903382,-0.258876,-0.341882
-0.218734,0.255453,0.915231,0.149821,-0.232585,0.960967
0.461431,-0.439471,0.938439,0.667600,0.743038,0.046955
0.446575,-0.260225,0.914322,0.089166,0.985346,0.145403
-0.160385,-0.491414,0.716590,-0.759496,0.192186,-0.621474
-0.281234,-0.574440,0.844345,-0.664107,-0.624663,0.410802
-0.102291,0.272272,0.483452,-0.247744,-0.961641,0.117769
0.241147,-0.611129,0.323779,-0.387199,0.466624,0.795197
0.207976,-0.112296,0.012821,0.332879,0.942808,0.017420
-0.785735,0.445703,0.498406,0.235693,-0.506886,0.829165
-0.026780,-0.615797,0.413035,0.884389,-0.212798,-0.415419
-0.331131,0.122622,0.117309,0.116774,0.436924,0.891886
0.202520,0.727167,0.467750,0.043330,-0.147863,0.988058
0.010054,-0.077041,0.546391,-0.478987,-0.069773,0.875044
-0.229774,0.859320,0.576578,0.769591,0.633232,0.082141
-0.179134,0.520463,0.743111,0.869539,0.493501,0.018921
0.774235,0.224631,0.750764,-0.595929,0.610163,-0.522083
0.265737,0.267526,0.617071,0.742643,-0.577189,-0.339609
0.829971,0.087732,0.470931,-0.255182,0.452847,0.854290
-0.239328,0.762683,0.733303,0.901809,-0.026015,-0.431352
0.343553,-0.562367,0.911829,0.015491,-0.825313,0.564463
0.666961,0.136260,0.421920,-0.329195,0.329350,0.884963
0.163587,-0.549564,0.812751,0.672610,-0.388428,0.629856
0.276008,-0.106325,0.896142,-0.459240,0.386755,0.799699
0.461943,-0.418141,0.964477,-0.106110,-0.511634,0.852626
0.293836,-0.257252,0.196713,0.948018,-0.200115,-0.247419
-0.576209,0.648183,0.762332,0.291686,-0.950487,0.107212
0.474008,0.466981,0.610987,-0.852243,0.110118,0.511426
-0.021016,0.587244,0.422242,-0.586224,0.805707,-0.084721
0.162844,0.526174,0.714302,-0.072779,0.944476,0.320418
0.127009,-0.033755,0.534823,-0.063948,0.682163,0.728398
0.738118,0.159859,0.473907,0.213385,-0.835626,0.506157
-0.267735,-0.214696,0.784631,-0.646563,0.115077,-0.754131
0.037333,0.092843,0.969432,0.690959,-0.722843,-0.008571
0.554591,0.125230,0.723304,0.564095,-0.177875,-0.806323
0.474904,0.590842,0.559161,0.193951,0.898653,0.393454
0.495012,0.594519,0.544881,-0.235931,-0.936177,0.260592
-0.651259,-0.030678,0.518447,0.547837,0.827077,0.125771
-0.758405,0.189742,0.771172,-0.394661,0.561994,-0.726915
0.422010,-0.065412,0.687972,0.750593,-0.172234,-0.637923
0.090842,0.885866,0.724213,-0.856789,0.421720,-0.296759
0.728794,0.172923,0.874195,0.624203,0.663076,0.413159
-0.521445,0.429041,0.223543,0.515341,0.401081,-0.757336
-0.664169,-0.012582,0.666244,0.248555,0.918554,0.307374
-0.177162,0.747533,0.656846,0.927983,-0.304515,0.214751
0.395218,0.556657,0.295938,-0.087040,-0.991617,-0.095497
0.591757,0.157512,0.922942,0.742279,0.324544,0.586253
0.523725,-0.784065,0.860091,0.360345,0.867926,0.341842
-0.277468,0.088906,0.897711,0.418801,0.698617,-0.580120
0.286971,0.243537,0.736602,0.221028,0.875929,-0.428830
0.192505,0.704273,0.661802,-0.587590,-0.630125,0.507622
0.285127,0.410735,0.765381,0.244463,-0.780058,0.575975
0.027702,-0.275375,0.632143,0.993844,0.110441,-0.008752
-0.641065,0.212480,0.363613,0.319293,0.116722,-0.940440
0.352237,0.395976,0.184266,0.439493,0.075903,0.895034
-0.310204,0.011826,0.634210,0.299981,-0.298424,0.906065
-0.019890,0.006063,0.050866,0.448307,0.814374,-0.368532
-0.188381,-0.503566,0.568925,-0.827251,0.163739,-0.537444
0.322883,-0.590999,0.595578,0.875335,-0.102109,0.472613
-0.332949,-0.358688,0.821518,-0.707087,-0.403342,-0.580813
-0.791550,0.256496,0.254184,-0.419323,0.544714,0.726261
0.154955,0.325519,-0.144286,0.928129,0.098225,-0.359066
-0.530949,0.206456,0.844081,-0.268072,0.024510,-0.963087
0.773287,0.553527,0.420087,-0.604482,-0.127458,-0.786356
-0.318963,0.244397,0.830813,0.957424,0.215922,-0.191619
-0.801744,0.188881,0.605196,-0.031575,0.102602,0.994221
-0.450109,0.353342,0.849168,-0.730293,0.405988,-0.549405
0.153879,-0.564401,0.753770,-0.296224,0.409109,0.863065
0.329158,0.780727,0.487806,-0.194038,-0.121864,0.973395
-0.403235,0.282572,0.753858,-0.405635,0.666695,-0.625282
0.061897,-0.032791,-0.417140,0.721419,0.692253,0.018448
0.089612,0.510163,0.505252,0.761584,0.302706,0.573026
-0.513223,0.571546,0.765777,0.664686,-0.589751,-0.458679
0.213817,-0.201737,0.571945,0.575665,0.429615,0.695730
0.283001,-0.110054,0.764575,0.761320,0.040000,-0.647141
0.606998,-0.127707,0.912577,-0.598329,0.126959,0.791128
-0.278954,0.435012,0.851895,-0.270788,0.424655,0.863911
0.150241,-0.285597,0.909586,0.894530,0.377973,0.238646
0.739886,0.177304,0.414736,-0.166612,0.650128,0.741333
0.815525,0.349770,0.640353,-0.314113,0.813157,0.490008
-0.029469,-0.056754,0.745867,-0.454433,-0.885780,-0.094257
-0.520114,0.605862,0.242572,0.208810,0.806599,0.552989
-0.292171,-0.408702,0.757288,0.465675,0.208243,-0.860105
0.670112,-0.428963,0.527640,0.240787,0.140777,-0.960314
0.177547,0.664794,0.190922,0.151597,0.771685,0.617674
-0.259717,-0.525548,0.815873,-0.719731,0.657790,0.222033
0.486559,0.562054,0.701503,0.025314,-0.857333,0.514140
0.408665,-0.626723,0.912592,-0.208729,-0.730560,0.650165
0.311100,0.316810,0.621220,-0.705516,0.516035,0.485752
-0.052727,0.567243,0.593848,0.566502,0.803591,-0.182529
-0.099704,0.175869,0.673809,0.172504,0.050251,-0.983726
0.345577,-0.103613,0.889750,-0.692492,0.401669,0.599264
-0.510739,0.577674,0.276732,0.319286,0.807899,0.495335
-0.649466,0.278113,0.760778,-0.046512,-0.458090,0.887688
0.031263,-0.016311,-0.253876,0.919921,-0.391193,0.026716
0.869699,0.323329,0.740018,-0.706617,0.705868,0.049430
-0.340505,-0.290995,0.739050,0.961715,0.273441,0.018302
0.543192,0.555170,0.684204,0.624414,-0.752783,-0.208386
-0.496830,0.441609,0.809203,-0.240137,0.452549,0.858798
0.160154,-0.556943,0.656832,0.669863,-0.555573,-0.492567
0.293887,-0.350526,0.648768,0.637919,0.034930,0.769311
-0.359793,0.889177,0.357426,0.761561,0.644719,-0.066046
0.264840,-0.459837,0.865940,0.120892,-0.958989,-0.256370
-0.034105,0.442366,0.794161,0.656610,0.745835,-0.112218
0.091687,-0.494935,0.473028,0.995746,0.054877,-0.074011
0.289789,0.513214,0.452766,0.882356,-0.444191,-0.155377
0.404490,-0.287866,0.942177,-0.478332,0.351395,0.804811
-0.354491,-0.089167,0.916447,0.317447,-0.934395,-0.161656
-0.320167,-0.083456,0.884311,0.561520,0.711304,-0.422779
-0.484535,0.255870,0.805581,0.378963,-0.756613,0.532844
0.057440,-0.376081,0.137175,0.569579,0.623680,0.535353
-0.057619,-0.329587,0.143245,-0.218705,-0.289508,-0.931855
-0.208591,0.270838,0.884545,0.764144,0.355589,0.538183
-0.164227,0.653842,0.410997,0.336925,0.745312,0.575319
-0.722493,0.187812,0.010915,0.458770,-0.630364,-0.626236
0.478618,0.299991,0.807165,0.385086,-0.910876,0.148372
-0.005699,-0.027393,-0.798705,-0.957492,0.279994,0.069375
0.433588,0.073130,0.697560,-0.047119,0.527279,0.848385
0.086257,0.497282,0.478540,0.804950,0.108904,0.583262
-0.555257,-0.269456,0.839536,-0.157998,-0.296181,0.941973
0.063101,0.541402,0.236224,-0.471849,-0.370790,-0.799920
0.392682,-0.209194,0.892506,0.878636,-0.350645,0.324109
0.553950,0.419184,0.778297,0.980118,-0.057007,-0.190049
0.638785,0.272741,0.836340,0.895551,-0.333081,-0.295036
0.726745,0.462261,0.439806,-0.274103,0.353192,-0.894496
0.524852,0.514466,0.680450,0.744204,0.640467,0.189638
0.202649,0.064838,0.876423,-0.137116,-0.967764,0.211262
0.127266,0.980261,0.639019,0.020804,0.929276,0.368799
0.304184,0.138581,0.824729,-0.281470,-0.631038,0.722887
-0.317837,-0.264163,0.803118,-0.647516,0.442318,-0.620546
-0.416222,-0.250733,0.193180,0.684619,0.388814,0.616539
0.613658,0.597700,0.181994,-0.606611,-0.114170,-0.786758
0.134489,-0.150993,0.873652,0.959009,0.044878,-0.279799
-0.703923,0.662186,0.598276,0.967918,-0.187602,-0.167151
-0.186050,0.750427,0.623845,0.752143,0.216116,0.622555
0.288483,0.665445,0.365446,-0.270360,0.415636,0.868420
-0.199677,0.707871,0.744607,0.771298,0.635541,0.034459
-0.259154,0.954576,0.547901,0.795440,0.293015,0.530488
-0.375905,0.449510,0.835431,0.484047,0.186079,0.855028
-0.595856,0.500672,0.759971,0.743921,0.277789,-0.607795
-0.326417,0.198946,0.311713,0.306591,-0.868262,0.390030
-0.038178,0.032373,0.903282,-0.360208,0.516590,0.776779
0.172756,0.603619,0.346005,-0.377149,0.568543,-0.731107
0.036846,-0.535770,0.187565,-0.224154,0.502089,0.835262
0.048014,0.935618,0.692971,-0.293796,-0.887456,0.355114
0.158361,0.931368,0.577047,0.859966,-0.428462,0.277271
0.258591,-0.470554,0.626982,-0.332450,0.940415,0.071388
0.052983,-0.021526,0.613465,0.250819,0.551121,0.795837
0.130109,-0.032712,0.197578,0.446356,-0.891140,-0.081457
0.037871,-0.242806,0.858199,0.941011,-0.110921,0.319678
-0.546573,0.138346,0.826840,0.268362,0.467104,-0.842494
-0.144837,0.260095,0.438648,0.439859,-0.753162,0.489153
0.642295,0.247995,0.833892,0.877544,-0.050152,-0.476866
0.000064,0.809072,0.709611,0.796590,0.267162,0.542282
0.560610,0.141501,0.721061,0.622741,0.698369,-0.352809
-0.611532,0.703360,0.646818,0.308654,0.283244,-0.908023
0.196117,0.442652,0.790305,-0.126775,-0.829000,0.544690
-0.177546,-0.145699,0.744387,-0.143286,-0.477276,0.866993
-0.454028,0.879607,0.558677,0.387879,-0.208023,-0.897929
0.193299,0.654989,0.671624,-0.703517,0.587961,0.399205
-0.770751,-0.010965,0.449937,0.605854,0.795273,-0.021956
0.407820,0.369744,0.698410,0.890578,-0.383629,-0.244337
0.324215,-0.575275,0.893884,-0.329493,0.749919,-0.573634
0.444782,-0.355037,0.936093,0.987600,-0.152638,0.036709
0.578515,0.385337,0.520338,0.339070,0.727688,0.596240
0.042968,-0.263745,0.884941,-0.766968,0.592396,-0.246631
-0.631639,0.528442,0.756467,-0.807181,0.590251,0.007949
-0.482640,0.324085,0.480710,0.318483,-0.065578,0.945658
0.375546,0.019127,0.828995,0.799658,-0.572463,-0.181200
-0.070478,-0.313576,0.044445,0.323726,-0.862315,-0.389377
-0.137588,-0.023221,0.607571,-0.059405,0.632256,0.772478
0.188458,-0.146456,0.740502,-0.573073,0.772674,0.273061
0.284896,-0.149793,0.936445,-0.635448,-0.494627,-0.592916
0.652797,0.418167,0.696592,-0.269087,0.884352,0.381462
-0.662453,0.393369,0.649618,-0.707064,-0.233876,-0.667355
0.165226,0.640777,0.458850,0.391212,-0.186606,0.901184
0.282514,0.391596,0.747480,0.731299,-0.134860,-0.668591
0.070555,-0.351700,0.485709,-0.520030,-0.829807,-0.202457
-0.104520,0.122257,0.157994,0.281800,0.914415,-0.290575
0.059438,-0.131905,0.168417,0.835719,-0.447372,-0.318485
0.230389,0.728888,0.520940,0.071373,-0.865461,-0.495865
0.014895,0.730114,0.526731,0.692259,-0.384148,0.610907
0.708687,0.347162,0.866615,0.649523,-0.684378,-0.331280
0.458562,-0.078006,0.853655,-0.630944,0.705347,0.323103
-0.017559,0.037354,0.475564,0.963642,0.223368,0.146630
0.253570,-0.712095,0.825051,-0.167980,0.984406,0.052227
0.630358,0.456681,0.333412,-0.548605,-0.022847,-0.835770
0.428209,-0.181710,0.882067,-0.556401,0.501832,-0.662256
-0.432102,0.636997,0.752993,-0.283676,0.565009,0.774786
0.100447,0.087159,0.979504,-0.405632,0.421488,-0.811055
0.557844,0.294619,0.780423,-0.158573,0.848854,0.504284
0.225266,0.488624,0.250651,0.227287,0.973616,0.020303
-0.870468,0.171828,0.258260,-0.059679,0.621798,0.780900
0.293811,0.005698,0.334584,0.842989,-0.127736,-0.522545
0.165943,0.310056,0.806344,-0.025874,0.811488,0.583796
-0.492527,-0.314828,0.765249,0.668718,0.737852,0.091600
-0.669190,0.705654,0.358716,-0.373433,0.101387,-0.922100
0.687862,0.253132,0.328896,0.512647,0.662179,0.546545
-0.287612,0.597544,0.772213,0.079162,0.832045,0.549030
0.171911,0.280643,0.410264,-0.665069,0.413306,-0.621982
-0.448111,0.719162,0.202827,0.025046,0.401641,0.915455
-0.278441,-0.423826,0.628551,0.558260,0.500048,0.662041
0.197269,0.345832,0.689833,-0.595261,0.619611,-0.511611
-0.695521,-0.029974,0.715358,-0.701114,-0.141588,0.698850
0.720316,0.291725,0.765191,0.067901,-0.528809,0.846020
-0.054853,0.263589,0.815287,-0.559547,0.669086,0.489112
-0.263611,0.559186,0.728304,0.314088,0.887091,-0.338258
0.711376,0.521219,0.241004,-0.358046,-0.819119,-0.448160
0.114970,-0.427685,0.590579,0.756310,0.612026,-0.231127
0.079520,-0.167030,0.045662,0.988956,0.030773,-0.144981
-0.156133,0.315376,0.834771,-0.044155,-0.704214,0.708613
0.005904,-0.083143,-0.040383,0.898753,-0.095945,-0.427829
-0.180697,0.410422,0.552006,-0.570040,0.761811,-0.307732
0.151830,0.447972,0.526364,0.508426,0.576150,0.639964
0.441324,0.289821,0.822676,-0.504609,0.536188,-0.676663
0.337611,-0.691000,0.464422,0.832686,-0.232510,0.502566
0.539939,-0.284215,0.480739,-0.562607,0.369446,0.739583
-0.460970,0.631051,0.654676,0.000824,-0.542211,0.840242
-0.382846,0.193392,0.356605,-0.019827,-0.827206,0.561549
0.013230,0.285727,0.435173,0.181765,-0.389111,-0.903080
0.216967,-0.533371,0.871057,0.804849,0.585984,-0.094026
0.541322,0.419523,0.699055,0.833313,-0.021548,-0.552381
-0.328569,-0.032791,0.794351,-0.172580,0.983801,0.048488
0.299702,0.591103,0.162993,-0.128818,-0.494550,-0.859550
-0.657689,0.506252,0.364053,-0.475642,0.205309,0.855344
-0.218965,-0.471049,0.588512,-0.784368,0.270211,-0.558349
-0.699415,0.141814,0.836692,-0.260104,-0.864652,0.429795
0.407666,-0.028227,0.775937,-0.032893,0.825027,0.564135
0.606921,0.076077,0.526481,0.422511,-0.044563,0.905262
0.099320,-0.739240,0.736851,0.975385,-0.114042,-0.188730
-0.329184,0.246222,0.662887,0.312082,0.945406,0.093878
0.024065,-0.019022,-0.410807,0.721419,0.692253,0.018448
0.960349,0.222624,0.425424,-0.128745,0.411245,0.902387
0.399931,0.564949,0.505531,-0.245648,0.770656,0.588002
-0.064971,-0.437124,0.898370,0.624476,0.535403,0.568660
0.766499,0.506956,0.268742,0.262892,0.847495,0.461129
0.120017,-0.065516,0.302125,0.342429,-0.925526,0.161690
-0.429823,-0.067498,0.709714,0.434543,-0.821292,-0.369664
-0.384998,0.218086,-0.030575,-0.688128,0.615409,0.384385
0.550211,0.745838,0.179780,-0.238504,0.292640,0.926001
-0.090842,-0.504009,0.188386,-0.015350,0.726271,0.687237
-0.463659,0.313133,0.846852,0.797820,-0.551004,0.244698
0.432308,0.784248,0.124728,0.362261,-0.488743,-0.793661
-0.627848,0.511076,0.347897,0.524355,-0.252659,-0.813152
0.694292,-0.095451,0.947309,0.608847,0.062062,0.790856
0.586481,0.558769,0.714610,0.893820,0.442368,-0.073459
0.525391,0.049583,0.764604,-0.564149,0.821514,0.082773
-0.685916,0.719579,0.643065,-0.210151,0.304055,0.929186
0.522035,0.157903,0.897989,0.501443,0.759843,-0.413756
-0.172833,0.641116,0.430276,-0.098930,0.989707,0.103409
0.512020,0.705863,0.507979,-0.213598,-0.810222,0.545817
0.216045,0.484817,0.792900,0.733304,0.501215,-0.459400
0.748338,0.477829,0.240227,0.150317,0.868984,0.471456
-0.307258,-0.374281,0.831605,0.777052,0.512396,0.365569
0.488326,0.599786,0.433267,-0.031296,-0.400163,0.915909
0.729640,0.270942,0.570977,0.002311,-0.211522,0.977370
0.323651,0.053547,0.752025,-0.674834,0.721558,-0.154769
0.378927,0.515535,0.480886,0.548886,-0.794285,0.260452
-0.598878,0.248334,0.547740,-0.415075,-0.861857,-0.291403
0.333103,0.230316,0.509841,0.864080,-0.484218,0.137470
-0.524468,0.525287,0.419764,-0.507875,-0.824417,-0.249800
0.908684,0.261633,0.429250,0.008790,0.587810,0.808952
-0.610481,0.001395,0.160970,-0.072543,0.426453,0.901596
0.060463,-0.044446,0.007294,0.982852,-0.059243,-0.174620
0.384408,-0.145986,0.908677,-0.009790,-0.516946,0.855962
0.417682,0.309430,0.848318,0.429013,-0.353300,0.831340
0.504745,0.188255,0.652624,0.945914,-0.184528,0.266826
-0.530487,0.462992,0.198121,-0.328068,-0.362860,0.872184
-0.301674,0.903649,0.568983,0.849167,0.526626,0.039762
0.878331,0.421557,0.584803,0.540652,0.544913,-0.640910
0.310588,-0.632251,0.562518,0.892274,-0.414876,0.178118
0.165713,0.029609,0.787299,0.200519,0.943501,-0.263815
0.716371,0.161762,0.802092,-0.255379,-0.056525,0.965187
0.572086,0.303068,0.741733,0.995183,-0.097264,0.012301
0.156594,0.796112,0.762801,-0.693878,-0.682651,-0.229173
0.292350,-0.035346,0.603950,0.103520,-0.985764,0.132487
-0.517475,0.758980,0.608685,-0.271365,-0.903567,-0.331552
-0.586199,0.658979,0.736514,0.742286,-0.668669,-0.043505
0.344578,-0.232611,0.866864,-0.658607,0.218953,-0.719928
0.330849,0.225414,0.671566,-0.531957,0.761474,0.370377
-0.685070,0.634258,0.327019,-0.087286,0.728296,0.679680
0.530129,0.134043,0.862261,0.514627,0.797967,-0.313698
0.608996,0.375898,0.742026,0.959230,-0.113633,0.258778
0.516579,0.317983,0.675246,0.847725,-0.304569,-0.434281
-0.246372,0.486304,0.176320,-0.539905,-0.142213,0.829625
-0.004470,-0.855513,0.745193,-0.137661,-0.989993,-0.031037
0.013486,0.106246,0.714449,-0.562544,0.669134,0.485597
0.024500,0.044238,0.914409,0.369281,-0.148477,-0.917380
0.083900,0.846621,0.591957,-0.654454,0.619707,-0.433189
0.862399,0.291516,0.339496,-0.528056,-0.804798,0.271029
0.524494,0.681925,0.208896,-0.025762,0.042961,0.998745
-0.135155,-0.293315,0.636541,0.541552,-0.068808,-0.837846
0.004034,0.837599,0.693880,0.825905,0.556413,-0.091022
0.725516,0.155895,0.864665,0.734244,0.661567,0.152361
-0.185128,0.646071,0.788106,0.800679,0.554020,0.227982
0.409511,-0.481584,0.825359,0.928599,-0.099666,0.357449
0.587429,0.154539,0.448119,-0.431366,0.154414,0.888864
0.046939,0.390918,0.584245,0.903139,-0.211903,0.373414
-0.240404,0.344529,0.887873,0.978303,-0.137018,-0.155398
0.068839,-0.053834,0.236415,0.574640,-0.818338,0.010577
0.590118,-0.709436,0.834845,0.982020,-0.022684,0.187410
0.529489,-0.106768,0.514371,0.633164,0.052360,0.772245
0.161691,0.071305,0.896728,-0.079384,0.989703,0.119106
0.032005,0.007366,-0.387950,0.708555,0.705293,0.022627
0.252315,-0.019961,0.908574,0.302433,-0.087074,0.949185
0.747365,0.496499,0.272613,0.243102,0.845115,0.476111
-0.128316,-0.159572,0.911917,-0.453727,0.338804,0.824223
0.031493,-0.505339,0.227369,0.752010,-0.519677,-0.405484
0.210077,-0.139545,0.023142,-0.256112,0.928965,0.267265
-0.237305,0.612981,0.565538,0.587563,-0.690653,-0.421626
0.440683,0.630478,0.658972,-0.308776,-0.803712,0.508630
-0.565989,0.128672,0.697252,-0.783550,-0.068958,-0.617490
-0.050909,0.286640,0.314294,0.537639,-0.600951,-0.591440
0.607075,0.013025,0.875558,0.138813,-0.930066,-0.340158
0.508434,-0.641377,0.861777,0.038325,0.658335,0.751749
0.634200,0.449562,0.472705,0.071407,-0.752874,0.654280
0.048757,-0.244188,0.871130,0.867691,-0.461785,-0.184029
0.738553,0.069818,0.818747,0.629396,0.547847,-0.551112
-0.344886,0.883232,0.592675,0.992938,-0.054617,-0.105319
0.146246,0.164552,0.355403,-0.663073,0.384882,-0.642028
0.655768,0.053521,0.869474,0.933876,0.357551,0.005770
0.137460,-0.034668,0.585667,0.801548,-0.597346,0.026417
-0.633176,0.268387,0.338323,-0.327057,0.301098,0.895753
0.086333,0.352117,0.766686,-0.590456,-0.767072,-0.250922
0.455437,0.104578,0.668253,-0.313728,0.803329,0.506199
-0.622392,0.620099,0.750881,0.866484,-0.498224,0.031275
-0.355771,0.960052,0.582955,0.232730,0.967557,-0.098333
-0.372908,0.626879,0.580214,-0.481528,-0.081075,0.872673
-0.097040,-0.484270,0.910818,0.214063,-0.967444,0.135015
0.514786,0.590920,0.654295,0.231652,-0.027171,0.972419
-0.012461,0.805578,0.622774,0.870619,0.233722,0.432894
0.051780,-0.297879,0.424734,0.780288,0.563905,0.270484
0.427159,-0.174305,0.899646,-0.602232,0.364058,-0.710478
0.219016,-0.145256,0.385883,-0.656351,0.415151,0.629963
-0.737529,0.604949,0.663708,-0.093418,0.835333,0.541749
-0.097604,0.308570,0.863419,0.024355,-0.153275,0.987883
-0.192172,0.570320,0.597426,-0.668233,0.072591,0.740402
0.836196,0.513266,0.589597,-0.304353,-0.329823,0.893636
0.697622,0.303772,0.581988,-0.564695,0.678690,-0.469574
0.263150,-0.459784,0.884472,-0.613305,0.788103,0.052443
0.535072,-0.254540,0.908032,0.798994,0.170764,0.576583
0.456001,0.064812,0.938615,0.532794,0.208664,0.820116
0.155979,-0.779137,0.834053,-0.274832,-0.890319,0.363043
0.315915,0.074851,0.684614,-0.351530,0.905664,-0.237064
-0.247294,0.678014,0.670334,0.815909,-0.314631,0.485078
-0.094812,-0.353082,0.879516,0.360652,0.108070,0.926418
-0.583176,0.478481,0.628243,0.470574,0.721346,0.508154
0.284461,0.042856,0.900350,-0.148582,-0.592212,-0.791965
0.402877,0.667871,0.492204,0.477316,-0.145865,-0.866541
0.506026,0.620882,0.565157,0.765903,0.433500,0.474838
0.773082,0.196495,0.694261,-0.404861,0.473386,0.782300
-0.550134,0.627296,0.279225,-0.477318,-0.783205,-0.398444
-0.327775,0.887821,0.356473,0.710865,-0.590074,-0.382732
0.144043,0.145439,0.830036,0.470232,0.466945,-0.748896
-0.127342,0.369509,0.753682,-0.133744,-0.154290,0.978932
0.495063,0.584740,0.564702,-0.755044,-0.578772,-0.308109
0.479950,0.259886,0.578308,-0.261539,0.961752,-0.081428
0.411099,0.604871,0.710432,0.035134,0.853781,0.519446
0.855279,0.529850,0.607366,0.395359,0.266343,-0.879064
0.568192,-0.249925,0.824685,0.946679,-0.320714,-0.030688
0.186870,-0.504896,0.889618,0.835557,0.503317,-0.220266
-0.496420,0.348258,0.783810,0.374749,-0.819043,-0.434433
0.484715,0.549433,0.415322,0.240304,0.337884,-0.909994
-0.545959,-0.143613,0.792592,0.784293,0.331014,-0.524704
0.428337,-0.315037,0.949816,0.916621,0.269709,-0.295065
-0.338507,0.468337,0.533533,0.232345,0.651033,0.722615
0.910708,0.034251,0.444014,0.959932,0.259617,-0.105498
0.614605,0.523045,0.689100,0.666415,-0.282387,0.690035
0.177982,0.625002,0.453660,0.225729,-0.265787,0.937232
0.225548,0.519159,0.842893,0.947522,0.192344,-0.255354
0.080160,-0.056754,0.100405,-0.661551,0.732604,0.160128
0.739527,0.415951,0.623683,-0.033257,0.115769,0.992719
-0.361279,0.038553,0.130768,0.285055,0.132822,0.949264
-0.004290,-0.467399,0.907460,0.567201,0.821500,0.058478
0.264021,0.539290,0.387730,-0.512407,0.562503,0.648868
0.344911,-0.082100,0.865559,0.675002,-0.252163,-0.693387
0.566502,0.274306,0.583366,0.796853,0.460571,0.391024
-0.394680,0.759267,0.632260,-0.261133,0.935420,-0.238325
0.425033,0.577569,0.640895,-0.272281,0.052196,-0.960801
-0.021811,-0.113052,-0.984093,0.183290,-0.003885,0.983051
0.421140,-0.639109,0.870427,-0.334881,-0.919390,-0.206342
0.343067,-0.214331,0.868946,0.720359,-0.646786,0.250503
-0.093044,-0.791627,0.724140,0.294958,0.724789,0.622641
-0.333922,0.878408,0.381397,-0.672881,0.123722,0.729332
-0.101267,0.167473,0.888899,0.584456,-0.270604,-0.764974
0.352877,-0.306823,0.456578,0.760207,0.645445,-0.074065
-0.338789,0.214488,0.851778,0.947327,0.282119,-0.151596
-0.420397,0.494935,0.810214,0.922682,-0.244615,-0.298030
0.300547,0.183171,0.863228,-0.061620,-0.994905,0.079798
-0.502542,0.339444,0.870793,-0.534450,0.372775,-0.758553
-0.373932,0.779632,0.644780,-0.514122,0.508438,-0.690774
-0.317529,0.456264,0.197930,0.065807,-0.221299,0.972983
0.092686,0.416211,0.384138,0.124024,0.154776,0.980134
-0.276392,0.877052,0.393741,-0.529179,0.315943,0.787496
0.546829,0.480098,0.701152,0.628957,0.677723,-0.380926
0.494679,-0.774573,0.854432,0.438964,0.841302,0.315469
0.727360,0.043716,0.451417,-0.104163,0.563795,0.819320
0.067660,-0.884431,0.366809,0.546740,-0.314837,-0.775856
-0.182567,0.104447,0.909132,0.153975,0.987840,0.021543
0.242838,0.189846,0.326154,-0.710088,0.702948,0.040496
0.454669,0.113939,0.713159,-0.325889,0.516055,-0.792139
-0.629897,0.125334,0.741557,-0.816125,-0.529218,0.232096
0.367887,0.303433,0.677679,0.913681,-0.285438,-0.289331
0.243708,-0.412743,0.902080,0.871737,-0.161949,-0.462436
0.431513,0.589773,0.538723,-0.050841,-0.875397,0.480723
0.183335,0.472327,0.494051,0.531898,0.440038,0.723499
0.384947,-0.216965,0.833247,0.202918,0.971877,-0.119499
0.198371,0.547921,0.328793,-0.421609,-0.895702,-0.141295
0.386560,-0.038423,0.789792,-0.211618,-0.073659,-0.974573
-0.107465,-0.446147,0.919555,-0.439042,0.891115,0.114702
0.697698,0.547817,0.733875,0.006769,-0.582151,0.813053
0.079520,0.127290,0.917356,0.285561,0.219609,0.932860
0.188074,0.015580,0.170587,-0.557210,0.830368,0.002397
0.214175,0.639917,0.695756,0.849584,0.511352,-0.129328
-0.029853,0.004837,-0.023905,-0.522083,-0.852549,0.024267
0.817267,0.455716,0.577970,-0.704127,-0.262278,0.659860
0.238765,-0.682603,0.746674,-0.583257,0.028785,0.811778
0.567885,0.543984,0.727585,-0.701768,-0.660898,0.265962
-0.436175,-0.299104,0.796858,0.514738,0.048440,-0.855978
0.707048,0.208047,0.550657,0.419064,-0.885867,0.199062
-0.062870,-0.382287,0.146338,-0.260920,-0.318805,-0.911199
0.588299,0.615979,0.654735,0.635550,-0.770898,-0.042333
-0.021452,-0.350005,0.698410,-0.357529,0.726545,0.586775
0.043762,-0.365598,0.135636,0.179749,0.667137,0.722923
0.147065,0.075972,0.344246,-0.580635,0.499114,-0.643233
0.376007,-0.344424,0.498845,0.574184,0.769648,0.279203
0.415171,0.560177,0.469406,-0.530690,-0.788641,-0.310504
0.609098,-0.088541,0.919746,0.550890,0.632741,-0.544205
0.059105,-0.195061,0.226973,0.883755,-0.301232,-0.358102
-0.706049,0.184735,0.760616,-0.499870,0.290590,-0.815897
-0.534637,-0.222858,0.735488,0.249160,-0.741328,-0.623179
-0.647699,0.501141,0.746938,0.762528,-0.482474,-0.431010
0.247730,-0.709018,0.847717,0.392632,-0.460800,-0.795929
0.816831,0.337358,0.689408,0.224092,0.762749,0.606628
0.615809,0.188803,0.848025,-0.792315,0.040476,-0.608768
-0.342785,0.539499,0.806490,0.879082,-0.013414,-0.476482
0.046452,-0.629017,0.786244,0.618810,-0.080842,-0.781370
-0.405182,0.426824,0.583131,-0.597719,-0.461902,-0.655270
-0.360895,0.887300,0.583571,0.054836,0.494517,0.867437
0.931379,0.004994,0.449174,-0.278809,-0.362582,-0.889269
-0.423214,0.593684,0.821708,0.272428,-0.912816,-0.304221
0.416734,0.039075,0.862231,0.745682,-0.359537,0.560974
0.953894,0.199546,0.426670,-0.154247,0.376992,0.913282
-0.456590,-0.377593,0.782344,0.495326,0.846017,0.197253
0.583970,0.073678,0.416290,0.527356,-0.388916,-0.755407
-0.877870,0.135347,0.278726,-0.103343,0.726505,0.679346
0.630691,0.334463,0.778429,0.292142,0.576861,-0.762814
0.361868,-0.416159,0.330391,0.973858,0.173500,-0.146621
0.003291,-0.291673,0.867670,-0.170133,0.194570,-0.966021
-0.255235,0.643124,0.590462,0.303080,-0.336188,-0.891695
-0.395013,0.094173,0.134067,0.179435,0.430610,0.884522
0.010873,0.034850,-0.608289,0.243979,-0.969639,-0.016579
0.167941,0.056572,0.828174,0.016911,-0.963702,0.266443
-0.115278,0.778354,0.573924,0.500847,0.602592,0.621317
-0.016560,0.514831,0.569936,0.566447,0.090410,-0.819124
0.270886,-0.707350,0.794952,-0.125846,0.953046,0.275438
-0.023450,0.808237,0.627436,0.971444,-0.009102,0.237095
-0.728077,0.436055,0.184383,0.014841,0.211104,0.977351
-0.404900,0.285806,0.744475,-0.318219,-0.059192,-0.946167
0.274907,-0.316549,0.801916,-0.773072,0.442412,-0.454568
0.392836,0.127890,0.473028,0.530586,0.288385,-0.797065
-0.835939,0.307396,0.568529,0.020467,-0.034668,0.999189
-0.326289,-0.519211,0.757875,0.178534,0.209584,0.961353
0.535201,0.741457,0.182902,-0.163449,0.406646,0.898846
0.324368,-0.530111,0.454980,0.888887,0.064883,0.453510
