0.607040,-0.144725,0.459652,-0.068365,0.558543,0.826653
0.671494,-0.755095,0.457445,-0.207008,0.253449,0.944940
0.078027,-0.169377,0.634255,0.435151,0.883391,-0.173963
0.357059,-0.039559,0.776996,0.973514,0.028915,0.226791
-0.741076,-0.177369,0.701432,-0.921721,0.016716,0.387494
-0.177615,-0.048765,0.402108,-0.801382,-0.396230,0.448095
0.761770,-0.513605,0.536257,-0.324372,0.756075,0.568448
-0.453101,-0.180737,0.659275,-0.188520,-0.789518,0.584056
0.533168,-0.105522,0.848351,0.176109,0.933870,-0.311244
0.315518,-0.405926,0.218534,0.903971,0.415388,0.101438
-0.436380,-0.442972,0.314609,-0.134010,-0.058346,0.989261
-0.543961,0.116704,0.630393,-0.492163,0.241462,0.836344
0.135918,-0.159228,-0.510338,-0.446440,-0.338454,0.828336
0.321709,-0.477189,0.534097,0.372529,-0.816683,-0.440739
-0.501415,0.263133,0.796577,-0.332756,0.657264,0.676223
0.183383,0.297441,0.888396,0.925284,-0.197470,0.323814
0.296575,-0.350427,-0.379532,-0.666953,-0.744077,-0.039027
-0.117079,0.025280,0.797539,0.574232,0.289001,-0.765987
0.637994,-0.852447,0.603717,0.273340,0.019931,-0.961711
0.639053,-0.465021,0.631843,0.966850,0.241030,0.084299
-0.095911,-0.548631,0.269709,0.705711,0.655092,-0.269864
-0.576663,-0.598788,0.434490,0.020542,-0.542182,0.840010
0.229741,-0.454647,0.676964,-0.080130,0.538974,0.838503
0.296310,-0.257520,-0.027519,0.937749,-0.347302,-0.002926
-0.110887,-0.238303,-0.608289,0.169405,0.635586,0.753214
0.800821,-0.237179,-0.473273,-0.793281,-0.322175,0.516631
-0.202539,0.177010,0.737488,0.754030,0.146726,-0.640243
0.263079,-0.151639,0.811208,0.780386,0.598573,-0.180854
0.169150,0.534711,0.620744,-0.681892,0.351981,0.641196
0.598148,-0.078806,0.714659,-0.263124,0.206240,0.942460
-0.153010,0.198831,0.745544,0.066919,-0.273868,0.959436
0.024739,-0.228288,0.501604,0.581194,-0.807569,0.100227
-0.017329,0.028424,-0.691863,-0.616552,0.782532,0.086648
0.399709,-0.033409,0.280698,-0.114420,-0.391921,0.912856
0.195663,0.360080,0.805390,-0.298639,0.462401,0.834865
0.516867,-0.071935,0.872078,-0.156320,-0.922477,0.352987
0.096337,0.342479,0.764825,0.268187,0.952742,-0.142684
0.639370,0.132825,0.694984,-0.394975,0.214605,0.893275
0.138986,-0.104176,0.531842,-0.106945,0.792337,0.600638
0.439452,-0.326942,0.282400,-0.251478,-0.955749,-0.152652
0.231911,-0.165784,0.696529,-0.143093,0.976233,0.162768
0.380924,-0.586888,-0.887119,-0.362203,0.171241,0.916234
-0.084057,-0.293355,0.701842,0.044682,-0.958843,0.280399
0.071994,-0.051415,0.818050,-0.468536,-0.718841,0.513558
0.071677,0.500000,0.578414,0.706787,-0.080724,-0.702805
0.204868,0.233767,0.269520,0.130865,-0.969025,-0.209441
-0.131154,0.031926,0.644172,0.316272,0.943930,-0.094700
0.596614,-0.407453,0.060311,-0.636970,0.504089,0.583236
0.205876,0.295643,0.747026,-0.291925,-0.344849,0.892109
-0.343297,-0.247237,0.733878,0.795235,0.157976,-0.585358
-0.008809,-0.342210,0.677248,0.774713,0.365525,-0.515957
0.400504,-0.425415,0.485760,-0.219723,0.664500,0.714256
-0.527451,-0.155411,0.654293,-0.266859,-0.282137,0.921512
0.685569,-0.342073,0.060800,-0.734122,0.635502,0.239171
0.277471,0.075662,0.673858,0.657863,0.555334,-0.508744
0.299643,-0.005881,0.677295,0.866192,0.497688,-0.044928
-0.341711,-0.474673,0.475355,-0.609891,0.325482,0.722561
0.509248,-0.572699,0.381644,-0.342746,0.107352,0.933274
0.415322,0.193534,0.914551,-0.249530,-0.256189,0.933864
0.025004,0.238212,0.806383,-0.626885,0.775465,0.075296
0.408601,-0.386799,0.268747,-0.610324,0.294222,0.735485
0.130043,-0.514010,-0.061793,-0.171137,0.506447,0.845118
0.294883,-0.390077,-0.339377,-0.721943,-0.689331,-0.060167
-0.445533,0.277684,0.587258,-0.140765,0.921496,0.361981
-0.443260,0.251233,0.607217,0.292643,-0.631633,-0.717914
-0.180157,-0.300223,-0.462048,0.609199,0.753144,0.248295
0.403943,-0.448631,0.726846,0.665202,0.595455,-0.450489
0.418600,0.486842,0.788332,0.210215,-0.312564,0.926344
-0.699854,-0.194611,0.735643,0.298727,0.907086,-0.296577
-0.109670,-0.456398,0.614753,-0.361812,0.714950,0.598280
0.169838,0.200492,0.884848,0.782367,-0.054704,0.620410
0.126923,-0.110373,0.799588,-0.090269,0.948381,0.304014
0.559891,-0.623394,-0.870991,-0.219317,0.177006,0.959463
-0.465167,-0.355634,0.459715,-0.155329,-0.506066,0.848393
-0.103161,0.424922,0.608636,-0.269426,-0.174267,0.947122
0.289059,-0.164707,0.722684,-0.392515,0.705704,-0.589842
0.261913,-0.089223,0.858504,-0.638134,0.183494,0.747740
0.796006,-0.651818,0.110824,0.681732,0.186496,-0.707432
0.113271,-0.175303,0.568781,0.858732,0.472667,0.197905
0.314303,-0.392187,-0.293720,0.059447,-0.895218,0.441646
-0.392458,-0.369467,0.478334,-0.101036,-0.220564,0.970125
0.325730,0.235294,0.701795,-0.134376,-0.221326,-0.965897
0.296998,-0.274272,0.440119,0.579551,0.628488,-0.518771
0.368277,-0.404221,-0.028276,-0.129022,-0.245549,0.960760
0.240906,-0.208218,0.321735,0.144482,0.989149,0.026635
-0.312130,-0.465782,0.341127,-0.131877,-0.361920,0.922834
-0.767218,-0.005747,0.717261,0.830343,-0.195107,0.521980
0.187143,0.046789,0.374912,0.329199,0.016793,-0.944111
-0.002566,-0.264572,0.590112,-0.475207,0.875013,-0.092360
0.569096,-0.039066,0.838797,-0.402805,0.861974,0.307813
0.152536,0.229861,0.822149,0.266693,0.207900,-0.941091
0.334464,-0.596094,0.543556,0.936648,-0.290492,-0.195719
0.381613,-0.198472,0.710639,-0.439007,-0.840868,0.316564
0.538671,-0.343871,-0.890303,-0.016060,0.281521,0.959421
-0.100781,0.315985,0.666653,-0.309544,0.948401,-0.068697
0.117822,-0.208668,0.711238,0.780517,0.519219,-0.348145
-0.472838,-0.324607,0.473935,0.502219,0.144533,-0.852576
0.440669,0.094430,0.794748,-0.394101,-0.451743,0.800383
0.491784,-0.134754,0.523975,0.525732,-0.691202,0.495829
0.234928,-0.901121,0.021449,-0.426096,0.201052,0.882055
0.040190,-0.399685,-0.516455,-0.566019,0.423189,-0.707484
-0.172005,-0.006240,0.426040,0.995366,0.014141,-0.095109
0.501574,-0.325191,0.507311,-0.666984,-0.272898,-0.693296
0.233975,-0.325010,0.167233,0.585574,-0.208452,0.783359
0.255246,-0.051640,0.299332,-0.091517,-0.630741,0.770578
0.197779,-0.859046,0.389291,0.593876,0.218687,-0.774265
0.106656,-0.613829,-0.488487,0.079252,-0.320387,0.943966
0.218469,-0.098698,0.397898,0.015284,-0.026208,0.999540
0.003890,0.357969,0.650289,-0.536455,0.808512,0.241917
0.479085,-0.511629,-0.880135,-0.050822,0.137370,0.989215
-0.101892,0.026223,0.595046,0.808346,0.588165,-0.025264
0.434846,-0.483655,0.723031,0.701988,-0.158210,-0.694393
0.148724,0.267176,0.756233,0.225124,-0.588498,0.776524
-0.175341,-0.415491,0.480730,-0.313497,0.281369,0.906946
-0.258208,-0.227480,-0.337911,-0.168488,-0.821239,0.545141
0.371716,0.321148,0.849092,0.869743,-0.380028,-0.314844
0.259746,0.123575,0.896105,-0.035541,0.994720,0.096279
0.346317,-0.373956,-0.628627,-0.602374,0.787707,0.129085
0.214341,0.712976,0.818302,0.979340,0.181766,0.088628
0.185131,-0.334756,-0.645543,0.831252,-0.521327,0.192971
0.386005,-0.422677,0.685525,-0.167573,-0.218660,0.961305
0.085540,0.490569,0.780717,0.382755,0.540937,0.748923
0.637836,-0.754917,0.506838,0.738133,0.660005,0.139832
0.311975,0.646969,0.750621,0.845597,-0.328571,0.420722
-0.000977,-0.116345,-0.274123,0.171005,-0.969215,0.177141
0.297738,-0.623575,-0.887497,-0.243628,0.237589,0.940317
0.542004,0.079839,0.700139,-0.718549,-0.287035,-0.633481
0.228207,-0.671350,0.439346,-0.036078,-0.619658,0.784043
0.261913,-0.067714,0.583285,0.543332,-0.720039,0.431664
0.057282,-0.515447,0.627366,0.113206,0.483923,0.867757
0.329277,-0.120565,0.831403,-0.383763,-0.166500,0.908297
0.296152,-0.351323,-0.435657,0.996214,0.086933,0.001046
-0.083211,0.315357,0.768420,0.458944,-0.783607,-0.418724
0.189575,-0.113785,0.756123,0.811474,0.584386,0.001883
0.426009,0.237988,0.682876,-0.021164,0.340625,0.939961
0.281757,-0.388010,0.008458,0.832123,0.506248,0.226460
0.378173,0.009834,0.730094,-0.086532,-0.671732,-0.735723
0.191322,-0.814952,0.449814,-0.499047,0.287192,0.817602
-0.751870,-0.145174,0.769618,-0.279202,0.888881,-0.363230
0.484746,-0.613829,-0.876524,-0.181216,0.211023,0.960536
0.304937,-0.329096,-0.050410,0.688568,-0.701680,0.183083
-0.538245,-0.447149,0.453882,-0.043112,0.231654,0.971842
0.433948,0.123978,0.938231,-0.343600,-0.817553,0.462110
0.098081,0.483071,0.691941,-0.691980,0.700510,-0.174497
0.425480,-0.625639,0.567488,-0.287308,0.499380,0.817358
0.706259,-0.407768,0.750416,-0.852814,0.196374,0.483886
-0.850987,0.064976,0.765661,-0.716206,0.325710,0.617222
0.283239,-0.376650,-0.298339,0.966412,0.109042,0.232719
-0.128984,-0.048047,0.789294,-0.052129,0.876732,0.478146
-0.063209,-0.400001,-0.510622,-0.534075,-0.021824,-0.845155
0.106550,0.319893,0.902585,0.428729,0.026291,-0.903051
0.141050,-0.855993,0.409139,0.997480,-0.048323,-0.051938
0.206615,-0.231432,0.282006,0.833506,0.429535,0.347516
0.327161,0.214999,0.891959,0.219260,0.720065,0.658355
0.511576,-0.011944,0.717513,0.680335,0.656578,-0.325653
0.018124,0.444320,0.704585,0.566820,0.089199,0.818999
0.239902,0.226134,0.281123,-0.126424,0.925385,0.357322
-0.623547,0.048225,0.778936,-0.084388,-0.452207,0.887912
-0.357004,-0.671441,0.243506,0.467202,0.882599,-0.052348
-0.039024,0.528065,0.648129,-0.379883,-0.576567,0.723366
-0.282180,0.461159,0.746837,-0.753018,0.430909,-0.497273
-0.542586,-0.249619,0.677343,-0.521083,0.681381,0.513996
-0.410451,0.101301,0.680070,0.303424,-0.258040,0.917251
-0.310967,-0.238796,0.691752,0.766332,0.508579,-0.392534
0.547931,-0.559138,-0.876162,-0.226147,0.189315,0.955519
0.550999,-0.364391,-0.889767,-0.130896,0.345526,0.929235
-0.335785,0.154961,0.709520,-0.630018,0.347639,0.694424
0.573702,0.314773,0.703624,-0.277142,-0.307576,-0.910269
0.445272,-0.154558,0.750983,0.386319,0.805475,-0.449408
0.096970,-0.162191,0.630219,0.435151,0.883391,-0.173963
0.621167,-0.036103,0.757605,0.908167,-0.409226,0.088126
0.176717,-0.339695,-0.626956,0.616769,-0.669074,0.414653
-0.340707,-0.523079,0.471571,0.355589,-0.067084,-0.932232
0.463791,0.063225,0.716520,-0.467552,0.838779,0.279008
0.017859,-0.180241,0.514264,-0.190400,-0.321878,0.927439
-0.417912,-0.608531,0.253581,-0.017162,0.998579,0.050455
-0.161634,-0.211765,0.403400,0.744235,-0.041939,-0.666600
-0.799814,0.247328,0.748571,0.398836,-0.680441,-0.614760
-0.034951,0.291332,0.678210,-0.237430,0.971315,-0.013201
-0.085753,0.262550,0.797082,0.912192,0.009405,-0.409656
-0.222806,-0.057119,0.756943,0.332610,0.797400,-0.503511
0.644134,-0.639783,0.626309,0.172848,-0.957627,0.230380
0.359388,0.152985,0.805532,0.114360,0.984119,0.135761
0.541791,-0.787471,0.581189,0.397088,0.107943,-0.911411
0.277154,0.188639,0.738497,0.693856,0.714217,0.091970
0.169043,0.208128,0.704254,0.950308,0.255786,0.177450
0.509196,0.356443,0.686250,0.430700,-0.633820,-0.642472
-0.586560,0.358238,0.804697,-0.646167,-0.068580,-0.760108
0.477234,-0.564436,-0.880135,-0.147404,0.108020,0.983160
0.088663,0.151505,0.843511,0.338500,0.045829,0.939850
-0.141260,0.394207,0.708921,0.639255,0.755250,-0.144745
0.284722,-0.373103,0.055266,0.931486,-0.275202,0.237904
-0.749597,-0.124877,0.764226,-0.414855,-0.482082,0.771681
0.375686,0.038707,0.910357,-0.280325,0.946964,-0.157090
0.111152,0.147238,0.858709,-0.326531,-0.171579,0.929483
0.292076,0.558958,0.759623,-0.615925,0.348354,-0.706601
0.252708,0.071261,0.835203,-0.684895,0.518840,0.511589
0.139251,-0.903906,0.335971,0.168355,0.499571,-0.849756
0.828020,-0.092726,0.478255,-0.352582,0.867139,0.351791
-0.002249,-0.342030,0.688914,0.772682,0.379330,-0.508991
0.434478,-0.257118,0.736983,-0.326948,-0.317481,-0.890118
0.383412,-0.703277,0.380115,0.430384,0.626301,0.650012
0.289059,-0.335564,-0.281754,-0.766416,0.642095,0.017890
0.348911,-0.360710,-0.696513,0.991045,-0.129784,0.031413
-0.870143,0.169780,0.769587,0.659165,-0.562228,-0.499401
-0.352877,-0.084016,0.486059,0.385426,0.378365,-0.841597
-0.740970,-0.005613,0.744929,0.955234,0.291151,0.052525
0.279693,0.039334,0.715795,0.870772,0.174271,-0.459767
0.733247,-0.612708,0.027282,0.881849,0.469971,0.038327
0.514276,-0.579074,0.610560,0.717098,-0.584440,-0.379737
0.625401,-0.322047,-0.886394,-0.228900,0.253030,0.939989
-0.005369,0.526988,0.853680,-0.290311,0.920378,-0.261963
0.525229,-0.514728,0.728376,0.683964,0.453206,0.571662
-0.269109,0.308755,0.754247,0.017191,0.485115,0.874281
0.343142,0.073418,0.915008,0.851633,0.480660,-0.209017
0.582487,-0.319893,-0.893598,-0.221094,0.188039,0.956953
0.006907,-0.051369,0.807660,-0.346695,-0.728167,0.591249
0.249372,-0.362237,-0.706887,0.262984,0.962918,-0.060240
0.319116,0.698516,0.759087,0.683179,-0.498866,0.533290
0.921102,-0.257567,-0.445636,-0.867001,0.252535,0.429576
0.570792,-0.144725,0.763974,0.677230,0.043960,0.734457
0.086124,0.512484,0.678840,0.912998,-0.400440,0.077990
0.395158,-0.220790,0.721439,0.779974,0.351596,-0.517708
0.510149,-0.070543,0.705405,0.340216,-0.222867,0.913555
0.360076,-0.303504,0.573495,-0.700216,0.712393,0.046835
0.227887,-0.213516,0.314420,-0.157749,0.982021,-0.103680
0.127398,0.304625,0.672029,-0.393927,-0.473655,-0.787701
0.074904,-0.014909,-0.481030,0.728690,0.416927,-0.543308
-0.868344,0.020835,0.759166,0.854035,0.518214,-0.045580
0.590477,0.357117,0.686975,-0.434626,-0.006946,-0.900584
0.305463,-0.417064,0.719042,-0.224465,-0.277366,0.934175
-0.007010,-0.234710,0.590522,-0.463971,0.658541,-0.592499
-0.069029,-0.241849,0.739001,-0.572032,-0.625517,0.530573
0.693663,-0.194611,0.657336,0.913831,0.094505,-0.394945
0.301178,-0.395599,-0.911035,-0.430322,0.348084,0.832863
0.512952,-0.485406,0.509014,0.448901,0.824620,-0.344222
-0.374413,-0.008038,0.734193,0.683500,0.486839,-0.543889
0.423574,-0.404399,0.732648,-0.016569,-0.233409,0.972237
-0.425586,-0.302155,0.707549,0.284894,-0.042211,-0.957629
0.299698,-0.034217,0.844221,0.898615,-0.217129,0.381242
0.558567,-0.517017,0.386973,0.852136,-0.459678,0.250121
0.492737,0.335427,0.704554,0.287158,0.053835,0.956369
0.378066,-0.346790,-0.655965,-0.357963,0.933552,-0.018527
-0.106123,-0.062910,0.809158,0.092654,-0.968455,0.231323
0.460881,-0.081544,0.220410,-0.479718,0.571298,0.665950
-0.230215,0.028333,0.773875,0.756440,-0.327539,-0.566141
-0.877655,0.100043,0.754499,-0.585812,-0.278146,0.761222
0.306206,-0.031882,0.601290,-0.505260,-0.811345,0.293991
-0.015266,0.432015,0.637881,0.686500,-0.094219,-0.720999
-0.297366,-0.180737,0.474881,0.803446,0.115518,-0.584064
0.004472,-0.228244,0.557919,0.739717,-0.672853,0.009365
0.404418,-0.481994,-0.886788,-0.378116,-0.055417,0.924098
0.532531,0.079839,-0.638276,-0.186343,-0.364890,0.912213
-0.237941,-0.008532,0.520901,0.408984,0.198826,-0.890618
0.281705,-0.168928,0.469458,0.811670,0.546592,0.205982
-0.216192,0.301974,0.759497,0.092599,0.751746,0.652920
0.299960,0.111584,0.766339,0.773185,0.548029,-0.319138
0.203863,-0.344364,0.567189,-0.298827,0.893983,0.333910
0.602169,-0.829727,0.597064,0.424846,0.082661,-0.901484
0.427227,-0.456442,0.728123,-0.189621,-0.185240,0.964225
-0.076015,-0.073642,-0.370561,0.741041,0.405492,0.535196
0.520891,-0.140548,0.462868,-0.134702,0.595420,0.792042
0.334887,-0.496766,-0.892763,-0.231330,0.177842,0.956482
0.164705,0.374583,0.818444,-0.696420,0.455670,0.554403
0.341553,-0.058420,0.302958,-0.475752,0.709643,0.519680
-0.067495,-0.191738,0.788915,0.151587,0.263855,0.952576
0.762245,-0.224024,-0.526025,0.914416,-0.331921,-0.231673
0.008125,0.377190,0.769287,0.000336,-0.965993,0.258568
0.120202,-0.629815,0.408588,0.882397,0.446455,0.148502
0.293665,0.210822,0.846980,-0.865352,0.500853,-0.017648
0.127769,0.443331,0.632789,-0.508278,0.573597,0.642370
-0.593016,0.105478,0.785321,0.460899,0.766390,-0.447457
0.263712,-0.065829,0.813604,0.761541,-0.412237,-0.500115
0.622701,-0.148811,0.459621,-0.148809,0.555279,0.818243
0.632439,0.188461,0.970014,-0.436358,0.479119,0.761602
-0.697419,-0.115986,0.749028,-0.672641,0.668174,-0.317958
0.376161,-0.132241,0.806131,0.854798,-0.493532,0.160455
0.305518,-0.291154,0.724828,0.281722,0.851742,0.441778
-0.304882,-0.115221,0.728328,0.316428,-0.301957,0.899275
0.324461,0.075347,0.853790,-0.206547,0.815289,0.540964
0.503269,-0.775124,0.697522,-0.328501,-0.313732,0.890876
0.566186,-0.543421,0.416123,0.816790,0.264141,-0.512917
0.196454,0.745486,0.816994,0.912248,0.205430,-0.354404
0.266412,-0.355231,-0.756359,-0.250211,-0.964630,0.082972
0.634131,-0.009518,0.891675,0.399352,-0.759536,0.513442
-0.064426,-0.159182,0.648208,-0.155093,0.915809,-0.370459
0.174653,0.121824,0.700155,0.877752,-0.042752,0.477204
0.342454,-0.637361,-0.019573,0.489819,-0.320162,-0.810909
0.214131,0.184552,0.840941,0.904957,-0.208307,-0.371028
0.536342,0.037180,0.699934,0.858508,0.046436,0.510694
0.244821,-0.257208,0.192773,0.933427,-0.347442,-0.089437
0.359440,-0.462595,0.680038,-0.764797,0.477591,-0.432426
0.401033,-0.544544,-0.881617,-0.248142,-0.041553,0.967832
-0.458553,0.051862,0.644960,-0.414831,0.338097,0.844752
-0.101046,-0.700673,0.237216,-0.177278,-0.180658,0.967437
0.090146,-0.268702,0.397126,0.942053,0.303352,-0.143230
0.407383,0.220565,0.695851,0.184242,-0.183428,0.965613
-0.747849,-0.159856,0.692982,0.704577,-0.704046,-0.088833
0.112476,0.086079,0.366036,-0.696120,0.116977,0.708331
-0.653552,-0.148764,0.738733,-0.208793,-0.176220,0.961952
0.513905,-0.507274,0.405371,-0.777034,0.405470,0.481469
-0.540625,-0.061383,0.673622,-0.580641,0.408953,0.703998
0.371083,-0.124696,-0.757826,-0.717744,0.466990,-0.516493
0.288055,-0.354604,0.103256,0.867309,0.425428,0.258429
0.354201,-0.406556,-0.482102,0.989194,0.120372,0.083701
0.551901,-0.264616,0.467109,-0.565843,-0.554778,0.609953
-0.361026,0.328828,0.750321,-0.400851,0.176213,0.899037
-0.321231,-0.036057,0.488566,0.111708,0.513603,0.850725
0.168462,-0.191963,0.876477,-0.475376,0.499343,-0.724344
0.195557,0.308171,0.849676,0.046632,-0.894912,0.443800
-0.091679,-0.263808,-0.371964,0.465433,-0.828173,0.312251
0.374575,-0.369330,0.711506,-0.408246,0.464914,-0.785615
0.253922,-0.302783,0.222712,0.773051,0.633247,-0.037293
-0.017436,0.451684,0.786676,-0.172904,-0.826796,0.535269
0.726791,-0.301528,0.759024,0.929283,-0.018935,-0.368882
0.349967,-0.329592,-0.205275,0.528638,-0.829205,0.181554
-0.116232,0.115939,0.752134,0.046421,0.735183,0.676278
0.081625,-0.262550,0.372989,-0.885987,-0.195511,-0.420479
0.381241,-0.107410,0.715716,0.502943,0.028907,-0.863836
0.368331,-0.384913,-0.340433,0.524726,0.849355,0.057083
0.557084,0.003144,0.718522,0.959118,0.126047,0.253385
0.088769,-0.818229,0.355032,0.942492,-0.307351,0.131317
-0.091095,0.113919,-0.489985,0.627856,0.450055,-0.635018
-0.535441,0.339963,0.792399,0.732054,0.667866,0.134353
-0.066435,0.095239,-0.494715,-0.620276,-0.457447,0.637181
-0.563964,0.053076,0.774237,-0.408328,-0.593037,0.693956
0.352189,-0.635697,-0.881743,0.265681,-0.244643,-0.932504
0.466227,0.591961,0.795269,0.748061,0.629631,0.209689
-0.630320,0.012528,0.654230,0.333883,-0.876367,-0.347136
0.592435,0.174091,0.968154,-0.403720,0.298101,0.864954
0.187301,-0.090750,0.897619,-0.454687,0.802858,-0.385589
0.245722,-0.256265,0.386232,0.907302,0.080652,-0.412672
-0.335626,-0.189494,0.707565,-0.115809,-0.932117,-0.343143
0.108613,-0.514863,-0.766985,-0.712318,0.622174,-0.324811
0.865010,-0.218814,0.110982,0.767490,-0.302610,-0.565143
0.412835,-0.044994,0.888033,-0.292443,0.627657,-0.721473
-0.198993,-0.022361,0.777800,-0.313743,-0.236781,0.919511
-0.120518,-0.392905,-0.492224,0.077467,-0.919031,0.386499
0.613018,-0.882622,0.405466,0.397452,0.129934,-0.908377
-0.032464,0.337809,0.704853,-0.329910,0.937333,0.112100
0.233232,-0.490569,-0.460409,-0.412976,0.591684,-0.692359
0.505701,0.019442,0.900850,0.982941,0.120941,-0.138566
0.641595,-0.387698,0.064048,0.765986,-0.349406,-0.539612
-0.154173,-0.229278,0.692540,0.410372,0.564802,-0.715956
0.355790,-0.596812,-0.886189,-0.264685,0.237346,0.934670
-0.161104,-0.181771,-0.316265,-0.078808,-0.641121,0.763382
0.000079,-0.162281,0.710355,0.893217,-0.017003,0.449304
-0.238312,-0.154783,0.738418,-0.126867,-0.090855,0.987750
0.122159,-0.503187,0.332203,-0.186186,-0.502983,0.844004
0.415955,-0.376694,-0.645007,0.339307,0.925498,0.168300
0.656094,-0.401481,-0.523723,0.896575,-0.280588,-0.342672
-0.226036,-0.469285,0.485161,0.590884,-0.299034,-0.749290
0.270698,-0.295284,0.119652,0.979884,-0.071596,-0.186285
-0.582642,-0.540324,0.456420,0.167480,0.106087,0.980151
-0.304985,0.175168,0.615873,0.353338,-0.796564,-0.490549
0.152587,-0.370859,0.729542,-0.259842,0.926063,-0.273660
-0.020556,-0.134442,0.775704,-0.642825,0.756210,0.122159
-0.122159,-0.167579,0.752166,0.748127,-0.037420,0.662500
-0.170419,-0.470677,0.330122,0.114785,0.960911,-0.251941
-0.595238,-0.196992,0.670831,0.863686,-0.481808,-0.148011
0.245034,-0.363089,0.260833,0.772141,0.126505,0.622732
-0.170577,0.307812,0.624622,-0.439152,0.816463,0.374878
-0.664663,-0.154334,0.763864,-0.123953,0.987351,-0.098863
0.543590,-0.387292,-0.889326,-0.116723,0.340738,0.932884
0.272074,-0.343378,-0.036931,0.720791,-0.368096,0.587338
0.637891,-0.445937,0.054998,-0.636970,0.504089,0.583236
-0.343139,-0.297307,0.728801,0.766808,0.202926,0.608955
0.359282,-0.160845,0.800140,0.656481,-0.752371,-0.054509
0.005215,0.276516,0.804066,0.169036,0.985596,0.005320
0.136554,-0.079346,0.792147,-0.555338,0.817945,-0.150218
-0.065589,-0.365065,-0.461481,0.273802,-0.709311,0.649546
0.463633,-0.157790,0.748540,0.364132,0.840059,-0.402131
0.206774,-0.789268,0.466542,0.553873,0.391061,-0.735048
0.084429,0.089357,-0.458501,-0.304026,-0.350871,0.885696
0.492844,-0.340862,0.505403,0.521071,0.356479,0.775505
-0.046117,0.246700,0.797350,0.061027,-0.815485,-0.575551
-0.287102,0.280331,0.513807,0.403679,-0.336344,-0.850833
0.361346,0.075303,0.885495,-0.514319,0.851405,-0.102891
0.219370,-0.400269,-0.021985,0.583688,0.038523,-0.811064
-0.751977,-0.167985,0.790697,-0.154572,-0.787377,0.596778
0.238949,-0.194027,0.266792,0.046309,0.443974,0.894842
0.655671,0.178490,0.702441,0.273450,-0.218614,-0.936714
0.364256,0.070408,0.933643,0.398512,-0.890881,-0.217989
0.347903,0.233227,0.262173,-0.065561,0.943336,0.325297
0.509406,-0.769377,0.700817,0.173287,0.764842,-0.620475
-0.366264,-0.112215,0.717970,0.635603,-0.190450,-0.748156
0.181584,-0.629188,0.432535,0.925416,0.103677,-0.364495
-0.126920,0.253165,0.766907,0.504578,0.360971,-0.784284
0.015056,0.326090,0.690191,-0.353319,0.727807,-0.587761
0.545761,0.363717,0.689230,-0.295299,0.304074,0.905725
0.311603,0.008891,0.668892,0.847362,0.468154,-0.250618
0.529728,-0.294251,0.540624,0.942518,-0.141391,0.302769
0.041040,0.423979,0.651976,-0.447741,0.161408,0.879474
-0.775525,-0.081949,0.722274,-0.767396,0.637442,-0.069070
-0.287205,-0.094162,0.751046,0.548887,0.792292,-0.266450
-0.416058,-0.186260,0.654467,0.236013,0.586547,-0.774765
-0.840719,0.199596,0.770911,-0.338909,0.329238,0.881330
0.517820,-0.329233,0.512829,0.806066,0.214694,0.551510
0.391773,-0.413427,0.666291,0.889356,0.197498,0.412361
0.277842,-0.751954,0.560409,0.928977,-0.308590,-0.204387
0.772616,-0.533138,0.615274,-0.217372,0.082977,0.972556
-0.130150,0.354017,0.623393,-0.132364,0.324582,0.936550
-0.341288,-0.034711,0.736763,-0.149534,-0.024391,0.988456
0.086069,-0.522002,0.516455,0.405311,0.849477,-0.337805
-0.309220,-0.275527,0.684752,0.831301,0.471951,0.293601
0.357693,-0.129725,0.307562,0.792805,0.207029,0.573236
0.081309,0.372204,0.793487,0.833256,0.374150,-0.407058
0.419873,-0.579480,0.746395,0.367549,0.443019,0.817705
-0.338007,0.175346,0.645433,-0.071235,0.892063,0.446262
-0.190421,-0.193131,-0.604727,-0.238580,-0.607065,-0.757992
-0.601588,0.112483,0.625269,-0.274463,-0.031352,0.961086
0.344941,-0.013383,0.878495,0.829036,0.194417,-0.524310
0.597195,0.116164,0.698579,0.335671,-0.618308,-0.710647
0.564284,-0.203055,-0.018879,0.551367,-0.355101,-0.754916
0.316102,-0.136012,-0.507674,0.259233,0.232398,-0.937437
0.037070,0.356128,0.746033,0.447038,0.865092,-0.227538
-0.027490,-0.222048,0.431810,-0.437616,-0.109804,0.892432
0.402251,-0.627390,-0.489780,0.222793,-0.470027,0.854071
0.398653,-0.673058,0.713241,0.176326,0.896403,0.406657
0.087604,-0.232556,0.436429,-0.700035,0.696061,-0.159530
0.091996,-0.089672,-0.469537,-0.683841,-0.480066,-0.549452
0.329807,-0.686528,0.589891,0.960411,-0.262486,-0.093335
-0.082152,-0.330310,0.677201,0.367588,0.634632,-0.679795
0.021777,-0.243376,0.772535,-0.209000,-0.972971,0.098214
0.820614,-0.244724,-0.465533,-0.654415,-0.454620,0.604204
0.034900,0.076065,0.678351,-0.371844,-0.795264,-0.478838
0.567194,-0.772698,0.685446,-0.163490,0.771327,0.615082
0.296627,-0.018996,0.640624,0.645912,0.752525,-0.128467
0.409977,0.002066,0.730330,-0.123108,0.602540,0.788537
-0.767852,-0.050157,0.788900,0.343690,0.108783,-0.932761
0.354414,-0.729815,0.645717,0.958453,-0.084881,-0.272328
-0.344515,-0.619579,0.206915,0.550180,0.834430,0.032068
0.111049,-0.093712,-0.647325,0.060727,-0.167460,0.984007
-0.303348,0.215221,0.597616,-0.179905,0.297283,0.937687
0.319222,-0.371621,0.697302,0.665171,0.685873,-0.295171
-0.034105,-0.096856,0.769287,-0.024273,0.970485,0.239938
-0.828284,-0.166009,0.782641,-0.639967,-0.528741,0.557561
-0.269955,-0.001392,0.532095,0.504863,0.179621,-0.844304
0.085646,0.448045,0.785147,0.854794,-0.509091,-0.100768
0.161108,-0.720162,0.333733,0.343003,-0.295213,-0.891739
0.201060,0.206826,0.288990,-0.068517,0.986314,0.149970
0.646356,-0.211000,-0.693297,0.176803,-0.045302,0.983203
0.687633,-0.356130,0.661467,0.930459,0.321430,0.175865
-0.495011,0.348495,0.550903,0.498879,-0.132038,-0.856555
0.461728,-0.233139,0.511962,0.845579,-0.529439,0.068493
0.168991,-0.365917,0.578193,-0.204430,-0.803060,0.559735
-0.317953,0.214325,0.619310,-0.713677,0.229747,0.661726
-0.436752,0.284327,0.572533,0.889878,-0.206209,-0.406933
-0.327213,0.390120,0.748492,-0.130417,0.168391,0.977055
0.348433,0.218860,0.950874,0.867997,0.276115,-0.412725
0.292289,0.134261,0.825381,0.322788,0.870692,0.371083
-0.005634,0.374989,0.628927,0.838278,-0.262269,-0.478022
-0.366106,-0.057837,0.742691,0.394044,0.250559,0.884279
0.218520,0.056757,0.916474,-0.245729,0.374855,0.893924
-0.023256,-0.303816,0.542689,0.945010,-0.292054,0.147173
0.101892,-0.139112,-0.512687,-0.698202,-0.481914,0.529409
-0.345258,-0.136283,0.733610,0.441103,-0.274112,-0.854570
0.271544,-0.229231,0.692067,0.064663,0.540545,0.838826
0.300490,-0.340459,-0.052964,0.667986,-0.739561,0.082729
-0.510465,0.173058,0.832381,-0.492243,0.540229,-0.682531
-0.468659,-0.055546,0.767537,-0.527816,0.151388,-0.835759
-0.720015,-0.051325,0.794591,0.951148,0.207323,0.228767
-0.495805,-0.210282,0.664210,0.229209,-0.877894,0.420434
-0.247043,-0.420970,0.443398,0.362880,-0.823235,-0.436581
-0.731074,0.011988,0.777753,0.003988,0.047491,0.998864
0.439820,-0.066862,0.797428,0.966212,0.217423,0.138427
0.057495,-0.432645,0.525930,-0.586072,-0.315000,0.746522
0.867233,-0.667895,0.643226,-0.460927,-0.108714,-0.880754
-0.663871,-0.262684,0.654356,-0.128261,-0.558075,-0.819818
0.481891,-0.324204,-0.889184,-0.189267,0.517592,0.834432
-0.237518,-0.366635,0.684878,-0.229954,-0.794332,0.562279
-0.181849,-0.059363,0.775767,0.480018,0.784216,-0.393176
-0.434791,0.247372,0.572265,-0.708042,0.544457,0.449713
0.402302,0.419396,0.735171,-0.660114,-0.519831,-0.542241
0.460565,-0.300807,0.300121,0.672361,0.726511,-0.141814
-0.217674,0.076786,0.407705,0.588648,0.101691,-0.801968
0.234133,-0.509431,-0.900914,-0.332907,0.291016,0.896929
-0.516919,0.339919,0.795710,0.810096,0.559090,0.176529
0.349069,-0.576202,0.561198,-0.314371,0.761999,0.566152
0.303664,0.046430,0.694416,0.881033,0.462108,0.101176
0.036912,-0.167938,0.332881,0.675841,0.703859,0.218680
0.015214,0.073686,0.711018,0.073873,0.990803,0.113365
0.254717,-0.316481,0.195894,-0.662858,-0.605232,0.440811
0.590316,-0.692051,0.415761,-0.070016,0.618978,0.782281
-0.492472,-0.007096,0.661813,-0.742472,0.596902,0.304043
0.231433,-0.287471,0.160091,0.899879,-0.084448,0.427886
0.270275,-0.211271,0.047021,0.480162,0.662606,0.574802
0.043895,-0.182848,-0.323785,-0.410752,0.898623,-0.154143
0.332507,-0.366457,-0.644992,0.880049,-0.472810,0.044323
-0.727053,0.274450,0.758992,0.838368,-0.195925,-0.508677
-0.870775,0.051415,0.768893,-0.616786,0.571418,0.541348
-0.205872,0.484553,0.612183,-0.287412,-0.588517,0.755673
0.498347,-0.435654,0.723236,-0.365030,0.317030,-0.875354
0.438499,-0.921238,0.362993,0.602082,-0.013743,-0.798316
-0.204390,0.454557,0.709299,-0.076186,-0.606628,0.791327
0.146024,0.121599,0.841367,-0.286336,-0.212710,-0.934219
0.426009,-0.748539,0.384955,-0.733584,-0.267915,0.624561
0.431884,-0.705253,0.746127,-0.595983,0.766413,0.239616
-0.320333,-0.650921,0.239266,0.171334,-0.470696,0.865500
0.354624,0.153032,0.802537,0.151302,0.971510,0.182417
-0.228362,-0.376694,0.680007,-0.073177,-0.547778,0.833417
0.230057,-0.817467,0.349183,-0.682151,0.078432,0.726993
-0.106123,-0.651459,0.244910,-0.318607,-0.210145,0.924299
-0.243128,-0.287471,0.765109,-0.310425,0.875732,-0.369769
0.405478,-0.550516,0.478555,0.188933,-0.666101,0.721536
-0.205398,-0.342210,0.709221,0.519292,0.789467,0.327229
0.163065,-0.149348,0.716930,-0.183861,0.471708,-0.862372
0.449028,-0.510820,0.364239,0.722042,-0.253957,-0.643554
-0.240163,-0.511541,0.324068,0.089768,-0.345930,0.933956
0.128509,-0.162550,0.879945,-0.296450,0.501480,-0.812795
-0.473952,-0.099057,0.722526,0.962560,0.075774,-0.260262
0.453950,-0.200942,0.717355,0.297780,0.725216,-0.620797
-0.194920,0.573505,0.631780,0.450417,0.345126,-0.823415
-0.236617,-0.393354,-0.555916,-0.018312,0.919902,0.391720
0.548196,0.434574,0.668971,0.116651,0.741301,0.660958
0.281812,0.157521,0.924388,0.280700,-0.886870,-0.366972
0.151160,-0.123528,-0.647672,0.156731,-0.076586,0.984667
0.245405,-0.366098,-0.026589,0.337312,-0.050023,-0.940063
-0.470881,-0.348585,0.417747,-0.690366,0.708411,0.146793
-0.097022,0.034845,0.644850,0.275615,0.955957,-0.100904
-0.325517,-0.116973,0.736369,-0.424647,0.328367,-0.843712
0.598361,-0.375348,0.004990,0.384258,-0.859060,0.338173
0.301019,-0.303008,0.121844,0.964426,-0.140280,0.224062
0.221220,-0.111540,0.343302,0.852512,-0.522164,0.023840
0.532108,-0.174450,0.549752,-0.028636,0.338527,0.940521
0.019132,-0.255725,0.754657,0.895854,0.425361,-0.128508
0.333721,-0.610058,0.465927,-0.031234,-0.883855,0.466716
0.179259,-0.242480,-0.522635,-0.572063,0.302005,-0.762586
-0.526340,-0.019355,0.658061,0.409867,-0.751470,-0.517013
-0.835374,0.256443,0.741745,0.007648,0.664552,0.747203
0.267258,0.108981,0.954548,-0.455322,0.605282,0.652929
0.580949,-0.306151,0.696230,0.904841,-0.197751,0.377037
0.754147,-0.372429,0.641634,-0.660907,-0.747569,0.065899
-0.317265,-0.071981,0.490127,0.470935,0.689990,-0.549667
0.271334,-0.109655,0.805106,0.829401,-0.271866,-0.488040
0.462522,-0.216391,0.732207,-0.200922,-0.197371,0.959518
0.367802,-0.562145,0.345573,0.702102,-0.500292,-0.506716
-0.214393,0.293982,0.771841,-0.017400,0.574421,0.818375
-0.219050,-0.168522,0.340433,-0.727999,0.101576,0.678011
-0.181106,0.464840,0.615952,0.287325,0.610910,-0.737722
0.536659,0.292771,0.699982,0.124929,0.234490,0.964058
-0.266198,-0.154602,0.489811,0.779047,0.169278,-0.603681
0.279589,-0.649707,0.386484,0.420813,0.389516,0.819264
0.622649,-0.741624,0.711932,0.057335,-0.355659,0.932855
0.195980,-0.316434,-0.638938,0.959000,0.250955,0.131683
-0.228785,0.393039,0.747830,-0.136325,0.144903,0.980010
0.302767,-0.353480,-0.708416,0.053113,0.998282,-0.024756
0.210530,-0.140458,0.771715,-0.551108,-0.782359,0.290164
-0.013308,-0.332689,0.490789,0.904262,-0.003300,0.426965
0.258738,-0.462864,0.741950,0.202678,-0.160033,0.966080
0.538565,-0.432286,0.228923,-0.445546,0.895159,-0.013363
0.469825,-0.127212,0.798107,0.966513,0.251733,-0.049823
-0.209577,0.310821,0.220773,-0.544549,-0.835856,-0.069361
0.210901,0.047956,0.649784,-0.175504,-0.765329,0.619250
0.035374,0.487382,0.656579,0.345630,0.832721,0.432568
0.334147,-0.395689,-0.646884,0.838175,-0.496315,-0.226131
0.010188,-0.222856,-0.349293,-0.384392,0.856577,-0.344266
0.361875,-0.710192,0.631149,0.982171,0.013442,-0.187510
0.224873,-0.546970,-0.064473,-0.137637,0.645691,0.751092
-0.266464,-0.021059,0.750857,0.359118,0.679964,-0.639283
0.073793,-0.228469,-0.772960,0.212524,0.828796,0.517621
-0.735521,0.135160,0.784800,0.384826,0.248040,-0.889036
0.432094,-0.750562,0.388250,-0.668273,-0.249101,0.700971
-0.770603,-0.167985,0.810167,-0.695182,0.718402,-0.024907
-0.844159,-0.170320,0.823804,-0.529947,0.773345,0.347984
0.379074,-0.343962,0.646347,0.947431,-0.318933,-0.025628
0.185712,-0.349934,0.682640,0.709600,0.703833,-0.032969
0.464005,-0.441130,-0.667284,0.199819,0.973781,0.108728
0.300386,0.233139,0.270008,-0.119221,0.953615,0.276414
-0.047702,0.253344,0.817451,-0.580037,0.703791,0.410164
0.259956,-0.037720,0.601857,0.325513,0.844605,-0.425069
0.209632,0.417557,0.809126,0.442122,-0.878787,-0.179614
-0.030875,-0.273641,0.572391,0.641779,-0.725180,0.249466
-0.275617,0.437090,0.734351,0.960950,0.010146,0.276535
0.310809,0.557924,0.743905,-0.497128,0.204878,-0.843142
-0.229686,-0.067805,0.508446,-0.036660,-0.739734,0.671900
-0.750972,-0.139246,0.773764,0.273920,-0.453868,0.847922
0.517187,0.078041,0.695804,0.829725,0.029505,0.557391
0.094167,-0.304849,-0.486580,0.830827,-0.473793,0.291970
0.082949,-0.949484,0.338163,-0.295224,-0.532771,0.793094
-0.554332,0.166593,0.631134,-0.096437,-0.389136,0.916118
0.166133,0.165694,-0.447434,-0.221709,-0.313363,0.923390
0.085701,0.473371,0.651109,0.553230,0.831840,0.044473
0.215187,0.250066,0.839191,-0.008716,0.466517,0.884469
0.609368,-0.077098,0.861910,-0.317383,0.892469,-0.320574
0.262284,-0.009565,0.621548,-0.205673,-0.915578,0.345566
0.646569,0.130355,0.700581,-0.394975,0.214605,0.893275
0.381348,-0.703501,0.378822,0.631247,0.628188,0.454870
0.038233,0.549886,0.676996,0.751607,-0.534677,0.386274
0.119462,-0.508847,0.533324,0.520717,0.835881,-0.173658
0.069349,0.574360,0.741524,0.793352,0.431177,0.429743
0.038446,0.369826,0.697443,0.207150,-0.705682,0.677570
0.461886,0.417557,0.863628,0.765425,-0.424469,-0.483684
0.155920,-0.675393,-0.013424,0.215431,0.096543,0.971735
-0.111417,0.302739,0.688678,-0.555112,0.691348,-0.462482
-0.092103,-0.096631,-0.369615,0.746054,0.387560,0.541480
0.307262,-0.329052,-0.365153,0.503534,0.863813,-0.016726
0.324516,-0.595823,0.721612,-0.014848,0.220738,0.975220
0.383253,-0.146745,0.789167,-0.771817,0.583695,-0.252190
0.237466,-0.326449,0.110099,0.995091,0.062751,-0.076530
-0.252281,0.172115,0.712831,0.400155,-0.588646,-0.702404
0.581056,-0.241222,0.725459,0.473022,-0.621209,0.624780
0.155604,0.270004,0.855840,0.985402,0.141976,0.093942
0.239902,-0.166817,-0.714691,0.868273,0.254970,0.425549
0.007860,0.011136,0.650446,0.026599,-0.819617,0.572295
0.243974,-0.393938,0.269866,0.228117,0.659635,0.716131
0.601007,-0.501392,0.680638,0.251014,0.431289,0.866592
0.511260,-0.229231,0.731213,-0.269015,0.166458,0.948643
0.261173,-0.347733,0.046043,0.982259,-0.149971,0.112583
-0.562058,0.347193,0.542878,0.475381,-0.401554,-0.782795
-0.611800,-0.184911,0.645559,-0.505394,-0.211288,0.836621
0.038233,0.232824,0.927999,0.662138,0.312251,0.681229
0.265088,0.022271,0.542595,0.350909,0.916889,0.190202
0.092842,-0.220206,0.432173,-0.731989,0.375879,-0.568249
0.508030,-0.578581,0.382291,-0.342746,0.107352,0.933274
0.826698,-0.566906,0.617875,0.295011,0.025232,0.955161
0.221537,-0.220477,0.281092,-0.695788,-0.621041,-0.360815
-0.352295,-0.454198,0.456057,-0.020707,-0.194694,0.980645
0.082736,-0.183969,0.554087,0.983225,0.177759,0.040884
0.574441,-0.736505,0.504395,0.737933,0.661661,-0.132890
-0.394099,0.049034,0.753159,-0.536723,0.830074,-0.151348
-0.416853,0.032825,0.701968,0.048834,0.973067,0.225292
0.361294,-0.349484,-0.492886,0.998258,0.019465,0.055693
0.250696,0.262730,0.859734,0.108755,0.956481,0.270770
0.021406,-0.212707,0.503165,0.644189,-0.168521,0.746070
-0.395000,0.259094,0.597301,-0.301398,0.659559,0.688579
0.298481,0.125729,0.832428,0.043478,0.985246,0.165530
0.244717,0.565333,0.619436,-0.641602,0.725302,0.249566
0.395901,-0.056354,-0.490221,-0.309710,-0.046977,0.949670
0.275830,-0.596003,0.574472,-0.486242,-0.795606,-0.361358
0.304882,0.026807,0.716756,0.944789,-0.315588,-0.088195
-0.298584,-0.262100,0.395549,0.065574,0.916406,0.394843
-0.172641,0.464796,0.792604,0.032064,-0.878777,0.476154
-0.410819,-0.604579,0.472643,-0.622280,0.230279,0.748158
0.083373,-0.184643,0.527601,0.588246,0.778355,-0.219384
0.032678,-0.216254,0.499460,0.584235,-0.803642,0.113269
0.216883,-0.059363,0.387083,-0.663271,-0.506647,0.550800
0.326102,-0.388144,0.705878,-0.320270,0.940852,0.110563
0.078237,0.145936,0.344579,0.964542,0.167516,-0.203953
0.002250,-0.035788,0.822133,0.546300,0.669830,-0.502876
-0.293662,-0.161832,0.348836,-0.185903,0.422748,0.886975
-0.088026,-0.117469,0.544423,-0.464534,0.181677,0.866719
0.432889,-0.364300,-0.574583,0.010403,-0.989854,0.141704
0.650855,-0.524381,0.526214,-0.084183,0.789007,0.608590
0.310915,-0.082352,0.801039,-0.017098,0.121462,0.992449
0.152429,0.546699,0.606287,0.453484,-0.300280,-0.839157
0.185186,-0.243825,0.747200,0.328023,0.804268,-0.495534
-0.103268,-0.548359,0.254022,-0.370026,-0.850449,0.373922
0.306681,-0.345488,0.196541,0.728057,0.672757,-0.131651
0.180050,0.577008,0.778478,-0.808008,0.010400,0.589080
0.256729,-0.091783,0.558344,0.966495,-0.255549,-0.024121
-0.146977,-0.104985,0.692083,-0.551202,-0.802160,-0.229598
0.287315,-0.340097,0.114355,0.933143,-0.191046,-0.304542
0.202171,-0.576155,0.603686,0.991488,0.130194,-0.001374
-0.793993,-0.205434,0.777769,0.431831,0.899639,0.064587
0.619158,-0.231478,0.717576,-0.340944,0.827584,-0.445940
-0.541261,-0.229097,0.658786,0.348773,-0.446738,0.823883
0.250379,0.087875,0.705894,0.854178,0.500914,-0.139517
0.193809,0.123753,0.907645,0.780307,-0.560313,-0.277797
-0.590687,-0.028424,0.659953,0.263057,0.902136,0.341983
0.072575,-0.643108,-0.019037,0.820370,-0.078847,-0.566371
0.294986,-0.336148,0.243034,-0.680182,-0.334528,0.652261
0.343407,-0.268568,-0.498656,0.888971,0.043006,-0.455940
0.335362,-0.237853,0.266493,0.026649,-0.360337,0.932441
0.056491,-0.205927,0.480352,-0.228064,0.972003,0.056544
0.723984,-0.257567,0.734792,0.668204,0.652794,0.356879
0.450194,0.068838,0.908008,0.813064,0.516627,-0.268372
-0.040400,-0.316928,0.484861,0.789908,-0.180962,0.585917
0.334251,0.662953,0.756028,0.933733,-0.203076,0.294793
0.893956,-0.443018,0.122695,-0.420071,0.221306,0.880093
0.319487,-0.517691,0.711806,0.432041,0.155309,-0.888380
0.350603,-0.681814,0.639458,0.942427,0.300555,-0.146623
0.173119,0.308889,0.813793,-0.073231,0.686799,0.723148
0.411246,-0.287292,0.496811,-0.021777,0.875659,0.482439
0.089299,-0.168522,0.559952,0.858984,0.488004,0.154915
0.001403,-0.400809,-0.073050,-0.454201,-0.064202,0.888583
0.281918,-0.122632,-0.725301,0.430893,0.107826,0.895938
-0.347002,-0.254377,0.690270,0.682636,0.605658,0.408885
0.366532,-0.662594,-0.878637,-0.184146,0.108220,0.976923
0.163911,0.678715,0.690223,0.979800,0.198167,-0.026864
0.044160,0.386349,0.811618,0.184127,0.322418,0.928517
-0.079400,-0.599506,-0.600612,0.067425,0.966000,-0.249596
0.544278,-0.202874,0.097754,-0.187788,-0.855109,0.483244
0.796429,-0.640098,0.628280,-0.508429,-0.143740,-0.849022
0.123429,-0.052448,0.759465,0.017845,-0.973704,0.227116
-0.138986,0.461112,0.773402,0.935953,0.276069,0.218583
-0.004737,-0.535429,0.633136,0.135655,0.550395,0.823810
-0.262071,-0.241940,-0.472611,-0.144191,0.028713,0.989133
-0.580155,0.293084,0.803687,0.568377,0.402135,0.717799
0.699645,-0.288775,-0.552117,0.904805,-0.294503,-0.307565
0.348646,-0.107139,0.828250,-0.502829,-0.174752,-0.846537
0.005002,-0.233633,0.776429,-0.154543,-0.968663,0.194444
-0.381981,-0.614054,0.464240,-0.670797,0.111801,0.733166
0.279060,0.390301,0.804838,0.102801,-0.900938,-0.421596
0.362298,0.491468,0.739285,0.328501,-0.077095,0.941352
-0.060670,-0.275168,0.679171,0.413104,0.792573,-0.448522
0.162693,0.353031,0.739348,0.955976,-0.082324,0.281662
0.415374,-0.502738,-0.878101,-0.294169,0.059542,0.953897
0.401456,-0.140816,0.727603,0.784046,0.007209,-0.620661
0.288161,0.396901,0.769839,-0.086672,0.168985,0.981800
-0.131312,-0.110866,0.685572,-0.165753,-0.956785,0.238934
-0.664346,-0.267266,0.660931,0.101349,0.747772,0.656175
0.739965,-0.108082,0.473084,-0.275983,0.098490,0.956103
0.513640,-0.433903,0.038192,0.810670,-0.364036,-0.458576
-0.430663,-0.312841,0.394950,-0.257152,0.733763,0.628860
0.373092,0.139424,0.953728,0.783843,0.137970,-0.605438
0.103375,-0.075706,0.804066,0.062292,-0.880648,0.469659
0.093162,-0.105522,0.796104,-0.169919,0.850137,-0.498392
-0.032093,-0.189313,-0.297882,-0.013244,-0.969522,0.244647
-0.029713,-0.365873,0.529320,0.680214,0.382774,-0.625134
0.670751,-0.151190,0.765645,0.621615,0.440508,0.647725
-0.544385,-0.195778,0.668640,0.057533,0.909837,-0.410959
0.352350,-0.973640,0.423565,0.070295,-0.976820,0.202190
-0.432834,-0.037945,0.746206,0.992107,0.074112,0.101150
0.269112,0.188370,0.749170,0.826054,0.493319,0.272527
0.537137,0.052268,0.712452,0.968433,-0.048629,0.244484
0.228258,0.549124,0.628800,0.829221,-0.548669,-0.106559
-0.168620,-0.398024,-0.479532,-0.040913,-0.830454,0.555583
0.304775,-0.393982,-0.140983,0.993410,-0.113657,-0.014773
0.315941,-0.437540,0.306332,0.463016,0.741395,0.485746
-0.599630,-0.235384,0.656563,0.280307,0.219413,0.934498
0.117134,-0.394566,0.399428,-0.847893,0.054527,-0.527356
0.331024,-0.949843,0.411078,0.115845,-0.969918,0.214099
0.069507,0.277188,0.872063,0.828083,0.532472,0.175363
0.281124,-0.536103,-0.894071,-0.243831,0.128596,0.961254
-0.333879,-0.088146,0.741871,-0.129172,-0.622193,0.772133
-0.154544,-0.268659,0.395203,-0.528111,0.173947,0.831168
0.229369,-0.234890,0.264175,0.943927,0.141634,0.298231
0.075169,0.244006,0.923458,0.592829,0.514351,0.619674
-0.306100,-0.320880,0.729069,-0.709594,0.556944,-0.431614
-0.030507,-0.270588,0.722022,-0.625650,-0.766678,0.144107
0.403307,-0.563359,0.477435,-0.554621,0.530664,-0.640930
0.497023,0.020744,0.921251,0.850147,0.506966,0.142252
0.227096,-0.327167,-0.679345,0.598531,0.778691,0.188151
0.551581,-0.410508,0.724229,-0.351198,-0.889208,-0.293205
0.435692,-0.077413,0.798122,-0.731292,-0.509170,0.453827
0.435534,-0.761023,0.748287,0.691400,-0.394857,0.605024
0.571160,-0.211090,0.082399,-0.172483,-0.793213,0.584006
-0.106759,-0.067805,0.783255,0.228079,0.860383,0.455764
0.098982,-0.302739,0.747215,-0.085963,-0.767727,0.634985
-0.397645,-0.101975,0.771352,0.099723,0.579952,0.808524
-0.093688,-0.039740,0.533356,0.849742,-0.178776,-0.495961
0.245880,0.097845,0.875279,0.720138,-0.256528,0.644666
0.211008,-0.221420,0.319213,-0.519489,0.804570,-0.287747
0.601746,-0.490928,-0.875184,-0.314192,0.170331,0.933954
-0.185447,-0.117153,0.702962,0.755294,0.353804,0.551682
0.283821,-0.099821,0.862351,0.919606,0.194144,-0.341514
-0.557401,0.278580,0.803482,-0.232057,-0.392992,-0.889779
0.267048,-0.283521,0.255441,-0.225033,-0.944654,0.238725
-0.803466,0.257611,0.748634,0.515550,-0.735873,-0.438975
0.492950,0.531792,0.791627,0.283271,0.376717,-0.881953
-0.454370,0.224651,0.612940,-0.662398,0.692102,0.286747
0.430402,-0.388369,0.673811,-0.068476,0.905203,0.419426
0.294140,-0.141581,0.113346,0.820536,-0.486614,-0.299881
0.304565,-0.468298,0.685982,-0.136418,-0.388326,-0.911369
0.050774,-0.172250,-0.708401,0.974583,0.071484,-0.212317
-0.124433,0.320162,0.758535,0.906908,0.036880,-0.419712
0.281547,-0.699103,-0.503669,0.038300,-0.251890,0.966998
0.431355,-0.382937,0.686723,-0.446185,0.647577,0.617708
0.758224,-0.309922,0.776776,0.803920,0.163997,-0.571679
0.361452,-0.358912,-0.710466,0.979269,-0.137678,0.148586
0.312714,-0.256175,0.452274,0.921447,0.055632,-0.384501
0.259691,-0.225594,0.385049,-0.736217,0.020591,0.676432
-0.649476,-0.184687,0.790129,-0.349181,0.553356,0.756221
-0.900674,0.091514,0.752118,0.134644,0.124019,0.983102
0.228946,-0.913200,0.459621,0.357539,0.068726,-0.931366
-0.278792,0.236730,0.504789,-0.537829,0.491983,0.684612
0.000079,0.503368,0.688646,-0.645287,0.056533,-0.761845
-0.521204,0.167938,0.837709,-0.492243,0.540229,-0.682531
-0.040665,-0.132915,-0.389101,0.611944,-0.037643,0.790004
0.512742,0.026716,0.970455,0.827431,-0.527170,-0.193521
-0.751502,0.005164,0.806352,0.821472,0.416692,-0.389297
-0.206244,-0.280827,0.511710,-0.069460,-0.157440,0.985083
0.551901,-0.049754,0.885605,0.050472,-0.912649,0.405617
-0.039289,-0.115087,0.738702,-0.164928,0.973140,-0.160614
0.393094,-0.667039,0.367644,0.740538,0.658688,0.133168
0.211324,0.021284,0.808417,0.281605,-0.572568,0.769977
0.095278,-0.063000,-0.489890,0.654628,0.686310,-0.316923
0.620427,-0.244724,0.485728,-0.459465,-0.269054,-0.846464
0.160261,-0.535248,0.569884,0.884463,-0.057041,-0.463110
0.411511,-0.225685,-0.009530,0.239217,0.064809,0.968801
0.114857,-0.114100,0.851835,-0.516495,-0.745988,-0.420398
-0.592486,0.356711,0.809647,0.612015,-0.091089,0.785583
0.325469,-0.405208,0.461938,0.528376,-0.633792,-0.564913
0.107874,0.276201,0.905580,-0.430478,-0.902596,0.002934
0.205979,0.040277,0.813919,-0.278199,0.439737,-0.853954
0.236249,0.235294,0.269866,-0.214786,0.931979,0.292030
0.145391,-0.300719,-0.588362,-0.145969,0.988856,0.029262
-0.039712,0.292456,0.795757,0.025385,0.696921,0.716698
0.287157,-0.580107,0.523534,0.763736,-0.230467,-0.602986
0.247256,-0.267894,0.160706,0.923572,0.190820,0.332569
0.331712,-0.034577,0.880071,-0.711859,0.449686,0.539480
-0.167509,-0.261878,0.624402,-0.777757,0.476481,-0.409950
0.190793,-0.182935,0.840327,0.789836,0.375166,0.485191
0.621803,-0.169646,0.827352,-0.503316,-0.730595,0.461415
0.700333,-0.432195,0.095594,0.455126,-0.328878,-0.827466
0.298481,-0.389896,0.000213,0.986300,-0.016922,0.164094
0.204603,-0.083701,0.383205,0.818359,0.283363,0.499995
0.401191,-0.361878,-0.584830,-0.365797,0.923738,-0.113585
0.458288,0.231073,0.700360,-0.136534,-0.163936,0.976977
0.266677,-0.268837,0.063117,0.853385,0.346380,0.389556
0.120997,0.269689,0.915575,0.128498,0.895162,0.426819
0.214396,0.584687,0.801023,0.561661,0.552467,-0.615887
0.259532,-0.233093,0.751976,-0.473320,-0.637015,0.608424
0.325469,-0.579705,-0.564083,-0.665882,-0.356374,0.655437
-0.165655,0.536821,0.817561,0.271767,0.804066,-0.528792
0.326260,0.354242,0.766528,0.056693,0.059107,0.996640
0.400080,-0.145396,0.835376,0.297646,0.601390,0.741442
0.374998,-0.691917,0.631433,0.978280,-0.177884,-0.106421
-0.015424,0.083205,-0.637361,0.127438,-0.298222,0.945951
0.329700,-0.389312,-0.415966,0.950741,0.309985,0.000272
0.089299,0.509968,0.601290,0.856565,-0.121870,-0.501442
0.244239,-0.255232,0.147762,0.931295,-0.319179,0.175540
0.819448,-0.257836,-0.469742,-0.654415,-0.454620,0.604204
0.677259,-0.574045,0.618048,0.544709,0.172429,-0.820707
0.504380,-0.474090,0.020534,0.889035,-0.174485,-0.423287
-0.776953,-0.146117,0.757163,-0.229469,0.934704,-0.271426
-0.077814,0.458868,0.810814,-0.087510,-0.215660,0.972539
0.368648,-0.340188,-0.684469,0.921795,-0.387647,0.004952
0.355312,-0.162191,0.730299,0.585855,0.508086,-0.631365
-0.103795,0.322812,0.716914,-0.502002,0.042679,-0.863813
-0.040138,0.330669,0.661687,0.341345,-0.895105,-0.286829
0.378647,0.128379,0.967066,-0.663597,0.058416,0.745806
0.139516,0.276470,0.914519,0.477865,0.812056,0.334978
0.441567,-0.139424,0.434727,0.396350,-0.629723,-0.668099
-0.443046,-0.026628,0.760443,0.505818,-0.094039,0.857499
0.353355,-0.379750,-0.315161,-0.804312,-0.594128,-0.009675
0.424159,-0.284777,0.558108,-0.611398,0.533608,-0.584342
0.418335,-0.533634,-0.003823,0.786351,-0.299881,-0.540115
0.216721,-0.426807,-0.913258,0.431286,-0.314184,-0.845743
0.556132,0.102694,0.679297,0.257656,0.033110,0.965669
0.354253,0.412169,0.835550,0.703770,-0.439862,-0.557879
0.381822,-0.306960,0.556074,-0.670067,0.736056,-0.096081
-0.667576,-0.472026,0.456215,-0.019622,0.112914,0.993411
0.155920,0.338617,0.776129,-0.465773,0.831108,0.303835
0.328166,-0.658061,-0.882026,0.263398,-0.167350,-0.950061
-0.361872,0.238034,0.608589,0.495199,-0.020950,-0.868527
0.441884,-0.406869,-0.626057,0.571209,0.582790,0.577993
-0.054214,-0.489717,0.321262,-0.013390,-0.860465,0.509333
0.185396,-0.591783,-0.901986,-0.285823,0.165747,0.943840
0.035271,-0.550875,0.301918,-0.355281,0.744779,-0.564871
0.125228,-0.102740,0.527396,-0.688950,-0.278071,-0.669347
0.400452,0.103593,0.934242,0.300574,-0.619661,-0.725034
-0.150203,0.042746,0.420317,-0.262107,0.592687,0.761592
0.050564,0.195734,0.310683,0.461063,-0.886976,0.026340
0.291969,-0.330760,0.001032,0.987644,0.132147,0.084237
-0.604126,-0.538482,0.446992,-0.232166,0.134891,-0.963278
0.205663,0.135968,0.669050,-0.585376,-0.575289,0.571295
-0.171423,0.388638,0.748902,-0.545856,-0.473130,0.691512
0.293084,-0.349709,-0.308918,0.922952,0.298972,0.242436
