0.424995,-0.837472,0.532534,0.908012,-0.143125,-0.393739
-0.050374,0.015697,0.844348,0.494919,-0.663428,-0.561176
0.666045,-0.109932,0.655561,0.627208,-0.634599,-0.451548
-0.278207,-0.646845,0.398117,0.118491,0.991494,-0.053842
-0.254774,-0.484772,-0.945455,0.085108,0.016317,-0.996238
-0.715087,0.367716,0.265273,0.832701,0.544339,0.101508
-0.636853,-0.078028,0.115942,-0.230130,-0.873104,0.429802
-0.434146,0.144901,0.708955,-0.173378,0.978601,0.110816
0.024232,-0.661945,0.320225,0.424321,-0.145704,-0.893713
-0.395901,0.775028,0.529402,0.855932,0.205209,-0.474625
0.404952,0.251227,0.780715,-0.593956,-0.785899,-0.171989
-0.491273,-0.611989,0.369847,0.057023,0.249486,0.966698
0.435405,0.540461,-0.056416,-0.601694,0.564029,-0.565540
0.168792,0.023701,0.557599,0.939438,0.219381,-0.263301
0.331025,0.608413,0.763558,-0.159636,0.955973,-0.246234
0.075644,-0.120490,0.148800,0.470653,0.829757,-0.299981
0.680376,0.020692,0.742789,-0.175783,0.911588,-0.371629
-0.111715,-0.379183,0.696692,-0.061590,0.729876,0.680799
0.036625,-0.161647,-0.710266,0.577540,0.780867,-0.238107
-0.040209,-0.747154,0.803174,0.321447,0.871749,-0.369763
0.359056,0.348415,-0.992310,0.078029,0.186564,0.979339
0.650457,0.703840,0.591943,0.261376,-0.668720,0.696058
0.415167,-0.392637,0.630466,0.234919,0.525313,0.817838
0.128756,-0.319974,0.882041,-0.213030,-0.907726,0.361459
0.346663,-0.442877,0.872880,0.883318,0.414313,-0.219304
-0.065769,-0.337174,0.485679,0.968270,-0.246962,-0.038247
-0.024424,-0.727513,0.672165,-0.702515,-0.410723,-0.581188
0.506426,0.011155,0.789250,0.204155,-0.629109,0.750028
0.028103,-0.457580,0.010727,-0.617762,-0.562975,-0.549026
0.680278,0.026993,0.573489,0.851807,-0.221719,-0.474621
0.111422,-0.040958,0.457744,-0.411978,0.897894,-0.155112
-0.306142,-0.831512,0.741740,0.867330,-0.494131,0.059772
0.045921,-0.621753,0.829710,-0.589612,0.330250,-0.737084
0.042387,-0.444353,-0.009256,0.740043,-0.623299,-0.252654
0.416136,-0.415288,0.789570,0.642216,0.339639,-0.687171
0.883807,0.626806,0.565916,-0.623245,-0.462051,0.630931
-0.145023,-0.377253,0.874366,-0.818674,0.406193,0.405930
-0.264652,-0.104425,0.504104,0.742571,0.051550,0.667780
-0.330689,-0.504414,0.755839,-0.672723,0.456648,0.582165
0.189609,-0.661889,0.831152,0.266931,0.963025,0.036474
-0.386412,-0.053447,0.719675,0.082460,-0.991994,0.095648
0.580789,0.167722,-0.025845,-0.371039,0.512135,-0.774628
0.124929,0.025347,0.599444,0.700003,0.702175,0.130177
-0.157368,0.413414,0.578733,-0.275306,0.215069,-0.936991
0.355522,-0.043229,0.751717,0.048732,-0.994970,0.087525
-0.199827,0.298970,0.432562,0.855294,0.517648,0.022663
0.631963,0.038858,0.379139,0.483122,0.552751,-0.679013
-0.458063,0.758224,0.377988,0.449167,0.881697,-0.144426
-0.463098,-0.024155,0.776389,0.984459,-0.141106,-0.104548
-0.900561,0.306463,0.579577,0.412457,0.869640,-0.271301
-0.173006,0.868184,0.337353,-0.679433,0.229340,0.696974
-0.396577,0.090176,0.805446,0.893457,0.287814,-0.344815
0.067270,-0.486248,0.325701,0.547165,-0.091415,-0.832018
-0.106872,-0.879254,0.802373,0.068452,-0.990271,0.121148
-0.297573,-0.085748,0.669791,0.893568,0.371341,-0.252274
0.757934,0.431183,0.514619,0.769645,0.519254,0.371514
0.188351,-0.799154,0.202572,-0.368755,0.816230,-0.444734
0.195274,0.139451,0.617839,0.778245,-0.611312,-0.143639
-0.352910,-0.526496,0.822603,0.281464,0.917161,0.282125
0.600735,0.749539,0.528354,0.823725,0.153576,-0.545794
-0.243542,-0.505208,0.751280,0.083801,0.996176,-0.024713
-0.289391,-0.525815,0.543079,-0.783150,0.319112,-0.533707
-0.412942,0.301014,0.842979,0.978811,0.202887,-0.027682
0.476555,-0.185944,0.632010,0.740381,0.533690,-0.408669
0.436469,-0.122137,0.511575,0.421146,0.863022,-0.278977
0.421945,-0.068491,0.787007,-0.664651,-0.580632,0.470219
-0.195566,0.290455,0.914593,-0.112077,-0.961709,-0.250108
0.028877,-0.187136,-0.038181,-0.011648,-0.975172,0.221141
-0.116555,-0.772870,0.410511,-0.620289,-0.157591,-0.768380
0.659801,-0.258153,0.582461,0.996834,-0.044955,0.065579
-0.100046,0.314013,0.869239,0.078131,0.035600,0.996307
-0.143424,-0.263376,0.494870,0.701279,0.710652,0.056399
0.060734,-0.071613,0.156344,-0.502003,-0.845406,0.182433
0.337996,-0.606994,0.622441,-0.419870,0.892037,0.167270
0.449201,0.712583,0.540107,0.188895,-0.457220,0.869062
0.088232,-0.660640,0.806057,0.469465,-0.490933,0.733885
0.364623,0.084954,0.484922,0.421806,0.110718,-0.899901
0.034834,-0.128154,0.379197,0.348032,0.937482,-0.000843
-0.241802,-0.112032,-0.281906,0.299966,0.239704,0.923343
0.754060,-0.439641,-0.962409,0.075241,0.064140,0.995100
-0.112052,0.088303,0.409128,0.836940,0.546999,0.017958
0.355861,-0.047429,0.765524,0.451531,0.889150,0.074382
-0.153690,-0.460929,0.497404,-0.489480,0.867590,-0.087728
0.726659,-0.046976,0.428455,-0.613205,0.542068,0.574580
0.368789,0.457637,0.548322,0.919948,-0.213116,-0.329056
0.261408,0.058216,0.737094,0.984975,0.023920,0.171030
0.497810,-0.780023,0.312317,-0.394971,0.086286,-0.914632
-0.595605,0.445999,0.578281,-0.655262,-0.053764,-0.753486
-0.806397,0.605745,0.592744,0.782565,-0.079515,-0.617470
0.431676,-0.353467,0.648687,0.280034,-0.348668,-0.894433
0.758418,0.032443,0.757397,0.382087,-0.910846,-0.156108
-0.750091,0.397463,0.173836,0.547362,0.565251,0.617160
0.107646,0.597059,0.702488,0.289516,0.832841,-0.471758
-0.611775,-0.252647,0.152499,0.927507,0.040759,0.371577
0.133209,0.164656,0.541316,0.812728,-0.206245,0.544919
0.575754,0.616418,0.487092,0.971367,0.226747,-0.070937
0.322554,0.486929,0.717038,-0.392354,0.883159,-0.257078
0.253515,0.201839,0.807529,-0.513973,0.301274,0.803160
-0.177267,-0.177032,0.477246,-0.628707,-0.773540,0.079770
0.157463,0.510772,0.251349,0.990973,0.011169,0.133596
0.035318,0.142800,-0.978692,0.013106,0.112763,0.993536
0.356151,-0.283415,0.840372,0.851254,0.517173,0.088874
-0.839705,0.221538,0.392378,-0.080695,-0.180054,0.980341
-0.455546,0.390083,0.882507,0.431883,0.760573,-0.484775
0.020745,-0.060089,0.473707,0.638932,-0.769218,-0.008345
-0.038271,-0.217621,-0.721801,-0.167557,0.985849,0.005070
-0.249739,-0.364991,0.904631,0.750720,0.119467,-0.649729
-0.144249,0.530414,0.747391,0.843457,0.243171,0.479008
0.335478,0.246232,-0.983265,0.019975,0.271264,0.962298
-0.652830,0.277227,0.489189,0.862312,0.377470,0.337541
-0.195759,0.591042,0.685462,0.970786,0.234499,-0.050836
-0.384716,-0.590361,0.737895,0.865677,-0.169688,0.470966
-0.159499,0.168346,0.434514,-0.666982,-0.733786,0.129205
-0.334610,0.170901,0.726462,0.777352,-0.627026,0.050614
0.588534,0.243905,-0.017281,-0.473793,0.363842,-0.801960
0.071144,-0.082058,0.324143,-0.591661,-0.806175,0.004456
0.373434,-0.444353,0.852722,0.972364,0.229848,0.040961
0.032895,-0.091085,0.274944,0.586250,0.802301,0.112358
0.224516,0.500724,0.747100,-0.071461,0.476679,0.876168
-0.316260,-0.494706,0.778894,0.502177,0.738592,-0.449777
-0.876207,0.585876,0.583175,0.717835,-0.040386,-0.695041
-0.442958,-0.046691,0.587137,0.899128,0.194273,0.392208
0.490691,0.445148,-0.239712,-0.129378,-0.869273,0.477102
0.084361,-0.039709,0.897436,-0.606140,-0.673175,-0.423592
0.301444,0.264171,0.607760,-0.290285,0.481305,0.827091
-0.898963,0.215293,0.526985,-0.202507,-0.972206,0.117504
-0.057879,-0.843320,0.059009,-0.552339,-0.555762,-0.621330
-0.218514,0.270812,0.894800,0.273889,0.957869,-0.086443
-0.472731,0.502087,0.158791,0.178184,-0.608123,0.773587
-0.059912,-0.068832,-0.107334,-0.293606,-0.873996,0.387204
0.327879,0.353922,0.748221,-0.607525,-0.292361,0.738538
0.071433,0.184695,-0.978153,0.042952,0.203097,0.978216
0.589554,-0.531492,0.649459,0.354107,-0.724408,0.591473
0.374306,-0.054299,0.737531,-0.164915,-0.985879,0.029094
-0.481058,0.514689,0.789643,-0.531876,-0.719918,0.445900
-0.280337,0.736596,0.144605,0.498864,-0.010271,0.866620
-0.311709,0.786154,0.536845,-0.064300,0.493692,-0.867256
-0.145215,-0.871079,0.811199,0.433109,0.731909,-0.526047
0.176540,-0.697425,0.393383,0.694653,-0.103088,-0.711920
-0.593862,0.524453,0.683860,0.684658,0.192724,0.702923
0.044709,-0.100621,-0.075904,0.786878,0.616456,0.028377
0.359396,0.277511,0.789425,0.522481,-0.792246,0.315213
-0.068724,0.259516,0.820476,0.606139,0.777179,0.169080
-0.470069,-0.463597,0.647653,-0.116831,0.896592,-0.427168
-0.066206,-0.570719,0.811330,0.502483,-0.833841,0.228517
-0.238992,-0.312651,0.868394,-0.417985,-0.684301,-0.597511
-0.211446,-0.755897,0.872079,0.614307,0.788731,-0.023030
-0.241220,0.766001,0.538651,0.980929,0.145564,-0.128800
0.180219,-0.570719,0.428601,0.426773,0.867575,0.255300
0.259469,-0.680055,0.602022,-0.220245,0.895807,0.386034
0.637967,-0.050211,0.743430,0.304279,-0.128073,0.943934
-0.221517,-0.628736,-0.943387,0.089776,0.094260,0.991491
0.029701,-0.089836,0.151042,-0.398539,-0.830729,0.388659
0.025635,-0.683233,0.038050,-0.241327,0.091197,0.966149
0.756870,-0.074849,0.723840,0.399665,0.842072,-0.362191
-0.270849,0.149215,0.852591,-0.636333,-0.028827,-0.770876
-0.091137,-0.070932,-0.960734,-0.040122,0.158181,0.986595
-0.396480,0.709631,0.368813,0.743636,0.567796,-0.353007
-0.330059,-0.833385,0.749984,0.974468,-0.060451,0.216236
-0.077485,0.335756,0.817898,0.711155,0.628689,0.314656
-0.148119,0.168744,0.476955,-0.525081,-0.847532,0.077324
-0.322409,0.050382,0.844989,0.797691,0.599268,-0.067588
0.557939,-0.385995,0.564882,0.757586,0.561590,-0.332686
-0.009853,-0.114927,0.012547,-0.644871,-0.762899,0.046121
0.574980,0.743692,0.611124,0.330442,0.866469,-0.374219
-0.189222,0.466720,0.515610,0.776005,0.379158,-0.504040
-0.037109,-0.790695,0.011280,0.220199,0.442043,-0.869546
0.617971,-0.444750,0.592161,0.703514,0.553560,-0.445690
-0.103870,-0.331952,-0.945630,-0.150021,0.017751,0.988523
-0.044565,-0.538191,0.802154,0.724438,-0.673137,0.148580
-0.064995,-0.282734,0.253272,-0.652316,-0.725993,-0.217755
0.325119,-0.361301,0.767942,0.893128,0.305168,0.330446
0.363657,-0.299197,0.464735,0.811984,0.279221,-0.512561
0.413813,0.735063,0.546297,0.389536,-0.075495,0.917912
-0.682749,0.577588,0.693094,0.769225,-0.515375,0.377733
0.185833,-0.396384,0.833774,-0.793594,0.288571,-0.535663
0.004381,-0.002867,0.915962,0.837518,0.038970,0.545019
-0.050714,-0.558457,0.384208,0.611996,0.716254,0.335321
-0.845514,0.595300,0.233187,-0.349657,-0.153393,0.924235
-0.000944,-0.898044,0.799227,-0.355440,0.922574,-0.150063
0.457868,0.770429,0.460745,0.664241,0.640118,-0.386048
-0.428094,0.125600,0.856655,0.940184,-0.066556,0.334102
0.606060,-0.605404,-0.956903,-0.114749,0.227174,0.967070
0.255306,0.387925,0.288096,-0.264982,0.606339,-0.749759
-0.728547,0.649967,0.117253,-0.220783,-0.156181,0.962737
0.187287,0.147058,0.814956,0.991728,0.118530,0.049263
0.263683,-0.735744,0.657032,-0.816244,0.400365,0.416478
-0.838446,0.215009,0.390660,-0.080695,-0.180054,0.980341
0.562200,-0.380489,0.665552,0.340281,-0.023032,-0.940042
0.628234,-0.429480,0.629520,0.059558,0.901498,0.428666
0.112489,0.377196,0.815000,-0.247070,0.862514,-0.441616
-0.424076,0.474610,0.436378,-0.191551,0.241256,-0.951369
0.166274,-0.086770,0.815335,0.577961,0.602693,-0.550202
0.543561,0.070819,0.748542,0.629061,0.561134,0.537969
-0.446734,0.900088,0.384921,-0.009495,-0.952386,0.304748
0.099756,-0.897193,0.315899,0.716961,0.572026,-0.398438
-0.105128,-0.443274,0.822137,-0.105056,0.510534,0.853416
0.454866,-0.172490,0.815408,0.712777,0.572099,-0.405773
-0.100965,-0.249638,0.517343,0.889612,0.447075,-0.093349
-0.433661,0.112089,0.149309,-0.419569,-0.097527,0.902469
0.612502,0.206154,0.521159,-0.353807,0.865976,-0.353420
0.368981,-0.096250,0.870564,-0.548526,-0.808166,0.214443
0.669047,-0.656949,-0.950684,-0.029851,0.251412,0.967420
0.388880,0.068548,-0.046891,-0.169214,-0.371595,0.912844
-0.166130,-0.096988,0.801484,-0.261294,0.080116,-0.961929
-0.802910,0.338764,0.701469,-0.392573,-0.914965,-0.093416
0.514851,0.263092,0.384237,-0.534002,-0.304117,0.788895
-0.292827,-0.707927,0.369978,-0.159839,-0.203527,0.965934
0.011789,-0.206721,0.929012,0.015563,-0.999726,0.017486
-0.388008,0.336380,0.665931,-0.315385,0.083192,0.945310
0.319747,0.214385,0.729681,-0.083251,-0.760054,0.644506
0.031637,-0.136670,-0.395612,0.142497,0.989762,-0.008120
0.257194,-0.785246,0.417764,0.925991,0.007047,-0.377480
-0.555664,0.048906,0.642890,-0.527108,0.035477,-0.849057
-0.357218,-0.498850,0.809815,-0.486191,-0.750644,-0.447384
-0.042532,-0.297551,0.220035,-0.761286,-0.643247,-0.081714
-0.203362,0.169595,0.808111,0.846336,-0.463009,0.263322
0.007336,-0.025517,0.895688,0.874683,-0.253416,-0.413170
-0.066883,-0.473078,0.334091,0.907839,-0.365627,0.205292
-0.707053,-0.067412,0.270268,-0.085007,0.309443,0.947111
0.178475,0.263944,0.784181,0.485027,0.802715,-0.346984
0.010287,-0.573898,0.912889,0.061384,0.832006,0.551360
0.128369,-0.891061,0.271914,0.084952,0.990915,-0.104259
-0.012805,-0.304192,0.625543,-0.159793,0.128701,-0.978725
0.052117,-0.142290,0.629359,0.951636,-0.297408,0.077048
0.262084,-0.536488,0.816544,-0.123764,-0.723290,0.679363
0.011644,-0.749198,0.775239,0.083377,0.996182,0.025868
-0.860233,0.188215,0.384863,0.024004,-0.369648,0.928862
0.746460,0.521104,0.533393,-0.381481,-0.577580,0.721715
0.666240,-0.105163,0.705474,0.984126,-0.176553,-0.018031
0.001136,-0.710539,0.392728,0.399074,-0.731163,0.553300
0.166567,-0.125316,0.415565,0.624312,0.358839,-0.693880
-0.134420,-0.365502,0.702008,-0.329638,0.706510,0.626244
-0.365111,-0.494820,0.796605,0.592789,0.804661,0.033502
0.006851,-0.168403,0.958782,0.994595,0.003258,-0.103780
0.349470,-0.335755,0.460876,0.860319,-0.032529,-0.508718
0.067852,-0.142630,-0.126821,0.954788,-0.233572,-0.183911
-0.279465,0.077290,0.794639,0.989423,0.115894,0.087238
0.188546,0.344668,0.829055,0.882360,-0.300036,0.362518
-0.228585,0.288070,0.710819,0.891107,-0.411106,0.192145
-0.330783,-0.624251,0.732229,0.236167,0.510559,0.826773
-0.264265,-0.110159,0.761752,0.036277,0.336701,-0.940912
-0.024569,-0.424087,0.526562,0.469398,0.873442,0.129474
-0.269735,0.050269,0.069583,-0.612641,0.388208,0.688452
-0.462566,0.318725,0.723214,0.257603,-0.934394,-0.246067
-0.467359,-0.310267,-0.166262,-0.092520,-0.225305,0.969885
0.088959,-0.330589,0.615275,-0.295672,0.580973,0.758320
-0.205974,-0.395475,-0.949432,-0.092651,0.372025,0.923587
0.314806,-0.317760,0.451817,0.838964,0.410051,-0.357767
0.227276,0.554710,0.663382,0.855331,0.173748,-0.488079
-0.264750,-0.727399,-0.938246,-0.097536,0.114552,0.988618
0.503134,-0.134512,0.728603,-0.766118,0.434359,0.473704
-0.147490,0.267180,0.563673,-0.660999,0.720059,-0.211177
-0.139405,0.497432,0.533510,-0.071238,0.460763,-0.884660
0.222143,-0.592802,0.691565,0.618170,-0.457200,-0.639401
0.376534,-0.047146,0.772413,0.682568,0.720369,-0.123164
0.035268,0.254747,0.818831,-0.050401,-0.880833,0.470737
0.322843,-0.839119,0.207189,-0.479102,0.877757,-0.002020
0.669047,-0.445318,0.766136,0.335891,0.565594,0.753180
-0.272687,0.559706,0.219540,0.948045,-0.172941,0.267024
-0.038900,-0.378615,0.466862,0.996011,-0.029728,0.084129
0.028345,0.242599,0.761053,0.705281,-0.657060,0.266179
-0.307886,0.190145,0.710441,0.801842,-0.579918,0.144028
-0.420979,-0.159320,-0.007319,-0.522858,0.087366,0.847931
-0.087556,-0.388720,0.581952,0.956159,0.075183,0.283032
0.062962,-0.135137,-0.280609,0.856440,0.334011,0.393634
0.294281,0.095286,0.694449,0.171416,0.129495,-0.976651
-0.168213,0.356022,0.860485,0.821038,-0.555434,-0.131872
0.198374,-0.100224,0.703814,0.109070,0.056398,0.992433
-0.200164,-0.857852,0.380071,-0.393013,0.401651,0.827174
0.238797,0.379467,0.650056,0.963983,-0.262251,0.044290
0.744474,0.022736,0.406331,-0.332597,0.900229,0.281011
0.024713,-0.654111,0.601774,-0.731034,0.676894,0.086050
0.697319,0.272175,0.517896,0.474775,-0.875640,-0.088566
0.849822,0.358577,0.510396,-0.557293,0.826170,0.082868
0.499260,0.514064,-0.087963,0.450622,-0.601832,0.659347
-0.177654,0.182084,0.501220,0.807512,0.589792,-0.008299
0.564765,0.624422,0.514328,-0.042990,-0.983362,0.176495
-0.318390,-0.393773,0.859539,0.848469,0.244853,-0.469198
0.007093,-0.186966,-0.603128,-0.196182,0.980562,-0.003388
-0.152912,0.474156,0.721583,0.526271,0.655628,-0.541471
0.383505,-0.374414,0.799023,0.080150,0.980557,-0.179119
-0.487934,0.616418,0.736919,0.801317,-0.595199,-0.060247
0.155285,0.214101,0.255383,0.836704,0.050093,-0.545359
-0.057829,-0.009338,0.204524,-0.471334,-0.879674,-0.063389
0.306237,-0.148704,0.450797,0.790262,0.027451,-0.612153
-0.843868,0.311289,0.655488,-0.332756,0.896049,-0.293886
-0.158725,-0.291590,0.657003,0.906482,0.161299,0.390223
-0.297815,0.414436,0.831196,0.987778,-0.119556,-0.100010
0.329912,0.155971,0.874963,0.816799,-0.520484,0.248868
0.059283,-0.248162,0.758650,0.531780,0.171765,0.829281
0.046500,-0.307314,0.825909,-0.285710,-0.939747,-0.187739
-0.041273,-0.574863,0.752372,-0.161916,-0.941353,0.296038
-0.403258,0.364480,0.724860,-0.275859,0.701336,-0.657290
-0.185786,0.168289,0.451598,0.449497,0.893281,0.001501
0.641451,-0.449746,0.706086,-0.670835,-0.689093,0.274102
-0.268766,0.437030,0.765641,0.389826,0.728050,-0.563897
-0.751835,0.165905,0.213933,0.834462,0.210888,-0.509117
-0.111230,0.574920,0.596210,-0.672322,0.608511,0.421541
-0.056863,-0.860691,0.695337,-0.109383,0.795404,0.596128
0.461113,-0.479038,0.494025,-0.739119,0.297225,0.604451
0.517079,-0.366126,0.528703,-0.426473,0.799265,0.423434
-0.233038,0.711050,0.701425,0.961687,-0.274094,0.005587
-0.509092,0.480174,0.703770,0.074943,-0.621849,0.779543
0.228194,-0.027788,-0.973944,0.130983,0.184755,0.974017
0.276900,0.176407,0.801295,-0.587507,-0.075376,0.805701
-0.425092,0.134569,0.801178,-0.330879,0.942148,-0.053626
-0.202490,0.182879,0.827773,0.783112,-0.433369,0.446012
-0.078455,-0.939372,0.070238,0.050005,0.653023,0.755685
-0.401323,-0.048622,0.569936,0.720290,-0.278696,0.635225
0.529761,-0.131333,0.567329,-0.486071,0.794924,0.363086
0.392461,0.088076,0.492306,-0.591999,-0.355320,0.723384
0.710587,0.260141,0.546006,-0.003468,-0.967158,0.254154
0.197842,0.496523,0.541841,-0.078960,-0.161253,0.983749
-0.691076,0.195595,0.519003,0.174544,0.982831,-0.059807
0.028055,-0.271267,-0.085691,0.990644,-0.023985,0.134344
-0.431871,0.091993,0.853028,0.879498,-0.139864,0.454887
-0.840721,0.670120,0.300039,0.886478,-0.416498,-0.201708
0.039772,-0.139962,0.639074,0.942868,-0.321185,-0.088549
0.806687,0.054299,0.422352,-0.553750,0.778990,0.294169
0.061171,-0.120434,-0.106213,0.514519,0.857452,0.006767
-0.241802,-0.523147,0.744114,0.246746,0.948364,0.199306
0.365737,0.029207,0.854732,0.245109,0.507095,-0.826302
-0.847790,0.222957,0.531747,-0.097628,-0.982718,0.157271
-0.116458,-0.109477,-0.963807,-0.065675,0.096972,0.993118
0.228245,0.570151,0.709479,0.655085,0.484894,0.579432
-0.567815,0.389231,0.138998,0.124911,-0.605252,0.786173
-0.199198,-0.478868,0.829973,-0.487909,0.558977,0.670440
0.102708,-0.242372,-0.949534,-0.671693,-0.045135,-0.739454
-0.424368,-0.523885,0.619543,0.480416,-0.822240,0.305158
0.418024,0.339730,0.580379,0.117505,0.774533,-0.621524
-0.596524,0.557038,0.462056,0.312908,0.587990,0.745893
0.198761,0.174420,0.817942,0.972615,0.224482,0.060235
0.058701,-0.253157,-0.727962,0.764815,0.637911,-0.090154
-0.006269,-0.057648,-0.962540,0.041109,0.249364,0.967537
-0.053618,-0.752604,0.798469,-0.640886,-0.729275,0.239631
0.661009,-0.097613,0.536743,0.858566,-0.186444,-0.477602
-0.420155,-0.746927,-0.936265,-0.173774,-0.121281,-0.977289
0.447700,0.009395,0.608459,-0.573394,-0.238616,-0.783761
0.503861,0.833783,0.530902,0.958670,0.101447,-0.265822
-0.251145,-0.347393,0.350782,-0.789214,0.039996,-0.612814
0.138049,-0.035338,-0.970026,0.148623,0.274374,0.950069
0.580984,-0.090403,0.802678,0.925280,0.377958,-0.031712
-0.592021,0.855071,0.246281,-0.436709,0.775679,-0.455640
0.533103,-0.742329,-0.949344,-0.175117,0.299897,0.937761
0.225387,-0.080923,0.642788,-0.145174,-0.981233,-0.126908
-0.169808,-0.456955,0.887080,0.604274,0.557201,-0.569543
0.353199,0.484431,0.706086,-0.273631,-0.883221,0.380850
-0.062864,0.340411,0.610192,0.474073,0.727578,-0.495868
0.906368,0.586330,0.536321,0.756046,0.556109,-0.345163
0.621892,-0.619937,0.619339,0.824387,-0.073141,-0.561281
-0.130160,-0.294314,0.431601,-0.513016,-0.858378,0.001115
-0.273946,-0.307428,0.353098,-0.794069,0.025862,-0.607277
-0.183995,0.356476,0.135677,0.942287,0.258863,0.212333
0.483044,0.686753,0.527247,-0.278649,-0.836497,-0.471835
-0.101837,-0.871874,0.768495,-0.137977,0.986903,0.083571
-0.063059,-0.904402,0.442408,-0.300310,-0.940869,0.156777
-0.115781,-0.877607,0.719675,0.894254,-0.442154,0.069353
0.269008,0.406659,0.748702,-0.009995,-0.479903,0.877264
0.237878,0.200080,0.896285,0.477579,-0.214718,-0.851947
-0.283242,0.175555,0.693225,0.847335,-0.201617,0.491298
-0.051633,-0.678919,0.839906,-0.711352,0.702300,-0.027431
-0.167923,0.229769,0.536947,0.156156,0.939294,-0.305518
0.341968,0.338991,0.627277,0.911087,0.091484,0.401935
0.242186,-0.319349,-0.031496,0.005528,0.197772,0.980232
-0.495245,0.023303,0.148217,-0.199230,-0.149329,0.968508
-0.355232,0.678068,0.461400,0.671003,-0.301855,0.677229
-0.842802,0.344838,0.062621,0.148324,-0.971071,0.187138
-0.051972,0.345803,0.894945,-0.289634,0.657050,-0.695987
-0.053087,-0.893900,0.019786,0.883438,0.447433,0.139070
0.272350,-0.742670,0.795017,-0.277914,0.936965,-0.211804
-0.146861,0.436690,0.831895,-0.434412,0.648102,-0.625499
-0.332964,-0.567313,0.568086,0.915341,0.042230,0.400460
0.431773,-0.067356,0.791376,0.911261,0.208814,0.354965
-0.185688,0.639579,0.696488,0.987922,0.128219,-0.087001
-0.126043,-0.340978,-0.945281,0.194347,-0.024298,-0.980632
-0.392269,-0.446794,0.782463,0.443357,0.889265,-0.112441
-0.394834,0.209389,0.840372,0.801050,-0.063018,0.595271
0.245818,0.114473,0.722034,0.945511,-0.151680,-0.288101
0.056086,-0.124407,0.358807,0.227322,0.967200,0.113353
-0.080343,-0.714796,0.037264,0.133367,0.332046,0.933787
-0.134952,0.402571,0.806116,-0.320562,0.912091,-0.255597
0.507978,0.054299,0.795265,-0.159681,0.889879,-0.427338
-0.235411,0.715081,0.531878,0.926513,0.028256,-0.375200
-0.090218,-0.569640,-0.946839,-0.058769,-0.115774,-0.991535
0.179929,0.295336,0.800669,-0.712970,-0.699166,0.053302
0.240056,-0.184128,0.439742,0.750478,0.232003,-0.618835
-0.120042,-0.299537,0.883964,0.899453,-0.435420,0.037319
-0.560410,0.395987,0.593021,-0.458205,-0.783335,-0.420041
0.277722,0.382021,0.595904,0.794945,0.164093,-0.584069
0.435210,0.067866,-0.040788,-0.260930,-0.395296,0.880714
-0.816999,0.585081,0.240018,-0.425377,-0.366419,0.827521
-0.076324,-0.537850,0.677000,0.923400,0.379554,-0.057196
-0.465323,0.748290,0.408327,-0.017477,-0.996622,0.080248
0.113361,-0.212057,0.737866,0.931213,-0.247110,-0.267916
0.612404,-0.034032,0.757790,0.152197,0.969564,0.191787
-0.027863,-0.202577,-0.733846,0.040544,0.961032,-0.273447
-0.202924,0.340581,0.841449,-0.379441,0.914717,-0.138985
-0.438892,0.800062,0.414604,0.364184,-0.926397,0.095701
-0.068771,-0.832250,0.440121,-0.162939,-0.878274,0.449538
0.323520,0.067696,0.476606,0.471263,-0.065584,-0.879551
-0.135000,0.088133,0.425236,-0.727250,-0.685444,-0.035680
0.566216,0.626011,0.514692,-0.183401,-0.907714,0.377385
0.323715,-0.662399,0.745862,0.915329,-0.004715,0.402679
-0.190821,0.793421,0.527553,0.926627,0.193109,-0.322600
-0.421269,-0.273537,0.014499,0.863700,-0.323405,0.386563
-0.331897,0.759871,0.331221,0.151610,-0.932500,0.327807
-0.028008,-0.238909,-0.633423,0.238575,0.962615,-0.128277
0.076371,-0.820158,0.403549,-0.671132,-0.547539,-0.499784
-0.138342,-0.305725,0.834706,0.938950,-0.343951,-0.008362
-0.896735,0.546536,0.307161,0.856955,-0.169657,-0.486667
0.306045,-0.022736,0.223254,-0.549037,-0.822761,0.147046
0.500277,-0.145412,0.507555,-0.241131,0.952373,0.186657
0.042724,0.429423,0.635462,-0.056883,-0.921755,0.383579
0.415651,0.056967,0.490573,-0.266189,-0.283590,0.921260
0.435984,-0.157560,0.606653,0.592696,0.183573,-0.784227
-0.364673,0.056910,0.565290,0.665900,-0.315962,0.675829
0.667498,-0.092504,0.757965,0.425447,-0.294449,0.855742
0.330783,0.185604,0.868511,-0.350094,-0.934727,-0.060991
0.161094,-0.346371,0.740298,-0.373763,-0.925993,0.053280
0.694078,0.091198,0.612785,0.764808,-0.638333,-0.087172
0.542494,-0.566575,0.656231,0.045004,0.930528,0.363444
0.449396,0.769691,0.521625,-0.803927,0.219226,-0.552849
-0.163662,-0.375436,0.813602,0.969214,-0.168448,-0.179581
0.272010,-0.774062,0.644055,-0.790055,0.584789,-0.183943
-0.075405,0.386336,0.618858,0.679348,0.393324,-0.619502
-0.966450,0.310664,0.015489,0.757126,0.330484,0.563507
-0.005397,-0.464051,0.820768,0.708848,0.233281,-0.665668
0.379244,-0.461213,0.889061,0.740117,0.547669,-0.390238
0.423641,-0.101019,0.873550,-0.647054,-0.749888,0.137799
0.691318,0.149670,0.600245,0.995586,0.093016,-0.012487
0.067899,-0.145582,0.549778,-0.742832,-0.655356,-0.136781
0.072547,-0.210014,-0.470692,0.425204,0.904762,-0.024640
-0.067560,-0.310210,0.368070,0.938584,-0.307398,0.156739
0.161094,-0.213590,0.590836,0.232273,-0.911138,-0.340406
-0.020018,-0.067356,0.150751,0.314163,0.947539,-0.058926
0.352859,0.569584,0.767301,0.494353,-0.823222,0.279142
-0.275399,0.636002,0.472615,0.757621,0.508796,-0.408825
-0.587568,0.330590,0.570373,-0.083677,-0.274395,0.957970
0.587083,-0.604212,0.307554,-0.502479,0.278518,-0.818500
0.015128,-0.505322,0.892120,-0.271878,-0.949157,-0.158692
0.156739,0.319236,0.246281,0.789227,-0.045830,-0.612389
-0.232553,-0.758962,0.640895,-0.855946,0.289586,-0.428364
0.538381,-0.200874,0.652444,0.796841,0.449137,-0.404129
-0.025491,0.021998,-0.295611,0.727167,0.390897,0.564293
-0.263730,0.031535,0.823302,0.746223,0.665210,-0.025409
0.273171,-0.532116,0.742250,-0.584675,0.418566,-0.694952
0.587760,0.593426,0.484427,0.727676,0.561733,-0.393628
0.047372,-0.116233,-0.950888,0.108028,0.655143,0.747741
0.217447,0.083250,0.793109,0.944741,0.326366,0.030814
-0.030428,0.245551,0.818933,-0.491828,-0.870612,0.011790
0.421074,0.190883,0.708460,-0.092968,0.836751,0.539634
-0.214351,0.271835,0.785230,-0.302531,0.939700,-0.159498
0.051777,-0.208538,0.892105,0.554273,0.811174,0.186488
-0.004381,0.038120,0.906568,-0.766604,0.531642,-0.360104
-0.871512,0.414890,0.313409,-0.770729,0.306840,0.558414
0.426159,0.317930,-0.425105,-0.740424,0.644595,0.190446
-0.243058,0.844512,0.543734,-0.714450,0.417087,-0.561783
0.107309,-0.108455,0.404292,0.683614,0.625490,-0.376077
-0.209605,-0.379240,0.912350,-0.683693,0.103812,0.722349
0.538525,0.261957,0.001114,0.393301,-0.475087,0.787151
0.329282,-0.332293,0.839046,0.994840,0.009034,0.101056
-0.189417,-0.762141,-0.937518,0.033468,0.107507,0.993641
0.277287,0.266328,0.617955,-0.654238,0.574792,-0.491515
0.086152,-0.884363,0.410307,0.758718,0.229112,0.609799
-0.285470,0.320485,0.810602,-0.099111,0.429618,0.897555
0.218030,0.238001,0.792789,0.899032,0.330721,-0.286993
-0.392027,0.120093,0.825224,0.550902,0.086350,-0.830091
-0.186900,-0.707019,-0.940460,0.057719,0.146409,0.987539
-0.030139,-0.012347,0.872283,-0.646190,-0.758946,-0.080243
-0.053474,-0.734041,-0.083506,-0.808730,-0.339768,-0.480119
-0.369756,0.850870,0.393820,0.998192,0.059149,0.010655
0.429932,-0.497091,0.809014,0.875518,0.040481,0.481487
-0.277287,-0.553859,0.779200,-0.733621,-0.665036,0.139738
0.091477,-0.823905,0.744740,-0.091941,0.659584,0.745987
0.096414,-0.176691,-0.622121,-0.340359,-0.937813,0.068286
-0.057684,-0.333201,0.430640,0.597642,0.801190,0.030313
-0.849678,0.561977,0.546283,0.925436,-0.015575,0.378584
0.050761,-0.162045,0.882609,0.685922,0.658491,0.309678
0.185254,-0.589849,0.382358,0.803244,0.592909,-0.057070
0.119702,-0.952428,0.409550,0.706870,-0.365366,0.605675
-0.493064,0.796543,0.171214,-0.016345,0.126667,0.991811
-0.874561,0.321961,0.334032,0.881562,-0.106340,0.459936
0.107938,0.498737,0.685550,0.387412,0.835774,-0.389093
-0.474088,0.397916,0.860311,-0.178621,0.935981,-0.303370
-0.124690,0.047430,0.319453,-0.242084,0.904998,-0.349821
-0.165016,-0.276319,0.922443,0.685872,0.184957,-0.703826
0.296701,0.310210,0.663222,0.805956,0.513667,-0.294246
-0.038079,-0.565099,0.922327,0.160070,0.760608,0.629168
-0.401273,0.464960,0.842804,-0.108669,0.911669,0.396296
0.197889,0.249979,0.267385,-0.757421,0.140856,0.637552
-0.055312,-0.583719,-0.946533,0.028838,0.110372,0.993472
-0.878532,0.534558,0.305748,0.841094,-0.186473,-0.507730
0.051922,-0.143708,-0.010916,-0.628479,-0.761926,-0.156470
0.202052,-0.746813,0.795717,-0.354183,0.918356,-0.176567
-0.146137,-0.554994,-0.942601,0.115256,0.052637,0.991940
0.614437,-0.433510,0.691783,0.812008,0.575907,-0.094730
-0.012465,-0.059578,0.768291,-0.384769,-0.873302,0.298827
-0.168260,0.163748,0.437339,-0.577620,-0.812445,0.079296
0.096317,-0.104368,0.311516,0.998134,-0.056780,-0.022444
-0.597009,-0.296756,0.049571,0.838619,0.388471,0.381849
-0.352378,-0.514745,0.367517,-0.524448,-0.131206,-0.841273
-0.118638,-0.302148,0.827030,0.493807,0.747587,0.444150
0.660525,0.095058,0.561270,-0.870211,0.323503,0.371588
0.021956,-0.594618,0.840139,-0.222218,-0.225718,0.948510
0.339884,-0.292044,0.451773,0.771568,0.155286,-0.616902
0.544190,0.120718,0.817957,0.937741,0.050225,0.343685
0.467743,0.354660,0.394505,0.020762,-0.649087,0.760431
-0.711361,0.097783,0.229706,0.820570,-0.073877,-0.566752
-0.074968,-0.339048,0.552837,0.158676,-0.928863,0.334715
-0.500909,-0.615111,0.374347,0.080833,0.478389,0.874420
0.212412,-0.954074,0.286858,-0.220215,-0.974791,0.035899
0.679891,0.213647,0.516717,-0.223596,0.893134,-0.390276
0.213671,-0.034657,0.669733,0.284170,0.953865,-0.096895
-0.372710,0.194743,0.782375,0.869013,-0.493432,0.036620
-0.083200,-0.779682,0.736832,0.639252,0.628453,-0.443174
-0.349278,-0.625500,0.732856,0.358605,0.443314,0.821508
0.327394,-0.215123,0.778457,0.537135,-0.791321,0.292058
0.371886,-0.397690,0.880556,-0.523562,0.338711,0.781766
0.117282,0.207857,-0.981124,0.044261,0.181440,0.982406
-0.182447,0.247254,0.636598,0.934536,-0.334911,0.120321
-0.604125,-0.110670,0.011615,0.365978,-0.820334,0.439445
0.491031,-0.063268,0.741886,-0.613816,-0.305033,-0.728138
0.842657,-0.364083,-0.969006,0.025692,-0.040368,0.998855
0.169374,-0.702421,0.891406,-0.438852,0.897294,-0.047662
0.642467,-0.626806,-0.953233,-0.047882,0.281311,0.958421
0.704293,0.671540,0.631282,-0.615046,-0.529698,0.584071
0.712667,-0.386449,0.781909,-0.733127,-0.678142,0.051469
-0.364576,-0.460986,0.779462,-0.306410,-0.944453,0.118831
0.336108,-0.713150,0.476139,0.899124,-0.158159,-0.408120
0.005639,-0.262581,0.854470,0.820722,-0.168167,-0.546017
-0.994288,0.496920,0.372017,0.652146,0.305049,0.694010
-0.234054,0.302206,0.903830,0.038086,0.875104,0.482434
-0.270024,-0.522863,0.797639,0.824718,0.565511,-0.006173
-0.321780,0.105788,0.185750,0.876398,0.373225,-0.304352
0.287745,0.562317,0.768335,-0.489030,0.859103,-0.150967
-0.234586,-0.513042,0.523766,-0.622332,0.709813,-0.329952
-0.446781,-0.502881,0.618523,0.063061,-0.772541,0.631825
-0.388250,-0.036019,0.004391,0.884962,-0.113222,0.451689
-0.882598,0.276717,0.589336,-0.465402,-0.878163,0.110592
-0.396238,-0.757486,0.371682,0.733344,0.042815,0.678509
0.044709,-0.152167,0.166408,0.226121,0.893545,-0.387875
0.473506,-0.025744,0.875662,0.985758,0.158943,0.054930
-0.222725,0.275922,0.651483,0.898677,-0.315984,0.304194
-0.355377,-0.513553,0.752008,0.218309,0.960604,0.171993
0.063154,-0.151315,0.460249,-0.266589,0.959016,0.096014
0.011402,-0.185263,0.869967,0.983142,0.023953,-0.181269
-0.231489,-0.734495,-0.938421,-0.015581,0.119831,0.992672
0.090558,0.530868,0.680525,0.387412,0.835774,-0.389093
-0.327781,0.522580,0.451030,-0.208631,-0.464968,0.860394
0.721866,0.147058,0.573664,0.923909,-0.219095,-0.313670
-0.432403,0.286310,0.765029,0.948711,0.075311,-0.307044
0.207377,0.343362,0.709042,0.942236,-0.230595,0.242934
0.220837,-0.605461,0.401161,0.742793,0.662762,-0.094895
-0.525116,-0.336720,0.454744,-0.092770,-0.991589,0.090247
0.025730,-0.045897,-0.192348,-0.705955,0.696213,0.130054
-0.151509,-0.242485,-0.128234,0.501532,-0.145326,-0.852846
0.493986,0.249809,0.536524,-0.331274,-0.756810,0.563468
0.486433,0.450314,-0.238430,-0.129378,-0.869273,0.477102
0.286244,0.361244,0.595467,0.752329,0.031723,-0.658023
-0.506426,0.116971,0.149877,-0.182294,0.165799,0.969164
0.163370,-0.801368,0.604396,0.765756,-0.185114,-0.615914
0.470648,0.455763,0.592059,-0.307300,-0.909613,0.279591
0.069885,0.269053,0.843008,-0.563687,0.769714,-0.299662
-0.779091,0.237376,0.555036,-0.194001,-0.978904,-0.064106
0.497907,0.045443,0.753770,0.842290,-0.074325,0.533876
-0.925347,0.294485,0.563207,0.817331,0.570368,0.081547
0.912130,-0.177997,-0.977352,-0.216840,0.219253,0.951267
-0.499456,0.663706,0.171477,-0.011091,0.006673,0.999916
-0.151559,-0.693565,0.043716,-0.514063,-0.325677,-0.793520
-0.938369,0.586444,0.190950,0.926987,-0.340905,-0.156461
0.870640,0.095513,0.457919,-0.469076,0.875326,-0.117352
-0.982474,0.562317,0.135313,-0.695894,-0.343861,-0.630469
0.374016,0.449235,0.556143,0.916583,0.368123,-0.156079
-0.585293,0.766456,0.216947,0.153128,-0.354778,0.922326
0.239863,-0.725809,0.827453,0.009134,0.995751,0.091630
0.093654,0.299821,0.766179,-0.001740,-0.993031,0.117844
0.222435,-0.024268,0.635477,0.221504,0.935172,0.276386
0.087895,-0.930459,0.244052,0.122009,-0.960066,0.251769
-0.100433,-0.114473,0.075117,-0.702652,-0.659088,-0.268111
-0.166274,0.384008,0.862262,0.964820,-0.229155,-0.128877
0.669242,0.067242,0.557672,-0.844399,0.289561,0.450715
-0.070707,-0.578893,0.748993,0.181903,-0.963766,-0.195107
0.222291,-0.054469,0.073675,-0.429551,0.901798,-0.047387
0.001089,-0.413868,0.849038,0.556323,0.257374,-0.790104
-0.951200,0.226988,0.069349,0.869201,0.465799,-0.165894
0.199437,-0.744543,0.768015,0.328159,0.943561,-0.044771
0.601075,-0.504868,0.647230,0.607469,-0.790227,0.080762
0.005495,-0.133263,0.764956,0.341827,-0.899457,-0.272271
-0.374696,-0.112429,0.613732,0.583933,0.805771,0.098766
-0.007285,-0.126962,0.759057,0.174190,0.904358,0.389609
-0.466875,0.554086,0.670009,0.928358,0.076690,0.363690
-0.619859,-0.080015,0.085807,0.963460,0.203140,-0.174581
0.494131,-0.386903,0.552458,-0.051463,0.954523,0.293661
-0.862993,0.312310,0.380931,-0.097836,0.823540,0.558757
0.022246,-0.157958,0.114514,0.977802,0.119640,0.172014
0.668465,-0.670574,-0.953859,-0.022038,0.253340,0.967126
0.114812,-0.485283,0.340601,0.917220,0.329268,-0.224255
0.007238,0.266782,0.866617,0.031954,0.768757,-0.638742
-0.737069,0.568107,0.024665,0.375346,0.303755,0.875699
0.098447,-0.229088,0.585593,0.365926,0.728647,0.578940
0.040980,-0.603133,0.640094,0.451079,0.891789,-0.035214
-0.371839,0.350231,0.628442,0.898640,0.438623,-0.007446
0.207232,0.371122,0.875167,0.988589,0.108708,0.104277
-0.211059,0.741194,0.558182,0.942474,0.178536,-0.282609
-0.064268,-0.778434,0.883833,0.895398,0.208509,-0.393429
0.197502,-0.632142,0.757164,0.810116,-0.365326,-0.458529
0.482027,0.153643,0.505720,-0.494138,0.396010,0.773953
-0.428677,0.419943,0.446748,0.338024,-0.334935,0.879521
0.684829,-0.507990,0.733584,0.994197,0.080702,0.071131
-0.079568,-0.938179,0.596749,0.891661,0.036253,0.451251
-0.341533,0.150691,0.215695,-0.582869,-0.776956,0.237915
-0.436566,0.784167,0.379503,-0.550264,-0.819325,0.160986
0.556438,0.566859,0.478980,0.965219,-0.012862,-0.261127
0.316260,-0.317589,0.786643,0.920333,0.164281,0.354962
-0.516692,0.831682,0.220603,-0.639252,0.647230,-0.415271
-0.696596,0.211320,0.527684,-0.367901,-0.929855,-0.004187
0.379196,0.274957,0.749896,-0.426387,-0.806918,0.408751
-0.347777,-0.052369,0.786920,0.977679,-0.079684,-0.194407
0.124835,-0.741478,0.788667,0.910585,-0.408658,0.061913
0.681440,-0.617212,0.631617,-0.700912,0.501298,0.507368
0.334415,0.441969,-0.999214,0.088803,0.211894,0.973250
0.215849,0.260765,0.883600,0.932408,0.197912,-0.302401
0.222338,-0.308620,0.666193,0.533770,0.814942,-0.225741
-0.283144,0.143538,0.730977,-0.664371,-0.038224,-0.746425
0.251142,0.192700,-0.686249,0.043036,0.116757,0.992228
0.054877,0.314695,0.845280,0.726287,-0.681770,0.087730
-0.470167,0.696120,0.732812,-0.801217,0.591331,-0.091541
-0.841495,0.541938,0.591156,0.986490,0.036172,0.159781
-0.169277,-0.390650,0.813442,0.938428,-0.335019,-0.084352
0.386749,-0.162045,0.481470,-0.707832,-0.141724,0.692017
0.002105,-0.415288,0.826200,-0.691371,-0.676181,0.254528
0.347679,0.085521,0.275570,-0.633829,0.772510,-0.038591
-0.504491,-0.596151,0.588010,-0.594978,0.782822,-0.182186
-0.513979,0.364764,0.582141,-0.219787,0.840519,-0.495199
-0.099804,-0.519514,-0.946737,0.046459,0.096424,0.994255
0.042047,0.103914,0.558823,-0.267521,0.952306,-0.146783
0.264313,-0.783543,0.378527,-0.340139,0.935998,-0.090632
0.176877,-0.760552,0.702008,0.008427,0.786600,0.617406
-0.478493,0.471885,0.740313,0.352141,0.830288,-0.431993
-0.091429,-0.384349,0.532781,0.959391,0.280177,0.032723
0.105710,0.063723,0.884721,-0.017642,-0.849566,0.527188
0.382246,0.249468,0.743065,-0.112765,-0.749782,0.652005
0.438067,-0.857625,0.595992,0.003186,-0.968228,0.250047
0.203506,-0.765263,0.771758,-0.073460,0.982845,0.169174
0.326330,-0.226136,0.793080,-0.593803,0.377347,-0.710638
-0.406066,0.705316,0.298203,-0.429268,-0.900158,-0.073786
0.002300,-0.290398,0.262957,0.287542,-0.943524,-0.164568
-0.271526,-0.689024,-0.940838,-0.005599,0.100770,0.994894
-0.320376,0.288978,0.827686,-0.580687,0.809066,0.090636
0.013869,-0.297039,0.319934,0.578420,0.811880,0.079249
0.392461,0.235560,0.478863,0.266143,-0.535620,-0.801423
0.487063,-0.168630,0.640589,0.640081,0.660814,-0.391946
-0.339884,-0.487383,0.725835,-0.645908,0.146899,0.749148
-0.875385,0.469615,0.306010,-0.746959,0.349880,0.565364
-0.351069,-0.547614,0.759786,0.508843,0.734443,-0.449080
0.096317,-0.199398,-0.217705,0.528978,0.832004,0.167185
0.617052,0.733190,0.600536,-0.087861,-0.915706,0.392126
-0.004623,-0.195765,0.633379,0.864368,-0.502523,0.018383
0.616517,-0.684028,-0.950917,-0.108743,0.249582,0.962228
-0.353781,0.097613,-0.010406,0.252492,0.264567,0.930727
0.229746,0.075757,-0.687181,-0.085453,-0.006187,0.996323
0.014256,-0.141949,-0.219933,-0.647975,-0.751728,-0.122611
-0.127982,-0.068888,0.850014,0.867188,0.077563,0.491903
0.167388,0.271324,0.770025,0.498815,0.832624,-0.240665
0.509573,-0.797621,0.297985,-0.563424,0.815532,-0.132145
0.623878,-0.388777,0.764432,0.690732,0.716124,-0.100272
-0.043888,0.068718,0.553536,0.686347,0.694051,-0.217302
0.285177,0.199228,0.887226,0.236177,0.212793,0.948124
0.046210,0.114984,0.847115,0.882305,0.414700,-0.222626
-0.050374,-0.351707,0.830191,-0.556537,-0.622918,0.549764
-0.201423,0.326729,0.903058,0.232162,0.867583,0.439773
-0.271865,-0.551418,0.798324,-0.791270,0.611197,0.018152
-0.035464,-0.793931,0.855883,-0.712985,0.659111,0.239219
0.828520,-0.414606,-0.968337,0.110475,0.078564,0.990769
0.304399,-0.054525,0.701949,-0.473755,0.860679,-0.186516
0.401612,0.583832,0.306476,-0.780439,0.487947,-0.390926
-0.285372,-0.806477,0.764810,0.979090,-0.056475,0.195432
0.087168,-0.127246,0.220516,0.265381,0.945965,0.186338
-0.188401,-0.541313,-0.944989,0.016379,0.040173,0.999059
0.347097,0.150067,0.743706,0.183556,-0.535745,0.824187
0.016484,-0.170503,-0.602910,-0.196182,0.980562,-0.003388
-0.036238,-0.049530,0.883163,-0.405432,0.903267,-0.140475
-0.184819,-0.356589,0.909233,0.591317,0.640150,-0.490462
-0.216818,0.599614,0.831822,0.784856,0.605090,-0.133665
0.652925,-0.258607,0.572528,0.763627,0.294322,-0.574673
0.428481,0.029037,0.874730,0.722431,-0.222862,0.654543
-0.217158,-0.349039,-0.949286,0.037690,0.240989,0.969796
-0.161434,-0.356078,0.769719,0.694402,-0.074667,0.715703
-0.374888,-0.209333,0.175293,-0.399013,0.889850,0.221261
-0.099561,-0.642701,0.400214,-0.037538,0.037536,0.998590
0.135679,-0.233913,0.816325,0.662485,-0.459033,-0.591948
0.269735,-0.082966,0.824423,0.872499,-0.416363,0.255709
0.273753,0.543697,0.739672,0.079902,0.968645,-0.235251
-0.453610,0.631915,0.652284,0.987656,0.137391,0.075230
0.144538,-0.720133,0.750493,0.844479,0.061995,-0.531988
0.563361,-0.238000,0.645978,-0.602647,0.556140,0.572298
-0.111278,-0.264057,0.718801,0.795726,0.602494,0.061817
-0.284356,0.410917,0.838362,-0.536139,-0.651495,-0.536758
0.743023,0.511680,0.584020,0.217808,-0.556069,0.802089
0.213429,0.028413,0.689366,0.966717,0.087808,-0.240307
-0.326041,0.319520,0.674495,-0.249275,-0.937626,0.242320
0.114377,-0.601430,0.337790,0.614903,0.026939,-0.788142
0.924088,-0.299310,-0.972196,0.042837,0.062508,0.997125
-0.921379,0.657971,0.231512,-0.161694,-0.877215,0.452051
0.078310,-0.146945,-0.352413,0.975631,0.212828,0.053366
-0.172181,0.419602,0.714694,0.799602,-0.585687,0.132693
0.301686,0.116176,0.476387,0.400513,0.076755,-0.913071
0.712714,0.173285,0.450025,0.699747,0.427234,-0.572561
0.062817,0.633391,0.701148,-0.585197,-0.364359,0.724422
-0.217448,-0.763787,0.626141,0.117496,0.927392,0.355159
0.179347,0.412393,0.821904,-0.301732,0.953110,0.023227
-0.675633,0.479606,0.629316,0.006579,-0.692651,0.721242
0.411151,-0.297380,0.858257,0.941262,-0.328734,-0.077197
0.684200,-0.118333,0.716427,0.852082,-0.284057,-0.439623
-0.531457,0.493912,0.635185,0.026312,-0.948561,0.315499
0.139453,0.092334,0.660921,0.892310,0.342860,0.293648
-0.137423,-0.259515,0.882405,0.964097,-0.100859,-0.245653
0.352327,-0.508558,0.791435,-0.101825,0.872027,-0.478749
-0.464065,0.619937,0.723461,0.709199,0.592844,-0.381541
-0.312049,0.685561,0.317356,0.190155,-0.974952,0.115369
-0.166664,-0.511850,0.041065,0.114698,-0.093524,0.988988
0.095445,-0.103687,0.200300,-0.516441,-0.852249,0.083431
0.498826,0.156709,0.735492,0.430630,0.647290,0.628946
0.237588,0.600863,0.692555,0.734549,0.678499,-0.008803
0.130644,-0.260310,0.919210,-0.667447,-0.668656,0.327740
0.175762,0.431183,0.256505,0.868755,0.146770,-0.472994
-0.045921,-0.599386,0.788638,0.426909,-0.900563,0.082069
-0.150155,-0.110670,0.139376,0.191670,0.971150,-0.141880
-0.095351,-0.693338,-0.940678,0.021461,0.180743,0.983296
0.213479,0.226080,-0.986134,-0.057406,0.063027,0.996359
-0.116653,-0.856092,0.790954,0.875402,-0.483395,0.000875
-0.518677,-0.303681,0.066014,0.929905,0.059535,0.362950
0.559440,0.588317,0.541564,-0.627808,0.777638,-0.033712
-0.274188,-0.814822,0.722791,0.956162,-0.266552,0.121260
0.291521,-0.208367,0.462827,0.806881,0.165006,-0.567200
0.207572,-0.011495,-0.683307,-0.153279,0.114410,0.981537
0.569558,-0.663762,-0.955068,-0.217761,0.301391,0.928301
-0.027039,0.131504,0.557206,-0.361848,-0.675841,0.642110
-0.390041,-0.148420,0.010698,0.597722,0.152684,0.787030
0.158722,-0.726604,0.830453,0.251212,-0.963052,0.097076
0.016050,-0.287218,0.134016,0.832545,-0.553921,-0.006316
-0.364626,0.340581,0.789323,0.910854,-0.000153,-0.412729
-0.310885,-0.819477,-0.934124,0.018750,0.125548,0.991910
-0.163612,0.620561,0.576009,-0.363616,0.639864,0.677021
-0.031105,-0.284096,-0.844581,0.727624,-0.592301,0.346039
0.624070,-0.650819,0.617722,-0.714946,0.525607,0.461075
-0.422817,0.725639,0.311617,0.112086,-0.949772,0.292181
-0.162983,-0.440606,0.878371,0.689444,0.439075,-0.576091
-0.284258,0.540291,0.830307,0.841585,-0.534809,-0.075583
0.010577,-0.153757,-0.471887,0.431927,0.894695,-0.113846
-0.451672,0.734041,0.773360,0.828606,-0.436133,0.350999
-0.853794,0.431296,0.562886,-0.214458,-0.808398,0.548179
0.346616,0.535523,0.731254,0.693250,-0.713142,0.104085
0.627847,-0.157730,0.706159,0.791068,-0.611583,-0.013306
-0.797296,0.519401,0.315987,-0.626309,0.185214,0.757254
-0.231052,0.369930,0.524421,-0.423988,0.168256,-0.889901
-0.437730,0.572479,0.616907,0.988828,0.124680,-0.081698
-0.349712,-0.671482,0.437019,-0.190200,-0.972162,-0.136842
-0.025588,-0.410803,0.832652,0.837189,0.544950,-0.046310
-0.247706,-0.255031,0.719369,0.665404,0.412279,0.622304
0.334415,-0.298004,0.449646,0.771568,0.155286,-0.616902
0.104209,-0.973375,0.221404,-0.210918,0.958278,-0.192917
0.677424,-0.088587,0.724554,0.813134,0.507146,-0.285686
-0.671130,0.159831,0.474902,0.862360,0.381040,0.333382
0.301831,0.518492,0.753435,-0.451821,0.428505,-0.782459
0.311612,0.448100,-0.995339,0.063154,0.224772,0.972363
-0.038513,-0.241066,0.201290,0.962944,-0.213659,0.164584
-0.215172,-0.292044,0.745541,-0.666921,-0.694673,-0.269529
-0.158143,0.006670,0.281949,0.257490,0.961868,0.092247
0.839412,0.381624,0.507978,0.064413,-0.997299,-0.035292
0.444748,-0.392921,0.820069,-0.019760,-0.856465,0.515827
-0.116215,0.645540,0.644244,0.894608,0.198370,0.400408
0.819756,-0.404445,-0.964317,0.208996,0.043557,0.976946
0.315728,0.094150,0.825603,0.858571,-0.109420,-0.500882
-0.109147,0.078880,0.340703,-0.286584,0.948402,-0.135661
-0.360025,0.186909,0.808868,0.575427,-0.794264,-0.195007
0.228921,-0.627260,0.709275,-0.710425,0.417571,0.566508
0.038705,-0.621469,0.652590,0.494017,0.869207,-0.020654
-0.314661,0.079504,0.691842,-0.780583,0.328296,-0.531895
0.463001,0.382816,0.537864,0.504983,-0.832078,-0.229430
0.015080,-0.106015,-0.202121,0.971943,-0.225979,0.065268
-0.034010,0.294372,0.848513,0.289091,0.789645,-0.541191
0.559683,0.767137,0.606391,-0.409661,-0.911264,-0.042133
0.513979,-0.145355,0.782652,0.395199,0.910098,-0.124654
-0.005979,-0.878402,0.715378,-0.560081,0.822953,0.095171
-0.151606,-0.459226,0.497739,-0.489480,0.867590,-0.087728
0.514511,0.856774,0.534748,-0.545600,0.671909,-0.500858
0.255743,0.119923,0.844144,-0.251882,0.967726,-0.007852
-0.183995,-0.593880,0.814374,0.385937,0.853570,0.349958
0.467551,0.328546,0.565537,0.407337,-0.893304,0.189959
0.176684,0.461497,0.547186,-0.294492,-0.209932,0.932310
-0.642080,0.170049,0.482344,0.916559,-0.169798,0.362061
-0.432548,0.104595,0.853218,0.885156,-0.090371,0.456434
0.738277,-0.244472,0.641929,-0.261309,-0.955004,-0.140306
-0.479510,0.445886,0.689861,0.909683,-0.371457,-0.185733
0.347824,-0.735347,0.479387,-0.894885,0.100597,0.434811
-0.813755,0.330249,0.399690,0.296946,-0.400223,0.866974
0.521871,-0.792853,0.311909,-0.553996,0.672316,-0.490998
0.130691,-0.005478,0.547273,0.827289,-0.499551,-0.256986
0.174507,0.220289,-0.983222,0.078255,0.132090,0.988144
0.484835,0.426471,0.526970,-0.676252,0.450770,-0.582658
0.112341,-0.358349,0.628981,-0.657095,0.188809,0.729779
0.884389,0.087338,0.446704,0.474207,-0.880413,-0.001183
-0.220258,-0.225739,0.837211,-0.032088,-0.935806,-0.351053
-0.462856,0.799608,0.351860,0.771783,0.626538,-0.108634
-0.823680,0.540916,0.574931,0.929609,0.157593,-0.333155
-0.553049,0.172774,0.419658,0.735997,0.520209,0.433233
0.452883,0.630042,-0.038574,-0.683164,0.517626,-0.515122
0.386073,0.132979,-0.042536,-0.241303,-0.443761,0.863046
-0.083537,-0.327865,0.837808,-0.021954,-0.929929,0.367083
0.151121,-0.082115,0.238518,0.294461,-0.946828,-0.129651
0.162790,-0.295052,0.636409,0.831959,-0.087038,-0.547967
0.563459,0.177486,0.515595,0.061648,-0.856164,0.513013
-0.049455,0.272232,0.845630,-0.079772,-0.943608,0.321310
0.029557,-0.139394,0.617358,0.866861,0.198301,0.457416
0.101692,-0.272516,0.799838,0.891558,-0.446325,0.076928
0.155187,0.523999,0.254466,0.856542,-0.002380,0.516071
0.311322,0.168857,0.725165,-0.213861,0.569034,-0.794017
0.681490,-0.334223,0.642249,-0.160807,0.003627,0.986979
0.242721,0.492720,0.539583,0.331245,0.209006,-0.920105
-0.027571,-0.065482,0.895499,0.968632,-0.161027,-0.189269
-0.174022,0.649911,0.681530,0.983860,0.059341,-0.168811
0.051730,-0.137294,0.185998,0.314470,0.906263,-0.282483
0.144730,-0.929835,0.355981,0.640316,-0.741909,-0.198912
-0.280337,-0.523715,0.809844,-0.476483,-0.384940,0.790434
0.062282,-0.677557,0.048245,-0.489450,0.061437,0.869865
0.059912,0.113735,0.877453,0.528726,0.824960,-0.199725
0.072790,-0.148250,0.084191,0.761978,0.632404,-0.139477
0.015952,-0.130084,0.972720,0.995687,0.031104,-0.087409
-0.410424,0.324743,0.687152,0.364995,0.895158,-0.255872
-0.385541,-0.623286,0.622732,-0.657923,-0.686074,0.310546
-0.688800,0.299367,0.330217,0.756651,-0.001831,0.653816
-0.260634,0.833215,0.533597,-0.277426,0.657953,-0.700095
0.343082,-0.817377,0.518042,0.867240,-0.186812,-0.461515
-0.307741,0.509353,0.764607,0.511871,0.260274,-0.818686
0.042387,-0.216599,0.924686,0.285811,0.952774,0.102634
-0.046793,-0.757600,0.810267,-0.583950,-0.736020,0.342457
0.078162,-0.520309,0.063990,0.937807,0.143178,-0.316256
0.400451,-0.387130,0.867928,-0.324103,0.689555,0.647665
-0.836073,0.498510,0.593225,0.967848,-0.247589,-0.044381
-0.506379,-0.460588,0.686598,-0.484180,-0.522417,-0.701891
0.236329,0.477052,0.306068,-0.357269,-0.933997,0.002804
-0.256130,0.036019,0.331163,-0.244790,-0.936562,0.250857
-0.878630,0.482501,0.353986,0.635022,0.198315,0.746604
-0.423157,0.114303,-0.117223,0.383907,-0.424008,0.820264
-0.337272,0.367659,0.435577,0.270389,-0.261929,0.926436
-0.258019,-0.756067,-0.939513,0.083135,-0.128565,-0.988210
-0.238894,-0.110329,-0.271710,0.237440,0.237586,0.941900
0.422140,-0.081718,0.705838,0.107570,0.770759,0.627981
0.529327,-0.386165,0.551919,0.085963,0.940745,0.328037
