-0.288400,0.495170,0.796155,-0.564165,0.766981,-0.305710
-0.077756,0.596870,-0.027264,0.959109,0.282925,-0.007960
0.062010,-0.248595,-0.529106,0.993621,0.077273,-0.082130
0.023090,-0.002273,0.045809,0.904722,0.351522,-0.240647
-0.644009,0.728679,0.455865,0.395017,-0.275183,-0.876491
-0.278693,-0.118868,0.265732,0.116769,0.099084,-0.988204
-0.002445,-0.026198,0.841301,0.930645,0.365885,-0.005384
-0.121417,0.658733,-0.036897,-0.149589,-0.969976,-0.191752
-0.005353,-0.218925,0.830241,0.893818,-0.260414,0.365067
-0.730869,-0.066599,0.860517,-0.050569,0.479462,0.876104
-0.300710,0.544032,0.511501,0.963103,0.268727,0.014789
-0.135100,0.285398,-0.448565,0.192911,-0.475261,0.858436
0.317916,0.662016,0.850179,0.777054,0.444229,-0.445922
0.191758,0.379396,0.466371,0.979698,-0.085710,-0.181233
-0.352170,-0.079666,0.618122,0.623424,-0.194181,0.757388
-0.206514,0.632726,0.538068,-0.719387,-0.187617,0.668792
0.126924,-0.214380,-0.036226,0.962419,-0.264164,-0.062986
-0.073094,0.535761,-0.038357,0.982585,0.124164,0.138239
0.314243,0.633799,0.839606,0.785267,0.614805,0.073286
0.056658,0.324412,0.877216,0.885912,-0.458417,0.070806
0.415935,0.881573,0.551209,0.853990,0.505432,-0.123446
0.472513,0.978978,0.481711,-0.137347,-0.743937,0.653983
-0.136939,0.636891,0.621848,0.408142,-0.905777,0.113966
0.023016,-0.113756,-0.286476,0.974592,0.079279,-0.209490
-0.315084,0.797739,0.690003,-0.349891,0.497390,-0.793838
0.158041,-0.182501,-0.160235,0.982095,-0.005743,-0.188300
0.335118,-0.351429,0.493190,0.913318,-0.272500,-0.302644
0.354769,-0.323780,0.775445,0.034572,-0.917368,0.396536
0.338482,0.714727,0.860282,0.747175,-0.353236,-0.562986
0.153225,-0.790290,-0.622654,-0.490907,0.135692,0.860580
0.068964,-0.741430,-0.959738,-0.023864,0.068860,-0.997341
0.285726,0.625971,0.779221,0.816649,0.350788,-0.458293
-0.285418,-0.242156,0.909926,-0.344724,0.255064,-0.903387
-0.155208,0.741494,0.684163,0.436788,0.460885,-0.772529
-0.152992,-0.328577,0.946043,-0.657423,0.745724,-0.108129
0.319825,-0.220882,-0.971503,0.300503,0.136949,0.943898
-0.164155,0.754750,-0.084561,-0.055260,0.632124,0.772895
-0.109643,-0.278264,0.003801,0.444324,0.654881,0.611316
0.270895,0.853103,0.722411,-0.426758,0.828797,-0.361902
0.389708,0.332239,-0.381014,-0.647360,0.509505,0.566860
0.104519,-0.076195,0.548758,0.028054,0.959547,-0.280147
0.015675,-0.768322,0.014022,-0.210579,0.351930,0.912032
-0.046410,-0.463165,0.301412,0.396225,-0.166690,0.902896
0.386959,0.154220,0.779943,0.901109,-0.348209,0.258368
0.397049,-0.417398,0.531556,0.461899,0.865020,0.195932
0.244440,-0.202702,0.320948,0.694488,0.715040,-0.080028
0.386577,-0.070766,0.966014,-0.827400,0.519528,0.213309
-0.736679,-0.354839,0.258129,-0.881519,0.469663,0.048386
-0.518312,0.799003,0.526437,0.512085,0.459238,-0.725858
-0.436958,0.733666,0.672566,-0.754620,-0.066113,0.652823
-0.473508,-0.301621,-0.021558,0.263267,0.369341,0.891223
-0.475188,0.385770,0.798773,-0.640785,0.645624,-0.415409
-0.378088,-0.243418,0.911739,-0.521212,0.150921,-0.839977
0.569543,0.344170,0.584842,0.999608,0.024315,-0.013877
0.043582,0.691054,0.670837,-0.596462,-0.800780,0.054623
-0.423196,0.787639,0.531858,0.815516,0.578442,-0.018389
-0.574359,0.214948,0.568092,0.853500,0.015348,-0.520866
0.152077,0.152389,0.685556,0.894661,-0.231928,0.381827
-0.281521,0.200367,-0.446870,-0.142636,0.355602,-0.923689
-0.708082,0.334512,0.685203,-0.629592,0.732619,0.258617
0.109181,-0.252509,0.737448,0.353294,0.860109,0.367962
-0.188930,0.638218,0.609882,-0.671415,0.734302,0.100011
0.440327,0.702419,0.546006,-0.539919,-0.157275,0.826893
-0.557918,0.847169,0.482231,0.867958,-0.200753,-0.454254
0.126004,0.295435,-0.026878,0.575488,0.215413,-0.788930
-0.258351,-0.152515,-0.049803,0.046433,0.062537,0.996962
0.087775,-0.537023,-0.962658,-0.336039,-0.267121,0.903175
0.036852,-0.104348,-0.079022,0.770853,0.630676,-0.089629
0.154294,0.616564,0.679178,-0.536073,0.231654,-0.811765
0.591406,0.560191,0.693779,0.876017,-0.150200,-0.458295
0.041137,-0.034403,0.914189,0.923896,0.207528,0.321478
-0.017355,0.251816,0.934664,0.352914,-0.324083,0.877737
0.148787,0.087305,0.934396,-0.142700,-0.890795,0.431417
-0.713509,-0.072848,0.818812,-0.417212,0.284415,-0.863158
0.467623,0.076827,0.286526,-0.599503,0.589295,0.541598
-0.098784,-0.006313,-0.255427,0.879471,0.450182,0.154488
0.331907,-0.464239,-0.963514,0.028490,-0.012412,0.999517
-0.692257,0.546619,0.794527,0.223389,0.182158,0.957557
-0.308051,0.518843,0.008803,0.181884,0.436067,0.881342
0.061702,-0.039075,0.924326,0.895391,0.260668,-0.361009
-0.012693,-0.303579,-0.983284,-0.263434,0.082290,0.961161
0.145273,-0.786061,-0.969875,-0.059875,-0.313479,0.947706
-0.299105,-0.385266,0.878089,0.815242,0.033235,0.578165
0.265160,0.793384,0.695189,0.319407,-0.609706,0.725422
-0.789585,0.391831,0.815606,0.351365,0.305008,0.885163
-0.245354,0.153651,-0.168895,-0.141698,-0.527891,0.837408
-0.658461,-0.319361,0.275634,-0.761451,0.318183,0.564758
-0.406298,0.784231,0.469543,0.528725,0.146443,-0.836065
-0.787751,-0.105485,0.794527,0.833382,0.536929,-0.131083
0.869259,0.796982,-0.411609,0.578085,-0.713177,-0.396480
-0.374570,0.624898,0.558610,0.270036,-0.952745,0.139130
-0.178990,0.695157,0.005580,0.121583,0.193299,0.973577
-0.516632,0.522946,0.392543,0.846503,-0.069932,-0.527771
0.179909,-0.248722,-0.582895,0.838750,-0.528994,0.129091
-0.861764,0.230289,0.480402,-0.124914,-0.391065,0.911847
0.583225,0.824254,0.560305,0.395015,0.747730,-0.533726
-0.594999,0.467332,0.790331,0.550048,-0.167970,0.818067
0.009403,-0.302064,0.987195,-0.227260,0.024143,-0.973535
0.073784,-0.013193,0.885725,0.549885,-0.147876,-0.822046
-0.105588,-0.559307,-0.265749,0.848570,-0.271777,0.453945
-0.749904,-0.031121,0.858487,0.950966,0.233480,0.202859
-0.369217,0.194117,0.825676,0.811754,-0.421568,0.404149
-0.023165,-0.077836,-0.196872,0.738782,0.667660,-0.091829
0.213780,0.414306,0.486846,-0.416678,-0.287234,0.862482
0.064988,-0.078214,0.278604,0.974093,-0.201643,0.102383
0.517929,0.041601,-0.532429,-0.106616,-0.064169,0.992227
-0.661597,-0.044504,0.803506,-0.744998,0.642307,-0.180052
-0.421208,0.640742,0.010498,-0.006162,0.292361,0.956288
0.112397,-0.088062,0.604343,0.993508,-0.088246,-0.071798
-0.852590,-0.249163,0.811411,0.652556,0.180298,-0.735978
0.000840,-0.090460,0.867667,0.313871,-0.929758,0.192445
-0.127302,0.476612,-0.364432,0.454159,0.583573,0.673187
-0.255677,-0.662710,0.599476,-0.380139,-0.105936,-0.918843
0.015521,0.126255,0.951296,-0.276206,0.284994,-0.917872
-0.174860,0.430717,0.544059,0.889228,-0.379979,0.254736
0.279687,0.243040,0.769302,-0.506109,-0.065471,0.859981
0.220201,-0.320118,-0.683022,0.918439,0.367473,0.146400
-0.328314,-0.471939,0.962943,-0.136153,0.607283,0.782732
-0.861456,-0.100056,0.888662,0.177971,0.612273,0.770356
-0.662512,-0.637711,0.262996,-0.785419,0.469993,0.402769
-0.408594,0.785179,-0.002022,0.080985,0.298600,0.950936
-0.427401,0.928477,0.509721,0.843743,-0.517739,-0.141581
0.157733,-0.286787,-0.256904,0.998223,-0.058301,-0.012284
-0.785460,-0.046084,0.809514,0.435353,0.865080,-0.249207
-0.259345,-0.273972,0.899621,-0.000733,-0.953856,0.300264
0.140835,-0.099172,0.418842,0.824065,0.558859,0.092700
-0.148251,0.363362,0.927196,-0.428514,-0.866682,-0.255418
-0.426257,0.663594,0.681410,0.982541,-0.051677,0.178725
-0.244818,0.692002,0.559214,0.790594,0.480785,0.379218
-0.126536,0.194495,0.876847,-0.590339,0.554134,-0.586886
0.126233,0.605895,0.683139,-0.357756,-0.059346,-0.931928
-0.072865,0.547251,-0.046950,0.961044,0.262556,0.086361
-0.234117,0.673506,0.659408,-0.389331,0.883444,0.260668
-0.567629,0.582350,0.767037,0.809332,0.434968,-0.394696
-0.141143,0.581340,0.849071,0.448817,0.747877,0.489125
0.411576,-0.069313,0.981556,0.842245,-0.500742,0.199701
-0.023320,0.187741,0.064690,0.930625,0.029857,-0.364755
-0.547292,0.870590,0.458701,-0.486397,-0.211149,0.847841
-0.348194,-0.059465,0.625674,0.771679,-0.610092,0.179719
0.868722,0.890916,-0.284260,0.434453,0.621074,-0.652317
-0.386189,0.764473,0.477582,-0.735479,-0.148192,0.661143
-0.261566,0.634051,0.020282,-0.179054,-0.268965,-0.946360
0.461962,0.608548,0.798320,0.734519,0.483105,0.476542
0.106278,-0.502745,0.575208,-0.092368,-0.415541,0.904872
0.477791,0.397703,0.511484,0.999527,0.009410,-0.029288
-0.524122,-0.733412,-0.123245,0.283632,0.267618,0.920833
-0.891430,0.441386,0.824904,0.606431,0.259073,0.751747
0.205674,0.952970,0.586671,-0.135311,-0.695091,0.706074
0.682620,-0.528755,-0.651352,-0.614135,-0.054680,0.787304
-0.498969,0.176315,-0.006336,0.095700,-0.348886,0.932266
-0.033796,0.028913,0.932566,0.255192,0.865846,-0.430334
-0.762598,0.409443,0.660214,0.231042,-0.358085,-0.904652
0.211101,-0.720977,-0.961853,0.155407,0.089808,-0.983760
0.862376,0.230667,-0.597714,0.421656,-0.906748,-0.003811
-0.484824,0.815037,0.512105,0.850376,-0.523124,0.056594
-0.091597,0.412537,-0.284579,0.036560,-0.507269,0.861012
0.327548,-0.271321,-0.970445,0.074867,-0.036840,0.996513
0.352473,0.723250,-0.002140,-0.283876,0.719064,0.634319
0.069809,-0.276939,-0.131402,-0.670024,0.419381,-0.612526
0.584910,0.530648,0.695038,0.556763,-0.163245,-0.814473
-0.129444,-0.181932,-0.098474,-0.241466,-0.799657,0.549766
0.053064,0.053595,0.369198,-0.689357,-0.717063,0.102992
0.201623,-0.218609,0.924125,0.904735,-0.072068,-0.419833
0.206822,-0.265008,0.284042,-0.177064,0.599458,0.780576
0.289856,-0.112871,-0.971234,-0.249687,0.305741,0.918792
0.364172,-0.632535,0.505761,-0.291485,0.956514,-0.010853
-0.151158,0.751531,0.662748,0.839732,0.206290,-0.502289
-0.728498,-0.224165,0.808725,-0.046527,0.976831,0.208891
-0.102074,-0.477306,0.572305,0.389856,-0.029590,0.920400
0.016823,0.287608,-0.310391,0.368833,-0.451337,0.812562
-0.099853,-0.393157,-0.430792,0.832685,-0.522077,0.184586
0.369982,-0.384066,0.354899,0.948379,-0.032696,-0.315450
0.200092,-0.386591,-0.657310,0.948388,0.314018,-0.044201
-0.631931,0.078657,0.759669,-0.060933,-0.095077,0.993603
0.125393,-0.391136,0.930032,0.281910,0.658828,0.697475
-0.029666,0.578183,-0.070497,0.987427,0.115638,0.107777
-0.499197,0.602360,0.455278,0.938882,0.342534,-0.034227
0.030968,0.116597,0.082748,0.684542,0.413935,-0.600050
0.372735,-0.068240,0.985013,-0.231609,0.966082,0.114202
-0.534599,0.536709,0.756161,0.735640,0.603352,-0.307895
0.251090,0.099867,0.222616,0.506930,0.537426,-0.673941
0.308434,0.565747,0.855399,0.773292,0.062145,-0.630997
0.295740,0.604950,0.850179,0.446515,0.722099,0.528392
-0.299796,0.145446,0.654659,0.160255,-0.208385,0.964828
0.232129,-0.122024,0.919006,0.978554,0.142714,-0.148544
0.799679,0.396628,-0.328936,-0.445709,0.040135,0.894278
-0.009632,0.277192,0.841721,-0.205422,0.976732,0.061613
-0.537427,0.217285,-0.432151,0.067682,-0.245451,0.967043
0.186788,-0.066347,0.170640,-0.812788,0.537639,-0.224322
-0.082115,0.580329,-0.018973,0.933656,0.332724,-0.132596
0.315466,0.464870,0.732145,0.929172,0.368689,-0.026608
-0.399345,0.567768,0.018319,-0.098084,0.051440,0.993848
0.086856,0.038129,0.056768,0.938796,0.267926,-0.216512
0.458597,0.553312,0.692319,0.361255,-0.162814,-0.918143
-0.016362,0.385140,0.810773,0.856242,0.304071,0.417601
-0.374416,-0.512846,-0.128129,0.043524,0.478759,0.876867
0.248033,0.261600,0.924930,-0.513663,0.675416,0.529116
-0.574359,-0.042610,0.764116,0.299956,-0.888232,0.347952
-0.153603,0.313363,0.941209,0.709051,0.581646,0.398665
0.145656,-0.297013,-0.404157,0.968919,0.193763,0.153790
0.548206,0.002210,-0.333652,0.760525,0.551662,0.342449
-0.401254,0.041728,0.755540,0.886145,-0.440205,0.144801
-0.277928,0.576164,0.878895,-0.031503,-0.826640,0.561848
0.057955,-0.204532,-0.379067,0.045960,-0.978612,0.200514
-0.302012,-0.082317,0.647156,0.767456,-0.369865,0.523652
0.245891,-0.295056,0.293709,-0.186053,0.871670,0.453405
0.472896,0.439304,0.768883,0.495700,0.861369,-0.111020
-0.088844,0.158891,-0.258163,0.812329,-0.405661,-0.419000
0.321355,0.614607,0.855399,0.780521,0.337102,-0.526450
0.165074,0.166846,0.955072,0.824237,0.497838,-0.269798
0.185490,0.506219,0.657344,0.482595,0.420616,-0.768234
0.372353,0.572881,0.738371,-0.585077,0.698252,-0.412468
0.763592,-0.177324,-0.509805,-0.260778,0.463974,-0.846595
0.033259,-0.022284,0.858034,0.924317,0.152699,-0.349744
-0.475038,0.319046,0.726640,-0.611833,0.501354,-0.611804
-0.477558,0.503693,-0.350301,-0.410997,-0.687297,-0.598919
-0.560671,-0.138627,0.797481,-0.381877,0.463183,-0.799770
0.009940,-0.033710,-0.009273,0.960483,0.237830,-0.144602
0.688435,0.780064,0.714389,-0.677508,0.424220,-0.600850
0.086781,0.418155,-0.000596,0.910700,0.117621,0.395968
0.281446,-0.124993,-0.976705,-0.179034,0.298395,0.937501
-0.330456,0.198914,-0.447373,-0.199418,0.273677,-0.940922
-0.526493,-0.316330,0.235707,-0.303087,0.461088,0.833988
0.040982,0.372326,0.805671,0.949475,0.030002,0.312406
0.031500,-0.155672,0.949601,0.848598,0.394215,0.352811
0.565333,-0.734928,-0.709908,0.935547,0.239709,-0.259407
0.046638,0.571745,0.012075,0.205960,-0.223104,0.952788
0.072790,-0.352945,0.270028,-0.528404,0.787957,0.316092
-0.139155,0.474464,0.509335,-0.241237,0.736259,0.632240
-0.021406,-0.303958,-0.903868,-0.732038,0.575003,-0.365365
0.129598,-0.158134,-0.391755,0.852493,-0.518826,0.063832
0.290542,0.401805,0.793956,0.787139,0.119801,-0.605029
-0.248794,0.003915,0.627403,0.894602,-0.140465,0.424213
-0.468309,0.067042,0.830593,-0.344157,0.834212,-0.430867
0.104902,-0.184142,-0.275449,0.769099,-0.625194,-0.132737
-0.408058,0.636577,0.011471,0.060083,-0.288183,-0.955689
0.058034,-0.530965,0.576316,-0.239264,-0.212052,0.947516
-0.538117,-0.320056,0.236093,0.383296,-0.501193,-0.775816
-0.214391,-0.361593,0.941478,0.329699,-0.895621,-0.298600
-0.089838,-0.414431,-0.448699,0.659182,-0.745441,0.098976
-0.288325,0.535636,0.858638,-0.676322,-0.543482,0.497208
0.566481,-0.588283,-0.481006,-0.222566,0.342255,0.912867
-0.215231,0.157125,0.185510,-0.769372,-0.527238,0.360675
0.039069,-0.793572,-0.968784,0.144772,-0.358977,0.922050
-0.828048,0.318794,0.492955,-0.460521,-0.606451,0.648180
0.441242,0.787893,-0.016372,-0.286879,0.786229,0.547306
-0.534291,0.032825,0.790147,0.768882,-0.549635,0.326684
0.352398,-0.367527,0.511215,-0.118410,0.992964,-0.001326
0.347353,-0.389810,0.435037,0.925096,0.350301,0.146580
-0.057344,-0.159333,-0.436330,-0.578348,-0.791058,-0.199352
-0.428166,-0.921343,0.304248,0.347492,-0.163451,-0.923327
-0.225703,0.424595,-0.394238,-0.184623,-0.913492,0.362555
-0.153757,0.224481,0.926726,-0.035598,-0.350709,0.935807
-0.244360,-0.502872,-0.721589,0.235274,0.507159,0.829118
-0.702272,0.184649,0.830896,-0.513268,-0.598683,-0.614926
0.303310,-0.537528,0.476172,0.849266,0.461727,0.256036
-0.208044,-0.350799,0.839639,-0.796546,-0.118166,-0.592918
0.079977,-0.149611,-0.495909,0.827201,0.561721,-0.014420
-0.333512,0.228648,0.455211,0.349415,-0.392537,0.850778
0.131049,-0.248217,0.947856,-0.386530,0.884639,-0.260785
-0.380151,0.448077,0.454439,0.584588,0.656604,0.476580
0.184646,0.279340,0.474679,-0.671546,0.237195,-0.701972
-0.270050,0.439556,0.469845,-0.501888,0.838367,-0.212718
-0.195580,0.229216,0.928958,-0.023710,-0.683605,0.729467
0.034333,0.079289,0.927599,-0.546816,0.678707,-0.490254
0.328925,0.228900,0.784390,0.654328,0.054604,-0.754237
0.136173,-0.138754,0.397528,0.846191,0.487933,-0.214202
0.231746,-0.337668,-0.691833,0.920274,0.386745,0.059372
-0.051917,0.702166,-0.059739,0.483142,0.866749,-0.123775
-0.474273,0.772805,0.006067,0.009373,0.228622,0.973470
-0.143206,0.636765,-0.057272,-0.251044,-0.967587,0.027432
-0.202155,0.364687,-0.057792,-0.023445,-0.478468,0.877792
0.617175,0.813144,0.579001,0.175920,0.734644,-0.655249
0.556695,-0.470172,-0.658905,0.628909,0.104486,-0.770426
0.424881,0.652988,0.802298,-0.875387,0.367747,-0.313783
-0.113083,-0.029290,-0.181146,-0.139846,-0.472449,0.870193
0.448354,0.474150,0.611258,-0.724116,-0.208704,0.657343
-0.546298,0.786441,0.517123,0.502001,0.857591,-0.111950
0.613120,0.076322,-0.631347,0.087300,-0.814172,0.574023
-0.846779,-0.191023,0.805251,-0.209692,-0.502625,-0.838688
0.669320,0.659997,0.709304,0.063104,0.580851,0.811560
-0.067970,-0.117164,0.074692,0.787251,0.507174,0.350728
0.292072,-0.236664,0.356880,0.848543,0.514086,-0.125263
0.399727,-0.421817,-0.967391,-0.019064,0.036224,0.999162
-0.356220,0.443344,0.779339,0.519919,-0.733275,0.438168
-0.747384,0.211097,0.483389,-0.236364,-0.360673,0.902245
0.485664,0.530333,0.702037,0.508609,-0.382013,-0.771611
-0.253997,-0.222587,-0.717544,-0.567216,0.527061,-0.632830
0.173483,0.281486,0.395380,-0.544978,0.467187,-0.696229
0.139612,-0.276750,-0.233458,0.997549,-0.000072,-0.069978
0.011471,-0.280474,0.340265,-0.323914,-0.580001,0.747448
0.329844,0.682343,0.853905,0.662264,-0.137520,0.736543
0.086170,-0.106685,0.470517,0.996107,0.084515,-0.025079
-0.051683,-0.327315,0.979911,-0.287458,0.820047,0.494864
0.418151,0.754372,-0.002778,0.274702,-0.781202,-0.560591
0.198030,0.389180,0.483036,0.568176,0.191095,-0.800412
0.028980,-0.005554,0.456335,-0.383975,-0.900345,-0.204795
-0.419832,-0.240515,0.283505,0.078425,0.513024,0.854784
-0.364476,0.770090,0.687939,-0.524835,0.566109,-0.635664
-0.389097,0.302191,-0.146976,-0.079123,-0.439636,0.894684
-0.718862,0.457168,0.649187,0.712972,0.316423,-0.625737
0.257511,0.088000,-0.391805,-0.759720,0.097238,-0.642939
-0.344904,0.040402,0.633445,0.873958,0.145261,0.463784
0.450342,0.088821,0.292534,-0.599503,0.589295,0.541598
-0.450491,0.410202,0.408487,-0.522080,0.116548,0.844896
0.140074,-0.163120,-0.651487,0.979909,0.199341,-0.006361
0.337105,0.753488,0.536876,0.510993,-0.666869,-0.542376
0.123634,0.648696,0.857144,0.050471,-0.171662,0.983862
0.136710,-0.194684,-0.026660,0.997844,-0.058562,-0.029612
0.541328,0.598636,0.698747,-0.320135,0.395392,-0.860917
0.038841,0.542579,0.433124,-0.452937,-0.891395,0.016223
-0.539032,0.797614,0.459071,-0.099716,-0.898676,0.427127
0.044118,-0.174546,0.811176,0.943644,-0.187908,0.272445
0.101462,-0.402753,0.267813,0.496186,-0.809863,-0.312923
-0.514565,0.506660,0.384236,0.850574,0.096976,-0.516836
0.188855,0.780696,-0.029295,0.082056,0.797227,0.598076
0.469993,-0.377880,-0.806023,-0.165261,0.492058,0.854732
-0.488800,-1.000000,0.308612,0.347492,-0.163451,-0.923327
-0.301933,0.716432,-0.002224,-0.522438,-0.179327,-0.833607
0.182126,0.577994,0.857748,0.734463,0.083147,0.673536
-0.676736,0.078593,0.497738,0.674909,-0.027720,-0.737380
-0.408594,0.654505,0.483742,0.287226,0.121405,-0.950138
-0.164845,0.598257,0.781973,0.271872,0.923582,-0.270336
0.355455,0.033016,0.766701,-0.501602,0.099686,0.859336
-0.047329,0.184710,0.693091,0.463889,0.635327,-0.617386
0.355152,-0.487659,0.103743,0.161756,0.171554,0.971805
-0.136556,0.017928,-0.181046,-0.234153,-0.406378,0.883192
0.285572,0.132884,0.940605,-0.749378,-0.260555,0.608723
-0.401482,0.015909,0.774790,0.299085,-0.742964,-0.598792
-0.431913,0.005872,0.722881,0.065364,0.963249,0.260536
-0.066365,0.053406,0.354782,0.101925,-0.897896,0.428244
0.077298,0.725143,0.688526,-0.238691,0.421124,0.875032
-0.177613,0.677862,0.741761,0.975121,-0.207238,-0.078688
0.133877,0.714413,-0.421276,-0.173711,-0.915979,-0.361672
-0.732475,-0.112430,0.856288,-0.325083,0.945649,-0.008316
0.011620,-0.163563,-0.200547,0.802916,0.595626,0.023575
0.354843,-0.361213,0.363375,0.872437,0.403833,-0.275267
0.154368,-0.200808,0.280518,0.836762,0.541817,0.079140
0.096642,0.054416,-0.034464,0.433230,0.166974,-0.885681
-0.541860,0.549838,0.776099,-0.233118,0.576618,-0.783050
-0.871396,-0.063127,0.789610,0.437924,0.373297,0.817846
-0.324184,0.055993,0.792899,0.997063,0.069668,0.031813
0.357214,0.783537,0.537984,0.627587,-0.679981,-0.379158
0.165153,-0.052395,0.855264,-0.449357,0.869441,0.205306
0.158270,0.543211,-0.066083,0.004808,0.864737,0.502201
0.079366,0.815542,-0.368913,0.899519,0.214797,0.380430
-0.043736,-0.001705,-0.055795,-0.219313,-0.524568,0.822636
-0.230981,0.749005,0.655632,-0.592772,0.292971,-0.750193
-0.143052,0.239253,0.205884,-0.698857,-0.686296,0.201489
-0.020492,0.657913,0.556160,0.817653,0.328752,0.472616
0.136784,-0.684552,-0.962943,0.229760,-0.008386,-0.973211
-0.064988,-0.799633,-0.976957,-0.342378,-0.010683,0.939502
-0.465252,-0.292784,-0.471255,-0.689051,-0.596777,-0.411176
0.142520,0.678555,0.845715,0.038785,0.828783,0.558224
-0.134951,0.487091,0.862565,-0.336488,0.449056,-0.827722
-0.196653,0.801781,0.679061,0.426210,-0.059534,0.902663
0.218288,0.098101,0.934261,0.230379,-0.274117,0.933694
0.231746,0.716307,0.857480,-0.424882,0.873626,0.237177
0.102606,0.120321,0.778936,0.943821,-0.294581,0.149744
0.477255,0.510890,0.846168,0.818512,-0.572680,-0.045550
0.234192,0.596490,0.820658,0.620779,0.045085,0.782688
0.224331,0.769649,0.697438,-0.298518,0.635289,-0.712246
0.030814,0.767439,0.683642,0.671571,0.513339,-0.534299
-0.316922,0.372326,-0.142411,0.105886,-0.377339,0.920002
-0.101458,-0.089262,0.860047,-0.197452,-0.433509,0.879251
-0.113769,-0.341708,-0.282951,0.817911,-0.570447,0.074910
0.988991,0.464302,-0.295253,-0.583074,0.193321,0.789083
-0.031117,-0.006313,0.836048,0.887282,0.223430,-0.403496
0.026147,0.357174,0.805805,0.931437,0.180301,0.316097
0.185028,0.048671,0.577038,-0.477933,0.827584,0.294424
-0.443155,-0.267659,0.921523,-0.354029,-0.046864,-0.934059
-0.142903,0.548072,0.861054,0.321603,-0.288752,0.901773
0.233734,0.440629,0.686093,0.918589,-0.382432,-0.099703
0.101309,0.626160,0.850162,-0.145953,-0.149699,0.977900
0.141829,-0.239189,-0.601944,0.987570,0.140696,0.070070
0.333820,0.687771,0.536843,0.939444,0.342435,-0.013519
-0.062389,-0.420176,-0.457258,0.735123,-0.568408,0.369468
0.511279,0.458683,0.628091,0.741444,0.440473,-0.506206
0.188855,0.708036,0.839153,0.999418,-0.034083,0.001655
0.024925,-0.139574,0.942468,0.779956,0.359395,0.512351
0.206439,0.743199,0.843332,-0.352180,-0.831114,0.430370
-0.225857,0.778045,-0.089914,-0.684175,-0.398942,-0.610532
0.127992,-0.252320,-0.189974,0.748439,0.480651,0.456961
0.011316,0.460010,0.797666,-0.102042,0.406797,0.907802
-0.033105,-0.439870,-0.286425,0.910624,0.090830,-0.403130
-0.283663,0.804496,0.002979,0.210892,0.468001,0.858195
0.116750,0.484440,0.746192,0.308880,0.177455,0.934400
0.059943,-0.567450,0.136873,0.193957,-0.464852,-0.863883
0.956343,0.820278,-0.275432,0.474118,0.468867,-0.745235
0.279150,0.078909,0.919056,0.790789,-0.294382,-0.536649
-0.412187,0.364055,0.472027,-0.377985,-0.393647,-0.837956
-0.128758,0.204407,0.804614,0.070868,0.787574,0.612131
0.425338,0.352251,0.837072,-0.440438,0.418437,0.794308
0.370901,-0.585885,0.470332,0.907455,0.198140,0.370493
0.113311,0.204659,0.819433,-0.548149,0.810672,-0.205774
0.054516,0.351999,0.043426,0.821959,0.245267,0.514031
0.152460,0.717000,0.687486,-0.000821,-0.239586,0.970875
0.353238,0.211350,0.248026,0.498387,-0.802241,0.328663
-0.689887,-0.354902,0.240239,0.944189,-0.081639,-0.319128
-0.649744,-0.417209,0.251097,0.082838,0.061173,0.994684
0.406760,0.456600,0.474897,-0.003835,0.739221,0.673452
-0.055510,-0.310019,0.061769,0.330265,-0.693015,-0.640824
0.063616,-0.164193,0.811260,0.952911,-0.176286,0.246747
0.395597,-0.493845,-0.964655,-0.044652,-0.023512,0.998726
0.716034,0.754372,-0.311012,0.692114,0.090319,-0.716115
0.013076,-0.098478,0.918821,0.895700,-0.322301,0.306338
0.438643,0.696862,0.556042,0.314852,0.314949,0.895363
0.302624,-0.420176,0.089662,0.018854,0.030423,0.999359
-0.022022,0.089010,0.199926,0.495654,0.606539,-0.621641
0.153911,-0.226122,0.249956,0.525177,-0.747277,-0.407144
0.218441,0.436399,0.431144,0.714604,-0.427118,0.553995
0.045570,0.090146,0.348589,0.431940,0.887202,-0.162174
0.105588,0.542391,0.442523,0.104994,0.993349,0.047260
-0.339934,0.055173,0.477867,0.394061,0.781479,0.483742
0.148712,0.198094,0.958764,0.373929,0.922387,0.096847
-0.626882,0.322266,0.500827,0.079587,0.052453,0.995447
-0.104748,0.483555,-0.004523,0.954819,0.233223,-0.184193
-0.104902,0.154347,-0.315510,0.374019,0.121967,0.919366
-0.123326,0.071587,0.935570,0.450835,0.707660,-0.544026
0.364863,-0.413674,-0.971754,0.248043,-0.018017,0.968581
0.039988,-0.189823,0.955811,0.891972,0.172602,0.417845
0.148101,0.162679,0.941881,0.464683,-0.414125,-0.782669
0.093431,-0.064957,0.650966,0.819338,-0.553119,0.150811
-0.729339,-0.209456,0.279964,0.199113,0.331772,0.922107
0.334203,0.803548,0.699519,-0.295042,0.554847,-0.777879
-0.115299,0.469351,0.526924,0.990687,-0.003268,0.136118
0.036470,0.120194,0.392308,-0.681981,0.562167,-0.467835
0.303235,0.688278,0.520546,0.983024,0.150585,0.104821
0.195430,-0.359888,0.549094,-0.086176,-0.702768,0.706181
0.205828,-0.152894,0.922899,0.341780,-0.745274,0.572497
-0.595690,0.087495,0.817805,0.090072,-0.555413,0.826682
0.507457,0.553942,0.435692,0.882473,-0.371696,-0.288243
0.398351,0.617701,0.485470,-0.677713,-0.460129,-0.573573
-0.700970,0.192853,0.822319,-0.282284,0.137047,0.949491
0.678266,0.079098,0.321938,-0.469799,0.608278,0.639755
-0.484978,-0.566441,-0.120661,0.089834,0.496140,0.863583
-0.924690,-0.221134,0.810286,0.631938,-0.477609,-0.610363
0.102606,0.314816,-0.020114,0.721902,0.239506,-0.649225
0.176698,-0.246828,0.921221,0.836141,-0.344711,0.426664
-0.562813,0.377250,0.732632,-0.075493,-0.791126,0.606976
-0.470372,-0.215453,0.287012,-0.329406,0.360699,0.872575
0.058263,0.809040,0.678641,0.294438,0.027425,-0.955277
-0.650355,0.151885,0.833833,0.627636,0.608648,0.485408
0.009865,-0.221830,0.943895,0.830043,-0.461863,-0.312587
0.079440,-0.303642,0.752738,-0.808455,-0.399872,-0.431860
-0.429240,0.395998,0.798169,-0.609000,0.665091,-0.432173
-0.244207,0.652927,0.011068,0.251961,0.315654,0.914810
-0.519231,0.127896,0.510880,-0.297784,0.097556,0.949635
-0.276551,0.726469,0.646804,0.233539,0.900321,-0.367261
-0.164766,-0.312858,0.823645,-0.812015,-0.072919,-0.579063
-0.395369,0.104919,0.750052,0.719221,-0.665872,-0.198334
-0.032569,-0.367527,-0.243260,-0.525111,0.850006,-0.041813
-0.202309,0.235338,0.795652,-0.170277,0.746020,0.643785
-0.416929,0.483303,0.406658,0.483443,0.229812,-0.844671
-0.001297,-0.198726,-0.010280,0.618959,0.653679,-0.435424
0.245508,0.690549,-0.001989,-0.296487,0.699983,0.649707
-0.362413,0.737517,0.476323,-0.178997,0.364503,0.913837
0.236488,-0.288554,-0.972644,0.023607,-0.110989,0.993541
0.158498,0.135850,0.567857,0.203224,-0.804930,0.557483
0.203686,0.707973,0.682250,0.447308,-0.296593,0.843770
0.357905,0.565306,0.825391,0.767126,0.438447,0.468276
-0.002371,-0.608989,0.564736,0.550119,-0.034215,0.834385
0.389022,-0.424404,0.538890,0.272972,0.942572,-0.192468
0.122486,-0.115965,0.122054,-0.589627,-0.792568,0.155486
-0.659380,0.605895,0.768799,-0.369147,-0.638498,0.675315
0.331221,0.424404,0.746394,-0.364121,0.656932,0.660194
0.589646,-0.471814,-0.498930,-0.067512,0.364064,0.928924
0.481996,-0.374533,-0.763261,0.912937,-0.407784,-0.016032
0.173334,0.185090,0.943509,0.843405,-0.170772,-0.509416
0.058875,0.158071,0.753560,0.968496,0.144263,-0.202988
0.014145,-0.636006,0.556495,-0.512176,-0.229740,-0.827584
0.003519,0.521243,0.832909,0.350801,0.528653,0.772958
-0.170730,0.587147,0.801458,-0.057841,-0.823088,0.564960
-0.338865,-0.802664,0.026945,0.140403,0.480089,0.865911
0.458368,-0.447952,-0.503864,-0.232559,0.216747,0.948123
-0.090146,-0.180418,0.878274,0.901518,-0.425621,-0.078180
0.903129,0.354207,-0.308495,-0.599221,0.159574,0.784520
-0.528863,-0.643836,0.291108,0.103487,0.914178,0.391879
0.172489,-0.243229,0.336136,-0.116180,0.976310,0.182540
0.187170,-0.232119,-0.850163,0.554012,0.807158,0.203880
0.353929,0.270374,0.789324,-0.761318,0.178836,0.623228
0.155596,-0.294931,-0.368980,0.893938,-0.438189,0.094152
-0.129980,0.199103,0.788368,0.350210,0.636685,0.687012
-0.191072,-0.398713,-0.141069,0.144902,-0.325670,0.934314
0.366468,0.454706,0.816227,-0.167982,-0.739844,0.651470
0.409971,0.902783,0.460313,-0.154350,-0.718110,0.678597
0.315237,-0.221830,0.546426,0.860980,0.341097,0.377314
-0.330834,-0.338236,0.898564,0.980513,0.196389,-0.005154
0.307285,-0.042358,0.931677,0.413970,-0.908034,-0.064060
0.459517,0.584371,-0.414898,-0.291674,0.309712,0.904989
0.409205,-0.450728,-0.965142,0.021131,0.134543,0.990682
0.349873,-0.202386,0.389137,-0.706221,-0.702664,-0.086689
0.065753,-0.159585,-0.165521,0.546292,0.720867,-0.426517
0.474730,0.549272,0.693964,0.370271,-0.101696,-0.923340
-0.858936,0.238621,0.484681,-0.184735,-0.356137,0.915991
0.025536,0.222714,-0.315963,-0.190779,0.302301,-0.933926
0.047404,0.342403,0.949970,0.432074,0.563683,-0.703969
0.455466,0.555331,0.430657,0.053511,-0.985637,0.160176
-0.009483,-0.262358,0.960090,-0.420542,0.873399,0.245599
0.039298,0.626854,0.829150,-0.541962,0.818773,0.189442
0.125930,-0.041221,0.831533,0.971516,-0.140680,-0.190700
0.164616,0.734928,-0.434551,-0.188901,-0.935527,-0.298505
0.153225,0.745533,0.692537,-0.242894,-0.056848,0.968386
-0.394832,-0.617765,-0.000663,-0.173733,-0.622935,-0.762738
-0.046027,0.081876,0.768446,-0.485039,0.730156,-0.481258
0.457529,0.489932,0.475736,0.061267,0.791337,0.608303
-0.063000,0.334828,0.888209,0.525309,0.030263,0.850373
0.041440,-0.184647,-0.379520,-0.025488,0.997914,-0.059309
-0.275860,-0.381983,0.885390,0.901748,-0.422720,-0.090326
0.045187,-0.235338,-0.873172,0.933269,-0.116479,-0.339768
0.091214,0.291270,0.484950,-0.205614,0.831520,-0.516041
0.096338,0.122594,0.649959,0.858161,-0.508573,0.070101
0.155288,0.339309,0.408504,-0.602447,0.603680,-0.522138
-0.268753,0.570671,0.463149,-0.692214,-0.694334,0.196825
0.197796,0.645982,0.846990,0.369045,-0.170686,0.913604
-0.132501,0.008648,0.853083,-0.571529,0.259205,-0.778567
0.322041,0.613725,0.844523,0.777119,0.617774,0.120168
0.112089,-0.289375,-0.010615,0.917626,-0.392878,0.060086
0.375563,-0.033710,0.949383,0.358143,0.928781,-0.095387
0.212557,0.601035,0.665080,-0.361130,0.508059,-0.781960
0.628641,-0.469288,-0.491311,-0.189745,0.431513,0.881926
-0.687899,0.357806,0.815640,-0.675818,-0.043556,-0.735781
0.358819,0.736633,0.542381,-0.218064,-0.028943,0.975505
-0.354540,-0.370809,0.071420,-0.359070,0.642129,0.677303
0.188239,0.353009,0.524020,0.447435,-0.630762,-0.633988
0.426561,-0.023230,0.981908,0.160776,0.786649,0.596100
0.045953,0.738274,0.680823,-0.529735,-0.492143,0.690779
0.101994,-0.166908,0.152397,0.319519,0.946161,-0.051840
0.361881,-0.520043,0.435373,-0.563540,0.648318,0.511963
-0.581391,0.423963,0.786505,-0.083821,-0.311457,0.946556
0.093357,-0.263872,0.740318,0.373160,0.848062,0.376220
-0.121492,-0.528186,0.582945,-0.447481,0.056230,-0.892524
-0.065753,0.452749,0.767204,0.523274,-0.188665,0.831017
0.343681,-0.667697,-0.967626,0.053475,-0.067749,0.996268
0.311873,0.510636,0.777459,0.843608,-0.135989,0.519454
-0.417997,-0.359952,0.242689,-0.313109,0.386089,0.867697
-0.073094,0.106749,-0.041831,-0.191568,-0.128282,-0.973060
-0.351022,0.481662,0.488508,-0.111325,-0.689376,0.715799
-0.338025,0.376997,0.752352,0.631844,0.479336,-0.609106
-0.102303,-0.263115,0.953427,-0.621813,0.781061,0.057384
-0.068815,0.404962,0.842392,0.657044,0.039785,0.752802
-0.111631,-0.349158,0.821715,-0.713379,-0.230979,-0.661619
-0.110941,0.469226,0.547986,0.865408,-0.446937,0.226530
0.104673,0.129349,-0.031829,0.659640,0.267452,-0.702385
-0.442465,-0.070450,0.784172,0.437582,0.459411,-0.772958
-0.467315,0.962628,0.544009,-0.198818,-0.273555,0.941084
0.541557,0.902153,0.487467,0.552296,0.502605,-0.665100
-0.245583,0.450730,-0.347364,0.322981,0.737900,0.592609
0.134642,0.184333,0.703094,0.989476,-0.019720,-0.143344
-0.107193,0.220189,-0.449454,0.175919,-0.299544,0.937724
-0.860924,-0.231362,0.802130,-0.577495,-0.035793,-0.815609
0.440705,0.838710,0.551930,-0.214565,0.375461,0.901660
0.023627,-0.047850,0.869429,0.947718,0.141951,-0.285798
-0.157276,0.032321,-0.471540,-0.267009,-0.406859,0.873597
-0.427555,0.285714,0.722210,0.632010,0.212895,0.745144
0.471062,0.574775,0.693628,-0.230054,0.033345,0.972606
-0.327702,0.111798,0.598755,-0.586718,-0.746028,0.314968
-0.101841,-0.507480,-0.978400,-0.350124,0.131800,0.927384
-0.311952,0.735055,0.527931,0.829174,0.543886,0.129068
0.152077,-0.167476,-0.005799,0.998300,-0.051214,-0.027812
-0.303081,-0.459187,0.883258,0.787246,0.070193,0.612631
-0.479546,-0.194431,0.735200,0.721424,0.671438,0.169465
-0.296734,-0.275677,0.885943,-0.548730,0.835999,-0.001547
0.038841,-0.023168,0.031627,0.977501,0.171647,-0.122590
-0.664346,0.169940,0.495355,0.698954,-0.284360,-0.656204
0.064377,-0.457168,-0.277631,-0.839530,-0.033783,0.542262
-0.150472,0.493972,-0.273939,0.010548,-0.533271,0.845879
0.312946,-0.152515,-0.975665,-0.016453,0.109999,0.993796
-0.267908,0.570544,0.460833,-0.665227,-0.696007,0.270271
0.188164,0.624960,0.679346,-0.568935,0.073326,-0.819107
-0.610138,0.159523,0.873088,0.096410,-0.634533,0.766859
-0.486733,-0.214948,-0.030486,0.267969,0.368729,0.890074
0.591788,0.488164,0.687989,0.202697,-0.781869,0.589571
0.165456,-0.358690,0.922211,-0.691367,-0.166960,-0.702948
0.145119,-0.099110,0.277631,0.770247,0.590633,-0.240567
-0.273952,0.503188,-0.275265,0.072409,-0.530655,0.844489
-0.181132,-0.353070,-0.129052,0.053644,-0.460846,0.885857
-0.154597,-0.407991,0.582861,-0.397468,-0.029498,-0.917142
0.059332,-0.169055,0.937349,0.928743,0.138287,0.343966
0.052756,-0.765544,0.018117,-0.203085,0.339344,0.918478
0.104902,0.125877,0.858369,-0.746202,0.626583,0.224892
0.540562,0.550597,0.691782,0.058284,0.587190,0.807348
-0.115453,-0.302128,0.895526,-0.631555,-0.017164,-0.775141
0.366697,-0.587274,0.454892,0.817806,0.510405,0.265857
0.172260,-0.336343,0.295387,0.431021,-0.863693,-0.261257
0.367154,0.570292,0.865216,-0.697991,-0.168942,0.695893
-0.452633,-0.018496,0.722143,-0.169520,0.984429,0.046504
-0.295358,0.616564,0.491411,0.963122,0.153460,0.221012
-0.390628,0.245187,-0.442540,-0.140939,0.153327,-0.978073
0.183120,0.705890,0.851555,-0.656493,0.160575,-0.737043
-0.214237,0.641185,0.812367,-0.193143,-0.981033,0.016421
0.087621,-0.148666,0.952840,-0.421407,0.474407,0.772887
-0.059561,0.431602,0.758847,0.627909,0.401155,0.666937
-0.082726,0.065021,0.924997,0.368327,0.431919,-0.823275
0.370211,0.186920,0.766936,-0.142269,-0.619884,0.771689
0.423504,-0.120573,-0.617585,0.754088,-0.616772,-0.225704
-0.559066,-0.040969,0.737180,-0.754582,0.263501,-0.600977
-0.364858,0.183890,0.652779,0.291249,-0.238403,0.926465
-0.049163,-0.245439,0.868271,0.938895,-0.341231,-0.045139
-0.181514,-0.168613,-0.702456,-0.432417,0.747768,-0.503844
-0.510285,0.107254,-0.437068,0.085917,-0.203041,0.975394
-0.009021,-0.521494,-0.532412,-0.303064,0.542056,0.783791
-0.493542,0.034026,0.725482,-0.331423,0.071587,-0.940763
0.108038,0.283695,-0.019242,0.614155,0.079638,-0.785157
0.141908,-0.051765,0.865385,-0.617096,0.782600,0.082033
0.203000,0.580897,0.668051,0.680164,-0.392784,0.618949
-0.354078,-0.189066,-0.687301,-0.453435,0.503993,-0.735111
-0.165993,-0.290764,0.989695,-0.440866,0.522144,0.730071
-0.009175,0.187299,0.436749,0.948539,-0.034173,-0.314812
-0.636976,-0.181807,0.735367,-0.822502,0.097957,-0.560264
0.288708,0.877912,0.718350,0.412570,-0.860769,0.298098
-0.098327,0.216590,0.625053,0.265085,-0.756655,0.597664
-0.443916,0.201565,0.700107,0.741478,0.074969,-0.666776
0.479014,-0.133389,-0.510175,0.455454,-0.835092,-0.308518
0.580854,0.571049,0.711233,0.464009,0.417704,-0.781165
-0.047175,-0.410075,-0.269038,-0.306588,-0.897207,0.317843
0.082880,-0.352945,0.908886,0.645525,-0.754524,-0.118282
0.174785,0.226186,0.811578,-0.384674,0.743327,-0.547257
0.074088,-0.116722,0.410753,0.800228,0.516768,-0.304281
-0.408137,-0.654062,0.294011,-0.214737,0.023121,0.976398
0.560442,0.482608,0.684985,-0.131499,0.868577,-0.477789
0.475113,0.422133,0.621244,0.696115,0.072579,-0.714252
-0.225171,0.738274,0.674395,-0.553132,-0.766468,0.326454
-0.542014,0.515688,0.384253,0.659301,-0.035122,-0.751058
0.062696,0.667572,0.673522,0.481907,0.876008,-0.019384
0.334963,-0.516760,0.418825,0.732826,-0.680337,-0.010413
0.307136,-0.431979,-0.198987,0.841268,0.320592,-0.435303
-0.808396,-0.279590,0.762421,0.865558,0.364346,0.343601
0.059789,0.156429,0.874447,0.829966,0.191532,0.523900
0.069729,-0.027460,0.674932,0.985284,-0.052203,-0.162761
-0.184497,0.568651,0.801207,-0.183242,-0.975444,0.122196
-0.816194,-0.229973,0.790734,0.844667,-0.142239,0.516048
0.293678,-0.728174,0.024075,-0.204322,0.369260,0.906587
0.083188,-0.263872,-0.187188,-0.866301,0.271559,-0.419260
0.435586,-0.125307,-0.559483,-0.500664,0.840478,0.207200
0.080817,-0.074617,0.010582,0.672807,0.738801,-0.038779
-0.208273,-0.185720,-0.718098,-0.615201,0.712618,-0.337198
0.214391,-0.396503,-0.186752,0.819643,0.246632,-0.517067
0.014756,-0.080423,0.845966,0.749890,0.444190,0.490265
-0.148251,0.499337,0.855667,0.268044,-0.576966,0.771532
0.271810,-0.210088,0.937702,-0.772893,0.166486,0.612306
0.271506,0.465816,0.742013,0.961622,0.205350,-0.181974
-0.400185,-0.528691,-0.133114,0.028812,0.469446,0.882491
-0.560443,0.163752,0.594156,0.910375,-0.060072,-0.409401
0.611822,0.357301,0.645898,0.828418,0.306499,-0.468809
-0.102303,0.303326,0.460648,-0.627410,-0.679900,0.379594
-0.487115,0.138629,-0.013552,-0.020886,-0.533357,0.845633
-0.446749,0.147465,-0.187087,0.045110,-0.326212,0.944220
0.135790,0.757971,0.851337,0.361238,0.336000,0.869834
0.142212,-0.171263,-0.123346,-0.230435,-0.953369,-0.194905
-0.844180,-0.064073,0.865468,-0.280640,-0.441953,0.852009
0.039835,-0.157375,0.809749,0.958913,-0.032079,0.281881
0.046638,-0.077584,0.519338,0.891603,-0.076571,0.446297
-0.664500,0.742441,0.447893,0.395017,-0.275183,-0.876491
0.154368,-0.202449,-0.133818,0.791575,-0.610491,-0.026652
0.027449,-0.325610,0.322156,0.282198,-0.419949,0.862559
0.270741,-0.567514,-0.703665,-0.026561,-0.999005,-0.035820
-0.446824,0.388360,0.412817,-0.522080,0.116548,0.844896
-0.139995,-0.088378,0.162232,0.175372,0.071418,0.981908
-0.316614,0.776340,0.540703,0.938232,0.334450,-0.088684
-0.023777,0.417525,-0.056886,-0.552646,-0.398677,0.731874
0.285114,0.340005,0.167300,-0.585429,0.505882,0.633527
0.244822,-0.402057,0.549363,-0.426765,-0.894131,0.135652
0.234957,-0.422006,0.482751,0.679269,-0.733751,-0.014272
0.055053,0.534120,0.500424,0.264671,-0.945425,-0.190055
-0.193900,0.482735,-0.371330,-0.153077,-0.964961,-0.213114
0.125930,-0.388801,-0.861894,0.981933,-0.186638,0.031196
-0.150392,0.277003,0.649640,0.983326,0.179779,-0.027384
-0.086399,-0.040086,0.898581,0.563989,0.624252,-0.540580
0.137550,0.695537,0.871191,-0.170849,0.917332,-0.359601
0.026301,-0.049303,0.799461,0.969045,0.227571,-0.095721
-0.503327,0.089703,0.824954,0.474172,-0.664028,0.578125
0.231364,-0.181869,0.102736,0.925474,0.332903,-0.180760
-0.647453,0.210972,0.492083,-0.466469,-0.217271,0.857438
-0.492930,0.486270,0.394389,0.863926,0.245861,-0.439528
0.172951,0.225049,0.911000,0.568278,-0.399255,-0.719483
0.318528,-0.579888,-0.964521,0.053439,0.159547,0.985743
-0.684226,-0.070513,0.812938,-0.614564,0.332144,-0.715536
-0.298419,0.724070,0.477918,-0.492661,-0.057810,0.868299
0.513188,0.176883,-0.045389,-0.268905,0.271555,-0.924093
-0.784466,0.262546,0.656521,-0.109058,-0.915022,-0.388383
0.271124,-0.200933,0.336757,0.704630,0.708550,-0.038112
0.343681,-0.530333,-0.963934,0.036670,0.011259,0.999264
0.160561,-0.536582,0.434903,-0.759539,0.636505,-0.134023
-0.202384,0.837573,0.680235,-0.499119,0.038940,-0.865658
-0.768865,-0.254024,0.824082,-0.215679,0.914321,0.342782
0.302087,0.682533,0.858487,0.320535,-0.143382,0.936322
0.024392,0.793574,-0.037787,0.105488,0.702966,0.703357
0.198944,-0.752729,-0.964101,-0.134887,-0.108166,0.984939
0.171112,-0.602676,0.424750,0.642819,-0.168711,-0.747208
0.050082,-0.096710,0.781520,0.991007,0.110565,-0.075370
0.129061,0.667445,0.849373,-0.068016,0.589730,0.804731
-0.351862,-0.092734,0.630978,0.548921,0.439526,-0.710987
0.003057,0.610190,0.488458,0.967326,0.061567,-0.245949
0.225325,0.110916,0.584372,0.885336,-0.319922,-0.337388
0.008563,0.090146,0.057792,0.915945,0.363888,-0.169205
-0.657850,-0.195063,0.791640,-0.477510,0.588587,-0.652341
0.459671,0.837890,0.553995,0.317768,0.359776,0.877260
-0.111477,0.559245,0.015751,0.779821,0.193800,-0.595248
-0.301858,-0.823874,0.314906,-0.483448,0.159841,0.860656
-0.099932,0.712392,0.812099,0.887117,0.357823,0.291525
-0.503710,-0.161606,0.251315,-0.826324,0.543699,0.146903
0.055813,0.042296,0.741325,0.992680,-0.069966,0.098445
-0.392998,0.725143,0.686965,0.902486,-0.091995,0.420781
0.179676,-0.664603,-0.963514,-0.263907,0.011416,0.964480
0.185640,0.391831,0.485822,0.989831,-0.120597,-0.075436
0.152077,-0.085159,0.409981,0.764587,0.641110,-0.066224
-0.461962,0.797298,0.500843,0.762410,0.092984,0.640379
0.390931,0.540813,0.826398,0.780526,-0.059188,0.622315
-0.721690,-0.204595,0.796910,0.285865,-0.637161,0.715756
-0.495529,0.828105,0.531707,-0.476921,0.273950,0.835163
0.284806,-0.382740,0.531455,0.271995,0.931242,-0.242503
0.072482,-0.243987,-0.343554,-0.616140,0.662499,0.425988
-0.860542,0.237232,0.480419,-0.157135,-0.361256,0.919132
-0.594542,0.358185,0.643330,0.230790,-0.703464,0.672216
-0.311570,-0.198282,0.906267,-0.315896,0.686377,-0.655054
-0.385811,0.750205,0.684448,-0.719291,0.461690,-0.519099
0.369371,0.801718,0.830426,0.998719,-0.045940,0.021187
0.096338,-0.130483,-0.058631,0.590302,-0.183066,0.786149
0.053522,-0.081371,0.025216,0.785048,0.607143,-0.122788
-0.582077,0.207753,-0.452475,0.067682,-0.245451,0.967043
-0.234575,0.437283,0.847074,0.439159,0.780453,-0.445008
0.242452,-0.497632,-0.955123,0.272940,-0.210798,0.938652
0.124857,-0.258506,-0.181901,-0.670407,-0.682891,-0.290199
-0.082194,0.720472,-0.000076,-0.049979,0.448423,0.892423
-0.025993,-0.733098,-0.971217,0.431853,0.039182,-0.901092
0.101309,-0.371630,0.553474,-0.074002,-0.206966,-0.975545
0.252009,-0.320497,-0.833044,0.846539,-0.357869,-0.394084
-0.169969,0.636324,0.614145,-0.159867,-0.911073,0.379985
0.215305,-0.140711,0.904656,-0.080150,-0.005558,-0.996767
0.325331,0.556972,0.839404,-0.659164,-0.004527,-0.751986
0.613885,0.415568,0.764687,0.521082,0.721362,-0.456191
0.143668,-0.186920,-0.030402,0.996657,-0.072720,-0.037240
0.547212,0.109463,-0.517207,-0.405623,-0.242456,0.881297
0.025998,-0.197021,0.965310,0.102992,-0.068748,0.992304
0.101766,-0.674452,-0.967324,-0.106628,0.033548,0.993733
0.362567,-0.486143,-0.963011,-0.048240,-0.058329,0.997131
-0.255523,-0.506471,-0.048545,-0.282390,0.776602,0.563156
-0.046639,0.575596,0.810890,0.909752,0.414900,-0.014426
-0.712898,0.044884,0.833060,0.947347,0.265241,0.179391
-0.382064,0.491573,0.433192,0.864304,0.456880,0.210333
0.199173,0.668393,0.674211,0.094236,-0.480634,0.871843
-0.742032,-0.232561,0.783803,0.332832,-0.358128,0.872334
0.233352,-0.212107,0.471910,0.359971,0.765566,-0.533225
-0.072940,-0.239253,0.214040,-0.578628,-0.235651,-0.780806
-0.503248,0.065717,-0.170372,-0.005760,-0.236186,0.971691
0.084256,0.698945,0.688711,-0.125688,0.973547,-0.190811
-0.225703,0.561708,0.824166,-0.759672,-0.268192,-0.592428
0.598975,0.418155,0.655548,0.851947,0.441584,-0.281407
0.180441,0.517140,0.898329,-0.017657,-0.625827,0.779762
0.424806,0.818573,0.563511,-0.615932,0.346454,-0.707529
0.143817,0.522946,0.841267,0.076580,-0.187385,-0.979297
0.196728,0.056752,0.949383,0.417611,0.503484,0.756376
0.438951,0.657535,0.534476,-0.125886,-0.505598,0.853535
0.170044,0.499778,0.841821,-0.112637,-0.900889,0.419179
0.334049,-0.671105,-0.649053,-0.408780,0.775893,0.480508
-0.141829,0.154788,0.191468,-0.602449,-0.598694,0.527846
-0.664271,0.482419,0.671542,0.816090,0.553746,0.165417
-0.055659,-0.169181,0.854711,0.954544,-0.159798,0.251616
-0.460740,0.230541,-0.165941,-0.045574,-0.455806,0.888911
0.271352,-0.581213,-0.960409,-0.079174,0.254290,0.963882
-0.694474,-0.309135,0.255897,0.032648,-0.948669,0.314581
-0.830036,-0.078341,0.790617,0.431644,0.070486,0.899286
-0.096339,-0.303831,0.931526,-0.798605,0.472830,0.372374
-0.271810,-0.442901,0.854895,0.734398,0.174398,0.655931
0.228153,0.645225,0.833396,0.891198,-0.273972,0.361532
-0.444761,-0.139447,0.257441,-0.109883,0.616459,0.779682
-0.333741,0.034026,0.772474,-0.706169,0.560822,0.432209
0.177002,0.312797,0.427804,0.937670,-0.282800,-0.201989
-0.111015,-0.277003,0.896231,-0.648073,0.046727,-0.760143
-0.369296,-0.789217,0.304618,-0.480314,0.290731,0.827511
0.151386,0.579508,0.676124,-0.608381,0.437919,-0.661891
-0.087696,0.412537,0.526303,-0.676606,0.553542,-0.485587
-0.319979,0.412221,0.449253,-0.106576,-0.953525,-0.281837
-0.063919,0.551418,0.026190,-0.701617,-0.130116,-0.700573
0.151620,-0.179470,-0.032416,0.993746,-0.111587,-0.004119
0.301401,0.615491,0.527108,-0.684964,0.727963,-0.029913
-0.672531,0.613156,0.775143,-0.084942,0.860332,0.502606
-0.929813,-0.061550,0.804547,0.300388,-0.090581,0.949506
0.110866,0.194242,0.932818,0.525834,0.340315,-0.779541
-0.820553,0.281800,0.492636,0.463922,0.323355,-0.824753
-0.784312,-0.107315,0.869479,-0.571539,-0.476718,-0.667895
0.229684,0.528059,0.497269,-0.563561,0.181166,-0.805964
0.272192,0.330345,0.761532,0.673199,0.365424,-0.642860
0.141297,0.672305,0.856238,-0.228209,0.577350,-0.783956
0.256979,0.339814,0.890341,-0.654007,-0.457873,-0.602185
0.101309,-0.090019,0.843634,0.376492,-0.926133,-0.023042
-0.608687,-0.411905,0.249318,0.126477,0.240817,0.962294
-0.304532,0.021906,0.616242,0.894635,0.432226,0.113178
0.040525,-0.578815,0.563057,0.524683,-0.396991,0.753064
-0.468845,0.783979,0.536322,-0.355700,-0.408123,0.840782
-0.237328,0.259768,-0.160939,0.084697,-0.387014,0.918176
-0.165074,0.399406,0.535114,-0.312434,0.789562,-0.528183
0.307593,-0.276307,0.407799,0.834395,0.547257,-0.065534
0.024542,-0.146961,0.543505,0.366136,-0.743079,-0.560158
0.040371,-0.023293,-0.002845,0.760301,0.429739,-0.487101
0.536204,0.416388,-0.354077,-0.515514,-0.060604,0.854735
-0.208198,0.447256,-0.359531,0.340984,0.809542,0.477883
-0.249638,0.301055,-0.067375,0.329088,0.736093,-0.591496
-0.238550,-0.076258,0.563125,0.952634,-0.060973,0.297943
0.190460,0.888834,0.442791,-0.278739,-0.298911,0.912665
-0.639804,0.433623,0.667967,0.826512,0.429636,0.363718
0.323880,-0.626538,0.511836,-0.053182,0.996322,-0.067188
-0.782398,-0.253646,0.823209,-0.215679,0.914321,0.342782
0.126541,0.717380,0.877082,-0.430490,0.852288,-0.297125
0.196345,-0.768890,0.022195,-0.254621,0.303722,0.918107
-0.730407,-0.216967,0.785783,-0.110225,0.873867,-0.473504
0.278082,-0.439809,0.531052,-0.075892,-0.982779,0.168483
-0.486429,-0.328261,-0.142344,-0.099137,0.051201,0.993756
0.170198,0.686446,0.688862,-0.311935,0.337563,-0.888115
-0.636976,0.212361,0.493157,0.507440,0.059291,-0.859645
0.259116,-0.273088,0.115223,0.861129,-0.266231,-0.433103
0.360961,0.645036,0.522594,0.122738,-0.992413,-0.007126
-0.037464,0.154283,0.063750,0.915945,0.363888,-0.169205
0.119429,0.452749,-0.394423,-0.089083,0.213682,0.972833
0.324412,0.086295,0.245391,-0.592162,-0.486085,0.642702
0.076533,-0.115144,0.347750,0.922289,0.383200,-0.050413
0.063005,-0.059276,0.045691,0.792253,0.512511,-0.331160
0.357060,-0.431475,-0.798891,0.154568,-0.228431,-0.961212
0.257436,0.781705,-0.038357,0.238244,-0.747623,-0.619918
0.080131,-0.098920,0.293759,0.841795,0.518347,-0.150658
0.094276,-0.196516,0.956717,-0.772754,0.569705,0.279797
0.449959,0.299729,0.607599,0.465111,0.117046,-0.877481
0.176619,0.482862,0.890575,-0.102504,-0.378978,0.919711
-0.110021,0.649769,0.784759,-0.426996,0.805972,0.409981
-0.403932,-0.105296,0.766684,0.948732,-0.308496,-0.068827
0.135716,-0.013445,0.513783,0.894969,0.427151,-0.128734
-0.479854,0.793322,0.527629,0.341753,0.811605,-0.473817
0.560900,-0.775960,-0.712157,0.935547,0.239709,-0.259407
0.393838,0.921848,0.464727,0.372446,0.341600,-0.862899
0.090066,-0.096648,0.312053,0.914740,0.334039,0.227307
-0.052220,0.046714,0.165488,-0.063396,-0.743255,0.665997
-0.187628,-0.367970,0.937332,-0.301520,0.947375,0.107544
-0.629407,0.728994,0.452978,0.395017,-0.275183,-0.876491
0.275174,0.370116,0.852780,-0.364620,-0.138034,-0.920869
0.599283,0.057005,0.317071,-0.533783,0.524043,0.663668
0.104827,-0.115081,0.049283,0.681524,0.683056,0.262601
-0.119579,-0.384634,-0.990870,-0.307378,0.106651,0.945592
-0.438643,-0.211982,0.285385,0.030146,0.787483,0.615599
0.035555,0.299666,0.836921,0.299569,-0.949665,0.091619
-0.590869,0.401995,0.731004,-0.157384,-0.929550,0.333416
-0.423887,0.236727,0.486158,-0.341091,-0.938707,-0.049860
-0.674823,-0.252509,0.767389,0.899208,-0.294488,0.323576
0.495683,0.331734,0.608002,-0.459412,0.760577,-0.458762
0.185794,0.724386,0.693276,-0.249521,0.406066,-0.879119
0.403470,0.507608,0.717577,-0.855722,0.439815,-0.272585
0.093660,0.651727,0.853586,-0.129977,-0.381637,0.915128
0.582385,0.092040,0.309350,-0.443878,0.565453,0.695151
0.328850,-0.249984,0.121684,0.469079,0.860928,0.196897
0.322886,-0.195820,-0.977343,0.153025,0.203553,0.967031
