0.257087,-0.434642,-0.964122,-0.055472,0.042324,0.997563
0.185231,-0.686496,0.083329,0.439175,0.427396,0.790227
-0.284106,-0.688421,0.497014,0.550980,0.169736,-0.817075
-0.302070,-0.441440,-0.281921,-0.596384,-0.254216,0.761381
-0.327006,0.150638,-0.574428,0.209033,0.139194,0.967952
0.109164,-0.269276,-0.968557,0.085257,-0.002258,-0.996356
-0.415229,0.063167,0.008319,0.125267,0.339907,0.932079
0.265464,-0.209338,0.574034,-0.089437,-0.942659,0.321552
0.030190,-0.059533,0.374298,0.492638,0.832453,-0.253633
-0.193899,-0.443235,0.255328,-0.603083,0.789162,0.116254
-0.083259,-0.315919,0.230311,0.880322,-0.473065,0.035251
0.032756,-0.371113,-0.371104,0.954317,0.298578,-0.011426
-0.151144,0.678672,-0.222958,0.513804,0.359119,0.779127
-0.206925,-0.086040,-0.747925,-0.495964,0.194667,0.846241
-0.249340,-0.118018,0.219568,0.524103,0.018605,0.851452
0.358092,0.386460,0.053423,0.198174,0.440346,0.875684
0.090425,-0.301383,-0.968735,-0.106776,-0.006815,0.994260
-0.049365,0.523396,0.086167,0.128814,-0.299179,0.945462
0.058904,-0.260042,0.162438,0.400066,0.173041,0.900002
-0.287834,-0.803767,0.315256,-0.123704,0.167550,0.978072
0.636072,-0.293602,-0.599385,0.186084,-0.320702,-0.928721
0.139862,-0.302281,-0.968045,-0.116350,0.154854,0.981062
0.453237,0.848699,-0.007708,-0.047544,0.241025,0.969354
0.398135,-0.728993,0.558007,0.660764,0.737105,0.141655
0.371796,0.084200,-0.496087,0.137193,-0.483054,0.864776
-0.411112,-0.125329,-0.572732,0.122454,0.159375,0.979594
-0.670645,0.064876,0.551856,0.297920,-0.088555,-0.950475
0.055707,-0.278767,0.475270,-0.747307,-0.116052,-0.654266
0.550563,-0.317886,0.492617,-0.282353,-0.162795,0.945397
-0.059678,-0.264915,0.486566,-0.438150,-0.755677,-0.486802
0.554484,-0.223232,0.492105,-0.209726,0.361467,0.908491
0.021378,-0.254698,0.011828,0.522992,-0.349237,-0.777505
-0.723423,-0.179240,0.663394,0.160596,-0.452072,0.877405
0.070669,-0.651825,0.789658,-0.475107,-0.808154,-0.348080
-0.025832,0.149312,-0.215152,0.686351,0.312629,0.656647
0.184506,0.174023,0.038402,-0.305815,-0.789488,0.532151
-0.653989,-0.122806,-0.243046,0.255080,-0.091981,-0.962535
-0.158649,-0.470128,-0.081239,-0.219255,0.042336,0.974749
-0.242658,-0.370642,0.804660,0.852733,0.428330,0.298963
0.196077,-0.682222,-0.503972,0.248610,0.587488,-0.770098
0.162669,-0.725444,-0.547204,0.285962,-0.855938,0.430808
0.470089,-0.387017,-0.366097,-0.010955,0.385839,0.922501
0.048251,-0.316176,-0.973091,-0.136750,0.066252,0.988388
0.067134,-0.275988,-0.787628,0.995256,-0.023914,0.094304
-0.639511,0.242127,-0.200919,0.481802,0.053634,-0.874637
0.100012,0.024262,-0.062846,0.942370,-0.166630,-0.290127
-0.280959,0.697825,0.090642,0.131291,0.259857,0.956680
0.156325,0.435454,0.074122,-0.132113,-0.131055,0.982533
-0.119816,0.107202,0.567390,0.190995,-0.286983,0.938702
0.246290,-0.383382,-0.301930,0.900200,0.128241,0.416167
-0.231860,-0.644172,0.962900,0.869317,0.460160,-0.180392
-0.702361,0.101943,0.257634,-0.502032,0.221423,-0.836024
0.174627,0.430880,0.079583,-0.096697,-0.025430,0.994989
-0.668176,0.106603,-0.183453,0.748444,0.660999,0.053961
-0.424863,0.036618,0.011907,-0.022181,0.204971,0.978517
-0.015566,-0.194588,0.171605,0.257569,0.949894,0.177084
-0.768792,-0.262906,0.143040,0.335169,-0.100536,-0.936778
-0.308897,-0.599282,0.487945,-0.501351,-0.370955,0.781690
-0.389420,-0.264787,0.648846,-0.051375,-0.989195,-0.137307
-0.094492,-0.611338,0.948430,0.979883,0.046821,-0.194002
0.550224,0.258118,-0.478818,0.082207,-0.276332,0.957540
-0.045684,0.837669,0.071500,-0.206986,-0.199477,-0.957792
0.107905,0.248712,0.046425,-0.172121,0.237105,0.956115
-0.769083,0.146875,-0.022217,-0.523681,-0.068785,0.849133
-0.330202,-0.340203,-0.467305,-0.370879,-0.919345,0.131354
0.099432,-0.232595,-0.469828,0.230269,0.307524,0.923258
0.401961,-0.162139,0.495220,-0.586561,0.713419,0.383380
0.029513,-0.100618,0.173951,-0.308905,-0.307532,-0.900001
-0.460695,0.015412,0.552172,0.260511,-0.053100,0.964010
0.690013,-0.323615,0.521616,-0.226618,-0.051633,0.972614
-0.058323,0.164917,0.429298,-0.273722,0.055511,-0.960206
-0.051301,-0.102883,-0.985511,-0.148073,0.022630,0.988718
0.097639,-0.752121,0.169200,0.893397,0.207065,-0.398706
-0.314271,0.039012,0.015790,-0.062699,-0.065963,0.995850
-0.258831,-0.466664,0.612140,0.485689,-0.728793,0.482667
0.005543,-0.187962,-0.144518,0.916496,0.310613,0.252102
-0.643143,-0.092880,0.600824,0.988988,-0.133761,0.063325
-0.383416,-0.085612,-0.566424,-0.599499,0.612443,0.515281
0.079724,0.368546,0.060599,0.186589,-0.038354,0.981689
-0.118170,-0.737843,0.564354,0.181364,-0.562472,-0.806680
-0.675535,-0.196340,0.377826,0.176999,0.695060,0.696823
-0.853625,-0.073983,0.148954,-0.205510,-0.300431,0.931401
-0.301101,-0.499840,-0.492065,-0.639993,0.616091,0.459173
0.307734,-0.457087,0.045479,-0.267805,0.019124,-0.963283
0.098996,-0.629807,-0.741952,0.534843,0.134232,-0.834221
0.259460,0.264615,-0.092613,0.072356,0.169441,0.982881
-0.229585,0.646480,0.083329,-0.164254,0.086673,0.982603
-0.234087,0.349778,-0.180476,-0.586952,0.437102,0.681491
-0.622757,-0.063766,0.493051,-0.146455,-0.474935,0.867749
0.234863,-0.280563,-0.962742,-0.217674,-0.071753,0.973380
0.168623,-0.124560,-0.972993,-0.160321,0.061649,0.985138
0.252342,-0.291849,-0.340036,0.245247,0.751960,0.611891
-0.204020,-0.572433,0.882015,0.330666,0.187836,0.924866
-0.452221,0.112075,0.333353,-0.511397,-0.039383,0.858442
-0.077546,-0.691414,-0.521497,0.157889,0.418676,0.894305
-0.505047,-0.163934,0.598932,0.684116,0.331149,-0.649866
-0.423798,-0.093393,-0.001676,-0.275997,-0.388191,0.879280
-0.285897,-0.715355,0.487196,-0.681304,-0.188431,0.707332
-0.080111,0.227721,0.128373,0.187324,0.347961,0.918604
-0.042199,-0.247986,-0.979518,0.173526,0.010616,-0.984772
-0.565815,0.144353,0.000256,0.015733,0.083435,0.996389
-0.215253,-0.250423,0.274410,0.012062,-0.698424,0.715582
0.427623,-0.216135,-0.480198,-0.065565,0.114884,0.991213
-0.477690,0.352600,0.088730,0.997671,0.032021,-0.060228
0.207214,-0.082876,0.077553,0.921471,0.278068,-0.271236
-0.564654,0.223359,0.556016,-0.213583,0.386465,0.897233
-0.130371,-0.371113,0.667712,0.494568,0.853420,0.164549
0.317468,-0.537163,0.420388,-0.053528,0.175323,0.983055
-0.120639,0.277912,0.422477,-0.345831,0.026736,-0.937916
-0.424574,-0.050427,0.236344,0.497941,0.832602,0.242545
0.587798,0.378038,-0.016480,0.998594,0.037760,-0.037214
0.116039,-0.800731,0.822797,0.721630,-0.404085,-0.562108
-0.294323,-0.795302,0.478897,0.654170,0.033454,-0.755608
0.008884,-0.336868,-0.411181,0.206041,-0.965971,-0.156356
-0.033386,-0.382571,0.838725,0.418716,-0.888042,-0.189892
-0.262995,-0.654390,0.901867,-0.520405,0.223904,0.824042
0.088052,-0.273765,-0.860528,0.973519,-0.228009,-0.016544
0.378138,-0.529211,-0.159008,-0.105046,0.348310,0.931475
0.087665,-0.221008,-0.943422,-0.452376,0.862281,-0.227656
0.149594,0.294115,0.081948,-0.425358,0.259569,0.867003
-0.106646,-0.476925,0.852919,0.956306,0.011015,0.292160
0.182084,0.416130,0.073176,-0.252148,0.213328,-0.943882
-0.053625,-0.253373,-0.977842,-0.262381,-0.050594,0.963637
-0.176903,0.286292,0.119286,-0.109302,0.689960,0.715547
-0.304588,0.315448,-0.176395,-0.033323,0.637962,0.769347
0.213558,0.690430,0.067459,0.071222,0.563999,0.822699
-0.098269,-0.574785,0.953989,0.867278,0.303422,-0.394669
-0.056870,0.815566,-0.231790,0.150936,0.413929,0.897709
-0.666577,-0.001091,0.487689,-0.048951,-0.053641,0.997360
-0.269434,0.087321,-0.122459,-0.140987,0.448786,0.882448
-0.431692,-0.366409,0.849134,-0.214262,0.344643,0.913955
-0.311318,-0.274150,0.806671,0.762135,-0.226926,0.606346
-0.608232,-0.265172,0.397638,-0.088756,0.494098,0.864864
-0.045346,-0.670122,0.946656,0.276603,0.921420,0.272902
-0.039294,-0.297194,-0.980464,-0.031953,0.173780,0.984266
-0.269579,-0.406341,0.831806,-0.045865,-0.974984,0.217492
-0.260962,-0.271499,0.660713,0.342257,0.925147,-0.164204
0.187217,-0.519719,0.070456,-0.349779,-0.328503,-0.877348
0.120978,-0.276245,-0.969858,-0.148028,-0.068875,0.986582
-0.615397,0.406724,-0.220809,-0.457651,0.357994,0.813877
-0.354074,-0.600650,0.744160,0.574694,0.142443,0.805876
-0.378331,0.357901,0.484417,-0.320100,0.219264,-0.921661
0.084662,-0.607405,0.722613,0.676836,0.517141,0.523887
-0.338530,-0.811291,0.462022,-0.656710,0.022174,0.753817
0.117153,-0.122421,-0.970450,0.010505,0.258945,0.965835
-0.224500,-0.589363,0.961500,0.435246,-0.317721,-0.842386
0.321245,-0.511853,0.256116,0.703438,0.039069,-0.709682
0.175935,-0.190313,-0.658347,0.107571,0.851920,-0.512504
-0.181891,-0.523183,0.954758,0.142298,0.613848,0.776493
-0.238833,-0.130673,0.029215,0.101147,-0.040015,0.994066
-0.154292,-0.689319,0.924577,-0.575640,0.817526,-0.017023
0.240092,-0.507108,-0.652769,-0.304816,-0.892631,-0.332112
-0.471299,0.155597,-0.171940,0.402824,0.003597,-0.915270
-0.000945,-0.408863,0.679934,0.442892,0.861388,0.248713
0.247258,-0.348582,-0.558874,-0.813717,0.186099,0.550665
-0.372328,-0.272269,-0.085911,0.196384,-0.119346,0.973237
-0.506742,-0.010496,0.557317,0.195935,-0.192618,0.961513
0.139765,-0.493513,-0.578292,-0.499448,0.073663,0.863207
-0.057160,-0.157522,0.356004,-0.156674,0.860584,-0.484612
-0.321970,0.494965,0.066217,-0.379530,-0.006581,0.925156
0.299939,-0.562558,-0.493150,0.494822,0.022984,-0.868690
-0.294710,-0.409503,0.849528,0.548879,-0.832435,0.076057
0.002300,-0.058978,0.022394,-0.151058,-0.306829,0.939701
-0.490571,-0.179326,0.673034,0.453446,0.294641,0.841174
-0.351846,0.040465,0.221164,0.519754,0.844502,0.129119
-0.509987,0.149526,-0.007057,0.052319,0.409147,0.910967
0.043554,-0.007375,0.442250,-0.257987,0.851499,-0.456500
-0.240188,-0.354739,-0.676227,-0.399042,0.373479,0.837424
0.029415,-0.129818,-0.267846,0.955618,0.226175,0.188782
-0.382642,-0.670464,-0.427898,0.901128,-0.182676,-0.393189
-0.034258,-0.662983,-0.522424,-0.489215,0.857652,0.158435
0.315386,-0.905816,-0.109705,-0.086230,0.052517,0.994890
-0.205666,0.672560,0.083841,-0.063739,0.230902,0.970887
0.285268,-0.379662,-0.959193,-0.326363,-0.044920,0.944177
-0.725118,-0.467390,0.427583,-0.450054,-0.002967,-0.892997
-0.722890,-0.305401,0.422201,0.059159,-0.162856,0.984875
0.018278,-0.390095,0.634692,-0.033360,0.877481,0.478450
-0.126256,-0.396293,0.596172,0.720688,-0.474443,-0.505482
0.763709,-0.243111,0.351430,-0.388107,0.327869,0.861321
0.662511,-0.399500,0.353224,-0.129975,0.492314,0.860659
0.147416,-0.377611,-0.968833,-0.156316,0.415262,0.896171
-0.400653,-0.329429,0.388531,0.802648,-0.581165,0.134174
0.073720,-0.262393,0.687129,0.963450,-0.242108,-0.114667
-0.425833,-0.392660,-0.069075,0.208752,0.142381,0.967549
-0.416148,-0.107929,-0.003923,-0.368588,-0.453272,0.811595
0.039051,-0.107801,-0.976738,-0.127769,0.173697,0.976476
-0.186056,0.306085,-0.203324,0.713053,-0.345375,-0.610141
0.387967,-0.385733,-0.322392,0.039103,0.842605,-0.537110
0.352379,0.310104,-0.098488,0.040202,0.013430,0.999101
0.046943,0.452898,0.078124,-0.115308,-0.058191,0.991624
0.118170,-0.647208,-0.719301,0.436721,0.303545,-0.846838
0.258831,-0.283640,0.615471,0.610070,0.347377,0.712140
-0.600097,-0.231910,0.216138,0.353094,-0.735408,0.578360
-0.451155,-0.019645,0.343742,0.248137,-0.253926,0.934853
-0.303959,-0.286804,-0.096477,0.370591,0.041415,0.927872
-0.357705,-0.127979,0.182684,-0.183574,0.782550,0.594909
-0.048300,-0.276715,-0.981391,0.000140,0.028348,0.999598
-0.174386,-0.185397,0.530093,-0.571122,-0.346742,-0.744036
0.070426,-0.156966,-0.277781,0.999807,-0.018237,-0.007323
-0.039147,0.436096,0.074950,0.135171,-0.065958,0.988625
0.120735,-0.456190,0.641414,0.902028,0.398390,0.166227
-0.419829,-0.220539,-0.573974,0.330720,-0.112149,0.937041
-0.619658,-0.405999,0.299052,0.197524,0.223221,0.954545
0.202954,-0.169877,0.542532,-0.378078,0.923908,0.058744
-0.259992,-0.033369,0.576675,0.734669,0.311719,0.602572
-0.403898,-0.266583,0.648885,0.012438,0.997893,0.063678
-0.382108,-0.448751,0.130641,0.275454,-0.848440,-0.451967
0.032563,-0.190868,0.074990,0.664566,-0.734302,0.138391
-0.317904,0.065945,-0.579474,0.140421,-0.429398,0.892132
0.005350,-0.054060,0.164252,0.378424,0.288939,-0.879380
-0.474349,-0.037387,0.622292,-0.206534,0.858353,0.469653
0.029173,-0.206430,-0.156721,0.806612,0.585883,0.078213
0.024041,-0.165388,-0.141897,0.904097,0.419839,0.079645
-0.415229,-0.189586,0.377176,0.192729,0.763937,0.615838
-0.108002,0.006690,0.429633,0.157175,0.111881,0.981213
0.503595,-0.203395,0.487571,0.265997,0.761714,-0.590794
-0.041036,-0.694876,0.969405,0.164920,0.874297,0.456514
-0.684977,-0.454479,0.313916,0.211436,0.132687,0.968343
-0.024670,-0.874223,0.562245,0.499959,-0.543057,-0.674633
0.012274,-0.218657,0.388038,0.958996,0.120696,0.256436
-0.053189,-0.159360,-0.008970,-0.006478,0.372417,0.928043
-0.216365,0.020542,0.017013,-0.074364,-0.097944,0.992410
-0.339305,0.280476,-0.158141,-0.132163,0.525543,0.840439
-0.509745,-0.369145,0.861474,0.691231,0.028161,0.722085
0.070282,0.280606,-0.242888,-0.380222,0.138538,-0.914461
0.011596,-0.229003,-0.975890,-0.135708,0.110192,0.984602
-0.721826,0.034607,0.479153,-0.330674,-0.942552,-0.047443
0.208812,-0.258375,-0.481164,-0.067395,-0.596289,0.799936
-0.698486,0.160770,-0.197981,0.665025,-0.462966,-0.586007
-0.161748,-0.008316,0.012005,-0.101104,-0.214717,0.971429
-0.830965,0.042944,-0.252272,-0.026346,-0.435527,0.899790
0.343179,-0.284752,-0.463323,0.283309,0.149089,-0.947369
-0.228132,0.390778,0.101997,-0.334182,0.115242,0.935437
0.159521,-0.639384,0.320973,-0.113331,0.337882,0.934340
-0.110810,0.313097,-0.178859,0.744322,-0.663670,0.074342
-0.648468,0.236357,-0.008496,-0.124446,0.261226,0.957222
-0.438614,-0.168124,0.349696,0.306696,0.930488,0.200324
-0.717080,-0.510742,-0.025686,-0.343765,-0.288365,-0.893684
-0.675052,0.159231,0.258245,0.018342,-0.172943,0.984761
-0.029126,-0.311301,-0.301358,0.983502,-0.179684,-0.020906
0.876431,-0.269020,-0.578745,0.183512,-0.082894,-0.979516
-0.248614,0.393942,-0.232736,-0.382784,0.403428,0.831097
0.023654,-0.561360,0.765923,0.910610,0.410509,0.047668
0.188669,-0.410872,-0.961598,0.061996,0.293377,0.953985
0.333010,-0.483850,0.419579,0.076386,-0.222839,-0.971858
0.136617,-0.839977,0.611075,-0.609395,0.299641,0.734066
0.021765,0.716979,-0.314606,0.945261,-0.036878,0.324224
-0.593802,-0.505184,0.404735,-0.467322,-0.014095,-0.883975
-0.451155,-0.370300,-0.075482,-0.254278,-0.112290,-0.960590
-0.146544,-0.393514,0.835216,0.079235,0.986305,-0.144653
-0.526982,0.231696,-0.167761,-0.442502,0.002329,0.896764
0.055756,-0.688421,0.148363,0.864294,0.132509,-0.485218
-0.016632,-0.070734,0.302186,0.875953,0.473683,0.091278
-0.709332,-0.288301,0.425770,0.079836,-0.099128,0.991867
0.041618,0.691242,0.074359,0.064469,0.117989,0.990920
0.226050,0.054274,-0.497329,0.007698,-0.178741,0.983866
-0.428204,-0.658024,0.633351,0.227019,-0.298984,-0.926861
0.147463,0.095316,-0.282197,-0.758940,0.338498,-0.556264
-0.199516,0.198307,0.577148,-0.103038,-0.345888,0.932601
-0.051979,-0.338235,-0.563092,-0.253289,0.464317,0.848678
-0.691272,-0.480431,0.411931,-0.749606,0.098115,-0.654572
0.011113,-0.135633,-0.006683,-0.707335,0.545860,-0.449125
-0.278392,-0.431265,0.754273,0.850959,-0.331486,0.407414
0.600484,-0.469443,0.087922,-0.145897,-0.146023,0.978464
0.181456,0.339732,0.059318,-0.754167,0.643826,-0.129307
0.410918,0.580256,0.046189,-0.321198,-0.055327,-0.945394
-0.334753,-0.202283,-0.765431,-0.143204,0.042186,0.988794
-0.477158,-0.391462,-0.072111,-0.238805,-0.073176,-0.968306
-0.256168,-0.327078,0.660654,0.695975,0.717697,0.023015
-0.610603,-0.081037,-0.003864,0.283329,0.046286,0.957905
-0.662558,-0.275603,0.405918,0.189904,0.610438,0.768961
-0.369423,0.269276,0.463284,0.053562,-0.391815,0.918483
-0.033724,-0.092495,0.154395,-0.542723,-0.243503,0.803840
-0.585812,0.307154,0.478877,0.058956,-0.278783,0.958543
-0.120833,-0.246746,0.512173,0.828654,0.492072,0.266828
-0.136472,-0.366923,0.572279,0.894964,0.408884,0.178478
-0.174821,-0.471367,0.810397,-0.024240,-0.142615,0.989481
-0.495411,-0.074582,0.330948,-0.120573,0.211821,0.969842
0.036920,-0.210320,0.402685,-0.181674,-0.974335,-0.132914
-0.569979,-0.303521,-0.245569,-0.173141,0.043936,-0.983917
0.023508,0.664437,0.081042,-0.022541,0.222397,0.974696
0.241496,-0.691756,-0.504425,0.295013,0.190128,-0.936386
0.342356,0.019260,-0.636446,-0.156333,0.060557,0.985846
0.255441,-0.555375,-0.156544,0.077149,0.330224,0.940745
-0.174531,-0.501379,0.546533,0.982966,-0.151899,0.103463
-0.530372,-0.029349,0.179490,-0.168616,0.357515,0.918560
-0.575936,0.014814,0.561240,0.008006,0.071661,0.997397
-0.247064,-0.295269,0.657875,-0.434110,-0.900136,0.036118
0.060986,-0.234434,-0.699963,0.403718,0.909219,0.101653
-0.223096,-0.641735,0.916218,-0.725217,0.010944,0.688433
0.057934,-0.259143,-0.205256,0.805826,0.519005,0.285093
-0.739450,0.239947,-0.033217,-0.387487,0.316385,0.865883
-0.425929,-0.732071,0.641710,-0.567413,0.193492,0.800377
-0.593366,-0.220026,0.390187,0.020194,0.710372,0.703536
0.291901,0.479489,0.041970,0.254060,-0.059824,0.965337
0.271419,-0.312242,-0.960652,-0.182403,-0.022821,0.982959
0.312093,0.911288,-0.018964,-0.080572,0.572093,0.816221
-0.289819,-0.018319,0.590277,0.194023,0.361641,0.911905
-0.207312,-0.345076,0.716482,0.986820,0.144889,0.072071
-0.155986,0.280647,0.115698,-0.640951,0.320381,0.697523
0.071153,-0.254612,0.488675,0.878185,-0.008344,0.478249
-0.405108,-0.502662,0.291364,0.032615,0.066145,0.997277
0.263140,-0.348710,-0.330376,0.391675,0.450940,0.802024
-0.606439,0.362947,-0.214343,-0.471351,0.366256,0.802299
-0.286044,0.569868,-0.224910,-0.762210,0.037014,0.646271
-0.433047,-0.400783,0.844974,-0.514076,0.105206,-0.851268
-0.169931,0.095231,0.557474,-0.027878,-0.441699,0.896730
-0.445491,-0.907612,0.454985,0.562244,-0.096830,-0.821283
0.109357,-0.201299,-0.797386,0.751494,-0.628586,0.200340
0.314320,-0.556059,0.549668,-0.299488,-0.205739,-0.931654
-0.513086,-0.128407,0.669841,0.087637,0.473946,0.876182
0.241205,-0.196896,-0.485520,-0.077220,-0.416006,0.906077
-0.216027,-0.395524,0.756836,0.155523,-0.382133,0.910927
-0.784772,0.217459,-0.034774,-0.297061,0.238155,0.924682
-0.013437,0.678373,0.073846,0.167877,-0.000727,0.985808
-0.047718,0.237040,0.303823,0.360820,-0.081832,0.929039
0.004140,-0.198607,0.310308,0.946705,-0.242766,-0.211696
0.519573,-0.200402,-0.622371,-0.122245,-0.004246,0.992491
-0.070669,-0.744469,0.569046,0.148120,-0.475670,-0.867063
-0.145188,-0.283854,0.114712,-0.471526,0.385062,-0.793342
0.359593,0.916931,-0.022335,0.111452,0.584210,0.803914
-0.133325,-0.332721,0.553335,0.872541,0.244775,0.422798
-0.693354,0.076762,0.556469,-0.473664,0.818597,0.324871
-0.278732,0.628951,0.076547,-0.189380,-0.105038,0.976270
-0.642658,0.225711,-0.197094,-0.415591,-0.108632,0.903041
-0.115458,-0.279366,-0.091352,-0.250464,0.619832,0.743691
-0.027575,-0.351489,0.604274,-0.770148,0.627178,-0.116279
0.290255,-0.452770,0.220810,0.925623,0.229298,-0.301071
-0.173804,-0.125756,0.569125,0.181265,-0.165739,0.969368
0.287690,-0.197794,-0.646677,-0.285722,-0.262794,0.921576
0.238687,-0.304034,0.396081,-0.010154,0.035835,0.999306
-0.192495,-0.150980,0.546474,0.276797,0.558332,-0.782080
0.058128,-0.866100,0.810535,0.760503,-0.341503,-0.552278
-0.289819,-0.620659,0.696099,-0.559662,-0.285584,0.777959
-0.100448,-0.123148,-0.018846,0.290571,0.862082,-0.415191
-0.128435,-0.485988,-0.262188,0.613706,-0.219866,0.758303
0.093573,-0.528869,0.712067,0.609332,0.521363,0.597407
-0.463358,-0.273038,0.658170,-0.144016,0.759667,-0.634165
-0.023508,-0.685685,0.981115,-0.549654,-0.772134,-0.318888
-0.182085,-0.439089,0.219094,0.782526,-0.601278,-0.161610
-0.217818,-0.169021,0.567351,-0.452905,0.490181,-0.744715
0.054933,-0.605182,0.144578,0.921206,0.319473,-0.222075
0.274906,-0.783245,-0.123622,-0.054396,0.485656,0.872456
-0.215591,-0.038627,0.523548,0.338405,-0.136900,0.930989
-0.529887,-0.050256,0.188617,-0.017788,0.531123,0.847108
-0.875124,0.263205,-0.060086,0.222216,-0.008729,-0.974958
-0.384481,0.113102,-0.562146,-0.135297,0.361954,0.922325
-0.219319,-0.661359,0.672068,0.734233,-0.398436,0.549682
-0.222031,0.735875,0.073610,0.238291,0.411497,0.879709
-0.259073,0.353412,0.073531,0.770553,0.340324,-0.538913
0.009854,-0.288943,-0.978158,-0.107422,0.037995,0.993487
-0.424380,0.429982,0.137560,-0.296275,0.704665,0.644724
-0.421426,-0.276972,-0.256136,0.122496,-0.277111,0.952997
-0.293500,-0.100874,0.164646,0.116028,0.397737,0.910133
0.193801,0.513307,0.074674,-0.546267,0.095606,-0.832137
0.114199,-0.387188,-0.595757,0.963514,0.105759,0.245877
-0.297809,-0.195529,0.273503,-0.125481,0.433944,0.892159
-0.284832,-0.567346,0.207424,0.701397,-0.383742,-0.600653
-0.667692,0.068254,0.260493,-0.368358,-0.363800,-0.855548
-0.002881,0.527287,0.080273,0.265030,-0.343085,0.901139
-0.003850,-0.217161,0.269147,0.558356,-0.487502,-0.671253
0.011355,-0.764990,0.577050,-0.077232,-0.427034,0.900931
-0.091780,-0.241188,0.524040,-0.636583,-0.741030,-0.213627
0.204407,-0.164191,0.412147,0.359660,0.720944,-0.592355
0.167316,0.111049,0.014489,-0.059992,-0.742898,0.666710
-0.647790,-0.268079,0.186863,-0.580263,-0.466789,0.667386
-0.236799,-0.307369,0.703649,0.907335,0.388753,0.160046
-0.514151,0.262649,-0.294557,0.089468,-0.748117,0.657508
-0.132019,-0.238751,0.312378,-0.082206,-0.890824,0.446849
-0.247500,-0.438405,0.866639,0.649937,0.623610,0.434388
-0.031061,-0.420961,0.699391,0.611672,0.725868,0.314600
-0.283090,-0.603515,-0.255998,-0.010171,-0.049233,0.998736
0.122964,0.564780,0.063852,-0.220213,-0.276492,-0.935445
0.014114,-0.303264,-0.096418,-0.377858,-0.066492,-0.923473
-0.075028,0.565635,0.090603,0.108708,0.081595,0.990719
-0.115797,0.639040,-0.210499,0.794857,0.535432,0.285507
0.281976,-0.171588,0.431427,-0.169469,0.798072,0.578240
0.444813,-0.096215,0.413586,-0.184740,0.810206,0.556271
-0.173998,0.172784,0.576695,-0.077199,-0.333876,0.939451
0.218932,-0.358800,-0.966389,-0.121776,0.085439,0.988873
-0.482726,0.024048,0.016244,-0.112686,0.042897,0.992704
-0.196079,-0.426819,0.037554,-0.553079,0.297349,0.778259
-0.482194,-0.464611,0.857078,0.630518,-0.041451,0.775067
0.109938,-0.583378,0.898003,-0.550204,0.472415,0.688549
-0.068733,-0.466579,0.826877,0.870188,0.481016,-0.106755
-0.094298,0.301212,0.101071,0.732428,0.255940,0.630907
0.397554,0.704239,0.047509,0.243417,0.204719,0.948071
0.255247,-0.099549,0.292724,-0.634572,0.575128,-0.516281
-0.374410,-0.218145,0.753583,0.746550,0.656386,-0.108724
-0.174338,-0.204677,0.142764,0.340020,-0.444647,0.828659
-0.412807,-0.571749,0.748990,0.232446,-0.017757,0.972447
-0.736787,-0.029820,0.280620,0.421414,0.292411,0.858432
0.214962,-0.325410,-0.175015,-0.275361,0.816805,0.506958
0.323907,-0.428829,-0.954422,-0.150808,-0.182944,0.971488
0.410918,-0.452941,0.422753,-0.181006,-0.102077,0.978170
0.055127,0.831512,0.064916,-0.320651,-0.355378,-0.878003
-0.124997,0.045083,-0.118260,0.016769,-0.177185,0.984035
-0.089892,-0.470470,0.798667,0.724167,0.621373,0.299128
0.385305,0.350334,-0.108581,0.010021,0.157319,0.987497
0.040891,-0.194288,-0.225442,0.465346,0.880464,0.090758
0.013195,-0.044527,0.523469,-0.493957,0.533046,-0.686927
-0.120494,-0.113187,-0.990222,-0.190425,-0.021227,0.981472
-0.328750,-0.215452,-0.590987,0.260761,-0.251769,0.931996
-0.135794,-0.663111,0.513415,0.375043,0.352019,-0.857570
0.039002,-0.181805,0.166815,-0.338046,0.835974,0.432287
-0.456772,-0.311515,0.826246,0.275332,-0.199997,-0.940316
0.791018,-0.385434,0.530329,-0.359807,-0.191052,0.913257
-0.679748,-0.026016,0.269403,0.318752,0.451200,0.833556
0.042101,0.124558,-0.221815,0.705769,0.265855,0.656667
0.048734,0.548535,0.068051,-0.108554,0.224409,0.968430
-0.149158,-0.488169,-0.079682,-0.096861,0.060847,0.993436
0.011936,-0.040807,0.016599,-0.055078,-0.378961,0.923772
0.514392,0.459994,0.026396,0.578918,0.262454,0.771992
-0.458080,-0.354397,0.850632,0.214836,0.487416,0.846328
0.015664,-0.203138,-0.233722,0.398615,0.912769,0.089207
-0.426607,0.023535,0.023203,-0.006764,0.222621,0.974882
0.096914,-0.232081,0.697775,0.973283,-0.223803,-0.051309
-0.015422,-0.382484,0.818046,0.896316,-0.437341,-0.073153
0.384481,0.772771,0.012104,0.159590,0.405735,0.899950
-0.497882,-0.057609,0.205788,0.523531,0.849417,-0.066378
-0.356350,0.506081,0.068819,-0.410443,-0.013523,0.911786
0.206682,-0.650541,-0.147574,0.059078,-0.166604,0.984252
0.034451,-0.401723,0.873381,0.527031,-0.838748,-0.136893
-0.508099,-0.265001,-0.253908,0.172558,-0.128121,0.976631
-0.207795,0.240589,0.583614,-0.156059,-0.382431,0.910710
0.098996,-0.003784,-0.980405,-0.210119,0.041958,0.976775
0.105725,-0.362220,-0.973860,0.075669,0.030615,-0.996663
0.032029,0.349949,-0.118083,0.424539,-0.344785,-0.837192
-0.488876,0.138069,0.007925,-0.140116,0.346907,0.927374
0.201259,0.388426,0.052162,-0.569270,0.396361,-0.720298
0.415421,-0.285779,-0.467404,0.095464,-0.052583,-0.994043
-0.489021,-0.308522,0.833757,-0.412628,-0.078725,0.907491
0.175063,-0.198094,-0.962485,0.110299,0.109390,0.987860
-0.643626,0.143456,-0.002858,-0.072665,0.135445,0.988117
-0.003027,0.667471,0.077001,0.126726,0.045734,0.990883
-0.519283,0.159017,-0.005224,0.055942,0.416271,0.907518
-0.622708,-0.132298,0.609380,0.413795,0.871634,-0.262732
-0.166203,-0.541396,0.955645,-0.533420,-0.532589,-0.657124
-0.063213,-0.038370,0.171270,0.839623,-0.348188,0.416891
0.284154,-0.679742,0.335620,-0.064943,0.372393,0.925800
-0.604551,-0.045554,0.266367,0.164720,0.458318,0.873391
-0.529306,-0.294672,0.403592,-0.117215,0.737704,0.664871
-0.776250,0.165431,-0.032152,-0.335024,0.177908,0.925261
-0.035613,-0.380860,-0.430146,-0.514919,0.649373,0.559619
-0.542622,-0.285180,0.823901,0.290432,0.109091,-0.950657
0.670161,-0.347299,0.526130,-0.177252,-0.056926,0.982518
-0.061518,0.306043,0.074674,-0.333769,-0.234837,0.912935
0.417068,-0.734978,0.564650,0.340804,0.793140,0.504758
0.106839,-0.204848,-0.873223,0.987513,-0.144281,0.063256
-0.224742,-0.422929,-0.587044,0.776585,-0.001553,-0.630011
0.094928,-0.739937,0.178426,0.893397,0.207065,-0.398706
0.053916,0.732627,0.088592,0.324886,0.081144,0.942266
-0.241690,0.434428,0.610740,0.370057,0.246656,-0.895667
-0.035081,0.583463,-0.172098,0.926266,0.199056,0.320013
-0.297664,-0.162695,0.575749,0.225919,0.754440,0.616263
-0.147609,-0.395439,0.282177,-0.664337,0.740235,-0.103481
0.262074,0.423483,0.049067,0.138631,-0.688331,-0.712026
0.023072,-0.251876,0.571924,-0.141857,0.955901,0.257158
-0.014599,-0.284453,-0.095945,0.358226,0.037649,0.932875
0.273599,-0.202240,0.584265,-0.670766,0.611437,0.419783
0.146787,-0.340288,-0.966191,-0.180631,-0.161391,0.970219
0.543396,-0.559693,0.500187,-0.584404,0.273209,-0.764087
0.214768,-0.443278,0.714925,0.645635,-0.016037,-0.763478
0.118993,-0.389881,0.389792,-0.040948,0.342415,0.938656
-0.327442,-0.120626,0.403533,-0.567474,-0.478098,-0.670370
-0.304152,-0.316732,-0.087764,-0.305843,-0.014467,-0.951972
0.395472,-0.480944,-0.018905,-0.501096,-0.560072,0.659713
-0.179131,-0.712191,0.916869,-0.516365,0.267467,0.813529
0.244595,-0.633826,0.608453,-0.584142,-0.803378,0.115595
0.308848,-0.291679,-0.103870,0.400680,0.826218,0.396003
0.115458,-0.699451,0.331894,-0.287644,0.392407,0.873657
-0.735915,0.011436,0.268950,0.347142,0.652961,0.673152
-0.191381,-0.430111,0.286297,-0.662226,0.695803,-0.278055
-0.623580,-0.386931,0.284917,-0.198300,-0.010885,-0.980081
0.108437,-0.349095,0.148107,-0.181574,-0.072384,-0.980710
-0.196998,-0.401510,0.033375,-0.476319,0.375987,0.794829
-0.121511,-0.324256,-0.069923,-0.137614,0.221004,0.965515
-0.487326,0.675082,-0.130818,-0.265961,0.634724,-0.725527
-0.079433,-0.030119,-0.128492,0.473798,-0.116513,0.872892
-0.272775,0.187363,0.457094,0.118733,-0.241352,0.963147
-0.342985,-0.296082,0.890926,-0.790906,-0.250216,-0.558444
-0.319937,-0.195914,0.276322,0.091624,0.374479,0.922697
-0.126449,-0.279152,0.549195,0.894315,-0.062834,0.443005
0.337610,-0.137300,-0.627831,0.422293,0.089542,-0.902026
-0.347537,0.316944,-0.235496,-0.223078,0.603184,0.765771
-0.237477,0.437463,0.083703,-0.121566,0.239526,0.963249
0.245612,0.470468,0.042542,0.200417,-0.140939,0.969520
0.148433,-0.170433,-0.936247,0.875482,-0.475610,0.085597
-0.246047,-0.472222,0.892897,0.930981,0.339635,-0.133876
-0.351167,0.251961,0.463087,0.099962,-0.397930,0.911954
0.076625,-0.415362,-0.312260,0.542693,0.802250,0.248755
0.199709,-0.403049,-0.372918,-0.305692,0.486869,0.818237
-0.268660,0.185481,0.459716,0.107960,-0.319509,0.941413
-0.184941,-0.551954,0.198750,-0.030406,0.070995,0.997013
0.099334,-0.105833,-0.975141,-0.202898,0.157626,0.966430
-0.091587,-0.380561,0.373667,0.506114,-0.578049,-0.640084
-0.323133,-0.249225,0.733239,-0.455920,-0.889164,0.039038
0.131824,-0.350634,-0.972401,-0.212029,-0.115814,0.970377
-0.460840,0.434513,0.054034,0.408077,-0.019172,-0.912746
-0.726231,-0.306342,0.426045,0.059159,-0.162856,0.984875
-0.298825,0.043885,-0.574586,-0.109130,-0.495625,0.861653
-0.085874,-0.286078,-0.979518,-0.110122,0.062356,0.991960
0.085534,-0.676493,0.765549,0.869509,-0.493369,-0.023278
0.211523,-0.289626,-0.364677,-0.320862,-0.831868,-0.452818
-0.410289,0.311600,0.485797,0.110440,-0.548522,0.828811
0.106501,-0.026784,0.183650,-0.151789,-0.317256,0.936114
-0.287979,-0.495564,0.916021,0.935629,0.350465,-0.042113
-0.628471,-0.271842,0.398171,-0.206053,0.359036,0.910294
-0.532938,-0.179582,-0.229700,-0.337108,-0.380632,0.861091
-0.007142,-0.458199,0.428864,-0.679828,0.477588,0.556546
-0.495122,-0.196169,0.212510,-0.653886,0.749544,0.103040
0.110858,0.340288,0.068169,-0.256647,-0.255494,-0.932124
0.147174,-0.426221,0.402448,0.120298,0.449590,0.885097
0.060114,-0.057652,-0.978571,-0.193900,0.230512,0.953555
0.491490,0.891152,0.002267,-0.136717,0.280592,0.950040
0.343226,0.407280,-0.092101,0.037874,0.096192,0.994642
0.091199,-0.870546,0.607960,-0.595123,0.356938,0.720016
-0.085292,-0.261282,0.504800,-0.480770,-0.876269,-0.031833
0.016438,-0.203309,0.407889,0.992641,0.116220,0.033998
-0.272582,-0.572305,0.968419,0.840470,-0.371414,-0.394540
-0.477254,-0.080396,-0.286416,0.059879,0.734361,0.676113
0.039923,0.145251,-0.245727,0.720309,0.282602,0.633475
0.121026,-0.064449,-0.974176,-0.169033,0.086845,0.981777
0.049413,-0.513691,0.539890,-0.715393,0.623391,0.315589
0.379688,0.467390,0.043507,0.042052,0.189579,0.980964
-0.196611,-0.110366,0.143553,-0.325383,0.314290,-0.891823
0.096091,-0.275176,-0.971061,-0.126437,0.090368,0.987850
0.092265,-0.527373,-0.236068,-0.378879,0.921795,-0.082124
-0.569350,0.690729,-0.145110,0.418542,-0.555096,0.718812
-0.002591,-0.096086,0.296962,0.944247,0.329208,0.004457
0.209683,-0.416900,0.723284,-0.513987,-0.125088,0.848628
0.100642,-0.839337,0.354387,0.203340,-0.380352,-0.902211
0.211427,0.236742,-0.087330,0.094683,0.069235,0.993097
-0.143929,0.246232,0.128531,0.036298,0.277876,0.959931
0.094105,-0.313483,0.600390,0.874055,0.006750,-0.485781
-0.300860,-0.583079,0.883987,0.345768,-0.337438,-0.875546
0.385013,-0.420662,-0.370079,-0.703355,0.016908,-0.710638
0.102239,-0.051966,-0.036134,0.939553,-0.329340,0.093681
-0.649872,-0.095616,0.569854,0.405177,0.383880,0.829740
-0.140007,-0.503174,0.526544,0.856732,-0.388878,0.338798
-0.059146,-0.681025,-0.518954,0.123267,0.410549,0.903468
-0.556422,0.094676,0.242297,0.309660,0.181549,-0.933355
0.169738,-0.335928,-0.981489,-0.192781,-0.114708,0.974514
-0.872121,0.046365,-0.090780,-0.693206,-0.371442,0.617654
-0.176564,-0.550929,0.522542,-0.786489,0.429648,0.443665
-0.211476,-0.568886,0.176829,0.444775,0.573371,-0.688056
-0.264979,-0.282829,-0.701993,0.247865,-0.447459,-0.859269
-0.174821,-0.330882,-0.091667,-0.418228,0.562309,0.713368
0.162716,0.564652,0.066750,0.160624,0.239317,0.957563
-0.336933,-0.199290,0.364165,-0.002393,0.687952,0.725752
-0.893136,0.009470,0.294320,-0.273181,-0.146334,-0.950767
0.486067,0.007930,-0.632148,0.179123,-0.068252,-0.981456
0.019731,-0.072316,-0.978355,-0.118229,0.025291,0.992664
-0.284009,-0.009984,0.007846,0.175290,0.531323,-0.828836
-0.026414,-0.094589,-0.981943,0.282116,-0.028725,-0.958950
0.201404,0.386118,0.051787,-0.569270,0.396361,-0.720298
-0.135747,-0.363033,0.321525,-0.032347,-0.999061,-0.028811
0.205375,-0.598385,0.084689,0.316999,0.316800,0.893952
-0.597482,-0.219170,0.371459,-0.106249,0.857019,0.504212
0.094347,-0.270175,-0.593077,0.941219,0.337596,0.011648
0.107082,0.647762,0.070436,-0.166813,-0.060031,-0.984159
-0.158892,-0.296724,0.592781,0.891470,0.381632,0.244209
0.533470,-0.567945,0.272636,0.715589,0.509772,-0.477562
0.149498,-0.056112,-0.972539,-0.210617,0.018435,0.977395
-0.313061,0.195912,0.010488,-0.228632,0.121671,0.965880
0.095751,-0.754816,0.146845,-0.733025,-0.033270,0.679388
-0.269483,-0.490776,-0.613145,0.816033,0.068379,-0.573946
-0.238204,-0.632586,0.344688,0.904902,-0.153732,-0.396886
-0.413581,-0.469955,0.143592,0.341091,-0.491326,-0.801408
-0.302747,-0.480686,0.280640,0.101573,-0.603708,0.790708
-0.039536,0.609627,-0.173753,0.930716,-0.154936,0.331304
-0.128193,-0.434258,0.350090,-0.773571,0.386181,0.502446
0.291514,-0.443620,-0.660713,0.497675,0.171814,-0.850176
-0.401138,-0.224044,-0.086147,-0.205118,-0.004147,0.978728
0.153516,-0.452299,0.645159,0.752665,-0.116834,0.647954
0.103934,-0.678630,0.544464,0.694015,0.236593,0.679976
0.084130,-0.582096,0.725215,0.563941,0.502441,0.655380
-0.081176,-0.104808,-0.446468,-0.355246,-0.675472,0.646172
-0.691514,-0.360167,0.426519,0.270393,0.018694,0.962569
0.119719,0.406640,0.067006,-0.020445,-0.231828,0.972542
0.113472,-0.517625,0.183551,-0.328819,0.154784,0.931622
-0.150079,-0.475643,0.913143,0.142697,-0.662573,0.735278
-0.099964,-0.218358,-0.983835,-0.136993,0.120878,0.983169
-0.680813,0.214938,-0.200327,-0.296966,0.162538,0.940953
0.041375,-0.079627,-0.981154,-0.202963,0.005662,0.979170
-0.138506,0.176973,0.109725,-0.454255,0.283834,0.844447
0.031013,0.069067,-0.988389,-0.081922,0.111091,0.990428
-0.107566,-0.357689,0.231967,0.795392,-0.543760,-0.267725
0.037259,-0.342554,0.566523,-0.533380,0.084775,-0.841617
0.054255,-0.200873,-0.081258,0.093207,-0.986604,-0.133885
0.029366,-0.493898,-0.592229,0.225675,0.359112,0.905599
0.213460,-0.469101,-0.957675,0.229501,0.170567,0.958247
0.034306,-0.596203,0.279496,0.576857,-0.153002,-0.802388
-0.026025,0.019046,0.576380,0.426292,-0.122004,0.896320
-0.046654,0.573502,-0.169890,0.935078,0.353268,-0.028816
-0.378525,0.003057,0.332860,-0.273564,0.485242,0.830483
-0.014937,-0.401382,0.659728,0.408058,0.909080,0.084039
-0.420457,-0.746693,0.636663,-0.567413,0.193492,0.800377
-0.337562,0.455206,0.074694,0.399256,0.003988,-0.916831
0.154292,-0.772814,0.557711,-0.135003,0.416100,0.899242
-0.284784,-0.175862,0.598183,-0.518220,-0.432642,-0.737746
-0.547609,0.089159,0.268063,0.022216,0.023993,0.999465
-0.391163,0.332122,0.477576,0.118345,-0.501214,0.857192
0.577871,-0.153674,0.463915,0.443782,-0.724675,-0.527166
-0.225518,-0.517967,0.808780,0.910611,-0.158512,0.381656
0.582180,0.419508,0.029176,-0.548471,0.017888,-0.835979
-0.249873,-0.021697,0.353382,0.527257,0.682715,0.505865
-0.047186,-0.416858,0.715418,-0.544994,-0.785360,-0.293584
-0.017795,-0.334687,0.042975,-0.022104,0.815194,0.578766
0.260139,-0.314422,-0.135135,-0.291510,-0.884053,0.365339
0.090279,-0.128749,0.401719,0.367582,0.389471,-0.844509
-0.446362,-0.369744,0.856230,-0.543503,0.491796,-0.680251
-0.958407,0.077874,0.155203,0.164625,0.111597,-0.980023
-0.177145,-0.167397,0.362805,0.111325,0.103215,0.988409
-0.461325,0.714029,0.082540,-0.120764,-0.266416,0.956263
0.118121,-0.831086,0.354604,-0.092740,0.381105,0.919869
-0.070960,-0.538359,0.841229,0.223680,0.748592,0.624161
-0.088150,-0.485689,0.833126,0.950653,0.223478,-0.215212
0.110567,-0.229432,-0.230863,-0.603762,-0.769962,-0.206470
-0.630262,-0.049058,0.264908,0.175715,0.533671,0.827236
-0.187508,0.642462,-0.208508,0.135085,-0.728776,-0.671296
-0.129354,-0.074069,-0.443728,0.353272,0.856661,-0.375940
0.195739,-0.293389,-0.350346,0.360497,0.797313,0.484080
-0.255538,0.029862,0.020068,0.139769,0.019892,-0.989984
0.013969,-0.198179,-0.509492,0.037844,0.872818,0.486576
0.609538,0.741689,0.025726,-0.275222,-0.059617,-0.959530
-0.015132,-0.320322,-0.975398,-0.024312,0.212934,0.976764
-0.346907,-0.251363,-0.603347,0.511518,-0.367744,0.776604
-0.459290,-0.665505,0.157983,-0.364053,0.335930,0.868687
0.097833,-0.592399,0.302107,0.472049,-0.263197,-0.841366
0.416875,-0.344648,0.070712,-0.400516,-0.433862,0.807063
-0.451446,0.701075,0.088158,0.047487,0.330630,-0.942565
0.648517,0.206557,-0.490015,0.003045,-0.230095,0.973163
-0.129597,-0.680854,0.941649,-0.531638,0.846963,-0.003834
0.325262,-0.179411,0.460741,0.079230,-0.956309,-0.281417
0.216753,-0.582907,0.639857,0.624052,0.431053,0.651730
-0.070766,-0.057737,-0.133518,0.695706,0.461901,0.550128
0.080498,0.765930,0.068879,0.533529,-0.202556,-0.821168
-0.052077,0.628525,-0.150078,0.980728,-0.077325,0.179427
-0.470282,-0.276801,0.841189,0.378585,0.231010,-0.896274
0.507663,-0.238494,0.498118,0.142395,0.468872,0.871712
0.052028,0.178983,-0.086818,0.571909,0.776855,-0.263470
-0.007868,0.760074,-0.222209,0.088734,0.261789,0.961037
0.175305,-0.133836,0.404538,0.360096,0.340872,-0.868411
-0.006173,0.008871,0.507599,0.097473,0.953291,0.285893
-0.425639,0.432633,0.048613,-0.335782,-0.189127,0.922757
-0.286284,-0.597187,0.237526,-0.946070,0.079693,0.314008
-0.572399,0.080737,0.153212,0.041053,0.244464,0.968789
-0.019343,0.014600,-0.220297,0.967088,0.038229,0.251553
-0.316402,-0.102755,-0.760877,-0.076318,0.069281,0.994674
-0.296114,-0.175093,0.389970,-0.042505,0.879232,0.474494
-0.219030,0.667813,0.086778,0.052733,0.236008,0.970319
-0.238349,0.036703,0.181836,0.408523,0.252686,0.877074
-0.193463,0.201001,0.575985,-0.103038,-0.345888,0.932601
0.198984,-0.581925,0.651290,-0.658935,-0.581850,-0.476713
0.305314,-0.297622,0.053049,0.344821,0.409144,-0.844808
-0.283234,-0.212714,-0.740493,-0.514992,0.545331,0.661360
0.098849,-0.201386,-0.725038,0.877049,0.473921,-0.078641
-0.040019,0.276501,-0.223195,-0.044090,-0.006229,0.999008
-0.260768,-0.466707,0.645435,-0.047604,0.614051,0.787830
-0.084953,-0.584148,0.536421,-0.046972,0.144590,0.988376
0.381043,-0.097626,-0.625584,-0.303360,0.010200,0.952822
0.257038,-0.356962,-0.652985,0.321427,0.132944,-0.937556
-0.578114,0.166542,0.264120,-0.097616,-0.186235,0.977644
-0.048929,0.343921,0.085103,0.307960,0.450013,-0.838241
-0.560198,-0.307925,0.406845,0.027677,0.305216,0.951881
-0.139958,-0.847203,0.504386,0.415485,0.346484,-0.841024
-0.054013,0.382526,-0.172906,0.708863,-0.704764,0.028660
-0.254522,0.039951,0.012163,0.139769,0.019892,-0.989984
-0.213218,-0.398004,0.753622,-0.155193,-0.544642,0.824185
0.093475,-0.094418,-0.975752,0.293444,-0.183152,-0.938268
0.332574,-0.569312,0.546080,0.297461,0.220879,0.928832
0.014937,-0.178385,0.003627,0.554471,-0.517701,-0.651574
-0.475512,-0.128706,0.671516,0.338983,0.548802,0.764138
-0.900738,-0.331224,0.417983,0.063659,-0.302044,0.951166
0.214139,-0.644386,0.079386,0.104578,0.317776,0.942381
0.572691,0.769137,0.035563,-0.145868,0.174542,0.973785
0.040891,-0.206088,-0.777968,0.974224,-0.223164,-0.032954
-0.646048,-0.279708,0.166578,-0.501953,-0.044647,0.863742
0.000120,-0.111733,-0.004928,-0.127822,-0.553294,0.823120
-0.000605,0.579529,-0.269600,-0.755772,-0.207496,-0.621091
0.461663,0.299672,-0.090898,0.035762,0.093226,0.995003
-0.046847,-0.173212,0.186489,0.161444,0.892379,0.421420
-0.338918,-0.227635,0.652907,-0.224204,0.697548,0.680558
-0.350297,0.049999,-0.144992,0.323599,-0.165913,-0.931534
-0.021717,0.260554,-0.220514,-0.546697,-0.008177,-0.837291
0.292241,-0.292107,0.275218,0.561118,0.410685,-0.718669
-0.020362,-0.591458,-0.358606,0.584536,0.176257,-0.791992
0.063793,-0.224728,0.470716,-0.032989,0.694681,0.718561
-0.055465,0.367606,-0.160959,0.773710,-0.633102,-0.023567
-0.199177,-0.116180,-0.454886,-0.506747,0.837563,-0.204193
-0.281927,-0.566747,0.655864,0.883535,-0.448608,-0.134596
0.725118,-0.168936,0.497920,0.045637,0.471790,0.880529
0.062681,-0.299545,0.650048,0.963894,-0.211410,0.161907
0.080062,0.004938,-0.983184,0.208895,-0.112282,-0.971471
-0.003074,0.493769,0.084748,0.141431,-0.194305,-0.970692
0.286382,-0.436053,0.401305,-0.107976,0.301489,0.947336
0.495315,0.310618,-0.095984,0.021489,0.022546,0.999515
-0.606875,-0.299930,0.177499,-0.611600,-0.011307,0.791086
0.104902,0.029948,-0.298027,0.818910,-0.312800,0.481188
0.010531,-0.005323,-0.985550,-0.166364,0.010596,0.986008
-0.455126,-0.164832,0.644962,0.940302,-0.195857,0.278338
0.696889,-0.188645,0.505904,-0.139600,0.471494,0.870750
-0.349715,-0.263590,-0.602894,0.548037,-0.429463,0.717786
-0.246581,-0.329343,-0.700988,-0.377192,0.555904,0.740741
0.040068,0.446655,0.077612,-0.134353,-0.155576,0.978645
-0.276601,-0.330627,0.804207,-0.651304,-0.508729,-0.563026
0.272049,0.573417,0.064049,0.263200,-0.141836,0.954258
-0.712237,-0.038370,0.281132,0.314700,0.691950,0.649745
0.167462,-0.646267,0.320145,-0.113331,0.337882,0.934340
-0.200436,-0.800475,0.928776,-0.327867,0.323427,0.887636
-0.097252,-0.179881,-0.985629,0.354435,-0.044590,-0.934017
-0.486116,-0.018875,0.566345,0.566821,0.222643,0.793186
0.026704,-0.559009,0.851874,0.583680,0.796218,0.159234
-0.345551,0.248284,0.470381,0.099962,-0.397930,0.911954
-0.293064,-0.204848,0.276598,-0.137721,0.373992,0.917149
-0.232345,0.435882,0.090287,0.119481,-0.353608,-0.927731
-0.056434,-0.226823,-0.976620,-0.299404,0.124754,0.945935
0.185958,-0.210962,0.397638,-0.253580,-0.637552,0.727478
0.093379,-0.496933,-0.531117,0.328656,0.055391,0.942824
0.506064,-0.512067,0.051511,0.720143,0.504087,-0.476750
0.071686,0.841816,0.065941,0.209924,0.283634,0.935673
0.443601,-0.250294,-0.621444,-0.307323,-0.136949,0.941699
-0.202178,-0.151365,0.543438,-0.282896,-0.415109,0.864670
0.136908,-0.097368,0.487275,0.542096,-0.271148,-0.795368
0.079386,0.213869,-0.095137,-0.319349,0.162048,0.933679
0.088973,-0.337980,-0.425533,0.555222,-0.776444,-0.298100
0.223339,0.776575,0.047233,0.885997,0.388699,0.252830
-0.134003,-0.224044,0.561062,-0.522396,-0.189811,0.831309
0.009176,-0.259913,0.554379,-0.307644,0.709246,-0.634291
-0.388790,-0.322246,-0.431644,-0.248175,-0.725785,-0.641597
0.005786,-0.812018,0.570722,-0.595750,0.387947,-0.703263
0.051059,0.186507,0.099454,-0.407761,0.865584,-0.290682
-0.794988,0.149570,-0.066572,0.431515,0.329366,-0.839829
-0.162233,-0.788889,0.531374,0.924397,0.048246,-0.378368
0.719985,-0.159916,-0.612415,-0.192081,0.239025,0.951826
0.336933,-0.202711,0.125141,0.133953,0.804037,-0.579294
0.889795,-0.329172,0.551836,0.364896,0.195214,-0.910353
0.050478,-0.205490,-0.054527,0.134651,0.990746,0.017052
-0.698486,-0.107758,0.277091,0.449708,-0.138168,-0.882424
-0.851445,0.168295,-0.044256,-0.488341,-0.027075,0.872233
-0.280572,-0.641094,0.098212,-0.366301,0.617099,0.696428
-0.829560,0.028622,0.288840,-0.391351,-0.282244,-0.875890
-0.238930,-0.263633,0.603288,-0.321925,-0.941221,-0.102314
0.362789,-0.583335,-0.483253,-0.246915,-0.078550,0.965848
-0.682604,-0.399671,0.421570,-0.013153,0.028271,0.999514
0.249873,-0.809794,0.354309,-0.103570,0.360966,0.926810
-0.253988,-0.681323,0.513494,0.472095,0.038179,-0.880721
0.425929,-0.702016,0.434147,0.800886,0.400418,-0.445249
0.062777,-0.262992,0.481972,0.753743,0.057600,0.654640
-0.549110,-0.258075,-0.077040,0.776684,0.360619,0.516445
-0.242271,0.037942,0.209060,0.274755,0.081895,0.958020
-0.449026,-0.075693,0.040846,0.205974,0.043441,0.977593
-0.021572,0.756910,0.074694,-0.153558,-0.036378,-0.987470
-0.089262,-0.403690,0.540836,0.789300,-0.396564,0.468767
0.013485,-0.176247,-0.534390,0.703054,0.678884,-0.211733
0.319501,0.617707,0.052043,0.190781,0.190231,0.963024
-0.209683,-0.646438,0.686084,0.549768,-0.615975,0.564208
0.093862,-0.091555,0.128157,-0.736285,0.191816,-0.648915
-0.909259,0.011736,-0.260276,-0.689479,-0.183204,0.700753
-0.669531,-0.085142,0.476315,-0.074110,-0.346901,0.934969
0.547222,-0.545671,-0.007846,0.826586,0.515984,-0.224757
-0.705944,-0.309036,0.410768,0.227500,0.033314,0.973208
-0.479869,-0.480431,-0.063694,0.300550,0.090838,0.949431
0.483887,-0.251405,-0.619768,0.179367,0.026953,-0.983413
-0.222854,0.363929,0.068524,-0.455286,-0.582900,0.673010
-0.232054,-0.069366,0.555740,0.798449,0.598215,0.067958
0.050720,-0.214938,-0.656534,0.357296,-0.905306,0.229695
-0.621208,0.197623,-0.012478,0.148245,-0.230624,-0.961684
0.583005,0.734935,0.025194,0.034411,0.169351,0.984955
-0.265368,-0.385477,0.836892,0.969337,0.220184,0.109105
-0.043747,0.455591,0.083486,0.034213,-0.036920,0.998732
-0.276165,-0.303606,0.789166,-0.765471,-0.598814,-0.235533
-0.164508,-0.448964,0.562225,-0.727649,0.606011,-0.321368
-0.804914,0.032256,0.489148,-0.330674,-0.942552,-0.047443
-0.306573,-0.078985,-0.532793,0.223491,-0.956347,-0.188289
0.301537,0.567003,0.052260,-0.189601,0.019214,-0.981673
0.165670,-0.304975,-0.972756,0.183965,-0.124934,-0.974961
-0.038519,-0.512281,0.104422,-0.263199,0.606085,0.750592
0.060259,-0.155512,-0.969464,-0.280941,0.016474,0.959584
-0.286867,0.263590,0.567706,-0.365949,-0.397936,0.841266
0.466941,0.316645,-0.095452,0.035762,0.093226,0.995003
0.127708,-0.776149,0.589923,-0.025272,0.628605,0.777314
0.165718,-0.460294,-0.079169,-0.152277,0.226239,0.962095
-0.152306,-0.143285,0.556075,0.800485,0.345372,-0.489838
-0.100061,0.458754,0.121513,0.650987,0.156303,0.742822
0.345744,-0.135590,0.430974,-0.341161,0.858191,0.383558
0.468247,-0.351489,0.458494,-0.660181,-0.496559,0.563551
-0.421620,-0.341015,-0.421275,-0.154524,-0.848017,-0.506941
-0.231715,-0.274578,-0.468626,0.496829,-0.007693,0.867815
0.407820,-0.366024,-0.341810,-0.751338,0.636167,-0.175449
0.091151,0.563540,0.076429,-0.091274,0.473493,0.876056
-0.189444,-0.111477,0.560037,0.333192,0.311737,-0.889833
0.238978,-0.429469,-0.964161,0.037640,0.038574,0.998547
0.415180,-0.495436,0.285785,0.649670,0.527909,-0.547029
-0.102433,-0.490135,0.810811,0.909989,0.243943,0.335278
-0.620530,0.283256,-0.179589,0.205618,0.040828,-0.977780
-0.450381,-0.028923,0.512153,0.352563,0.871275,-0.341437
-0.176129,-0.198136,-0.989158,-0.097395,0.063824,0.993197
-0.057983,-0.202711,0.401049,-0.111885,0.976429,0.184577
0.064810,-0.195998,0.770359,0.889580,-0.331857,0.313876
0.018231,-0.688720,0.961165,-0.316194,-0.869711,-0.378979
0.237041,-0.615527,0.559130,0.069892,-0.232441,0.970096
-0.657184,-0.021569,0.275494,0.300865,0.442457,0.844815
-0.757752,-0.204165,-0.224417,0.840936,0.436917,-0.319266
-0.079239,0.100489,0.136200,-0.077162,0.476361,0.875857
0.577775,0.431478,0.001834,-0.589270,0.003511,-0.807929
0.076528,-0.208311,-0.705029,-0.450392,-0.871769,-0.192786
-0.133954,-0.304290,-0.095156,-0.105240,0.903287,0.415929
-0.182423,-0.687010,0.962367,0.208323,-0.813582,0.542850
0.221159,-0.223061,-0.960770,0.055625,0.079002,0.995321
-0.162571,-0.164362,0.355550,-0.270879,-0.184164,-0.944832
-0.491054,-0.068810,-0.288111,-0.166116,0.766488,0.620404
-0.252440,-0.469443,0.290969,-0.208720,0.696318,0.686715
0.141411,-0.626857,0.478542,0.770321,0.606113,0.198073
-0.040213,-0.868023,0.563349,-0.615164,-0.344296,-0.709248
-0.311464,-0.236229,0.623435,-0.230024,-0.970244,0.075602
0.327635,0.048459,0.278195,-0.074893,-0.453196,0.888259
-0.711269,-0.418526,0.301575,0.231757,0.124951,0.964715
0.037550,-0.232595,0.473377,-0.362908,-0.669452,-0.648175
0.368308,-0.267951,-0.481085,0.191414,0.114482,-0.974810
-0.492894,-0.266669,-0.253987,-0.172056,0.092358,-0.980748
-0.025881,-0.517283,0.806434,0.802880,0.595866,0.018092
0.158892,-0.610654,0.534232,-0.593971,0.158058,-0.788806
-0.059969,0.023322,0.155460,0.929036,0.057981,0.365417
0.048202,-0.710481,0.772942,-0.302266,-0.128041,-0.944585
-0.195303,-0.252004,0.295504,0.125271,0.850485,-0.510865
0.049364,-0.239905,-0.292172,0.981448,0.053963,0.183976
-0.035468,-0.139736,0.359118,0.146137,-0.980134,0.134092
-0.170899,-0.428829,-0.424665,0.085039,0.460364,0.883648
0.742985,-0.412155,-0.593609,0.348465,0.196121,-0.916574
-0.171916,-0.535965,0.096280,0.667172,-0.510470,-0.542496
0.107566,-0.187875,-0.437834,0.854130,0.516414,-0.061468
-0.258104,-0.356534,0.763814,0.983345,-0.116220,-0.139737
0.385643,-0.600394,0.458829,-0.136886,0.261066,0.955566
-0.574773,-0.003399,0.623948,0.565350,0.266260,0.780695
-0.285946,0.024433,-0.081239,-0.037815,0.888635,0.457053
0.044183,-0.231910,0.443748,0.169442,-0.968242,-0.183838
0.066698,-0.290353,-0.972263,-0.218687,0.076047,0.972827
0.302021,0.465509,0.039979,0.289574,0.047196,0.955991
-0.392180,-0.724333,0.461490,-0.534143,-0.198607,0.821734
-0.522624,-0.134991,0.335167,0.411633,0.871475,0.266626
0.056869,-0.189415,-0.248881,0.959521,0.228103,-0.165191
-0.256264,-0.505013,0.939815,0.920187,0.060493,-0.386778
