-0.374519,-0.009395,0.583371,-0.516121,0.832788,-0.200210
-0.260573,-0.290439,0.741730,-0.085238,0.899541,0.428439
-0.358166,-0.046352,-0.510817,-0.538646,0.841329,-0.045023
-0.173548,0.023930,0.629641,0.882868,0.302670,-0.359076
-0.343458,-0.037667,0.135041,-0.277718,0.119491,-0.953202
-0.403033,0.040148,-0.296548,-0.619211,-0.752008,0.225969
0.086255,-0.484891,0.663734,-0.238456,-0.857544,0.455804
-0.336184,-0.151291,-0.959318,0.187094,0.019330,-0.982152
0.581330,0.491092,0.156834,-0.225212,0.966486,-0.123226
-0.164787,-0.205797,-0.948849,-0.116932,-0.024547,0.992837
0.888284,0.134627,0.419472,-0.484610,0.863001,-0.142769
-0.222928,0.189311,0.904677,0.541330,0.676631,0.499132
-0.278626,-0.021626,0.880126,0.342060,-0.181196,0.922043
-0.347706,0.231322,0.856820,-0.629266,0.759397,-0.165346
-0.414926,0.350527,0.870462,0.180034,0.742853,0.644792
-0.556218,0.699368,0.305578,-0.070957,0.888511,0.453336
0.237103,0.193831,0.326468,0.280584,0.957065,-0.072799
-0.492979,-0.082515,-0.792540,0.331305,0.942174,-0.050457
-0.342184,0.001773,-0.265311,0.668046,-0.721955,0.180262
-0.382909,-0.011610,-0.958781,0.201587,-0.128652,-0.970985
-0.060398,0.094832,0.546960,0.489110,0.870966,-0.046788
-0.230680,-0.278030,0.391602,0.929154,-0.341556,-0.141467
0.448642,-0.288665,0.446829,0.008671,0.121586,0.992543
-0.678233,-0.044137,0.483509,-0.421423,-0.501253,-0.755743
-0.712853,-0.163522,0.217527,0.180409,0.638928,0.747813
-0.294556,0.131701,0.481190,0.928185,0.335486,-0.161001
-0.076593,0.333953,0.680890,0.774110,0.627228,-0.085672
-0.106327,0.058050,0.288006,0.230507,0.973070,0.001368
-0.530784,-0.080741,0.954559,-0.180994,0.759810,0.624444
0.608994,-0.317646,0.382109,-0.456854,0.603017,0.653954
-0.226751,0.487812,0.796883,-0.138291,-0.513905,0.846627
-0.143176,0.109543,0.817627,0.462935,-0.799861,-0.381986
-0.673508,-0.113890,-0.977109,0.008670,0.048491,0.998786
0.082379,0.068510,0.271997,-0.020560,-0.986591,0.161911
-0.375953,0.268544,0.512306,0.186163,-0.947747,0.259072
-0.575439,0.656119,1.000000,0.837688,0.527781,-0.140448
-0.016275,-0.617301,0.682232,-0.601896,0.527624,0.599444
-0.464996,-0.155810,0.890986,-0.314305,0.534980,0.784225
-0.248892,-0.346895,0.754469,-0.148499,0.806140,0.572788
-0.647543,0.161836,0.500323,0.524160,-0.361329,-0.771167
-0.020522,-0.256227,0.828585,0.164175,0.473750,-0.865221
0.728462,0.382965,-0.307920,-0.543544,0.396556,-0.739799
0.622800,0.517680,0.257843,0.278417,0.855381,0.436815
-0.587916,0.358504,0.364807,0.942872,-0.252678,-0.217131
0.482730,-0.406453,0.073396,0.349621,0.158536,0.923380
-0.652111,-0.812640,0.446121,-0.381015,-0.072678,0.921708
0.235352,-0.635204,0.102559,-0.346087,0.174058,-0.921915
-0.392891,-0.077906,-0.573146,-0.760503,0.649303,0.006354
-0.280167,0.746520,0.384354,0.830637,-0.411065,-0.375590
0.318873,0.488699,0.183800,0.425073,-0.703044,0.570125
-0.297105,-0.151202,0.333691,0.607048,0.792247,0.061953
-0.608730,0.091465,0.937232,0.441026,-0.780154,-0.443685
-0.390767,-0.157761,0.137579,0.776963,-0.592606,0.212475
-0.051107,0.024106,0.040670,-0.351407,0.281237,0.892983
-0.625562,-0.029515,-0.977060,0.037534,-0.181076,0.982753
-0.510500,-0.024817,-0.877540,-0.208750,0.953330,0.218139
-0.097619,0.469644,0.704123,0.361909,0.131866,0.922840
-0.691455,-0.020741,-0.975449,0.053622,-0.000372,0.998561
0.136166,0.237880,0.730650,0.841258,0.507018,-0.187666
0.174769,-0.633254,0.105585,0.129801,-0.111513,0.985249
0.668516,-0.374459,0.343014,-0.242467,0.136237,-0.960546
-0.711684,-0.092796,0.199346,-0.486935,0.129882,-0.863727
-0.617650,-0.249668,0.924957,0.813545,-0.473251,0.337902
-0.511934,-0.162102,0.914292,0.560385,0.764256,0.319188
0.413491,0.153947,0.104999,-0.067342,-0.808818,0.584191
-0.564872,0.299743,0.615658,0.264166,0.617811,0.740625
-0.524572,0.004518,0.173477,-0.132455,0.982959,-0.127461
-0.487935,0.182309,0.519407,0.944344,0.247225,0.217014
-0.045266,-0.069042,0.832294,0.975986,-0.131808,-0.173429
-0.491545,-0.104407,-0.692824,-0.642048,-0.750788,0.155216
-0.589138,-0.178855,0.888350,0.308879,-0.202449,0.929305
0.655507,-0.397414,0.272925,0.781346,-0.512822,0.355687
-0.437014,0.390763,0.896550,0.234278,-0.708322,0.665878
0.610428,0.486484,0.156639,-0.268671,0.957579,-0.104207
-0.365493,-0.139149,0.958342,-0.138004,-0.001317,0.990431
0.593968,0.187183,0.400974,-0.524444,-0.094728,0.846159
-0.773755,-0.543473,0.424109,0.387065,-0.673222,-0.630042
-0.326095,0.037400,0.188779,0.989163,0.146759,-0.004183
-0.876339,-0.146328,-0.987334,-0.273401,0.044540,0.960868
-0.399847,-0.005673,0.022147,0.958669,0.174342,-0.224853
0.487721,-0.241957,0.318463,0.062736,0.946736,0.315841
-0.345953,-0.117787,0.015314,0.712679,0.691248,-0.119438
0.203015,-0.041389,0.570852,-0.710613,-0.419867,-0.564571
-0.281123,0.656828,0.481508,0.873584,0.360527,-0.326911
-0.481615,0.081628,-0.960904,-0.092379,-0.181266,0.979086
-0.422042,-0.511833,0.563335,0.036443,-0.999287,-0.009869
-0.110097,-0.559693,0.677718,0.270984,0.775162,-0.570694
-0.404838,-0.053888,0.266677,0.954029,-0.286319,0.088601
-0.805455,-0.332714,0.222603,-0.535980,0.263390,0.802092
-0.626092,0.282635,0.515088,-0.509810,0.328771,-0.794986
-0.194999,0.046882,-0.004527,0.112100,-0.993608,0.013319
-0.136539,0.583532,0.672202,-0.456075,0.540849,0.706738
-0.437014,0.033324,-0.416617,0.580302,0.795097,-0.176268
-0.386678,-0.017726,0.942211,0.138127,-0.304295,0.942510
-0.584411,0.047680,0.348236,0.780670,-0.624328,0.027711
-0.531526,-0.300985,0.855893,-0.355356,0.908686,-0.219114
-0.038841,-0.039263,0.865728,0.166223,0.985712,0.027246
0.271033,0.338737,0.085573,0.105676,-0.890327,0.442890
-0.617969,-0.143315,-0.972350,0.079872,-0.089542,0.992775
-0.652960,-0.145530,0.603651,-0.669493,-0.117516,0.733464
0.024132,0.155632,0.791588,-0.464604,0.205019,0.861458
-0.452998,0.057342,-0.957463,0.089888,0.278267,0.956288
-0.398520,-0.321281,-0.958781,0.043193,-0.072519,0.996431
-0.041868,0.316759,0.680427,-0.709196,-0.648158,0.277366
-0.094911,-0.016573,0.852672,0.237608,0.485921,0.841085
0.168980,-0.639193,0.107684,-0.116826,-0.026738,-0.992792
-0.515917,0.530974,0.609434,-0.695437,0.673986,0.249219
0.101175,0.110874,0.712616,0.604301,0.348469,-0.716512
-0.396342,-0.025348,-0.519310,0.887404,-0.460254,-0.026069
-0.242308,0.039528,-0.958000,0.105608,0.094589,-0.989899
-0.502960,0.387661,0.889205,-0.245012,-0.729768,0.638285
-0.300768,-0.175663,0.022049,0.668665,0.742541,-0.039000
-0.556908,-0.105913,0.744439,0.954428,0.287712,0.079299
-0.680570,-0.019500,0.910168,0.908387,-0.386790,-0.158828
0.744285,0.469379,0.067563,0.302991,-0.374662,0.876256
-0.078398,-0.533811,0.559772,0.163667,0.651078,0.741155
-0.687102,-0.948418,0.431943,-0.347472,-0.077271,0.934501
0.229086,-0.385270,0.544226,0.997495,-0.055560,0.043789
-0.864284,-0.234069,-0.982331,-0.172191,0.104784,0.979475
-0.233707,-0.017639,0.919002,0.053888,0.007962,0.998515
-0.409616,0.044492,0.955682,0.191906,-0.118739,0.974204
-0.316272,-0.153685,0.143338,0.600496,0.799124,0.028396
-0.468767,0.084019,0.933425,0.670646,0.692690,-0.265356
-0.638410,-0.243906,0.920198,-0.491406,-0.170362,-0.854106
-0.355139,-0.679697,0.455249,-0.038913,0.372631,0.927163
-0.491440,-0.220511,0.789318,0.973374,-0.107694,0.202348
-0.544961,0.301426,0.318268,0.306519,0.826115,-0.472842
-0.354290,0.207923,0.422962,0.972052,0.227853,0.056560
-0.346326,-0.490030,0.575171,-0.399743,0.251719,-0.881387
-0.516288,-0.011524,0.903847,0.785368,-0.565880,-0.250954
-0.304644,-0.686786,0.457933,-0.134671,0.459866,0.877717
0.007088,0.121420,0.768892,-0.223365,-0.889457,-0.398716
-0.482200,0.103341,0.941064,0.370232,-0.844066,0.387920
-0.477315,-0.333244,-0.955145,-0.114919,0.020176,0.993170
-0.000028,0.312150,0.398997,-0.586014,0.808161,0.058849
0.008999,0.220508,0.050285,0.052558,-0.944610,0.323958
-0.410307,-0.043694,-0.571437,-0.759232,0.649946,0.033714
-0.616269,-0.103076,-0.971447,0.023119,0.119081,0.992615
-0.138397,0.157404,0.388479,0.943154,0.253293,-0.215183
-0.399953,0.004077,-0.425402,0.835497,0.537501,-0.114177
0.234554,-0.602057,0.609337,-0.231651,0.861202,-0.452403
-0.526323,0.250465,0.654924,-0.244164,0.920604,0.304750
-0.619987,-0.240009,0.946823,-0.758598,0.136285,-0.637146
-0.432342,0.127890,0.951069,0.807803,0.103474,0.580300
-0.275759,0.216608,0.875807,-0.419567,0.539559,0.729959
-0.401599,-0.100593,-0.637329,-0.503675,-0.840844,0.198227
-0.595827,-0.146858,-0.974107,0.231747,0.028131,-0.972369
0.543420,-0.318622,0.350701,0.189200,0.510481,0.838816
-0.886745,-0.277675,-0.989799,0.258196,0.101249,-0.960772
-0.395598,-0.016663,0.795346,-0.213452,-0.972015,-0.098108
-0.303954,0.003190,0.314876,0.956566,-0.044024,0.288171
0.616162,-0.530622,0.484485,0.641329,-0.285889,-0.712014
-0.671225,0.503767,0.355265,-0.370930,-0.670422,0.642608
-0.283777,-0.050961,0.900772,-0.148811,-0.794338,0.588967
-0.182362,0.229371,0.893744,0.782412,0.549641,0.292790
-0.329227,-0.382965,0.554159,0.234619,0.598384,-0.766088
0.563331,-0.256670,0.319244,-0.209527,-0.915257,-0.344097
-0.583403,0.094034,0.678816,0.994472,-0.099880,0.032404
-0.290148,0.439332,0.766964,0.765013,0.155861,0.624869
-0.143442,0.115483,0.303186,-0.039803,-0.996308,0.076063
-0.528235,0.273242,0.907435,0.755330,-0.472258,-0.454367
-0.299176,-0.041214,-0.135431,-0.455346,0.888754,-0.052690
-0.552818,0.051405,0.884543,0.902924,-0.087485,-0.420802
-0.239547,0.594522,0.657999,0.883159,0.194165,0.427002
0.420342,-0.289462,0.429844,-0.378865,0.914500,0.141954
-0.467492,-0.098113,0.942382,-0.487214,0.125413,-0.864230
-0.278362,-0.157052,0.888448,-0.742492,0.164436,-0.649359
-0.574271,-0.137021,0.895574,-0.983805,0.076097,0.162289
-0.429581,-0.028185,-0.616439,0.931985,0.107648,-0.346144
0.857381,0.520163,0.198467,0.389186,0.033844,-0.920537
-0.347706,-0.046620,-0.192879,0.546682,-0.835490,0.055634
-0.340803,0.035363,0.318731,0.904994,0.348618,0.243829
0.215918,-0.263229,0.141483,0.924735,0.153210,-0.348413
-0.897099,-0.641230,0.428843,0.669804,-0.608619,-0.425377
-0.581332,-0.307987,0.813576,0.489253,0.782462,0.385208
-0.527863,0.107063,0.780874,-0.052531,-0.203248,0.977717
-0.452359,-0.016752,-0.952265,-0.580952,-0.119845,-0.805066
-0.442006,0.431621,0.342574,-0.809525,-0.091663,-0.579886
-0.940054,-0.111052,-0.992703,0.089833,0.010118,-0.995905
0.026415,0.031374,0.060437,0.423585,-0.061044,-0.903797
0.562109,-0.363113,0.354166,0.125391,0.439589,0.889403
-0.445829,0.362225,0.868217,0.287966,-0.673351,-0.680936
-0.578412,0.383763,0.334570,0.883621,0.445330,-0.144554
0.594021,-0.103696,0.271460,-0.131735,0.764923,0.630506
-0.147742,-0.142782,0.792417,0.815076,-0.531446,-0.230687
-0.429050,0.025878,0.159103,0.883853,-0.060569,0.463827
-0.815012,-0.323318,-0.981794,-0.239500,0.159123,0.957768
-0.117318,-0.600551,0.647090,-0.191915,-0.584127,0.788647
-0.294131,-0.163078,0.682013,0.796061,0.260845,0.546120
-0.348714,0.079853,0.442949,-0.751225,-0.188793,0.632470
-0.216396,-0.511654,0.633961,0.384429,0.589224,-0.710654
-0.364749,0.222547,0.498371,-0.069711,-0.909006,0.410912
0.037300,-0.636445,0.555916,0.078550,-0.878341,-0.471537
-0.534766,-0.220511,0.780484,0.982793,0.062401,0.173852
-0.087213,0.655232,0.653777,0.064842,0.919404,0.387933
0.776409,-0.265444,0.329396,0.412143,-0.375531,-0.830129
0.209174,0.220862,-0.409857,0.621512,-0.289576,0.727921
-0.245813,-0.006736,0.755445,-0.483143,0.593301,0.643869
0.087582,0.068953,0.263187,0.129411,0.901686,-0.412571
-0.391883,-0.044492,-0.265115,0.351815,0.929990,-0.106515
-0.026523,0.055127,0.296060,0.109354,0.992373,0.056897
-0.354927,-0.291147,0.164033,0.390885,-0.801387,-0.452756
0.697454,0.403437,-0.291814,0.497638,-0.203130,0.843264
-0.381316,-0.029515,-0.314388,0.574421,0.782256,-0.241073
-0.387688,-0.115396,0.114688,0.580854,0.780333,0.231710
-0.798127,0.119648,0.251620,0.035233,-0.662210,0.748490
0.001726,0.342992,0.376643,-0.586014,0.808161,0.058849
0.022591,-0.217141,0.706490,0.648043,0.220322,-0.729039
-0.426608,0.207479,0.671397,0.320644,0.945461,-0.057359
-0.288290,-0.148986,-0.952094,-0.153808,0.026527,0.987745
-0.361776,-0.146593,0.114322,0.369920,0.848089,0.379346
-0.197070,-0.249492,-0.954096,0.114840,0.039317,-0.992606
0.252768,0.367721,0.131844,0.112183,-0.935215,0.335838
-0.441156,0.041654,0.301770,0.976871,0.105777,0.185837
0.716780,0.546572,0.195002,0.412624,0.758347,-0.504630
-0.526164,0.375608,0.869120,0.690101,-0.586197,-0.424422
-0.346538,-0.033857,-0.019658,0.959314,-0.106632,-0.261433
0.530941,-0.340869,0.364953,0.716532,0.674590,-0.177512
-0.418644,0.517504,0.849035,0.304038,0.668710,0.678519
0.307828,0.363112,0.140995,0.075661,-0.805137,0.588243
-0.245228,0.049985,-0.060535,-0.570909,0.819311,-0.052830
-0.102663,0.215723,0.361536,0.938366,0.344004,-0.033639
-0.063850,0.453424,0.660903,0.941527,-0.054664,-0.332473
0.498712,-0.211558,0.317560,0.063607,0.986089,0.153568
-0.230946,-0.352478,0.677498,-0.450844,0.858713,0.243622
-0.198397,-0.199416,0.707247,-0.318438,0.094551,0.943216
-0.208327,0.222547,0.889009,0.819549,0.100163,-0.564187
-0.403457,-0.062129,-0.553232,0.946033,-0.285047,-0.154178
-0.612235,-0.073562,0.550913,0.419076,-0.677027,0.604987
-0.617862,0.071258,0.769892,0.149648,0.977555,-0.148297
0.187087,-0.013915,0.785340,-0.718882,-0.090972,-0.689154
0.018079,-0.050961,0.697705,0.082051,0.442577,0.892969
0.196697,0.030486,0.287250,0.186287,0.945579,-0.266791
0.234076,-0.792344,0.091796,0.238956,-0.217207,0.946425
0.013407,-0.363113,0.575147,0.035714,0.188400,0.981443
-0.665703,-0.150937,0.603822,-0.647397,0.018270,0.761934
-0.282131,0.045111,0.537906,-0.189167,-0.279408,-0.941354
-0.276079,-0.648322,0.467085,-0.363467,0.512347,0.778070
-0.355510,-0.029691,0.035618,0.992002,0.123079,0.027990
0.916318,0.291323,-0.340451,-0.262778,0.118680,-0.957530
-0.166697,-0.145176,0.719156,0.709482,-0.294589,-0.640197
0.152786,0.183372,-0.330958,-0.067745,-0.474195,-0.877809
-0.379936,0.106000,-0.959391,0.222612,0.066402,-0.972643
-0.394325,0.747496,0.164497,0.955944,-0.246951,-0.158703
-0.831684,-0.018258,-0.986065,-0.303644,-0.097935,0.947739
0.597578,0.269342,0.407441,0.565457,0.114658,-0.816769
-0.306396,-0.107066,-0.954706,0.134890,-0.231384,-0.963466
-0.505138,-0.311087,0.566044,0.734385,0.590382,0.334855
-0.558501,0.114774,0.791368,-0.321972,-0.621954,-0.713798
-0.322378,0.009660,0.136920,0.428991,-0.553780,0.713648
-0.111531,-0.118675,0.591400,-0.575270,0.271968,0.771426
-0.822393,-0.210230,-0.977670,0.252700,0.068067,-0.965147
-0.391244,-0.167244,-0.960246,0.069961,0.006370,0.997529
-0.646323,0.393776,0.517040,0.828278,-0.370756,-0.420113
-0.743914,0.006292,-0.972789,-0.037622,0.304351,0.951817
-0.524889,-0.243820,0.548204,0.085433,0.814012,0.574531
0.444553,0.095365,-0.317511,0.376224,-0.829229,0.413321
-0.482519,0.207035,0.975864,0.508612,-0.624147,-0.593089
-0.287282,0.640253,0.429331,0.791482,0.609395,0.046840
-0.915576,-0.151202,-0.988823,-0.055748,0.066520,0.996227
-0.119654,-0.316139,-0.945139,-0.173248,0.103474,0.979428
0.463138,0.349107,0.141093,0.047846,-0.821298,0.568489
-0.375050,-0.015421,0.657340,0.786110,-0.618079,0.002967
-0.626729,0.161923,0.772772,-0.809505,0.054286,0.584598
-0.477263,-0.124879,0.610996,0.354545,0.859641,-0.367853
-0.629651,0.146679,0.818872,0.897249,-0.233285,-0.374864
0.667613,-0.336346,0.336376,-0.156565,0.329999,-0.930907
-0.558182,0.371443,0.568167,0.918083,-0.260137,0.299087
0.534978,-0.250820,0.464156,0.102266,0.578669,0.809126
-0.313140,-0.182312,0.066245,0.536448,0.843171,0.035855
0.701118,-0.286271,0.350408,-0.010698,0.943655,0.330757
-0.403245,-0.077463,0.253182,0.961832,-0.228190,0.151028
0.346429,-0.339273,-0.432553,0.544743,-0.225540,0.807704
0.235032,-0.534964,0.102876,0.330870,-0.197208,0.922840
0.233971,-0.194629,0.794443,-0.611903,0.174625,-0.771415
0.596834,-0.589293,0.482655,-0.267444,0.614295,0.742372
-0.397510,-0.059560,0.424841,-0.550524,0.816573,0.173586
-0.338308,0.021980,0.203324,0.944223,-0.238775,0.226780
0.848567,-0.098822,0.290642,-0.312130,0.505111,0.804635
-0.009850,0.012851,0.887521,0.698667,0.404631,0.590032
-0.228768,0.140474,0.654558,0.415900,0.793584,0.444131
0.447208,0.100239,-0.324222,0.431357,-0.821147,0.373696
-0.340909,0.037313,-0.948898,0.035835,-0.042197,0.998466
-0.482571,0.085614,0.793003,-0.006541,0.903154,0.429267
-0.892852,-0.114598,-0.989067,0.024906,0.010740,0.999632
0.658958,0.436938,0.270118,0.383093,0.883600,0.269243
-0.379246,0.015421,-0.395166,0.508803,0.328528,-0.795732
-0.050841,-0.217763,0.724281,0.264615,0.957934,0.111087
-0.210132,0.083310,0.827218,-0.598351,-0.801021,0.018477
-0.380148,-0.206773,0.954632,-0.286622,-0.789689,0.542438
0.424535,0.436584,0.146560,0.210155,-0.813555,0.542183
-0.432501,-0.138262,0.579539,0.353438,0.780527,0.515615
0.751453,-0.290082,0.318170,-0.385809,0.798256,0.462534
-0.452412,0.120535,0.960709,0.734068,-0.261386,0.626755
0.475031,0.143490,-0.356851,0.437465,-0.891188,-0.120035
0.425226,-0.308607,0.370444,-0.921811,-0.203340,-0.330027
0.538376,-0.173359,0.289666,0.040286,0.816019,0.576620
-0.420820,-0.079234,0.381450,-0.712064,0.699873,-0.056058
-0.424112,0.012938,0.811233,0.048584,0.552976,0.831780
0.320359,-0.050431,0.066758,-0.265270,0.885121,-0.382352
0.416837,0.122307,-0.391944,-0.216228,-0.731946,-0.646143
-0.384714,-0.072056,0.292692,-0.345345,0.937140,-0.050054
-0.365121,0.005760,-0.076886,0.989378,-0.141151,0.034737
-0.240025,-0.241602,0.536539,0.805695,0.557909,0.198980
-0.464572,0.357706,0.864898,-0.676771,0.274533,0.683090
0.581118,-0.571215,0.485998,-0.333684,-0.564517,-0.754967
-0.691668,0.256757,0.288543,0.007512,-0.522674,0.852500
-0.702711,-0.093328,-0.975132,-0.152797,0.015594,0.988135
0.601136,0.512982,0.223653,0.777747,0.591363,0.213072
-0.037194,0.321543,0.753615,0.401356,-0.096201,-0.910856
-0.575810,0.803154,0.425720,0.763021,-0.209945,-0.611328
-0.740091,0.374456,0.314631,-0.166525,0.382606,0.908781
-0.671332,-0.040594,0.244909,0.514185,-0.446333,-0.732394
-0.807206,-0.202605,0.235098,-0.653585,-0.343146,-0.674595
0.176361,0.103785,0.760326,0.141584,0.977365,0.157197
0.512676,0.068510,0.063780,0.600850,-0.354513,0.716449
0.493296,0.058672,-0.355484,0.383837,-0.167354,0.908109
-0.591792,0.510591,0.317706,0.157354,0.060185,0.985707
-0.239122,0.784984,0.662294,-0.776889,-0.558551,-0.290628
-0.443651,-0.040150,-0.957122,-0.362212,-0.034931,-0.931441
0.505349,0.505449,0.240735,0.785242,0.345525,-0.513817
0.521916,0.451652,0.215502,0.718202,-0.639702,0.273800
0.626410,-0.204645,0.301429,-0.137761,0.899424,0.414800
0.558021,-0.390501,0.443876,0.874417,-0.438879,-0.206835
-0.584730,-0.017196,0.928666,-0.388191,-0.153053,0.908781
-0.562907,0.031639,0.864605,0.913347,-0.365686,0.179081
0.171422,-0.204201,0.604822,-0.111055,0.350989,0.929771
0.624180,0.422847,0.085256,0.303145,-0.929533,-0.209933
-0.041549,0.181335,0.764597,0.311233,0.661006,0.682792
0.139830,-0.474786,0.575391,-0.026637,-0.977391,0.209756
-0.281548,-0.259862,0.719010,0.482810,0.875725,-0.000346
-0.812675,-0.195337,0.318780,-0.305610,-0.943189,-0.130368
-0.254202,-0.058318,0.282076,0.823029,0.410866,-0.392189
-0.122469,-0.282019,0.171818,0.377065,0.900855,-0.215131
-0.415298,0.252059,0.272071,0.035667,-0.976164,0.214086
-0.470465,0.652041,0.728405,-0.432630,-0.445116,-0.784030
0.591100,-0.439067,0.357851,-0.121006,0.533244,0.837263
0.749700,0.190639,-0.322002,0.731529,-0.262968,0.629057
-0.328273,0.208188,0.832050,0.125143,-0.797182,0.590627
-0.467599,0.362136,0.864874,-0.666836,0.018903,0.744964
-0.451935,0.114774,-0.962369,0.091523,0.052080,0.994440
0.553986,0.510148,0.182824,0.455479,-0.849706,0.265591
-0.792764,-0.089604,-0.980647,-0.250757,0.138226,0.958131
-0.664322,0.699990,0.295596,-0.397549,0.284645,-0.872314
-0.340909,-0.027741,0.132966,-0.485840,0.182736,-0.854732
-0.854410,-0.141275,0.264822,0.011397,0.964361,0.264346
0.696339,0.621377,0.162959,0.396960,0.620768,-0.676069
0.371757,-0.093683,-0.344942,0.864197,0.081202,-0.496558
-0.569704,0.014004,0.737288,0.923693,0.378574,0.058940
0.362040,0.055835,0.079960,0.172405,-0.528099,0.831497
-0.556801,-0.136401,0.941796,0.444081,0.631604,-0.635507
0.733930,0.591420,0.078350,0.011092,-0.416728,0.908964
0.597100,-0.292032,0.341232,-0.070299,0.963596,0.257956
0.563278,-0.056103,0.426891,0.755058,-0.628849,-0.185571
-0.156716,-0.217673,0.736093,0.599155,-0.633845,-0.489135
-0.522342,0.034032,-0.694313,0.558991,0.793823,-0.239528
0.691134,0.033235,0.472112,-0.461128,0.879533,0.117400
-0.437387,0.251972,0.899235,-0.522559,-0.532366,-0.665972
-0.217140,-0.094213,-0.954462,-0.063733,0.221871,0.972991
-0.313565,0.190109,0.904262,0.366638,0.362127,-0.856995
-0.163512,0.726134,0.417886,-0.663295,0.651771,0.367742
-0.553403,0.316759,0.394629,0.687058,0.583529,-0.432951
-0.355724,0.028271,0.401437,0.785135,-0.354219,0.508027
0.729525,0.253833,-0.317511,0.546815,-0.276241,0.790370
-0.315316,-0.253214,0.582907,-0.395097,0.901212,-0.178087
-0.537314,0.475759,0.397703,0.862644,0.438562,0.252008
0.514640,0.628821,0.238295,0.525702,0.830754,0.182989
-0.517935,-0.127273,0.911242,0.818047,0.239492,0.522917
0.027848,0.084551,-0.364001,-0.180432,-0.368878,0.911797
0.444553,-0.393514,0.451759,0.676144,0.248358,0.693648
-0.353122,-0.028363,-0.191781,-0.408596,0.901724,0.141216
0.108556,-0.502969,0.497566,0.881965,0.444234,0.157462
-0.503280,0.272355,0.703489,0.489744,-0.867390,0.088237
0.014097,-0.270851,0.754835,0.124639,0.955508,0.267338
0.611701,0.031463,-0.457030,-0.068156,-0.879861,0.470318
-0.573368,0.065586,0.707784,0.855180,-0.225921,-0.466505
0.251865,0.353451,0.137115,0.122745,-0.949039,0.290273
-0.191016,0.708145,0.634766,0.834332,0.543112,0.094440
-0.406272,0.175928,0.374690,0.795661,0.294838,-0.529145
-0.197814,0.708499,0.614633,0.698363,0.693410,0.177402
0.487403,0.718336,0.213037,-0.462765,-0.852425,0.243351
-0.256644,0.710360,0.189365,-0.093008,0.549360,0.830393
-0.072824,-0.586459,0.680549,-0.064989,-0.600695,0.796833
-0.666234,0.088892,0.598965,0.140870,-0.160315,0.976962
0.055725,-0.417975,0.554891,-0.596086,0.032215,0.802274
-0.697615,-0.141895,0.639501,-0.455387,0.890112,0.017970
-0.606447,-0.287956,-0.967591,-0.115502,-0.153492,0.981376
-0.710570,0.059825,-0.976816,-0.157966,-0.137990,0.977755
-0.634959,-0.433219,0.467304,0.950761,0.085050,-0.298026
-0.456023,0.211114,0.265799,0.157744,-0.923205,0.350442
-0.128043,0.045290,0.741315,-0.624787,-0.341896,0.701960
-0.352273,-0.055484,-0.240858,0.650098,0.759613,-0.019003
-0.467492,0.176372,0.920686,0.981719,-0.170585,-0.084430
-0.297529,0.255694,0.912145,-0.185662,-0.054067,0.981125
-0.401121,-0.004875,0.941893,-0.649837,-0.221731,0.727013
0.014734,-0.518127,0.600308,0.909801,-0.354264,0.216239
-0.360396,0.385624,0.888863,0.151663,0.985628,-0.074409
0.019035,0.410705,0.693312,-0.591534,-0.079756,0.802326
-0.211513,-0.008243,0.925933,0.129590,-0.109557,0.985497
-0.429103,0.105822,0.888302,-0.692758,0.603684,0.394526
-0.270132,-0.174422,0.641892,0.943585,-0.099354,0.315874
-0.825630,-0.145176,-0.975669,0.079903,-0.253039,-0.964151
0.570924,0.189133,0.082181,-0.580093,-0.785161,0.216826
0.405314,0.224497,-0.367906,-0.129255,0.984888,0.115275
-0.569863,-0.439246,0.606799,-0.254622,0.484182,0.837100
-0.017549,-0.591777,0.563872,-0.667693,0.216777,0.712175
0.763772,-0.279092,0.322270,0.353056,-0.444757,-0.823130
-0.557385,-0.038909,0.872414,0.794477,0.607282,0.003877
-0.272096,0.048035,-0.961661,-0.049520,-0.047472,0.997644
0.134468,-0.353895,0.767769,-0.331737,-0.138692,0.933121
-0.452200,-0.040505,0.940502,0.983793,-0.179157,-0.007335
-0.407704,-0.084641,0.426598,0.509236,-0.857883,-0.068667
0.720444,0.724982,0.210181,0.370083,-0.463311,0.805221
0.281333,-0.051673,0.058875,0.141193,-0.785240,0.602879
-0.392254,0.028804,0.132503,0.378628,0.914475,-0.142747
-0.147530,-0.260925,0.449929,0.932468,-0.252608,-0.258250
-0.666978,-0.085174,-0.974302,-0.144404,-0.187315,0.971628
-0.016115,0.021271,0.733628,-0.534512,0.451208,-0.714639
-0.417900,0.099530,0.154906,0.979775,-0.180932,0.085462
-0.623809,0.538774,0.515015,0.677396,-0.540985,-0.498468
-0.593173,-0.098113,-0.973765,-0.214837,0.004973,0.976637
-0.808162,-0.004077,-0.979452,0.235417,-0.013364,-0.971803
-0.406750,-0.220332,-0.955145,0.045909,0.173389,0.983783
-0.255317,0.518213,0.755323,0.251381,-0.917036,0.309601
-0.476678,-0.028006,-0.794102,-0.115047,-0.984224,0.134413
-0.107868,0.083664,0.857772,0.315134,0.117876,-0.941698
-0.188521,-0.260481,0.768306,-0.758880,0.567343,0.319722
-0.209176,-0.157406,-0.954925,0.092640,0.078813,0.992576
-0.639366,-0.233450,0.944529,0.923353,-0.142999,0.356330
-0.603580,0.362404,0.519237,0.059583,-0.241167,0.968653
-0.488784,-0.215634,0.905848,0.319503,0.937873,-0.135322
-0.418166,0.236284,0.749246,-0.261695,0.043025,0.964191
0.126026,-0.277497,0.575659,0.484500,-0.173327,-0.857448
-0.259458,0.298767,0.901211,0.642803,-0.721051,0.258629
-0.495793,-0.024728,0.703196,-0.406798,0.883622,-0.231792
0.605276,0.436143,0.077886,-0.425406,0.788662,0.443894
-0.370325,0.153149,0.923566,0.972822,0.231505,-0.004865
-0.325512,-0.001862,-0.191561,-0.439226,0.897813,0.031805
-0.381953,-0.090047,0.350969,-0.595202,0.773767,0.216837
-0.079566,-0.012232,0.518895,0.942520,-0.253608,-0.217575
-0.656995,-0.182044,-0.971081,-0.055474,0.077326,0.995461
-0.553296,0.466807,0.408344,0.954391,0.197564,-0.223846
0.614304,0.049809,-0.428746,0.042046,-0.895832,0.442399
-0.404997,0.662679,0.194245,0.594527,-0.751254,-0.286627
0.758674,0.433127,-0.312484,-0.483643,0.172257,-0.858148
-0.239388,0.620311,0.716179,0.565771,0.456659,0.686561
-0.402874,-0.006647,0.954095,0.813594,-0.280824,0.509119
-0.522766,-0.367191,0.580687,-0.343629,0.658049,0.669993
-0.340325,-0.205088,0.944602,0.358619,-0.612659,0.704302
-0.349192,0.727730,0.224897,0.830644,-0.551875,-0.073927
0.520801,-0.427723,0.475382,0.432383,-0.278264,-0.857679
-0.521916,-0.132412,0.566434,0.717293,0.416757,-0.558394
0.561526,-0.049190,0.445243,-0.350885,0.768891,0.534497
-0.119601,-0.473544,0.532879,-0.111334,0.531393,-0.839778
-0.450236,-0.053709,-0.728893,-0.682116,0.730649,0.029491
-0.640481,0.179206,0.704758,0.984036,-0.166963,0.061621
0.504127,0.034387,-0.374031,0.466162,0.280454,0.839070
-0.050417,0.032704,0.835491,-0.570337,-0.702790,-0.425208
-0.657526,0.492420,0.718717,0.790273,0.125937,-0.599674
-0.381316,-0.036250,-0.338084,-0.626460,-0.777655,0.052912
-0.463723,0.162900,-0.962540,0.155928,-0.020734,0.987551
-0.548147,0.382522,0.480531,0.894693,-0.410069,0.177110
0.563119,0.204112,-0.306822,0.259354,0.920536,0.292147
-0.284733,-0.012676,-0.958147,0.174044,0.135449,-0.975378
0.790054,0.373569,-0.318414,-0.397620,0.075914,-0.914404
-0.525474,-0.209164,0.886325,0.013425,-0.554479,0.832089
-0.205937,-0.233007,-0.951997,-0.062530,-0.074627,0.995249
0.724320,0.274838,0.054848,0.282976,-0.170835,0.943790
-0.308308,-0.148099,0.182971,0.446574,0.881649,-0.152533
-0.648711,0.104669,0.753908,0.570858,0.799347,-0.187528
0.060662,-0.373128,0.719717,0.620558,0.590587,-0.515863
0.937983,0.338297,-0.335448,0.051641,-0.071211,0.996124
-0.142858,-0.244261,0.158396,0.434254,0.868227,-0.240010
-0.554837,0.329079,0.743170,-0.689654,-0.170585,-0.703760
-0.580269,0.287953,0.317828,0.921540,0.326571,-0.210038
-0.151301,0.052998,0.386282,-0.508513,-0.850080,0.137033
-0.467916,-0.123548,0.927422,0.695042,-0.529485,0.486377
-0.616376,0.068510,0.928447,0.832794,-0.505271,0.226174
0.692993,0.395461,-0.285127,0.342455,-0.454266,0.822415
-0.488891,-0.133653,-0.783486,-0.640747,0.763292,0.082633
-0.401016,0.701497,0.229998,-0.436575,0.861215,-0.260213
-0.171637,0.613222,0.636938,0.133670,0.716733,0.684417
-0.311335,-0.198440,0.909680,0.565636,-0.801835,0.192657
0.927045,0.316226,-0.345649,-0.082545,0.158478,-0.983906
-0.062789,-0.129753,0.893353,-0.706268,-0.636478,-0.309971
-0.664959,0.193920,0.760985,0.890299,0.175234,-0.420311
-0.837472,-0.024284,-0.986626,-0.220676,0.074261,0.972516
0.151830,-0.176815,0.581614,-0.321611,0.778180,0.539446
0.517667,-0.546575,0.484973,0.643448,0.111989,-0.757253
-0.577349,0.380482,0.758959,0.822442,0.313222,0.474849
-0.150291,-0.091378,0.594841,0.433564,0.899331,-0.056799
-0.604376,-0.120449,-0.976230,0.084290,0.085219,-0.992790
-0.445722,0.574136,0.234732,0.844796,-0.408446,-0.345675
-0.108344,0.444206,0.699828,0.327784,0.305180,0.894104
0.190272,0.068331,0.310702,0.129620,0.990476,-0.046423
-0.561209,-0.024374,0.568191,-0.054691,-0.997943,0.033441
-0.680677,0.453602,0.337913,0.914332,0.011415,0.404804
-0.588182,0.009660,0.625053,0.152669,0.978714,-0.137154
0.074468,-0.172740,0.761156,-0.050408,0.745863,0.664190
0.060397,0.360719,0.406196,-0.605713,0.792747,-0.068291
-0.427032,-0.111407,-0.958976,0.130607,-0.458059,0.879274
-0.269918,0.265177,0.879174,-0.592142,0.602494,0.535135
-0.485917,-0.011610,-0.905995,-0.385742,0.920952,0.055224
-0.140310,-0.375698,0.628714,0.006241,0.607991,0.793919
-0.918603,-0.156076,-0.985065,0.260371,-0.214884,-0.941293
-0.267530,-0.207038,0.576513,-0.719789,-0.175299,-0.671695
-0.533704,-0.007978,-0.964199,0.353151,-0.183641,-0.917366
-0.469722,0.121598,0.932424,0.119913,-0.168608,-0.978362
0.218041,0.159089,-0.411150,-0.603298,0.655141,-0.454776
0.493296,0.197198,-0.191049,0.144252,0.987513,0.063325
-0.561633,-0.040948,-0.969324,0.302311,-0.226354,-0.925944
-0.327688,0.103517,0.695118,0.843118,0.534661,-0.057357
-0.300344,0.105202,0.545447,0.788924,-0.609966,0.074439
-0.700322,0.457324,0.338743,0.292684,0.610421,-0.736018
0.416412,0.227332,-0.278660,0.087762,-0.860319,0.502145
0.093370,-0.011700,0.355167,-0.063308,0.895049,0.441452
0.482145,0.334661,0.093114,0.119507,0.948412,-0.293654
0.600393,0.449523,-0.300843,-0.586883,-0.402038,0.702805
0.160538,0.074092,0.751565,0.161549,0.985380,-0.054109
-0.415670,-0.058672,-0.439313,0.984889,0.172262,0.017878
-0.274910,0.143490,-0.957927,0.030600,0.125381,0.991637
-0.737171,0.132588,0.488560,0.358645,0.317972,0.877649
-0.847825,0.326509,0.330275,0.264400,0.196839,0.944112
0.623702,0.389524,0.087745,0.588522,-0.758537,-0.279756
0.557755,-0.011345,0.387649,0.063567,0.992276,-0.106527
-0.428679,-0.071436,0.233219,0.965295,0.260892,0.011827
-0.210610,0.102987,-0.953559,-0.216770,-0.050553,0.974913
-0.433033,0.117787,0.571608,0.888908,-0.411265,-0.201754
-0.604535,0.089780,-0.971130,-0.151804,0.189032,0.970166
-0.931134,-0.139944,-0.993801,0.119017,-0.044505,-0.991894
-0.372662,-0.027211,0.674716,-0.193558,0.978936,-0.064951
-0.183796,-0.598866,0.535465,0.495351,-0.554633,0.668588
-0.312980,-0.048038,0.469989,0.631560,0.773588,-0.051895
-0.334750,0.795265,0.466206,0.441649,-0.889044,-0.120610
0.180608,-0.415847,0.713616,0.886611,-0.320022,-0.333928
-0.339316,-0.005762,0.443242,-0.245211,0.081079,0.966073
-0.958904,-0.367989,-0.992483,-0.179020,0.127309,0.975574
0.194997,-0.274397,0.770576,-0.474963,0.387436,-0.790129
-0.101124,-0.554995,0.648018,-0.202869,0.436562,0.876503
0.785754,-0.237615,0.327810,-0.491213,0.473888,0.730849
-0.640217,-0.597270,0.461862,0.814921,0.093258,-0.572019
-0.246821,0.616590,0.692458,0.957388,-0.098802,-0.271379
-0.224839,-0.731100,0.509109,-0.750175,0.629448,0.202568
-0.138239,-0.158824,0.339255,-0.161769,0.481033,0.861649
0.016008,-0.540459,0.642112,-0.351773,0.935489,-0.033409
-0.470412,0.020295,0.720425,-0.214197,-0.782499,0.584650
-0.057213,-0.533016,0.632741,-0.071459,0.842868,0.533354
-0.432235,-0.055484,0.954828,0.636195,-0.486500,-0.598810
0.243582,-0.711248,0.103388,0.381761,-0.147573,0.912404
-0.238327,0.680313,0.569485,0.977229,0.113216,-0.179461
-0.372077,0.014445,0.265408,0.930419,-0.288360,-0.226206
-0.828179,0.341929,0.316315,0.398994,0.163219,0.902310
-0.769720,0.514048,0.338865,-0.243377,-0.402371,0.882533
0.469136,0.179385,0.110905,-0.304953,0.688718,-0.657778
-0.646854,-0.173270,0.590741,0.858507,-0.455879,0.234819
-0.405953,-0.142249,0.274657,-0.311094,0.948132,-0.065314
0.012822,0.465565,-0.427648,-0.153416,-0.068595,0.985778
-0.968090,-0.317381,-0.996291,-0.171630,-0.061082,0.983266
-0.440519,0.423555,0.889107,0.414627,0.909935,-0.010144
-0.137070,0.094123,0.285615,0.383901,0.910618,-0.152954
-0.053920,0.312769,0.630642,0.965565,-0.115969,-0.232886
-0.576659,-0.191262,0.525777,0.238167,0.702407,0.670746
-0.436855,-0.086502,-0.613949,0.971589,-0.120190,-0.203884
-0.040116,-0.212531,0.846937,0.741348,0.000145,0.671121
-0.780604,-0.024728,-0.979232,-0.122749,0.093392,0.988034
0.722144,0.153771,0.062292,0.224482,-0.079450,0.971234
0.512571,0.532480,0.254085,-0.166258,-0.744978,0.646039
-0.263069,0.602942,0.444511,0.940563,0.332781,-0.067807
0.135105,0.135869,0.636474,0.626694,0.648475,-0.432128
-0.909842,-0.070993,-0.984772,-0.062291,-0.073973,0.995313
-0.201158,-0.278473,0.562652,0.323317,-0.070065,0.943693
-0.104309,0.155364,0.836589,0.470914,0.880962,0.046330
-0.445670,-0.006560,0.892084,0.426629,0.891500,0.152363
-0.381263,-0.024195,0.329909,-0.335282,0.767259,-0.546717
0.981894,0.309491,-0.343404,-0.292298,0.183229,-0.938610
0.210130,0.337853,0.121570,0.043718,-0.929264,0.366821
-0.044256,0.061951,0.791075,0.875170,0.220721,-0.430534
-0.576393,-0.155986,0.928593,-0.053880,-0.093642,-0.994147
-0.791383,-0.346008,0.233341,0.916489,-0.191814,-0.351077
-0.533226,-0.027920,0.921321,-0.417176,0.427149,-0.802189
-0.482732,-0.335018,0.551914,0.494143,0.804374,0.329856
-0.368308,-0.106887,-0.040694,0.886544,0.459390,0.054783
-0.738818,-0.115662,0.225141,-0.444621,0.323430,-0.835288
0.201476,-0.008597,0.766183,0.598566,0.046596,0.799717
-0.152999,0.084641,0.830683,0.831879,-0.541550,0.121247
-0.429157,0.043429,0.184069,0.555869,-0.826932,0.084811
-0.740462,0.053266,-0.977524,-0.158763,0.153461,0.975317
-0.212786,-0.667111,0.520652,0.980057,-0.197563,0.021394
0.576923,-0.286006,0.474772,0.699858,0.580609,-0.416042
-0.219052,0.538685,0.726306,0.570146,0.440555,0.693430
-0.662517,-0.885492,0.429380,-0.347472,-0.077271,0.934501
-0.065230,0.116281,0.821092,0.559615,0.779577,0.281230
-0.490430,-0.060623,0.633619,0.588418,0.599455,-0.542603
-0.583457,-0.087567,0.922663,-0.055389,0.033540,0.997901
0.326732,0.361162,0.134943,-0.353564,-0.763156,0.540911
-0.325883,0.012140,0.067246,-0.509669,0.832420,0.217519
-0.038948,-0.495171,0.515991,-0.361967,0.487208,0.794738
-0.448961,0.095630,0.894744,0.769743,-0.560065,0.306304
-0.448537,-0.108305,-0.698315,0.212037,0.976893,-0.026852
-0.449068,-0.066208,-0.629471,0.985484,0.110213,-0.129132
-0.464625,-0.077817,-0.950533,-0.337541,0.350542,-0.873605
-0.015956,-0.279625,0.820800,-0.679061,0.732232,0.052074
-0.427352,0.088538,0.335253,0.992117,0.125209,0.005145
-0.070804,-0.025172,0.589057,-0.641264,0.692818,0.329825
-0.415458,0.534520,0.700780,0.921123,0.224790,0.317809
-0.396130,-0.104583,-0.957659,0.123862,-0.193819,0.973187
-0.667030,-0.826464,0.438532,-0.376348,-0.083169,0.922738
-0.237742,0.128512,0.631935,0.455721,0.875722,-0.159469
-0.082381,0.391207,0.710736,0.123000,0.423143,0.897675
0.539278,-0.284499,0.492978,0.972975,0.002101,0.230900
0.144396,0.445272,0.071126,-0.689836,0.554188,0.465835
-0.247511,-0.196668,0.307091,0.111715,0.953269,0.280710
-0.626253,-0.034744,0.926299,0.366169,0.064592,-0.928304
0.609845,-0.578039,0.482093,0.418132,-0.543464,-0.727882
0.036609,-0.040505,0.508962,0.433757,0.393886,0.810375
-0.669366,-0.108748,0.591229,-0.523361,0.758751,-0.387800
-0.962089,-0.227156,-0.992483,0.241345,0.025075,0.970115
-0.023761,-0.143758,0.845424,0.192360,0.096479,0.976570
-0.660446,0.040148,-0.973765,0.276978,-0.097241,-0.955943
-0.574110,-0.409112,0.536100,-0.351005,0.396848,-0.848120
-0.349882,-0.054861,0.952314,0.157472,0.428324,0.889798
0.471898,-0.175485,0.435310,-0.561854,0.492472,0.664674
-0.638410,-0.151202,0.889375,-0.481608,-0.638144,-0.600688
-0.497492,-0.106887,-0.761937,-0.316723,-0.924452,0.212308
-0.365228,-0.038555,0.924591,-0.528670,0.842100,0.106655
0.141847,0.621023,0.645870,0.280896,-0.955161,-0.093617
-0.581544,-0.148454,0.622052,-0.261002,0.952006,-0.159881
-0.495899,-0.099000,0.948995,-0.055084,0.994904,-0.084451
-0.251069,0.626960,0.716813,0.565336,0.474027,0.675050
-0.935382,-0.086326,-0.989067,-0.197437,-0.129421,0.971735
-0.561102,-0.021271,0.863409,0.809673,0.582403,-0.072357
-0.211513,0.555879,0.687674,-0.611041,0.380529,0.694137
-0.232485,0.655586,0.677083,-0.542938,0.788375,-0.289281
0.575225,-0.218471,0.400120,-0.058058,-0.612719,0.788166
-0.286697,-0.243376,0.585885,0.773733,-0.589113,0.232986
0.564977,0.487990,0.178505,0.455479,-0.849706,0.265591
-0.074787,-0.171233,0.826583,-0.318016,-0.040635,0.947214
-0.304910,-0.018348,0.282882,0.262286,0.786529,-0.559087
-0.434731,0.190464,0.244665,0.461062,-0.809003,0.364603
0.688161,-0.036605,0.450514,-0.437543,0.898885,-0.023710
-0.248467,-0.113357,-0.956658,-0.043752,0.176614,0.983307
-0.350626,-0.036250,0.959611,-0.355269,-0.139811,-0.924249
-0.027372,0.207923,0.040401,0.214440,-0.969427,0.119275
-0.437758,-0.122131,-0.702610,0.128288,-0.971361,0.200001
-0.452254,0.238410,0.912169,0.960493,0.099638,0.259856
-0.582128,-0.027830,0.838395,-0.108365,-0.992816,-0.050735
0.562056,0.008684,0.411492,-0.482531,0.848062,0.218986
-0.748587,-0.105202,-0.976914,-0.094705,-0.023933,0.995218
-0.506307,0.258796,0.596842,-0.118753,-0.987667,-0.102033
-0.369157,0.740139,0.231535,-0.674525,0.736939,0.044017
-0.594607,0.347955,0.320806,0.664121,0.677462,-0.316209
-0.327210,0.707347,0.287787,-0.232985,0.952869,0.194317
-0.794463,-0.316848,0.223750,-0.535980,0.263390,0.802092
-0.132558,-0.306037,-0.945603,-0.173248,0.103474,0.979428
-0.970797,-0.101659,-0.993045,-0.069957,0.031116,0.997065
-0.334910,-0.098822,-0.048113,0.981026,-0.139065,-0.135090
-0.075902,-0.514670,0.653069,-0.643152,-0.335995,0.688087
-0.417900,0.033413,-0.327883,0.646598,0.753609,-0.118257
-0.786870,-0.141540,-0.976987,-0.119850,-0.090342,0.988673
-0.327529,0.048213,0.488170,-0.717087,0.503963,0.481464
-0.314095,-0.262607,0.586885,-0.442406,0.896596,-0.019809
0.478800,-0.344147,0.391968,-0.589068,0.566580,0.576182
-0.642447,-0.017371,0.193220,-0.313770,0.051759,-0.948087
-0.439085,0.211999,0.942284,0.998640,-0.035042,-0.038600
-0.194255,0.141895,0.731456,0.745266,-0.398046,0.534918
-0.189424,-0.305859,0.664466,0.678989,0.733209,-0.037135
0.031460,-0.019676,0.803985,-0.154581,0.603214,0.782456
-0.505509,0.353362,0.914414,0.857976,-0.466234,-0.215645
0.135317,0.638482,0.655095,-0.322862,0.880103,0.348108
-0.480500,-0.071612,0.744146,0.806782,-0.452103,0.380402
-0.453474,-0.072321,-0.669176,0.818125,0.559993,-0.130688
0.262112,-0.030933,0.367784,-0.013468,0.686793,0.726728
0.437756,0.226888,-0.234366,0.440141,-0.884361,-0.155503
0.579047,-0.087922,0.443632,0.238987,0.452651,0.859065
-0.522076,0.332002,0.878711,0.187552,-0.898071,0.397859
-0.890886,-0.147924,0.236318,0.227132,0.858463,0.459839
-0.466377,-0.068778,0.619416,0.412404,0.783063,-0.465548
0.137015,-0.428965,0.468036,0.947966,0.128872,0.291124
-0.214698,0.032526,0.033226,-0.069117,-0.991946,0.106144
-0.567048,-0.091908,0.917074,-0.568478,0.676511,-0.468152
0.614516,0.020384,-0.462643,-0.068156,-0.879861,0.470318
-0.427510,0.021003,0.335229,0.916521,0.327616,0.229473
-0.391139,-0.157671,0.257086,-0.125215,0.972321,0.197265
-0.017178,0.000532,0.795517,0.176994,0.974272,-0.139525
-0.376855,0.023841,0.716642,-0.514672,-0.855915,-0.050230
-0.033213,0.486394,0.592059,0.949248,-0.085917,0.302568
-0.239388,0.213151,0.880444,0.231923,0.205574,-0.950763
-0.879842,-0.096607,-0.991141,-0.199549,0.061716,-0.977942
0.469243,0.195957,0.088014,0.363235,-0.755313,0.545493
0.459155,-0.287512,-0.466987,-0.415546,0.303324,-0.857506
-0.354237,0.128068,0.778239,0.851261,-0.486098,0.197643
0.503703,0.543294,0.240833,-0.227387,-0.909049,0.349177
-0.437599,-0.100239,0.435481,0.298347,-0.937763,0.177733
-0.306821,0.630771,0.371762,0.944664,-0.221047,-0.242381
-0.564129,-0.319331,0.848206,0.865279,-0.435172,0.248832
-0.644518,-0.781795,0.446512,-0.376021,-0.058475,0.924764
-0.672022,0.478773,0.763450,0.938528,-0.047476,-0.341923
-0.439404,0.018878,0.929667,-0.601902,0.796328,0.059795
-0.571987,-0.184259,-0.971471,0.159675,-0.147151,-0.976141
-0.342714,0.265796,0.878979,-0.485968,0.388927,-0.782669
-0.423528,0.083489,0.342696,0.686540,0.415361,0.596773
-0.452200,-0.125055,0.900894,0.887744,-0.437987,-0.141696
-0.141956,-0.204379,0.505204,0.985562,-0.167394,0.025429
0.083654,0.187361,0.729186,0.792036,0.155586,-0.590315
0.584357,0.516438,0.192708,-0.378957,0.915299,-0.136452
-0.331246,0.088717,0.404195,0.957597,0.117633,0.263002
-0.374519,0.171141,0.928251,0.949640,-0.225921,0.217127
0.345209,-0.342551,0.092041,0.690433,0.099174,0.716566
-0.761968,-0.290880,-0.980184,0.193787,-0.002655,-0.981040
-0.323653,0.066116,0.160665,-0.757222,-0.645164,0.101875
-0.615791,-0.152089,-0.973107,0.107111,0.028224,0.993846
-0.918125,-0.268901,-0.991532,0.254058,0.003085,-0.967184
-0.464838,-0.129310,0.931156,-0.047002,-0.770199,0.636070
-0.339157,0.002747,0.369175,0.923711,-0.342511,-0.171591
-0.627314,-0.152619,-0.964785,-0.061469,0.080961,0.994820
-0.180610,0.027473,-0.010970,0.190962,-0.981453,-0.016833
0.165263,-0.051673,0.728967,0.841399,-0.428876,-0.328806
-0.420183,-0.462201,0.553598,0.760578,-0.125296,-0.637042
0.532268,0.507665,0.191146,0.635957,-0.742823,0.209220
-0.241247,-0.034833,-0.954901,-0.091445,0.120591,0.988481
0.496428,0.085349,0.057411,0.580215,-0.325772,0.746474
-0.877773,-0.269699,-0.985235,0.276957,0.155882,-0.948154
0.824515,0.586102,0.085939,-0.403533,0.767296,-0.498416
-0.439457,0.019232,0.203153,0.512301,-0.858196,-0.032378
-0.800728,-0.064967,-0.988140,0.185892,0.025070,-0.982250
-0.303103,-0.007713,0.756397,0.655310,0.754971,0.024240
-0.033903,0.144285,0.806426,-0.376070,-0.646683,-0.663606
-0.612659,0.054683,-0.970398,-0.122177,0.100085,0.987449
-0.175141,0.278914,0.637402,-0.698750,0.469074,-0.540109
0.044522,0.079499,0.779313,0.124974,0.442167,0.888183
-0.249316,0.098200,-0.958318,-0.090127,-0.122975,0.988309
0.753683,0.678542,0.214891,-0.426905,0.638763,-0.640105
-0.529721,-0.196847,0.897844,-0.185301,0.848804,-0.495172
0.001565,0.273775,0.691555,0.253662,0.901377,-0.350963
0.615313,0.217760,-0.316413,0.723101,-0.133798,-0.677660
-0.418483,-0.017460,0.339548,0.819934,0.567845,-0.072519
-0.054930,0.314543,0.702732,0.431864,-0.584663,0.686777
-0.453210,0.430823,0.339426,-0.641861,-0.162622,-0.749379
-0.175937,0.067533,0.437312,0.084502,0.936528,0.340256
0.407331,0.265974,-0.243835,0.339672,-0.939148,0.051232
0.706267,0.298767,-0.311313,-0.223056,0.221896,-0.949214
-0.830516,-0.238413,-0.983576,0.228541,0.124665,-0.965519
-0.046912,0.354160,0.704343,0.287081,-0.824411,0.487781
0.631242,0.706371,0.271241,0.867279,-0.489462,0.090851
0.187989,-0.613401,0.483460,0.662862,0.671638,0.330933
-0.457988,0.089071,-0.963857,-0.112336,-0.042609,-0.992756
-0.139034,-0.620225,0.521799,0.852376,-0.435705,-0.289164
0.145937,-0.270318,0.716423,-0.541989,0.332030,-0.772013
0.362996,0.024993,0.076666,0.157033,-0.678598,0.717527
-0.457457,0.089958,-0.962979,-0.112336,-0.042609,-0.992756
-0.456235,-0.103964,0.633619,0.153918,0.979468,0.130199
-0.545544,0.320924,0.883567,0.403224,-0.763329,-0.504717
-0.327264,0.031109,-0.379352,-0.693590,-0.681134,0.234497
-0.878249,-0.158380,-0.985162,-0.272670,0.107515,0.956081
-0.583669,0.019586,-0.971471,-0.113677,-0.033279,0.992960
-0.612500,0.332800,0.342037,0.022398,0.820869,0.570678
-0.221282,0.648143,0.686357,0.904448,0.037048,0.424972
-0.663207,0.549499,0.722085,0.886764,0.201321,-0.416077
-0.373457,0.246919,0.921589,0.979326,0.033251,0.199535
-0.157406,0.008597,-0.409149,-0.003109,-0.999938,0.010729
-0.790639,-0.293806,-0.979598,0.145876,0.015792,-0.989177
-0.487457,0.492864,0.533293,-0.307635,-0.779643,0.545452
0.220378,-0.287512,0.487950,0.807511,-0.087584,-0.583313
-0.564341,-0.047862,-0.961734,0.446573,-0.105242,-0.888536
-0.441792,0.031198,-0.380645,0.605024,0.795692,0.028624
-0.458518,-0.076575,-0.698754,-0.039141,-0.912000,0.408319
-0.188043,-0.105292,-0.954559,-0.022509,0.091140,0.995584
0.038202,-0.197821,0.765817,0.135459,0.836773,0.530529
-0.498819,-0.310292,-0.956072,-0.158217,0.062346,0.985434
0.530463,0.359123,0.108611,-0.007118,-0.064917,0.997865
-0.584040,0.683150,0.483094,-0.624170,0.673208,0.396489
0.081371,-0.177524,0.526802,-0.301817,0.602040,0.739226
-0.541827,-0.079945,0.625932,0.537581,0.358493,-0.763210
-0.258502,0.817246,0.258965,0.230037,-0.940149,-0.251401
-0.728305,-0.049368,-0.977743,-0.275890,-0.094172,0.956565
-0.394378,-0.083667,0.325272,-0.506440,0.472501,-0.721291
0.565295,-0.555438,0.471160,-0.290697,0.671967,0.681142
-0.031726,-0.216700,0.444657,0.149795,0.959305,0.239364
0.391084,-0.010372,-0.337376,0.974127,-0.197960,0.109030
-0.625031,0.164317,0.652533,0.471877,-0.107306,-0.875110
0.194466,-0.481256,0.526582,0.939949,-0.109550,-0.323256
-0.503917,0.012673,0.786878,-0.675587,0.250233,0.693516
-0.493510,-0.013117,0.778239,0.164712,-0.130595,-0.977658
-0.007833,0.361871,0.705758,0.347119,0.345158,0.871994
-0.517457,-0.144821,-0.965566,-0.350636,-0.090675,0.932112
-0.759047,-0.038644,-0.978646,0.013401,-0.006601,0.999888
-0.189158,-0.577861,0.529462,0.521828,-0.270101,0.809161
0.557968,-0.416999,0.360975,-0.479883,-0.264756,-0.836431
-0.357634,-0.051584,0.290374,0.815035,-0.418980,0.400218
0.485279,-0.353719,0.425061,0.815784,0.283782,0.503949
0.335599,-0.034479,0.050163,-0.265009,0.821334,-0.505154
-0.630446,-0.007180,0.668005,0.021790,-0.478391,0.877876
-0.461440,0.396613,0.903164,-0.050467,-0.042517,0.997820
-0.330449,0.734554,0.192049,-0.415517,0.655064,0.631060
-0.376855,-0.071612,0.419326,-0.513484,0.825704,0.233554
0.803116,0.637860,0.187705,-0.109838,-0.355050,0.928372
-0.162875,-0.167508,-0.949386,-0.208505,-0.000547,0.978021
0.100856,-0.437385,0.720816,-0.457469,-0.222131,0.861034
-0.362679,-0.035187,0.495174,0.275065,-0.788721,-0.549781
-0.258450,0.600018,0.670836,0.923601,0.118374,0.364621
0.585526,0.484355,0.174673,-0.380933,0.882062,-0.277230
-0.389439,0.073208,-0.961710,-0.142821,-0.129015,0.981304
-0.925294,-0.106622,-0.992679,0.205490,0.072929,-0.975938
-0.134468,-0.274040,-0.950825,-0.180497,0.064572,0.981454
-0.591102,-0.017196,0.876588,0.804026,-0.447383,0.391651
-0.485810,-0.017017,-0.875978,-0.208750,0.953330,0.218139
-0.002098,0.486749,0.688944,0.018485,0.448280,0.893702
-0.457457,0.635558,0.716935,0.501895,0.401209,0.766246
0.495633,-0.472216,0.475138,0.993557,-0.000536,-0.113337
0.415562,-0.306302,0.067587,-0.255398,-0.394628,-0.882633
-0.713650,0.524150,-0.006113,-0.790176,-0.474622,0.387758
-0.112805,-0.215280,0.902773,0.158418,-0.915459,0.369917
-0.420342,-0.027387,-0.657853,0.917683,0.242039,0.315080
0.831682,0.009925,-0.348090,-0.528915,0.209991,-0.822285
-0.393264,0.262872,0.539394,-0.321517,0.946884,0.006065
-0.745985,0.066559,0.499786,0.446781,0.024710,0.894302
-0.604005,0.058050,-0.971130,-0.131576,0.085684,0.987596
-0.117691,-0.129753,0.606189,0.447060,0.449982,0.773081
-0.252077,-0.658602,0.641721,0.319024,0.929361,-0.185772
0.653702,0.519719,0.081791,-0.124960,0.176345,0.976364
-0.978125,-0.254720,-0.991459,0.165190,-0.090739,0.982079
-0.811507,-0.645041,0.461008,-0.275588,0.389382,0.878882
0.398624,0.369758,0.138677,-0.149138,0.867492,-0.474569
0.398624,-0.446424,0.072712,0.148712,0.465981,0.872208
-0.620518,0.267659,0.773773,-0.459605,-0.055988,0.886357
-0.449705,0.227332,0.578124,0.259342,-0.920197,0.293222
0.268165,-0.448639,0.113272,-0.487048,0.323822,-0.811125
-0.347068,-0.069132,0.013971,0.758917,-0.639150,-0.124628
-0.357317,-0.137819,0.263309,-0.495305,0.862032,0.107583
-0.232856,-0.617921,0.633473,0.520606,0.732919,-0.437948
0.171157,0.136309,-0.399534,0.878810,0.383628,-0.283764
-0.390927,-0.107066,0.006601,0.971907,0.235012,0.012888
0.498392,0.169459,-0.340036,-0.379973,0.651849,-0.656287
-0.320892,-0.178766,0.141898,0.267470,0.956938,0.112830
-0.887754,-0.243109,0.350286,-0.210043,0.967099,0.143530
-0.360927,0.000264,0.335351,0.843019,-0.537883,-0.000725
-0.351316,0.001949,0.933181,0.263845,0.828311,0.494253
-0.304166,0.049011,0.927471,-0.452896,0.337331,0.825283
0.049512,-0.028894,0.776238,-0.085222,-0.893687,0.440524
-0.302308,0.239917,0.916952,0.192083,-0.362244,-0.912076
-0.534766,0.224762,0.908216,-0.181517,0.426216,0.886223
0.082432,-0.206684,0.755396,-0.168543,0.644296,0.745973
0.122733,0.287599,0.095555,-0.568797,-0.065646,0.819854
0.560782,0.127270,0.159225,-0.032592,-0.844403,0.534716
0.184909,-0.374545,0.612900,0.097650,-0.063703,0.993180
-0.528128,-0.283612,-0.962442,-0.082671,-0.107267,0.990787
