-0.164717,0.107498,0.810282,-0.670700,0.734860,0.100706
0.091994,-0.070223,0.309357,0.110114,0.958346,0.263531
-0.071730,-0.314473,0.959011,-0.490591,0.102344,0.865359
0.302393,-0.084335,0.884606,0.902055,0.355279,-0.245101
0.047148,-0.268374,-0.937286,0.326096,-0.154561,-0.932616
-0.289067,0.296732,0.926174,0.302319,-0.818916,0.487831
-0.049009,-0.059605,0.643495,0.823278,0.483179,0.297913
-0.034181,0.256548,0.861643,-0.206110,0.829648,-0.518848
-0.368292,0.633805,0.775403,-0.629814,0.601698,-0.491216
0.169039,0.135722,0.729477,-0.122947,-0.660021,0.741118
0.866293,-0.041864,0.846994,0.125683,-0.662218,0.738695
-0.180022,0.060907,0.771174,0.920508,-0.359479,0.153099
0.190373,0.499228,-0.529371,0.037194,-0.440088,0.897184
-0.269042,0.074838,0.933057,0.571519,0.819311,0.045776
0.327848,-0.356494,-0.323878,-0.102280,0.665562,0.739301
0.127167,0.341576,0.788155,0.248922,0.084017,0.964873
-0.435741,-0.385120,0.698233,-0.084851,0.767132,0.635853
-0.121734,-0.071119,-0.740026,0.226202,0.963237,-0.144941
-0.823110,-0.103511,0.330487,-0.158940,0.565001,0.809637
-0.576232,0.471182,0.784601,0.103459,0.277522,0.955132
-0.203179,-0.196559,0.890845,0.779809,0.122259,0.613963
0.394506,0.086935,0.907199,0.981022,-0.103120,-0.164203
0.072604,-0.075598,0.392735,0.858544,0.482345,0.173911
-0.280025,-0.188987,0.304147,-0.245754,0.967812,0.054269
-0.031443,0.779900,0.451509,-0.782551,-0.580475,0.225084
0.419644,0.076719,0.922379,0.440639,-0.116139,0.890140
-0.353701,0.139842,0.848811,0.231340,0.342271,0.910677
0.458980,-0.388347,-0.666731,0.456111,0.624657,0.633850
0.030770,-0.323657,-0.933282,-0.263678,0.194181,0.944864
0.155360,0.240060,0.749144,-0.052407,-0.901582,0.429422
-0.495102,-0.056783,0.754675,0.472797,0.194993,0.859326
-0.541615,0.599399,0.289578,0.698393,-0.010221,-0.715641
-0.147904,0.224739,0.769373,0.798383,0.558263,-0.225669
0.639162,0.002755,0.725843,0.969812,0.130078,-0.206265
-0.688290,0.593217,0.374805,0.614516,0.512486,-0.599773
0.969309,0.409046,0.570425,0.836437,0.186510,0.515352
0.285499,-0.192482,-0.478364,0.227402,0.563458,0.794231
0.245610,-0.308424,0.930661,-0.526541,0.353103,0.773352
0.491892,-0.069821,-0.902037,-0.277593,0.130356,0.951814
-0.277053,-0.287504,0.460257,-0.144117,0.984248,0.102399
-0.811372,0.479740,0.292023,0.769516,0.007935,-0.638578
-0.555336,-0.472571,0.344815,0.415350,-0.890696,-0.184782
-0.729649,0.203280,0.242414,-0.262383,-0.079241,-0.961705
0.511481,0.230697,0.852558,-0.134510,0.914562,0.381422
-0.423846,-0.065788,0.740975,-0.180516,0.523227,-0.832855
0.790674,-0.157044,0.809719,0.727118,-0.667815,0.159133
0.852970,-0.142128,0.651519,-0.317392,0.937200,-0.144629
-0.059239,0.206326,0.414749,0.925954,-0.144087,0.349068
-0.335024,0.288176,0.508113,0.105788,-0.479252,-0.871279
-0.462310,0.434626,0.573866,0.289176,-0.742984,0.603615
-0.228438,0.255159,0.861547,0.864482,-0.257535,-0.431680
0.042349,-0.156016,-0.461849,-0.131682,-0.347930,-0.928227
-0.298228,-0.435701,0.676926,0.231770,0.226059,0.946140
-0.460684,0.046256,0.685996,0.149925,-0.935415,0.320189
-0.043617,-0.125058,-0.956229,0.330163,-0.099188,-0.938698
0.404973,0.074614,0.887533,0.730580,-0.417847,0.540052
-0.338434,-0.035592,0.126972,0.074113,0.245635,0.966525
-0.947024,0.207671,0.251773,-0.220634,0.287428,0.932044
0.512708,0.030935,0.699181,0.087297,0.184437,-0.978960
-0.592290,-0.383644,0.327625,0.450047,-0.878698,0.159207
0.116143,-0.136706,0.944586,-0.392753,0.793399,-0.465042
0.403705,-0.019197,0.868992,0.735476,0.437049,-0.517749
-0.739046,-0.423426,0.369225,0.088337,0.872773,0.480066
0.348309,-0.174025,0.890652,0.384306,-0.019442,0.923001
0.428686,0.076495,0.901250,0.334906,-0.738557,0.585125
-0.701654,-0.457160,0.440623,0.585557,-0.783123,0.209382
-0.345414,0.187825,0.872401,0.557341,0.222635,-0.799878
-0.570919,0.145399,0.555277,-0.430987,0.669148,-0.605385
-0.201949,0.106065,0.626610,0.205427,0.377703,-0.902851
-0.915620,0.055036,0.307267,-0.420269,0.359686,-0.833066
-0.141401,-0.207444,0.859344,0.012827,0.966871,0.254943
-0.349974,0.229442,0.864264,0.157145,-0.766310,0.622957
-0.003567,-0.166095,-0.951147,-0.166899,0.044864,0.984953
0.170666,-0.308380,0.442102,0.847414,-0.427574,-0.314754
-0.054919,0.234282,0.696142,-0.558817,0.821139,-0.115988
-0.231650,0.475754,0.534903,0.055115,-0.876432,0.478361
-0.044728,-0.590127,0.552013,0.905912,-0.393218,0.157171
0.232245,0.030487,-0.938283,-0.056799,0.473440,0.878993
-0.427099,-0.102075,0.528471,-0.399446,-0.856877,0.325891
-0.474602,0.580360,0.732500,0.776287,-0.314823,0.546136
0.672311,-0.463386,0.256292,-0.038110,-0.310517,0.949803
-0.360957,0.340457,0.729783,0.489417,-0.099444,-0.866361
0.337643,-0.701902,0.495908,0.043764,0.998575,-0.030534
0.053254,0.300765,0.524064,-0.701829,0.634674,-0.323458
-0.495857,-0.186972,0.685690,0.253285,-0.342446,0.904753
-0.421230,0.210807,0.863814,0.351715,-0.905149,0.238753
-0.343193,-0.105750,0.691077,0.263575,-0.470178,0.842295
0.024863,-0.629146,0.606815,-0.293066,0.450561,-0.843272
-0.216463,-0.195662,0.313345,-0.129182,0.947285,0.293196
0.301916,-0.045674,-0.581858,0.348957,-0.620497,0.702291
-0.560251,-0.241583,0.389036,0.470856,-0.173313,0.865019
0.226616,-0.101807,0.912619,-0.094402,0.148949,0.984328
0.895079,0.154537,0.744368,0.776289,-0.105973,-0.621406
-0.447995,-0.269405,0.688150,-0.558240,-0.045340,-0.828440
0.537254,-0.134781,0.542364,0.721598,0.666162,-0.188479
-0.017685,-0.166185,0.684790,0.321108,0.923352,0.210502
0.157659,0.135902,-0.735250,-0.252557,-0.729422,0.635734
-0.014553,0.132093,-0.550404,-0.082624,-0.269853,0.959350
0.726795,0.232535,0.516201,0.616492,-0.720257,0.318067
-0.146040,0.126045,0.748886,0.972273,0.224643,-0.064963
-0.159523,-0.254128,0.931207,-0.436012,-0.836871,-0.330968
0.256711,-0.333020,-0.914291,0.273347,-0.076546,-0.958865
0.091005,0.210135,0.763665,0.301171,0.829482,-0.470378
0.522583,-0.350268,-0.883046,-0.274894,0.277722,0.920491
0.128634,0.098583,-0.553604,0.135249,-0.319277,0.937961
-0.071890,-0.362811,0.785228,0.986077,0.077586,0.147080
0.102067,-0.027170,0.088572,-0.125326,0.991485,0.035378
0.461717,0.099926,0.547446,0.321149,0.944078,-0.074704
0.267300,-0.231146,-0.458279,0.189266,0.602309,0.775501
-0.001624,-0.468852,0.658257,0.667182,-0.322128,0.671641
0.217814,-0.256053,-0.326467,-0.240491,0.487094,0.839585
0.330268,-0.181596,0.576728,0.218895,0.804769,0.551753
0.019074,0.180120,0.571615,-0.234519,-0.644648,0.727620
0.460923,-0.196110,0.947127,-0.643182,0.454311,0.616375
0.098577,-0.359273,0.662052,-0.245249,0.371647,0.895395
-0.121971,0.105750,0.511441,0.360690,-0.770987,0.524863
-0.208494,-0.112827,-0.424832,-0.132664,-0.450615,0.882806
-0.204290,-0.192930,0.935212,0.759561,0.650352,-0.010482
0.777866,-0.058979,0.848779,0.940820,0.336386,0.041248
0.054960,-0.063682,0.837185,0.786148,-0.111819,0.607838
0.128634,0.004144,0.105987,-0.132436,0.985702,0.104178
-0.007612,-0.061175,-0.951758,0.138205,-0.119935,-0.983115
-0.821919,0.162466,0.051104,0.303280,-0.645713,-0.700768
-0.142710,0.283651,0.790246,-0.466010,0.671395,-0.576250
0.459495,-0.006608,0.817261,0.918515,-0.262189,0.295950
-0.499584,0.709025,0.274543,-0.151495,-0.617122,0.772146
0.170269,-0.185449,0.746056,-0.457112,0.878583,0.138353
-0.532375,0.304079,0.736344,0.517284,0.230213,0.824269
0.098260,0.000023,0.643318,0.961263,-0.130523,-0.242769
-0.105594,-0.282664,0.948301,-0.484273,0.282174,0.828165
0.744956,0.028291,0.787222,-0.602310,-0.526272,0.600217
-0.174710,0.049436,0.769550,0.801251,-0.580409,0.145333
0.405648,-0.205563,0.867738,-0.087723,-0.595880,0.798268
0.027043,-0.159956,0.690209,0.178077,0.959398,0.218734
-0.267060,0.086889,0.947352,0.234963,-0.186472,0.953950
0.127801,-0.045808,-0.312573,-0.245145,0.908461,-0.338531
0.063763,-0.717133,0.587100,-0.727471,0.380564,-0.570926
-0.117213,-0.034922,0.692476,0.759615,-0.037243,0.649306
0.674412,-0.135809,-0.575973,0.789226,0.012091,0.613984
0.431145,-0.147548,0.913857,0.754150,-0.520501,-0.400420
-0.048058,-0.044823,0.826041,-0.065635,0.251112,0.965730
-0.375510,-0.215240,0.281892,-0.422820,0.711734,-0.560943
-0.186525,-0.146339,0.929985,0.515379,-0.053491,0.855291
-0.372378,0.454070,0.648994,-0.391910,0.339236,0.855175
0.194299,-0.260802,-0.921222,-0.217265,0.067498,0.973776
-0.133866,-0.161121,0.923939,0.275006,0.265287,0.924118
-0.178713,0.198442,0.749305,0.757977,0.597201,-0.262338
0.372973,-0.099612,0.692572,-0.184452,0.535432,0.824191
0.782903,-0.093519,0.699503,0.855745,0.155339,-0.493527
-0.359253,-0.365545,0.842507,0.256329,0.020811,0.966365
0.890679,0.146025,0.723560,0.827089,0.188018,-0.529691
-0.746856,-0.181014,0.590011,0.801722,-0.288439,0.523493
-0.717632,-0.001992,0.731310,0.278355,-0.275579,-0.920095
-0.681549,-0.065295,0.143953,-0.380492,-0.425093,0.821293
-0.227011,0.563292,0.703990,0.788409,-0.615105,-0.007593
-0.348626,0.167216,0.869089,-0.775467,0.374087,0.508635
0.183592,-0.168425,0.540531,-0.485283,-0.840822,-0.239829
0.147945,-0.176398,-0.462042,0.368308,0.184377,0.911238
0.639043,0.247855,0.841334,0.115122,-0.982091,-0.149147
-0.143066,-0.164930,0.302925,-0.366497,-0.361180,-0.857455
-0.771600,-0.413973,0.371605,0.455558,0.411287,0.789500
0.102026,-0.439778,0.932413,0.277548,-0.840758,-0.464859
-0.297988,-0.168200,0.909676,-0.111578,0.976241,-0.185752
-0.009199,-0.111170,0.593484,0.435314,0.891356,0.126437
-0.744835,-0.503302,0.443196,-0.450628,0.790552,-0.414683
-0.101194,0.272943,-0.649943,0.976633,0.200511,-0.077349
0.412350,0.127702,0.736746,0.877599,0.263242,0.400655
0.223363,-0.275139,-0.921270,-0.206795,0.052873,0.976955
0.143465,-0.056559,-0.395726,0.043356,0.998763,-0.024349
-0.313255,0.724034,0.735507,0.835743,-0.227421,0.499813
0.121734,-0.225991,-0.453857,0.186146,0.218118,0.958005
-0.618184,-0.326747,0.754756,0.753210,0.647576,-0.115417
0.498395,0.184957,0.508354,0.734664,-0.364599,-0.572133
0.098735,-0.320699,0.857880,-0.071566,0.865054,0.496549
-0.132954,-0.235668,0.902825,-0.509277,-0.573166,-0.641964
-0.195843,-0.159822,0.318620,0.291373,-0.949810,-0.113858
-0.367262,0.023946,0.891135,-0.426528,0.157806,-0.890602
-0.753558,0.042403,0.272243,0.205984,-0.813028,-0.544569
0.254531,0.463252,0.742390,0.415649,0.722182,0.552891
-0.237916,-0.250992,-0.335585,-0.355391,-0.169805,-0.919164
-0.046432,0.190557,0.384952,0.902718,-0.259492,0.343167
0.077601,-0.288980,0.479473,0.736377,0.331975,0.589527
0.414530,-0.390004,-0.427517,-0.310699,0.398738,0.862829
0.090172,-0.044104,0.277132,0.904248,-0.426900,-0.009609
0.368890,-0.100552,0.852718,0.988374,-0.105058,0.109903
0.305762,-0.188629,0.893901,0.195451,0.259307,0.945811
0.136604,-0.003157,0.087253,-0.216021,-0.972863,-0.082905
0.220074,-0.672155,0.480872,-0.159197,0.593561,-0.788887
-0.091796,-0.141992,0.841478,0.840066,0.241267,-0.485879
0.066657,0.335798,0.542541,0.189265,-0.739793,0.645667
-0.044251,0.135765,0.552688,-0.533033,0.364531,0.763540
0.098459,-0.062651,0.126457,0.150873,-0.988545,-0.003877
-0.501367,0.580494,0.776465,0.674086,-0.636648,0.374551
0.678260,0.315862,0.682008,0.368626,-0.913901,-0.170001
-0.523057,-0.016509,0.510074,-0.383286,-0.787127,-0.483242
0.164995,-0.338798,-0.308682,-0.320497,0.544182,0.775337
-0.523374,0.291537,0.719941,0.779748,0.158333,0.605743
0.263137,0.269987,0.847283,-0.267224,-0.815715,0.513030
0.279156,0.222275,-0.725923,0.861794,0.376023,-0.340468
0.167691,-0.047150,0.042404,0.605450,0.760897,0.233379
-0.089971,-0.476604,0.711756,0.090368,0.367815,0.925497
0.530197,-0.084783,0.615804,0.912550,-0.408965,0.000386
-0.522264,-0.275721,0.520366,0.794739,0.278792,-0.539133
0.308022,-0.233787,0.905125,-0.024521,0.484792,0.874286
-0.516119,0.739221,0.647450,0.015152,-0.684419,0.728932
0.013483,0.518940,0.710550,0.995422,-0.046611,0.083444
0.506602,0.097730,0.604355,0.947573,-0.095824,0.304834
-0.382172,0.030889,0.766977,-0.521031,0.762513,0.383536
0.564099,-0.225455,-0.567836,-0.191544,0.575035,0.795390
0.434277,-0.042939,0.795198,0.891427,-0.367532,-0.265099
0.439313,-0.214031,0.841816,0.831577,-0.170447,-0.528609
-0.249693,-0.190781,0.900397,-0.574307,-0.245623,-0.780923
-0.433759,-0.049346,0.743307,-0.163002,0.241696,-0.956563
0.346406,-0.110721,0.866210,-0.239295,0.822507,-0.515965
0.494470,0.263983,0.819416,0.935889,-0.319337,0.148783
0.022404,-0.271374,0.524949,-0.644942,0.025223,-0.763815
-0.276893,0.215601,0.915674,0.096590,0.625585,0.774154
-0.063998,-0.358285,0.805506,-0.670698,0.393915,0.628487
0.402674,-0.249198,0.846463,0.967691,0.250515,0.028573
0.228758,-0.331316,-0.296428,-0.216218,0.606366,0.765225
0.732901,0.182088,0.633364,-0.710574,0.461753,0.530913
0.118682,-0.043522,-0.131683,-0.684926,-0.726566,0.054572
0.066974,-0.081513,0.272517,0.564332,-0.824826,-0.034525
-0.645544,-0.037161,0.701690,0.779359,0.309709,0.544684
0.383203,-0.194005,-0.598148,0.354264,-0.180722,-0.917517
-0.090407,-0.138677,0.295399,0.068105,0.743723,0.665010
0.157819,-0.072599,-0.130654,-0.720535,-0.692478,-0.036106
0.161626,0.075601,-0.616174,0.922946,-0.383617,0.031754
0.172807,-0.056649,-0.754177,-0.824911,0.434106,0.362043
0.158175,-0.201710,0.750623,0.338678,-0.876408,-0.342355
-0.666759,0.107049,0.700323,0.312767,0.219611,0.924093
0.104287,-0.257352,0.824095,-0.550121,0.833596,-0.049848
0.274991,-0.188809,-0.922395,-0.204129,0.038996,0.978167
-0.452080,0.668795,0.631483,-0.705288,0.550792,-0.446315
0.717635,0.477186,0.588290,-0.161639,0.335116,0.928208
0.164242,0.003250,-0.559024,0.149393,-0.234043,0.960680
0.610690,-0.303721,-0.531108,-0.698898,-0.474310,0.535324
0.489949,-0.251035,0.544953,0.814947,-0.551539,-0.177950
-0.657599,-0.082588,0.421181,-0.596849,-0.334248,0.729417
-0.019984,-0.057008,-0.380867,0.861135,0.383171,0.334105
0.191484,0.263983,0.883529,0.153656,-0.650444,0.743850
0.079702,-0.177834,0.864152,-0.687807,-0.715188,-0.124211
0.382412,-0.173532,-0.907183,-0.272519,0.180449,0.945078
0.351085,0.454653,-0.670172,0.162633,0.206097,-0.964922
0.036998,-0.576865,0.633316,-0.234548,-0.154224,-0.959793
-0.374994,0.655087,0.732838,-0.606284,0.406536,-0.683482
0.529323,-0.096385,0.590172,-0.581377,-0.790690,0.191860
-0.362862,0.081021,0.887002,-0.729530,0.222773,-0.646651
-0.235614,-0.183477,0.858315,0.442301,0.786594,0.430860
-0.324199,-0.191675,0.935598,-0.082856,0.890241,0.447891
0.707245,0.274512,0.546030,0.169390,-0.582853,0.794726
0.386098,-0.163765,0.286812,0.949211,0.191010,-0.250025
-0.219476,-0.064311,0.911959,-0.787402,0.083156,-0.610805
0.517864,-0.124385,0.592921,-0.581377,-0.790690,0.191860
0.221025,-0.140425,0.783845,0.108996,0.949982,0.292666
0.591421,0.170577,0.823002,-0.111301,0.896828,-0.428149
0.129585,-0.012027,0.016322,0.376543,0.873104,-0.309685
0.167018,-0.278095,0.441105,0.876418,-0.399394,-0.269027
0.474881,-0.035190,0.770740,-0.895742,0.144887,-0.420301
0.530354,0.162376,0.417595,0.409956,0.394424,-0.822414
0.419090,0.025513,-0.902037,0.198750,-0.132423,-0.971063
-0.592290,-0.457475,0.711933,0.450684,-0.830179,0.328158
0.140491,-0.009161,0.091161,0.012351,0.999028,0.042321
0.670845,-0.075464,0.846769,0.077086,0.633672,0.769752
0.243705,-0.239343,0.289224,0.516863,0.626036,0.583894
0.398153,-0.378626,0.851995,-0.321397,0.667108,-0.672065
-0.928149,0.222543,0.258414,0.267406,-0.552593,-0.789389
-0.787462,0.238761,0.245003,0.168416,0.231156,0.958229
0.124945,0.239209,0.782238,-0.079868,-0.563256,0.822413
-0.602878,0.229218,0.724846,-0.540933,0.592764,-0.596676
-0.503151,-0.000606,0.722997,-0.554862,0.337336,0.760482
-0.538798,0.613243,0.757972,0.016216,0.177923,0.983911
0.563305,0.286473,0.759757,-0.810044,0.583562,-0.057312
-0.081762,-0.004234,0.894013,0.887026,0.453363,-0.087441
0.678260,0.020810,0.777510,-0.014002,-0.996127,0.086803
-0.215829,0.777434,0.609677,0.297474,-0.511793,0.805963
0.416394,-0.235534,0.835737,0.986025,0.083940,-0.143907
0.371506,-0.391393,0.332851,-0.488272,0.705558,0.513593
-0.047978,0.057861,0.820847,-0.146805,0.194592,0.969836
-0.250445,-0.299149,0.834998,-0.662889,-0.561740,-0.495001
0.363060,0.040254,0.644347,-0.070315,0.850047,0.521992
0.345296,0.093476,0.896088,-0.665014,0.522945,0.533184
-0.213290,-0.203367,-0.349430,-0.294624,-0.024012,-0.955312
0.162299,-0.078242,-0.490906,0.885456,-0.454416,-0.097331
0.060750,0.176893,0.332642,-0.491013,0.649476,-0.580592
-0.391846,0.643529,0.593629,0.665441,0.092648,0.740679
0.623658,-0.112693,0.818564,-0.796125,0.421374,-0.434314
-0.631071,0.086128,0.700581,-0.481652,-0.573103,-0.662997
-0.238114,0.017315,0.928619,0.914339,-0.014289,0.404697
-0.610611,0.175146,0.306189,0.523163,0.587414,0.617451
0.323448,0.057232,0.872851,0.293499,-0.556425,0.777335
-0.278401,-0.341622,0.980784,0.240301,0.711705,0.660099
0.185100,-0.107541,0.793639,0.707350,-0.700941,-0.091310
-0.549108,-0.351387,0.387155,0.631297,-0.688330,-0.357303
0.555297,0.172906,0.426601,-0.771538,0.133281,0.622065
0.756375,-0.137332,0.784634,0.574392,0.818576,0.002607
0.724970,-0.187286,0.865663,0.462365,0.885958,0.036015
0.934337,-0.176220,0.627302,-0.444636,0.784272,-0.432685
-0.390776,0.226888,0.871677,-0.375561,0.821924,-0.428245
-0.284863,0.183658,0.887388,0.457671,-0.692377,0.557810
0.312504,-0.529019,-0.244167,-0.163136,0.592365,0.788980
0.590508,0.311560,0.633348,0.310104,-0.656785,0.687363
-0.140132,-0.022735,0.590702,-0.123588,-0.894523,0.429599
-0.663744,0.290235,0.793317,-0.078695,-0.212501,0.973987
0.147628,-0.354971,0.606445,-0.218234,-0.325204,0.920118
0.265555,-0.169857,0.528503,0.572369,0.807183,0.144391
-0.223443,-0.080706,0.773795,0.204635,-0.612904,-0.763199
-0.026051,0.303497,0.670703,0.072407,0.331230,0.940768
-0.505133,-0.179715,0.399167,-0.488930,0.740822,-0.460576
0.094492,-0.059203,-0.121762,0.899835,0.436217,0.003495
0.725486,0.207266,0.821731,0.495083,0.003232,-0.868840
0.634007,0.182359,0.839452,0.051051,-0.447583,0.892784
-0.098575,-0.134018,0.731230,0.772208,0.424135,0.473079
0.653238,0.023856,0.746378,0.226359,0.973017,0.044709
0.188113,-0.164796,0.646454,-0.423152,-0.517471,0.743752
0.414213,0.069553,0.375690,-0.045417,-0.774355,0.631120
-0.104485,0.621665,0.495007,0.827954,-0.000529,0.560796
0.662200,0.244809,0.844469,-0.266747,-0.923436,0.275885
0.381698,0.443988,-0.555229,-0.208606,0.111716,0.971598
-0.101073,-0.144368,0.803882,0.903774,0.406681,0.133429
-0.229232,-0.309857,0.819737,-0.710034,-0.448438,-0.542913
-0.448312,0.481129,0.464245,0.894626,0.034635,-0.445472
0.169158,-0.014715,0.021741,0.405968,0.897747,-0.170995
0.656253,0.308337,0.673967,0.873719,-0.419867,-0.245615
0.602801,-0.529913,-0.662454,0.559230,0.070653,-0.825996
0.071098,-0.219139,-0.938685,-0.338815,0.157426,0.927589
-0.099529,-0.109603,0.672038,0.360484,0.783985,0.505390
0.724733,-0.123042,-0.632351,-0.712999,-0.185847,-0.676086
-0.821365,0.167216,0.292087,-0.072971,0.657574,0.749847
-0.197549,0.067491,0.825993,0.387568,-0.807729,-0.444258
0.151790,-0.040656,-0.575651,0.909219,0.260077,-0.325087
-0.450732,0.652085,0.645891,0.993886,-0.097567,-0.051693
-0.179983,-0.197857,0.208934,0.514368,-0.748944,-0.417743
0.255404,-0.409940,-0.540933,0.071927,-0.366607,-0.927591
0.506525,-0.157897,0.846367,-0.090314,-0.944895,-0.314669
-0.242831,0.290057,0.703684,-0.532181,-0.758124,-0.376870
0.261866,0.297137,0.859295,0.179694,-0.721711,0.668463
0.152584,0.038507,-0.561130,-0.599562,0.173778,-0.781234
0.510528,-0.138721,0.556242,0.694322,0.683216,-0.226128
0.257902,-0.275855,0.920610,0.144907,0.830562,0.537744
0.154329,-0.480544,0.595446,0.843571,-0.421966,0.332163
0.653555,0.286741,0.663579,0.723395,-0.471669,-0.504210
-0.100122,0.240240,0.828244,0.923425,0.221630,-0.313316
-0.165508,-0.184284,0.793719,-0.225988,0.974118,0.004827
0.800548,0.411553,0.575651,-0.672969,0.585725,0.451708
-0.097029,-0.072462,0.917121,-0.012651,-0.629569,0.776842
-0.130178,-0.095939,-0.551562,-0.367138,-0.136678,0.920070
0.387763,-0.224110,0.761944,-0.342770,-0.719068,-0.604525
-0.302429,-0.145935,0.809655,0.845017,0.113212,-0.522618
0.213293,-0.278229,0.920980,0.033634,-0.411710,0.910694
-0.358181,-0.024034,0.482593,0.089401,0.989321,-0.115115
-0.140370,0.062473,0.762201,0.897477,-0.439716,0.034415
0.317461,-0.162600,-0.917411,-0.202604,0.189500,0.960751
0.605814,-0.218242,0.850773,-0.725797,0.684381,-0.069584
0.285541,0.177475,-0.943525,0.312882,-0.191833,-0.930218
0.026886,-0.412852,0.513693,0.297160,0.106216,0.948902
-0.156866,-0.004636,0.784167,0.859481,-0.346875,-0.375460
-0.096791,-0.015522,0.693135,0.745633,0.556809,0.366053
-0.724334,0.302332,0.240179,-0.056927,-0.236234,0.970027
0.021295,-0.421455,0.915818,-0.789523,0.611955,-0.046525
0.565210,-0.516340,-0.508708,-0.307811,0.468692,0.827998
0.395774,-0.165422,0.805747,0.889478,-0.365292,-0.274575
0.121259,-0.523419,0.598244,0.832128,-0.452245,0.320996
0.190412,0.199337,0.743017,0.779677,0.523547,-0.343515
-0.478288,-0.455413,0.424896,-0.095908,-0.303427,0.948016
0.134384,-0.123042,-0.413302,0.950824,-0.195419,-0.240304
0.308736,-0.525568,0.377555,0.022937,0.576384,0.816857
0.028432,0.349284,0.585717,0.717239,-0.664410,-0.210066
-0.015267,-0.082052,0.548636,0.795011,-0.597865,0.102542
0.142671,-0.540487,0.588515,0.891235,-0.261801,0.370353
0.115391,-0.109245,-0.181871,-0.869298,0.464374,0.169343
0.120863,-0.037788,-0.356216,0.635623,-0.771283,-0.033257
0.281337,-0.181282,-0.699728,0.440227,0.745079,0.501056
0.438401,0.139574,0.871243,0.872464,0.059743,0.485013
0.715534,0.017988,0.529098,0.288676,0.263466,-0.920463
0.316904,0.159825,-0.937350,0.265424,-0.243718,-0.932819
-0.082277,-0.300853,0.742824,0.846481,0.015020,0.532208
0.565764,-0.105258,0.647740,-0.163381,-0.963985,0.209854
-0.586305,0.359453,0.780243,-0.622757,0.277332,-0.731615
-0.117728,-0.132093,0.757506,0.657226,0.743139,0.125692
0.000992,-0.724704,0.594433,0.383976,-0.171152,0.907342
-0.240135,-0.140469,0.847878,0.435846,0.719979,0.540063
-0.064276,-0.044599,0.643061,0.825389,0.484419,0.289949
0.786591,-0.170932,0.758454,-0.481964,0.872781,0.077234
0.789643,-0.026410,0.837555,0.884128,0.275895,0.377095
-0.378007,0.012746,0.730796,-0.434248,0.416600,0.798670
0.473770,0.151581,0.856031,0.341139,-0.538713,0.770333
-0.586263,-0.008623,0.533343,0.087211,0.196143,0.976689
-0.501249,0.656744,0.774599,0.093455,0.751960,0.652550
-0.282087,0.528795,0.567643,0.152850,-0.581587,0.798995
0.582737,-0.121787,0.648576,0.181671,0.969757,-0.162994
0.121615,-0.131511,0.677103,-0.058350,0.998181,0.015191
0.055595,-0.315591,-0.731600,0.049613,0.031989,0.998256
-0.173241,0.149385,-0.996253,-0.340646,0.219672,0.914169
-0.308615,0.407925,0.671459,-0.398646,0.879092,-0.261301
0.793331,-0.182088,0.868879,0.558117,-0.824224,0.095707
-0.145445,0.126942,0.511666,0.532825,-0.697148,0.479669
-0.325665,0.663195,0.743065,0.678931,0.056079,0.732057
0.460129,0.021078,0.552527,0.241505,0.970386,-0.005049
0.108808,-0.224783,0.922797,-0.046842,-0.650451,0.758102
-0.262024,-0.163407,0.852445,0.671816,0.663097,0.330099
-0.190015,0.016241,0.888642,-0.581859,-0.195996,-0.789320
0.320948,0.141141,-0.557367,-0.129669,0.327521,-0.935904
0.377891,-0.062698,0.890347,-0.509062,0.282276,-0.813127
-0.290376,-0.097730,0.141026,-0.461009,0.636058,-0.618790
-0.301042,-0.150058,0.543007,-0.480925,-0.190722,0.855767
-0.455647,0.185495,0.480744,0.286569,0.315390,-0.904658
-0.254727,0.187152,0.900703,-0.157316,0.915041,-0.371419
0.077800,0.377147,0.549327,0.291190,-0.835369,0.466227
-0.268011,0.423560,0.680271,-0.181014,0.703133,-0.687632
-0.428962,0.207088,0.856401,-0.141033,0.984257,0.106527
0.159641,-0.036355,0.058051,-0.633704,-0.748738,-0.194451
0.032515,0.079856,-0.553122,0.066662,0.248633,-0.966301
-0.862603,-0.349820,0.386013,0.424300,0.343648,0.837780
0.773783,-0.199919,0.889639,-0.397456,0.893741,-0.207980
0.108926,0.186794,0.810523,0.487035,0.561380,0.669066
-0.269836,-0.016151,0.429189,-0.188365,0.854454,0.484177
0.353028,0.217258,-0.541158,-0.041547,-0.230025,0.972297
0.037196,-0.176086,0.851223,0.312789,0.661895,0.681218
0.174790,0.210088,0.770692,0.707514,0.540213,0.455625
-0.081367,-0.000381,0.089954,-0.202141,-0.979213,-0.016752
-0.102977,-0.106423,-0.966199,-0.379400,0.210479,0.900974
0.383879,0.258607,0.707624,0.110317,-0.277975,0.954233
0.370514,0.045630,0.491727,0.894659,-0.440829,-0.072484
0.062889,-0.235132,0.941515,0.899760,0.072252,0.430362
-0.136364,0.472035,0.536157,0.464839,0.635401,-0.616596
0.186368,-0.265057,0.924872,-0.422941,-0.245071,0.872388
-0.476386,-0.386643,0.724943,0.298724,0.633104,0.714103
0.036877,-0.840603,0.457427,0.442416,0.262075,0.857663
0.631708,0.297897,0.709023,0.197859,-0.756269,-0.623626
-0.090407,0.049526,-0.975300,-0.321155,0.201438,0.925355
0.105001,0.203638,0.767218,0.252544,0.878816,-0.404850
0.389309,-0.138902,0.276826,0.942217,0.164566,-0.291796
0.408860,0.114306,0.888626,0.338644,-0.387742,0.857308
-0.421191,0.545505,0.599145,-0.462954,0.499126,-0.732494
0.001588,0.074302,0.445704,-0.483881,0.636114,-0.601015
0.287680,-0.146205,0.187370,0.838034,0.524214,-0.151325
-0.572505,0.148625,0.714458,-0.035319,0.035296,0.998753
0.484755,-0.085948,0.666506,0.924164,-0.082365,0.373010
0.437329,-0.066102,0.797096,-0.850997,0.385218,0.356946
-0.236488,-0.152297,0.943155,0.936053,0.351643,0.012350
-0.001070,-0.456039,0.511747,-0.069341,0.305402,0.949696
0.328879,-0.207805,0.870439,0.992848,0.054596,0.106166
0.254927,0.482114,0.732420,0.834074,0.440486,0.332103
0.763355,-0.181191,0.804445,0.617527,-0.783206,0.072454
0.406362,-0.470868,0.377812,-0.278241,0.778408,0.562728
0.319958,-0.201352,0.261132,0.739672,-0.499633,-0.450835
-0.204725,-0.160495,0.187563,0.292008,0.619914,0.728311
-0.396923,-0.031786,0.734060,0.010985,-0.337390,0.941301
-0.026922,0.253994,-0.711724,-0.012175,0.087311,0.996107
0.799716,0.001546,0.840481,0.795818,0.551351,0.250371
-0.325389,0.120220,0.491502,0.545303,0.048950,-0.836808
0.459812,-0.054497,0.901378,-0.164081,-0.605172,-0.779002
-0.312502,0.286965,0.609533,0.748564,-0.627943,0.212928
0.902575,0.280424,0.748999,-0.703361,0.190180,0.684920
0.404378,-0.015297,-0.912281,-0.358291,0.022343,0.933342
0.485072,-0.362857,0.630518,0.247808,0.960563,0.126131
-0.284587,0.017807,0.621303,0.272751,-0.597074,0.754393
-0.145803,0.199607,-0.716404,-0.129296,0.171427,0.976676
-0.021373,0.305378,0.118980,0.188216,-0.666518,0.721338
0.628772,0.135363,0.500941,0.744643,-0.590190,-0.311740
0.170784,-0.239029,0.920643,-0.480504,-0.622962,0.617279
0.471233,-0.157091,-0.898693,-0.123149,0.207108,0.970536
-0.422737,-0.326703,0.665412,0.623273,0.373368,0.687115
-0.141004,-0.105570,0.779842,0.576975,0.791574,-0.201271
-0.136921,-0.140649,0.820123,0.945539,0.108435,0.306918
-0.091082,0.635419,0.646727,-0.032437,-0.713394,0.700012
-0.053095,-0.223662,0.733739,0.561543,-0.137427,-0.815955
-0.385144,-0.195932,0.779713,0.402216,-0.615581,-0.677704
-0.047978,0.335664,0.836477,0.977318,-0.106171,-0.183239
0.754274,0.217214,0.672038,-0.608809,0.412296,-0.677764
0.282922,0.438211,0.754306,0.865747,0.180269,0.466888
-0.829930,0.310530,0.245067,-0.213627,-0.366871,0.905411
-0.483245,0.299959,0.801164,-0.245868,0.724397,0.644048
-0.676196,-0.535470,0.492241,-0.247297,0.930245,-0.271088
0.601610,-0.102434,0.672005,-0.412325,-0.887124,0.207363
0.292438,0.225813,-0.943188,0.282413,-0.188124,-0.940666
0.295134,-0.164616,0.163089,-0.742518,0.579512,0.335907
0.787581,-0.030621,0.867834,0.955727,0.264370,-0.129208
-0.097982,-0.093563,-0.966778,-0.379790,0.209259,0.901094
0.647371,-0.149743,0.867625,0.033747,0.602370,0.797503
0.207741,-0.084649,0.058646,0.726434,0.683969,0.066940
0.715057,0.386154,0.490923,-0.403831,0.814107,-0.417314
0.260598,-0.146607,0.897760,0.927116,-0.244255,-0.284245
0.133431,-0.358061,-0.925129,-0.212276,0.125163,0.969161
0.410048,0.244675,0.753019,0.387169,0.171028,0.906007
0.000160,0.150818,-0.687105,-0.000952,0.626800,0.779179
0.150682,0.109335,-0.951244,0.134016,-0.490899,-0.860847
0.150878,0.072643,0.663563,0.460101,-0.756321,0.465064
-0.268011,-0.267209,0.914661,0.880556,-0.469415,-0.065357
0.267815,-0.377730,0.480116,-0.337644,0.454920,0.824041
0.306158,-0.329525,0.911766,-0.368242,-0.629018,-0.684642
-0.087038,-0.379253,0.822021,0.371439,-0.918892,-0.132932
-0.525991,0.640661,0.782254,0.253558,-0.368488,-0.894385
-0.244855,0.633852,0.754048,0.445218,0.878978,-0.170820
0.422382,0.160495,0.617283,-0.071888,-0.980277,0.184091
-0.022840,-0.121610,0.627446,-0.519605,-0.850280,-0.083873
-0.034219,0.417648,0.651085,0.050008,0.534832,0.843477
-0.543953,-0.008265,0.538859,0.467229,0.591949,0.656729
-0.639556,0.399145,0.793381,-0.073460,0.563821,0.822624
-0.337166,0.650605,0.726985,-0.253660,0.793491,0.553198
0.966456,0.353987,0.552286,0.981539,-0.186242,0.043520
-0.190768,-0.279350,0.650618,0.913643,-0.400404,-0.070227
-0.673618,0.094865,0.301028,-0.379514,0.275905,0.883089
-0.647090,0.525434,0.767186,0.206720,0.572955,0.793089
-0.622269,-0.141051,0.534018,0.334278,0.278081,0.900516
0.472700,-0.302734,-0.893563,-0.183950,0.088269,0.978964
-0.082277,0.153284,0.839645,0.815508,-0.162326,0.555515
0.056981,-0.046929,0.805024,0.954182,-0.155017,0.255941
0.032634,0.138185,0.803399,-0.255071,0.526753,-0.810845
0.773505,-0.146651,0.836123,-0.711861,0.573437,-0.405491
-0.175581,-0.063862,0.879428,0.883714,0.134569,0.448264
-0.117728,-0.041550,0.725827,-0.445818,-0.750853,-0.487305
0.234506,0.502900,0.734076,0.769869,0.271803,0.577430
-0.266307,0.477679,0.708605,0.497644,-0.452247,0.740151
-0.056543,0.310171,0.128499,0.187948,-0.672827,0.715528
0.112377,-0.115247,-0.528020,-0.636700,0.769020,-0.056759
-0.737141,-0.435744,0.498255,0.516396,0.625499,-0.584881
0.004758,-0.132093,-0.336373,-0.094891,-0.311954,0.945347
0.373450,-0.391885,0.504977,-0.420695,-0.084320,0.903275
0.670448,-0.161121,0.868976,-0.139724,-0.980976,-0.134772
0.096951,0.586140,0.695145,0.853916,0.324550,0.406810
0.053017,-0.065921,0.300256,0.927743,0.053902,-0.369306
0.499862,-0.056245,0.664013,0.792895,-0.531272,0.298442
-0.141519,0.243467,0.692090,-0.210498,-0.789641,0.576331
0.285579,-0.207534,0.893788,-0.078134,-0.665074,-0.742679
0.008289,0.079273,0.319536,0.479067,-0.603219,0.637669
0.212736,-0.035146,-0.738386,0.816436,0.513049,0.264979
-0.557991,0.344802,0.751250,0.712375,-0.519192,0.472188
0.235537,-0.171427,0.504301,0.582725,0.810966,0.052598
-0.549704,0.169456,0.203660,0.176152,-0.936799,0.302287
0.431699,0.245750,0.894271,0.689100,0.144128,0.710189
0.229351,0.249468,0.832168,0.277349,0.672694,-0.685974
-0.504937,0.266583,0.742052,0.351734,-0.187928,0.917042
0.325072,-0.335976,-0.902230,-0.157611,0.104632,0.981942
-0.597246,0.459088,0.253622,0.168382,-0.186731,0.967874
-0.147388,0.355688,0.831605,0.919253,0.237691,-0.313811
0.315239,-0.178192,0.576744,0.077230,0.873541,0.480584
0.933742,0.239165,0.607265,-0.685544,-0.401701,0.607178
0.078831,-0.271240,-0.934022,-0.301723,0.124885,0.945181
-0.800786,0.109917,0.295222,-0.005957,-0.358494,0.933513
-0.125897,-0.162018,0.819770,0.965221,-0.215938,0.147373
0.206790,-0.076181,-0.723029,-0.612378,-0.731458,-0.299938
-0.524802,0.523061,0.795906,0.566527,-0.429817,0.703068
0.063286,-0.092669,0.353000,-0.558255,-0.816035,-0.149793
-0.522820,-0.352150,0.723157,-0.053744,-0.256480,-0.965054
0.096477,-0.121878,0.644556,0.602632,-0.760669,0.241284
-0.387088,0.472751,0.328638,0.383468,-0.362626,0.849385
0.542409,-0.164257,0.542042,0.721598,0.666162,-0.188479
0.056824,-0.185627,0.469793,0.679949,0.386690,0.623009
-0.907967,0.309903,0.308682,0.972240,-0.188021,-0.139272
-0.733652,0.371460,0.261550,-0.338000,-0.644482,0.685857
-0.163170,0.239701,0.913551,0.311035,-0.372205,0.874483
0.171063,-0.016375,-0.611752,0.942346,-0.278834,0.185027
-0.221856,0.591830,0.673967,0.690377,0.267772,0.672070
-0.570522,0.677441,0.758213,-0.121408,-0.604687,0.787156
0.245689,0.259504,0.866628,0.035958,-0.412004,0.910472
-0.631349,0.217930,0.810555,0.482803,0.777656,0.402682
-0.238352,0.349954,0.618361,-0.703683,0.642683,-0.302967
-0.044292,0.325224,0.757538,0.490460,0.854729,-0.169963
-0.112891,-0.089486,-0.588563,-0.093449,-0.158955,0.982853
0.203735,-0.308200,-0.918616,-0.186800,0.143002,0.971934
0.169872,-0.013550,-0.568206,0.893388,-0.145879,0.424945
-0.445337,0.107498,0.538135,-0.039619,-0.253907,0.966417
0.250685,0.451111,0.762716,0.842075,0.013007,0.539204
-0.438757,-0.051274,0.900655,-0.165124,0.209878,-0.963683
0.304016,-0.144860,-0.480760,0.249423,0.595453,0.763691
0.149094,-0.386690,-0.921238,0.197003,-0.194802,-0.960855
0.676554,0.110453,0.823661,-0.611902,0.137756,0.778844
-0.587057,0.017138,0.717047,0.775430,0.328261,0.539401
0.121298,-0.242838,0.858282,0.540286,0.589514,0.600470
-0.163369,-0.349371,0.917282,0.746314,0.589357,0.309312
-0.109759,0.331497,0.866773,0.813957,0.580898,0.005640
-0.129742,-0.411778,0.786418,0.865341,0.435068,0.248798
0.119396,-0.321462,0.904434,0.633253,-0.749402,0.193360
0.015346,-0.125730,0.644379,0.212309,0.968621,0.129223
-0.187041,0.259504,0.747166,0.527447,0.848290,0.046945
0.574608,-0.042133,0.854552,0.875519,0.183481,0.446991
0.323448,-0.259949,-0.332111,-0.018128,-0.258568,0.965823
-0.745111,-0.486727,0.444144,-0.401030,0.826548,-0.394958
-0.695228,0.390947,0.774857,0.408314,0.336417,0.848589
0.479085,-0.125328,-0.902874,-0.139098,0.221123,0.965275
-0.343193,0.091414,0.872111,-0.418447,-0.861877,0.286477
-0.527975,0.567817,0.789088,-0.690530,0.313416,-0.651873
0.631986,0.043615,0.836365,0.755562,0.094278,-0.648257
-0.254887,0.389020,0.289450,0.408318,-0.056242,0.911105
0.497364,-0.253948,0.549424,0.815268,-0.553750,-0.169405
0.644080,0.188766,0.654848,0.838818,0.500370,0.214508
-0.896783,0.429070,0.250342,0.528555,0.122496,-0.840015
-0.582933,-0.352776,0.686365,0.088187,-0.093609,0.991696
-0.393274,0.182135,0.197324,0.277074,-0.608550,0.743570
0.351680,0.021215,0.342563,-0.863184,0.214587,0.457019
-0.466512,-0.174473,0.276247,0.356214,-0.074251,0.931450
0.409811,-0.386376,0.659607,-0.203167,0.971886,-0.118997
-0.086798,0.140247,0.444385,-0.306826,0.752185,0.583160
-0.018319,-0.355688,0.822664,-0.493503,0.702915,0.512216
-0.160949,0.121027,0.821844,-0.664877,0.709055,0.234904
-0.048058,-0.257981,0.796485,-0.488156,0.740981,0.461140
-0.287997,0.439376,0.717433,0.811811,-0.568689,0.132496
0.119989,-0.348384,-0.716645,0.231283,-0.894811,-0.381867
-0.445139,0.253904,0.223777,0.804906,0.452335,0.384083
0.672907,0.230295,0.666779,-0.550975,-0.261721,0.792419
0.435664,-0.344892,-0.722579,0.295395,-0.137503,-0.945428
-0.168245,-0.201800,0.830527,-0.620057,0.257107,-0.741232
-0.399620,0.650203,0.616238,-0.615897,0.363135,-0.699145
0.504422,0.151313,0.407207,-0.301462,-0.500680,0.811443
-0.046473,0.603432,0.757104,0.074604,0.950696,0.301018
0.639639,-0.089262,0.852091,-0.387666,-0.646636,-0.656946
-0.446291,0.494659,0.708637,0.715825,0.533904,0.450046
-0.171537,0.020542,0.769598,0.785181,-0.572038,0.237202
0.449384,-0.003515,0.689003,-0.499459,-0.518055,0.694377
0.094453,-0.234594,0.888321,0.797431,0.603399,0.003609
-0.575281,-0.179132,0.709023,0.364760,-0.096325,0.926106
-0.142393,-0.678204,0.627559,-0.345174,-0.930327,0.123882
0.185695,-0.037610,-0.921736,-0.082428,0.819749,0.566760
0.237004,-0.196334,0.739109,0.318737,0.365555,-0.874515
-0.740433,-0.553615,0.423127,0.223770,-0.826576,0.516429
0.850630,0.507516,0.572563,-0.030652,0.646301,0.762467
-0.064871,-0.015522,0.090292,-0.323886,-0.941900,-0.089006
-0.233235,0.136528,0.850355,0.901148,-0.413774,0.129321
-0.109401,-0.032994,-0.973692,0.346828,-0.157706,-0.924575
0.100838,-0.675918,0.529773,0.728522,-0.684663,-0.022199
-0.262261,0.136124,0.865245,-0.372991,0.903439,-0.211366
-0.347595,0.308605,0.658916,0.583158,-0.458989,0.670266
0.795948,0.500122,0.538376,0.927565,-0.324119,0.185931
-0.055672,0.331811,0.842572,0.982840,0.052393,0.176863
0.276182,0.231547,0.450995,0.360606,-0.318752,0.876562
-0.963361,0.017673,0.242301,-0.648436,0.230497,0.725535
-0.211785,-0.048763,0.925322,0.822540,-0.153989,0.547463
0.024744,0.123671,-0.435011,0.682321,-0.107979,0.723034
0.486776,0.045315,0.541978,-0.490595,0.388090,0.780194
0.085334,0.428400,0.652210,0.444672,0.887996,-0.117172
0.167335,-0.098357,-0.247061,0.199833,-0.976112,-0.085278
-0.082674,-0.491878,0.555293,0.052870,0.960809,0.272123
-0.027201,0.250409,0.106694,0.181696,-0.659493,0.729422
0.504025,-0.321730,0.601267,0.086473,0.897344,0.432777
-0.618263,-0.487222,0.714426,-0.250328,0.923108,-0.291902
-0.000474,0.009252,0.053211,-0.670414,0.597690,-0.439673
0.844206,0.260488,0.593999,0.723074,0.380234,-0.576702
0.522464,0.207447,0.766398,0.716863,-0.687551,0.115678
-0.151592,0.805658,0.417708,0.352688,0.761635,-0.543621
0.594908,-0.246600,0.755769,0.808940,-0.490491,0.324090
0.778977,-0.283156,0.662775,-0.048166,0.959097,0.278949
-0.048295,-0.597786,0.549858,-0.879790,-0.019092,-0.474979
-0.651810,-0.212866,0.542718,-0.483329,0.214119,-0.848850
0.398073,-0.107363,0.829836,0.858351,0.200852,0.472115
0.050638,0.243152,0.278402,0.413067,0.555688,-0.721517
-0.221657,0.579375,0.685883,0.905727,0.064084,0.418989
0.473177,-0.217703,-0.568109,-0.098397,0.001000,0.995147
-0.219278,-0.267433,0.603084,-0.098419,-0.974370,-0.202279
-0.028709,0.718658,0.418834,0.889557,0.387568,-0.241826
-0.311115,0.130972,0.162848,0.494813,0.075295,0.865731
-0.222214,0.275363,0.920401,-0.148875,0.750619,-0.643745
-0.107736,0.427683,0.863235,0.896021,-0.265545,-0.355855
-0.548791,0.681608,0.629087,-0.223792,0.810510,-0.541286
-0.189935,0.018480,0.891778,-0.581859,-0.195996,-0.789320
0.532854,-0.145844,0.552109,0.694140,0.698766,-0.172905
-0.055115,0.597340,0.363050,0.578214,0.619876,-0.530493
0.326026,0.150282,0.678438,-0.090325,-0.886111,0.454586
-0.121456,-0.163990,0.818419,0.982533,-0.184895,0.021021
0.288989,0.004592,0.300159,-0.772456,-0.250056,0.583767
0.429202,-0.262326,0.719941,0.928114,0.318402,0.192939
0.570048,-0.071926,0.880683,-0.477022,-0.220610,-0.850753
-0.206947,0.618261,0.728239,0.194734,-0.931560,0.307041
0.683018,0.245706,0.806712,0.245511,0.822685,-0.512750
-0.050716,0.120130,0.550581,-0.681182,0.330623,0.653207
-0.236130,0.331945,0.520945,-0.141125,0.185726,0.972414
0.244182,0.121609,0.802804,-0.385979,0.909764,-0.152805
0.120942,0.365501,0.646759,0.796944,0.410031,-0.443570
0.163567,-0.101807,0.367472,-0.727507,0.517349,0.450647
0.697174,-0.182985,0.825639,-0.503669,0.251840,0.826374
0.389629,0.166366,0.409989,-0.569398,0.290060,-0.769188
-0.514572,0.688329,0.769148,0.063231,-0.969268,0.237743
0.500576,-0.679412,0.483638,-0.384873,0.498458,-0.776796
0.597329,0.197723,0.839468,0.483695,0.459585,-0.744863
-0.099884,-0.077570,0.902407,0.022457,-0.661408,0.749690
-0.347038,-0.160629,0.777478,0.408264,-0.570881,-0.712331
0.239900,-0.409358,-0.536447,0.173436,-0.286260,-0.942324
0.450693,0.165335,0.496695,-0.475038,0.605865,-0.638175
-0.689241,-0.414332,0.364369,0.021223,0.890372,0.454739
0.406164,-0.169904,0.898886,0.618072,-0.784388,0.052178
0.129863,0.120177,-0.954154,0.167442,-0.366929,-0.915056
-0.020102,-0.030979,-0.965941,-0.363150,0.239650,0.900383
0.754988,0.135722,0.853153,-0.653794,0.058506,0.754407
0.678814,0.357525,0.576471,-0.190055,0.622193,0.759443
-0.680557,-0.298075,0.334990,0.409648,0.220648,0.885157
0.401681,-0.220616,0.837104,0.918766,0.170511,-0.356082
0.429756,-0.197723,-0.903485,0.286001,-0.145100,-0.947180
-0.705142,-0.365633,0.514368,0.664564,0.271587,-0.696129
0.121932,-0.071163,-0.037934,-0.375198,-0.925580,0.050273
0.310282,-0.071880,0.672391,0.459263,-0.464169,-0.757380
-0.409809,-0.360886,0.687073,0.202017,0.696956,0.688071
0.431857,-0.331273,0.701272,-0.693445,0.190342,-0.694913
-0.313056,0.172502,0.879718,-0.580053,0.026230,0.814157
0.122963,-0.018122,-0.907103,-0.599488,0.742706,0.298332
0.331815,0.268464,-0.536752,0.076030,-0.198203,-0.977208
0.048694,0.285218,0.518002,-0.739532,0.596029,-0.312797
0.325668,0.180612,0.665975,-0.499171,-0.864824,0.053921
0.198820,-0.537709,0.561773,-0.213474,0.099004,0.971919
0.533210,-0.657996,0.496711,0.309040,0.654876,-0.689661
0.756256,-0.212732,0.743435,-0.791038,0.531085,0.303657
-0.212695,0.059159,0.821844,-0.598878,0.800012,-0.036407
0.121853,-0.039445,-0.281120,0.615562,-0.775915,-0.137986
0.409533,-0.257084,0.686816,-0.423540,-0.002744,-0.905873
0.512590,-0.044509,0.906202,-0.654813,0.258828,0.710090
-0.034774,0.263042,0.605448,-0.360595,-0.574112,0.735096
-0.673221,0.637434,0.758197,-0.088935,0.192357,0.977287
0.084896,0.325224,0.783894,0.296533,-0.059530,0.953165
0.015228,-0.099119,0.269815,0.293506,-0.955954,-0.002591
-0.141955,-0.146563,0.819046,0.862296,0.289752,0.415318
0.236093,-0.365140,0.468571,-0.179890,0.686932,0.704105
0.691900,0.260310,0.684355,0.468349,0.810739,-0.351214
0.843016,0.220842,0.711274,0.764118,0.424880,-0.485386
0.056030,0.601909,0.663595,0.613533,0.123616,0.779934
-0.398271,0.534619,0.754675,0.149222,-0.151333,0.977155
0.428369,0.328002,0.740557,0.013203,0.847143,0.531201
-0.113486,-0.126581,0.176194,-0.300731,0.885108,0.355168
-0.383441,0.097911,0.896023,-0.638644,0.194038,-0.744637
0.074588,0.007638,-0.955071,-0.419066,0.129541,0.898667
0.241444,-0.515982,-0.254860,-0.318191,0.413520,0.853086
-0.041952,-0.138363,-0.955521,0.311483,-0.102495,-0.944708
-0.294024,-0.182671,0.803287,-0.514942,0.529932,0.673800
0.406757,-0.345338,-0.422452,-0.378159,0.324742,0.866913
-0.053530,-0.560109,0.562658,0.909412,-0.407028,0.085427
-0.900353,0.392695,0.241079,-0.664329,-0.372366,0.648083
0.353108,-0.353314,-0.898870,-0.225799,0.156471,0.961526
0.830169,0.090159,0.529130,0.492469,0.372965,-0.786366
-0.076488,0.292969,0.844582,0.955262,-0.255909,0.148276
-0.149133,0.012702,0.712737,0.942100,-0.106693,0.317906
0.282765,0.025871,-0.927605,-0.052599,0.268042,0.961970
-0.097227,-0.190152,0.859633,-0.520085,0.670426,0.529189
0.044452,-0.336916,-0.933475,-0.233183,0.170189,0.957424
0.008645,-0.121027,0.657356,0.394042,0.905223,0.159067
-0.293745,-0.113633,0.844952,0.469093,0.704033,0.533188
-0.388874,0.251618,0.697799,0.782297,0.143314,-0.606194
-0.080019,-0.140335,-0.555245,-0.244737,-0.326527,0.912953
0.387606,0.059651,-0.925097,0.254546,-0.036743,-0.966362
0.191046,-0.054768,-0.870488,0.094666,0.930278,0.354432
0.411912,-0.546043,0.409153,-0.325125,0.778241,0.537247
-0.071810,-0.173623,0.904321,-0.633600,0.339685,0.695100
-0.567112,0.372400,0.772541,-0.437796,0.682948,-0.584737
0.792182,0.120669,0.883432,0.829422,-0.176203,-0.530105
-0.596612,0.446318,0.785084,0.063343,-0.804865,0.590068
-0.130735,0.123447,0.744866,0.968046,0.236271,-0.084045
-0.274991,-0.297180,0.457941,-0.121843,0.980139,0.156465
0.683534,0.220662,0.833197,0.067970,-0.709552,0.701367
-0.081605,0.173489,0.807323,0.664416,0.306051,-0.681824
0.156311,0.076853,0.700195,0.438949,-0.864639,0.244383
-0.511956,-0.339514,0.319987,0.742352,-0.650783,0.159359
0.683969,0.263042,0.631869,-0.154674,0.455549,-0.876671
-0.046274,0.245348,0.760915,-0.012415,0.601899,0.798476
-0.118997,-0.383597,0.763166,0.904005,-0.371371,0.211799
-0.194812,0.794190,0.536414,0.571452,0.610421,-0.548479
-0.068518,0.191363,0.836557,0.733184,-0.243686,0.634869
0.050519,-0.067849,0.258575,0.755629,-0.648772,-0.090111
-0.363416,0.018614,0.879010,0.615960,0.037665,0.786877
0.397916,-0.152073,0.301912,0.943190,0.140588,-0.301045
0.577067,0.171966,0.816795,-0.113035,0.864530,-0.489705
0.439906,-0.156957,0.852493,-0.623300,0.327360,0.710164
-0.146001,-0.239792,0.937640,0.016462,0.975791,0.218087
-0.361354,-0.245345,0.350379,-0.264035,0.964397,0.014962
0.401761,0.137917,0.920948,0.636427,-0.635454,-0.437218
-0.310004,-0.034966,0.480599,0.137326,0.990434,0.013455
0.408780,-0.679232,0.498963,-0.160246,0.963750,0.213325
-0.522382,-0.183477,0.288517,-0.474730,-0.137010,-0.869402
-0.153574,-0.525615,0.554425,-0.612173,-0.516576,-0.598660
0.568659,-0.033757,0.884622,0.607927,-0.790183,0.077690
0.104287,0.130256,0.605979,0.828644,0.435154,-0.352123
0.235261,-0.329703,0.773265,-0.650573,-0.756397,-0.067957
-0.407747,0.748717,0.328959,-0.553359,-0.802420,-0.223419
0.089695,0.185000,-0.964559,-0.186373,0.316669,0.930046
0.696579,0.363081,0.485664,0.243712,0.655443,-0.714842
-0.028590,-0.047150,0.457829,0.129578,0.438229,0.889474
-0.764860,-0.553702,0.409185,0.129279,0.977808,-0.164861
0.587614,0.131511,0.694148,-0.380711,-0.664618,-0.642916
0.207462,-0.062115,0.378150,-0.744811,0.523733,0.413473
-0.173756,0.606612,0.732259,-0.613703,0.752184,0.239973
0.349657,-0.005399,-0.618120,-0.217314,-0.016301,0.975966
-0.424678,-0.156284,0.743998,-0.430034,0.560933,0.707407
0.482812,-0.084515,0.879235,0.152907,0.926479,-0.343883
0.165155,-0.225409,-0.612089,-0.259420,0.670097,0.695465
-0.095245,-0.436015,0.794105,0.380716,-0.864790,0.327405
-0.030136,-0.540353,0.531027,-0.547824,-0.507977,-0.664716
0.109839,-0.623366,0.511393,0.810403,-0.410750,-0.417769
0.191683,0.134959,-0.948414,-0.295029,0.281818,0.912982
0.575322,-0.168110,0.573496,0.615512,0.739125,-0.273568
-0.514175,0.536008,0.768505,0.809156,-0.471765,0.350292
0.112298,0.537936,0.649862,0.898496,0.097191,-0.428088
0.113844,-0.097730,-0.151897,0.046978,-0.984393,0.169597
-0.089494,0.327824,0.874443,-0.713468,-0.660576,0.233672
-0.035052,0.148043,-0.972213,-0.367313,0.090378,0.925696
-0.175184,-0.030397,-0.326049,0.042389,0.544238,0.837859
-0.344025,0.419617,0.695837,-0.084712,-0.850672,0.518827
0.621238,-0.136662,0.811536,0.722226,-0.322611,0.611810
-0.123675,-0.123223,0.451397,0.299433,-0.056230,0.952459
-0.446845,-0.437940,0.734012,0.117575,0.627636,0.769577
-0.417503,0.146429,0.911412,0.642017,-0.367708,-0.672759
-0.380824,0.384450,0.669401,0.964180,-0.234479,0.124003
0.948692,0.273659,0.738627,0.801743,-0.061812,-0.594463
-0.042903,-0.076988,0.444176,0.150012,0.274231,0.949891
0.366511,0.072465,0.846849,0.894785,-0.391889,0.213968
0.423253,-0.240686,0.853796,0.941879,-0.226200,-0.248392
-0.149927,-0.011625,0.401274,-0.178669,-0.815431,0.550590
0.844722,-0.073539,0.881085,0.540589,0.226919,0.810106
0.000515,-0.396233,0.504269,0.134321,0.133802,0.981863
-0.136127,-0.263939,0.846865,0.996457,0.040068,0.073941
-0.192196,0.626682,0.627768,-0.800134,-0.599568,-0.017424
-0.365516,0.202878,0.858588,0.144901,-0.386995,0.910625
-0.057298,-0.182088,0.860485,0.987853,-0.153696,0.022906
0.356755,-0.154671,0.262257,0.844746,-0.197298,-0.497471
-0.009754,-0.226754,-0.945101,-0.181100,0.144665,0.972766
0.198065,-0.959365,0.453761,0.412435,-0.535849,0.736725
-0.054324,-0.123310,0.893981,0.971726,0.134956,-0.193740
0.610216,0.300719,0.669915,0.453256,0.317587,-0.832885
0.299060,-0.587125,0.576921,0.511744,0.674427,-0.532227
-0.534715,0.482204,0.357776,0.910312,0.200285,0.362240
-0.437924,0.648098,0.762876,0.793843,0.240082,0.558725
-0.501723,-0.314158,0.548989,0.916278,0.173393,0.361067
0.466872,0.207447,0.832280,0.899919,-0.433138,0.050363
-0.818550,-0.509622,0.442295,-0.293560,0.823413,-0.485606
-0.219793,0.799388,0.619953,0.105908,-0.614138,0.782060
0.257902,0.232803,0.847846,-0.282639,-0.933662,0.219978
-0.181489,-0.309365,0.830206,-0.516908,0.473779,0.712979
0.199890,-0.092445,0.076029,0.733221,0.665590,-0.139199
0.316270,0.205475,0.867545,0.837719,0.509107,-0.197577
0.129229,-0.187598,0.742020,-0.143766,0.853348,0.501127
-0.255997,-0.237954,0.947224,0.773318,0.004654,0.634001
0.125384,-0.061486,-0.614727,0.569253,-0.811693,0.130785
-0.008207,-0.108750,-0.954106,0.166148,-0.106442,-0.980339
0.138746,-0.021480,-0.751636,0.261579,0.944410,-0.199165
-0.548436,0.183567,0.716404,-0.091801,-0.734066,0.672844
0.326382,0.211165,0.693762,-0.560939,-0.653902,0.507701
-0.072326,-0.352193,0.752553,-0.790628,0.601414,0.114923
-0.835203,0.395426,0.273755,0.793879,0.209926,-0.570690
-0.688965,0.750555,0.381398,0.328153,0.247202,0.911705
0.506643,-0.339604,0.640857,0.671220,-0.697928,0.249720
-0.034379,0.182851,0.241771,-0.279695,-0.700933,0.656097
0.194260,-0.766458,0.440816,0.298830,0.583021,0.755504
-0.234545,0.608852,0.690225,0.801964,0.178083,0.570211
-0.464769,-0.279842,0.367923,-0.517341,0.298653,-0.801975
0.088427,-0.244451,0.889945,0.894708,0.446505,0.011437
-0.943573,0.049794,0.246386,-0.642521,0.192435,0.741711
0.758001,0.179400,0.885056,0.934182,0.086612,-0.346124
0.252747,0.189258,0.790085,-0.688645,0.709816,0.148083
-0.147507,0.026142,0.111921,0.314740,-0.679980,0.662243
0.716207,0.009071,0.751379,0.030781,-0.994502,0.100087
0.053373,0.165827,0.329040,-0.465288,0.638068,-0.613495
0.043063,0.098493,-0.952723,-0.431345,0.189243,0.882116
-0.121930,0.370740,0.831348,0.389437,0.903369,-0.179621
0.627622,0.247319,0.838133,-0.500663,0.832175,0.238374
-0.083587,-0.586676,0.626964,0.032100,-0.237835,0.970775
