-0.019645,0.742699,0.131243,-0.305504,0.214794,-0.927648
0.089535,-0.150638,0.405853,0.008140,0.981309,0.192266
-0.573655,0.002785,0.843558,-0.175095,-0.496501,0.850193
0.104369,0.616670,0.779535,-0.550969,0.486677,-0.677922
0.001970,0.050450,0.623593,0.614088,-0.689081,0.384791
0.119668,-0.122854,0.108239,0.926869,0.346786,0.143710
0.344691,-0.766984,-0.407897,0.587448,-0.393557,-0.707119
-0.219169,0.361764,0.856162,0.059794,-0.106682,0.992494
0.054879,0.500291,0.751821,0.005295,-0.558630,0.829400
0.592952,0.551908,0.212039,0.093317,-0.299393,0.949555
0.180864,-0.772553,-0.459036,-0.654469,0.406457,0.637545
0.338432,0.325562,0.060687,0.887382,-0.326012,0.325991
-0.011706,0.628910,0.846764,0.929286,0.256993,-0.265297
-0.226703,-0.025645,0.610288,0.174466,-0.131795,0.975803
0.250696,0.683635,0.756590,-0.000386,-0.671162,0.741310
-0.058009,0.308465,0.668300,0.489084,-0.191579,0.850937
-0.066760,0.627292,0.690362,-0.094623,0.175536,0.979915
-0.031119,0.501393,-0.643091,0.033474,0.092351,0.995164
-0.596257,-0.037367,0.492220,-0.186374,0.883124,0.430532
-0.257244,-0.131856,0.744607,0.805753,-0.578709,-0.125930
-0.528454,0.049349,0.843257,0.367372,0.231723,-0.900746
0.306270,-0.529952,-0.475969,0.811584,-0.539193,-0.224950
0.198251,-0.079075,-0.123609,0.502512,-0.824391,0.260503
0.218995,-0.048247,-0.046620,-0.201022,0.940266,-0.274755
0.079219,0.483971,0.755087,-0.359217,-0.302477,0.882876
0.033090,0.170003,0.713567,0.624745,0.604959,0.493678
0.453524,-0.064503,0.393049,0.042449,-0.914947,-0.401335
0.222474,0.101418,-0.725390,0.858816,0.348066,0.375879
-0.446279,0.112687,0.227549,-0.107412,-0.592362,0.798480
0.178953,0.027265,0.771880,0.200551,0.026765,0.979318
0.224154,0.067483,0.646097,-0.498588,0.852138,-0.158965
0.096662,-0.016061,0.307844,-0.417940,0.822391,0.386004
0.114916,0.568681,0.760558,0.175661,-0.528187,0.830760
0.043348,0.230685,0.653732,0.048749,-0.261697,0.963918
-0.233311,-0.178226,0.483523,-0.566246,0.331178,-0.754776
0.216447,0.557024,0.745268,-0.233128,0.578148,-0.781919
-0.289291,0.138722,0.468995,0.100930,-0.988102,0.116048
0.049663,0.037886,0.506988,0.980683,-0.195586,0.002804
-0.421651,-0.208924,0.489715,0.149388,-0.137678,0.979147
-0.171361,0.245839,0.962407,-0.669038,-0.207790,-0.713591
0.106282,0.315719,0.111285,-0.284664,-0.178077,0.941942
0.042304,0.005246,0.280371,0.412144,0.890029,0.194897
0.332059,0.263196,0.130321,0.637196,-0.286395,-0.715513
-0.642617,-0.268959,0.830793,-0.248900,0.548341,-0.798356
0.349675,0.189172,0.631889,-0.447432,0.231721,0.863777
0.067165,0.386568,0.736511,0.939915,-0.341314,0.008067
0.316932,0.074154,0.505405,-0.756505,0.573455,0.314403
0.127317,0.405932,0.653732,0.991223,-0.123787,0.046402
0.278048,0.189949,-0.056599,-0.014148,-0.035507,0.999269
0.140820,-0.061977,0.169998,0.276496,0.759652,0.588625
0.244901,0.640762,0.611049,0.133664,0.142472,0.980732
0.472879,0.318308,0.162243,0.417653,0.643784,0.641177
-0.636590,0.041449,0.834881,-0.025949,-0.893381,0.448549
0.515937,0.612914,0.223120,-0.020326,-0.395584,0.918205
0.579971,0.419338,0.171341,-0.089527,-0.888331,0.450393
-0.594111,0.122273,0.837466,0.443630,0.236892,0.864335
-0.519298,-0.221617,0.374413,-0.743190,0.668733,0.021560
0.310269,-0.124344,-0.384412,0.750971,-0.659464,0.033914
-0.318440,0.504372,0.863056,-0.174798,0.017559,0.984448
-0.793173,0.075578,0.861032,0.181077,-0.311837,0.932721
-0.145746,0.161583,0.852615,0.848255,0.507966,-0.149781
0.124247,-0.006347,0.196910,-0.854871,-0.009021,-0.518762
-0.065427,0.084905,0.700201,0.377743,-0.920183,0.102825
0.749942,-0.067806,0.391866,0.297422,-0.734391,0.610090
0.162841,-0.036007,0.108820,-0.406365,-0.881670,-0.239842
-0.653744,-0.260216,0.580450,-0.494692,-0.494198,0.714876
0.192512,-0.006735,-0.087880,0.002430,0.918904,0.394475
-0.683530,0.274853,0.486369,0.167491,-0.640369,0.749583
0.114858,0.389224,-0.303336,0.889770,-0.410405,-0.199694
-0.138329,0.564472,0.689942,-0.410724,0.228176,0.882747
0.396846,0.059970,-0.707175,0.860823,-0.321985,-0.394092
-0.322787,-0.163201,0.778633,0.483440,-0.047637,0.874080
-0.205957,0.718154,0.674472,0.357447,-0.287127,-0.888701
-0.825916,-0.143319,0.889827,-0.320074,0.109945,-0.940991
0.352630,-0.122271,-0.593435,0.841119,-0.514258,-0.167505
0.208855,-0.694643,-0.459156,-0.839016,0.296850,0.455996
0.301170,-0.121624,-0.432164,0.249577,0.956870,-0.148700
0.544159,-0.040671,0.403248,0.059423,0.869957,0.489534
0.180806,0.321223,-0.274099,-0.126940,0.233581,0.964016
0.425012,-0.124020,0.756831,0.468969,0.215746,0.856459
-0.758229,0.126028,0.864478,0.262530,-0.377102,0.888185
0.445700,0.326792,0.635897,0.915381,-0.083346,-0.393867
-0.077133,0.065864,0.677437,-0.296282,0.752182,-0.588591
0.270168,-0.063208,-0.331730,0.758661,0.569162,-0.316998
-0.018892,0.639014,0.922450,-0.423244,-0.627707,0.653336
-0.075567,0.468688,0.845121,0.989640,0.011603,-0.143098
0.111324,0.640244,-0.067160,-0.155959,-0.053345,0.986322
-0.536567,0.026877,0.596501,-0.207206,0.967523,0.144795
0.270746,-0.073699,-0.293256,0.905434,0.422611,-0.039857
-0.097299,0.506963,0.362770,0.163906,-0.033693,0.985900
0.170492,-0.737775,-0.459016,-0.245875,-0.099126,0.964220
0.201262,-0.058675,-0.069945,-0.793861,0.581628,-0.177468
-0.326379,-0.229000,0.784684,-0.625508,0.776778,-0.073180
0.207175,0.059452,0.647660,0.547465,-0.581345,0.601930
-0.859991,0.077003,0.870911,0.081109,-0.199072,0.976623
-0.313978,0.094489,0.216347,0.280863,0.914321,0.291775
-0.075162,0.801697,0.112527,0.122190,-0.182935,0.975502
-0.192164,0.207046,0.900869,-0.649474,-0.696631,0.304777
-0.865149,-0.110938,0.404390,0.037525,-0.306818,0.951028
-0.030366,-0.018198,0.562195,-0.088259,-0.995834,0.022894
0.106804,0.426009,0.661727,0.995942,-0.084529,0.030897
0.296593,0.115666,-0.658501,0.989605,-0.139112,-0.036459
0.307429,-0.104721,-0.758574,-0.614024,-0.785000,0.082155
-0.446859,-0.219998,0.794163,0.524678,0.238532,0.817200
0.442050,0.436047,0.627140,0.889330,0.119524,-0.441369
-0.077074,0.899618,0.391926,-0.165240,-0.376231,0.911672
0.115265,0.327958,0.683910,0.708397,0.591912,-0.384466
0.299953,-0.125639,-0.115994,0.084428,0.135949,0.987112
-0.154440,0.174276,0.871031,0.939236,0.290119,0.183482
0.163305,-0.045398,-0.062290,0.257848,0.948296,-0.185067
0.521732,0.356324,0.661527,0.772149,0.331724,-0.541983
0.259793,0.484036,0.621269,-0.022617,-0.268289,0.963073
0.003652,0.171686,0.753284,0.878735,-0.262143,0.398881
-0.023529,0.141702,0.798371,0.772915,-0.560351,0.297674
0.309689,0.118257,-0.289789,0.875202,-0.186490,0.446365
0.349153,-0.019428,0.401846,-0.035574,0.363974,0.930730
-0.382940,-0.058998,0.799773,-0.722689,-0.075641,-0.687021
0.201089,0.039765,0.424329,0.821812,-0.397444,-0.408243
0.232325,0.146752,0.381967,0.995979,0.088592,0.013283
0.074408,-0.127906,0.317803,0.777821,-0.038799,-0.627287
0.350428,0.245709,0.156793,0.698303,-0.264979,-0.664950
0.132069,-0.072923,0.237388,0.281340,0.931528,-0.230442
0.169912,-0.001295,0.358602,-0.391397,0.919473,-0.037126
-0.285061,-0.233275,0.796968,0.253234,0.042173,0.966485
0.288827,-0.602163,-0.444448,0.567769,-0.577998,-0.586137
-0.493104,-0.305615,0.811636,-0.223440,-0.059115,-0.972923
0.178777,0.107700,0.115232,0.907527,0.130886,-0.399078
0.297924,-0.115601,-0.521316,0.044983,-0.498506,0.865718
0.344518,-0.085551,-0.569509,-0.249163,0.931164,0.266179
0.306502,-0.024674,0.404791,0.040063,0.984456,-0.170999
-0.586114,-0.074412,0.564279,0.563023,-0.779373,0.274922
0.210130,0.441034,0.605559,-0.512247,0.566523,-0.645488
-0.007303,0.852082,0.121625,0.031144,-0.247837,0.968301
0.039522,0.317273,0.733466,0.009421,-0.567698,0.823183
-0.135373,0.238975,0.814061,0.974890,-0.186927,0.121031
0.446858,0.243767,0.643312,0.092057,0.823855,0.559275
-0.095097,0.781621,0.381446,0.048294,-0.221643,0.973931
-0.041262,0.612396,0.769916,-0.370162,-0.451385,0.811931
0.391226,0.231656,0.640406,-0.141137,0.092597,0.985650
0.514545,0.468688,0.682507,-0.282676,-0.185029,0.941201
0.222706,0.087495,-0.052912,-0.908523,0.352550,0.224266
0.499711,-0.246940,0.316320,0.128802,-0.321456,0.938124
-0.761590,-0.128165,0.867003,0.190657,-0.155035,0.969337
-0.036220,-0.031475,0.650766,0.764752,-0.613864,-0.195768
0.182951,-0.006606,-0.098721,0.014710,0.801155,0.598276
0.458623,0.235995,0.623734,0.411935,-0.846828,0.336440
0.019819,0.033742,0.509734,0.924221,-0.305992,0.228438
0.164465,0.383136,-0.062571,-0.708038,-0.139028,0.692354
-0.006318,0.318503,0.781338,0.019568,-0.103044,0.994484
-0.544855,-0.210543,0.497250,-0.344745,0.602628,-0.719716
-0.521963,0.232693,0.239352,0.847261,0.306329,0.433948
0.028860,-0.007512,0.423207,0.890736,-0.350543,0.289325
-0.193788,0.265204,0.964331,-0.169738,-0.552235,0.816227
-0.023760,0.736093,0.121084,-0.369812,0.307991,-0.876573
-0.012750,0.138334,0.761139,0.964456,0.263091,0.024641
0.610339,0.362348,0.712245,0.728771,0.477971,-0.490343
-0.154382,0.216373,0.960383,-0.149483,-0.579647,0.801039
-0.533147,-0.178745,0.494645,-0.200177,0.812755,-0.547137
-0.428953,-0.077521,0.565822,-0.273686,0.466122,0.841324
0.300823,0.958228,0.777771,-0.125976,0.010612,0.991977
0.160525,0.498414,0.894156,0.172650,-0.728681,-0.662734
-0.085362,-0.050062,0.474466,-0.568883,0.395393,-0.721135
-0.241539,0.293116,0.287845,0.000531,-0.244736,0.969590
-0.629984,0.057380,0.844380,0.048468,0.902042,-0.428919
0.395978,-0.225892,0.767892,-0.289951,-0.090277,0.952774
0.449989,0.235219,0.634374,-0.102237,-0.936052,0.336680
0.109238,0.771259,0.791918,0.261283,0.089008,0.961150
-0.185385,-0.069943,0.358562,0.254040,0.531356,0.808161
-0.022659,0.173241,0.763984,0.905739,-0.423125,0.024531
0.499189,-0.267987,-0.194145,-0.041196,-0.058338,0.997447
0.182776,0.702416,-0.291493,0.657975,0.095349,-0.746979
-0.496871,-0.086911,0.614055,0.099318,0.423466,0.900451
-0.097357,0.415971,0.103309,-0.036209,-0.070634,0.996845
-0.383866,0.388835,0.852335,0.089295,-0.081322,0.992680
0.130564,-0.012629,0.334395,0.906677,-0.417386,0.061043
0.138328,-0.039893,0.175088,0.675873,-0.613523,-0.408394
0.059864,0.020142,0.441763,-0.188739,0.973520,0.128981
0.471082,-0.360145,-0.993287,0.209440,-0.151724,0.965979
-0.407685,0.201153,0.464587,-0.027957,-0.731847,0.680895
0.485106,0.029532,0.154388,0.258994,-0.008806,0.965839
-0.449293,-0.294929,0.492080,-0.606307,0.573466,-0.550934
0.646095,0.460722,0.774024,0.919259,0.238217,-0.313393
0.244611,-0.931804,-0.401325,-0.066371,0.061441,0.995902
-0.591098,-0.255877,0.493302,-0.391123,0.915670,-0.092576
-0.002666,0.119099,0.718577,-0.614552,0.398946,0.680565
0.257650,-0.133540,-0.260853,-0.314339,0.793531,0.521056
-0.525498,-0.062884,0.835162,-0.461415,-0.258454,-0.848704
-0.440252,0.291173,0.483463,0.130933,-0.146739,0.980471
0.171245,0.765624,0.782360,0.173468,-0.226015,0.958554
-0.678373,-0.197396,0.486649,-0.110906,-0.046859,0.992726
-0.057834,-0.054853,0.599086,0.885368,-0.348599,0.307575
0.174315,-0.076938,0.176591,0.116812,0.874152,0.471394
-0.072729,0.053559,0.680423,0.771503,-0.449744,0.450016
0.098400,0.778058,0.799032,-0.286364,0.383027,-0.878229
0.490322,0.612461,0.220676,-0.192278,-0.326280,0.925511
0.182893,0.035943,0.432004,-0.546963,0.788736,0.280584
0.045376,0.521211,0.752783,-0.071055,-0.524051,0.848718
0.347241,-0.208471,0.106395,0.652732,0.745580,0.134355
0.304300,-0.114176,-0.269009,-0.560491,0.827545,-0.031923
-0.235976,-0.044168,0.620447,0.296319,-0.908752,-0.293878
0.674605,-0.140146,0.553879,0.249565,-0.083887,-0.964718
0.348807,-0.112104,-0.635977,0.821840,-0.542992,0.172450
-0.681444,0.150508,0.235404,0.021770,0.003296,0.999758
-0.544043,0.437342,0.851954,-0.037170,-0.271354,0.961762
0.281757,-0.238068,-0.066138,0.829456,0.552720,-0.080641
0.629115,0.263390,0.772200,0.805998,-0.589061,-0.058083
-0.286334,-0.443883,0.791177,-0.173236,-0.202727,0.963790
-0.025267,0.058675,0.385574,-0.460449,0.129883,-0.878133
-0.461810,-0.127841,0.298065,-0.241956,0.967809,-0.069298
-0.032453,-0.009066,0.477251,-0.307270,0.686646,-0.658865
0.720618,-0.102649,0.389001,-0.040673,-0.799817,0.598864
0.073887,0.368241,0.108199,-0.014920,0.073828,0.997159
0.216272,0.063921,0.657379,0.347118,-0.499567,0.793689
-0.193614,0.292987,0.286302,-0.128189,-0.184965,0.974349
-0.115380,0.523866,0.707014,0.879920,-0.417648,-0.226520
0.231050,0.699696,0.761279,0.288676,-0.385673,0.876312
0.152759,-0.018069,-0.017424,0.020633,-0.966655,0.255248
0.088606,-0.029337,0.321009,0.090734,0.992618,0.080473
-0.429995,0.028690,0.483884,-0.198976,-0.202533,-0.958848
0.330957,0.155690,0.632691,0.380851,-0.283720,-0.880031
-0.118799,0.051875,0.406775,-0.507514,-0.828808,-0.235599
0.267559,0.169808,0.062430,-0.748336,0.662208,-0.038404
0.013734,0.142867,0.654914,-0.385225,0.727001,-0.568393
0.171070,0.000972,0.355897,-0.534708,0.824846,0.183620
-0.204335,0.091187,0.496749,0.720287,0.609179,-0.331793
0.415045,0.447251,0.632992,0.852593,0.162155,-0.496781
-0.121466,0.317078,0.851634,-0.370580,-0.604245,0.705379
-0.225082,0.361570,0.592393,-0.725823,-0.224923,0.650070
-0.519993,0.263131,0.235865,-0.796877,0.025707,0.603594
0.303837,-0.095136,-0.784043,-0.709127,-0.695195,-0.117656
0.270456,-0.078427,-0.305800,0.856118,0.506938,-0.100380
-0.597300,-0.100577,0.391365,-0.050287,-0.673947,0.737067
0.134909,-0.067288,0.098861,0.778396,0.412181,-0.473505
0.031294,0.811606,0.802098,-0.045900,-0.343822,0.937912
0.035872,0.027719,0.562997,0.831928,-0.537363,0.138339
-0.096431,0.480669,0.873416,0.964476,0.061499,-0.256914
-0.008983,0.076615,0.349024,0.980568,0.057928,-0.187434
0.129462,-0.039051,0.048503,0.834168,0.153894,0.529604
0.114858,-0.056602,0.077700,0.948331,-0.249510,-0.195991
0.415681,-0.132958,0.750458,-0.496668,-0.120194,-0.859578
-0.355818,-0.223690,0.795826,-0.522653,0.850728,-0.055646
-0.604544,-0.109837,0.391626,0.659734,-0.276083,-0.698948
0.317164,-0.109319,-0.785346,0.677694,0.729051,0.095997
0.125405,0.308853,0.696835,-0.411590,-0.908833,-0.067940
-0.026716,0.004404,0.593315,0.602283,-0.736018,0.309083
-0.204045,0.236643,0.961005,-0.640470,-0.543043,0.543049
0.450916,-0.098763,0.051650,-0.072998,-0.960254,0.269412
-0.569598,-0.193187,0.840692,0.380226,-0.496703,0.780201
-0.067977,0.639207,0.370425,-0.618390,0.087791,-0.780952
0.269007,-0.064179,-0.413348,-0.717098,0.693309,0.071370
0.287030,-0.093970,-0.257507,0.521170,-0.853453,-0.000529
0.149049,-0.073765,0.073893,0.492211,-0.842849,-0.217563
0.131781,-0.038080,0.344795,-0.210453,0.976928,-0.036337
-0.024804,0.495434,0.900628,-0.180102,-0.445791,0.876832
0.284887,0.079399,0.462002,0.578327,0.594109,-0.559082
-0.043810,0.644000,0.784023,0.320575,0.781813,-0.534789
0.335709,-0.124473,-0.610268,0.699152,-0.707792,0.101083
0.250753,-0.103037,-0.116214,0.522905,0.842765,0.127736
0.341677,0.216566,0.771599,-0.414392,0.035931,0.909389
0.107672,-0.798977,-0.465709,-0.339416,-0.054565,0.939053
0.231630,0.770870,0.780296,0.028992,-0.463202,0.885778
0.137633,-0.036785,0.099822,-0.661069,0.612332,0.433633
0.231281,-0.066964,-0.291894,-0.401503,0.889281,0.219031
0.070585,0.588369,0.908764,-0.322204,0.436251,-0.840161
-0.284771,0.381841,0.854599,-0.068985,-0.126386,0.989580
-0.469807,-0.037950,0.813300,0.813247,0.027021,0.581291
0.040566,0.360210,0.599307,0.908746,-0.330851,-0.254397
0.232905,0.742374,-0.290631,-0.736619,-0.143005,0.661016
-0.082001,0.658312,0.884016,0.893885,0.378765,-0.239806
-0.001159,0.629752,0.779494,-0.208539,-0.757985,0.618037
-0.264314,-0.024674,0.343934,0.382941,0.776808,0.499925
0.347415,-0.147011,-0.846243,0.274153,0.952879,0.129850
0.529440,0.378214,0.687336,0.247082,0.947849,0.201329
-0.094344,0.328541,0.680904,0.179920,-0.379677,0.907455
0.593011,0.216113,0.657178,0.396467,0.917765,-0.022825
0.339824,-0.149342,-0.638763,0.385696,-0.896955,0.216124
0.088491,0.566091,0.759616,-0.298261,0.427478,-0.853407
0.298621,0.846059,0.451080,-0.087930,0.002964,0.996122
0.099965,-0.787837,-0.465508,-0.322493,-0.073415,0.943720
0.153164,0.439997,-0.058503,-0.662787,-0.140722,0.735467
0.013851,0.032770,0.523360,0.837598,-0.512715,-0.188555
0.158438,0.525031,0.896560,0.082419,-0.578846,0.811261
0.010952,0.740626,0.948000,-0.200391,-0.648863,0.734044
0.771905,-0.052976,0.397617,0.573655,0.477374,0.665608
-0.799026,-0.354056,0.867424,0.297518,-0.221700,0.928618
0.079104,0.009391,0.395152,-0.369659,0.907010,-0.201706
-0.436543,-0.104592,0.324697,-0.345735,0.856709,-0.382775
-0.327191,0.117868,0.225084,0.319020,0.939472,0.124974
0.039581,0.539862,0.111405,0.264848,-0.004137,0.964281
0.125059,0.787773,0.975893,-0.324556,0.785735,-0.526578
-0.024107,-0.030503,0.289629,-0.118050,0.915416,0.384810
0.145688,-0.032446,0.119941,0.007293,0.999505,0.030600
0.399223,0.303284,0.175609,-0.750031,0.414299,0.515567
0.228385,0.647691,0.758153,0.000077,0.008953,0.999960
-0.042303,0.189884,0.678960,0.957337,0.274705,0.089681
0.119146,0.611165,0.760317,-0.319445,0.505397,-0.801579
0.562470,-0.253675,-0.994530,-0.037178,0.163059,0.985916
-0.275150,-0.201670,0.483744,-0.305989,0.735162,-0.604903
-0.009736,0.634480,0.787670,-0.126634,0.812033,0.569707
-0.665855,0.115473,0.399341,0.855684,0.389779,-0.340409
0.004868,0.008355,0.541335,0.158643,-0.940230,0.301330
0.148470,0.007513,0.082188,0.833395,-0.550764,0.045959
-0.021790,0.281912,0.368481,0.110027,-0.007303,0.993902
0.418753,0.113789,0.161602,0.468894,0.881232,0.059744
0.515878,-0.409364,0.097298,0.009702,0.135859,0.990681
-0.021037,0.128230,0.757071,0.947096,0.319112,-0.034304
0.336869,0.316560,-0.057882,-0.797092,0.585082,-0.149409
0.219634,0.053171,0.441923,-0.736815,0.670538,0.086505
-0.080378,0.058222,0.693789,-0.193431,0.788722,-0.583526
0.262458,-0.136195,-0.204966,0.054732,-0.792690,0.607163
0.374305,-0.097402,-0.665755,0.979175,-0.193720,0.060743
0.015067,0.015414,0.550512,0.864413,-0.378017,-0.331503
-0.100719,0.031216,0.608284,-0.344938,0.635184,0.691056
-0.002897,0.187618,0.705732,-0.455852,-0.005604,-0.890038
-0.381491,-0.092221,0.501859,0.122379,0.389671,0.912787
0.321801,0.157956,0.334135,-0.594991,0.781834,0.186335
0.313109,-0.138462,-0.663010,-0.761531,-0.632242,0.142621
-0.242815,0.324332,0.850692,0.088697,-0.076794,0.993094
-0.443151,0.421670,0.855100,0.053494,-0.289792,0.955594
0.601066,0.327699,0.700422,0.591554,0.657396,-0.466791
0.115728,-0.017097,0.265983,0.112851,-0.981457,0.154942
-0.180285,-0.068130,0.480998,0.085163,-0.281596,0.955746
-0.052678,0.023056,0.669642,-0.667061,0.091526,-0.739360
0.266169,0.222848,-0.296643,0.845087,0.523245,-0.109741
0.347300,-0.470629,-0.459577,0.858502,-0.413867,-0.302800
0.003245,0.014119,0.547547,-0.658773,0.621305,0.424262
0.413594,0.357620,0.185949,0.185284,-0.561996,0.806121
0.074177,0.081342,0.374152,0.336976,-0.032545,-0.940950
0.540102,0.622758,0.219233,-0.028741,-0.343602,0.938675
-0.073482,0.051487,0.659884,-0.057239,-0.985857,0.157508
0.612889,-0.218573,-0.023475,0.190134,0.701639,-0.686696
0.133403,-0.029078,0.235825,0.360552,0.926268,-0.109678
-0.218069,0.399521,0.635156,0.930902,0.288108,-0.224535
0.129346,0.513827,-0.061929,-0.419882,-0.061506,0.905492
0.187123,-0.018521,0.397637,0.857117,-0.079706,-0.508918
-0.411798,0.203161,0.468053,0.435342,0.345303,0.831410
-0.508924,0.654427,0.284259,-0.006703,0.076016,0.997084
0.096547,-0.032316,0.224904,-0.651851,-0.757854,-0.027324
0.145515,-0.015284,0.182763,0.889305,0.262012,0.374815
0.484701,0.344602,0.154708,0.638719,-0.735829,-0.224929
-0.044042,0.240205,0.941948,0.932485,-0.171917,0.317672
-0.574525,-0.027912,0.490196,-0.310295,0.817829,0.484636
0.548736,0.096691,0.585700,-0.177777,-0.308829,0.934356
-0.175938,0.244803,0.954011,-0.563963,-0.763632,-0.314344
0.612192,0.352115,0.712445,0.637755,0.605954,-0.475487
-0.621059,-0.252639,0.491198,-0.387597,0.921603,-0.020388
0.118452,0.459297,0.638923,-0.407986,-0.089663,0.908575
0.711231,0.796645,-0.026581,-0.255192,-0.000006,0.966890
-0.011764,0.397773,-0.632310,-0.005845,0.155954,0.987747
0.189557,0.331714,0.662348,-0.605825,-0.549975,-0.574895
-0.528339,-0.024415,0.830072,0.176240,-0.161696,0.970976
-0.255389,0.368888,0.595118,0.744058,0.495525,0.448144
0.659076,0.532479,0.207330,-0.156124,-0.456806,0.875759
-0.204682,0.477884,0.681786,0.338602,0.476766,-0.811198
0.365901,-0.024480,0.402827,0.164402,0.596805,0.785363
0.193787,0.122790,0.418397,0.974962,-0.194271,-0.108200
0.664406,-0.051939,0.586261,-0.487850,-0.491101,0.721680
0.248609,0.049155,0.762542,0.021396,0.362731,0.931648
0.209550,0.403925,0.110363,-0.013351,0.163020,0.986532
0.393370,0.206464,0.635156,0.052769,-0.144308,0.988125
0.572033,0.332427,0.712164,0.653044,0.129984,-0.746081
-0.563746,-0.253805,0.371507,0.782377,-0.552093,-0.288236
0.365844,0.143644,0.130822,0.545220,0.838128,-0.016609
0.035872,0.213199,-0.318384,0.855781,-0.119639,0.503314
-0.147079,0.099993,0.781558,0.224908,-0.960650,0.162999
0.352052,-0.106923,-0.539070,0.812365,-0.565227,0.143462
-0.119031,0.674698,0.373390,0.128091,0.327684,-0.936064
0.281352,0.608705,0.741421,-0.530799,0.215729,-0.819581
-0.015183,-0.079205,0.448556,-0.337971,0.862887,0.375768
-0.852051,-0.092352,0.394030,-0.044943,-0.646930,0.761224
0.059052,0.004469,0.373571,-0.576947,0.675486,-0.459185
-0.646152,-0.018457,0.837727,0.452474,0.259806,0.853094
-0.472821,-0.353021,0.804563,0.391027,-0.269495,0.880040
-0.250173,-0.049996,0.758073,0.216471,0.866092,0.450583
0.122799,0.693544,0.636599,0.401722,-0.143361,0.904471
0.458971,-0.280487,0.311912,0.006799,-0.081373,0.996661
-0.058066,0.262483,0.851694,-0.170014,-0.897460,0.407014
0.084607,0.336896,-0.321571,0.934167,-0.250854,0.253781
-0.050127,0.582087,0.726592,0.333058,0.942838,-0.011393
0.240960,-0.053688,0.756791,-0.401154,-0.259391,-0.878517
-0.024107,0.759407,0.795746,-0.178373,-0.383475,0.906162
0.155773,-0.077197,0.088160,-0.614804,0.747194,0.252425
-0.218706,0.353216,0.288968,0.147019,-0.205594,0.967531
-0.441644,0.174276,0.236386,-0.286381,0.060134,-0.956227
0.543927,0.168772,0.642931,-0.196879,-0.582995,0.788261
0.535930,0.433522,0.191600,0.106336,-0.417544,0.902413
-0.409248,0.162361,0.472502,0.443856,0.547385,0.709480
-0.218881,-0.096108,0.482581,-0.580369,0.799737,-0.153601
0.295723,-0.069037,-0.414109,-0.825921,0.546800,0.137347
-0.079973,0.700473,0.375455,0.239525,-0.149667,-0.959285
-0.218533,0.677482,0.683449,0.383470,-0.132513,-0.913997
0.211985,0.577424,0.748935,0.430852,-0.633153,0.643027
0.681039,0.582864,0.215286,-0.171654,-0.392479,0.903601
0.547636,0.600026,-0.044356,-0.088965,-0.028275,0.995633
-0.410755,0.026812,0.235364,0.204421,0.629812,-0.749366
0.154788,-0.058351,0.151562,0.811052,-0.576801,-0.097439
-0.463375,0.298427,0.248950,0.684487,0.232671,-0.690899
0.045781,-0.010103,0.307584,-0.115180,-0.950519,0.288525
-0.459145,-0.041254,0.809532,0.779170,-0.553471,0.294217
-0.605817,-0.393627,0.364894,-0.569669,-0.035259,-0.821118
0.174722,0.529370,0.332572,0.352577,-0.924823,0.142801
-0.211579,-0.075707,0.736331,0.875533,0.342274,0.341013
-0.023529,0.561298,0.760057,0.136500,0.840518,-0.524307
0.477109,0.320316,0.174747,0.751874,0.584389,-0.305247
-0.205610,0.243573,0.952729,0.736720,-0.618105,0.274208
0.099792,0.058481,0.762161,0.285731,0.571743,0.769070
0.147369,-0.018521,-0.010029,-0.090522,0.931090,-0.353379
-0.089302,-0.101548,0.438657,-0.407611,0.906683,0.108526
0.515240,-0.030567,0.402827,-0.047734,-0.068594,0.996502
-0.086810,0.714980,0.379082,-0.141742,-0.272884,0.951548
-0.099154,0.030244,0.608805,-0.344938,0.635184,0.691056
0.711289,0.486692,0.807007,0.866299,0.243196,-0.436327
0.187123,0.174212,0.109341,0.860430,0.433204,-0.268317
-0.273065,-0.151414,0.481920,0.430868,-0.204895,0.878847
-0.310674,-0.163266,0.425150,-0.195317,0.976770,-0.088153
0.190078,-0.072857,-0.092328,-0.414584,-0.796385,-0.440331
-0.032221,0.186517,0.669262,0.897244,0.339180,0.282684
0.536452,0.554174,-0.051830,-0.283877,0.014696,0.958748
0.529903,-0.252121,-0.992285,-0.112249,-0.070678,-0.991163
0.224559,0.852730,0.797709,-0.041624,0.316385,0.947717
0.132881,0.266305,0.103991,0.773718,0.557654,-0.300638
0.212273,-0.142089,-0.111165,-0.729057,0.068415,0.681025
-0.559747,-0.310084,0.806286,-0.178347,0.350211,-0.919535
-0.048794,0.548734,0.878285,0.962054,-0.012398,-0.272576
0.263445,-0.093582,-0.174407,0.807101,-0.541624,0.235015
0.571106,0.310732,0.675794,0.649820,0.586656,-0.483291
-0.252143,-0.179522,0.740218,-0.146956,0.873570,0.463982
0.312066,0.906483,0.791998,-0.092198,0.023851,0.995455
-0.094054,0.604883,0.833478,0.910500,0.307286,0.276702
0.301518,0.606891,0.439959,-0.080835,-0.065444,-0.994577
0.059167,0.292404,0.774384,-0.742523,0.535705,-0.402095
0.691353,0.509099,0.813440,0.866299,0.243196,-0.436327
-0.073946,0.661875,0.915076,0.643216,0.611272,-0.461107
0.210825,0.581439,0.622171,-0.158213,0.311825,0.936875
-0.258056,0.360923,0.596621,0.863447,0.404003,0.302060
0.272716,-0.113658,0.092549,0.812223,0.583067,-0.018062
-0.123204,0.351856,0.857605,0.580450,0.593426,-0.557605
0.162551,0.493362,0.882934,0.033340,-0.422610,0.905698
0.292131,0.469594,0.616961,0.542417,-0.433565,0.719587
-0.180170,0.195843,0.957899,0.212291,-0.474724,0.854149
0.254288,0.198886,0.653431,-0.581671,-0.018500,-0.813214
0.537030,0.386439,0.674452,0.695450,0.536034,-0.478557
-0.144646,-0.031475,0.493583,0.001220,-0.287424,0.957803
0.312760,0.588369,0.440881,-0.212894,-0.024271,-0.976774
-0.029729,0.849233,0.802178,0.231874,-0.505408,0.831142
-0.249478,-0.323554,0.788772,0.629448,-0.243542,-0.737891
-0.000464,-0.071173,0.448035,-0.324258,0.401445,0.856562
0.548794,0.542841,-0.049085,-0.004037,-0.151065,0.988516
0.310559,-0.533256,-0.470638,0.811796,-0.531232,-0.242446
0.689558,0.091316,0.608865,0.382686,0.473493,-0.793320
0.006780,0.611942,0.116535,-0.101264,-0.067026,0.992599
0.266400,0.668286,0.442684,-0.215599,-0.207190,0.954248
-0.334608,-0.081277,0.375655,0.133831,0.591935,0.794797
0.320526,-0.539472,-0.454607,0.815069,-0.558888,-0.152668
0.818962,0.176932,0.628844,-0.390295,0.290586,0.873630
0.216969,-0.713360,-0.454127,0.834143,-0.163957,-0.526616
0.451610,0.056992,0.155490,0.202555,0.053833,0.977790
-0.005737,0.025646,0.360606,-0.494480,-0.855710,-0.152480
0.412553,0.231332,-0.266524,0.285347,0.606148,0.742403
-0.340462,-0.077585,0.742543,-0.450248,0.028167,-0.892459
-0.257592,-0.340328,0.810494,0.689929,0.271397,-0.671075
-0.624652,-0.255618,0.486369,-0.320888,0.915209,0.243769
0.589534,0.099151,0.604316,0.428294,0.862490,-0.269584
0.073482,-0.023120,0.180979,-0.070120,0.985451,0.154818
0.445005,-0.688815,-0.396455,-0.115267,0.599161,0.792287
0.354658,0.155172,0.161502,-0.267206,-0.003288,0.963634
-0.035060,0.383266,0.909846,-0.732385,0.243086,-0.636019
0.326668,-0.037044,0.605599,-0.591547,0.538604,-0.599981
0.487193,-0.335600,-0.991203,0.080219,0.023575,0.996498
-0.348459,-0.166569,0.430801,-0.046912,-0.995697,0.079921
-0.522601,0.282754,0.486709,0.311381,0.381836,0.870197
-0.711115,-0.422123,0.372328,0.055200,-0.290230,0.955363
0.440195,0.330225,0.175929,-0.375515,0.799030,-0.469616
0.193324,0.317467,-0.056098,-0.219676,-0.053614,0.974099
-0.454625,0.528593,0.858547,0.213107,0.043624,0.976054
0.075220,0.491095,0.745469,-0.534720,0.399787,-0.744476
0.162263,-0.036266,0.106496,0.444411,0.790366,0.421688
-0.001449,0.831747,0.979801,0.273678,-0.401096,0.874198
0.182834,-0.054077,-0.035078,0.480720,-0.861851,0.161624
0.013851,0.890616,0.120623,0.047051,-0.247388,0.967774
-0.679706,-0.117997,0.860411,-0.129227,0.178452,-0.975426
0.516922,0.414611,0.679361,0.655480,0.421787,-0.626452
0.545839,-0.099281,0.335638,-0.368637,0.441747,-0.817904
0.297983,-0.082896,-0.640546,0.331076,0.685636,0.648299
-0.549200,-0.223755,0.587323,-0.178856,-0.434930,0.882523
0.565659,0.080047,-0.112187,0.254918,0.876685,0.407970
-0.023529,0.034519,0.370425,-0.200601,0.951810,-0.231985
0.117988,0.083738,-0.117437,0.727737,0.681982,-0.072797
0.136533,0.503400,0.647981,0.753483,0.020929,-0.657134
-0.150093,-0.014053,0.456511,0.331308,0.830458,-0.447856
0.023355,-0.033871,0.465468,0.191607,-0.310869,0.930939
0.232730,0.145328,-0.051670,0.578411,-0.368563,-0.727737
-0.443497,-0.198756,0.609186,-0.144918,-0.162927,0.975937
0.253188,-0.038080,-0.297885,-0.584457,0.784033,0.209049
0.520399,0.603135,0.214023,-0.124995,-0.417141,0.900205
-0.472936,-0.324913,0.822097,0.279973,0.254667,0.925613
-0.338897,-0.143190,0.286282,0.190937,-0.197644,0.961499
0.705262,-0.258338,0.551995,0.340202,0.319995,-0.884232
0.067918,0.319474,0.728656,-0.194406,-0.666234,0.719957
0.141400,0.611231,0.914735,0.065497,-0.633962,0.770586
0.029438,0.618355,0.779214,0.043745,-0.475047,0.878873
0.173041,-0.038663,-0.077740,0.293758,0.859891,0.417485
0.254520,0.636228,0.748695,-0.411939,0.155113,-0.897912
-0.722705,-0.150443,0.397217,-0.129019,0.234836,-0.963434
0.319251,0.619973,0.443626,0.050697,0.032347,0.998190
0.099443,0.002397,0.362970,0.826195,0.563298,0.009871
0.476124,-0.677935,-0.409661,-0.003932,0.539829,0.841766
0.324988,-0.134382,-0.707075,-0.409507,-0.855571,-0.316706
-0.069019,-0.031604,0.475788,-0.297599,0.286857,-0.910575
-0.130331,0.165469,0.849189,0.924449,0.381304,0.000722
0.349502,0.529694,0.899266,0.201325,0.036072,-0.978860
0.121292,0.471084,0.641648,0.993153,-0.108224,-0.043995
0.478036,-0.489541,-0.229333,-0.610611,-0.168567,-0.773783
-0.442454,0.136585,0.238170,-0.074288,-0.488306,0.869505
0.552909,-0.683829,-0.398559,0.150089,0.332274,0.931165
0.213955,0.045075,0.764966,0.205721,0.168698,0.963960
-0.358831,0.153423,0.235625,0.387304,0.147518,0.910074
-0.252724,0.421605,0.607382,-0.758646,-0.556240,0.339195
-0.176113,-0.063920,0.282054,0.011120,0.211450,0.977326
0.081189,0.733826,0.787550,-0.274638,-0.374380,0.885672
0.519414,0.389612,0.165129,-0.513521,0.855451,-0.067080
-0.192917,0.228807,0.936818,0.831726,-0.421402,0.361457
0.259503,-0.051939,-0.186229,-0.608414,-0.714588,-0.345249
0.561833,-0.372709,0.294979,0.115221,-0.348920,0.930042
-0.461057,-0.085162,0.796106,-0.495044,0.545577,-0.676222
-0.060848,0.061460,0.663571,0.754808,-0.417217,0.506157
0.090810,0.376530,0.630246,0.812078,-0.577300,0.085171
0.666029,0.143579,0.648121,0.467465,-0.013588,0.883907
-0.014198,0.083544,0.681405,0.213264,0.940436,-0.264761
0.153337,0.820867,0.791658,-0.652235,0.444269,-0.614178
0.241770,-0.108023,-0.181280,0.771297,-0.631133,0.082291
-0.407046,-0.211708,0.510555,-0.108249,-0.097028,0.989377
-0.017792,0.779354,0.802439,-0.178134,-0.371364,0.911239
0.196627,0.536106,0.890749,-0.157149,0.663970,-0.731059
0.179184,-0.007901,0.139319,0.788768,-0.582915,-0.195080
0.187703,-0.098439,0.141142,0.602290,0.796780,-0.048871
-0.074467,0.534551,0.691304,0.978351,-0.198664,0.057983
0.417305,0.569847,0.425732,0.423058,-0.173397,0.889357
0.213838,0.561687,0.618664,0.135462,0.204673,0.969412
-0.301170,0.283013,0.854680,0.009124,-0.157270,0.987513
-0.593880,-0.226863,0.503141,-0.561883,0.761942,-0.322074
0.494727,-0.250372,-0.993247,-0.147231,0.158212,-0.976367
0.621464,-0.201282,0.300991,-0.258467,0.289344,-0.921669
0.045550,0.500032,0.105553,0.195442,0.038782,0.979948
-0.571395,-0.125898,0.384873,-0.020226,-0.633893,0.773156
-0.564558,-0.209442,0.488393,0.097049,-0.279376,0.955265
-0.346489,-0.097792,0.291813,0.238676,-0.388061,0.890192
-0.902004,-0.138462,0.393109,0.077420,-0.320443,0.944099
0.003883,0.104592,0.697035,-0.322314,-0.782109,0.533310
-0.152063,-0.135613,0.438877,0.407855,-0.911925,-0.045245
0.051577,-0.101288,0.410442,-0.520083,-0.016277,-0.853960
0.690311,0.569264,0.219754,-0.171654,-0.392479,0.903601
-0.180575,0.262871,0.663090,-0.563001,-0.173361,0.808069
0.194252,0.101418,0.125472,0.954591,0.056379,-0.292537
-0.524165,-0.064244,0.627842,0.175699,0.322380,0.930162
0.114858,0.513245,0.415472,0.783139,0.609255,-0.124503
-0.144007,0.182696,0.881752,-0.823362,-0.566586,0.032480
0.298331,-0.148759,0.096035,0.777248,0.579104,0.246016
0.511707,0.457419,0.150821,0.489705,-0.869114,-0.069500
-0.697032,-0.143902,0.864038,-0.577294,-0.095617,-0.810919
0.091331,-0.021047,0.033434,-0.010726,0.998339,0.056613
-0.164754,0.208989,0.941407,0.780872,0.601434,0.168869
0.470329,0.353410,0.631328,0.546784,0.296733,-0.782928
0.230645,0.234117,-0.330608,0.286730,0.577522,-0.764366
0.231513,0.516871,0.890208,0.041825,-0.208271,0.977176
-0.149281,0.081601,0.752803,0.707555,-0.691257,0.146730
0.504694,-0.049479,0.399561,-0.140350,0.757508,0.637561
0.568497,0.263455,0.667218,-0.720938,-0.539033,0.435536
0.278453,-0.055307,-0.041590,0.387070,0.745426,-0.542694
-0.027816,-0.045074,0.577725,-0.358850,-0.679692,-0.639723
0.137923,0.278351,0.701985,-0.471480,0.757222,-0.452020
-0.780830,-0.126157,0.872394,0.256241,-0.620770,0.740935
-0.579682,-0.309176,0.352470,-0.761700,0.539544,0.358756
0.003708,0.298621,0.764485,0.870534,-0.479780,0.109464
-0.125753,0.132635,0.840833,0.875793,0.481712,0.030672
0.196976,-0.074930,-0.151883,0.646643,0.748363,-0.147667
0.014197,0.436436,0.364714,-0.033026,0.333228,0.942268
0.176519,0.308336,-0.275522,-0.126940,0.233581,0.964016
0.520282,0.122013,0.625838,-0.147676,-0.772180,0.618005
0.550533,0.291886,0.664092,0.719446,0.448202,-0.530578
0.153627,0.286640,0.675894,0.931158,-0.041874,0.362204
0.023701,0.079917,0.568587,0.883800,0.308527,0.351722
0.253766,0.073052,0.643151,-0.637416,0.724936,-0.261091
0.243162,0.786219,0.780496,-0.102424,-0.440738,0.891773
-0.209665,0.100642,0.221578,0.274091,0.961110,-0.033781
0.538944,-0.383200,-0.027303,0.050851,0.303511,0.951470
-0.181097,-0.105756,0.720000,-0.328980,0.913161,0.240642
-0.535756,-0.050838,0.839290,-0.587620,0.016957,-0.808959
-0.698017,-0.292532,0.482201,0.028942,-0.834097,0.550858
0.470735,0.158669,0.581332,0.462487,-0.075166,-0.883434
-0.031351,-0.007965,0.570852,0.887213,-0.299851,0.350633
-0.083333,0.728839,0.379763,0.136924,0.263474,-0.954900
0.506955,0.215141,0.623654,0.702186,-0.101356,-0.704743
-0.656873,-0.284890,0.495186,-0.368984,0.804784,0.464944
0.237077,-0.033352,-0.081507,0.382766,-0.822376,-0.420936
-0.714070,0.241501,0.493001,0.201217,-0.547727,0.812100
0.061427,0.800079,0.804623,0.128099,0.216028,-0.967948
0.548041,-0.243377,-0.995492,-0.178117,0.233027,0.956019
0.366308,-0.602098,-0.011713,-0.551469,-0.818171,-0.162722
-0.138387,0.172787,0.895899,0.505723,0.846412,-0.166824
0.569772,0.489218,0.203503,-0.183473,0.389731,-0.902467
-0.593997,-0.322388,0.815945,-0.350680,0.417539,-0.838263
0.175301,-0.060747,-0.070526,0.819839,0.567954,0.072756
0.269471,0.666537,0.749276,0.197658,-0.280519,0.939276
0.343648,-0.439155,-0.475909,0.877203,-0.369684,-0.306348
0.065426,-0.102001,0.418959,0.968362,-0.183190,0.169458
0.284423,0.321741,-0.277987,0.554883,0.002892,0.831924
-0.039697,0.020465,0.668019,0.913083,-0.407088,0.023621
0.353790,-0.140924,-0.674973,-0.611595,0.790840,-0.022874
0.164755,-0.039699,0.148396,0.984513,-0.099039,-0.144656
0.036394,-0.000453,0.539531,0.971349,0.063129,-0.229121
-0.121581,0.128036,0.772000,-0.214892,0.973003,-0.084183
-0.216389,-0.263713,0.792700,0.742189,-0.359086,-0.565874
-0.093822,0.007254,0.675173,-0.663842,0.127124,-0.736990
-0.680981,-0.044751,0.504544,-0.000590,0.083079,0.996543
-0.473516,0.267017,0.249151,-0.121284,-0.785045,0.607449
-0.418231,-0.330030,0.812658,-0.183524,-0.077852,0.979928
-0.217258,0.519461,0.674873,-0.538186,-0.304651,0.785840
0.373088,0.486044,0.598264,0.326228,0.466442,-0.822196
0.599269,0.190274,0.624195,-0.091612,-0.844758,0.527249
-0.096314,0.065217,0.692787,0.538081,-0.673482,0.506844
0.643544,0.406774,0.755708,0.969914,0.168199,-0.175998
-0.001390,0.406321,-0.640546,-0.005845,0.155954,0.987747
0.455031,-0.349135,-0.990201,-0.012636,-0.118266,0.992902
-0.604079,-0.118386,0.408659,0.618349,-0.729424,-0.292549
0.029207,0.134253,-0.104672,0.217332,0.638933,0.737924
0.497972,-0.298620,-0.994169,0.047564,0.261265,0.964095
0.767558,-0.060293,0.597403,-0.338444,-0.532305,0.775956
-0.095677,0.122078,0.586642,0.005345,0.231710,0.972770
0.038769,0.006671,0.361969,0.286326,0.939503,0.188019
0.753999,0.011269,0.618303,0.353271,0.264795,0.897264
0.283670,-0.128424,-0.402727,0.677463,-0.735135,-0.024918
-0.257186,0.291562,0.458214,0.228695,0.077421,0.970415
0.543927,0.242731,0.663150,0.582567,0.624153,-0.520623
0.238989,0.537854,0.736451,-0.340093,0.615755,-0.710762
0.007707,0.533644,0.752502,0.345957,0.804681,-0.482496
0.249073,-0.112428,-0.184286,0.825874,-0.488829,0.281032
0.023470,0.762904,0.797269,0.116043,-0.244432,0.962698
-0.057371,0.134124,0.378861,-0.741155,-0.138384,-0.656917
0.319019,-0.037044,0.404671,0.075233,0.997131,-0.008391
-0.466621,0.541805,0.864959,0.230251,0.025728,0.972791
-0.128476,-0.020529,0.682066,0.019651,0.909596,0.415030
0.055807,0.584160,0.921268,-0.326793,0.496076,-0.804434
-0.064557,0.479114,0.367760,-0.210296,-0.215502,0.953590
0.456711,0.261900,0.618263,0.892082,-0.075613,0.445502
0.073772,0.426074,0.660164,0.984195,-0.050817,-0.169643
0.505041,0.331326,0.637961,-0.624879,-0.094533,0.774977
0.532916,0.507675,0.204084,-0.000227,-0.328974,0.944339
0.339186,-0.524448,-0.018365,-0.092864,0.282619,0.954726
0.638444,-0.213716,-0.016983,-0.293978,-0.818491,0.493609
-0.020108,0.098569,0.762281,-0.700173,-0.713972,-0.001396
0.153686,-0.027329,0.078702,0.881907,0.393159,0.260126
0.014197,-0.037756,0.445430,0.339116,-0.928491,-0.151341
-0.034364,0.203031,0.833879,0.010455,-0.640256,0.768090
-0.003360,0.687391,0.776529,-0.241774,0.277431,0.929827
0.198656,0.135484,0.658621,-0.516474,0.092779,-0.851262
-0.462505,0.193640,0.477511,0.241153,-0.016394,0.970349
0.336462,-0.184832,-0.209595,-0.128453,-0.130219,0.983129
0.381259,0.050062,-0.282094,0.172514,-0.807089,-0.564664
-0.079508,0.087429,0.632531,0.936913,0.023676,-0.348760
0.097010,-0.007577,0.299247,-0.190417,0.934496,0.300763
0.169275,0.003433,0.136874,0.856064,-0.513638,0.057712
0.153976,-0.045462,-0.077600,-0.290387,0.897221,0.332671
0.167593,0.169873,0.664653,0.672506,0.256077,0.694378
0.291202,-0.071562,-0.348042,0.886576,-0.034092,0.461325
0.232383,0.775793,0.778613,0.232026,0.466933,-0.853310
0.319483,-0.129266,-0.533500,-0.732829,0.680287,-0.013077
0.536915,0.457095,0.203202,-0.068156,-0.316783,0.946046
0.560268,-0.016579,0.574599,-0.263455,-0.668727,0.695267
0.054879,0.558125,0.641127,0.196924,-0.060863,0.978528
0.089593,0.758500,0.793842,-0.359867,0.378245,-0.852893
0.018428,0.717441,0.936838,-0.025936,-0.828913,0.558776
0.451379,0.170520,0.587804,0.933643,0.336319,-0.123287
0.311892,0.100188,0.495827,-0.881825,0.251378,0.398991
-0.108831,0.659932,0.841915,0.852892,0.517850,0.066385
-0.143661,0.643547,0.699841,0.210255,-0.113504,-0.971035
0.175127,0.319863,0.663791,0.464456,0.446331,0.764898
-0.629926,0.066059,0.394211,-0.539583,-0.311743,0.782091
-0.518313,-0.010491,0.600369,0.011215,0.752862,0.658083
0.019356,0.114631,0.650566,-0.656667,0.483524,-0.578786
0.346025,-0.153098,-0.913413,-0.419473,-0.907339,0.027899
0.373377,0.133023,0.544721,0.753241,0.292826,-0.588966
0.251564,0.011010,-0.084934,0.139226,-0.971977,-0.189413
-0.040623,0.363773,0.365295,0.434173,0.165130,-0.885565
0.371755,-0.062107,0.040909,-0.191103,-0.959854,0.205328
0.381142,-0.114889,-0.863056,0.103676,0.980203,0.168683
-0.131665,-0.078881,0.409681,-0.458717,0.851048,0.255530
0.230876,-0.963538,-0.402928,-0.289981,0.203592,0.935127
0.013561,0.597889,-0.061910,-0.170688,-0.058056,0.983613
-0.726588,-0.002784,0.499754,-0.125547,0.683727,-0.718857
0.117640,-0.094295,0.069724,-0.733236,-0.577785,-0.358510
-0.078929,0.498673,0.865300,0.939751,0.020049,-0.341271
0.349560,0.644389,0.449257,0.064889,-0.211331,0.975258
0.091273,0.515381,0.642109,-0.037315,0.001694,0.999302
-0.822206,-0.330936,0.467833,-0.368134,0.711415,0.598637
0.359817,-0.122984,-0.590369,0.820430,-0.467346,-0.329367
0.146037,-0.021371,0.029407,0.174528,0.941089,-0.289641
0.000406,0.348359,0.933331,0.448116,0.785554,0.426728
0.004405,-0.016126,0.539531,-0.618999,-0.778341,0.105001
-0.110280,0.119099,0.848107,0.989207,-0.124951,-0.076525
0.315833,-0.118710,-0.123568,0.050425,0.960824,0.272533
0.287552,0.372839,0.596341,0.225929,-0.069465,-0.971664
0.665044,0.530212,0.211097,-0.195549,-0.306953,0.931419
0.235743,-0.099086,-0.291132,0.942553,0.052797,0.329858
0.470504,0.061525,0.156151,0.242116,-0.057823,0.968523
0.313282,-0.060359,0.428116,0.283588,0.938375,0.197562
0.034191,0.335212,0.592694,0.971261,-0.106423,0.212898
0.231688,-0.064308,-0.215747,0.997256,0.046699,0.057451
-0.754404,0.049155,0.853718,-0.222108,0.199412,-0.954412
0.075974,0.188071,0.615257,0.980254,0.077557,-0.181899
0.166145,-0.057120,0.028645,0.538692,0.837870,-0.088235
0.401425,0.015867,0.563758,0.045857,0.832283,0.552452
0.209725,0.767956,0.770116,0.133720,-0.498547,0.856487
0.359991,-0.067158,-0.669803,0.774232,0.630485,0.055257
0.068615,0.023056,0.439478,-0.137579,0.979291,0.148527
-0.126274,0.130432,0.855561,0.756852,-0.623491,0.196045
0.290914,0.147594,0.340407,-0.731113,0.604894,-0.315559
-0.052156,0.060878,0.677497,0.514401,-0.446551,0.732109
0.165160,0.791659,0.784264,0.115945,-0.496989,0.859976
-0.018370,-0.037627,0.578546,-0.346343,-0.636079,-0.689529
0.445990,0.370961,0.151282,-0.505052,0.812166,0.292076
0.065543,0.270708,0.713367,-0.624492,0.707427,-0.330993
0.042941,-0.024351,0.294739,-0.041751,-0.968885,0.243965
0.276193,-0.589923,-0.454427,0.525651,-0.547117,-0.651424
0.503303,-0.350430,0.088521,-0.638820,-0.610780,-0.467822
-0.114685,0.464543,0.695873,-0.219118,-0.194121,0.956193
0.086579,0.473998,0.371407,0.184391,0.469539,0.863443
-0.726878,-0.249983,0.880850,0.168037,-0.268941,0.948385
-0.007649,0.174212,0.787129,0.889877,-0.406383,0.207297
0.103094,0.733503,0.787350,0.396582,-0.419770,0.816404
-0.024514,0.139759,0.699360,-0.543898,-0.216169,0.810831
0.341563,-0.172139,-0.874117,0.702989,0.701485,-0.117155
0.268544,0.074348,0.464567,0.566697,0.607227,-0.556893
0.429764,-0.339874,-0.214584,0.190240,0.024664,0.981428
0.197554,0.086848,0.653872,0.687332,-0.296818,0.662928
0.345908,-0.468104,-0.465709,0.870389,-0.369732,-0.325147
-0.058936,0.044233,0.690603,-0.323427,0.771945,-0.547262
0.314847,0.866719,0.789594,-0.103838,-0.195306,0.975230
0.103732,0.410207,-0.384873,0.934507,-0.348944,-0.070249
0.074583,0.672948,0.645496,-0.317134,0.188564,0.929446
0.362773,-0.489023,-0.438316,0.798471,-0.412528,-0.438480
0.133519,0.313257,0.686315,0.763236,0.515311,-0.389775
-0.160755,0.212551,0.959382,0.759518,0.646883,-0.068374
0.586462,-0.269347,-0.994089,0.137066,0.039219,0.989785
0.554763,-0.312868,-0.992846,0.125709,0.063123,0.990057
-0.000347,0.155884,0.705632,0.799720,-0.315013,-0.511092
-0.295143,0.339292,0.455810,0.265778,0.021896,0.963786
0.473749,0.024740,0.153085,0.242116,-0.057823,0.968523
0.657279,0.177061,0.642750,0.380510,-0.038510,0.923975
0.040103,-0.001230,0.386235,0.053544,0.997736,0.040687
0.476472,-0.344472,0.302674,0.175202,-0.145016,0.973794
0.189035,-0.043585,0.101466,0.276050,0.818500,0.503839
0.316586,-0.058934,-0.606901,0.587167,-0.748150,0.309042
0.339824,-0.083737,-0.656197,-0.705959,-0.693272,0.144899
0.401367,-0.259957,0.766209,-0.071343,0.111393,0.991212
0.585940,0.333916,0.697095,-0.548800,-0.478833,0.685229
-0.482267,0.154718,0.239232,0.328926,0.943409,-0.042273
-0.514024,-0.264036,0.597403,0.316718,0.330454,-0.889095
0.126217,-0.062107,0.179336,0.421019,0.891978,0.164677
-0.197555,0.299074,0.610488,0.183473,0.364876,0.912800
0.285292,0.702674,0.452423,0.203672,0.214920,-0.955158
-0.024919,0.274529,0.103790,-0.001721,-0.038163,0.999270
0.286394,0.311962,0.619766,0.338366,0.630255,0.698776
0.027063,0.021696,0.439799,0.896896,-0.435650,-0.076072
0.594054,0.217862,0.644494,0.430586,0.877200,0.212404
0.504636,0.414287,0.195748,-0.110167,-0.517038,0.848844
-0.091447,0.103944,0.720480,0.436054,-0.609448,0.662141
-0.086695,0.126546,0.658521,0.905753,0.243786,0.346671
0.327017,0.192022,0.162443,0.502761,-0.282574,-0.816935
0.388154,0.144162,0.131223,-0.500806,-0.788779,-0.356400
0.108948,0.641409,0.768694,0.203667,-0.364798,0.908538
0.161856,-0.074282,0.180478,0.270502,0.962712,0.003873
0.124537,0.218575,0.659643,0.965377,0.186338,0.182553
0.273413,0.673726,0.756891,-0.251044,-0.798150,0.547661
0.327887,-0.356259,-0.052712,0.930377,0.345181,-0.123486
-0.502202,-0.169548,0.818449,-0.761646,0.280935,-0.583927
0.758808,-0.012693,0.607563,0.525719,0.383645,-0.759234
-0.417594,-0.077067,0.614997,0.076024,-0.060646,0.995260
0.115843,-0.068259,0.280732,0.485065,-0.871525,0.071808
0.373898,-0.128489,0.548729,0.699595,0.054447,0.712462
0.105354,0.455994,-0.384191,0.918644,-0.383895,-0.093368
0.144762,-0.014506,0.039847,0.021890,0.995450,0.092738
0.115843,0.582411,0.641107,0.056987,-0.237186,0.969791
0.218649,0.019688,0.433727,-0.646311,-0.643967,0.409376
0.163536,-0.044621,0.111064,-0.609317,-0.700843,-0.370880
-0.037146,0.198692,0.794363,0.980789,-0.167308,0.100302
-0.371117,0.180300,0.457874,-0.205772,-0.735198,0.645865
-0.113410,0.076485,0.712465,0.440353,0.883888,-0.157578
0.253303,-0.665695,-0.448375,-0.630921,0.423172,0.650280
-0.001449,0.212551,0.833599,0.952460,-0.004411,0.304632
-0.444136,0.210868,0.469777,0.369731,0.010453,0.929080
0.235397,-0.062302,-0.311792,0.320364,0.891172,0.321214
0.614452,0.314423,0.698418,0.622185,0.524811,-0.580913
0.478674,-0.226345,0.776148,-0.218083,-0.105483,0.970213
0.117408,0.102455,0.763644,-0.348093,0.244704,0.904959
0.188572,0.785765,0.786889,0.095108,-0.538363,0.837329
-0.400731,-0.021371,0.787670,-0.641854,-0.549056,-0.535314
-0.155598,0.685513,0.693008,-0.107976,0.318850,0.941635
-0.002376,0.188524,0.817107,0.039481,-0.991510,0.123888
-0.068904,0.075643,0.621730,-0.310470,-0.839579,0.445775
-0.024339,0.051616,0.621630,-0.403455,0.860985,-0.309724
0.279265,0.343760,0.119380,-0.314419,0.231441,0.920639
0.354312,-0.116702,-0.651608,0.960164,-0.277994,0.028369
0.060501,0.538955,0.758854,-0.287597,0.312645,-0.905285
0.261474,0.129396,0.158736,0.773443,-0.200431,-0.601342
0.648992,-0.201087,-0.994049,0.079396,0.160689,0.983807
0.092373,0.009456,0.335678,0.027391,-0.898399,0.438326
0.627608,0.041773,0.594417,0.442580,0.347851,-0.826512
-0.580609,0.017746,0.817989,-0.745024,-0.394543,0.537843
0.426692,-0.496535,-0.104472,0.723272,0.253019,0.642541
-0.334029,-0.081989,0.375976,0.133831,0.591935,0.794797
0.439615,0.448870,0.620868,0.810826,0.219520,-0.542561
-0.656989,-0.263778,0.494404,-0.351365,0.770849,0.531351
-0.615321,-0.160741,0.489134,-0.199774,0.089844,0.975714
-0.040740,0.253482,0.886280,0.067111,-0.625091,0.777662
0.353037,-0.520432,-0.427535,0.552919,-0.565355,-0.612089
-0.356803,0.562010,0.286022,-0.193377,0.261049,0.945758
-0.072497,0.529758,0.711383,0.964343,0.039858,-0.261636
-0.510837,-0.059258,0.611570,0.114218,0.529174,0.840791
-0.104196,0.083091,0.724027,0.153338,-0.855340,0.494855
0.293231,0.677158,0.444528,-0.092315,-0.221652,0.970746
0.131374,0.366168,0.657379,0.730200,0.327150,-0.599817
-0.534771,0.344020,0.233360,0.034034,-0.193179,0.980573
0.559805,-0.175441,0.006102,-0.578225,-0.747176,0.327696
-0.913653,-0.179004,0.872754,0.331589,-0.368955,0.868286
0.119668,0.089955,0.147695,0.273742,0.295982,0.915128
-0.134620,-0.095913,0.471560,-0.268861,0.913469,-0.305431
-0.210014,0.311962,0.635617,0.983501,0.164119,-0.076094
-0.115670,0.478985,0.691745,-0.216983,-0.226614,0.949507
-0.500000,0.159122,0.248610,-0.181964,0.674177,0.715803
0.355065,-0.118451,-0.883195,0.608089,0.789140,-0.086524
0.222474,-0.700796,-0.463304,-0.878042,0.237543,0.415470
-0.071976,0.541934,0.370385,0.363578,0.095641,-0.926641
0.834491,-0.078686,0.371226,-0.410797,0.037638,-0.910950
0.294159,-0.109319,-0.424329,0.947123,0.313865,-0.066687
-0.336405,-0.301211,0.789754,0.617557,0.251417,0.745260
0.178314,-0.064244,-0.054776,0.757856,0.558116,-0.337878
-0.037263,0.159576,0.682948,0.986365,0.159824,-0.039237
-0.235627,0.151545,0.475147,0.908970,-0.124949,0.397696
-0.711405,-0.093063,0.396776,0.008335,-0.039977,0.999166
0.079682,0.495564,0.890990,-0.263782,0.410443,-0.872901
0.095096,0.382942,-0.314698,0.927619,-0.329813,0.175346
-0.653569,-0.248753,0.487351,0.258304,-0.083842,-0.962419
0.138618,-0.039958,0.352390,0.314860,-0.706500,-0.633815
0.339417,0.219222,0.645396,-0.098848,-0.190330,0.976731
-0.564558,-0.084062,0.825022,-0.499061,-0.584879,-0.639417
0.298041,-0.096496,-0.323214,0.981993,0.176810,-0.066547
0.342489,-0.095654,-0.548970,-0.103310,0.415046,-0.903916
-0.533322,-0.056537,0.621429,-0.018502,0.196306,0.980368
-0.032221,0.043133,0.603715,0.083850,-0.953665,0.288951
0.192224,0.051163,0.761019,0.178175,0.016367,0.983863
0.265937,-0.073246,-0.468574,0.923563,0.328780,-0.197321
0.474271,0.345962,0.162383,0.800271,-0.592560,-0.091860
