0.276262,0.248047,0.826160,-0.094051,-0.073714,0.992835
-0.203862,0.599727,0.756724,0.028563,-0.999440,0.017440
-0.042195,0.149204,-0.334866,0.941681,-0.322353,0.096567
0.096648,-0.061527,0.166090,-0.588932,0.066028,-0.805481
-0.169841,-0.207886,0.865193,0.358006,0.163015,-0.919379
0.307572,-0.364954,0.930790,0.066066,0.995252,0.071474
0.135644,0.071041,-0.775111,0.953809,-0.297115,0.044394
-0.470264,0.642510,0.324591,0.383348,0.492765,-0.781170
-0.100511,0.308891,0.098751,-0.571492,-0.740712,0.353191
-0.845302,-0.163621,0.439399,0.736298,-0.664380,-0.128317
-0.693182,0.430864,0.735272,0.856719,-0.240022,0.456532
0.174417,0.031161,0.238478,0.864276,-0.167169,-0.474428
-0.626381,0.172164,0.617836,-0.222840,0.456639,0.861292
0.072085,-0.261323,0.505819,0.990665,0.104780,0.087205
-0.677236,0.236482,0.409302,-0.648235,0.589342,-0.482149
0.405418,0.171994,0.955645,-0.133509,0.881322,0.453262
-0.621674,-0.053439,0.307333,-0.380453,0.882432,0.276713
-0.685941,0.222298,0.609110,0.165102,-0.164534,0.972456
-0.495004,0.601378,0.156751,0.467062,0.480451,-0.742307
0.817144,0.715774,0.745498,-0.171928,-0.242999,0.954669
-0.000754,0.617843,0.810224,0.866229,0.481241,0.134369
-0.229179,-0.047970,0.828821,-0.577026,0.813521,-0.072277
0.392894,0.448754,0.563674,0.665736,0.227185,-0.710762
-0.037041,0.276247,0.086493,-0.469978,-0.672143,0.572140
-0.149857,-0.054180,0.306220,0.725358,0.420554,0.544968
0.022386,0.353215,0.912467,0.014370,-0.951663,0.306807
-0.188229,-0.435082,0.874257,0.067584,-0.321870,0.944369
0.148078,-0.170968,0.931564,0.328291,0.939854,0.094342
-0.291404,0.394120,0.594981,-0.243618,-0.907844,0.341275
-0.424383,-0.337606,0.566448,0.853686,-0.431083,0.292212
0.165046,0.136273,0.809015,0.755261,0.563589,-0.334586
0.439174,-0.310831,0.883290,0.745908,-0.634786,-0.201664
0.175306,-0.327922,0.917177,-0.116464,0.158512,0.980464
-0.366333,0.305702,0.557529,-0.361303,0.361152,-0.859668
-0.404797,0.625590,0.352624,0.926306,0.351328,0.136108
-0.461958,0.762205,0.507480,0.119576,-0.327614,0.937214
0.487809,-0.399305,0.602400,-0.006517,-0.374939,0.927027
0.261203,-0.395487,0.887709,-0.191782,0.815017,0.546778
-0.976459,0.226683,0.593545,-0.272184,-0.508509,0.816906
0.471287,0.640803,0.679030,-0.339649,0.592110,-0.730783
0.270132,0.157407,0.872144,-0.676271,0.736634,0.005173
-0.776416,-0.003476,0.351995,-0.803985,0.400568,0.439491
-0.489807,0.778611,0.389140,0.906832,-0.317150,0.277618
-0.460183,-0.551529,0.552400,-0.219581,0.582491,-0.782616
0.421141,0.218310,0.938371,-0.459379,0.538424,0.706449
-0.695047,0.681308,0.283720,-0.648536,-0.226712,0.726638
0.219542,0.069674,0.251768,0.995705,0.045249,-0.080770
-0.449789,0.107218,0.788950,0.772990,0.341534,0.534641
0.215367,0.112913,0.565464,0.869616,-0.470981,-0.148135
-0.195646,-0.130577,0.873983,-0.316331,0.930435,0.184999
0.202843,0.035149,-0.802563,0.648859,0.759222,0.050642
-0.225671,-0.210393,0.463480,0.119561,0.970622,-0.208803
-0.430645,0.557510,0.802483,0.718717,-0.532919,0.446591
-0.194713,-0.277617,0.857354,-0.710384,0.185771,0.678854
0.204575,0.504869,0.681078,-0.565228,0.781389,0.264478
-0.550609,0.638692,0.460464,-0.287263,0.224685,0.931126
-0.862803,-0.159973,0.430657,-0.451353,0.697366,0.556742
0.176505,0.077421,0.588884,-0.886108,0.449990,-0.111003
-0.570331,0.577507,0.693723,-0.372862,0.018117,0.927710
-0.783432,-0.061072,0.173897,-0.234900,0.014006,-0.971919
-0.305308,-0.404945,0.500593,-0.411172,0.752530,0.514428
0.007729,0.398905,-0.405802,-0.207494,-0.379148,0.901772
-0.508550,-0.281435,0.001637,0.860084,0.322627,-0.395179
-0.592893,0.257450,0.605239,-0.118443,0.828015,0.548053
0.273019,-0.213696,0.421770,0.957311,-0.011075,-0.288848
-0.115033,0.249473,0.786579,-0.308590,-0.476239,0.823389
0.140529,-0.087620,-0.444399,-0.238821,0.261719,0.935130
-0.262225,0.471829,0.739837,-0.123885,-0.771129,-0.624509
-0.056896,0.731898,0.197994,0.112511,0.158458,0.980934
0.143771,0.081180,-0.290317,0.992159,-0.006324,-0.124823
-0.235664,0.353500,0.802450,0.368830,0.926613,-0.073161
0.125649,-0.001653,0.245575,0.604730,-0.788739,-0.110421
0.307705,0.189084,0.785821,0.995788,0.060253,-0.069100
0.239795,0.019655,0.955419,0.748145,-0.454240,-0.483678
0.112813,-0.039141,0.947161,-0.442582,0.869358,-0.219861
-0.578013,0.588673,0.465689,0.844823,0.446441,-0.294898
0.171441,0.113542,0.265365,0.938195,0.333188,-0.093677
0.138262,-0.488804,0.855354,-0.187760,0.869420,0.457006
0.625049,-0.059590,0.759837,-0.651474,0.188468,0.734889
-0.841439,0.177634,0.675997,0.411791,0.908260,-0.074113
0.130447,0.488008,0.841144,-0.327627,-0.937892,0.114099
-0.421051,0.412977,0.771563,-0.561162,0.709002,-0.427099
-0.690162,0.255398,0.451899,-0.488945,0.345632,-0.800919
0.198400,-0.107047,0.811289,0.721966,0.524186,0.451657
-0.022473,0.348315,-0.339817,0.831691,0.552720,-0.052830
0.501399,0.154504,0.832096,0.272382,-0.848651,0.453431
0.706240,0.545434,0.692965,0.111042,-0.330822,0.937137
-0.296601,-0.240130,0.788111,-0.247972,-0.412051,0.876769
-0.213724,-0.320971,-0.446995,-0.160328,-0.921978,0.352494
-0.492472,-0.175927,0.139590,0.181647,-0.044051,0.982377
-0.557093,0.589128,0.282527,-0.198699,0.400597,0.894450
0.165935,0.100552,-0.751692,-0.393692,0.900817,-0.183126
-0.483632,0.577622,0.700240,0.128537,-0.805648,0.578281
0.154164,-0.333050,0.922306,0.432362,0.474023,0.767050
-0.194670,0.297896,0.574803,-0.506791,-0.849587,0.146169
-0.564334,-0.360510,0.834644,0.858608,-0.079647,0.506407
0.227715,0.736853,0.698223,0.644360,0.641017,-0.417011
-0.523118,0.596935,0.136800,0.144704,0.221901,-0.964272
-0.024072,-0.203212,0.444738,0.023517,0.882419,0.469876
0.442017,-0.040052,0.617400,0.243729,0.238035,0.940179
0.488563,-0.158037,0.730175,0.383395,-0.510682,-0.769553
0.509217,-0.113657,0.732837,0.316086,0.889054,-0.331170
0.252720,-0.147782,0.912241,0.465141,0.844281,0.266146
-0.539907,-0.046659,0.150009,-0.418668,0.055737,-0.906427
0.145327,0.350593,0.470980,0.992558,0.074521,-0.096313
-0.250543,-0.665470,0.563061,-0.068938,0.337866,0.938666
0.008705,0.391158,0.134445,0.817761,0.425061,-0.388059
0.832601,0.703754,0.702594,0.013804,-0.703846,0.710218
-0.448678,0.365976,0.771514,0.502449,-0.417245,0.757265
0.167043,0.076681,-0.069041,-0.018901,-0.999521,-0.024485
0.885187,0.796101,0.754563,-0.341149,-0.658310,0.671004
-0.366465,-0.718396,0.843531,0.811209,0.519813,0.267833
-0.232690,-0.648209,0.560142,-0.120665,0.362887,0.923988
0.092115,-0.137469,0.186542,0.807029,-0.540728,-0.237314
-0.294470,0.081750,0.094009,0.101429,0.876256,0.471050
-0.161226,-0.778214,0.438270,0.540663,-0.805051,-0.244084
0.244593,0.196887,0.614303,0.858776,0.507298,-0.071784
-0.158249,0.031105,0.864886,-0.517939,-0.687118,-0.509517
0.400978,-0.589017,0.736095,-0.035971,-0.193482,0.980444
-0.365490,0.652649,0.345592,0.874869,0.484336,0.004784
0.102067,0.136954,0.300253,-0.001954,-0.994521,0.104518
-0.022874,0.238308,0.791724,-0.015787,0.849922,0.526672
-0.534309,0.569986,0.673514,-0.175672,-0.982272,-0.065423
-0.839528,-0.062268,0.403108,0.894914,0.332162,0.297987
-0.230068,-0.067626,-0.398995,0.157925,0.122771,0.979789
0.194580,0.061698,-0.102412,0.643697,-0.676311,0.358131
-0.413190,-0.713041,0.819950,0.180167,0.715862,0.674597
-0.820164,-0.164587,0.527012,0.887771,0.006483,-0.460239
-0.195646,-0.151485,0.378156,0.889642,-0.422921,0.172266
-0.307084,0.452968,0.284462,0.623532,0.504613,0.597138
0.238730,0.066826,0.879467,0.923921,0.018369,0.382143
0.027670,-0.002735,-0.053718,-0.310644,0.884638,-0.347728
-0.357671,-0.460778,0.314833,0.899235,-0.350383,-0.261930
-0.312281,-0.135932,0.468947,-0.729802,-0.216258,0.648554
-0.283543,0.643591,0.766627,-0.684996,0.530887,-0.498938
-0.071285,0.264112,0.058428,0.813574,0.516954,-0.266187
-0.562781,0.221384,0.621578,-0.395622,0.732038,0.554620
0.070754,0.713153,0.885193,0.286049,-0.222974,0.931911
0.718900,0.352304,0.886935,-0.699127,-0.029941,0.714370
-0.400709,0.704550,0.182832,0.362056,0.435877,-0.823970
-0.088073,0.195521,0.781450,-0.640659,-0.078131,0.763840
0.124407,0.422206,0.893838,-0.237002,-0.512313,-0.825449
-0.411680,-0.229649,0.118767,0.397313,-0.229753,-0.888457
-0.700599,0.181393,0.616207,-0.806364,0.133295,-0.576203
0.088252,-0.308039,0.524916,-0.663026,-0.745337,-0.069775
0.247168,-0.048655,0.579255,0.944389,0.142060,-0.296562
-0.539641,-0.691792,0.529141,-0.329173,-0.244999,0.911933
-0.403908,-0.328151,0.603239,-0.464365,-0.743329,-0.481484
-0.469196,-0.300747,0.600142,0.856724,-0.091055,0.507675
0.047126,0.290945,-0.423721,0.055139,0.064854,0.996370
0.219854,0.079132,-0.394447,-0.432581,0.900973,0.033491
0.064491,0.200590,0.333543,-0.054682,0.521682,0.851386
-0.036730,0.484531,0.757482,-0.507036,0.410239,-0.758036
-0.591294,0.507946,0.694385,-0.228487,0.215191,0.949466
0.143814,0.107617,-0.710433,0.954207,-0.299136,0.002575
-0.483678,0.746652,0.484947,0.509996,0.774614,0.374000
-0.498688,-0.229020,0.437463,-0.333565,0.930696,0.150129
-0.382145,0.676350,0.493657,0.528759,0.195916,-0.825852
-0.605995,-0.414403,0.655610,0.712915,-0.450467,0.537430
-0.197690,-0.815587,0.426883,-0.315499,0.735149,0.600014
0.133334,0.023699,-0.696433,0.917640,-0.337721,0.209478
0.028426,-0.167380,0.545755,-0.115819,-0.005355,0.993256
-0.372462,-0.557229,0.291849,-0.564777,-0.822631,-0.065617
0.331379,0.355037,0.856870,0.074633,-0.972207,0.221911
-0.057340,0.204693,0.573448,0.045924,-0.997854,-0.046672
-0.709392,-0.298640,0.464318,-0.018159,0.058181,0.998141
0.323873,-0.035949,0.616981,-0.386141,0.240854,0.890441
-0.411371,-0.389336,0.568222,-0.435392,-0.495137,0.751846
-0.390760,-0.264230,0.536206,-0.079748,0.982880,0.166091
-0.342705,-0.261208,0.892177,-0.451478,-0.295741,0.841846
0.000577,-0.430923,0.199510,-0.717816,0.522566,0.460071
-0.007772,-0.113998,0.958580,-0.037626,0.997968,0.051426
0.361182,-0.259331,0.550432,0.972958,-0.106601,-0.204910
-0.502507,0.823905,0.474931,-0.348448,0.072275,0.934538
-0.248901,0.608500,0.799644,0.523326,0.706541,0.476372
0.150301,0.145216,0.310527,-0.000399,-0.998594,0.053009
-0.211060,-0.035834,-0.314882,0.551091,0.819247,0.158535
-0.345814,-0.363472,0.818370,-0.279865,0.363336,0.888629
-0.552474,0.632997,0.699191,0.038734,0.077382,-0.996249
0.243704,0.083061,0.786643,0.932236,-0.333009,0.141568
0.331335,0.175523,0.871370,-0.695830,0.689332,0.201597
0.138753,0.009626,-0.726030,0.980558,-0.184718,-0.066227
-0.337064,0.204123,0.154832,0.331756,0.247673,0.910272
-0.825583,-0.256765,0.483335,-0.483070,0.863806,-0.143118
0.038286,-0.226687,0.960967,0.548209,0.072664,0.833179
0.479679,0.220132,0.948629,0.672425,0.711207,-0.205008
-0.475239,-0.474106,0.797627,0.913362,0.356708,0.196286
-0.549633,0.811143,0.325479,-0.687606,-0.245594,0.683288
-0.239928,-0.216318,0.905177,0.385690,-0.145679,0.911055
-0.005373,-0.256083,0.770127,0.904461,-0.340394,0.257065
-0.681812,0.405286,0.327817,0.392047,0.130115,-0.910697
-0.489230,-0.095711,0.207187,0.796548,-0.530786,0.289444
0.156029,-0.011623,-0.533545,0.972088,-0.193557,0.132595
-0.238285,0.286957,0.467802,-0.352354,0.929865,0.105816
-0.146568,-0.105169,0.327075,-0.733020,-0.459314,-0.501710
0.154297,0.030935,-0.297640,0.866856,-0.467323,-0.173692
0.063158,-0.317667,0.619691,-0.602699,0.770936,-0.205941
-0.385699,-0.217114,0.793886,-0.239189,0.939368,-0.245717
-0.850764,-0.194269,0.500964,-0.561888,0.763066,-0.319394
-0.185431,-0.003931,-0.315769,-0.440990,-0.896829,-0.035021
-0.016655,0.249643,0.750708,-0.420940,0.803321,0.421290
-0.035087,0.520478,0.159477,-0.446704,-0.589337,0.673154
0.141727,0.071555,0.117041,-0.660231,0.747715,0.070837
-0.160114,0.539224,0.727095,-0.774390,0.626310,-0.089760
0.615323,-0.312824,0.769853,0.542264,-0.044282,-0.839040
-0.301887,-0.446250,0.873725,-0.352398,-0.302692,0.885547
-0.389250,0.353044,0.579561,0.694360,-0.211611,0.687811
-0.119075,0.040563,0.781611,-0.266610,-0.274240,0.923965
0.295091,0.193184,0.939403,0.350687,-0.936151,-0.025307
0.123030,0.065801,-0.132041,0.916939,-0.143031,0.372511
0.134266,-0.024213,0.962742,-0.428471,0.152825,-0.890538
-0.330180,-0.139976,0.510367,-0.544226,-0.212018,-0.811706
-0.111259,-0.128470,0.851273,0.932697,-0.360660,0.000797
-0.016967,0.663133,0.820402,0.321010,0.183179,0.929192
0.329826,0.328377,0.902467,0.954570,0.297366,-0.019195
-0.221364,-0.354185,0.795208,-0.057140,0.957938,0.281229
0.521386,0.399646,0.606562,-0.563799,-0.188637,0.804081
-0.397158,0.369565,0.307769,0.788991,-0.101411,0.605977
0.381568,0.177234,0.828386,0.011179,-0.457483,0.889148
0.037041,0.114109,-0.358688,0.858846,-0.110262,0.500226
0.192894,-0.051902,0.859983,0.945742,-0.241077,0.217838
-0.481677,0.388081,0.773272,-0.328410,0.225832,-0.917141
-0.726227,0.582066,0.229881,0.644560,0.561703,-0.518682
-0.055386,-0.450124,0.696207,0.239671,-0.970421,-0.029000
-0.279813,0.307299,0.013347,-0.567925,-0.354479,-0.742836
0.356918,-0.369964,0.593158,0.871297,-0.386586,-0.302313
0.130181,-0.064604,0.955403,0.537693,0.137920,0.831784
0.041929,0.160484,0.807531,-0.667378,-0.349569,0.657578
0.662937,0.692018,0.656465,0.561313,-0.384423,-0.732903
-0.400845,-0.462200,0.813676,0.358212,0.693803,-0.624757
0.266755,-0.439185,0.896596,-0.173677,0.272004,0.946494
0.071374,-0.178034,0.541593,0.848885,0.040639,-0.527013
0.266489,-0.326440,0.821257,-0.505503,0.784696,0.358774
0.086832,0.087105,-0.024363,-0.342706,-0.935603,0.084847
-0.515788,-0.224520,0.446157,0.299939,0.934074,0.193760
0.163091,-0.390647,0.938193,0.632264,0.375293,0.677788
-0.019009,0.132969,0.432705,0.408450,0.856955,-0.314320
-0.744569,0.026036,0.599852,-0.592794,0.518778,-0.616007
0.137465,0.009171,-0.111993,-0.524589,-0.727949,0.441471
-0.616033,-0.641088,0.531545,0.214104,0.357307,0.909116
0.250056,-0.238478,0.766127,0.921552,-0.341696,0.184354
0.107261,0.760894,0.632981,-0.455722,-0.836696,-0.303738
0.099445,-0.465219,0.929742,0.858785,0.507482,0.070353
-0.583389,-0.486812,0.519996,-0.020670,0.693819,0.719852
0.025938,-0.188514,0.433431,0.013071,0.987902,0.154525
0.054629,-0.259386,0.413028,0.673193,-0.342661,0.655282
0.237618,-0.165843,0.778224,0.939667,0.304432,0.156035
0.152877,0.107903,-0.802998,-0.435332,0.898938,-0.048951
-0.046814,0.038682,0.692320,0.590226,0.652875,-0.474750
-0.299621,-0.512390,0.673046,0.344979,-0.850100,0.397894
-0.606705,0.227938,0.110445,0.448219,0.811520,-0.374880
-0.016566,0.442829,0.737821,-0.069886,-0.400899,0.913453
0.203464,0.062894,-0.163719,0.801899,0.581035,-0.139124
-0.245569,-0.056628,0.840047,0.879044,-0.476503,-0.015026
-0.363269,-0.487267,0.550093,0.852342,-0.513909,0.097006
-0.271374,-0.174727,0.442818,0.754178,0.602705,0.260696
-0.335288,0.486527,0.743917,-0.511376,0.833545,-0.209039
-0.068577,-0.020169,0.146461,0.583529,-0.065758,0.809426
-0.493448,0.048196,0.325624,0.421686,-0.667125,0.614105
-0.311614,0.732920,0.816628,0.694734,0.716459,-0.063499
-0.130092,-0.458497,0.526190,0.142534,0.791468,0.594359
0.171796,-0.110295,0.886322,-0.253913,0.021380,0.966991
0.104818,0.033271,-0.480464,0.948982,0.289142,0.125815
-0.607418,-0.282346,0.182639,0.652145,-0.752503,-0.091900
-0.781035,0.322678,0.715546,0.858122,-0.288644,0.424630
-0.589296,0.203042,0.410673,-0.228258,0.960192,0.161025
-0.360071,0.652879,0.247881,0.579454,0.793122,0.187593
-0.382988,-0.126589,0.777708,0.303303,-0.768247,0.563741
-0.451522,0.370590,0.600336,0.840308,-0.286731,0.460074
0.073329,0.028483,0.183526,0.768604,-0.262265,0.583493
-0.289851,-0.077766,0.805886,-0.482263,0.864420,-0.142129
-0.146303,0.203497,0.761708,0.801658,0.591878,-0.083818
0.340173,0.646554,0.852821,0.793402,-0.597599,-0.115711
-0.411235,-0.582921,0.714127,-0.259060,0.566960,-0.781949
-0.466133,-0.271007,0.446318,-0.145636,-0.952309,-0.268138
0.203819,-0.514386,0.935306,0.746742,-0.273396,0.606326
0.622252,0.745911,0.660159,-0.383311,0.773248,0.505133
-0.148967,0.125734,0.686143,0.941356,0.331028,-0.065332
-0.231180,0.538424,0.730208,-0.572771,0.219072,-0.789900
0.383877,0.405856,0.904096,-0.124511,-0.992215,-0.002461
-0.159049,-0.861733,0.470754,-0.515989,0.338422,-0.786909
-0.521963,0.685978,0.708320,0.162533,0.238261,0.957504
-0.099090,0.388536,0.780321,-0.241148,0.465743,0.851429
-0.110994,0.471940,0.565287,-0.525785,0.732448,-0.432517
0.388630,-0.480716,0.490093,0.948244,0.303038,-0.094880
-0.403420,-0.265141,0.578351,-0.710174,0.547309,-0.442838
-0.402574,0.745400,0.298236,0.926975,0.266048,-0.264453
0.146346,0.036175,-0.860450,0.926887,-0.198167,-0.318763
-0.050455,0.164643,-0.282784,0.879077,-0.205250,0.430227
-0.545280,-0.385177,0.838483,-0.437582,0.513558,-0.738093
0.272575,0.522874,0.784498,0.949132,-0.314206,0.020582
0.197424,0.117301,-0.871822,-0.249507,0.962376,-0.107604
0.129203,0.032531,-0.157009,-0.834499,0.537443,0.121519
0.128847,0.044378,0.099025,-0.498952,0.866324,-0.022995
-0.151011,0.139121,-0.395140,0.379355,-0.191947,0.905122
-0.084744,0.184300,0.627852,0.473646,-0.787170,0.394998
0.118056,0.025124,-0.662126,0.794803,-0.513303,0.323740
-0.245526,-0.257220,0.761434,0.151703,0.987417,-0.044644
-0.288607,0.527599,0.661949,0.725011,0.165303,0.668606
0.255119,-0.051728,0.596545,-0.499271,0.720424,0.481372
-0.626782,0.470233,0.452915,0.972876,-0.226238,0.048253
-0.831712,0.188399,0.678546,0.479934,0.869838,-0.114219
0.390229,-0.360906,0.584206,0.884158,-0.397934,-0.244771
-0.473106,0.716000,0.145622,-0.166272,-0.798627,0.578401
-0.124049,-0.623997,0.482899,-0.709355,-0.251845,0.658323
0.160115,0.164414,-0.991645,-0.132021,0.613304,0.778735
0.139908,0.042556,-0.214332,0.933472,-0.292581,-0.207430
-0.237130,-0.204238,0.430173,-0.595047,-0.649391,-0.473509
-0.145546,-0.600067,0.336317,-0.098250,0.851782,0.514601
-0.577615,0.795360,0.451528,0.359271,-0.090550,-0.928830
-0.204619,-0.384948,0.856757,-0.500008,0.424864,0.754641
-0.095403,-0.402041,0.841612,0.940645,-0.119336,0.317720
0.259517,0.046488,0.394914,-0.076140,0.052033,0.995739
-0.500155,0.658634,0.792079,0.147054,-0.968187,0.202459
-0.410216,0.052525,0.785192,-0.724168,-0.306113,-0.617961
0.220298,-0.097648,0.402592,-0.921022,0.048943,0.386424
0.217767,0.208797,0.781885,0.828781,-0.557558,0.047440
0.024295,-0.349000,0.594448,0.687074,-0.726586,-0.001686
-0.376859,0.215518,0.565497,0.913198,-0.013794,0.407283
-0.495269,-0.376915,0.292446,-0.023642,-0.041684,0.998851
-0.409948,-0.138098,0.816950,-0.243394,-0.961473,0.127786
-0.216877,0.315386,-0.058089,0.829242,0.104295,-0.549072
0.067067,0.625360,0.808273,-0.219751,-0.856296,0.467405
0.592937,-0.140432,0.770127,0.124496,-0.078704,0.989094
0.126671,0.421580,0.967951,-0.089394,-0.859274,0.503644
0.599510,0.423117,0.833386,0.617491,0.607121,-0.500109
-0.327294,0.129152,0.626045,0.868726,-0.469664,0.157260
0.114681,-0.077310,0.170719,0.812595,-0.491136,-0.313806
0.485009,0.056857,0.791063,-0.139813,-0.734823,0.663692
-0.088030,-0.134507,0.299801,-0.693888,-0.397111,-0.600685
0.048945,0.669058,0.615400,-0.370418,0.656994,-0.656620
0.178814,0.169713,0.358075,0.981765,0.022894,-0.188714
-0.038153,0.511079,0.536335,0.592544,0.577495,0.561597
-0.408394,0.085798,0.401028,0.236037,-0.865968,-0.440892
-0.038684,-0.079702,0.792337,0.519262,0.435929,-0.735073
-0.391961,0.411611,0.674191,0.024484,-0.597482,0.801509
0.223053,0.019996,0.958790,-0.330957,0.602709,0.726092
0.263512,-0.328377,0.843805,-0.645223,0.562596,0.516887
0.342661,-0.464196,0.690933,0.405101,0.831704,0.379685
0.060626,-0.292430,0.512399,0.885074,0.455901,0.093802
-0.389695,-0.549422,0.541577,-0.150745,0.450024,0.880201
-0.251210,0.159688,0.662642,0.282846,0.907807,-0.309654
-0.518098,0.824360,0.457415,0.550601,0.101473,-0.828578
-0.441039,-0.296018,0.590319,-0.253128,-0.957882,-0.135600
0.378903,-0.398338,0.948226,0.390575,-0.915278,-0.098573
-0.052943,0.565316,0.596610,-0.428943,-0.770284,0.471879
-0.217411,0.315672,0.445609,-0.625173,0.775367,0.089244
0.460714,0.379534,0.819805,-0.375167,0.924930,-0.061269
-0.700599,0.338287,0.656078,0.275067,-0.819164,0.503298
0.445658,0.324445,0.582045,0.852659,-0.006548,-0.522427
-0.272884,0.244688,0.821095,0.396415,0.305149,-0.865875
0.220521,-0.040848,0.961097,-0.104507,-0.645042,0.756967
0.294381,0.176094,0.890064,-0.539409,0.841948,-0.012715
0.488964,0.238478,0.961613,0.630422,0.741918,-0.228312
0.692116,0.468637,0.683094,0.779203,0.054635,-0.624386
-0.511792,0.060731,-0.008186,-0.553106,0.393679,0.734228
0.577216,-0.034297,0.776643,0.091542,-0.637452,0.765032
0.141328,0.455875,0.940161,-0.415478,0.892613,-0.174985
0.011326,0.192162,-0.002589,-0.444794,-0.456030,-0.770840
0.304907,0.602234,0.702917,0.491384,-0.029043,0.870459
0.119565,0.581496,0.818821,0.881023,0.470798,0.046346
0.931334,0.709509,0.735450,-0.163963,0.879446,-0.446867
0.256583,-0.208112,0.745885,0.972380,-0.118797,0.200910
-0.538706,0.107162,0.081670,-0.448034,-0.603144,0.659911
0.696025,0.415029,0.855451,0.265334,0.955917,-0.125780
-0.544526,0.559788,0.281172,0.460454,0.621215,-0.634093
-0.083855,0.092464,0.790611,0.727919,-0.307631,-0.612778
-0.572017,0.136954,0.467222,0.852649,-0.405483,-0.329505
-0.289317,-0.057598,0.052154,0.501928,-0.640368,0.581375
-0.731112,0.263486,0.607561,-0.380019,-0.924510,-0.029437
0.225495,0.189481,0.452173,0.890836,0.452800,-0.037207
0.613013,-0.009856,0.750224,-0.039191,-0.886763,0.460559
-0.223139,-0.290323,0.710466,-0.289913,-0.828115,0.479767
0.087054,0.056913,-0.993855,0.519560,-0.136884,-0.843398
-0.399112,-0.405060,0.835225,0.468602,-0.705200,0.532077
-0.344703,-0.211189,0.784289,-0.058217,-0.664840,0.744714
-0.464046,-0.209422,0.423963,0.567678,-0.813892,0.123780
0.030069,-0.126133,-0.479367,0.222556,0.079415,0.971680
0.106106,-0.622401,0.456705,-0.545183,0.837560,-0.035618
0.590673,-0.226117,0.727127,0.840512,0.339160,-0.422505
-0.108462,-0.521848,0.782611,0.344429,-0.926828,-0.149527
0.203730,0.160255,0.339979,0.989462,0.065990,-0.128880
-0.205107,0.239274,0.783482,0.908252,0.310191,0.280819
-0.470752,-0.445736,0.809789,0.189593,0.870631,0.453934
0.144703,0.606789,0.920451,-0.031590,0.965381,0.258925
-0.453831,-0.520881,0.420979,-0.432907,-0.884662,-0.173103
0.174596,-0.233352,0.846692,-0.407710,-0.745209,-0.527670
-0.142616,0.603826,0.855934,0.858970,-0.112956,0.499411
0.145015,0.083120,0.052154,0.980782,0.171136,0.093702
-0.646145,0.033838,0.408866,0.820825,-0.524622,0.225872
-0.366379,-0.024328,0.728046,-0.466196,0.332961,-0.819633
0.325250,-0.359654,0.936048,-0.027946,0.801062,0.597929
0.329779,0.016807,-0.978887,0.334066,-0.081250,0.939041
-0.197424,0.633282,0.775321,0.032123,-0.001936,0.999482
-0.269243,-0.383581,0.851451,-0.334137,0.762820,0.553587
0.299133,0.202357,0.860725,0.811502,-0.583780,-0.025790
-0.475372,0.033612,0.631239,-0.048768,-0.042443,0.997908
-0.516322,-0.412977,0.458544,0.532752,0.315846,0.785122
-0.072486,0.500199,0.679901,-0.185953,0.725903,-0.662183
0.620387,-0.109784,0.752079,-0.888268,0.421962,-0.181462
-0.732088,0.467781,0.717530,-0.012354,0.789787,0.613257
0.338175,-0.349911,0.590271,0.863586,-0.365883,-0.346914
-0.678036,-0.532446,0.767595,-0.109981,-0.375040,0.920461
-0.411235,-0.579844,0.324849,0.962951,0.229358,0.141846
0.200311,0.119294,0.365753,0.996081,0.087691,-0.011535
-0.019009,-0.126248,0.046396,0.780278,0.025174,0.624926
-0.743593,0.131544,0.428947,-0.247772,-0.952684,0.176075
-0.435709,0.715660,0.346624,0.811655,0.363042,-0.457621
0.274529,0.253917,0.788095,0.789812,-0.611330,-0.049730
0.028426,0.163732,-0.462189,0.559750,0.826679,-0.057276
-0.330091,-0.201620,0.869322,-0.678160,0.367961,-0.636163
0.068043,-0.112632,-0.394979,0.985489,0.088522,0.144832
-0.088073,0.085057,0.803466,0.608984,-0.161692,-0.776527
-0.063957,-0.189429,0.106461,0.956662,-0.289012,-0.035628
-0.743859,0.267644,0.655546,-0.150633,0.049962,0.987326
-0.786541,0.023869,0.608771,0.588631,-0.139863,0.796211
-0.310061,-0.387455,0.312124,0.047943,0.986337,0.157607
-0.190717,0.481627,0.034008,-0.485437,-0.102336,0.868262
-0.444370,0.624449,0.791224,0.175632,0.978735,-0.105973
-0.266933,-0.193243,0.451141,0.929000,-0.098996,0.356594
-0.209859,-0.554551,0.577077,0.077560,0.325070,0.942504
-0.455607,0.403519,0.782595,0.294386,-0.474001,0.829855
0.242951,-0.160203,0.742111,0.941786,0.288144,0.173240
0.161226,0.106762,-0.668159,0.701798,-0.710719,-0.048553
0.412526,0.073492,0.979290,0.129580,0.611784,0.780339
-0.392183,-0.541105,0.816128,-0.235208,0.450200,0.861393
-0.010925,0.231412,0.085218,0.123761,-0.647834,0.751661
0.080437,0.522644,0.750692,-0.402730,0.419832,0.813357
-0.467643,0.126474,0.546061,-0.117863,0.092060,0.988753
0.476172,0.588617,0.807982,0.318985,0.852540,0.414033
-0.278791,-0.307243,0.812708,0.591466,-0.766530,-0.250200
-0.233311,-0.011793,0.156074,-0.571983,0.568348,0.591452
0.324095,-0.057028,0.616884,0.228505,0.392533,-0.890901
0.197069,0.054406,0.081896,0.694078,0.706987,0.135740
0.326361,0.313849,0.792660,-0.559902,0.095474,-0.823040
-0.059295,-0.454853,0.514722,-0.655337,0.720243,0.227558
0.461869,0.395257,0.773482,0.663217,-0.080914,-0.744040
0.175884,-0.144250,-0.982274,-0.366611,-0.178549,0.913081
-0.715256,0.550504,0.697175,-0.049101,0.476694,0.877697
-0.446680,-0.472169,0.721466,0.195308,-0.546780,0.814179
0.088209,0.446306,0.943919,-0.002134,-0.887598,0.460614
-0.427492,-0.160884,0.839789,0.795442,0.338079,0.502966
-0.367487,0.545489,0.791660,-0.134357,0.075116,0.988082
-0.250367,0.142824,0.723449,0.435557,-0.882155,0.179144
-0.576593,0.184981,0.106138,-0.560610,-0.218151,0.798828
-0.134489,-0.259956,0.786515,0.982044,-0.140776,-0.125587
-0.252143,-0.221614,0.444722,0.540257,0.668935,0.510537
0.076127,-0.226402,0.157832,0.958348,-0.279018,-0.060979
-0.415988,0.414914,0.582997,0.828501,-0.149936,0.539542
0.133245,0.243718,0.454254,0.880723,0.472103,-0.038029
-0.544970,0.650031,0.469722,0.247549,-0.601016,-0.759933
-0.214345,0.272088,0.598206,-0.383893,0.919851,0.080630
-0.016788,0.588958,0.795482,-0.285315,-0.958063,0.026672
-0.302066,0.252832,0.670320,0.810505,-0.576480,0.103694
0.657116,0.720159,0.661739,-0.507801,0.553569,0.660075
0.415145,-0.076114,0.603223,-0.406720,0.913533,-0.006019
-0.853697,-0.204867,0.490673,0.407133,-0.823513,0.395056
0.021809,0.014526,-0.411753,0.932541,0.318222,0.170592
-0.362868,0.428416,0.767160,0.532506,-0.842626,-0.080116
0.252677,-0.507206,0.890789,0.292542,-0.349003,0.890290
-0.586986,-0.233123,0.407415,0.719594,0.300377,-0.626066
-0.392137,0.665640,0.493899,0.395658,0.225464,-0.890293
-0.187074,0.111717,0.774918,-0.789247,0.385578,0.477932
-0.635221,0.191817,0.387592,0.569494,0.589845,0.572502
0.066311,0.693840,0.882015,-0.391001,0.306757,-0.867766
0.047169,-0.039597,0.697111,0.469682,0.742263,0.477960
0.144259,0.084428,-0.181493,-0.810588,0.585137,-0.023684
0.286297,-0.431267,0.606255,0.322856,-0.946447,-0.001133
0.264624,0.110806,0.957516,-0.067309,-0.850758,0.521229
-0.009992,-0.557340,0.367350,0.836405,-0.359580,-0.413677
-0.517743,-0.292656,0.626771,0.945238,-0.020848,0.325716
0.045171,-0.312427,0.531754,0.952278,0.287336,0.102980
-0.427536,-0.223495,0.148509,-0.253197,0.815888,0.519826
-0.283499,0.387966,0.789418,0.507378,0.581520,0.635927
0.177171,-0.040678,0.866015,-0.524345,-0.426182,-0.737178
-0.025048,-0.376063,0.274656,0.154445,0.866428,0.474814
-0.014701,0.207201,0.778079,-0.150647,0.468171,0.870701
0.099266,0.047740,0.162816,0.702380,-0.600403,0.382334
0.132179,0.092975,-0.097041,-0.286915,0.957296,0.035564
-0.268354,-0.578419,0.683094,-0.191380,-0.970804,0.144616
-0.001998,0.533069,0.638949,0.815248,-0.570364,0.100275
0.233178,-0.094741,0.891773,0.777459,-0.624728,0.072612
0.504552,0.508402,0.800692,0.898002,0.104291,-0.427452
-0.322807,0.277843,0.456641,-0.804197,0.512252,-0.301438
0.357539,-0.535976,0.724966,0.775049,0.489584,-0.399507
-0.786229,-0.062612,0.341833,-0.427023,0.356479,-0.831008
0.521164,0.263545,0.818128,-0.795205,0.498191,0.345621
-0.641171,0.631060,0.675997,0.501687,0.006957,-0.865021
0.625228,0.379534,0.853257,0.372350,-0.630215,-0.681311
-0.458361,0.135703,0.806192,0.931239,0.250450,-0.264705
-0.217853,0.500199,0.735917,0.131334,-0.231851,0.963845
0.047657,0.193869,-0.355737,-0.311649,-0.948213,0.061373
-0.316811,-0.400671,0.473883,-0.052236,0.811562,0.581927
-0.459204,0.310602,0.770821,-0.266656,-0.097325,-0.958865
0.026206,0.536661,0.653723,-0.770297,0.628790,0.106140
0.472929,0.310543,0.585803,0.740557,0.080416,-0.667165
0.329912,0.503787,0.775740,0.802792,-0.596173,0.010091
-0.302508,0.686549,0.787692,-0.126753,-0.799826,0.586696
-0.453831,0.688541,0.391995,0.876789,0.371002,0.305938
0.418211,-0.292715,0.731820,0.194941,-0.107582,0.974897
0.156029,-0.577396,-0.369527,0.427881,0.774341,-0.466169
0.387431,-0.217173,-0.394334,-0.243298,0.438781,0.865030
-0.511437,-0.414347,0.735159,0.161430,-0.591871,0.789702
-0.681544,0.216885,0.406366,0.788262,-0.424894,0.445093
-0.326139,0.502251,0.435221,-0.432702,-0.679145,0.592901
-0.193160,-0.272547,0.748788,0.222645,0.974692,-0.020097
-0.108326,-0.463056,0.709950,0.278308,0.904151,0.324121
0.532756,0.597960,0.628384,-0.856240,0.429162,0.287529
0.118899,0.071837,0.014686,0.206862,0.941449,-0.266238
-0.118188,-0.072526,0.790418,-0.339011,-0.703446,-0.624688
-0.103352,0.238874,0.648578,-0.253676,0.874758,-0.412852
0.024341,-0.304736,-0.447076,0.807267,0.180419,-0.561934
-0.021497,-0.116505,0.965129,-0.542550,0.285470,-0.790029
0.146124,0.480487,0.486560,0.534563,0.047554,-0.843789
-0.094558,0.234090,0.458883,0.737596,0.495932,0.458262
0.028293,0.777303,0.180881,-0.015531,0.013453,0.999789
0.137685,-0.006497,0.265833,0.997827,0.028946,0.059196
-0.464222,0.135817,0.099896,0.069721,-0.626262,0.776489
-0.385832,-0.749274,0.866676,0.763801,0.618966,0.183003
-0.193694,-0.134110,0.890918,-0.586443,0.491174,-0.644075
-0.522451,0.728762,0.453754,0.257388,0.351782,-0.900001
-0.137153,0.510794,0.684336,0.610936,-0.410981,0.676648
-0.694781,0.266793,0.423076,0.798824,-0.543940,0.256923
0.111170,-0.114909,0.349156,-0.088228,0.971769,0.218819
0.180058,0.108414,-0.552642,-0.400126,0.916072,-0.026651
-0.425671,0.403464,0.591497,0.863305,-0.143745,0.483779
-0.185119,-0.540819,0.661255,0.062807,0.586968,0.807170
0.190717,-0.092293,0.814321,0.758063,0.543590,0.360349
-0.252409,0.438100,0.645465,0.844276,0.206893,0.494361
0.179657,0.076110,0.385479,0.940312,-0.182599,-0.287178
0.177215,0.122997,0.203720,0.826037,0.438438,-0.354168
-0.151231,0.208737,-0.383559,0.772010,0.104552,0.626953
-0.414968,-0.178660,0.644788,0.633061,0.358354,0.686161
0.040595,0.127329,-0.205252,-0.018839,0.973573,-0.227598
0.200623,-0.401868,0.920790,-0.595640,0.474992,-0.647762
-0.639750,-0.154674,0.315575,-0.194480,-0.899766,-0.390638
-0.124006,0.198654,0.541803,0.342803,0.939181,-0.020630
0.200623,0.105051,0.405721,0.947770,0.049826,-0.315040
0.054320,0.149775,-0.408253,-0.789771,0.530537,-0.307885
-0.266887,0.209763,0.783740,-0.456746,0.884219,-0.097672
0.316721,-0.319319,0.525964,0.839942,-0.483542,-0.246343
0.231489,-0.023588,0.191332,0.878380,0.443677,0.177763
0.654053,0.378967,0.852418,0.399684,-0.693597,-0.599313
0.713212,0.324844,0.672998,0.283866,-0.072741,0.956101
0.405597,0.307524,0.926419,0.321767,-0.378260,-0.867978
0.893759,0.702843,0.746982,0.409788,0.871919,-0.268015
0.248191,0.629519,0.719675,-0.536093,-0.209381,-0.817780
-0.020874,0.512901,0.669046,-0.584990,0.791832,-0.175468
0.235089,-0.253631,0.915000,0.307074,0.923076,0.231594
0.307041,-0.176153,0.908096,0.525476,0.311661,0.791670
0.261959,0.213066,0.490738,-0.110633,-0.871558,0.477647
-0.070352,0.574030,0.590932,0.417938,0.826082,-0.378043
-0.777259,-0.076625,0.405431,-0.755555,0.649938,-0.081956
0.238773,-0.270552,0.799660,0.920607,-0.293067,-0.258058
-0.642372,0.595794,0.270301,0.618624,0.454152,-0.641132
-0.351854,-0.453542,0.559513,0.923558,0.004841,0.383429
-0.205996,0.783510,0.782869,-0.678230,0.634061,0.371445
0.418387,-0.121234,0.866709,-0.749502,0.139778,0.647077
0.203421,-0.009856,0.504335,0.605033,-0.758118,-0.243296
0.129249,0.107788,-0.064202,-0.057128,-0.997206,-0.048123
-0.119788,0.618354,0.731643,-0.337665,-0.869117,0.361410
-0.299800,-0.129322,0.168413,-0.129510,-0.015739,-0.991453
-0.594181,0.299833,0.085622,-0.334460,0.683147,0.649189
0.280304,-0.662566,0.736256,-0.367846,0.628606,0.685232
-0.439840,0.326040,0.763079,0.251062,0.054274,0.966448
0.823450,0.722837,0.720062,-0.450980,0.832590,-0.321574
-0.426872,0.262175,0.559626,0.022554,-0.094044,0.995313
-0.195068,-0.341024,0.692901,-0.250038,-0.302788,0.919674
-0.671508,0.488575,0.343785,0.530014,0.494226,-0.689076
0.031267,0.513816,0.753869,-0.079563,0.152468,0.985101
-0.258584,0.159514,0.735772,-0.387964,0.890329,-0.238325
-0.191338,-0.200535,0.418124,0.844674,0.355709,0.399996
-0.654717,0.422776,0.679336,-0.045633,-0.984357,0.170171
0.505262,0.496896,0.928612,-0.671691,0.460167,0.580584
0.507883,0.346834,0.789240,-0.659136,0.108683,0.744129
0.051433,-0.060560,-0.426140,0.945348,0.301636,0.123828
-0.350832,-0.363358,0.724401,-0.054264,-0.516642,0.854480
0.173574,0.096508,-0.646175,0.496982,-0.866692,-0.043064
-0.980723,0.223324,0.592932,-0.282179,-0.537621,0.794568
-0.590006,0.547256,0.457254,0.860132,0.508884,0.034786
-0.232199,0.386144,0.635417,-0.310473,-0.639968,0.702885
0.616256,0.362613,0.824402,-0.794123,0.479575,0.373332
-0.700509,0.148864,0.637207,-0.760966,0.646070,-0.059358
0.075595,0.402268,0.909451,0.191553,0.453090,0.870642
0.259161,-0.016637,0.949306,-0.688649,0.647170,0.327006
0.068311,0.249073,-0.020540,-0.320714,-0.252957,-0.912773
-0.352033,0.741867,0.818789,0.876753,0.146736,0.458008
-0.461248,-0.166184,0.830741,0.296420,-0.273939,0.914928
-0.669331,0.250554,0.626094,0.257109,-0.775460,0.576677
0.149502,0.041815,-0.351882,0.938844,-0.338197,-0.064766
-0.534355,-0.460434,0.497254,0.114716,0.942914,0.312656
-0.448190,-0.448813,0.844773,0.593510,-0.719788,0.360071
0.238242,0.092464,-0.955677,0.611261,0.713889,0.341646
-0.786408,-0.059479,0.531206,-0.398262,-0.732368,0.552290
0.508726,0.511024,0.910628,0.867180,-0.167435,-0.469004
-0.663557,0.100496,0.201816,-0.345704,-0.325466,-0.880091
-0.172151,0.115135,0.129993,-0.703410,0.433540,-0.563256
0.140707,0.212270,0.805531,-0.503754,-0.676793,0.536827
-0.128980,0.383522,0.423382,0.643835,0.458932,0.612256
-0.557007,0.182930,0.380431,-0.349677,-0.563671,0.748332
-0.370730,-0.665355,0.861547,0.854809,0.469408,0.221266
-0.718276,-0.082950,0.532900,-0.244861,0.756884,-0.605945
0.591782,0.479802,0.634223,0.682559,0.489568,-0.542621
0.784898,0.577734,0.696191,-0.353925,0.188628,0.916055
0.215855,0.079244,-0.124235,0.942741,0.332792,0.022103
-0.450811,0.264341,0.165832,0.203307,-0.890085,-0.407939
-0.614789,-0.073092,0.285752,0.507080,0.856895,0.092738
0.668798,-0.072981,0.757143,0.635317,0.699993,-0.326162
0.119788,0.048310,-0.454463,0.112882,0.654971,0.747175
-0.035133,0.132969,-0.167396,0.206370,0.974056,-0.092884
0.112813,0.408418,0.497835,-0.415048,0.295021,-0.860638
-0.346169,0.568335,0.765627,-0.190876,0.652440,0.733409
-0.585699,0.516719,0.470931,0.882030,-0.116012,0.456688
-0.514012,-0.487267,0.537819,-0.420477,0.543943,0.726172
0.161269,0.015837,-0.320704,0.890249,-0.455446,-0.005081
0.145281,0.098956,-0.907096,-0.398083,0.901406,0.170285
-0.278747,0.754114,0.733466,-0.153862,0.674367,0.722188
0.339685,0.413718,0.944951,0.504292,0.863082,-0.027904
0.366466,-0.056687,0.506432,0.688726,0.716756,-0.109170
0.252276,-0.117816,0.467835,0.783152,0.494596,-0.376891
0.337996,0.355211,0.857580,-0.588539,0.800404,-0.113911
0.460760,0.414514,0.947613,0.724540,0.596081,0.346019
0.186497,-0.097478,0.350253,0.077376,0.977139,0.198023
-0.441971,0.298696,0.165735,0.100968,0.750652,0.652937
-0.261869,0.613795,0.768176,0.337875,-0.706485,0.621868
-0.637218,0.136273,0.402463,0.072287,-0.252890,0.964791
0.188541,0.178771,0.801547,-0.067538,-0.481860,0.873642
0.127825,0.082776,0.229042,0.970291,0.166865,0.175188
-0.105575,0.477695,-0.379882,-0.670519,0.516739,-0.532339
-0.055117,0.076910,0.809418,0.353624,-0.150491,-0.923202
-0.366512,0.585880,0.444770,-0.394615,-0.849079,0.351204
-0.577213,0.264682,0.616094,-0.291041,-0.396476,-0.870691
0.121474,0.054006,-0.009137,0.126988,0.980073,0.152747
0.213901,0.093430,0.645884,0.894522,-0.438140,0.088673
-0.193293,0.329288,0.651594,-0.508369,-0.220566,0.832413
0.012259,0.577678,0.815853,-0.568175,-0.216438,-0.793934
-0.462536,-0.596364,0.815741,0.071092,0.689940,0.720367
0.427403,0.443399,0.883790,-0.493927,0.836243,0.238187
-0.215188,0.519911,0.646223,0.306328,0.698754,0.646457
0.059872,-0.148294,0.942677,0.241972,0.785323,0.569840
0.932844,0.771034,0.761837,-0.469227,-0.365662,0.803814
0.321563,0.145272,0.829644,0.071550,0.278186,0.957859
-0.617633,0.436048,0.430931,0.965924,0.197937,0.166770
-0.465377,0.611347,0.138848,0.196403,0.769740,-0.607393
0.316412,0.139521,0.933838,0.862966,-0.355552,-0.358989
-0.466843,0.556940,0.007186,0.183723,0.506821,-0.842246
0.161714,0.112972,-0.964193,-0.692431,0.691934,0.204369
-0.576726,-0.718341,0.541061,0.248406,0.848296,-0.467641
0.160115,0.554548,0.915967,0.846602,0.486800,0.215152
-0.312725,0.318919,0.562803,0.199692,0.953346,-0.226396
0.234644,0.147268,0.601481,0.836181,-0.193627,-0.513136
-0.394802,-0.251124,0.445399,0.007781,0.947927,0.318392
-0.059560,-0.552440,0.227316,0.933518,-0.357080,-0.032217
-0.363492,0.406482,0.399253,-0.634956,0.442028,0.633595
-0.331601,-0.537516,0.436979,0.169709,0.984310,0.048305
-0.556695,-0.076796,0.511738,-0.431607,0.901891,-0.017557
-0.050143,0.010823,-0.243236,-0.286084,0.956382,-0.059072
0.093761,-0.151030,0.391576,0.976015,-0.217584,-0.007129
0.580768,-0.109839,0.755692,-0.683924,0.615197,0.392150
0.208262,0.469207,0.703369,0.488321,0.787701,0.375592
0.005818,0.011108,-0.372076,0.969239,0.238701,-0.059979
-0.425359,-0.079702,0.377463,0.887605,-0.216361,-0.406628
-0.263114,0.130859,0.733659,-0.246832,0.919757,-0.305156
0.233622,0.162936,0.907886,0.044174,-0.849303,0.526054
-0.331335,0.032872,0.190784,0.432654,-0.871805,0.229709
-0.175482,-0.113428,0.349237,-0.882344,-0.066913,-0.465823
0.223985,-0.465618,0.893096,-0.501259,-0.128902,-0.855642
-0.158027,-0.111491,0.875612,0.289905,-0.391792,0.873186
0.121387,0.750240,0.888354,-0.131657,-0.356977,0.924789
-0.489807,0.493304,0.373318,-0.604306,0.770463,0.202979
-0.365224,0.380219,0.800499,-0.142408,0.388058,0.910566
-0.475993,-0.129211,0.348963,-0.551156,-0.344855,0.759804
-0.425316,-0.249017,0.418382,0.144493,0.972847,0.180807
0.156872,0.499684,0.760724,0.896766,0.176447,0.405804
0.692870,0.541331,0.658384,-0.706913,0.176761,0.684857
-0.876791,0.276191,0.599884,0.179708,-0.193364,-0.964529
0.169977,0.449095,0.961177,-0.660436,0.709032,-0.247180
1.000000,0.727795,0.768966,0.635593,0.769388,-0.063746
-0.392761,-0.186862,0.422624,-0.592449,0.172009,0.787030
-0.433711,0.516493,0.500706,0.193833,-0.341978,0.919500
-0.031001,0.200935,-0.049734,-0.460723,-0.557573,0.690541
-0.468532,-0.013844,0.015524,0.211858,0.472867,0.855285
-0.159494,-0.435196,0.717562,-0.491188,-0.641919,-0.588790
0.123119,0.069504,-0.786159,0.946326,-0.323031,0.010878
0.431713,-0.501054,0.542432,0.888664,0.414303,-0.196542
0.496958,0.234660,0.807644,0.723437,-0.511159,-0.464065
0.187920,0.002505,0.960710,0.231337,-0.562985,-0.793430
-0.357717,-0.471203,0.813579,-0.013832,-0.687469,0.726082
0.475461,0.464648,0.899596,0.672948,-0.093332,-0.733778
-0.166778,-0.283028,0.757885,0.185161,0.982462,-0.021995
0.190717,0.070870,0.368560,0.795904,0.600453,-0.077414
0.375704,0.098330,0.960790,-0.579228,0.349059,0.736650
-0.028247,-0.062157,0.081735,0.879564,-0.284943,-0.381019
-0.031712,0.144816,0.792450,-0.075372,0.430451,0.899462
-0.256228,0.459179,0.134429,-0.184247,0.033628,0.982305
0.320009,-0.155244,0.565819,-0.505463,-0.464731,0.727002
-0.839395,0.160029,0.412415,0.248993,0.258348,-0.933412
-0.058937,-0.374467,0.655239,0.942095,-0.091967,0.322490
-0.454940,0.202586,0.542900,-0.075443,-0.504734,0.859972
-0.113168,0.266793,0.257768,-0.406702,-0.834262,0.372290
-0.173661,0.315272,0.756837,0.904695,-0.156578,0.396246
0.926625,0.776277,0.773821,0.158310,-0.620775,0.767839
0.272840,0.396057,0.863047,-0.141326,-0.593522,0.792312
-0.489406,-0.409559,0.806966,0.676171,0.732600,-0.078039
-0.525737,-0.487838,0.731466,-0.596150,0.473561,-0.648340
0.841883,0.773656,0.760611,-0.301103,-0.794115,0.527938
-0.242725,0.344157,0.012315,-0.516658,-0.348794,0.781925
-0.336708,-0.151485,0.172719,0.284081,0.116088,0.951747
0.134532,0.084658,0.231736,0.993742,0.111612,0.004463
0.952254,0.729958,0.735321,0.012041,-0.839234,0.543637
-0.641971,0.606333,0.266317,0.843628,-0.113180,-0.524865
0.224473,-0.113317,0.172171,0.357749,-0.421048,-0.833507
-0.687451,-0.273173,0.678320,0.765115,0.439508,0.470565
-0.342439,0.549248,0.151042,-0.600798,-0.476106,0.642156
-0.638729,0.580696,0.673433,-0.178019,0.292975,0.939402
-0.390584,-0.642340,0.679126,-0.672060,0.259518,-0.693532
-0.473417,-0.119467,0.634352,-0.419335,-0.758255,0.499207
-0.704063,-0.048940,0.173380,-0.158573,0.254129,-0.954082
-0.723961,0.066882,0.413883,0.196520,0.671263,0.714693
-0.708948,0.196035,0.420947,-0.724995,0.594971,-0.346975
0.090074,-0.184129,0.452302,-0.064911,0.956114,0.285713
-0.307838,0.527203,0.372592,-0.056034,0.653193,0.755116
-0.534265,0.381870,0.631223,-0.577258,-0.074904,-0.813119
0.333512,0.224632,0.975871,0.468281,-0.576764,0.669369
0.172685,-0.089160,0.333446,-0.138456,0.917513,0.372826
-0.362646,-0.660345,0.840499,0.961625,-0.202505,0.185120
-0.554697,-0.268274,0.654772,-0.696164,-0.064453,-0.714983
0.312991,0.543268,0.857499,0.941136,-0.336082,0.036213
-0.051699,-0.165669,0.142445,0.921599,-0.385648,-0.043939
0.115968,0.072922,-0.056508,0.907452,-0.404761,-0.112695
0.027315,0.469833,0.158074,0.365935,0.537614,-0.759646
0.130978,0.589358,0.885870,0.286078,0.956462,-0.057782
0.185564,0.090523,0.584884,0.958705,-0.282721,-0.030872
-0.821186,0.263089,0.654368,0.344407,-0.191857,-0.919007
-0.650144,-0.195920,0.692901,0.530044,0.584760,0.614092
0.895225,0.749900,0.766337,-0.323217,-0.402771,0.856333
0.153763,0.244174,0.488480,0.757231,0.609122,-0.235735
-0.291182,-0.396457,0.876725,-0.413904,-0.392183,-0.821508
0.245569,-0.168631,0.403915,0.898287,-0.248413,-0.362453
-0.299889,0.273399,-0.083815,-0.495234,-0.168407,-0.852280
-0.006750,0.326496,0.177752,-0.161095,0.283747,0.945270
-0.506194,0.694922,0.484819,-0.015363,-0.654423,0.755972
-0.466044,-0.214211,0.592077,-0.765759,0.135037,-0.628791
0.375972,0.609866,0.722191,-0.277893,0.957579,-0.076270
-0.593381,-0.517234,0.547351,-0.687663,-0.725501,0.027698
-0.268221,0.562124,0.605158,-0.281059,-0.020877,0.959463
-0.581255,0.557851,0.433528,0.162151,-0.759229,0.630301
0.140884,-0.036234,0.913241,-0.253011,-0.212266,-0.943890
0.781922,0.778725,0.762289,-0.748506,-0.328631,0.575968
0.869288,0.814106,0.766450,0.204145,0.867552,-0.453518
-0.293359,0.558536,0.600303,-0.281059,-0.020877,0.959463
0.661381,0.345638,0.686723,-0.303199,0.223507,-0.926345
-0.102243,0.174386,-0.274639,0.559881,-0.725972,0.399373
-0.595159,-0.364954,0.748595,0.282239,-0.225161,0.932547
-0.864224,-0.053439,0.520577,-0.245368,-0.501527,0.829618
-0.190452,-0.200535,0.496432,-0.572439,-0.316023,0.756600
0.128492,-0.030309,0.156768,0.082245,0.436446,0.895963
-0.312191,-0.592891,0.800644,-0.277934,0.852180,0.443331
-0.226159,-0.118216,-0.241945,0.503211,-0.523816,-0.687310
-0.545147,-0.453198,0.477915,0.366938,0.884665,0.287618
-0.347546,-0.017207,0.509190,-0.432754,-0.192550,-0.880709
-0.046768,0.099585,0.403350,0.352183,-0.918180,0.181421
-0.160516,0.214322,0.682546,0.990985,-0.053064,0.123019
0.170242,-0.116335,0.908999,0.001033,0.965475,0.260492
0.507794,0.407052,0.787466,0.812742,0.229666,-0.535447
-0.253075,-0.200479,0.512399,-0.165224,0.980549,-0.105943
0.151632,0.157181,0.233913,0.979986,0.176558,0.091954
0.132624,-0.047399,-0.988322,-0.499296,-0.176070,0.848353
-0.135109,-0.032760,-0.262688,0.334244,-0.926197,-0.174473
-0.131024,0.265937,-0.372979,0.854489,-0.275273,0.440538
-0.025406,0.048822,-0.407011,0.914005,-0.050784,0.402512
-0.638685,-0.165843,0.325769,-0.198628,-0.838931,-0.506698
0.100156,0.377141,0.911822,0.031354,0.751560,0.658919
0.797558,0.637100,0.725724,-0.540751,-0.731825,0.414754
0.241039,-0.230901,0.828757,0.711369,0.234254,0.662631
0.081413,-0.067908,0.557271,-0.241114,0.065882,0.968258
-0.239350,0.345127,0.812112,-0.681130,0.634998,0.364471
-0.201154,-0.353785,0.693449,-0.250038,-0.302788,0.919674
0.346880,-0.231697,0.801708,0.143035,-0.974490,-0.172944
0.191428,-0.366605,0.728337,-0.184139,-0.802549,0.567458
-0.672308,0.318008,0.336043,0.035828,0.943556,0.329269
0.110237,0.142254,-0.989774,-0.406379,0.463275,0.787548
-0.416210,0.694466,0.348479,0.819284,0.402875,-0.408002
-0.521164,-0.377826,0.636852,0.950545,-0.309612,0.024575
-0.484033,0.013956,0.645562,0.905561,-0.222682,-0.361069
0.113303,0.218595,0.798353,0.126732,-0.366241,0.921850
-0.176816,0.209708,0.521351,-0.227730,-0.908164,0.351250
0.175217,0.071441,0.040444,0.902292,0.397071,0.167943
-0.453254,-0.652483,0.835208,-0.249295,0.355873,0.900670
0.124139,-0.125337,0.915999,0.154591,0.808802,0.567398
0.747413,0.660511,0.687691,0.809563,0.409302,-0.420808
-0.425850,0.560358,0.678030,0.041971,-0.619909,0.783551
-0.614257,0.146298,0.624820,-0.261027,0.862870,0.432806
-0.234376,-0.287075,0.395479,0.802454,-0.376687,0.462790
0.369797,0.178260,0.950693,-0.217232,0.975096,0.044710
-0.454319,0.183615,0.555125,-0.195779,-0.443376,0.874694
0.009504,0.527599,0.166977,0.325576,0.521764,-0.788519
0.055296,0.163447,0.816337,0.587600,0.207932,-0.781979
-0.717121,0.590668,0.229268,0.644560,0.561703,-0.518682
0.460004,0.422376,0.883370,-0.712407,0.361684,0.601383
-0.253696,-0.343646,0.853870,-0.230878,-0.926711,-0.296484
0.048722,-0.007805,0.113574,-0.416953,0.908864,-0.010784
-0.542661,0.603997,0.796531,-0.008979,-0.232660,0.972517
-0.382633,0.568049,0.771579,-0.075941,0.996637,0.030779
-0.226159,0.196206,-0.364898,0.777730,-0.320971,0.540476
-0.750476,-0.082380,0.377253,-0.768522,0.639761,0.008907
-0.507883,-0.163621,0.404350,0.491342,0.275882,-0.826119
-0.065955,0.085909,0.801627,-0.166008,0.210238,0.963453
0.099711,0.559676,0.777095,0.933640,-0.143409,-0.328252
0.195337,0.393550,0.681868,0.890097,0.373463,-0.261254
-0.585831,0.645643,0.392044,0.877255,-0.217048,0.428151
-0.335242,0.530791,0.762611,-0.065629,-0.983730,0.167239
0.293495,-0.426879,0.623271,-0.034381,-0.995490,-0.088422
0.784410,0.317553,0.671820,-0.258793,-0.041377,-0.965046
-0.237664,0.307695,0.618787,0.459197,-0.677516,0.574552
0.097401,0.111776,-0.471012,0.799896,-0.543065,0.255435
-0.409549,0.384322,0.742385,-0.795747,0.376392,-0.474463
0.139908,0.081524,-0.025266,0.210751,0.958755,0.190718
0.405375,0.260238,0.736127,-0.825932,0.383804,0.412955
-0.060404,0.042441,0.699659,0.599045,0.533423,-0.597164
0.207728,0.008945,0.432479,0.980155,-0.197990,0.009764
-0.081944,-0.823964,0.498883,0.805064,-0.404272,-0.434093
-0.485543,0.282628,0.772450,0.409700,-0.027595,0.911803
-0.751677,-0.213696,0.135348,0.403912,-0.070237,0.912097
0.425760,0.073833,0.974629,0.448256,0.667795,0.594236
0.295625,0.571867,0.927887,-0.017147,0.382429,0.923826
-0.131867,-0.299322,0.741691,-0.258407,-0.962038,0.087800
0.300245,0.283539,0.989355,0.877680,-0.189404,0.440232
0.163091,0.000513,0.066880,0.785639,0.606142,-0.123949
0.117700,0.574030,0.726224,0.502690,-0.703799,0.501966
-0.239619,0.778725,0.732837,0.195107,0.836568,-0.511944
-0.435842,-0.191251,0.007686,-0.602997,0.290994,0.742777
0.337064,-0.328777,0.899854,0.915988,0.319744,0.242342
-0.507794,-0.530225,0.561158,0.001895,-0.741802,0.670616
0.364601,-0.472684,0.873515,-0.712905,0.577164,-0.398306
0.101576,0.043182,0.353624,-0.134308,0.336194,0.932167
-0.701577,0.423176,0.694256,-0.592350,0.283855,-0.754021
-0.198845,0.254942,0.795918,0.362794,-0.928506,0.079109
-0.641748,0.545889,0.494109,0.702537,-0.462644,-0.540742
-0.798846,0.132055,0.427367,0.154680,-0.223835,0.962274
-0.376547,0.632482,0.137251,-0.076256,-0.978575,0.191250
0.259693,0.146298,0.948274,0.936300,-0.037828,0.349159
-0.701398,0.176608,0.630707,-0.705736,0.708297,0.015883
-0.076083,-0.083691,0.868241,-0.758187,-0.652008,-0.006104
0.130447,0.026547,-0.050299,0.365464,0.605777,-0.706732
-0.356739,0.524581,0.798789,0.329949,0.361582,-0.872005
-0.515167,-0.359769,0.828418,0.904216,-0.423779,0.052955
0.030112,0.140261,-0.441834,0.869403,-0.292016,0.398578
-0.110948,-0.753547,0.425463,0.811670,-0.583667,-0.022900
-0.020475,0.132510,0.066186,0.740302,-0.353725,0.571692
0.042506,-0.061986,0.695385,0.469682,0.742263,0.477960
