0.936582,0.470274,0.372784,-0.161817,-0.124898,0.978885
0.077263,0.473038,0.765924,0.340117,0.841620,-0.419519
-0.143783,-0.189146,0.612739,0.944206,0.059014,-0.324024
-0.504125,0.131103,0.729062,0.902723,0.413254,0.119634
0.118444,0.445930,0.782466,0.878569,0.413471,-0.239079
-0.319324,0.542722,0.315479,0.173942,-0.194380,0.965381
0.077968,0.326441,-0.977032,-0.048978,0.010623,0.998743
-0.359895,0.381508,0.798902,0.995639,0.092960,0.007884
-0.055073,0.294868,0.264423,0.393438,-0.919302,-0.009529
-0.050749,-0.012624,0.866517,-0.553976,0.742968,-0.375645
-0.436100,0.646211,0.588641,0.127052,0.807009,0.576710
0.140775,0.172456,0.712255,0.880833,-0.416981,0.224188
0.148392,0.064023,0.273162,0.931041,-0.090514,-0.353510
0.055591,0.175751,0.760716,0.856995,0.406555,0.316660
0.234516,0.373110,0.718717,0.898702,0.297523,-0.322202
-0.519873,0.025168,0.035379,0.539366,-0.144840,-0.829521
-0.143878,-0.189465,0.775952,0.503785,-0.861394,0.064814
-0.042757,0.300928,0.430019,0.338238,0.920385,0.196178
-0.173589,0.472347,0.812672,0.332044,-0.757133,0.562580
0.202735,0.428017,0.545989,0.283483,-0.233278,0.930171
0.302306,0.121588,0.665472,0.998759,-0.048739,0.010293
-0.373952,-0.040317,0.711938,0.423580,0.169711,-0.889819
0.211950,0.000718,0.408905,0.700060,0.683605,0.206400
0.072186,0.331650,0.688458,-0.732600,0.680110,0.027352
-0.195638,0.558243,0.322929,0.085057,0.024011,0.996087
-0.143690,0.284131,-0.977720,0.242873,-0.097898,-0.965106
0.199304,0.417333,0.732099,0.957088,0.261444,0.125018
-0.692265,0.117230,-0.009975,-0.462947,-0.564858,0.683093
-0.069083,0.361629,-0.746452,0.962749,0.269948,0.015569
0.070165,-0.096287,0.350187,-0.310998,-0.437457,-0.843748
-0.215523,-0.208760,0.754749,-0.406563,0.760352,0.506529
-0.128553,0.146889,-0.971436,-0.023586,0.077578,0.996707
-0.404367,-0.346639,-0.178536,-0.453818,0.048493,0.889774
-0.182380,0.824275,0.296624,0.457446,-0.875599,0.155143
-0.172931,0.223164,0.880093,0.807687,-0.491262,0.326042
0.248055,-0.337391,0.555522,-0.163310,-0.272458,0.948207
0.239311,-0.119728,0.256832,0.194177,0.519427,0.832160
-0.269257,0.666357,0.817774,0.282483,0.917973,-0.278439
0.295583,0.031387,0.648807,-0.210379,0.387310,0.897626
-0.437228,-0.262179,0.316856,0.768259,-0.516570,0.378065
-0.923559,0.513860,0.209996,0.320184,0.228306,0.919434
0.603225,0.220932,0.192042,-0.486485,-0.302897,0.819504
0.125543,0.364818,0.248835,-0.423877,0.827096,0.369109
0.121971,-0.965185,0.028035,0.842096,-0.105836,-0.528842
0.099076,0.239217,0.414148,-0.289806,0.784068,-0.548862
-0.034436,0.539852,0.829338,0.848301,-0.526051,-0.060462
0.967327,-0.157201,0.268908,0.101649,0.265441,0.958754
-0.132877,0.240439,-0.976873,-0.079390,0.065520,0.994688
0.124744,0.353975,0.715416,-0.625277,0.769448,0.130305
-0.330184,0.599277,0.798002,0.881915,0.118049,0.456388
0.015396,0.082999,0.783084,0.791576,0.610538,0.025522
-0.288250,0.109416,0.838218,-0.132130,-0.922670,-0.362247
-0.117692,-0.164855,0.803492,-0.511663,0.843768,0.162038
-0.166537,0.468839,-0.074518,-0.223003,-0.498811,-0.837530
0.368168,-0.090281,0.432597,0.303312,-0.935360,-0.181941
0.212985,0.353018,0.818498,0.318917,0.776611,-0.543293
-0.200856,0.106280,0.892928,0.987215,-0.143563,-0.069251
-0.059258,0.324315,-0.389273,0.446756,-0.876032,0.181594
0.352373,-0.070508,0.460013,-0.263901,0.957082,0.119788
0.050795,0.218008,-0.102447,0.967164,0.214245,0.136723
0.220036,0.315385,0.708407,0.989167,0.003979,-0.146738
-0.515361,-0.530178,-0.174493,-0.143175,0.521350,0.841246
-0.280962,0.470912,0.306581,-0.822661,0.103851,-0.558967
0.022072,-0.091397,0.820475,0.173400,0.819942,0.545553
-0.586019,0.190634,-0.239337,-0.231421,0.289868,0.928666
0.786616,-0.162516,0.261828,0.366951,0.059751,-0.928319
-0.472110,-0.535493,0.204682,0.016867,0.513700,0.857804
-0.430882,0.660988,-0.067880,0.252553,0.289661,0.923208
-0.415086,0.602785,0.173099,-0.309828,0.415373,0.855261
0.106881,-0.175805,0.039192,-0.193538,0.482891,0.854025
-0.077357,0.325538,0.691635,-0.722728,-0.683571,-0.101949
0.243870,-0.419885,0.416549,0.335117,-0.188661,-0.923094
-0.166913,0.332873,0.577325,0.987936,0.152324,0.027937
-0.450486,-0.176336,0.674952,0.795871,0.591592,0.128872
-0.129257,0.788716,0.316768,0.970475,-0.133760,0.200717
0.016102,0.383209,0.159946,-0.636272,0.750503,0.178616
-0.079754,0.357536,-0.937805,0.436289,-0.882165,-0.177304
-0.095692,0.672150,0.695096,-0.410778,0.797301,0.442236
-0.298403,-0.389056,0.474066,-0.038721,0.699935,0.713156
-0.443575,0.243362,0.835552,-0.787746,0.564771,-0.245947
0.570459,0.467404,0.337653,-0.048356,-0.574045,0.817394
-0.082529,-0.342068,0.428289,0.745028,-0.560240,0.362029
-0.434737,0.811731,0.313696,0.057207,0.484909,0.872692
0.111535,0.071411,0.735735,0.479687,0.805174,0.348706
-0.083421,0.285991,0.211514,0.103583,-0.990891,-0.086052
0.017606,0.537353,0.862457,0.008735,-0.995883,0.090222
0.125543,0.286045,0.816115,-0.068519,0.961425,-0.266397
-0.178430,0.128179,0.406239,0.754393,0.490453,0.436289
0.452272,0.124724,0.206306,0.658390,0.726032,-0.198494
0.365113,-0.012730,0.744969,0.936432,-0.346615,0.054346
-0.544413,0.378585,0.823070,0.941147,-0.222136,0.254750
-0.317162,0.867329,0.309318,-0.176792,0.052876,0.982827
-0.592694,0.742419,0.109014,0.139833,0.397146,0.907040
0.082622,0.455019,-0.983105,0.043826,0.089570,0.995016
0.126531,0.350201,0.718170,-0.643545,0.758318,0.103940
0.221682,0.328886,0.473960,0.066925,0.987039,0.145857
-0.551184,-0.263614,0.402302,0.019999,-0.115856,0.993065
-0.553298,-0.035586,0.696738,0.114170,0.698917,0.706032
-0.533695,0.086294,0.191636,0.437518,-0.899078,0.015423
-0.250923,0.014750,0.528882,0.018606,0.744634,0.667213
0.365912,0.258564,0.480139,0.761967,0.547989,0.345130
0.036034,-0.014165,0.364505,0.151924,0.450102,0.879959
0.130998,-0.170383,0.405339,-0.373416,0.096720,0.922608
0.377383,-0.046695,0.790993,0.244460,-0.884472,-0.397426
0.944950,-0.160656,0.268555,0.101649,0.265441,0.958754
0.197660,0.399155,0.834387,0.166942,0.979384,-0.113740
0.244153,0.497170,0.750177,-0.469795,0.801084,-0.370888
-0.054274,0.123874,0.508474,-0.414336,0.524848,0.743545
-0.168277,0.545433,0.877816,-0.415541,0.772837,0.479633
-0.036457,0.270311,0.436198,0.367667,0.929580,0.026485
-0.155771,0.398358,0.704876,-0.021480,-0.913678,0.405872
0.351291,-0.267069,0.488472,0.640601,0.534747,0.551068
-0.571398,0.374385,0.740008,0.683764,-0.342403,0.644381
-0.266624,0.452574,0.030065,0.202891,-0.925614,0.319490
0.361305,0.265953,0.795053,-0.529719,0.844889,0.074564
0.341890,-0.052011,0.348987,0.562467,0.320487,-0.762180
0.200903,0.371462,0.766577,0.311061,0.829840,0.463257
0.279506,-0.083265,0.421139,0.192348,0.797978,0.571168
-0.009660,-0.022936,0.729062,0.997744,0.012063,0.066047
-0.580378,0.674914,0.365582,-0.209384,-0.389442,-0.896936
0.259478,0.240758,0.132865,0.316801,0.120308,-0.940831
-0.629458,0.346108,0.780365,0.475528,0.873146,0.107190
0.446301,-0.143966,-0.212026,-0.440139,0.068501,-0.895313
0.106881,0.098839,0.697444,-0.649450,0.708892,0.275111
0.368639,-0.244638,0.433709,-0.327560,-0.100238,0.939498
-0.171567,0.643288,0.842561,-0.383218,-0.913096,0.139285
-0.079943,0.622665,0.510133,0.101588,-0.140589,0.984842
0.070493,0.291679,0.708354,0.799256,-0.598951,-0.049479
-0.095128,0.349084,0.811295,0.746462,-0.638068,-0.188849
-0.330889,0.297260,0.767372,0.929390,0.030226,0.367859
0.134851,0.309432,-0.973695,-0.061932,0.141440,0.988008
0.092401,0.404258,0.587158,0.525917,-0.847405,-0.072911
-0.086853,0.327345,-0.318904,0.470672,0.881807,0.029732
0.085397,0.580355,0.349481,0.859252,-0.457614,0.228640
0.017653,0.293061,0.667008,0.841340,-0.530336,-0.104360
-0.149614,0.033247,0.821234,0.319451,0.947603,0.000252
0.063347,0.311133,-0.101370,-0.659117,-0.736777,0.150743
0.229204,0.252133,0.392045,-0.153003,0.821756,-0.548914
0.108432,-0.009116,0.811401,-0.009173,0.927986,0.372502
0.429894,0.172615,0.330591,-0.455774,0.776006,0.435988
-0.805092,-0.275627,0.015412,-0.724191,-0.207888,-0.657518
0.143220,-0.742472,0.025069,-0.893070,0.253611,0.371629
-0.086148,-0.071093,0.843602,-0.149947,-0.737115,0.658921
0.270667,0.103144,0.327378,-0.254792,0.915409,0.311621
-0.623111,0.962208,0.104512,-0.084622,0.246697,-0.965391
-0.102320,0.378106,0.556317,0.176463,0.930956,-0.319659
-0.149003,0.205836,0.819204,0.729491,-0.628917,0.268897
-0.547940,0.711590,0.355713,0.475351,0.456364,0.752179
-0.882377,-0.189465,0.014053,0.223440,0.649992,0.726350
-0.008909,0.389534,-0.961585,0.782916,0.300573,0.544700
-0.052393,0.399102,-0.868000,0.916288,0.390061,0.090939
-0.505677,0.010073,0.408269,0.340816,-0.768189,0.541969
-0.601721,-0.300290,-0.213527,-0.283608,0.118654,0.951571
0.328351,-0.222845,0.231269,-0.003041,-0.324389,0.945919
-0.078862,0.503973,0.505137,0.814226,-0.025128,-0.580004
0.407141,0.165918,0.205370,0.618492,0.784360,-0.047405
-0.425898,0.391873,0.052097,0.003568,-0.365159,0.930938
-0.247679,0.698089,0.877886,0.382620,0.787038,0.483915
-0.169546,0.381774,-0.971559,-0.345080,0.591736,-0.728538
0.042381,0.625907,0.507627,0.126985,0.024775,-0.991595
-0.088170,-0.001674,0.777329,0.756959,0.062699,0.650447
-0.113038,0.647275,0.688652,-0.793886,0.433029,0.426884
0.105799,0.364393,0.666602,-0.766754,0.638070,0.070393
-0.127188,0.079916,0.655180,0.710128,-0.629466,-0.315421
-0.090567,0.311611,0.334740,0.182168,-0.971024,0.154681
-0.215101,0.133282,0.868759,0.832286,-0.366914,0.415540
-0.149426,-0.563558,-0.180866,0.265204,-0.136150,0.954531
0.130668,0.088899,0.324677,0.181135,-0.983199,0.022571
-0.145476,0.782125,0.286897,0.935756,-0.331886,-0.119220
-0.602990,0.597417,0.366464,-0.027338,-0.027434,0.999250
-0.737207,-0.126000,0.011669,0.101263,0.062925,0.992868
0.191594,0.298589,0.865140,0.765805,0.595095,-0.243731
-0.130056,0.276743,0.527170,-0.068453,-0.981345,-0.179653
0.061280,0.513700,0.359650,0.056232,-0.946117,0.318907
0.226618,0.477237,0.283066,0.987903,0.054280,-0.145263
0.470607,0.100274,0.720888,-0.627673,0.316693,0.711149
-0.267188,0.153746,0.942677,0.849522,-0.253972,0.462397
0.100627,0.670609,0.025669,-0.788272,0.330673,-0.518925
0.040407,0.306190,0.213156,-0.666728,0.295979,0.684010
0.636838,0.429293,0.334157,0.216749,-0.373981,0.901753
-0.624380,0.728865,0.526587,-0.153926,0.498703,0.852996
0.391862,-0.405267,0.228586,-0.416089,0.520355,0.745721
-0.571351,0.409786,0.653962,-0.141119,-0.035475,0.989357
-0.572009,-0.584926,-0.295495,0.077368,-0.345709,0.935147
0.184402,-0.549951,0.096868,0.914930,-0.400207,0.052318
-0.169077,0.309166,-0.982028,-0.412136,0.191880,0.890688
0.193663,-0.015707,0.398047,0.791151,0.591389,0.156009
-0.209976,0.622824,-0.081933,-0.181968,-0.426601,-0.885946
-0.641774,-0.419300,0.163018,-0.209727,-0.053898,0.976273
-0.368732,0.469424,0.562708,-0.037692,-0.676167,0.735783
0.900148,0.361629,0.370895,0.481853,0.268347,-0.834151
-0.354159,0.172137,0.661182,-0.527960,0.720760,-0.449181
-0.447007,0.368751,0.616182,0.236612,-0.108812,0.965492
0.933338,0.487549,0.377039,-0.128652,-0.117779,0.984671
-0.476436,-0.318893,0.323618,0.726412,-0.543443,0.420708
-0.126437,0.220879,-0.176541,0.874030,-0.485146,0.026566
-0.267753,-0.540596,-0.023162,-0.406171,0.191696,0.893464
0.483911,-0.654450,0.126280,-0.283833,-0.216940,0.934011
0.226571,0.293805,0.860374,0.302026,-0.122864,0.945349
-0.041206,0.305871,0.482787,0.890923,-0.334052,0.307679
-0.033496,0.394956,-0.546289,-0.603820,0.792050,0.089767
0.237525,0.079278,-0.187257,0.345619,0.404923,-0.846513
0.164516,0.384644,0.902585,-0.401912,0.746168,0.530754
0.016336,0.208388,0.658605,0.951351,-0.282665,-0.122604
-0.144818,-0.155181,0.421051,-0.485711,-0.120021,0.865840
0.287827,0.278603,0.843443,-0.160822,0.977947,0.133255
-0.346779,0.562601,0.823883,0.768765,-0.615473,0.173763
0.246880,-0.574508,0.076813,-0.454836,-0.835683,0.307827
0.167055,0.026391,0.329532,0.372042,0.424121,0.825655
-0.020849,0.319372,0.561789,0.940126,0.340813,-0.003080
0.561479,0.066468,0.221524,0.601795,0.676614,-0.424306
-0.632702,-0.285354,0.065850,0.659173,0.541715,-0.521570
-0.156853,0.237569,0.460596,-0.246925,-0.965805,0.079043
0.763721,0.565046,0.351847,0.458588,0.262612,-0.848959
-0.272736,0.209663,0.883959,0.698904,0.690420,0.186688
-0.400889,-0.538417,-0.166973,-0.421845,-0.467076,-0.777102
0.063019,0.542881,0.683991,0.083281,-0.553953,0.828372
0.462897,0.375661,0.300561,-0.362997,-0.355804,0.861183
-0.005242,0.156563,0.412224,0.833366,-0.510164,-0.212682
-0.278659,0.132378,0.755702,0.578095,-0.625575,-0.523892
0.104717,0.326229,-0.226767,0.049117,0.997323,-0.054163
-0.337659,0.000558,0.879140,0.859948,0.321693,-0.396237
-0.134099,0.376086,-0.269419,0.771799,0.635186,-0.029400
0.145383,0.805778,-0.006002,-0.042333,0.023103,0.998836
-0.161648,0.277381,0.885478,0.786460,-0.254804,0.562633
-0.258914,0.067106,0.865387,0.068250,-0.986790,-0.146925
-0.553816,0.559784,0.646547,0.735081,0.155823,0.659830
0.374609,0.104898,0.340883,-0.271262,0.737717,0.618215
-0.426274,0.535121,-0.285149,-0.357730,0.009437,0.933777
0.470607,0.072793,0.728974,-0.527662,0.773008,0.352180
0.502198,0.038138,0.469988,0.873690,0.177880,-0.452796
0.780128,0.339836,0.313431,0.203176,0.080904,-0.975794
0.769410,0.072900,0.341413,-0.679212,-0.023738,0.733558
0.496979,0.225769,0.171651,0.378728,0.040298,-0.924630
-0.166302,0.761926,0.448362,0.382094,0.338520,-0.859889
-0.090379,0.324687,-0.288609,0.658584,0.744152,-0.111830
-0.331312,0.629734,0.915154,0.953429,0.224014,-0.201969
-0.313495,-0.024796,0.845279,0.788983,-0.393680,-0.471722
0.266108,0.101177,0.343479,-0.130289,0.721853,0.679671
-0.018169,0.505674,0.818445,-0.162487,-0.871182,0.463293
-0.474838,-0.459590,-0.186410,-0.207836,0.531006,0.821484
0.568906,-0.003588,0.398718,0.327257,0.095939,-0.940052
-0.462567,-0.486752,0.193772,0.045850,0.510096,0.858894
-0.114449,-0.265262,0.623932,-0.237018,0.763546,0.600683
-0.803163,0.373854,0.384295,0.450438,-0.188489,0.872684
-0.089673,0.306881,0.324765,0.231213,-0.972733,0.018175
-0.744729,-0.113615,0.001112,-0.445915,0.200606,-0.872306
-0.142844,0.203285,0.604583,0.736626,0.666093,-0.117058
0.311661,-0.598055,0.470571,0.471879,-0.521762,-0.710700
0.216369,-0.173360,0.415543,-0.705889,-0.180127,0.685036
-0.087323,0.472081,0.439552,0.267050,0.621583,-0.736423
-0.291540,0.694528,0.320723,-0.151126,-0.447428,0.881458
-0.141528,0.498764,0.785820,-0.382263,0.275192,-0.882125
-0.486355,0.266697,0.546713,-0.334130,0.724123,0.603326
-0.101756,0.504824,-0.986212,0.164887,0.082097,0.982890
0.334180,-0.302416,0.248040,0.110968,0.507154,0.854682
0.439908,-0.077577,0.216086,-0.046789,-0.097933,0.994092
-0.130432,0.434874,-0.996787,-0.134366,0.324304,0.936361
0.074065,0.562548,-0.993680,-0.076434,0.234226,0.969173
-0.767436,0.130412,0.567474,-0.295490,0.773799,0.560286
-0.223092,-0.559997,0.227332,-0.504287,0.350200,0.789338
0.128646,0.401547,0.727791,0.681965,-0.683724,0.259704
-0.097149,0.299439,-0.979097,-0.073739,0.078634,0.994173
0.060151,0.272809,0.052627,-0.106525,0.992472,0.060428
-0.202266,0.901082,0.187399,0.835433,0.247300,-0.490809
0.094470,-0.534164,0.112669,0.639511,0.522561,0.563876
0.135557,0.201212,0.673222,0.172786,0.670110,0.721871
0.181205,-0.537194,0.288768,0.045054,-0.800274,-0.597940
-0.721740,0.657108,0.365317,-0.105591,-0.139094,0.984634
0.027432,-0.207537,0.532854,-0.282220,-0.090268,0.955093
0.134523,-0.355463,0.581562,0.036529,0.696005,0.717107
0.350868,-0.654557,0.127322,0.465262,-0.004028,0.885164
-0.152622,0.231828,0.444637,0.910641,-0.412229,-0.028302
-0.061373,0.262126,-0.130976,-0.028425,0.995163,0.094036
-0.201467,0.466766,0.761970,0.809203,0.506495,-0.297747
-0.135274,0.315066,0.130305,0.441757,0.887825,-0.128908
0.140023,0.310389,0.475779,0.014341,0.843435,0.537039
0.414193,-0.168310,0.455247,0.772800,-0.595550,0.219318
-0.305456,-0.100486,0.645752,-0.516251,0.846488,0.130167
-0.500834,0.337497,0.029694,-0.099231,-0.466581,0.878895
-0.544979,0.670024,0.633942,0.934425,-0.074154,0.348355
0.758644,-0.217477,0.262005,-0.204523,0.270606,0.940714
0.130009,-0.152683,0.555822,-0.367508,0.145272,-0.918604
-0.080037,0.522949,0.818551,0.350917,-0.892146,0.284488
0.147826,0.412018,0.712591,-0.513746,0.690466,-0.509237
-0.128223,0.720998,0.192483,-0.382993,0.068578,0.921202
-0.563971,0.835012,0.681555,-0.147992,-0.527696,0.836442
0.232964,0.412975,0.854848,-0.510071,0.857153,0.071529
0.139647,0.360938,-0.164466,0.905156,-0.373328,-0.203268
-0.520251,0.387408,0.822611,0.800168,-0.242017,0.548780
-0.487014,-0.077312,0.695537,0.302774,0.675614,0.672216
-0.278612,0.349350,0.357478,0.143763,0.790214,0.595730
-0.071810,0.564834,0.524769,0.053412,0.175071,0.983106
0.435159,-0.827411,0.133571,0.553612,-0.169044,-0.815438
0.142092,-0.195524,0.549361,-0.246476,0.570824,-0.783204
-0.145852,-0.051266,0.521768,0.367508,0.674506,0.640296
-0.412264,-0.124086,0.196649,0.867723,0.414290,-0.274627
0.069318,-0.067478,0.547225,0.650045,0.145341,-0.745867
0.087041,0.653068,0.510734,-0.507618,-0.212166,0.835051
0.007170,0.363808,-0.318339,-0.205774,0.974669,-0.087619
-0.543145,-0.617296,0.217199,-0.081166,0.607659,0.790039
0.021743,-0.114997,0.532501,0.872533,-0.037029,0.487150
0.399479,-0.036702,0.770443,-0.416136,0.708461,0.570012
-0.733869,0.212427,0.446949,0.112922,-0.226653,0.967407
-0.148627,0.324953,0.140456,0.548268,0.378816,-0.745587
0.080976,0.340367,-0.073512,-0.267491,-0.911050,0.313746
-0.040876,0.324474,-0.856931,0.969733,0.232765,0.073743
-0.142561,0.586201,0.809936,0.174501,0.924672,-0.338426
-0.606045,0.556914,0.162895,0.466028,0.623945,0.627305
0.004114,0.517102,-0.992885,-0.124302,0.336933,0.933287
0.414193,0.072475,0.658834,0.487658,0.873035,0.000351
-0.023765,0.453212,-0.985453,0.114697,0.409881,0.904899
-0.354630,-0.309432,0.156115,0.831429,-0.442872,-0.335545
-0.099782,0.379169,0.582604,0.355671,0.330957,-0.874051
-0.267799,0.126531,0.946579,-0.426116,0.299946,-0.853497
-0.424441,-0.469105,-0.297207,0.120314,0.237703,-0.963858
0.093576,0.371196,0.665843,0.776946,-0.525842,-0.346186
0.052441,0.713663,0.799537,0.290291,-0.954906,0.062327
0.159015,-0.145401,0.124656,0.998667,0.041645,-0.030504
-0.855675,-0.282005,0.040781,-0.250155,-0.573849,-0.779820
-0.574782,0.697983,0.362651,0.385192,0.442230,0.809975
0.239827,0.373110,0.825771,0.540136,0.707156,-0.456272
0.294125,-0.086401,0.673805,0.442425,0.818292,0.366958
-0.157793,0.429559,-0.063378,0.579504,0.812249,0.066536
-0.157182,0.604965,0.506073,-0.189154,0.218557,0.957316
-0.686106,0.386345,0.652637,-0.109961,-0.744169,0.658878
-0.793244,-0.187711,0.004202,-0.545326,-0.019159,-0.838005
-0.078156,-0.023148,0.023480,0.924806,-0.243869,0.291995
0.862633,0.392723,0.371831,0.497628,0.236427,-0.834547
-0.674024,0.733968,0.722089,0.685409,-0.066083,0.725153
-0.201608,0.393414,0.139909,0.273582,0.450137,-0.850018
-0.290694,0.628990,0.611133,-0.750205,-0.563782,-0.345461
-0.082434,0.369442,-0.522509,0.682738,-0.729542,-0.040475
-0.291164,0.180854,-0.017089,-0.348905,0.927167,0.136478
-0.145947,0.325431,0.585411,-0.552612,0.202482,0.808469
-0.234609,0.109894,0.888020,-0.769204,0.510860,0.383858
0.852949,0.319956,0.323971,-0.216596,-0.092607,0.971859
-0.455563,0.225662,0.777505,-0.404412,0.703555,0.584347
0.042051,0.266537,0.775122,0.930606,0.058571,-0.361305
-0.307195,0.180535,0.763117,-0.507608,-0.813872,-0.282749
-0.109513,0.524809,0.802292,0.141763,0.485914,0.862433
-0.068096,0.938980,0.184203,-0.544374,-0.190946,0.816821
0.049715,0.067850,-0.145894,0.995409,0.006676,0.095477
-0.226711,-0.264464,0.773657,-0.232198,0.960235,0.155025
-0.385517,0.521780,0.823865,-0.790234,0.582535,0.190221
0.117269,-0.584128,0.299449,-0.146125,-0.984461,-0.097388
-0.120278,0.260903,-0.974737,-0.045045,0.099254,0.994042
-0.192675,0.173413,0.870860,0.828221,-0.500687,0.251720
-0.366665,0.003163,0.827307,0.886793,-0.231102,-0.400237
0.825071,0.323411,0.321852,-0.292712,-0.231121,0.927849
0.198411,0.431578,0.542070,0.283483,-0.233278,0.930171
0.070822,-0.496160,0.118018,0.309839,0.502048,0.807433
0.132173,0.348234,0.881347,0.302793,0.780647,-0.546724
0.376537,-0.480905,0.059177,0.380683,-0.202745,0.902206
0.049432,0.618412,-0.996734,-0.036291,0.219795,0.974871
-0.362810,0.695857,0.792811,0.041991,-0.653318,0.755919
-0.304187,0.163260,-0.015218,-0.329835,0.931705,0.152097
0.451097,-0.051851,0.222212,-0.211745,-0.443398,0.870955
0.000117,0.258192,0.306193,-0.371051,0.427629,-0.824290
0.306443,-0.383103,0.413089,-0.051179,0.067405,0.996412
-0.177350,0.666782,-0.202281,-0.100406,-0.018723,0.994770
-0.077263,0.287427,0.183621,0.472241,-0.866480,-0.161867
-0.742190,0.816462,0.115864,0.618974,-0.689304,0.376472
0.407753,-0.220879,0.040093,0.057827,0.395415,0.916680
-0.068001,0.632126,0.721365,-0.750591,0.564271,0.343820
-0.028512,0.555904,-0.995604,0.071680,-0.159058,-0.984664
-0.279223,0.157201,0.947832,0.849522,-0.253972,0.462397
0.244529,-0.600978,0.143952,-0.092203,0.731814,0.675238
0.519262,0.043825,0.472036,0.900646,0.142262,-0.410607
-0.484615,-0.358386,-0.203217,-0.306333,0.048013,0.950713
0.786475,-0.148059,0.265571,0.366951,0.059751,-0.928319
-0.509297,-0.364658,0.163566,0.106461,0.963963,0.243805
-0.387584,-0.005714,0.760098,-0.005091,0.541277,0.840829
-0.862493,0.876259,0.137014,-0.730311,0.396660,-0.556154
0.390359,0.055253,0.446137,0.766986,0.008102,-0.641613
0.291352,0.008318,0.197744,0.078294,0.443363,0.892916
-0.340527,0.733117,0.857955,0.333242,-0.900086,0.280705
-0.354159,0.179047,0.782537,0.903862,0.256909,0.342097
-0.251111,-0.119143,0.567262,0.477452,0.207112,0.853900
0.170204,0.235496,0.123685,-0.598670,0.738810,0.309441
0.385469,0.024902,0.659893,-0.448163,0.518194,0.728440
0.091554,0.203604,-0.970888,-0.089970,0.132812,0.987049
0.065746,0.420310,0.619677,0.311979,-0.950043,0.009384
-0.051736,0.345098,-0.719652,0.918386,0.395685,0.000409
0.323038,-0.018896,0.649071,0.277957,-0.736828,-0.616299
-0.477000,-0.451989,0.194813,-0.287904,0.384959,0.876880
-0.264978,0.635528,0.832815,0.540087,0.636849,0.550208
-0.269915,0.154224,0.954841,-0.730944,0.678880,0.069586
0.134570,-0.149494,0.562337,0.255152,0.117547,0.959729
0.180782,0.541659,0.576478,-0.169626,0.876313,0.450891
-0.215758,0.088739,0.910953,0.810165,-0.521192,-0.268311
-0.026255,0.340048,-0.514441,0.724076,-0.664081,0.186305
-0.690666,-0.279028,0.395629,0.130989,-0.134371,0.982235
-0.240628,0.265421,0.751695,-0.115252,-0.026123,-0.992993
-0.162870,-0.049672,0.403220,0.592588,-0.327900,-0.735746
-0.268176,0.574827,0.925535,-0.565289,-0.184632,0.803964
-0.189338,0.273394,0.689411,0.397095,-0.900336,0.178074
0.109935,0.621814,0.075718,0.786454,-0.494964,-0.369460
-0.406295,-0.567066,-0.159205,-0.054089,0.525711,0.848942
0.388242,-0.889866,0.128451,0.612200,-0.255238,-0.748375
0.480995,0.368857,0.305911,0.271890,0.513083,-0.814139
0.154408,0.285726,0.499612,-0.047257,0.817817,0.573535
-0.557201,0.091663,0.786120,0.921133,0.265886,0.284287
0.060809,0.206952,-0.145593,0.955706,0.092509,-0.279407
0.392614,0.267069,0.591925,-0.226046,0.802546,0.552107
-0.125214,0.010657,0.684397,-0.588988,0.626499,0.510482
0.051361,0.244107,0.513912,-0.371676,0.416454,0.829712
-0.602566,-0.009647,0.439287,-0.533623,0.644400,-0.547718
0.113179,0.482180,0.784108,0.818430,0.189397,-0.542496
-0.169546,-0.333829,0.529694,-0.793128,0.530433,0.299313
0.241615,0.110426,0.739107,0.313854,-0.384537,-0.868117
-0.223468,0.102719,0.835534,0.193080,0.941681,0.275602
-0.050749,0.489462,-0.988648,0.243500,0.602151,0.760344
-0.166678,0.588009,0.847539,0.986047,-0.146549,0.078964
-0.126672,-0.081139,0.434998,-0.591512,0.419943,0.688303
-0.278284,0.408297,0.300403,0.537656,-0.254789,0.803746
-0.035282,0.394424,-0.464833,-0.566665,0.823694,0.020479
-0.114355,0.140936,0.614981,0.985385,-0.014170,-0.169754
0.480149,0.088686,0.221753,-0.117564,0.605199,0.787346
-0.090943,0.509820,0.841748,0.024297,-0.973157,-0.228856
-0.094705,-0.266325,0.603382,0.326309,0.720022,0.612447
0.020333,-0.397294,0.603065,0.465981,0.627759,0.623522
0.082293,-0.244000,0.534832,0.771538,-0.497847,-0.396078
-0.789484,0.675658,0.189446,0.401505,0.097392,0.910664
-0.637684,0.004810,0.461390,-0.027742,-0.152804,0.987867
0.152387,0.253515,0.115793,-0.669935,0.657947,0.343938
0.654608,0.437000,0.327961,-0.124049,0.628494,-0.767859
0.064524,0.338401,0.486830,-0.245003,0.870736,0.426372
-0.228264,0.660297,0.429278,-0.349644,-0.018424,0.936702
-0.329714,-0.576900,-0.202493,-0.642242,-0.447853,0.622055
-0.067908,0.364339,-0.467605,-0.607394,0.794398,0.002172
0.635663,0.131794,0.203658,-0.489798,-0.116050,0.864078
-0.019580,-0.190475,0.877692,0.992737,0.115063,-0.035126
0.729403,0.259149,0.317403,-0.145218,0.159528,0.976454
0.415320,0.209238,0.474137,0.840376,0.524406,-0.136987
-0.347719,0.299386,0.157704,0.211303,0.181940,0.960338
-0.215570,0.159327,0.432455,0.837903,-0.535984,0.103151
-0.619351,0.836926,0.166125,-0.628615,0.167004,0.759574
0.105000,0.273554,0.099499,0.502478,0.861288,0.075489
-0.079989,0.291254,0.113869,0.592768,0.803851,0.049498
-0.716334,0.457677,0.717146,0.803968,-0.118238,0.582799
0.433749,0.463258,0.326001,-0.775628,-0.018581,0.630917
-0.329714,0.341590,0.793200,0.943824,0.072835,-0.322321
-0.286417,0.024158,0.541523,0.963682,-0.199478,0.177554
-0.389747,-0.098732,0.798690,0.969943,-0.234634,-0.064477
0.320263,0.108672,0.692200,0.871012,-0.453623,-0.188585
0.266671,0.729822,0.327078,-0.597427,0.348185,-0.722391
0.025080,0.405002,-0.973042,0.426888,0.309905,0.849545
-0.393179,0.025540,0.911023,-0.639793,-0.743044,-0.196341
-0.170204,0.528264,0.778547,-0.297433,0.865859,0.402271
-0.568813,0.185532,0.527417,-0.456901,0.611079,0.646393
-0.467644,0.202594,0.686922,-0.733345,0.140416,-0.665199
-0.293373,0.562389,0.593743,0.861894,0.403112,-0.307636
0.199258,0.191591,0.354654,0.047223,-0.662468,0.747601
-0.309592,0.107556,0.868000,0.050014,0.975187,0.215661
-0.540513,0.353868,0.730016,0.903452,-0.223024,0.366108
0.205557,-0.050735,0.770585,0.960777,0.117129,-0.251374
-0.008250,0.673851,0.757927,0.945984,-0.315697,-0.073826
-0.228452,0.335211,0.960225,0.835332,-0.394497,0.382875
0.323602,-0.110532,0.224666,0.205873,0.508831,0.835887
-0.479256,0.276052,0.364875,-0.733915,0.679226,0.004502
-0.107069,0.330162,-0.069999,-0.710339,0.403112,-0.576991
-0.267658,0.680549,0.909664,0.927138,-0.126743,0.352634
-0.609196,0.169373,0.521520,-0.651664,0.695131,0.303524
-0.220977,0.374651,-0.973025,0.500000,-0.814421,0.294480
0.763627,0.152789,0.311489,0.509972,0.216815,-0.832418
-0.048210,0.405640,-0.761069,0.861224,0.502085,0.078769
0.426792,-0.073963,0.809600,-0.536742,0.735808,0.412910
0.012388,0.382199,-0.212114,0.575650,0.374650,-0.726818
-0.217827,0.426210,-0.945607,-0.579633,0.661514,-0.475841
-0.250170,-0.005873,0.377710,-0.382443,0.646322,0.660307
0.300896,0.148643,0.723607,-0.122300,0.690526,0.712893
-0.221399,0.161878,0.444584,-0.644121,0.665764,-0.376650
-0.220600,0.251335,0.905762,0.918010,-0.394036,-0.044657
-0.641351,0.676775,0.360303,-0.215492,0.236949,0.947322
-0.174200,0.693890,0.308011,-0.542122,0.164297,-0.824082
0.058693,0.386558,0.757326,-0.141052,0.681095,0.718481
0.050043,0.506152,-0.988648,0.132263,-0.358527,-0.924102
-0.060010,-0.162410,0.787250,0.742337,-0.642420,0.190348
-0.034200,0.379754,-0.841819,0.978319,0.176490,0.108362
0.317020,-0.286682,0.504820,0.647028,0.701177,0.299510
-0.071292,-0.087039,0.697550,0.901044,0.395058,-0.179024
-0.726066,0.843145,0.141763,-0.187433,0.938664,0.289444
0.216933,0.391820,0.260875,-0.424607,0.839851,0.338170
-0.343723,0.375395,0.765942,-0.617680,0.109475,-0.778773
0.626495,0.187551,0.198821,-0.362955,-0.046136,0.930664
0.522648,0.404523,0.309865,0.393041,0.522463,-0.756671
-0.668617,-0.209504,-0.001836,-0.330164,0.113926,0.937023
-0.256329,0.551067,0.785238,-0.146049,0.870613,0.469790
-0.247209,0.650251,0.876156,0.949232,0.064176,-0.307960
-0.391957,-0.075930,0.105272,0.238407,0.082288,0.967673
-0.131419,0.246658,0.810818,0.934903,0.004866,0.354871
-0.153093,0.417440,-0.012887,0.542815,-0.763921,0.348966
-0.131749,-0.069126,0.541275,0.397907,0.737851,0.545203
-0.758456,0.716533,0.111080,-0.113976,-0.554987,0.824014
-0.190373,0.617296,0.306193,0.143926,-0.076035,0.986663
-0.320969,0.163739,0.549573,-0.773475,-0.206512,-0.599241
-0.214677,0.423180,0.841448,0.855934,-0.377680,0.353179
0.127095,0.559944,0.540163,-0.290403,0.585211,0.757096
-0.473756,0.476387,0.629670,0.864549,0.097307,0.493037
-0.353267,0.248837,0.637720,-0.448985,0.381538,0.807986
-0.218766,-0.046642,0.678395,-0.464186,0.764207,0.447793
-0.607973,0.042974,-0.227014,0.202937,-0.185485,-0.961464
-0.285194,-0.109469,-0.156186,-0.383500,-0.130643,0.914254
0.107492,-0.186063,0.563943,0.102395,-0.293272,0.950530
0.197660,0.480639,0.705282,0.952307,0.030603,-0.303603
0.378934,-0.328036,-0.224119,0.030662,0.206797,0.977903
-0.137015,0.111967,0.821640,0.400602,-0.487255,-0.775952
0.165785,0.147633,0.204011,0.909436,0.407724,-0.081771
0.098324,0.357004,0.757574,-0.664104,-0.746087,0.048162
-0.148204,0.046217,0.845332,-0.622752,-0.639468,-0.450844
-0.145336,-0.317724,-0.030294,-0.025924,-0.184017,0.982581
0.057848,0.450182,-0.980828,0.009942,0.130027,0.991461
-0.801001,0.194408,0.456977,0.195994,-0.209724,0.957916
-0.296194,0.038138,0.510239,-0.124999,0.870602,0.475844
-0.134241,0.275308,0.814914,0.973614,-0.092097,0.208790
-0.153093,0.057060,0.649301,-0.540087,0.765842,0.348987
-0.205415,0.226247,0.680302,-0.232441,0.964872,-0.122450
-0.346073,0.547665,0.825930,0.713184,-0.700375,0.029062
-0.032367,0.402025,-0.514618,0.756809,-0.646353,0.097299
-0.191124,0.112233,0.893563,0.099425,0.850743,0.516092
0.397457,0.444335,0.858626,-0.243465,0.899489,-0.362829
0.642997,0.339889,0.321411,-0.061001,-0.623000,0.779839
-0.031710,0.447099,0.610921,0.940351,-0.339962,0.012860
0.345321,0.555372,0.729804,0.282609,-0.391711,0.875611
0.087276,-0.123608,0.550703,0.775095,0.076061,-0.627250
-0.592318,0.414410,0.654174,0.297346,-0.280703,0.912574
-0.379358,0.018418,0.591854,0.782791,-0.613260,-0.105600
-0.333428,0.019055,0.372078,0.162214,-0.972430,0.167533
-0.202454,0.187658,0.959802,0.188329,-0.969248,-0.158398
0.104341,-0.617934,0.152320,-0.556529,-0.458046,-0.693159
-0.421339,-0.008744,0.603506,0.938588,-0.217514,-0.267844
0.089016,0.567385,0.705370,0.598092,0.173647,-0.782389
0.254213,0.526298,0.714886,-0.168417,0.364691,0.915771
0.101333,0.062057,-0.018025,0.992905,0.104842,-0.056102
0.179372,0.492811,0.721436,0.991593,-0.058787,0.115270
-0.058505,0.254099,0.877904,-0.118388,-0.992961,-0.003625
-0.133911,0.602254,0.442960,0.960560,0.262543,-0.091626
0.254543,-0.779626,0.061860,0.431927,-0.239955,-0.869403
0.218578,-0.547081,0.290781,0.293215,0.694062,0.657498
0.290929,0.234805,0.176312,0.041891,0.825799,0.562406
0.202359,0.501528,0.287762,0.914948,-0.312985,0.254776
0.217967,0.538842,0.763329,-0.657947,0.562107,-0.501140
-0.348941,-0.510086,0.223448,0.308700,0.528645,0.790721
-0.313683,0.341909,0.862845,0.875657,0.344649,0.338293
0.346356,-0.428336,0.418279,-0.276087,0.315728,0.907795
0.223891,0.290350,0.799820,0.977875,0.205401,-0.039646
-0.143079,0.342121,0.645929,-0.114582,0.989882,0.083693
0.224549,0.421426,0.692554,0.947030,0.021416,-0.320430
-0.351950,0.036330,-0.035573,0.311169,-0.237283,0.920256
-0.180735,0.374545,0.565409,0.999638,-0.015200,-0.022201
-0.363890,0.004598,0.820034,0.922646,-0.337794,-0.186062
-0.308135,0.665506,0.320052,0.075194,-0.089541,0.993141
-0.017277,-0.266112,0.515606,0.283614,0.958296,0.035089
-0.427496,0.709358,0.586205,0.028463,0.005581,0.999579
0.338834,-0.833258,0.105890,0.645225,-0.209608,-0.734676
0.255201,0.013049,0.382335,0.197365,0.921683,0.333988
-0.372306,0.755016,0.838730,0.388802,0.820818,-0.418438
0.459887,0.075345,0.702210,-0.193524,-0.869584,0.454282
0.142656,0.556010,0.735947,0.915249,0.043383,-0.400545
-0.614507,0.244798,0.528670,0.454564,-0.371401,-0.809588
0.023341,0.161347,-0.969370,-0.050037,0.087693,0.994890
-0.350634,-0.496213,0.221824,0.345431,0.522739,0.779372
-0.346637,0.111967,0.889291,0.817149,-0.547881,0.179145
0.101286,0.571106,0.343196,-0.739461,0.630215,0.236698
-0.155536,0.280836,0.491085,-0.227992,-0.967575,0.108713
-0.158358,0.287055,0.510875,0.870760,0.491640,-0.008154
0.280728,-0.061419,0.502013,0.071071,0.144965,0.986881
0.058129,0.247987,-0.345173,0.354947,0.912285,-0.204325
-0.076322,0.405958,-0.804869,0.933770,0.330030,0.138400
0.399432,0.222686,0.420909,0.432296,0.849012,0.303808
-0.294360,0.338932,0.772897,-0.682254,0.527736,-0.505988
-0.430083,0.503761,0.148648,0.632523,0.758076,-0.158858
-0.550056,-0.267228,-0.216016,-0.195144,0.186543,0.962871
-0.519169,0.001355,0.389150,0.367272,-0.702131,0.610019
0.202407,-0.652484,0.087776,0.783463,-0.322112,0.531442
-0.617517,0.083424,-0.003001,-0.289433,-0.116903,0.950033
0.172649,0.281792,0.784920,0.775393,0.507551,-0.375709
0.812190,-0.049300,0.279712,0.388299,0.394620,-0.832766
-0.065746,-0.199724,0.743962,-0.578838,-0.793209,0.189121
-0.262864,-0.151939,0.729239,0.706784,0.553515,0.440542
0.059540,-0.117974,0.774875,0.091456,-0.812141,0.576249
0.385139,-0.020810,0.217658,0.302769,0.153872,-0.940561
0.008297,0.314747,-0.215257,0.853584,0.297295,-0.427796
0.099970,0.326069,0.698291,0.864708,-0.380297,-0.328108
0.223515,0.409679,0.864099,-0.552145,0.756338,0.350840
0.529181,0.403301,0.316168,-0.402099,-0.635758,0.658884
-0.628093,-0.332607,0.400908,0.039597,-0.086261,0.995485
-0.239734,0.374279,0.139591,0.351560,0.614648,-0.706126
0.135416,-0.286257,0.559265,0.543902,0.581198,0.605292
-0.135557,0.295878,0.835940,0.964490,-0.263836,0.012262
-0.037539,-0.329418,0.276040,-0.302503,0.559095,0.771949
-0.268270,0.682781,0.315550,0.291708,0.380115,-0.877735
-0.242414,0.281101,0.474631,-0.396872,-0.852958,-0.339050
-0.283078,0.577484,0.592225,0.076507,0.229871,0.970209
0.826528,-0.352380,0.297313,-0.274363,0.114018,0.954843
-0.351386,-0.007521,0.590266,-0.614757,0.083352,-0.784300
0.281761,-0.102506,0.435704,0.498989,0.700900,0.509656
-0.580848,-0.029048,0.393510,-0.517027,0.366584,-0.773498
-0.436617,0.558296,-0.274557,-0.377140,0.005958,0.926137
-0.328774,0.041592,0.793676,0.890857,-0.442078,-0.104602
-0.161648,0.245542,-0.977350,-0.207806,0.103680,0.972660
0.332910,-0.012996,0.727067,-0.711353,0.544803,0.444035
0.176457,-0.029580,0.730969,0.845098,0.096244,-0.525877
0.279318,0.235602,0.772880,0.328323,-0.921228,0.208672
-0.016618,0.650676,0.744298,0.892997,-0.446311,-0.057990
0.534542,-0.556436,-0.174105,-0.393584,0.226229,0.891017
-0.295771,0.132963,0.337317,0.200747,0.473265,0.857742
0.281573,0.594812,0.745481,-0.487315,0.202299,-0.849470
-0.071433,0.506737,0.792864,0.974953,-0.032691,-0.219997
0.014926,0.270524,0.645417,0.957434,0.218763,0.188314
-0.076605,-0.164005,0.534937,0.950575,0.196350,0.240530
0.341890,-0.287267,0.533313,-0.687169,-0.704253,-0.178403
0.300472,0.329258,0.761246,-0.643626,-0.515242,0.565926
-0.194980,-0.336434,0.216669,-0.148798,-0.662011,0.734575
0.262441,-0.211098,0.552680,0.714491,0.618783,0.326512
0.364596,-0.514870,0.065550,0.391347,-0.197566,0.898785
-0.090850,0.573764,0.800844,0.916989,-0.266091,0.297199
-0.021413,0.002631,0.712697,0.888379,-0.154454,-0.432349
0.198882,-0.051320,0.571958,-0.343251,0.328885,-0.879780
-0.103825,0.609164,0.871743,0.595230,0.490479,0.636500
-0.273487,0.326122,0.105519,0.316068,-0.599773,0.735101
0.066733,0.161134,-0.231516,-0.117462,0.083216,0.989585
-0.204052,0.314960,0.142663,-0.219237,-0.227927,0.948675
0.871659,0.575837,0.378416,-0.637747,-0.359110,0.681409
0.101568,-0.177240,0.381082,0.487869,0.599609,0.634392
0.422749,-0.375183,-0.218152,-0.175683,0.172586,0.969200
-0.046236,0.321232,0.386961,0.994313,0.094410,-0.049279
-0.395858,0.403195,0.037550,0.142992,-0.368409,0.918601
-0.025833,0.284822,-0.977632,-0.200549,-0.336852,0.919952
-0.654419,0.769846,0.730157,0.749282,0.193479,0.633357
-0.316879,0.043506,0.344979,-0.039035,0.625952,0.778884
-0.041487,-0.057751,0.808647,0.614254,-0.771244,-0.166957
-0.140682,0.627874,0.798831,0.956229,0.049780,0.288353
-0.257551,-0.084594,0.729451,0.872166,-0.438786,0.216319
0.503421,-0.492492,-0.185598,-0.374309,0.343201,0.861456
-0.388948,-0.135514,0.641674,-0.855672,-0.378840,-0.352570
-0.190373,0.298323,0.527329,-0.312769,0.592891,0.742062
-0.539008,-0.265740,0.573459,0.621939,-0.264435,0.737066
0.061090,0.530762,-0.990431,-0.118064,0.379961,0.917437
-0.017465,0.330109,0.297437,-0.643258,0.762740,-0.066678
-0.275275,0.103888,0.878434,-0.486184,0.774272,0.405127
-0.006511,0.360406,-0.383942,0.476226,-0.876608,0.069043
-0.875844,-0.156776,0.006497,-0.142318,-0.575824,-0.805092
-0.510519,-0.382624,0.178889,-0.178311,0.709774,0.681488
-0.529982,0.419672,0.746557,0.908683,-0.339812,0.242537
-0.004913,0.319744,-0.269614,-0.488451,0.787214,0.376444
-0.080648,0.607356,0.792317,0.965248,0.195568,-0.173350
-0.551654,0.615808,0.361221,0.297968,0.253118,0.920406
-0.577462,0.009328,-0.214604,-0.280647,0.191673,0.940478
0.336154,0.224812,0.230492,0.379307,0.925004,-0.022221
-0.031568,0.012837,0.842190,0.858507,-0.497418,0.124667
-0.084362,0.372206,0.874585,0.834227,-0.472510,-0.284251
-0.630303,0.103463,0.152443,-0.299899,-0.054633,0.952405
-0.762358,0.535387,0.389009,0.562786,0.209352,0.799652
0.359284,0.271534,0.762517,0.922852,-0.051719,-0.381666
0.095269,0.210779,0.402479,-0.339256,0.756797,-0.558716
0.021696,-0.412177,0.274751,0.806528,0.521950,0.277633
-0.185765,-0.331278,0.486901,0.854355,-0.485008,0.186667
-0.044262,0.272225,0.763417,0.328554,0.782863,-0.528373
0.129775,-0.047067,0.468823,-0.130742,0.988977,-0.069499
-0.520955,-0.113881,0.721224,0.100343,0.734789,0.670832
-0.353172,-0.358227,0.181273,0.613216,-0.350898,-0.707699
-0.017936,0.374226,-0.429948,-0.638690,0.748586,0.178028
-0.033166,0.046536,0.548178,0.454460,0.266366,0.850009
-0.251064,-0.291041,0.234358,-0.330010,0.711080,-0.620853
-0.544649,0.538310,0.155886,0.209211,0.876373,0.433822
-0.552922,-0.560475,-0.291858,0.124939,-0.311502,0.941996
-0.318196,0.682834,0.822611,-0.279893,0.930473,-0.236391
-0.345745,0.751827,0.320157,-0.237796,-0.319757,-0.917174
-0.367840,-0.414941,-0.177512,-0.370868,0.128991,0.919684
0.194509,0.324900,0.858520,-0.437907,-0.798274,-0.413518
0.055497,0.152311,0.525846,0.273553,0.140444,0.951548
-0.033308,0.127648,0.173805,0.435180,0.165316,0.885036
0.202407,0.367954,0.266065,-0.499787,0.829320,0.249882
0.168889,0.474951,0.727438,0.992170,-0.081511,0.094626
-0.084408,0.325856,-0.975284,-0.175308,0.048368,0.983325
-0.577604,0.132006,0.800950,0.495709,-0.863101,0.096590
0.196248,0.513435,0.546218,-0.674176,0.725372,-0.139002
-0.566133,0.461610,0.040287,0.014672,-0.979041,0.203136
0.048774,0.230499,-0.202246,-0.781803,-0.383148,0.491916
-0.209600,0.471178,0.753372,-0.566714,-0.804768,-0.176590
-0.077499,0.417227,0.421139,-0.472695,-0.485905,0.735157
-0.210069,0.395540,0.832268,0.646732,-0.758987,0.075344
-0.591848,0.739921,0.720376,0.767733,0.021410,0.640412
0.041817,0.261541,-0.144375,0.413157,0.910541,-0.014704
0.323507,-0.003960,0.664572,0.580638,-0.486456,-0.652855
-0.316080,0.441943,0.900042,0.367551,-0.597670,0.712528
0.305597,0.243735,0.603224,0.274853,-0.808440,-0.520463
0.705052,0.425625,0.334775,-0.107525,-0.286838,0.951926
0.242319,0.482765,0.904774,0.672303,0.516138,-0.530670
0.010084,0.283600,0.677071,0.690612,-0.630473,-0.354342
-0.239499,0.818322,-0.245286,-0.623475,0.522677,0.581452
-0.027619,0.146358,0.760857,-0.567516,0.014145,-0.823241
0.237101,0.054509,-0.193454,-0.533245,0.013738,0.845849
-0.459794,-0.433917,0.193013,0.011441,0.525647,0.850626
0.776180,-0.044941,0.276499,0.245379,0.503165,-0.828622
-0.065746,0.459484,0.777240,0.886752,-0.171603,-0.429212
-0.490116,0.231828,0.562884,-0.341828,0.747665,0.569342
-0.022024,0.379541,-0.895029,0.958374,0.275818,0.073779
-0.172508,0.177080,0.291823,0.854135,-0.506200,0.119227
0.062032,0.317192,-0.204082,0.718208,0.398618,-0.570334
0.218673,0.649932,0.339489,-0.630746,0.350283,-0.692432
-0.506898,0.503016,0.521662,0.281222,0.293873,-0.913539
-0.162777,-0.302203,0.486601,-0.814706,0.565291,-0.129227
-0.160473,0.387727,0.777823,-0.584916,-0.718989,-0.375404
-0.238935,0.175433,-0.025334,0.341324,-0.907099,-0.246312
-0.058036,-0.415207,0.296095,0.604949,0.363309,-0.708550
0.009049,0.686767,0.049114,0.502812,-0.466917,-0.727440
-0.292527,0.072156,0.589930,0.869696,-0.458854,-0.181884
-0.042992,0.591623,0.759162,-0.629417,0.498261,-0.596297
-0.325060,0.600234,0.864593,-0.492264,-0.123651,0.861618
0.309452,-0.612725,0.136908,0.164589,0.397582,0.902684
0.432716,0.132113,0.454735,0.572778,0.427505,-0.699403
0.336860,-0.322189,0.057199,0.144178,0.282550,0.948356
-0.146981,-0.518165,-0.200251,0.252839,-0.154149,0.955149
-0.077499,0.275467,0.616235,0.586321,-0.626287,-0.513801
-0.379451,0.682515,0.859279,-0.055555,-0.311957,0.948471
-0.031568,-0.225237,0.514353,-0.318802,0.931360,-0.175880
-0.021836,-0.238844,0.253248,-0.241990,0.425189,0.872155
-0.520485,0.372844,0.711920,0.909423,-0.267875,0.318109
0.197236,0.588593,0.711320,-0.118961,-0.334141,0.934986
0.465530,0.125681,0.475461,0.748903,0.462255,-0.474831
-0.050842,0.330321,-0.688493,0.875329,0.473651,0.097232
-0.542580,0.342015,0.840142,0.836045,0.548647,-0.003929
-0.036880,-0.168257,0.696649,0.833142,0.445648,-0.327524
0.615636,-0.044250,0.408022,-0.264509,0.158199,0.951319
0.698986,0.001621,0.277046,0.546227,0.477593,-0.688143
-0.167759,0.856380,0.189888,0.248964,0.102751,-0.963047
-0.738054,0.706487,0.112139,-0.023381,-0.618291,0.785601
0.022448,0.178090,0.761140,0.865926,0.079158,0.493868
-0.164375,0.032184,0.790481,0.280757,-0.834092,-0.474832
0.754037,-0.151035,0.253637,-0.266401,-0.090248,0.959628
0.090472,0.297791,-0.239408,0.193105,0.320025,0.927521
-0.208002,0.680389,0.443436,0.159056,0.178538,-0.970992
-0.257035,0.193398,0.754449,0.561006,-0.620970,-0.547420
-0.374045,-0.565418,-0.294718,0.130877,0.236910,-0.962676
-0.541076,0.216733,0.237572,0.144229,-0.987770,-0.059232
0.314670,-0.246605,0.525687,-0.655683,-0.715176,-0.242081
-0.026538,0.545699,0.816980,0.036073,-0.789770,0.612341
-0.300755,0.584660,0.594555,-0.566996,-0.289991,0.770987
-0.116893,0.418715,0.586646,-0.125554,-0.675207,0.726865
0.307524,-0.945358,0.081174,0.636543,0.044859,-0.769936
0.076887,0.332713,0.493839,-0.032886,0.801305,0.597352
0.193850,0.294443,0.716492,0.556671,-0.568313,-0.605918
-0.826904,0.072368,0.004661,0.297638,0.061234,0.952713
0.112380,-0.244638,0.541717,0.738794,-0.376718,-0.558808
-0.224126,0.090706,0.517142,-0.447174,-0.351382,-0.822536
-0.133771,0.421320,0.737254,-0.423607,0.866058,0.265521
-0.601015,0.575146,0.675323,0.877405,-0.032151,0.478672
-0.097713,-0.285460,-0.025334,-0.110846,-0.074613,0.991033
-0.678255,0.469211,0.654032,0.086164,-0.728538,0.679565
0.541969,0.186488,0.171934,0.456265,0.133785,-0.879730
0.411701,-0.147740,0.229768,-0.401290,-0.406621,-0.820747
-0.144301,0.237144,0.830097,0.752944,-0.599306,0.271859
0.327174,-0.781115,0.099905,-0.506038,0.731331,0.457253
0.139459,0.344088,0.176347,-0.607511,-0.612697,0.505503
0.015256,0.474526,-0.984853,-0.301271,0.141229,0.943022
-0.481654,0.403195,0.667785,0.444231,0.264232,-0.856061
-0.065228,-0.358386,0.299961,-0.271367,0.793453,0.544787
0.231601,0.522098,0.710984,-0.081777,0.287146,0.954390
-0.052253,0.300555,-0.376721,-0.311729,0.948613,-0.054389
-0.414804,0.485795,0.828596,-0.648749,0.617369,-0.444949
0.505019,0.006618,0.390191,-0.231397,0.043204,0.971900
-0.627201,0.570255,0.706112,0.207907,0.099741,0.973050
0.041299,0.529859,0.833522,-0.343259,-0.927687,0.146868
-0.086384,0.685279,0.791081,0.296501,0.610284,0.734603
-0.892063,0.863024,0.177759,0.988233,0.150559,0.026963
0.036598,-0.158742,0.251218,-0.114500,0.487760,0.865436
0.058129,0.223855,-0.343761,0.354947,0.912285,-0.204325
0.059775,0.278072,0.636219,0.963100,0.232257,-0.135996
-0.566321,0.171393,0.576619,-0.475718,0.714540,0.512956
-0.148437,0.247615,-0.031760,-0.414107,0.893425,0.174093
-0.001527,-0.471709,0.287021,0.494596,0.687349,0.531908
-0.222904,0.033832,0.913159,0.959828,-0.205887,-0.190634
0.272641,0.045260,0.763594,-0.135549,0.825687,0.547601
0.359284,0.338666,0.471912,0.082693,0.404872,0.910626
-0.202314,0.222739,0.899036,0.079127,-0.770985,0.631918
0.332252,-0.173519,0.244615,0.480734,0.375849,0.792232
0.371976,0.110904,0.323988,-0.188507,0.657146,0.729811
0.363374,-0.190953,0.421492,0.397249,-0.120816,-0.909723
0.089815,-0.166609,0.504820,0.207809,0.826554,0.523091
0.032650,0.496798,-0.978533,-0.150731,0.287421,0.945870
0.064757,0.340261,0.489231,-0.178899,0.883028,0.433886
-0.152246,0.276052,0.874161,0.936269,-0.324909,0.133548
-0.046940,0.440880,-0.203693,-0.177779,-0.270910,0.946046
-0.097525,0.340420,-0.477367,-0.798253,0.586162,0.138584
-0.292527,0.023042,0.897783,0.234571,0.864901,-0.443761
-0.076088,0.577644,0.053333,0.534127,-0.567074,-0.627005
-0.192300,0.619263,0.303827,0.143926,-0.076035,0.986663
-0.178808,0.447896,0.781354,0.906580,-0.421513,0.020976
-0.125920,0.258883,0.024663,-0.107523,0.987385,0.116230
-0.100346,0.561591,0.801691,0.721835,-0.310206,0.618649
-0.428531,0.340314,0.860921,0.190792,-0.979694,-0.061634
-0.369909,-0.403673,-0.289280,0.024504,0.158581,-0.987042
0.386126,-0.112340,0.355784,-0.165527,-0.785979,0.595683
-0.244952,0.000664,0.503919,0.138690,0.846622,0.513806
-0.107538,0.300449,0.774486,0.879314,-0.035964,0.474883
0.169358,0.320382,0.293853,0.754971,-0.108607,0.646702
-0.253556,0.360087,0.856931,-0.694834,0.298547,-0.654274
-0.635851,0.779254,0.362633,-0.176313,-0.585626,0.791174
-0.080225,0.635102,0.807305,0.965259,-0.195957,0.172848
0.018968,0.082999,0.334404,0.338307,0.732776,0.590413
0.492983,0.114519,0.725690,-0.627673,0.316693,0.711149
0.105235,0.436043,0.579514,0.136524,-0.981865,-0.131539
0.156101,0.155022,0.695873,-0.259315,0.615481,0.744271
0.028512,-0.014272,0.562831,0.008130,-0.263669,0.964579
-0.041018,-0.340580,0.636290,0.246497,0.936833,0.248159
0.490303,-0.381827,-0.208001,-0.210800,0.354337,0.911048
0.590956,0.284769,0.199650,0.305323,0.148153,-0.940653
0.386504,-0.604699,0.124903,0.415221,0.677779,0.606801
-0.364831,0.615489,0.590354,0.113155,-0.301547,0.946713
0.467268,-0.150238,-0.225567,0.373227,-0.108393,0.921386
-0.189150,-0.035108,0.703323,-0.057189,0.802633,0.593726
0.208378,0.368857,0.821411,-0.761595,-0.555624,0.333548
-0.217263,0.630212,0.818268,0.452488,0.613539,0.647166
-0.313071,0.659128,0.906098,-0.151016,0.848955,-0.506429
-0.658181,0.164589,0.442836,0.203965,-0.123893,0.971107
-0.774299,0.011082,0.444037,0.129344,-0.074608,0.988789
-0.687799,0.534271,0.069010,0.318403,-0.535207,0.782415
-0.650189,0.575358,0.716987,0.081504,-0.823839,0.560934
-0.490821,-0.453584,-0.176912,-0.225836,0.580775,0.782111
0.172414,0.282005,0.747158,0.487010,0.853439,-0.185643
-0.191172,0.763468,0.517848,0.925661,0.197418,-0.322767
0.403098,-0.064980,0.800561,0.534243,-0.759822,-0.370479
-0.107632,0.498233,-0.981128,0.050578,0.130903,0.990104
-0.314576,0.694528,0.807764,-0.461663,-0.756620,0.463026
-0.498155,-0.445345,-0.288768,-0.248440,0.647554,-0.720383
0.147826,0.353284,-0.975161,-0.079039,0.130182,0.988335
0.636557,0.532676,0.344432,-0.020809,-0.146838,0.988942
-0.246127,0.311452,0.980051,0.901403,0.078502,0.425806
-0.490257,0.346161,-0.100929,-0.244407,0.287572,0.926049
-0.254355,0.644564,0.896335,0.860842,-0.155333,0.484586
-0.516254,0.529646,0.365599,0.276638,-0.386303,0.879910
-0.346637,0.490579,-0.035697,0.274005,0.448979,0.850494
-0.060291,0.370824,-0.447920,0.563611,-0.822952,-0.071364
0.415180,-0.390703,0.095544,0.302619,-0.895869,0.325331
-0.070212,-0.037021,0.742921,-0.239380,0.282105,0.929039
-0.429377,-0.287161,0.531460,0.785059,-0.416955,0.458073
-0.370143,0.782231,0.317209,0.162543,0.493484,0.854431
-0.055449,0.498233,0.803457,-0.547119,0.830646,-0.103386
0.006323,0.167778,0.764088,0.907222,0.143435,0.395442
-0.363044,-0.465065,-0.282042,-0.111641,-0.219921,0.969108
0.280540,-0.293911,0.420168,-0.638862,-0.174570,0.749254
0.481090,0.109044,0.497617,0.660476,0.546643,-0.514736
-0.617140,0.732639,0.352306,0.356881,0.200959,0.912278
-0.022730,-0.002312,0.741332,0.936349,-0.344040,-0.069910
0.034060,0.243681,-0.124426,0.986509,0.163703,0.001081
-0.045484,0.399686,-0.503142,-0.645354,0.751934,0.134587
0.391346,0.026072,0.737360,-0.161787,0.974498,0.155495
0.226899,-0.433651,0.265430,0.151191,0.321863,0.934637
0.806878,-0.243628,0.264088,-0.325220,0.330250,0.886097
-0.139129,0.380126,0.774557,0.740837,0.577852,0.342414
-0.186658,0.100486,-0.160317,-0.865537,0.496427,0.066369
