0.456458,-0.125701,-0.217420,0.800266,0.501529,-0.328699
0.169848,-0.069397,0.886015,-0.526200,0.681920,-0.508034
0.119561,-0.008476,0.081110,0.416153,0.629396,-0.656260
0.740897,-0.398035,-0.175906,0.585368,0.804753,-0.098576
-0.333446,0.620150,0.073766,0.821881,-0.347406,-0.451465
0.554182,-0.202698,0.446032,0.973341,0.193120,0.123740
0.119996,-0.041662,0.068447,0.399759,0.710418,-0.579222
0.068456,0.471927,0.150249,0.409684,-0.040386,-0.911333
0.580532,-0.098086,0.519262,0.167103,-0.784309,0.597441
0.330840,-0.150412,0.851241,-0.552065,0.791143,-0.263281
0.609632,-0.380447,0.277695,-0.319422,0.891214,-0.322036
-0.190744,-0.136604,0.296942,0.781157,-0.301397,-0.546767
-0.257052,-0.461383,0.277676,0.034029,-0.263611,0.964029
0.020099,-0.517807,0.257902,0.893837,0.348641,-0.281966
0.736409,-0.419959,-0.192893,0.760621,0.272849,0.589075
-0.032503,-0.489197,0.242570,0.940868,-0.244090,0.234920
0.422773,-0.265489,0.480787,0.017943,-0.817428,0.575752
0.551287,-0.102980,0.603012,0.968857,0.236387,0.073733
0.345800,-0.364849,0.619551,-0.357257,0.701363,-0.616813
0.349709,0.053798,0.480904,-0.225849,-0.212961,0.950600
0.075501,-0.004218,0.633948,0.971477,-0.206946,-0.115784
0.089352,-0.708806,0.208829,-0.709087,0.689397,-0.148079
-0.172019,0.541483,0.201738,0.434988,0.135836,0.890132
-0.115508,0.720385,0.093013,-0.674677,0.281498,0.682326
0.590570,-0.052446,0.544880,-0.341272,-0.315818,0.885321
0.176217,-0.476185,0.300488,-0.690892,0.225306,0.686954
0.282484,0.229875,0.143586,0.325487,0.131705,-0.936329
0.471080,-0.370021,-0.104546,0.866885,0.268180,-0.420226
0.574258,-0.456249,0.177094,0.865017,-0.204729,0.458073
0.054074,0.459949,0.122839,-0.122513,-0.779342,0.614506
-0.072558,-0.562731,0.268967,-0.417898,-0.817623,-0.396046
-0.091475,0.650830,0.124573,-0.034967,0.354354,0.934457
0.491060,-0.266086,-0.163964,0.266141,0.952000,-0.151211
0.934946,-0.530301,-0.981688,0.034735,-0.062902,0.997415
-0.483339,0.262385,0.118514,-0.369482,-0.507408,0.778473
0.012813,0.011698,0.868132,-0.580013,0.520160,-0.626912
-0.328814,0.212805,0.159132,0.506903,0.505350,-0.698334
0.195087,-0.865227,0.398186,0.349321,-0.921179,-0.171478
0.152378,-0.205881,0.566114,0.316539,-0.612855,0.724025
-0.045484,-0.182006,0.301306,0.425165,0.331113,-0.842377
0.553362,-0.548247,0.114462,0.488920,0.862061,-0.133448
0.692976,-0.433847,0.011796,-0.719511,-0.693635,0.034265
0.534445,-0.618758,0.354022,-0.685576,-0.036986,0.727061
0.174722,-0.773706,0.579381,0.347821,-0.883176,0.314674
0.367710,-0.809797,0.450065,0.012722,0.069254,0.997518
0.555582,-0.627552,0.358834,-0.680594,0.348897,0.644254
0.143547,-0.692890,0.272883,0.094461,-0.800267,0.592156
0.229641,-0.137480,0.971012,0.824294,-0.493909,0.276754
0.595541,-0.374836,0.277656,-0.355177,0.877570,-0.322055
0.017060,-0.070152,0.678950,-0.550544,0.476574,-0.685404
0.358299,-0.270702,-0.203588,-0.459719,0.640843,-0.614800
0.311970,-0.220047,0.814617,0.785985,-0.536768,-0.306771
-0.336245,-0.188492,0.117501,-0.375428,0.898391,0.227919
0.395507,0.003263,0.664845,-0.515887,0.194207,0.834353
0.686702,-0.371374,-0.109027,-0.478275,-0.840800,0.253592
0.059045,0.224901,0.233317,0.906353,-0.312469,-0.284406
-0.485076,0.530102,0.081558,0.761700,-0.593263,-0.260484
0.511812,-0.317338,0.429395,0.502095,0.863962,0.038357
0.254349,-0.127293,0.005971,-0.459199,0.287592,-0.840492
-0.056102,0.536947,0.102754,0.606597,0.457994,-0.649831
0.211882,-0.004855,0.906022,-0.244690,0.906307,0.344579
0.117245,-0.830489,0.454857,0.979428,-0.196895,0.044189
0.497526,-0.420437,-0.123209,0.005560,-0.820395,0.571770
0.313563,-0.297800,0.309040,0.203623,0.013231,-0.978960
0.737278,-0.419562,-0.098916,0.625504,0.779790,0.025926
0.484400,0.050615,0.708600,-0.172393,0.982280,-0.073524
-0.001810,-0.396642,0.246642,0.151388,0.453858,0.878120
0.567889,-0.353269,0.333294,0.784356,-0.341769,0.517668
0.306421,-0.161394,0.640689,-0.305500,0.644647,-0.700785
0.751900,-0.431260,-0.223849,-0.607308,-0.793864,-0.030926
0.446614,-0.240182,-0.123501,0.784372,0.561366,0.263872
0.730473,-0.398750,-0.534827,0.973665,0.227717,-0.010981
0.038631,-0.389877,0.280637,0.599484,-0.074824,-0.796882
0.078638,0.740241,0.164860,0.329098,0.229441,-0.915997
0.302126,-0.140544,0.894275,-0.108391,-0.990200,0.088063
0.407475,-0.322391,0.771914,-0.288858,0.902130,0.320503
-0.177569,0.786240,0.082610,-0.580176,0.075597,-0.810975
0.540333,-0.173889,0.466429,0.474037,0.581394,-0.661263
0.309895,-0.114361,0.841715,0.586413,0.797141,0.143829
0.307048,-0.126218,0.753660,0.534951,0.826567,0.174966
0.157252,0.382714,0.139671,0.511469,0.328397,-0.794075
0.043264,-0.058653,0.173023,-0.104665,-0.714289,0.691980
0.656396,-0.341292,-0.059544,0.940902,0.146039,0.305575
0.500422,-0.294218,0.049706,-0.582652,-0.805467,-0.108353
-0.068359,-0.106323,0.601921,0.785869,-0.129920,-0.604592
0.305794,-0.244002,0.805694,-0.175640,0.913195,0.367730
-0.426586,0.608372,-0.021088,0.891194,0.407942,-0.198383
-0.229834,0.743504,0.118007,0.099699,0.257544,0.961109
-0.208069,0.250447,0.177640,-0.417306,-0.192470,0.888150
-0.137949,0.447336,0.187672,-0.170874,0.359390,0.917410
0.498540,0.046317,0.684190,0.651930,0.495922,0.573628
0.371860,-0.084040,0.523840,0.566444,0.203064,-0.798690
0.219893,0.046635,0.827669,0.795066,-0.001197,-0.606522
0.162899,-0.098166,0.166730,-0.148282,-0.722679,0.675091
0.595203,-0.576579,0.311047,-0.001998,0.995493,0.094815
-0.073185,-0.039911,0.580004,-0.416558,0.275015,-0.866514
-0.349324,0.605706,0.144307,-0.406946,0.882088,0.237310
0.783365,-0.412041,-0.604746,-0.166240,0.985623,0.030183
0.343291,-0.129442,0.828526,-0.453783,-0.864455,-0.216330
-0.167966,-0.504198,0.303215,0.733706,0.369766,0.570042
0.088676,0.360034,0.214771,-0.424468,-0.658826,-0.621108
-0.277272,0.923640,0.079513,0.423353,0.826601,0.370814
0.092440,0.224862,0.069090,-0.288025,0.440287,0.850405
0.224960,-0.077554,0.720464,0.216983,0.975307,-0.041164
0.336631,-0.022482,0.786057,0.803341,-0.086792,-0.589160
0.329054,-0.072978,0.867898,0.341792,-0.234660,-0.910007
0.090027,0.019657,0.212277,-0.386967,-0.392804,0.834243
0.330454,0.187378,0.694281,-0.579873,-0.496484,0.645950
0.112081,0.041741,0.846546,-0.691992,0.539020,-0.480212
0.482856,-0.549680,0.275007,-0.529909,-0.771582,-0.351935
0.339816,-0.297163,0.824046,-0.086627,-0.941365,0.326079
0.580677,-0.373722,0.332827,0.647903,-0.410715,0.641509
0.378520,-0.329514,0.632526,-0.021565,-0.669175,0.742792
-0.365780,0.675898,0.095662,-0.708670,0.358054,0.607934
0.752672,-0.445267,-0.060577,0.713356,0.679504,0.171454
-0.022706,-0.035056,0.183484,-0.039845,-0.533778,0.844685
0.019424,0.088814,0.205829,0.510152,-0.133610,0.849643
-0.527786,-0.224464,0.175769,-0.488847,-0.098701,-0.866768
-0.337886,0.198758,0.096267,0.239579,0.691664,0.681324
-0.640905,0.009231,0.255642,-0.674520,0.510350,-0.533448
-0.095529,-0.556405,0.283578,0.382116,-0.581304,0.718382
0.144898,-0.512077,0.294488,0.750321,-0.493501,-0.439858
0.662187,-0.206876,0.581485,-0.710133,0.439454,-0.550084
-0.090992,0.421511,0.204991,0.252370,-0.394961,-0.883355
-0.698140,-0.142374,0.227434,0.763976,0.565605,-0.310536
0.727143,-0.493654,-0.992714,-0.126729,0.128116,0.983629
-0.369640,0.683578,0.061843,0.642628,0.409784,-0.647385
-0.818160,-0.206638,0.148126,0.458420,-0.168022,-0.872708
-0.258258,0.880347,0.111988,0.120739,-0.179274,0.976362
0.445021,-0.041184,0.697671,0.929677,0.334227,-0.154898
-0.116425,-0.568740,0.281591,-0.384285,0.408635,-0.827854
-0.265160,0.883212,0.029699,-0.585062,-0.555610,0.590762
-0.530343,0.294775,0.081909,-0.137412,-0.833621,0.534971
0.636947,-0.375950,-0.324625,-0.073852,0.995656,0.056694
-0.382912,-0.515778,0.282234,-0.175087,-0.874705,-0.451924
0.170475,-0.525009,0.258019,-0.004051,0.465666,0.884951
-0.365973,-0.169313,0.089877,-0.328070,0.788579,0.520109
-0.384022,-0.468863,0.335554,-0.293519,0.849496,-0.438409
0.373260,0.134614,0.770687,-0.849028,0.498809,-0.174187
0.368433,-0.130397,-0.021946,-0.770383,0.544917,-0.331022
0.793837,-0.474315,-0.968031,0.456148,0.549371,-0.700086
0.335280,-0.283514,0.801486,0.197902,0.461062,-0.865018
0.211591,-0.725837,0.503775,-0.511548,0.362113,0.779226
0.527157,-0.207394,0.610960,0.493200,0.615549,0.614697
0.454576,-0.245474,0.060479,0.704468,-0.046968,0.708180
0.680042,-0.072142,0.571218,-0.427723,-0.675597,0.600518
0.165215,0.435159,0.156541,0.332327,0.144978,-0.931955
-0.379679,-0.520592,0.287825,0.277019,0.790948,0.545584
-0.899766,-0.066571,0.143450,0.110761,0.960442,0.255507
0.278962,-0.070630,0.787674,0.570942,0.778591,-0.260425
0.230461,-0.104572,0.164840,0.321274,-0.398648,0.858989
0.190840,-0.770682,0.531165,-0.495400,0.822274,-0.280078
-0.585841,0.000676,0.227161,0.184444,-0.775185,0.604210
0.125594,-0.122160,0.319716,0.469128,0.435232,-0.768435
0.369688,-0.242251,0.485657,-0.047924,-0.836236,0.546272
-0.048862,-0.588914,0.244577,0.570870,0.552014,-0.607773
0.331515,-0.216665,0.792096,-0.152652,0.652060,0.742640
0.351012,-0.177868,0.636578,0.022103,-0.385844,0.922299
0.728350,-0.412757,-0.164198,-0.557178,-0.799712,-0.223638
0.696885,-0.386256,-0.134781,-0.624377,-0.780686,-0.026121
-0.196005,0.182762,0.192367,0.751016,0.257145,-0.608154
0.325628,-0.157216,0.141034,-0.289988,-0.402770,0.868149
0.651715,-0.461343,-0.994506,0.018433,0.182109,0.983105
0.042926,0.292547,0.198913,-0.423909,0.749492,0.508491
0.667109,-0.526760,-0.991409,-0.156654,0.063968,0.985580
0.328476,-0.134933,0.811441,-0.553254,0.666230,0.500048
0.362546,0.091521,0.753309,-0.804530,-0.012924,-0.593772
-0.062761,-0.115276,0.651948,0.135628,0.817507,0.559721
-0.066622,-0.015559,0.593953,0.453750,-0.504523,0.734553
0.341554,-0.642633,0.204095,-0.078793,0.292564,-0.952994
0.321333,0.215511,0.139262,-0.443241,-0.564976,0.695945
-0.313998,-0.131829,0.338028,0.173516,-0.733503,0.657165
-0.399223,0.474315,0.157769,0.474075,-0.248114,-0.844803
0.625606,-0.374000,-0.102598,-0.441147,0.452153,-0.775207
0.313467,-0.739843,0.481040,0.837091,0.432195,0.335389
0.312550,0.055787,0.670105,-0.052611,0.114938,0.991979
0.505055,-0.658152,0.351334,0.707714,-0.693228,-0.136294
0.506841,-0.320959,0.606460,-0.281063,0.582048,0.763036
0.634727,-0.388285,0.236375,0.034886,-0.987365,0.154572
-0.680236,-0.185110,0.195192,0.063324,-0.699170,0.712146
0.166373,-0.510087,0.278435,0.972417,-0.228874,-0.044956
0.696885,-0.453106,-0.002679,0.027831,0.992382,0.120016
0.789156,-0.422984,-0.459630,0.799715,0.590146,-0.110382
0.650508,-0.540210,0.106144,0.304828,0.527540,0.792957
0.528798,-0.503164,0.273136,0.232703,0.492979,0.838344
0.187173,0.315745,0.142398,-0.511350,-0.061157,0.857194
0.430205,-0.401894,-0.084714,0.927053,0.233327,0.293482
0.386579,-0.226931,-0.042245,0.634600,0.582794,0.507576
0.731197,-0.433370,-0.111715,0.576889,0.812833,-0.080629
-0.202519,0.118817,0.123443,-0.314185,-0.936702,0.154522
-0.599885,0.447216,0.110079,-0.121469,0.605024,0.786887
-0.264918,0.696749,0.107137,0.108050,-0.074391,-0.991358
0.772266,-0.360153,-0.235265,0.916577,-0.397332,0.044874
0.294549,-0.150332,0.942511,-0.681201,-0.707379,-0.188630
-0.147697,0.720504,0.117345,0.336335,-0.159970,-0.928056
0.763434,-0.437348,-0.312975,0.605269,-0.795904,0.013622
-0.065078,0.759261,0.080136,0.237202,0.496746,0.834852
0.027194,0.609088,0.152470,0.384027,0.053961,-0.921744
0.375673,-0.149895,0.737919,-0.299075,0.911165,-0.283429
-0.176846,-0.082607,0.315196,0.509273,0.734015,-0.449291
-0.029993,0.606223,0.124826,0.089233,0.234440,0.968027
-0.019231,0.693407,0.112455,-0.317613,0.585023,0.746237
-0.021789,0.537106,0.124514,0.360147,0.149207,-0.920886
0.261878,-0.154709,0.838793,0.966652,0.253565,0.035898
0.200926,-0.799730,0.520840,-0.611670,0.426954,-0.666011
0.186401,0.030600,0.817188,-0.800189,0.223495,0.556549
0.374176,-0.199594,-0.049648,0.785818,0.248055,0.566532
0.146008,-0.109029,0.872028,-0.392685,0.913437,0.106920
-0.378327,0.337591,0.136125,-0.778336,0.456009,0.431566
0.688826,-0.494648,0.187399,-0.223528,0.924489,0.308796
-0.267814,-0.454061,0.285994,0.215478,-0.043257,0.975550
0.226407,-0.015081,0.899282,0.318212,0.943282,0.094660
0.149916,-0.177510,0.580589,-0.425827,0.572614,-0.700560
0.473446,-0.030361,0.728549,0.838642,-0.275022,-0.470151
0.205993,-0.168915,0.838890,-0.470962,-0.865288,0.171673
0.581787,-0.524492,0.181341,0.250918,0.697730,0.670979
0.178776,-0.497951,0.328171,0.805502,-0.461798,0.371360
0.333783,-0.214675,0.542834,-0.168783,0.714841,-0.678612
0.287021,-0.036767,0.753991,0.876928,0.193653,-0.439882
-0.559781,0.417930,0.120891,0.264166,-0.195244,-0.944508
-0.391116,0.554813,0.132852,0.998275,-0.006510,-0.058357
0.026373,0.501850,0.127203,0.646660,-0.024303,-0.762391
0.178100,0.132466,0.077272,-0.038474,0.172081,0.984331
0.796443,-0.442919,-0.375121,0.241108,-0.970472,0.007197
-0.083561,-0.010664,0.620681,0.960672,-0.255700,0.108289
0.109910,0.480641,0.156327,0.301032,0.297380,-0.906060
-0.028015,-0.041861,0.609869,0.718884,0.667749,0.193174
0.199623,0.356930,0.144502,0.655550,0.102664,-0.748140
-0.585744,-0.143767,0.282936,0.066495,-0.686564,0.724023
0.190164,0.084477,0.853034,-0.056101,0.677909,0.733002
0.219217,-0.050138,0.795584,0.261190,0.197843,0.944795
0.527206,-0.342844,0.369042,-0.100958,-0.991821,-0.078095
0.708902,-0.403367,-0.150151,-0.525639,-0.841844,-0.122485
0.385855,0.139827,0.743218,-0.805284,0.586712,-0.085356
0.601766,-0.245036,0.576478,0.655398,-0.166800,0.736635
-0.422436,-0.133779,0.334093,0.092547,0.430420,-0.897872
0.569481,-0.266006,0.623954,0.291372,-0.798231,0.527190
0.531839,-0.147547,0.462825,0.322484,0.588571,-0.741342
0.363801,-0.081772,0.147736,0.094638,-0.553117,0.827711
-0.085202,-0.310016,0.300098,-0.025799,0.039799,0.998875
0.343001,-0.057937,0.667319,0.005050,-0.746730,0.665108
0.470695,-0.452390,0.233590,0.595913,0.267192,0.757295
0.582511,-0.245394,0.004627,0.688530,-0.478141,0.545259
0.489515,-0.022124,0.511353,0.916769,0.162094,-0.365047
0.001906,0.750587,0.101585,0.959723,0.034425,0.278831
0.493328,-0.689308,0.360432,-0.291092,0.144509,-0.945718
0.798084,-0.604035,-0.051167,-0.224036,0.627288,0.745867
0.899814,-0.512873,-0.979934,0.080778,0.048372,0.995558
-0.261685,0.663881,0.101897,0.142491,0.543491,0.827233
0.932003,-0.529148,-0.981006,0.034735,-0.062902,0.997415
0.926019,-0.530222,-0.981824,0.097693,-0.026051,0.994876
-0.232392,-0.097052,0.277520,-0.419235,-0.330370,-0.845635
0.335376,-0.789503,0.448273,-0.020433,-0.582940,0.812259
0.762904,-0.426844,-0.257688,0.990959,-0.124510,-0.049986
0.269261,-0.671880,0.501963,0.838860,0.283634,0.464614
0.654417,-0.528789,0.359049,0.452093,0.258609,0.853659
0.241609,-0.409057,0.306255,0.699536,0.674955,0.234701
0.303959,-0.005332,0.663890,0.024115,0.203581,0.978761
-0.518568,0.735227,-0.012458,0.989926,-0.015137,0.140777
0.130131,-0.776611,0.420181,-0.145830,-0.605165,0.782630
0.443091,-0.463054,0.251980,-0.532586,-0.603701,-0.593209
0.403276,0.186264,0.712477,-0.647735,0.247148,0.720665
-0.016432,-0.419283,0.274987,-0.510950,0.850816,0.122650
-0.351736,0.221678,0.161918,-0.681530,-0.457628,0.571045
0.312550,-0.207950,0.520840,-0.091603,0.843071,-0.529944
0.191130,0.538498,0.159015,-0.466795,-0.204448,-0.860409
0.314528,-0.165294,0.837273,-0.265899,-0.645440,0.716035
0.350481,-0.368071,0.785804,-0.249219,0.113563,0.961766
0.353280,0.216943,0.690521,0.653106,0.389720,-0.649285
0.412398,-0.744579,0.418116,0.944490,-0.108808,0.309998
-0.100838,0.638494,0.116215,-0.792508,0.482869,-0.372518
-0.038052,-0.578529,0.240174,0.570870,0.552014,-0.607773
0.368820,-0.114122,-0.010647,-0.544847,0.674443,-0.498266
0.057211,-0.290995,0.298014,0.785840,0.284122,-0.549300
-0.169751,0.145995,0.097377,0.499457,0.866069,0.021627
0.548295,-0.514982,0.335223,-0.455438,-0.670476,0.585694
0.187414,-0.885242,0.458500,0.467046,0.544025,-0.697068
-0.182589,-0.516733,0.297157,-0.563891,0.509463,-0.649980
0.238858,-0.177749,0.578485,0.757997,0.078986,-0.647458
0.112902,-0.175242,0.617798,0.316315,0.943424,-0.099480
0.416885,-0.230035,0.071019,-0.033743,-0.879367,0.474948
-0.903193,-0.214874,0.202147,-0.122344,-0.943803,0.307029
-0.051565,0.657793,0.126930,0.795678,0.496651,-0.346747
-0.046739,-0.109347,0.617623,0.321673,0.286996,-0.902308
0.071255,0.076638,0.217810,0.240248,-0.519064,0.820277
-0.056198,0.663603,0.137391,0.719934,0.404643,-0.563879
0.233791,-0.137480,0.781031,0.567651,0.379507,0.730580
0.534493,-0.332259,0.363042,-0.120837,0.950694,-0.285620
0.495451,-0.368867,0.607337,-0.625875,0.476294,-0.617596
0.272784,0.283037,0.147853,-0.174191,-0.110445,0.978498
0.014067,-0.449883,0.290728,0.131188,0.605532,0.784933
-0.066766,-0.364729,0.305709,0.413190,0.237022,0.879258
0.185097,-0.060722,0.868560,0.843160,0.472494,0.256577
0.386483,-0.287971,-0.042245,0.579571,-0.667575,0.467378
0.350336,-0.434325,-0.159405,0.910042,-0.404630,-0.089992
0.569336,-0.182882,0.030907,0.910372,0.379264,-0.165477
0.327027,-0.023119,0.784830,0.789176,-0.132638,-0.599673
0.506165,-0.272452,0.506112,0.641486,-0.663900,0.384361
0.385035,-0.801162,0.440870,0.854533,-0.188733,0.483894
0.916367,-0.462457,-0.982954,-0.078178,0.278633,0.957211
-0.319210,-0.584299,0.312371,0.606503,0.753098,-0.254945
0.468041,-0.165294,0.450649,-0.404028,-0.679953,0.611904
-0.212654,-0.439656,0.290377,0.160137,0.316477,-0.934986
-0.975823,-0.293065,0.179626,-0.222090,0.783367,-0.580527
0.095288,-0.727349,0.475975,-0.369847,-0.786970,0.493854
0.539946,-0.476622,0.209004,-0.631453,0.496684,-0.595460
0.387351,0.268234,0.730341,0.852093,0.519390,-0.064583
-0.138383,-0.504437,0.288293,-0.430190,-0.339658,-0.836402
0.560167,-0.686802,0.402024,0.493575,-0.869686,-0.005481
-0.692446,-0.155306,0.255214,-0.663393,0.043719,0.746993
0.720918,-0.530659,-0.987902,0.073330,0.026603,-0.996953
-0.083609,-0.204210,0.268987,-0.091863,0.957968,0.271767
-0.007070,0.019497,0.085493,-0.085473,-0.389264,0.917152
0.352942,-0.140544,0.882022,-0.444473,0.654883,0.611205
0.162126,-0.371096,0.246778,-0.666447,0.701577,0.252265
0.416161,0.045998,0.106845,-0.233523,-0.589656,0.773158
-0.263278,0.736143,0.115163,-0.197262,-0.557507,0.806395
0.072316,-0.365445,0.288721,-0.078210,0.025816,0.996603
-0.007794,0.573475,0.128839,0.185677,-0.109686,-0.976470
0.482952,-0.273925,0.527834,0.363252,0.895278,0.257926
-0.673673,-0.113923,0.261058,0.643428,0.349347,-0.681144
0.569867,-0.517608,-0.123696,0.033930,0.999401,0.006781
0.511859,0.066571,0.694632,0.904277,-0.163680,-0.394325
0.526675,-0.312801,0.072051,-0.705874,-0.707623,-0.031813
0.222161,-0.093629,0.871580,0.224423,-0.803706,0.551081
-0.054267,0.639966,0.113741,0.963142,0.199082,-0.180896
0.215211,-0.039951,0.909802,0.450269,0.032253,-0.892310
0.057597,-0.204489,0.594343,-0.019839,-0.747719,0.663719
0.010448,-0.525367,0.254844,0.910495,-0.006249,-0.413472
0.424221,-0.015956,0.674625,0.843580,0.212999,-0.492955
-0.351736,0.881381,0.089000,0.410656,0.554364,0.723907
-0.599691,0.173252,0.292754,0.498595,0.482928,-0.719850
-0.069372,0.706896,0.096714,-0.195086,0.660996,0.724586
0.073281,-0.006964,0.685125,0.962212,-0.108538,-0.249734
0.171343,-0.900840,0.416966,0.854132,0.426086,-0.298176
0.556981,-0.158927,0.504106,0.872264,0.411267,0.264603
-0.510798,0.220086,0.059642,0.067617,-0.042473,0.996807
0.682117,-0.395249,-0.143450,0.610532,0.781430,0.128909
0.631446,-0.216784,0.549146,-0.269320,-0.545684,0.793533
0.650508,-0.438423,0.140723,0.947026,0.287045,0.144038
0.166083,0.006884,0.811636,-0.603276,0.638312,-0.478137
0.233357,-0.138435,0.575154,0.009191,-0.481158,0.876586
-0.070386,0.770761,0.079961,-0.553077,-0.482240,-0.679375
0.519581,0.129720,0.763147,0.827447,0.534750,-0.171388
-0.527110,0.350842,0.003750,-0.905298,0.424691,-0.008581
0.550612,-0.574390,0.369374,-0.633988,-0.582828,0.508301
0.436527,-0.318332,0.501261,0.067961,0.987491,-0.142280
0.134570,-0.008595,0.094805,-0.479873,-0.622626,0.618109
0.347151,-0.174605,-0.042167,0.703395,-0.262009,0.660748
-0.170331,0.719828,0.109066,-0.400923,0.444112,0.801265
0.382140,-0.157415,0.746842,0.541931,0.783322,0.304495
-0.030524,0.291194,0.206978,0.860487,0.274579,-0.429149
0.388847,-0.684573,0.443032,-0.834914,0.059320,-0.547175
0.162319,0.519478,0.157184,-0.055130,-0.229949,0.971640
0.482904,-0.524333,0.206004,-0.459247,0.748328,-0.478641
0.329923,-0.205563,0.875086,-0.387562,0.199151,0.900075
0.678691,-0.475389,-0.994195,-0.003180,0.433768,0.901019
0.337644,-0.195536,0.632623,-0.074633,-0.362725,0.928903
0.805371,-0.600732,0.330879,-0.001725,-0.750796,0.660532
0.945516,-0.478055,-0.982155,0.029574,0.066524,0.997346
-0.508482,0.661653,-0.020465,0.806073,0.560626,-0.189591
0.570350,0.021567,0.743218,0.892940,-0.030030,-0.449173
0.038342,-0.130198,0.610161,0.198619,0.013035,-0.979990
0.456989,-0.061200,0.671975,-0.711080,-0.621559,0.328680
-0.047029,-0.135410,0.662176,0.305152,-0.905166,0.295899
-0.095674,0.295850,0.225427,-0.440478,0.719147,0.537408
0.432232,-0.024631,0.105072,-0.294979,-0.286991,0.911386
-0.228628,-0.129442,0.288877,-0.343753,0.443983,0.827474
-0.926212,-0.094425,0.136690,0.093866,0.808063,0.581570
-0.104795,0.777407,0.055473,-0.384512,-0.035112,-0.922452
-0.051324,-0.518364,0.257376,-0.102833,-0.506688,0.855975
0.611611,-0.575823,0.367464,0.423397,-0.305813,-0.852768
0.022416,-0.801480,0.193400,-0.865931,0.432055,0.251977
0.144656,0.642991,0.154126,0.081254,-0.114375,0.990109
-0.510653,0.701842,0.038018,-0.470529,-0.067222,0.879820
0.187510,-0.132466,0.884048,-0.181193,-0.566188,-0.804115
0.386241,0.164617,0.156210,-0.829965,-0.293619,0.474285
0.788143,-0.513987,-0.983655,-0.153606,-0.044359,0.987136
0.051034,-0.255581,0.296942,0.718756,0.118811,-0.685035
-0.679367,0.002347,0.232226,-0.673302,0.118452,-0.729817
0.122457,0.708527,0.161918,0.011023,-0.125864,0.991986
0.591246,-0.570889,0.266045,-0.390672,0.879945,0.270320
0.483194,-0.274522,0.639675,0.439285,0.195070,0.876913
-0.419781,-0.115276,0.304638,-0.087448,-0.936756,-0.338883
0.557561,-0.335323,0.325619,0.878442,-0.100458,0.467169
0.542118,-0.603956,0.334035,0.984506,0.151871,0.087658
0.183167,-0.044288,0.698898,0.470740,0.600168,-0.646685
0.059576,-0.011142,0.846527,-0.146335,-0.911305,0.384849
-0.299906,-0.556802,0.333918,0.617263,0.739172,0.269464
0.502401,-0.042060,0.090831,0.192055,-0.652833,0.732751
0.014454,-0.800366,0.190088,-0.865931,0.432055,0.251977
-0.108318,0.433727,0.185101,0.115228,0.803296,0.584326
0.251164,0.049938,0.780310,-0.243353,0.535126,-0.808962
-0.165215,-0.144881,0.687677,-0.080758,0.996719,-0.005463
0.281230,0.197127,0.139067,-0.001613,-0.234999,0.971994
0.026518,-0.410688,0.280208,-0.234419,0.024366,0.971830
0.235094,0.098802,0.812493,0.340876,-0.424582,0.838769
0.208552,-0.671323,0.529724,0.887585,0.097989,0.450101
0.150882,-0.037046,0.852917,0.499417,0.863512,-0.070211
0.138866,-0.167005,0.862112,0.903596,0.399730,-0.154045
0.469778,-0.660181,0.348334,0.319769,-0.912376,-0.255574
0.088145,0.247622,0.221667,0.335271,0.363616,0.869124
0.597809,-0.678008,0.326982,0.126898,0.318645,0.939342
0.509206,-0.563686,0.263182,0.385615,0.625860,0.677938
0.891755,-0.472245,-0.978648,-0.119304,0.016690,-0.992717
0.247496,-0.081493,0.875125,0.215176,-0.480829,0.850002
0.380209,-0.090128,0.664553,0.522917,-0.027412,-0.851942
-0.693748,-0.368589,0.160944,0.504392,0.319605,-0.802148
-0.027387,-0.012534,0.178672,0.026976,-0.520436,0.853474
-0.272929,-0.370459,0.245687,0.932098,0.324370,0.161176
0.815747,-0.351320,0.142710,-0.114921,0.520742,0.845944
0.439567,0.215630,0.751322,0.925354,0.278359,0.257364
0.645296,-0.370300,-0.143119,0.509109,0.856492,-0.085024
-0.057984,0.679122,0.114092,0.695116,-0.572020,-0.435438
0.669232,-0.588556,0.144249,-0.029257,-0.899581,0.435773
-0.039114,0.240221,0.233258,-0.683509,0.080362,0.725505
0.049055,-0.382277,0.241070,-0.196867,0.240480,0.950480
0.463167,-0.025745,0.458383,-0.711807,-0.203250,0.672324
0.388896,-0.242887,0.106416,0.165386,-0.968507,0.186121
0.386386,-0.288130,-0.075499,0.911739,0.078694,0.403161
0.751659,-0.418289,-0.222953,0.518339,0.854642,0.030196
0.716816,-0.438025,-0.103221,0.640762,0.767497,0.019323
0.374611,-0.286738,0.791726,-0.652143,0.742456,0.153196
0.320127,-0.132546,0.648286,0.576037,-0.467059,0.670848
0.497672,0.134415,0.707217,0.771856,0.573683,-0.274091
-0.176073,-0.083443,0.268305,-0.283194,0.958503,0.032754
-0.340975,-0.269588,0.165600,-0.593527,0.410942,0.691992
0.306758,-0.813776,0.471358,-0.591615,0.530994,-0.606661
0.486234,-0.242768,0.605895,-0.345285,0.827573,-0.442608
0.818546,-0.466874,-0.901951,-0.461006,-0.887084,0.023547
-0.112661,-0.091799,0.595414,0.114189,-0.977794,0.175725
0.489708,-0.724563,0.323943,0.892327,-0.304996,0.332762
0.805564,-0.535236,-0.982954,-0.144963,-0.024104,0.989143
0.054894,0.259560,0.218940,0.514328,0.523724,-0.679102
0.105374,-0.367873,0.285487,0.228225,0.831277,0.506844
0.472625,-0.284072,0.092838,0.251404,-0.557950,0.790878
-0.257728,0.862441,0.124281,-0.217196,0.011230,-0.976063
-0.046883,-0.108114,0.608603,0.070442,-0.280715,0.957203
0.310233,-0.218893,0.771096,-0.479880,-0.645341,-0.594348
-0.057597,0.307986,0.051947,0.431685,-0.371406,-0.822013
0.103443,0.102901,0.832539,-0.000307,0.146105,0.989269
0.869556,-0.443516,-0.983129,0.291873,0.359755,0.886220
0.537968,-0.332816,0.616844,0.107936,0.042408,0.993253
-0.303284,0.736819,0.117676,0.510043,0.328139,-0.795098
0.598195,-0.229478,0.621051,-0.744591,-0.275243,-0.608133
0.349275,-0.388843,0.789973,-0.178620,0.131365,0.975109
0.034143,-0.745534,0.603947,0.670679,0.011127,0.741664
0.615327,-0.606741,0.404070,-0.328502,0.938079,0.109977
0.726323,-0.439656,0.048050,-0.092491,0.995580,0.016332
0.488937,-0.396045,0.054246,-0.446513,0.556732,-0.700482
0.146973,0.135888,0.816915,0.237250,0.085693,0.967662
-0.350868,0.058095,0.238694,-0.122681,0.853266,0.506839
-0.188572,0.855438,0.067220,-0.453955,0.297095,0.840035
0.114253,-0.680037,0.230356,0.807226,-0.552210,0.208447
-0.111406,0.106681,0.203705,-0.027365,-0.055244,0.998098
0.480781,-0.079901,0.518249,0.998547,0.035263,-0.040749
-0.316989,0.897816,0.120657,-0.145839,0.365327,0.919384
0.800304,-0.512674,-0.983090,-0.272413,-0.060668,0.960266
0.237265,-0.455891,0.297020,-0.751071,0.058846,-0.657593
0.630432,-0.065775,0.521074,-0.059261,-0.733251,0.677371
0.647130,-0.383710,0.008738,-0.519823,-0.834296,0.183667
0.741331,-0.618241,0.132093,0.916637,-0.251281,0.310861
-0.106629,0.452827,0.192250,-0.259212,0.440106,0.859718
0.811548,-0.412399,-0.730380,0.884066,0.465669,0.039750
0.302077,-0.012853,0.675112,0.864101,0.464039,0.194930
0.075791,0.114082,0.183503,0.737326,0.462718,0.492181
0.584393,-0.602842,0.292364,0.316208,0.820845,0.475632
-0.584345,0.750069,-0.081850,-0.640977,-0.092804,0.761929
-0.251888,0.754486,0.094903,0.875705,-0.281083,0.392597
0.585551,-0.180733,0.036479,0.888921,0.420852,-0.180838
0.164636,-0.748518,0.625064,0.664141,-0.181405,-0.725265
0.527544,-0.138435,-0.236512,-0.794292,-0.563391,0.227356
0.192723,0.311249,0.141911,-0.013456,-0.514037,0.857663
0.097459,0.117942,0.819351,0.287523,-0.170488,0.942478
0.244746,-0.567188,0.295403,-0.522028,0.096206,-0.847485
0.108462,0.270741,0.173568,0.107245,0.861486,0.496327
-0.215356,-0.285783,0.225174,-0.638567,0.203507,-0.742171
0.185870,0.500577,0.156327,-0.174946,-0.149666,0.973136
0.440195,-0.281247,0.471416,-0.341026,-0.938231,0.058521
0.171730,-0.305917,0.843215,0.058841,0.829746,0.555032
0.560118,-0.516493,0.363198,-0.158551,0.248108,0.955669
-0.014309,-0.314950,0.305748,0.139361,-0.421178,-0.896207
0.804503,-0.418368,-0.370757,-0.376327,0.892595,-0.248299
-0.030138,0.737575,0.108053,-0.407132,0.017098,0.913209
0.721932,-0.423262,0.009633,-0.065251,0.968602,0.239900
0.501242,-0.474156,-0.181204,0.319941,0.664593,0.675244
0.608619,-0.356492,-0.308261,-0.275374,0.915048,-0.294714
0.378858,-0.465800,0.302105,0.413532,0.840696,0.349602
0.073909,-0.023875,0.080545,-0.256121,-0.681268,0.685767
0.645151,-0.394095,0.177756,0.097069,-0.986104,0.134820
-0.058852,-0.254626,0.294624,0.862350,0.182369,0.472329
0.160630,0.580876,0.165814,-0.722469,0.183951,-0.666483
0.421664,-0.230074,0.073220,-0.339572,-0.914014,0.221969
0.280313,-0.206160,0.025043,0.332798,-0.587719,0.737450
0.091909,0.493255,0.146236,-0.395219,-0.475644,0.785853
0.423449,-0.002387,0.104234,0.128917,-0.318420,0.939143
0.036943,-0.452748,0.266922,0.806039,-0.432423,-0.404118
0.764448,-0.460109,-0.076201,0.734021,0.677134,0.051987
-0.200348,0.703474,0.118670,0.171267,0.575957,0.799338
0.345800,-0.214914,0.105208,-0.416878,0.895932,-0.153361
-0.152282,-0.152799,0.688495,-0.176722,0.954985,-0.238271
0.745723,-0.415065,-0.343269,0.718574,0.691885,-0.070332
0.470019,-0.307946,0.473851,0.437918,0.889911,-0.127619
0.471032,-0.118698,-0.242551,0.925266,0.379144,0.011539
0.429047,-0.703553,0.380049,0.326697,0.776107,0.539377
-0.725503,0.520632,0.113741,-0.402656,-0.352933,0.844575
0.291991,0.062194,0.166438,-0.542737,-0.026315,-0.839491
-0.197597,0.545541,0.063538,0.547440,0.637915,-0.541640
-0.093791,-0.506466,0.265461,-0.570764,0.323792,-0.754577
-0.057067,-0.014683,0.600655,0.894101,-0.108363,0.434559
-0.606447,0.867972,-0.079181,-0.447499,-0.137323,0.883678
-0.365490,0.309936,0.110897,0.991604,0.125978,-0.029180
0.332963,-0.113486,0.494891,0.873748,-0.106562,0.474561
0.334942,-0.230671,0.752433,-0.421102,-0.505042,-0.753396
-0.106870,0.416856,0.195231,0.270965,-0.432548,-0.859931
0.643993,-0.026104,0.595648,-0.654088,0.369508,0.660024
0.486765,-0.553620,0.286345,0.395888,0.892071,0.217903
0.092537,-0.195058,0.303936,0.394503,0.087982,-0.914673
0.562917,-0.172855,0.470793,-0.786980,0.312690,0.531872
-0.125498,0.306315,0.206725,-0.696710,0.083263,0.712505
0.267524,0.007839,0.665780,-0.363672,-0.099759,0.926170
-0.256956,0.916875,-0.004179,0.939017,0.162100,-0.303266
-0.055378,0.293064,0.230414,0.199886,0.228755,0.952742
0.573872,-0.316621,-0.234603,-0.770109,0.518142,-0.372103
0.608764,-0.507143,-0.335009,-0.083237,0.415827,0.905627
0.192095,0.057698,0.825935,-0.011140,-0.516200,0.856395
-0.033902,0.211849,0.215686,0.478762,0.425965,0.767685
0.299568,-0.248657,0.890009,0.955842,-0.249649,-0.155055
-0.520981,0.750905,0.007296,0.393665,0.919254,-0.000519
0.382380,-0.235765,0.778732,0.988960,-0.121638,-0.084625
0.095963,-0.048864,0.778479,0.239251,0.968972,-0.062060
-0.354294,-0.223827,0.204641,0.128613,0.612726,0.779760
-0.259706,0.510366,0.228934,-0.468929,-0.867902,0.163863
0.109765,0.133500,0.830046,0.309277,0.190716,0.931652
0.098618,-0.828101,0.538432,0.293665,0.264601,0.918557
0.133605,-0.753572,0.609226,-0.468024,0.029606,0.883220
-0.660739,0.142295,0.230960,-0.727915,0.666985,0.158966
0.819511,-0.311170,-0.245473,0.921456,-0.179592,-0.344479
0.372391,-0.068004,0.881632,0.886339,0.461531,-0.037315
0.928384,-0.449923,-0.985740,-0.049076,0.279152,0.958992
-0.228772,0.565835,0.163399,-0.323958,-0.295115,-0.898865
-0.039934,0.376945,0.182607,-0.768891,-0.217576,-0.601222
0.555244,-0.225419,0.582946,0.548901,0.514716,0.658616
0.158989,-0.013290,0.194530,0.768773,-0.010084,0.639443
-0.066284,0.652779,0.109825,0.937763,-0.230590,0.259669
0.430977,0.125104,0.464481,0.858102,0.501178,-0.111719
0.427937,0.113645,0.457877,0.804739,0.541931,-0.242292
0.491784,-0.181330,0.568783,-0.638002,0.752688,0.162523
-0.065560,-0.566790,0.268149,-0.481098,0.280663,-0.830526
0.502593,-0.857587,0.465533,0.003411,0.584248,0.811568
0.203340,-0.540687,0.302689,-0.013491,-0.135290,0.990714
-0.307627,0.719908,0.109221,0.935609,-0.199857,-0.291022
0.581642,-0.395727,0.302943,0.892838,-0.449497,0.028150
-0.611081,-0.325813,0.220907,-0.064782,-0.356606,-0.932006
0.505876,-0.314114,0.442194,-0.535767,-0.838820,-0.096613
0.315252,-0.567188,0.228232,-0.500792,0.793407,-0.345995
0.083512,-0.825555,0.528905,-0.634002,0.417836,-0.650734
0.107980,-0.158490,0.320398,0.051601,-0.550467,0.833261
-0.015177,0.293462,0.198134,-0.026009,0.168749,0.985316
0.475907,-0.300546,0.785921,-0.523543,-0.095151,0.846669
0.747171,-0.421830,-0.171405,-0.593102,-0.803285,-0.054437
0.564945,-0.293701,0.355016,-0.751511,0.584464,-0.305994
-0.345463,0.406788,-0.030478,0.307400,-0.091305,0.947190
0.957918,-0.430663,-0.985292,0.047841,0.150508,0.987451
-0.157542,0.688114,0.109494,0.875221,-0.349017,-0.334927
0.892768,-0.659146,-0.164178,0.833189,0.359110,0.420519
0.759718,-0.425172,0.154691,-0.680281,0.591944,0.432226
-0.688102,-0.123990,0.084149,0.036981,0.606280,0.794391
0.462539,-0.268115,0.524327,-0.894139,0.447219,-0.022605
0.133219,0.344395,0.134625,-0.670542,-0.320886,0.668884
0.587868,-0.601329,0.315352,-0.078206,0.858644,0.506572
0.792004,-0.447217,-0.899224,-0.652862,-0.753587,-0.076665
0.596506,-0.531973,0.192679,0.135612,-0.631095,0.763760
0.340009,0.174326,0.695041,0.684152,0.521160,-0.510224
0.535989,0.123433,0.784888,0.867637,0.485821,-0.105758
0.707116,-0.442919,-0.049005,-0.600625,-0.780208,-0.174712
0.399271,-0.782381,0.438396,0.967018,-0.049993,0.249755
-0.195474,0.761808,0.102189,0.840004,0.423935,-0.338633
0.516493,-0.041184,0.495631,0.918495,-0.102666,0.381873
-0.422436,0.657912,0.054518,0.350558,0.238572,-0.905645
0.041961,-0.447018,0.256461,-0.610384,0.323467,0.723050
0.291364,-0.237476,0.798915,0.266070,-0.550633,-0.791208
0.076418,0.553022,0.147814,-0.512655,-0.337942,0.789291
-0.189586,0.749433,0.102831,0.960536,-0.154611,0.231229
0.590425,-0.315228,-0.265792,0.383303,-0.835587,0.393539
0.155901,-0.179659,0.023309,0.427218,-0.486303,0.762230
0.619960,-0.344913,-0.308475,-0.364412,0.818401,-0.444323
-0.217817,0.345032,0.182120,-0.585719,0.262530,0.766819
0.610983,-0.245514,0.001627,-0.405405,-0.789965,0.460003
-0.323263,-0.561737,0.322599,0.776654,0.254749,-0.576118
0.364332,0.049421,0.777388,0.984143,0.092774,0.151181
0.304780,-0.316303,0.768466,0.295067,-0.229293,0.927556
0.393239,-0.330588,0.640162,-0.112902,-0.693063,0.711980
0.712038,-0.440254,-0.053232,0.640258,0.752393,0.154834
0.161209,0.356014,0.133456,0.554740,0.303759,-0.774593
0.407717,-0.240938,-0.093929,0.944122,0.198268,0.263295
0.601911,-0.292706,0.587096,-0.815098,-0.142859,-0.561433
0.104987,-0.334607,0.231778,0.216465,0.646664,0.731416
-0.245422,-0.193347,0.284689,0.645342,0.032858,-0.763187
0.184759,-0.371892,0.282390,0.070659,0.745192,-0.663096
0.085056,-0.172417,0.610064,0.289737,-0.247074,0.924666
0.719470,-0.573237,0.106494,0.835507,-0.009513,0.549397
0.418913,-0.414747,-0.175360,0.529504,-0.775610,0.343590
0.279299,-0.063547,0.834682,0.181647,-0.941237,0.284739
-0.028400,-0.399666,0.297819,0.219379,-0.020102,0.975433
-0.175929,0.447734,0.177250,0.098639,0.274935,0.956390
-0.136453,0.496001,0.191724,0.562129,0.002552,0.827046
-0.256280,0.096534,0.207485,-0.364565,0.753444,0.547187
-0.015033,0.274044,0.202712,-0.311686,0.132903,0.940845
-0.262361,-0.074768,0.309430,0.040495,-0.999010,-0.018430
0.597037,-0.597469,0.346736,-0.119352,-0.961017,0.249400
0.386723,-0.661772,0.371517,-0.613168,-0.733822,-0.292454
0.021885,-0.745653,0.598044,0.273131,-0.279430,0.920499
0.719084,-0.403645,-0.471475,-0.308150,-0.851363,-0.424529
-0.037087,0.047312,0.081500,-0.088221,-0.344695,0.934560
0.327558,-0.646453,0.200277,0.072398,-0.303430,0.950099
0.128393,0.263022,0.089409,-0.779344,0.103789,0.617941
-0.112082,0.759341,0.082552,0.668829,-0.720380,-0.183628
0.629467,-0.059051,0.606577,-0.101178,0.039474,0.994085
0.509206,-0.663483,0.357997,0.850035,-0.262122,-0.456873
0.306517,-0.829335,0.433486,0.304107,-0.782945,0.542693
0.503415,-0.634436,0.300137,0.226396,0.798198,0.558234
0.068358,-0.206359,0.608233,-0.118625,-0.848835,0.515177
0.606062,-0.360352,0.307112,0.923588,-0.383367,0.003934
0.219940,0.398512,0.143119,-0.401127,-0.124724,-0.907492
0.265594,-0.206558,0.779161,-0.387478,-0.330536,-0.860585
0.460367,-0.425252,-0.053057,-0.638848,-0.736241,-0.223209
-0.580726,-0.331105,0.199361,0.510624,0.502669,0.697559
-0.347200,-0.515977,0.260824,0.499249,-0.776288,-0.384873
0.158169,0.081851,0.808850,0.686502,0.407102,0.602480
-0.892817,0.541125,0.071136,0.544300,0.059023,-0.836811
0.348068,-0.224106,0.122118,-0.309925,0.831404,-0.461208
0.144270,-0.029884,0.800532,0.145639,-0.987565,0.059197
0.667061,-0.437110,0.245921,-0.256899,-0.959274,0.117457
0.679125,0.040587,0.615733,-0.085599,-0.620293,0.779685
0.510026,-0.634754,0.423336,-0.490102,0.031880,0.871082
0.823227,-0.519359,-0.981181,-0.103460,-0.141115,0.984572
0.214053,-0.391111,0.271480,0.197699,0.979564,0.037006
0.509302,-0.676455,0.356302,0.444255,0.118029,-0.888092
0.511184,-0.202857,-0.261409,0.876729,0.244945,0.413941
0.099679,0.368748,0.084149,0.687733,0.429846,-0.585026
-0.665758,-0.198480,0.252350,0.776109,-0.350632,-0.524130
0.347924,-0.481278,-0.163301,0.851152,-0.463121,-0.247102
0.069517,0.634754,0.136495,-0.307477,0.116559,0.944390
0.375866,-0.198281,-0.053992,0.887404,0.310974,0.340308
0.709287,-0.420079,0.053797,0.048148,-0.971002,0.234171
0.324035,-0.222275,0.124573,-0.006016,-0.451110,0.892448
0.149965,-0.238152,0.798720,-0.012057,0.605262,0.795935
0.469826,-0.249772,-0.125547,-0.747890,-0.618667,-0.240647
-0.029221,0.510803,0.158217,-0.615762,0.767435,0.178550
-0.131434,-0.557042,0.287611,-0.246146,0.535737,-0.807711
0.545738,-0.097291,0.592784,0.996602,0.073716,-0.036757
0.331805,-0.024751,0.823675,0.946008,-0.236779,-0.221371
0.658519,-0.353627,-0.322599,0.543549,-0.833235,0.101359
0.854692,-0.387251,0.153483,-0.110338,0.467205,0.877237
0.236541,-0.460189,0.318703,0.256244,-0.558074,0.789236
-0.223705,-0.533366,0.285955,0.963105,0.161938,-0.214955
0.504862,-0.523418,0.269883,0.233123,0.471871,0.850289
-0.020293,0.144761,0.238421,0.562887,-0.318805,0.762576
0.396424,-0.205921,0.120443,0.617151,0.782714,-0.080516
0.167097,-0.515857,0.310988,0.498541,0.504579,-0.704881
0.124870,-0.711870,0.240720,0.733410,-0.668096,0.125527
0.513018,-0.319765,0.433817,0.463135,0.886218,0.011145
0.189827,-0.104055,0.794122,0.990710,-0.052739,0.125346
0.036121,0.348972,0.068058,0.912218,-0.269226,-0.308831
0.442318,-0.204170,0.617272,-0.202677,-0.682133,0.702579
0.567068,-0.653535,0.430817,-0.546547,0.565799,0.617380
0.016191,0.506665,0.128449,-0.360119,0.245998,0.899889
-0.279685,0.719271,0.101117,-0.790989,0.509352,-0.338964
0.466496,-0.261192,0.520743,0.552654,-0.830152,0.073632
0.659726,-0.413155,0.177932,-0.636645,-0.750979,-0.175250
0.300051,-0.746210,0.467013,0.760837,0.583857,0.283265
-0.354680,-0.552585,0.307034,0.669336,0.643371,-0.371568
0.023236,0.382476,0.164061,-0.417639,-0.315416,-0.852109
-0.358637,-0.098524,0.301482,0.103923,0.784610,0.611217
0.737278,-0.509013,0.169983,-0.301839,0.084051,-0.949647
0.788239,-0.419522,-0.317690,0.620279,-0.782883,0.048467
-0.061265,0.330309,0.227687,0.549021,0.402845,0.732319
0.336969,-0.086626,0.640533,-0.099893,-0.489356,0.866344
0.787129,-0.489754,-0.096188,0.996878,-0.011459,-0.078119
0.663296,-0.386654,-0.108598,0.046527,-0.937596,0.344601
-0.191661,0.681827,0.123754,-0.365747,0.153748,0.917927
-0.140699,-0.402412,0.254629,-0.015662,0.979898,0.198882
0.258934,0.069556,0.812104,-0.526468,0.782448,-0.332576
-0.742731,-0.345112,0.168795,-0.674862,-0.614659,0.408356
0.668219,-0.498309,-0.991000,-0.211109,0.218180,0.952801
-0.239341,-0.167721,0.247032,0.853800,0.470016,0.223854
0.352171,0.197923,0.137859,0.330095,0.236903,-0.913736
-0.215404,-0.268871,0.294527,0.909781,0.256814,0.326106
0.192674,-0.180654,0.569718,0.134931,-0.642888,0.753982
0.659629,-0.375393,-0.099890,-0.600557,-0.796561,-0.069441
0.342277,-0.111058,0.786953,-0.087777,-0.912721,0.399042
0.095143,-0.787474,0.628552,0.057941,-0.997429,0.042172
-0.407717,0.812064,0.102656,0.571069,-0.054042,-0.819121
0.340347,-0.216983,0.824455,-0.780378,0.494325,0.382954
0.537968,-0.296447,-0.221511,0.564019,-0.719052,0.406013
-0.093647,0.657833,0.119430,-0.470817,0.510696,-0.719389
0.198272,-0.227170,0.798291,-0.062320,0.524494,0.849131
0.634245,-0.042975,0.553997,0.606721,0.474663,-0.637640
0.709673,-0.413155,-0.084772,-0.620782,-0.778675,-0.091076
0.879594,-0.424416,-0.810564,-0.323149,0.945321,-0.044083
-0.336101,0.862282,-0.031102,-0.856104,0.113394,0.504209
0.179210,-0.666945,0.243739,0.499567,-0.841624,0.205188
0.380305,-0.820938,0.446987,-0.119676,-0.991357,0.053746
0.005139,0.455613,0.125352,-0.023756,-0.837649,0.545692
0.365683,-0.425053,0.257473,0.370775,0.743578,0.556433
0.117342,0.017667,0.853267,-0.517196,0.797012,0.311898
-0.074054,0.530938,0.109748,0.394598,0.770782,-0.500187
-0.182251,0.177470,0.171405,0.589150,0.772531,-0.236851
0.795768,-0.442680,-0.631162,0.748858,0.662418,-0.020366
0.319257,0.163463,0.134606,0.505593,-0.234468,0.830302
-0.319210,0.470733,0.172146,0.482778,0.093916,-0.870692
-0.245566,-0.228363,0.280695,0.701444,0.048803,-0.711051
0.380788,-0.162071,0.724906,-0.270689,-0.928038,0.255877
0.458147,0.142891,0.484274,0.847362,0.511942,-0.141047
0.513018,-0.001472,0.095351,-0.074047,-0.587387,0.805912
0.773375,-0.613744,-0.305222,-0.377953,0.712138,0.591617
0.478995,-0.725479,0.410810,0.803961,-0.515178,0.297048
-0.135101,0.865624,0.071253,0.500505,-0.348768,-0.792373
0.246627,-0.433210,0.288897,0.504897,0.733425,0.455156
0.535362,-0.347221,0.370387,-0.258852,0.961627,-0.090936
-0.883358,-0.222196,0.154145,-0.371270,0.413328,-0.831456
0.593031,-0.316701,-0.056252,-0.070335,-0.946766,0.314146
0.178679,0.506068,0.155899,-0.209501,-0.364162,0.907467
0.665420,-0.374319,-0.095156,-0.745331,-0.629427,-0.219780
0.583959,-0.366440,0.289715,-0.216126,-0.972769,0.083720
0.278286,-0.267319,0.812707,0.736199,-0.494521,-0.462018
0.359506,-0.297283,0.778966,-0.417204,-0.411622,0.810252
0.083126,-0.208627,0.303488,0.365349,-0.229932,0.902026
0.468957,-0.668776,0.355386,-0.168151,0.399659,0.901109
0.098424,0.464287,0.122157,-0.394425,-0.609231,0.687943
-0.064981,0.753094,0.107235,0.461733,-0.095640,-0.881848
0.389329,0.089570,0.119215,-0.268621,-0.512196,0.815781
0.372729,-0.196093,0.117248,0.547762,0.806629,0.222048
-0.171006,0.763241,0.094552,0.885241,-0.055172,0.461850
0.134763,-0.138554,0.327547,-0.094379,-0.556733,0.825313
0.607268,-0.353110,0.042537,0.113127,-0.748439,0.653484
0.526048,-0.092834,0.469585,0.559736,0.590749,-0.581129
-0.069228,0.256456,0.220225,0.662280,0.283665,-0.693483
-0.116715,0.515737,0.177562,-0.449342,0.124838,-0.884594
-0.434067,0.418567,-0.020114,-0.362249,0.158087,-0.918577
0.652004,-0.361386,-0.394563,0.157991,-0.946181,0.282453
-0.212605,-0.491982,0.275045,0.630701,0.008083,0.775983
0.064064,0.090605,0.096403,0.071770,0.121220,-0.990028
0.294839,-0.756954,0.486300,0.039023,-0.994797,0.094104
0.467075,-0.047313,0.713003,0.875320,-0.425154,-0.230344
0.598388,0.073137,0.602369,-0.072335,-0.756769,0.649667
0.444924,0.124547,0.662644,-0.464177,-0.772339,0.433628
0.553314,-0.350086,-0.203179,-0.629213,-0.644873,-0.433856
0.166566,-0.072182,0.882587,-0.812131,0.458627,-0.360700
0.664020,-0.343361,-0.335125,-0.373168,0.902391,-0.215492
0.003981,0.575107,0.132229,-0.371794,0.044648,0.927241
-0.077191,0.453543,0.194919,0.175324,0.626399,0.759530
0.505683,-0.343480,0.613882,-0.591522,0.750741,-0.294090
0.299375,-0.255620,0.904678,-0.803182,0.079877,0.590355
0.267090,-0.616768,0.209238,-0.496446,0.619505,-0.608075
0.372825,-0.065736,0.883191,0.886339,0.461531,-0.037315
0.172260,-0.782778,0.508333,-0.537723,0.807442,-0.242678
0.785682,-0.441845,-0.658611,0.932961,0.359320,0.021754
-0.157397,-0.098603,0.326476,0.699236,0.482881,-0.527158
0.623676,-0.471768,-0.156502,-0.531188,0.581065,0.616605
0.305890,-0.074291,0.862385,0.859712,0.461965,0.217906
0.498009,0.007441,0.509580,0.872631,0.220020,-0.436012
-0.387207,0.375552,0.168717,0.937084,-0.135668,-0.321663
0.599546,-0.343799,-0.297585,0.449754,-0.824324,0.343818
-0.029076,0.653933,0.148515,-0.699291,-0.118611,0.704929
-0.115025,0.656838,0.128547,0.241603,-0.199956,0.949550
-0.222354,-0.412757,0.265987,0.732753,-0.247769,0.633785
0.144415,-0.024154,0.767784,-0.254243,-0.966970,0.018130
-0.369013,-0.116867,0.299280,0.100279,0.774848,0.624143
0.724778,-0.473638,0.133456,0.927777,-0.279021,-0.247746
-0.096832,0.503323,0.151262,0.796613,0.479881,0.367589
0.486571,-0.733238,0.349834,0.975113,-0.195881,-0.103855
0.665178,-0.419601,-0.126910,-0.734663,-0.646833,0.204640
0.628309,-0.004695,0.580141,-0.019739,-0.718281,0.695473
0.289241,-0.262386,0.808656,0.731247,-0.554769,-0.396873
0.092826,0.558036,0.183445,-0.185318,-0.664152,0.724265
0.154839,-0.375791,0.276390,-0.484078,-0.795301,0.364917
0.599933,-0.341570,-0.055979,-0.298925,-0.519312,0.800599
0.044422,0.662131,0.139320,0.556732,0.066465,-0.828029
-0.076756,0.493732,0.089760,0.805858,0.538422,-0.246362
0.101513,-0.688950,0.254960,0.959634,-0.280563,0.019672
0.463359,-0.054753,0.681112,-0.612285,-0.620924,0.489449
0.671114,-0.535912,-0.993259,-0.078001,0.079742,0.993759
-0.209661,-0.479448,0.278104,0.193879,0.292697,-0.936344
0.515382,-0.452270,0.240953,-0.427596,0.657589,-0.620273
0.646213,-0.406192,0.202225,-0.329677,-0.861166,0.386919
0.556258,-0.341292,0.367484,0.569281,-0.812621,0.124765
0.631687,-0.413513,0.183503,-0.061819,-0.988658,0.136871
-0.156432,0.585731,0.170626,-0.197096,0.686102,0.700298
0.349565,-0.162469,0.871833,-0.657010,0.458332,-0.598556
0.585213,-0.610004,0.359828,0.494417,-0.491199,-0.717130
0.182829,-0.793124,0.520821,-0.326880,0.598188,-0.731657
0.411240,-0.730492,0.457760,0.627812,0.019626,0.778117
0.072075,-0.540926,0.280325,0.273660,0.718349,0.639597
0.519967,-0.319446,0.448117,0.567527,0.823048,-0.022460
-0.634824,-0.088934,0.288565,-0.139997,-0.718132,0.681680
0.379050,-0.275238,0.786642,0.950303,-0.274627,0.146642
0.020582,0.421113,0.161996,-0.445162,-0.522911,-0.726908
-0.031103,-0.159723,0.636558,0.074565,-0.969620,-0.232973
0.763531,-0.436274,-0.998149,-0.311132,-0.008676,0.950327
0.759477,-0.442601,-0.509580,0.000642,-0.988810,0.149180
0.406848,-0.559827,0.250811,-0.402592,0.913979,0.050621
-0.213426,-0.459115,0.259870,0.920396,0.121251,0.371711
0.421519,-0.006446,0.688632,0.876448,0.360993,-0.318626
0.347199,-0.369027,0.788531,-0.249219,0.113563,0.961766
0.576816,-0.271577,0.554172,-0.474374,0.840099,0.263063
0.530198,-0.289006,0.618207,-0.390458,0.735903,-0.553163
0.155852,0.085910,0.824416,0.731302,0.351525,0.584489
0.144222,-0.669890,0.225836,-0.619284,0.502799,-0.603059
0.327799,-0.105209,0.925952,-0.168365,0.484884,0.858219
0.545593,-0.275000,0.620798,0.163499,-0.930327,0.328269
0.355935,-0.036091,0.818104,0.959798,-0.243974,-0.138796
0.588495,-0.094903,0.558341,0.420975,-0.855269,-0.302150
-0.164732,0.774740,0.089740,0.526107,0.003119,-0.850413
0.360713,-0.768971,0.425324,0.139143,-0.691976,0.708384
0.482518,-0.267478,0.521269,-0.171046,0.797710,0.578275
-0.223077,-0.325574,0.227648,0.894602,-0.352507,-0.274637
0.788094,-0.431340,0.181847,0.250875,0.858285,0.447670
0.139541,-0.647288,0.229304,0.531690,-0.675329,0.511114
0.202905,-0.111098,0.028686,0.437185,-0.564316,0.700298
0.174529,-0.054872,0.807662,-0.666097,-0.737794,0.109427
0.045725,0.294497,0.193107,0.089734,0.843676,-0.529300
-0.121010,0.626756,0.117735,0.930131,0.244192,0.274276
0.574355,-0.595599,0.350477,0.355288,0.608859,-0.709268
0.150496,0.598345,0.146255,-0.757665,-0.168567,-0.630499
-0.056343,-0.143806,0.644877,0.351718,-0.678001,0.645453
0.237941,-0.279933,0.807993,0.309893,0.758739,0.572958
-0.301595,0.640444,-0.057421,-0.385374,-0.158146,0.909108
-0.179499,0.268831,0.234992,0.083512,0.809908,0.580581
0.712569,-0.481199,-0.992207,-0.071077,0.319999,0.944748
0.334652,0.148502,0.129482,-0.725386,-0.136052,0.674763
0.697223,-0.390673,-0.140333,0.601222,0.799008,-0.010837
0.525372,-0.301660,0.461286,-0.432169,0.854658,-0.287733
0.096397,0.220604,0.215258,0.437306,-0.857976,-0.269520
0.134570,-0.556564,0.299826,-0.620012,-0.214658,0.754657
-0.280265,0.820779,0.124962,-0.026204,-0.083763,0.996141
0.795188,-0.459552,0.163593,-0.573494,0.061600,0.816890
0.570012,-0.460030,0.198582,0.731185,-0.589187,0.343842
0.138720,-0.082408,0.166944,0.018183,-0.723757,0.689815
0.925778,-0.494927,-0.977616,0.014448,-0.070437,0.997412
0.227710,0.359914,0.152139,0.243671,0.265562,-0.932792
0.150496,0.030958,0.857417,-0.430601,0.775235,0.462162
0.152571,-0.372489,0.277013,-0.484078,-0.795301,0.364917
-0.284752,0.728542,0.110741,-0.449853,0.532955,0.716652
0.050455,-0.530540,0.280676,0.219945,0.128169,-0.967056
0.327848,-0.500617,-0.180640,0.590908,-0.704256,-0.393513
0.544579,-0.004457,0.728724,0.724947,-0.494211,-0.479799
0.627633,-0.354065,-0.343132,-0.055878,-0.988680,0.139248
0.100886,-0.152481,0.309255,0.584637,0.270467,-0.764884
