-0.180956,0.131951,0.168701,0.963360,0.126141,-0.236698
0.355733,0.623891,0.591394,-0.200362,-0.600663,0.773989
-0.016610,0.177708,0.839433,-0.403348,0.766356,0.500009
0.305472,-0.163381,0.820081,0.773074,0.125830,-0.621710
-0.390812,0.068110,0.912895,0.924997,-0.320217,-0.204551
0.585280,-0.152002,0.377607,-0.110152,0.203162,0.972929
-0.593197,-0.494039,0.667099,-0.602427,0.688471,0.403844
-0.185500,-0.293910,0.932771,0.877435,-0.129728,0.461821
0.252423,-0.196369,0.472949,0.859569,0.232428,-0.455102
0.449782,0.389656,0.243562,0.177037,-0.432280,0.884190
-0.107251,-0.061471,0.879217,0.791371,0.535813,0.294340
0.026284,0.070413,0.839989,0.865530,0.500834,0.004821
-0.662737,-0.353519,0.879074,0.831369,0.365578,-0.418542
-0.155756,-0.522658,0.527854,-0.703439,0.688280,-0.177324
0.648828,-0.149732,0.543914,-0.681699,0.442330,0.582778
-0.354080,-0.330387,-0.022619,-0.688956,-0.006378,-0.724775
-0.242887,-0.410249,0.359273,-0.639123,-0.067814,0.766109
0.108319,0.523335,-0.038552,0.056596,0.087910,0.994519
-0.387610,-0.679604,0.374729,-0.437298,0.408749,0.801059
-0.309775,-0.463083,0.850325,0.391910,-0.164698,0.905141
0.015784,0.783208,0.272597,0.347601,-0.349733,-0.869977
-0.598465,-0.391689,0.828763,-0.451656,-0.080910,-0.888516
-0.202988,0.483167,0.033622,0.538704,-0.315762,-0.781084
-0.591889,0.012362,0.838574,0.708408,-0.343705,0.616461
-0.583593,-0.374687,0.823293,-0.375533,-0.124222,-0.918447
-0.450780,-0.128903,0.870249,-0.622140,-0.630635,-0.463941
-0.414083,0.670291,0.394764,0.871150,0.166873,0.461791
-0.161059,-0.830725,0.659196,0.240133,0.431982,-0.869326
0.139198,0.304545,0.684860,-0.008178,-0.931865,0.362712
-0.350225,-0.450857,0.861742,-0.098663,0.124962,-0.987244
0.746872,0.225496,-0.048474,0.305810,-0.099856,-0.946842
-0.116753,-0.820396,0.637030,0.135657,0.482079,0.865562
-0.394461,-0.017239,0.232559,-0.613764,0.614123,0.496131
-0.292321,0.473244,-0.974924,0.080772,-0.201315,-0.976191
0.062671,0.085687,0.317978,-0.706161,0.404384,0.581215
-0.296349,0.517171,-0.491505,-0.539318,0.768667,0.343930
0.143604,-0.431891,0.750133,0.819435,0.329680,0.468868
-0.638776,-0.206123,0.853537,-0.501854,0.228271,0.834287
-0.170250,-0.539660,0.841547,0.145465,-0.857699,0.493145
0.342272,0.164397,0.277177,0.592404,0.482751,0.644988
-0.284541,-0.455395,0.546474,0.740306,0.579359,-0.341014
0.063670,-0.306984,0.356125,0.983371,0.112848,-0.142290
-0.598568,-0.606957,0.013190,0.088079,0.161052,0.983008
0.513330,-0.106211,0.759149,-0.274079,-0.244932,0.929994
-0.544107,0.405067,0.842613,-0.230335,0.591434,-0.772756
0.353976,0.583723,0.444438,-0.330860,0.010709,0.943619
-0.383755,0.441848,-0.970711,-0.005921,0.216678,0.976225
-0.044254,0.086331,0.290438,-0.390984,-0.525472,0.755653
-0.286710,0.793403,0.417073,0.411422,0.747127,0.522047
-0.143846,-0.018221,0.930465,-0.199312,-0.938134,0.283161
0.320034,-0.432602,0.812528,0.256682,-0.254213,0.932464
-0.219581,0.473989,0.912815,-0.645408,0.268054,-0.715259
-0.082259,0.370826,0.769516,0.882012,-0.222213,0.415544
-0.337418,0.764580,-0.997233,0.051385,0.318738,0.946449
0.303371,0.521947,0.611175,-0.439591,0.897132,-0.043740
0.561527,-0.490415,0.628905,-0.173082,-0.379540,0.908841
-0.449403,0.325950,0.956940,0.107357,0.212975,0.971142
-0.395666,0.169579,0.733421,0.660167,0.411385,0.628444
0.460179,-0.022726,0.472933,-0.326284,-0.500120,0.802133
-0.387851,0.384305,0.630542,-0.361131,0.245928,-0.899502
-0.070107,-0.610479,0.469116,0.975196,0.060572,-0.212894
-0.314560,0.471957,-0.307500,-0.628367,-0.766013,-0.135568
-0.126599,0.423525,0.845809,0.533490,0.326962,-0.780054
-0.512402,0.477342,0.902305,0.986401,0.123725,-0.108187
-0.498150,0.419054,0.912513,-0.619888,0.771639,0.142521
-0.220098,0.083283,0.931674,-0.605830,-0.403466,0.685701
-0.695062,-0.393958,0.299502,-0.415610,0.731476,0.540565
-0.334389,-0.213066,0.354471,0.529028,-0.115641,-0.840688
-0.148045,-0.673305,0.594161,0.049579,0.042456,0.997867
-0.413567,0.502811,0.885243,-0.045393,-0.869349,0.492110
0.405201,-0.474565,0.380024,0.931601,-0.220146,-0.289233
0.724702,-0.161383,0.583905,-0.448420,0.605880,0.657137
-0.468510,0.329438,0.920527,0.313999,0.329768,-0.890313
-0.236931,-0.072546,0.454488,-0.190639,-0.027759,-0.981268
0.072689,0.163314,0.056520,0.119369,0.948088,-0.294753
0.149698,0.632155,0.539557,-0.599533,0.123467,-0.790770
-0.353770,0.697419,-0.986357,-0.042644,0.222404,0.974022
0.132417,-0.093307,0.390884,0.104490,0.922686,0.371123
-0.312494,0.644517,-0.982907,0.026048,0.189991,0.981440
0.478114,-0.473041,0.621479,0.774866,0.628357,-0.068920
0.291495,-0.458240,0.783048,0.691622,-0.662318,-0.288086
-0.054788,-0.593748,0.430096,0.962753,-0.241289,0.122007
0.596743,0.243548,0.213239,0.223177,0.516149,-0.826912
0.099093,-0.617896,0.699982,0.793773,-0.231515,0.562428
-0.614232,-0.226411,0.539065,-0.218756,0.697049,-0.682839
-0.151488,0.619556,0.565969,0.174071,0.523302,0.834178
-0.160439,-0.302852,0.557255,-0.465408,0.694594,0.548575
-0.116270,-0.389792,0.877786,0.209596,-0.456374,0.864750
0.160129,0.688342,0.542944,0.600881,0.008385,0.799295
0.097682,-0.002371,0.894975,0.710537,-0.347458,0.611891
0.615126,-0.115119,0.704879,-0.196948,0.364208,0.910255
-0.346713,0.250931,-0.327948,-0.229825,-0.157762,0.960360
0.740812,-0.033360,0.618808,0.039788,-0.657017,0.752825
-0.304783,0.222075,0.341321,0.847630,-0.459259,-0.265715
-0.815481,-0.745987,0.183314,0.727503,0.291432,0.621134
0.365165,-0.146447,0.420046,0.397573,0.545832,-0.737566
-0.122606,-0.660333,0.454154,0.971681,0.001036,0.236294
-0.585693,-0.199384,0.881411,0.178205,-0.519376,0.835758
-0.117958,-0.351927,0.589439,0.387175,-0.545209,-0.743534
0.870768,0.170155,-0.019105,0.577462,0.187507,0.794594
0.107974,-0.656371,0.753091,0.747098,-0.661986,0.060154
0.307193,0.245309,0.514068,-0.228114,0.344980,0.910468
0.169493,-0.386270,0.506404,0.937939,0.346759,-0.005390
-0.430952,0.164567,0.942264,-0.307112,-0.072138,-0.948935
-0.541284,0.404830,0.906137,0.068217,-0.966424,0.247733
-0.070658,-0.658809,0.456936,0.962897,-0.155698,-0.220427
-0.392636,0.504572,0.877531,-0.230140,0.926758,-0.296910
-0.079952,0.079658,-0.147075,-0.553200,-0.268236,0.788682
-0.404995,0.166463,0.777896,0.001421,-0.896305,0.443436
-0.128114,0.119827,0.291662,-0.369502,-0.855970,0.361639
-0.561802,-0.056797,0.598629,-0.140808,0.286180,0.947773
-0.133070,-0.133950,0.678293,0.045860,0.889375,0.454872
0.150800,0.244903,0.512637,0.361352,0.146862,0.920791
0.095202,0.103604,0.937160,-0.571152,0.731578,0.372261
0.184915,0.598794,0.172103,0.570217,0.143892,-0.808794
-0.208049,-0.179943,0.905676,-0.716744,0.105112,-0.689369
-0.470678,-0.146617,0.874494,0.036403,0.485312,0.873583
0.335388,0.340107,0.463217,0.973072,0.083432,0.214871
-0.376526,0.392739,0.893655,0.505791,0.396026,-0.766381
-0.206361,-0.647633,0.510809,0.593160,-0.800570,-0.085141
-0.339725,-0.379496,0.654807,0.775543,-0.338425,-0.532918
-0.359519,-0.010093,0.602112,0.724672,-0.237928,0.646716
-0.290911,0.240432,0.984067,0.103087,-0.369533,0.923482
-0.255314,0.227833,0.924503,0.957389,-0.276708,0.082702
0.344062,-0.293369,0.464442,0.606774,0.765427,0.214352
0.819508,0.154745,0.222955,0.003450,0.209070,0.977895
-0.009106,0.146041,0.267859,0.408745,-0.746880,-0.524497
-0.269738,0.284359,-0.302729,-0.756468,0.278897,-0.591585
0.700328,-0.085484,0.628746,-0.304984,0.584344,0.752015
-0.541112,-0.577796,0.012029,-0.114001,0.111434,0.987211
-0.530750,-0.375635,0.313622,0.209002,0.311627,-0.926934
-0.187359,0.081081,0.963746,0.735718,-0.198914,0.647420
0.120781,0.627955,0.544153,-0.439819,0.234027,-0.867059
0.067422,0.459900,0.427997,-0.316306,0.877408,-0.360703
-0.159474,0.023098,0.562566,0.289754,0.526009,-0.799598
-0.235038,0.023640,0.969184,0.970625,0.051273,0.235070
-0.250873,0.079726,-0.020711,0.900445,-0.105409,0.422005
0.141504,-0.331674,0.856351,-0.186976,0.800009,0.570110
0.257552,-0.326119,0.543390,-0.147774,0.932135,0.330585
0.032893,0.255741,0.670040,0.723446,-0.659551,-0.204004
0.177342,-0.482727,0.779311,0.039876,0.883161,0.467372
0.196310,-0.166938,0.778643,0.388335,0.835543,-0.388669
-0.494432,0.311895,0.731100,-0.233157,-0.874156,-0.426015
-0.417147,0.053851,0.948036,-0.660364,0.472065,-0.584015
0.253765,-0.473921,0.295288,0.493062,0.782771,-0.379683
-0.297589,-0.281278,0.640815,0.705651,-0.558466,-0.436087
-0.020431,0.378141,0.734487,0.080266,-0.144649,0.986222
-0.611030,-0.329946,0.908331,-0.715576,0.648507,-0.259594
0.494982,0.186141,0.194015,0.009659,0.503361,0.864022
0.089591,-0.020389,0.870805,-0.654560,0.729747,0.197538
0.393566,-0.204667,-0.025084,-0.426234,0.773475,0.469105
0.835310,0.264106,0.216721,0.033188,-0.021866,0.999210
-0.141884,0.077796,0.701556,-0.745026,0.527544,0.408209
0.227671,-0.726309,0.479373,-0.387473,0.916190,0.102275
-0.055511,-0.560760,0.808394,-0.327034,-0.250723,0.911146
0.147839,0.216453,0.857862,-0.472382,-0.140639,0.870101
-0.327504,0.646244,0.358939,0.648900,-0.385102,0.656221
-0.044460,-0.430874,0.510141,0.743640,-0.568934,-0.351161
0.206189,-0.518560,0.816519,-0.605900,-0.792317,0.071549
-0.656919,-0.186818,0.787119,0.204197,-0.346094,0.915709
-0.239858,-0.024351,0.741881,0.201897,0.391456,-0.897775
-0.356593,-0.282734,0.623721,-0.500746,0.381468,0.777004
0.654061,0.040202,0.485129,0.703739,-0.141894,-0.696145
-0.653923,-0.405812,0.858991,0.821143,0.448464,-0.352994
-0.036060,-0.035426,0.286765,0.054276,0.348852,0.935605
-0.148700,-0.264343,0.548860,-0.515210,0.631578,0.579369
0.003460,-0.403780,0.586322,0.192466,0.823398,0.533829
-0.652408,-0.811048,0.238951,-0.071953,0.478166,0.875317
0.048522,0.265935,0.830671,0.511621,0.816394,0.267853
0.306229,0.245648,0.475063,0.777492,-0.628400,-0.024903
-0.342926,-0.519678,0.840896,-0.134561,0.606500,-0.783614
0.126909,0.026214,0.750753,0.609491,-0.666832,-0.428784
-0.614713,0.148276,0.362739,-0.568522,0.545077,-0.616177
-0.611856,-0.847558,0.208373,-0.524618,0.582657,-0.620715
-0.583593,-0.634153,0.240907,0.518882,0.805727,-0.285597
0.471470,-0.533157,0.651850,0.914383,0.325968,0.240100
-0.397732,-0.336009,0.894768,-0.450735,0.313063,0.835960
-0.066837,-0.001355,0.376748,0.216521,0.355431,0.909278
0.078610,-0.529161,0.831896,-0.238496,0.827185,0.508807
-0.229427,0.431247,0.901414,-0.434717,0.195445,-0.879103
-0.411157,0.678554,0.500155,-0.063445,-0.156726,0.985602
-0.140472,0.154542,0.949992,0.090559,-0.849281,0.520116
-0.146497,-0.160875,-0.051813,0.783340,0.064442,0.618244
0.323544,-0.532717,0.279943,0.911074,0.179563,-0.371081
0.012376,-0.400054,0.586751,0.192466,0.823398,0.533829
0.139198,0.918614,0.258016,-0.226769,0.712220,0.664318
0.044150,0.325916,0.860978,-0.609260,-0.441755,0.658525
-0.330224,0.287645,0.257587,0.973170,0.225465,-0.045882
-0.700295,-0.270406,0.885243,0.950450,0.232655,0.206197
-0.191214,-0.037933,0.550672,-0.526316,-0.643249,0.556078
0.160060,-0.284292,0.490042,0.698307,0.022706,-0.715439
-0.731518,0.357752,-0.052370,-0.454220,0.087164,-0.886615
-0.484310,0.422644,-0.976912,-0.096223,0.187154,0.977607
-0.398145,0.606516,0.480279,-0.606962,-0.287831,0.740777
0.173692,-0.309084,0.836841,-0.337487,-0.439233,0.832573
0.023667,0.010770,0.279482,0.951400,0.301373,-0.063343
-0.426029,-0.551412,0.741737,-0.523986,0.228078,0.820621
0.246432,0.033293,0.696897,0.036970,-0.489874,0.871009
0.290531,0.101639,0.601603,-0.180114,0.753867,-0.631857
-0.392258,-0.020558,0.801000,0.127527,-0.750728,0.648185
0.107941,-0.632832,0.723483,0.881660,0.203953,-0.425533
-0.129800,0.482592,0.857242,0.327070,0.784368,-0.527059
0.188048,-0.216521,0.785449,-0.277463,-0.646514,0.710657
0.303544,0.206835,0.619984,-0.588608,0.094079,-0.802926
0.016438,-0.246732,0.870106,0.794489,0.489102,0.359954
-0.276142,0.273251,0.928351,0.274127,0.955221,-0.111383
-0.284885,0.395990,-0.320475,0.949340,0.269877,0.160997
0.447235,-0.673915,0.490058,0.122887,0.946264,0.299139
0.577775,0.166023,0.223654,0.447577,-0.323975,0.833496
-0.203057,0.520999,-0.977516,-0.012158,0.175447,0.984414
0.150627,0.407573,0.577990,0.143920,0.867383,0.476376
-0.404548,0.660740,0.044976,0.206394,0.976003,0.069425
0.305713,0.173068,0.522591,-0.277117,0.094293,0.956198
0.026627,-0.375059,0.851358,0.893823,0.308276,0.325648
-0.074479,0.179266,0.654267,0.002747,0.955484,0.295030
-0.365647,-0.578676,0.518139,-0.206753,0.399522,-0.893104
0.491919,0.295909,0.234928,0.131800,-0.317482,0.939060
-0.132107,0.063673,0.852281,-0.305285,-0.274613,0.911805
0.231527,-0.094866,0.397435,-0.061856,-0.514495,-0.855259
-0.463552,0.407438,0.929098,-0.627191,0.407934,0.663492
-0.173279,-0.264513,0.390963,0.420121,-0.551829,-0.720405
-0.321583,-0.506232,0.816281,0.146029,0.988676,0.034576
0.553711,0.112105,0.213382,-0.057991,0.382140,0.922283
-0.351705,0.057678,0.211442,0.171743,0.557732,0.812059
-0.272183,-0.035122,0.009056,0.917730,-0.178494,0.354841
-0.223574,-0.462271,0.383983,0.842523,-0.151562,-0.516899
0.396182,-0.028687,0.540146,0.815966,-0.572519,0.080129
-0.132623,-0.395414,0.454329,-0.422734,0.444163,0.789947
0.090934,-0.171747,0.674731,0.080678,0.978867,0.187909
0.520766,0.278094,0.220458,0.764019,0.608569,0.214287
0.503416,0.171171,0.679565,0.146158,-0.249189,0.957362
-0.521490,-0.578812,0.017149,-0.143025,0.139489,0.979840
0.417836,-0.483371,0.678357,0.733460,0.609464,-0.300983
-0.192626,0.307661,0.678754,-0.705448,0.007751,0.708719
-0.169493,0.294012,0.482855,0.000862,-0.961477,0.274885
-0.346231,0.070921,0.607916,0.989475,-0.143843,-0.015788
0.361206,0.292048,0.656366,-0.024276,-0.371102,0.928275
0.176791,0.251270,0.648288,0.193360,0.190659,-0.962424
0.536430,-0.388234,0.477290,-0.747558,0.206577,0.631255
-0.278035,-0.481372,0.361785,0.486744,0.024058,-0.873213
0.168391,-0.288288,-0.016418,0.450968,0.444468,0.774000
-0.422793,0.253031,0.882794,0.173889,0.823839,0.539493
0.172521,-0.851656,0.463615,0.824235,-0.104020,-0.556612
0.423964,0.252218,0.205766,-0.122625,-0.654828,0.745764
-0.500560,-0.487672,0.666971,-0.402593,-0.487612,-0.774696
0.745907,-0.010330,0.636203,-0.587877,-0.637883,0.497500
-0.036921,0.617693,0.537363,0.553472,0.442668,-0.705488
-0.337590,0.282666,-0.314607,-0.086510,-0.375388,0.922822
0.582973,0.266714,0.212126,-0.066192,0.830829,0.552578
-0.237413,-0.472973,0.594177,0.911740,-0.072456,0.404327
-0.537463,0.034207,0.537411,0.560416,0.345871,0.752534
0.190457,0.103299,0.369625,0.713061,0.666873,0.216390
-0.275522,-0.624060,0.466159,0.528965,-0.624377,-0.574760
-0.313872,0.395990,-0.012506,0.072651,0.993929,0.082621
-0.039296,0.079896,0.693081,-0.118968,0.857438,0.500646
-0.027179,0.651460,0.440209,-0.724536,0.529614,-0.441086
0.139301,0.858159,0.302729,-0.021356,0.502929,0.864064
-0.507513,-0.123010,-0.320379,-0.435447,-0.230047,-0.870324
0.473432,0.042505,0.700029,-0.669148,-0.366629,0.646393
0.625522,-0.069871,0.592667,-0.419758,0.143458,0.896227
-0.565175,0.521134,-0.988090,-0.102672,0.124662,0.986873
-0.492641,0.291438,0.730225,-0.681656,-0.464517,-0.565305
0.431262,-0.241042,0.779184,-0.513804,0.785243,-0.345542
0.215897,0.227969,0.730432,-0.147607,-0.397620,0.905600
-0.445204,-0.424067,0.589963,0.805035,-0.550653,0.220682
0.078885,0.102181,0.691634,-0.306814,0.115191,0.944773
0.113379,0.045553,0.693160,-0.580463,-0.443037,-0.683214
-0.526757,-0.137472,0.245868,0.092888,0.501330,-0.860256
-0.152865,0.453058,0.906678,-0.679302,0.055283,-0.731774
-0.328330,-0.179977,0.693971,-0.324330,-0.945441,-0.030855
-0.590994,-0.394703,0.830449,-0.493054,0.268276,-0.827602
-0.389194,0.105196,0.927730,0.938168,0.019846,-0.345610
-0.158821,-0.741211,0.714547,0.512753,0.692420,0.507582
-0.377592,0.424609,-0.970456,-0.004391,0.232940,0.972481
-0.454980,0.519678,-0.974304,0.251569,-0.057489,-0.966130
0.060744,0.040405,0.127581,0.104326,0.448531,0.887657
-0.372670,0.002743,0.235373,0.480273,-0.673620,-0.561760
-0.572956,-0.733218,0.195017,-0.039100,-0.165508,0.985433
-0.537428,-0.338041,0.503335,-0.097008,-0.334184,0.937502
-0.266055,-0.435210,0.841245,-0.449287,0.139924,-0.882362
0.077819,0.272675,0.853902,0.625780,0.756474,-0.190121
-0.316660,0.560387,0.333832,0.564622,-0.305822,0.766599
-0.295247,0.324189,0.718697,0.860471,0.414496,-0.296281
-0.355458,0.434261,0.784622,0.535909,-0.647847,0.541384
-0.304026,0.432670,0.956479,-0.192095,0.604973,0.772727
0.256416,0.136456,0.718697,0.193443,0.523457,0.829803
-0.332943,0.064147,0.599091,0.982351,-0.054120,0.179048
-0.497495,-0.155761,0.236502,0.098367,0.489043,-0.866696
-0.541594,0.370589,0.898616,-0.183974,0.982381,-0.032885
-0.555743,0.333841,0.682459,-0.388472,-0.914720,-0.111251
-0.268500,-0.123654,-0.032827,0.458160,-0.258928,0.850321
0.006179,-0.373264,0.522655,-0.559240,0.626757,0.542611
0.103328,0.182585,0.795467,0.979472,-0.196643,0.044331
0.222817,-0.746190,0.668736,0.053466,0.993293,-0.102521
0.062499,-0.260516,0.844187,0.174912,-0.382815,0.907116
-0.179889,0.489501,0.422034,0.904035,-0.416956,0.094173
-0.090280,0.614848,0.436011,-0.638497,0.579687,-0.506245
-0.407233,-0.342038,0.017181,0.968228,-0.247347,-0.036809
0.300446,-0.419359,0.747032,0.978135,-0.086149,0.189289
-0.005938,-0.080709,0.850850,0.371008,0.919578,0.129342
0.254109,0.167073,0.716344,0.330147,0.935211,0.127998
-0.514226,0.323376,0.941485,0.982843,0.068695,-0.171172
0.725321,0.243887,0.232447,0.020568,-0.429652,0.902760
-0.309499,0.068516,0.489931,0.173331,0.826482,0.535616
0.387645,-0.279381,0.773826,-0.639888,0.298458,-0.708142
0.202781,0.279042,0.808489,0.850707,-0.385715,-0.357101
0.052000,0.085924,0.786991,0.097463,0.802789,0.588244
-0.472261,0.464641,0.199532,0.329502,0.064517,0.941948
-0.577499,0.239179,0.765239,0.466258,0.307738,0.829398
-0.123501,-0.669376,0.522623,0.718907,0.624191,0.305872
0.484896,-0.224480,0.153261,0.395335,0.278691,0.875238
0.666661,0.068177,0.112873,0.215517,0.974842,-0.056880
0.189906,0.072377,0.592094,0.316283,0.566690,-0.760807
-0.096511,-0.648039,0.445424,0.903512,-0.389293,0.179215
0.101262,0.376549,0.636648,-0.016968,-0.693402,0.720351
-0.392327,0.212728,0.814118,-0.168871,-0.094411,0.981106
-0.239858,0.156404,0.950182,0.587836,-0.349103,0.729778
-0.820816,-0.108819,0.223129,0.221983,0.600521,0.768179
0.084600,0.832588,0.484842,-0.346721,0.555123,-0.756057
-0.106736,0.238603,0.896835,-0.581429,0.305569,0.754035
-0.193624,-0.093951,-0.045739,0.388458,-0.138882,0.910940
0.308467,0.550904,0.522528,0.818302,-0.386852,-0.425120
-0.071346,-0.777789,0.477178,0.907278,0.309439,0.284770
-0.218307,-0.354535,0.890268,-0.157203,-0.817844,0.553550
-0.192798,0.078439,0.949228,-0.217932,-0.151015,0.964210
0.034270,-0.418208,0.302443,0.850732,0.106966,-0.514601
0.158959,-0.329879,0.842517,0.017803,0.731401,0.681716
-0.416425,0.124196,0.723499,0.823584,-0.295660,0.484040
-0.370501,-0.526519,0.827745,0.165081,0.864304,0.475108
-0.184502,0.569735,0.801525,0.778740,-0.593546,0.203141
-0.229254,-0.275486,0.889743,0.492333,-0.546350,-0.677576
-0.371603,0.555510,0.492205,-0.145198,0.601702,0.785412
-0.111830,-0.351182,0.735727,0.802252,-0.190294,0.565844
-0.508443,-0.590767,0.757479,0.343083,0.861849,0.373511
-0.480868,-0.244090,0.511206,-0.058225,0.323591,-0.944404
-0.074996,0.074036,0.545218,-0.347461,0.676417,-0.649408
-0.679639,-0.528280,0.228456,-0.166406,-0.047641,0.984906
-0.344028,-0.400393,0.372836,0.061415,0.202188,0.977419
-0.481385,0.199045,0.522734,-0.277846,-0.617055,0.736237
0.386164,-0.722617,0.558003,0.617205,0.769550,0.163864
0.290704,0.091377,0.503447,0.126449,-0.756053,0.642180
0.215347,-0.151155,0.821274,-0.731077,-0.236105,-0.640141
0.234108,-0.510906,0.769008,0.799829,0.439630,0.408655
-0.023013,-0.510093,0.758990,0.936942,-0.000142,-0.349484
-0.781090,-0.567026,0.175649,-0.690990,-0.108442,0.714684
-0.633475,-0.263971,0.196670,-0.282840,0.165924,-0.944707
-0.060674,0.074409,-0.142305,-0.528658,-0.277537,0.802181
-0.341859,0.776976,-1.000000,0.051385,0.318738,0.946449
0.123156,-0.447267,0.469498,-0.001356,-0.587409,0.809289
0.615780,-0.201822,0.555649,-0.727524,0.413557,0.547430
0.007694,-0.015715,0.005208,0.386418,-0.079008,0.918933
-0.219718,0.166870,0.022874,-0.718249,0.396280,-0.571909
0.334389,0.029770,-0.028916,0.223390,-0.191995,0.955633
-0.374769,0.200603,0.050525,0.312065,0.171978,0.934366
0.256898,0.210594,0.159669,-0.673606,-0.017389,0.738886
-0.060674,0.048195,0.016131,0.482646,-0.027089,0.875396
-0.458561,0.125550,0.972905,0.569974,0.131762,0.811029
0.585348,0.167649,0.222716,0.378227,-0.222008,0.898697
-0.304680,0.233929,-0.317517,0.655416,0.043324,-0.754025
0.080159,0.045756,0.802861,0.124051,0.874477,0.468936
-0.651066,-0.391824,0.189706,0.832811,0.437410,0.339262
-0.292734,-0.534749,0.826473,-0.303420,0.360254,0.882130
0.110212,0.191797,0.794528,0.972507,-0.232862,-0.002393
-0.732516,-0.230001,0.798456,-0.477916,0.876012,-0.064797
0.257414,0.327847,0.498374,-0.536014,-0.573517,-0.619489
-0.571475,0.762142,0.253516,0.106554,-0.417885,0.902230
-0.649585,-0.189257,0.866941,-0.042753,0.979744,0.195639
0.287605,0.136151,0.640608,0.771225,-0.187430,-0.608343
0.109902,-0.355043,0.484381,0.344030,-0.194630,-0.918565
-0.117820,0.099573,0.607852,0.541453,0.464187,-0.700970
0.549960,0.092224,0.469927,-0.126921,0.285316,0.949993
-0.457528,0.226817,0.949864,0.768782,-0.108546,0.630232
0.527962,-0.255267,0.157761,0.178979,0.646467,0.741652
0.265573,0.486961,0.600903,-0.640147,0.766448,-0.052624
0.556224,-0.094222,0.748400,0.410865,0.884689,-0.220260
-0.716165,-0.321446,0.213955,0.318181,-0.512005,-0.797880
0.058816,-0.011955,0.152196,0.676095,0.648814,0.349192
-0.057060,0.138251,0.917268,-0.719007,-0.411698,-0.559941
-0.915658,-0.749035,0.216721,0.357036,0.566188,0.742938
-0.718643,-0.799296,0.048760,0.747078,-0.652493,-0.126994
-0.513194,-0.224345,0.227614,-0.296906,-0.544067,0.784753
-0.048178,0.170358,0.076428,-0.356759,0.545831,0.758150
-0.138854,0.014123,0.843583,0.126516,-0.455410,0.881247
-0.680155,-0.594933,0.142401,-0.459268,0.617543,-0.638524
0.474396,-0.416650,0.678166,-0.434894,-0.179680,-0.882373
-0.313045,0.203922,0.960280,0.360437,0.009349,-0.932737
-0.169733,0.382984,0.253914,-0.454253,0.409464,0.791197
-0.214452,0.356330,0.947177,0.744019,0.354302,0.566486
0.068007,0.234471,-0.029186,0.970316,-0.119706,0.210137
-0.595952,-0.291133,0.878915,-0.473459,0.463853,0.748783
0.094032,-0.114916,-0.030633,0.954444,0.284657,0.089482
0.586588,-0.437005,0.288466,0.755874,0.654534,-0.015505
0.205673,0.504911,0.509871,-0.118624,-0.176200,-0.977181
0.241889,-0.338380,0.639542,-0.315124,0.586969,0.745764
-0.471539,0.037526,-0.333784,-0.451517,0.209605,-0.867294
-0.198547,0.324697,-0.045882,0.398698,0.878026,0.264782
-0.326609,-0.443914,0.726425,0.922461,-0.371471,-0.105234
0.234453,-0.195218,0.467161,-0.729035,0.114026,0.674912
0.656127,-0.321479,0.579580,-0.574546,0.492470,0.653736
-0.303475,0.196268,0.929957,0.440114,-0.811081,-0.385288
-0.239548,0.571429,0.538476,0.842099,-0.388445,-0.374139
-0.203160,-0.504742,0.408200,0.932341,-0.171411,-0.318369
0.288018,-0.290490,0.838399,0.848860,0.139691,0.509827
0.204847,-0.141401,0.835394,0.607788,0.571817,-0.551016
-0.468820,-0.328321,0.859277,0.652362,-0.481768,0.585084
0.094239,-0.684651,0.716550,0.863982,-0.164784,-0.475795
-0.354115,-0.166836,0.028152,0.988642,-0.142228,-0.048561
0.181645,-0.408284,0.787771,0.190062,-0.523111,0.830802
-0.308536,-0.550261,0.374633,-0.410009,0.094140,0.907210
-0.600220,-0.389623,0.858991,0.794568,0.540913,0.275817
-0.063119,0.777620,0.070656,0.882742,0.084048,-0.462280
0.245194,0.068110,0.619984,-0.831926,0.031037,0.554018
-0.315420,-0.133001,0.450576,-0.772230,0.559299,0.301407
-0.399590,0.248628,0.883764,-0.198957,-0.924840,-0.324170
-0.225021,0.181975,0.938050,0.367482,0.502963,0.782295
0.290601,-0.693694,0.474904,-0.538771,0.615680,-0.575034
-0.444171,-0.282531,0.357937,-0.173041,-0.620691,0.764722
-0.313562,0.416853,-0.266682,-0.636656,-0.750007,-0.179331
-0.349708,0.512531,-0.819032,-0.133080,0.943298,0.304101
0.609790,-0.445133,0.688931,0.893743,-0.386768,0.227230
-0.326402,-0.112951,0.033384,0.938226,-0.232198,0.256547
-0.526860,-0.272438,-0.267509,0.148163,0.618812,0.771440
0.189424,-0.141672,0.152911,-0.305011,-0.000856,-0.952349
0.248740,-0.003827,0.708361,-0.072870,-0.295055,0.952697
-0.336248,-0.505758,0.806279,0.296211,0.586880,-0.753545
0.718746,-0.185328,0.572790,-0.638847,0.502797,0.582296
0.073481,0.822969,0.485828,-0.439108,0.548691,-0.711423
0.543487,-0.078541,0.689137,0.824587,0.385010,0.414516
-0.384856,-0.160198,0.859054,0.397102,-0.658764,0.639015
0.254523,-0.515681,0.745967,0.831182,0.254643,0.494261
0.165430,0.301802,0.573919,0.819879,-0.551205,0.154826
-0.516050,-0.125042,0.604910,0.830878,0.314726,-0.458901
-0.284851,0.363104,0.040237,0.825650,-0.455996,0.332219
0.351430,0.219467,0.339731,0.393083,0.568219,-0.722920
-0.432363,0.324290,0.873127,0.833539,0.312410,0.455646
-0.459008,-0.073799,0.850706,0.874810,0.483462,-0.031157
-0.551508,0.306340,0.760342,0.164895,0.210372,0.963615
0.305369,-0.165515,0.860024,-0.569725,0.054625,-0.820018
0.425994,0.013683,0.721750,0.663687,0.179650,-0.726117
-0.218652,0.180045,0.020854,-0.564011,0.466236,-0.681554
-0.144912,-0.049719,0.310012,0.461045,-0.780308,-0.422559
0.543315,0.286629,0.194556,0.717863,-0.240610,0.653284
-0.063842,-0.780600,0.604862,-0.058125,0.985062,-0.162097
-0.294249,-0.297704,0.889616,0.518836,0.818638,0.246253
-0.688108,0.474802,-0.048013,-0.311936,0.061368,-0.948119
-0.550613,-0.128056,0.259177,0.008859,-0.453975,0.890971
-0.165327,-0.407234,0.453804,0.831267,-0.182632,-0.525015
-0.297657,0.560320,0.270657,-0.445556,-0.889596,-0.100489
-0.503968,0.651968,0.225244,-0.034932,-0.354778,0.934298
-0.466582,0.169173,0.771011,-0.044848,-0.219339,0.974617
0.098439,0.139098,0.680821,-0.493225,0.301688,0.815913
-0.144156,-0.024182,0.808378,-0.337182,0.928443,0.155888
-0.209322,0.604755,0.596849,-0.810925,0.097038,-0.577049
0.675714,-0.136693,0.608726,0.566707,0.386627,-0.727573
-0.508684,-0.161383,0.828509,0.854400,-0.493832,-0.161649
-0.499802,-0.049888,0.859627,0.647992,0.739443,0.182566
-0.751898,-0.601131,0.171817,0.798512,-0.462520,-0.385296
-0.656402,-0.459832,0.218280,-0.560009,0.471638,-0.681137
0.384856,-0.336449,0.626440,0.261007,0.661499,0.703061
0.003631,-0.445133,0.599949,0.320186,-0.852651,-0.412876
-0.409091,0.104823,0.464330,0.170155,0.865528,0.471071
-0.354253,0.729391,-0.988408,-0.010725,0.253737,0.967214
0.137339,-0.090835,0.838049,0.446175,0.217927,-0.868006
0.357694,-0.210662,0.141908,0.174656,0.316710,0.932303
-0.559633,0.058592,0.807186,0.982085,0.184696,-0.037381
-0.354459,-0.470060,0.726838,0.961039,-0.242520,0.132619
0.439834,0.062250,0.696499,0.757893,-0.172439,-0.629176
-0.713927,-0.844036,0.174552,0.343411,0.728955,-0.592194
0.085701,-0.198300,0.561835,0.142192,0.493679,0.857941
0.803398,0.082368,-0.002520,-0.210119,-0.426903,0.879548
0.195897,0.208155,0.627458,0.321499,0.316102,-0.892591
0.068902,0.310675,0.708441,-0.058738,-0.878743,0.473667
-0.567585,-0.373806,0.134371,0.846446,-0.201684,-0.492802
-0.099300,-0.052360,0.855636,-0.664591,0.492479,0.561946
-0.534847,-0.338380,0.149985,-0.799966,0.449624,0.397357
-0.588034,-0.474429,0.642341,0.382789,-0.347820,0.855859
-0.213006,0.474734,0.234403,-0.133100,-0.373104,0.918193
-0.082397,0.608718,0.705833,0.424973,0.377574,-0.822700
-0.372704,0.663923,-0.766559,0.963202,-0.017525,-0.268205
-0.187703,0.086534,0.173439,0.959263,0.115346,-0.257896
0.323029,-0.189765,0.754156,-0.147713,0.748810,0.646115
-0.535880,-0.556018,0.632610,0.988627,-0.141523,0.050880
-0.784153,-0.919122,0.134164,0.069540,-0.573142,0.816500
0.105771,-0.297297,0.475604,-0.065414,0.654483,0.753242
-0.009106,0.365068,0.772172,0.548073,0.215011,0.808323
0.056991,0.132019,0.926299,-0.268675,0.096705,-0.958364
-0.666455,-0.213710,0.850897,-0.439980,0.539517,0.717871
-0.194037,0.337296,0.913531,-0.488831,-0.071257,-0.869464
0.258447,-0.227190,0.173614,-0.080241,0.452977,0.887904
-0.482968,0.113222,0.154437,0.968775,-0.169873,-0.180603
-0.342892,0.344849,-0.969295,0.041357,0.121767,0.991697
-0.516257,0.386033,0.226357,0.379554,0.174605,0.908544
-0.395700,-0.418648,0.005955,0.822424,-0.506344,-0.259297
0.170078,-0.767425,0.467081,0.740339,-0.670285,-0.051153
0.626659,0.335704,0.248794,-0.148969,-0.273172,0.950361
-0.231010,0.135440,0.590965,-0.126138,-0.289826,0.948731
-0.032102,-0.290151,0.459703,0.903273,-0.253983,0.345819
-0.593817,0.514055,-0.054278,0.168897,-0.025270,0.985310
-0.589651,-0.834553,0.196972,0.941559,0.026672,0.335791
0.719263,-0.163923,0.652581,0.181548,-0.514204,0.838233
0.742569,0.167446,0.209327,-0.133049,-0.402465,-0.905715
-0.148390,0.562995,0.386082,0.499361,-0.750715,-0.432510
-0.327642,0.341733,0.131461,0.822744,0.524655,0.218701
-0.144052,0.271320,0.818062,-0.099838,-0.994871,0.016263
-0.566725,-0.279821,0.879058,-0.383600,0.620234,0.684223
-0.529717,0.248459,0.546872,-0.332424,-0.888724,0.315697
0.018297,0.689291,0.375476,-0.555025,0.565682,-0.609878
0.313562,-0.581386,0.641117,0.217178,-0.610893,0.761343
-0.541629,-0.667446,0.022380,0.111335,0.201089,0.973226
-0.505826,-0.108718,0.502286,0.419276,-0.354014,-0.835991
0.201783,0.053445,0.571089,0.161493,-0.985928,0.043206
0.278757,-0.123620,0.536489,0.912196,-0.396161,0.104668
0.483243,0.062352,0.603892,0.218927,0.748087,-0.626448
-0.340792,0.249306,0.687961,0.231502,0.754115,0.614587
-0.289705,-0.178419,0.686180,0.463554,0.884288,0.056146
-0.772036,-0.759602,-0.034259,-0.315349,-0.764943,0.561620
0.271563,-0.150342,0.719365,0.499379,-0.730761,-0.465413
0.494432,-0.021811,0.483141,0.196371,0.282235,-0.939032
-0.175482,0.366728,0.372757,0.140668,0.617167,-0.774156
0.461108,0.013784,0.136342,-0.121417,0.546133,0.828852
-0.007763,0.482727,0.503208,0.211168,-0.423185,0.881092
0.574780,0.131274,0.212508,0.264919,-0.252639,-0.930587
-0.429230,0.320565,0.938289,-0.709698,0.130062,0.692397
-0.158649,-0.027535,0.621558,0.028746,0.581858,0.812782
-0.078300,0.177335,0.651261,0.107290,0.873696,0.474493
-0.363340,-0.412958,0.059461,0.959961,0.131163,-0.247530
0.130213,-0.156947,0.498072,-0.554610,-0.824356,0.113336
-0.179545,0.288017,0.939577,-0.664296,-0.650944,-0.367400
-0.836480,-0.864323,0.229506,-0.344631,0.200768,-0.917018
-0.197239,-0.035697,-0.041334,0.478554,-0.227654,0.848033
-0.346541,-0.249509,0.806104,-0.036178,0.934780,-0.353379
0.590994,0.004674,0.493302,-0.576671,0.172729,0.798508
0.014820,-0.041692,0.628173,-0.203138,-0.446698,-0.871318
-0.092242,0.088227,0.752089,-0.680897,0.481909,0.551491
-0.203573,-0.583486,0.553693,0.991944,-0.033497,-0.122165
-0.455015,-0.274165,0.668880,0.709192,0.632918,-0.310584
0.502108,-0.039829,0.705245,-0.433808,-0.309955,-0.846013
-0.363582,-0.056662,0.703607,0.456616,-0.711423,-0.534209
-0.469990,0.008095,0.805914,0.239434,0.964708,0.109586
-0.049795,0.203888,0.893941,0.612662,0.780650,-0.123413
0.495258,-0.428097,0.626297,0.826116,-0.109568,-0.552746
0.190147,-0.453329,0.790378,-0.121252,0.537220,0.834681
-0.435427,0.936801,0.257587,-0.177807,0.211271,-0.961119
-0.314973,-0.566890,0.522941,0.480440,0.497737,-0.722105
-0.092827,-0.107160,0.417264,0.210278,0.971078,-0.113096
-0.106529,-0.658809,0.694082,0.279913,0.392093,0.876306
-0.322409,-0.040507,0.047790,0.910386,-0.323522,0.257936
0.629860,0.020558,0.566462,-0.905063,-0.222473,-0.362445
-0.200268,-0.276976,0.791269,0.227261,0.960039,-0.163332
0.080022,-0.160401,0.587515,-0.674510,0.728197,-0.121514
-0.076751,-0.192373,0.149540,-0.488168,0.195527,-0.850565
-0.160507,0.534072,0.253484,-0.361143,0.725182,-0.586248
0.064978,0.160232,0.873874,-0.279045,0.922580,0.266422
-0.038401,0.112782,0.138362,0.635303,0.703178,0.319266
0.308604,0.595543,0.506452,-0.654549,0.752974,0.067794
0.720536,0.155321,0.222637,0.273817,0.458118,0.845666
0.143019,-0.658843,0.756557,-0.426635,0.497210,-0.755490
-0.399418,0.538068,-0.820336,0.944215,-0.324106,0.058427
-0.508856,-0.609802,0.730527,0.441131,0.895287,0.062171
-0.213970,0.474836,0.324212,0.280163,-0.735158,-0.617293
-0.626694,-0.528483,0.208771,0.486461,-0.781135,0.391387
0.584833,0.130495,0.476081,-0.216571,-0.051816,0.974891
-0.034958,0.180451,0.914358,-0.189939,0.806505,0.559886
0.305575,0.526620,0.598120,-0.439591,0.897132,-0.043740
0.012066,0.739585,0.463996,-0.526498,0.809192,-0.260783
0.440694,0.181569,0.198881,0.257958,0.767932,0.586292
-0.414600,-0.519508,0.748559,0.329019,0.253285,-0.909721
0.360897,0.205920,0.329570,-0.393690,-0.314754,0.863677
-0.089867,-0.196979,0.552946,0.764917,-0.540364,-0.350583
-0.332358,0.246528,-0.328839,0.571465,0.031294,-0.820029
0.097715,-0.658369,0.385494,-0.440798,0.561839,0.700025
-0.092552,0.179401,0.071037,-0.240301,0.820947,0.517978
-0.278276,0.059236,0.045055,-0.588262,-0.011324,-0.808591
-0.363134,0.323782,0.618649,0.534195,0.295500,0.792032
-0.451468,-0.557509,0.580757,0.917273,-0.071091,0.391864
-0.484827,-0.157387,0.619348,0.812270,0.174563,-0.556548
-0.321548,-0.414279,0.668673,0.809288,-0.112051,-0.576626
-0.447407,0.581047,-0.984767,0.318191,-0.171422,-0.932400
-0.262406,-0.278704,0.234419,-0.124811,-0.556273,0.821573
0.057886,0.673711,0.285715,-0.285435,-0.004471,0.958388
-0.077784,-0.299905,0.556587,-0.439417,0.762952,0.474149
0.130420,0.167784,0.011663,0.402937,0.628653,0.665160
-0.428886,0.576103,0.903338,0.331198,0.576791,-0.746740
-0.151075,-0.430739,0.693828,0.108690,-0.293169,0.949862
0.230942,-0.178961,0.799823,0.817780,-0.187015,-0.544299
-0.107596,-0.130631,0.765255,-0.684962,-0.427422,0.590031
0.495705,0.290422,0.240493,0.055060,-0.313487,0.947995
-0.121779,0.329642,0.371421,-0.416886,0.765430,-0.490227
0.059572,0.431111,-0.043370,-0.159430,-0.008716,-0.987171
0.168425,0.198435,0.530621,0.396478,0.313543,0.862842
-0.056819,0.015579,0.876879,-0.717015,0.623153,-0.312361
0.497082,0.009923,0.689217,-0.425773,-0.769586,-0.475872
-0.417629,-0.245377,0.507231,-0.523793,0.252000,-0.813718
0.357489,0.171611,0.266905,-0.576467,0.094799,-0.811603
0.273869,0.211847,-0.048506,0.361342,0.440929,0.821592
-0.293286,0.474361,-0.378752,0.501426,0.857717,0.113550
0.439764,-0.097033,0.166188,0.286238,-0.081544,0.954682
-0.301203,0.786662,0.416484,0.315799,0.133675,0.939363
-0.378867,0.322021,-0.963349,0.073778,0.205364,0.975901
0.142916,-0.110953,0.404893,0.132861,0.898259,0.418901
-0.161609,0.095915,0.678849,0.847217,-0.284011,-0.448956
0.303819,-0.544198,0.668943,-0.583270,0.668109,-0.461980
0.291048,0.214929,0.632721,0.044366,-0.035500,0.998384
0.060296,-0.851047,0.512383,-0.114655,0.758785,-0.641170
0.730416,-0.165752,0.628698,0.879180,0.012788,0.476318
-0.349812,-0.202872,0.067650,0.985282,-0.121660,-0.120076
-0.360827,0.031227,0.297339,0.083229,-0.310836,0.946813
-0.040294,-0.487265,0.110646,-0.456771,0.613277,-0.644401
0.238136,0.050193,0.704895,-0.149627,-0.421303,0.894492
-0.305438,-0.601165,0.388133,0.770026,-0.599816,0.217441
0.000568,0.016833,0.800491,-0.408506,0.769807,0.490428
-0.348022,-0.539728,0.742612,-0.124946,0.563718,0.816462
-0.043634,0.119793,0.963969,-0.077142,-0.976364,0.201895
0.297588,-0.624670,0.470913,0.218675,-0.252077,0.942676
0.408231,0.695421,0.557907,0.968082,-0.241410,0.067375
0.752999,0.201145,0.207435,-0.166682,0.273523,-0.947313
-0.626417,-0.449434,0.122095,0.750962,-0.411623,-0.516356
0.384375,0.620402,0.594654,0.854497,0.516030,-0.059568
-0.425031,0.072750,-0.343738,0.353835,-0.190535,0.915695
-0.193074,0.228036,0.010359,-0.680374,0.167058,-0.713571
0.290531,0.487672,0.467797,-0.171345,-0.979188,0.108775
0.149491,0.649902,0.542133,0.600881,0.008385,0.799295
0.197480,-0.102486,0.840212,-0.099345,0.045160,0.994028
-0.664079,-0.944151,0.198308,-0.391764,0.911813,-0.122956
-0.420211,-0.719366,0.512113,-0.059866,0.615232,0.786070
0.154448,0.515004,0.424483,-0.096725,-0.226702,0.969149
-0.274317,0.392501,0.055916,0.850268,-0.518180,-0.092376
0.235107,0.696843,0.405926,-0.135375,-0.895240,-0.424521
-0.643527,-0.422407,0.833120,0.569035,0.738107,0.362488
0.012858,0.152069,0.567146,0.899918,-0.370086,0.230615
-0.380072,0.466809,0.836475,-0.480181,0.796541,-0.367353
-0.554469,0.199519,0.770661,-0.407129,-0.339593,-0.847893
-0.619291,-0.160875,0.232750,-0.224284,0.391932,-0.892237
-0.225364,0.045384,0.939036,0.974158,0.209897,0.083419
-0.092621,0.416074,0.704704,0.711639,-0.404988,-0.574069
-0.139749,0.569769,0.039776,0.506259,-0.125540,-0.853195
0.615230,0.145363,0.679199,-0.484020,0.851351,-0.202302
0.322616,-0.742701,0.659450,-0.637511,-0.768684,-0.052002
0.541216,0.173237,0.204796,-0.352162,-0.166883,0.920941
-0.286193,0.106889,0.413924,0.898798,0.398383,0.182902
-0.293251,-0.318804,0.208866,-0.345672,-0.721500,0.599957
-0.225399,-0.826932,0.533245,0.666632,-0.624250,-0.407325
0.640188,0.011007,0.267079,0.219850,0.752918,0.620306
-0.391879,-0.048872,0.271118,0.871575,0.239633,-0.427708
-0.282270,0.447199,0.319203,-0.626802,0.280002,-0.727130
-0.231252,-0.058389,0.949690,-0.760795,0.647371,-0.045841
-0.046112,0.115491,0.915328,0.789341,0.382509,0.480237
0.200475,-0.648987,0.458304,-0.539744,0.246913,0.804805
0.336626,0.622875,0.564156,0.596361,-0.771271,0.222473
-0.514812,0.509957,-0.983256,-0.123378,0.120748,0.984986
-0.330637,-0.057272,0.078368,0.920572,-0.336206,0.198778
0.101262,-0.243954,0.414227,-0.624690,-0.778819,-0.056597
-0.829492,-0.711983,-0.040428,-0.094009,0.548827,-0.830633
-0.477116,0.823308,0.001105,0.928938,0.330994,0.165886
0.265676,0.488891,0.571184,-0.703265,0.698858,-0.130448
-0.513607,0.023844,0.804419,0.513592,0.856365,0.053508
-0.572576,-0.506401,0.595322,0.874091,-0.368930,0.315999
-0.559116,0.455158,0.926872,-0.870324,0.468994,-0.150271
0.291564,0.104891,0.282869,0.403285,0.841880,0.358607
-0.400417,0.385084,-0.966879,-0.036795,0.180560,0.982875
-0.422724,-0.135813,0.885975,0.401733,0.455640,0.794357
-0.054203,-0.544469,0.461452,0.404003,0.126676,0.905944
0.193314,0.554461,0.487498,-0.383563,0.477928,0.790231
-0.324440,0.139470,0.979679,-0.365759,0.815520,0.448495
0.697230,0.128158,0.239364,0.089221,0.108277,0.990109
-0.233592,-0.530956,0.743216,-0.371727,-0.752188,0.544088
-0.101675,-0.864831,0.634343,-0.530393,0.385548,-0.755007
-0.027385,-0.821920,0.494192,-0.341481,0.141688,0.929148
-0.290049,-0.267324,0.833120,0.401749,-0.854638,-0.328926
-0.113586,-0.344002,0.859913,0.443273,0.284214,0.850136
0.301960,0.670460,0.355775,-0.590497,-0.147451,0.793455
-0.676197,0.495529,-0.049348,-0.278851,-0.022849,-0.960063
0.450608,-0.033428,0.700506,0.075180,0.034334,0.996579
-0.603456,-0.099336,-0.302332,0.154147,0.558763,0.814875
-0.338383,0.462508,-0.427059,0.041999,-0.998744,-0.027325
-0.141918,0.192169,0.007513,-0.318088,0.706119,0.632626
0.670276,-0.234641,0.683524,0.705112,0.074335,0.705189
0.517668,0.057272,0.608218,0.323682,0.274552,-0.905456
0.011790,0.130055,0.575335,0.948315,-0.118366,-0.294429
0.407474,-0.123959,0.668259,-0.333307,0.756381,0.562845
0.737749,0.221500,0.233433,0.238664,-0.326787,0.914467
-0.012239,0.293741,0.818110,0.730189,0.071659,-0.679477
-0.177238,0.446759,0.898473,-0.661583,0.033957,-0.749103
0.101950,-0.375296,0.369895,0.835677,0.351902,-0.421673
-0.476978,-0.036239,0.868356,-0.803322,-0.369906,-0.466736
0.123191,-0.636117,0.629827,-0.667628,-0.024117,0.744104
-0.393152,0.161214,-0.323607,-0.597166,0.333163,-0.729654
-0.541491,-0.512565,0.789265,0.769056,0.638618,0.026819
0.035372,0.483879,0.744472,-0.206387,0.719317,0.663316
-0.282510,-0.526688,0.784352,-0.679296,0.310005,0.665172
0.579634,0.208325,0.482219,-0.232385,-0.175262,0.956703
-0.301892,0.257807,0.846047,-0.089934,0.973497,0.210276
-0.383273,-0.120707,0.238045,-0.369220,-0.913846,-0.169000
0.045562,-0.439579,0.608615,0.077176,0.810661,0.580408
0.025319,-0.088803,0.884066,-0.324063,0.845338,0.424721
-0.073687,-0.559067,0.736840,0.587200,-0.694234,-0.416216
-0.163537,-0.635677,0.570485,-0.698848,0.259485,0.666542
-0.282510,-0.271625,0.861265,-0.108311,-0.969739,-0.218802
-0.662461,0.121656,0.544471,-0.421142,-0.062930,-0.904809
-0.018022,-0.115932,0.874637,-0.188861,-0.906614,-0.377337
0.256967,0.466402,0.494622,0.131663,0.954766,0.266621
0.194312,-0.478223,0.793336,-0.708909,-0.690970,-0.141452
-0.635093,-0.513175,0.196972,0.518195,-0.718997,0.463160
-0.123156,-0.061336,0.847304,-0.072927,-0.975520,-0.207465
-0.425237,-0.179232,0.887453,-0.286760,-0.448983,-0.846276
-0.185225,-0.796891,0.600728,0.314465,-0.494347,-0.810390
0.080847,-0.000576,0.531273,0.899101,-0.363057,-0.244557
0.080538,0.034140,0.487339,-0.557764,0.824560,-0.094870
0.034408,-0.012464,0.521065,0.903452,0.043670,-0.426459
-0.299723,0.305358,0.223161,0.986241,0.165270,-0.003861
0.474982,-0.183398,0.020234,-0.562374,0.810042,0.166035
-0.440694,-0.651257,0.298532,0.921293,-0.167984,-0.350714
-0.498872,0.014055,-0.343913,0.165219,-0.018059,0.986092
-0.315765,0.475615,-0.275618,0.659932,0.727726,0.186827
0.561457,0.136998,0.215831,0.126746,0.063442,-0.989904
-0.340448,0.336720,0.959548,0.012547,0.615456,0.788071
-0.159681,0.492989,0.386909,-0.488087,0.417998,-0.766191
-0.200853,0.112511,0.961854,-0.592361,0.121782,-0.796416
-0.627589,0.675134,0.216292,-0.362288,-0.391921,0.845663
0.685766,-0.233658,0.597500,-0.736515,0.045244,0.674907
-0.345267,-0.667107,0.657654,0.187604,0.550073,0.813771
-0.200716,0.367337,0.911384,0.645261,0.720012,0.255384
-0.402241,-0.030820,0.626170,0.948716,-0.030191,0.314683
-0.179682,0.767121,0.402015,0.681276,0.626212,0.379106
0.383513,-0.004640,-0.035642,0.151869,-0.192760,0.969422
-0.319242,0.666531,-0.982652,0.037666,0.196272,0.979826
-0.166600,-0.048127,0.855016,-0.203908,-0.977588,-0.052368
-0.429092,-0.353011,0.889584,-0.283127,0.956637,0.068451
0.046525,0.343968,0.753472,-0.617712,-0.346027,-0.706185
-0.479973,-0.519271,0.788391,-0.277486,-0.341033,0.898164
0.000362,0.745512,0.473585,-0.472357,0.729742,-0.494323
-0.451675,0.520423,0.194285,0.255415,-0.073828,0.964009
-0.073584,-0.092766,0.602398,-0.685268,-0.692844,-0.224441
-0.506894,-0.027129,0.773253,0.368909,0.535662,-0.759587
-0.193590,-0.642383,0.505689,-0.058266,0.845028,0.531539
-0.245917,0.264309,0.121189,0.888363,0.401276,0.223135
-0.724323,-0.214692,0.238856,0.107392,0.456557,0.883189
0.234660,-0.240602,0.827109,0.789866,0.108103,0.603677
-0.162572,0.104518,0.361769,-0.425658,-0.730031,-0.534668
-0.038746,0.204599,0.813180,0.817377,-0.214266,-0.534776
0.076579,0.009619,0.778739,-0.659326,-0.751750,-0.012698
0.334871,-0.263158,0.594781,0.817868,0.536057,-0.209130
-0.038643,0.379123,0.585352,0.289960,0.552767,0.781263
-0.144912,0.283039,-0.023112,0.021219,0.926754,0.375068
-0.473466,0.482625,-0.978375,0.154736,-0.017803,-0.987795
0.864399,0.154440,0.216896,0.017094,0.139898,0.990018
0.357144,0.363341,0.407294,0.864378,0.491126,-0.107911
-0.143811,0.245343,0.919382,-0.877270,0.128765,-0.462404
-0.180612,0.052767,0.468799,-0.120331,-0.760626,0.637941
-0.175896,0.061438,0.220776,-0.719119,-0.666945,0.195068
0.907052,0.059033,-0.020759,0.205602,0.918996,0.336412
0.281133,-0.499966,0.259018,0.104538,0.914299,0.391317
-0.587448,-0.248865,0.854888,-0.054131,0.371212,0.926969
-0.507341,-0.381901,0.795387,0.827971,0.498684,0.256472
-0.047145,0.698063,0.462375,-0.742848,0.580235,-0.333923
0.254041,-0.237181,0.738096,0.518942,-0.262186,-0.813608
0.188598,0.068245,0.511047,-0.365492,0.917632,-0.156101
-0.369331,0.063639,0.613067,0.968151,-0.246930,-0.041353
0.093585,0.327339,-0.048538,-0.190687,-0.175318,-0.965869
-0.211181,0.534885,-0.974893,0.034926,0.153070,0.987598
0.233765,0.027163,0.400838,-0.323570,-0.408391,0.853534
0.613095,0.118506,0.630972,0.992510,-0.079719,-0.092566
0.047593,-0.695895,0.786419,0.447289,0.813216,-0.372308
0.547790,-0.320700,0.634200,-0.764663,0.360976,0.533841
-0.144775,-0.777992,0.431686,0.886967,-0.399281,-0.232084
0.337384,-0.227833,0.787946,-0.588885,-0.571004,-0.571987
-0.547653,0.314706,0.373791,0.910097,0.411515,-0.048769
-0.232180,0.036341,0.964843,0.951308,0.068067,0.300633
-0.287433,-0.560286,0.434055,0.621025,-0.752810,-0.218186
-0.356559,-0.549888,0.795435,-0.324356,0.030083,0.945457
0.163915,0.505216,0.678102,-0.279421,-0.828527,0.485249
-0.258206,-0.411705,0.847208,0.129403,-0.379278,0.916190
-0.062534,0.089244,0.273026,0.778247,0.451146,-0.436805
0.087181,0.018221,0.561564,0.375314,0.679231,-0.630701
-0.398730,-0.215573,0.823039,0.735499,-0.636591,0.231933
0.137271,-0.471313,0.789901,0.456125,0.654026,0.603490
0.348572,-0.116914,0.608949,0.823106,0.183069,-0.537570
0.283440,0.529770,0.513416,-0.633563,0.354820,0.687532
0.732688,0.393111,-0.030681,0.085582,0.142929,-0.986026
0.237173,-0.150003,0.715231,0.322035,-0.699136,-0.638359
0.359175,0.245546,0.638827,-0.640674,0.619446,0.453678
-0.036130,-0.462237,0.610126,0.780234,-0.541649,-0.312812
-0.468475,0.296959,0.732006,-0.195847,-0.978688,0.061752
0.429195,-0.400461,0.729398,-0.353299,0.731275,0.583452
-0.094032,0.146481,0.945921,0.357211,0.703097,0.614861
-0.841127,-0.536036,0.181946,-0.612144,0.007950,0.790706
0.207359,0.282022,0.833136,-0.558725,0.611169,0.560623
0.441761,0.154169,0.252339,-0.540833,-0.319075,-0.778262
-0.280514,0.275858,0.482108,-0.526627,0.784230,0.328096
0.114205,0.372519,0.577879,-0.095416,0.717990,0.689483
0.647004,-0.124060,0.697756,0.591002,-0.446213,-0.672019
-0.312529,0.318059,0.394509,0.140197,-0.918011,0.370945
0.122881,0.029804,0.854014,-0.427637,0.886506,0.176734
0.281443,0.507112,0.466032,-0.692235,-0.683928,-0.230331
-0.424136,-0.550430,0.789599,-0.428472,-0.769394,0.473756
0.291254,-0.401104,0.737349,0.012697,-0.957727,0.287399
0.271976,0.261160,0.337664,-0.322553,-0.584237,0.744733
0.650550,0.063232,0.664093,-0.149361,-0.690975,0.707280
0.072413,0.255978,0.518680,0.120779,0.231792,0.965238
-0.643011,-0.021676,0.597500,0.455214,0.731538,0.507575
0.336901,-0.505013,0.435995,-0.299495,-0.362866,-0.882401
0.741674,-0.159046,0.606993,0.930866,-0.359531,-0.065001
-0.017368,-0.556052,0.853044,-0.377916,-0.471697,-0.796669
0.678640,-0.073935,0.720192,0.789509,0.178110,0.587327
0.394805,0.321716,0.428537,-0.755537,-0.582231,-0.300284
-0.319276,0.393179,0.950500,0.489915,-0.627470,-0.605198
-0.390089,0.320870,0.829860,-0.358242,-0.933621,0.003938
-0.051862,-0.383899,0.674477,0.561185,0.609754,0.559707
0.397869,0.361207,0.478625,0.520420,-0.242981,-0.818611
0.027385,0.155524,0.869899,-0.355501,0.310658,0.881539
-0.047214,0.719298,0.060893,0.819277,-0.343076,-0.459439
0.015956,-0.270846,0.129060,-0.033539,-0.648025,0.760880
-0.330155,0.317652,0.957513,0.224923,0.699297,-0.678523
-0.207566,0.305392,0.021633,-0.756809,-0.593947,-0.272885
0.100745,0.531768,0.573967,0.181287,0.528416,0.829404
0.253318,-0.541184,0.279562,-0.131447,0.848896,0.511954
-0.155894,-0.463591,0.691968,-0.030730,0.200814,0.979147
-0.684080,-0.524758,0.646539,-0.422425,-0.202102,0.883579
-0.285195,-0.713710,0.648876,0.162620,-0.957196,-0.239438
0.232663,-0.111969,0.801032,-0.675256,-0.394706,0.623087
-0.482520,0.454853,-0.052306,-0.600983,0.474426,0.643226
-0.369158,0.547992,0.491044,-0.145198,0.601702,0.785412
-0.736268,0.389995,-0.030124,-0.457142,0.086240,-0.885203
0.643286,0.093172,0.203253,-0.188402,0.277980,0.941930
0.469336,-0.353858,0.711256,-0.507698,0.468877,0.722771
0.510784,-0.527298,0.615564,0.571575,0.466133,-0.675294
0.431020,-0.050870,-0.043163,0.121034,-0.076424,0.989702
-0.524554,0.505182,0.881347,0.729144,-0.683823,-0.027121
-0.497185,0.314773,0.662964,-0.157949,0.969588,-0.186955
0.044082,-0.156845,0.459878,-0.601221,-0.705631,0.374991
0.292459,-0.185227,0.831912,0.934264,-0.339182,-0.110028
0.333253,0.127346,0.663728,-0.408372,0.241740,0.880224
0.347608,-0.569904,0.605689,0.326714,0.899472,-0.290187
-0.067180,-0.559202,0.587228,0.922753,-0.382620,-0.046146
0.352773,0.061336,0.101678,0.375874,0.920944,0.102866
-0.400141,0.519474,-0.974241,0.142401,0.160356,-0.976733
-0.126805,0.119725,0.269815,-0.698016,-0.691590,0.185683
-0.039571,-0.208968,0.530271,0.622386,-0.756219,0.201913
-0.328330,0.483303,-0.360275,-0.516238,-0.845654,-0.135526
-0.318518,0.325781,0.374109,0.243483,-0.969547,-0.026356
-0.537979,-0.331640,0.771790,0.829020,0.090988,0.551768
0.254798,-0.746325,0.430716,-0.563708,0.825354,0.032009
0.263542,-0.316162,0.642230,-0.152884,0.871936,0.465139
-0.388540,0.715336,0.418711,0.863689,-0.498045,-0.077411
0.286400,-0.272810,0.591140,-0.430706,0.757555,0.490513
0.020603,-0.780024,0.644345,0.291181,-0.956467,0.019584
-0.017127,0.047348,0.289532,0.530103,0.108900,-0.840911
-0.130454,0.317178,0.901271,0.705938,0.348580,0.616558
-0.102914,-0.858193,0.640703,-0.112970,0.638785,-0.761046
0.419866,0.136388,0.689042,-0.088033,-0.466671,0.880039
