-0.299699,0.341153,0.724639,0.333341,-0.432986,0.837501
0.442994,0.052123,-0.987846,-0.270732,0.319560,0.908067
-0.369299,0.165515,0.894679,0.872266,-0.467313,0.144118
-0.424388,0.519439,0.618474,0.872013,-0.018510,-0.489132
0.499327,-0.014726,-0.980662,0.022570,0.199851,0.979566
0.815144,-0.151011,-0.966693,-0.216055,0.086249,0.972564
0.019901,0.179894,0.862423,0.922130,0.286035,-0.260499
-0.113443,0.159902,0.726471,0.921289,0.066694,0.383117
0.220823,-0.155488,-0.935026,-0.186740,-0.982344,-0.011369
0.462895,-0.080566,-0.140563,0.691654,0.721806,0.024715
0.233262,-0.211680,-0.992211,-0.427799,-0.046564,0.902674
0.198021,-0.301296,0.703152,0.765872,-0.222785,-0.603164
-0.203876,0.316936,0.915052,0.956451,-0.290863,-0.024489
0.175840,-0.359569,0.700380,-0.223944,-0.276660,0.934510
-0.031975,-0.363353,0.560669,-0.401198,0.353779,0.844915
-0.092143,-0.113613,0.657022,-0.471439,0.629015,0.618130
-0.225590,-0.038438,0.882844,0.692411,0.650949,0.311178
0.425581,-0.396966,-0.964495,0.656714,-0.427102,-0.621539
-0.790526,0.329108,0.642527,-0.490195,-0.349745,-0.798366
0.509432,-0.115190,-0.756561,0.980569,-0.119114,0.155873
0.232276,-0.130389,0.281517,0.359165,0.918878,-0.163293
0.271196,-0.063665,-0.990761,-0.054974,0.291251,0.955066
-0.438588,0.495348,0.723477,0.119864,0.989679,0.078540
-0.230825,0.252546,0.903981,0.691855,-0.721956,-0.010773
0.051617,0.233437,0.532124,0.982605,0.182604,0.033818
0.119663,-0.644058,0.678558,0.709223,-0.624800,-0.326538
0.592870,-0.163182,0.168901,0.460683,-0.212751,-0.861689
0.676462,0.128433,-0.728430,-0.022457,-0.121562,0.992330
-0.604737,0.393372,0.349804,0.289809,0.920635,0.261613
0.140340,-0.382903,0.198273,0.801211,0.536491,-0.265025
0.110645,-0.356478,0.245231,-0.549253,0.824168,-0.138085
0.189729,-0.289818,-0.990172,0.183633,-0.312354,-0.932048
0.051151,0.358181,0.731919,0.645799,0.738823,-0.192571
-0.129042,0.402705,0.855080,0.766033,-0.026063,-0.642273
-0.157286,-0.144957,0.637190,0.069416,0.966935,0.245395
-0.070533,-0.267304,0.719431,0.570447,0.537898,-0.620690
0.233106,-0.637814,0.683527,-0.160699,0.947497,0.276450
-0.140962,0.709772,0.775595,0.829985,0.532390,-0.166393
0.532858,-0.160534,-0.777109,0.962961,0.255266,-0.086862
-0.058769,0.172264,0.344706,0.563150,-0.285897,0.775323
0.344994,-0.096207,0.413312,0.818894,0.325068,-0.473016
-0.417703,0.335225,0.944918,0.157100,0.943704,-0.291104
0.018243,0.066818,0.784054,-0.463672,-0.719081,0.517620
-0.124274,0.160155,0.846160,-0.353713,0.595341,0.721427
-0.554934,0.706808,0.491283,0.554150,0.383283,0.738926
0.136920,-0.519440,0.649089,-0.625340,0.613874,0.481776
-0.297678,0.015041,0.903312,-0.629886,-0.093894,0.770992
0.482432,-0.427238,-0.965036,-0.034327,0.286529,0.957456
0.512334,-0.126478,-0.694741,0.965122,0.242860,-0.097771
-0.070066,0.497745,0.745235,-0.612280,0.405763,-0.678579
-0.115620,0.401003,0.604425,-0.412000,-0.802976,0.430680
0.235385,-0.016744,-0.993883,-0.020467,0.252571,0.967362
-0.079550,0.236212,0.891939,0.927043,0.374930,-0.004328
0.075197,0.507520,0.751925,0.975857,0.180690,-0.122696
0.510262,-0.115820,-0.293081,0.711700,-0.699252,0.067300
-0.107691,-0.144452,0.607324,0.988330,-0.105174,0.110196
0.440973,-0.288241,0.439244,0.901077,0.332433,-0.278476
-0.115983,-0.108379,0.765592,-0.208113,0.976871,-0.049124
0.617641,-0.030493,-0.974418,-0.108296,0.054978,0.992597
0.170968,-0.092107,0.352050,0.747988,0.339216,0.570479
-0.467713,0.012266,0.919623,-0.077871,0.769557,0.633813
-0.579706,0.227698,0.373346,-0.005789,0.935537,0.353181
-0.221807,0.148425,0.848215,-0.217894,0.513079,0.830224
-0.766998,0.328729,0.393783,-0.565582,-0.448180,0.692280
0.495699,-0.107433,-0.388224,-0.560379,0.819666,0.118843
0.154643,-0.118028,-0.987576,-0.381469,0.293692,0.876485
0.691025,-0.246555,0.362515,-0.721854,-0.030993,0.691351
0.207245,-0.178192,0.277806,-0.776537,0.533138,0.335789
0.859868,-0.321666,0.212386,-0.359738,0.220571,0.906608
0.365258,-0.050547,0.595218,0.388518,0.871890,-0.298096
-0.405887,0.049285,0.917425,0.300009,-0.841437,-0.449421
0.194859,-0.407309,0.668522,0.090324,-0.907800,0.409561
-0.308924,0.144515,0.917600,-0.087227,-0.039516,0.995404
-0.030421,0.316242,0.696334,0.069692,0.286368,0.955582
0.226317,-0.213635,-0.984549,-0.465951,0.798611,-0.380933
0.171798,0.018636,0.342126,0.774880,0.225065,0.590684
0.416408,-0.307603,-0.979722,-0.475477,0.126158,0.870635
-0.281457,0.585028,0.880662,-0.100636,-0.855849,0.507341
-0.789801,0.522089,0.619271,0.065120,-0.802644,0.592894
0.018036,0.392930,0.728064,0.869513,0.414645,-0.268359
-0.051047,0.207328,0.680724,0.949742,0.047338,0.309433
0.009899,0.521521,0.907215,-0.177121,-0.744358,0.643863
0.308873,0.047961,0.204629,-0.112082,-0.991470,-0.066519
-0.669983,0.450762,0.454647,0.458325,-0.503786,0.732214
0.081572,0.078990,0.653263,0.359320,-0.089516,-0.928911
-0.479114,0.433102,0.897912,0.794345,0.520355,-0.313443
-0.894071,0.384543,0.424749,0.980956,0.029526,0.191972
0.174544,0.068205,0.337077,0.889598,-0.379045,0.254834
-0.502021,0.409075,0.843739,-0.152547,-0.988221,-0.012183
-0.484608,0.485573,0.860830,-0.367879,0.540744,-0.756480
0.762801,-0.292782,-0.378651,0.195148,-0.209640,0.958107
0.284256,-0.092801,0.246426,0.719527,-0.694274,-0.016277
0.111319,0.116954,0.388399,0.819767,-0.541345,0.186890
-0.297989,0.295935,0.905288,0.717399,-0.042253,0.695380
0.648891,-0.183490,0.018581,0.181712,0.940868,-0.285917
-0.081882,0.267871,0.854730,0.898892,0.358917,0.251340
-0.620595,0.479455,0.451318,0.248439,-0.653821,0.714700
-0.310115,0.231419,0.882095,-0.103074,0.990634,-0.089557
-0.068615,0.263141,0.723110,-0.101831,-0.893923,0.436499
0.039749,0.031312,0.431168,0.603792,-0.636699,0.479634
0.820636,-0.236843,0.365812,-0.399508,-0.094528,-0.911843
-0.011557,0.321161,0.577601,0.814057,0.579892,-0.032198
-0.362613,0.135812,0.955845,0.908098,-0.257026,0.330598
0.150550,-0.349605,0.250775,-0.111463,0.751974,-0.649701
0.314418,0.089395,0.282998,0.249766,-0.957551,0.143922
-0.493937,0.047709,0.921407,-0.681299,0.712885,-0.166212
0.124793,0.084603,0.361129,-0.675507,0.573365,-0.463620
0.389977,-0.007915,-0.076275,-0.074877,-0.983305,0.165843
0.568926,-0.369344,-0.677713,0.935119,0.349364,0.059143
-0.134224,0.739854,0.724177,-0.442525,-0.663887,0.602848
0.272699,-0.611327,0.655620,0.096647,0.837896,0.537206
0.198901,-0.635103,0.702084,-0.264729,0.854446,0.447035
-0.504094,0.406615,0.748166,0.886189,-0.363018,0.287900
0.707815,-0.233375,0.356111,0.699912,0.264635,-0.663394
-0.028814,0.572604,0.916342,0.892192,0.404050,0.201835
-0.398321,0.485384,0.727427,-0.790436,0.240354,0.563418
-0.305141,0.355216,0.900589,0.658985,0.427904,0.618577
-0.067164,0.295430,0.732620,-0.441875,0.762461,0.472651
-0.003835,0.326648,0.583272,-0.769860,-0.637978,0.017302
0.240879,-0.250150,0.392477,-0.065842,0.312175,0.947740
0.372928,-0.037934,0.100949,0.980936,0.087465,-0.173534
0.774047,-0.256709,-0.960529,-0.079963,0.189591,0.978602
-0.012696,0.099108,0.776631,0.022066,-0.936113,0.351006
-0.046227,0.378236,0.594693,-0.424011,0.890431,-0.165369
-0.006167,0.050043,0.495600,0.978034,0.164015,0.128643
0.473570,-0.160092,-0.188732,0.392385,0.917573,-0.063984
0.126969,-0.443194,0.633224,-0.687350,0.553918,0.469813
-0.450870,0.643048,0.578015,0.322032,0.464810,-0.824771
-0.772803,0.779649,0.498594,0.118784,-0.064731,0.990808
0.542445,-0.168733,-0.805287,-0.037082,0.999238,-0.012213
0.012335,-0.199572,0.559777,-0.352804,0.741761,0.570369
-0.347274,0.056790,0.900302,0.659898,-0.097075,0.745058
-0.158893,0.288809,0.702451,-0.432441,-0.757203,0.489529
-0.381840,0.293602,0.884947,0.635700,0.587180,0.501104
0.483157,-0.365623,-0.964399,-0.098053,0.142986,0.984856
0.329706,-0.286476,0.201156,-0.369779,0.849012,-0.377415
-0.111111,0.283196,0.738720,0.794827,-0.601282,-0.081909
0.545398,-0.175039,-0.872156,0.941662,-0.333754,0.043364
0.492745,-0.077161,0.072038,0.108983,0.985623,-0.129111
-0.328980,0.379245,0.875501,-0.417802,0.387857,0.821589
-0.238962,-0.023744,0.899792,-0.546780,0.382791,0.744649
-0.505441,-0.012393,0.921503,0.892278,-0.002372,0.451480
-0.025549,0.238482,0.950382,0.195382,-0.318516,0.927563
-0.118677,0.046321,0.465542,-0.126391,0.886767,-0.444600
-0.176668,0.190931,0.764541,0.897845,-0.009345,0.440212
-0.356809,0.377857,0.842465,0.770970,0.633495,0.065499
0.009121,0.172390,0.569812,0.883090,0.468812,0.019157
0.157131,-0.164128,0.366624,0.853672,0.369252,0.367284
-0.055918,0.508024,0.828989,-0.709034,0.287923,0.643717
0.233779,-0.268375,-0.986684,0.057977,-0.078943,0.995192
0.505234,-0.476493,-0.966932,-0.062941,-0.083522,0.994516
-0.208281,0.627534,0.846064,0.994949,0.100240,-0.005270
0.342248,-0.289692,0.202988,0.141419,-0.918018,0.370465
-0.424854,0.708194,0.708249,0.452996,-0.127387,0.882364
-0.373704,0.430202,0.899266,-0.372416,-0.919463,0.126073
-0.370958,-0.059754,0.871821,-0.089900,-0.991561,0.093404
-0.006374,0.138586,0.806848,-0.267735,-0.567325,0.778756
-0.235230,0.093747,0.806131,0.976872,-0.035820,0.210806
-0.076544,-0.272664,0.509888,-0.282780,-0.607977,-0.741889
0.387542,-0.317378,0.624655,-0.204075,-0.976177,-0.073702
0.343854,-0.329549,0.638529,0.167234,0.855079,0.490787
-0.080068,0.509223,0.837017,0.397797,0.834164,-0.382006
0.407183,-0.126857,-0.058196,0.984351,0.158644,-0.076711
-0.161794,-0.248637,0.754793,-0.175479,0.501882,0.846948
-0.737665,0.601173,0.443783,0.412151,-0.815461,-0.406392
-0.056281,0.054142,0.784563,-0.681072,0.131725,-0.720270
-0.257359,0.272412,0.797482,0.642097,0.751751,-0.150273
0.314055,-0.065431,0.265827,0.430245,-0.716116,-0.549606
-0.270678,0.253492,0.964304,-0.257622,0.848639,0.461999
0.636454,-0.281494,-0.966024,0.019409,0.120957,0.992468
0.516326,-0.198814,-0.947515,0.152809,-0.810095,0.566035
-0.312707,0.006401,0.945460,0.976317,0.011219,0.216052
-0.316439,0.487970,0.942402,0.539243,0.827807,0.154764
-0.378006,0.138524,0.934756,0.938319,0.334894,0.086038
-0.123497,0.305963,0.759157,0.727771,-0.660763,0.183690
0.049026,-0.182670,0.682635,0.289946,0.597253,0.747811
0.305556,-0.004572,0.222166,0.712737,-0.151643,0.684844
0.062708,-0.315548,0.575769,0.698329,-0.176227,-0.693744
-0.203980,0.259420,0.387491,0.645707,-0.304728,0.700145
0.506219,-0.181850,-0.785248,-0.388017,-0.864086,0.320622
0.239532,-0.060448,-0.992752,0.044530,0.280505,0.958819
0.404333,-0.149181,0.477759,0.181218,0.954372,-0.237348
0.092247,0.179705,0.708838,0.350975,0.312710,0.882626
-0.503835,0.022987,0.932653,-0.549705,-0.820403,0.157362
0.731448,-0.097279,-0.969926,-0.113841,0.082715,0.990050
0.140496,-0.255700,0.391633,0.168603,0.401455,0.900226
-0.131322,0.178759,0.785392,-0.526958,-0.524142,0.669022
0.481707,-0.085486,-0.258102,0.851556,0.498475,-0.162405
-0.397284,0.286601,0.917298,0.538880,0.770929,-0.339524
-0.337324,0.319395,0.931331,-0.679563,0.089721,0.728110
0.552602,-0.098414,-0.979579,-0.029810,0.091070,0.995398
-0.183146,0.003058,0.902835,0.432861,0.885204,-0.170425
-0.579809,0.323936,0.557817,0.133136,-0.759077,0.637242
-0.339449,0.385110,0.717949,0.892854,0.432215,0.126501
0.381997,-0.900041,0.183587,-0.473759,-0.328016,-0.817287
0.395627,-0.214266,0.431311,0.818046,0.382692,-0.429358
0.030784,0.513322,0.714254,0.058680,0.995719,0.071419
0.327115,-0.326271,0.208404,0.437499,0.328302,0.837145
-0.286640,0.220004,0.898024,0.836028,-0.506922,-0.209972
0.186516,-0.348469,0.244753,0.765967,-0.640285,-0.057704
0.663868,-0.153723,-0.966422,-0.274463,0.418664,0.865674
-0.115257,0.321666,0.852213,-0.458158,-0.678699,0.573985
0.502022,-0.278908,-0.970388,-0.098707,0.029391,0.994682
-0.566076,0.360073,0.757070,-0.556068,-0.355506,-0.751268
0.761817,0.083845,-0.728191,0.135354,-0.188973,0.972609
0.735334,-0.247439,0.369062,-0.447321,0.033286,0.893754
-0.310012,0.209661,0.903758,0.616160,-0.704430,0.352315
-0.132825,0.356541,0.924768,-0.688346,-0.704281,0.173690
-0.063640,-0.092486,0.753964,-0.018642,-0.022831,0.999566
0.021870,0.173336,0.574081,0.921462,0.381858,0.071363
-0.206156,-0.131019,0.743579,0.442763,0.886383,-0.135223
-0.148735,0.323369,0.866581,0.334270,-0.938201,0.089677
0.366191,-0.057358,0.176754,-0.502480,0.842228,-0.195359
-0.147595,0.353388,0.932159,0.562016,0.725368,0.397466
0.248290,-0.301612,0.201284,-0.356380,0.920362,0.161021
0.539646,-0.064926,-0.977190,0.139142,-0.119116,-0.983082
0.400395,-0.495664,-0.968843,0.126972,0.217858,0.967686
0.190144,-0.214707,-0.979834,-0.558365,-0.306311,0.770975
-0.218335,0.108315,0.348418,0.104723,0.610378,-0.785157
-0.085044,-0.085107,0.246490,-0.469316,-0.360012,0.806309
0.512386,-0.086747,-0.747975,-0.754587,-0.637575,-0.155232
-0.336339,0.383911,0.934214,0.914029,-0.176244,0.365362
0.216833,-0.316494,0.608471,-0.669512,0.053878,-0.740844
-0.210199,0.238798,0.533510,-0.049201,-0.821576,0.567972
0.277830,-0.316432,0.204916,-0.310063,-0.811943,-0.494580
0.125571,-0.136695,-0.997388,-0.175867,0.070694,0.981872
-0.047781,-0.045313,0.570561,0.747682,-0.663626,-0.023915
0.218076,-0.271781,0.134208,0.366830,-0.833247,-0.413684
-0.560634,0.747106,0.489419,-0.593527,0.517592,-0.616299
-0.074419,0.686374,0.732413,0.861633,0.499773,-0.088405
0.293584,-0.290575,0.210586,-0.196281,0.980391,-0.017550
-0.601990,0.451202,0.594852,0.819893,0.568465,0.067997
0.105256,0.527386,0.755605,0.996020,-0.072713,0.051548
0.542807,-0.289061,-0.962313,0.132434,-0.043477,0.990238
0.153815,-0.461924,0.652785,0.802773,-0.596214,0.009181
-0.177291,-0.187147,0.612469,0.323044,0.939192,0.116454
-0.449212,0.432598,0.895762,0.595690,0.553313,-0.582236
0.374586,-0.275376,0.585916,0.836106,0.366888,-0.407824
-0.026741,0.194904,0.637031,-0.069485,0.994236,-0.081652
-0.405887,0.261565,0.869289,0.100688,-0.933940,0.342955
0.685635,-0.060828,-0.973224,-0.169355,0.283690,0.943843
0.817786,-0.286539,0.118550,-0.295608,0.118156,0.947974
-0.212842,0.275817,0.905415,0.885923,-0.214713,0.411143
-0.484090,0.388263,0.427584,-0.145512,-0.825328,0.545583
0.544207,-0.202094,-0.916453,-0.529250,0.842849,-0.097471
0.481291,-0.334027,-0.970643,-0.213108,0.352324,0.911292
0.493626,-0.158326,-0.473602,-0.720727,-0.502929,-0.477090
0.174440,-0.187273,-0.991175,-0.188900,0.052639,0.980585
0.018243,0.240059,0.944823,0.964440,0.247484,0.092770
-0.376762,0.379434,0.882573,0.103409,0.991481,0.079194
0.554001,0.117018,0.341903,-0.301393,-0.569537,0.764716
0.430400,-0.056664,0.063723,-0.654621,0.748573,0.105400
0.601887,-0.466024,-0.677124,-0.722593,-0.324421,0.610418
-0.202114,0.247123,0.817807,0.361955,-0.910080,-0.201848
-0.067112,0.167281,0.941462,0.734255,0.650114,-0.195504
0.466730,-0.106487,-0.168518,-0.110745,0.636138,0.763586
-0.333541,0.250023,0.853854,-0.320430,-0.355420,-0.878067
0.561982,0.094756,0.108897,0.844537,-0.486437,-0.223914
-0.139770,-0.055656,0.813092,-0.033951,-0.978980,-0.201112
-0.280006,0.588496,0.625148,-0.008246,-0.840554,0.541666
-0.468490,0.457257,0.905638,-0.494286,0.822797,0.280511
-0.058146,0.054898,0.769622,0.769286,-0.173549,0.614882
-0.250311,-0.126289,0.728239,-0.628405,-0.743985,-0.227143
0.053379,-0.524422,0.607324,0.774833,-0.619515,0.125835
-0.421331,0.379245,0.426740,-0.108812,0.687227,-0.718247
-0.347067,0.291836,0.818635,0.639040,0.752376,-0.159866
0.635209,-0.027907,-0.242731,-0.505973,0.650016,-0.566985
-0.406561,0.328225,0.566722,-0.258499,-0.954086,0.151320
-0.387230,0.388957,0.735583,0.049632,-0.442780,0.895256
0.022026,-0.670860,0.634419,-0.927065,0.037789,0.372991
-0.086287,0.594110,0.874163,0.216989,0.859370,-0.463033
-0.964863,0.363415,0.464634,-0.022201,-0.098317,0.994907
0.184339,-0.244537,-0.993533,-0.047880,-0.163502,0.985380
0.053276,0.048339,0.417676,0.807681,-0.475715,0.348349
-0.206830,-0.037619,0.937782,0.160376,0.936882,0.310696
0.526275,-0.213320,-0.854029,0.156454,-0.987431,0.022411
0.458281,-0.124965,-0.160379,0.954408,0.145167,-0.260828
-0.164542,0.041592,0.880869,0.242622,0.969935,0.018998
-0.428275,0.056349,0.906403,-0.245792,0.660989,-0.708999
-0.231861,0.335540,0.706433,0.289110,0.915538,0.279653
0.174286,-0.289061,0.237825,0.944767,0.189770,-0.267213
0.694756,-0.129757,-0.963889,0.145917,-0.554616,-0.819212
-0.421227,0.374641,0.852117,0.627402,0.758630,0.175636
-0.184234,-0.012897,0.826727,0.034373,-0.950651,0.308353
-0.171694,-0.036925,0.892497,-0.165970,-0.982846,0.080421
0.430245,-0.359001,0.584626,0.782899,0.409731,-0.468176
0.705277,-0.139532,-0.968318,0.041174,0.292091,0.955504
-0.107172,0.070475,0.868970,0.620391,-0.772576,-0.135061
-0.262644,0.472330,0.620019,-0.486368,0.548503,-0.680141
0.122513,-0.750765,0.600602,-0.106784,-0.958183,0.265485
-0.801306,0.585595,0.644677,0.506875,-0.535890,0.675203
-0.042391,0.494592,0.885122,-0.406751,-0.469580,0.783613
0.220409,-0.182480,-0.994011,-0.074026,0.007209,0.997230
0.128524,-0.046574,0.628971,-0.503690,0.277497,-0.818103
-0.038090,-0.251979,0.696923,-0.448134,0.893334,-0.033621
0.025757,0.437391,0.655461,-0.706811,-0.641819,0.297467
-0.326337,0.466086,0.609299,-0.074320,0.438883,0.895466
-0.375311,0.488096,0.870276,-0.263504,0.561283,0.784556
0.113962,0.103774,0.367293,-0.747695,0.602153,-0.279938
-0.652415,0.340775,0.349007,0.334151,0.883080,0.329414
0.166408,-0.190049,0.296124,-0.723464,0.225545,-0.652479
0.002229,0.025131,0.742527,0.255742,0.905960,0.337391
-0.333125,-0.014852,0.900955,-0.036929,-0.995691,0.085068
-0.092558,0.457257,0.818205,-0.798127,0.458853,0.390445
0.188796,-0.143191,-0.988069,-0.256264,0.463594,0.848180
0.158012,-0.357236,0.207878,0.979727,-0.110087,-0.167381
0.064470,0.445590,0.797944,0.908401,0.139729,-0.394060
0.371217,-0.012077,-0.988898,-0.191564,0.315757,0.929301
-0.529488,0.974773,0.495138,-0.457002,0.344812,0.819911
0.227612,-0.237032,0.675005,0.867828,0.496707,-0.012490
-0.351420,0.658437,0.674050,0.836190,-0.427986,0.342950
-0.223569,-0.109009,0.832206,0.842592,-0.531965,-0.083970
0.569807,0.060133,0.303658,0.647612,0.365709,-0.668472
0.392310,-0.338694,-0.978257,-0.261588,0.154203,0.952782
-0.246112,0.257780,0.663584,0.549113,-0.110120,0.828462
-0.493625,0.382587,0.858059,0.071989,0.886426,0.457237
-0.023839,0.017248,0.771566,-0.429104,0.056474,-0.901488
0.074524,-0.217924,-0.995922,0.009889,0.042388,0.999052
0.352198,0.046447,-0.993023,0.324533,-0.102688,-0.940284
0.509070,-0.106550,-0.249978,-0.416607,0.907390,-0.055521
-0.338205,0.181282,0.337443,0.147638,0.758913,-0.634236
-0.053068,-0.216094,0.739262,-0.572627,0.360098,-0.736497
0.507774,-0.195094,0.283046,0.525574,0.848531,0.061383
-0.312759,0.263519,0.942274,-0.738760,-0.673592,0.022535
-0.898269,0.385993,0.401986,0.605696,-0.462666,0.647358
-0.307213,0.884022,0.533685,0.819357,-0.313799,-0.479776
-0.501814,0.454230,0.850174,-0.357860,0.683234,-0.636496
-0.396092,0.728312,0.600682,0.929511,-0.273277,-0.247648
0.767205,-0.235708,-0.963475,-0.007439,0.161765,0.986801
0.484091,-0.232555,-0.971010,-0.231933,-0.615291,0.753409
0.071259,0.105477,0.626279,0.810169,-0.110395,0.575707
-0.353596,0.278088,0.547910,-0.198303,-0.776709,0.597829
0.451596,-0.076152,-0.142793,0.815002,0.578126,0.039261
-0.295035,0.577082,0.883194,-0.629173,-0.598010,0.496513
-0.054105,-0.132469,0.848390,0.770990,0.020900,-0.636504
0.290786,-0.396146,-0.978002,0.007002,0.196665,0.980446
-0.373237,0.420679,0.887638,-0.179794,0.872666,-0.454014
-0.428327,0.461671,0.849425,0.792720,-0.320653,0.518437
-0.088723,-0.419166,0.562787,-0.553759,-0.055658,0.830815
-0.416252,-0.044934,0.925039,-0.659588,0.647390,-0.381876
0.496994,-0.172327,-0.495440,0.122778,-0.992141,0.024136
-0.057525,-0.122758,0.766851,0.178241,0.954394,-0.239505
0.616605,-0.448996,0.023997,-0.451100,0.065873,0.890039
-0.175632,0.183047,0.767536,0.443802,-0.047191,0.894882
0.065921,-0.281052,0.681441,0.826341,0.273342,-0.492386
-0.268087,0.141614,0.843102,0.546459,0.794811,0.263928
-0.317164,0.502917,0.920388,-0.272402,0.960547,-0.056093
-0.011245,-0.017564,0.529608,-0.766721,0.625494,0.144556
0.053276,0.070791,0.778893,0.621637,0.675266,-0.396968
-0.430815,0.378488,0.850461,0.430780,0.899159,0.077082
0.055400,0.026708,0.774895,0.366359,0.547710,-0.752193
0.127695,0.306278,0.654425,-0.622845,-0.411741,0.665232
0.558147,-0.270205,-0.827444,0.892083,0.451727,-0.011447
0.071206,-0.251727,0.580452,-0.230009,0.026046,0.972840
0.065195,-0.002240,0.764175,-0.757651,-0.557405,0.339507
0.457557,-0.138082,-0.242810,0.989934,0.111978,0.086549
0.099606,-0.459465,0.621979,0.624682,-0.356610,-0.694696
-0.121268,0.273988,0.691109,-0.721296,-0.680136,0.130946
0.142050,0.509097,0.708105,0.520742,0.681706,-0.513912
0.373497,0.014095,-0.988165,-0.216794,0.124551,0.968239
-0.297004,0.288809,0.837351,-0.618757,-0.682362,0.389258
-0.685893,0.450572,0.398100,-0.274954,-0.760319,0.588485
-0.062344,0.544413,0.710495,0.265802,0.939589,-0.215687
-0.060167,0.372182,0.901688,0.112391,0.612134,0.782726
-0.073539,0.086873,0.778128,-0.528566,0.562666,-0.635630
0.474606,-0.291773,-0.101586,-0.051613,0.101483,0.993497
-0.003523,0.160218,0.873924,-0.424909,-0.846331,-0.321211
0.732432,-0.081764,-0.971647,-0.181021,0.088191,0.979517
-0.421849,-0.060828,0.910305,0.544054,-0.824711,0.154455
-0.462894,0.374641,0.576964,0.378914,0.882237,0.279431
0.158012,0.096710,0.367230,-0.434208,0.801327,-0.411509
-0.426565,0.048465,0.490327,-0.059830,-0.756697,0.651022
-0.347844,0.336108,0.836937,0.361706,0.915851,0.174316
-0.333178,0.107179,0.911149,-0.563096,-0.390327,-0.728401
0.183717,0.019708,0.641300,-0.565060,0.178056,0.805608
-0.579913,0.367515,0.761674,-0.628323,-0.199921,-0.751826
0.350280,-0.231735,0.162338,0.584211,-0.732830,-0.348795
-0.355566,0.023239,0.859986,0.847097,-0.412061,0.335608
-0.228545,-0.008104,0.816246,0.708284,0.705850,-0.010469
-0.227871,0.330306,0.900668,0.031997,0.965660,-0.257830
-0.347948,0.357614,0.843580,0.625492,0.740581,0.245559
-0.149357,0.163623,0.745442,0.829276,0.391898,0.398394
-0.025238,-0.101756,0.753789,-0.043869,0.395669,0.917345
-0.274046,-0.020844,0.906084,-0.586297,-0.809964,0.014629
0.007929,0.129946,0.815911,0.123805,0.603421,-0.787754
-0.213827,-0.118216,0.814541,0.713651,-0.686242,0.140619
0.393917,-0.136632,0.019489,-0.227063,0.775937,0.588527
0.333334,-0.006401,0.215317,0.914093,-0.303071,0.269410
0.398269,-0.177057,-0.286168,-0.310973,0.950413,0.003308
0.733727,-0.227761,0.101156,-0.439179,-0.100928,0.892712
0.120440,0.155299,0.292619,-0.548342,-0.829841,-0.103368
-0.155006,0.064863,0.771725,0.335767,0.921642,-0.194514
0.258292,0.018888,0.247175,-0.905456,-0.136312,-0.401956
0.157494,-0.165894,-0.993979,-0.196028,0.139752,0.970589
-0.195895,0.070728,0.773716,0.434935,0.888109,-0.148644
-0.348414,0.142875,0.928209,0.962051,0.201532,0.183965
-0.068200,0.029357,0.548260,-0.383780,-0.891861,-0.239366
0.835251,0.006969,-0.728239,-0.546821,0.633675,0.547214
-0.252073,0.464888,0.925374,0.304663,0.733911,0.607087
0.645056,-0.290953,-0.965514,-0.132687,0.136815,0.981670
-0.468750,0.531232,0.867106,-0.452247,0.476161,-0.754151
-0.314314,0.006843,0.901178,0.298527,0.580614,0.757476
0.490621,-0.103648,-0.400951,-0.666028,0.745926,-0.001390
0.535760,-0.273232,0.147572,0.656094,0.070649,-0.751365
0.356395,-0.637121,0.489993,-0.107246,0.993836,0.028072
0.562137,-0.364740,-0.966199,0.695184,-0.053040,-0.716872
0.290941,-0.369848,-0.974195,-0.129198,0.293279,0.947257
0.124690,0.023555,0.365159,0.844878,0.529169,0.078492
0.165683,-0.375588,0.220303,0.625586,-0.753681,0.201512
-0.064417,-0.241573,0.515781,-0.458619,-0.295144,-0.838188
0.061205,0.255194,0.330737,-0.563595,-0.804898,-0.185743
0.657443,-0.153407,-0.964176,-0.273368,0.638949,0.719037
-0.435893,0.335162,0.563918,0.015516,-0.379395,0.925105
0.414749,-0.070477,0.064934,-0.592238,0.791911,0.148765
-0.260728,0.262258,0.890856,0.761085,-0.590984,-0.267372
0.464552,-0.071863,-0.181389,0.976819,0.190886,0.096893
0.659204,-0.192319,0.369396,0.371967,0.924850,0.079331
0.472015,-0.113865,-0.338765,-0.660170,0.674873,-0.329729
0.098362,-0.270205,0.668857,0.758082,0.156569,0.633086
0.463154,0.025447,-0.348035,0.294391,-0.102688,0.950152
0.376504,-0.311071,-0.981204,0.216799,-0.001062,-0.976216
0.258292,-0.117586,0.261877,0.519058,-0.840166,-0.157159
0.531458,0.090089,-0.981220,-0.074067,0.182679,0.980379
0.695223,-0.226753,-0.961022,0.126105,0.057813,0.990331
-0.030369,-0.012141,0.729434,0.105545,0.896516,0.430254
0.622617,-0.570649,0.024044,0.977390,-0.203397,0.057774
-0.331674,0.363793,0.942991,0.912176,0.386369,-0.136581
0.482639,-0.139848,-0.862407,0.860461,-0.360033,0.360532
0.130598,-0.511304,0.658312,0.116194,-0.371661,-0.921068
0.373083,-0.202346,0.146951,0.445441,0.455903,0.770542
-0.228959,0.371930,0.930790,0.892824,0.418746,-0.165886
-0.060737,-0.215401,0.657500,0.973716,0.226999,-0.018669
-0.076648,-0.073188,0.622695,-0.447249,0.621329,0.643365
0.745647,-0.244600,0.196808,-0.279706,0.343223,0.896640
-0.143553,0.522971,0.629417,-0.442132,-0.508065,0.739181
0.218128,-0.073567,0.308293,0.728842,-0.045549,0.683165
0.218388,-0.248511,-0.994520,-0.302809,0.095729,0.948231
-0.536018,0.319395,0.395296,-0.464923,0.615746,-0.636163
-0.306332,-0.006401,0.904810,-0.341870,-0.913428,-0.220850
0.038195,-0.716142,0.635168,-0.186514,-0.917397,0.351560
-0.393812,0.369848,0.420942,0.051014,-0.694644,0.717543
0.193097,-0.229527,0.674098,0.917803,0.352136,-0.183407
0.503577,0.102702,-0.525466,0.936957,-0.323992,-0.130924
0.087117,-0.062908,0.635709,0.782347,-0.523845,-0.336927
0.310946,-0.211995,0.541825,0.628967,0.665502,-0.401880
-0.287987,0.323811,0.836029,0.592081,0.653808,-0.471143
-0.420812,0.279097,0.748071,0.293319,0.138843,0.945879
0.549959,-0.192129,-0.955224,0.794957,0.466250,0.388141
-0.247460,-0.039890,0.912503,0.070728,0.927990,-0.365832
-0.421227,0.343235,0.817345,0.093292,-0.783551,0.614284
0.101057,-0.192571,0.287809,0.894218,-0.446052,-0.037571
0.260832,-0.317062,-0.984008,0.335844,0.027117,-0.941527
-0.847533,0.590956,0.516992,-0.754045,-0.003886,-0.656811
-0.537520,0.458959,0.439562,0.073174,-0.503440,0.860926
-0.654798,0.404534,0.770689,0.660489,-0.070992,0.747472
0.538091,-0.166021,-0.920038,0.963697,0.262215,-0.050309
0.482795,-0.173904,-0.503230,0.139794,-0.938054,0.317036
0.753991,-0.263268,0.202208,-0.279706,0.343223,0.896640
-0.083593,0.134992,0.504313,0.559993,0.703169,0.438133
0.521456,-0.285719,-0.968779,0.274272,-0.111298,-0.955190
-0.021662,0.570396,0.740106,-0.572672,0.366101,0.733496
0.420968,-0.028789,-0.063866,0.859414,0.440025,-0.260355
-0.373808,0.372308,0.886332,0.961590,0.043452,0.271030
-0.222584,0.216598,0.939869,-0.442496,0.882749,-0.157960
-0.124067,0.368650,0.853153,-0.256159,-0.427217,0.867103
0.438433,-0.257466,0.586266,0.774013,0.068451,-0.629458
0.455069,-0.156498,-0.201156,-0.158646,-0.987334,0.001835
0.168792,-0.178823,0.372789,-0.734215,-0.582050,-0.349494
-0.810116,0.591586,0.503214,-0.695128,0.077978,-0.714644
0.660240,-0.348154,-0.965610,0.245005,-0.082207,0.966030
0.132826,-0.600668,0.675467,-0.396098,0.426580,0.813103
0.271870,0.022735,0.252081,-0.536682,0.798028,-0.274087
-0.316593,0.519061,0.884994,0.916275,-0.397629,-0.048294
0.003369,0.166147,0.555030,0.990826,0.092573,0.098456
-0.208851,0.549332,0.923128,0.411922,-0.724332,-0.552869
0.740983,-0.277016,-0.964893,0.270171,-0.166837,-0.948247
-0.506478,0.368461,0.559840,0.405604,0.412227,0.815815
0.242226,-0.188851,-0.987130,-0.713210,-0.060542,0.698331
0.603597,-0.238042,-0.961070,0.106149,-0.141461,0.984236
0.332556,-0.224987,-0.983036,0.288021,-0.022527,-0.957359
-0.286795,0.190679,0.927285,0.053689,-0.705424,0.706749
0.477768,-0.426986,0.628541,0.861285,0.507810,-0.017808
-0.548974,0.332072,0.768571,-0.699234,0.183205,-0.691019
-0.225332,0.208841,0.790792,0.080106,-0.932927,0.351041
-0.056281,0.167345,0.870722,0.803171,0.120869,0.583359
-0.146092,0.341279,0.851831,0.810135,-0.492221,0.318433
0.022803,-0.697096,0.608248,0.440459,0.885707,-0.146695
0.100850,-0.476240,0.622886,-0.644534,0.551013,0.530058
0.270834,-0.059250,0.581663,0.617249,0.632079,-0.468487
-0.104478,-0.095072,0.541172,-0.720251,0.580013,0.380557
-0.145678,0.313846,0.888387,-0.357443,0.933783,-0.016850
-0.136453,0.035285,0.577426,-0.330907,-0.941687,0.061043
-0.399616,0.380947,0.739517,-0.413630,-0.496216,0.763334
-0.093491,0.302115,0.915896,0.369281,0.667026,0.647076
0.425841,-0.520008,-0.963826,0.423788,0.211781,-0.880654
0.350539,-0.451077,-0.968732,-0.202652,-0.168612,0.964625
-0.219993,-0.028033,0.837574,-0.662970,0.414837,-0.623203
0.583542,-0.316874,-0.958044,0.118847,0.627139,0.769787
0.432421,-0.072873,0.132264,-0.124492,-0.779674,0.613686
0.399928,-0.412039,-0.962185,-0.057476,0.313202,-0.947946
-0.525497,0.417967,0.439323,0.038583,-0.630643,0.775114
0.450301,-0.159904,-0.461337,0.972942,0.202167,0.111857
0.310272,-0.497620,0.710781,0.869133,0.429009,0.246089
-0.512593,0.747170,0.501382,-0.001430,-0.648224,0.761448
0.083904,-0.018573,0.624559,0.991249,-0.056358,0.119369
0.183769,-0.471069,0.625451,0.280184,0.853603,0.439156
0.558096,-0.209788,-0.860114,0.817258,-0.517786,-0.252956
-0.532805,0.350739,0.399677,0.134672,-0.921295,0.364801
0.487148,-0.128623,-0.656432,-0.688958,0.687548,0.229378
0.498342,-0.494088,-0.966135,-0.034839,-0.120769,0.992069
-0.206623,0.194021,0.777634,-0.494051,0.799198,-0.342338
0.330639,-0.305899,-0.981809,-0.207987,-0.016448,0.977993
0.674544,-0.115000,-0.968620,-0.146082,0.429632,0.891110
0.047834,0.150001,0.599599,0.528227,0.823175,-0.208227
-0.022699,0.288493,0.711450,-0.240476,0.457031,0.856326
0.497513,-0.124523,-0.648866,0.593244,-0.793453,0.135988
-0.531302,0.460789,0.445042,0.073174,-0.503440,0.860926
0.997669,-0.262952,0.118725,-0.174812,0.796254,0.579155
-0.230617,0.152209,0.845937,0.754966,0.633459,0.169578
-0.357795,0.311197,0.873717,0.337091,0.599696,0.725765
0.241605,-0.370227,-0.985186,-0.385032,0.131027,0.913555
-0.243781,0.184877,0.909684,-0.672996,0.731971,0.106277
-0.055555,-0.161480,0.849760,-0.190597,0.043298,0.980713
0.505027,-0.319396,-0.970834,-0.208902,0.260120,0.942708
0.171020,-0.141046,-0.994584,-0.409945,0.317610,0.855026
-0.281924,0.429508,0.895189,-0.155239,-0.825662,0.542387
-0.127021,0.214328,0.722744,0.966317,-0.128264,0.223112
0.056644,0.105981,0.457737,-0.598097,0.663335,-0.449741
0.162728,0.122567,0.282298,0.632797,0.773440,0.036850
0.492123,-0.070855,0.067896,0.061277,-0.997801,0.025272
0.028089,-0.692934,0.623555,0.752117,0.499097,-0.430375
0.414956,-0.384417,-0.966199,-0.279175,0.277106,0.919388
0.075923,0.054520,0.393767,0.830802,-0.422711,0.362053
-0.261453,-0.042601,0.947308,-0.207514,-0.945460,-0.251086
0.523062,0.030996,0.097396,0.887000,-0.458881,0.051570
0.199109,-0.260934,0.680405,0.982957,0.149415,0.107101
-0.385105,0.418345,0.688943,-0.611185,0.221792,-0.759777
0.416822,-0.201085,-0.968588,-0.232731,-0.260865,0.936902
-0.023373,0.564027,0.713983,0.568861,0.789669,-0.229826
0.127695,-0.035916,0.530579,0.607012,0.596855,-0.524691
0.001555,-0.678492,0.634961,0.796851,0.577688,-0.176932
0.481033,-0.328162,-0.958123,0.288926,0.017961,-0.957183
-0.000259,0.447545,0.885775,-0.465198,0.613399,-0.638226
-0.153296,0.274934,0.913762,0.191281,0.236735,-0.952559
-0.346497,0.253744,0.903472,0.730311,0.647815,0.216752
0.022181,-0.222275,0.547703,-0.745922,-0.150429,-0.648823
-0.219216,0.699113,0.641475,0.588540,0.147702,-0.794862
-0.023010,0.231671,0.906626,0.851111,-0.219260,-0.477006
0.102561,-0.698168,0.666945,-0.812953,0.275454,0.513061
-0.423403,0.762558,0.591077,0.805459,-0.189593,-0.561508
-0.117899,0.037492,0.579130,-0.330907,-0.941687,0.061043
-0.201026,0.361649,0.937671,0.804605,0.575306,0.147087
-0.001762,0.004635,0.560701,0.740819,-0.669198,-0.057978
0.442061,-0.066125,-0.118295,0.929516,0.368379,0.017258
0.237200,-0.120676,-0.990204,0.070588,-0.032822,-0.996965
0.494299,-0.105919,-0.332696,0.562994,-0.826095,-0.024589
0.350539,-0.027718,0.144163,0.437789,0.822473,-0.363152
-0.213360,0.307035,0.935712,0.948549,-0.292296,0.121724
-0.422937,0.418976,0.725531,0.204473,0.483009,0.851407
0.572450,-0.043042,-0.975677,0.047357,0.162839,0.985516
0.432576,-0.237032,-0.968525,-0.620936,-0.400129,0.674044
-0.311359,0.414562,0.924944,0.329663,0.706390,-0.626367
-0.237666,-0.103522,0.751830,0.250385,0.962309,-0.106156
0.493109,-0.126037,-0.687923,0.964762,0.163327,0.206298
0.732587,-0.115694,0.181994,-0.459486,0.397855,0.794093
0.835873,-0.184688,0.349756,0.452368,0.515222,0.727948
-0.498808,0.317630,0.387013,-0.047572,-0.935972,0.348845
0.027208,-0.001482,0.488464,0.871065,0.467064,0.151978
0.398736,-0.082900,0.072834,-0.279946,-0.910014,-0.305784
-0.325611,0.019582,0.925039,0.840775,0.505797,-0.193047
0.643709,-0.043484,-0.972841,-0.189622,0.164678,0.967949
-0.440246,0.382209,0.838674,0.389853,0.908075,0.153020
-0.066645,0.244537,0.982749,0.454818,0.855043,-0.249084
-0.255078,-0.043736,0.847657,-0.305102,-0.935913,-0.176008
0.443823,-0.040078,-0.190564,0.449792,-0.868609,0.207861
0.451079,-0.208337,-0.969640,-0.435701,-0.166571,0.884544
0.162055,-0.081891,0.563297,0.595887,0.481807,-0.642480
0.018916,0.340459,0.636776,0.774085,0.599171,-0.204415
0.494404,-0.180652,-0.526278,-0.711821,-0.553810,0.431978
-0.321466,0.138965,0.909875,-0.622486,0.325517,0.711723
0.247098,0.139470,0.444644,0.582900,0.804962,-0.110744
-0.111629,0.370226,0.867775,0.913932,-0.374172,-0.157238
-0.223310,0.237410,0.379176,-0.047445,-0.993209,0.106226
0.521456,0.047331,0.081515,-0.503088,0.657054,-0.561412
0.396093,-0.649860,-0.245693,0.927364,0.360878,0.098806
-0.219735,-0.147731,0.801559,0.362364,0.920044,-0.149037
-0.146040,-0.252799,0.755477,-0.211935,0.480788,0.850839
0.700197,-0.150380,-0.965753,-0.183158,-0.174754,-0.967427
-0.470564,0.645319,0.490152,-0.486466,-0.265244,-0.832464
-0.027777,0.074827,0.756832,-0.004243,0.786397,-0.617706
0.489636,-0.129064,-0.626534,-0.340385,0.917913,0.203896
-0.102093,-0.122442,0.512643,0.896458,-0.030546,0.442074
0.252954,0.009365,0.347590,0.618237,0.456721,-0.639679
0.452944,-0.078864,-0.183332,0.892407,-0.213992,0.397262
0.114480,0.149055,0.411321,0.985639,0.070590,0.153405
-0.037469,-0.106487,0.576948,-0.277608,-0.291859,0.915288
0.285500,-0.208275,0.574192,0.510414,0.730811,-0.453203
0.705327,-0.218680,0.358230,0.564308,0.597399,-0.569799
0.017620,-0.535711,0.593434,0.946549,0.220248,-0.235660
0.710303,-0.233059,0.194100,-0.451160,0.279716,0.847475
0.009328,0.025888,0.476437,0.743918,0.667145,-0.038774
-0.248549,0.207517,0.786443,0.095035,-0.892347,0.441231
-0.093646,-0.086999,0.775898,0.201795,-0.298429,0.932855
0.439106,-0.410084,-0.962631,-0.192637,-0.141746,0.970978
0.716004,-0.211617,0.362149,-0.447984,-0.025039,0.893691
0.191335,-0.408634,0.608359,0.375829,0.869612,0.320198
0.458333,-0.078864,-0.147668,0.958472,0.095692,-0.268655
-0.055140,-0.325765,0.562994,0.728103,-0.459074,0.509036
0.209008,-0.284647,0.662947,-0.541650,0.343055,0.767417
-0.808458,0.490178,0.607786,0.178858,-0.801018,0.571298
-0.183146,0.350928,0.930264,0.290467,0.398895,-0.869777
0.383137,-0.158326,0.252256,-0.465565,-0.538584,0.702265
0.404592,-0.321099,-0.975756,0.444860,-0.197020,-0.873660
-0.099658,0.030744,0.696238,0.878252,-0.428750,-0.211769
0.494663,-0.352884,-0.965450,-0.079596,0.213475,0.973701
0.176254,-0.295620,0.398100,0.561270,0.599456,0.570639
0.485541,-0.088197,-0.978528,-0.058128,0.319157,0.945917
0.139563,-0.423769,0.202415,0.616093,-0.161531,-0.770932
-0.189261,0.266105,0.876186,0.167641,0.675700,-0.717862
-0.091780,-0.222716,0.665034,0.478645,0.586478,0.653408
-0.236785,0.011005,0.888053,-0.311272,-0.819971,0.480373
-0.562241,0.958881,0.482395,-0.327543,0.374440,0.867474
0.006323,0.561883,0.854698,-0.016497,0.813473,0.581369
-0.426720,0.017816,0.949920,0.918971,-0.058100,-0.390021
-0.165474,0.229212,0.750301,0.847769,0.353038,0.395793
0.685479,-0.310063,-0.966358,-0.116551,-0.207010,0.971372
-0.313691,0.047709,0.940968,0.864350,0.386629,0.321585
-0.099606,0.492636,0.750651,0.918994,0.217083,0.329129
0.468751,-0.055529,0.120541,-0.460908,0.810455,0.361561
-0.487821,-0.035349,0.918333,0.324776,-0.111146,-0.939238
-0.137749,0.464257,0.618633,0.323721,0.552449,-0.768118
-0.061722,0.627282,0.776073,-0.506989,-0.702545,-0.499392
0.125518,-0.008609,0.652944,-0.556402,0.788915,0.260825
-0.418117,0.184246,0.543816,-0.053966,-0.484406,0.873177
0.705743,-0.262132,-0.966900,0.255108,-0.143304,0.956234
0.275187,0.044681,0.263040,0.766323,-0.608871,0.204999
0.474503,-0.055782,-0.979006,0.169931,-0.143566,-0.974942
-0.416978,0.427616,0.740696,0.676413,0.212090,0.705325
0.499844,-0.108567,-0.319364,-0.739485,0.625854,0.247929
0.394279,-0.319838,0.212195,-0.708259,0.023462,0.705563
-0.230773,0.457131,0.897562,0.984554,-0.115753,-0.131354
0.587377,0.001986,-0.977397,-0.003447,0.042856,0.999075
-0.425062,0.389146,0.881410,-0.111165,-0.978009,-0.176469
0.444911,-0.084287,-0.066526,-0.659370,0.273629,-0.700256
0.080535,-0.434680,0.530978,0.806348,0.543318,0.233683
0.214656,-0.342983,0.211016,-0.476861,0.876983,-0.059197
-0.001140,0.339829,0.898534,-0.563265,0.668196,-0.486052
-0.043325,0.160596,0.679067,0.974913,-0.073471,0.210113
0.231084,-0.625895,0.697513,-0.111415,0.954036,0.278214
-0.315195,0.383975,0.697274,0.260058,0.940260,-0.219727
0.373238,-0.025826,0.132233,0.717865,-0.580919,0.383671
-0.224762,0.279790,0.381868,0.390896,-0.524876,0.756112
-0.115567,0.149749,0.517040,0.540598,0.840328,0.040030
-0.191542,-0.003185,0.892560,0.694209,0.708513,0.126819
-0.221496,0.261817,0.848629,0.265220,-0.884326,0.384221
0.257567,-0.118028,-0.988977,0.340682,-0.080916,-0.936690
0.384432,-0.107621,0.017466,0.935586,-0.178068,-0.304911
0.447191,-0.111721,-0.054038,-0.783901,0.594420,0.179340
0.307266,0.034402,0.234878,0.421368,-0.790016,0.445335
-0.074367,-0.088891,0.793260,0.995674,-0.060012,-0.070931
-0.740257,0.380127,0.433000,0.923659,-0.360160,0.130914
-0.204291,0.486141,0.908266,0.545269,0.433163,-0.717671
0.453514,-0.086053,-0.298975,-0.538589,0.808918,0.235740
0.175995,0.046259,0.650172,-0.585818,0.419404,-0.693483
0.446880,-0.148867,-0.977700,-0.451587,0.431335,0.781038
0.465589,-0.115190,-0.077390,0.651121,-0.758813,-0.015630
-0.212686,0.349226,0.722521,0.221316,0.513279,0.829195
-0.133395,0.594172,0.911834,-0.210294,-0.455878,0.864842
0.621269,-0.097720,0.322980,-0.251509,0.639319,0.726645
0.134484,0.149938,0.651288,0.682660,0.481486,-0.549678
-0.110904,0.252042,0.945858,0.988289,0.116054,0.099079
-0.720356,0.588812,0.449120,0.377972,0.830215,0.409731
0.433562,-0.059944,-0.181675,0.864345,-0.456472,0.211046
0.371631,-0.146596,0.583606,0.551192,0.295502,-0.780299
0.713671,-0.191941,-0.502481,0.034641,-0.995997,0.082403
0.019797,0.246429,0.614237,-0.681954,0.716974,0.144520
0.255338,0.035978,0.283604,-0.254537,0.943392,-0.212654
-0.288609,0.237347,0.934358,-0.095474,-0.663650,0.741925
-0.087323,-0.194778,0.647672,0.978021,0.103241,-0.181152
-0.752488,0.330748,0.431200,0.872017,-0.380065,0.308443
0.427031,-0.062972,0.119251,0.843110,-0.303259,-0.444071
0.246321,-0.367578,0.686410,-0.763137,-0.620113,0.181882
-0.337427,0.414750,0.899792,-0.085649,0.985451,0.146800
0.062500,0.179768,0.466179,-0.718900,0.625044,-0.304144
-0.867278,0.833948,0.496046,0.057529,-0.107412,0.992549
-0.069030,0.585217,0.898295,0.869939,-0.172612,0.461965
0.507670,-0.135496,-0.494023,0.885440,0.462851,-0.042020
-0.434494,0.290575,0.873303,0.983457,-0.134965,0.120814
0.534722,0.073250,0.089066,0.862098,-0.433936,0.261697
0.466678,-0.168921,-0.267484,0.829917,-0.548344,-0.102741
-0.461338,0.720997,0.484242,0.431083,-0.171021,0.885957
-0.948953,0.851858,0.512373,-0.230698,0.176829,-0.956823
-0.580276,0.630814,0.499948,0.212006,0.124986,0.969243
-0.499171,-0.056223,0.918429,-0.034181,0.106801,0.993693
0.438382,-0.160596,-0.289864,0.467606,-0.883909,0.007059
0.008759,0.105288,0.923701,-0.690155,0.672152,0.268137
0.452270,-0.344559,-0.967792,0.001691,0.155521,0.987831
0.314521,-0.279160,-0.978767,-0.234725,0.072381,0.969363
-0.106394,-0.019456,0.620115,0.360856,0.721519,0.590925
-0.019797,-0.380002,0.559044,-0.434268,0.388930,0.812493
0.508758,-0.157822,-0.529512,0.939523,0.075808,-0.333991
-0.230877,-0.049917,0.619589,-0.391022,0.797412,-0.459604
0.554468,0.053889,-0.981793,-0.119499,0.074953,0.990001
0.135262,0.331504,0.659570,0.634942,0.667391,-0.389150
-0.287105,0.543405,0.867186,0.585308,-0.480498,0.653098
0.457557,-0.063034,-0.134941,0.905663,-0.397330,0.147996
0.024979,-0.233501,0.502799,0.270569,0.221758,0.936812
0.142361,-0.194337,-0.999633,-0.418780,0.096653,0.902929
-0.028866,-0.033709,0.532777,0.897617,-0.418175,-0.139329
0.346808,-0.317946,0.184160,0.840497,0.535081,-0.085160
0.116035,-0.386057,0.237426,-0.204123,0.931845,-0.299999
0.059547,0.170750,0.469556,-0.801266,0.550499,-0.234359
-0.123134,0.201526,0.735471,0.913053,0.068858,0.401987
-0.047004,0.031123,0.744057,0.677784,-0.731546,-0.073817
0.364688,-0.049286,-0.981172,-0.231352,0.160411,0.959554
-0.018035,0.024375,0.757007,-0.453842,0.207120,0.866677
0.221808,-0.401760,0.641300,0.753473,0.651984,-0.084823
-0.435426,0.374578,0.574909,0.273737,0.468629,-0.839914
-0.076752,0.114306,0.754777,-0.609251,0.678971,0.409649
-0.240878,0.257276,0.391266,0.602257,0.055273,0.796387
0.470306,-0.087252,-0.358086,-0.564466,0.824136,-0.046671
-0.000052,0.328288,0.722712,0.812986,0.072054,-0.577808
0.008551,-0.061646,0.444389,0.841166,-0.095983,0.532191
0.622772,-0.187651,0.353834,0.160333,0.982050,-0.099356
-0.506737,0.416075,0.439594,-0.000629,-0.669774,0.742565
-0.722377,0.460915,0.471388,-0.357802,0.556744,-0.749676
0.478389,-0.143380,-0.299564,0.678422,-0.734099,0.029030
-0.319133,0.392110,0.890553,0.849424,0.426449,-0.310838
-0.414283,0.539999,0.837001,0.981296,-0.168408,-0.093258
0.450353,-0.135875,-0.270590,0.887094,-0.326938,-0.325845
0.132619,-0.547568,0.652323,-0.609888,0.508075,0.608191
-0.027674,-0.011447,0.763936,0.977358,-0.209927,0.026485
0.191387,-0.452590,0.643259,-0.189081,0.845517,-0.499348
-0.212686,0.478573,0.946240,-0.581384,0.813041,-0.030934
0.274254,-0.235456,0.650220,0.330078,0.046706,0.942797
0.192320,0.130135,0.422758,-0.012291,-0.996642,0.080952
-0.046434,0.342099,0.587684,-0.695003,-0.714785,-0.077796
-0.081623,-0.211617,0.665990,-0.601546,-0.511350,-0.613729
0.328151,0.013086,0.174412,0.404921,-0.903008,0.143583
0.459214,-0.136127,-0.215046,0.981711,-0.189757,0.015333
0.510883,-0.217545,-0.856609,0.119193,-0.987859,0.099638
0.229581,-0.129947,0.264234,-0.694353,0.717624,-0.053764
-0.093387,0.430265,0.624432,0.426410,0.574813,-0.698402
0.424960,-0.437644,-0.965578,-0.535759,-0.470448,0.701171
-0.395107,0.169047,0.935234,0.967404,0.196643,0.159563
-0.206312,0.325009,0.880009,-0.002095,0.960729,0.277480
0.403607,-0.186201,-0.971089,-0.208552,0.387651,0.897905
-0.285344,0.139722,0.890299,-0.536986,0.715979,0.446116
0.095564,-0.194085,0.673333,-0.449355,-0.335721,-0.827872
0.043118,-0.181472,-0.996719,0.057778,0.010243,0.998277
-0.232068,0.277583,0.851305,-0.101397,-0.830480,0.547743
-0.400704,0.701636,0.637637,0.332251,0.894170,0.300116
0.221601,-0.306089,0.694295,0.832474,-0.005803,0.554034
0.106084,-0.301107,0.251969,-0.331784,-0.743749,0.580307
0.454032,-0.124334,-0.343225,0.639687,-0.768610,-0.006263
0.401690,-0.124649,0.036087,-0.134609,0.963741,-0.230399
-0.377176,0.650048,0.635598,0.338642,0.846588,0.410621
-0.057421,-0.084603,0.763442,0.962970,-0.227601,-0.144519
0.499689,-0.767035,-0.226085,0.794482,-0.490091,0.358622
-0.430555,0.212814,0.882334,0.608182,0.634582,-0.476886
0.451855,-0.175228,-0.958888,0.778160,-0.001316,-0.628064
-0.301150,0.200580,0.873096,0.547463,0.525986,-0.650863
-0.433872,0.373884,0.722935,-0.036338,0.590638,0.806118
-0.362873,0.314666,0.872060,-0.017067,0.661112,0.750093
-0.545035,0.634534,0.496778,0.169985,0.459664,0.871673
-0.240568,0.183363,0.829483,0.909305,-0.331870,0.251050
-0.415423,0.038754,0.911133,-0.131285,0.566864,0.813283
-0.402207,0.406552,0.571612,0.151939,0.957176,0.246432
0.023425,0.238924,0.338160,-0.397592,-0.884113,-0.245488
0.121269,-0.179580,0.223489,0.912560,0.325505,-0.247550
0.544933,-0.357550,-0.338940,-0.275040,-0.402896,0.872942
-0.075508,0.091539,0.875453,0.934096,-0.356248,0.023494
-0.262697,0.526062,0.862981,0.701056,-0.229299,0.675236
-0.397802,0.375650,0.910146,0.812244,-0.460436,0.358131
-0.133395,0.402768,0.607324,0.320062,0.588034,-0.742816
0.018916,-0.170813,0.680931,0.453583,0.767081,0.453706
0.486888,-0.272539,-0.969528,0.040898,-0.069325,-0.996755
0.526742,-0.203608,-0.827253,0.040765,-0.991126,0.126520
-0.416822,0.340711,0.862041,0.961389,0.262086,0.083921
0.174181,0.272474,0.668283,0.935546,0.338281,-0.101587
0.320689,0.010689,0.199532,-0.329509,0.869973,-0.366839
-0.013059,0.629174,0.860464,-0.075575,-0.997133,-0.003872
-0.101420,0.250339,0.935297,0.916335,0.328484,0.228972
-0.297730,0.057548,0.888355,0.713195,-0.097764,0.694114
0.488650,-0.106108,-0.473475,-0.685681,-0.627816,-0.368360
-0.141843,-0.116262,0.766277,0.143965,-0.710941,0.688358
0.136402,0.577712,0.825851,0.998138,-0.002115,0.060954
0.431695,-0.080126,0.008514,-0.028118,0.974233,-0.223783
0.043377,-0.062845,0.271928,0.609784,0.690763,-0.388600
-0.428845,0.282755,0.734101,0.205882,0.302166,0.930757
-0.027415,0.085233,0.824194,0.958382,-0.248671,-0.140237
-0.073383,-0.157065,0.840792,-0.060536,0.918642,0.390426
0.067476,0.314602,0.710861,0.357364,0.074673,-0.930975
0.049233,0.534197,0.777650,0.809885,-0.071838,0.582173
-0.386764,0.161353,0.952389,0.969244,-0.227162,0.094678
-0.037157,-0.083278,0.627283,-0.418535,0.888487,0.188199
0.655474,-0.087441,-0.738322,-0.520591,0.846691,0.109998
-0.258654,-0.158200,0.826281,-0.020573,0.981199,0.191899
-0.107224,0.322171,0.962328,0.847684,-0.257837,-0.463629
-0.260261,0.447797,0.966008,0.955871,-0.217564,0.197424
-0.108519,0.140226,0.264887,0.664223,0.314391,-0.678208
-0.189780,0.124207,0.768396,0.801863,0.026942,-0.596900
-0.009328,0.203797,0.626136,-0.318298,0.944251,0.084127
0.071311,-0.618705,0.653438,-0.707537,0.190123,0.680621
0.215589,-0.299530,0.704808,0.838233,0.048275,-0.543172
-0.527052,0.419796,0.762900,0.699365,0.377528,0.606928
-0.295553,0.255068,0.935712,0.554029,0.712261,-0.430971
-0.482742,0.221076,0.420113,-0.678123,0.717190,0.160584
-0.702062,0.530350,0.623205,-0.159657,-0.931488,0.326863
-0.103648,0.740295,0.792464,-0.226108,0.910754,-0.345547
0.551928,-0.160344,-0.752993,0.944626,0.311979,0.101739
-0.137852,-0.022358,0.892943,-0.442860,0.892313,0.087477
0.447658,-0.367831,0.644932,0.825307,0.559703,-0.074839
-0.074419,0.620597,0.916278,0.876877,0.445371,-0.180918
0.625260,-0.274178,-0.965849,-0.198482,0.101165,0.974869
-0.429311,0.362785,0.774226,0.384565,-0.455150,-0.803086
-0.088827,0.129001,0.893580,0.941792,-0.287463,-0.174335
0.496839,-0.093684,0.142857,-0.068941,0.782288,0.619091
-0.124170,-0.043547,0.602577,0.815416,-0.424566,-0.393497
0.136091,-0.230599,0.658376,-0.689688,0.711020,0.137045
0.463049,-0.294674,-0.970643,-0.052369,0.074001,0.995882
0.312604,0.017186,0.170048,0.721793,-0.498588,0.480026
0.478960,-0.417842,-0.955750,0.018603,0.021266,0.999601
0.123808,-0.220636,0.504838,0.147690,0.189223,0.970764
0.457557,-0.480844,-0.391999,0.003178,-0.881868,0.471486
-0.280058,0.153596,0.886173,-0.127890,0.814193,0.566334
-0.529229,0.322107,0.398275,-0.081411,-0.528512,0.845013
-0.204342,0.298016,0.920213,0.978595,-0.144451,0.146582
0.479893,-0.133794,-0.235387,0.941034,0.124972,0.314383
0.697554,-0.305837,-0.964574,0.086115,-0.240424,0.966841
-0.061463,0.144136,0.880710,0.763044,-0.576322,0.292603
-0.082452,0.644814,0.915084,-0.075076,-0.995698,-0.054300
-0.411225,0.364992,0.859875,0.792175,0.608883,-0.041476
-0.120957,0.229968,0.730501,0.862177,-0.281522,0.421183
-0.102249,0.214832,0.941398,0.850067,0.427607,0.307470
-0.350280,-0.012329,0.901974,-0.502591,0.854380,0.132048
0.502954,0.072557,-0.977668,0.185386,-0.182167,-0.965633
0.104944,-0.168480,-0.999251,0.024078,-0.222163,0.974712
0.387697,-0.113676,0.020269,0.966400,-0.225158,-0.123994
-0.341054,0.041213,0.865975,0.797024,-0.584981,-0.150166
0.010676,-0.310315,0.547623,-0.383768,-0.311527,0.869295
0.148269,-0.276448,-0.993788,0.160913,0.341490,0.926008
0.258811,-0.788982,0.219076,0.843838,0.355947,0.401547
0.608780,-0.258790,-0.804809,0.912115,0.350099,0.213252
0.802343,-0.158326,-0.368918,-0.079168,-0.565932,0.820642
0.381945,-0.084729,0.095995,0.367057,-0.863981,0.344682
0.485490,-0.092171,-0.202877,0.937911,0.237042,0.253249
0.406095,-0.304828,0.590280,0.880672,0.346112,-0.323455
0.228182,-0.340460,-0.989790,-0.025269,-0.004152,0.999672
-0.140444,0.545927,0.838769,0.522563,0.518683,-0.676680
