-0.461246,-0.620189,0.922696,-0.325825,-0.858632,-0.395713
-0.049891,0.597617,0.467345,0.856123,0.430708,0.285560
-0.147080,-0.114162,0.434321,0.254224,0.374561,-0.891669
0.488311,-0.385139,0.637093,-0.224565,0.930037,0.290865
-0.685447,0.409238,0.468752,0.931192,0.289894,-0.221003
0.275139,-0.405161,-0.922407,0.817410,0.335396,-0.468349
0.450549,-0.376017,0.844069,0.488936,-0.862584,-0.129964
0.064221,0.407863,0.459241,0.898921,-0.337637,-0.279182
-0.409591,-0.419939,0.521763,-0.163655,-0.940601,0.297467
0.404686,-0.132862,-0.963755,0.015009,0.112991,0.993483
0.702425,-0.147641,0.832592,0.858392,-0.497377,-0.125613
0.044599,-0.502485,0.879042,0.729842,0.318718,0.604772
-0.113615,0.026877,0.761407,0.926192,0.339617,0.163792
-0.159536,0.116252,0.836118,0.692874,0.583004,-0.424302
-0.269073,-0.382641,0.797686,0.911375,-0.162837,0.377994
-0.303584,0.780898,0.596982,0.913832,-0.268397,0.304751
0.051654,0.432625,0.447375,0.864171,-0.003855,-0.503184
0.526460,-0.225397,0.602102,-0.024115,-0.330952,0.943339
0.350938,0.046955,0.681475,-0.521593,-0.775665,0.355365
0.167032,0.347430,0.860259,0.882770,0.452024,0.128032
0.364993,-0.323586,-0.953482,0.173769,0.495422,0.851094
-0.347574,0.828947,0.579369,0.099228,-0.137370,0.985537
-0.706285,-0.103106,0.547345,-0.238071,-0.894070,0.379423
-0.106892,-0.102546,0.745810,0.985140,-0.158783,0.065482
-0.621831,-0.627780,0.495266,-0.619821,0.369592,0.692260
-0.703805,-0.482052,0.589676,0.278887,-0.878389,-0.388143
-0.182856,-0.481645,0.450646,0.103978,0.753343,0.649356
0.317918,-0.062495,0.882365,0.385075,-0.102986,-0.917121
-0.453144,0.324400,0.725789,0.582120,-0.626056,-0.518836
-0.782525,-0.464064,0.576571,0.071374,0.676103,0.733342
0.181147,-0.363023,0.040678,0.982382,0.173600,0.069195
-0.151212,0.051489,0.383920,-0.045065,-0.643355,0.764240
-0.320010,-0.205064,0.822284,0.895273,-0.090514,0.436226
-0.880208,0.051439,0.754457,-0.426447,0.457900,-0.780045
-0.320673,-0.501110,0.417453,-0.553786,0.549400,0.625684
-0.056119,-0.064277,0.525510,-0.403788,-0.676899,0.615437
-0.542943,-0.337189,0.817012,-0.438498,0.298155,-0.847834
-0.417805,-0.417849,0.811621,0.605396,0.690454,0.395940
0.228501,-0.392270,0.081721,0.594045,-0.256716,0.762370
0.483738,-0.311764,0.573215,0.629871,-0.610422,-0.480257
-0.278941,0.949758,0.606188,-0.394258,-0.455924,0.797931
-0.181477,-0.118189,0.181115,-0.642901,-0.421770,-0.639366
-0.303197,-0.160836,0.789142,0.856851,0.345464,0.382701
-0.342116,0.378259,0.836152,-0.182232,-0.483559,0.856132
0.248292,-0.359506,0.061564,-0.649111,0.126060,0.750176
0.376130,-0.381366,-0.936817,0.533497,0.351812,0.769161
0.115270,-0.037833,0.833897,-0.635473,0.771984,-0.014652
-0.330485,0.547527,0.592981,0.044643,0.215459,0.975492
0.285832,0.048535,0.891350,0.595252,0.748134,-0.293208
0.118632,-0.106878,-0.984370,-0.309724,0.246471,0.918326
0.283628,-0.350487,-0.511490,0.849285,-0.527931,0.001933
-0.015767,-0.088330,0.840102,-0.265898,-0.145971,-0.952886
-0.029051,-0.251228,0.630752,0.550557,0.781801,-0.292701
-0.575688,-0.537084,0.968265,-0.650887,-0.124644,-0.748873
-0.361796,-0.290567,0.728417,-0.021857,0.948453,0.316163
-0.174586,-0.029884,0.876398,0.758854,-0.630304,-0.163884
-0.142117,-0.457850,0.770392,0.539076,0.672806,0.506685
0.863230,-0.286235,0.480585,-0.041851,0.537086,0.842489
-0.462127,-0.022852,0.329400,0.451781,0.069033,0.889454
0.219461,-0.344780,0.583708,0.979345,0.201012,0.021858
-0.193549,0.840566,0.538953,0.913349,0.332026,-0.235694
-0.506561,0.574839,0.621327,-0.526125,-0.140436,-0.838731
-0.076186,-0.374285,0.098521,0.415250,0.757110,0.504333
-0.212900,0.143309,0.475211,-0.647499,0.746791,0.151819
-0.241896,0.203384,0.792583,0.419811,0.737357,-0.529209
-0.585944,0.236605,0.415707,0.753151,0.597999,-0.274155
-0.588700,-0.332959,0.812435,-0.337751,0.140435,-0.930700
0.343163,-0.054496,-0.968807,0.136894,-0.259897,-0.955884
-0.483405,-0.460805,0.881229,-0.788910,0.159661,-0.593404
0.086273,0.528217,0.693088,0.557576,0.680425,-0.475533
-0.065547,0.349010,0.750727,0.667524,0.303492,-0.679930
-0.163011,0.444854,0.655554,0.345234,-0.082672,0.934868
-0.401324,-0.287152,0.691307,-0.134111,0.829198,-0.542628
-0.283904,-0.185651,0.219207,0.227199,0.708415,0.668228
0.291178,-0.321343,-0.516321,0.065892,-0.997262,-0.033579
-0.001380,-0.354004,0.469939,0.388686,0.921288,0.012313
0.110475,-0.038088,0.814232,-0.413056,0.905894,0.093492
0.158543,-0.300351,0.255046,0.829267,-0.543616,0.129609
0.384730,0.067997,0.910625,-0.155714,-0.759445,0.631661
-0.275964,0.279713,0.480195,0.988734,0.086278,0.122317
0.091344,0.585233,0.620920,0.920743,0.376169,-0.103584
-0.077179,0.484752,0.542784,-0.526986,0.303552,-0.793814
-0.108709,0.194312,0.566061,0.959104,0.212452,-0.187040
-0.870561,-0.519453,0.595999,0.002898,0.681133,0.732154
0.399504,-0.218415,-0.959280,0.096981,-0.172814,-0.980168
-0.002867,0.354972,0.463276,0.898735,-0.288572,0.330154
0.204962,0.092712,0.796703,-0.675701,0.509391,-0.532868
-0.746748,-0.179639,0.520712,0.037781,-0.267761,0.962744
-0.349118,0.360884,0.460716,0.991522,0.105239,-0.076211
0.218633,0.495351,0.634262,-0.169842,-0.220223,0.960550
-0.162073,0.195945,0.172452,-0.415219,0.066203,-0.907309
-0.175027,0.759293,0.524052,0.918504,0.228581,-0.322648
-0.075523,-0.490154,0.487095,0.232550,-0.833490,0.501213
-0.411741,0.904971,0.589947,0.236962,0.867712,-0.436949
-0.541897,-0.028612,0.542496,0.400228,0.628057,-0.667354
-0.109537,0.048024,0.851138,0.932187,-0.323934,-0.161537
-0.195699,0.139029,0.680187,-0.661671,-0.465068,0.588136
0.105624,0.697690,0.656080,0.481066,0.736975,-0.474808
-0.030265,-0.125781,0.540598,0.966635,-0.110441,0.231127
-0.310916,-0.164404,0.641280,-0.703053,-0.347761,-0.620306
-0.106616,0.769332,0.430083,0.727437,0.630544,0.270646
0.223868,0.016536,0.350473,-0.256428,-0.317652,-0.912875
0.131972,-0.427836,0.555974,-0.012186,-0.998780,0.047849
-0.234235,-0.201344,0.772291,0.230727,-0.547972,0.804047
-0.741126,-0.257038,0.575351,0.316963,0.939500,-0.129901
0.691288,-0.324910,0.799110,0.051305,-0.966884,0.250004
-0.082360,-0.103718,0.367408,0.775113,0.000614,0.631822
0.614056,-0.510484,0.803721,-0.209958,-0.334031,-0.918880
0.589470,-0.261268,0.895961,0.114353,0.991256,0.065834
-0.241291,-0.632927,0.451172,0.020698,-0.515586,0.856588
-0.654519,-0.347533,0.527697,-0.413680,0.898198,-0.148693
-0.159260,0.239560,0.313804,-0.112278,-0.582453,0.805073
0.611522,-0.320578,0.786039,-0.082233,-0.994890,0.058575
-0.218027,0.356551,0.796940,-0.639110,0.103392,-0.762134
-0.409039,-0.364501,0.895198,0.852090,-0.387192,-0.352172
-0.498237,0.883826,0.586726,-0.335527,-0.820150,0.463439
0.252535,0.039413,0.964399,-0.651764,0.755798,-0.063036
-0.150771,0.426156,0.386921,-0.768292,-0.448189,-0.457006
0.197244,-0.353955,-0.195016,0.746718,-0.663377,-0.048410
-0.337211,0.131743,0.408960,0.818015,-0.131378,0.559992
0.338479,-0.131537,0.824810,0.514048,0.551560,-0.656915
0.174640,-0.316604,0.277932,0.865851,-0.431589,0.253047
-0.022658,-0.163791,0.817029,0.321007,0.711766,0.624775
-0.604742,-0.072789,0.533122,-0.335549,0.915255,-0.222969
0.040023,0.455505,0.449714,0.951159,0.031388,0.307101
0.302534,-0.440574,0.596932,-0.542857,-0.373679,0.752110
0.580483,0.096074,0.849070,0.949178,0.190170,-0.250792
-0.180925,-0.349470,0.687086,-0.231983,-0.956726,-0.175669
0.761906,-0.395174,0.741827,-0.412422,-0.411126,0.812947
0.456448,-0.167206,0.755711,0.068550,0.907977,0.413375
0.448457,-0.271406,0.749761,0.929452,-0.295851,0.220435
0.148897,-0.539680,-0.952804,-0.068794,0.069884,0.995180
-0.072105,0.641638,0.531816,0.461250,-0.057252,0.885421
0.164939,0.102036,0.918661,0.199251,0.872206,0.446716
-0.653691,0.002267,0.498860,0.431234,-0.299092,0.851223
0.390022,-0.470433,0.691918,-0.119942,0.985396,0.120866
0.516261,-0.222595,-0.952363,-0.170510,0.211973,0.962286
0.298510,-0.132812,0.870345,0.009358,0.978802,0.204594
0.297793,0.035541,0.977775,0.855302,0.441576,-0.271052
-0.043001,-0.526740,0.859411,0.777849,-0.627542,-0.033786
-0.248622,0.200582,0.804433,0.427799,0.835400,-0.345102
-0.250715,0.069222,0.843933,0.938695,-0.337676,-0.069475
0.077011,-0.433288,-0.962433,-0.147031,0.256036,0.955420
-0.041951,-0.238798,-0.987438,0.164821,-0.107237,-0.980477
-0.220396,0.362464,0.560873,-0.411339,0.763836,0.497348
0.117585,-0.179689,0.393804,-0.726766,-0.680011,-0.096939
0.535060,-0.763370,0.286205,-0.153033,-0.029006,0.987795
0.208435,-0.295558,0.232617,0.843502,-0.516024,0.149072
-0.163836,0.487961,0.538970,0.212771,-0.369263,0.904640
0.389746,-0.180249,0.389379,0.169743,0.731310,-0.660585
-0.176406,-0.374844,0.833914,-0.051648,-0.645188,0.762276
-0.419901,-0.008994,0.395177,-0.136039,0.438143,-0.888552
0.684122,-0.429926,-0.938207,-0.302084,0.070460,0.950674
0.094046,0.479045,0.881229,0.896815,0.375317,0.234223
-0.645260,-0.018318,0.385361,-0.097148,-0.975134,0.199186
0.621996,-0.100303,0.796109,0.279189,0.923675,-0.262445
0.096912,-0.176735,0.920509,0.853804,-0.072886,0.515468
-0.246418,-0.482562,0.783700,-0.143142,-0.976933,-0.158470
0.151875,-0.273751,0.707837,-0.402637,-0.745376,0.531318
-0.051708,0.353087,0.741691,0.884204,0.206806,-0.418825
0.176958,-0.020355,0.541530,0.272806,-0.401306,0.874374
0.078555,-0.073757,0.540682,0.390239,0.155590,-0.907472
0.502204,-0.293726,0.735690,0.193245,0.868244,0.456956
-0.059703,0.507221,0.671134,0.933473,0.332804,0.133676
0.641511,-0.532039,0.808197,-0.207944,0.867472,0.451942
0.292723,-0.356601,-0.702174,-0.595076,0.458425,-0.660099
0.611522,-0.213880,0.872024,0.296059,0.788267,0.539429
-0.602094,-0.436447,0.548565,-0.258659,-0.515015,-0.817224
0.225083,-0.389060,-0.556398,0.833014,0.527843,-0.165738
0.458544,-0.184939,0.726501,-0.912954,0.031946,0.406810
0.223209,0.051744,0.348048,-0.369999,-0.321094,-0.871779
0.194983,-0.048535,0.314617,0.428153,-0.181665,0.885259
0.342338,-0.526892,-0.949481,0.217422,0.013690,-0.975982
-0.338203,-0.139334,0.784175,0.732661,0.592972,0.334054
0.545204,-0.594457,-0.933155,-0.131291,0.131800,0.982543
-0.115987,0.020713,0.351117,0.916173,0.313323,0.249912
-0.145589,-0.340706,0.848561,-0.206654,0.897861,-0.388767
0.152204,-0.310897,-0.963772,-0.174999,0.194731,0.965119
0.575853,-0.171435,0.672456,0.043235,-0.446320,0.893829
0.053471,-0.399404,0.503386,0.775411,0.590392,0.223995
-0.249282,-0.609845,0.776766,-0.791535,0.138407,-0.595244
-0.301929,0.477465,0.525425,-0.684961,0.722479,0.094089
0.126350,-0.407913,0.853206,-0.370769,0.486466,0.791126
-0.091401,-0.532039,0.777936,-0.126143,0.646914,0.752058
-0.650771,0.297138,0.419860,0.651655,0.627594,0.425995
-0.362402,0.619729,0.470244,-0.407538,-0.584834,0.701343
0.079161,0.604546,0.630905,0.853044,0.517483,-0.067287
-0.082579,-0.433288,0.422454,0.427279,0.612176,0.665337
-0.457716,-0.277828,0.217021,-0.665701,0.140996,-0.732777
-0.878720,0.007719,0.746896,0.460143,-0.558140,0.690470
-0.063397,0.087105,0.638093,0.561659,0.825580,-0.054374
0.102757,-0.431555,0.579284,0.027824,0.989685,0.140531
-0.014993,0.809634,0.541445,-0.094838,0.919632,-0.381159
0.298234,-0.367150,0.090536,0.997771,-0.019016,-0.063967
-0.510528,-0.261675,0.921831,-0.505304,0.329242,-0.797664
0.911795,0.081653,0.689104,-0.432005,0.243030,0.868509
-0.380706,-0.041043,0.407688,0.039112,-0.513065,0.857458
0.148402,0.463759,0.324874,0.169593,-0.123753,-0.977713
-0.086936,-0.089400,0.324552,0.986551,-0.066554,-0.149293
0.017641,0.720365,0.543293,-0.475452,0.078171,0.876262
0.213505,-0.199459,0.832846,-0.526351,0.847733,-0.065599
0.005235,-0.131438,0.266506,0.829424,-0.164233,0.533933
0.257828,-0.058521,0.825980,0.859858,0.286741,-0.422403
0.416371,-0.276096,-0.953855,0.116380,-0.255972,-0.959653
-0.506945,-0.415660,0.933986,0.890876,-0.372696,0.259687
0.134180,-0.140099,0.475380,0.561361,0.787606,-0.254066
-0.132635,0.248731,0.552702,0.848016,0.256214,-0.463921
0.339085,-0.332144,-0.950515,-0.007600,0.526873,0.849910
0.077896,-0.180759,0.832914,0.256993,0.949844,-0.178186
-0.541180,-0.276248,0.441254,0.986473,-0.155464,0.051989
-0.200605,0.897022,0.496080,-0.774571,-0.290463,-0.561846
0.027785,0.393492,0.445764,0.869944,-0.128207,0.476194
0.117033,-0.202722,0.901674,0.926805,-0.023318,-0.374817
0.096031,-0.055414,0.901776,0.918441,0.301113,-0.256509
-0.252370,0.468244,0.573045,-0.733636,-0.679536,0.002959
0.011026,-0.463302,0.641314,0.568180,0.820119,-0.067654
-0.050056,-0.195690,0.695783,0.538375,0.835245,-0.111886
-0.236109,0.711038,0.586234,-0.350962,0.042826,0.935410
0.252370,-0.374487,0.893571,-0.003364,0.414270,0.910148
-0.017476,-0.101423,-0.995355,-0.291375,0.243673,0.925053
0.750109,-0.123946,0.821166,0.833622,-0.222987,-0.505322
-0.171390,-0.623806,0.521644,-0.167312,0.902322,0.397269
0.238535,-0.189626,0.339233,-0.397315,-0.769232,-0.500422
0.502480,0.091182,0.857868,0.600330,-0.641308,0.477837
-0.095260,0.117119,0.891926,-0.557919,0.779089,-0.285913
0.215601,-0.317673,0.202628,0.774084,0.620796,-0.124125
-0.164112,-0.177854,0.812520,0.201602,-0.366443,0.908337
-0.469129,-0.570099,0.885400,-0.470065,0.716236,0.515796
0.275910,-0.172148,0.585997,-0.068009,-0.966797,0.246329
-0.612679,-0.296426,0.407417,-0.411639,-0.181174,-0.893157
0.076957,-0.429313,0.629345,-0.275144,0.952834,0.128071
0.722270,-0.134902,0.483602,0.589007,-0.039125,-0.807181
0.693936,0.001350,0.864276,-0.053726,0.744157,0.665841
0.026625,-0.412653,0.887535,-0.680836,0.413696,-0.604416
0.342005,-0.165016,0.906980,0.791102,0.451125,0.413090
0.654465,-0.355787,0.742267,0.469121,0.739744,-0.482395
0.469294,-0.364196,0.822335,0.301525,0.817442,0.490787
-0.311246,0.321850,0.467074,-0.681594,-0.385048,0.622228
-0.347298,-0.417800,0.395177,0.222170,-0.483779,0.846522
0.170673,-0.376527,0.852935,-0.198216,0.081428,0.976770
-0.049282,0.705841,0.436745,0.877676,0.185750,-0.441794
-0.079161,0.690251,0.556143,0.919468,0.367793,0.138947
-0.093000,-0.296784,0.585997,-0.517283,-0.684828,0.513254
0.190077,-0.283790,0.251282,-0.651485,0.687178,-0.321488
-0.452205,-0.480727,0.382734,-0.587984,0.642810,0.490989
0.241455,0.013068,0.346285,-0.280158,-0.336755,-0.898948
-0.497187,-0.247409,0.835101,0.767122,-0.171643,0.618112
-0.323483,0.464217,0.515270,0.771753,0.000376,0.635922
-0.396802,-0.346360,0.846340,0.708729,0.303263,0.636974
0.065655,-0.592420,0.868837,-0.765876,0.642972,-0.004607
0.211466,0.028254,0.767222,0.915326,-0.281661,0.287830
0.284564,-0.213218,0.715838,0.873446,-0.255714,0.414370
-0.008159,0.645258,0.523272,0.449724,0.365012,-0.815178
-0.194872,-0.128735,0.767442,-0.213480,0.618104,-0.756553
0.230759,-0.324705,0.131867,0.044577,0.989605,0.136731
-0.367806,-0.192530,0.414571,0.012691,-0.979932,0.198928
-0.038260,0.488064,0.672676,0.942458,0.277102,-0.187049
0.151269,0.028764,0.882823,0.752708,-0.588590,0.294945
-0.090792,-0.305293,0.528425,0.908738,0.105744,-0.403749
0.588753,-0.209803,0.860292,0.003573,0.781302,0.624143
-0.194488,0.243077,0.439271,0.699141,0.283894,-0.656206
0.113948,-0.439657,0.440610,0.152875,0.867925,0.472584
0.583848,-0.608520,0.301259,0.270572,0.110486,0.956339
-0.260749,0.405061,0.404586,0.863055,-0.043506,0.503233
-0.532967,-0.451581,0.951244,0.520483,0.437858,0.733061
-0.561025,-0.649130,0.983539,-0.738609,0.551608,-0.387538
0.226846,-0.326437,-0.333961,0.836504,-0.546565,0.039101
0.208653,-0.160939,0.869362,-0.669377,0.531306,-0.519276
0.249780,-0.628035,-0.951159,0.029140,0.045033,-0.998560
0.135613,-0.054599,0.737250,-0.113922,0.982346,-0.148383
-0.178334,-0.050114,0.445645,-0.251090,-0.862855,0.438674
0.029660,0.534788,0.326671,-0.009990,0.145137,0.989361
-0.348513,-0.177652,0.528680,0.747003,0.647371,-0.151318
0.403693,-0.154772,0.870701,0.633032,0.550440,-0.544321
-0.078279,0.103410,0.792244,0.062538,-0.931788,0.357576
-0.292006,-0.191765,0.648502,0.720465,0.258784,0.643398
-0.133298,0.130825,0.297682,-0.567298,0.040635,0.822509
0.523209,-0.030954,0.481500,-0.588286,0.258467,-0.766234
0.122713,-0.234008,0.889417,-0.449932,0.886546,0.107690
0.409315,0.096839,0.934308,0.231917,-0.783517,0.576469
-0.050662,0.159561,0.880008,-0.600938,0.700717,-0.384536
0.070729,0.635524,0.649502,0.953949,-0.156472,0.255925
-0.278887,-0.440117,0.732655,-0.551089,-0.691578,-0.466926
-0.489637,-0.537541,0.377139,-0.450089,0.885948,-0.111872
0.154465,-0.260555,0.119118,0.651010,0.084562,0.754344
0.567970,-0.337801,-0.942276,-0.199858,0.093957,0.975310
-0.541675,-0.007974,0.555262,0.267462,0.561059,-0.783375
-0.228061,-0.323228,0.866040,-0.656929,0.715829,-0.236714
0.218579,-0.601998,0.260148,0.708616,0.696744,-0.111411
-0.187927,0.316756,0.737928,0.528823,0.411202,0.742468
0.314994,-0.171588,0.623056,0.653317,-0.678571,-0.335736
-0.272326,0.527810,0.736334,0.734923,-0.072967,0.674213
0.099392,-0.174443,0.402992,-0.774687,-0.620520,-0.121717
0.347463,0.193753,0.851714,0.620487,0.781140,-0.069397
0.006669,-0.159614,0.817775,0.324830,0.848124,0.418534
-0.561247,-0.232174,0.261844,0.500840,0.138575,0.854375
-0.186383,0.842501,0.515881,0.966340,0.243671,0.082530
-0.474974,-0.631755,0.942157,-0.461160,-0.809812,-0.362679
0.031698,-0.343048,0.541886,0.761140,-0.512380,0.397660
-0.234400,0.325113,0.844476,0.938921,0.129180,0.318966
-0.196473,0.232223,0.856698,0.828630,0.398820,-0.392829
0.319570,-0.364908,-0.855936,0.910927,-0.359576,0.202280
-0.573814,-0.599246,0.880534,0.296127,0.512327,0.806121
-0.321003,0.232528,0.426082,0.949676,0.261772,0.172018
0.037597,0.158594,0.741233,-0.652467,0.757143,-0.031944
-0.370342,-0.343916,0.727468,0.326221,0.807992,0.490642
0.426627,-0.272274,-0.956414,-0.171937,0.264788,0.948855
0.103639,-0.044507,0.551854,0.230422,0.612953,0.755774
0.289967,-0.431098,-0.897961,0.999110,-0.041757,-0.005889
-0.409813,-0.597819,0.939903,-0.436542,-0.658498,-0.613035
0.893495,0.030801,0.698377,0.450584,-0.373509,-0.810842
0.576294,0.134545,0.853766,0.878904,0.353207,-0.320581
-0.487100,-0.024177,0.480025,-0.614552,-0.220821,-0.757340
0.411630,0.076456,0.921780,0.208931,-0.774380,0.597229
-0.139580,-0.013529,0.862886,-0.589686,0.488095,-0.643454
-0.352150,0.550432,0.461496,0.421354,0.004873,0.906883
-0.423043,0.431300,0.710379,0.361462,0.448777,0.817279
-0.127396,0.287255,0.673507,-0.021785,0.022139,0.999518
-0.289802,-0.501670,0.423708,-0.551590,0.535866,0.639215
0.208213,-0.399404,-0.071329,-0.249081,0.955297,0.159269
0.093992,0.497338,0.630057,0.941814,0.114024,-0.316205
-0.142945,0.119921,0.457478,-0.127637,-0.989378,0.069569
0.184344,-0.384066,0.856987,-0.045137,-0.396630,0.916868
-0.039417,-0.482612,0.892571,0.711172,0.560738,0.424037
-0.469789,-0.617234,0.950329,0.737661,0.044923,0.673675
0.191564,-0.589717,-0.949227,-0.029693,-0.013904,0.999462
-0.092061,-0.039516,0.626429,0.842454,-0.393947,0.367528
0.348953,-0.112174,0.897538,0.699655,0.521723,0.488148
0.148786,0.165169,0.919068,0.529493,0.431798,0.730197
0.024475,-0.283330,-0.974673,0.396646,-0.308038,-0.864745
0.881422,-0.036459,0.703327,-0.629704,0.280731,0.724337
-0.287212,-0.403531,0.731299,0.858123,0.495867,0.133192
-0.688479,-0.253116,0.764391,-0.377552,0.481889,-0.790719
-0.685225,-0.251331,0.821996,0.096344,-0.958791,0.267278
0.391674,-0.453465,-0.934647,0.493842,-0.035445,0.868829
0.217586,-0.362616,-0.494656,-0.451544,0.868611,-0.204018
-0.405513,0.070087,0.670015,0.050741,0.408530,0.911334
0.243935,0.200019,0.820284,0.770263,0.293514,-0.566167
-0.052701,-0.163029,0.814113,-0.001320,0.905680,0.423960
0.232744,-0.343150,-0.470159,0.575456,-0.812934,0.089377
0.396580,-0.232429,0.340776,-0.741042,0.414909,0.527927
-0.158600,-0.257548,0.575707,0.948296,0.217778,-0.230885
0.203418,0.190950,0.806908,0.884214,0.325536,-0.334949
-0.440903,0.454691,0.848171,0.197680,-0.379766,0.903715
0.048014,-0.100661,0.589744,0.331176,0.899779,-0.284111
-0.155347,0.119107,0.818792,0.890579,0.451260,-0.056867
0.225194,-0.356194,-0.333062,0.918397,-0.393409,0.042150
-0.106946,-0.546662,0.459767,0.063348,0.984094,0.165970
0.552919,-0.472218,0.587184,-0.646559,-0.180626,0.741172
-0.713118,0.433033,0.466277,0.340778,0.925526,0.165143
-0.074918,-0.294286,0.505336,-0.379229,0.531339,-0.757538
-0.425964,-0.102241,0.545056,-0.414694,-0.716473,0.560977
0.216924,-0.349573,-0.394007,0.898846,-0.438058,0.013420
-0.345864,0.442257,0.486942,0.889287,0.402896,-0.216432
0.294873,0.397874,0.736944,0.977703,-0.206970,0.035503
-0.283628,0.267942,0.695291,0.327949,-0.351733,0.876775
0.222435,0.328527,0.864598,0.077053,-0.379901,0.921812
0.056449,-0.156455,-0.983658,0.316035,-0.266899,-0.910432
0.248622,0.200529,0.818284,0.770263,0.293514,-0.566167
-0.251324,-0.185956,0.421928,-0.175176,-0.970653,-0.164761
0.435667,-0.487862,0.564840,-0.033199,0.186170,0.981956
0.029713,-0.157117,0.849799,-0.047477,-0.992335,0.114091
0.242448,-0.140202,0.800144,0.987941,0.151318,-0.032782
-0.628941,-0.637564,0.901165,0.450475,0.567241,0.689427
0.371719,-0.105398,0.885823,-0.148905,0.045118,0.987822
-0.006561,-0.309522,-0.976707,-0.425449,0.211754,0.879860
0.371500,0.073909,0.737656,0.710534,-0.352386,-0.609070
0.155845,0.025247,0.951210,0.579788,0.072864,-0.811502
0.674586,-0.335304,0.762357,0.229916,0.970912,0.066845
0.456340,0.034981,0.656826,0.238288,0.719439,-0.652401
-0.371719,-0.191765,0.840729,-0.007359,0.846448,0.532421
-0.180542,-0.071057,0.602645,-0.053652,0.708133,0.704038
0.149560,0.223002,0.848561,0.387315,-0.894674,0.222589
-0.030430,-0.241702,0.674558,0.502504,0.855649,-0.123915
0.509646,-0.221830,0.766764,-0.309192,0.788874,-0.531110
0.510693,-0.232836,-0.951091,-0.189875,0.204644,0.960244
-0.666760,0.292299,0.428421,0.526076,0.213566,0.823185
-0.631973,0.315991,0.416707,-0.158654,-0.279280,0.947012
0.256283,-0.673690,0.198339,-0.353713,0.827011,0.436967
0.044431,-0.458258,0.879212,0.806065,-0.260884,0.531224
-0.716153,-0.244505,0.770850,0.532385,0.211583,0.819633
-0.574201,0.228146,0.452765,0.941604,0.224711,0.250772
0.187651,0.417800,0.519474,0.145096,-0.550746,0.821964
-0.031369,0.150797,0.876516,-0.421064,0.736436,-0.529498
0.363065,-0.887851,0.310007,0.094758,0.198380,0.975534
-0.193055,0.114009,0.784056,0.804392,0.509626,-0.305345
-0.198347,0.082418,0.756932,0.560058,0.819692,-0.120163
0.061025,-0.166901,0.871176,0.175579,-0.942063,0.285812
0.030319,-0.300248,0.550413,-0.676745,0.588263,-0.442677
-0.137652,-0.083948,0.587540,-0.261376,0.965122,-0.014898
0.826571,-0.094292,0.582674,0.557997,-0.828014,-0.055067
0.591233,-0.000078,0.763764,0.287495,-0.956042,-0.057710
0.250937,-0.638737,-0.950142,0.029140,0.045033,-0.998560
0.275523,-0.254898,0.840153,0.599242,0.308185,-0.738871
-0.104961,0.109578,0.407519,-0.255913,-0.825714,0.502697
0.159152,-0.191613,0.903471,-0.632919,-0.558039,-0.536661
0.153419,-0.283737,-0.965789,-0.212804,0.230066,0.949623
-0.164441,-0.409036,0.398127,-0.008930,-0.874769,0.484458
-0.223044,0.266872,0.841610,0.717665,0.668244,-0.195978
0.077179,0.304985,0.625294,0.272644,-0.063901,0.959990
0.504852,-0.209803,0.840305,-0.214210,0.942728,0.255690
0.468301,-0.201397,0.838559,-0.177660,-0.959335,-0.219349
0.172547,-0.378359,0.716804,0.987315,0.106266,0.117971
-0.157386,0.427938,0.523950,0.693764,-0.222604,0.684937
-0.825633,-0.253828,0.597559,0.873725,0.435716,-0.216231
0.105402,-0.194312,0.448341,-0.293006,-0.938879,0.180702
0.061742,0.493059,0.660877,-0.342453,0.931121,0.125458
-0.665380,-0.458155,0.570570,-0.409510,-0.676598,-0.611977
0.644045,-0.444396,0.784463,0.743071,0.436515,0.507247
0.401597,-0.234976,-0.956906,0.074173,-0.250381,-0.965302
-0.373704,0.277421,0.825183,-0.519745,0.440770,-0.731838
0.470229,-0.394870,0.841017,0.491241,0.742423,0.455512
-0.203583,-0.398589,0.560093,0.348481,-0.911342,0.219126
0.083629,-0.642966,0.843306,-0.191222,0.960810,0.200696
0.314664,-0.051794,0.727332,0.963324,-0.267657,-0.019165
-0.477067,0.107845,0.408892,0.249936,-0.006977,0.968237
-0.562734,-0.333164,0.898114,-0.551883,0.075188,-0.830525
0.492668,0.151513,0.871481,0.688151,-0.722474,-0.066926
0.403858,-0.574892,-0.936715,-0.266728,-0.107006,0.957813
-0.257717,-0.650455,0.525561,0.024588,0.918034,0.395738
-0.740409,-0.265547,0.772494,0.115013,-0.666830,0.736281
-0.795149,-0.102648,0.538360,0.194994,0.176150,0.964857
-0.404080,0.328272,0.715041,0.459026,0.396065,0.795253
-0.329216,0.463199,0.459564,-0.762208,0.259505,-0.593040
0.640795,-0.288020,0.506675,0.931491,0.349886,-0.099518
0.235668,-0.037068,0.864209,0.351999,0.933408,0.069620
-0.106616,-0.112380,0.743217,0.990703,-0.101127,0.091003
-0.399339,-0.116049,0.799822,0.894381,-0.245061,0.374204
0.551873,-0.303507,0.846680,0.413926,-0.003659,0.910303
0.248181,-0.336324,-0.604696,0.638376,-0.695815,0.329115
-0.033075,-0.080176,0.566230,0.171897,0.984700,0.028582
0.183186,-0.165626,-0.970858,-0.208258,0.188394,0.959759
0.328446,-0.130520,0.595626,0.135480,-0.864857,0.483392
0.196581,-0.320628,0.369053,-0.111829,-0.968519,0.222409
0.161908,0.088992,0.844001,-0.556284,-0.669486,0.492276
0.056230,-0.182236,0.422013,-0.465252,-0.872463,-0.149493
-0.240517,-0.597617,0.127290,0.167903,0.780937,0.601619
0.248565,-0.368883,-0.807925,0.818781,-0.559806,0.127341
0.289802,-0.121601,0.774986,0.875142,-0.465852,-0.130802
0.702425,-0.501720,0.814741,0.947981,-0.066252,0.311356
-0.267421,-0.365468,0.813317,0.483390,0.699642,0.526151
-0.260308,0.067490,0.188065,-0.445257,-0.024626,-0.895064
-0.380100,0.035389,0.891248,0.299684,-0.832668,0.465676
0.478554,0.123234,0.879856,0.869229,-0.426708,-0.249722
0.487376,-0.335814,-0.947311,-0.058257,0.231940,0.970984
-0.093992,0.614634,0.539513,-0.808854,-0.237879,0.537745
-0.316040,0.004049,0.901725,0.324100,-0.457215,0.828199
0.574144,-0.817534,0.280254,0.729433,0.554525,0.400536
-0.734619,0.052201,0.747116,0.113069,-0.338113,0.934288
0.075029,-0.368883,-0.966078,-0.153415,0.108000,0.982242
0.508765,-0.421721,0.679915,0.184309,-0.979603,-0.080049
0.609756,-0.399302,-0.941767,-0.098058,-0.013270,0.995092
-0.319351,0.392167,0.472888,0.821678,0.564756,0.076781
0.622767,-0.440829,0.811791,0.227602,-0.238811,0.944016
0.235170,-0.513339,-0.949549,0.198836,-0.028768,-0.979610
0.174751,0.024737,0.873126,0.105908,-0.561274,0.820826
0.409978,-0.460752,0.903437,0.764881,-0.642862,0.041053
0.170891,-0.401441,0.444967,0.713368,-0.421866,-0.559585
-0.599339,-0.268044,0.813520,-0.282666,-0.622119,0.730115
0.331531,-0.022292,0.870091,0.072770,-0.988856,-0.129878
-0.228777,-0.393290,0.561399,-0.316977,0.924999,-0.209529
0.223098,-0.331025,0.627277,0.943667,-0.297777,0.144298
-0.323981,-0.213728,0.433270,0.487724,0.736828,0.468198
0.728057,-0.541108,-0.928053,-0.115589,0.084408,0.989704
-0.177840,-0.080229,0.804857,-0.318975,0.912156,-0.257343
0.685723,-0.329802,0.669015,-0.282403,0.734903,0.616576
-0.023374,0.649333,0.528917,0.470434,0.772059,-0.427336
0.488533,-0.220810,0.145785,0.937631,-0.328143,-0.114761
0.412071,-0.599551,-0.941649,0.193274,0.125801,-0.973046
-0.408380,-0.077016,0.671168,0.138778,-0.423746,0.895087
0.728996,-0.134087,0.642094,0.807820,0.168373,-0.564869
-0.335555,-0.449338,0.864124,-0.458267,-0.663523,-0.591379
-0.252865,0.539170,0.582047,0.960575,0.224270,0.164313
-0.343385,-0.090572,0.305107,0.494365,0.158616,0.854660
0.419403,-0.208071,0.659928,-0.760136,-0.649247,0.025908
-0.157938,-0.604595,0.506557,-0.438848,0.858826,0.264253
0.221500,-0.238848,-0.962534,-0.191289,0.141074,0.971343
-0.307608,-0.045120,0.770290,-0.006236,-0.092410,0.995702
0.541564,-0.441697,-0.941089,-0.116850,0.000786,0.993149
-0.282965,0.838884,0.587760,0.114805,-0.252765,0.960692
0.121444,0.467784,0.882127,0.896815,0.375317,0.234223
0.797851,-0.031109,0.670591,0.675389,0.176933,-0.715922
0.019902,-0.407506,0.387243,-0.417459,-0.654140,-0.630737
-0.661851,-0.239255,0.813130,0.043437,-0.924375,0.379003
0.011302,0.369393,0.507438,0.894336,-0.238138,0.378752
-0.074642,-0.081961,0.517474,0.477997,0.865834,-0.147820
-0.043219,-0.449494,0.930443,0.792537,0.264373,-0.549537
0.525524,0.005530,0.776309,0.858411,0.374850,-0.350169
0.187873,-0.413925,0.450596,0.351869,0.934104,-0.060320
-0.490020,-0.475223,0.790091,-0.295341,0.742204,0.601587
0.078114,0.205981,0.665099,-0.686193,-0.168913,0.707537
0.191510,-0.378716,0.017809,0.859760,0.507527,0.056831
0.536880,0.047972,0.821945,0.972102,-0.181714,0.148318
-0.685282,-0.275944,0.808197,-0.158878,0.869027,-0.468561
0.122548,-0.190288,0.510507,0.773794,0.631241,-0.052702
-0.634234,0.272171,0.477245,0.824447,0.538688,0.173501
-0.366648,-0.517313,0.930579,0.935854,0.132751,0.326427
0.011520,0.193703,0.682153,-0.486183,0.873529,0.023941
-0.181918,0.410308,0.726061,-0.139346,-0.077020,0.987244
-0.634621,-0.011796,0.496554,0.297878,-0.189994,0.935506
0.267145,-0.425799,0.046086,0.748118,0.649567,0.135578
-0.195810,0.346870,0.383530,-0.106965,0.522774,0.845734
0.154852,-0.233651,0.369002,0.493341,0.867496,-0.063763
-0.179603,-0.033348,0.488112,0.768373,0.580145,-0.270249
-0.270287,0.336731,0.539513,-0.561413,0.819896,0.112190
0.007772,-0.502587,0.874329,0.742110,0.305584,0.596566
0.218909,-0.584471,0.249570,0.710411,0.703325,-0.025495
0.124146,-0.018573,0.346150,-0.769431,-0.584590,0.257353
-0.412293,0.400322,0.712820,0.746061,-0.091680,0.659536
0.076627,0.289904,0.623802,0.400034,-0.207096,0.892796
0.270176,-0.127056,-0.961907,-0.146825,0.142992,0.978772
-0.666043,-0.494841,0.598051,-0.635011,0.737875,0.228696
0.323647,-0.464269,-0.946616,-0.038922,-0.472599,0.880418
0.162567,-0.059693,0.729367,-0.160769,-0.963386,0.214573
0.099779,-0.329852,-0.967044,0.285916,-0.059157,-0.956427
0.432636,-0.424321,0.856817,0.575991,-0.786467,-0.222945
-0.135778,0.080636,0.786226,-0.006955,-0.895506,0.444995
0.109759,0.438180,0.866395,0.904327,0.251537,0.344849
-0.442172,0.628595,0.463158,-0.012450,-0.217261,0.976034
0.091179,-0.217448,-0.975012,-0.282169,0.167262,0.944671
0.550221,-0.115844,0.410536,-0.598962,0.612563,0.515762
0.117807,-0.015721,0.875330,-0.612267,0.737264,-0.285607
0.493274,-0.229319,-0.954736,-0.205180,0.210295,0.955865
-0.531806,-0.395685,0.948684,0.849219,0.063526,0.524205
-0.612569,-0.312987,0.451884,0.960364,0.236724,-0.147180
0.323594,-0.455045,-0.922068,-0.311005,-0.862499,0.399215
-0.535558,-0.446434,0.952380,0.507655,0.377307,0.774549
-0.348179,-0.624723,0.542886,-0.511495,-0.838327,-0.188631
0.616371,-0.400984,0.734605,-0.128744,-0.205836,-0.970081
-0.309042,0.297088,0.489282,0.931360,0.232386,0.280297
-0.270230,-0.475428,0.824827,0.751996,-0.508870,-0.418991
0.545258,-0.615095,0.320009,0.217222,-0.026645,0.975759
-0.680814,0.109372,0.510523,0.285114,-0.585543,0.758847
-0.293275,0.080431,0.428506,0.951278,-0.253501,0.175519
0.332248,-0.089807,0.513049,0.845744,0.514831,-0.140234
0.132965,-0.175052,0.451782,0.319625,0.940815,-0.112727
0.415271,-0.470841,0.698716,-0.256728,0.964611,0.060140
-0.447353,-0.414998,0.610867,-0.648448,0.034547,0.760474
0.216153,-0.372755,-0.051985,0.562676,-0.783374,0.264047
0.160417,-0.384271,0.448765,0.142396,-0.960333,-0.239758
0.400772,-0.864158,0.302937,0.020462,0.329934,0.943782
0.146693,-0.176377,0.473329,0.930279,0.235609,-0.281191
0.285997,-0.048279,0.855054,-0.170573,-0.699842,0.693633
0.219403,-0.138976,0.769104,-0.737402,0.586499,0.335047
-0.635061,-0.363788,0.520678,-0.729802,-0.419757,-0.539623
0.432195,-0.208733,0.495266,-0.397214,-0.908728,-0.128199
0.741179,-0.512776,0.528883,0.050031,0.113779,0.992246
-0.481148,-0.412192,0.530663,-0.246249,-0.950856,0.187709
-0.798069,0.022750,0.734469,0.317555,-0.152116,0.935959
-0.690905,0.395989,0.458495,0.880767,0.471569,0.043259
-0.659869,-0.312934,0.927392,0.318704,-0.256911,0.912373
0.028943,-0.174698,0.468430,-0.185097,-0.957412,0.221587
-0.044928,0.726426,0.310634,0.812813,-0.165905,0.558401
0.365380,-0.254848,0.482874,-0.357416,-0.899687,0.250633
0.249668,-0.548140,0.154177,0.811270,-0.544486,-0.213015
0.288921,-0.359609,-0.950786,0.334354,-0.479246,-0.811499
0.577673,-0.361596,0.400534,-0.639130,0.004761,0.769084
0.210638,-0.049859,0.753049,0.168025,-0.842191,0.512330
0.330760,-0.167103,0.625175,-0.673891,0.591368,0.442893
-0.294597,0.393237,0.474397,0.918265,0.395354,0.021999
0.571994,-0.238848,0.543649,-0.293713,-0.681513,-0.670278
-0.725026,-0.274924,0.821844,-0.015416,-0.959186,0.282357
-0.114553,-0.253878,0.808163,-0.509640,-0.307834,0.803434
-0.661743,-0.284453,0.830151,0.135460,0.873064,0.468413
-0.000276,-0.149221,0.811096,0.670737,0.675568,0.306137
-0.320286,-0.191818,0.220649,-0.338615,0.548649,-0.764411
0.570177,-0.245319,0.899928,-0.597537,-0.796184,-0.095083
-0.119406,-0.149933,0.841814,0.439722,0.439963,-0.782992
-0.172601,0.351149,0.730248,0.160188,0.349378,0.923187
0.089359,-0.622481,0.890994,0.082226,-0.942253,0.324650
-0.086109,0.577896,0.687154,-0.660340,-0.571016,-0.487741
0.278003,-0.301828,-0.960517,-0.341485,0.274807,0.898816
0.745150,-0.363481,0.727959,-0.217102,-0.191989,0.957083
-0.124200,0.583808,0.542700,-0.349957,0.432451,-0.830973
0.820121,-0.090317,0.565128,-0.572232,0.810249,0.126680
0.882691,0.043083,0.695597,0.441533,-0.241392,-0.864164
-0.321773,-0.176632,0.652130,0.773874,0.270186,0.572817
-0.118356,0.004917,0.680339,0.903949,-0.362721,0.226518
-0.178445,0.226007,0.432049,0.554446,0.399334,-0.730152
-0.223209,0.214391,0.409638,-0.096861,-0.625461,0.774220
-0.323264,-0.524190,0.827031,0.388540,0.673057,-0.629310
-0.159647,0.055871,0.772698,0.020770,-0.999377,0.028550
-0.437760,0.652290,0.463920,-0.143800,-0.502378,0.852606
-0.478113,-0.481390,0.851562,-0.613589,0.537037,-0.578879
-0.478446,-0.604496,0.963026,0.800650,-0.134037,0.583946
0.118191,-0.346512,-0.967603,0.271432,-0.050326,-0.961141
0.014774,-0.487199,0.638618,-0.486667,-0.870470,-0.073738
-0.816868,-0.039108,0.742878,0.266790,-0.350863,0.897618
-0.330872,0.140251,0.451918,0.560634,-0.219404,-0.798468
0.043936,-0.208376,0.817792,0.168851,0.716969,0.676346
-0.074860,0.548292,0.703734,0.551485,0.206985,0.808098
-0.199613,0.834654,0.532138,0.873012,0.277655,-0.400946
-0.243108,0.272936,0.837559,0.658884,0.440010,-0.610133
0.348237,-0.476448,-0.919407,-0.308946,-0.929771,0.200197
0.526073,-0.250261,0.591303,0.351470,-0.806402,0.475589
0.377452,-0.211536,0.863598,0.666692,-0.734153,0.128612
-0.133628,0.001300,0.708837,-0.591967,0.723870,-0.354383
-0.130432,-0.220912,0.171977,0.585787,0.349892,0.731047
-0.301818,0.009912,0.664827,-0.446814,0.068349,-0.892012
-0.558875,0.185446,0.407264,0.828492,0.560001,0.000074
0.377509,-0.181729,0.659114,-0.024115,0.993643,0.109965
0.343163,-0.255458,0.858580,-0.654607,0.337086,0.676656
0.012126,0.559196,0.463547,0.947348,0.259000,-0.188286
-0.156669,-0.211638,0.598457,0.842655,0.525422,-0.117742
-0.106394,-0.164099,-0.995050,0.222105,-0.161033,-0.961633
0.066264,-0.520268,0.826743,0.913954,-0.220169,-0.340902
0.318742,-0.696620,0.242026,0.663439,0.726477,-0.179111
0.028832,-0.177500,0.148413,0.568118,0.282453,0.772957
0.516537,-0.402819,0.659182,-0.091803,0.968381,0.231971
-0.509206,-0.245879,0.911405,-0.522511,0.467836,-0.712820
-0.593218,-0.175002,0.539360,-0.560373,-0.737903,0.376139
-0.327840,-0.204401,0.523882,0.741250,0.671226,0.002282
-0.013836,0.475733,0.612155,-0.477561,-0.878581,0.005518
-0.296141,-0.179027,0.079975,-0.399858,-0.129394,0.907398
-0.694596,0.102900,0.510761,-0.389116,0.340671,-0.855881
0.098952,-0.340961,-0.966654,-0.250286,-0.019233,0.967981
-0.295260,0.241192,0.175927,0.272995,-0.005664,0.961999
-0.089305,0.503147,0.528476,0.858472,-0.485882,-0.164150
0.516372,-0.396142,0.629159,-0.213548,0.931292,0.295113
0.225302,-0.376984,0.870922,0.248698,0.961129,-0.119918
-0.094985,-0.368270,0.720670,-0.744587,0.477263,-0.466702
-0.136878,-0.632977,0.823861,0.875580,0.076741,0.476938
0.265489,-0.449901,0.089078,0.889425,-0.299243,-0.345509
0.029438,0.349112,0.457597,0.833939,-0.104760,0.541823
-0.547190,-0.519708,0.863141,-0.279400,-0.115057,-0.953256
-0.511797,-0.051744,0.555703,0.300649,0.717561,-0.628264
-0.201655,0.056789,0.761187,-0.600261,-0.788927,0.131458
-0.125139,0.011846,0.705819,0.643422,-0.714540,0.274664
-0.302094,0.822833,0.614071,0.725613,0.567036,0.389815
0.260806,0.352272,0.742640,0.928573,-0.327401,0.174819
0.190629,-0.320833,0.045916,0.985709,0.158090,0.058186
0.515986,-0.092609,0.805772,-0.764679,0.389780,0.513163
0.668301,-0.511911,-0.933562,-0.311267,0.165980,0.935715
0.143550,-0.099386,0.320687,0.764109,0.034032,0.644189
-0.204464,0.292707,0.458868,0.215387,-0.682067,0.698851
0.399891,-0.170621,-0.959636,0.008497,0.162127,0.986733
-0.096031,0.594099,0.542276,0.951877,-0.236430,0.195018
0.478059,-0.251026,0.489739,0.189363,-0.911880,0.364166
-0.850165,0.039310,0.744437,-0.422871,0.365353,-0.829275
0.256613,-0.476345,0.194965,0.497111,0.329994,0.802487
-0.010145,-0.486027,0.909828,0.766622,0.556082,0.321036
0.176517,-0.485060,0.726891,0.687166,0.713244,-0.138152
0.012348,0.151768,0.840254,-0.142670,0.684736,-0.714690
-0.432195,-0.450156,0.844476,0.960706,0.255025,0.109571
0.492504,0.104023,0.675830,-0.189926,-0.267743,0.944586
0.248565,-0.381926,0.844357,0.502044,-0.708062,-0.496588
-0.692005,-0.439607,0.578843,0.156066,0.788564,0.594820
-0.260641,-0.395479,0.410655,-0.575979,0.426137,0.697607
0.175966,0.367405,0.855258,0.942379,0.333521,-0.026181
0.650384,-0.228606,0.852342,0.985222,-0.132324,0.108753
-0.010915,0.633845,0.429066,-0.732044,0.215090,0.646412
-0.113174,0.097041,0.158890,-0.365647,0.151161,-0.918397
-0.641676,-0.033299,0.395821,0.029981,0.983013,0.181073
0.028775,0.475173,0.443577,0.993739,0.107638,-0.029933
0.022052,-0.161704,0.459462,0.177644,0.972538,-0.150376
-0.501211,-0.506357,0.860988,0.020330,0.350545,0.936325
-0.386217,-0.092152,0.767646,-0.444399,0.381099,0.810724
0.334731,-0.419072,0.148362,0.889388,-0.456438,0.025565
0.111798,0.060458,0.396364,0.871000,0.488434,-0.052837
0.059262,-0.543453,0.480399,0.939202,-0.116232,-0.323095
-0.664277,0.378869,0.431219,0.440124,-0.418283,0.794563
-0.194431,0.225241,0.820318,0.966154,0.010529,0.257749
0.252259,-0.319151,0.844493,-0.621711,-0.259881,-0.738876
0.298180,-0.244044,0.483247,0.862308,-0.488301,0.134115
-0.042449,-0.486537,0.938411,0.742094,0.574962,-0.344551
-0.003032,-0.346413,0.471380,0.388686,0.921288,0.012313
0.120398,-0.120481,0.581284,0.844777,0.531341,0.063465
0.196803,-0.352067,0.703785,0.937624,0.307867,0.161492
0.508543,0.334436,0.188964,-0.648456,-0.687289,0.327321
0.231974,-0.376474,0.078652,0.499995,0.654606,-0.567006
-0.039912,0.220760,0.900810,0.290152,-0.827635,0.480449
0.156339,-0.392170,0.352236,-0.301962,0.921705,0.243471
0.599668,-0.391303,0.679373,-0.256162,0.960369,0.109874
0.305512,-0.370002,-0.195914,-0.473748,0.878674,-0.059117
0.496581,-0.299841,0.854308,0.331761,0.161630,0.929414
-0.709811,-0.093322,0.505641,0.503087,0.861356,-0.070492
0.430153,-0.036611,0.720500,0.041249,-0.705336,0.707672
-0.170232,-0.029427,0.864429,0.475575,-0.830775,0.289207
-0.574420,-0.316451,0.928290,0.253130,0.924580,0.284740
0.616481,-0.581006,-0.932901,-0.075754,0.099793,0.992120
0.492944,0.186671,0.859818,-0.401595,0.849445,0.342292
-0.065601,-0.173830,0.741471,0.605475,0.793717,0.058413
0.010804,0.249039,0.455800,0.928088,-0.164631,0.333991
-0.716702,-0.324248,0.925900,0.904400,0.106458,0.413192
0.214773,-0.380346,0.865480,-0.289891,-0.183350,0.939333
-0.031752,-0.201702,0.571333,0.733677,-0.187735,-0.653049
0.059645,-0.086903,0.810197,-0.562728,0.682907,-0.465806
-0.283517,0.273801,0.471058,-0.170119,-0.979654,0.106475
0.471222,-0.555731,-0.940835,-0.036542,0.041292,0.998479
-0.372546,-0.101016,0.536749,0.503405,0.687222,-0.523745
0.315932,-0.496165,0.586709,-0.091110,-0.204742,0.974567
0.240298,0.277981,0.839135,0.004076,-0.507422,0.861688
0.374034,-0.494026,-0.941293,0.255535,0.205977,-0.944603
0.281973,-0.426869,-0.383090,0.961012,0.233097,0.148733
-0.129493,-0.359407,0.410180,0.497792,0.039542,0.866395
-0.341070,-0.475786,0.380988,-0.189741,0.958003,0.215009
0.108268,-0.149830,0.911049,0.892773,-0.034592,0.449176
-0.108379,0.599806,0.545751,-0.178889,-0.427385,0.886195
0.096142,0.168633,0.416046,0.796584,-0.147189,0.586335
-0.245702,-0.309777,0.877889,-0.264931,0.907989,-0.324604
-0.009758,-0.527757,0.790990,0.388705,0.882517,-0.264712
0.166373,0.368883,0.867735,0.589986,0.780707,0.205941
0.420065,-0.404958,0.142700,-0.664055,0.614861,0.425413
-0.113726,0.300656,0.715228,0.051096,-0.315759,0.947462
-0.070231,-0.404399,0.395380,0.386304,0.599332,0.701121
-0.714663,0.316653,0.421555,0.430280,0.026983,0.902292
-0.038808,-0.165831,-0.992320,-0.315031,0.258236,0.913274
0.124257,-0.455608,0.185946,-0.458933,0.032458,0.887878
-0.373263,0.641334,0.479330,-0.333684,-0.553464,0.763107
-0.292999,-0.178364,0.376817,0.921127,0.133047,0.365820
0.218135,-0.364451,-0.450494,0.900731,-0.430195,-0.060134
-0.149062,0.750224,0.561653,0.670969,0.230437,0.704769
0.203088,0.010726,0.945412,-0.188800,0.981598,0.028625
0.082855,0.406486,0.626311,0.905029,-0.048312,-0.422597
0.020562,-0.154772,0.477669,-0.805680,-0.574269,0.145242
0.156393,-0.052201,0.731892,0.191855,0.966477,-0.170629
0.350222,-0.263357,0.473143,0.118428,0.887636,-0.445058
-0.133793,0.131385,0.666573,0.612320,0.345138,0.711298
0.466040,-0.126748,0.665251,-0.626915,0.778770,-0.022257
0.219074,0.086545,0.786718,0.927499,-0.332163,0.171506
-0.053253,-0.201755,0.875838,-0.137440,0.322824,0.936427
-0.191016,0.273854,0.704971,0.303975,0.486644,-0.819009
-0.428390,0.032789,0.407756,-0.601353,-0.437371,0.668641
-0.187651,0.154620,0.867023,0.791620,0.272590,-0.546838
0.741179,-0.516598,0.521526,0.050031,0.113779,0.992246
0.186383,-0.326437,0.275626,0.775142,-0.629777,-0.050363
0.467914,-0.190341,0.390176,-0.508607,0.844086,0.169815
0.441236,-0.159565,0.886959,0.530416,0.782899,-0.325158
-0.100883,-0.186366,0.319669,0.785643,-0.554898,0.273592
-0.596913,0.091844,0.504861,-0.079290,-0.562484,0.822998
0.074860,-0.519453,0.856360,0.968730,0.227364,0.099332
0.741509,-0.304375,0.797059,0.139034,0.973619,-0.180927
-0.088477,0.314819,0.723450,-0.208761,0.242261,-0.947485
0.490794,-0.282975,0.799297,0.919388,0.188546,-0.345220
0.063781,0.225804,0.775122,0.939822,-0.236003,0.247058
0.204686,-0.266517,0.659623,0.944311,-0.324010,0.057395
-0.839414,-0.230289,0.450985,0.783919,-0.610402,-0.113493
-0.567529,-0.584318,0.882145,-0.013360,0.385067,0.922792
-0.148345,0.010673,0.875974,0.139360,0.254667,0.956934
0.252317,-0.427428,0.149006,0.611023,0.554996,0.564473
0.619624,-0.363328,-0.938563,-0.153884,-0.004589,0.988078
-0.102205,-0.002065,0.687815,0.699377,-0.684621,0.205344
-0.331477,0.354769,0.827387,-0.167735,-0.550099,0.818081
-0.558545,0.167461,0.218021,0.355223,-0.303853,0.884019
-0.050440,-0.122468,-0.995474,-0.213192,0.215784,0.952883
-0.328224,0.027950,0.193643,0.351820,0.058890,0.934213
0.476848,0.096276,0.845187,0.591456,-0.713765,0.375126
0.256835,0.195843,0.827624,0.793431,-0.400459,0.458367
0.599503,-0.155895,0.887451,-0.286145,0.213518,0.934094
0.516150,-0.214083,0.767747,0.185749,-0.913653,0.361573
0.651599,-0.228606,0.470464,0.716736,-0.430417,-0.548663
0.021335,0.687704,0.625073,0.850942,0.275498,-0.447212
0.644321,-0.464422,0.687900,-0.036119,-0.981252,0.189312
-0.335666,-0.141934,0.769477,0.663385,0.526193,0.532016
-0.601876,0.233038,0.423047,-0.685356,-0.666152,0.294157
-0.286162,-0.389315,0.584064,0.528432,0.648434,0.547990
0.220672,-0.311102,0.008654,0.835953,-0.504734,0.215467
-0.280375,0.249394,0.805484,-0.434539,-0.767858,0.470712
0.095368,-0.396754,0.429845,-0.495779,-0.767209,-0.406932
-0.541732,-0.362818,0.956584,-0.483073,-0.875254,0.023904
-0.270341,0.575044,0.459733,0.638039,0.526482,-0.561892
-0.101818,0.697690,0.564789,-0.433724,0.851653,-0.294229
0.240298,0.310744,0.857665,0.761457,-0.542668,0.354534
0.088423,0.076354,0.398618,0.504343,-0.598503,0.622441
0.186716,0.119259,0.859140,0.269620,0.620855,-0.736100
0.191951,-0.372960,-0.062378,0.544130,-0.838195,0.036753
-0.563397,-0.344220,0.956432,-0.377897,-0.924758,-0.044901
-0.124917,-0.053781,0.639822,0.732941,-0.680187,-0.011937
0.232909,-0.348857,0.121966,0.725475,0.630115,-0.276840
0.163230,0.095362,0.893469,0.987975,0.151962,-0.028511
-0.265930,0.498663,0.471498,0.955121,-0.131230,-0.265562
0.209538,-0.292044,0.017029,0.927882,-0.322111,0.187829
0.409756,-0.165934,0.674829,-0.684915,0.727509,0.040275
-0.496582,-0.354260,0.862157,-0.751787,0.610181,-0.249992
0.316814,-0.642711,0.185777,0.470052,-0.705242,-0.530739
0.165710,0.371175,0.866413,-0.596611,-0.776384,-0.203183
0.216977,-0.330770,-0.242890,0.949073,-0.307402,0.069027
-0.312016,0.475428,0.503675,0.962366,-0.086905,-0.257486
0.196197,0.044663,0.354338,-0.307927,-0.301671,-0.902317
0.094322,0.562763,0.634245,0.917757,0.013730,0.396906
0.180706,0.207919,0.340742,0.033518,0.504443,0.862794
0.073595,0.175612,0.832948,0.482425,0.408644,-0.774775
-0.184895,0.552217,0.551074,0.495448,-0.120689,0.860213
0.277343,-0.439200,-0.922679,0.716160,0.515866,-0.470103
0.190682,-0.359099,-0.167230,0.928254,-0.364508,-0.074014
0.279052,-0.338464,-0.708175,-0.276948,0.951642,-0.132958
0.054575,-0.420804,0.549532,0.466030,0.845374,0.261072
0.595866,-0.260757,0.912880,0.054458,0.998143,-0.027302
-0.434453,-0.385086,0.793210,0.599779,0.488838,-0.633485
0.426021,-0.404194,0.852138,0.401704,0.873223,0.275891
-0.220342,0.205064,0.825726,-0.763861,-0.617265,-0.188417
-0.331255,0.884131,0.599610,-0.001629,-0.229913,0.973210
-0.655788,0.082878,0.503471,0.302645,-0.343637,0.888999
0.039084,-0.040890,0.549125,-0.222177,0.973411,-0.055748
0.474587,-0.009299,0.702378,0.836150,-0.143286,0.529454
0.695699,-0.206644,0.582878,-0.522969,0.842349,-0.130197
0.804466,-0.296631,0.507743,0.292219,0.619120,0.728902
0.212735,-0.638737,-0.950634,-0.052760,-0.102841,0.993298
0.819072,-0.577949,0.774257,0.126692,0.549478,0.825847
-0.045093,-0.001197,0.828353,0.137293,-0.213582,0.967230
0.550110,-0.815394,0.303412,-0.554889,-0.427008,-0.713976
0.251048,-0.368833,-0.766069,0.876438,-0.475437,-0.076261
0.166538,-0.371635,0.365696,-0.483289,0.864119,-0.140465
-0.048458,-0.200274,0.834745,0.232288,0.415422,0.879469
0.504519,-0.193650,0.392854,-0.719819,-0.574298,0.389925
-0.225359,-0.073044,0.886942,0.022633,0.612417,0.790211
-0.103141,0.695193,0.551091,0.768712,-0.503153,-0.394866
0.189855,0.456727,0.646044,0.053321,-0.268155,0.961899
0.204575,-0.233753,-0.970926,-0.151777,0.099528,0.983391
-0.519956,-0.660034,0.967163,-0.549146,0.417341,-0.724061
0.321666,-0.123793,0.877245,0.045327,-0.738383,0.672857
0.533297,0.001860,0.764340,0.890457,0.340008,-0.302457
-0.208105,0.220197,0.830252,0.923469,0.311494,-0.224001
0.628995,-0.539833,0.807824,-0.141361,0.898373,0.415864
-0.190518,0.258313,0.429252,-0.711955,-0.203601,0.672062
-0.039360,-0.083895,0.577165,0.249829,-0.883661,0.395890
0.808157,-0.406843,0.531070,0.027503,0.075192,0.996790
0.546362,-0.258720,0.591253,0.351470,-0.806402,0.475589
0.018852,0.318286,0.152905,0.400367,-0.233775,0.886033
0.061631,-0.383711,0.789125,0.344181,0.854284,0.389536
0.355346,0.228504,0.143107,-0.146934,-0.320779,0.935688
0.236715,-0.408473,-0.520475,-0.088707,0.974258,0.207248
-0.049891,-0.473745,0.927137,0.862021,0.421942,-0.280866
0.352977,-0.264222,-0.956906,0.082811,-0.318732,-0.944220
0.524586,-0.816768,0.305344,0.578660,0.411585,0.704095
0.611798,-0.260148,0.891435,-0.084898,-0.992818,-0.084290
0.771223,-0.256733,0.651875,-0.367317,0.793735,-0.484833
0.013947,0.132405,0.739403,0.276904,-0.946772,0.164154
-0.438810,0.168073,0.672371,-0.595113,0.087826,-0.798828
-0.801212,0.135359,0.525544,-0.398559,0.054619,-0.915515
-0.318907,-0.183614,0.653367,0.773874,0.270186,0.572817
0.203142,-0.501110,-0.950498,0.054251,-0.066577,-0.996305
0.026847,0.051184,0.657165,0.212550,0.952549,-0.217883
-0.046032,-0.234058,-0.987218,-0.221824,0.116230,0.968135
0.004576,-0.127208,0.777631,0.365414,0.825729,-0.429703
0.175192,-0.339891,0.012231,0.982613,-0.183178,-0.030291
-0.088202,-0.400017,0.664149,-0.141203,-0.989532,-0.029794
0.098400,0.200019,0.344624,0.022288,-0.933967,-0.356665
0.385998,0.188198,0.719754,0.871698,0.489905,-0.011614
0.049780,-0.364044,0.509167,0.897215,0.308635,-0.315833
-0.795092,-0.263152,0.816504,0.109987,0.972829,0.203731
0.929217,-0.014088,0.722551,0.762500,-0.526151,-0.376509
1.000000,0.127818,0.714228,0.712650,-0.444051,-0.543091
0.424312,-0.451276,0.887468,0.956491,0.144944,0.253212
0.238700,-0.235996,0.628599,-0.869120,0.481405,-0.113490
0.511908,-0.223817,0.771138,-0.005003,0.939913,0.341378
-0.780762,-0.314514,0.413113,-0.274153,0.075686,-0.958703
-0.744652,-0.169448,0.440305,-0.349962,0.483230,-0.802506
-0.283406,-0.300960,0.747641,-0.261248,-0.458780,0.849277
0.182964,0.421162,0.630701,-0.025695,-0.069054,0.997282
