0.232614,-0.277551,0.536730,0.396579,0.913954,-0.086102
0.099595,0.118462,-0.983168,-0.123476,-0.177374,0.976367
-0.084064,-0.385723,0.682871,0.675002,-0.093058,-0.731924
0.112964,-0.109419,0.596398,-0.443749,0.893986,-0.062263
0.343552,-0.293146,-0.974351,-0.023524,0.008662,0.999686
0.083053,-0.503934,0.711514,-0.736508,-0.637028,0.227490
0.234369,0.065835,-0.979207,0.374362,-0.191478,-0.907298
-0.492842,0.302545,0.440450,-0.673355,-0.730884,-0.111362
-0.107090,-0.103508,-0.994554,0.064365,-0.057955,0.996242
0.837544,-0.381448,-0.963530,0.010469,-0.000390,0.999945
-0.430114,0.291792,0.624853,0.921189,-0.207140,0.329400
0.008508,0.175431,0.158400,-0.627669,-0.778390,-0.011833
0.039298,0.035998,-0.991702,0.058727,0.121041,-0.990909
0.092507,0.358660,0.609176,-0.561634,-0.779644,-0.276987
0.333559,-0.062275,-0.442595,-0.371236,0.909887,-0.185176
0.024309,0.278262,-0.988778,-0.110409,-0.162484,0.980515
0.191156,-0.042551,-0.982390,-0.233525,-0.024211,0.972049
-0.709790,0.743707,0.197581,-0.154483,-0.000286,0.987995
0.079271,0.142246,0.192678,-0.648223,-0.761399,0.008868
-0.144024,0.221506,0.418832,0.868603,-0.395670,0.298284
-0.571573,0.295708,0.142180,-0.061109,0.883307,0.464794
-0.598783,0.106783,0.187845,0.359470,0.622194,-0.695454
0.136327,0.694072,-0.980574,-0.076409,-0.079783,0.993879
0.625660,0.194018,-0.964756,-0.038565,0.163912,0.985721
0.724983,0.032365,-0.957424,0.274692,-0.022273,-0.961274
0.340987,0.022468,-0.882573,0.041220,0.998692,0.030248
-0.231532,-0.242442,0.373615,0.419195,-0.152419,0.895011
0.047536,0.437848,-0.985148,0.236776,-0.084967,-0.967842
0.466915,-0.022540,-0.971427,-0.024704,0.066797,0.997461
-0.020054,0.341426,0.548541,0.592114,-0.741553,-0.315437
0.294599,0.228058,-0.973808,-0.011578,0.019221,0.999748
0.325592,-0.015274,-0.506790,-0.327239,0.944479,-0.029564
0.032479,-0.014279,0.921849,0.971094,0.178926,-0.157996
-0.628155,0.038774,0.505469,0.439010,-0.496280,-0.748984
-0.405536,0.361581,0.497030,-0.672027,0.589201,-0.448577
-0.462728,0.532419,0.560988,-0.047697,0.948815,0.312211
-0.057258,-0.225921,0.614810,0.650671,-0.655967,-0.382537
0.247807,0.026810,-0.205337,-0.739195,-0.661137,0.128407
-0.835380,0.565391,0.155948,0.311345,0.495862,0.810669
0.016071,-0.112409,-0.980362,-0.281548,-0.021682,0.959302
-0.587036,0.778315,0.077609,-0.290663,0.331898,0.897418
0.224781,-0.453302,0.689802,-0.538076,-0.359998,-0.762152
-0.577514,0.278049,0.148734,0.188256,0.734357,0.652135
0.025591,-0.136906,0.984559,-0.040179,0.315296,0.948142
0.000204,-0.064198,0.964143,0.938709,-0.289529,0.187077
0.349291,0.417340,-0.976849,-0.137411,-0.031243,0.990021
-0.051249,0.877017,0.179664,-0.645085,0.052593,0.762299
-0.602701,-0.122093,0.540195,0.164604,0.371501,0.913725
-0.049966,0.779811,0.162195,0.792047,0.175277,-0.584756
0.324175,0.663165,-0.978217,-0.311501,-0.233636,0.921076
-0.131871,0.564109,0.074874,-0.425232,0.349055,0.835068
0.566644,-0.237744,-0.966995,0.200499,0.146650,-0.968656
0.133288,0.264875,0.276769,-0.006323,0.935809,0.352451
0.029508,-0.527435,0.687609,-0.090785,0.963885,-0.250366
-0.007966,-0.457220,0.621057,0.637320,0.376878,-0.672150
-0.192100,0.413495,0.400655,0.888441,0.458514,0.020936
-0.486089,0.626348,0.566269,0.917820,-0.080132,0.388825
0.064417,0.057005,-0.991419,0.220171,0.212292,-0.952080
0.114922,0.355670,0.548517,0.927719,0.372350,0.026326
0.590615,-0.364999,-0.966854,0.224555,-0.022525,-0.974201
0.587848,-0.093252,-0.963011,-0.118520,-0.150990,0.981405
0.700068,0.142602,-0.960536,0.265232,0.157637,0.951211
0.134572,0.115187,-0.983191,-0.102009,0.152173,0.983076
-0.174342,-0.522593,0.736126,0.978859,0.178650,0.099598
0.539028,0.475876,-0.964001,-0.233561,0.106503,0.966492
0.054965,0.198504,-0.984488,-0.147400,-0.144233,0.978504
0.136396,0.123447,-0.980621,-0.103632,0.100331,0.989542
-0.530654,0.240163,0.476378,-0.036067,0.570309,0.820638
-0.319446,0.300196,0.473690,-0.137167,-0.954647,0.264264
0.478664,-0.300196,-0.969518,-0.063515,0.177206,0.982122
-0.491694,0.081145,0.367721,0.851953,-0.505718,0.135740
0.016071,-0.012284,0.959192,0.777197,-0.622425,-0.092479
0.120459,0.747482,-0.982955,-0.016812,-0.158204,0.987263
-0.158879,0.001031,0.671130,0.912940,0.394018,0.106253
0.119311,-0.108991,0.746711,0.958249,-0.207188,0.197060
0.608913,0.074452,-0.960229,-0.092888,-0.002321,0.995674
-0.096420,0.149937,0.654086,-0.506393,0.820653,0.264754
-0.130993,-0.730676,0.709416,-0.371786,0.824503,-0.426579
0.249562,0.076944,-0.002405,-0.325725,0.942536,-0.074364
-0.155098,0.589888,0.457730,0.359725,0.930792,-0.064997
0.348413,-0.207405,-0.976425,0.014229,-0.047336,0.998778
0.928967,-0.408581,-0.954854,0.383371,-0.051145,-0.922177
0.885348,-0.386790,-0.961502,-0.220466,-0.087117,0.971497
0.094666,0.537048,-0.982814,-0.053154,-0.044464,0.997596
0.115328,-0.009009,0.898510,0.222929,0.953102,0.204692
-0.146792,-0.029946,0.376633,-0.640197,0.750986,0.161763
-0.578528,0.555989,0.555024,0.232986,-0.138670,0.962542
0.461918,0.189674,-0.967042,-0.227616,0.198334,0.953339
-0.377448,-0.073456,0.432599,0.647940,0.124068,0.751519
-0.117893,0.227060,0.534561,0.588520,0.099508,0.802336
0.522823,0.112835,-0.965840,0.125272,-0.077283,0.989108
0.004997,-0.250490,0.996464,0.791930,-0.475140,-0.383522
0.748548,-0.393271,-0.962870,-0.126256,0.106651,0.986248
0.422958,0.617518,-0.969588,-0.046414,-0.208928,0.976829
-0.019176,-0.397615,0.591046,-0.045204,0.977006,-0.208366
-0.540783,0.400819,0.542883,0.969189,-0.203480,-0.138808
0.067860,-0.068399,-0.983592,-0.036565,0.023345,0.999059
-0.082849,0.539612,0.631501,-0.517045,0.834035,-0.192487
0.281365,0.439274,-0.974374,-0.050467,-0.006155,0.998707
0.082917,0.174720,0.586048,-0.125233,0.187283,0.974290
-0.585346,0.430657,0.513815,0.846287,0.518999,-0.120163
-0.025253,-0.732456,0.632302,0.698098,0.567335,0.436795
0.282039,-0.029233,-0.656726,-0.546237,0.834797,0.068848
-0.223294,0.739434,0.531755,0.400398,0.357478,-0.843736
-0.722146,0.305323,0.153921,-0.088853,0.183219,0.979048
0.558678,-0.109988,-0.964190,-0.092780,-0.050756,0.994392
-0.446117,0.509632,0.565821,0.357941,-0.131422,0.924449
0.281028,-0.008083,-0.963907,-0.697386,-0.179922,0.693744
-0.040446,-0.647356,0.729502,0.375529,0.771454,-0.513650
-0.358541,0.339862,0.498326,-0.307485,-0.919044,0.246597
0.330047,0.606552,-0.972582,-0.176569,-0.016246,0.984154
0.190210,0.619867,-0.980126,-0.045520,-0.001180,0.998963
-0.185481,0.412000,0.622873,-0.491634,0.526779,-0.693397
-0.162456,-0.369700,0.640341,0.805843,0.510497,-0.300015
-0.517758,0.247143,0.137795,0.060044,0.312313,0.948080
-0.032747,-0.861350,0.651422,-0.224917,0.818988,0.527893
-0.209723,-0.029020,0.366755,-0.063553,-0.387590,-0.919638
0.107360,-0.114545,-0.983804,-0.232647,-0.000716,0.972561
-0.262727,0.022253,0.502640,0.794039,-0.416649,-0.442613
-0.353814,0.389781,0.080909,0.298962,-0.308060,0.903172
0.256381,0.537476,0.135697,0.027550,0.895273,0.444665
0.646117,-0.290584,-0.962657,0.020294,0.105167,-0.994247
0.433898,-0.265659,-0.973054,-0.084314,-0.154351,0.984412
0.072925,-0.336302,0.730680,0.784643,0.231177,0.575232
-0.007966,0.349048,0.617026,0.039614,0.193911,0.980219
-0.196893,0.191313,0.491749,-0.578688,0.518793,0.629264
0.152668,0.662595,0.208803,0.679968,0.365589,0.635600
-0.430114,0.513192,0.598944,0.529002,0.615996,-0.583700
0.053073,0.525012,0.158848,-0.566402,-0.125042,0.814588
0.345308,0.020188,-0.802419,0.433192,-0.898132,0.075523
0.147063,0.091970,0.474162,0.840569,0.143699,-0.522298
0.479272,0.612961,-0.966099,-0.170056,0.004122,0.985426
-0.345846,0.036568,0.476119,0.922633,0.036420,0.383955
-0.655570,0.009079,0.521689,-0.443447,-0.806937,-0.390137
-0.035920,0.603631,0.647272,0.431062,-0.769906,0.470564
-0.034639,0.353392,0.621906,0.066044,0.124738,0.989989
-0.255097,0.436353,0.440096,-0.208084,0.784907,0.583629
0.649563,-0.400178,-0.951719,0.072781,0.846567,-0.527283
-0.278190,-0.074667,0.391815,-0.712309,0.701072,0.033377
-0.131871,0.192380,0.644396,-0.255886,0.760939,0.596233
0.098515,0.563896,-0.984488,-0.090329,-0.005419,0.995897
-0.292909,0.547018,0.583903,0.055919,-0.773030,0.631900
-0.083727,0.073385,-0.990311,-0.159263,0.101641,0.981990
0.111075,-0.007940,0.947735,0.997624,-0.023583,-0.064736
0.217287,-0.595229,0.774082,0.791113,0.375115,-0.483146
-0.480350,0.200214,0.493541,0.096238,0.760679,0.641955
0.145646,0.549155,-0.980174,-0.105830,0.032689,0.993847
0.285550,0.017554,-0.926423,0.785125,-0.598541,0.159147
-0.014381,-0.503365,0.604767,0.326948,0.450924,-0.830526
0.001690,0.223857,0.591659,-0.453006,0.610610,-0.649570
-0.032477,0.744276,0.192607,0.816993,-0.550408,-0.171968
0.473599,-0.657397,0.532415,-0.944697,0.086813,-0.316244
0.470562,-0.200642,-0.970107,0.024577,-0.046195,0.998630
0.267454,0.325903,-0.978146,-0.135370,-0.089968,0.986702
0.025861,0.330319,0.229407,0.354588,0.846327,0.397489
-0.014989,0.040625,0.319935,0.631330,-0.714519,0.301473
0.365970,0.157415,-0.974374,-0.253037,0.132691,0.958314
-0.323971,-0.911413,0.737847,0.396484,-0.432652,0.809699
0.702972,-0.248497,-0.962162,-0.154135,0.022259,0.987799
-0.670425,-0.030515,0.541044,0.779072,0.179452,0.600703
-0.347670,0.061634,0.486727,-0.135630,-0.078653,0.987633
-0.091627,0.338295,0.593569,0.610174,-0.772506,-0.175846
-0.458271,0.267152,0.549790,0.172995,0.979566,-0.102581
-0.312761,-0.148159,0.636758,0.822181,-0.568076,-0.036163
0.083323,-0.944385,0.737753,0.821597,-0.504811,-0.264848
-0.073667,0.471959,0.184662,0.961221,-0.273363,0.036420
-0.676231,0.292149,0.144726,-0.245387,0.314625,-0.916950
0.404592,0.590385,-0.971215,-0.178886,-0.264127,0.947754
0.351723,-0.032011,-0.510420,-0.327239,0.944479,-0.029564
0.403444,0.241373,-0.970484,-0.156026,-0.046637,0.986651
-0.648345,0.329678,0.127729,0.173199,0.793404,0.583534
-0.160027,0.189887,0.435405,-0.714614,0.447078,-0.538005
0.682242,-0.174151,-0.964190,-0.221727,-0.125549,0.966992
0.464012,-0.243227,-0.972653,0.107761,-0.023233,0.993905
0.133896,0.144313,0.099910,0.899419,0.433020,0.059482
-0.075692,-0.623857,0.814041,-0.658726,0.741413,-0.128014
0.080217,-0.105787,-0.987152,-0.068864,0.021335,0.997398
0.129845,-0.045256,0.190415,-0.822815,0.510583,0.249559
0.108171,0.164037,0.239521,-0.893053,0.449598,0.017862
0.183390,0.527933,0.123933,-0.407772,0.825530,0.390156
0.032749,0.671781,0.519190,0.212204,-0.791501,0.573145
0.143080,-0.686453,0.610991,-0.180117,0.537750,0.823640
-0.345510,0.347694,0.576548,0.241210,0.860683,0.448377
0.117828,0.313940,-0.985431,-0.002612,-0.107810,0.994168
0.008846,0.039630,-0.991065,0.174042,0.211886,-0.961672
-0.131937,-0.539399,0.620586,0.842175,0.280702,0.460377
-0.066576,0.581768,0.183059,0.806664,0.084288,0.584969
-0.028562,0.554353,0.613537,-0.723506,0.666333,-0.180387
0.165901,-0.099804,0.647508,0.013526,0.791622,0.610861
-0.581633,0.071390,0.488661,-0.655570,0.712736,0.249471
0.297772,-0.275343,-0.978358,-0.038200,0.004608,0.999259
-0.059486,0.022040,-0.994059,-0.065711,-0.002816,0.997835
-0.129033,-0.572941,0.644585,-0.056011,-0.598804,0.798935
-0.521539,0.263949,0.508346,0.482470,-0.640646,0.597324
0.255233,0.611822,-0.978099,0.229225,-0.044836,-0.972340
0.648347,-0.136408,-0.962469,-0.089855,-0.102113,0.990706
-0.020932,0.255189,0.480904,-0.495920,0.472427,0.728613
0.151046,0.065337,0.558089,0.395081,0.614308,0.683035
-0.684064,0.228130,0.144585,0.878880,-0.412500,0.239613
0.009522,-0.183765,0.934273,0.854404,-0.499907,0.141726
-0.028088,0.030229,0.626503,-0.262184,0.610409,-0.747436
0.650913,0.066404,-0.960488,-0.037841,0.050262,0.998019
0.261312,0.020401,-0.196520,0.997198,0.049584,-0.056012
0.118839,0.139468,0.163185,-0.421331,-0.906570,-0.024742
0.111885,-0.723695,0.648286,-0.238833,0.464508,0.852755
0.185281,0.236390,-0.981187,0.066800,0.044771,-0.996761
0.118097,-0.058928,0.923193,0.882318,0.078925,0.463989
-0.026333,0.360512,0.538592,-0.086453,0.996178,-0.012434
0.083053,0.286807,0.312792,0.974383,-0.224534,-0.012730
0.710804,0.340788,-0.961762,0.122186,0.017563,-0.992352
0.162458,0.503221,-0.980339,-0.003329,-0.001360,0.999994
0.141797,0.023891,0.454618,-0.232512,0.948558,0.214886
-0.377110,0.360371,0.501202,-0.682227,0.441421,-0.582849
0.087172,-0.165036,0.896742,0.922408,0.085087,0.376728
-0.107224,0.278974,0.576996,-0.607882,0.344782,-0.715266
0.482783,-0.112409,-0.971144,0.149024,0.100032,-0.983761
-0.426129,0.180701,0.281720,-0.256490,-0.965843,0.036888
-0.067386,0.150934,-0.991725,-0.220665,-0.007401,0.975321
-0.179337,0.010859,0.610944,-0.273734,0.634159,0.723127
0.424646,-0.290227,-0.974516,-0.130445,-0.040423,0.990631
0.335652,-0.030231,-0.447805,0.686577,-0.675392,0.269180
-0.075826,-0.248638,0.795111,0.296847,0.954919,-0.003440
0.035315,0.479509,-0.986350,-0.148641,0.056358,0.987284
-0.129101,-0.551504,0.816658,-0.440681,-0.735712,0.514323
-0.140985,0.446324,0.507403,0.360659,-0.074998,0.929678
-0.084198,-0.635393,0.780801,-0.646082,0.759077,-0.079873
0.066848,-0.305253,0.698076,-0.541867,-0.263113,-0.798218
0.099797,0.650988,-0.983450,-0.050612,0.016702,0.998579
-0.374138,0.535696,0.525249,0.944232,0.069586,-0.321844
0.186901,-0.104505,0.565727,-0.031351,0.921222,0.387771
0.112695,-0.388501,0.736527,-0.627285,0.634035,-0.452231
-0.262188,0.346412,0.536659,-0.189539,0.680643,-0.707672
0.556382,-0.143030,-0.965038,0.050910,-0.275653,0.959908
-0.226469,-0.945096,0.720779,0.444319,-0.487840,0.751393
-0.450302,0.311306,0.702508,0.950178,0.131232,0.282737
0.010264,-0.288304,0.537178,0.650140,0.021350,0.759514
0.240244,-0.003595,-0.238531,-0.430373,0.898066,-0.090868
-0.021606,0.598789,0.125843,-0.449980,-0.889866,0.075203
-0.000066,0.410646,0.132962,0.914949,0.373751,-0.152247
0.108238,-0.037922,0.897402,-0.153906,-0.347855,0.924830
-0.074948,0.437351,0.209251,0.786855,0.531382,0.313834
-0.019446,0.139468,0.361804,0.107172,-0.888706,0.445775
-0.095542,-0.015846,-0.995167,0.117149,-0.012001,-0.993042
-0.246319,0.347409,0.473714,-0.330912,0.926835,-0.177410
0.265295,-0.347625,0.534231,0.454157,0.870118,-0.191405
0.200000,0.395833,-0.982342,-0.177241,0.013043,0.984081
-0.194935,0.349048,0.533477,0.935758,0.340620,0.091292
0.200338,-0.509917,0.827738,-0.636550,0.491124,-0.594643
0.384944,-0.433719,0.465628,0.365546,0.536180,-0.760847
-0.300742,0.115897,0.218162,0.223245,0.961317,-0.161342
0.367859,0.612463,-0.971168,-0.180921,-0.106268,0.977740
0.525863,0.233897,-0.965722,-0.078574,0.014048,0.996809
0.209184,0.324480,-0.980433,-0.181214,0.210514,0.960648
-0.178933,0.053161,0.555920,-0.256790,-0.811757,-0.524509
0.315666,0.024389,-0.955632,0.031671,0.684158,0.728646
0.420933,0.091757,-0.975364,-0.113976,-0.135786,0.984160
0.032141,-0.004950,0.851502,-0.581924,-0.736363,0.345160
0.111885,-0.261740,0.758169,0.999141,-0.011464,-0.039830
-0.014449,-0.489834,0.600570,0.862184,0.316036,-0.395931
0.077314,0.300409,0.585506,-0.389444,0.270145,-0.880542
-0.338622,-0.403596,0.437409,0.948565,0.130949,0.288230
0.195679,0.194090,-0.982083,-0.095902,0.102920,0.990056
-0.302835,0.305679,0.496063,0.614991,0.784367,0.080964
0.221608,-0.108562,-0.976873,0.078800,0.104528,0.991395
0.312019,0.256045,-0.978052,-0.098567,0.110926,0.988929
-0.193720,-0.070892,0.374299,-0.040373,-0.488897,0.871407
0.013099,-0.127007,0.612217,-0.060844,0.004566,0.998137
0.501014,0.288873,-0.965746,-0.057026,-0.052895,0.996970
0.407091,0.167029,-0.964732,-0.262873,-0.001325,0.964829
-0.623226,0.310806,0.133269,0.120073,0.762878,0.635294
-0.069480,0.417340,0.601325,0.193134,0.932247,-0.305967
-0.597840,0.261456,0.453086,-0.284039,-0.131684,0.949727
0.311817,-0.077372,-0.974209,0.191698,0.085054,-0.977762
0.011614,-0.494606,0.593592,0.219943,0.961879,0.162523
0.267118,0.038063,-0.239568,0.614018,-0.773682,0.156198
0.210264,-0.125940,0.661771,0.537254,-0.834053,-0.125354
-0.003173,-0.131566,-0.991372,-0.234573,0.109714,0.965887
-0.279068,0.070179,0.412396,0.843498,-0.018663,0.536807
-0.210330,-0.187753,0.283158,0.975750,0.134903,0.172374
-0.081295,-0.667724,0.801641,0.774643,-0.610720,-0.164160
0.270156,0.067902,-0.132656,-0.595328,0.802161,-0.046070
0.047198,0.193093,0.058560,-0.140383,-0.632110,0.762056
0.246119,0.638812,0.111627,-0.303906,0.708265,-0.637183
0.688185,-0.223929,-0.963035,-0.190477,-0.046261,0.980601
0.150643,-0.214599,-0.982649,0.234557,-0.018815,-0.971920
0.170088,-0.730960,0.555283,0.949050,-0.305329,-0.077963
0.168063,-0.614030,0.654274,-0.588110,-0.758962,0.279471
-0.038284,0.531993,0.484724,0.665331,0.186874,-0.722781
0.605064,-0.347196,-0.967160,-0.043731,-0.122758,0.991473
0.159285,0.121809,0.352775,-0.487139,0.849513,0.202542
0.005537,0.210539,0.587015,-0.411926,0.231667,-0.881276
0.425052,-0.153996,-0.972512,-0.053560,-0.100294,0.993515
-0.048616,-0.367990,0.625937,0.664724,0.578071,-0.473261
-0.091965,-0.784298,0.644396,0.663349,0.193288,0.722916
-0.074003,0.269432,0.068320,-0.167915,-0.323530,0.931200
-0.272787,-0.215525,0.323566,-0.536658,-0.842838,-0.040292
0.085348,-0.253411,0.773870,-0.630871,-0.731234,-0.259422
0.173128,0.040556,-0.984087,0.207184,-0.025578,-0.977968
0.592169,0.441410,-0.963482,0.006508,0.172179,0.985044
0.102095,-0.204130,0.866943,0.973014,-0.224259,0.054338
0.065092,0.353962,-0.980975,0.363820,0.014211,-0.931361
-0.274409,0.692862,0.525390,0.636386,-0.166691,0.753145
0.716881,-0.241090,-0.961314,-0.107603,-0.126528,0.986110
0.442066,-0.258252,-0.970673,0.014868,-0.108683,0.993965
-0.570695,0.083568,0.520840,0.553308,-0.757720,0.345992
0.236733,0.043903,-0.070371,0.561843,-0.808251,0.176246
-0.622956,-0.001318,0.466288,-0.385183,0.792716,-0.472479
-0.075894,-0.673350,0.772880,0.118772,-0.984577,0.128460
0.351925,-0.014705,-0.641119,-0.486715,0.864873,0.122898
0.999460,-0.314011,-0.950375,-0.091247,-0.075666,0.992949
0.127280,0.483282,-0.981588,-0.072247,0.039190,0.996617
0.034099,0.502937,0.536989,0.020052,0.923130,0.383965
-0.359013,0.140325,0.438752,-0.669543,0.295275,-0.681560
-0.164754,0.372475,0.421071,0.856382,0.503995,0.112248
0.073397,0.297775,-0.988873,0.011887,-0.071174,0.997393
0.506145,-0.018765,-0.957919,-0.032679,-0.679076,0.733340
0.062661,0.024035,0.578552,-0.473140,0.354932,-0.806326
0.074680,0.506499,0.152435,0.279507,0.407628,0.869319
0.868265,-0.479652,-0.962469,-0.042810,0.180312,0.982677
0.482580,-0.085276,-0.969612,-0.044815,-0.080773,0.995725
0.172250,0.077586,0.069310,-0.379219,-0.924092,0.047401
-0.430654,0.180914,0.497289,0.543876,0.384668,-0.745808
-0.046386,0.247071,0.060753,0.170619,-0.140386,0.975285
0.675963,0.473954,-0.965463,-0.131055,0.043155,0.990435
0.565766,0.112907,-0.957966,0.221166,0.009461,-0.975190
0.262931,-0.023537,-0.965298,0.671738,0.189082,-0.716251
0.170427,-0.769700,0.579070,-0.611088,0.250937,0.750735
-0.478123,0.308741,0.506012,0.219784,-0.887056,0.405988
0.093248,-0.578565,0.639870,0.807033,0.578818,0.116905
0.063471,-0.627132,0.666627,0.874587,-0.331345,0.353987
-0.014381,-0.317642,0.822764,-0.387324,0.101004,0.916394
0.033289,-0.271214,0.685181,0.618344,-0.682693,0.389334
-0.439972,0.010148,0.215310,0.444866,0.869947,-0.212807
0.546118,-0.359801,-0.968221,0.137145,0.080696,-0.987258
-0.110127,0.326972,0.494625,-0.047944,0.812095,0.581553
0.241730,-0.681539,0.597812,-0.648773,-0.760433,0.028890
-0.156584,0.015631,0.628672,-0.460918,0.842262,-0.279551
0.816408,-0.281752,-0.958249,-0.046020,0.287928,0.956546
-0.220796,0.119175,0.555236,0.953541,0.208508,-0.217448
-0.243281,0.607904,0.044038,-0.117154,-0.516849,0.848022
-0.572113,0.047675,0.526687,-0.089999,-0.113662,0.989435
0.137677,0.053230,0.453982,-0.645134,0.741199,0.185545
0.324510,-0.008937,-0.709180,-0.574179,0.818419,-0.022546
-0.703444,0.204202,0.563322,-0.603139,-0.306491,-0.736402
0.074814,0.112694,0.668891,-0.511701,-0.696968,-0.502392
-0.512560,0.514972,0.553374,-0.149947,0.953789,-0.260390
0.170765,-0.457931,0.409779,0.264006,0.960161,-0.091611
0.035990,0.382872,-0.988448,-0.005011,-0.227677,0.973724
-0.707495,0.210396,0.146235,0.768691,-0.586630,0.254911
-0.000066,0.032295,0.628884,-0.179445,0.757826,-0.627295
-0.179541,-0.708813,0.794663,-0.242717,0.956557,0.161516
0.291763,-0.025317,-0.539370,-0.360446,0.932184,0.033341
0.408373,-0.163113,-0.971616,0.190620,0.002538,-0.981661
-0.396961,0.137047,0.486869,0.520878,0.620223,-0.586523
0.686767,0.084138,-0.957447,0.044988,0.077974,0.995940
-0.219310,0.757237,0.076406,0.413556,0.900481,-0.134553
0.241324,0.369129,-0.979914,0.275497,0.057649,-0.959572
0.145038,0.031654,0.157127,0.723387,0.672832,0.154945
-0.254557,0.830442,0.138880,-0.059712,-0.746297,0.662929
-0.054693,-0.337156,0.804823,-0.488691,0.076830,0.869067
0.262931,-0.010076,-0.269013,0.687505,-0.725130,-0.039030
0.514991,0.025884,-0.969871,-0.086489,0.079669,0.993062
-0.088994,-0.415418,0.707011,0.097674,-0.116410,0.988387
-0.101079,-0.396048,0.595950,-0.498624,-0.532058,0.684316
0.486901,0.546162,-0.964025,0.126651,-0.093409,-0.987540
0.181500,-0.254193,0.676812,0.976631,0.203525,0.069062
-0.545713,0.775040,0.080815,0.797642,-0.242966,-0.552027
-0.207089,0.387432,0.586473,0.338347,0.428836,-0.837628
0.100135,-0.379740,0.618393,0.443294,-0.722280,0.530849
0.389873,0.502367,-0.973125,0.189788,0.064786,-0.979685
0.019448,0.290510,-0.985549,-0.145555,-0.106921,0.983556
0.694937,-0.218445,-0.960771,-0.273657,-0.142358,0.951234
-0.249966,-0.420189,0.632020,-0.541342,-0.492646,-0.681359
0.274545,-0.153926,-0.973502,0.134933,0.208785,0.968608
0.273869,0.590316,-0.978853,-0.151993,0.001376,0.988381
0.812493,-0.232758,-0.960512,-0.073635,0.313014,0.946890
-0.061309,0.635108,0.171932,0.810156,-0.135154,0.570422
0.073059,0.299911,-0.986421,0.035452,-0.201282,0.978892
0.341797,-0.271855,-0.973785,-0.067294,0.011872,0.997663
0.354964,0.060495,-0.974775,-0.020824,0.049448,0.998560
0.368535,-0.186114,-0.976024,0.017367,0.050281,-0.998584
-0.006145,0.758589,0.185464,0.882061,-0.366613,0.295912
0.226469,0.639309,0.152813,0.939376,0.200964,0.277823
-0.058946,0.033791,0.854378,0.783321,0.618081,-0.066215
0.503039,0.465694,-0.968292,0.020226,0.162291,0.986536
-0.399459,0.307459,0.497077,-0.469215,0.811642,-0.347958
0.123836,0.139327,-0.980409,-0.129684,0.054009,0.990083
0.528900,0.501442,-0.972087,-0.136472,-0.112526,0.984232
0.011278,0.105288,0.650879,0.136901,-0.669563,0.730030
0.156449,-0.073028,-0.979914,0.164795,-0.176329,-0.970438
-0.707021,0.387217,0.122118,0.224262,0.766658,0.601616
0.034505,-0.981699,0.726885,-0.698188,0.573337,0.428739
-0.010330,-0.363076,0.647626,-0.164072,0.235071,0.958030
0.639095,0.201140,-0.962657,-0.066808,0.205080,0.976462
-0.069547,-0.634041,0.798411,0.871087,-0.490922,-0.014234
0.230656,0.056364,0.007167,-0.140358,0.985401,-0.096355
-0.225185,0.018195,0.576053,0.633337,-0.527313,-0.566414
0.674884,0.137475,-0.957872,0.187408,0.065760,0.980079
-0.633558,0.749759,0.075228,-0.097836,0.485506,0.868742
0.981568,-0.309526,-0.952025,-0.091247,-0.075666,0.992949
-0.004253,0.504432,0.589608,0.142121,0.923019,-0.357545
0.518096,0.439202,-0.963600,-0.032749,0.005878,0.999446
0.293249,0.084635,-0.088288,0.788837,-0.575822,0.214860
-0.168197,0.624640,0.445566,0.076740,0.997025,0.007187
0.715531,0.151432,-0.961243,-0.263991,-0.149939,-0.952800
0.009926,-0.303401,0.806238,-0.516760,-0.474060,-0.712900
-0.339635,0.318640,0.488142,-0.108544,0.962849,-0.247266
0.184134,-0.079224,-0.979018,-0.199288,0.072084,0.977286
0.225119,0.603346,-0.981352,-0.130150,0.040539,0.990665
0.048346,0.666796,0.526545,-0.047938,-0.750275,0.659386
-0.519040,0.287378,0.424655,-0.125786,0.424946,-0.896437
0.230048,0.418337,-0.981753,0.274614,0.078139,-0.958374
0.061445,-0.188464,0.825192,-0.742131,0.485309,0.462294
0.096894,0.172584,-0.989273,0.186649,0.129480,-0.973857
-0.766239,0.244579,0.573719,0.912986,-0.121486,0.389484
0.403242,0.209827,-0.971522,-0.273352,0.136428,0.952190
0.533627,0.140750,-0.962374,0.043619,0.011693,0.998980
-0.169141,-0.434716,0.750035,0.986130,0.072549,-0.149279
-0.272046,0.048601,0.747348,0.905787,-0.193415,0.377015
0.638015,0.032650,-0.958037,-0.004817,0.047540,0.998858
0.297232,0.014208,-0.627469,-0.312085,0.933211,0.178100
-0.544631,0.075947,0.510019,0.038773,-0.857920,0.512317
0.302431,0.022253,-0.246310,-0.673394,0.738201,-0.040008
0.153614,0.203987,-0.982272,-0.140442,-0.015251,0.989971
-0.441188,0.886560,0.116861,0.923387,0.094699,0.372006
0.080149,0.227558,0.438116,0.946133,0.057424,0.318644
-0.203376,0.356952,0.459286,0.715374,-0.543664,-0.438942
-0.757932,0.218230,0.559597,0.811785,-0.057505,0.581117
-0.169817,-0.498025,0.716936,-0.696138,0.655576,0.292595
0.114990,0.074667,-0.983050,-0.211630,-0.035882,0.976691
0.270900,0.066263,0.051936,0.283207,0.954881,0.089418
0.144228,-0.006303,0.903272,0.764457,-0.255912,0.591704
-0.141930,0.298557,0.537201,0.776566,-0.556113,0.296114
0.607632,0.062844,-0.961290,0.078917,-0.012769,-0.996799
0.237678,0.598148,-0.984181,-0.143013,0.063356,0.987691
0.109319,0.000249,0.602079,-0.157047,-0.881244,-0.445809
-0.130047,-0.684673,0.855297,0.310727,0.850468,0.424445
0.328226,0.269004,-0.973360,0.228959,0.052885,-0.971998
0.382918,0.655332,-0.972818,-0.253257,-0.011211,0.967334
-0.388183,0.110130,0.263921,0.928271,-0.073245,0.364619
0.674748,0.169450,-0.964425,-0.174628,-0.264516,-0.948439
-0.449763,0.777248,0.091306,0.060254,0.778268,0.625035
-0.572315,-0.093039,0.530883,-0.014442,0.594665,0.803844
0.123566,-0.198647,0.622236,0.113479,0.057088,0.991899
0.012965,-0.126581,0.949691,0.744313,0.466590,0.477800
-0.489330,0.714866,0.102433,-0.095178,-0.551148,0.828962
-0.405468,-0.131066,0.403626,-0.124683,0.973595,-0.191222
-0.386496,0.245648,0.553374,0.652278,0.742785,-0.151008
-0.108911,0.701263,0.085789,-0.390717,0.275677,0.878261
0.508576,-0.160833,-0.969164,0.199233,0.152478,-0.968017
-0.704929,0.032437,0.553114,0.900449,-0.065899,0.429941
0.110129,-0.003667,-0.985171,0.022945,0.058030,0.998051
0.232750,-0.061706,-0.685841,-0.575289,0.817912,0.007864
-0.134166,-0.687663,0.761823,0.706014,-0.702015,0.093383
-0.081093,0.022112,0.624263,-0.074381,-0.876884,0.474913
0.090277,-0.565676,0.298152,0.376248,0.799054,0.468988
0.085078,-0.570020,0.610425,-0.604333,-0.730893,-0.317140
-0.044631,0.106070,0.619289,-0.604919,0.037902,-0.795384
0.313843,0.059426,-0.937527,-0.405271,0.853342,0.327966
0.598110,0.112979,-0.962422,-0.131642,0.112762,0.984863
-0.284875,-0.438846,0.627399,0.578455,0.435240,0.689896
0.075490,-0.191454,0.616507,0.274130,-0.338729,-0.900064
-0.880283,0.840413,0.169339,-0.172566,0.266810,-0.948174
0.665430,0.019263,-0.959593,0.098805,0.066478,0.992884
-0.064685,-0.700409,0.863313,-0.098392,-0.986900,0.127855
-0.292031,-0.087413,0.596469,0.372013,-0.356181,-0.857170
-0.077042,0.195727,0.622118,-0.564088,-0.522539,-0.639341
-0.055772,0.411928,0.225683,0.430286,0.596300,0.677702
0.022417,0.178993,0.186147,0.585572,0.807611,-0.069783
-0.124240,-0.503223,0.625112,-0.762793,0.083932,-0.641173
-0.501620,0.603205,0.578010,0.973901,0.033608,0.224473
-0.410601,-0.072887,0.492645,0.949437,0.169479,-0.264285
-0.508506,0.892256,0.119572,0.940329,-0.222627,0.257330
0.289602,-0.355244,0.542458,-0.410397,-0.867231,0.281929
-0.629709,0.308385,0.567801,-0.015294,-0.895498,0.444803
-0.048480,0.073598,-0.991631,-0.078212,0.067974,0.994617
-0.090817,0.581556,0.653708,-0.373018,0.617919,-0.692122
-0.035787,0.026810,-0.996181,-0.030459,-0.106230,0.993875
0.131802,0.637601,-0.983450,-0.191702,-0.014854,0.981341
0.638421,-0.061564,-0.960253,0.014697,-0.034822,0.999285
0.269616,0.093680,-0.028974,-0.468915,0.882369,-0.039289
-0.226805,0.422966,0.502240,0.058553,0.628076,0.775946
0.034505,0.261313,0.586072,0.537633,-0.841433,-0.054234
0.112424,-0.116469,0.903155,0.956267,-0.291081,0.028731
-0.114178,0.727968,0.523410,0.308953,0.781113,-0.542596
-0.366172,0.219797,0.471993,0.924570,-0.081833,-0.372120
0.186293,0.421612,-0.982248,-0.019389,-0.004251,0.999803
-0.394530,0.330745,0.517752,0.905555,-0.340795,0.252643
0.576840,-0.232687,-0.966948,-0.181304,-0.238841,0.953983
-0.145442,0.310593,0.403814,0.926121,0.335464,-0.172523
-0.167993,0.001388,0.656042,0.808039,-0.569178,-0.152021
0.356246,0.649634,0.082913,0.059970,0.797592,0.600209
0.057530,0.128502,0.360955,-0.221568,-0.731582,-0.644744
0.011008,-0.639880,0.613301,0.133908,0.059566,0.989202
0.636867,0.426385,-0.962987,0.159279,0.128800,0.978796
-0.385684,0.247213,0.443420,0.623439,-0.745279,-0.236394
-0.797434,0.297347,0.137654,0.008877,0.358242,0.933587
-0.084604,-0.328752,0.615847,-0.536741,-0.567702,0.624199
0.114652,-0.192167,0.906054,0.420992,0.291306,0.859015
0.715125,-0.206836,-0.957306,0.081195,0.058873,-0.994958
0.081365,0.079580,-0.984629,-0.082241,-0.125182,0.988719
-0.117419,0.516752,0.644703,-0.568093,0.716498,-0.404848
-0.680553,0.264020,0.579612,0.034904,0.741741,0.669777
0.248346,-0.139968,-0.971946,0.061293,0.106507,0.992421
0.780758,-0.350543,-0.964284,-0.048787,-0.040047,0.998006
-0.056312,0.020473,-0.994036,0.023948,0.029032,0.999292
0.194733,-0.413067,0.669904,-0.458960,0.596543,0.658401
0.300204,0.009579,-0.357655,-0.460445,0.861442,-0.214261
0.220864,-0.289871,0.668301,0.889675,0.425631,0.165275
0.140987,0.694001,-0.986091,-0.145993,-0.074844,0.986450
0.540852,-0.313726,-0.973101,-0.317722,0.012288,0.948104
0.721068,-0.113263,-0.960041,0.002327,-0.128335,0.991728
0.254085,0.103293,-0.032463,-0.468915,0.882369,-0.039289
0.596962,-0.347981,-0.967891,-0.061052,0.016726,0.997994
-0.777988,0.129072,0.497784,0.971714,-0.227894,-0.061933
0.328629,-0.042835,-0.608916,0.074149,0.989548,0.123676
-0.471708,0.066404,0.237470,0.873556,-0.244264,-0.420994
-0.575692,0.029944,0.496888,-0.498825,0.858958,0.115607
0.042877,0.820900,0.204182,0.707718,-0.611725,-0.353451
0.047130,-0.366282,0.795464,0.486568,-0.322756,0.811837
-0.372789,0.402173,0.521830,0.075400,-0.984270,0.159770
0.180691,0.326047,-0.984346,-0.168875,0.015603,0.985514
-0.687305,0.228343,0.492951,0.648681,-0.648579,-0.398193
-0.029980,-0.158840,0.538333,0.816228,0.431202,0.384496
0.244903,0.072815,-0.020604,-0.287010,0.956722,0.048039
-0.255233,0.764359,0.076430,0.206589,0.968435,-0.139479
-0.245103,0.064981,0.331581,0.086866,0.926077,0.367201
0.119177,0.575931,-0.982225,-0.127153,-0.001540,0.991882
0.928697,-0.408012,-0.954241,0.383371,-0.051145,-0.922177
0.092911,0.014562,0.594418,0.085277,0.959913,0.267010
-0.740580,0.348976,0.147107,0.103424,0.674177,0.731293
0.019852,0.390209,0.550332,-0.070142,-0.782677,0.618463
0.324984,0.022822,-0.956599,0.454196,0.618131,0.641576
-0.316744,0.780026,0.099132,0.078501,-0.694652,0.715050
-0.197703,0.191313,0.401363,-0.393207,0.736347,-0.550619
0.072519,-0.907781,0.721086,0.935901,-0.287436,-0.203641
0.664214,0.163254,-0.956292,0.052525,0.223294,0.973335
0.803039,-0.417341,-0.965675,0.060191,0.023718,0.997905
-0.271775,-0.002100,0.565020,0.899533,0.113297,-0.421905
0.142606,-0.478014,0.298317,-0.684153,-0.728087,0.042718
-0.323093,-0.071392,0.486445,0.641987,0.752199,0.148492
0.032951,0.176000,0.197982,0.712933,0.685308,0.148592
-0.517960,0.385934,0.570725,-0.156602,0.895803,-0.415948
-0.047062,-0.404165,0.662596,-0.376721,-0.623019,-0.685514
0.630115,0.360155,-0.962587,-0.015000,-0.018732,0.999712
-0.122618,-0.589959,0.638785,0.065155,-0.751479,0.656532
-0.079607,0.060423,0.626692,-0.597709,-0.028474,-0.801207
-0.005401,-0.683888,0.836885,-0.521865,-0.729143,-0.442727
0.335854,0.004450,-0.651516,-0.394641,0.911224,0.118025
0.055368,-0.189674,0.744071,0.654012,-0.753836,0.063241
0.114652,-0.793413,0.654934,-0.072259,0.025955,0.997048
0.105064,0.011146,0.907115,0.542665,0.775563,-0.322518
-0.749426,0.206408,0.134236,-0.285932,0.880135,-0.378952
-0.093922,-0.575575,0.751969,0.993703,-0.105995,0.036316
0.125660,-0.603277,0.676741,-0.166973,-0.878672,0.447276
0.145578,0.121880,-0.981164,-0.122288,0.086579,0.988711
-0.632274,0.389709,0.108845,0.334884,0.584527,0.739041
0.120257,0.051237,0.412066,0.061377,0.986977,0.148692
-0.728426,0.167670,0.123650,0.076222,-0.890793,0.447971
0.534369,-0.315437,-0.974445,-0.108344,0.054348,0.992627
0.526942,-0.028449,-0.964732,0.002932,-0.329978,0.943984
0.128967,-0.185045,0.857325,0.978495,-0.203743,-0.032192
-0.188589,0.305394,0.530412,-0.686327,-0.717289,0.120214
-0.602565,0.028092,0.486704,-0.172733,0.983635,0.051233
-0.174612,0.184548,0.520675,-0.597799,0.697642,-0.394882
0.076098,-0.069753,0.943114,-0.117675,-0.346493,0.930642
0.029372,0.067260,0.798058,0.868160,0.177459,0.463473
0.053749,-0.194231,0.825758,0.807898,-0.157888,-0.567779
0.329439,0.627345,-0.976095,-0.236755,-0.005117,0.971556
0.069817,0.165034,0.464331,0.905569,0.424099,-0.009189
0.638759,0.151860,-0.962374,0.257063,0.008652,-0.966356
0.298312,0.257825,-0.976849,-0.057798,0.023645,0.998048
0.353277,0.006160,-0.811802,-0.423102,0.900771,-0.097963
0.294195,-0.147374,-0.976590,0.118961,-0.134584,-0.983736
-0.591897,-0.111555,0.531190,0.171869,0.473862,0.863664
0.246793,0.151932,-0.968858,-0.085868,-0.047649,0.995166
-0.152464,-0.403239,0.774742,0.970167,-0.160050,-0.182096
0.099055,0.017198,-0.977863,-0.058717,-0.005124,0.998262
0.295476,-0.189461,-0.976991,0.162375,-0.050617,0.985430
0.052331,-0.554566,0.584186,-0.306145,-0.951981,-0.002804
-0.078326,-0.306320,0.773752,0.254922,0.626624,-0.736449
0.203174,0.001460,0.522231,0.247558,-0.922824,-0.295146
0.076840,0.118534,0.591141,0.148023,-0.609866,0.778558
0.175895,-0.184832,0.628436,0.300619,-0.021589,-0.953500
0.100811,-0.392558,0.258758,0.878030,0.473415,-0.070300
0.160501,0.305536,-0.981800,0.153477,-0.170947,-0.973253
-0.088520,0.250988,0.419445,0.959689,0.071587,-0.271794
-0.387237,0.315791,0.493376,-0.404913,0.658741,-0.634118
0.049428,-0.468615,0.823471,0.659997,0.709793,0.246168
0.179137,-0.618018,0.316210,0.840373,0.293877,-0.455422
-0.135718,0.657112,0.710453,0.322438,-0.842848,0.430860
-0.137609,-0.017270,0.377882,-0.787552,0.527446,-0.318688
0.428495,0.036709,-0.942289,0.222771,-0.629063,-0.744750
0.267320,0.070892,-0.053303,0.596114,-0.792159,0.130890
-0.612289,0.487413,0.542152,0.733562,0.486237,-0.474826
0.404592,0.444544,-0.973030,-0.117503,-0.005778,0.993056
0.187307,-0.484351,0.696992,-0.402318,-0.314581,0.859755
-0.262051,0.237957,0.424348,0.843936,0.131955,-0.519961
0.524985,0.393412,-0.966429,-0.028700,0.028128,0.999192
0.400001,0.000392,-0.972724,-0.050389,0.053381,0.997302
-0.307494,0.288445,0.101749,0.105750,-0.350086,0.930729
-0.145712,0.459070,0.617002,-0.588637,0.694112,-0.414385
0.343013,-0.558769,0.531472,-0.731441,-0.375956,-0.568903
-0.142876,-0.058572,0.561955,-0.164915,-0.601211,-0.781888
0.583729,-0.379953,-0.966736,-0.215234,0.025369,0.976233
0.761378,-0.427595,-0.960323,-0.000470,0.051545,0.998671
0.290346,0.021896,-0.216087,0.768980,-0.589143,0.248153
0.069817,-0.760299,0.620067,0.461588,0.344796,-0.817345
-0.489938,0.541605,0.571904,0.975397,0.124283,0.182084
-0.127345,-0.501941,0.836909,0.405821,0.897693,-0.171631
-0.028156,-0.529643,0.604814,-0.415068,0.731881,0.540435
0.002903,0.141250,-0.989603,0.041030,-0.129683,0.990706
0.042135,0.184191,0.199184,0.581438,0.804073,0.124083
-0.380419,0.422040,0.568131,-0.360163,0.149589,0.920818
0.152398,0.518178,-0.983191,-0.043774,-0.004392,0.999032
-0.426941,-0.276197,0.494884,0.776373,-0.070057,0.626369
0.393586,0.476304,-0.968575,-0.196066,-0.099639,0.975515
-0.625860,0.359160,0.107054,0.340483,0.497570,0.797806
0.162188,-0.014848,0.587982,-0.674137,-0.420475,-0.607240
-0.324375,0.136906,0.424325,0.120374,0.901647,0.415383
0.292843,0.061919,-0.124593,-0.548419,0.827096,-0.123080
0.186293,0.011287,0.461832,-0.882708,0.293262,0.367183
-0.124036,0.514831,0.592532,0.343550,0.446846,-0.826016
-0.221810,0.063201,0.386275,0.321131,0.938217,-0.128933
-0.492504,0.092896,0.471545,0.157925,0.853804,0.496064
-0.255841,0.215240,0.451247,-0.193195,0.974760,-0.111890
0.049630,0.109204,0.287331,0.621853,0.710449,0.329486
-0.113908,0.282465,0.477085,-0.134523,-0.623771,0.769944
0.181432,0.652342,0.177543,0.916595,0.167127,0.363211
0.008644,0.338792,0.528266,-0.184701,0.963151,-0.195516
0.028360,-0.028520,0.852044,0.768352,0.619379,-0.161263
-0.716069,0.204202,0.141968,-0.337981,0.920758,-0.194866
-0.314517,-0.407086,0.443350,0.690375,-0.102225,0.716193
0.062391,0.222431,0.614268,-0.139620,-0.880029,-0.453933
0.927077,-0.389568,-0.955986,-0.157187,-0.030914,0.987085
0.157529,0.032365,-0.981352,-0.221892,-0.027651,0.974679
-0.152194,-0.556418,0.825121,-0.193697,-0.732662,0.652448
0.035045,-0.397046,0.689259,-0.300867,-0.510802,-0.805332
0.330521,0.183478,-0.975600,-0.155442,0.109464,0.981761
0.240042,-0.244081,-0.976519,0.042991,-0.241491,0.969450
0.235991,0.589603,-0.976331,-0.116732,0.024685,0.992857
0.163876,-0.273135,0.689684,0.440057,0.722042,0.533858
0.276436,0.124799,0.486704,0.926706,-0.354451,-0.124822
-0.481972,0.315578,0.512377,-0.047920,0.998813,-0.008721
0.135314,0.353890,0.225140,0.967073,-0.245648,0.066530
-0.053341,-0.408368,0.616012,0.523144,0.488908,-0.698061
0.522687,0.264946,-0.964873,-0.078701,-0.103282,0.991534
-0.536934,0.297844,0.468999,0.028598,-0.961758,0.272403
-0.065159,-0.364786,0.701825,0.201190,-0.822008,0.532752
0.298854,0.088339,-0.970225,0.101260,0.265573,0.958758
-0.029574,0.106214,0.444575,-0.320694,0.546605,-0.773549
0.576232,-0.262382,-0.968905,0.159552,0.098314,-0.982282
0.086294,-0.638383,0.642558,0.935685,-0.074189,0.344949
0.507496,-0.185260,-0.973667,-0.259078,-0.098627,0.960808
-0.041593,0.715222,0.135626,0.924928,0.123318,-0.359585
-0.253679,0.131280,0.430808,0.778133,0.064288,-0.624801
-0.154692,-0.701550,0.762954,0.909775,-0.380101,0.166833
-0.543753,0.154140,0.512188,0.971738,-0.193238,0.135588
0.066240,-0.170661,0.738790,0.781114,-0.616109,-0.101344
0.377785,0.022538,-0.824108,-0.501266,0.860347,-0.092390
0.153410,0.044400,0.443467,-0.712692,0.684645,0.152744
0.339771,-0.423181,0.476237,-0.465877,-0.657645,0.591998
-0.434300,0.271283,0.145434,-0.523870,-0.367012,-0.768676
-0.651788,0.302689,0.570277,-0.011897,-0.837596,0.546160
-0.567252,0.395264,0.516455,0.960190,0.270378,-0.070218
0.020258,0.240234,0.492904,0.201722,-0.972639,0.115245
-0.514989,0.816558,0.099392,-0.055871,0.195229,0.979165
0.534167,0.103649,-0.965722,0.083548,0.103533,0.991111
0.011547,-0.182696,0.947664,0.882896,-0.367061,0.292849
0.461108,-0.291507,-0.973785,-0.123070,0.053598,0.990950
-0.008372,-0.885277,0.689754,-0.061579,0.960330,0.271981
-0.379203,0.044400,0.283653,0.151150,-0.871148,0.467177
-0.491424,0.742994,0.578457,0.896533,-0.014997,0.442722
0.198651,-0.037281,0.552195,-0.594293,0.795703,0.116931
-0.518500,0.328039,0.511717,-0.129248,-0.385798,0.913485
0.101351,0.720492,-0.982767,-0.109153,-0.038077,0.993295
0.059758,0.094391,0.595596,0.654079,0.249147,-0.714218
0.051655,-0.776038,0.619690,0.359009,0.056213,-0.931640
-0.273531,0.763859,0.064666,0.098134,0.930083,-0.354000
0.329913,0.629197,0.126644,0.235042,0.774794,0.586899
0.063877,0.289940,0.199632,0.987575,0.014616,0.156468
-0.016813,-0.307531,0.212009,0.382328,-0.477597,-0.791028
0.027212,-0.003241,0.600028,0.017496,0.947882,0.318142
0.199392,0.070892,0.051700,-0.250921,-0.967101,0.041875
-0.466171,0.080291,0.485077,-0.374972,-0.711789,-0.593929
-0.086360,0.643156,0.710382,-0.248207,0.921373,-0.299108
-0.025861,0.029161,0.871234,0.166660,-0.941434,-0.293133
0.107024,0.462060,0.577302,0.789627,0.484843,0.376055
0.056584,-0.429518,0.782993,0.950007,0.295331,0.101324
0.034437,-0.019193,0.966406,-0.041925,0.316621,0.947625
-0.485549,-0.109775,0.410510,0.291541,-0.768474,0.569606
-0.501958,0.685027,0.582064,0.895303,0.024709,0.444772
-0.326332,0.746412,0.061318,-0.331124,0.799961,-0.500418
-0.183390,0.467687,0.565609,-0.227290,0.637563,0.736106
0.159623,0.316504,-0.983191,-0.109438,0.180633,0.977443
-0.013977,-0.837210,0.631524,0.102831,0.706459,0.700244
0.005875,0.296421,0.503607,-0.183426,-0.410491,0.893226
-0.541119,0.269503,0.520416,0.171653,-0.946814,0.272173
-0.178595,-0.102438,0.225659,0.904287,0.091691,-0.416962
-0.153004,0.062347,0.381418,0.589004,0.681619,-0.434131
-0.060903,0.012284,0.630676,0.317283,0.524902,-0.789816
-0.302497,0.240378,0.293625,0.013791,0.489002,0.872174
0.543013,-0.012212,-0.964449,-0.024840,-0.132698,0.990845
0.247536,0.204913,-0.976684,0.220449,0.012453,-0.975319
0.013303,-0.293430,0.650526,0.275876,-0.590688,0.758274
0.100811,-0.446111,0.257579,0.630276,0.672486,0.387962
0.111817,-0.294641,0.523740,0.096663,0.579954,0.808894
-0.452194,0.299768,0.656113,0.891692,-0.287032,0.349996
-0.084537,0.110699,-0.995780,-0.104528,0.049472,0.993291
-0.108979,0.787786,0.114244,0.799524,0.324918,-0.505163
0.402566,-0.289301,-0.978122,-0.039944,-0.015494,0.999082
0.172722,-0.213601,0.631100,0.867663,0.404021,-0.289704
0.345646,-0.068471,-0.967137,0.138189,-0.024012,0.990115
-0.228898,0.078868,0.591306,-0.761510,0.592663,0.262397
-0.135584,0.516539,0.336909,0.281331,0.929457,0.238669
-0.275219,-0.223144,0.366095,0.963053,-0.158171,-0.217972
-0.246185,-0.191454,0.369843,0.770161,0.157487,0.618102
0.217625,-0.518321,0.619171,0.945259,-0.210811,0.249085
-0.103442,-0.016628,-0.996912,0.149261,-0.010340,-0.988744
-0.676163,0.228699,0.142699,0.545425,0.446706,-0.709200
0.273937,0.025530,-0.914305,0.404214,-0.908744,-0.103897
-0.575894,0.375966,0.600264,0.080089,0.917318,-0.390018
-0.621675,0.528931,0.521878,0.289074,0.670841,-0.682941
-0.103105,-0.029374,0.379367,0.802262,-0.553884,0.222684
-0.370425,0.030513,0.280683,-0.327399,0.438650,0.836897
0.016477,0.126579,0.604130,-0.218825,-0.955730,-0.196714
0.023229,0.051594,0.810434,-0.643825,-0.582609,-0.496040
-0.020054,0.629695,0.518200,-0.150189,0.793869,-0.589250
-0.305130,0.400462,0.556769,0.073853,-0.948477,0.308120
-0.008440,-0.441623,0.610095,-0.450467,-0.105781,0.886504
0.114788,-0.181342,0.488590,0.679265,0.503531,0.533906
-0.051721,-0.497525,0.573695,-0.204810,-0.184982,-0.961163
0.566914,-0.125014,-0.963247,0.005322,-0.171551,0.985161
0.109049,0.293644,0.585695,-0.096183,0.566485,0.818440
-0.055636,0.386434,0.580626,0.964599,-0.250050,0.083807
0.748818,-0.411287,-0.959970,-0.131824,0.049913,0.990016
-0.269276,0.061847,0.433495,0.472656,-0.296886,0.829732
-0.113166,0.404094,0.420270,0.692371,0.111466,-0.712880
0.874140,-0.356169,-0.960323,-0.375972,-0.337613,0.862938
0.021204,-0.190885,0.980763,0.799677,-0.471256,-0.372068
0.114518,0.163041,0.618228,0.678550,-0.095873,0.728271
-0.178731,0.416629,0.402801,0.864674,0.311916,-0.393761
0.230048,0.184048,0.509713,0.923466,-0.068812,0.377459
0.335788,-0.343637,0.481730,0.405825,0.875118,-0.263579
-0.107900,0.759515,0.119949,0.774563,0.303656,-0.554838
0.171372,-0.425743,0.683931,-0.522431,0.477842,0.706210
0.381771,0.056792,-0.975977,0.187979,0.027429,-0.981790
0.655572,-0.114759,-0.960889,-0.248575,-0.038059,0.967865
0.188523,-0.013923,0.593545,0.164626,-0.935310,-0.313200
0.031533,-0.341072,0.767646,-0.263211,-0.775144,0.574344
0.241730,0.076231,-0.004432,-0.316992,0.948242,-0.018792
0.846794,-0.400606,-0.958367,-0.134981,0.091748,0.986591
0.395814,0.501015,-0.971121,-0.171774,-0.022974,0.984868
-0.518028,0.199073,0.481164,0.842813,0.537936,0.017037
0.046996,-0.415631,0.831699,0.295089,0.419231,0.858585
0.029372,-0.321561,0.809020,0.245456,-0.199512,0.948655
-0.504523,0.262879,0.470649,-0.338534,0.878475,-0.337158
0.048212,0.140750,0.171602,0.507479,0.861399,-0.021350
-0.569613,0.765141,0.137607,0.869885,-0.267195,0.414617
-0.267994,0.766921,0.099439,0.518589,0.787718,0.332514
0.318974,-0.017126,-0.835447,-0.521767,0.845888,-0.110599
0.217557,0.438420,-0.981682,-0.205876,-0.008979,0.978537
-0.369615,-0.079865,0.489061,0.888875,-0.326727,0.321170
0.814990,-0.408794,-0.961714,0.008426,-0.090257,0.995883
0.319448,0.248851,-0.972394,-0.110057,0.098681,0.989014
0.006821,0.052804,-0.989934,-0.229563,-0.143648,0.962635
-0.151654,-0.660389,0.774035,0.417205,-0.901145,0.117805
-0.497230,-0.019121,0.529304,0.943800,0.119974,-0.307975
-0.200134,0.112194,0.662667,0.872534,-0.085756,0.480969
0.329508,0.507209,-0.976567,-0.150945,-0.187526,0.970593
0.157327,0.749049,-0.982649,-0.049563,-0.116504,0.991953
0.093317,-0.413067,0.244590,0.769135,0.587066,0.252556
-0.241120,-0.200214,0.190132,0.659109,0.624068,-0.419660
0.719582,0.025030,-0.955066,0.312053,-0.003787,-0.950057
-0.014787,-0.328895,0.762931,-0.052354,-0.780374,0.623117
0.056382,-0.961403,0.728771,0.821597,-0.504811,-0.264848
0.099595,-0.061492,0.890023,0.945206,0.166740,-0.280685
-0.024645,-0.086915,-0.989273,-0.034015,0.091751,0.995201
0.461514,0.062632,-0.969188,0.196355,0.114629,-0.973809
-0.627683,0.315719,0.144302,-0.292171,-0.826432,-0.481296
-0.607899,0.099305,0.180654,-0.267729,-0.444204,0.854988
-0.009048,-0.195229,0.968528,0.934439,-0.350233,-0.064502
-0.017892,0.564252,0.484111,-0.585291,-0.204276,0.784669
-0.080957,-0.085135,-0.992668,-0.084786,-0.013361,0.996310
0.473330,0.430798,-0.967325,0.163467,-0.009596,-0.986502
-0.587508,0.071318,0.501250,-0.536001,0.738026,-0.409903
-0.305334,0.384939,0.543331,0.830343,0.474753,0.291788
-0.047534,0.051735,0.638762,-0.268825,0.729022,0.629492
0.329709,0.027666,-0.815008,-0.431208,0.890865,-0.142894
-0.020864,0.126294,0.358103,0.201273,-0.879244,0.431763
-0.279202,0.341142,0.531449,0.003175,-0.847473,0.530829
0.568536,0.272066,-0.962139,-0.043810,0.017267,0.998891
0.390413,-0.078370,-0.970979,0.023758,-0.034591,0.999119
-0.006009,-0.177639,0.753147,-0.139301,0.990033,0.020717
0.647807,-0.361083,-0.962728,0.286297,-0.122911,-0.950225
0.666239,-0.327044,-0.965109,0.185622,-0.039098,-0.981843
-0.575286,0.610540,0.104248,0.137095,0.059795,0.988752
0.549090,0.011643,-0.967797,-0.292571,0.019445,0.956046
0.002971,-0.752751,0.599038,0.247120,0.464041,0.850645
-0.175016,0.215097,0.581546,-0.745922,0.205167,0.633646
0.404660,0.196937,-0.969518,-0.318643,0.108468,0.941648
0.181162,0.136550,0.125678,0.992581,0.094090,-0.077005
0.063675,-0.904363,0.731624,0.821597,-0.504811,-0.264848
-0.174950,0.553284,0.606111,0.133766,0.853707,0.503280
-0.314045,0.303115,0.454430,-0.211506,-0.968910,0.128367
-0.250100,-0.164680,0.419751,-0.570483,0.820991,0.022840
0.031533,-0.408938,0.688010,0.247273,0.239076,0.938988
-0.339365,0.284742,0.099015,-0.221057,0.046598,-0.974147
0.548550,-0.033008,-0.965604,-0.122967,-0.241680,0.962533
-0.191222,0.673420,0.508393,0.043855,-0.666301,0.744392
0.179339,0.485277,-0.983356,0.032052,-0.026753,0.999128
-0.028832,-0.289371,0.662384,0.329465,-0.873291,0.358908
-0.250370,0.668578,0.527371,0.365039,-0.281286,0.887482
0.002431,-0.009222,-0.993045,-0.048360,0.128255,0.990561
0.710264,0.349189,-0.961903,-0.098096,-0.024335,0.994879
-0.259080,0.232330,0.491537,-0.298186,-0.818938,0.490332
0.206213,0.619226,-0.981305,-0.029280,0.006710,0.999549
0.025525,0.386719,-0.984959,-0.073724,-0.134710,0.988139
0.122013,0.348122,0.212127,-0.394819,0.719401,0.571471
-0.488318,0.195798,0.458343,-0.576498,0.117802,-0.808562
0.641998,0.328324,-0.962280,-0.073258,0.036964,-0.996628
-0.075894,-0.401318,0.651610,0.424104,-0.491253,-0.760793
0.420527,0.080576,-0.972488,-0.145920,-0.108294,0.983351
-0.084537,0.642799,0.700010,0.228997,-0.882986,0.409750
-0.179811,0.350900,0.571267,0.087747,0.827098,-0.555166
0.126402,-0.095888,0.611415,-0.491764,0.846965,-0.202037
0.062053,-0.847535,0.675374,-0.270944,0.920669,0.280993
0.243619,0.121311,0.386958,-0.301784,0.936264,0.179825
0.061311,0.117393,-0.985336,0.301579,-0.019642,-0.953239
-0.187237,-0.243583,0.193361,-0.620580,-0.782727,0.047091
0.536934,0.177639,-0.965722,0.228240,0.007174,0.973578
0.151251,0.290938,0.578670,0.886527,0.364268,0.285269
0.172586,-0.637244,0.596704,0.836157,0.511183,-0.198830
-0.075354,-0.652198,0.816069,0.855130,-0.206389,-0.475560
0.074883,0.252270,0.476472,-0.697765,-0.685865,-0.206671
0.286227,0.500303,-0.974162,-0.190354,0.026560,0.981356
0.560096,-0.344062,-0.968433,-0.119270,0.092548,0.988539
-0.065698,-0.916896,0.690485,0.090121,0.884986,0.456812
-0.611141,0.023748,0.482413,0.137636,-0.935155,0.326408
-0.426535,0.554994,0.117898,0.801120,0.124319,-0.585450
-0.010262,0.776179,0.195648,0.717672,-0.622606,-0.311943
-0.085820,0.655617,0.096775,-0.853143,0.011583,0.521549
-0.092843,-0.058359,-0.994177,-0.169818,0.124650,0.977560
-0.411748,-0.006658,0.218469,0.642877,0.742506,-0.188133
0.094126,-0.867831,0.703121,0.454021,0.844374,0.284423
-0.228628,0.299127,0.069570,0.096154,-0.299767,0.949154
0.033627,0.362720,0.510326,0.208431,0.755477,-0.621137
-0.025793,0.132064,-0.990806,-0.180816,-0.086229,0.979730
0.337746,-0.077800,-0.973030,-0.063601,-0.009786,0.997927
0.039838,-0.155422,0.944929,0.957715,-0.169191,-0.232714
