0.471811,-0.481286,0.654662,0.897010,0.065784,-0.437088
-0.316281,-0.336441,0.805164,0.599105,0.345528,0.722277
-0.438856,0.320857,0.810537,0.338741,0.328661,-0.881610
-0.174345,-0.644497,-0.511135,-0.502809,-0.864277,0.014466
-0.145495,-0.405803,0.282616,-0.626807,0.734387,-0.260361
-0.077411,0.030959,0.829562,0.912909,-0.215312,0.346752
-0.151712,-0.707319,-0.703253,0.245791,-0.946081,0.210989
0.598041,-0.433143,0.677960,-0.208004,0.804147,-0.556850
-0.269353,-0.629400,0.747775,0.226193,-0.972890,-0.048185
-0.431547,0.336858,0.528573,0.955552,0.268496,0.121777
0.295511,0.048699,0.434799,-0.123146,0.258498,0.958130
-0.465589,0.080910,0.814150,-0.272077,0.783843,0.558180
-0.256852,0.279394,0.901231,0.773255,0.606892,-0.183736
-0.238262,-0.483790,0.284863,0.909723,-0.415120,-0.008916
0.420650,-0.450884,0.642942,0.959263,-0.281500,0.023910
0.548930,-0.687352,0.826875,0.472052,-0.838059,0.273540
-0.236787,0.527202,0.557998,0.033035,-0.534674,0.844413
0.423533,0.504105,0.563009,-0.553203,-0.794113,-0.251698
-0.319677,-0.092319,0.673357,0.988165,0.021027,0.151950
0.660353,-0.045430,0.813365,0.433414,-0.680654,-0.590646
-0.030675,0.887227,0.407181,-0.399777,0.848596,0.346502
0.411419,-0.444483,0.677048,0.969694,0.244310,-0.002444
0.077602,0.091833,0.817465,0.099642,0.877508,0.469096
-0.293073,-0.566927,0.336564,0.102740,-0.087945,0.990813
-0.116262,-0.468067,0.016582,0.911074,-0.404879,0.077569
-0.674072,-0.102547,0.921261,-0.680269,0.531422,0.504802
0.512904,0.292960,0.465607,0.941562,-0.320783,-0.102755
-0.862935,-0.430987,0.435789,-0.591557,-0.329310,-0.735945
-0.372247,-0.046890,0.973434,-0.271948,-0.669140,0.691590
-0.053115,-0.467650,0.181742,0.933500,-0.337472,-0.121205
0.513225,0.216085,0.470571,0.923798,-0.292822,-0.246684
-0.270441,-0.272297,0.770633,0.924411,0.341449,0.169933
-0.090233,-0.617017,0.525635,0.819855,0.289762,0.493838
0.205499,-0.171212,0.649226,-0.773313,-0.524124,0.356766
0.755362,-0.482399,0.864297,0.959147,0.270264,-0.083633
-0.114849,-0.461946,0.008114,0.776070,-0.445737,0.446133
0.184730,-0.211702,0.605693,-0.470628,0.879713,0.067929
-0.330641,-0.272645,0.827629,0.984552,-0.129561,0.117776
-0.212233,-0.357381,0.587297,-0.757725,0.517684,-0.397311
0.052087,-0.128218,0.825540,-0.666236,0.189870,-0.721165
0.094851,-0.001044,0.842035,0.067998,-0.997665,0.006424
-0.411740,0.241756,0.815925,0.857066,0.009864,-0.515113
0.647081,-0.071170,0.826561,-0.087035,0.344603,0.934705
-0.126967,-0.584528,-0.293833,0.875719,-0.437328,-0.204597
0.068564,-0.526993,0.056344,0.832746,0.449595,0.323107
-0.592848,0.323849,0.521487,-0.599981,0.592348,-0.537724
-0.063563,-0.567553,-0.097285,0.590317,0.779201,-0.210645
-0.567332,-0.345346,0.403898,-0.579857,-0.753147,-0.310701
-0.511683,0.203145,0.870533,-0.438898,-0.600412,-0.668486
0.329808,0.274245,0.803954,0.974770,0.153134,0.162400
0.005547,-0.425421,0.826592,0.465606,0.879749,-0.096195
0.076448,-0.395993,0.892245,0.515581,0.846911,-0.130074
-0.055357,-0.465146,0.211214,0.955077,0.255425,0.150284
0.515017,-0.129887,0.616313,0.457564,0.715540,-0.527862
-0.193127,-0.492347,0.275248,-0.847185,0.473958,-0.240088
0.469244,-0.770975,0.820811,0.085494,0.992102,0.091782
0.183638,-0.832406,0.931300,-0.339976,-0.558394,0.756712
-0.073181,0.506818,0.531448,0.817165,-0.252778,0.518020
0.013623,-0.912968,0.761757,-0.510371,-0.418598,0.751197
-0.093375,-0.574649,-0.227725,0.989204,-0.146532,-0.001788
-0.038434,0.602546,0.506940,-0.765735,0.133865,0.629070
-0.153638,-0.531028,0.673372,0.914698,0.382991,0.129015
0.761967,0.582441,0.706222,0.879884,0.474471,-0.026121
0.083053,0.105816,0.892590,-0.031382,-0.729050,0.683741
-0.225056,-0.594198,0.302536,-0.179544,0.851294,0.493014
-0.256660,0.203353,0.430432,0.721861,0.604637,-0.336645
0.316281,-0.021567,0.692491,0.800732,-0.094600,-0.591506
-0.796839,-0.308335,0.800011,0.304350,0.796916,0.521819
-0.408018,-0.333032,0.887830,-0.177530,0.652640,0.736576
0.335771,-0.474329,0.755913,-0.600291,-0.361821,-0.713258
-0.164664,-0.633644,0.926524,-0.276034,-0.823656,0.495374
-0.236274,-0.249409,0.699891,0.979495,-0.179040,-0.092383
0.165177,-0.618965,0.927624,0.055026,0.323575,0.944601
0.408340,-0.304091,0.478395,-0.127931,0.238653,0.962641
0.491876,0.211423,0.451311,0.409607,0.104636,-0.906241
-0.188513,-0.463824,0.295687,-0.747265,0.232436,-0.622550
-0.020803,0.633436,0.499446,-0.486495,0.307885,0.817637
-0.106644,-0.595033,-0.242131,0.434462,-0.798816,0.416095
-0.243708,0.651106,0.510915,-0.403304,0.843685,-0.354320
0.248326,0.005774,0.445451,0.318533,-0.547955,-0.773487
0.401801,-0.742104,0.819586,-0.116370,0.715739,0.688604
0.550918,0.461667,0.504678,0.286006,-0.821641,0.493059
0.445524,0.518297,0.556788,-0.515490,-0.851543,-0.095627
-0.695291,-0.391819,0.826074,0.041843,0.381450,0.923442
-0.056703,-0.819536,0.812642,0.443388,-0.817763,-0.366975
-0.843062,-0.209197,0.839176,-0.415643,0.862578,-0.288444
-0.315256,0.265062,0.893030,-0.197891,-0.975447,-0.096654
0.886785,-0.322736,0.694298,0.115989,-0.969110,0.217653
0.383978,-0.706693,0.783751,0.852858,-0.139659,-0.503119
-0.009072,-0.014610,0.874430,0.981091,0.127362,-0.145738
0.437127,-0.296438,0.858484,0.139951,-0.090253,0.986037
-0.545279,-0.298734,0.755222,0.818183,-0.088822,0.568055
-0.405776,0.198066,0.940742,-0.659241,0.114802,-0.743116
0.573166,-0.109016,0.814386,0.737875,0.085710,-0.669473
0.497964,0.244609,0.750446,0.863028,-0.504437,-0.026952
-0.389366,-0.321066,0.867768,0.905435,-0.005901,0.424444
-0.535340,0.037985,0.887610,0.748098,0.128438,0.651040
-0.339296,0.715250,0.055621,0.759410,-0.051291,-0.648588
-0.100426,-0.448797,-0.067781,0.856977,-0.515239,-0.010916
0.226273,-0.184778,0.457548,-0.588049,0.295910,0.752752
0.096901,-0.232364,0.443079,0.612411,-0.408608,-0.676751
0.238325,-0.440657,0.629855,0.241117,0.555371,0.795881
-0.388274,0.184291,0.909997,0.728309,-0.122802,0.674155
-0.116774,-0.726799,-0.869952,0.088190,-0.977269,0.192788
0.702343,-0.523097,0.825084,0.459292,0.885871,0.065445
-0.012597,-0.491791,0.084355,0.919810,0.177542,-0.349896
0.090425,0.025880,0.886573,0.435156,0.017102,0.900192
0.523543,-0.269306,0.597116,0.621279,0.229287,-0.749292
-0.105618,-0.627313,0.768418,-0.469877,-0.348767,0.810911
-0.888389,-0.137818,0.850063,0.786891,-0.028651,0.616426
0.585347,-0.530263,0.759259,0.650895,0.513356,-0.559287
-0.035421,-0.409142,0.176557,0.711403,0.645636,-0.277597
0.280701,0.148045,0.812029,0.871605,-0.345109,0.348146
0.120171,-0.435161,0.800985,-0.232708,0.433956,-0.870361
-0.562586,0.181230,0.553520,0.120678,-0.586730,0.800740
0.097543,-0.400098,0.614868,-0.157676,0.915629,0.369814
-0.048882,-0.186657,-0.996120,-0.043453,0.001540,0.999054
-0.041447,-0.174065,0.377395,-0.004550,-0.610155,0.792269
-0.354490,0.422847,0.459763,0.353846,-0.209648,0.911505
0.431101,0.622026,0.517953,0.123400,-0.991319,-0.045382
-0.966791,-0.393488,0.440926,0.807279,0.250869,-0.534195
-0.195243,-0.421734,-0.991532,-0.161381,-0.060140,0.985058
0.146520,-0.219981,0.869779,-0.635470,-0.738542,0.225241
-0.225439,-0.307082,0.801001,0.252707,-0.958700,-0.130514
-0.150237,-0.946988,0.745921,0.527823,-0.577087,-0.623196
-0.101518,-0.647628,-0.474404,-0.642282,-0.753082,-0.142622
-0.170432,-0.437735,-0.992192,-0.199950,0.040733,0.978959
-0.271854,0.255531,0.543057,0.871837,-0.033003,-0.488683
-0.157934,-0.579310,0.971423,0.597616,0.516757,-0.613039
0.746836,-0.051064,0.812171,-0.409637,-0.685492,-0.601912
-0.159022,-0.590372,-0.517089,0.789631,0.613543,0.006948
-0.154084,-0.299569,0.981666,-0.924251,0.361700,0.122200
-0.355195,0.287950,0.916250,0.611935,-0.444483,0.654194
0.108440,-0.166342,0.908363,-0.298704,0.871282,0.389414
-0.118120,-0.554682,0.518377,0.776638,0.369089,0.510496
-0.555085,0.101920,0.507348,-0.159870,0.731859,0.662438
-0.631312,-0.048977,0.907405,0.752631,-0.403713,0.520155
-0.198706,0.092389,0.856630,-0.151848,-0.218420,0.963968
-0.224606,-0.609156,0.726017,-0.201092,0.964434,0.171549
0.542391,-0.257201,0.867784,-0.301550,-0.731793,-0.611184
-0.448857,0.193683,0.774843,0.326931,-0.765538,0.554138
-0.104272,-0.693127,-0.355244,0.374764,0.924384,0.071176
-0.206078,-0.002296,0.979278,0.003615,-0.999340,0.036142
0.019520,-0.632670,0.956310,0.808235,0.588647,0.015849
0.381161,0.133436,0.441209,-0.754525,0.347972,0.556424
0.500786,0.085571,0.577305,-0.166557,-0.632649,0.756316
-0.071256,0.483790,0.735018,-0.171879,-0.059216,0.983337
0.649069,-0.267914,0.672555,0.785424,0.618958,0.000239
0.002338,-0.472868,0.042739,-0.177279,0.978713,0.103404
-0.064975,-0.562474,0.054145,0.904824,0.397055,-0.153754
0.039139,0.712398,0.504191,-0.264343,-0.039132,0.963634
0.513992,-0.047586,0.834369,0.059900,0.067738,0.995903
-0.098951,-0.597885,-0.988500,0.248867,0.413199,0.875975
0.076194,-0.431682,0.890831,0.777605,0.550030,-0.304626
-0.240504,0.124600,0.908976,0.669873,0.198012,0.715585
-0.049907,-0.368791,0.377395,-0.604905,0.763763,0.225291
0.277880,-0.576597,0.767900,0.370865,-0.923485,-0.098159
0.381415,-0.142688,0.812186,0.379141,0.019511,-0.925133
-0.902170,-0.433422,0.448216,0.524494,0.348563,0.776794
0.813958,-0.797134,0.802807,0.293060,0.502876,0.813162
-0.150879,-0.589050,0.733589,0.982852,0.104842,-0.151690
0.102864,-0.752331,0.934018,0.927258,0.352726,-0.125603
0.150046,0.188535,0.795596,0.737906,0.258087,-0.623607
-0.103631,-0.506748,0.960238,-0.521059,-0.660838,0.540176
-0.510083,0.056560,0.522744,0.506802,0.694653,-0.510498
-0.086387,-0.759705,0.948251,0.794218,0.290146,0.533885
0.775940,-0.682761,0.622676,0.381374,0.623784,0.682237
0.297624,-0.182343,0.829546,0.457162,-0.166325,0.873693
-0.217938,-0.441840,0.271415,-0.757404,0.495092,-0.425703
-0.011122,-0.615834,0.859584,-0.548016,-0.054117,0.834716
-0.467001,-0.325658,0.727698,0.603548,0.688667,0.401830
0.154534,-0.505705,0.903195,-0.158266,-0.748445,0.644035
0.421612,-0.008487,0.730683,-0.619966,0.568389,0.540902
0.564253,-0.101781,0.801299,-0.551596,-0.149963,0.820520
-0.089529,-0.002435,0.928959,0.963387,0.055616,0.262284
-0.373272,0.079519,0.855970,0.044652,0.899233,0.435185
0.036509,-0.794699,0.901859,0.908239,-0.225096,0.352752
-0.698304,-0.495339,0.373593,-0.296748,0.640500,-0.708308
0.718049,-0.679769,0.733730,-0.746903,0.074515,0.660745
0.291857,-0.193474,0.467131,-0.547693,-0.096181,0.831132
-0.084016,-0.616669,-0.779179,0.514292,0.823895,0.238119
-0.451229,0.081606,0.889118,0.927970,-0.357306,-0.105853
-0.094659,-0.596842,-0.244833,-0.192721,0.943455,-0.269724
-0.018173,0.337206,0.504316,0.468789,-0.852069,0.232842
-0.470398,-0.303673,0.887862,0.623690,0.656030,0.425012
-0.473027,0.073257,0.906321,-0.179348,-0.968274,0.174013
0.699396,0.022471,0.766344,-0.122194,0.992441,0.011338
-0.116199,-0.631279,-0.395210,0.968290,0.071327,-0.239431
-0.076385,-0.611730,-0.460187,0.972506,-0.088808,0.215278
0.618681,-0.537290,0.704494,0.862980,0.070829,-0.500249
-0.079782,0.500627,0.514072,-0.693435,0.450193,-0.562561
0.370197,-0.754766,0.805635,-0.163773,0.932507,0.321883
-0.166010,-0.334214,0.972413,0.805996,0.234755,-0.543378
-0.475399,-0.112356,0.887469,-0.169944,-0.653418,0.737674
-0.151137,0.186865,0.929619,0.605419,0.687383,0.401214
0.033434,-0.829623,0.918025,0.961356,0.046409,0.271370
-0.572141,-0.442675,0.368299,0.023261,-0.428424,0.903279
-0.171778,0.227494,0.513632,0.072106,0.830598,0.552184
0.525085,-0.425352,0.770806,0.829388,0.558659,0.003963
0.395775,-0.714624,0.805714,-0.273422,0.797619,0.537628
0.044781,-0.253166,-0.997455,0.112803,0.083839,0.990074
0.732092,-0.602616,0.851901,-0.342716,0.323812,0.881868
0.156459,-0.719563,0.948282,-0.479753,0.877231,-0.017410
0.182550,-0.088354,0.841376,0.744884,0.437208,0.503981
-0.358849,0.113121,0.525792,0.040930,0.403265,0.914168
0.723245,-0.543968,0.842884,-0.026149,0.964654,0.262219
0.078244,-0.453806,0.904341,0.713699,0.699012,0.044899
-0.425458,0.477738,0.810568,0.555578,0.816596,-0.156536
-0.206653,0.230208,0.478410,0.339272,-0.854430,0.393503
-0.053115,-0.719424,-0.892088,0.969113,0.246044,0.016783
-0.102414,-0.664742,-0.536962,0.081300,-0.994160,-0.070973
0.448408,-0.459441,0.715899,-0.671598,0.680393,0.293293
-0.055807,0.071588,0.783500,0.291185,-0.484942,0.824647
-0.506878,0.114512,0.813883,0.213252,0.964636,0.154920
-0.171715,-0.664951,-0.605992,-0.340516,-0.907176,0.247146
-0.105427,-0.614443,-0.398713,0.981045,0.046067,-0.188225
0.534570,0.238347,0.833788,0.213407,0.598854,-0.771901
0.357633,-0.748018,0.791936,0.714038,-0.642259,-0.278662
-0.104464,-0.408794,0.372022,-0.384187,0.905870,0.178324
0.739206,-0.451649,0.621623,-0.703937,-0.221928,0.674701
-0.033880,-0.195074,0.591664,0.263786,0.016313,0.964443
-0.176974,0.895924,0.570000,0.774129,-0.356334,-0.523212
0.116966,-0.148393,0.862710,-0.662553,-0.083389,0.744359
-0.379298,-0.423473,0.875215,0.953962,0.073594,0.290759
0.456550,-0.387157,0.861155,-0.582824,-0.340925,0.737622
-0.368592,-0.253166,0.863637,0.794735,-0.576235,-0.190655
-0.215309,0.672186,0.519398,0.391426,-0.804642,0.446472
-0.188513,0.900445,0.557401,-0.049108,-0.529350,0.846981
-0.028687,-0.510714,0.014320,-0.402943,0.914201,0.043279
0.692920,-0.120774,0.823922,0.331498,0.060037,-0.941544
-0.062154,0.289342,0.732615,-0.238055,-0.376729,0.895212
-0.250184,0.279394,0.744932,-0.006174,0.116980,0.993115
-0.256210,-0.247043,0.941480,0.928798,0.307115,-0.207398
-0.732284,-0.402115,0.389821,0.607089,-0.602791,0.517770
-0.108185,0.166690,0.730070,-0.712420,0.562163,-0.420037
0.257877,-0.365452,0.814480,0.648923,-0.478891,0.591238
-0.086258,-0.240782,0.843952,0.294777,0.495663,0.816961
0.358591,0.266592,0.467099,0.528795,-0.843280,0.096201
0.114916,0.012732,0.895670,0.793169,-0.404373,0.455374
-0.172869,-0.638097,-0.511637,0.548405,0.827793,-0.118368
-0.170307,-0.498052,0.023589,0.741889,-0.667446,-0.064155
-0.066897,-0.531585,0.498488,0.958497,-0.246880,0.142594
-0.296536,-0.581258,0.743832,0.283114,-0.950916,-0.124922
-0.057216,-0.500070,0.085533,0.570079,0.766795,-0.295017
0.194027,-0.455684,0.559804,0.632120,0.285260,-0.720452
-0.210758,-0.279324,-0.992585,0.068062,0.097798,0.992876
0.056833,0.141018,0.924073,0.956333,-0.291424,0.022321
-0.074656,-0.002922,0.784615,0.925397,-0.287508,0.246942
0.115108,-0.278141,0.276976,-0.628333,0.306054,0.715212
-0.198319,0.777515,0.559129,0.879953,0.414440,-0.232210
-0.817100,-0.305760,0.832641,-0.099790,-0.552891,0.827257
0.684844,0.021915,0.799775,-0.637332,-0.177271,-0.749922
-0.406672,0.268888,0.942046,-0.874816,0.236976,0.422539
-0.091963,-0.132114,-0.996387,-0.288137,0.193320,-0.937872
0.233195,-0.122930,0.661778,-0.809714,-0.334759,0.481975
-0.653427,-0.345555,0.394817,-0.310054,-0.307494,0.899619
0.015352,-0.477250,0.867784,-0.623288,0.689845,0.368275
-0.133506,-0.470085,-0.000259,0.933021,-0.159009,0.322782
-0.882296,0.001461,0.409836,-0.443625,0.075469,-0.893029
0.905762,-0.107277,0.795691,-0.563045,-0.809575,0.166036
0.165752,-0.008697,0.439842,-0.332955,-0.919322,-0.209735
-0.881208,-0.236399,0.837338,-0.671550,0.706592,-0.223041
-0.091450,-0.518089,-0.097819,0.869305,-0.484833,0.096156
0.517004,-0.446292,0.785589,0.400221,0.914324,0.061928
-0.232619,-0.377279,-0.993260,0.262197,0.020838,0.964789
-0.508415,-0.461806,0.896738,-0.125401,0.382229,-0.915519
0.534890,-0.338598,0.828933,0.963217,-0.264481,0.047558
-0.765426,-0.274454,0.855672,0.427881,-0.451755,0.782838
-0.322757,0.396062,0.934992,0.746427,-0.524264,0.409872
0.405839,0.237443,0.815815,0.593766,0.799494,-0.090835
-0.042089,-0.475581,-0.990448,0.095648,0.252184,0.962941
-0.148829,-0.562613,0.522132,0.692789,0.440812,0.570726
0.097668,-0.497356,0.827001,-0.276148,0.890049,-0.362704
0.549701,-0.676847,0.815234,-0.634047,-0.746142,-0.203117
-0.185563,-0.100946,-0.996937,-0.033657,-0.000578,0.999433
0.005609,-0.479129,0.836018,-0.463850,-0.881531,0.088011
0.864602,-0.153681,0.790899,0.942730,-0.015647,0.333189
0.431422,0.677474,0.519885,0.543109,0.679963,-0.492629
-0.063821,-0.384444,0.489737,0.218424,0.870721,-0.440609
0.165560,-0.815779,0.940365,0.453727,0.625844,-0.634390
-0.137802,0.288855,0.549530,-0.136048,-0.651772,-0.746112
-0.311409,0.168568,0.532532,0.463336,0.524913,-0.713993
0.137290,-0.587520,0.923225,-0.560735,0.659749,-0.500306
0.764530,0.066161,0.771764,-0.726479,0.455701,0.514358
-0.932045,-0.445109,0.453918,0.567270,0.396888,0.721585
-0.593936,-0.424864,0.376594,-0.047273,-0.852295,0.520921
0.333525,-0.155629,0.776917,0.886469,-0.445630,0.124845
-0.144599,-0.408864,0.540544,-0.910901,-0.053951,-0.409083
0.049203,-0.057048,0.885034,0.282910,0.895319,0.344044
-0.237041,-0.224642,0.404463,0.343940,-0.188450,0.919887
0.600666,0.051482,0.795864,-0.131061,-0.965535,0.224868
-0.299358,0.065465,0.550614,0.251169,-0.564058,-0.786609
0.531686,0.494504,0.502965,0.941786,0.294567,0.162080
-0.320898,-0.029289,0.701085,0.094218,-0.806293,0.583965
0.173641,-0.027480,0.442890,0.871762,0.016735,0.489644
0.090042,-0.396828,0.521236,0.612899,0.657681,-0.437962
0.096322,-0.269167,0.444068,-0.481306,0.414209,0.772513
0.546496,-0.469668,0.678211,0.151302,-0.636907,0.755948
-0.117799,0.853207,0.564690,0.004805,-0.992609,0.121259
0.078244,-0.585850,0.881232,-0.397105,0.495646,0.772427
-0.151266,-0.510436,0.657505,0.747183,0.622487,0.232868
-0.666250,-0.455058,0.374080,-0.328068,0.552346,-0.766345
-0.010739,-0.258383,0.386240,-0.597630,0.124567,0.792036
0.354361,0.049255,0.440628,-0.723240,0.441984,0.530635
0.247363,-0.325588,0.818832,0.648314,-0.102368,0.754460
-0.143957,-0.124043,0.956797,0.834049,0.013424,0.551527
-0.158701,-0.443439,0.259946,0.428213,-0.518233,-0.740316
-0.189280,-0.576388,-0.986851,-0.141207,0.267303,0.953210
-0.889926,-0.118756,0.853881,-0.573768,0.655170,-0.491470
0.230373,-0.156115,0.632463,0.889900,-0.421596,-0.174169
0.338271,-0.358425,0.836553,0.362697,0.438568,-0.822258
-0.773439,-0.227285,0.943742,0.863771,0.449215,0.228264
0.087412,-0.476625,0.822681,0.057876,0.976787,0.206244
-0.175241,-0.302004,0.828682,0.949490,-0.087613,-0.301319
-0.128955,-0.425838,0.110387,0.908121,-0.380142,0.175525
0.306730,-0.425908,0.566575,-0.487414,0.585990,0.647336
-0.164152,-0.684709,-0.288225,-0.375976,0.866513,-0.328324
-0.051769,-0.470711,0.089587,0.260593,0.912080,-0.316547
-0.114916,-0.547238,-0.395744,0.861269,-0.351481,-0.366984
-0.261277,0.269584,0.900131,-0.590349,-0.668468,0.452371
0.195756,-0.740991,0.954378,0.915519,-0.179120,-0.360196
-0.612592,0.078058,0.518471,0.353814,0.935211,0.014017
0.936020,-0.337554,0.677205,0.076996,-0.944834,0.318372
-0.430971,0.443927,0.544298,0.188712,0.607512,-0.771568
-0.101451,-0.179073,0.751058,-0.771406,0.593177,0.230377
-0.092733,-0.435230,0.095085,-0.744018,-0.604300,0.285060
0.844154,-0.645611,0.624325,0.967034,-0.165053,0.193915
0.030934,0.148254,0.930059,-0.564814,-0.268517,-0.780310
0.583805,0.356756,0.753855,0.549719,-0.517778,-0.655526
0.312372,0.072701,0.433448,-0.211995,0.007534,0.977242
-0.141136,-0.228538,-0.995617,0.034379,0.065614,0.997253
-0.599386,0.167386,0.527661,0.000557,0.912486,0.409107
-0.103631,-0.317031,0.342299,0.998733,0.039494,-0.031177
-0.095363,-0.824684,0.750304,0.804707,0.117824,-0.581862
0.366350,0.224085,0.719560,0.654158,0.506134,-0.562055
0.164152,-0.422221,0.556050,0.386542,0.724388,-0.570831
-0.858255,-0.377139,0.848508,-0.467499,0.379417,0.798428
-0.076065,-0.572840,-0.490413,0.754314,0.650499,-0.088670
-0.170307,-0.582232,-0.987400,-0.066360,0.254403,0.964819
0.030354,-0.432169,0.840590,0.474032,0.857850,-0.198459
-0.559448,-0.388131,0.404290,0.454153,-0.862938,0.221549
-0.099272,0.708850,0.548870,0.881809,0.410611,0.231974
-0.573679,-0.444623,0.370687,0.172541,0.984311,0.036905
-0.083949,-0.518714,-0.176573,0.940970,-0.304394,-0.148054
0.725425,-0.503548,0.620963,0.936900,-0.046588,-0.346479
-0.069526,-0.574162,-0.110607,0.676145,0.695447,0.243270
0.221785,-0.191109,0.628096,0.970362,-0.147852,-0.191149
-0.144340,0.804161,0.589151,0.352090,0.310647,-0.882911
0.102031,0.306178,0.774639,0.345632,0.136851,0.928337
0.241850,0.037498,0.787364,0.892414,-0.390737,0.225656
-0.494505,0.262766,0.827284,-0.207317,0.913022,0.351299
-0.612847,-0.298316,0.831195,-0.561412,0.685161,-0.464080
0.508349,0.014888,0.822696,0.561993,-0.023925,0.826796
0.454884,-0.403020,0.858924,-0.381927,-0.331997,0.862502
-0.098822,-0.338945,1.000000,0.120054,0.144045,0.982262
0.611951,-0.766662,0.672791,0.660737,0.617849,0.426250
0.658366,-0.514610,0.620021,-0.644803,-0.403027,-0.649460
0.070101,-0.249061,0.573456,-0.434788,-0.445215,0.782779
0.357054,0.159942,0.706678,-0.502030,0.247046,-0.828815
0.806778,-0.685266,0.627185,-0.101312,0.756564,0.646023
0.008689,0.360095,0.505290,0.791862,-0.541201,0.282941
0.157418,0.410255,0.772298,-0.424113,0.249757,0.870488
-0.526431,0.121817,0.513601,0.992951,0.117248,0.017340
-0.169152,0.236886,0.487852,-0.708404,-0.312239,0.632985
0.714974,-0.572909,0.706175,-0.429096,0.718528,0.547352
0.072923,-0.292890,0.273944,0.386095,0.063780,-0.920251
-0.092475,-0.562822,0.935526,-0.217549,0.953008,-0.210825
-0.109081,0.043203,0.755284,-0.167390,0.517856,0.838931
0.383019,-0.718103,0.794371,0.962025,-0.227191,-0.151302
-0.026124,-0.365869,0.125751,0.788313,-0.498790,-0.360237
0.239095,-0.448588,0.558767,0.232995,-0.885495,-0.402011
0.753504,-0.452762,0.639061,0.962741,-0.245673,-0.113023
-0.058754,-0.376096,0.439450,0.959372,-0.256721,0.117049
-0.633233,-0.382636,0.411816,0.011361,-0.157207,0.987500
0.553034,0.264158,0.842915,-0.379428,-0.923728,0.052554
-0.271470,-0.704745,0.359532,-0.833844,0.540209,0.113483
0.510787,-0.324823,0.586229,-0.655477,-0.007277,0.755180
-0.406227,-0.151454,0.915276,0.953489,-0.282580,-0.104913
-0.535148,0.242382,0.858562,0.619876,0.732238,0.282102
-0.181908,0.059691,0.530144,0.327604,0.784410,0.526666
-0.095488,0.960275,0.604766,-0.168379,-0.847507,0.503370
0.308076,-0.733268,0.770555,-0.361283,0.634478,-0.683309
-0.091129,-0.431195,0.156904,0.825060,-0.542772,-0.157079
-0.097734,0.981773,0.618371,0.284619,0.877942,-0.384981
-0.092158,-0.748713,0.555625,-0.811183,0.493479,0.313784
0.174599,-0.837206,0.933295,-0.339976,-0.558394,0.756712
0.249672,-0.459093,0.582442,-0.744133,0.510689,0.430654
0.859794,-0.415890,0.648016,-0.206028,-0.748704,0.630075
-0.429496,0.259218,0.506076,0.537140,-0.711793,-0.452583
-0.123442,-0.233616,0.354160,0.669109,0.406760,-0.621964
-0.163639,-0.148184,-0.993826,-0.172278,-0.071692,0.982436
-0.310638,-0.121956,0.799461,0.674532,0.670013,-0.309981
0.209475,-0.719215,0.980645,0.979289,0.179628,-0.093412
-0.263261,-0.000974,0.518424,0.065332,0.304654,-0.950220
-0.074464,-0.405246,0.029841,0.352986,-0.932732,-0.073569
-0.185050,-0.046264,0.966632,0.607247,-0.158564,0.778530
-0.077348,0.613052,0.552892,0.827760,-0.206084,0.521864
0.279288,0.038681,0.803043,0.056712,-0.270401,0.961076
0.101131,0.052456,0.459276,0.855508,0.447771,0.260014
-0.535148,0.236538,0.785259,0.686461,-0.121595,0.716928
-0.045743,-0.675316,-0.949351,0.078482,-0.841356,0.534754
0.043819,-0.390706,0.267974,-0.529707,0.208066,0.822264
0.370518,-0.606234,0.799194,-0.115829,-0.525812,0.842677
0.473219,-0.341380,0.862506,-0.535810,0.236332,0.810589
-0.032534,-0.543273,0.067577,0.907383,-0.130817,-0.399429
0.430588,-0.023793,0.809170,-0.519999,-0.313390,-0.794599
-0.541495,0.389940,0.563905,-0.634086,-0.773240,0.005945
-0.671251,0.105955,0.505919,0.743835,0.666910,0.044051
0.653557,-0.780020,0.712914,-0.860870,-0.119072,0.494696
0.595090,-0.183039,0.795518,0.196623,0.913433,0.356341
0.142995,0.401141,0.771104,0.376784,-0.281462,-0.882504
0.402251,0.320092,0.733165,0.897737,0.177646,-0.403125
-0.218259,0.334354,0.909369,-0.135434,-0.966529,0.217898
-0.114724,0.157506,0.931394,0.604424,0.148685,0.782665
-0.555472,-0.542925,0.387653,0.358216,0.187100,0.914699
-0.176074,-0.130861,0.887814,-0.071022,-0.892003,0.446416
-0.016252,-0.556352,-0.253867,-0.728630,0.679858,-0.083018
0.686828,-0.076319,0.808400,0.022427,0.584584,0.811023
0.593361,0.117295,0.812281,0.921177,-0.047067,0.386286
0.079144,-0.465285,0.882897,0.958149,0.222160,0.180541
0.644518,-0.619104,0.819240,-0.615851,0.496439,0.611780
-0.251980,-0.917560,0.513334,0.377166,0.783778,-0.493394
-0.477195,-0.462015,0.345708,0.814838,0.456520,0.357250
0.396159,-0.634479,0.758332,0.882801,0.227638,0.410907
-0.548163,-0.113052,0.888160,-0.233394,-0.490012,0.839890
0.400134,-0.392445,0.868114,0.936200,-0.238252,-0.258389
-0.461488,-0.208154,0.906761,-0.153855,-0.689394,0.707859
-0.101451,-0.441770,-0.991218,0.075934,-0.079701,0.993922
-0.628749,0.190553,0.510490,0.207735,-0.415175,0.885706
-0.164793,-0.501670,0.265728,-0.708607,0.313408,-0.632180
-0.106902,-0.783220,0.744837,0.845760,0.101821,-0.523758
0.218964,-0.136914,0.296017,-0.281347,-0.370772,0.885083
-0.020419,-0.221233,0.386994,0.051734,0.159143,0.985899
0.797226,-0.355712,0.679405,-0.116962,-0.287503,0.950611
-0.403726,0.194031,0.800718,0.925853,-0.310241,-0.215746
-0.210375,-0.463615,-0.991532,0.123844,-0.032575,0.991767
-0.079782,-0.226590,0.115273,-0.409408,-0.004188,0.912342
-0.316731,-0.144010,0.946869,0.136861,0.790590,-0.596855
-0.489630,0.455475,0.537072,-0.662964,0.318446,-0.677548
0.234799,-0.053152,0.622330,-0.569797,0.392430,-0.722032
-0.168831,-0.335258,0.588946,-0.482286,-0.868489,-0.114577
0.504119,0.014818,0.483281,0.411616,-0.106086,-0.905162
-0.254543,-0.217128,0.410622,0.261833,-0.053295,0.963641
0.363529,0.662307,0.538549,-0.309670,0.241697,0.919612
-0.419816,-0.414777,0.848854,0.857375,0.503952,0.104596
-0.465335,0.189857,0.796178,0.453020,0.869488,0.196882
-0.661186,-0.251844,0.917491,-0.635146,0.209824,0.743346
-0.337692,0.249965,0.781834,0.883230,-0.041413,0.467108
-0.324486,0.620913,0.563056,-0.393977,-0.436692,0.808753
-0.459434,0.034020,0.898670,-0.346690,0.469365,0.812098
-0.073693,-0.365243,0.332118,0.995612,0.074773,-0.056262
0.275188,-0.021567,0.312826,0.763613,0.125238,-0.633412
-0.175820,-0.396897,0.552106,0.863226,0.504808,0.003019
-0.046894,0.887088,0.553787,-0.672025,0.204915,-0.711612
0.595090,-0.236190,0.505715,0.301542,0.524338,-0.796331
0.795814,-0.082858,0.790161,0.872176,0.481681,0.085399
0.687470,-0.433769,0.613376,0.467139,0.399318,-0.788877
-0.783570,-0.198762,0.871916,-0.641919,0.759883,-0.102550
-0.093696,-0.531655,-0.308129,-0.422392,0.900779,-0.100905
-0.187422,0.431821,0.732238,0.893046,-0.226514,-0.388794
-0.080423,-0.542438,-0.183800,0.981886,-0.104178,0.158262
-0.074527,-0.403437,0.283150,0.286772,0.948210,0.136601
-0.069397,-0.122513,0.772691,0.956192,-0.125845,-0.264309
0.192231,0.087658,0.825650,0.601639,-0.539061,0.589444
-0.413727,0.112912,0.944308,-0.001442,-0.132083,0.991238
-0.821588,-0.496731,0.385831,-0.509101,0.766156,-0.392201
0.121775,-0.465842,0.541895,-0.588134,-0.666807,0.457675
0.730680,-0.771602,0.738553,0.830661,0.342957,-0.438616
0.419879,-0.228259,0.475363,-0.160333,-0.083285,0.983543
-0.101068,-0.391053,-0.980394,0.422741,0.118901,0.898417
-0.604195,-0.253583,0.811841,0.400353,0.915353,0.042960
-0.192039,-0.279184,0.955006,-0.322172,-0.934599,-0.150762
0.759659,-0.464798,0.630295,-0.592016,0.543605,0.594988
0.700484,-0.127731,0.827818,0.458336,-0.065973,-0.886327
0.494310,-0.242312,0.477279,-0.374742,0.004389,0.927119
-0.053820,-0.515445,0.946633,-0.358642,0.787153,-0.501764
0.058433,-0.720676,0.917177,-0.362175,0.931715,-0.027131
0.814470,-0.055656,0.791182,0.723626,0.664392,-0.186946
0.351478,0.348615,0.825995,0.628000,0.027784,0.777717
-0.204220,-0.032489,-0.996135,-0.092525,-0.172644,0.980629
-0.903324,-0.326423,0.811794,0.602427,0.532778,0.594332
-0.305317,-0.050577,0.684071,0.072897,-0.876809,0.475281
-0.629836,-0.347294,0.410103,0.001685,0.006325,0.999979
-0.057087,0.340546,0.551148,0.106081,0.456328,0.883466
-0.044714,-0.754974,0.846041,0.981273,-0.162263,-0.103796
0.013239,-0.147002,0.906132,-0.181419,0.804402,0.565708
0.058821,-0.104077,0.891208,0.208014,0.641236,0.738612
-0.224476,-0.358077,-0.990841,0.006254,0.007285,0.999954
0.189985,-0.360303,0.613124,-0.259587,0.644018,-0.719622
-0.156009,-0.046890,-0.993245,-0.173480,-0.116071,0.977974
-0.130559,0.274941,0.494419,0.670449,0.226250,-0.706618
0.497835,0.340685,0.761930,-0.274544,0.712894,0.645297
-0.122800,-0.172395,0.388533,0.315423,-0.258566,0.913045
0.636567,0.206971,0.820497,-0.752112,0.124419,-0.647184
-0.212362,0.257270,0.485669,-0.773399,-0.352842,0.526646
0.294482,-0.703562,0.791308,0.866819,0.053422,-0.495753
0.862810,-0.660637,0.608757,-0.708422,-0.262715,0.655072
-0.590027,-0.153959,0.903383,-0.616189,-0.289176,0.732590
0.114724,-0.307361,0.275719,-0.617610,0.352469,0.703082
-0.309421,0.342146,0.727933,0.140565,0.299359,0.943730
-0.099914,-0.560804,-0.020022,0.015282,-0.993136,0.115967
0.099656,-0.398706,0.641355,0.613933,0.585452,0.529464
0.037022,-0.494365,-0.082219,0.128929,0.991654,-0.000217
-0.143186,-0.673925,-0.291885,0.187594,-0.930371,0.314988
-0.243133,-0.410185,0.907798,0.027956,-0.878500,0.476924
-0.473477,-0.347641,0.739072,-0.521356,-0.787948,-0.327608
-0.208770,-0.575275,0.935353,-0.460173,-0.257979,0.849522
0.024074,0.154724,0.893596,0.464077,0.885615,-0.017853
0.510083,0.209614,0.452002,-0.678977,0.231682,0.696645
-0.424879,0.020036,0.735286,0.919424,-0.385731,0.076625
-0.226273,-0.519688,0.286198,-0.609554,0.656364,0.444557
-0.084399,-0.819605,0.791575,0.768342,0.631236,0.105788
-0.722024,-0.165438,0.896094,0.796210,-0.596178,-0.103059
-0.383465,0.711702,0.590926,-0.009282,-0.358928,0.933319
-0.308396,0.156046,0.899267,0.431505,-0.191708,0.881505
-0.655290,-0.279811,0.901577,0.826111,0.006821,0.563466
0.252685,-0.122513,0.296158,-0.618820,0.043669,0.784318
-0.420008,-0.026437,0.703520,-0.170180,-0.877681,0.448013
0.082282,0.278906,0.796885,0.524319,0.794618,-0.306060
-0.180946,0.311883,0.912793,0.226780,0.450394,-0.863549
-0.294290,-0.302073,0.748136,-0.884217,0.354703,-0.303885
-0.093888,-0.420203,-0.982640,0.397673,0.147880,0.905532
-0.253647,-0.394741,0.932620,-0.399462,-0.833289,0.382176
0.005993,0.245165,0.546341,0.680692,0.060899,0.730034
-0.242812,-0.255461,0.669508,0.857805,0.506848,0.085297
-0.458284,0.193336,0.873063,0.753536,0.651729,0.086215
0.011827,-0.739460,0.916140,-0.558278,-0.623871,-0.546910
-0.457321,0.154028,0.921748,0.247692,-0.483966,0.839301
-0.116003,0.434048,0.510239,-0.670896,0.702836,-0.236476
-0.235249,-0.000696,0.824770,0.127149,-0.829794,0.543392
-0.796263,-0.276541,0.393906,0.281679,-0.200919,0.938237
0.388916,-0.028593,0.737626,0.647354,-0.726526,-0.230421
-0.013302,-0.592667,0.931897,-0.730675,0.614156,-0.298206
-0.245696,0.260610,0.713983,-0.656907,0.447808,-0.606581
-0.129210,-0.601016,0.944182,-0.496572,0.786563,-0.367063
-0.251914,-0.340893,0.622487,-0.293458,-0.894073,0.338402
-0.086128,-0.090232,0.940553,0.936279,0.069397,-0.344334
0.186526,-0.433700,0.590062,0.625020,0.747426,0.225176
-0.033755,-0.243982,0.391864,0.781532,-0.071476,0.619758
-0.191076,0.361904,0.503154,0.552687,0.519927,-0.651316
0.171524,-0.375609,0.611365,0.791277,-0.195164,0.579475
-0.020803,0.414916,0.516900,0.078693,0.334497,0.939105
-0.810624,-0.244052,0.860919,0.717185,0.492529,-0.493013
0.180946,0.284681,0.810270,-0.623456,0.462365,0.630493
0.788058,-0.432587,0.648001,-0.485918,0.831345,-0.269719
0.275571,-0.018158,0.443408,-0.148388,0.497138,0.854889
-0.140557,-0.377418,0.574462,-0.289170,0.927405,-0.237278
0.310384,-0.275567,0.837071,0.664172,0.020580,0.747297
-0.714652,-0.186657,0.797372,0.375006,-0.847693,0.375217
-0.792801,-0.364825,0.837809,-0.690558,0.599173,-0.405119
-0.542587,0.277446,0.860825,0.861604,-0.256868,0.437786
-0.609259,-0.223251,0.400174,0.387609,0.152337,0.909149
0.559573,0.569570,0.552546,0.799942,0.540579,-0.260512
0.131518,0.207528,0.847455,0.914224,-0.288248,0.284793
0.745940,0.075553,0.776462,0.829943,-0.557290,-0.024942
0.034138,-0.126200,0.403835,-0.302671,-0.418926,0.856091
-0.667983,-0.330458,0.923932,0.883208,-0.032289,-0.467869
-0.175049,-0.372478,0.572796,0.435950,-0.831463,0.344408
0.447574,-0.384653,0.858437,-0.482301,-0.297834,0.823821
-0.263457,-0.143036,0.945250,0.884592,-0.448028,-0.129489
0.775173,-0.628774,0.873330,0.728502,0.102958,-0.677263
-0.109723,-0.400793,0.093813,0.756112,-0.565508,0.329385
-0.056128,0.861556,0.557024,0.757708,-0.323243,0.566914
-0.133122,-0.026854,0.534841,0.336173,0.366963,-0.867367
-0.004842,-0.400376,0.559490,-0.766964,0.639908,0.047787
-0.253710,-0.258314,0.733228,0.601112,-0.783147,0.159204
-0.301791,0.224433,0.754232,0.894138,-0.332005,0.300484
0.562586,0.138444,0.813773,0.791486,0.266542,0.550005
-0.550792,-0.245165,0.868287,0.691343,0.408067,0.596260
0.576371,0.503409,0.502855,0.219110,0.627546,-0.747112
-0.668175,-0.067413,0.917098,-0.726271,-0.316649,-0.610134
-0.413407,0.244191,0.920004,0.786621,-0.531380,-0.314426
-0.066255,0.666133,0.557495,0.752763,-0.039007,0.657135
-0.069976,-0.843189,0.915826,0.728996,0.684460,0.008921
0.004584,0.285168,0.544738,0.701847,0.153385,0.695617
0.101643,-0.528384,0.861752,-0.470859,0.352579,0.808691
-0.542712,-0.092111,0.900414,0.467582,0.149206,0.871266
-0.845754,-0.497287,0.812123,0.019845,0.347069,0.937630
0.544829,0.086336,0.799980,0.912425,0.037767,-0.407498
-0.562906,0.119174,0.544141,-0.226977,0.970103,0.085917
0.339038,-0.397941,0.829137,0.698946,0.605294,-0.380911
-0.062796,0.077292,0.900744,0.299191,0.785280,-0.542051
-0.061771,-0.701614,-0.960426,0.901589,0.271142,-0.337074
-0.090617,-0.534855,0.965296,0.101731,-0.930153,0.352797
0.795493,-0.513844,0.720361,0.038180,0.195700,0.979920
-0.471873,-0.200571,0.916423,0.160688,0.499027,-0.851558
-0.062088,-0.301517,0.364293,0.792027,0.096122,-0.602871
0.525468,-0.394880,0.597053,-0.546797,0.239460,0.802292
0.141390,0.113121,0.836631,-0.688886,0.714498,-0.122181
-0.129210,-0.453040,0.265414,0.652385,-0.550140,0.521287
-0.251401,-0.292473,0.677693,0.952020,0.304872,0.026651
-0.068309,-0.546473,0.501159,0.961000,0.071321,0.267193
0.166715,-0.335398,0.296048,-0.756836,0.384507,0.528540
-0.193706,-0.540142,0.020321,0.657016,-0.690072,0.303531
-0.114724,-0.181995,0.390324,0.315423,-0.258566,0.913045
-0.172549,-0.056213,-0.994077,-0.122728,-0.195268,0.973041
0.784916,-0.101990,0.797812,0.944289,0.304042,0.126003
0.265570,-0.137192,0.702483,-0.693041,0.720372,-0.027546
0.358720,0.174482,0.706206,-0.500820,0.204130,-0.841136
-0.107865,-0.658272,-0.639800,0.204208,0.943000,-0.262774
-0.235249,0.009044,0.854871,-0.541626,0.828445,0.142551
0.185626,-0.021845,0.428939,0.018754,-0.990003,0.139795
-0.022407,-0.488312,-0.251573,0.974259,0.177886,0.138479
-0.193127,0.528106,0.551085,0.207437,-0.346800,0.914713
-0.282301,0.113747,0.886825,-0.223662,0.973874,-0.039314
0.172291,0.137332,0.838626,-0.808973,0.277489,-0.518230
-0.458088,0.150132,0.947026,0.119890,0.037690,0.992071
-0.234928,-0.273132,0.667622,0.896077,0.396063,0.200449
0.732092,-0.658759,0.770570,0.717648,0.662988,-0.213138
-0.192743,-0.353207,0.861893,0.802340,-0.588311,0.100702
-0.181075,-0.186796,0.945345,0.834850,-0.376652,-0.401446
-0.959678,-0.385488,0.818879,0.152469,0.667509,0.728824
-0.060679,-0.465215,0.235187,0.782844,-0.496485,-0.375043
-0.113953,-0.714137,-0.737171,-0.707982,0.706228,0.001820
-0.266082,0.339363,0.913249,0.454648,-0.523401,0.720657
0.642659,0.234938,0.782620,0.948414,-0.035499,-0.315040
-0.421675,0.187074,0.513742,0.258684,0.667356,0.698369
0.001505,-0.540977,-0.081794,-0.570905,0.772110,0.279131
-0.366350,-0.406846,0.939815,-0.542198,0.399540,-0.739181
-0.033625,-0.365591,0.380772,0.613138,-0.765479,-0.195201
-0.280955,0.330388,0.885018,0.439187,-0.844257,-0.307156
0.502711,-0.172881,0.859049,0.627471,0.456740,0.630610
-0.023111,0.536107,0.512988,-0.290884,0.091706,0.952353
-0.181333,0.424378,0.728750,0.538403,-0.036222,-0.841908
-0.496618,0.110895,0.543450,-0.071497,0.833453,0.547946
-0.645097,-0.019062,0.899299,-0.631627,0.743225,-0.220598
0.131518,-0.730208,0.942517,0.821068,-0.521790,-0.231480
0.500594,0.028802,0.814229,0.358470,-0.508060,-0.783182
0.682535,-0.538403,0.835799,0.207415,0.917298,0.339917
-0.051703,-0.381105,0.438774,0.954296,-0.257323,0.152003
-0.635416,-0.078475,0.874021,-0.545011,0.579334,-0.606081
-0.402059,0.323431,0.564062,0.155916,-0.732139,0.663070
-0.311409,-0.141784,0.786029,0.991931,0.076706,-0.100940
0.109532,-0.057187,0.828839,0.294761,0.680985,-0.670354
-0.126005,0.055934,0.914710,0.852959,-0.292310,-0.432452
-0.229477,-0.143662,0.960552,0.133547,-0.988436,-0.071832
-0.224668,-0.078684,0.940333,0.533931,-0.635380,0.557863
0.470015,-0.405246,0.589700,-0.567851,0.385010,0.727539
0.801585,-0.115695,0.805195,0.059081,0.596466,0.800461
0.258006,-0.359190,0.818030,-0.657655,0.206143,-0.724565
0.294678,0.361834,0.805290,0.281613,0.733151,0.619019
0.143187,0.171838,0.794874,0.730542,0.195017,-0.654429
0.353528,0.076249,0.795754,0.593792,0.683858,0.423968
-0.497131,-0.306178,0.930075,0.153500,-0.742346,0.652197
0.056704,-0.470433,0.037005,0.874418,0.093596,-0.476059
-0.075423,0.991443,0.379783,-0.399777,0.848596,0.346502
-0.593165,0.298943,0.818250,0.918439,-0.393186,-0.043298
0.229348,-0.449353,0.567015,0.715354,-0.255563,-0.650350
-0.299358,0.355572,0.448561,0.543152,-0.327170,0.773270
-0.346668,-0.817379,0.510396,-0.462985,-0.844556,0.269017
0.503736,0.466746,0.752048,-0.120467,-0.779854,0.614261
0.753695,-0.527967,0.731829,0.358735,-0.103092,0.927729
-0.160114,-0.666968,-0.790491,0.740046,0.649634,-0.174089
-0.340259,0.142549,0.910484,0.979887,0.161696,0.116942
0.276021,-0.462989,0.588852,-0.397185,0.634424,0.663137
-0.690291,-0.224781,0.814260,0.271242,0.959643,0.074251
0.416420,-0.007723,0.727713,-0.673132,0.501774,0.543247
0.193064,-0.758731,0.960128,0.831160,0.546322,-0.103468
-0.111903,0.455267,0.737768,-0.116467,-0.044134,0.992214
-0.199923,-0.023027,0.967370,-0.167296,-0.984833,-0.046004
0.384428,-0.514054,0.809217,0.882193,0.463579,-0.082644
0.733822,-0.508488,0.615025,0.991921,0.089038,-0.090364
-0.028816,-0.530194,-0.091189,0.483525,0.295966,-0.823777
0.858897,-0.486921,0.633186,0.053967,-0.963340,0.262798
-0.242362,-0.371852,0.948707,0.924234,-0.066561,-0.375980
-0.137161,-1.000000,0.774089,-0.370982,0.840721,0.394412
-0.315256,0.124809,0.893203,-0.121573,0.863563,-0.489366
-0.207424,0.058369,0.868208,0.961577,-0.161685,-0.221874
-0.373593,0.088493,0.897178,-0.235447,0.608954,0.757456
-0.241016,-0.379644,0.943962,0.973883,0.202460,-0.102774
0.068564,-0.292403,0.557715,0.546478,0.477420,-0.688064
-0.543354,0.026228,0.894413,0.869413,0.146141,0.471980
-0.197423,-0.279880,-0.281265,-0.664500,0.627595,0.405665
-0.097605,-0.610964,-0.371771,0.976279,-0.165141,-0.140029
0.126584,0.402463,0.773021,-0.572228,0.438113,-0.693262
0.052603,-0.475720,0.880902,0.807147,0.070238,-0.586158
0.247109,0.275845,0.832955,0.448187,0.703837,-0.551128
-0.424304,-0.172951,0.919863,0.915538,-0.363197,0.172852
-0.212167,-0.416933,0.901074,-0.293756,-0.590063,0.752019
-0.672597,-0.070683,0.885112,-0.609898,0.732514,-0.302404
-0.253068,-0.786838,0.418005,0.940542,0.316803,0.122539
0.531173,-0.463058,0.759133,0.605651,0.712326,-0.354653
0.553418,0.322527,0.463030,0.987123,-0.156086,-0.035009
-0.072539,-0.555169,-0.201851,0.940544,0.339666,-0.002011
0.454242,0.761862,0.594005,-0.854487,0.295551,0.427201
0.876975,-0.659038,0.612951,0.595545,0.768939,-0.232504
0.478991,-0.089537,0.824110,0.351184,0.275856,-0.894747
0.482129,-0.414986,0.669131,0.123090,0.953571,-0.274867
0.804215,-0.630514,0.618937,0.282697,0.617935,0.733648
0.049203,-0.603590,0.835830,0.832719,-0.500188,0.237466
-0.187613,-0.498817,0.285695,0.851515,-0.519052,-0.074208
0.421162,0.154863,0.480547,-0.476738,0.208064,0.854067
-0.537070,0.160150,0.552405,0.281099,-0.669940,0.687141
0.381415,0.263323,0.847047,-0.182084,-0.857833,0.480592
-0.439756,0.302839,0.497263,0.351159,0.866666,0.354369
-0.165177,-0.633436,-0.804253,0.842193,0.525038,-0.122665
0.765105,-0.465493,0.870125,0.955520,0.290861,0.048798
-0.037409,-0.488660,-0.057428,-0.266551,-0.645337,-0.715885
0.215692,0.733338,0.513601,0.203687,0.703547,0.680832
-0.095488,-0.093085,0.759746,0.899076,0.067536,-0.432552
-0.282239,-0.009949,0.693418,0.098249,-0.809429,0.578941
0.518801,-0.312717,0.854541,-0.370177,0.698298,-0.612658
-0.547329,-0.345903,0.390104,0.793380,-0.312365,0.522471
-0.086770,-0.646654,-0.756243,-0.210499,-0.975961,0.056481
0.835819,-0.094755,0.802006,0.917379,-0.284859,-0.277977
0.492901,0.113538,0.803734,-0.140716,-0.376696,0.915587
-0.059075,-0.469807,0.154312,0.854258,-0.006826,-0.519805
-0.598936,0.224364,0.887218,0.390412,0.914462,0.106482
0.471811,0.485321,0.761301,-0.036162,0.693993,-0.719073
-0.176395,-0.048560,-0.996292,-0.044240,-0.182198,0.982266
0.358912,-0.743773,0.799084,0.778696,-0.614636,-0.125921
0.016702,0.327606,0.524048,0.983477,0.171883,-0.056820
-0.014393,-0.455614,0.091865,0.996482,-0.050309,-0.067025
0.546750,0.129609,0.833316,0.796127,-0.207792,0.568334
0.240888,-0.016906,0.435428,-0.430869,0.523855,0.734798
-0.472002,-0.253096,0.804190,0.211719,0.813559,0.541569
-0.272175,0.250661,0.733102,0.100855,0.884292,0.455913
0.220118,0.270628,0.719356,-0.112227,-0.486665,0.866350
0.094400,-0.154655,0.906148,-0.298704,0.871282,0.389414
0.537970,-0.419716,0.788605,0.881606,-0.000932,-0.471986
-0.069205,-0.724572,0.924105,0.681106,0.054414,0.730160
-0.896657,-0.481703,0.441240,-0.089799,-0.780960,0.618092
0.492388,0.374565,0.732144,-0.313978,0.365646,0.876196
-0.227490,-0.053569,0.966365,-0.076388,-0.962826,0.259095
0.372118,-0.100946,0.472692,-0.091800,-0.070958,0.993246
0.107286,0.233964,0.879143,-0.556817,0.571318,-0.602952
0.370389,-0.411298,0.827346,0.945119,0.307763,0.109688
0.571241,0.119035,0.830441,0.987981,-0.134355,0.076434
-0.100618,-0.470363,0.061607,0.873943,0.485956,0.008343
0.172807,-0.306456,0.842884,0.816826,-0.268585,0.510547
-0.001700,-0.834006,0.840182,-0.600493,-0.071560,-0.796422
-0.083949,-0.147976,0.748781,0.491533,0.520087,-0.698501
0.275250,-0.447683,0.588538,-0.692258,0.450948,0.563404
0.397188,0.657229,0.525132,0.147684,-0.832617,0.533797
0.124338,-0.002505,0.458129,0.836766,0.227102,0.498245
-0.270637,-0.148741,0.649839,-0.579589,0.032744,-0.814251
-0.074589,-0.819049,-0.962547,-0.274151,0.908629,-0.315014
0.000867,-0.268680,0.399577,-0.191640,0.940688,-0.279964
0.704076,0.071935,0.793963,-0.195488,-0.455492,0.868511
0.658620,-0.499583,0.822539,0.549045,0.811287,-0.200903
-0.187680,-0.559761,-0.992695,-0.133656,0.143096,0.980643
0.422187,0.199666,0.443848,0.215126,-0.783316,0.583213
0.902107,-0.348337,0.672885,-0.408348,-0.037961,0.912037
-0.799597,-0.484208,0.384826,-0.509101,0.766156,-0.392201
-0.028304,-0.619869,-0.358009,0.918450,-0.361994,-0.159404
0.547071,0.479477,0.496697,0.523855,0.610140,-0.594395
-0.111261,-0.181230,-0.998052,0.163628,-0.036593,0.985843
0.596436,-0.396132,0.674016,-0.271762,0.446511,0.852510
-0.242812,-0.656742,0.351238,0.313603,-0.690107,-0.652231
-0.959419,-0.331292,0.447823,0.886091,0.463193,0.017150
-0.347439,0.014749,0.901954,-0.160450,-0.799391,-0.578990
0.067730,0.247321,0.777137,-0.312465,0.420257,0.851909
-0.080169,-0.476416,0.977095,-0.642988,-0.421200,0.639654
-0.291277,0.132740,0.532799,0.342242,0.335124,-0.877817
0.272817,-0.129192,0.837809,0.225143,0.495980,0.838639
0.153571,-0.206206,0.594523,0.739924,0.308323,-0.597872
0.273455,-0.109016,0.687448,0.874180,-0.469155,-0.125311
-0.632337,-0.323918,0.403615,-0.444069,0.056088,-0.894235
-0.073885,-0.375887,0.239131,-0.634432,0.772007,-0.038747
-0.035034,-0.440239,0.159826,0.849409,-0.486192,-0.205236
0.064909,0.071796,0.908725,0.924993,-0.346225,0.156576
-0.302050,-0.087728,0.961243,-0.199692,0.709183,-0.676153
0.221593,-0.139140,0.656531,-0.861657,-0.291479,0.415436
-0.261082,0.184639,0.709207,0.840248,0.009458,0.542121
-0.242042,-0.323223,-0.992491,0.089070,0.156760,0.983612
0.016957,-0.314318,0.105391,0.834201,-0.550330,0.035299
-0.072797,-0.503131,-0.268571,0.583162,0.391594,-0.711741
-0.235441,0.670447,0.499855,-0.474415,0.838814,-0.267060
-0.243708,-0.865382,0.453950,0.939361,0.305038,0.156692
0.153188,-0.442396,0.547503,0.629344,0.555363,-0.543597
-0.428409,0.218450,0.543026,-0.160188,-0.180403,0.970461
-0.089400,-0.752678,0.933751,0.881776,-0.035653,0.470319
-0.037601,-0.377835,0.136591,0.624897,-0.653936,0.426464
-0.129726,-0.363295,0.840951,0.875930,0.246173,-0.414905
-0.540853,0.184222,0.889354,0.870749,0.428810,0.240664
0.379877,0.266314,0.802682,-0.626577,-0.209637,0.750636
0.084974,0.106442,0.881326,0.995205,-0.054656,-0.081114
0.418983,-0.000696,0.740171,-0.456384,0.800630,0.388208
0.066001,-0.377975,0.634380,0.607764,0.664625,0.434622
0.686190,-0.844302,0.671707,-0.609094,-0.404306,-0.682306
0.279097,-0.504453,0.907876,-0.204373,0.830130,0.518764
-0.073243,-0.409420,0.165670,-0.723984,0.687276,0.059152
0.545792,0.776054,0.595042,0.250590,-0.950423,0.184120
0.744273,-0.444205,0.741271,-0.184929,0.538969,-0.821775
-0.251209,-0.606790,0.316078,-0.242352,-0.970161,0.007272
0.751324,-0.249896,0.500232,0.125339,0.363736,-0.923031
-0.285252,0.051343,0.544880,-0.065984,0.467449,0.881554
-0.770106,-0.451927,0.815752,-0.732503,-0.106124,0.672442
0.343077,0.007305,0.462308,-0.536393,0.651984,0.535910
0.408535,0.224085,0.838092,0.907653,0.306121,0.287150
0.139532,-0.064630,0.413544,-0.165482,-0.560453,0.811485
0.417828,-0.486017,0.846183,-0.222012,-0.890944,0.396144
-0.732413,-0.505148,0.825650,0.492036,0.214861,-0.843644
-0.210437,-0.469946,0.930860,0.415652,0.099757,0.904036
0.576884,-0.214902,0.607908,0.389567,-0.885229,0.254181
-0.221593,0.300056,0.490570,0.755446,0.251673,-0.604947
-0.122738,0.387645,0.527457,0.414743,-0.518914,-0.747474
-0.029908,-0.269167,-0.996559,0.025228,0.055041,0.998165
0.438536,-0.540281,0.742151,0.952178,-0.286430,-0.106377
-0.091579,-0.586058,-0.068080,-0.161115,0.984843,-0.064230
-0.449499,0.455058,0.807646,-0.893306,0.122359,0.432473
0.398788,0.003479,0.730698,-0.673132,0.501774,0.543247
0.960832,-0.667803,0.408124,0.982620,-0.174208,0.064107
-0.575600,-0.272089,0.816742,-0.404450,-0.914061,0.030217
0.617977,0.504313,0.506971,0.416706,0.751916,-0.510861
-0.379044,0.329832,0.944591,-0.748982,0.571930,-0.334547
0.733630,-0.514262,0.634019,-0.631246,0.724086,0.277899
-0.147866,-0.635731,-0.295341,0.869381,-0.491676,0.049310
-0.169536,-0.613330,-0.772408,0.404278,0.875970,0.263127
0.564573,0.269375,0.833536,-0.569227,-0.792590,0.218591
0.592077,0.016975,0.564297,-0.226974,-0.721754,0.653876
-0.017853,0.753931,0.549671,-0.625818,0.709951,0.322989
-0.092604,-0.464589,-0.038168,0.093488,-0.985624,-0.140730
0.013560,-0.491791,0.028616,-0.455380,-0.121686,0.881942
0.216976,-0.616391,0.804158,-0.591671,-0.300792,-0.747963
-0.203515,0.070335,0.538046,0.548175,0.765440,0.337054
0.332308,-0.319118,0.831227,-0.465567,-0.132040,0.875107
-0.147803,-0.564631,0.548304,0.874327,0.473153,0.108068
-0.194218,0.736469,0.532532,-0.303594,0.796067,-0.523554
0.119467,-0.230486,0.611616,0.911887,-0.165340,-0.375667
0.557777,-0.669542,0.828273,-0.230163,0.961058,-0.152948
-0.523351,0.181508,0.926351,0.518473,0.503580,-0.691081
-0.268328,0.195074,0.424541,0.777343,0.562325,-0.282008
0.699971,-0.187770,0.730761,0.688545,-0.493137,0.531717
0.049332,-0.366634,0.059628,-0.234547,-0.961426,0.143691
0.332246,0.344720,0.815627,0.875500,0.455394,0.161603
-0.770235,-0.398706,0.843245,0.786727,-0.057074,0.614657
-0.627594,0.227286,0.879975,-0.368866,-0.915084,-0.162969
-0.086645,-0.422430,0.132585,-0.582194,0.469912,-0.663501
-0.084462,-0.427439,0.021735,-0.569463,0.748587,0.339601
-0.179216,-0.323570,0.962076,0.846207,-0.027975,-0.532119
-0.359553,-0.029150,0.971329,-0.271948,-0.669140,0.691590
-0.131393,-0.490887,0.657537,0.747183,0.622487,0.232868
0.741256,-0.445735,0.626776,0.917135,0.090022,-0.388277
0.350577,-0.421525,0.573519,-0.412248,0.904905,0.105819
-0.106260,-0.567761,-0.270645,0.772763,0.284291,-0.567464
-0.256148,0.170864,0.725640,0.967056,0.252839,0.029592
0.175499,-0.526436,0.871445,0.339900,-0.940108,0.025773
0.655736,-0.193614,0.510899,-0.158765,-0.678212,0.717511
0.701126,-0.349799,0.832217,-0.404907,-0.305310,-0.861879
0.044331,-0.681787,0.965422,0.795747,0.579847,0.174827
0.158764,0.134479,0.792517,0.459804,0.500986,-0.733208
0.011060,-0.653054,0.838155,-0.587783,-0.800184,-0.119238
-0.101964,-0.517184,0.000432,0.988334,0.011262,0.151884
0.793701,-0.524837,0.628787,0.200916,0.604085,-0.771177
-0.125430,0.027689,0.923696,0.867687,-0.180079,-0.463348
-0.079911,-0.046055,0.855546,-0.665750,0.716265,0.209145
-0.517646,-0.239878,0.721162,0.644874,0.626170,0.438233
