0.377977,0.043086,0.590388,0.876717,-0.265606,-0.401024
0.092336,-0.529219,-0.967896,0.425184,-0.175999,-0.887830
0.194947,0.471413,0.823373,0.920804,0.116110,-0.372342
-0.551274,-0.451955,0.716611,-0.475697,-0.155234,-0.865803
-0.586226,-0.174300,0.580086,0.190782,-0.741635,0.643102
0.018406,0.313853,0.691887,0.097790,-0.868813,0.485388
-0.197371,-0.419420,0.898201,0.181426,-0.598774,0.780099
-0.209094,-0.065639,0.756169,-0.281660,-0.959514,0.001056
-0.147796,0.643375,0.839819,0.235179,-0.902577,0.360620
-0.818139,-0.513234,0.799586,0.930852,-0.336128,0.143290
0.841238,0.144228,0.576677,0.308469,-0.114995,0.944258
-0.034630,0.386063,0.844501,-0.759354,0.002988,0.650671
-0.050636,-0.179544,0.866678,0.949591,-0.311984,0.030699
0.673176,-0.033230,0.675910,0.225127,0.652764,0.723337
0.057123,0.008338,0.527435,-0.117690,0.778633,0.616343
-0.354358,0.150421,0.949035,0.389683,-0.134417,0.911087
0.175523,0.068797,-0.972279,0.477154,0.197029,-0.856448
0.270131,-0.388149,0.161839,-0.310779,0.947486,0.075412
0.271775,-0.143093,0.771191,0.473195,0.567833,-0.673537
-0.232108,-0.338682,-0.173302,0.293771,0.941951,0.162561
-0.251617,-0.567186,0.983967,-0.640696,0.506787,0.576780
0.382518,-0.355108,-0.647646,0.780409,0.491584,0.386403
0.386109,0.073156,0.799586,-0.059203,-0.983325,0.171950
0.089871,-0.476910,-0.064123,0.926699,-0.335223,0.169867
-0.212857,-0.400341,0.952538,0.064617,0.712489,0.698702
-0.056043,-0.385558,0.922588,0.272307,-0.961409,0.039273
0.416520,0.367364,0.882449,0.978651,-0.154853,-0.135140
-0.405058,0.198116,0.556486,0.435192,0.154847,-0.886922
0.110722,0.351254,0.854391,0.763866,-0.476551,-0.435211
-0.146973,-0.367300,0.090851,-0.103757,-0.241381,0.964868
0.454935,0.141955,0.748958,-0.785991,0.602702,-0.137729
-0.296045,-0.152378,0.949466,-0.741715,0.387100,-0.547735
0.140960,-0.308042,-0.449217,0.975444,-0.189308,-0.112569
0.050115,0.279044,0.466150,0.910803,-0.136813,-0.389512
-0.479203,0.124075,0.937534,0.498713,0.317026,0.806709
0.497761,0.485753,0.549443,-0.535651,0.023182,0.844121
0.015682,-0.387264,0.102258,-0.332141,0.915137,0.228488
-0.220860,-0.263189,0.680199,0.918748,0.312544,-0.241283
-0.324682,-0.563901,0.909664,0.117169,-0.961614,-0.248135
0.135942,-0.317202,-0.370906,-0.196650,0.976371,0.089605
-0.237428,-0.169247,0.778121,-0.555312,-0.829016,-0.066035
0.071010,-0.229895,-0.983873,0.405809,-0.053259,-0.912405
-0.754634,-0.429654,0.775799,0.062161,0.286821,0.955965
-0.363269,-0.266852,0.679787,0.957913,0.279399,0.065872
-0.349469,0.116811,0.936298,-0.518587,-0.064144,0.852615
-0.113145,-0.073347,0.549743,0.961986,-0.054518,0.267603
-0.226916,0.431044,0.862332,-0.431479,-0.005814,0.902104
0.484869,0.521448,0.534778,0.094081,0.722934,0.684482
0.212208,-0.573568,-0.246200,0.224996,-0.170265,-0.959368
0.213375,0.582411,0.875462,0.411408,0.427045,-0.805218
-0.264379,0.153579,0.585611,-0.005269,-0.167390,0.985877
0.168472,0.067154,-0.799642,0.147901,0.194873,-0.969613
-0.031385,-0.062923,-0.216719,0.063997,0.565579,0.822207
-0.187766,-0.490997,-0.220184,0.785182,0.609245,0.110945
0.162762,-0.307410,-0.692299,0.870381,0.487402,0.069824
-0.559060,0.115989,0.789359,0.916906,0.365935,-0.159296
0.045314,0.045550,0.911462,0.811420,0.358388,0.461688
-0.217011,0.240065,0.867315,-0.667630,-0.549083,0.502771
0.354746,-0.284036,-0.942985,-0.335305,0.175107,0.925693
-0.821427,-0.073095,0.750531,-0.052603,0.645056,-0.762322
0.368806,0.303051,0.579543,-0.252774,0.189642,0.948758
-0.709342,-0.468317,0.784208,-0.177834,0.688477,0.703118
0.510350,0.246446,0.754277,0.608744,0.056525,-0.791350
0.244825,0.281888,0.631089,0.324714,0.406258,0.854116
-0.755067,-0.001010,0.732532,-0.029094,0.471738,0.881258
-0.168559,-0.127299,0.920752,0.184449,0.951579,-0.245919
-0.291675,-0.213658,0.629777,-0.664900,0.627222,-0.405588
0.380960,-0.576221,-0.932927,0.328866,0.029590,-0.943913
0.116735,0.339883,0.765029,0.195294,-0.978985,0.058724
0.178854,-0.038284,-0.134736,0.397991,0.271905,-0.876169
-0.495037,-0.655062,0.847910,-0.895643,0.330035,-0.298162
0.129841,0.174678,0.650287,0.146085,0.570207,0.808408
-0.016979,-0.156991,0.573512,0.798107,-0.131334,-0.588028
-0.050938,-0.222692,0.488420,0.938665,0.175807,0.296646
-0.440270,-0.241139,0.747085,0.306721,-0.651994,0.693417
-0.305302,0.194579,0.803669,0.957998,0.258604,0.123954
0.211471,-0.320108,0.561955,0.077288,0.994170,-0.075186
-0.597301,0.191800,0.798706,0.905092,0.307357,-0.293837
-0.259404,0.121864,0.923300,0.949417,0.255048,0.183189
-0.355093,0.148651,0.713146,0.844789,0.501002,-0.187957
-0.851621,-0.640342,0.841373,0.179882,0.793236,0.581738
-0.828781,-0.642492,0.853098,-0.021152,0.749759,0.661373
-0.306902,-0.521384,0.404602,0.550725,0.497553,0.670181
0.188198,0.517973,0.727250,0.888373,-0.393260,-0.236939
-0.018018,0.178785,0.612040,-0.866359,0.483689,-0.124367
0.028788,0.533071,0.767782,-0.724798,0.525813,-0.445185
-0.244306,-0.040874,0.950926,-0.447342,0.894286,0.011688
-0.124998,-0.168110,0.704923,0.670660,0.442816,-0.595088
0.482274,-0.176701,0.764392,-0.386854,0.597924,-0.702019
-0.744686,-0.030514,0.797638,-0.532484,0.846041,0.025978
0.594013,-0.137532,0.654239,-0.576678,0.286686,0.765018
0.149352,-0.288647,-0.206511,0.063797,0.193317,0.979060
-0.321784,0.057362,0.569410,-0.394273,0.136542,0.908793
0.266973,-0.166151,-0.509154,0.268510,-0.632070,0.726905
-0.032856,-0.258766,0.780500,0.539353,0.716809,-0.441908
0.417169,0.197486,0.599209,-0.062658,0.114692,0.991423
0.351717,-0.223641,-0.200442,0.147621,-0.951313,0.270578
0.118118,-0.337291,-0.111230,0.880583,-0.437841,0.181299
-0.668030,-0.163687,0.796158,0.868135,0.351614,0.350299
0.044319,0.162802,0.096751,-0.241097,0.532562,-0.811326
-0.249368,-0.363132,0.928488,-0.459735,-0.343893,-0.818768
0.085934,0.728282,0.832589,0.896539,-0.325076,-0.300904
0.495771,-0.071641,0.810525,-0.559756,0.828235,0.026463
0.126944,0.003665,0.753247,0.986223,0.102914,0.129507
-0.788420,-0.050794,0.734236,-0.369349,-0.220311,-0.902798
0.317111,-0.140122,-0.279840,-0.254161,0.167246,0.952592
0.002530,0.433128,0.838489,-0.833264,0.392636,0.389241
0.009495,-0.383537,0.320615,-0.433535,0.854779,-0.285309
0.496030,0.010297,0.790539,0.572940,-0.792779,-0.207943
-0.187464,-0.314929,0.593928,0.369172,0.790371,0.488903
0.192654,-0.055658,0.746710,-0.502836,-0.715075,-0.485617
-0.013476,-0.158065,-0.234400,0.302009,-0.463404,0.833095
0.246209,-0.226987,0.664147,-0.415499,0.875819,0.245562
-0.068414,-0.176637,-0.227563,-0.172313,-0.557717,0.811948
-0.558498,-0.215175,0.722867,0.042276,0.317880,0.947188
0.185690,-0.346326,-0.392390,0.106885,0.991929,-0.068211
-0.515282,-0.269696,0.763849,-0.109994,0.975507,-0.190494
0.514848,0.433571,0.759447,-0.285897,-0.091357,0.953896
0.507494,0.206393,0.749726,0.552071,-0.154972,0.819269
0.199835,0.565038,0.605934,0.952533,0.280209,-0.119016
-0.086973,-0.226041,0.066352,-0.922467,0.273298,-0.272696
0.050288,-0.036452,0.602206,-0.532026,0.549551,0.644159
0.163844,-0.322005,-0.410333,-0.638785,0.669525,0.379064
0.100166,-0.279108,-0.973010,-0.431960,0.198710,0.879730
0.065126,-0.353654,-0.008813,0.859472,-0.494780,0.128451
-0.166440,0.080359,0.747141,-0.454741,0.783117,-0.424193
0.536218,0.164508,0.742084,-0.625299,0.169219,-0.761818
-0.371099,-0.290226,0.905656,-0.213255,-0.911297,-0.352221
-0.343327,-0.036327,0.909701,-0.495252,0.544642,-0.676823
0.177081,-0.399772,0.126270,-0.292888,0.904117,0.311111
-0.502305,-0.211448,0.453937,-0.140377,0.228791,0.963301
0.410853,0.167414,0.851506,-0.411096,0.660127,-0.628675
-0.884801,-0.324405,0.734573,0.150187,-0.988058,0.034433
-0.087146,0.306400,0.845213,0.090559,-0.002722,0.995887
-0.075250,0.282898,0.658247,0.364027,-0.787087,-0.497974
-0.027362,0.348221,0.717772,-0.662510,-0.723677,0.193321
0.015249,-0.125465,-0.992283,0.346871,-0.107045,-0.931784
0.599420,0.452650,0.513050,-0.233270,-0.070119,0.969881
0.309929,-0.003222,0.132976,-0.065975,-0.377057,0.923837
0.042675,0.290795,0.410352,0.721320,0.310202,0.619251
-0.178380,-0.398003,0.387501,-0.717541,0.660931,-0.219784
-0.438670,-0.072273,0.852911,0.501695,-0.181981,0.845686
-0.113015,-0.557142,0.627436,-0.144232,0.433862,0.889360
0.280730,0.031587,0.538748,-0.346748,0.393142,-0.851590
0.119849,-0.083960,-0.977711,0.410029,-0.185492,-0.893011
-0.404452,-0.182261,0.576490,0.905814,0.167548,-0.389139
0.137498,-0.053256,0.784958,-0.248297,0.428658,-0.868677
-0.328879,-0.402930,0.911556,0.307700,0.573217,-0.759436
-0.366341,-0.294208,0.912623,0.321254,0.933594,0.158738
0.481278,0.286436,0.844220,0.783699,0.484826,-0.388278
0.099907,0.352896,0.885371,-0.700460,-0.194211,-0.686759
-0.414575,-0.233116,0.678532,0.504840,0.863137,0.011419
0.196332,-0.190158,-0.960854,-0.371926,0.164217,0.913621
0.181493,-0.371786,0.174501,-0.236075,0.967314,-0.092582
-0.389960,-0.022301,0.914196,-0.109851,-0.341950,0.933275
-0.053014,0.334891,0.813165,0.988616,-0.142810,-0.047359
0.022516,-0.064502,0.447045,0.787039,-0.426602,-0.445624
0.070620,0.367047,0.817530,-0.406873,-0.496299,-0.766904
-0.037398,-0.087371,0.491754,0.933586,-0.354504,-0.052387
0.063828,-0.159075,0.795315,0.716600,0.272598,0.642008
-0.292929,-0.224714,0.628447,-0.664900,0.627222,-0.405588
0.228818,0.310568,0.629272,-0.148283,-0.538860,-0.829242
-0.519348,-0.532882,0.447288,0.353370,-0.615118,0.704811
0.141825,0.407353,0.838170,0.600189,-0.355005,0.716760
-0.334372,-0.286941,0.896440,0.807284,0.513530,0.290826
-0.166872,-0.405142,0.458657,-0.104293,-0.979262,0.173689
0.004953,-0.327499,0.365231,-0.653620,0.749751,-0.103220
-0.591764,-0.158065,0.724515,0.754448,-0.180182,0.631144
0.621050,-0.642681,-0.887712,-0.307708,0.126484,0.943036
-0.022949,-0.378418,0.832495,-0.051667,-0.987563,-0.148491
0.261479,0.244676,0.632568,0.379085,0.419181,0.824974
0.203816,-0.175311,-0.960030,-0.224073,0.369542,0.901793
0.011052,0.608755,0.827269,-0.765754,-0.464011,0.445325
0.041853,-0.625750,-0.963701,-0.200279,0.193791,0.960382
0.475266,-0.215744,-0.051742,-0.628820,-0.368621,-0.684620
0.128154,0.038031,0.772540,-0.049979,0.237915,-0.969999
0.171501,-0.310127,-0.516515,0.995349,-0.050375,0.082113
-0.534187,-0.279613,0.653415,-0.312627,0.043981,0.948857
0.049034,0.100132,0.922944,0.957190,-0.048542,-0.285361
0.152727,0.360224,0.794136,0.710325,-0.700813,-0.065565
0.162416,-0.064185,0.697487,-0.372733,0.181651,0.909985
-0.062921,-0.047002,0.708033,0.021133,0.714850,0.698958
-0.012913,0.366668,0.618895,0.231216,0.824822,0.515953
0.395410,0.183208,0.549087,-0.553868,0.748941,-0.363756
-0.439578,-0.535851,0.805130,0.295077,0.081371,0.952002
0.314774,-0.657842,-0.934369,0.209642,-0.085640,-0.974021
-0.487553,0.181565,0.630508,-0.301170,0.555157,-0.775305
0.335453,-0.411332,0.741129,0.379048,0.418878,-0.825145
0.268271,-0.342030,0.729066,-0.378212,0.034380,0.925080
0.133865,0.418852,0.721687,0.686576,-0.688899,-0.232449
0.586312,-0.032789,0.661394,0.844845,-0.061329,0.531484
0.287002,0.207594,-0.359162,-0.095627,0.010615,-0.995361
-0.489803,0.086677,0.911687,-0.533014,0.478615,-0.697728
0.225920,-0.341462,-0.375046,-0.188366,0.725960,0.661438
0.043713,-0.151620,-0.991983,-0.357726,0.077241,0.930627
-0.227955,0.236718,0.583888,-0.767778,0.223429,-0.600496
-0.061407,-0.069177,0.721387,0.998963,0.001937,0.045492
0.064521,-0.367680,0.137902,-0.555400,0.741490,0.376463
0.143035,0.068861,0.538224,-0.488109,-0.548110,-0.679209
-0.747713,-0.432875,0.629178,0.521199,0.800433,-0.296072
-0.186469,0.307537,0.879265,-0.411927,0.812068,-0.413354
-0.467480,-0.103165,0.852443,0.537276,-0.115062,-0.835521
-0.107997,0.041569,0.591062,0.669188,-0.713912,0.206196
0.063396,-0.180175,-0.744631,0.086359,0.995243,-0.045087
-0.048603,0.044665,0.884172,0.962283,0.234296,0.138266
-0.845349,-0.439889,0.489844,-0.204163,0.937889,-0.280501
0.340038,-0.481331,-0.939520,-0.108224,0.058996,0.992374
-0.507235,-0.050983,0.801684,-0.352959,-0.927962,-0.119609
-0.398785,-0.485312,0.861190,-0.642322,-0.131896,-0.755001
0.058204,-0.204118,0.698630,-0.534465,0.097768,0.839517
0.337486,0.061091,0.755326,-0.065914,-0.977181,0.201921
0.768347,0.263061,0.597018,-0.144218,0.430443,0.891022
-0.215107,-0.710657,0.635846,-0.374194,0.012892,0.927261
-0.002617,-0.367616,0.298476,0.576416,-0.815617,0.050136
-0.059330,-0.312211,0.563585,0.857784,-0.487086,0.164179
0.195207,-0.145618,-0.438972,0.797911,0.215980,-0.562753
-0.167824,-0.418599,0.358020,0.995424,0.066334,0.068786
0.161421,-0.206962,-0.966285,0.392206,-0.001581,-0.919876
0.020352,-0.405142,-0.980371,0.241551,-0.351795,-0.904374
-0.264595,-0.433255,0.868738,0.216208,-0.959331,0.181488
0.328574,-0.008655,-0.722361,-0.110367,-0.080402,0.990634
-0.028184,0.280245,0.441594,0.039513,0.687588,0.725025
0.322475,0.127488,0.700653,-0.711327,-0.158804,-0.684686
0.122705,-0.352011,-0.082310,0.145108,-0.988647,-0.038998
-0.007333,0.427317,0.778402,0.954981,-0.290866,-0.058383
-0.018277,0.237286,0.603255,0.419616,-0.475067,-0.773456
0.790106,-0.005244,0.578812,0.859433,0.029661,0.510387
-0.413969,-0.452523,0.607151,0.743796,-0.347856,-0.570757
0.184003,-0.611094,-0.943828,0.303166,-0.317125,-0.898622
-0.206715,0.063048,0.894698,0.424734,0.840838,0.335549
0.068327,0.120221,0.816406,0.806258,-0.457060,0.375558
0.353319,0.015225,0.724815,-0.467427,-0.292200,0.834345
0.243527,0.422262,0.599528,-0.243818,0.288450,0.925932
-0.424437,-0.149725,0.426123,-0.107861,-0.992284,-0.061143
0.147188,-0.044601,-0.978161,0.432779,-0.104457,-0.895428
-0.160644,0.265651,0.442643,-0.028969,0.128399,0.991299
-0.034759,-0.561753,-0.982899,-0.321355,0.179140,0.929860
-0.258062,-0.091161,0.847517,-0.496891,-0.826149,0.265664
0.244521,0.121739,0.785164,0.324992,0.363459,-0.873085
0.466658,-0.082507,-0.284541,-0.083748,0.232121,0.969075
-0.404452,-0.288836,0.491941,0.766051,0.176574,-0.618051
0.003957,-0.346517,0.673868,0.785551,-0.110006,-0.608940
0.301580,-0.348726,0.733187,-0.588942,-0.144336,0.795182
0.097743,-0.090531,-0.983124,-0.425556,0.165998,0.889577
-0.000282,-0.501863,-0.978835,-0.500632,0.084515,0.861525
0.110376,-0.474194,-0.965705,-0.512081,0.080500,0.855156
-0.133952,0.070440,0.863363,0.888323,-0.154910,-0.432301
-0.609241,-0.526123,0.899475,0.816680,-0.353601,-0.456070
-0.307681,-0.125340,0.701046,-0.049181,-0.876850,0.478243
0.101204,0.593910,0.611235,0.819132,0.222998,-0.528484
0.057339,-0.223008,-0.987638,0.293807,0.090501,-0.951571
0.258840,0.288711,0.633486,0.354747,0.417014,0.836812
0.169770,-0.303240,0.611459,0.400641,0.868116,-0.293022
-0.095711,0.304505,0.850364,-0.542193,0.012012,-0.840168
0.010187,-0.023186,0.933788,0.572757,-0.819232,0.028438
-0.114010,0.518731,0.754521,-0.581329,-0.499318,0.642447
-0.024680,-0.317771,0.834050,-0.017589,0.946415,0.322473
0.131874,-0.015541,-0.983911,0.343772,-0.205256,-0.916346
0.133345,-0.248847,-0.462816,0.944505,0.308021,0.114164
-0.763070,-0.385242,0.796008,-0.063251,0.990899,-0.118821
0.014772,0.540021,0.831277,0.981361,-0.100779,-0.163628
-0.151862,-0.711542,0.654651,0.331793,-0.074906,-0.940374
0.791922,0.137532,0.588608,0.297303,-0.204700,0.932582
0.352151,-0.424853,0.738338,-0.419425,-0.061505,0.905704
0.088313,0.011940,0.153991,-0.154929,0.785958,-0.598554
0.021650,-0.429149,0.123779,0.426729,-0.798555,-0.424514
0.087318,-0.011246,-0.987919,0.370694,-0.030186,-0.928265
0.298077,-0.368310,-0.946019,0.258625,-0.227995,-0.938686
-0.147017,-0.432054,0.299750,0.822742,0.059656,0.565275
0.312785,-0.187441,-0.949709,0.204634,-0.048875,-0.977618
-0.383211,-0.171268,0.666264,0.777748,-0.207886,0.593204
-0.184781,-0.066397,-0.193400,-0.345383,0.465702,-0.814759
0.156403,0.197295,-0.981663,0.687073,0.019662,-0.726322
-0.383861,-0.360857,0.910713,0.892430,0.183639,0.412123
0.073086,0.292817,0.484206,0.973512,-0.219617,-0.063576
0.014859,-0.124139,-0.991103,0.346871,-0.107045,-0.931784
-0.026150,0.488406,0.613932,0.153643,0.264164,0.952161
0.028788,-0.071766,-0.323612,0.263579,-0.402657,0.876581
-0.488893,-0.279993,0.742421,-0.425800,0.903754,-0.043845
-0.203038,0.172847,0.802002,-0.704588,0.264403,0.658519
-0.330522,0.018763,0.933208,-0.736474,0.653923,-0.173177
-0.256462,0.004170,0.812341,-0.745413,0.398755,-0.534185
0.520817,-0.536547,-0.912923,-0.269811,0.109169,0.956705
-0.875068,-0.085728,0.755233,-0.129235,0.824794,-0.550466
-0.653927,-0.473561,0.872672,0.075424,0.843816,0.531306
0.562693,-0.092679,0.753453,0.121042,-0.414390,0.902014
0.282027,0.058752,0.535452,-0.008631,-0.116931,0.993103
-0.620705,0.012636,0.863719,-0.267460,-0.877699,0.397630
-0.152381,-0.288079,0.934669,0.199917,-0.011028,0.979751
0.158393,0.288458,0.841579,-0.624756,0.440665,-0.644588
-0.345620,-0.338745,0.613744,0.290231,0.790667,0.539084
-0.398136,-0.403310,0.653415,0.525424,-0.105683,0.844251
-0.905004,-0.443680,0.521498,-0.014745,0.948085,-0.317676
-0.160383,-0.394465,0.613744,-0.113344,-0.288193,0.950841
0.034110,0.341273,0.424156,0.869295,-0.337649,0.360998
0.224883,-0.308800,-0.944577,0.385046,0.409384,-0.827130
0.118637,0.737191,0.564371,0.754895,-0.650895,0.080428
0.232496,-0.185546,-0.740342,-0.683077,0.465669,0.562635
-0.219606,-0.152694,0.663792,-0.484811,0.836675,-0.254818
0.503124,0.642365,0.593122,0.304299,-0.121921,0.944742
0.915688,-0.020594,0.602937,0.061074,-0.592331,0.803376
-0.362880,0.147577,0.928843,-0.803150,0.143424,0.578255
-0.418944,-0.013835,0.598910,-0.362937,0.094305,-0.927029
0.191270,0.381387,0.856133,0.543189,0.436849,0.717014
-0.348690,0.221302,0.762107,-0.515301,0.838422,-0.177522
0.663227,0.559858,0.528803,0.414156,-0.360899,-0.835600
0.087015,-0.339250,0.208796,0.032872,-0.405506,0.913501
0.072739,-0.199192,0.792675,-0.625069,-0.373090,-0.685633
-0.300932,0.196728,0.821369,0.953301,0.272186,-0.130891
0.054182,-0.592456,-0.966735,-0.219698,0.152692,0.963544
-0.837130,-0.599595,0.831240,0.050680,0.845338,0.531823
0.360283,-0.461116,-0.938471,-0.208913,0.090817,0.973708
0.405662,-0.452903,-0.277086,0.999320,-0.015339,-0.033533
0.148876,-0.293134,-0.511645,0.969302,-0.241956,-0.043703
-0.022257,0.304252,0.853773,-0.267664,-0.038003,0.962763
-0.795904,-0.226104,0.791626,0.843570,0.516911,0.145574
0.508446,0.505021,0.505333,0.423527,0.625276,0.655480
-0.027967,0.358204,0.724515,-0.652371,-0.690566,0.312299
-0.262389,-0.220672,0.658828,0.428345,0.211518,-0.878511
-0.233579,0.272474,0.587559,0.465066,-0.235680,0.853328
0.051715,-0.283214,-0.262926,0.818371,0.547055,0.176069
-0.402462,-0.276897,0.569709,0.976863,-0.196253,0.084995
-0.534012,-0.537683,0.449929,-0.385325,0.627435,-0.676646
0.132091,0.039989,0.088379,-0.406002,-0.266972,0.874007
-0.537214,-0.063680,0.619738,0.182480,0.466891,0.865282
0.429585,0.047254,-0.468191,-0.175255,0.484455,0.857082
0.098695,-0.552088,0.054833,0.905000,0.193135,-0.379043
0.521338,0.046244,0.793836,0.751671,-0.541217,-0.376928
-0.511216,-0.465412,0.465138,-0.275844,-0.373743,0.885566
-0.044709,-0.091352,-0.210238,0.145033,-0.981638,0.123904
0.099992,-0.623286,-0.960198,0.331035,-0.177240,-0.926824
0.069019,0.116495,0.791026,-0.607757,0.477668,-0.634402
0.137888,-0.547033,0.233426,0.690980,0.580098,-0.431315
-0.225316,-0.309432,0.495781,-0.234237,-0.972083,-0.013717
0.044448,0.312463,0.439234,0.934898,0.224779,-0.274666
-0.197414,-0.083581,0.923468,0.660646,0.668040,-0.342446
0.176821,-0.277276,-0.604323,-0.543845,0.838374,0.036903
0.102373,-0.401226,0.109862,-0.117123,0.969548,0.215078
0.261263,0.356814,0.895373,0.123139,0.946457,0.298422
0.102242,-0.775411,-0.237603,-0.468602,-0.344424,-0.813501
0.308675,-0.642049,-0.937759,-0.156429,0.094094,0.983197
0.071356,-0.583233,-0.966004,0.225815,-0.200621,-0.953288
-0.237688,0.180743,0.843621,0.741770,-0.659027,0.124340
-0.154890,-0.066588,0.937122,-0.350763,-0.234171,0.906713
-0.691216,-0.222692,0.764504,-0.652036,0.663384,0.367111
-0.125560,-0.218965,-0.126177,0.295918,-0.248633,-0.922288
0.072610,-0.228063,0.069929,0.793036,0.043370,-0.607628
-0.268791,-0.427759,0.730228,-0.706038,-0.342108,-0.620059
-0.372180,0.011624,0.591436,-0.283689,0.214590,-0.934597
0.108082,-0.415377,0.004842,0.683585,-0.716290,0.140140
-0.157313,0.184409,0.802096,0.150415,-0.944002,0.293657
-0.304004,0.397625,0.897152,0.840902,0.194742,0.504935
0.566543,0.482468,0.579487,0.867793,-0.337432,-0.364794
-0.404020,0.298503,0.828468,-0.262783,-0.787812,0.557043
-0.133088,-0.277529,0.942367,0.862419,-0.480711,0.158585
-0.606083,-0.392001,0.459631,-0.039901,-0.265958,0.963158
0.096576,0.710531,0.562554,0.380830,-0.784930,-0.488727
-0.016504,0.776865,0.747722,-0.056354,0.297263,0.953131
-0.143382,-0.368754,0.919535,0.441620,0.762415,-0.472964
0.057512,-0.452145,-0.976269,-0.167067,0.186092,0.968224
0.289078,-0.046749,-0.105629,0.467386,-0.642800,-0.606925
0.095970,-0.211701,0.109413,0.246689,0.875563,-0.415373
-0.234443,-0.072146,0.899887,0.913219,0.362378,0.186317
-0.081955,-0.313223,0.938490,-0.001055,-0.774794,0.632213
-0.486125,-0.661002,0.846824,-0.194735,0.776399,0.599402
0.703198,0.634721,0.505240,-0.473523,0.106351,0.874337
-0.404884,-0.424221,0.861433,0.334936,0.808988,0.483070
0.018017,0.026912,0.449704,0.815684,-0.277729,0.507470
-0.196029,-0.013962,0.733711,-0.291547,-0.684366,-0.668314
-0.786560,-0.475709,0.382070,0.126804,0.164395,0.978210
-0.101162,0.374376,0.649538,-0.082918,0.732692,0.675490
0.393679,-0.532250,-0.928207,0.452171,-0.111883,-0.884886
0.372309,0.148335,0.847123,0.225943,-0.880608,0.416508
-0.650769,-0.651019,0.435544,0.180561,0.716381,0.673941
0.766530,-0.264957,0.542813,0.948031,-0.250357,0.196365
0.205978,-0.512035,-0.952800,-0.199471,0.244810,0.948831
-0.677460,-0.039612,0.799343,-0.215825,-0.635298,0.741496
-0.525145,-0.172342,0.786288,0.837991,-0.405271,0.365413
0.180672,-0.032725,-0.969638,-0.348363,0.017026,0.937205
-0.039777,-0.508686,-0.987807,-0.119982,0.258584,0.958509
0.114009,-0.367869,-0.379166,0.988869,0.079893,0.125516
-0.527265,0.060017,0.622435,0.280019,-0.461394,0.841846
0.336188,-0.260156,-0.945326,-0.194392,0.093922,0.976417
-0.193347,0.079979,0.872915,-0.579048,-0.071966,-0.812111
-0.028617,0.274432,0.684901,-0.624004,0.743770,-0.239634
0.196548,-0.240065,0.149589,0.790478,-0.271950,-0.548806
0.031946,-0.015605,0.912174,0.905343,-0.406940,0.121468
0.030519,0.218649,0.817792,0.436602,-0.892661,0.111958
0.118248,0.307030,-0.783272,0.008170,-0.176201,0.984320
0.688534,-0.044412,0.663510,0.575322,-0.309477,-0.757118
0.355006,-0.687915,-0.625975,-0.743332,0.194121,-0.640136
-0.346961,-0.003979,0.874151,-0.289749,-0.953858,0.078737
-0.579694,-0.176764,0.714906,-0.634924,0.121175,-0.763012
0.200873,0.094510,0.717360,-0.507716,0.800867,0.317546
-0.179894,0.316697,0.783852,-0.074638,0.064004,0.995155
0.051803,-0.216754,-0.706665,0.103468,0.287727,-0.952107
0.140613,0.029124,-0.140973,-0.441815,-0.071777,0.894230
0.255509,-0.389792,-0.949054,-0.316014,-0.038060,0.947991
0.628188,0.558595,0.588159,0.415761,-0.204182,-0.886258
-0.071573,-0.471413,-0.127712,0.164197,0.666658,-0.727053
0.070750,-0.141259,-0.167964,-0.212993,0.650758,0.728799
0.937880,-0.000569,0.607282,-0.316636,-0.220630,0.922531
-0.248935,-0.287762,0.620918,0.866466,0.499206,-0.005442
-0.055394,-0.238802,0.809962,0.714805,0.682900,0.150670
0.330996,0.110051,-0.107615,-0.074676,-0.408094,0.909881
0.407393,0.521889,0.530882,-0.313934,0.763577,0.564266
0.012264,-0.370333,0.481546,0.283410,-0.951719,-0.117939
-0.167132,-0.161856,0.875219,0.876015,0.231921,-0.422860
-0.563084,-0.180175,0.561768,-0.600419,0.412444,-0.685118
0.417602,0.069113,0.787018,0.096220,-0.975769,-0.196509
-0.441351,-0.473497,0.428333,0.462192,-0.783917,0.414551
-0.625852,-0.244424,0.718634,0.501773,0.170961,0.847936
0.798975,0.149220,0.590893,0.536992,-0.265325,0.800776
0.750654,0.177649,0.602974,0.652368,0.155677,0.741742
0.211645,0.558468,0.845288,0.780346,0.535526,-0.322912
-0.913655,-0.141892,0.736465,-0.202573,0.047889,-0.978095
0.033244,-0.145871,-0.102483,-0.714585,0.512618,0.476015
-0.012655,0.628719,0.828599,0.946330,0.296873,-0.127769
-0.308936,-0.460864,0.783927,0.984860,-0.151371,0.084488
-0.001665,0.631563,0.837065,0.919545,0.268983,-0.286504
-0.809877,-0.519427,0.692973,-0.458341,0.349828,-0.817033
0.117685,0.087435,-0.981438,-0.496397,0.097091,0.862649
-0.081479,0.645523,0.776360,-0.220647,-0.031979,0.974829
0.062272,0.090593,0.088379,0.374259,0.340122,-0.862698
0.476175,0.299702,0.884097,-0.308424,-0.838720,0.448802
0.278047,-0.450628,0.589844,0.043445,0.225908,0.973179
-0.388965,-0.088003,0.829985,-0.265660,0.963903,0.017793
-0.524583,-0.075747,0.759578,-0.405700,-0.913029,0.042252
-0.808189,-0.278983,0.466824,-0.238686,-0.329669,0.913426
-0.347869,0.041000,0.932946,0.794569,0.448743,0.409011
0.249150,0.077074,0.746692,0.584746,-0.805438,0.096650
0.155797,-0.097984,-0.149177,0.598947,0.528336,-0.601767
0.203556,0.029503,0.144888,-0.167101,-0.266076,0.949358
-0.294574,0.179165,0.584338,-0.205020,0.339262,-0.918079
0.131572,0.428264,0.722754,0.645546,-0.706656,-0.289668
-0.102373,-0.126161,0.947761,-0.673991,0.537479,-0.506807
0.028313,-0.088888,-0.447963,-0.704734,0.494887,0.508368
-0.067247,0.118958,0.782860,0.930129,0.304730,-0.204938
0.427810,-0.143029,0.595426,-0.542773,0.102260,0.833630
-0.893281,-0.350749,0.753716,0.305834,-0.267377,0.913770
-0.054831,-0.153959,0.457028,0.902141,-0.211351,0.376129
-0.043714,-0.156484,0.483325,0.878921,-0.279721,0.386334
0.124694,-0.343989,-0.197295,-0.650944,0.754598,0.082792
-0.175439,0.077454,0.856095,0.833389,-0.490851,0.254024
-0.617720,-0.116178,0.798312,0.088837,-0.555910,0.826481
0.074816,-0.325035,0.522940,0.880162,-0.363170,-0.305651
-0.035192,-0.270831,0.107146,-0.062748,-0.247140,0.966946
0.163541,-0.306653,-0.410933,-0.550100,0.788817,0.274147
0.159734,-0.038916,0.125465,0.936715,-0.348383,-0.034555
0.444336,0.216690,0.880538,-0.513218,0.249649,-0.821147
-0.580906,-0.092110,0.793630,-0.361037,0.931617,0.041743
0.057383,0.642745,0.860628,0.402484,0.613990,0.678987
0.331992,-0.380821,0.744425,-0.527479,-0.523856,0.668835
0.000497,-0.612104,0.652329,-0.370910,0.235204,0.898390
-0.063613,-0.008402,0.653040,0.085366,0.876027,0.474647
0.478035,-0.255986,0.696158,-0.177570,0.984108,0.000769
-0.149439,-0.747047,0.652872,-0.405228,-0.396308,0.823851
0.067808,-0.270326,0.177160,-0.000281,-0.867892,0.496754
0.301149,0.045928,0.544779,0.263163,-0.381442,0.886142
-0.211862,-0.637690,-0.332640,0.573240,-0.819353,-0.007519
-0.674519,-0.466802,0.863606,0.020130,-0.707904,0.706022
-0.261005,-0.657401,0.644780,0.124441,0.690939,-0.712122
-0.429326,-0.450186,0.598741,-0.557643,0.272035,0.784239
0.403327,0.185355,0.603742,0.024832,0.082872,0.996251
-0.232410,0.966959,0.809551,-0.526879,0.119379,-0.841515
-0.309974,-0.782994,0.594246,0.031556,0.432581,0.901043
0.020958,0.513298,0.593946,0.631808,-0.290965,-0.718441
-0.368157,0.192306,0.943903,0.305096,-0.508761,0.805033
0.182272,-0.152063,-0.174051,0.420573,0.601812,-0.678926
-0.160081,0.033672,0.723110,-0.643318,0.603731,-0.470798
-0.253175,-0.319414,0.913222,-0.043563,-0.462490,0.885554
-0.199533,-0.220292,0.684863,0.040108,0.691687,0.721083
0.195380,-0.112263,-0.970837,0.270367,-0.181067,-0.945577
-0.413406,-0.402173,0.610541,-0.635011,0.355311,0.685941
-0.254732,0.247456,0.888124,0.278720,-0.784220,0.554359
-0.260616,-0.234379,0.609980,0.733535,-0.401790,0.548171
0.193043,-0.375324,-0.588777,0.971155,-0.178231,-0.158403
-0.492528,-0.293448,0.639667,0.546467,-0.412808,-0.728673
-0.255294,-0.115610,0.932665,0.485883,0.086431,-0.869740
0.039603,0.022237,0.909027,0.957245,-0.289269,-0.002326
-0.022647,0.001831,0.683402,-0.116603,0.928139,0.353498
-0.037701,-0.345063,0.439328,0.867319,-0.438017,-0.236428
-0.269613,0.114663,0.930923,0.976878,0.179447,0.116223
-0.068674,-0.125718,-0.223443,0.319541,0.500258,-0.804758
0.053879,-0.285551,0.204300,0.283285,-0.953268,-0.105022
0.127333,-0.247962,0.790015,0.254783,0.389828,0.884941
-0.296347,-0.841871,0.610860,-0.165707,0.591748,0.788908
-0.119028,0.506602,0.736015,-0.660590,0.070123,-0.747465
0.239764,-0.259651,0.681866,0.565155,-0.824984,-0.000533
0.091125,0.309116,0.866884,0.501409,-0.817102,0.284488
0.459563,0.177522,0.846524,-0.241561,0.205597,0.948355
0.216922,-0.326931,-0.526442,-0.320261,0.946665,0.035482
-0.060671,0.442099,0.864486,-0.233765,0.804018,-0.546726
-0.343543,-0.321688,0.738076,0.457846,0.861984,-0.217625
-0.007722,0.028744,0.905375,0.206297,0.867315,-0.452997
0.737936,0.459094,0.536576,-0.014689,0.117621,0.992950
0.153635,0.030134,0.553264,0.737767,0.218676,0.638655
0.130966,-0.085223,-0.438185,0.602967,0.659972,-0.448183
-0.763460,-0.672815,0.382912,-0.264621,0.126545,0.956014
-0.307033,-0.292754,0.926559,0.203338,0.970417,0.130169
-0.050938,-0.176953,0.421047,0.863231,0.499062,-0.075957
0.235350,-0.074041,-0.128611,0.253512,0.422667,-0.870106
-0.059676,-0.114222,0.716086,0.980408,-0.196503,0.013674
0.283627,0.191104,-0.492016,0.463584,-0.005134,-0.886038
0.060368,-0.066144,-0.704736,0.190916,-0.348897,0.917508
0.294054,-0.168299,-0.502823,-0.104749,-0.524729,0.844800
0.127463,0.166276,-0.980296,-0.208745,-0.070663,0.975414
0.601366,-0.125024,0.650774,-0.550645,0.324610,0.769037
0.098911,-0.293386,-0.976512,-0.419778,0.262130,0.868950
-0.816236,-0.286247,0.389655,-0.393143,0.068615,-0.916914
0.197846,0.000569,0.702844,-0.499274,0.214937,0.839362
-0.098653,0.227431,0.683477,-0.804229,0.097865,-0.586207
-0.047953,0.721334,0.780968,0.885827,0.449245,-0.116145
-0.110333,-0.486258,-0.995861,-0.144879,0.116937,0.982515
0.128804,-0.268178,0.203982,0.048859,-0.544313,0.837458
0.693162,-0.021796,0.660701,-0.417870,0.411044,0.810202
0.077844,-0.297871,-0.153261,0.780428,0.573797,0.248372
0.035839,-0.242340,-0.991459,0.371829,-0.150796,-0.915972
-0.107824,0.067407,0.632231,-0.747300,0.632462,0.203801
0.158999,-0.434077,-0.577333,0.974183,-0.206452,0.091348
-0.100123,0.268936,0.646691,-0.350087,0.885272,0.306157
-0.128416,0.453408,0.757967,-0.291323,-0.911472,0.290430
-0.220558,0.285551,0.874451,0.313484,-0.949532,-0.010774
-0.363702,-0.418535,0.897601,0.529772,0.801444,0.277542
0.006034,-0.117569,0.428483,0.712301,-0.701601,0.019586
-0.190968,-0.362563,0.613950,0.330283,0.895626,-0.297940
0.637401,0.460800,0.515785,0.304540,-0.084570,-0.948738
0.137715,-0.007328,-0.146312,-0.678212,-0.318828,0.662101
0.455366,-0.181440,0.759653,0.261528,-0.724600,0.637619
-0.212424,-0.337987,0.527548,0.417192,0.908407,-0.027362
-0.098263,0.707877,0.752536,-0.211597,-0.433132,-0.876141
0.082603,-0.527954,-0.964600,-0.343504,0.223670,0.912128
0.435251,-0.461053,-0.925079,-0.374004,0.123009,0.919233
0.087794,0.465159,0.614924,0.152888,-0.361014,-0.919943
-0.086367,0.366415,0.440339,0.725698,0.158233,0.669570
-0.483183,-0.638133,0.871735,-0.370235,-0.696540,0.614620
-0.239851,-0.084718,0.947536,-0.708113,-0.697722,0.108446
-0.149569,-0.292501,0.960816,-0.641634,0.124351,0.756863
0.410421,0.305895,0.573755,-0.629851,0.708954,-0.317290
0.027447,-0.356434,0.207279,-0.514078,0.825074,-0.234473
-0.198149,0.046308,0.888068,0.907998,0.395014,0.139657
-0.191011,0.031271,0.686773,-0.192009,-0.965304,-0.176978
-0.658036,-0.373176,0.467817,0.011475,-0.101983,0.994720
0.053013,-0.024576,-0.694022,0.388067,-0.190881,0.901648
0.475310,-0.160338,0.747890,0.297077,-0.543802,0.784873
-0.708867,-0.301536,0.746654,0.851052,-0.520650,0.068077
0.378452,0.481269,0.547533,-0.330248,0.681040,0.653545
-0.028271,0.013266,0.437717,-0.752837,0.429095,-0.499114
-0.436117,-0.553793,0.622566,0.922247,-0.300994,-0.242617
-0.518569,-0.039359,0.558415,-0.743650,0.589458,0.315476
0.071010,-0.426812,-0.021418,0.657475,-0.745908,0.106528
-0.656955,-0.181629,0.817473,0.359344,-0.491771,-0.793116
0.069798,0.441532,0.599509,0.364911,-0.611473,-0.702098
0.131832,-0.343989,-0.587410,0.165803,-0.986153,0.003434
-0.019705,0.507424,0.868757,-0.551314,0.393996,-0.735405
-0.334501,-0.552277,0.883235,-0.310618,0.803283,0.508186
-0.073736,0.372608,0.860160,-0.529728,0.382847,-0.756846
0.326930,0.037462,-0.370869,-0.418368,0.289275,-0.860981
-0.341294,0.093373,0.594658,-0.333518,-0.475347,0.814132
0.098695,-0.642492,-0.958081,0.256994,-0.204098,-0.944615
0.083166,0.308484,0.627230,0.234911,0.475227,0.847924
-0.287826,0.051046,0.906068,0.775613,-0.624212,-0.093719
-0.464409,-0.479310,0.879808,0.021804,-0.038807,0.999009
-0.568706,-0.436099,0.458152,0.092473,-0.267713,0.959051
0.208011,0.067218,-0.117130,0.301677,-0.268969,0.914684
-0.085069,-0.042328,0.938733,0.152858,0.418276,0.895366
-0.342678,-0.317960,0.748677,0.967006,-0.052394,-0.249309
0.032162,-0.373365,0.166353,0.396568,-0.898774,0.186920
0.013043,-0.444185,0.205331,-0.741968,0.367665,-0.560630
-0.449614,-0.398319,0.844127,0.340067,0.691310,0.637531
0.467133,-0.548865,-0.917193,0.306448,-0.126790,-0.943405
-0.022907,-0.150357,-0.052623,-0.544986,-0.823246,0.158920
0.116042,-0.017309,0.546390,0.706989,0.401675,0.582086
0.877359,0.005244,0.611534,-0.356380,-0.428770,0.830150
-0.327408,-0.350116,0.605671,0.330777,0.842233,0.425712
0.230593,0.336597,0.827400,-0.645841,-0.452699,0.614779
-0.102114,-0.289280,0.119827,0.172578,-0.674849,0.717493
0.008802,0.041000,-0.035896,-0.695324,-0.408936,-0.591012
-0.854866,-0.196537,0.756169,-0.420066,0.796766,0.434405
0.400342,-0.559985,-0.350940,0.756060,0.645485,-0.108266
-0.302794,-0.168993,0.672707,-0.045991,-0.657908,0.751693
-0.368547,0.114536,0.928076,-0.749638,-0.117176,0.651393
-0.195164,-0.111314,0.938227,0.373572,-0.927472,-0.015473
-0.116043,0.210879,0.767819,0.067045,-0.995485,-0.067190
-0.390133,0.267484,0.719420,0.973429,-0.142532,0.179222
0.136288,0.328448,-0.072758,-0.545275,-0.304593,0.780960
0.580473,0.377408,0.528690,-0.093199,0.917240,0.387280
-0.424481,0.194769,0.760665,-0.068916,-0.994908,0.073542
-0.094586,-0.606355,-0.983480,0.128347,-0.065292,0.989578
-0.348042,0.052057,0.932309,-0.434581,-0.399986,0.806939
0.110634,-0.354791,-0.289879,-0.100515,-0.948254,-0.301182
0.263599,-0.039990,-0.379897,0.510096,-0.159317,-0.845234
0.131702,-0.403879,-0.170024,0.705119,-0.706611,-0.059226
0.705664,0.235264,0.611365,-0.153537,0.233674,0.960116
-0.261307,-0.182070,0.632999,-0.649911,0.708422,-0.275236
0.328790,-0.472929,-0.939145,-0.079542,-0.004696,0.996820
0.296173,0.266219,0.846449,0.428937,0.777803,-0.459386
0.424350,-0.247836,0.745062,-0.193762,0.836471,-0.512613
0.085415,-0.368438,-0.040635,-0.801404,-0.576492,-0.159403
-0.013519,0.307537,0.824966,0.738174,-0.062928,-0.671669
0.640992,0.385369,0.523333,-0.198930,0.701249,0.684600
-0.579998,0.149220,0.791701,0.905092,0.307357,-0.293837
-0.075725,-0.010425,-0.198120,-0.391556,-0.611322,0.687727
-0.533666,-0.480889,0.463340,-0.208781,-0.386555,0.898324
0.036878,0.599595,0.873102,0.783683,-0.607359,-0.130216
-0.095019,0.753995,0.595670,-0.191281,-0.210124,0.958780
0.032250,-0.142208,-0.577501,0.668468,0.670278,0.322301
-0.046872,-0.117507,0.480235,0.921054,-0.337740,0.193883
-0.645622,-0.580075,0.399076,-0.306471,0.761327,0.571364
0.284839,-0.222314,0.742402,0.482014,0.806100,-0.343315
0.290463,-0.331228,-0.943603,-0.244345,0.095912,0.964933
0.438929,0.301661,0.887806,-0.566026,-0.233945,0.790496
-0.009064,-0.310695,0.320615,0.864625,-0.016579,0.502144
-0.053275,-0.361298,0.354873,0.142770,-0.967069,0.210699
-0.601627,-0.536672,0.879733,-0.385971,0.589458,0.709624
-0.511129,-0.326489,0.648714,-0.339507,0.299780,0.891553
-0.668895,0.013835,0.630864,0.726881,-0.255807,0.637343
-0.427985,-0.013646,0.907810,-0.359035,0.118567,0.925762
0.154239,-0.346389,-0.654183,0.786826,-0.616892,0.018691
0.523500,-0.002653,0.811967,-0.550358,0.677694,0.487685
0.147276,0.352327,0.776885,-0.410909,0.911676,-0.000576
-0.150781,0.761260,0.759709,0.488638,0.197097,0.849933
0.154629,-0.524480,0.237322,0.886017,0.413205,-0.210324
0.018406,0.228061,0.460437,0.045818,-0.510915,0.858409
0.152077,0.048139,0.730153,-0.240292,0.963359,-0.119158
0.447797,-0.556826,-0.920790,0.332785,-0.122142,-0.935059
-0.754376,-0.310759,0.755289,-0.209868,0.762007,0.612618
0.119070,-0.295723,0.208421,0.151506,-0.646193,0.747984
0.192481,-0.065007,0.723054,0.617900,0.761900,0.194184
-0.587828,-0.233622,0.709194,-0.702755,0.122943,-0.700729
0.004217,0.672690,0.797750,0.769420,0.260796,-0.583076
0.133908,-0.642617,-0.220671,0.702485,-0.206739,-0.681010
0.096099,-0.361235,-0.970462,0.437181,-0.079852,-0.895822
0.150779,-0.425295,-0.278510,0.257392,0.610282,0.749203
0.120022,-0.169689,0.529626,-0.559343,0.313025,0.767562
0.236043,-0.084022,0.111923,-0.677767,0.471111,0.564523
0.390132,-0.254785,-0.939014,-0.265555,0.109614,0.957844
-0.814246,-0.542106,0.793386,0.761997,-0.463016,-0.452744
0.151169,-0.189020,0.532885,0.532515,-0.347327,-0.771876
-0.024032,0.405269,0.608088,0.190088,0.549478,0.813597
-0.243312,0.282329,0.587222,0.490500,-0.311818,0.813744
-0.019056,0.649061,0.867839,-0.475857,0.661877,-0.579205
-0.907297,-0.514056,0.472462,0.021028,-0.968343,0.248737
-0.108732,0.629856,0.845850,-0.370255,0.928137,0.038381
0.344581,-0.166467,-0.943547,0.355150,-0.014263,-0.934700
0.332900,-0.350369,-0.647571,0.538658,0.789496,0.294183
-0.150650,0.019395,0.803913,-0.242813,0.859671,-0.449453
0.039776,-0.132163,0.608294,0.741967,-0.651521,-0.158129
-0.892025,-0.325163,0.736821,-0.327459,0.813528,0.480565
0.068500,-0.189209,-0.042209,0.357108,0.096707,0.929043
0.479766,0.384484,0.575741,0.306169,0.075241,0.948999
0.218393,-0.342725,-0.716255,0.330382,0.843986,0.422534
-0.883936,-0.038979,0.772877,0.369410,0.500441,-0.783004
0.064780,0.252953,0.618783,0.522941,0.738382,-0.425823
0.800012,-0.150989,0.554575,0.961836,-0.175261,-0.210129
-0.191834,0.605217,0.842385,-0.660294,0.623464,-0.418694
0.108991,-0.477099,0.223855,0.547077,0.287443,-0.786183
0.300153,0.269948,-0.087218,0.069270,-0.586235,0.807174
0.117729,-0.515573,-0.585967,-0.188523,-0.126652,0.973868
-0.276448,-0.143659,0.804456,-0.602520,-0.795012,-0.070186
-0.931262,-0.366858,0.746505,0.295023,0.398261,0.868533
0.288776,-0.127993,-0.485086,0.488459,-0.003111,-0.872581
0.285748,0.020153,-0.029266,0.714649,-0.201915,0.669707
-0.053448,-0.158065,0.498328,0.905466,-0.302048,0.298157
0.301580,0.673573,0.550661,0.207798,0.403931,0.890876
0.000972,-0.032156,-0.063917,0.746500,0.396591,0.534279
0.186294,0.182830,-0.100067,0.318356,0.554384,-0.768966
-0.155755,-0.421441,0.312786,0.862258,0.126419,0.490439
0.057512,-0.180366,0.321458,-0.828155,0.420805,0.370247
-0.682824,-0.411901,0.370007,0.237604,0.536019,0.810079
-0.037442,0.258134,0.667519,0.845789,-0.249361,-0.471657
-0.160081,-0.396235,0.319342,0.846598,-0.310532,0.432252
0.359374,-0.344620,-0.938246,-0.158608,-0.000542,0.987341
0.504336,0.339883,0.576153,-0.184626,0.503977,0.843753
0.285099,-0.237223,0.724852,-0.236108,-0.957207,0.167354
-0.332555,-0.587214,0.844164,-0.698268,0.656770,-0.284737
-0.014125,0.042390,0.903895,-0.187570,0.695356,-0.693756
0.703069,0.040306,0.660439,-0.487926,0.301776,0.819060
0.131832,0.470087,0.732344,0.715692,-0.625224,-0.311254
0.130231,0.761956,0.571470,0.754895,-0.650895,0.080428
0.074946,-0.093184,-0.445116,-0.549578,-0.351150,0.758062
0.665823,0.154969,0.602656,0.354978,-0.211527,0.910630
0.162762,-0.062229,0.745999,-0.605631,-0.605243,-0.516615
-0.641252,-0.357383,0.840905,-0.132236,0.688785,0.712804
0.156922,-0.338304,-0.693030,0.904519,-0.383325,0.186837
-0.062704,0.402614,0.411101,-0.183130,-0.981986,-0.046557
-0.088271,0.093625,0.594134,-0.484416,0.838462,-0.249645
0.163887,-0.260472,-0.963888,0.600990,-0.109158,-0.791768
0.256115,0.336281,0.842872,0.759927,0.631983,-0.152018
0.321869,-0.388527,0.743152,-0.510547,-0.458086,0.727667
-0.508360,0.136331,0.928413,0.372413,-0.667555,0.644731
0.259533,-0.360161,0.584132,0.302527,-0.311742,-0.900719
-0.017325,-0.142776,0.073001,0.468647,0.780989,0.412827
-0.516709,-0.512352,0.871079,-0.523930,0.529857,0.666895
-0.081522,-0.242972,0.325335,-0.050463,0.113350,0.992273
-0.750049,-0.133868,0.780238,-0.576349,0.033073,0.816534
0.286960,-0.081369,-0.957314,0.271080,-0.258498,-0.927197
0.004607,0.451954,0.772221,0.913327,-0.405402,-0.038515
-0.103758,-0.607619,-0.982431,0.128347,-0.065292,0.989578
-0.330695,0.206266,0.593178,0.164019,0.189059,-0.968171
0.201176,-0.292374,-0.721556,-0.465250,-0.766628,-0.442520
0.096445,0.416135,0.851113,0.114032,-0.169518,0.978908
-0.075077,0.259460,0.450828,-0.100650,0.341009,0.934656
-0.789328,-0.404068,0.785969,-0.724563,-0.655167,0.213924
-0.249238,-0.559478,0.970013,-0.629804,0.519705,0.577281
-0.137456,-0.028935,0.765029,-0.271176,0.514774,-0.813309
-0.508620,-0.330723,0.553976,0.053199,0.808305,0.586356
0.124521,-0.256302,-0.043557,-0.481229,-0.165870,-0.860759
0.130708,-0.036641,0.698274,-0.430270,0.287107,0.855826
0.337009,0.171709,-0.486210,-0.360463,0.017337,0.932612
-0.230852,-0.361994,0.708145,0.800536,-0.524715,0.289512
0.162459,0.362752,0.797544,0.792860,-0.609338,0.008946
0.152552,-0.301788,-0.564278,-0.684046,0.727137,0.057895
-0.272252,-0.409312,0.837159,0.912908,-0.387890,-0.127045
0.452641,0.113589,0.792487,0.912666,-0.408410,-0.015575
0.115090,0.147388,-0.986346,-0.321464,0.127019,0.938364
-0.321307,-0.309432,0.857444,0.405573,0.457926,-0.791084
-0.698052,-0.477984,0.850008,0.523496,0.523625,-0.672138
-0.013779,-0.419293,-0.982843,-0.317941,0.382630,0.867472
-0.407091,-0.176512,0.571695,0.905814,0.167548,-0.389139
-0.256462,-0.086866,0.924217,0.963671,-0.265665,-0.027584
0.157355,0.531176,0.581229,-0.477982,0.878162,-0.019098
-0.256375,-0.078589,0.932646,0.882201,-0.440589,0.166142
0.083987,0.249795,0.624645,-0.130317,0.833527,0.536890
-0.311315,0.214290,0.810525,0.845876,0.266375,0.462101
0.018277,-0.378357,0.506064,0.054220,-0.953533,0.296370
0.510263,0.608061,0.521123,0.766881,0.514389,0.383794
-0.053275,0.825320,0.752685,0.136273,0.009009,0.990630
0.216966,-0.373365,0.715899,-0.599036,0.605921,0.523465
0.792918,0.219154,0.616348,-0.584767,0.761336,-0.280027
-0.109684,0.535346,0.765235,0.167863,0.381755,-0.908892
0.220815,-0.014151,-0.969151,-0.275154,-0.046314,0.960284
0.176173,-0.212458,-0.963326,-0.480456,0.191067,0.855953
0.455799,0.107271,0.774057,0.804193,0.041710,0.592902
-0.087017,-0.431740,0.245563,0.933768,-0.282948,0.219130
0.805809,0.066902,0.569840,-0.131875,0.124254,0.983448
-0.274978,-0.540968,0.922981,-0.724681,0.580618,0.371107
0.436809,0.011182,0.769730,-0.526721,-0.317745,0.788418
-0.177341,-0.254912,0.932871,0.554063,-0.028386,-0.831991
-0.069151,-0.146692,0.517002,0.936763,-0.064530,0.343963
-0.498800,-0.209931,0.867390,0.507815,0.110758,0.854316
-0.044060,0.826710,0.602806,-0.015554,0.025934,0.999543
-0.029654,0.496683,0.795896,0.977325,0.199046,0.072227
0.090648,-0.369006,0.151556,0.133853,-0.976424,0.169352
-0.728203,-0.273233,0.780631,0.861172,-0.488336,0.141104
0.172236,-0.265145,-0.856357,0.055502,0.979519,0.193549
0.506197,0.070756,0.781399,-0.262346,0.258627,0.929670
-0.244306,0.086866,0.950046,0.114089,0.436006,0.892683
-0.348388,-0.290542,0.905581,0.309332,0.945528,-0.101439
-0.012265,0.472676,0.778683,0.983126,-0.126453,0.132188
0.042891,-0.084466,0.466262,-0.729945,0.361985,-0.579782
0.175221,-0.578432,-0.244215,0.740369,-0.260266,-0.619770
-0.166267,0.266030,0.865554,0.491887,-0.023303,0.870347
0.415698,-0.473625,-0.929949,0.422606,-0.174176,-0.889419
-0.514892,-0.078275,0.655138,0.177760,0.982135,-0.061744
-0.769646,-0.144228,0.772277,0.249817,-0.179298,0.951548
0.058031,0.383663,0.412338,0.996715,-0.080419,-0.009558
-0.050721,-0.240319,0.661544,0.659927,-0.704084,-0.262225
0.130664,-0.315118,-0.484693,0.951125,-0.289113,0.108509
-0.069928,-0.352644,0.591137,-0.246449,0.943751,0.220446
-0.287220,0.068861,0.916126,-0.771525,0.390650,-0.502137
-0.165921,-0.397561,0.326328,0.859263,-0.340929,0.381360
0.215408,0.378357,-0.039362,-0.224717,-0.630678,0.742797
-0.479938,0.015919,0.925510,0.275046,0.960498,0.042360
-0.013346,-0.170574,-0.323406,0.880239,0.343330,0.327574
0.287089,-0.353845,-0.945307,-0.278332,0.230381,0.932446
0.046612,0.471161,0.866303,-0.032600,-0.441440,0.896698
0.425388,-0.635289,-0.700278,0.700335,0.612791,0.366085
0.061449,-0.305451,-0.981363,0.290314,-0.033431,-0.956347
0.102977,-0.337671,-0.004373,0.682279,-0.716719,0.144254
-0.189324,-0.330912,0.465588,-0.233170,-0.963526,0.131337
-0.050506,-0.402869,0.211100,0.351812,-0.935500,0.032676
-0.506803,0.053003,0.872447,-0.183701,0.906326,-0.380561
-0.522549,-0.412281,0.462703,-0.265786,-0.246255,0.932049
-0.360673,0.143470,0.945607,-0.160212,-0.260553,0.952074
-0.625896,-0.544760,0.855964,-0.303332,-0.900335,-0.312069
0.397919,-0.116242,0.779732,-0.526882,0.521556,0.671099
-0.008891,0.230464,-0.066783,0.242805,-0.847527,0.471958
0.512252,0.649440,0.483400,-0.191829,0.497825,0.845797
-0.204551,0.043780,0.899100,-0.273156,-0.961500,0.030056
0.313520,-0.329206,0.762743,-0.481361,-0.370337,0.794445
0.058335,0.048392,0.070360,-0.276812,-0.243338,0.929603
0.022170,-0.019143,-0.304489,0.675923,-0.159329,0.719543
-0.282158,0.400530,0.899643,0.717132,0.226806,0.658999
0.764756,0.197295,0.612246,-0.358555,0.930849,-0.070420
0.310708,-0.011687,-0.485573,-0.598093,0.111871,0.793580
0.105011,0.718554,0.847610,0.925304,-0.239468,-0.294053
0.525749,0.423716,0.582371,-0.257813,0.124043,0.958199
-0.136591,-0.046497,0.709156,0.202375,-0.414706,0.887166
0.526918,0.271652,0.877317,0.882577,0.468825,-0.035518
0.156316,0.250994,0.822531,-0.195043,0.743481,0.639683
0.268098,0.071452,0.724740,-0.140338,-0.955067,-0.261061
-0.717995,-0.410513,0.870387,-0.116016,-0.709127,0.695470
-0.852184,-0.083897,0.749576,-0.056153,-0.276659,0.959326
-0.494994,-0.694610,0.838152,0.964310,-0.262878,0.031657
0.164752,-0.100828,-0.808239,0.969973,0.242068,-0.023550
0.196461,0.413671,0.836241,0.964672,-0.038183,-0.260671
-0.322347,-0.321750,0.756207,-0.063188,0.943465,0.325393
-0.306254,0.113462,0.597599,0.500569,-0.154642,0.851772
-0.045876,-0.190915,0.666226,0.357749,-0.933518,-0.023668
-0.727597,-0.626760,0.826558,-0.357336,0.848785,0.389711
0.117167,-0.350432,-0.075979,0.190094,-0.981722,0.009307
-0.001536,0.083139,0.466693,0.826710,0.154283,0.541062
-0.055220,-0.498262,0.296978,0.255454,-0.761641,-0.595521
0.117600,-0.207911,0.124996,0.096703,-0.871149,0.481402
0.089871,-0.240192,-0.978816,0.351247,0.089025,-0.932041
-0.282029,-0.472613,0.901010,0.367480,0.928097,0.059956
-0.682609,-0.620569,0.429869,0.021363,0.889644,0.456155
0.007894,-0.490997,0.209863,0.806236,-0.305736,0.506467
-0.262692,-0.502874,0.932046,0.660432,0.426713,-0.617856
-0.042806,0.122055,0.902059,0.472025,-0.818600,-0.327240
0.318019,0.331669,0.897339,0.237776,0.956442,-0.169353
-0.274372,-0.194453,-0.663679,0.484728,-0.103342,0.868538
-0.065214,0.192683,0.814252,0.960806,-0.273117,0.047538
0.172019,0.015478,0.141666,-0.228779,0.420791,-0.877836
-0.034759,-0.057742,0.491098,0.954710,-0.228816,-0.190191
-0.018321,0.292690,0.689789,-0.694757,0.628029,-0.350560
-0.232800,-0.145177,0.651898,0.774294,-0.628711,-0.072051
0.031125,-0.144735,-0.175044,-0.568054,-0.798100,0.200874
-0.413537,0.138606,0.549293,-0.293391,0.036639,0.955290
0.164017,-0.048771,0.135691,-0.477559,0.564733,-0.673063
-0.001017,0.539073,0.588440,0.488799,0.133151,-0.862175
0.159605,-0.312402,0.575947,-0.026418,-0.991106,0.130429
-0.555642,0.135448,0.957819,0.682212,0.423854,0.595764
-0.214457,-0.184220,0.789003,0.826940,0.548527,0.123645
-0.227868,-0.332807,0.917118,-0.274831,0.061914,-0.959497
-0.441049,0.014215,0.872934,0.302400,0.932099,-0.199363
-0.706963,-0.201845,0.808015,-0.104422,0.648556,0.753970
-0.233492,-0.288584,0.503348,-0.284932,-0.954683,0.085987
-0.051154,-0.142838,0.104543,0.988799,0.015357,0.148463
-0.005689,0.629160,0.847947,0.832545,0.110474,-0.542830
0.002401,0.271211,0.424213,0.559267,0.275110,0.782007
-0.224710,-0.117252,0.666320,0.829272,-0.535335,0.160387
-0.045920,0.267737,0.820171,0.829022,-0.009237,-0.559139
0.020873,-0.178659,0.314622,-0.471996,-0.174707,0.864116
0.146107,0.131278,-0.735510,0.307803,0.730611,0.609479
-0.310276,0.136522,0.570796,0.369503,-0.736776,0.566241
0.444422,0.170383,0.787374,-0.622295,-0.708527,0.332774
-0.624900,-0.124708,0.804831,0.037286,-0.630137,0.775588
-0.097269,0.638258,0.847573,-0.430984,0.884750,0.177399
0.095668,-0.338682,0.044119,0.707355,-0.691914,0.144579
-0.496637,-0.674901,0.853117,-0.705563,-0.052638,-0.706690
-0.039258,-0.164381,0.584300,-0.712244,-0.585414,0.387297
0.298899,0.654873,0.556448,0.207798,0.403931,0.890876
0.112625,0.490301,0.593328,0.244719,-0.897511,0.366860
0.143425,0.386568,0.876511,-0.534209,0.841238,0.083304
0.094845,0.670920,0.592972,0.790640,-0.575562,-0.208847
