-0.005638,0.259159,0.751931,0.890363,-0.289029,0.351733
0.329528,0.383762,0.482846,-0.092083,-0.100689,0.990647
0.486230,-0.027870,0.532052,-0.609279,-0.082522,0.788650
0.478481,-0.507286,0.410618,-0.353793,0.077987,0.932067
0.365491,-0.218833,-0.986699,-0.350632,0.204611,0.913888
0.247025,0.453706,0.506201,0.730667,0.212737,-0.648744
-0.252686,0.446452,0.496129,0.884141,-0.446277,0.138318
-0.266514,-0.135030,0.414301,-0.060653,-0.634788,0.770302
0.351663,0.190467,0.433938,0.568754,0.311364,0.761296
0.824830,-0.517864,0.189394,-0.635891,-0.697355,0.330666
0.635786,-0.434147,0.532261,-0.239739,0.151045,0.959015
0.000070,0.332686,0.213465,-0.069780,0.064037,0.995505
0.833879,-0.521404,0.226050,0.907117,0.245936,0.341546
0.257743,-0.090473,-0.119906,-0.808547,-0.573046,-0.133677
-0.344517,-0.357468,0.503268,-0.491698,-0.806694,0.327839
-0.332128,0.688405,0.130729,-0.246497,0.676783,0.693688
0.156957,0.535609,0.410984,0.012929,0.230728,0.972932
0.839354,-0.386050,0.419834,-0.154838,-0.463852,0.872277
-0.340480,0.496751,0.187387,-0.239516,0.147994,-0.959547
-0.359597,-0.336744,0.600998,0.006775,0.415639,0.909505
0.241874,-0.148932,0.648755,-0.565302,0.803325,0.187359
0.030556,-0.614619,0.682181,0.480053,0.866973,-0.133817
0.172456,0.002267,0.629572,0.219131,-0.887154,-0.406127
0.274773,-0.087883,0.006013,0.100097,0.983156,0.152918
0.073665,-0.691687,0.554848,0.969384,-0.067183,0.236179
0.504002,-0.239946,0.638142,0.864628,-0.341240,0.368747
0.433285,0.335881,0.515923,0.750687,-0.061270,-0.657810
0.317603,0.906742,0.404142,-0.101489,-0.655296,0.748523
0.203267,-0.124884,0.286653,0.810109,-0.585588,-0.028449
-0.059280,-0.264858,0.862962,-0.442942,0.888054,0.123138
0.203082,-0.165296,0.287404,0.773350,-0.633671,-0.019763
0.248184,0.190985,0.519065,0.136380,-0.900490,-0.412939
0.507946,0.434968,0.156474,-0.422433,0.681166,0.597966
0.401916,-0.395549,0.707718,-0.455130,-0.467061,0.758096
-0.166702,-0.189906,0.923582,0.281430,-0.958730,-0.040435
0.630821,-0.221121,0.483038,0.906666,0.255575,-0.335616
0.046844,-0.246638,0.819429,-0.507264,-0.854082,0.115008
0.670031,0.403709,0.214163,-0.488382,0.756652,0.434696
0.255423,-0.312652,0.642838,0.227673,0.214231,0.949879
-0.255285,0.117458,0.517023,0.357160,-0.573736,0.737064
0.583444,-0.411653,-0.969995,-0.084867,0.133899,0.987354
-0.592214,-0.321028,0.694400,0.901626,0.240451,0.359520
-0.418715,-0.519504,0.308681,-0.012828,0.066299,0.997717
0.346048,-0.214256,0.999057,-0.322365,0.801001,0.504459
-0.570916,-0.478186,0.533518,0.003202,0.807106,0.590398
-0.529617,-0.322540,0.625453,-0.580442,-0.777963,-0.240543
-0.316258,-0.536861,0.425280,-0.380905,-0.841161,0.383875
-0.582470,-0.316236,0.660624,0.789900,0.554241,0.262441
-0.015847,0.204024,0.418246,0.900776,0.323308,-0.289956
-0.304981,0.195259,0.683246,0.515444,0.465554,-0.719428
-0.242570,-0.404874,0.545038,-0.284283,0.055271,0.957146
0.005035,0.102303,0.743919,0.651390,0.500743,0.570042
-0.182571,0.062151,0.805727,-0.344161,-0.229813,-0.910351
-0.229067,0.366621,0.476213,0.325663,-0.899861,0.290163
0.326187,0.219610,0.492569,-0.071075,0.330665,0.941068
0.559360,-0.363297,-0.970361,-0.134701,0.034411,0.990289
-0.141227,-0.062280,0.589269,0.096482,0.272321,0.957357
0.504884,0.189733,0.647306,-0.677298,-0.168026,0.716265
0.320898,-0.090819,-0.166162,0.342680,0.936910,0.069067
0.007122,0.456728,0.535700,0.629066,0.534216,-0.564703
-0.305352,-0.540099,0.451427,-0.512292,-0.820182,0.254674
-0.016124,-0.429959,0.623987,-0.617579,0.749518,0.238367
0.404376,-0.314768,0.860797,0.208243,-0.896365,0.391363
0.292313,0.039397,0.889545,-0.114189,-0.815619,0.567210
-0.404422,-0.239255,0.416378,-0.348310,-0.320890,-0.880744
0.559175,0.600285,0.268308,0.902851,-0.355592,0.241691
0.214682,-0.162749,0.764638,-0.278612,0.959006,-0.051798
-0.559036,-0.253848,0.441740,-0.080095,0.741095,0.666606
0.869005,0.473696,0.222175,-0.450206,0.351112,0.820996
0.403633,0.694234,0.211178,0.229703,-0.218774,-0.948354
-0.261874,0.466529,0.295695,-0.309745,-0.171739,0.935181
-0.591286,-0.023379,0.429818,-0.257661,0.965179,0.045169
0.246328,-0.255359,0.699409,0.593582,0.786705,0.169575
0.362613,0.482978,0.248601,-0.653215,0.574935,0.492707
0.148558,0.095309,0.597089,-0.149149,0.546282,0.824215
-0.078305,-0.071260,0.852419,0.003706,0.226676,0.973963
0.462518,0.040649,0.653032,-0.580665,0.557951,0.592890
0.185077,0.572178,0.424529,0.029126,0.379054,0.924916
-0.324145,0.132137,0.756696,0.839271,0.000042,-0.543713
0.139417,-0.342702,0.903178,-0.266152,0.743904,0.613001
0.175100,-0.264469,0.738735,0.128759,-0.119396,0.984462
-0.256583,0.433586,0.434863,0.661187,0.715478,-0.225662
0.069442,-0.522311,0.736972,-0.162276,-0.719609,0.675151
-0.456579,0.047385,0.423377,-0.220151,0.881399,-0.417935
-0.313983,-0.156574,0.853292,-0.057813,0.996549,0.059559
0.024709,-0.633573,0.498975,0.131937,-0.644156,0.753429
-0.055660,0.023163,0.974167,-0.411272,-0.665092,0.623304
0.246189,0.229195,0.486843,0.198972,0.115595,0.973164
-0.564790,0.098936,0.508296,0.664468,-0.415434,0.621206
0.328600,-0.273234,0.696861,0.201974,-0.978861,-0.032219
0.541311,-0.634609,0.426415,0.722706,-0.484041,0.493356
-0.374122,-0.065993,0.853484,0.942814,0.012310,-0.333091
0.228417,-0.057876,0.051902,-0.462408,-0.869207,0.175093
0.009861,-0.125402,0.802899,0.193563,-0.108910,-0.975024
0.290458,-0.246422,0.679947,0.346566,0.653608,0.672821
0.596390,-0.689830,0.383825,0.773896,0.624003,0.108191
0.014686,-0.696479,0.655493,-0.686889,0.021260,-0.726451
-0.054407,-0.230965,0.877641,-0.742943,0.290685,-0.602940
-0.235656,0.289467,0.207094,0.094834,-0.102954,0.990155
0.202199,-0.489843,0.718487,0.133111,0.798051,0.587704
0.233614,-0.220776,0.741563,0.840930,-0.103296,-0.531194
-0.103965,0.070786,0.716672,0.868643,0.492152,0.056975
0.427577,0.485137,0.373072,0.494174,0.126499,-0.860111
0.009582,0.559657,0.203044,-0.332908,0.270454,0.903342
-0.364423,-0.592254,0.371170,-0.114355,-0.785491,0.608216
0.910443,0.569199,0.218038,-0.269197,0.314422,0.910314
-0.466510,-0.400212,0.454849,0.127106,0.349237,0.928374
-0.355468,-0.559830,0.680715,-0.602757,-0.039531,0.796945
-0.082573,-0.153207,0.697699,-0.517909,-0.728515,0.448371
-0.502657,0.092071,0.346314,0.491763,-0.016853,0.870566
-0.022621,0.057401,0.134604,0.075065,-0.920382,0.383747
0.305028,-0.128986,-0.142423,-0.807142,-0.561431,-0.182529
0.570498,-0.289165,-0.970431,0.079904,0.137018,0.987341
-0.424793,-0.460052,0.452283,-0.089726,0.375719,0.922380
0.233382,-0.146644,0.828715,0.746388,-0.649512,0.145051
-0.113338,-0.304924,0.762142,-0.387612,-0.446489,0.806477
0.698012,-0.236837,0.538073,0.797577,-0.316644,-0.513427
0.082898,-0.692507,0.649244,-0.741486,0.516962,0.427725
-0.101042,0.072340,0.144797,-0.102000,0.853517,-0.510984
0.436997,0.070483,0.520130,-0.365084,0.077052,0.927781
-0.513608,-0.251603,0.434479,0.234485,-0.091255,0.967827
-0.203638,-0.206873,0.787591,0.912522,-0.357955,0.197918
-0.426743,0.340544,0.200688,0.209064,-0.579700,-0.787553
0.257558,-0.049500,0.989632,0.399625,0.374179,-0.836833
-0.130323,0.001403,0.837285,0.956664,-0.256568,-0.137722
0.209856,-0.155020,0.943970,0.489985,0.437614,-0.753929
0.743532,-0.218488,0.681884,0.232496,-0.787242,-0.571135
0.617410,0.171945,0.668915,0.387846,0.491544,-0.779718
-0.128929,-0.071822,0.827755,0.937522,-0.323780,-0.127355
0.321176,-0.095827,0.661218,-0.430036,-0.585873,-0.686893
-0.117375,-0.235196,0.510303,0.496575,-0.781465,0.377791
0.347579,0.007750,0.864917,-0.622427,-0.728353,0.286506
0.038305,-0.419165,0.858790,0.807223,-0.580677,0.105854
0.432635,-0.190553,0.684223,0.025987,0.377866,0.925495
-0.399458,-0.037843,0.710231,-0.264670,0.537168,0.800875
0.600474,0.725018,0.216031,-0.343830,0.493901,0.798650
-0.362799,0.368176,0.200845,-0.196373,0.683305,0.703230
0.266653,0.221942,0.585952,0.976709,0.046912,-0.209377
0.490453,-0.451978,-0.969192,-0.028611,0.147673,0.988622
0.370780,-0.384841,0.710126,0.430166,0.406833,-0.805881
-0.237466,0.399046,0.300303,0.234619,0.490766,0.839108
0.039511,0.466399,0.485203,-0.317542,-0.491506,-0.810919
-0.163825,-0.285539,0.500144,-0.677279,0.529768,-0.510528
0.177282,0.722945,0.164155,-0.093233,0.167993,0.981369
-0.099603,-0.181875,0.919289,0.643964,0.765024,0.006992
0.544837,0.802301,0.415261,0.639558,-0.340748,0.689098
0.120253,-0.278371,0.966993,-0.237931,-0.015189,0.971163
-0.389063,0.054206,0.349281,0.086869,0.010258,0.996167
-0.435837,-0.621613,0.656278,-0.515991,-0.384367,0.765516
0.343264,0.671308,0.412119,0.613941,-0.145278,0.775868
-0.735320,0.065086,0.393844,-0.683042,-0.007971,-0.730335
-0.018863,-0.476243,0.907978,-0.625251,-0.377588,-0.683000
0.017795,-0.150919,0.481118,-0.410597,0.893468,-0.182004
-0.731793,-0.071908,0.393128,-0.514290,0.272030,-0.813330
-0.047586,0.094748,0.861949,-0.284310,-0.725320,0.626960
-0.435513,-0.414114,0.494366,-0.715734,0.156881,-0.680524
-0.302291,-0.145090,0.602465,0.288684,-0.699331,-0.653909
0.547945,0.824407,0.401855,-0.096326,-0.779765,0.618618
0.632910,-0.436306,0.484470,-0.710783,-0.112069,-0.694427
0.177188,0.128467,0.289568,-0.623567,0.740170,0.251618
0.528966,-0.362951,-0.972508,-0.069082,0.009193,0.997569
0.434074,0.214947,0.269163,0.021248,0.588085,0.808520
0.085172,0.072901,0.830530,0.070022,-0.980647,0.182835
0.595694,-0.232519,0.436434,0.692090,0.720608,-0.041658
0.056912,0.536084,0.600283,0.997092,-0.073769,-0.019120
-0.285770,-0.801438,0.641668,-0.333107,-0.687953,0.644795
-0.287998,0.076182,0.328999,-0.185498,0.084283,0.979023
-0.220251,-0.482158,0.522783,0.730258,0.593811,-0.337805
-0.499734,-0.289683,0.436381,0.126647,0.571399,0.810841
0.363449,-0.125186,-0.428038,-0.126264,0.991987,0.004361
0.291756,-0.129806,-0.221442,0.848498,-0.528172,-0.032950
0.288230,-0.198584,0.872614,0.802800,0.293942,0.518758
-0.799077,-0.001015,0.400285,0.302312,-0.055575,0.951587
-0.138767,-0.147767,0.924647,0.188837,-0.857449,0.478666
-0.341825,-0.216804,0.760309,0.847287,0.528622,-0.051611
-0.163407,0.550806,0.197773,-0.070508,0.533800,0.842666
0.488967,-0.227641,0.856800,0.938464,-0.183037,-0.292887
0.370733,0.236060,0.401960,0.112259,-0.253671,0.960754
-0.364052,-0.030978,0.682548,-0.586690,0.750868,-0.303302
0.725528,0.498262,0.188574,0.264265,-0.613160,-0.744445
0.243591,0.018630,0.857935,0.843761,0.528036,0.096156
-0.360526,0.188179,0.686021,0.519810,0.584996,-0.622557
-0.217049,0.157049,0.847305,0.953254,0.234130,-0.191021
0.483307,-0.011722,0.537655,-0.592422,0.028152,0.805136
-0.084198,0.062021,0.429783,0.164145,0.954926,0.247333
-0.294124,0.124193,0.772248,0.783325,0.050130,-0.619587
0.504699,-0.439155,-0.969873,-0.091577,0.170634,0.981070
-0.273521,-0.368003,0.529084,-0.012176,0.360601,0.932641
0.777639,-0.685988,0.419625,0.568710,-0.424946,0.704265
0.520800,-0.196296,0.833236,0.346189,-0.817851,-0.459645
0.881766,0.299916,0.263386,-0.177722,0.467626,0.865876
0.168280,-0.039527,0.280230,-0.600819,-0.655154,-0.458029
-0.103176,-0.367183,0.762544,0.751162,0.460428,0.473035
0.221689,0.622563,0.333677,0.129383,0.708252,0.694002
-0.573885,-0.284157,0.629677,0.620555,0.741541,0.255007
-0.267999,0.071735,0.420585,-0.189398,-0.942711,0.274635
0.276629,-0.140211,0.710406,-0.056837,0.998309,-0.012226
-0.361592,-0.159424,0.416570,-0.126068,-0.069212,-0.989604
-0.215703,0.014917,0.883593,0.886406,-0.441424,-0.139386
0.574952,-0.121732,0.838804,0.605534,-0.275378,-0.746656
0.428877,0.392526,0.414755,0.332716,-0.040196,-0.942170
-0.115612,-0.414718,0.836901,0.461632,0.122848,0.878524
0.784134,-0.642985,0.419729,0.855281,0.109454,0.506472
0.071158,0.535393,0.406080,0.295281,-0.276802,-0.914434
-0.096402,-0.829286,0.481781,-0.011388,0.454024,0.890917
0.620148,-0.529780,0.335998,-0.569444,0.765269,-0.300162
0.413934,0.447402,0.467748,-0.476865,-0.410830,-0.777057
0.131668,-0.055545,0.260506,-0.189379,-0.964505,0.184026
0.157978,-0.280530,0.838595,0.143091,-0.916331,-0.373981
0.036450,0.767114,0.268814,-0.063629,0.461174,0.885026
0.318716,-0.163137,0.720914,0.098126,0.916459,0.387911
0.265306,-0.072728,0.452859,-0.764245,0.641387,0.067473
0.863484,0.612504,0.200897,-0.487370,0.238048,0.840121
0.407113,-0.046262,0.907227,0.537697,-0.007793,-0.843102
0.436347,0.469853,0.472251,-0.330360,-0.693094,-0.640690
-0.329483,0.561039,0.195015,0.015671,0.553318,0.832822
-0.045870,0.322669,0.503687,0.865803,-0.436517,-0.244619
0.700146,-0.619325,0.402815,0.420378,-0.374933,-0.826261
0.166701,-0.078989,0.903736,0.878626,0.103987,0.466050
-0.069071,-0.401161,0.539470,0.249048,0.870809,0.423872
-0.226840,0.285193,0.591032,-0.731088,0.622013,-0.280376
0.666736,-0.560909,0.588064,-0.686855,-0.717292,0.117143
-0.259043,0.255834,0.779754,0.889352,-0.453128,-0.061063
-0.100903,0.007620,0.724370,0.949414,-0.308131,-0.060568
-0.375792,0.245083,0.442002,-0.847701,0.142393,-0.511006
-0.859540,-0.135419,0.420585,0.581729,0.421374,0.695727
-0.455001,-0.435701,0.453801,-0.456891,0.445308,0.770034
0.337927,-0.416014,0.681605,-0.499022,0.559341,0.661902
0.518201,0.845045,0.422540,0.320998,-0.221071,0.920917
0.559407,-0.384107,-0.971793,-0.108493,0.010125,0.994046
0.399596,-0.167411,0.904679,0.808754,-0.487091,0.329634
0.580474,-0.194784,0.414580,-0.262988,0.882718,0.389419
0.309204,-0.092546,0.162374,-0.390874,0.862363,0.321788
-0.377277,-0.067893,0.721141,-0.631088,0.751139,-0.193695
0.084012,-0.002353,0.883297,0.328026,0.121265,0.936853
0.498063,0.791767,0.419031,0.011032,-0.590027,0.807308
0.133987,0.253503,0.475166,-0.434765,0.736147,0.518716
0.026751,0.256870,0.881830,0.932174,0.216434,-0.290187
-0.292732,-0.189603,0.842278,0.110772,0.975890,0.188063
0.420896,0.739654,0.385919,0.121860,-0.395254,0.910453
0.573374,-0.202340,-0.977553,-0.012721,0.351383,0.936145
-0.035708,-0.209982,0.919236,-0.041558,-0.907110,0.418837
-0.322661,-0.519461,0.418595,0.496452,0.810248,-0.311502
-0.113756,0.240507,0.673890,-0.624344,-0.774260,-0.103522
-0.415049,0.128208,0.518960,-0.152453,-0.857292,0.491740
-0.022854,0.029208,0.564971,0.861425,0.382205,0.334465
-0.100068,-0.195259,0.505398,-0.556085,0.642786,-0.526873
0.227303,-0.299268,0.892460,0.950602,0.260350,-0.169039
0.293705,-0.047126,0.464693,-0.720132,0.687180,0.095885
-0.252733,-0.073203,0.312015,0.196146,-0.945939,0.258313
0.546321,-0.349697,0.614369,0.251413,0.271392,0.929052
0.293380,0.193316,0.261099,0.009263,0.527583,0.849453
0.768822,-0.772942,0.395135,-0.563964,0.183794,-0.805087
0.099928,0.526067,0.420218,-0.208951,0.591075,0.779083
-0.161923,0.053731,0.706705,-0.213464,-0.865083,-0.453944
0.413981,-0.129201,0.906843,-0.786236,0.348012,-0.510609
0.216492,-0.157308,0.726639,-0.547680,0.742877,0.384941
-0.402103,0.050062,0.807106,0.855239,-0.381303,-0.350961
0.216260,0.052523,0.875075,0.867984,0.492211,-0.065815
-0.101228,0.011247,0.879910,0.841275,0.346919,-0.414612
0.190320,-0.120351,0.201019,0.607829,0.777809,-0.159866
0.420292,-0.506120,-0.966870,-0.069725,0.135772,0.988283
-0.123361,0.077866,0.726325,0.401446,0.015177,0.915757
-0.350363,-0.425901,0.666105,-0.006179,0.823963,0.566609
-0.480383,-0.503832,0.503914,0.757411,0.301218,0.579307
0.399317,-0.173672,0.752839,0.743478,0.115433,-0.658722
0.003132,0.256741,0.746956,0.923727,-0.376416,0.070987
0.541124,-0.280703,0.606165,0.169120,-0.198490,0.965402
0.370827,-0.106621,0.775513,-0.138428,-0.643745,0.752615
0.426835,0.140816,0.389061,-0.355063,-0.098785,-0.929608
0.169764,-0.046823,0.914855,-0.765081,-0.486890,-0.421413
0.635924,0.872849,0.429906,0.036498,-0.455623,0.889424
0.489246,0.366708,0.175745,0.378036,-0.716633,-0.586111
-0.201690,0.679252,0.139194,0.144104,0.591200,0.793547
-0.286188,0.179889,0.701608,0.763090,0.240912,-0.599712
0.067910,0.247631,0.442805,-0.038783,0.528098,0.848298
-0.302523,0.215983,0.698833,0.511864,0.128653,-0.849378
0.522889,-0.382985,0.779161,0.879531,-0.014671,-0.475615
0.035429,0.115688,0.733603,-0.443134,-0.570064,-0.691853
0.069534,-0.001533,0.335684,0.970699,0.042745,0.236467
-0.657271,0.057963,0.541983,0.751958,-0.554212,0.356944
0.279831,0.080716,0.154572,0.789125,0.326575,-0.520221
0.266931,0.588110,0.316588,0.608388,0.779054,-0.151457
0.212129,-0.007923,0.754567,0.706365,0.514608,-0.486032
0.005777,0.754247,0.267959,0.100247,0.534768,0.839032
0.322893,-0.154027,0.690664,0.526408,-0.836241,0.153606
0.456114,0.689010,0.385012,0.640592,-0.007778,-0.767842
0.309622,0.952292,0.462389,-0.756086,-0.641883,0.127746
0.677780,0.046564,0.688971,0.865321,-0.073534,-0.495795
0.350085,0.894178,0.446784,0.756654,-0.562528,0.333222
-0.178813,0.728645,0.133347,0.484840,0.410785,0.772131
0.292685,0.065000,0.150418,0.043090,-0.606789,0.793694
-0.419643,-0.103124,0.763643,-0.130360,-0.978359,-0.160687
0.172641,-0.307212,0.951371,-0.378309,0.804891,0.457201
0.481265,-0.052350,0.631737,-0.596607,0.335324,0.729121
0.245957,0.457030,0.453836,-0.698223,0.483323,0.528094
0.212687,-0.138743,0.310811,0.029323,0.975838,0.216520
0.316350,-0.438508,0.683927,-0.347508,0.671001,0.654977
0.454491,0.714828,0.385116,0.221058,0.094340,-0.970687
-0.218116,0.058524,0.773732,-0.361931,-0.931693,-0.030889
0.153569,-0.066166,0.934300,0.844119,-0.191542,0.500774
0.354076,0.909289,0.363612,-0.803562,0.199721,-0.560714
-0.149393,-0.695011,0.481712,0.099022,-0.443195,0.890939
0.797545,-0.374134,0.716847,0.469594,-0.527082,-0.708284
0.573930,-0.030762,-0.993227,-0.094275,0.180904,0.978972
0.623953,-0.391749,0.469336,0.952109,0.260721,0.159726
0.537227,-0.193403,0.407284,0.084358,0.868552,0.488366
-0.463261,-0.003821,0.702219,-0.088424,0.434817,-0.896167
0.233011,0.447834,0.489287,0.901062,-0.120428,-0.416634
-0.426417,0.487727,0.194282,0.798343,0.190212,-0.571373
0.116586,-0.210284,0.664360,0.008309,0.993891,0.110050
-0.062574,0.366319,0.521875,-0.618071,0.201158,-0.759950
0.453980,-0.151825,-0.017673,0.346893,0.937505,-0.027400
0.390826,-0.218488,0.911294,-0.612271,-0.790432,0.018460
0.483538,-0.345120,-0.975092,-0.168895,0.016149,0.985502
-0.191667,-0.276990,0.816985,0.925095,0.274991,-0.261875
-0.135380,-0.334499,0.856573,0.921132,0.099198,0.376399
0.056402,-0.005937,0.372287,0.992590,0.057172,0.107225
0.575695,0.141377,0.649244,0.423632,0.303915,-0.853329
0.274170,-0.078773,-0.139211,-0.700919,-0.685355,-0.197488
0.341407,-0.039095,0.806495,-0.406275,-0.880692,0.243560
-0.377463,-0.020616,0.595884,0.543424,-0.177027,0.820580
-0.375374,0.367701,0.194282,-0.165902,0.463084,0.870649
0.700286,0.435788,0.204633,-0.481436,0.616254,0.623258
0.064662,0.007318,0.679790,0.994928,0.079172,0.062051
-0.024896,-0.005591,0.579599,0.466252,-0.879340,0.096804
-0.006056,-0.287870,0.932292,0.518670,-0.541392,-0.661722
0.199369,0.156229,0.598066,0.338979,0.189283,0.921556
0.228138,-0.104289,0.127063,0.859173,0.507214,-0.067499
0.398807,0.112622,0.576596,0.765370,0.287344,-0.575884
-0.180716,-0.793364,0.349630,0.403737,0.374854,-0.834555
0.585021,0.352935,0.458444,0.744744,0.167891,-0.645886
0.157653,-0.208298,0.638195,0.258851,0.965908,0.004241
0.417600,-0.147205,-0.030816,0.336012,0.939478,-0.066906
0.476486,0.037886,0.650029,0.003322,0.826743,0.562570
0.012459,-0.445589,0.871078,0.547509,0.786464,0.285846
-0.328415,-0.113227,0.586668,-0.104116,0.171383,0.979688
-0.132921,-0.704121,0.371240,0.540809,0.427888,-0.724181
0.592956,-0.143924,-0.985966,-0.101886,0.287970,0.952204
-0.493748,-0.373098,0.648214,-0.567675,-0.204757,-0.797383
-0.280806,0.096129,0.765040,0.850661,0.032441,-0.524713
-0.199648,0.767545,0.129838,-0.209909,-0.595890,-0.775147
-0.117469,-0.397060,0.801311,0.710625,-0.459856,0.532488
-0.302383,-0.069447,0.325019,-0.305230,0.680026,-0.666633
0.434908,0.002396,0.842365,0.865175,0.489772,0.107682
0.168139,-0.279149,0.739555,0.445160,0.480103,0.755866
0.113803,0.248019,0.471413,-0.374531,0.772254,0.513176
0.241271,-0.066727,-0.020413,0.203527,0.977855,0.048750
-0.104429,-0.342659,0.838280,0.960814,0.128646,0.245533
-0.165496,-0.805237,0.477470,-0.361668,0.515028,0.777137
0.278625,0.566220,0.541582,0.483054,0.732731,-0.479337
0.302336,0.244349,0.410897,0.379631,-0.036639,0.924412
0.036821,-0.072469,0.914157,0.787947,0.214599,0.577137
0.363355,-0.469464,0.716148,-0.588879,0.289058,0.754763
0.354724,0.526153,0.324757,-0.695211,-0.718676,0.013666
-0.722373,-0.193187,0.387979,0.027966,0.062851,0.997631
-0.096540,-0.671524,0.488851,-0.050733,-0.531745,0.845383
0.605903,-0.409926,-0.967237,-0.096649,0.100518,0.990230
0.374446,-0.171427,0.851337,-0.494215,0.751110,0.437705
0.879817,0.490145,0.233084,-0.179754,0.257140,0.949509
0.426509,0.333722,0.509535,0.750687,-0.061270,-0.657810
0.746410,-0.289424,0.564343,0.969896,-0.102318,-0.220980
0.484512,0.322496,0.195189,-0.394852,0.754289,0.524538
0.047865,-0.421065,0.841702,0.332860,0.941637,0.050234
0.471707,-0.441962,-0.969751,0.008254,0.157491,0.987486
0.232037,-0.447488,0.696197,-0.554195,-0.441963,-0.705363
-0.134637,0.626967,0.164835,-0.061490,0.802939,0.592881
-0.246375,0.150832,0.827057,-0.712917,0.668133,0.212952
0.017887,-0.244695,0.819761,0.560118,0.826735,-0.052703
0.535741,0.717937,0.385780,-0.154705,0.245394,0.956999
0.036913,-0.493599,0.907105,0.671621,0.734379,0.098041
0.303171,-0.034950,0.475410,-0.657855,0.752170,-0.038307
-0.024293,0.144226,0.214303,-0.016138,-0.141748,0.989771
0.139741,-0.155452,0.821279,0.521890,0.824843,-0.217404
-0.019605,0.114047,0.838420,-0.160776,-0.960462,-0.227296
-0.565904,-0.047471,0.489793,0.712091,-0.623470,0.322819
0.607016,-0.286532,0.193863,0.457403,0.597624,0.658505
0.561959,-0.383891,-0.969716,-0.100249,0.009948,0.994913
0.047168,-0.412085,0.920528,0.624739,0.777786,0.068923
0.402195,-0.210889,0.922186,-0.471666,0.871036,0.137211
0.607063,0.528571,0.311910,0.770059,0.630851,0.095061
0.698894,-0.489152,0.548616,0.211786,0.528310,0.822214
-0.526600,0.136455,0.498311,0.925759,-0.051047,0.374652
0.168883,-0.117803,0.920650,0.155958,0.926454,0.342579
-0.593420,-0.365456,0.405032,0.170785,-0.431490,0.885804
-0.215518,-0.272888,0.877432,0.239586,0.755787,0.609413
0.805805,-0.305874,0.692427,-0.629235,0.776406,-0.035440
0.197420,-0.342098,0.678585,0.322313,0.663729,0.674965
-0.339412,-0.417050,0.472077,0.269695,0.927442,0.259067
0.342846,0.100706,0.897522,-0.708522,-0.493497,0.504437
-0.311570,0.099583,0.492743,-0.022663,-0.923877,0.382017
0.235330,-0.299398,0.959819,0.696801,-0.711379,0.091699
0.406882,-0.136196,-0.540203,0.891935,0.427883,0.146178
0.209345,0.820262,0.174942,-0.162616,-0.090391,0.982540
-0.611471,-0.347624,0.481555,-0.402341,-0.780444,-0.478570
0.852301,-0.458584,0.369896,0.343235,-0.919281,-0.192645
0.004664,-0.458584,0.901764,-0.471955,-0.490503,-0.732574
0.211434,-0.416748,0.746869,0.826587,0.152526,0.541747
0.336117,-0.085508,-0.259074,-0.691267,0.722491,-0.012533
-0.314958,0.078557,0.817142,-0.431676,0.844181,0.317829
0.491519,0.146687,0.634669,0.926574,0.048193,-0.373011
0.452170,-0.118926,0.757901,0.852796,-0.377006,-0.361394
-0.098536,0.056970,0.703424,0.948190,0.306893,-0.082168
0.333797,0.794875,0.409256,0.727169,0.510902,-0.458481
0.235424,0.471191,0.471483,0.869447,-0.429939,-0.243339
0.360062,0.751614,0.380229,0.742846,0.527224,0.412571
0.591981,-0.194525,0.051274,0.800199,-0.173753,-0.574013
-0.607434,-0.111888,0.363786,-0.309916,0.337087,-0.889002
0.083594,-0.086199,0.526169,0.768147,0.527757,0.362522
0.259090,-0.240593,0.953081,0.819749,-0.517620,-0.245116
0.431335,-0.263778,0.691415,0.242192,0.853749,0.460929
0.639591,-0.164691,0.664063,-0.565459,-0.439931,0.697651
0.303868,0.560693,0.376389,0.766435,-0.341262,-0.544167
-0.170925,-0.749239,0.652071,-0.315531,-0.618762,0.719426
-0.654301,0.055717,0.524110,0.668719,-0.627631,0.398615
-0.096958,0.256870,0.777258,-0.242095,0.458600,-0.855030
0.636668,-0.388209,0.523935,0.773087,0.047667,-0.632507
-0.186237,-0.594327,0.403741,-0.378649,-0.785246,0.489912
0.002761,-0.831747,0.455110,-0.012866,0.231021,0.972864
-0.403542,-0.687153,0.635908,0.000731,-0.389711,0.920937
-0.239182,-0.275392,0.871654,0.662476,0.413169,0.624834
-0.287209,0.642597,0.149719,0.076497,0.651740,0.754575
-0.124243,-0.623427,0.506463,-0.119127,-0.323728,0.938621
-0.449015,-0.233340,0.619396,-0.331798,0.885433,-0.325450
-0.068235,-0.233858,0.942556,-0.019096,0.792594,0.609450
0.511565,-0.277853,0.210236,0.285640,0.312816,0.905846
0.429525,-0.159381,0.759978,0.857296,-0.154850,-0.490984
-0.129161,-0.308853,0.821175,0.778040,0.589998,-0.215768
0.195193,-0.282387,0.860745,0.036949,-0.629053,0.776484
0.010464,0.102001,0.874988,-0.381702,0.109658,0.917757
0.013805,-0.589275,0.592027,0.505229,0.856266,-0.107477
0.890258,-0.467392,0.369843,-0.207566,0.975687,-0.070360
0.238255,-0.112363,-0.063178,0.963083,0.107490,0.246812
-0.617551,-0.108693,0.364223,-0.296659,0.371306,-0.879844
0.550081,0.659089,0.319765,0.752807,-0.615235,-0.234023
0.110833,0.739481,0.277926,0.033762,0.677363,0.734874
-0.335375,0.050709,0.803388,-0.448767,0.809194,-0.379228
0.222617,-0.093452,0.038968,0.720206,0.673307,-0.167214
0.319459,-0.109211,-0.160611,0.394101,0.918845,0.020205
0.463400,-0.133130,0.790227,-0.872273,0.005439,0.488989
0.120577,-0.207737,0.655912,-0.061595,-0.995377,0.073697
0.167489,0.330225,0.224182,-0.018570,0.147217,0.988930
-0.564001,-0.248581,0.589199,0.102312,0.476738,0.873071
0.177885,0.596572,0.310514,0.858761,0.508197,-0.065304
0.045823,0.102735,0.360976,-0.144822,-0.664655,0.732981
0.572308,-0.727781,0.380089,0.784727,0.208928,-0.583570
0.415652,-0.095309,0.665843,-0.466005,-0.272712,0.841705
0.281177,-0.264944,0.946989,-0.245525,-0.498475,0.831408
-0.424469,-0.075362,0.662667,0.142516,0.988784,0.044670
0.210319,-0.431211,0.733464,0.911393,0.299373,0.282379
-0.084848,0.078384,0.172393,-0.033436,-0.892955,0.448902
-0.009582,0.033569,0.880678,0.986562,0.096475,0.131864
-0.208185,-0.088142,0.896894,0.989461,-0.140378,0.035499
0.575137,0.854068,0.420235,0.054346,-0.608627,0.791593
0.367439,0.263649,0.399831,0.149441,-0.261709,0.953507
0.722281,-0.759083,0.417582,-0.684621,0.193650,-0.702705
-0.303218,-0.745828,0.470331,-0.227877,-0.198443,0.953253
-0.425767,-0.240939,0.419066,0.478298,0.459491,0.748397
-0.782744,-0.151782,0.407319,-0.637670,0.176408,-0.749838
-0.648872,-0.230577,0.444585,-0.194017,0.723998,-0.661955
0.068977,-0.023163,0.349630,0.990757,0.050758,0.125797
-0.717593,-0.361095,0.509238,0.446767,0.662727,0.600993
0.195331,0.572523,0.213796,0.082651,0.561105,0.823608
-0.042250,0.266887,0.216066,-0.039013,-0.065943,0.997060
0.582655,-0.088185,-0.990487,-0.001203,0.173947,0.984754
-0.342985,0.031108,0.790960,0.510750,0.857228,-0.065530
0.231248,-0.237830,0.942015,0.695978,0.242740,-0.675790
0.146795,-0.181702,0.566176,-0.237967,0.909398,-0.341127
-0.129858,-0.343436,0.854601,0.955790,0.101689,0.275909
0.057794,-0.132137,0.867116,-0.142115,0.364140,0.920438
0.368970,-0.238434,-0.991761,-0.402870,0.283387,0.870280
-0.055846,0.229670,0.404264,0.738489,0.276650,-0.614897
0.311293,0.358504,0.497805,-0.068634,0.027121,0.997273
-0.293010,0.141593,0.714193,0.917287,0.002322,0.398221
0.292916,-0.289424,0.684590,-0.650670,-0.755396,0.077491
0.402566,-0.101569,0.843307,0.858571,-0.235323,-0.455499
0.635786,0.164907,0.671865,-0.409262,-0.325838,0.852252
-0.722281,-0.348013,0.517826,0.457075,0.724446,0.516004
0.136168,-0.222157,0.657343,-0.008745,0.998883,-0.046436
0.091993,0.278112,0.435980,-0.375354,-0.021449,-0.926634
0.532957,-0.527578,0.192676,-0.671613,0.247560,-0.698319
0.703488,-0.328023,0.544968,0.734211,0.267959,-0.623805
0.052783,0.133692,0.691432,0.372774,0.927280,0.034528
0.790307,-0.204672,0.618802,-0.945771,-0.145470,0.290440
-0.152966,0.065993,0.750814,-0.653568,-0.653082,-0.382535
0.564790,0.748678,0.397212,-0.357696,0.081426,0.930281
0.709474,-0.044708,0.703022,-0.547986,-0.226373,0.805274
0.042435,0.134642,0.548896,0.865400,-0.089002,-0.493113
0.141226,-0.219092,0.619117,0.748032,-0.580721,-0.321265
-0.399828,0.156920,0.533762,0.496347,-0.458480,0.737181
0.785481,-0.244911,0.632714,0.859711,0.032404,-0.509752
0.366280,-0.070613,0.621159,-0.318704,-0.914085,-0.250751
0.137468,0.064525,0.295049,-0.668006,0.348709,-0.657396
0.132874,-0.316538,0.917683,-0.519433,0.853470,0.042169
0.534675,0.338039,0.429556,0.531272,0.306752,-0.789717
0.125403,0.107441,0.847252,0.840989,0.540946,0.010745
0.475094,-0.250049,0.704139,-0.116065,0.865720,0.486886
-0.498249,-0.323230,0.620234,0.620204,0.571180,0.537680
0.056356,-0.137448,0.478098,-0.295027,0.950754,0.095005
0.153987,-0.054293,0.215751,0.782625,0.617192,-0.081066
-0.367672,-0.092546,0.323588,0.174192,-0.674220,0.717694
0.132966,0.706237,0.281329,0.422930,0.659339,0.621613
0.037053,0.039397,0.467713,0.505880,-0.821980,-0.261598
-0.015429,-1.000000,0.719308,0.918550,0.199797,0.341097
-0.069163,0.521836,0.554621,0.663091,0.738896,-0.119760
-0.017286,0.198800,0.632243,0.569222,0.047917,0.820786
0.337509,-0.103987,-0.332367,-0.321330,-0.942778,0.088976
0.216955,0.712756,0.168379,-0.171436,0.164421,0.971378
-0.183545,-0.170304,0.896911,0.263946,-0.892444,-0.365891
0.340943,0.582756,0.357642,0.916606,-0.331407,-0.223612
0.098303,0.117976,0.812674,-0.091744,-0.880639,0.464821
0.203359,-0.139175,0.870729,0.603081,-0.785225,0.140410
0.193012,0.136973,0.299709,0.724453,-0.373504,0.579364
0.045081,-0.016514,0.882267,-0.208184,0.350620,0.913085
-0.107446,-0.303154,0.437149,0.145311,-0.644190,0.750935
0.634161,-0.221596,0.490125,0.930726,0.300581,-0.208328
0.074684,0.131749,0.857533,-0.002505,-0.999040,0.043726
0.038630,0.589664,0.205715,-0.286316,0.409756,0.866097
0.498805,-0.047341,0.853955,0.543807,0.628673,0.555917
-0.152085,0.701228,0.125614,0.917572,0.359099,-0.170614
0.572261,-0.248494,0.513584,-0.255795,0.641246,0.723445
0.266931,0.426419,0.521404,-0.409757,-0.482955,0.773856
1.000000,-0.420806,0.362285,0.341837,-0.919170,0.195637
0.028189,0.119271,0.728576,-0.314980,-0.759527,-0.569127
-0.142804,-0.677439,0.501069,-0.171132,-0.440842,0.881120
0.054314,-0.721348,0.656784,0.514452,0.316953,0.796793
0.693557,-0.233081,0.584783,0.902985,0.190758,-0.385005
0.493655,-0.138700,0.649226,-0.299622,0.953611,0.029197
0.570498,-0.298491,0.516587,-0.086183,0.484930,0.870296
0.019141,-0.790385,0.676927,0.878761,-0.280910,0.385836
-0.046194,-0.595924,0.689460,0.371721,0.687057,0.624321
-0.225448,0.253718,0.611524,-0.783706,0.156887,0.600992
0.447438,0.135116,0.527339,0.267060,-0.405131,0.874384
-0.108930,-0.564320,0.635193,0.963079,0.104655,-0.248046
0.632537,0.074715,0.590630,-0.004225,-0.399315,0.916804
-0.042714,0.030676,0.600545,-0.147818,-0.892718,0.425680
0.081552,-0.852989,0.536258,0.851537,0.231351,-0.470491
-0.033109,0.244263,0.512153,0.738241,0.247013,0.627683
0.313704,-0.149105,-0.407214,-0.101229,-0.983425,0.150423
0.381871,0.974786,0.499551,0.160083,0.754616,-0.636339
0.122666,-0.224964,0.687330,-0.201754,0.977534,0.061017
0.698105,-0.362045,0.158988,0.853749,0.484566,0.190546
-0.237698,0.620232,0.144727,0.375980,0.743148,0.553507
0.480801,0.596356,0.408628,-0.318982,0.305709,0.897102
-0.323218,0.558189,0.200810,0.107763,0.504731,0.856524
0.577735,-0.099152,0.820895,0.704861,0.069821,-0.705900
-0.105636,0.390929,0.480629,-0.345174,0.469903,0.812433
0.020579,-0.277983,0.891867,0.598894,0.113247,0.792780
-0.695878,-0.265980,0.356036,-0.636059,0.675229,-0.373489
-0.219554,0.077046,0.858755,-0.777083,0.188873,0.600391
-0.309251,0.109211,0.327742,-0.132384,0.219450,0.966600
0.051483,0.198843,0.598886,-0.243440,-0.923410,0.296733
0.305955,0.447834,0.528596,0.515790,0.328169,-0.791369
0.465071,-0.356000,0.755457,0.687199,0.195797,-0.699586
-0.136680,0.479826,0.554202,-0.858052,0.469593,0.207915
-0.119138,-0.037109,0.868041,0.864813,-0.105876,-0.490804
0.039140,0.142586,0.212452,-0.018322,-0.138237,0.990230
-0.247210,0.409278,0.436224,0.511699,0.821747,-0.250790
0.263451,-0.453403,0.657064,0.726818,0.227069,0.648209
-0.065869,-0.104246,0.870921,0.734031,0.670420,0.108329
-0.531938,-0.308508,0.644479,-0.639888,-0.710332,-0.293209
0.485441,0.608963,0.375778,-0.646972,-0.751299,-0.130298
0.236955,0.639013,0.198366,-0.479688,0.586152,0.652936
-0.602051,-0.256395,0.436730,-0.025881,-0.805504,0.592024
0.273892,-0.196555,0.916915,-0.678708,-0.486739,-0.549946
0.013387,-0.582885,0.537113,0.562842,0.704258,-0.432701
0.212315,0.795005,0.177577,-0.162616,-0.090391,0.982540
0.496392,-0.128770,0.634041,-0.216930,0.503074,0.836575
0.135983,0.052652,0.603041,0.118195,0.369577,0.921652
0.698336,-0.063489,0.689634,0.516425,0.030212,-0.855799
0.071066,0.010470,0.694871,0.908530,0.417752,-0.007500
0.410826,-0.373702,0.722188,-0.476236,-0.506837,0.718551
-0.658292,-0.341105,0.405504,-0.072569,-0.321528,0.944115
-0.774669,-0.288993,0.402397,-0.359866,0.419054,0.833601
0.043271,0.467565,0.220639,-0.233658,0.084686,0.968624
0.754299,-0.713188,0.408837,-0.587945,0.417474,-0.692846
0.368043,-0.401982,0.702377,0.498980,0.283395,-0.818967
-0.010000,0.043542,0.746468,0.241548,0.044362,0.969374
0.358670,0.716555,0.415819,0.209527,0.018212,0.977633
0.063874,-0.739697,0.562039,0.958530,-0.038702,0.282351
0.100253,0.094057,0.863607,0.830027,0.550626,0.088694
-0.321640,-0.375343,0.653800,0.300075,0.318249,0.899262
0.007216,-0.171340,0.925921,0.810765,-0.050312,0.583206
0.390594,-0.080629,0.823932,-0.588853,-0.785704,0.189531
-0.350085,0.298362,0.215280,0.097662,0.406123,0.908585
-0.039466,-0.475164,0.926340,-0.675690,-0.562480,0.476507
-0.328462,0.113615,0.406429,0.475672,0.778418,0.409637
0.204101,-0.211666,0.911120,0.695301,-0.031816,0.718014
-0.093153,0.075880,0.591922,0.741193,0.665667,0.086722
0.361592,0.723507,0.394263,0.927771,-0.106992,0.357483
0.500012,-0.323230,0.768339,0.790023,0.101279,-0.604654
-0.797361,-0.095439,0.411159,-0.516978,-0.041242,-0.855005
-0.131992,0.059862,0.162339,-0.153303,-0.944293,0.291220
-0.855038,-0.184379,0.419764,-0.709146,0.544555,-0.447852
0.481080,0.588541,0.410129,-0.394319,0.059602,0.917039
0.554581,-0.639143,0.424529,0.761330,-0.375486,0.528571
0.719727,0.755499,0.222314,-0.010707,0.306276,0.951882
0.040997,0.471666,0.418577,-0.130386,0.313861,0.940474
-0.127352,0.291281,0.650797,-0.316523,-0.914946,-0.250372
0.200296,-0.047471,0.119400,0.999939,0.003308,0.010566
-0.141644,-0.312221,0.841876,0.895458,0.407282,0.179657
-0.353750,-0.080975,0.569335,-0.508671,0.458945,-0.728439
0.215934,-0.151782,0.847339,0.884220,-0.457314,-0.094970
-0.123547,-0.288388,0.848631,0.694247,0.308546,-0.650247
-0.328508,-0.729378,0.638596,0.320203,0.357620,-0.877256
0.069627,-0.032705,0.651181,0.569413,-0.784447,0.245788
0.153477,0.785722,0.168239,-0.162616,-0.090391,0.982540
0.280759,-0.520756,0.725941,-0.068978,-0.997335,-0.023765
-0.008329,0.245472,0.640359,0.907774,-0.172221,0.382474
0.079742,-0.181616,0.943516,0.146034,-0.676608,0.721717
-0.469526,0.019796,0.612815,0.676570,0.135796,0.723749
0.415699,-0.228418,-0.817945,0.138050,-0.977806,0.157598
-0.337370,-0.043154,0.343277,-0.187198,-0.195729,0.962625
0.343124,0.028819,0.888655,0.535855,0.817100,-0.212618
0.004292,0.129374,0.734022,0.589573,0.721398,0.363301
0.333612,-0.090258,-0.274347,-0.437465,0.891479,-0.117854
-0.494723,0.035857,0.462075,-0.504986,0.804149,-0.313581
0.401035,0.124193,0.416675,-0.548843,-0.431597,-0.715888
0.930210,-0.596917,0.395275,-0.187395,0.173077,0.966917
0.406000,0.152127,0.389986,-0.247445,-0.179992,-0.952037
-0.203221,0.097856,0.892076,0.813250,-0.332697,-0.477427
-0.223685,-0.755802,0.346104,-0.485454,-0.350651,0.800861
-0.086378,-0.186193,0.675217,-0.526981,0.336301,-0.780508
-0.111343,0.054422,0.475934,0.387783,0.628102,-0.674620
-0.009443,0.165382,0.512415,0.613666,0.747930,0.253013
0.017887,-0.221985,0.694836,-0.059394,-0.959760,0.274470
-0.264935,-0.087667,0.781325,-0.197716,-0.940274,0.277114
0.208603,-0.114738,0.236907,0.772800,-0.553176,-0.311089
0.434119,-0.239514,0.812307,0.978969,-0.160079,-0.126467
0.106657,0.073290,0.609482,0.062857,0.826206,0.559851
0.203498,-0.125963,0.497159,-0.176333,0.982380,0.061929
0.393796,0.164044,0.595832,-0.723380,0.044344,0.689024
0.592956,0.545366,0.363158,-0.680767,-0.671018,-0.293753
0.398807,0.846167,0.349177,-0.410387,0.118107,-0.904231
-0.345074,-0.013924,0.730514,0.799732,-0.508320,0.319438
0.028328,-0.510610,0.723811,-0.743531,0.251654,-0.619542
-0.293148,0.760162,0.100723,0.129386,-0.742247,-0.657517
-0.495650,-0.264901,0.438633,0.075066,0.898432,0.432648
-0.278393,0.152257,0.769456,0.794647,0.321788,-0.514770
0.183360,-0.165080,0.714595,-0.638311,0.762591,0.104948
0.064337,0.032835,0.774483,-0.394190,-0.869312,0.298180
0.747663,-0.345034,0.692288,0.842124,-0.488279,0.228935
0.470686,0.332427,0.192187,0.342163,-0.772702,-0.534655
0.520521,-0.169268,0.008719,0.752769,-0.096053,-0.651239
0.051205,-0.043283,0.629083,-0.401018,0.888363,-0.223595
-0.290272,0.474818,0.432803,0.653499,0.599858,-0.461638
-0.215749,0.832697,0.091839,0.403652,-0.682466,-0.609348
0.479780,0.076442,0.511507,-0.302888,0.279796,0.911028
0.254217,-0.007793,0.659106,0.143539,0.963551,0.225755
-0.276491,-0.627787,0.688273,-0.201956,0.443619,-0.873165
0.552957,0.672085,0.295189,0.974300,-0.176088,-0.140476
0.313891,0.289338,0.227184,0.090897,-0.595611,0.798114
0.303913,-0.453619,0.691258,-0.006622,-0.262105,0.965017
-0.424098,-0.543510,0.495972,-0.488122,-0.385400,-0.783073
-0.538480,-0.261576,0.436940,0.157342,0.462398,0.872601
-0.326837,-0.156229,0.849574,0.059819,0.993993,0.091647
0.281873,0.227079,0.517285,0.072655,0.743586,0.664682
0.283683,0.085508,0.391714,-0.495882,0.143762,0.856408
0.302336,-0.131619,-0.248828,0.806812,-0.582003,-0.101624
0.391197,0.796386,0.399325,0.904601,0.402582,0.140090
0.216260,-0.115126,0.573455,-0.204187,0.949271,0.239149
0.503631,0.573775,0.313778,0.848228,-0.528018,0.041306
-0.239508,-0.178378,0.878287,0.106938,0.979868,-0.168591
0.160205,-0.311185,0.964008,-0.550809,-0.722617,0.417653
-0.332405,-0.263821,0.549978,-0.520613,0.150306,-0.840458
-0.578897,-0.321115,0.673873,0.850341,0.485964,0.201887
0.218904,-0.127561,0.528822,-0.677886,0.727712,0.104429
0.635739,0.707705,0.265952,0.574942,-0.817447,0.034959
0.481451,-0.119703,0.524476,-0.554915,-0.566945,0.608804
-0.188697,-0.384453,0.550554,-0.028929,0.409716,0.911754
0.615833,0.698379,0.232560,-0.385976,0.681159,0.622129
0.200900,-0.500162,0.762264,0.737704,0.550579,0.390712
-0.199091,-0.614835,0.394769,-0.328863,-0.676904,0.658520
0.556808,0.987825,0.432402,-0.014661,-0.176936,0.984113
-0.000812,-0.388641,0.413830,0.179122,0.450375,0.874687
-0.131436,-0.339982,0.429469,-0.012899,-0.552985,0.833092
0.084754,-0.429053,0.826865,-0.434822,-0.827550,-0.355092
-0.628826,-0.378754,0.503932,0.513414,0.493002,0.702392
0.669010,-0.263217,0.541355,0.929061,-0.125254,-0.348076
-0.318345,-0.526585,0.394001,0.336519,0.865185,-0.371766
0.279414,-0.075362,0.553731,-0.868806,0.427613,0.249645
0.266374,0.276170,0.218963,-0.224374,-0.602221,0.766150
-0.842928,-0.078125,0.409169,0.502193,-0.023257,0.864443
0.118258,-0.085811,0.959679,0.633909,-0.579093,-0.512651
0.128605,-0.116638,0.446715,-0.025379,-0.993085,-0.114624
0.539686,0.598515,0.291261,0.871313,-0.490641,-0.009226
-0.136354,0.129720,0.890872,0.901204,0.050072,-0.430494
-0.030788,-0.421108,0.846432,0.138864,0.945411,0.294813
-0.529384,-0.325778,0.626099,-0.580442,-0.777963,-0.240543
-0.124150,-0.635904,0.502099,-0.227130,-0.319988,0.919793
0.074221,-0.196900,0.542210,-0.448155,0.887501,-0.107230
0.610542,-0.395937,-0.967097,-0.091071,0.079705,0.992650
-0.278996,-0.246249,0.591119,-0.349756,0.829475,-0.435479
0.226422,-0.119314,0.868408,0.784157,-0.612588,-0.099159
0.026009,-0.327936,0.391348,0.834488,0.083155,0.544716
-0.343125,0.101440,0.430673,0.347898,-0.555168,0.755484
0.242569,0.729508,0.385780,-0.477154,0.146291,0.866558
-0.886500,-0.081666,0.443904,0.736795,-0.127235,0.664037
0.052830,-0.502407,0.908798,0.779516,0.296231,0.551907
-0.527854,-0.259029,0.596897,0.070590,0.463853,0.883095
0.259461,-0.316452,0.903038,-0.691716,-0.178070,0.699871
0.289622,0.065864,0.267767,-0.271709,0.435200,-0.858356
0.077562,0.848412,0.265131,-0.085413,0.273000,0.958215
0.209068,-0.161022,0.750744,-0.409258,0.897958,-0.161802
0.015707,0.368521,0.476109,0.386453,-0.317452,0.865955
0.427577,-0.169657,-0.676299,-0.800108,0.599855,-0.001244
-0.225354,0.117372,0.716253,0.366838,0.345577,-0.863717
0.233614,-0.156877,0.656697,-0.574139,0.775950,0.261276
0.008840,0.548734,0.463663,-0.146322,-0.135136,0.979963
-0.353240,0.389375,0.194805,-0.305437,0.181747,0.934707
0.344842,0.246595,0.486861,-0.362368,0.322324,0.874526
0.288554,0.815556,0.419014,0.739591,0.338997,0.581451
0.133152,-0.467996,0.700456,0.418356,-0.137417,-0.897828
0.261409,-0.071476,0.047172,0.627306,0.758940,-0.174631
-0.096913,-0.843059,0.499603,-0.029392,0.475970,0.878970
-0.166980,0.264037,0.207425,-0.261553,-0.195464,0.945190
0.358437,0.039095,0.914925,0.408090,0.709989,-0.573915
-0.037239,-0.269175,0.671796,-0.163881,-0.093239,0.982064
-0.067818,0.340587,0.502902,0.432266,-0.761825,0.482462
0.563722,-0.216027,-0.974917,-0.004039,0.262714,0.964865
-0.098119,-0.228288,0.780190,-0.632721,-0.609690,0.477433
0.435605,-0.150012,-0.990714,-0.289483,0.250567,0.923805
-0.419875,0.380006,0.194160,-0.139701,0.414595,0.899219
0.322521,0.023379,0.600737,-0.649545,0.310746,0.693923
0.464653,-0.223453,0.829902,0.884121,-0.267758,-0.382930
-0.242337,-0.129158,0.833445,0.046479,0.930240,0.363997
-0.426370,-0.270168,0.417774,-0.494906,-0.271072,-0.825584
0.613791,-0.497096,0.526885,0.850183,0.212930,-0.481507
0.219692,-0.145565,0.628507,-0.068769,0.990700,0.117406
0.489061,0.035166,0.609080,0.544128,-0.663072,-0.514061
0.275794,0.318006,0.491242,-0.026725,0.092773,0.995329
-0.367207,-0.370421,0.518716,-0.716775,-0.573284,0.396962
0.062574,-0.014528,0.350119,0.991939,0.012007,0.126149
-0.073711,0.019019,0.923635,0.335545,0.935062,0.114316
0.042899,-0.341105,0.879090,0.947962,0.273693,0.162663
0.513051,0.611467,0.347745,-0.708894,-0.368403,-0.601455
-0.054825,0.230490,0.514090,-0.573572,-0.325715,-0.751615
-0.168743,0.168966,0.895934,0.635417,0.414703,-0.651358
-0.286188,-0.451201,0.503373,0.824678,0.555420,0.106838
0.045637,0.669581,0.478221,0.565854,-0.523789,0.636753
0.374538,-0.077521,0.807193,-0.521006,-0.841952,0.140248
0.182571,-0.144313,0.896911,-0.094643,-0.991273,0.091766
-0.317788,-0.023077,0.808275,0.861604,-0.120856,-0.492984
-0.545393,0.004598,0.423674,-0.520162,0.853739,0.023680
-0.062621,-0.374479,0.734947,0.860026,0.328204,0.390687
0.171898,-0.218315,0.838211,0.789878,-0.551821,0.267556
-0.149997,0.346847,0.315000,0.141907,0.621309,0.770609
-0.370735,0.793623,0.077264,-0.559909,0.292872,0.775067
-0.472031,-0.489714,0.487489,-0.491111,-0.398427,-0.774639
-0.003967,-0.006973,0.527059,-0.704076,-0.710005,-0.013031
-0.604464,-0.233383,0.587087,0.077607,0.488583,0.869059
-0.459038,-0.018544,0.722031,0.605079,0.779119,0.163866
0.545487,-0.309069,-0.967796,-0.079239,-0.061486,0.994958
0.196723,0.168966,0.564465,-0.674327,0.040218,-0.737337
0.852440,-0.495240,0.373160,-0.364586,0.901462,0.233332
-0.257558,0.309112,0.690333,0.155150,-0.878316,0.452206
-0.125821,0.228634,0.326154,0.611856,0.283988,0.738230
-0.157886,0.387863,0.539278,0.006736,-0.038918,0.999220
0.340294,0.714699,0.198436,0.358195,-0.166920,-0.918604
-0.176029,-0.082572,0.851808,0.544527,-0.386188,-0.744546
0.169672,-0.395333,0.520880,0.935477,0.329034,0.128918
-0.718522,-0.023768,0.408750,-0.362504,0.309185,-0.879201
0.556715,-0.663666,0.405556,-0.607213,-0.711964,0.352702
0.234217,0.789219,0.163491,-0.162616,-0.090391,0.982540
0.078212,-0.145478,0.912830,0.255110,-0.744158,0.617371
0.511194,-0.203635,0.689861,-0.331218,0.383897,0.861926
-0.493934,0.493340,0.162846,-0.476318,0.093866,0.874249
0.229948,0.356302,0.493337,-0.372022,0.050397,0.926855
-0.060625,0.239989,0.215385,-0.133796,-0.108199,0.985085
-0.251247,0.740777,0.134621,-0.125782,0.615797,0.777800
0.821953,0.482762,0.222925,-0.410885,0.475196,0.778050
0.402288,-0.265592,-0.970134,0.666661,0.109723,-0.737241
0.363402,-0.251128,0.885356,-0.362237,0.242766,0.899916
-0.249438,0.664616,0.156474,0.426755,0.751821,0.502638
-0.093711,0.206830,0.209363,0.159410,0.146133,-0.976337
0.347208,0.761285,0.419101,-0.649778,-0.730432,0.210374
-0.000951,0.029812,0.591625,0.119858,-0.982989,0.139167
0.271989,-0.078643,-0.024812,0.368848,0.927294,-0.063859
-0.450454,-0.284848,0.432681,0.432572,0.610010,0.663905
0.128790,-0.125359,0.431529,-0.103489,0.994479,-0.017374
0.142201,0.120480,0.578569,-0.520880,0.729703,0.442964
0.304146,-0.197850,0.368901,-0.321436,-0.909553,0.263423
0.712861,0.138052,0.596687,0.896350,-0.301926,-0.324650
0.005312,-0.328411,0.718313,0.009907,-0.841572,0.540054
-0.403263,0.069188,0.788813,0.022487,-0.978078,0.207019
0.004988,-0.809684,0.525698,0.864594,0.290885,-0.409711
0.786594,-0.761587,0.392220,-0.606093,0.109971,-0.787755
-0.622748,0.118235,0.529887,0.614285,-0.630827,0.474037
0.649567,0.071045,0.598398,0.842358,-0.092474,-0.530924
0.584650,-0.060553,0.650239,0.438255,-0.149411,-0.886346
-0.229717,0.401550,0.463751,0.603008,0.787942,-0.124614
-0.796664,-0.268614,0.386146,0.071671,0.310241,0.947952
-0.187676,-0.121171,0.756242,0.888865,0.390909,0.238975
0.462426,0.730372,0.390213,0.359128,0.016563,-0.933141
0.435558,-0.467694,-0.969873,-0.091382,0.092207,0.991538
0.106099,0.056408,0.815170,0.397671,0.704013,-0.588407
0.161133,-0.180968,0.221127,-0.639384,0.720836,0.267551
0.185540,-0.180753,0.299116,-0.104932,0.742548,0.661522
-0.110462,-0.211105,0.509098,0.405933,-0.831186,0.379933
0.318624,-0.230620,0.888324,0.016003,-0.497250,0.867460
0.415234,-0.215940,0.754636,0.807477,0.283091,-0.517534
0.326187,-0.100706,-0.300477,0.854147,0.490534,-0.172652
0.107260,-0.240982,0.344254,-0.566045,-0.442461,-0.695572
0.877961,-0.647691,0.388415,0.285795,-0.427819,-0.857492
-0.301223,0.143665,0.762928,0.843478,0.031328,-0.536250
-0.057933,-0.340759,0.764725,0.800291,-0.532695,-0.275264
-0.537738,0.074542,0.501087,-0.631074,0.526381,-0.569797
0.234774,-0.331088,0.890785,0.970787,0.016810,-0.239354
0.534675,-0.405997,0.781430,0.879531,-0.014671,-0.475615
0.276815,0.886838,0.411456,0.752094,-0.059822,0.656335
-0.013944,0.056581,0.878130,0.569600,-0.375229,-0.731273
-0.378390,-0.487512,0.440151,-0.491629,-0.727390,0.478753
-0.265771,-0.394124,0.633412,-0.383438,0.815318,-0.433857
-0.020302,-0.426160,0.687732,-0.195592,-0.392257,-0.898820
0.469061,0.175442,0.266231,0.158137,0.261069,0.952279
-0.262663,0.662025,0.140870,0.359649,0.525098,0.771313
0.290690,0.765343,0.427619,-0.463197,0.088847,-0.881791
0.754205,-0.088444,0.556401,0.582092,0.469810,-0.663662
0.102108,-0.012672,0.812814,0.787207,0.109928,-0.606813
0.422844,0.258295,0.211527,-0.449376,0.591687,-0.669304
-0.136865,0.216847,0.208560,-0.352921,0.028720,0.935212
0.199415,-0.119703,0.370821,0.986905,-0.092768,0.131954
0.721537,-0.195691,0.656714,-0.308073,-0.829383,0.466063
0.475094,-0.038663,-0.997259,-0.040157,0.233256,0.971586
-0.121506,0.082097,0.180161,-0.184109,-0.953097,0.240230
0.370641,-0.193964,0.910055,-0.470213,-0.762291,0.444761
-0.350132,-0.615871,0.389707,-0.129836,-0.860307,0.492965
-0.385397,-0.157740,0.400127,0.193762,0.009501,0.981003
0.010509,0.263303,0.750744,0.942287,-0.036907,0.332766
0.406047,0.582929,0.400162,-0.218570,0.030292,0.975351
-0.500058,-0.211536,0.594558,-0.017240,0.397136,0.917598
0.218070,-0.109643,0.846414,0.963557,-0.253217,-0.086253
0.519872,-0.013449,-0.996788,-0.071618,0.245588,0.966725
-0.010139,-0.392311,0.883087,0.816526,-0.470515,0.334516
-0.322382,0.721305,0.120657,-0.530285,0.705833,0.469679
-0.348508,-0.498219,0.302589,-0.149333,0.222074,0.963526
0.050091,0.077694,0.879404,0.074686,0.972743,0.219531
-0.382148,0.206226,0.461359,0.300138,0.324218,0.897106
0.756433,-0.405695,0.725382,0.798930,0.059755,-0.598448
-0.135473,-0.062366,0.721036,0.858652,-0.225976,0.460056
0.378158,-0.229843,0.749435,0.723493,0.138281,-0.676341
0.710401,0.294433,0.239019,-0.341952,-0.091745,0.935228
0.302012,0.106103,0.586074,-0.380257,0.116458,0.917519
0.203916,-0.066857,0.129280,0.883584,0.455987,0.106560
-0.437832,-0.013708,0.707665,0.145352,0.560341,0.815408
0.535138,0.780714,0.390964,-0.153542,-0.305416,0.939758
0.088003,0.154545,0.855508,0.854494,-0.436434,0.281719
-0.349250,-0.721305,0.637968,0.214992,0.407546,-0.887516
-0.211805,0.286704,0.336557,-0.154527,0.320291,0.934631
-0.388042,-0.257604,0.412049,-0.084590,0.685470,0.723171
0.554674,-0.298189,-0.969140,-0.038578,0.008272,0.999221
-0.322197,-0.411135,0.543188,-0.337646,0.084454,-0.937477
0.407160,-0.176349,0.918329,0.812426,0.526986,-0.249499
