0.145447,-0.608729,-0.017635,-0.297032,-0.010897,0.954805
0.719291,0.326667,0.425590,0.413389,0.216574,-0.884423
0.015907,-0.557302,-0.070728,0.403659,-0.914807,-0.013683
0.494470,-0.562075,0.406325,0.762228,0.056296,-0.644855
-0.065034,0.500235,0.667204,0.095564,-0.491285,0.865741
-0.475447,-0.396064,-0.500553,0.076987,0.198635,0.977045
0.167199,0.462904,-0.169871,-0.491826,0.149418,0.857777
-0.377478,-0.468280,0.698100,0.041987,0.058342,0.997413
-0.551378,-0.130392,0.661749,-0.325845,-0.774297,-0.542484
-0.094486,0.616135,0.584182,-0.093118,-0.385597,0.917957
-0.018189,-0.244299,0.536789,0.494269,-0.020552,-0.869066
-0.251238,-0.034303,-0.049661,0.116690,0.253061,0.960387
-0.131149,-0.223736,-0.982521,0.115719,-0.227102,-0.966971
0.176691,0.472867,-0.408897,0.086898,0.428364,0.899418
-0.369087,-0.727261,0.319027,0.370822,0.717491,0.589658
-0.142473,-0.211405,-0.164416,-0.116217,0.287527,0.950696
0.033627,0.432454,0.629657,-0.510334,0.533100,0.674807
0.273479,0.208963,0.612489,0.630066,0.204348,0.749172
-0.267654,-0.320275,0.661962,0.473040,0.086982,0.876737
-0.299590,-0.190541,0.649496,-0.368494,-0.440373,-0.818709
-0.027680,0.468168,0.287623,-0.022147,0.119120,0.992633
0.209280,-0.072273,-0.984962,0.074618,0.081451,0.993880
0.113755,0.662788,0.417940,0.450636,-0.804345,0.387242
0.283744,0.231179,-0.514903,-0.304642,0.392745,0.867724
-0.062998,0.146144,0.379181,-0.239213,0.473063,0.847932
-0.377437,-0.329900,0.679474,0.417863,-0.001161,0.908509
0.065605,-0.074453,0.098381,0.001733,-0.999881,0.015302
-0.521396,0.532829,0.364551,0.445055,-0.235087,0.864095
0.108866,-0.244037,-0.974133,0.320449,0.055193,0.945657
-0.070982,0.121971,0.609262,-0.605505,0.297120,0.738297
0.113836,-0.362004,-0.968023,0.059583,-0.117893,-0.991237
-0.032609,0.263887,0.660537,-0.341984,-0.584238,0.736012
0.247245,-0.034041,0.146838,0.379007,-0.434470,-0.817061
-0.261259,0.560158,0.569504,0.476772,0.272290,0.835791
-0.272542,0.214602,0.163826,-0.158290,0.418337,0.894393
0.140762,0.892596,0.382539,-0.116331,-0.010134,0.993159
-0.355562,0.477829,0.649856,-0.289456,0.905159,0.311290
0.014523,-0.143512,-0.036359,0.082790,-0.969067,-0.232496
0.065319,-0.332381,-0.969792,-0.109886,0.080720,0.990661
-0.647311,-0.070619,0.602054,0.469732,-0.614375,-0.633952
0.039575,-0.001033,0.630346,-0.682938,-0.255643,0.684282
-0.108622,0.143287,0.718201,0.560664,-0.826001,0.058124
-0.105200,0.013628,0.588818,-0.300525,-0.416490,0.858033
-0.067723,0.154377,0.680277,0.910588,0.000083,0.413315
-0.713588,-0.151482,0.663371,0.186617,0.634185,0.750322
0.083080,-0.055844,-0.985928,-0.121238,0.116540,0.985758
0.175591,-0.715080,-0.006872,-0.348201,-0.212389,0.913043
-0.158075,-0.314975,-0.098643,-0.091626,0.355655,0.930115
0.688739,-0.012650,0.167626,0.643876,0.282921,0.710901
0.433082,-0.055205,0.509940,-0.280986,0.145832,0.948567
0.306393,-0.752109,-0.267588,-0.458175,-0.073470,0.885821
-0.202396,-0.001371,0.217296,0.113386,0.531349,0.839531
-0.156853,-0.342118,0.423526,-0.025552,-0.195272,0.980416
0.924028,0.070883,0.520801,-0.454397,0.763461,0.458968
-0.121495,0.262307,0.844799,0.925906,-0.377275,0.019032
-0.079047,0.072838,0.595059,0.532268,-0.843387,-0.073407
-0.132167,0.460949,0.672185,-0.056269,-0.482728,0.873961
0.052977,0.572940,0.690352,0.064146,-0.612347,0.787982
-0.500988,0.300427,0.863556,0.254929,0.798883,-0.544791
-0.337597,-0.150242,0.425180,0.299693,0.639936,0.707577
-0.446076,-0.199489,0.710174,-0.332754,-0.096773,-0.938035
-0.039657,0.507904,0.834642,-0.187161,-0.825395,0.532629
-0.017944,0.315125,0.743199,-0.691259,0.519009,-0.502783
-0.727927,-0.191406,-0.192625,-0.026721,0.550869,0.834164
-0.178036,-0.083927,0.605314,-0.633256,-0.221149,-0.741674
0.340897,-0.216932,-0.976934,-0.018232,0.059953,0.998035
-0.472513,0.422492,0.113747,-0.363630,-0.248606,-0.897757
-0.266636,-0.361516,0.297616,0.041908,-0.035500,0.998491
-0.160722,0.365125,0.653215,-0.307203,-0.902411,-0.302126
-0.044423,0.338358,0.623580,0.095157,0.353621,-0.930536
0.690898,-0.169000,0.428653,0.276316,0.340760,-0.898628
-0.714973,0.382944,0.325530,-0.304026,0.236942,-0.922728
0.199136,-0.057086,-0.984568,0.010337,0.129951,0.991467
0.692609,-0.141519,0.167250,-0.091638,0.220834,0.970997
-0.316863,-0.622525,-0.315767,0.249876,-0.369561,0.894978
0.287941,-0.438770,-0.637946,0.301609,0.144522,0.942414
-0.160722,0.340389,0.961224,0.774605,0.628311,-0.072197
-0.081736,-0.290125,0.623564,0.791932,-0.071521,0.606406
-0.044545,-0.310314,-0.973822,-0.071131,0.183520,0.980439
0.600057,0.188925,0.463301,0.456475,-0.889733,0.002513
0.133878,-0.362831,-0.963583,-0.239083,0.130586,0.962178
0.182842,-0.204977,0.139024,-0.472072,-0.123022,0.872934
-0.466770,-0.203060,-0.182534,-0.241769,0.474649,0.846319
0.044096,0.318885,0.449671,0.770597,-0.052742,-0.635136
0.289203,0.600910,-0.032182,-0.340773,0.128868,0.931271
-0.451046,-0.242759,0.439482,0.510219,0.366439,0.778074
0.004949,0.172384,0.642222,-0.612826,0.249054,-0.749945
-0.061409,-0.360388,-0.971496,0.041064,0.020866,-0.998939
0.124141,-0.474671,-0.023238,-0.261282,0.044121,0.964254
0.003850,-0.197797,-0.978163,0.232888,-0.137163,-0.962782
0.059495,-0.246517,-0.951838,0.894383,-0.411692,0.174897
-0.082674,0.088175,0.622613,0.358886,-0.923093,0.138207
0.239261,0.486288,0.698772,-0.162797,-0.754028,0.636348
0.048007,-0.030808,0.169101,-0.655848,-0.733223,-0.179573
0.811272,-0.145918,0.429915,-0.138940,0.619521,-0.772586
-0.245371,0.028778,-0.042699,0.130419,0.197179,0.971654
-0.268020,0.477078,0.339930,-0.171678,0.580448,-0.795994
0.231929,-0.150617,-0.979162,0.005216,0.056177,0.998407
-0.316904,-0.048815,-0.218672,0.126743,0.748597,0.650799
0.172821,0.050243,-0.994037,-0.062573,0.229878,0.971206
-0.045889,0.794026,0.391401,0.063876,-0.105003,0.992418
0.099986,0.109227,-0.294880,0.989155,0.066936,-0.130739
-0.092042,0.273097,0.880086,-0.656403,-0.754041,0.023633
-0.779294,-0.145429,0.371055,0.288412,0.013817,0.957407
0.357477,0.009794,0.149557,0.260879,-0.141626,-0.954926
-0.398864,0.330839,0.618960,-0.508393,-0.498082,0.702460
0.009389,-0.288170,0.289949,0.585574,-0.355304,-0.728603
0.260851,0.220391,-0.023467,0.166172,0.214231,0.962545
0.110373,-0.076784,-0.985355,-0.025226,0.118689,0.992611
-0.162841,0.538429,0.306413,0.027490,0.794713,0.606362
0.165734,-0.014229,0.247831,0.067912,-0.903504,-0.423165
-0.330142,-0.436626,0.495163,-0.615008,-0.522598,0.590471
-0.043119,0.556174,0.575811,-0.414414,0.323084,-0.850810
0.359064,0.214602,0.327267,0.760126,0.111015,0.640222
-0.576145,0.194377,0.760466,-0.597727,0.771500,-0.217968
-0.224841,0.286705,0.338406,0.770717,0.299276,0.562521
-0.112084,-0.347869,-0.486366,0.358089,-0.112976,-0.926827
-0.482983,-0.353470,-0.152178,-0.069756,0.219631,0.973086
0.408396,0.114716,-0.179274,0.653956,-0.116688,0.747479
-0.517038,0.500311,0.602726,0.092847,0.620272,0.778873
0.162189,-0.475950,0.480387,0.263372,-0.808699,0.525966
0.655457,0.377530,-0.009755,-0.064951,0.212253,0.975054
0.014074,-0.104228,-0.071547,-0.051588,-0.858152,0.510797
0.386642,0.379034,0.573501,-0.271415,0.258917,0.926982
-0.190827,-0.367417,0.544063,-0.493807,0.585839,0.642610
0.261585,0.068928,-0.013343,0.885661,-0.208605,-0.414836
-0.173025,0.213023,0.830678,-0.542999,0.666042,-0.511410
-0.487912,-0.229300,0.712140,0.276232,-0.201459,0.939739
-0.400941,-0.225841,0.435255,0.786152,-0.040776,0.616687
-0.672404,-0.007989,0.001499,0.320024,0.682836,0.656750
-0.384117,0.297420,-0.386044,0.299462,0.427654,0.852898
0.186101,-0.798762,-0.019109,-0.350194,-0.118314,0.929175
-0.235880,0.535535,0.676952,0.041496,-0.783484,0.620025
0.012363,0.638879,0.394563,-0.108134,-0.184008,0.976959
0.204758,-0.746508,-0.013998,0.335338,0.213840,-0.917508
-0.579282,0.515009,0.122331,0.154229,0.371899,0.915371
-0.219382,-0.275878,-0.981816,-0.141267,0.228078,0.963340
-0.014564,0.026823,0.253778,-0.606656,-0.471869,0.639772
-0.545716,0.338321,0.350529,-0.137809,0.406651,-0.903130
-0.054158,0.608917,0.575827,-0.179193,0.023300,-0.983538
0.049229,0.575684,0.553859,-0.105482,0.052423,0.993038
0.025113,0.395876,0.615340,-0.213725,0.150206,-0.965277
0.304357,0.165391,-0.510857,0.385224,-0.140598,-0.912050
-0.329369,0.622225,0.592799,-0.556243,0.108275,-0.823936
-0.092409,0.452191,0.637554,-0.030204,-0.777842,0.627734
0.222518,0.358132,0.291079,-0.548847,-0.482208,-0.682820
-0.237021,-0.161219,0.397528,0.248501,-0.758845,-0.601998
0.490519,-0.232457,-0.180257,-0.131208,-0.366344,0.921182
0.030938,0.021259,0.557136,0.916105,0.391443,-0.086743
0.319185,-0.339825,-0.968367,0.014717,0.073517,0.997185
0.146465,-0.510272,0.465086,-0.149450,0.926410,-0.345585
-0.144550,0.487716,0.940534,0.331490,-0.826152,0.455618
-0.637209,-0.428732,-0.482991,0.076987,0.198635,0.977045
0.621851,0.250954,0.568537,-0.292308,-0.536829,0.791436
-0.497037,-0.087084,0.646531,-0.113443,0.818128,0.563735
-0.069271,0.255052,0.276156,0.347161,0.128081,-0.929018
0.264313,0.318396,0.297927,-0.446267,-0.427716,-0.786070
-0.139133,0.076033,0.641927,0.706363,-0.675705,0.210890
0.293155,0.033364,0.470951,0.570814,0.400724,-0.716653
0.132167,-0.501551,0.112059,-0.394760,-0.254358,0.882874
-0.384076,0.318133,-0.326562,-0.088840,-0.165444,0.982210
-0.115018,-0.112611,-0.989974,-0.058808,0.012646,0.998189
0.610730,-0.036296,0.521489,0.454440,0.475661,-0.753147
0.010856,-0.402380,0.624940,0.306013,0.589744,0.747368
0.229851,-0.201857,0.633900,-0.124130,0.600575,0.789874
-0.023159,0.489370,0.819735,-0.196509,-0.707091,0.679269
0.204391,0.612300,-0.426982,-0.321874,0.234450,0.917295
0.174410,-0.470762,-0.433813,-0.139772,-0.287585,0.947501
-0.583926,0.070695,0.321599,-0.670464,-0.346658,-0.655977
-0.166915,-0.335162,-0.097742,0.108116,-0.229650,-0.967250
0.297758,-0.398394,0.323826,-0.602482,0.527503,0.598962
0.167688,-0.137610,0.644745,0.914609,0.045632,0.401755
-0.318573,0.108326,0.857135,-0.191217,0.849739,0.491304
0.074811,0.563355,0.548535,-0.138834,0.339152,0.930431
-0.060187,0.649819,0.433797,-0.407928,0.021077,-0.912771
-0.383343,-0.037386,-0.199407,0.510684,0.464332,0.723601
-0.234658,-0.256856,0.290359,0.187957,0.128064,0.973793
0.179623,-0.674028,-0.011017,-0.268102,-0.102913,0.957878
-0.383669,-0.648014,0.405997,-0.839954,0.451119,0.301611
0.271769,-0.221030,-0.969923,0.045854,0.054436,0.997464
-0.206550,-0.388395,0.666697,0.393666,-0.810099,-0.434473
-0.265658,0.475461,0.646318,-0.235366,-0.501176,0.832722
-0.159826,0.063289,0.665157,0.735905,-0.616130,0.280762
-0.092083,0.192045,0.886278,0.946451,0.317738,0.057215
0.082754,0.014042,-0.991055,-0.003326,0.255050,0.966922
0.172740,0.584031,0.521964,-0.393916,0.232239,-0.889323
-0.421676,-0.515949,0.640191,0.016847,-0.830862,0.556224
-0.043974,-0.008289,-0.246505,0.575617,0.806340,0.135940
-0.268387,0.609405,0.559151,-0.603412,-0.271642,-0.749737
-0.710940,-0.021372,0.743249,-0.107717,-0.827223,0.551451
0.002994,-0.306967,-0.972397,-0.088368,0.148298,0.984987
0.099009,-0.187496,-0.201684,0.947056,-0.320818,-0.012676
-0.679899,0.224940,0.333213,0.595885,0.184395,0.781614
0.249120,-0.841356,-0.292832,0.766382,0.055928,-0.639945
-0.495652,0.095619,0.815918,0.400834,0.828613,0.390810
-0.624458,-0.031898,0.350971,-0.273395,-0.369044,-0.888291
-0.367782,0.210053,0.154374,-0.031256,0.651487,0.758016
-0.001120,-0.361215,-0.032428,-0.595577,0.632901,0.494696
0.166589,0.691322,0.526059,-0.402254,-0.095948,-0.910487
-0.524370,0.468206,0.373594,0.545582,-0.139350,0.826391
0.040593,-0.937933,-0.306642,-0.192474,-0.116275,0.974389
-0.035542,0.383207,0.824060,-0.669795,-0.329049,-0.665658
-0.687232,0.248360,0.338243,-0.566500,-0.132557,-0.813330
-0.005276,0.604255,0.417907,0.624065,-0.744975,0.235703
0.320651,0.006222,0.288655,0.121081,-0.522882,0.843762
-0.061817,0.151107,0.491789,0.916581,-0.198631,0.347023
-0.297105,0.404109,0.904003,0.338930,-0.861337,-0.378450
-0.125934,0.580347,0.115516,-0.415118,0.013834,0.909662
-0.079781,0.129416,0.666254,0.849840,-0.460480,-0.256380
0.243212,-0.920301,-0.304267,-0.603433,-0.148452,0.783473
0.067561,-0.114866,0.019683,-0.500982,-0.843909,0.191925
0.149358,-0.167609,-0.979670,0.124546,0.131670,0.983438
-0.205165,-0.062498,0.364470,-0.648801,0.581111,0.491292
-0.469337,0.397943,-0.324072,-0.167194,-0.217833,0.961559
-0.208669,0.210353,0.793688,0.369800,-0.318387,-0.872856
0.027394,0.259977,0.388452,0.802823,0.105977,0.586723
-0.234944,0.008816,0.321418,-0.722523,-0.171456,0.669749
0.191233,0.175016,-0.197245,0.726724,-0.312765,0.611597
0.167648,-0.346515,-0.965500,0.006310,0.092032,0.995736
0.032405,0.094867,0.567309,0.893342,0.346909,-0.285646
0.118724,-0.252307,-0.973412,0.205190,-0.044300,0.977719
-0.111717,-0.332456,-0.972266,-0.061789,0.124088,0.990346
0.183860,-0.974060,-0.024122,0.254103,0.057213,-0.965483
0.091635,-0.087686,0.052774,-0.102005,-0.960195,0.260041
0.167158,-0.051521,0.076036,-0.141299,0.912115,-0.384813
0.426564,0.216142,0.291227,0.444053,-0.082354,0.892208
0.217060,-0.332193,-0.967351,0.037085,0.002295,0.999309
-0.538628,-0.071333,0.608460,-0.079626,0.800121,0.594530
0.557651,0.379636,-0.014752,0.183697,-0.094459,-0.978434
-0.023606,0.448845,0.635997,0.565398,-0.372893,0.735714
0.069963,0.158738,-0.202831,0.556416,0.708114,-0.434714
0.150946,-0.423695,-0.017389,-0.404723,-0.007651,0.914407
0.087236,-0.278772,-0.974510,-0.165002,0.001281,-0.986292
0.229933,-0.073964,0.075282,0.065484,0.470122,-0.880169
0.032813,0.003026,0.439383,0.872385,0.467018,0.144356
-0.115383,-0.511512,-0.095219,-0.031990,-0.111065,0.993298
-0.525470,-0.006823,-0.306626,0.111428,0.751639,0.650094
-0.100597,0.074491,-0.609098,-0.443796,0.404669,0.799555
-0.102553,0.319975,0.949528,0.960428,0.278132,0.014836
-0.282889,-0.532828,-0.606346,-0.004326,0.062232,0.998052
-0.108296,0.144227,0.575745,0.965240,-0.060460,0.254275
-0.068253,0.097047,0.502633,0.919348,0.322180,0.225830
-0.630446,-0.102461,0.620140,-0.278851,0.890714,0.358986
0.233883,-0.132911,0.167332,0.276111,-0.233034,-0.932447
-0.340897,0.211293,0.368106,-0.078044,0.587916,0.805149
-0.396134,-0.228172,0.329953,-0.493639,-0.001877,-0.869665
0.174329,0.351629,-0.386487,-0.160103,0.245936,0.955972
-0.166915,0.251781,-0.226355,-0.246349,-0.209036,0.946370
-0.891847,0.213548,0.390451,-0.538242,-0.083953,-0.838598
0.054403,-0.545722,-0.296731,-0.260436,-0.076563,0.962450
-0.089517,-0.189451,-0.991940,-0.120993,0.159039,0.979830
0.128868,-0.140129,0.662470,0.653754,0.584490,0.480600
0.578671,0.041184,0.527337,-0.194935,0.009718,0.980768
0.065482,0.280276,0.679737,0.269089,0.883005,-0.384569
0.851723,-0.004568,0.477373,0.368995,-0.007453,-0.929401
-0.361184,0.061709,0.277532,0.044767,0.178704,0.982884
-0.303990,-0.049228,-0.299336,0.400490,-0.890799,-0.214673
-0.569180,-0.368395,0.359457,-0.529771,-0.079873,-0.844371
-0.351365,0.102122,0.282217,0.258065,0.231685,-0.937936
0.012281,0.310764,0.615946,0.522504,-0.008901,0.852590
-0.068008,0.095919,0.622744,-0.403750,0.912538,0.065277
0.478909,-0.262345,0.347203,-0.189113,-0.076268,0.978989
0.104711,-0.080994,0.115631,0.210152,0.968776,-0.131561
0.273887,-0.741208,-0.278662,-0.559626,-0.142721,0.816363
-0.251442,0.193774,0.793000,-0.160679,0.969938,-0.182762
0.274823,0.285991,-0.036589,0.178657,0.338615,0.923808
-0.616841,-0.499107,0.360407,-0.522745,0.148154,0.839516
0.035338,-0.028815,0.375364,0.998239,-0.025192,-0.053713
-0.148461,0.433357,0.774341,-0.460541,-0.490134,0.740047
0.031264,-0.239375,0.591570,0.801866,0.589007,0.100413
0.155672,0.475010,-0.178700,-0.498099,0.125573,0.857979
0.393405,0.179489,0.643533,0.735282,-0.037763,-0.676708
0.480049,0.198662,0.522193,0.838361,0.413428,0.355286
0.131760,0.241142,0.616634,-0.248616,-0.314150,0.916242
-0.045033,0.359599,-0.205599,-0.290843,0.134122,0.947323
0.393731,0.576963,0.583772,-0.660435,-0.252792,0.707052
0.186467,-0.004568,0.656769,-0.402633,0.913429,-0.059439
-0.422123,0.312344,0.662716,0.796439,-0.320744,0.512648
-0.109152,0.995113,0.393285,0.400913,0.090200,0.911665
0.103489,-0.300765,0.492608,0.788925,0.121811,-0.602295
-0.315478,-0.279224,0.666041,-0.548291,-0.015107,-0.836151
-0.968471,0.067800,0.385799,0.161557,-0.292390,0.942554
0.155427,-0.103362,0.143594,-0.385933,0.345611,0.855342
-0.371978,-0.570947,0.389665,-0.844890,0.521303,-0.120015
-0.346437,0.322156,0.149394,0.386062,0.855155,0.345929
-0.059699,0.487115,0.668695,-0.234123,-0.576239,0.783029
0.433978,-0.443995,0.058049,0.008049,-0.560968,0.827798
0.809967,0.126558,0.538182,0.557267,-0.398068,0.728694
-0.237225,-0.134377,0.386601,-0.356044,0.654813,0.666673
0.419394,-0.008740,-0.148394,0.186829,0.883053,-0.430479
0.989165,0.151069,0.494754,-0.490792,0.508428,0.707548
0.169033,-0.169075,-0.978867,-0.112017,-0.073608,-0.990976
-0.311975,-0.470836,0.498456,-0.817565,0.303175,0.489563
-0.843942,-0.049266,0.383702,0.046298,0.322806,0.945332
-0.142799,-0.205842,-0.163301,-0.116217,0.287527,0.950696
-0.246309,0.536400,0.565867,0.456582,0.360131,0.813535
0.066378,-0.247909,-0.080672,0.807126,-0.314927,-0.499368
-0.036030,0.492904,0.827107,-0.187161,-0.825395,0.532629
-0.061898,0.794515,0.615029,0.479908,0.522617,-0.704670
-0.394017,0.213662,0.109881,-0.271609,0.824480,0.496449
0.012363,0.608804,-0.489266,0.623767,0.706175,-0.335010
-0.231521,-0.640194,-0.319731,-0.190564,-0.322694,0.927121
0.224637,0.468544,-0.042126,-0.250168,-0.029052,0.967766
0.092083,-0.193436,-0.400886,0.961107,0.122294,-0.247623
0.195389,-0.542678,-0.438187,0.411042,0.334103,-0.848186
-0.177750,-0.271178,0.491199,-0.221812,0.675625,0.703086
-0.308756,0.240391,-0.386159,0.003063,0.398709,0.917072
-0.147606,0.410199,0.549125,0.306696,-0.490827,0.815491
0.348311,-0.028100,-0.536691,0.345699,-0.196260,0.917591
-0.404485,-0.110806,0.645155,0.312535,0.614957,0.723982
0.013707,0.642976,0.568210,-0.416596,0.321766,-0.850243
-0.371897,-0.279825,-0.166218,-0.157920,-0.283565,0.945860
0.306353,-0.081860,0.433126,-0.415413,0.589321,-0.692916
-0.033098,0.537339,-0.677623,0.249928,-0.475014,-0.843741
-0.074934,0.320539,0.523651,0.254850,-0.393638,0.883233
0.181253,-0.755192,-0.011934,-0.144651,-0.183578,0.972304
-0.030613,-0.217797,-0.980161,-0.153551,0.229374,0.961150
-0.073223,-0.191068,-0.984945,-0.133460,0.189437,0.972781
0.268346,0.397154,0.668794,0.324995,0.462975,-0.824641
-0.030328,0.030658,0.257628,-0.603355,-0.568637,0.559120
-0.001854,0.576812,0.694693,-0.042765,-0.781657,0.622241
-0.475895,-0.356215,0.494524,0.116273,0.532042,0.838697
0.569627,0.201181,0.460680,0.321800,-0.943111,-0.083581
0.186141,-0.172158,-0.978966,0.135935,0.094651,0.986186
-0.062998,0.357305,0.867111,-0.670344,0.702268,-0.239704
-0.553252,0.234450,-0.380687,-0.018726,-0.214523,0.976539
-0.117868,-0.291367,-0.594322,-0.701329,0.629810,0.333882
-0.069026,0.813538,0.391188,0.329106,-0.115354,0.937221
0.081044,0.522904,0.414041,0.806530,-0.582480,0.101124
-0.155346,0.355050,0.892912,-0.232408,-0.792445,0.563931
0.407988,-0.463243,0.357966,0.952831,-0.014398,-0.303160
-0.110252,-0.129791,-0.990711,-0.092557,0.079163,0.992556
-0.058110,0.041071,0.179028,0.064555,-0.485037,0.872107
0.002057,0.123099,0.466725,0.860868,-0.229936,0.453911
0.124141,0.824740,0.366321,-0.130583,0.046048,0.990367
-0.690083,0.001673,0.358621,0.285296,0.117182,0.951249
-0.177873,0.239113,0.832234,-0.472274,0.400737,-0.785091
0.068130,0.458055,-0.188382,-0.418355,0.174979,0.891270
0.775587,0.245541,0.438384,0.433451,0.346456,-0.831918
0.027354,-0.555647,-0.102591,0.418575,0.075123,-0.905070
0.089761,-0.192909,-0.155831,-0.530079,0.847647,0.022589
0.148379,0.104302,-0.171542,0.687243,0.358666,0.631708
-0.017455,-0.186631,-0.981669,-0.231476,0.226178,0.946183
-0.134366,-0.339899,-0.973674,-0.050102,0.070953,0.996221
-0.471658,0.235692,0.298894,-0.133052,-0.450981,0.882561
-0.117339,0.143588,0.393318,-0.604960,-0.477779,-0.636985
-0.402285,0.260540,0.838181,0.258528,-0.783966,0.564412
-0.026295,0.494070,0.553302,-0.601582,0.462065,-0.651609
0.011589,0.265389,-0.191019,-0.286558,-0.022185,0.957806
-0.134286,0.450349,0.932589,-0.643631,0.126537,-0.754803
-0.346926,-0.260314,0.690909,0.754509,-0.178487,0.631553
0.242520,-0.027687,0.665960,0.822585,0.548604,-0.149625
0.184146,-0.163624,0.308329,-0.420651,-0.335235,0.843012
0.349329,-0.004116,0.356377,-0.180631,0.698615,0.692322
-0.394953,0.745493,0.056755,0.146100,-0.454670,-0.878595
0.616270,0.474371,-0.025891,-0.063064,0.273125,0.959909
-0.502739,0.528054,0.368123,-0.433516,0.250862,-0.865524
0.296087,0.011260,0.300696,-0.615186,0.621687,-0.484821
-0.111066,0.542001,0.683832,-0.001627,-0.688514,0.725221
-0.104630,0.649969,0.447542,0.261318,-0.160255,0.951857
0.004257,-0.439446,0.426262,0.974441,0.157092,-0.160582
0.006579,0.476024,0.661356,-0.472377,0.600017,-0.645631
-0.063975,-0.598353,-0.044124,-0.535459,0.778028,0.328565
-0.732407,-0.065882,0.371383,0.375737,0.249886,0.892400
-0.469581,-0.425499,-0.503649,0.051383,0.203153,0.977798
0.339063,-0.195240,-0.976967,0.022104,0.045070,0.998739
-0.195878,0.241631,-0.372431,0.390830,-0.318229,-0.863702
-0.201825,-0.206932,0.625480,0.612029,0.130215,0.780041
-0.356335,0.201482,0.823077,0.543216,0.088983,0.834864
-0.090086,0.199414,0.593405,0.440828,0.125353,0.888796
-0.335642,0.028176,0.182845,-0.128899,0.426272,0.895364
0.052610,0.757749,0.559970,0.859181,0.504602,-0.084766
0.146465,0.028853,-0.989663,-0.120540,0.235135,0.964459
0.120395,0.148475,0.337161,0.926976,-0.366870,0.078237
-0.139499,0.020470,0.576564,-0.603521,0.319189,-0.730672
0.043892,-0.109265,-0.578530,0.980815,0.037434,-0.191315
0.045074,-0.785003,-0.300187,-0.158832,-0.189584,0.968933
-0.587674,0.573542,0.395284,-0.566842,0.250311,-0.784879
-0.252786,0.174903,0.324203,-0.701346,0.431149,0.567648
0.170051,-0.158136,0.301203,0.039729,0.798690,0.600429
0.022588,-0.267607,-0.095268,-0.576902,0.336548,0.744258
-0.269201,-0.470085,0.681309,-0.176510,0.011489,-0.984232
0.064220,-0.090431,0.069025,0.218785,0.968538,-0.118609
-0.190134,-0.331628,0.510169,-0.446093,0.663926,0.600170
-0.076319,-0.385124,-0.970562,-0.016626,0.080542,0.996613
0.816242,0.009906,0.475587,-0.369380,-0.043496,0.928260
-0.053711,0.178813,0.845667,0.467023,0.880499,-0.081316
0.216775,0.167496,0.607215,0.290698,-0.217778,0.931701
0.192455,-0.111671,-0.981177,0.018110,0.114004,0.993315
-0.245330,-0.222007,0.648087,0.239652,0.312987,0.919025
-0.204881,0.163362,0.404032,-0.537286,0.450258,0.713156
0.035094,0.328810,0.390140,0.934066,0.052710,0.353189
-0.009674,0.228285,0.666893,0.760214,-0.148191,0.632546
0.210746,-0.471251,-0.418710,-0.087140,-0.275386,0.957376
-0.179909,0.387681,0.960880,0.907688,-0.005300,-0.419612
0.092409,0.004380,-0.992481,0.082178,0.213169,0.973553
-0.079251,-0.180241,0.616732,-0.369133,0.372760,-0.851346
-0.190664,-0.345990,0.523061,0.723775,-0.530486,-0.441288
-0.137137,-0.299938,-0.974100,-0.177137,0.247909,0.952451
0.019003,-0.190315,-0.657228,-0.097422,0.992437,0.074689
-0.255963,-0.010094,0.610212,-0.049261,-0.963385,-0.263559
0.197588,-0.215916,0.031854,-0.713196,-0.412268,0.566909
0.559647,0.142760,-0.171558,0.844488,0.142587,0.516245
0.540176,-0.737298,0.412943,-0.165071,-0.828730,0.534751
0.054851,0.010018,-0.991629,0.006395,0.181928,0.983291
0.192659,-0.103588,-0.979998,-0.019531,0.109733,0.993769
0.223944,-0.118438,0.674019,-0.399542,0.467027,0.788830
-0.572642,0.315502,-0.355034,0.253777,0.070681,0.964677
-0.075789,-0.138212,-0.032329,0.038427,0.757232,0.652014
0.079577,0.124490,0.618862,-0.728968,0.297705,-0.616423
-0.258040,0.273886,-0.677935,0.378319,-0.443479,-0.812528
0.624295,0.208963,0.459058,-0.463626,0.748140,-0.474698
0.028128,0.016071,-0.567833,0.009021,0.407332,0.913236
-0.099089,-0.352079,0.552598,-0.391010,0.402896,-0.827518
-0.032283,0.574520,-0.421658,-0.116676,0.386776,0.914763
0.000794,-0.359335,0.425557,0.901278,0.072505,-0.427132
0.489907,-0.520986,0.401263,-0.438917,-0.325467,0.837510
-0.230095,0.646435,0.732109,0.183791,-0.629391,0.755042
0.138114,0.599331,0.389010,-0.534839,-0.026959,-0.844524
-0.636271,0.334374,0.825371,-0.705072,0.039366,-0.708042
0.078151,0.605910,-0.072268,-0.250561,0.307803,0.917865
-0.279997,0.160655,0.757108,-0.679462,-0.632018,0.372673
0.671589,0.005658,0.567046,-0.447340,0.207834,0.869880
0.036154,0.689780,0.451489,-0.088457,-0.128421,0.987767
-0.072653,0.319374,0.857036,0.823411,-0.558790,-0.098729
0.025399,0.430048,-0.046155,-0.023946,0.221003,0.974979
-0.281790,0.209414,0.505271,-0.456754,0.573517,0.680039
0.043892,-0.168738,-0.449065,0.993283,0.091294,-0.071087
-0.347293,0.280352,0.893928,-0.020195,0.990728,0.134352
-0.085361,-0.440612,-0.966188,-0.057486,0.192332,0.979645
-0.019085,0.732486,0.573812,-0.371214,-0.051301,-0.927129
-0.406400,-0.161632,0.699608,0.179332,0.331436,0.926278
-0.715828,-0.174865,0.652854,-0.354593,0.822648,0.444425
-0.179298,0.559219,0.407144,0.719937,-0.606064,-0.338195
0.808135,0.009568,0.296616,0.081310,0.510683,0.855916
-0.108255,0.114942,0.693186,0.557010,-0.783980,0.274072
0.475853,-0.039267,-0.547568,0.336631,-0.228069,0.913599
-0.050410,0.375463,0.763316,-0.371805,-0.553782,0.745041
-0.001528,0.120656,0.447263,0.971322,-0.221807,0.085646
-0.312463,-0.496964,0.604282,0.089119,0.945367,0.313590
-0.317963,0.328058,0.328184,0.399174,-0.264441,0.877913
-0.013260,-0.417755,0.501962,0.031018,-0.800440,0.598610
-0.221704,0.414372,0.475620,-0.201559,0.693428,0.691759
-0.307371,-0.179865,0.418939,0.708368,0.574992,0.409389
0.413488,-0.003364,0.306020,-0.195269,0.345103,0.918027
0.231888,0.425650,0.549829,-0.316051,0.318600,0.893647
0.821701,0.357944,0.435845,-0.367077,-0.311955,0.876321
0.392956,0.097385,0.299188,0.137860,0.035492,0.989816
-0.383466,0.439258,0.642140,-0.548955,-0.389164,0.739730
0.328676,0.311179,0.288819,-0.117421,-0.069949,-0.990616
-0.139174,0.157347,0.813461,-0.114087,0.917731,0.380466
-0.260729,0.407117,0.909065,-0.242556,0.880304,0.407714
-0.695257,0.027875,0.000532,0.243173,0.438224,0.865347
-0.215186,-0.416439,0.554039,0.528919,-0.559067,-0.638506
0.222275,0.500085,0.359080,0.622311,-0.440660,0.646953
-0.302687,-0.419823,0.678655,0.126518,0.304258,0.944150
0.013300,0.090469,0.322778,0.794131,-0.418721,-0.440486
-0.001324,0.409936,0.945236,0.744405,0.545729,-0.384759
-0.046174,0.539707,0.852007,0.031974,-0.808633,0.587444
-0.233924,0.434221,0.663306,0.429296,0.288351,0.855897
-0.244924,-0.145429,-0.178242,0.054344,0.528479,0.847205
0.560381,-0.067874,-0.158928,0.168969,-0.103029,0.980222
-0.531539,0.011598,-0.678688,-0.321266,0.244442,0.914897
0.181946,0.055055,-0.992562,-0.069921,0.231370,0.970350
-0.367294,0.124829,0.275959,-0.007461,-0.451065,0.892460
0.245493,-0.174601,0.710027,-0.271441,0.710377,0.649372
-0.072978,0.819627,0.387879,0.329106,-0.115354,0.937221
0.107604,0.251105,-0.174425,0.280954,-0.189596,-0.940807
0.715584,0.148851,0.549354,0.218156,0.414581,-0.883476
-0.562662,-0.341140,-0.492771,0.098679,0.194090,0.976008
0.100597,-0.415011,-0.966270,-0.013949,0.142342,0.989719
-0.568039,0.268660,0.817098,-0.427749,-0.112859,-0.896824
-0.148991,0.716020,0.445445,0.343744,-0.054567,0.937477
-0.347618,0.021147,0.826828,-0.056413,0.840117,-0.539463
0.251726,-0.925264,-0.290686,0.626460,0.125313,-0.769314
-0.303054,-0.106520,0.097807,-0.147594,-0.937266,0.315831
-0.133470,0.104566,0.179470,0.232120,0.529900,0.815676
0.344074,0.110656,0.348170,-0.566680,-0.161335,-0.807988
-0.065320,-0.197909,-0.157994,0.204915,0.640125,-0.740439
0.029838,-0.229187,-0.691793,0.311794,0.945518,-0.093701
-0.423223,-0.057311,0.614373,0.282663,-0.864462,-0.415702
-0.330997,-0.447755,-0.616339,0.209465,-0.339492,-0.916989
-0.460048,0.485010,0.658489,0.453846,0.879086,-0.145714
-0.207202,0.351216,0.674019,0.376496,0.895319,0.238021
-0.030776,-0.373244,0.295437,-0.246013,0.308787,0.918764
-0.000550,0.556399,0.608755,0.818989,-0.256363,-0.513357
-0.045278,0.195316,0.884591,-0.097065,0.930152,0.354111
0.474184,0.224827,-0.183828,0.277509,-0.304408,0.911222
0.333483,-0.091558,0.080574,0.131816,0.152035,-0.979546
-0.076359,0.212120,0.587868,0.878045,-0.121804,0.462818
-0.308960,-0.254901,0.655623,-0.329604,-0.262204,-0.906979
0.363301,-0.273171,-0.966679,-0.031138,0.159977,0.986630
-0.117380,0.439635,-0.669875,-0.236703,0.468433,0.851200
0.075666,0.242382,0.677328,0.964377,-0.013901,-0.264166
0.253029,-0.023138,0.356082,-0.396645,-0.063633,0.915764
0.494226,0.029267,-0.149180,0.424936,-0.752485,-0.503185
0.258814,-0.390199,-0.964222,0.009828,0.080923,0.996672
0.336497,-0.243811,-0.972921,-0.066030,0.097870,0.993006
-0.031101,0.572226,0.676690,0.091987,-0.803165,0.588612
0.103652,0.885829,0.454078,-0.111543,-0.176154,0.978022
0.039534,0.267759,0.461106,0.926002,-0.153746,-0.344794
0.259059,-0.115393,-0.981865,-0.043941,0.152758,0.987286
0.330346,-0.530910,0.011623,0.531369,0.228834,-0.815648
-0.121495,0.180542,0.798357,0.031264,0.938861,0.342875
0.067804,-0.200579,-0.931442,0.979685,0.187415,0.071362
-0.122472,0.800793,0.596894,0.185095,-0.385356,0.904014
0.199585,-0.203887,0.630346,0.239075,0.689017,0.684177
0.011875,-0.034191,0.063832,0.826644,0.534791,-0.175097
-0.703240,0.074002,0.353133,-0.365576,-0.064890,-0.928517
-0.559973,0.439747,0.366550,-0.399814,0.402015,-0.823731
-0.758845,-0.015695,0.369777,0.318519,0.182549,0.930173
-0.572928,-0.323095,0.472950,0.323761,0.573074,0.752838
0.036886,0.260165,0.594027,0.911413,0.321709,0.256573
-0.268224,-0.292607,-0.168839,0.390692,0.040624,-0.919625
-0.079251,0.164113,0.593159,0.826110,0.551903,0.113776
-0.338860,0.384485,-0.327479,-0.102747,-0.220768,0.969899
-0.130863,-0.192684,0.627757,-0.165194,0.302532,0.938715
-0.242235,0.191331,0.387486,-0.189342,0.471160,0.861486
0.154164,0.379824,0.654247,0.288802,0.458226,-0.840609
-0.389902,0.468920,-0.735238,0.596202,-0.180172,-0.782356
-0.045482,0.112987,0.669121,0.032169,0.534671,0.844448
0.110536,0.335877,0.644712,-0.707485,-0.460691,0.535938
0.043566,-0.017913,0.608099,-0.125728,0.653391,0.746507
0.032568,0.389636,-0.299680,-0.721805,-0.691736,-0.022327
-0.196041,0.421853,0.896484,0.707730,0.413828,-0.572595
-0.549057,0.127761,0.178881,-0.056504,0.856674,0.512754
0.103448,-0.300314,-0.035475,-0.714602,0.243650,0.655727
-0.093020,-0.173662,0.424542,-0.100760,0.602675,0.791600
-0.467340,0.259338,0.622810,0.001302,-0.863713,0.503983
-0.824144,-0.172646,0.714253,-0.588205,0.007451,-0.808678
0.100068,-0.194301,-0.975820,0.267795,0.209391,0.940447
-0.039453,0.741809,0.450900,0.087650,-0.256963,0.962438
-0.353811,0.104152,-0.338095,0.274020,0.653287,-0.705783
-0.121495,-0.378734,-0.489610,0.347836,-0.199367,-0.916113
-0.092938,0.444785,0.299237,-0.494859,-0.270241,-0.825884
0.033423,0.139453,0.673954,-0.615877,0.781399,0.100554
-0.263336,-0.301178,0.671169,-0.398775,-0.033936,-0.916421
-0.091635,-0.206856,0.475718,0.395920,-0.604550,-0.691207
0.044178,-0.097423,-0.107751,0.648919,-0.700081,0.297977
-0.618348,-0.439709,-0.160123,-0.063872,0.020153,0.997755
0.381144,0.372794,0.279039,-0.172745,-0.024412,0.984664
-0.003035,0.604293,-0.089796,-0.296986,0.407071,0.863766
0.036519,-0.672788,-0.300859,0.532284,0.056235,-0.844696
-0.140437,0.630157,0.720920,0.225215,-0.591137,0.774490
-0.155834,0.138212,0.422559,-0.414430,0.813287,0.408425
0.162027,0.482115,0.540623,0.075022,0.273618,0.958908
0.248671,-0.242120,0.740890,0.906788,0.414230,-0.078417
0.084506,-0.012199,-0.990990,-0.079775,0.201714,0.976190
-0.397438,-0.575383,0.441038,-0.382239,0.649109,-0.657686
-0.134366,0.635721,0.259364,0.090686,0.099722,0.990874
0.377559,-0.504708,0.031789,0.434826,0.349914,-0.829751
-0.233885,0.131333,-0.370531,0.957525,0.151862,0.245119
0.002261,0.117348,0.422117,0.981635,-0.108448,0.156944
-0.023159,-0.379109,-0.972855,-0.039813,0.097146,0.994473
-0.693056,-0.116745,0.656573,-0.535793,0.841223,-0.072600
0.711592,0.212947,0.425262,-0.075784,-0.220345,0.972474
-0.321384,0.032086,0.190250,-0.147777,0.455891,0.877682
0.672689,-0.649292,0.052266,0.378073,0.186526,-0.906790
-0.026906,0.394636,0.384521,0.684339,-0.420548,0.595667
-0.238610,-0.346629,-0.974461,-0.067122,0.226155,0.971776
-0.048985,-0.087198,0.416220,-0.184718,0.276791,0.943009
-0.043527,0.140956,0.062931,0.445681,0.140621,0.884078
-0.165041,0.178136,0.799536,0.482596,0.830856,0.277090
0.771066,0.039229,0.463956,-0.457020,0.509581,0.729013
0.152779,-0.295690,-0.971528,-0.105996,0.211687,0.971573
-0.442328,-0.633089,-0.601923,0.028507,0.101821,0.994394
-0.198159,0.146294,0.396070,0.924522,0.339872,-0.172472
-0.442410,0.270202,-0.702687,0.425605,-0.437499,-0.792120
0.010408,-0.222759,-0.618518,0.881731,-0.064217,0.467361
-0.008615,0.488882,0.658784,-0.720554,0.404305,0.563329
-0.338290,0.066372,-0.530744,-0.217198,0.137330,-0.966419
-0.374055,-0.046146,0.622040,-0.214426,0.799841,0.560603
-0.097175,-0.112535,-0.994692,0.094534,-0.015742,-0.995397
-0.609590,0.207008,0.764529,-0.714915,0.697839,0.043796
-0.379677,-0.002161,0.592127,-0.132667,0.731448,0.668867
-0.218974,0.238887,0.696479,0.988839,-0.090743,0.118163
0.060513,-0.351967,-0.966958,-0.145411,0.099078,0.984398
-0.550971,-0.091182,0.421445,0.572135,-0.077521,-0.816488
-0.300487,-0.166557,0.424132,-0.482277,-0.728657,-0.486280
0.108214,-0.226255,0.516050,0.383831,0.644200,0.661574
-0.087358,-0.187158,-0.984617,0.115262,-0.157394,-0.980786
-0.832128,0.063063,0.379721,0.243859,-0.199078,0.949158
-0.296454,0.176143,-0.347662,0.769686,0.490171,0.409043
0.126789,0.548955,-0.657539,-0.352822,0.503656,0.788573
-0.280486,0.158663,-0.345974,0.810164,0.321768,0.489999
-0.174329,-0.304561,0.411010,0.178786,-0.280014,0.943201
0.461515,-0.055017,0.511217,0.184045,-0.167093,-0.968611
0.189889,0.618842,0.526633,0.241781,-0.075727,0.967371
-0.046541,0.225090,0.837526,-0.553377,-0.643909,-0.528352
0.247286,-0.087423,0.600465,0.182085,-0.293093,-0.938585
-0.223823,-0.094527,0.690172,-0.404583,0.177239,-0.897162
-0.418376,0.030281,0.196016,-0.020285,0.354194,0.934952
-0.079210,-0.377041,-0.480747,-0.435109,0.316567,0.842891
0.083203,-0.107197,-0.009804,0.119307,-0.985835,0.117876
-0.039045,-0.114603,-0.991399,-0.137522,0.164730,0.976705
-0.058842,-0.365876,-0.465119,-0.532942,0.346210,0.772083
-0.534066,0.256594,0.792722,-0.742086,0.660797,-0.112499
-0.654521,0.436590,0.375773,-0.242266,-0.407658,0.880410
-0.247286,-0.239562,0.441923,-0.782681,0.589589,0.199488
-0.464734,-0.264562,-0.177177,0.059834,-0.381745,-0.922329
0.017659,0.323810,0.645089,0.611420,0.657328,0.440552
0.480131,-0.372230,0.375200,-0.682804,0.663474,0.305911
-0.136159,0.611849,0.708568,-0.167492,0.805991,-0.567737
-0.130741,0.409184,0.940403,0.531624,-0.627139,0.569274
0.029350,-0.279261,-0.972839,-0.125647,0.055902,0.990499
-0.128908,0.145956,0.278515,0.090010,-0.213603,0.972765
-0.195430,-0.298133,-0.494934,-0.282272,0.220845,0.933568
-0.437644,0.581699,0.594240,0.071977,-0.156662,0.985026
0.675989,-0.139602,0.445756,-0.262499,-0.097301,0.960014
-0.118154,0.158362,0.797521,0.050710,0.997133,0.056163
-0.156976,-0.400575,-0.741332,-0.676343,0.698638,-0.233378
-0.163453,0.330576,0.394858,0.181774,-0.763377,-0.619849
-0.017904,-0.026334,0.578219,-0.263840,0.955004,-0.135487
0.120720,-0.033702,0.330117,-0.149415,-0.870633,0.468692
-0.084914,-0.077385,-0.988958,0.008809,-0.016048,0.999832
-0.399393,0.054041,0.278105,0.115601,0.023608,0.993015
0.113184,0.355388,-0.165939,-0.468318,-0.043580,0.882485
0.408396,-0.098776,-0.118563,0.077954,-0.178225,0.980897
-0.269568,-0.047085,-0.041618,0.250221,0.385410,0.888171
-0.398415,0.177572,-0.345450,0.089791,0.533807,0.840826
-0.045889,0.247308,0.792754,-0.927151,0.365738,-0.081401
0.325946,-0.152309,-0.978065,-0.000184,0.139295,0.990251
0.152983,-0.014379,-0.164235,0.963367,-0.228345,-0.140654
-0.608123,-0.493430,0.366075,-0.708315,0.161285,0.687224
-0.363179,0.720230,0.601776,-0.086820,0.370262,-0.924861
0.042305,0.772748,0.574238,0.397893,0.699780,0.593286
0.283908,-0.410424,0.006889,-0.548970,-0.442368,0.709184
0.161293,0.760155,0.457092,0.039415,-0.325229,0.944813
-0.007557,-0.037987,0.220048,0.253316,0.954533,-0.157156
0.353117,-0.189752,0.350136,-0.123675,-0.614936,0.778818
0.352140,-0.191180,0.165202,0.040679,-0.056764,0.997559
-0.118765,0.114678,0.173819,-0.368370,-0.560000,-0.742094
0.226877,0.080281,0.512937,-0.364405,0.880441,0.303369
0.163615,-0.047950,-0.986174,-0.069649,-0.022807,0.997311
-0.103041,-0.025470,-0.372120,0.278189,0.217120,0.935666
-0.555818,-0.117197,0.638487,-0.264877,-0.908759,-0.322487
-0.288429,0.084792,0.811167,-0.301266,0.916310,-0.263846
0.536143,0.006523,0.086651,-0.208428,0.125220,0.969989
-0.012526,0.381628,0.821848,0.170642,0.422687,0.890066
-0.082550,0.208136,0.597238,0.381204,-0.072022,0.921681
-0.341222,-0.180203,0.300401,0.509267,-0.015803,0.860463
0.464977,0.290804,-0.028332,-0.281163,0.109892,0.953347
-0.209850,-0.164113,0.634670,-0.423909,-0.278072,-0.861961
0.534350,0.335201,-0.016488,0.249034,-0.025602,-0.968156
-0.467095,0.267270,0.940256,-0.494441,0.835621,0.239301
-0.523189,-0.036973,-0.002629,0.197233,0.602460,0.773396
-0.498381,0.203399,0.739956,-0.099182,-0.952214,0.288879
-0.264721,0.052499,0.176653,-0.120492,0.385815,0.914674
-0.276575,0.169677,0.849075,-0.578204,0.162228,0.799602
0.067927,-0.349147,-0.967711,-0.190176,0.096668,0.976979
-0.137667,0.808537,0.461728,0.242468,-0.312779,0.918356
-0.334175,0.155392,0.833185,0.263340,-0.321341,-0.909611
0.024218,-0.004793,0.481157,0.999543,0.016067,0.025610
-0.289732,0.288472,0.643353,0.172859,-0.208203,0.962690
-0.005153,0.351178,0.617617,0.878841,-0.044799,0.475007
-0.379596,-0.658013,0.540541,0.823765,-0.533953,-0.190543
-0.095342,0.187534,0.870486,-0.213948,0.968969,-0.123798
0.123205,0.058214,-0.282168,0.973556,-0.092923,-0.208696
-0.294661,0.179753,0.806892,-0.340583,-0.935650,0.092537
0.247571,-0.341365,-0.969759,0.052390,0.103331,0.993266
0.160926,0.505197,0.536069,-0.115962,-0.220219,-0.968533
-0.692527,0.391027,0.352970,-0.194559,-0.711550,0.675162
0.016845,0.004794,0.355492,0.978473,-0.205200,0.022004
-0.187893,0.107461,0.435829,0.684561,0.017712,-0.728741
0.051836,-0.236555,-0.784989,-0.199128,0.973037,-0.116392
0.011141,0.015132,0.456781,0.991246,0.077898,0.106602
0.711876,0.008778,0.459353,-0.494400,0.202789,0.845248
0.046051,-0.139227,-0.033263,0.101964,0.988219,-0.114130
-0.009838,0.117536,0.145773,0.027682,0.416640,0.908650
0.069719,-0.186255,-0.233219,0.998477,-0.055152,-0.001620
0.145202,-0.020168,0.536773,-0.250147,0.964207,-0.087932
0.616637,0.437980,-0.016308,-0.089975,0.271578,0.958201
0.039290,0.721208,0.385143,0.249264,0.391255,0.885882
0.135588,-0.267044,-0.974772,0.004554,0.109665,0.993958
-0.106056,-0.312005,0.588015,-0.581015,0.650787,-0.488771
0.173309,-0.455198,0.151179,-0.368725,-0.310659,0.876090
0.037864,-0.076596,0.112616,0.091521,0.995771,-0.007956
-0.677862,0.465762,0.361832,0.321974,0.481552,-0.815132
-0.388231,-0.244714,0.409454,-0.544676,0.432549,-0.718490
-0.074118,-0.014379,0.327971,-0.157838,0.986964,-0.031458
0.055788,0.021184,-0.990007,0.019237,0.140020,0.989962
-0.270221,0.834627,0.627069,0.194819,-0.495332,0.846577
0.852822,0.264600,0.442627,-0.068211,-0.332243,0.940724
-0.250422,-0.012011,-0.322745,-0.710804,-0.380272,-0.591736
-0.488726,0.241669,0.858036,-0.175646,0.609648,-0.772967
-0.065564,0.063439,0.551877,0.711635,-0.492591,0.500930
0.287981,-0.048025,-0.985387,-0.022513,0.142581,0.989527
0.259751,-0.297418,-0.973068,-0.049981,-0.095205,-0.994202
-0.076481,0.733839,0.446215,0.200373,-0.217897,0.955181
-0.483554,0.407267,0.116990,0.320170,0.193317,0.927426
-0.114814,0.066296,0.192494,-0.533680,-0.667807,-0.518864
0.836243,-0.008478,0.301597,0.361671,0.688178,0.628971
-0.544208,0.096183,-0.038227,-0.264641,-0.382966,-0.885044
0.147239,-0.063965,0.632443,0.199298,0.963547,-0.178488
0.562784,-0.408996,0.423116,-0.616384,-0.483387,0.621618
0.491863,-0.142685,0.173311,0.202921,-0.044770,-0.978171
-0.245371,-0.024492,0.628593,-0.331493,-0.622788,-0.708694
-0.085239,0.278735,0.104475,0.287372,0.628507,-0.722770
0.368393,-0.072235,0.430111,-0.596102,0.653150,-0.466966
0.022343,0.388659,0.642927,0.154885,0.135773,-0.978558
0.176283,0.465236,0.670006,0.531775,0.572135,-0.624402
-0.284111,-0.155316,0.636718,-0.327427,-0.315363,-0.890695
0.044137,0.170242,0.690762,-0.738469,0.380419,-0.556727
-0.161986,0.334224,0.909540,0.948539,0.316571,0.007490
-0.484572,-0.047650,-0.012327,0.296979,0.528964,0.794984
0.140355,-0.861093,-0.310639,0.153698,0.169241,-0.973516
0.577693,0.385275,-0.017209,-0.188263,0.174859,0.966427
0.028128,0.037800,0.568259,0.880583,0.407513,-0.241883
-0.586533,0.083476,0.833987,0.736921,0.040155,-0.674785
-0.170133,0.619443,0.100510,0.449867,0.052720,-0.891538
0.396459,-0.061859,0.389599,0.735003,0.011179,-0.677971
-0.414058,-0.202684,0.702671,-0.272373,-0.277181,-0.921403
-0.620547,0.220240,0.154603,-0.065960,0.666721,0.742383
-0.780720,0.020733,0.368188,0.354526,-0.021751,0.934793
-0.235799,-0.054717,-0.650184,-0.227735,-0.158528,0.960732
-0.117462,-0.169038,-0.990892,0.109797,0.186785,0.976246
-0.451290,-0.399936,0.475767,-0.393993,0.304067,-0.867360
0.019981,0.028627,0.576204,0.830129,0.511100,-0.222852
0.133226,0.237947,0.614701,-0.231259,-0.294020,0.927400
0.585719,-0.120881,0.342715,0.358622,0.677021,0.642677
-0.230217,0.784704,0.619435,0.465864,-0.040446,0.883932
0.474469,0.218286,-0.009362,-0.209684,0.485699,0.848604
-0.405096,-0.133963,0.659767,0.829549,0.465815,-0.308001
-0.331568,0.084830,0.843964,0.215476,0.963229,-0.160496
-0.502292,-0.363884,0.498128,0.302277,0.359973,0.882637
0.219912,0.283811,0.672922,-0.203104,0.920188,0.334669
0.093590,0.527190,0.287918,0.078334,0.617048,0.783017
-0.610934,0.277007,0.314030,0.462181,0.043150,0.885735
-0.102716,0.072612,-0.247602,0.118600,-0.253996,0.959906
-0.181213,0.124453,0.710190,0.229279,-0.951416,0.205521
0.120679,-0.540873,-0.288344,0.263849,0.171639,-0.949170
0.124549,0.210278,-0.380409,0.162070,0.195873,0.967144
0.067194,-0.320050,-0.970202,-0.051373,0.111264,0.992462
0.044056,0.274713,0.687485,0.489708,0.713718,-0.500792
-0.404811,0.386027,0.631853,0.516115,0.413569,-0.750057
-0.031142,0.849401,0.395267,0.352350,0.084524,0.932043
-0.336293,0.297306,0.628560,0.478229,0.456269,-0.750410
0.126301,0.127949,0.337178,0.932941,-0.354439,-0.063199
-0.107726,0.589595,0.118924,-0.415118,0.013834,0.909662
-0.259874,0.101183,0.816590,-0.441198,0.609354,0.658812
-0.510602,0.522603,0.358146,-0.422151,0.237485,-0.874865
0.039534,0.402981,0.649709,-0.204475,-0.286753,0.935929
0.338412,0.180279,0.592242,-0.272946,0.935286,-0.225256
-0.300691,0.147422,0.381474,0.536396,-0.360035,-0.763318
-0.024544,-0.106219,0.452259,0.987571,-0.151238,0.042775
0.179258,0.622601,0.533726,0.434639,0.025737,0.900237
0.518504,0.059942,0.531072,0.537247,-0.074344,-0.840142
-0.087277,0.616436,0.438499,0.306243,-0.172106,0.936266
-0.351569,0.348434,0.112993,0.177504,0.228814,0.957150
-0.120273,-0.078701,0.580266,0.862451,0.208128,0.461368
0.302360,0.424635,-0.037424,-0.021721,-0.074207,0.997006
-0.261503,0.064115,-0.644368,-0.330910,0.062656,0.941580
-0.011753,0.041522,0.065535,0.826959,0.407963,-0.386918
0.545389,0.433808,0.314456,0.955822,0.164010,-0.243937
0.006946,-0.216669,-0.976394,-0.192271,0.190201,0.962733
-0.238406,-0.139527,-0.176866,0.054344,0.528479,0.847205
-0.343463,0.400914,0.663715,-0.025914,-0.219213,0.975333
-0.196325,0.330576,0.490806,0.016165,0.937007,0.348936
-0.573171,0.216819,0.313391,0.322386,0.204639,0.924224
-0.060635,0.360388,0.921138,0.789321,0.072731,-0.609658
0.175102,0.080882,-0.058409,-0.625440,0.522454,-0.579540
0.309245,-0.300200,0.542114,0.200899,-0.325204,-0.924057
0.189686,-0.167835,0.304250,-0.294365,0.211556,0.931984
-0.051225,0.033176,0.260118,-0.603355,-0.568637,0.559120
-0.524696,0.293886,0.685290,0.899875,-0.133504,0.415212
-0.124875,0.269525,0.832071,-0.705055,0.240728,0.667044
0.674930,0.190353,0.432962,-0.057758,0.983569,-0.171046
0.158034,-0.441289,0.506369,0.594109,0.439911,-0.673433
-0.489093,-0.169714,0.334507,-0.277548,-0.085152,-0.956931
-0.510236,-0.543279,0.441562,0.836590,-0.201668,0.509360
-0.405300,0.348170,0.115778,-0.037161,0.262979,0.964086
0.008656,-0.228736,-0.857495,0.018037,0.999316,0.032298
0.407663,-0.004492,0.398347,0.626726,-0.627266,-0.462332
0.169277,0.649819,0.522455,-0.349659,-0.036927,-0.936149
-0.053832,0.461626,0.655328,-0.417061,0.430017,-0.800715
-0.081532,0.069605,0.566686,-0.749088,0.632962,-0.195513
-0.005072,0.001673,0.497883,0.909525,0.396640,-0.124262
0.385257,-0.173249,-0.972413,0.033028,0.094653,0.994962
-0.223701,0.385726,0.612604,0.683108,-0.601332,-0.414443
0.270994,0.186519,0.603398,-0.457063,0.244045,-0.855298
-0.051592,0.462379,-0.408356,0.168419,-0.203210,-0.964542
0.233883,0.018966,0.457027,0.331383,-0.095409,-0.938660
-0.106625,0.248059,0.905723,0.687116,-0.217852,0.693118
0.003401,-0.046822,0.443692,0.942770,-0.304952,-0.134870
0.029269,0.320201,0.598352,0.763292,0.222033,0.606702
0.666253,-0.180504,0.178782,-0.084906,0.222183,0.971301
0.321751,-0.021973,0.368713,-0.444070,0.259190,0.857684
0.081003,-0.392267,-0.964910,0.088331,-0.052619,0.994700
-0.340938,0.659105,0.595027,-0.306358,0.093494,-0.947314
-0.093591,-0.491438,-0.096218,0.204595,0.280539,-0.937784
-0.112329,0.272608,0.841015,0.891828,-0.451192,0.032684
0.460619,0.612827,0.606068,-0.629743,-0.303275,0.715156
-0.204555,0.222083,-0.375134,0.495954,-0.336156,-0.800643
0.010164,0.341742,0.124821,-0.148791,0.254875,0.955458
-0.393935,0.609857,0.590849,0.027375,-0.256464,0.966166
-0.485019,-0.033552,-0.013900,0.296979,0.528964,0.794984
0.043648,0.601135,-0.079001,-0.302912,0.292340,0.907073
-0.168096,-0.245503,0.618633,0.282026,-0.064511,0.957236
0.212254,0.260954,0.308231,-0.632195,-0.221554,-0.742458
0.026702,-0.111708,0.571928,0.883273,-0.458368,-0.098626
-0.584171,0.121482,0.791362,-0.294290,0.246108,-0.923485
0.111758,-0.430611,-0.959046,-0.170695,0.275925,0.945901
0.212294,-0.379297,-0.418906,-0.053394,-0.181205,0.981995
-0.403548,0.111559,0.781992,0.515724,0.744815,0.423414
-0.066215,0.095694,0.613702,-0.665666,0.745939,0.021517
0.252011,0.318622,0.634982,0.349369,-0.762704,0.544264
0.178035,0.390613,-0.603119,-0.445513,0.320129,0.836084
0.266514,-0.129189,0.176833,0.009534,0.237350,0.971377
0.289977,0.328848,0.662667,-0.447452,0.889948,0.088202
0.284193,-0.010206,0.364634,-0.454737,0.142764,0.879109
-0.414873,0.360238,0.111093,0.106950,0.128843,0.985881
0.825163,0.253435,0.447492,0.240304,0.385992,-0.890654
0.140355,-0.407003,-0.965418,-0.081243,0.125371,0.988778
-0.107522,-0.326102,-0.972790,0.056228,-0.124509,-0.990624
0.217793,0.032725,0.620304,0.609654,-0.136830,-0.780768
0.259384,0.418808,0.548895,0.289622,-0.303447,-0.907766
0.068090,0.546700,-0.047483,0.069750,0.486558,0.870860
0.220604,0.439222,-0.057508,-0.220319,-0.003919,0.975420
-0.050859,0.199940,0.567866,0.930343,0.248046,0.270065
-0.156811,0.300352,0.979654,0.967446,0.247096,-0.054692
-0.023647,0.066484,0.459566,0.029017,-0.387512,0.921408
0.008452,0.507378,0.679720,-0.139346,-0.458886,0.877500
-0.385380,0.210391,0.597173,0.323517,0.257685,-0.910459
0.117298,-0.381853,-0.967089,0.188144,-0.036678,-0.981456
-0.468888,0.611436,0.587999,-0.088191,0.141730,-0.985969
0.483023,0.333922,0.562754,-0.360157,-0.421561,0.832210
-0.554718,0.205428,0.802223,-0.571701,0.594403,-0.565546
-0.345704,0.244037,0.898695,0.136584,-0.967786,0.211505
0.750739,-0.232533,-0.174163,0.101914,-0.002974,0.994789
-0.330550,0.225654,0.111011,0.289695,-0.415959,-0.862007
-0.367212,-0.238210,-0.515837,-0.020140,0.384257,0.923006
0.383832,-0.190616,-0.976263,-0.052753,-0.158258,-0.985988
0.047030,-0.225315,-0.545177,0.052033,-0.989534,0.134591
0.351855,-0.501175,0.418071,0.110625,-0.042008,0.992974
0.297431,0.447981,0.690549,0.185234,0.607073,-0.772755
-0.341018,0.614782,0.591259,0.416172,-0.258430,0.871788
0.167566,-0.340877,-0.967253,-0.020049,0.158414,0.987169
0.259141,-0.185428,-0.976787,-0.121478,0.230672,0.965419
-0.175998,0.081221,0.685962,0.646917,-0.713423,0.269306
0.040716,-0.239713,-0.768886,-0.054726,-0.994658,0.087528
-0.363912,0.218135,0.609164,-0.577075,-0.393796,0.715478
0.089598,0.273397,0.328626,-0.678697,0.287451,0.675827
0.126301,0.621173,0.387175,-0.426750,0.173687,-0.887534
0.101371,-0.142234,0.300401,0.493871,-0.127529,-0.860132
0.046010,-0.173323,-0.348088,0.678422,0.732682,0.054046
0.016722,0.000734,0.523389,0.510483,0.834190,-0.208649
0.026009,-0.032048,-0.987763,-0.101141,0.189530,0.976652
0.067357,-0.531549,-0.027693,-0.569043,0.351764,0.743271
