0.490264,-0.205615,0.458570,-0.307135,0.262008,0.914888
0.674005,0.630454,0.118938,0.326887,0.470645,0.819535
0.220395,-0.178443,-0.945929,0.017534,0.040868,0.999011
0.334475,0.080307,0.556096,-0.285631,0.596940,0.749719
0.464850,-0.314752,0.470520,0.566636,0.223194,-0.793163
-0.340165,-0.215510,0.620229,-0.535192,0.270889,0.800118
0.392703,-0.136107,-0.184959,0.654946,0.558666,-0.508859
0.130128,-0.003314,0.211565,-0.727210,0.659469,-0.190440
0.042124,-0.474110,-0.939907,0.106943,0.182035,0.977459
0.508218,-0.487217,-0.936495,-0.128703,0.063317,-0.989660
-0.873878,-0.048415,0.331580,0.155303,-0.619837,0.769209
0.425462,-0.290744,0.418222,0.611067,0.332487,-0.718366
0.323206,-0.608708,0.325786,0.774970,0.443105,-0.450643
0.075656,-0.123701,0.309338,-0.083713,0.652317,0.753309
-0.178962,-0.254683,0.714305,-0.618507,0.623672,-0.477998
0.117477,-0.491487,0.056520,0.246847,-0.563451,0.788409
0.137529,0.343628,0.308442,0.527698,0.191393,-0.827589
0.073723,-0.032846,0.185587,0.942797,0.141715,0.301745
-0.155098,-0.185024,0.705976,-0.696318,-0.549328,0.461931
0.339779,-0.361760,0.410370,0.240498,0.397441,-0.885551
0.376296,0.606749,0.032276,0.893562,-0.182545,-0.410152
-0.267685,-0.690824,-0.022537,0.823973,0.565124,-0.041279
-0.285529,0.275726,0.750193,0.899287,0.431125,-0.073575
-0.162501,0.546481,0.353078,0.431527,0.038731,0.901268
0.165042,0.177388,0.674262,-0.179383,0.971307,0.156158
0.182941,0.166942,0.581330,-0.618236,-0.215229,-0.755951
-0.713947,-0.076089,0.335087,-0.038493,0.276681,0.960190
-0.093942,0.254682,0.247682,0.699070,-0.356344,-0.619936
-0.240008,-0.612273,0.636753,-0.140185,0.089402,0.986081
-0.447891,0.172567,0.742703,-0.415021,-0.858840,-0.300252
0.270117,-0.085230,0.646607,-0.009659,-0.999885,-0.011648
-0.509213,0.451711,0.387385,-0.799318,-0.583529,0.143475
0.264371,-0.317915,-0.938668,-0.125651,0.139029,0.982284
0.319118,-0.293055,-0.935828,-0.084765,0.025984,0.996062
0.143552,-0.775098,0.165804,0.173932,0.957740,0.229090
-0.017209,-0.450154,0.781431,0.887200,-0.404780,0.221424
-0.288291,-0.415349,0.558783,0.810587,-0.283264,0.512552
0.256139,0.236302,0.719851,0.158419,-0.700548,0.695799
0.066154,0.503087,0.490113,0.023362,0.473073,0.880714
-0.203049,-0.011351,-0.069118,0.449739,0.305630,0.839241
-0.619313,-0.003065,0.319725,-0.055223,0.189732,0.980282
0.312543,0.502786,0.034411,0.683329,-0.285750,-0.671869
0.738585,0.713373,0.036374,0.510140,-0.550246,-0.661050
0.462695,-0.238010,0.468729,0.459065,-0.275171,-0.844713
0.492142,0.272563,-0.957174,0.185524,-0.249082,-0.950547
-0.253654,-0.401589,0.422415,0.478061,0.832170,-0.280982
-0.308400,0.339260,0.251608,0.102408,0.629318,0.770371
-0.451592,0.486666,0.592288,-0.592143,-0.049612,-0.804304
0.355247,0.611219,0.053642,0.862369,-0.467963,-0.193212
0.391155,0.077797,-0.950065,-0.099656,0.135481,0.985755
0.136093,-0.303904,0.772072,-0.446065,0.731356,0.515893
-0.385079,-0.229773,0.779658,0.544629,-0.838437,0.020067
-0.003619,0.825974,-0.067669,0.872804,0.130779,-0.470224
-0.289176,0.450154,-0.211737,0.356081,0.906350,-0.227456
-0.117366,0.628998,0.728332,0.664356,0.450877,0.596105
0.453693,0.661592,0.120367,0.067064,0.582885,0.809782
-0.328399,0.109386,0.439911,0.362825,0.887996,-0.282526
-0.360772,0.107730,0.787796,-0.578017,0.548204,-0.604457
0.106593,-0.682186,0.709959,0.053284,0.949992,0.307694
-0.163052,0.678418,0.627128,0.075619,0.682606,0.726863
0.326962,-0.243334,0.604696,0.509111,0.099107,0.854976
0.275530,0.221285,0.555829,0.370228,0.140100,0.918315
0.123885,0.371002,0.180785,-0.682109,0.355256,0.639156
-0.192940,-0.588369,0.563643,0.493064,0.425092,-0.759068
-0.263211,-0.179850,0.610604,0.497253,-0.530180,-0.686767
-0.306964,-0.310834,0.378789,0.305294,0.900704,0.309075
-0.568323,0.116166,0.355842,-0.292888,-0.503223,0.813009
0.074220,0.088342,0.360797,0.999755,-0.021860,0.003417
0.052234,0.656924,-0.251303,0.864430,0.010232,-0.502649
-0.313979,1.000000,-0.065458,-0.290840,-0.799253,0.525935
0.139575,-0.011501,-0.405148,0.978073,0.207548,-0.017244
-0.083336,0.437095,0.675195,0.805033,-0.407765,-0.430871
-0.005276,-0.346844,0.319820,0.876927,-0.004222,0.480605
0.054001,0.219777,-0.976176,-0.033023,0.246068,0.968690
-0.218464,-0.234393,0.459638,0.179586,0.887286,0.424821
-0.466839,0.331425,0.349762,-0.341019,0.906114,0.250327
-0.128194,-0.127217,0.394856,0.292681,-0.568075,-0.769174
-0.406182,-0.313946,0.690347,-0.697664,0.656794,-0.286158
0.085049,-0.467179,0.721261,0.825040,-0.055769,0.562315
0.111179,-0.601477,0.052651,-0.287111,-0.592137,-0.752955
0.128415,0.016725,0.159934,0.397600,0.890626,0.220680
0.870950,0.312189,0.264282,-0.505945,-0.081586,0.858699
-0.728421,-0.297675,0.035211,-0.777440,0.550844,-0.303576
-0.044057,-0.173422,0.771386,-0.694809,0.357418,-0.624093
-0.255697,-0.103512,0.641518,0.250910,-0.614070,0.748306
0.101677,-0.141079,0.309071,0.008803,0.538998,0.842261
0.395576,-0.263572,0.224030,0.413424,0.228111,-0.881502
0.056597,-0.164532,-0.957479,-0.339858,0.124251,0.932233
-0.334916,-0.267943,0.359406,0.494299,0.746062,0.446161
-0.007540,-0.359550,-0.948217,-0.052266,0.025897,0.998297
0.049417,-0.712270,0.141542,0.115836,-0.966507,-0.229010
0.282712,-0.087992,-0.421939,0.543897,0.798205,-0.258929
-0.082176,-0.178596,0.513537,0.169460,0.706109,0.687527
0.395906,0.291145,-0.962854,-0.238411,0.087093,0.967251
0.314367,-0.006882,-0.950142,-0.077509,0.191161,0.978494
-0.054222,0.325046,-0.992719,-0.084377,0.329533,0.940366
-0.270061,0.394504,0.420795,0.061453,-0.994886,-0.080155
0.412148,0.428405,-0.969963,-0.077991,0.209950,0.974596
0.386516,-0.405506,-0.934037,0.001035,0.018468,0.999829
0.305693,0.337249,0.804149,-0.257145,0.251417,0.933095
0.005000,0.528852,0.656403,0.262195,0.831772,0.489295
0.104991,0.397769,-0.984009,-0.246124,0.328187,0.911985
0.691518,-0.295716,-0.171865,0.523835,0.809836,-0.264127
0.052897,-0.015922,0.091474,0.029836,-0.999469,-0.013059
-0.358452,0.000702,0.322469,0.833338,0.435653,-0.340227
0.160126,-0.739138,0.587429,0.426979,0.874716,-0.229263
0.102781,0.477475,0.273049,-0.288525,0.901523,0.322504
-0.199846,0.622217,0.360473,0.493593,-0.305671,0.814206
-0.361269,0.053488,0.897176,0.554886,-0.719149,0.418241
0.923487,0.352067,0.251093,0.072946,0.729821,0.679736
-0.722343,-0.334137,0.024119,-0.777440,0.550844,-0.303576
-0.257521,-0.648687,0.052269,0.694319,0.252483,-0.673924
-0.194598,0.313195,0.381648,0.442126,0.310501,-0.841495
-0.620915,-0.630105,0.409798,0.508506,-0.713850,-0.481496
-0.463525,-0.348149,0.609766,-0.627071,-0.012655,-0.778859
-0.038809,0.139420,0.409055,-0.037523,0.571568,0.819697
0.257631,-0.676812,0.618438,0.167062,-0.112122,0.979550
0.364307,0.656170,0.245986,0.790709,0.068701,-0.608325
0.086706,-0.660943,-0.054042,0.973535,0.081340,0.213574
-0.193492,-0.224197,0.696656,-0.526108,0.186901,-0.829626
0.102009,0.049822,-0.759456,0.949026,-0.303553,-0.084884
0.198907,-0.105168,0.524972,-0.179869,0.914072,0.363482
-0.124383,0.667270,0.323232,0.647474,-0.028672,0.761548
0.102948,0.043743,-0.793533,0.090050,-0.990442,0.104475
-0.554402,0.240873,0.190124,-0.314965,0.505015,0.803590
-0.721350,0.439808,-0.055128,0.943961,-0.086681,0.318470
0.303484,-0.336697,-0.936247,-0.124405,0.125992,0.984200
-0.095269,0.713174,0.599093,-0.128304,0.765267,0.630797
0.053835,-0.439406,-0.943166,-0.041318,0.093465,0.994765
0.072674,0.094270,-0.955154,0.635224,-0.533540,-0.558413
-0.097976,-0.076191,-0.968171,0.254185,-0.068213,-0.964747
0.124271,-0.029983,-0.143696,0.977039,-0.201062,-0.070489
-0.007872,0.295164,0.630750,0.318197,-0.474949,0.820471
0.335414,0.077846,-0.951819,-0.102103,0.194103,0.975653
-0.380384,-0.145799,0.345588,0.398894,0.502524,-0.767042
-0.099964,-0.667772,0.086766,0.062300,0.857315,0.511008
-0.553794,-0.306414,0.308118,-0.078705,0.749230,0.657617
-0.534846,0.419316,0.387537,0.960856,-0.182814,0.208170
0.303815,-0.146805,-0.943795,-0.129405,-0.055155,0.990057
-0.532470,-0.600422,0.161611,-0.401472,-0.305106,0.863557
0.524956,0.662647,0.121282,-0.035569,0.813684,0.580219
0.283816,-0.521672,0.320487,0.878996,0.275377,-0.389273
-0.013121,-0.696449,0.086366,-0.001002,0.654253,0.756275
-0.431593,-0.253027,0.788349,0.076813,-0.782085,0.618420
0.173384,-0.025967,-0.951190,0.217525,-0.291650,0.931463
0.050300,-0.421075,0.526573,0.478279,-0.207687,-0.853297
-0.593846,0.032343,0.333467,0.073028,-0.604952,0.792906
-0.030743,-0.296320,0.318658,0.446242,-0.168440,0.878917
0.588101,0.187182,-0.945072,-0.045506,0.144902,0.988399
0.370274,-0.166442,0.217950,0.612317,-0.066734,-0.787791
0.095822,-0.567273,0.618361,-0.580014,0.334727,-0.742659
-0.224926,-0.027273,-0.052041,-0.372116,-0.535717,-0.757983
-0.444356,-0.562703,0.406673,0.819479,0.043120,-0.571485
-0.213822,-0.524634,-0.141218,0.192716,0.565578,0.801862
-0.105986,0.145297,0.355804,0.813126,0.081328,-0.576378
-0.639256,0.124504,0.022880,-0.635611,-0.048501,-0.770485
0.564181,-0.062982,-0.940078,-0.044170,0.022108,0.998779
0.581748,-0.475716,-0.938001,0.167403,-0.012926,0.985804
-0.219898,-0.431973,0.380028,0.286629,-0.411747,-0.865048
0.561915,-0.184672,-0.938535,0.024534,0.119136,0.992575
-0.071293,0.088142,0.057911,0.328280,0.904419,-0.272504
0.288512,-0.663603,0.326624,0.280319,-0.597861,0.750988
-0.168301,0.192856,-0.633552,-0.337210,0.650222,0.680809
-0.378173,-0.248607,0.744056,-0.655208,0.194740,-0.729918
-0.689916,-0.024410,0.336478,0.361497,0.113347,0.925458
0.169351,0.704033,0.588248,-0.452668,-0.168914,-0.875534
-0.432534,-0.060821,0.322908,-0.452765,-0.292470,-0.842298
-0.039362,0.155894,-0.099955,-0.086109,0.484891,0.870325
0.052399,-0.002912,-0.944100,0.937874,0.176614,-0.298662
0.163550,-0.741599,0.575669,0.522934,0.810772,-0.263038
-0.271828,-0.683593,0.024138,-0.628731,-0.572008,0.526786
0.144435,0.199787,0.577442,-0.661411,-0.074657,-0.746299
0.258791,0.510119,0.284676,0.480326,-0.796115,-0.368087
-0.520317,-0.454473,0.383554,0.134499,0.293506,0.946448
0.348618,0.212043,0.715372,-0.604689,-0.502434,0.617989
0.392094,-0.359801,-0.936857,0.114538,0.021650,0.993183
-0.133552,0.385514,0.249016,0.367917,0.222553,-0.902833
0.609977,-0.442018,0.275013,-0.282880,0.186352,0.940878
-0.138580,-0.349906,-0.332361,-0.427674,0.797017,0.426450
0.108196,-0.323642,0.774379,0.675474,0.130614,-0.725723
0.248736,-0.303502,0.835749,0.831139,-0.543649,0.116850
0.577162,-0.226208,-0.937143,-0.040601,0.127854,0.990962
-0.006712,-0.485761,0.735117,0.235853,-0.819123,0.522888
0.063172,-0.116068,0.618952,-0.894916,0.037122,-0.444688
-0.785157,0.191955,0.176839,0.590110,-0.139777,-0.795131
0.301439,0.438652,0.190962,0.739184,-0.666354,-0.097877
-0.233876,-0.330419,0.493505,0.395156,-0.438021,0.807459
0.106042,-0.327357,0.784480,-0.456602,0.209729,0.864597
0.248018,0.270754,-0.974480,-0.007272,0.087543,0.996134
-0.062287,0.114358,0.664237,-0.162011,0.943438,0.289271
-0.031848,0.477776,0.689128,-0.832424,0.001072,-0.554138
-0.168080,0.072521,0.660997,-0.766558,0.203351,-0.609129
-0.391046,0.116065,-0.408312,-0.117289,-0.462437,0.878861
0.092396,0.308422,0.010168,0.528400,0.786527,-0.319638
-0.062840,0.733261,-0.096696,0.658828,-0.046943,-0.750827
-0.163108,-0.181156,0.640013,-0.007811,0.919154,0.393821
-0.213048,-0.026267,0.676987,-0.530799,0.640645,-0.554820
0.657820,0.252926,0.279568,0.247802,0.302739,0.920295
0.087480,0.643513,0.282369,0.385589,-0.572832,0.723315
0.074220,0.020140,-0.652973,0.959423,-0.197512,-0.201235
0.661411,-0.120737,-0.099498,0.676725,0.638547,-0.366471
-0.204927,-0.108080,0.477877,0.377499,0.919564,-0.109072
-0.047978,0.347444,0.103443,0.065960,-0.987682,0.141895
0.424467,-0.295566,0.066526,0.023717,-0.027252,0.999347
-0.520317,-0.572699,0.101956,0.753674,0.390290,0.528818
0.150678,0.034602,-0.057320,0.973869,0.226953,0.008497
-0.268127,-0.079955,0.464650,-0.640326,0.368859,0.673740
-0.304974,0.358747,0.383249,0.317254,-0.700068,0.639730
-0.364030,0.990356,-0.102681,0.348103,0.824536,-0.446054
0.327072,-0.106222,0.461791,-0.340861,-0.843525,0.415066
0.132337,-0.539501,0.651238,-0.294919,0.473974,0.829681
-0.257299,-0.361309,0.697800,0.703667,-0.511042,0.493650
-0.526227,-0.008739,-0.266417,-0.415718,0.418105,0.807692
-0.697870,0.248858,0.084422,0.792498,-0.601435,0.101107
0.290445,0.364473,-0.972574,-0.162001,0.051822,0.985429
0.077204,0.699312,0.668772,-0.171082,-0.410012,0.895891
-0.355744,-0.022098,0.810419,0.977955,0.118712,0.171786
-0.505013,-0.663554,0.405357,0.803134,-0.159754,0.573982
0.448830,-0.095877,0.670107,-0.223214,0.874162,0.431295
0.430103,-0.371805,-0.938153,0.002328,0.110849,0.993835
-0.321105,0.182161,0.752537,-0.613594,0.447707,-0.650432
0.175483,-0.064134,0.012779,0.950637,0.006597,0.310236
-0.480209,-0.336949,0.590173,0.613521,0.719247,-0.326000
0.055272,-0.728191,0.277281,-0.734318,0.417449,-0.535269
0.105157,-0.198533,0.687851,0.485484,0.757145,0.437077
0.285474,0.411379,0.526878,-0.106830,0.469141,0.876638
0.015938,0.367284,0.283151,0.478890,0.636528,-0.604563
0.085269,-0.037517,-0.757721,0.682283,0.721062,0.120661
0.350164,-0.037870,0.543288,0.144909,0.482045,-0.864080
-0.098527,0.770126,0.714324,0.471865,-0.626664,0.620190
0.218794,0.279442,-0.063229,-0.530107,0.192065,-0.825892
0.259178,0.025866,0.564729,-0.719341,0.134608,-0.681490
0.316798,-0.650395,0.315627,0.858861,-0.442414,0.258123
0.096926,0.264277,0.458265,0.498521,0.584261,-0.640403
0.519929,-0.372057,-0.932988,0.005981,-0.011245,0.999919
0.100461,0.503338,0.476734,0.141369,0.722478,0.676787
0.117863,-0.671037,0.736451,-0.013439,0.933737,0.357707
-0.428114,-0.738988,0.042854,-0.529672,-0.804285,0.269395
0.089579,0.001205,-0.434747,0.942469,-0.334267,0.004106
0.126979,0.177640,0.625833,0.812831,-0.364298,-0.454525
0.296854,-0.209029,0.592708,0.313097,0.182480,0.932025
0.148911,-0.304605,0.631036,0.336896,0.741771,-0.579894
0.240947,-0.053289,0.680380,-0.129349,0.871471,-0.473083
0.194598,-0.110140,0.644777,-0.440592,0.897468,0.020752
-0.072342,0.172165,-0.982542,0.333345,0.055792,-0.941153
-0.429606,-0.365325,0.330894,-0.067294,-0.345356,0.936056
0.165207,-0.012357,0.395409,0.816740,0.435249,-0.378805
-0.463471,0.053739,0.336688,0.799138,0.386802,-0.460176
0.132172,-0.232182,0.593413,0.091347,-0.070821,0.993298
0.127974,0.023453,0.044188,-0.692717,0.718110,-0.066792
0.466233,-0.135202,0.755377,0.082971,-0.974003,0.210793
-0.421429,-0.763548,0.088081,0.596671,0.796045,0.101471
0.402481,0.196072,-0.957403,-0.259030,0.184126,0.948157
-0.697152,0.465471,-0.014628,-0.931002,0.346887,-0.113596
0.307903,-0.683090,0.130793,0.040392,0.602252,0.797284
0.342210,-0.628195,0.310100,-0.217185,-0.464239,0.858669
0.567660,-0.462759,-0.937334,0.167403,-0.012926,0.985804
0.110239,-0.309427,0.698695,0.905838,0.054471,-0.420108
0.772283,0.212193,0.295139,0.162846,0.529499,0.832533
0.395576,-0.234141,-0.935047,-0.146807,0.052631,0.987764
0.228352,-0.188139,0.765802,0.120422,0.366391,0.922635
0.113112,0.169403,-0.970706,-0.010025,0.371117,0.928532
0.324422,-0.764151,0.514223,0.512932,-0.806094,0.295150
0.129022,0.025412,0.090083,-0.418821,0.907927,0.016033
0.317902,-0.059364,0.660749,0.359678,0.921350,-0.147462
0.376184,-0.720304,0.496383,-0.578660,0.797499,-0.170731
-0.413475,0.310279,0.202912,0.828727,-0.191061,-0.526029
-0.178632,-0.246348,0.688594,-0.756827,0.343257,-0.556226
0.643621,-0.659284,0.303544,0.014986,-0.338290,0.940923
0.436346,-0.330974,0.433336,0.857641,-0.044793,-0.512294
-0.423695,0.325649,0.550511,0.453356,-0.579911,0.676884
-0.140955,0.441062,-0.203236,-0.156930,0.382660,0.910464
0.569650,-0.142734,-0.938744,0.025265,-0.032600,0.999149
0.246858,-0.409120,-0.940326,-0.150105,0.211730,0.965732
0.242053,-0.161568,-0.945358,0.002557,0.041127,0.999151
-0.081181,-0.156697,-0.963235,-0.157331,0.185041,0.970055
0.025384,0.071519,0.445172,-0.049663,0.133575,0.989794
-0.006215,-0.555119,0.686135,-0.672014,0.704165,-0.229234
0.778639,-0.298980,0.282179,-0.199674,0.144005,0.969223
-0.635224,0.021295,0.224868,0.609883,0.720266,0.330544
0.257245,0.117120,-0.955383,0.007614,0.286693,0.957992
0.081899,0.084375,-0.939869,-0.401125,0.699249,0.591734
0.491423,0.017427,-0.943623,0.136316,-0.094514,-0.986147
0.485843,-0.273516,-0.936343,0.015148,-0.076668,-0.996942
0.003675,-0.272060,0.704718,0.277452,0.486943,0.828195
0.266802,-0.134448,-0.945910,-0.029510,-0.012925,0.999481
-0.454520,-0.589424,0.401069,0.915055,-0.365124,0.171343
-0.471260,0.193963,0.199920,0.105874,0.260107,0.959758
-0.694500,-0.281603,0.346713,0.114625,0.754772,0.645895
0.587881,0.080007,0.585256,0.582308,0.049083,-0.811485
-0.218573,0.391089,-0.115793,0.006645,-0.061856,0.998063
-0.311329,-0.428205,0.481899,0.829849,-0.452805,0.326064
0.489876,0.401086,-0.964950,-0.221352,0.251224,0.942279
0.130735,-0.010597,0.420071,-0.063905,-0.995241,-0.073560
-0.484573,-0.004270,0.922773,0.947517,0.004702,0.319672
-0.552469,0.364270,0.599550,-0.683106,0.184697,-0.706579
-0.288788,-0.282357,0.261328,-0.862313,0.425218,0.274966
-0.130182,-0.203306,-0.424722,-0.421120,-0.814099,0.399875
0.321714,-0.140024,-0.942785,0.211998,0.070370,-0.974733
-0.355412,-0.199990,0.753261,0.510040,-0.318399,0.799050
-0.386625,-0.239515,0.363961,-0.706109,-0.400695,-0.583827
-0.485624,-0.051379,0.016877,-0.544345,0.576575,-0.609302
0.076321,0.029783,-0.022328,0.993458,0.114053,-0.005744
-0.243101,-0.158205,0.730772,-0.473001,0.338514,-0.813436
0.925034,0.380793,0.230891,0.331018,0.697532,0.635512
0.214706,-0.789714,0.274841,0.819148,-0.572670,-0.032346
0.345303,-0.127015,0.746076,0.274931,0.670468,0.689120
0.022016,0.611421,-0.260890,0.841736,-0.127932,-0.524513
0.241223,0.426949,0.314331,0.501349,-0.666871,-0.551301
0.342265,0.094521,-0.955707,-0.063155,0.295170,0.953355
-0.142226,0.592186,0.724272,-0.202235,0.920447,0.334481
-0.041682,0.163980,-0.979740,-0.397388,0.073441,0.914707
0.038256,0.805835,0.691434,0.451681,-0.019712,0.891962
0.490594,-0.181306,0.230662,-0.405332,-0.557524,0.724481
0.296688,-0.388980,0.077523,0.689261,-0.343269,-0.638033
-0.775434,0.211341,0.300437,0.906799,-0.306326,0.289622
-0.559760,0.296016,0.603324,-0.768607,0.215264,-0.602416
-0.148081,-0.134902,0.711732,-0.689952,0.346882,-0.635326
0.076044,-0.369846,-0.077256,0.967616,-0.196641,-0.158274
-0.559263,-0.273669,0.351859,-0.223485,0.219713,0.949621
-0.529874,0.344532,0.595319,-0.697851,0.509608,-0.503293
0.147972,-0.243083,0.711693,0.436808,-0.793153,-0.424389
-0.477061,-0.542514,0.363885,0.239378,0.465770,-0.851913
0.117863,0.456882,-0.988908,-0.202948,0.063055,0.977157
-0.426512,-0.218020,0.765916,0.476498,-0.820592,-0.315559
-0.447008,0.144592,0.833176,0.984556,-0.172508,-0.029851
0.451980,-0.437095,0.388338,0.821351,0.288871,-0.491871
0.182112,-0.602329,0.092960,0.490558,-0.392113,-0.778203
-0.028203,0.217769,0.627967,0.285613,0.151687,0.946264
0.340552,0.090251,0.763020,0.673414,0.671877,0.308373
0.158799,-0.025814,0.398058,0.914110,0.009881,-0.405346
0.531531,0.722814,0.072834,-0.361355,0.932406,-0.006512
0.675111,-0.288132,0.263920,-0.097738,0.474632,0.874741
-0.848134,-0.055649,0.318886,-0.052509,-0.473394,0.879284
-0.503191,-0.573502,0.094428,0.746402,0.467825,0.473312
-0.292988,-0.041787,0.650762,0.381952,-0.522916,0.762018
-0.298346,-0.467430,0.655393,0.508359,-0.148896,0.848175
0.434466,0.729344,0.050287,0.550307,0.187505,-0.813637
0.127863,0.207371,0.068184,0.914850,0.402916,0.026614
-0.321493,-0.475014,0.387575,-0.495895,0.714591,0.493405
0.047316,-0.117674,0.645406,-0.775271,-0.587705,-0.231426
0.082176,-0.166390,-0.211108,-0.214910,0.751546,0.623692
0.502861,0.396212,0.787206,0.206545,0.484362,0.850137
-0.646383,-0.599567,0.385155,-0.443549,0.741980,0.502722
0.326630,-0.456432,0.096639,-0.177345,0.218726,0.959535
0.136590,-0.258953,0.321612,0.083670,0.239832,0.967202
-0.016491,-0.636432,0.566464,0.019462,-0.914192,0.404814
-0.539211,-0.138568,0.287649,0.378152,0.845503,0.376996
-0.639477,-0.609613,0.385536,-0.420370,0.890156,0.175819
0.477282,-0.196173,0.452891,-0.109087,0.079757,0.990827
0.025827,-0.390136,0.767555,-0.517043,-0.522742,-0.677796
0.191116,-0.397420,0.638736,0.831651,-0.379401,0.405477
0.295252,-0.375370,0.082669,-0.497711,0.511517,0.700453
0.418944,-0.250566,-0.937887,-0.089696,-0.007720,0.995939
0.054663,-0.476721,0.537570,-0.113862,0.606497,0.786891
0.213933,0.348401,0.241964,0.955790,-0.283884,0.076651
0.339890,-0.101903,0.738414,0.258256,0.884421,0.388721
0.041296,-0.603837,0.664827,0.848873,0.397106,0.348886
-0.268513,0.211491,0.612015,-0.075483,0.460656,0.884364
-0.437229,-0.762643,0.004812,-0.608427,0.753050,0.250463
0.549429,-0.052685,-0.939888,-0.027787,0.060854,0.997760
-0.057261,-0.233890,0.697685,0.670610,0.440392,-0.596940
-0.472585,0.133192,0.198338,0.568242,-0.015514,0.822715
-0.419109,0.102455,0.481651,-0.378216,0.655084,-0.654078
0.293485,-0.474061,0.097782,-0.137232,0.132243,0.981672
-0.196310,-0.532420,0.613082,-0.138777,0.317667,0.937992
0.495180,0.200391,-0.949589,-0.230403,0.101896,0.967746
-0.007210,-0.305007,0.517425,-0.380769,-0.021189,0.924428
0.007486,0.028275,0.552284,-0.041958,0.989573,-0.137784
0.073502,-0.513736,0.628844,-0.137030,-0.923044,0.359462
0.281938,0.563659,0.280787,0.536224,-0.350382,-0.767916
-0.512472,0.357891,0.600884,0.697767,-0.262335,0.666560
0.218905,0.387224,-0.977758,-0.159435,0.084705,0.983568
-0.533133,-0.103108,0.230205,0.915454,-0.261448,-0.305925
0.137973,-0.533827,0.300113,0.001379,0.100890,0.994897
0.533521,0.229721,-0.946901,-0.148387,0.195501,0.969413
0.022402,0.327909,-0.173390,-0.354205,0.685704,0.635884
-0.323481,-0.301543,0.699705,0.415119,-0.908423,-0.049443
-0.123111,-0.033048,0.592250,0.146066,0.225742,0.963175
0.084386,0.011854,-0.737328,0.989245,-0.020555,-0.144815
0.430048,0.859173,0.085527,0.593802,0.727174,0.344407
-0.421153,-0.006980,0.317171,0.004836,0.642699,0.766103
0.381930,-0.881624,0.280692,-0.098433,-0.777298,0.621384
-0.452200,0.007783,0.295025,0.325688,-0.126009,0.937043
0.412260,0.470042,-0.973394,-0.146590,0.169050,0.974645
0.102781,0.020541,0.195422,0.771087,-0.606520,-0.193798
-0.051404,-0.362214,0.606831,-0.067713,-0.951284,-0.300790
0.343646,0.577619,0.119414,0.809831,-0.391099,-0.437282
0.012679,-0.393251,0.231272,0.873752,-0.453911,0.174709
-0.070298,0.021145,0.736604,0.923214,0.383540,0.023927
0.073834,0.101854,-0.945625,-0.512922,0.731922,0.448555
0.982490,0.373764,0.215301,0.360390,0.677778,0.640887
-0.660416,-0.297022,0.348866,-0.066606,0.534130,0.842775
0.520263,-0.034553,-0.940440,-0.001412,0.065786,0.997833
0.088860,0.052985,-0.542354,-0.751876,0.659123,-0.015463
-0.259564,-0.328411,0.602199,0.550272,-0.795739,0.252981
-0.641798,0.399627,0.651086,0.813681,-0.103599,0.572006
0.177030,-0.138216,-0.943890,-0.077809,0.147762,0.985957
-0.029639,0.057657,0.724844,0.462125,-0.869835,0.172708
0.123774,0.259707,0.746400,-0.403724,0.671247,-0.621639
0.078641,-0.069207,0.605211,-0.532755,0.712207,0.457092
0.355744,0.561547,0.502863,0.880301,-0.267065,-0.392104
-0.485292,-0.022350,-0.143505,-0.058127,0.208149,0.976368
0.089965,-0.415297,0.701173,0.048080,0.410971,0.910380
0.046874,-0.321180,-0.951304,0.091932,-0.081493,-0.992425
-0.442422,-0.388729,0.569894,-0.457241,0.870224,-0.183413
0.171118,-0.051428,0.739272,-0.184597,-0.613286,0.767987
0.492030,-0.221285,-0.939468,0.039792,0.002775,0.999204
-0.091622,-0.440360,-0.950904,-0.142988,-0.015159,0.989608
0.014557,-0.643865,0.075750,0.158818,0.902875,0.399491
0.297075,-0.111798,0.712551,0.609378,-0.782983,-0.124881
0.390548,-0.333282,-0.937543,0.112481,0.132401,0.984793
0.017265,0.045402,-0.970058,0.413434,-0.137174,-0.900142
0.577550,0.306714,0.284237,-0.454185,-0.026526,-0.890513
0.082065,-0.519965,0.642719,-0.184419,0.880680,0.436340
0.474686,0.057154,-0.945815,0.210436,-0.117929,-0.970469
-0.312709,-0.347947,0.373014,0.054085,0.990490,0.126506
0.077701,0.148611,0.683600,0.608530,-0.793189,-0.023289
0.110516,0.033348,0.131193,0.007307,-0.977999,0.208482
0.327404,0.515796,-0.055795,0.934907,-0.231566,0.268934
-0.610088,-0.213750,0.315875,0.714593,-0.520413,-0.467469
-0.242825,-0.194466,0.782708,0.163014,0.724909,-0.669279
0.278403,-0.456833,0.332247,-0.713792,-0.414466,0.564552
0.086595,-0.514791,0.643767,-0.184419,0.880680,0.436340
0.421374,-0.507608,0.464250,0.984338,-0.125792,-0.123514
0.140734,-0.255688,0.738433,0.878211,-0.220011,-0.424665
-0.533630,0.276833,0.727760,0.017104,-0.076920,0.996891
0.077701,-0.035608,-0.443933,-0.154466,0.809707,-0.566141
-0.586222,0.012455,0.322622,0.050918,0.000189,0.998703
-0.552192,0.084626,-0.313665,0.129225,0.431853,0.892639
0.083336,-0.406560,0.710969,0.903503,0.040168,0.426695
-0.371157,-0.057455,0.878822,0.951263,0.161289,0.262839
0.188631,0.265831,0.014895,0.655791,0.024819,-0.754535
-0.348065,0.426397,0.430001,-0.312915,-0.838262,0.446543
0.535783,0.327556,-0.955535,-0.171436,0.164833,0.971308
-0.249675,0.378684,0.457579,0.980727,0.192189,-0.035174
0.083059,-0.029532,0.109923,-0.104824,0.959847,0.260203
-0.460156,-0.105468,0.347170,0.664199,0.735882,0.131599
0.141232,-0.209333,-0.167424,0.936546,-0.349944,-0.020516
0.215370,-0.154588,0.726255,0.826359,-0.542119,-0.152440
0.173163,-0.454976,0.005841,-0.128087,0.849058,0.512537
0.044664,-0.087388,0.564234,-0.119670,0.859933,0.496179
0.105323,0.176435,0.279587,-0.316209,0.083216,0.945033
0.269729,0.433579,0.239734,-0.561008,0.602324,-0.567869
-0.017374,0.424892,0.028789,0.470039,0.028375,0.882189
0.299893,-0.169756,0.822808,-0.292085,-0.953943,0.068409
-0.332652,-0.083974,0.663417,-0.636582,0.586946,-0.500258
0.084993,-0.141079,0.313131,0.072568,0.693279,0.717007
-0.111565,0.127619,0.642967,-0.517041,0.789046,0.331777
0.448112,0.457486,0.584741,0.922414,0.043430,-0.383753
0.042400,-0.054343,0.532767,-0.385685,-0.921369,0.048223
0.120847,-0.282608,-0.134243,0.756061,-0.605289,-0.248992
-0.713229,0.087992,0.178860,-0.086104,0.951122,-0.296567
-0.072618,-0.253027,-0.368840,-0.206377,0.870718,0.446383
0.379168,-0.413541,-0.934437,-0.084982,0.016240,-0.996250
-0.259288,0.572849,0.653411,0.991470,0.029994,-0.126837
-0.409773,-0.105670,0.781011,0.833855,-0.273879,0.479246
0.534569,-0.446788,0.301981,-0.064108,-0.093603,0.993543
-0.470100,-0.364473,0.333047,-0.016524,-0.225061,0.974205
0.053559,-0.055848,-0.959690,0.430148,0.129056,-0.893486
-0.630031,0.012406,0.319687,0.062056,-0.204555,0.976886
0.070078,0.021295,0.374539,0.977355,-0.040848,-0.207624
-0.438610,-0.216414,0.753433,0.475506,-0.865506,-0.157456
0.093114,-0.086034,0.287344,0.770691,-0.515119,-0.375084
-0.140292,-0.223795,0.714228,-0.441214,0.634961,0.634157
0.162058,0.033600,-0.520741,-0.076841,-0.929849,0.359828
-0.104991,0.083520,-0.385212,0.067243,-0.664247,0.744483
-0.143110,0.284665,0.196775,-0.698706,0.648523,0.302038
-0.614397,-0.394253,0.311739,0.997882,0.016885,0.062824
-0.586996,-0.595901,0.415020,-0.357094,0.784948,0.506301
0.435958,-0.418212,-0.934551,-0.018259,0.046525,0.998750
-0.486010,0.419920,0.385403,0.916962,0.398285,-0.023445
-0.217192,0.584099,-0.090788,-0.135071,0.367675,0.920093
-0.319339,-0.297877,0.558268,-0.534954,0.835563,-0.125138
0.652516,0.764249,0.095419,0.091013,0.893083,0.440590
0.472255,0.689267,-0.058864,-0.285730,-0.494230,0.821033
0.584509,0.834665,0.026101,-0.507797,0.671955,0.539090
0.420822,-0.156749,0.229080,-0.479862,-0.876830,-0.030018
-0.173384,-0.746823,-0.006185,-0.021246,0.266979,0.963468
-0.332596,0.340817,0.151396,0.276325,0.931865,0.235101
-0.074387,0.633467,0.608775,0.083607,0.268745,0.959576
-0.254372,0.259805,0.484529,0.013350,-0.483450,0.875270
-0.024280,-0.631711,0.594881,-0.256653,-0.947798,0.189229
0.617105,0.534881,0.255286,0.837055,0.370770,0.402328
-0.036710,-0.583747,0.641213,0.856026,-0.515506,0.038376
-0.822446,0.086536,0.171236,-0.330735,-0.109678,0.937329
0.259453,0.415950,-0.066526,-0.562872,0.390496,-0.728483
0.105103,-0.345789,-0.443171,-0.509364,0.054576,-0.858819
0.376516,0.233740,-0.965484,-0.214709,0.207319,0.954421
0.139463,0.154536,0.645482,-0.604490,0.707341,0.366416
-0.185593,-0.141229,0.706281,0.105288,-0.560516,0.821423
-0.716156,-0.265834,0.343835,-0.481146,-0.711425,-0.512223
0.060188,-0.251166,-0.068317,0.984234,0.176315,-0.014023
0.109301,-0.716288,-0.085928,0.986503,-0.029880,0.160993
-0.151838,-0.514840,0.605268,-0.633169,-0.220071,-0.742069
-0.796979,-0.385967,0.115241,0.731177,0.538430,-0.418896
-0.315527,0.421526,0.139522,0.994934,-0.091776,-0.041035
0.681298,0.232032,0.283132,0.086712,0.591024,0.801980
-0.496727,-0.670635,0.422110,0.783308,-0.464755,0.412833
-0.480485,0.449902,0.462382,0.159471,-0.978941,0.127448
0.127697,-0.607001,0.671631,-0.346643,0.718513,0.602974
0.155098,-0.010346,-0.856619,-0.488444,0.872574,0.006164
0.106207,0.282556,0.755205,-0.528377,0.463625,-0.711245
-0.208960,0.503038,0.655298,-0.223530,0.941988,0.250387
0.217911,-0.477825,-0.014475,-0.287344,-0.853296,-0.435109
-0.017981,0.673495,0.687050,-0.434185,0.190606,-0.880427
0.395797,-0.370499,-0.935809,0.097998,0.066511,0.992962
-0.359942,-0.308474,0.711636,-0.463257,0.828516,0.314570
0.153274,0.101551,-0.001344,0.918520,-0.252924,-0.303892
-0.262823,-0.270203,0.353383,0.074905,0.755643,0.650686
0.705053,-0.629752,0.308137,-0.489582,0.044080,-0.870842
-0.077755,0.894379,-0.092065,0.430190,0.540726,-0.722878
-0.294368,-0.222140,0.599455,0.513256,-0.803311,0.302094
0.059360,0.375168,-0.989727,-0.223732,0.232666,0.946473
-0.547165,-0.088593,0.246100,0.956949,-0.235408,-0.169797
-0.340829,-0.033900,0.402308,0.993865,0.083995,-0.071956
-0.133552,0.298226,0.080343,0.285781,0.749509,0.597130
0.345303,-0.092060,-0.941527,-0.197743,0.071303,0.977657
-0.421817,-0.729798,0.484567,-0.585479,0.759920,0.282376
-0.403253,-0.247050,0.246176,-0.195779,0.323954,-0.925594
-0.034390,-0.205363,0.720232,0.569811,0.257236,-0.780477
0.036268,0.158757,-0.969696,-0.068775,0.292671,0.953737
-0.671408,0.218673,-0.094276,-0.579667,0.122205,-0.805638
0.067979,-0.096480,0.585237,-0.500607,0.647451,0.574630
-0.429218,0.309326,0.538580,-0.297757,0.461104,-0.835897
0.303262,0.425493,-0.976386,-0.179593,0.097680,0.978880
-0.295087,0.276631,0.786615,0.495844,-0.737138,0.459093
-0.307406,-0.102758,0.669154,-0.639676,0.758795,-0.122661
0.423749,0.355430,0.138969,-0.211936,0.168232,0.962695
0.081513,-0.015922,-0.711332,0.875529,0.460528,-0.146161
-0.575505,-0.588569,0.151719,0.789741,0.588628,-0.172703
0.178079,-0.775852,0.157609,-0.042723,-0.918372,-0.393405
0.099522,-0.022249,0.515195,-0.510871,0.837658,0.193233
0.057757,0.780873,0.694960,-0.724229,-0.140925,-0.675006
0.322653,0.269448,0.722786,-0.021532,-0.905151,0.424545
-0.815706,0.077594,0.348352,0.228397,-0.308451,0.923414
-0.523134,-0.552759,0.402346,-0.005281,0.627975,0.778216
-0.036268,0.811760,0.594766,-0.614197,-0.287756,-0.734818
0.091898,0.029281,-0.670793,0.877254,0.478966,0.031885
0.092782,-0.757371,0.113697,0.890373,-0.448507,-0.077964
0.162776,-0.144092,-0.209716,0.842829,-0.445741,-0.301588
0.066652,0.181257,0.419594,0.989031,0.035116,-0.143472
-0.128248,-0.180402,0.511821,0.129664,-0.646170,-0.752098
0.134603,-0.025614,0.301142,0.970596,0.109127,0.214557
-0.070408,0.339008,0.644663,-0.132599,-0.667844,0.732395
0.103058,-0.820401,0.226488,0.969878,0.063634,-0.235131
-0.396459,0.451156,0.261709,0.767100,0.416488,-0.487950
0.075933,0.426599,0.530957,0.064280,-0.837469,0.542691
-0.558214,-0.552961,0.093113,0.873139,-0.327909,0.360700
0.041571,0.056802,-0.941927,0.743020,-0.559784,-0.366828
0.531366,-0.159962,-0.941355,0.053310,0.021672,0.998343
0.573736,-0.344885,0.457217,-0.402311,0.380698,-0.832596
-0.030411,0.712922,-0.095858,-0.804624,0.162936,0.570992
0.201668,-0.010898,-0.947492,0.230027,0.011945,0.973111
0.102063,-0.217416,0.692901,0.454829,0.817012,0.354432
0.571140,0.447490,0.474008,0.078049,0.739797,0.668287
0.465072,-0.317364,-0.936629,-0.002215,-0.047113,0.998887
-0.412646,-0.659885,0.365066,-0.554757,-0.047211,-0.830672
-0.275972,-0.177039,0.599341,0.819091,-0.367226,-0.440722
-0.547330,0.308925,0.541306,0.127824,-0.680955,0.721083
-0.322818,-0.290894,0.537875,-0.192015,0.662666,0.723882
0.260615,0.208177,-0.972307,-0.141253,0.191625,0.971250
0.263708,-0.214152,0.987631,0.953031,-0.288479,0.092256
0.389830,-0.635227,-0.116308,-0.297168,0.150211,-0.942936
0.039638,-0.050374,0.408731,-0.830922,-0.329918,0.448022
-0.033008,-0.900105,0.017715,0.395709,0.879961,0.262838
-0.409773,-0.313195,0.671841,-0.338917,0.936858,-0.086207
-0.112615,-0.722765,0.330856,-0.690917,0.482335,-0.538504
0.603294,0.571393,0.268742,0.621430,0.447954,0.642776
-0.094936,0.211592,0.277528,0.298744,-0.625207,-0.721019
0.558213,-0.367685,-0.935256,0.105613,0.012216,0.994332
0.541863,-0.249057,0.480240,0.217610,-0.534727,-0.816525
-0.363865,-0.145597,0.343454,0.911647,-0.015479,-0.410683
-0.516505,-0.418614,0.349648,-0.126513,0.945322,0.300601
-0.435572,0.445080,0.582892,-0.689510,0.238504,-0.683880
0.153716,-0.102357,0.604505,0.896425,-0.407933,-0.173244
0.312101,0.399375,0.532062,-0.175532,-0.036590,0.983793
0.494903,0.680629,0.113220,0.002074,0.482579,0.875850
0.215424,0.351013,0.031533,0.024190,-0.218980,0.975430
0.357125,0.097884,-0.954487,-0.075909,0.272556,0.959141
-0.692125,-0.301491,0.193935,0.551258,-0.473988,-0.686623
0.661795,-0.158757,-0.371775,0.672774,0.398164,-0.623570
-0.225037,-0.045953,0.601647,-0.704017,0.700478,-0.117011
-0.153441,0.299382,0.081468,0.285781,0.749509,0.597130
0.362982,-0.146051,-0.940421,-0.081618,-0.139524,0.986849
-0.330609,-0.524483,0.353726,-0.670137,0.368902,-0.644071
0.238241,-0.084878,0.556515,-0.625542,0.755883,0.193229
-0.476894,0.083219,0.473284,0.438544,-0.654724,0.615642
-0.207137,-0.231128,0.721871,-0.319006,0.099178,-0.942549
0.398614,0.753052,0.058159,0.443056,0.160312,-0.882044
-0.629478,-0.219979,0.194297,-0.786739,0.386513,0.481300
0.111344,-0.032846,-0.742398,0.969333,0.243165,-0.035571
-0.015552,-0.683341,0.579652,0.891334,-0.451973,-0.035257
-0.605723,0.378181,0.630788,0.787739,-0.084522,0.610183
0.211889,-0.132891,0.738472,0.447438,-0.865285,-0.226010
-0.389719,0.133293,0.303944,0.466825,-0.131515,-0.874516
0.139463,-0.525688,0.648036,-0.580605,0.146219,0.800948
0.235643,-0.037468,0.697361,-0.652573,0.712175,0.258757
-0.404303,-0.343931,0.518111,-0.732735,0.596414,0.327704
0.438390,0.335594,0.819301,0.026721,0.461429,0.886775
-0.407342,0.401135,0.217569,0.179215,-0.248294,0.951962
0.059912,-0.034050,0.489198,0.964971,-0.259316,-0.039824
0.408724,-0.726735,0.501472,-0.723012,0.679457,-0.124869
-0.022567,0.307116,0.433489,-0.466384,-0.668558,0.579237
0.302269,0.498366,-0.055834,0.910834,-0.220500,0.348943
-0.460819,-0.619256,0.402594,0.881905,-0.290760,0.371083
0.151340,0.347898,0.194945,-0.723757,0.590304,0.357376
0.143166,-0.521924,0.626118,-0.330554,0.878864,-0.343993
0.333977,-0.380946,0.391311,-0.141545,-0.474616,0.868737
0.011961,-0.680580,0.320545,-0.357289,0.676901,-0.643545
0.280557,-0.489176,0.341967,-0.664058,-0.314397,0.678367
0.130128,0.332028,0.242631,-0.626708,-0.476165,-0.616850
-0.458332,0.156746,0.209907,0.761320,0.148910,0.631045
0.133718,0.648083,0.597587,-0.554619,0.050516,-0.830570
0.056487,0.483048,0.061227,-0.508648,-0.648374,0.566469
-0.411762,0.304553,0.238076,0.720656,0.163118,-0.673830
-0.491479,0.216009,0.177754,0.395066,0.508650,0.764982
-0.636660,-0.256641,0.216253,0.814615,-0.458457,-0.355275
0.551364,0.420119,-0.960700,-0.183760,0.221904,0.957597
0.350552,0.147908,0.328130,0.254307,-0.164235,0.953077
0.230671,0.047360,-0.950904,-0.102555,-0.247961,-0.963326
-0.331713,0.172064,0.617180,-0.047824,0.761104,0.646865
0.575284,-0.249159,0.249035,0.138395,0.746482,0.650855
0.079247,-0.267992,-0.948178,-0.217355,0.019383,0.975900
0.253322,-0.192807,-0.943623,-0.036011,-0.034466,-0.998757
-0.216253,0.006980,0.285953,-0.233172,0.184459,-0.954780
0.279728,-0.196375,0.942060,0.922838,-0.376892,0.079513
0.059360,0.684344,0.627681,0.958084,-0.137304,-0.251441
-0.174930,-0.168149,-0.017449,0.241262,-0.895759,-0.373374
0.188852,-0.586358,0.574659,0.920447,-0.377802,0.100210
0.013286,0.024459,0.550492,-0.041958,0.989573,-0.137784
0.564015,-0.169906,-0.939545,0.024106,0.053469,0.998279
-0.356130,0.213952,-0.089968,-0.220317,-0.271887,-0.936770
-0.179957,-0.301292,0.580586,0.753751,0.633723,0.173942
-0.182830,0.725828,0.716077,0.841174,-0.505870,0.191105
-0.415132,0.461302,0.436767,-0.205920,0.966254,-0.154756
-0.039195,-0.684295,-0.022518,-0.411994,-0.219787,-0.884282
-0.421982,-0.298328,0.690462,0.599370,-0.773581,0.205739
0.333591,0.326854,-0.968324,-0.210295,0.079744,0.974380
0.148635,0.080960,0.598311,0.822301,-0.533950,0.196769
-0.583902,0.375873,0.619143,0.733306,-0.063954,0.676884
0.078585,-0.559037,0.058559,-0.035149,0.155157,0.987264
-0.022954,-0.115513,0.690290,0.459610,0.017564,0.887947
-0.308510,0.160566,0.751775,-0.490483,0.702371,-0.515850
0.362594,0.162022,-0.960776,-0.186708,0.188380,0.964185
0.224872,-0.310684,-0.943509,-0.185600,0.112748,0.976136
0.043283,-0.361508,0.264549,0.966514,-0.231213,0.111313
-0.665221,-0.466980,0.441722,-0.736008,0.666999,-0.115778
0.192443,-0.465772,-0.941546,0.155665,-0.069468,-0.985364
-0.118028,0.666065,0.719946,0.820893,0.229587,0.522899
-0.055381,0.110541,-0.978616,-0.322657,0.078995,0.943214
0.718034,0.247050,0.274498,0.019854,0.497256,0.867377
0.243378,-0.564462,0.614073,-0.356661,0.206210,0.911192
-0.589427,-0.210789,-0.177144,0.118207,-0.389207,0.913534
-0.707318,0.426850,-0.074874,-0.505808,-0.120392,-0.854204
0.023175,-0.347898,-0.130393,-0.695654,0.610575,0.378502
-0.254593,-0.608258,0.334210,-0.472115,0.378648,-0.796074
-0.125101,0.007483,0.342615,0.935720,-0.158656,0.315049
0.316024,-0.077343,0.637363,0.461489,0.875761,-0.141673
-0.355579,-0.495154,0.408674,0.731610,-0.534315,-0.423384
0.090462,-0.218272,-0.024462,0.982428,-0.183861,-0.032112
-0.511201,0.264476,-0.296778,0.123495,-0.394495,0.910562
0.117642,0.038422,-0.213109,-0.626269,-0.741428,0.240980
0.648871,0.125758,0.587886,-0.545928,0.048708,0.836415
-0.296191,-0.377078,0.546089,0.555446,0.308435,-0.772236
-0.150236,0.191551,0.458818,-0.559347,0.514114,-0.650245
-0.327293,0.213401,-0.105902,0.334509,0.163332,0.928131
-0.128139,0.334738,0.407721,0.606986,0.743646,-0.280282
0.346131,-0.039829,0.535092,0.164699,0.512791,-0.842567
-0.226639,-0.215709,0.716287,-0.580920,0.400885,-0.708395
0.084109,0.717441,0.680494,-0.633175,-0.517411,0.575652
-0.119962,-0.324092,-0.943128,-0.028848,0.132785,0.990725
0.368230,-0.713275,0.515138,-0.519485,0.759343,-0.391834
0.512804,-0.240922,-0.937200,-0.016715,0.103946,0.994442
0.116869,-0.003065,0.232015,0.886173,-0.457066,-0.076083
0.462200,-0.039727,-0.940631,-0.005765,0.084168,0.996435
0.114217,0.382200,0.598997,0.536102,-0.230927,0.811953
0.289618,-0.566924,0.106645,0.014363,0.593125,0.804983
0.469328,-0.065091,-0.937219,-0.022144,0.114223,0.993208
-0.822943,-0.016575,0.329903,0.025088,-0.338221,0.940732
-0.336299,-0.540405,0.013503,-0.129084,-0.873093,0.470155
-0.532856,-0.788108,0.081925,0.700876,0.690903,-0.177270
-0.397619,-0.144193,0.532443,-0.227839,-0.967949,-0.105660
0.395188,-0.491187,0.344083,-0.676425,-0.068890,0.733282
0.122891,-0.657123,0.709464,-0.013439,0.933737,0.357707
-0.497390,0.046456,0.329255,-0.036877,-0.288875,0.956656
0.074220,0.014162,-0.608260,-0.075295,0.991615,0.105029
0.600310,0.085178,0.589811,-0.560942,0.054228,0.826077
-0.336408,-0.033802,0.315418,0.772759,0.634370,0.020426
-0.667376,-0.119581,0.335258,-0.170748,-0.213893,-0.961818
-0.129299,0.432374,0.679789,0.905820,-0.359047,-0.224890
-0.038644,0.496407,0.676663,0.235291,0.855720,0.460848
-0.571693,0.170510,0.264949,-0.012784,0.873487,0.486680
0.100573,0.008537,-0.227994,0.974611,0.032970,-0.221464
0.093058,-0.034302,0.297979,0.893712,-0.291914,0.340684
0.006822,0.567172,0.580129,-0.025313,-0.266486,0.963506
0.088805,0.388279,-0.035250,0.655194,0.119032,0.746024
-0.082396,-0.279644,-0.359768,-0.402593,0.757559,0.513832
0.406458,0.510922,0.321898,-0.505901,-0.759276,-0.409347
-0.092561,0.659483,0.688384,0.298916,-0.322930,0.897979
-0.101788,-0.388177,0.525163,-0.028947,0.402579,0.914928
0.567330,0.233087,-0.946787,-0.090162,0.196981,0.976253
-0.041019,0.625482,0.025949,0.736480,0.187053,0.650084
-0.636383,-0.259654,0.281512,0.828370,0.549267,-0.110041
-0.086485,0.144543,-0.983228,-0.377991,0.116491,0.918451
-0.328066,-0.037968,0.756864,0.985075,0.161828,0.058634
0.014171,0.066295,-0.097497,-0.171412,-0.205392,0.963552
0.538602,-0.473055,0.285228,-0.167300,0.014579,0.985798
0.507777,0.024309,-0.941717,-0.152015,0.082777,0.984906
-0.413364,0.250011,-0.085985,0.055995,0.221066,0.973650
0.324310,-0.470493,0.599836,-0.898386,0.403949,-0.172419
-0.397619,-0.663855,0.449003,-0.569151,0.751024,0.334709
0.048973,-0.454473,0.714686,0.953493,-0.117630,0.277514
0.174986,-0.657025,0.585904,0.938135,-0.263323,-0.224863
-0.443803,0.435639,0.581863,-0.689510,0.238504,-0.683880
-0.586388,0.024158,0.319420,-0.165401,0.369282,-0.914480
0.320775,0.213551,0.695493,0.968423,0.202835,-0.144968
0.328067,0.691275,-0.043026,-0.580479,0.242492,-0.777330
-0.059305,0.593942,0.460667,0.588688,-0.237503,-0.772683
-0.319504,-0.455779,0.382620,-0.381401,0.727737,0.570029
0.075933,-0.362915,0.057301,0.996357,0.063295,-0.057160
0.159296,-0.559539,0.605878,0.950721,0.175666,0.255483
0.450709,0.246596,-0.955611,0.309251,-0.209917,-0.927523
0.252935,-0.260611,0.797250,-0.183989,0.640408,0.745671
0.167473,-0.281152,-0.324357,-0.177746,-0.207422,0.961968
0.489434,0.080859,0.558154,0.066407,0.194792,-0.978594
-0.386957,0.048415,0.306365,0.230595,0.746251,-0.624449
0.016049,0.010796,-0.423559,0.058729,-0.522445,0.850648
-0.470542,-0.339811,0.718745,-0.410196,0.847322,-0.337319
0.299782,-0.513938,-0.354794,0.074507,0.802619,0.591821
0.365025,0.095827,-0.955611,0.081671,-0.240513,-0.967204
-0.184432,0.147004,0.333657,0.284724,0.923869,-0.255731
0.593627,0.848625,0.015924,-0.130484,0.808847,0.573358
0.083501,-0.348701,0.610509,-0.574762,0.135572,0.807013
0.585669,0.412032,-0.961348,-0.186603,0.252188,0.949516
-0.342265,0.316156,0.730714,0.659866,0.737240,-0.145097
-0.315968,0.489679,-0.184482,0.906817,0.324250,0.269341
0.245809,-0.412838,0.082859,0.884179,-0.123685,-0.450476
0.032290,0.796344,0.678359,-0.449646,0.093357,-0.888315
-0.041626,0.492591,0.686364,-0.832424,0.001072,-0.554138
0.137475,-0.467632,-0.945415,0.139732,-0.090981,-0.986001
-0.047813,-0.031390,-0.547004,-0.219208,0.850868,0.477463
0.204652,-0.795992,0.261766,0.736467,-0.185356,-0.650584
-0.352264,-0.061323,-0.019717,-0.513436,0.604525,-0.609042
0.092010,-0.129277,0.604563,0.065558,0.947243,0.313740
0.358010,-0.440157,-0.936152,0.018257,0.010685,0.999776
0.280005,0.366128,-0.971335,0.203767,-0.070700,-0.976463
0.373532,-0.390185,-0.935275,0.122475,0.000426,0.992471
-0.502031,0.383959,0.579119,0.835602,-0.242189,0.493066
-0.260724,-0.502284,0.407473,0.011782,0.575734,0.817552
0.026711,-0.049120,0.708111,-0.544072,0.734541,0.405506
0.095490,0.092912,-0.948140,-0.429797,0.804454,0.410034
0.122614,0.044850,-0.418108,0.975459,0.168928,0.141219
0.067812,0.145398,-0.967276,-0.114233,0.350758,0.929473
-0.328729,0.571491,0.154331,0.969889,-0.142613,0.197425
0.445848,-0.431519,0.569418,0.842118,-0.232693,0.486509
0.151066,-0.222290,-0.190067,0.747021,-0.583976,-0.317699
-0.436732,-0.245695,0.311854,0.255698,-0.966066,0.036539
-0.603238,-0.156997,-0.357081,0.887506,0.293732,0.355041
-0.259841,0.106072,0.661130,0.678220,0.725458,0.117168
0.156700,0.319120,0.581654,-0.598340,0.247577,-0.762033
-0.391764,0.272109,0.104758,0.686093,-0.243863,-0.685425
0.339779,-0.316610,0.202055,0.673471,0.138663,-0.726092
0.331934,-0.509920,0.095743,0.210157,0.055378,0.976098
-0.012070,-0.661997,0.077542,-0.088292,0.768594,0.633615
0.235810,-0.434633,-0.938172,-0.173642,0.134770,0.975544
-0.071293,0.503792,0.266493,0.630667,0.107045,-0.768635
0.043118,-0.297423,0.295253,-0.387304,0.777178,-0.495973
-0.420766,-0.221536,0.762276,0.234439,-0.800217,-0.551988
0.462365,-0.092563,0.675462,-0.437425,0.678101,0.590625
0.195867,0.082818,-0.957155,0.036317,0.349818,0.936114
-0.108306,-0.292350,-0.955916,0.168090,0.135247,0.976450
0.109412,-0.587413,0.070051,-0.153646,0.702853,0.694544
-0.616110,0.245241,-0.310253,-0.121302,-0.552407,0.824701
-0.616717,0.022098,0.314198,0.118220,-0.204548,0.971691
-0.279010,-0.082266,0.277566,-0.475452,0.628406,-0.615671
-0.051625,0.801718,-0.097211,0.524473,-0.062371,-0.849139
0.495787,-0.434836,-0.934456,-0.078256,-0.041433,-0.996072
-0.025219,0.557228,0.657852,0.182123,0.815828,0.548869
-0.137088,0.585203,0.349095,-0.516484,0.017981,-0.856108
0.418170,-0.398523,0.626595,-0.491789,-0.600149,-0.630845
0.453802,0.446788,0.483671,-0.517348,-0.210308,-0.829531
0.154048,0.402891,-0.986125,-0.161406,0.011928,0.986816
0.457284,0.401435,0.479364,-0.435017,-0.354403,-0.827743
-0.455073,0.021446,0.307947,-0.539144,-0.598239,-0.592819
0.744000,-0.366683,0.287020,0.111474,0.433827,0.894074
-0.054940,-0.025112,-0.969677,-0.250022,0.115537,0.961322
0.158081,0.001907,0.208382,0.848301,-0.505263,0.158413
0.182665,0.386167,0.320964,-0.521939,0.490526,0.697828
-0.000746,0.174525,-0.970363,0.295698,-0.233635,-0.926271
0.076651,-0.000855,-0.575078,-0.614882,0.785001,0.075457
-0.551309,-0.618251,0.428343,0.195171,0.579354,0.791364
0.253598,0.332126,-0.974156,0.132388,-0.063352,-0.989171
0.019143,0.031589,-0.962263,0.646482,-0.073772,-0.759354
-0.094495,-0.073527,0.698867,-0.308628,0.295973,-0.903963
0.113498,0.011652,0.305374,0.907434,0.372853,0.193762
0.743667,0.504344,0.225802,0.249669,0.258139,0.933290
-0.545287,-0.835217,0.013618,-0.702925,0.628275,-0.333417
0.200067,-0.296822,-0.949741,-0.079885,0.034686,0.996200
0.615945,0.331725,-0.955573,-0.168931,0.141791,0.975376
0.073999,0.470091,0.066221,0.556892,0.204355,-0.805053
0.283043,0.292954,-0.972726,0.158693,-0.077691,-0.984267
0.054168,-0.233390,0.740111,-0.456130,-0.064324,-0.887586
0.141067,0.492088,0.268590,-0.207969,-0.836203,0.507458
0.007596,0.030084,-0.419728,-0.414404,0.881251,-0.227302
-0.034997,-0.120988,0.447001,0.478033,-0.871983,-0.105500
0.728531,0.303499,0.274269,-0.329053,-0.220636,-0.918174
0.784109,0.677315,0.066221,0.980449,-0.015166,0.196188
0.417508,0.560695,0.272173,0.790635,-0.105643,-0.603105
0.408778,0.193963,0.318963,-0.388299,0.062599,-0.919405
-0.103169,-0.179298,0.792370,0.077425,-0.788217,0.610507
-0.154269,-0.643314,0.564481,-0.669066,-0.002634,0.743198
-0.003398,0.218471,0.778991,0.356455,-0.036758,0.933589
0.282656,-0.212095,0.883778,0.992269,0.018759,0.122677
0.062066,-0.630004,0.649123,0.769956,0.622715,0.139262
0.168909,0.002811,-0.053737,0.995221,0.095479,0.020465
0.339613,-0.249159,0.758045,0.338807,0.590330,0.732612
-0.025219,0.000352,0.143905,0.188554,0.791632,-0.581177
-0.122558,-0.175932,0.686840,0.305827,-0.949593,-0.068868
0.416955,-0.270604,0.570485,-0.488135,0.162445,-0.857517
0.353259,0.343628,0.522266,0.585272,0.204435,0.784642
0.306081,-0.085482,0.742722,0.150055,0.832104,0.533935
0.390493,-0.446990,0.196184,0.873120,-0.041450,-0.485740
0.216253,0.358946,0.020117,0.116171,-0.080335,0.989975
-0.152335,-0.480740,0.537075,0.011473,0.456419,0.889691
0.191890,-0.323792,0.355156,0.941717,0.298671,0.154809
0.558381,0.756969,0.078838,-0.505216,0.861456,0.051492
0.696545,-0.538495,0.262624,0.430322,0.026288,0.902292
0.368395,-0.126816,-0.935580,-0.053924,-0.031499,0.998048
-0.200453,-0.621365,0.555161,-0.705944,0.137637,0.694766
-0.307294,0.447340,0.341853,0.618293,-0.478134,-0.623780
-0.187636,-0.159260,0.718231,-0.504572,0.391303,-0.769603
0.696545,-0.398673,0.335125,-0.760736,-0.028648,0.648429
-0.326630,0.594043,-0.126142,0.235250,0.273353,0.932703
0.090904,-0.652402,0.579061,0.110788,0.463424,-0.879184
0.734664,0.206620,0.293786,0.029382,0.363281,0.931216
0.285088,-0.178746,0.859935,0.683756,0.716606,0.137675
0.291551,-0.301893,0.596653,-0.600839,-0.171571,-0.780741
0.085656,-0.961477,-0.054271,0.910917,-0.395988,-0.115863
0.419551,-0.254986,0.720118,0.971153,-0.234616,0.042621
-0.582908,0.200845,0.191248,0.265573,-0.052435,-0.962664
-0.557993,-0.303048,0.314846,-0.264343,0.954575,0.137515
-0.084716,0.283512,0.416107,0.685257,0.716448,-0.130860
0.281773,-0.227765,0.936552,0.968884,-0.229835,0.091865
-0.182112,0.285569,0.216749,-0.692962,0.679116,0.242084
-0.059470,0.147305,0.429734,-0.660018,0.270585,0.700828
0.091733,-0.471749,-0.049944,0.936643,-0.230769,0.263526
-0.238792,-0.080810,0.591507,-0.645688,0.568007,0.510347
0.736930,0.510671,0.228146,0.420297,0.363524,0.831385
