-0.065371,0.191700,-0.189493,-0.624268,0.271216,0.732619
-0.215140,0.364254,0.668081,0.023517,-0.698559,0.715166
0.352234,0.069744,0.760013,0.061271,0.794192,0.604570
0.129562,0.069015,-0.980008,-0.327214,-0.227483,-0.917160
-0.088798,0.226572,0.892053,-0.216598,-0.728348,0.650072
-0.530908,0.685614,-0.619931,-0.509878,0.572673,0.641927
0.206690,0.425659,0.482121,-0.178326,0.453898,0.873027
0.360713,-0.503963,0.510901,-0.492470,-0.029539,-0.869828
0.362724,-0.680414,0.588346,-0.107927,0.650852,0.751494
-0.887732,0.124176,-0.476475,0.472861,-0.460085,0.751481
-0.587115,-0.292702,0.727452,-0.416922,0.501916,-0.757797
-0.729891,-0.240204,0.203128,-0.534707,0.203415,0.820189
0.048150,0.469217,0.794244,-0.240994,0.617187,-0.749001
0.246784,0.282526,0.770240,0.528988,0.174866,0.830418
-0.436705,-0.271462,0.755042,-0.195069,0.180406,0.964055
0.533297,-0.399917,0.482015,-0.653507,0.618257,0.436678
0.047626,0.281385,-0.636141,-0.201606,-0.312135,0.928400
-0.360539,-0.592918,0.131525,-0.614965,-0.206296,0.761091
-0.551101,0.559092,-0.567591,-0.215320,-0.597294,-0.772578
0.351913,0.368026,-0.376465,-0.041714,0.445976,0.894072
0.076851,-0.061945,0.768820,-0.530801,-0.695304,-0.484564
0.220502,-0.459865,0.573876,-0.257915,-0.405730,0.876848
-0.151095,0.115680,0.117712,0.574685,0.753495,0.319347
-0.004036,0.646335,0.006036,0.031535,0.216345,0.975808
-0.484171,0.457520,0.137348,0.843063,0.071936,0.532983
-0.655210,-0.015375,0.250302,-0.654660,0.546469,0.522295
-0.246318,0.005167,0.668756,-0.864021,0.499939,-0.059409
0.682425,-0.274854,0.201033,-0.225714,0.043327,-0.973230
0.117062,-0.303449,0.486578,-0.407776,-0.078564,0.909696
0.035330,0.240775,0.901303,0.753037,0.049624,-0.656104
-0.486793,-0.131182,0.750639,0.331536,0.661215,-0.672963
-0.130844,-0.522128,0.679089,-0.278421,0.513488,0.811672
-0.199493,-0.595453,0.421117,-0.579337,0.331503,0.744631
0.361995,-0.580966,0.538172,-0.231864,-0.396044,-0.888476
-0.199202,0.060931,0.870339,0.805780,-0.127473,-0.578334
0.340142,-0.188055,0.536325,-0.456769,0.642204,0.615578
-0.704483,-0.065750,0.228801,0.713002,0.679048,0.174704
-0.379012,0.245213,0.200820,0.096327,-0.080233,0.992111
-0.178718,0.490522,0.884720,0.337566,0.321191,-0.884808
-0.308120,0.248161,0.847987,0.818257,0.430470,-0.380987
-0.124113,0.595200,-0.020151,-0.495999,-0.254915,0.830062
0.006454,0.186121,0.382696,0.510225,-0.676074,0.531596
-0.133758,0.151693,-0.543836,-0.702965,-0.615520,0.356336
0.418115,0.227461,0.759179,-0.249856,-0.209515,0.945344
0.223677,0.223846,-0.185445,0.067103,0.156218,0.985441
0.194481,-0.397920,0.504190,0.793561,0.034507,-0.607512
-0.104329,0.479172,0.903363,-0.154703,0.257517,0.953809
0.063797,0.041973,0.906914,-0.250829,0.942000,0.222981
-0.119509,-0.603886,0.470066,0.131429,-0.917819,0.374613
-0.496933,0.586482,0.191002,0.842838,-0.507210,-0.179892
-0.354419,-0.330585,0.575989,0.719174,-0.264651,0.642455
0.059135,-0.312420,0.682959,0.987821,-0.128281,0.088053
-0.734320,0.564354,-0.640579,0.918325,0.113390,0.379237
-0.891432,-0.269845,0.166110,0.029765,0.342000,0.939228
-0.008640,-0.409301,0.530928,-0.296551,0.932656,0.205451
0.498128,-0.435487,0.623304,0.933887,0.273126,0.230775
-0.752386,0.460087,-0.609989,-0.158886,-0.333281,0.929343
-0.472603,0.590984,-0.236400,-0.195056,0.458875,0.866826
-0.547604,0.416847,0.303938,0.242457,-0.753915,-0.610596
-0.346553,-0.242645,0.459058,-0.097258,0.498840,0.861220
-0.339209,0.836831,-0.286982,0.801590,0.153764,-0.577763
-0.241860,-0.263631,0.725481,0.362886,0.706631,-0.607443
-0.305322,0.787726,-0.607645,-0.439716,0.512703,0.737418
-0.489387,0.496132,0.246804,0.720261,-0.320759,-0.615092
0.043634,0.058204,0.748171,0.983665,-0.164825,-0.072358
-0.646440,-0.102174,-0.517754,-0.450706,-0.285220,0.845880
-0.266306,0.003265,0.626695,0.929239,-0.210750,0.303480
0.097015,0.391485,0.124725,-0.454027,0.130361,0.881400
-0.383674,0.394338,-0.414477,0.986821,0.020814,-0.160474
-0.180175,0.226795,0.231269,-0.447948,-0.881640,0.148507
-0.118548,-0.385524,0.018287,0.901314,-0.429942,-0.052755
-0.655823,0.189767,-0.013440,0.366854,0.166013,-0.915346
-0.471554,-0.214779,-0.455259,-0.782298,-0.379347,-0.494071
-0.097394,-0.032621,0.325864,0.571486,-0.776690,-0.264870
0.106310,0.147953,0.943381,0.881490,0.238663,-0.407449
-0.132476,-0.597546,0.430616,-0.705945,0.181390,0.684645
0.252262,-0.160727,0.028798,0.747620,0.511541,-0.423546
-0.094276,-0.333122,0.143012,-0.623983,0.091299,-0.776086
-0.694722,0.259669,-0.426994,0.240089,0.388377,0.889674
-0.252466,0.508940,0.608462,0.951312,-0.299144,-0.074287
-0.456636,-0.185709,-0.177739,0.378244,-0.080320,-0.922215
0.737613,-0.303893,0.210692,-0.226011,-0.205842,-0.952128
0.344483,0.358134,-0.363788,-0.028338,0.402103,0.915156
-0.120034,-0.364443,0.163572,-0.737982,0.063402,-0.671836
-0.202057,0.903976,0.001651,-0.078840,-0.067497,0.994600
-0.362695,0.642658,-0.130619,-0.605559,0.737742,0.298388
-0.177407,0.114919,0.647752,-0.125785,0.974048,0.188174
0.192529,-0.044033,0.275548,0.125731,-0.984943,-0.118653
-0.406547,0.491092,0.065887,0.231054,0.963063,0.138288
-0.665962,-0.426578,-0.274679,-0.476770,-0.329546,-0.814917
-0.024462,0.803164,0.194074,0.719865,-0.324923,-0.613368
-0.100803,0.355979,0.410819,0.623552,0.407679,0.667069
0.092527,-0.329254,0.748420,0.072345,-0.501174,0.862317
0.041419,0.399062,-0.772086,0.621877,-0.562938,-0.544398
-0.225164,0.462180,0.627406,-0.496414,-0.663875,-0.559324
-0.293958,-0.050786,0.615972,-0.771122,0.528447,-0.355127
0.007037,-0.187579,0.379092,-0.580652,0.069003,0.811223
-0.002754,0.382862,0.916359,0.666523,-0.189316,-0.721046
-0.423826,0.254882,0.691819,-0.145746,0.627333,-0.764991
-0.010621,0.563689,0.377299,0.874809,0.112858,-0.471139
-0.419630,0.150837,-0.255024,0.803690,-0.594842,-0.015673
-0.005667,0.477904,0.814484,-0.512947,0.702339,-0.493565
0.144684,0.511317,0.590317,0.677365,0.029868,-0.735040
-0.717566,0.463670,-0.601058,-0.566858,-0.363086,0.739487
-0.503489,0.088448,0.321231,-0.571468,-0.547683,0.611120
-0.214703,0.331632,0.624547,-0.073438,-0.818792,0.569374
-0.227291,0.478602,0.607254,-0.509501,-0.341793,-0.789675
-0.232798,0.332171,0.841311,0.901096,-0.131139,-0.413314
-0.341949,-0.212813,0.558376,0.790563,-0.275794,0.546762
0.198182,-0.091111,0.157766,0.391374,0.875984,0.281920
-0.602238,0.058522,-0.568337,0.105393,0.798949,0.592092
-0.102639,-0.366631,0.685676,-0.574207,-0.158252,0.803270
-0.290141,0.406195,0.555678,0.471208,0.249495,0.845999
-0.458180,0.019782,0.334511,0.214499,-0.938093,-0.271978
-0.531549,-0.091396,0.319793,0.870238,-0.395967,-0.293081
0.268987,-0.244072,0.273081,0.881044,-0.096051,-0.463180
0.059019,0.558331,0.788349,0.548357,0.834863,-0.048040
-0.414619,0.737256,-0.181521,-0.583899,0.216515,0.782421
0.044916,0.056556,-0.175609,0.681689,-0.731497,-0.014605
-0.335159,-0.001141,0.830427,-0.030252,-0.028184,0.999145
-0.091245,0.534112,0.628080,-0.237913,-0.952521,0.190001
-0.818966,-0.294160,0.219356,-0.281853,0.405542,0.869537
-0.864800,-0.105027,0.185977,0.466854,0.122989,-0.875740
-0.733825,0.233864,-0.221771,-0.031019,0.897262,-0.440407
0.748860,-0.271652,0.522317,0.325184,-0.710004,0.624619
0.299931,0.085595,0.295363,0.787474,0.152052,0.597298
-0.260042,-0.181112,0.742241,0.230718,-0.404274,0.885060
-0.596702,0.030434,0.145657,-0.589211,-0.064848,-0.805372
0.346173,0.362066,0.770435,-0.112415,-0.595491,0.795458
0.022159,0.164057,0.922253,-0.760453,0.633533,0.142643
-0.052638,-0.349194,0.700376,0.638082,0.583364,-0.502531
-0.701248,0.357184,-0.424295,0.300289,0.358504,0.883913
0.022189,-0.174264,0.389212,-0.594052,0.803018,0.047577
0.073267,0.042892,-0.288083,0.278390,-0.926989,0.251376
0.169685,-0.129280,0.788154,0.161904,0.885188,0.436153
-0.278369,0.096025,0.844897,0.503348,0.326022,-0.800219
0.124113,0.187040,0.345767,-0.711492,0.369673,-0.597596
-0.012020,0.149188,0.951992,0.670576,-0.729374,-0.135430
-0.483180,-0.347895,-0.372807,-0.707633,-0.205239,-0.676115
-0.504567,0.220074,0.186351,-0.452792,0.554341,-0.698345
-0.562406,-0.138219,0.628276,-0.259371,-0.725581,-0.637385
-0.106019,0.447851,0.585274,-0.312164,-0.510608,0.801145
-0.244453,0.147065,-0.599194,-0.503044,0.048200,0.862916
0.074316,-0.677593,0.249307,-0.257716,-0.213934,0.942239
-0.616661,0.135271,0.131436,0.231061,-0.196209,0.952949
-0.029182,0.105345,0.191925,0.919475,0.135761,0.368964
-0.000481,0.471817,0.629181,-0.524241,0.360963,-0.771283
-0.058932,0.383813,0.929142,0.425177,-0.619074,-0.660282
-0.165314,-0.282145,0.770364,0.496232,0.607594,-0.620147
-0.660951,-0.278151,0.243253,0.311841,-0.386815,0.867830
0.187634,-0.272286,0.765233,0.300592,-0.370581,-0.878814
-0.562873,0.093965,-0.250124,-0.352103,0.574189,-0.739142
-0.384199,-0.007703,0.825154,0.471572,0.307800,-0.826365
-0.081572,0.337846,0.481748,0.261319,0.953919,0.147480
-0.592302,0.602112,-0.561821,0.552854,0.065093,0.830732
-0.185449,0.751649,0.002628,0.460614,0.286327,-0.840150
-0.256662,0.153151,0.723244,-0.306490,-0.654257,-0.691384
-0.341337,0.264710,0.362137,0.359949,0.848042,0.388925
-0.404391,0.548282,0.355976,0.008853,-0.832655,0.553721
-0.503285,0.400393,0.315727,0.071307,0.948907,0.307393
-0.334460,-0.393608,0.536769,-0.429633,-0.782463,0.450741
-0.627908,-0.300976,0.234340,0.074633,0.335941,-0.938922
0.552616,-0.400456,0.490306,-0.421487,0.807403,0.412856
0.771471,-0.337972,0.538154,-0.509053,-0.778644,0.366849
-0.782398,-0.292005,0.218308,-0.066979,-0.197969,0.977917
0.058028,0.071202,-0.720812,-0.192135,-0.972946,0.128298
-0.359053,0.392309,0.330179,-0.275857,0.377629,0.883911
0.267851,-0.070473,0.323397,0.213023,0.963462,0.162366
0.085068,0.539722,0.795753,0.687926,0.643181,0.336268
0.812235,-0.338480,0.507279,0.268326,0.084786,0.959590
-0.545681,-0.482088,0.553849,-0.030441,0.912997,0.406828
-0.343318,0.258591,0.333552,-0.234963,0.332430,0.913391
0.289005,-0.161489,0.509516,-0.134322,0.676769,0.723838
-0.338044,-0.024251,0.395852,0.525321,-0.466753,-0.711463
0.092265,0.078399,0.878063,-0.320006,0.826563,-0.463023
0.257710,-0.306682,0.771128,0.588384,0.144897,0.795493
-0.288801,-0.746322,0.096833,-0.667582,0.259760,0.697753
-0.339093,0.798282,-0.296960,-0.642356,0.294959,0.707374
0.227727,0.040166,0.365812,0.812148,0.063547,0.579981
-0.061350,0.037979,0.891041,0.632854,-0.641628,0.433370
-0.386588,-0.334263,0.005380,0.281475,0.376314,-0.882700
-0.090080,0.582996,0.656257,0.708327,0.011443,-0.705791
0.556112,-0.310709,0.594258,0.336279,-0.908388,0.248492
-0.177057,0.366314,0.862030,-0.314004,0.547304,0.775796
-0.145909,-0.459865,0.659950,-0.253996,0.518924,0.816213
-0.618963,-0.322343,0.751367,0.689907,-0.722396,0.046612
-0.229214,-0.073738,0.541918,-0.298082,0.950636,0.086242
0.006396,-0.636888,0.219569,-0.181038,-0.036226,0.982809
-0.891257,-0.144528,0.172165,-0.167110,-0.183564,0.968699
-0.306109,0.609910,-0.016263,-0.460912,0.435516,0.773231
-0.363598,-0.700798,0.387881,0.325975,0.243663,-0.913438
-0.263888,-0.554527,0.170851,0.616358,-0.080999,-0.783290
-0.234692,0.369135,0.641840,0.431016,0.478705,-0.764896
0.286062,-0.547901,0.560738,0.328218,-0.079580,0.941244
-0.230991,-0.800057,0.161512,0.770752,-0.055897,-0.634679
0.174405,-0.776756,0.293498,0.313028,0.449369,0.836708
-0.373651,0.306239,0.359580,0.328059,-0.011676,-0.944585
0.188420,0.860766,0.225801,-0.207514,0.469721,0.858079
0.481053,-0.095771,0.726245,0.139573,-0.718227,0.681667
-0.761185,-0.286615,0.208703,-0.187816,0.083832,0.978620
-0.606259,-0.369198,0.206377,0.192885,-0.567753,0.800283
-0.364181,0.153817,0.035899,0.701058,-0.543454,0.461710
0.261702,0.188911,0.745490,-0.372219,0.518635,-0.769722
-0.789391,-0.479425,-0.333890,-0.699647,-0.315636,0.640990
-0.530908,-0.028722,-0.503480,-0.265414,0.063921,0.962013
0.164527,0.542924,-0.010067,0.370555,0.123167,0.920608
-0.224610,-0.145986,0.738957,0.018561,-0.321810,0.946622
0.090109,-0.344724,0.303370,0.932421,-0.097359,0.348011
-0.111351,0.756720,0.325598,-0.529410,0.075817,0.844972
0.264179,-0.528531,0.566934,-0.426532,0.503445,-0.751408
-0.463366,-0.406670,0.562158,-0.452003,-0.240176,0.859075
0.132738,0.552530,-0.302553,0.474248,-0.112647,-0.873155
-0.369950,0.782875,-0.181166,0.734142,-0.234731,-0.637132
-0.488308,-0.058585,0.790924,0.265294,-0.048315,-0.962956
-0.327380,0.747496,-0.598111,-0.145317,0.427500,0.892259
-0.081222,0.061628,0.917264,-0.357843,0.691673,-0.627325
0.086846,-0.275456,0.302961,0.918463,-0.006782,0.395449
-0.519457,0.037060,0.280467,0.383524,0.253622,-0.888023
0.247804,0.653912,-0.014186,-0.145281,0.128861,-0.980963
0.374292,0.070346,0.774412,-0.234010,0.701292,0.673371
0.111788,-0.603252,0.392852,-0.817941,-0.561539,-0.125082
-0.793383,0.223687,-0.229600,0.164818,-0.106739,0.980531
-0.114818,-0.512015,0.673922,0.484995,-0.391090,-0.782194
-0.733271,0.141136,0.172573,-0.674622,0.069209,0.734912
0.173298,-0.393989,0.489454,0.819238,0.394453,-0.416240
-0.598916,-0.541244,-0.294528,0.675991,0.079164,0.732646
-0.519136,-0.017023,0.773631,0.346923,0.033269,-0.937303
-0.456140,0.481772,0.311057,0.393950,0.579449,-0.713472
-0.820131,-0.265375,0.194659,-0.719730,0.233448,0.653827
-0.209546,0.443983,0.416785,-0.621541,-0.022090,0.783070
0.780095,-0.169319,0.405031,-0.662629,0.285115,0.692555
0.381605,0.382038,-0.369469,-0.081678,0.475591,0.875866
0.176619,-0.303131,0.767790,-0.218738,-0.538879,0.813488
0.316395,-0.203050,0.599904,0.087875,-0.583015,0.807695
0.045907,0.303671,0.514914,0.596655,-0.087410,0.797723
0.142120,-0.005515,0.868333,0.949639,0.293785,-0.108975
0.341162,0.351858,-0.361391,-0.067544,0.346924,0.935458
-0.375749,-0.453842,0.202773,0.048841,-0.335450,0.940791
0.830475,-0.355788,0.169537,0.312393,0.085861,0.946065
0.376302,-0.006118,0.630335,0.805666,0.455337,-0.378907
-0.459345,-0.543811,0.161299,-0.105415,-0.653593,0.749469
-0.801425,0.058395,-0.522158,0.280990,0.233861,0.930781
-0.472137,0.089938,0.556353,-0.137775,0.644956,0.751698
-0.567826,0.458978,0.234394,0.396902,-0.197186,-0.896430
-0.061175,-0.518893,-0.135608,0.065061,0.337314,0.939141
-0.502790,-0.072692,0.565940,0.599119,0.282419,0.749197
0.835050,-0.408762,0.524341,-0.388978,0.637424,0.665122
-0.528606,-0.301071,0.704264,-0.728011,0.461859,-0.506643
-0.531432,0.157938,0.322243,-0.403193,-0.415000,0.815604
-0.631085,-0.130167,-0.164140,0.209143,0.622038,0.754538
-0.348592,0.332995,0.351395,-0.179915,0.600093,0.779435
-0.222425,-0.355028,0.609314,-0.336436,0.836501,0.432524
-0.268637,-0.023650,0.809939,0.959811,0.264441,0.093991
0.178455,-0.102301,0.653167,0.943677,-0.298443,0.142848
-0.168345,0.732691,-0.266742,-0.362800,0.193266,-0.911605
0.327641,-0.003519,0.559619,0.851012,0.306672,-0.426299
0.209545,0.286584,0.794581,0.257860,-0.078495,0.962988
-0.284547,0.864349,0.013191,0.002454,-0.352258,0.935900
0.383674,0.278976,0.749308,-0.170694,-0.184290,0.967936
-0.123239,0.368279,0.826078,-0.368191,0.487768,0.791529
-0.264121,0.149125,0.875506,-0.168957,-0.749430,0.640163
-0.385014,-0.207487,-0.548327,0.299390,-0.910077,-0.286575
-0.556054,-0.091967,0.313650,-0.332706,0.807080,-0.487780
-0.121782,0.377346,-0.060294,0.518744,0.276134,-0.809107
-0.590787,0.356296,-0.223830,-0.491292,0.866015,-0.093003
0.001471,-0.686121,-0.316650,0.456896,0.574342,-0.679247
-0.761855,0.262586,-0.292060,0.634602,-0.697196,0.333463
-0.686563,-0.313974,0.222871,-0.289662,-0.123902,0.949075
0.202669,-0.145099,0.844808,0.965266,0.018444,0.260619
-0.302670,0.100083,0.793534,-0.244235,-0.836889,-0.489864
-0.373418,0.408287,0.084405,-0.713976,0.224891,-0.663070
0.044945,0.048821,-0.229547,0.677908,-0.715440,0.169076
-0.080202,-0.314607,0.703732,0.777483,0.536117,-0.328783
-0.339385,0.526313,0.345732,0.154924,-0.267503,0.951021
0.311470,0.253392,0.396296,-0.634838,0.118062,0.763572
-0.767421,-0.106708,-0.540516,0.686389,0.400387,-0.607092
0.271260,-0.108610,0.779579,-0.492168,0.063101,-0.868210
0.329827,0.837529,-0.320876,0.306695,-0.755015,-0.579560
0.037340,0.412757,-0.770986,-0.338947,0.693998,0.635202
-0.010388,-0.311913,0.437984,0.107876,-0.973556,-0.201373
0.031833,0.223086,-0.040374,-0.211965,-0.357159,0.909675
0.682804,0.001078,0.401569,-0.138295,-0.309327,0.940846
0.198473,-0.543304,0.583765,0.325386,-0.427284,0.843535
-0.401769,-0.286140,0.519885,-0.500202,0.853445,0.146389
-0.409811,-0.509858,0.384969,-0.127345,0.137156,0.982330
-0.277000,0.800596,-0.000888,0.395535,0.388053,-0.832447
-0.468728,0.011699,-0.480772,-0.414717,-0.231369,0.880044
-0.531112,-0.082646,0.343424,0.758555,-0.050673,-0.649636
0.159486,0.053101,0.397078,0.011712,-0.919904,0.391968
-0.914014,-0.281130,0.165720,0.174624,0.442552,0.879576
-0.216918,-0.236907,0.730168,-0.056928,0.088439,0.994453
0.388045,-0.649981,0.581084,-0.187866,0.561769,0.805681
-0.483151,0.217125,0.682995,-0.135972,-0.218859,0.966236
-0.764187,-0.237890,0.199808,0.093402,0.015634,-0.995506
-0.187692,-0.245308,0.729458,-0.628671,-0.104388,0.770634
0.282128,0.564386,0.373002,-0.450513,-0.002354,0.892767
-0.175512,0.108262,0.782615,-0.295292,-0.904544,-0.307577
0.680007,-0.388093,0.521270,-0.110766,0.235936,0.965435
-0.541456,-0.187325,0.734855,-0.546636,-0.308123,0.778620
-0.454567,0.260272,0.680598,0.024869,-0.114236,0.993142
-0.508647,0.510525,-0.191659,0.793574,-0.005865,-0.608445
-0.220735,0.106106,0.873145,-0.631126,-0.503201,0.590313
0.266481,0.165420,0.773968,-0.655028,0.101015,0.748822
-0.410248,-0.647128,0.124796,-0.528898,-0.701544,0.477602
-0.214295,-0.585753,-0.000959,-0.678608,-0.347961,0.646849
0.718673,-0.265217,0.548150,-0.412176,0.880364,-0.234668
-0.005434,-0.517341,0.255841,-0.232911,-0.283981,0.930111
0.084019,0.036585,-0.611160,-0.732590,-0.673271,-0.100084
-0.256720,0.370720,-0.537586,-0.219642,-0.642799,0.733871
0.318725,-0.154387,0.733098,0.283810,-0.203149,0.937114
0.437492,-0.151566,0.623979,0.590273,0.138951,-0.795154
-0.090255,0.888188,-0.032863,-0.632320,0.403333,-0.661433
0.195064,0.520004,-0.024040,0.137115,0.075391,0.987682
-0.310625,0.257387,0.836695,0.509238,0.836874,0.200797
-0.513046,-0.269338,0.696879,-0.599929,0.095614,-0.794319
-0.160477,0.025837,0.036769,0.721889,0.422616,-0.547971
0.406809,-0.158255,0.735495,-0.107892,-0.209487,0.971841
0.271464,-0.139582,0.606402,0.063206,-0.372309,0.925954
0.324057,0.022097,0.571799,0.851012,0.306672,-0.426299
-0.639651,-0.037028,0.296055,0.883845,-0.336576,-0.324861
0.592680,-0.467569,0.551559,0.603362,-0.317384,-0.731589
-0.112487,0.076465,0.621866,-0.032302,-0.653354,0.756363
-0.625344,-0.079508,-0.178805,0.937879,0.151425,-0.312176
0.345183,-0.648712,0.572438,-0.045747,0.655871,0.753486
-0.261848,-0.053607,0.809974,0.819047,0.441162,0.366795
0.100220,0.047236,0.149332,-0.059103,-0.938386,0.340497
-0.277116,0.322693,0.811501,0.787964,-0.285071,0.545754
-0.083640,-0.564830,0.496982,-0.236582,-0.271612,0.932875
-0.076618,0.281829,0.689369,-0.259199,-0.210761,0.942547
-0.536823,-0.226826,-0.510599,-0.103859,0.753098,0.649659
0.540990,-0.614126,0.598235,-0.199834,0.596442,0.777383
-0.089235,-0.017880,0.116256,0.839411,-0.379920,-0.388650
-0.464444,0.499081,0.565549,0.236978,-0.257629,-0.936733
0.179621,-0.078113,0.882696,0.872163,0.306875,-0.380999
0.266743,0.531702,0.184806,0.566141,0.497908,-0.656941
0.107679,0.104363,0.393669,0.678112,0.609581,-0.410579
-0.753406,-0.229647,-0.478180,-0.261100,0.585359,0.767582
-0.495010,0.735101,-0.563330,0.105782,-0.133004,0.985454
-0.178135,-0.392150,0.583907,0.133457,0.938431,0.318647
0.002986,0.206759,0.885946,0.435480,0.869855,-0.231755
-0.284576,0.495816,0.010688,-0.012657,0.934587,0.355509
-0.762467,0.272730,-0.217811,-0.128534,-0.559680,0.818680
0.190606,0.207330,0.552304,0.877439,0.373095,-0.301498
-0.000335,0.362224,0.938392,-0.435943,0.696964,0.569381
0.141975,0.664976,0.021199,0.273236,-0.054147,0.960422
-0.389414,0.483325,0.310489,-0.061863,-0.521147,0.851222
-0.848890,0.152042,-0.441801,-0.386154,0.201468,-0.900164
-0.197045,0.490141,0.884259,-0.211772,-0.387071,0.897401
-0.295153,0.220803,0.812478,-0.486062,-0.368483,0.792442
0.259779,0.203081,0.743431,-0.272381,0.587482,-0.762019
0.235216,0.471056,0.711597,-0.749857,-0.409837,0.519372
-0.121520,-0.552815,0.684486,-0.460227,0.726805,0.509848
-0.275805,0.809029,-0.255024,0.392057,-0.057211,-0.918160
-0.026180,0.332773,0.406860,-0.026516,-0.652775,0.757088
0.130057,0.011572,-0.975730,-0.278495,0.062852,-0.958379
-0.114760,0.591681,0.365634,0.190869,-0.477364,-0.857725
0.144306,0.344947,0.773649,0.318729,-0.631026,0.707261
0.106601,-0.552656,0.597152,-0.265634,0.597900,-0.756276
-0.375341,0.741504,-0.622523,-0.581314,0.378774,0.720142
-0.097015,0.022636,-0.405866,-0.645499,-0.506587,-0.571578
-0.471612,-0.485227,0.496307,-0.060946,-0.008612,0.998104
-0.296406,0.188879,0.885164,-0.415540,0.601064,-0.682677
0.016157,0.028817,0.421454,0.811972,-0.583656,0.006851
-0.439007,0.626077,0.241034,0.468358,-0.197831,-0.861106
-0.629744,0.168368,0.262020,-0.562360,-0.051516,0.825286
-0.036000,0.462497,0.820396,-0.459400,0.417303,-0.784098
0.302321,-0.602237,0.534887,0.124824,0.491055,0.862139
-0.506636,0.614126,-0.575172,-0.025373,0.315824,0.948478
0.193986,-0.077035,0.152688,0.479440,0.838149,0.260083
-0.004094,-0.503677,0.259818,-0.232911,-0.283981,0.930111
0.054357,0.633749,-0.373589,0.465237,0.497426,0.732203
0.308411,0.610449,-0.422342,-0.220496,-0.662727,0.715664
-0.625461,0.443856,-0.591151,0.493789,0.201523,-0.845909
-0.074841,0.331728,0.929994,0.317968,-0.361815,-0.876348
-0.008756,0.340287,0.819650,0.721049,0.271581,0.637442
-0.510803,0.716681,-0.563934,0.105782,-0.133004,0.985454
-0.449497,0.554591,0.340831,0.385173,0.654682,-0.650410
0.068168,0.223117,0.926514,0.771689,-0.012767,-0.635872
-0.289034,0.764963,-0.011984,-0.305024,-0.453819,0.837263
-0.077959,0.375603,0.895959,-0.228402,0.117497,0.966451
-0.348796,0.485385,0.593477,0.241475,0.273480,-0.931074
-0.091391,0.387301,0.412524,-0.634027,-0.456704,-0.624044
0.605909,-0.267087,0.720936,0.089642,-0.490152,0.867015
0.039817,0.582964,-0.317360,0.192523,0.425537,0.884225
0.039059,0.060677,0.864853,-0.056226,0.338808,0.939174
-0.400690,-0.605186,0.433847,-0.107736,0.441127,0.890954
0.433703,-0.168653,0.626198,-0.567433,-0.047246,0.822063
-0.050365,-0.512236,0.123340,-0.413601,0.046770,0.909256
-0.378983,0.562991,0.349407,0.048440,-0.675680,0.735602
-0.348271,-0.135049,0.762233,0.019128,-0.627853,0.778097
0.063710,0.267119,0.939049,0.880162,0.474601,0.008274
0.234079,-0.030528,0.318674,0.672804,0.557145,-0.486749
-0.071140,-0.712845,0.127424,0.073774,0.423478,0.902897
-0.275543,-0.030401,0.208987,0.357512,0.882152,0.306583
-0.348738,0.325451,0.625559,-0.241184,0.784348,0.571515
0.130727,-0.035220,0.845856,0.703666,0.445425,-0.553580
-0.734058,0.132641,-0.596620,0.521064,0.845573,-0.116181
0.764419,-0.247084,0.179107,0.170356,0.257514,0.951139
0.339355,-0.653626,0.574089,-0.034246,0.654055,0.755671
0.145209,-0.316066,0.206661,0.848539,0.524740,0.068037
0.611503,-0.306873,0.194979,0.188261,0.069154,0.979681
0.284634,-0.619895,0.567786,0.201314,0.461217,0.864148
0.168403,0.574499,-0.536201,0.989584,0.083501,-0.117264
-0.438658,0.008338,0.806068,-0.083735,-0.660758,0.745914
0.191742,-0.378582,0.802518,0.837916,0.281627,-0.467528
-0.332217,0.215128,0.514772,-0.486722,0.111888,-0.866362
-0.398651,-0.527200,-0.363486,0.639840,0.568868,-0.516714
0.001879,0.302911,0.404233,0.496450,0.410026,-0.765125
0.416804,-0.195758,0.732778,-0.019541,-0.180594,0.983364
-0.295182,0.340351,0.188144,-0.082266,0.111435,0.990361
-0.073734,-0.635620,0.221451,0.091363,-0.047923,0.994664
-0.572809,-0.536298,-0.297742,0.604489,0.058895,0.794434
-0.621498,0.472832,-0.563792,0.513358,0.200907,-0.834326
-0.358412,0.529197,0.099070,0.451367,0.761943,-0.464447
0.114935,0.150963,0.947642,0.828464,-0.126149,-0.545650
-0.027929,0.399601,0.923177,0.260131,-0.535616,-0.803397
0.372164,-0.318475,0.542983,0.574974,0.191892,-0.795350
0.732076,-0.268545,0.514292,0.225218,-0.917460,0.327939
-0.726657,0.003741,0.040462,-0.083765,0.988790,0.123603
-0.562873,0.376997,0.388697,0.405447,-0.485567,-0.774492
0.163245,0.355789,0.781194,0.296047,-0.014034,0.955070
-0.139848,-0.413930,0.640366,-0.263647,0.249689,0.931743
-0.504334,-0.203366,0.742898,0.875696,0.076059,-0.476835
-0.404129,0.511508,-0.480257,-0.565576,0.721724,0.399045
-0.506141,-0.021398,-0.148906,0.351140,-0.194312,-0.915938
-0.305322,0.090223,0.607166,-0.208317,-0.672537,0.710140
0.117382,-0.135873,0.854609,-0.549268,-0.826529,-0.123104
-0.186818,0.099512,0.739702,0.492879,0.800910,0.340020
0.079940,-0.032145,0.348626,0.818707,0.275232,0.503950
0.024549,0.527391,-0.295061,0.215725,-0.040684,0.975606
-0.064322,-0.611178,0.484074,-0.454007,0.490923,0.743554
-0.176824,0.755421,0.008149,-0.521354,-0.190213,0.831871
1.000000,-0.228474,0.161494,-0.071187,-0.017676,0.997306
0.274436,0.687136,-0.011167,0.202245,-0.091842,0.975019
-0.571672,-0.129819,0.320467,0.499726,-0.814339,-0.295171
-0.471729,-0.464557,0.421099,0.801466,-0.247390,0.544473
0.262606,-0.145670,0.784497,0.235231,-0.182067,0.954734
0.476566,-0.646208,0.580978,-0.148634,0.426634,0.892127
-0.356372,0.001490,0.165666,0.485909,0.810688,0.326615
-0.244511,-0.040039,0.146225,0.071956,-0.875629,0.477594
-0.247017,-0.073421,0.077250,0.229257,0.829805,-0.508787
-0.353167,0.725589,-0.241549,-0.649391,0.719191,-0.247096
-0.757660,-0.162376,0.052890,0.172731,-0.189306,0.966606
-0.598421,0.713701,-0.558004,-0.620062,0.037719,-0.783645
-0.081514,0.499810,0.794262,-0.395975,-0.030684,0.917748
0.811710,-0.258020,0.174952,0.208015,0.293420,0.933078
0.096257,0.097388,0.901516,0.744756,0.549579,-0.378552
-0.075074,0.449119,0.311093,0.854644,-0.032227,0.518213
-0.195530,-0.086609,0.839589,0.476812,0.859136,-0.185836
-0.175979,-0.051547,0.523152,0.296431,-0.954555,0.030886
-0.426857,0.513569,0.572935,-0.677449,0.131105,0.723792
0.096694,0.065655,0.879874,-0.219689,0.724242,-0.653613
-0.794694,-0.191986,-0.155955,-0.537900,0.695302,0.476674
-0.028191,-0.438213,0.682533,-0.164488,0.638776,-0.751604
0.153368,-0.342252,0.752592,0.144104,0.599533,-0.787270
-0.104882,-0.273205,0.782650,-0.295441,0.619220,0.727517
-0.522371,-0.385081,-0.046339,-0.159779,-0.922162,0.352260
0.801629,-0.430382,0.488832,0.053807,0.159346,0.985755
0.160943,-0.544700,0.195370,0.865577,0.069423,0.495940
0.023383,-0.394274,0.698068,-0.053534,0.989868,-0.131510
0.610046,0.019497,0.399687,0.031977,-0.282578,0.958711
0.072772,0.183553,0.747603,-0.390000,0.914329,0.109097
-0.122802,0.496576,-0.282917,-0.597508,-0.043143,-0.800701
-0.208759,-0.811153,-0.211171,0.627959,-0.640990,0.441361
-0.411501,-0.382988,0.269193,0.603201,0.796441,-0.042792
-0.567972,0.585785,-0.566987,0.235474,0.094106,0.967314
-0.654657,-0.014931,0.007972,0.231907,0.953814,-0.190939
-0.022189,0.442366,0.879394,0.985219,-0.026020,0.169311
0.336733,0.477016,0.730577,0.039409,0.431119,0.901434
-0.147365,-0.822311,0.186173,0.030770,0.949477,0.312325
0.100919,0.184251,0.929710,-0.751659,-0.152382,0.641708
0.071024,0.017437,-0.461065,-0.243078,0.966501,0.082399
-0.123851,0.082393,0.707407,-0.326778,-0.846203,-0.420900
-0.461036,-0.226889,-0.006836,0.214120,-0.166217,0.962561
0.066828,0.243312,0.913802,-0.503265,-0.106951,0.857488
0.049433,0.870467,0.350881,0.924449,-0.361924,0.120020
0.562173,-0.523934,0.549979,-0.429141,0.592381,0.681852
-0.093606,-0.265438,0.766512,-0.417971,0.441265,0.794095
-0.118985,0.251807,0.879572,0.112774,0.432074,0.894759
0.276621,-0.768355,-0.109492,0.733059,0.072681,-0.676271
-0.510774,0.016675,0.577835,0.673723,-0.246691,-0.696592
0.063739,-0.423281,0.579540,0.375659,0.349567,0.858303
0.385451,0.213987,0.247284,0.677674,0.476292,0.560271
-0.523216,0.016771,0.779845,0.542034,0.355773,-0.761331
0.049520,-0.182856,0.753355,0.136722,0.620137,0.772488
0.031979,0.477270,0.437753,0.367920,0.549434,-0.750171
-0.299232,0.500951,-0.295256,-0.534605,-0.203536,0.820226
-0.739070,-0.059123,-0.508327,0.241768,0.308638,-0.919941
-0.323359,0.288011,-0.429870,0.221077,-0.308874,-0.925053
-0.026472,-0.054368,0.767648,-0.757116,0.138958,0.638331
-0.167879,0.480440,0.893207,0.291638,0.197449,-0.935928
-0.729775,-0.402263,-0.277555,0.615082,0.459136,-0.640990
-0.736360,-0.261444,-0.222783,-0.300680,-0.711063,0.635595
-0.330964,-0.588226,-0.086535,0.596942,0.355111,-0.719414
-0.318551,0.016834,0.827072,0.009021,0.054937,0.998449
0.108116,-0.114221,0.795132,-0.427433,-0.889808,0.159823
-0.210274,0.262966,0.694038,0.190143,0.569854,0.799445
0.590233,-0.211989,0.651570,0.792132,-0.351538,0.498946
-0.482131,-0.262268,0.766618,-0.167889,0.299721,0.939138
-0.662932,0.153595,0.233648,0.745361,0.360689,-0.560660
0.037690,0.314070,-0.242206,-0.359927,0.486813,0.795906
-0.168286,-0.460753,0.646758,0.316381,-0.405030,-0.857819
0.093431,0.329001,0.757333,0.041311,-0.518842,0.853871
-0.318289,-0.391643,0.522690,0.382665,0.510018,-0.770357
-0.840499,-0.112382,0.197962,0.533515,0.258050,-0.805464
0.185128,0.163264,-0.348661,-0.027908,0.065519,0.997461
-0.577325,-0.445632,0.197731,0.501786,-0.435335,0.747458
-0.704104,-0.288802,-0.460266,0.475215,-0.137900,-0.868996
-0.474089,0.661045,-0.583126,0.298111,-0.002874,-0.954527
-0.394309,-0.379343,0.182054,0.373971,-0.007636,0.927409
-0.401565,0.320695,0.712733,-0.041632,-0.494553,0.868150
-0.483384,0.258909,0.674881,0.018781,-0.107788,0.993996
0.507306,-0.342252,0.541599,0.096997,-0.101893,0.990055
-0.146316,0.240300,0.697447,0.547099,0.008485,0.837025
0.094858,0.032526,-0.682942,-0.296735,-0.953656,0.049881
0.696295,-0.048218,0.389585,-0.003767,-0.139994,0.990145
-0.753347,0.048473,-0.175360,-0.242939,-0.275965,0.929959
-0.837410,0.325228,-0.381099,0.634969,0.393462,0.664832
-0.117703,0.408033,0.871014,-0.346243,-0.855232,0.385609
-0.258993,-0.200133,0.738371,0.065365,-0.396766,0.915589
-0.649587,-0.140787,-0.409630,0.939911,-0.280042,-0.195307
-0.560658,-0.317619,-0.171898,0.250182,0.080429,-0.964852
-0.253428,0.160094,-0.663785,0.226129,0.400154,0.888112
-0.294891,0.715794,-0.119026,0.190260,0.833587,0.518588
-0.359286,-0.247178,0.473865,-0.250931,0.624131,0.739929
0.156485,0.011888,-0.979600,0.245865,-0.032373,0.968763
-0.529393,-0.020765,-0.156541,0.505613,-0.350367,-0.788415
-0.292589,0.264551,0.188428,0.046929,-0.130491,0.990338
-0.106689,-0.033667,-0.325403,-0.637560,0.520143,-0.568302
-0.293463,-0.535156,-0.066100,0.781922,0.421238,-0.459519
-0.414561,-0.404419,0.633158,0.954071,0.089438,-0.285920
-0.003045,-0.396240,0.722410,0.140611,0.916820,-0.373725
-0.289558,-0.277422,0.687558,-0.335870,0.728609,-0.596925
0.444135,-0.308869,0.625577,0.362867,-0.416385,0.833637
-0.438658,-0.441352,0.533716,-0.310425,0.754959,-0.577645
-0.247804,0.152929,0.872683,0.250020,0.877888,-0.408414
-0.236294,0.238714,-0.221433,-0.316606,0.379598,0.869290
-0.560687,0.554020,-0.556814,0.256865,0.575770,0.776215
-0.691167,0.122940,-0.038705,-0.041374,-0.517584,0.854632
-0.481927,0.733927,-0.575740,0.143456,0.387968,-0.910440
-0.265898,0.222103,0.386283,-0.453619,0.432481,0.779224
-0.731873,-0.122971,-0.519352,-0.437697,-0.365414,0.821519
-0.103017,-0.066954,0.015056,-0.531306,-0.747021,-0.399592
-0.407334,0.631340,-0.545451,-0.330669,0.782927,0.526957
-0.394426,0.145194,0.796428,-0.622024,-0.487087,-0.613052
0.011844,-0.611748,0.591418,-0.797240,-0.587025,-0.140744
-0.047917,-0.441827,0.126145,0.459273,-0.036584,0.887542
0.096257,0.032019,0.874707,0.433955,0.340673,0.834042
0.042381,0.398396,0.765943,-0.467372,-0.464906,-0.751948
0.197803,-0.167353,0.806850,0.887369,0.100693,0.449931
0.505645,-0.242581,0.653771,0.591837,0.543989,-0.594815
0.085855,-0.026629,0.363486,0.602972,0.363803,0.709981
-0.199813,-0.183711,0.443825,0.361453,-0.801126,0.477021
-0.492825,0.486431,-0.538492,-0.124982,0.653917,0.746172
0.006949,0.030465,0.889248,-0.107700,0.633122,0.766523
0.064526,0.297869,0.646616,0.546029,0.795820,-0.261768
-0.010330,-0.003392,0.431645,0.900019,-0.260155,-0.349692
-0.934003,0.195156,-0.634508,0.457967,0.522247,0.719392
0.224173,-0.163549,0.203874,-0.367365,0.651887,0.663390
0.591165,-0.430509,0.546321,-0.524074,0.449841,0.723180
0.462084,-0.324277,0.578315,-0.272980,0.889871,-0.365529
-0.173240,0.219535,0.872399,0.749471,-0.483952,-0.451756
-0.292239,-0.315813,0.685036,0.338666,-0.208691,0.917471
0.643963,-0.254026,0.522104,-0.546663,-0.804851,0.231029
-0.093052,0.390566,0.751047,0.419904,0.834909,-0.355820
-0.495972,-0.022920,-0.127211,-0.372512,0.150697,0.915710
0.064701,0.456822,0.749414,0.976868,-0.209259,-0.044038
-0.392765,-0.098845,-0.120819,-0.162188,-0.257116,0.952673
-0.534638,-0.139456,0.343140,0.858491,-0.287705,-0.424522
0.631725,0.086325,0.414175,-0.120502,-0.339773,0.932756
-0.071869,0.078842,0.925307,-0.002512,-0.974117,0.226032
0.051268,0.307222,0.928574,0.833787,0.551132,0.032439
0.107213,0.152517,0.935409,0.966510,-0.080062,-0.243820
-0.381751,0.339843,0.371369,-0.406856,0.598431,0.690180
-0.312141,-0.343774,0.433545,0.984332,-0.141392,0.105355
-0.612932,0.228030,-0.155600,-0.423264,-0.023226,-0.905708
-0.482248,-0.074689,0.279721,0.788802,-0.183575,0.586594
-0.237780,0.886000,0.021163,0.167431,0.002353,-0.985881
-0.177756,-0.189734,0.734199,0.570258,-0.099645,-0.815400
-0.076181,0.521241,0.885253,0.078054,0.841234,0.535007
-0.396553,-0.453176,0.386336,0.332761,0.128772,0.934178
0.043168,0.786964,0.361409,0.937459,-0.097855,0.334058
-0.182855,-0.529894,0.505770,0.325100,0.083678,0.941970
0.436909,-0.131182,0.408707,-0.207919,0.313039,0.926702
0.339267,-0.109212,0.765393,-0.558830,0.220972,-0.799300
-0.053920,0.340287,0.526383,0.713761,0.593962,0.371153
0.031017,0.058078,-0.691854,0.844352,0.517472,0.138897
0.207506,-0.788613,-0.124352,0.820826,0.147577,-0.551785
-0.107942,0.557665,0.469818,0.204938,0.889713,-0.407935
-0.161847,0.502885,0.414832,0.429151,0.444524,0.786275
-0.422078,0.500317,-0.538172,-0.007847,0.952744,0.303673
-0.522808,-0.033984,0.772992,-0.251715,-0.108327,0.961720
-0.268492,-0.028278,0.803494,-0.515784,-0.770650,0.374255
-0.094130,0.406195,0.902173,-0.295986,-0.095930,0.950363
-0.179912,-0.038423,0.769832,0.877594,0.312343,0.363691
-0.671761,0.325323,-0.155990,-0.563853,0.340305,-0.752504
0.259896,0.529166,-0.056584,0.786390,0.605148,0.124044
0.331401,0.122623,0.745384,0.106664,0.586276,0.803059
0.143577,-0.115616,0.556335,-0.651859,0.758265,0.010687
0.375108,-0.214558,0.603224,0.595183,0.342811,-0.726800
-0.390259,0.227397,0.382998,-0.584263,0.339455,-0.737162
-0.385306,-0.609370,-0.368085,0.140826,-0.300516,0.943323
0.270065,-0.400076,0.747852,0.379684,-0.679171,-0.628146
-0.254039,0.343774,0.063738,-0.369231,-0.186451,0.910442
-0.038098,0.021811,0.421188,0.806699,-0.570207,-0.155245
-0.331371,-0.300628,0.010298,-0.127526,-0.565081,0.815120
-0.241248,0.288233,0.439670,0.911224,-0.258336,-0.320831
0.310217,-0.423091,0.535118,-0.550852,-0.162710,-0.818589
0.320328,-0.405084,0.558430,-0.669038,-0.275532,-0.690269
-0.733621,0.066669,0.174597,0.141502,0.267599,0.953083
0.288713,0.223149,0.765517,0.008495,-0.375635,0.926729
-0.185186,0.514900,0.011132,0.044518,0.833000,0.551479
-0.339180,0.395417,0.722179,-0.476576,0.120410,-0.870848
-0.492096,-0.365901,0.480843,0.267427,-0.308032,-0.913017
0.799094,-0.501933,0.532135,-0.106717,0.719052,0.686714
-0.002666,-0.444585,-0.130832,-0.149934,-0.779325,-0.608418
-0.377118,-0.366599,0.653114,0.702604,0.085063,-0.706479
0.774443,-0.273522,0.520293,-0.408363,-0.907916,-0.094492
0.132184,-0.091491,0.850028,0.913887,0.123111,-0.386851
-0.638077,-0.247812,0.719391,0.904320,-0.420454,0.073654
-0.683212,0.420872,-0.592128,0.377454,0.183501,-0.907665
-0.192325,-0.592156,0.004527,0.664901,0.410195,-0.624216
-0.108204,0.672870,0.014061,0.373870,0.447134,-0.812584
0.375282,-0.315273,0.528744,0.498788,0.114560,-0.859120
-0.385364,0.253139,0.681042,0.011045,-0.772029,0.635492
-0.760894,0.150235,0.153611,-0.007187,0.291969,0.956401
-0.339705,-0.280592,-0.072704,-0.479105,0.867503,0.133776
0.113769,0.249462,-0.994390,0.248242,-0.136694,-0.959005
-0.800551,-0.148776,0.186705,0.463179,0.275028,-0.842511
0.394484,-0.352555,0.549215,0.393037,0.075725,-0.916399
-0.536503,-0.051578,0.771571,0.371802,-0.017994,-0.928138
-0.405294,-0.213289,0.773329,-0.091166,0.330045,0.939553
-0.680706,0.487446,-0.572793,-0.170113,-0.575373,0.800005
-0.480325,0.753328,-0.562886,0.143456,0.387968,-0.910440
-0.500022,0.759574,-0.607982,0.902710,-0.330382,-0.275614
-0.141975,-0.089114,0.837316,0.441078,0.873527,-0.205916
-0.711796,0.179115,-0.032881,0.029902,-0.125172,0.991684
0.807194,-0.538993,0.197642,-0.025595,-0.143448,-0.989327
-0.258818,0.203019,0.843690,0.910833,0.412377,-0.018114
-0.599003,-0.216396,0.733204,-0.540005,0.712846,-0.447487
-0.125920,-0.449848,0.664495,-0.435093,0.349692,0.829704
-0.006775,0.637364,0.400788,-0.555474,-0.371199,0.744083
0.139876,0.236210,0.949276,0.488730,0.650621,-0.581236
-0.297775,-0.277105,0.488318,-0.320891,0.581970,0.747221
-0.643993,0.167481,0.259197,0.419047,0.620982,-0.662406
-0.238101,0.658603,0.331635,-0.397508,0.302290,0.866376
0.479946,-0.522825,0.561732,-0.228507,-0.350352,-0.908316
0.112749,-0.620657,0.491052,0.048683,0.998299,-0.032092
-0.482102,0.593742,-0.091293,-0.264903,-0.672612,0.690956
-0.306196,0.513569,0.340885,0.242186,-0.522966,-0.817222
0.129387,0.519053,0.577480,0.671044,0.051938,-0.739596
0.140663,0.073421,0.889638,-0.088573,0.916955,-0.389035
-0.467883,0.005072,0.765677,-0.397024,0.359268,0.844570
0.053278,0.254406,0.134507,-0.474786,0.653955,-0.589001
0.621003,-0.400773,0.540658,-0.368766,0.460804,0.807262
-0.197745,-0.100843,0.775016,0.946083,0.238283,0.219425
0.788429,-0.294351,0.531461,0.704397,0.258827,0.660934
-0.318201,-0.363587,0.686404,-0.098270,-0.649459,0.754020
0.044596,0.603031,-0.557507,0.066424,-0.019146,0.997608
-0.727706,-0.159904,0.049055,0.170632,-0.286442,0.942781
-0.108991,0.574151,0.665560,0.603299,0.508369,-0.614484
-0.607424,-0.401502,-0.479369,0.002763,-0.015797,0.999871
-0.663777,-0.073833,0.262890,-0.823933,-0.136470,0.550010
-0.354361,0.714081,-0.584174,0.503705,0.588664,0.632263
-0.137196,-0.320536,0.669874,0.912247,-0.326541,-0.247337
-0.004094,-0.498732,0.270080,-0.203019,0.015958,0.979045
-0.544108,0.480186,-0.325758,0.395953,0.580809,0.711254
0.186585,0.168654,-0.345501,-0.027908,0.065519,0.997461
-0.009863,-0.435772,0.674153,0.128148,-0.711231,0.691179
-0.243317,0.287915,0.581226,-0.286070,-0.933128,0.217797
0.075919,0.373732,0.795966,-0.311903,0.499101,0.808464
-0.027900,0.417575,0.810685,0.989112,0.142221,0.037832
-0.509288,0.014710,0.578439,0.673723,-0.246691,-0.696592
0.323562,-0.180763,0.328901,0.865604,0.230202,-0.444675
-0.219832,-0.086102,0.606456,0.003943,0.230880,0.972974
-0.133904,0.636318,-0.006924,0.498854,0.305787,-0.810950
-0.319250,-0.609212,0.403522,0.185176,0.087001,0.978847
0.063739,0.065243,-0.547937,0.791642,-0.605970,-0.078121
-0.629919,0.445157,-0.317343,-0.054417,-0.083849,0.994992
-0.033873,0.129407,0.886052,0.786476,-0.546759,-0.287246
0.187604,0.217189,0.572704,0.160970,0.963355,-0.214562
0.965996,-0.238873,0.181290,-0.067708,0.088657,0.993758
-0.235420,0.748922,0.259428,-0.173653,0.911697,0.372362
0.025627,0.838511,-0.017737,0.186058,0.278487,0.942246
-0.447981,-0.190147,0.730541,-0.664840,0.106248,0.739391
-0.335567,0.522350,0.346850,0.168399,-0.125766,0.977663
0.318259,0.115584,0.749059,-0.290256,-0.112858,-0.950271
-0.176969,-0.462084,0.657588,-0.277049,0.203591,0.939039
-0.697024,-0.192937,-0.529401,-0.075769,-0.493426,-0.866481
0.353021,-0.595200,0.551026,0.128425,0.590432,0.796805
-0.344163,0.096437,0.364498,0.313781,0.804458,-0.504369
0.033348,0.060709,0.748100,0.983665,-0.164825,-0.072358
0.574527,-0.358547,0.226387,0.311553,0.259292,0.914168
-0.511123,0.022033,0.749965,0.358152,0.813432,0.458319
0.422894,0.174233,0.756800,0.520024,0.161307,-0.838782
0.071607,0.542005,0.739756,0.998114,-0.008865,0.060752
0.243899,-0.270257,0.795842,0.348107,-0.150650,0.925271
0.126269,0.210215,0.778265,-0.080522,0.355855,0.931066
-0.152406,0.671570,0.333215,-0.124396,0.446616,0.886036
-0.273212,0.315306,0.188889,-0.091914,0.033461,0.995205
-0.088040,0.186501,-0.269708,0.628088,-0.106760,0.770783
-0.502033,0.511349,0.020524,-0.420697,0.798749,0.430133
-0.196638,0.279324,0.581582,0.554525,-0.118900,0.823629
0.182302,-0.404958,0.577445,-0.236054,-0.171200,0.956540
-0.461152,0.098720,-0.576735,0.404607,0.570723,0.714541
0.032328,0.350494,0.947074,0.751985,0.657524,0.046697
0.135244,0.737192,0.246751,-0.249168,0.337617,0.907706
0.384752,0.103951,0.264257,0.883173,-0.190705,0.428529
0.207884,-0.615045,-0.120996,-0.689526,-0.160967,0.706147
-0.412958,0.442113,0.579060,-0.155580,0.504866,0.849061
0.081746,-0.343393,0.282349,0.736948,-0.402200,0.543270
-0.616719,0.455111,-0.326628,0.184647,-0.394880,0.899986
-0.603287,0.340255,0.235956,0.504771,-0.094070,-0.858113
0.096956,0.267214,-0.345608,0.706531,-0.005383,0.707662
-0.071781,0.764836,-0.577054,0.896145,0.332690,-0.293671
-0.412695,-0.032050,0.795203,-0.135683,-0.459779,0.877607
-0.383587,0.123986,0.396438,-0.194042,-0.820082,0.538344
-0.080144,-0.611717,0.233524,0.026862,-0.402857,0.914869
0.549615,0.023555,0.399190,0.009810,-0.155971,0.987713
-0.129241,0.647762,0.353224,-0.184608,0.278436,0.942546
0.625257,-0.277453,0.605514,-0.264354,0.959231,0.099961
-0.113361,0.612826,0.648391,0.924410,-0.231419,0.303169
-0.780970,0.038296,-0.512428,0.151735,0.075661,0.985521
0.073267,0.241092,0.502361,0.698868,-0.134607,0.702470
0.063244,0.049201,0.870180,-0.106188,0.124523,0.986518
0.015865,-0.367359,0.724664,-0.082526,-0.848340,0.522981
0.066536,-0.059567,0.773507,-0.526241,-0.745907,-0.408281
-0.350224,0.249651,0.510990,-0.418287,-0.093825,-0.903456
-0.507977,-0.052910,0.777129,-0.146015,0.152899,0.977395
0.177552,0.252061,0.770844,-0.491204,0.252030,0.833786
-0.266015,-0.125887,0.530395,-0.658729,0.433137,-0.615198
-0.479887,0.865585,-0.663927,-0.081472,-0.369898,0.925493
-0.056601,-0.193983,0.146456,0.931848,-0.164356,-0.323492
0.380556,-0.648205,0.567360,-0.051832,0.744439,0.665675
-0.237693,0.083852,0.360894,-0.040253,-0.638578,0.768503
-0.206399,0.480884,0.617499,0.895872,-0.377137,0.234906
-0.137196,0.114665,0.885395,0.332295,0.472798,-0.816114
-0.348388,-0.378423,0.292398,-0.640752,0.626310,0.444041
-0.383470,0.217664,0.523791,-0.393839,0.075271,-0.916092
-0.593555,-0.420016,-0.307649,0.526983,0.383765,0.758296
-0.131048,0.345454,0.867676,0.681196,-0.249948,-0.688111
-0.623917,-0.327923,0.723386,0.733819,0.539095,-0.413384
-0.060592,-0.232596,0.119949,-0.766949,0.123864,0.629640
-0.016594,-0.692207,-0.316970,0.540130,0.527169,-0.656012
-0.214791,-0.016136,0.765109,-0.770339,0.229543,-0.594884
0.325485,-0.091649,0.360592,0.662804,0.599501,-0.448653
-0.530034,0.154134,0.325811,-0.403193,-0.415000,0.815604
-0.110943,0.398016,-0.559353,0.935551,-0.321173,0.146940
0.093780,-0.412249,0.708472,0.451479,0.249527,-0.856682
0.174434,-0.008686,0.760528,0.630729,0.293324,-0.718431
0.205524,0.548250,-0.538758,0.931725,-0.012562,-0.362948
-0.255321,0.803734,0.012943,0.302510,0.361742,-0.881834
0.274378,0.101066,0.528851,0.771278,0.518147,-0.369668
-0.795277,0.022667,-0.587441,0.897448,-0.266826,-0.351270
-0.029619,0.645448,-0.000462,0.114464,0.208132,0.971380
0.358469,-0.638251,0.570094,-0.008583,0.691757,0.722080
-0.263043,0.603221,-0.551257,0.112262,0.308384,0.944614
-0.303253,0.865268,-0.273205,0.693985,0.386613,-0.607384
-0.687612,-0.362351,0.237696,0.205876,0.322482,-0.923916
-0.519777,0.233452,0.197695,0.380145,-0.033997,0.924302
-0.186702,0.574023,0.590743,0.298988,0.954210,0.009422
-0.166859,-0.618374,0.507208,0.587975,0.049144,0.807385
-0.136060,0.626141,0.500302,-0.179943,-0.876743,0.446029
0.533064,-0.125856,0.743395,-0.250487,-0.462930,0.850266
0.594166,-0.486875,0.556104,-0.622769,0.390324,0.678089
-0.401944,0.060012,0.363326,0.288898,0.279042,-0.915791
0.707834,-0.473782,0.540125,0.821457,-0.067316,0.566283
-0.653375,0.435995,0.023418,0.438637,0.184186,-0.879587
-0.133379,0.098593,0.679266,0.045079,0.990456,0.130253
-0.185157,0.468393,0.593299,0.050445,-0.319873,0.946117
0.529480,-0.111431,0.681361,-0.146866,0.607693,-0.780474
-0.248124,-0.493279,0.177402,-0.651967,0.153197,0.742610
0.072189,0.011064,-0.504048,-0.485070,0.874277,-0.018621
0.189994,0.164025,0.213639,-0.356736,0.880330,0.312665
-0.627792,-0.038930,-0.508345,-0.398666,0.041010,0.916179
-0.158409,0.079254,0.104023,0.605843,0.633744,0.480961
-0.034864,0.335658,0.926550,-0.261580,0.022956,0.964909
0.376448,0.160411,-0.375027,-0.682851,0.484307,-0.546957
-0.799735,0.125222,-0.202844,0.130492,0.388239,0.912273
0.000189,-0.731486,-0.328457,0.440309,0.700487,-0.561645
-0.211731,0.714748,-0.005664,0.380391,0.402644,-0.832575
-0.278515,0.622496,-0.085932,0.781901,0.622852,0.026210
-0.451041,0.004185,0.797848,-0.018890,-0.659565,0.751410
-0.331663,-0.376300,-0.040622,0.382593,-0.135553,0.913919
-0.353837,0.085278,0.805181,0.785861,0.554875,0.273013
0.672140,-0.390407,0.547404,-0.269488,-0.177879,-0.946433
-0.699500,-0.392594,-0.267630,0.142920,-0.139327,0.979878
-0.010154,-0.383654,0.696612,-0.287266,-0.715525,0.636790
0.528111,-0.122939,0.732139,0.294178,0.778158,-0.554914
0.313364,0.447946,0.403309,-0.257425,0.048268,0.965092
0.065692,0.196012,0.839802,0.942792,0.283441,-0.175512
0.380469,-0.330173,0.535935,0.507138,0.081797,-0.857975
0.328457,0.017690,0.776419,0.982386,-0.100852,-0.157313
-0.114644,-0.197058,0.781283,-0.325979,-0.049128,0.944100
0.101240,0.549772,0.729778,-0.560580,0.282895,-0.778281
-0.225921,-0.502536,0.502415,0.190682,-0.020492,0.981438
-0.400690,-0.512205,-0.254918,-0.526878,-0.726150,0.441708
-0.184400,0.443476,0.425005,-0.477796,0.159041,0.863954
0.178746,-0.086736,0.795203,-0.003574,0.762836,0.646582
-0.483996,0.406099,0.147947,0.245691,-0.218122,-0.944489
-0.068110,0.038423,0.484997,0.471455,-0.879247,-0.068228
-0.632454,-0.275266,0.017879,0.141653,-0.147859,0.978812
0.107067,0.100495,-0.352674,-0.123874,0.132835,0.983367
-0.573828,-0.114411,0.040320,0.489893,0.234640,-0.839612
0.271143,-0.795302,0.281195,0.313028,0.449369,0.836708
-0.296697,0.224449,0.918436,0.138931,-0.791230,0.595527
0.550430,0.125254,0.417388,-0.055292,-0.287792,0.956095
0.384315,-0.355503,0.613131,-0.597001,-0.515194,0.614951
0.255671,0.183871,0.207691,-0.092044,-0.976227,0.196235
0.170908,0.137269,0.957549,-0.212267,0.961741,-0.173194
-0.520564,-0.321931,-0.374210,-0.804379,-0.197268,-0.560411
-0.532452,-0.135113,0.315762,0.835794,-0.509285,-0.205129
0.334606,-0.452669,0.555412,-0.531553,-0.028965,-0.846530
-0.323737,-0.566795,0.409630,-0.226528,-0.244894,-0.942715
-0.186964,0.728506,0.002929,-0.357674,-0.398021,0.844777
-0.377205,0.136603,0.378933,-0.290670,-0.818936,0.494829
-0.103629,0.349734,0.896545,0.661989,0.023124,-0.749156
0.265141,-0.323928,0.766494,0.741298,0.104300,0.663023
-0.370620,0.384257,0.593211,0.339547,-0.416383,-0.843405
-0.403342,0.298440,0.348484,-0.703397,0.158012,0.693011
-0.511910,0.631150,-0.587139,-0.062585,0.114701,0.991427
0.652355,-0.318190,0.521536,0.656151,0.571950,0.492280
-0.379945,0.009954,0.783005,-0.537824,-0.634017,0.555670
-0.007416,0.652296,0.024501,0.164827,0.126365,0.978194
0.820277,-0.566319,0.207141,0.085143,0.149753,0.985051
0.822200,-0.270796,0.178414,0.211218,0.269474,0.939559
-0.611154,0.339748,0.219729,-0.044049,-0.033559,0.998466
0.035388,0.639678,0.443754,0.811674,0.153179,-0.563668
0.605734,-0.247400,0.205454,0.096964,-0.194992,0.976000
-0.118256,0.578842,-0.015553,-0.293450,-0.055451,0.954365
0.438657,-0.570187,0.562442,0.569673,-0.390843,-0.722990
-0.454305,0.394560,0.312655,0.060397,-0.848983,0.524958
-0.512435,0.430446,-0.176816,-0.594621,-0.126891,0.793930
0.050423,0.438911,0.760120,0.947632,-0.204917,0.244953
-0.281604,0.139869,0.762463,0.238422,0.740537,0.628299
-0.539737,0.476762,-0.329629,0.029759,0.537889,0.842490
0.632862,-0.524981,0.591542,-0.248891,0.326562,0.911817
-0.389909,-0.612382,-0.288261,-0.096261,-0.813154,0.574033
-0.229855,0.292639,0.804275,-0.432677,0.015544,0.901415
0.160040,-0.024474,0.063632,0.969006,0.247004,0.003974
-0.089760,0.595929,0.662400,0.599261,0.406934,-0.689414
-0.242472,-0.271113,0.064591,0.320923,-0.916557,0.238605
0.061525,0.055193,-0.543445,0.791642,-0.605970,-0.078121
0.419776,-0.338162,0.620588,0.881917,0.273716,-0.383798
0.189528,-0.065495,0.689759,0.967851,-0.073540,-0.240534
-0.490698,-0.471087,0.529614,-0.573266,0.691478,-0.439572
-0.583531,0.585943,-0.567786,0.469925,0.253106,0.845640
