0.371912,0.185706,0.463247,-0.812018,0.212354,-0.543629
0.127088,-0.694102,-0.149529,0.102951,0.426164,0.898769
-0.087772,-0.497844,-0.951176,-0.233483,0.135827,0.962827
-0.063959,-0.190954,-0.959446,-0.365628,0.161758,0.916597
0.240055,0.362963,0.739938,0.727653,-0.170396,0.664444
-0.181911,-0.162919,-0.152172,0.090922,0.984896,0.147355
-0.669960,-0.481347,0.438111,-0.433566,0.241331,0.868205
-0.459037,-0.222371,0.341820,-0.373993,0.177537,-0.910280
0.326811,-0.048964,0.583949,-0.203065,0.679843,0.704682
-0.306383,0.176090,-0.096272,0.081348,0.150498,0.985258
-0.782311,-0.638435,0.433044,0.555987,-0.057897,-0.829172
-0.373389,-0.006062,0.069562,-0.161178,-0.974550,0.155802
-0.535579,-0.099906,0.827326,0.722032,0.163190,0.672338
-0.074420,0.003088,0.512505,0.876799,0.203567,-0.435642
-0.735548,-0.579624,-0.209718,-0.228275,-0.935681,0.269058
0.202337,-0.680053,-0.917173,0.388130,-0.115897,-0.914288
-0.102108,0.608067,0.941694,-0.493670,0.867720,-0.057901
-0.059653,0.582420,0.891965,-0.273226,-0.637586,0.720300
-0.872205,-0.357192,-0.158451,0.407919,-0.309019,0.859133
-0.487464,-0.471496,0.462360,-0.256565,0.495303,0.829970
-0.151701,-0.178015,0.616251,0.978739,0.186530,0.085307
0.187079,-0.516380,-0.924358,-0.288923,0.271677,0.917995
-0.186157,0.170785,0.889468,-0.790591,0.005153,0.612323
-0.545116,-0.212054,0.793504,0.244640,0.604824,0.757852
0.050854,-0.082829,0.789667,0.281219,-0.925061,-0.255301
0.137240,0.631498,0.365382,-0.095597,0.922362,0.374311
0.028211,0.444099,0.705429,0.845344,-0.366615,-0.388569
-0.054854,-0.119669,0.013192,0.604670,-0.788141,0.114929
-0.225288,-0.183376,0.875751,-0.157018,0.752670,0.639401
-0.166651,0.565632,0.930239,-0.650710,0.756404,-0.066552
-0.052454,0.093260,-0.264423,0.934784,0.261044,-0.240906
-0.149239,0.202612,0.861274,-0.722745,0.369066,0.584320
0.334256,0.602236,0.346019,-0.134425,-0.897891,-0.419191
-0.161422,-0.067443,0.171317,0.828110,0.450847,0.333123
-0.142778,-0.099849,0.135179,0.964465,0.181907,0.191616
-0.253715,-0.279845,0.347973,-0.317402,-0.735741,-0.598282
-0.122782,0.478316,0.925697,0.861240,-0.120964,-0.493593
0.513551,-0.094605,-0.391368,-0.202557,0.007956,0.979238
0.169359,0.356143,0.748335,0.271233,0.582691,0.766096
-0.202647,-0.127595,-0.207926,-0.232268,0.970543,-0.064020
-0.070728,-0.328866,0.127108,0.174101,-0.035026,0.984105
-0.719552,-0.076358,0.767698,0.627401,0.722826,-0.289640
0.153668,-0.095829,0.529750,0.389372,0.903659,-0.178298
-0.204677,0.287071,0.825009,0.756479,-0.496744,0.425423
-0.212244,0.403822,0.956750,-0.033821,-0.182695,0.982588
-0.029749,0.072277,0.141042,-0.734297,0.540086,-0.411237
-0.080265,0.512413,0.843304,-0.703523,0.342855,-0.622499
-0.642333,-0.106787,0.832736,-0.013128,0.486605,0.873523
0.096261,-0.252216,-0.797810,-0.371191,-0.619895,0.691337
-0.173420,-0.050131,-0.780112,0.320908,0.259894,0.910754
-0.787664,-0.075953,0.721136,-0.883782,0.467618,-0.016247
0.153360,-0.066685,-0.784872,0.996431,-0.078802,0.030271
0.072020,-0.316276,-0.945983,-0.386734,0.300955,0.871701
-0.362315,0.172183,0.906334,0.519157,-0.750673,0.408614
0.047839,-0.358242,-0.940680,0.356175,-0.144968,-0.923106
-0.780219,-0.551412,0.426022,-0.362604,-0.038889,0.931132
0.382310,0.054617,0.887604,0.447012,0.253265,-0.857926
0.101369,0.303682,-0.062468,0.139285,0.154257,0.978164
-0.173050,0.517077,0.931017,-0.290481,-0.668516,0.684621
-0.093863,0.386511,0.708505,-0.162454,-0.496160,-0.852897
0.167513,0.686289,0.813048,0.932921,-0.242044,-0.266597
0.062791,-0.010669,-0.721462,-0.675427,0.549972,-0.491253
0.012275,-0.203662,-0.953348,0.537916,0.177694,-0.824058
0.148131,-0.109291,-0.046634,-0.131714,0.926788,-0.351731
-0.579512,-0.106612,0.766015,0.557136,-0.624787,-0.547029
-0.580680,-0.143274,0.716522,-0.232067,-0.683816,-0.691767
0.455714,-0.010260,0.900814,-0.775210,0.522831,0.354539
-0.766374,-0.552636,0.423344,-0.362604,-0.038889,0.931132
0.257837,0.391467,0.884872,0.065609,0.292268,0.954083
-0.307369,0.002914,0.885722,0.912988,0.242805,0.327869
-0.353454,-0.158486,-0.155230,0.758683,-0.642852,0.105550
-0.511460,-0.255945,0.357076,-0.561170,-0.124058,-0.818350
-0.191632,0.433842,0.900362,0.874053,-0.329676,-0.356854
-0.485125,-0.010378,-0.095367,-0.005165,-0.173140,0.984884
0.019844,0.273779,0.947503,0.008474,-0.997397,0.071611
-0.027227,-0.514167,0.020286,0.099666,0.275465,0.956131
-0.034242,-0.048964,-0.303583,0.807681,0.565660,0.166373
-0.023781,-0.440196,0.623905,-0.044713,-0.624678,0.779601
-0.559514,0.036544,0.819652,-0.715288,-0.036079,0.697897
0.030919,0.394964,0.545494,0.928803,-0.369797,-0.023993
-0.544686,-0.370135,0.836283,-0.335959,0.850130,-0.405476
-0.017874,0.007635,0.073073,0.839645,-0.297950,0.454117
-0.307861,0.343901,0.054524,-0.259599,0.937347,-0.232356
-0.142532,0.730472,0.563047,0.503680,0.799054,0.328359
-0.580312,-0.636514,0.591621,-0.252519,-0.075793,0.964619
-0.331918,-0.066333,0.782483,-0.344771,0.389768,-0.853940
-0.142164,-0.126428,0.568820,-0.680235,-0.730739,-0.057452
0.033378,-0.060562,-0.963246,-0.257781,0.269608,0.927825
-0.036088,-0.232923,0.720069,0.763347,-0.603186,-0.231230
0.240671,0.219689,0.598335,-0.378540,-0.176263,0.908647
-0.505122,-0.195500,0.345621,-0.478135,0.645929,-0.595115
0.039778,-0.122408,-0.393847,0.201913,-0.968184,-0.147821
-0.563882,-0.530777,0.464658,-0.601891,0.502561,0.620612
-0.013383,-0.460190,-0.197810,-0.456909,0.497089,0.737656
0.151331,-0.318549,-0.934202,0.374187,-0.212232,-0.902741
-0.062791,0.375318,0.396073,-0.181537,0.526695,0.830443
-0.008091,-0.142925,-0.450796,-0.709536,0.702350,-0.057115
0.139086,-0.273200,-0.935975,0.485645,0.086150,-0.869901
0.330072,0.465085,0.714260,0.593713,0.200800,0.779221
0.177788,0.414605,0.092309,0.814351,0.514011,-0.269491
-0.174958,-0.123458,0.394300,0.186642,-0.695405,0.693957
-0.081003,-0.061380,0.090898,-0.749804,0.658060,0.068928
-0.564376,-0.517956,0.588256,-0.219372,0.183377,-0.958253
0.128257,-0.111625,0.491513,0.171392,-0.647205,0.742799
0.605661,-0.348860,-0.101140,0.074414,0.727917,0.681615
0.087094,-0.177897,-0.613066,0.611537,-0.309605,-0.728125
-0.057929,-0.154292,0.316359,0.994902,-0.025373,0.097599
-0.235441,-0.181337,-0.224882,0.913760,-0.306375,0.266789
-0.656115,-0.295698,0.839215,-0.311071,-0.701392,0.641315
0.022796,-0.132783,-0.756406,0.724014,-0.639148,0.259409
-0.484511,-0.219109,0.349421,-0.454616,0.621022,-0.638480
-0.713766,-0.307997,0.838744,0.101368,-0.738043,0.667097
-0.085494,0.238690,-0.049457,0.473405,-0.183038,-0.861618
-0.141732,-0.189032,-0.071390,0.869256,-0.471435,-0.148803
-0.279126,-0.845246,-0.152352,-0.005723,0.868168,0.496237
-0.102292,0.446080,0.880945,0.552945,0.023010,0.832900
-0.084818,0.562078,0.874683,-0.648305,0.364464,0.668480
0.100507,0.628524,0.545295,0.422329,0.257512,-0.869095
-0.049870,0.041326,-0.970232,-0.360720,0.109290,0.926249
0.373019,-0.288821,-0.910822,0.331702,0.070311,-0.940760
-0.131027,-0.073505,-0.786337,-0.126518,-0.379577,0.916469
0.106722,-0.188388,-0.130872,-0.336802,-0.708605,-0.620035
-0.115275,0.202786,0.606515,0.934305,0.329190,0.136778
-0.620489,-0.011367,0.805338,0.100048,-0.769763,0.630440
0.076633,-0.325600,-0.943467,0.382620,-0.192200,-0.903693
-0.199815,-0.192469,0.841241,-0.510439,0.824454,-0.244391
-0.730441,-0.422127,0.855520,0.342998,-0.087298,0.935271
-0.291925,-0.329332,0.803511,0.845030,-0.084323,-0.528029
-0.173296,0.408718,0.372023,-0.345060,0.111987,0.931876
0.264236,-0.499068,-0.915581,0.381192,-0.149180,-0.912380
0.277218,-0.268244,-0.528140,-0.290386,0.661752,-0.691202
0.193170,0.504952,0.724701,-0.218612,-0.224574,-0.949619
0.001384,-0.119203,-0.539595,-0.665024,0.746728,-0.011874
0.104260,0.497609,0.401411,-0.540742,0.819497,-0.189796
0.111889,0.883714,0.576638,0.058837,-0.008078,0.998235
0.154160,-0.066333,-0.751611,0.801705,-0.568000,0.186132
-0.112383,-0.261658,-0.760840,-0.801609,-0.280225,-0.528108
0.029011,-0.131616,-0.620775,-0.482432,0.870824,0.094472
-0.092386,-0.275355,0.467409,0.772829,0.633494,0.037697
-0.431965,-0.195383,-0.442924,0.283878,-0.280474,0.916923
-0.214030,0.470037,0.876059,0.843559,-0.362619,-0.396126
-0.291925,0.121416,0.846707,0.921501,-0.379762,0.081345
-0.253039,-0.733564,-0.005556,0.250449,0.947540,0.198601
-0.134411,0.442583,0.370250,0.129191,-0.693204,-0.709069
0.045377,0.192295,0.389558,-0.084974,0.148400,0.985270
0.035472,0.814991,0.566160,-0.072248,-0.273274,0.959219
0.012953,-0.392399,0.618983,0.039411,0.333757,-0.941835
0.216551,0.598447,0.835360,-0.568793,0.490955,0.659877
-0.298692,-0.792084,-0.843160,-0.327071,-0.936869,-0.123701
-0.195202,-0.022502,0.807021,-0.786528,0.330281,-0.521812
0.188617,0.043250,-0.691585,-0.646951,0.717841,0.257213
0.242332,0.391057,-0.386482,-0.141300,0.052584,0.988569
-0.348100,0.305371,0.856171,-0.091039,0.954012,0.285610
-0.041993,-0.388788,-0.959446,-0.350532,0.280453,0.893573
0.074420,-0.169039,-0.593105,-0.102501,-0.325276,0.940047
0.463959,0.187222,-0.139938,0.818272,0.374666,0.435954
-0.203507,-0.011950,-0.815346,0.502144,0.681980,-0.531747
-0.067590,0.409009,0.876891,0.100510,-0.135863,0.985616
-0.172682,0.292606,-0.182030,0.368144,0.867076,-0.335633
-0.751300,-0.068780,0.707908,0.051389,0.216452,0.974940
-0.476450,-0.098391,0.757492,-0.139166,0.983567,-0.115016
0.068758,-0.129869,-0.840699,0.691517,-0.714739,-0.104654
0.155638,0.377186,-0.176891,0.353126,-0.082900,-0.931896
-0.527212,-0.169505,0.721028,-0.013651,0.677715,0.735198
-0.206768,0.203252,0.058162,0.161588,0.238501,-0.957605
0.325949,-0.464793,-0.912505,-0.330848,0.164495,0.929237
-0.481433,-0.424517,-0.236699,-0.638929,0.616722,-0.459808
0.484509,0.032467,0.899910,-0.230726,0.165637,0.958817
-0.256791,-0.018069,0.581687,0.101952,-0.696782,0.710001
-0.001016,-0.196141,-0.545729,0.913495,-0.384409,-0.133258
-0.425319,0.432675,-0.285107,0.349923,-0.184699,-0.918390
0.406122,-0.239334,-0.032555,0.751325,-0.604574,-0.264576
0.082603,0.448471,0.091133,0.779238,0.356555,-0.515419
0.008213,-0.148635,0.089866,0.946007,0.316351,0.070655
-0.095339,-0.174752,0.329823,0.947234,0.304098,0.101347
0.330686,0.262181,0.369037,-0.198959,0.979301,-0.037208
0.253961,-0.811846,-0.123453,-0.066005,0.399427,0.914386
-0.394925,-0.760492,0.593160,0.257962,0.153535,-0.953878
-0.003230,-0.375553,-0.654723,0.047091,0.063801,0.996851
-0.549669,0.097106,-0.186048,-0.270905,-0.081394,-0.959159
0.249407,0.211004,0.573706,-0.334803,0.092844,0.937703
0.103030,0.386568,0.394155,0.279316,0.162646,0.946324
0.059037,0.083235,-0.963807,-0.246997,0.133952,0.959713
0.010491,-0.141876,-0.573399,-0.618344,0.784890,-0.039968
-0.391479,0.434190,-0.191223,-0.093548,0.278088,0.955989
-0.124382,0.062017,0.625172,0.218367,0.877828,-0.426303
-0.058791,0.555955,-0.234238,-0.013818,-0.021624,0.999671
0.057683,-0.398522,0.363482,0.627409,0.552162,-0.549068
0.310199,0.211179,0.756008,0.453506,0.313996,0.834110
0.331118,-0.355097,-0.916359,-0.159963,0.056162,0.985524
-0.117551,0.429470,0.889667,-0.556617,0.139679,-0.818943
0.081619,0.226740,-0.014730,0.820402,-0.393494,-0.414853
0.210644,-0.360807,-0.924991,-0.316351,0.082440,0.945053
-0.013014,-0.153243,-0.285595,0.890160,-0.449884,0.072251
0.383356,-0.424926,-0.909193,-0.381179,0.267500,0.884955
-0.505246,-0.394964,0.095947,0.091962,-0.080505,0.992503
-0.497615,0.250872,0.940952,-0.342948,0.907244,0.243507
0.506782,0.029201,0.606750,-0.181341,0.212050,0.960287
-0.020274,-0.180636,-0.958125,-0.503065,0.053747,0.862576
-0.339547,-0.059281,0.713247,0.345735,0.910060,0.228600
0.027227,-0.124390,-0.447467,-0.565239,0.824724,-0.018329
-0.269035,0.276287,0.861147,-0.525159,0.757497,-0.387823
-0.013074,-0.164083,-0.184962,0.719923,-0.667571,0.189895
-0.364836,0.269642,-0.488418,0.140534,-0.085878,0.986344
-0.709521,-0.143975,0.728502,-0.030773,0.549937,0.834639
0.382926,-0.077817,-0.478701,-0.360264,0.481188,-0.799168
-0.123028,0.257343,0.822910,-0.023255,0.999651,-0.012561
-0.268235,0.389250,-0.267517,0.272644,-0.109087,-0.955911
0.025503,-0.194045,-0.812016,0.911250,0.300123,0.282046
-0.139702,0.098974,0.420648,0.075635,-0.121993,0.989645
-0.197969,0.525238,0.930945,-0.792159,-0.149314,0.591768
-0.527950,-0.254838,0.843648,0.631262,-0.712611,0.306096
0.141670,0.298146,0.906080,0.055177,-0.995886,-0.071882
-0.448455,0.203078,0.965310,0.206761,0.628378,0.749927
-0.506292,-0.309281,-0.315454,0.203137,-0.008419,0.979114
-0.279188,0.057239,0.866088,-0.398335,-0.159998,-0.903178
0.039472,-0.119551,-0.737423,0.748145,-0.661892,0.046671
-0.210152,-0.237470,0.323127,0.154006,0.736633,0.658524
0.060821,-0.035441,-0.951285,0.409136,-0.158938,-0.898525
-0.044947,-0.160354,-0.072096,0.689691,-0.719781,0.079003
-0.403722,0.206458,0.838491,0.187936,-0.737014,0.649223
0.305953,-0.410468,-0.914025,0.461174,-0.112974,-0.880088
-0.017874,0.246908,-0.444843,-0.666373,-0.480309,0.570307
0.208060,-0.606378,-0.919652,0.309393,-0.070280,-0.948334
-0.002616,-0.143800,-0.392834,0.670697,-0.730185,-0.130366
0.105798,-0.388962,-0.935704,-0.386118,0.110691,0.915784
-0.039593,0.515678,0.889504,-0.000590,-0.199342,0.979930
-0.664790,0.069538,0.816703,0.853714,0.194680,0.482982
-0.536011,0.158369,-0.086953,0.144920,-0.008385,0.989408
-0.430919,-0.228085,0.888075,-0.430798,0.776332,-0.460133
0.004768,-0.165772,-0.948534,0.886334,-0.118849,-0.447534
0.037994,-0.685941,0.033062,0.190578,0.409383,0.892236
0.396401,-0.298903,-0.912848,-0.205740,-0.071819,0.975968
0.313828,-0.176616,0.202497,0.570942,0.246037,0.783257
0.078233,0.070470,-0.521571,0.172494,-0.144507,0.974353
-0.472512,-0.111974,0.773471,0.545853,0.825726,0.142200
-0.496815,-0.397764,-0.208451,0.799055,-0.595525,0.082830
-0.092571,-0.056481,0.094281,-0.344422,0.758277,0.553525
-0.004707,0.436407,0.710713,0.792570,-0.183433,-0.581537
-0.362129,-0.054735,0.810550,0.197415,0.975021,0.101788
-0.393755,0.645778,-0.281397,-0.534852,0.191368,0.822989
-0.008399,-0.191829,0.240825,0.924195,0.381702,-0.012894
-0.246762,-0.449232,-0.086953,-0.777789,0.417331,-0.469977
0.108138,-0.365005,-0.936102,0.328835,-0.084423,-0.940606
0.022119,0.813415,0.586012,-0.360256,0.071557,-0.930105
0.018058,-0.167815,-0.727814,0.913181,0.390997,-0.114989
0.032456,0.039810,0.398299,-0.659361,0.026843,-0.751347
-0.147023,-0.167406,0.378936,0.561737,-0.750756,0.347586
-0.503831,-0.407498,0.808379,-0.376212,0.533790,-0.757319
-0.117796,-0.014924,0.576801,0.974737,0.221798,-0.026344
-0.193356,-0.350433,-0.094245,-0.809295,0.586313,0.035775
0.365144,-0.476918,-0.909247,-0.305484,0.016224,0.952059
-0.185295,0.219632,0.781614,0.972246,-0.121608,0.199871
-0.063037,-0.516031,-0.649873,0.952661,-0.257557,-0.161561
0.042117,0.545524,0.720919,-0.236430,0.153442,0.959456
-0.198769,0.074202,0.825244,0.981731,-0.138731,-0.130223
0.364159,-0.494055,-0.906804,0.189655,-0.105480,-0.976169
0.268174,0.344310,0.861889,0.274626,0.950003,-0.148577
-0.130657,0.050768,-0.981795,-0.397536,0.135695,0.907498
0.021444,-0.570239,-0.932085,-0.317717,0.016701,0.948039
-0.056330,0.787594,0.562885,0.611321,0.283777,-0.738754
0.318690,-0.491782,-0.114368,-0.295713,-0.005410,0.955261
0.443224,-0.026465,0.904759,-0.775210,0.522831,0.354539
-0.465251,-0.657380,-0.022313,0.888673,0.428321,-0.163713
-0.383172,-0.747378,0.589776,-0.293301,-0.194501,0.936025
-0.447347,-0.146831,0.270431,-0.492616,0.850759,0.183135
-0.318382,0.685240,-0.268820,0.481164,0.114279,-0.869150
-0.203939,-0.194803,0.104922,0.548074,-0.723437,0.419827
0.881987,-0.255365,-0.347376,-0.461120,-0.021503,0.887077
0.043039,0.580029,0.330420,-0.002603,0.371093,0.928592
-0.594770,-0.237235,0.602172,-0.071461,0.996330,0.047108
-0.111767,-0.129520,0.409917,0.377451,-0.884726,-0.273478
0.022549,-0.099326,0.814242,-0.378542,0.925130,0.029009
0.179879,-0.164958,-0.938328,0.121466,0.211017,0.969906
-0.561914,-0.692178,0.584817,-0.068873,0.011430,0.997560
-0.048084,-0.075134,0.653855,-0.456395,-0.735349,0.500965
-0.353146,0.703366,-0.276258,-0.582223,0.234346,0.778523
-0.728965,-0.168281,0.849258,0.110474,0.607877,0.786308
0.011599,-0.148112,-0.630528,0.759514,-0.650324,0.014763
0.435716,-0.512416,-0.901249,-0.404708,-0.076852,0.911211
0.006183,0.346932,0.387514,0.265009,0.466010,0.844159
0.231626,-0.427958,-0.921951,0.328725,-0.134363,-0.934819
-0.119582,-0.033691,0.527470,0.206639,0.951502,-0.227913
0.718012,-0.478259,0.105103,-0.193740,-0.595455,-0.779678
-0.026181,-0.293599,-0.958922,-0.336024,0.226592,0.914190
-0.142224,0.345768,0.384908,0.491023,-0.070428,-0.868295
-0.094171,-0.172301,0.342780,0.967741,0.096863,0.232583
-0.442302,-0.594836,-0.072765,0.365482,0.275948,0.888975
0.391477,0.107950,0.892852,0.492846,0.207051,-0.845123
0.517489,-0.198649,-0.206116,0.089868,0.392396,0.915395
-0.417136,0.298320,0.062251,-0.276777,0.702377,-0.655790
0.074234,-0.102998,-0.588201,0.160454,-0.686856,0.708860
0.393815,-0.358594,-0.311111,-0.135321,0.173439,0.975504
-0.123704,0.404872,0.873362,0.846718,-0.530646,0.038527
-0.267927,-0.076127,0.410930,0.833922,-0.011112,0.551770
-0.004769,0.101653,-0.972638,-0.289419,0.167372,0.942456
-0.180004,-0.111390,0.824086,0.905719,0.419570,-0.060291
-0.220181,-0.723478,-0.050308,0.099262,0.918131,0.383643
-0.485373,-0.082712,0.810876,-0.625505,0.328302,0.707786
-0.013690,-0.127361,-0.107202,-0.435475,0.900105,-0.013182
-0.281096,-0.504315,-0.090952,-0.499828,0.162374,-0.850768
-0.157484,0.136745,-0.991676,-0.243193,0.033840,0.969388
0.023289,0.319011,0.388183,0.317753,0.212800,0.923986
-0.275619,0.141815,0.860876,0.216803,-0.975998,-0.020620
0.032210,-0.136806,-0.454470,-0.380986,0.916963,-0.118441
-0.240487,0.597458,0.898371,0.779945,0.578530,-0.238723
0.633040,-0.452381,0.094119,0.034950,0.632216,0.774003
-0.348778,-0.056773,0.254524,0.024884,0.998008,0.057979
-0.090602,0.065631,0.653149,-0.835938,0.536951,0.113541
-0.362315,-0.372117,0.450724,0.334223,-0.847139,-0.413098
-0.116567,-0.108067,-0.975118,0.393237,-0.102536,-0.913702
0.284664,0.203893,0.768476,-0.360923,0.495768,-0.789904
0.065497,-0.546050,-0.929642,-0.188621,0.118555,0.974868
-0.192862,-0.158952,-0.171082,-0.293259,0.950796,0.099931
-0.332288,-0.331257,0.453764,-0.685308,0.359825,-0.633150
0.429871,-0.300070,-0.912848,-0.355154,-0.068663,0.932283
0.017258,-0.296808,-0.952950,0.421657,-0.130872,-0.897262
0.409505,-0.585512,-0.901194,-0.326583,0.209594,0.921637
0.186033,0.289867,0.593124,0.260862,-0.423245,-0.867649
0.019782,-0.202203,-0.737025,0.741687,0.670565,-0.015589
0.168989,0.705174,0.568024,0.227984,0.149544,-0.962112
-0.590401,-0.085860,0.807528,-0.608512,-0.787287,-0.099457
-0.344717,-0.275473,0.736410,-0.517918,-0.589285,-0.620083
-0.249407,0.345708,0.914477,-0.073911,0.876536,0.475627
0.230456,0.016846,0.505139,0.109782,0.395068,0.912069
0.022241,-0.111216,-0.403493,0.517777,-0.853231,0.062477
0.163943,0.330552,0.945060,0.599116,-0.334590,0.727399
0.256791,-0.178481,0.218567,0.783123,0.368036,0.501266
0.236241,0.145835,-0.678429,0.906188,0.090536,-0.413069
0.260666,0.231230,0.080348,0.199864,0.302593,0.931929
-0.319981,-0.212115,0.486573,0.838768,0.460268,0.290899
0.355730,-0.637912,-0.901339,0.271295,-0.346128,-0.898106
0.806060,-0.003732,-0.356677,-0.383653,-0.018134,0.923299
-0.487894,-0.484553,-0.231397,0.345773,0.313814,0.884286
0.247070,-0.108825,0.199819,0.180432,0.235037,0.955093
0.088448,0.052052,-0.699222,-0.143931,0.781232,0.607421
0.596984,-0.582129,0.127235,-0.183645,0.643758,0.742866
0.217843,-0.678598,-0.649910,-0.724906,0.011772,0.688747
0.436148,0.240032,0.876402,0.531006,-0.075581,-0.843990
-0.198461,0.390648,0.912143,-0.478086,0.660378,0.579081
-0.027903,-0.151901,-0.382555,0.734941,-0.662431,-0.145076
0.045255,0.281941,0.070702,-0.175953,0.064454,0.982286
-0.304353,-0.144267,0.736862,-0.259382,0.774444,-0.577025
-0.821996,0.062892,0.780583,-0.431812,0.028532,0.901512
0.012521,-0.140069,-0.688400,0.802201,-0.595305,-0.045669
0.107522,0.307413,0.720738,0.676264,-0.187064,-0.712512
0.173850,0.548146,0.398118,0.163529,0.986399,0.016575
0.608491,-0.617687,0.134383,-0.169064,0.675025,0.718163
-0.004091,-0.205177,-0.035704,0.861481,-0.113002,-0.495057
0.104198,-0.136454,0.204452,0.062243,-0.059385,0.996293
-0.238457,-0.059979,-0.769273,-0.171139,0.273701,0.946467
-0.483649,0.109174,-0.274086,0.360207,0.164881,0.918186
-0.367544,-0.357018,0.781053,0.973506,0.000912,-0.228660
-0.498847,0.184539,0.918657,-0.200719,0.915664,0.348241
0.246332,0.333235,0.753963,-0.400297,-0.548189,-0.734337
-0.049500,-0.108242,0.016812,0.650405,-0.747476,0.135103
-0.269527,0.307065,0.880239,0.913977,-0.403247,0.045141
0.009321,-0.155921,-0.672204,0.930188,-0.366882,-0.012186
-0.029319,0.367740,0.712143,-0.272154,0.476834,0.835800
-0.133241,0.517717,0.703438,0.453877,-0.082712,-0.887217
-0.033194,-0.578165,-0.941983,0.373093,-0.047513,-0.926577
0.035472,0.338539,0.933587,0.981864,0.100070,0.161028
-0.640179,-0.263814,0.373471,-0.385443,0.115086,-0.915526
-0.004030,0.679704,0.539631,0.342779,0.711769,-0.613097
0.015598,-0.176381,-0.732609,0.929412,0.354776,-0.101623
0.040763,-0.173877,-0.066015,0.944476,0.327964,-0.020123
0.265406,-0.482457,-0.916612,0.347114,-0.191754,-0.918010
-0.436702,-0.417989,0.794535,-0.128359,-0.829704,0.543245
0.209598,0.733852,0.575769,-0.435649,0.047270,0.898875
-0.195694,-0.184194,0.198027,-0.669428,0.134186,0.730657
0.036886,-0.116054,-0.365201,0.650322,-0.757707,0.054415
-0.029626,-0.136746,0.176439,0.868078,0.494517,-0.043509
0.171758,-0.473246,-0.133170,0.711888,0.235263,-0.661715
-0.350192,-0.457276,0.624810,0.365025,0.296475,-0.882530
0.136071,0.696724,0.559989,-0.767414,0.462340,0.444204
-0.053070,-0.120832,0.058053,0.997736,-0.053878,0.040239
-0.021135,-0.206052,-0.959102,-0.373924,0.145662,0.915949
0.136748,0.122287,-0.401140,0.047475,-0.430210,0.901480
0.441562,-0.408778,0.088509,-0.388516,-0.093622,0.916673
-0.055162,0.092969,-0.263192,0.934784,0.261044,-0.240906
0.037932,0.273722,0.390409,-0.203689,-0.098465,0.974072
-0.064391,-0.102880,-0.774267,0.037094,0.503312,0.863308
-0.007169,0.244696,0.707999,0.184737,-0.643072,0.743190
0.414183,-0.374216,-0.911799,0.301820,-0.227671,-0.925781
-0.073990,-0.273491,-0.039070,-0.496949,0.805197,0.323574
0.302445,-0.709432,-0.138907,0.184466,-0.361525,-0.913932
-0.317766,-0.584462,-0.084528,-0.245812,-0.181567,-0.952161
-0.062421,-0.274658,-0.796345,0.503321,-0.856183,-0.116701
-0.345393,0.225577,-0.198335,0.263845,0.287009,0.920876
0.105246,0.421660,-0.065255,-0.302437,-0.171179,-0.937672
0.188987,0.702608,0.575480,0.260632,-0.119859,-0.957969
-0.206768,0.127361,0.048878,0.158003,0.178264,-0.971214
0.217659,0.455117,0.109700,0.289289,0.188463,-0.938506
0.361329,-0.319655,0.061763,-0.658356,0.256604,0.707618
-0.225226,0.280542,0.694209,0.184218,0.827491,0.530399
-0.055038,-0.374155,-0.955302,-0.355895,0.279849,0.891641
-0.176680,-0.000875,0.852334,0.842508,0.500937,0.198096
0.032086,-0.089123,-0.952678,0.312848,-0.540099,-0.781293
-0.490110,-0.560854,-0.070177,0.415008,0.300985,0.858590
-0.286325,-0.058232,0.225136,-0.431315,-0.806283,-0.404816
-0.469743,0.267952,0.954669,-0.124365,0.605266,-0.786248
0.317890,-0.804674,-0.628936,-0.499042,0.124297,0.857617
-0.067344,0.142050,0.915418,0.631373,0.758970,-0.159159
-0.345885,-0.144672,0.840445,-0.712300,0.608840,0.349202
-0.532995,-0.762299,0.592544,-0.151234,-0.106712,0.982721
0.209476,0.557645,-0.492237,0.184074,-0.418707,-0.889270
0.211074,0.583701,0.360767,0.397287,0.589009,0.703727
0.130595,-0.512299,-0.933786,-0.259993,0.131761,0.956579
-0.070666,-0.506937,-0.949294,0.299499,-0.117763,-0.946801
-0.135887,0.116752,0.604289,0.502172,0.309174,0.807611
-0.658761,-0.037540,0.798353,-0.117209,0.901659,0.416261
0.330502,-0.692644,-0.135161,0.433114,-0.075937,-0.898135
-0.052084,0.702320,0.586482,-0.463726,-0.447430,-0.764699
-0.324781,-0.062718,0.148860,0.302298,0.931819,-0.200823
-0.055715,-0.085277,0.402352,0.928221,-0.370607,0.032497
0.229656,-0.109700,-0.938708,-0.233329,-0.039454,0.971597
0.275434,0.808755,0.573724,0.570003,-0.360552,-0.738308
0.148807,0.192583,0.401954,0.293321,-0.022170,-0.955757
0.471588,-0.529553,-0.898009,-0.415704,-0.030989,0.908972
0.392277,0.098447,0.892762,0.466637,0.172697,-0.867425
0.241163,-0.116403,-0.687315,0.178497,-0.243842,0.953247
0.206153,-0.377770,-0.919526,-0.180852,0.195024,0.963980
-0.003478,-0.145081,-0.459265,0.885940,-0.419524,0.197762
0.458606,0.378293,-0.062396,0.381352,0.539137,0.750934
-0.019166,0.117566,0.914025,0.556220,0.177495,-0.811859
0.299984,-0.679238,-0.634003,0.923181,0.066915,-0.378497
0.333332,0.149336,-0.751086,0.171872,0.324168,-0.930256
0.110967,-0.298729,-0.941006,-0.322880,0.240718,0.915316
-0.159698,0.394089,0.072982,0.579121,0.044574,-0.814022
-0.011229,-0.101831,-0.299729,-0.678742,-0.713888,-0.172263
-0.487710,-0.384415,0.810677,-0.450772,0.669327,-0.590598
0.413013,0.083644,0.483623,0.239902,0.744776,0.622700
0.244486,0.193166,0.383514,-0.364439,0.486896,0.793799
-0.476882,0.156096,0.993684,0.050500,0.821793,0.567544
0.025195,0.070235,-0.095711,0.261562,-0.492502,0.830077
-0.273343,-0.705177,-0.490753,-0.096736,0.105941,0.989656
-0.125058,-0.152424,0.567481,0.863657,-0.493665,0.101940
0.087278,-0.173585,-0.752479,-0.684625,-0.380358,-0.621784
-0.307307,0.006411,0.860333,-0.396076,-0.707948,-0.584751
0.057621,0.641524,0.709464,0.874282,-0.387681,-0.292120
-0.753268,-0.257461,-0.219924,-0.341383,0.549819,-0.762336
-0.197231,0.225516,0.804343,0.990922,0.054955,0.122691
0.238825,0.196141,0.769888,0.486233,-0.291008,0.823949
-0.237041,0.307823,0.890083,0.990668,-0.135917,-0.010193
0.388402,-0.055667,0.872602,-0.492964,-0.056075,0.868241
0.139948,-0.074903,-0.630981,-0.452556,0.870174,0.194912
-0.079957,0.065223,-0.978176,-0.357181,0.114580,0.926981
-0.410059,-0.490967,-0.004705,0.422676,0.195010,0.885051
-0.492386,0.173233,0.928357,-0.135019,0.942549,-0.305568
0.333702,0.388375,0.906153,-0.183451,-0.217325,0.958705
-0.134779,-0.131907,0.597358,-0.541057,0.722635,-0.430181
0.090294,0.298494,0.908994,0.506103,-0.850039,-0.145919
0.012337,0.090290,-0.177959,-0.838482,0.376745,0.393714
0.083648,0.121472,-0.740988,0.982580,0.113859,0.146878
-0.284604,0.322042,0.699005,0.100743,0.889419,0.445853
0.120320,0.439086,0.096562,0.593387,0.531264,-0.604691
0.309275,-0.235894,0.031487,0.339235,-0.122632,-0.932674
-0.396647,-0.047740,0.837604,-0.390541,-0.820614,-0.417218
0.026549,-0.352297,0.177235,0.939407,0.282068,-0.194813
-0.573789,-0.118267,-0.422548,-0.315023,0.127814,-0.940438
-0.564868,-0.517372,0.466178,0.562171,-0.457819,-0.688742
-0.014736,-0.133017,-0.400362,0.635292,-0.771392,0.036845
0.030919,0.312543,-0.189070,-0.241237,0.151122,0.958627
0.045255,0.735136,0.708089,-0.632274,0.387204,0.671046
-0.320597,-0.374564,0.145711,-0.252319,0.088719,-0.963568
-0.149731,0.108825,0.852154,0.798071,0.471231,-0.375531
-0.661221,-0.029496,0.833171,0.886657,0.169172,0.430373
0.057499,0.535612,0.332827,0.001119,0.496121,0.868253
-0.566959,0.013523,0.804361,0.353125,0.468488,-0.809828
0.289525,0.753088,0.576583,-0.375527,0.409806,0.831287
0.082295,0.540625,0.546272,-0.150913,0.034999,0.987927
-0.151147,0.528678,0.938346,0.821926,-0.323035,0.469134
0.391969,-0.083762,0.609555,-0.222422,0.233008,0.946697
-0.514905,-0.122291,0.816305,-0.616111,-0.011902,-0.787569
0.232242,0.205931,0.748263,-0.138818,0.336956,0.931231
0.434795,-0.536548,0.081071,0.548233,-0.019617,-0.836095
-0.065990,-0.020987,0.540572,0.895351,-0.391180,0.212895
0.023041,0.208848,0.705049,0.523400,0.645678,-0.556015
-0.239133,0.243472,-0.853131,-0.233612,0.848978,0.473986
-0.025073,-0.413734,-0.781379,0.252659,-0.364046,0.896457
0.228056,-0.467476,-0.599349,0.821594,0.557880,-0.117275
-0.686202,-0.151378,0.723525,-0.044491,0.492140,0.869379
-0.093985,0.111212,-0.986446,0.439565,-0.209436,-0.873453
-0.045193,-0.176848,-0.002733,0.978672,-0.001076,-0.205427
-0.375603,-0.074842,0.293920,-0.346199,0.899097,-0.267902
0.339117,0.322042,-0.751918,-0.215222,-0.222947,0.950776
0.097001,0.296338,0.932971,-0.377665,0.394286,-0.837799
-0.517489,-0.451680,0.451954,0.245296,-0.391159,-0.887031
-0.062421,-0.090407,0.430185,0.982605,-0.155145,0.102065
0.106968,-0.166182,-0.810550,-0.180343,-0.502948,0.845292
-0.102968,0.085683,-0.981144,-0.336048,0.203169,0.919671
-0.134841,-0.137503,0.332736,0.874356,-0.436631,0.211792
-0.149977,0.224292,0.879750,0.953373,0.265995,0.142570
0.057868,-0.302753,-0.944969,-0.362312,0.095841,0.927116
-0.326073,-0.034684,0.888527,0.531915,0.675180,-0.511076
-0.037872,-0.722023,-0.147720,-0.350217,0.387996,0.852530
-0.048638,-0.001341,-0.094571,0.927248,-0.278990,0.249752
-0.234271,-0.076710,0.570521,0.582159,0.813072,0.002187
0.442856,-0.394092,-0.903076,-0.430945,0.197266,0.880552
0.060821,-0.212929,-0.789794,0.404202,0.861259,-0.307983
0.110783,0.657903,0.564368,-0.591541,0.688251,-0.419988
-0.382802,-0.260783,-0.171643,0.003753,-0.021627,0.999759
-0.434486,-0.063476,0.348407,0.650726,-0.428382,0.626932
0.035594,0.317147,-0.153420,-0.403451,0.131727,-0.905469
-0.536749,-0.680754,0.597231,-0.292490,-0.117592,0.949011
0.138716,0.328862,0.936790,-0.029769,-0.644836,0.763741
-0.415229,0.283047,0.958487,-0.505313,-0.606269,0.614082
-0.562652,-0.193462,0.364821,-0.548304,0.054036,-0.834531
-0.227442,0.472837,0.860948,-0.690873,0.259556,-0.674778
0.191570,0.609174,0.363970,0.358149,0.799820,0.481681
-0.102046,0.317674,0.376620,-0.459534,0.014994,0.888034
-0.383110,0.065806,-0.478610,0.278880,0.013463,0.960232
0.237101,0.210538,0.580329,-0.568865,-0.206589,0.796062
-0.633164,-0.481465,-0.220177,-0.266173,0.497965,-0.825338
0.357391,-0.165193,0.611256,-0.090469,0.253714,0.963039
0.162590,0.438214,0.741839,-0.399458,-0.097611,0.911540
0.165543,-0.043542,-0.418531,0.814631,-0.168486,-0.554967
0.009383,0.593203,-0.226873,0.220304,0.198340,-0.955054
-0.343363,-0.105036,0.821118,0.837275,0.511639,0.192863
0.128933,0.010491,-0.949837,-0.412810,0.235465,0.879855
-0.258822,-0.154466,0.455682,0.823429,0.139385,0.550033
0.152685,0.343787,0.881053,0.185945,-0.386701,0.903264
0.072328,-0.608999,-0.928393,-0.275086,0.191453,0.942164
-0.045379,0.030599,-0.971064,-0.369638,0.111328,0.922482
-0.217597,0.038060,0.820702,0.667975,-0.616600,0.416671
-0.047162,-0.160760,0.024321,0.904119,0.398275,0.154742
-0.569235,-0.038939,0.789414,-0.098178,-0.781252,0.616446
0.006613,-0.183145,-0.469055,0.936982,-0.343083,0.066021
-0.142902,0.508044,0.935957,0.806688,0.571399,-0.150858
-0.835041,-0.101190,0.788057,-0.128575,0.228552,0.965004
0.003414,-0.158604,-0.617626,0.864177,-0.500239,0.054399
-0.429935,-0.097167,0.762812,0.078032,0.923154,0.376428
-0.368836,-0.195444,0.569761,-0.119908,0.900031,0.419006
0.131703,-0.696258,0.155646,-0.380193,0.614664,0.691116
0.291247,-0.406971,-0.919707,0.435653,-0.135584,-0.889845
-0.198215,0.134120,-0.199204,0.284097,0.470376,0.835485
0.142716,0.369434,-0.174376,0.353126,-0.082900,-0.931896
-0.424212,0.622348,-0.280619,0.459024,-0.118337,-0.880507
-0.085434,0.187047,-0.983804,0.389607,-0.210403,-0.896625
0.227564,0.694333,0.575317,0.414756,-0.049349,-0.908594
0.168067,0.761480,0.552895,-0.494600,0.585294,0.642497
-0.045317,0.523431,0.941133,0.953184,0.278875,0.116913
-0.082911,0.213043,0.087821,-0.384633,-0.411108,0.826467
0.025257,0.263170,0.929045,-0.736864,-0.452862,0.501945
0.295062,-0.304500,-0.920503,-0.236035,0.031469,0.971235
-0.059099,-0.155747,0.099819,0.424088,-0.593410,0.684115
-0.010183,-0.154641,-0.404940,-0.706623,0.687145,-0.168865
0.150839,-0.102066,-0.777615,-0.471482,0.881129,-0.036295
-0.655929,-0.202495,0.731723,-0.262442,0.401765,0.877331
-0.304783,0.261541,0.865545,-0.197572,0.970748,0.136429
-0.540070,0.348447,0.232628,-0.586879,0.215555,0.780454
0.009629,-0.148055,-0.621462,0.856248,-0.516557,0.002864
0.092631,-0.212229,-0.937405,0.484876,0.534398,-0.692325
0.444885,0.020108,0.900633,0.618801,-0.228502,-0.751579
-0.139578,-0.166473,-0.263247,-0.200459,-0.859739,-0.469750
0.412583,0.429644,-0.730329,-0.110162,-0.439146,0.891636
-0.406000,-0.101073,0.819834,-0.102486,0.984917,0.139413
-0.219689,0.260723,0.821915,0.844278,-0.427583,0.323059
0.118288,-0.279728,-0.941821,0.459728,-0.015495,-0.887925
-0.006861,0.598682,0.325136,-0.045127,0.397766,0.916377
0.066913,-0.113432,-0.793377,0.233188,-0.972222,0.020174
-0.208676,-0.116638,0.712649,0.954758,-0.194359,0.225081
-0.179265,0.288003,0.064550,0.439203,0.154315,-0.885035
0.046977,-0.317909,-0.947467,0.369649,-0.119568,-0.921446
-0.001446,0.334633,0.224448,-0.717745,0.453685,-0.528217
-0.123336,-0.097693,0.218657,0.484448,0.816552,0.313931
0.283556,-0.435823,0.060532,0.606601,0.013147,-0.794897
0.200923,-0.362557,0.257601,0.271641,0.761076,0.589045
-0.150039,0.032581,0.794933,0.863952,-0.331518,0.379055
-0.065990,-0.439730,-0.950688,0.362532,-0.227132,-0.903870
-0.362067,-0.624621,-0.229913,0.183503,0.231402,0.955395
-0.467590,0.177836,0.932953,0.265694,-0.963909,-0.016908
0.095707,0.074490,0.589160,-0.502660,0.492077,-0.710769
-0.156868,0.169618,0.609881,0.945374,0.301299,0.124447
-0.238763,0.043773,0.818132,0.366283,-0.800421,0.474514
0.018182,-0.100084,-0.331270,0.990001,-0.060233,0.127557
0.007107,-0.148169,-0.627416,0.836541,-0.547438,0.022582
-0.228980,-0.081780,0.720576,0.792494,-0.409333,0.452106
0.232242,-0.230123,0.207474,-0.034762,-0.026364,0.999048
-0.005629,-0.038704,-0.178990,0.188368,0.012078,0.982024
0.183203,-0.157672,0.493684,-0.203089,-0.645784,0.736015
0.041747,-0.143217,-0.171444,0.878321,-0.349691,0.325988
0.260790,0.313184,0.894408,-0.009129,0.660052,0.751164
0.094293,-0.684368,0.096453,0.568197,-0.169391,0.805269
-0.001200,0.479305,0.706352,-0.485896,0.740251,-0.464686
0.233409,0.446315,-0.088563,-0.200657,0.868039,0.454142
-0.036394,-0.231465,-0.312722,0.974770,-0.222987,-0.010023
0.520135,-0.500409,-0.895621,-0.172796,0.102928,0.979565
0.303553,0.046395,0.474756,-0.093942,0.928833,0.358392
-0.547332,-0.186001,-0.029388,0.003803,-0.722956,0.690884
0.148499,0.125436,0.756026,0.502302,-0.563994,-0.655441
-0.616490,0.140709,0.019436,-0.032069,0.026618,0.999131
-0.466237,-0.436058,0.459664,0.212318,-0.519016,-0.827976
-0.790678,-0.043777,0.782356,0.176670,-0.365323,0.913962
-0.552993,-0.244464,0.788219,-0.348299,-0.519278,-0.780409
-0.256423,0.192700,0.221879,0.539097,-0.034718,0.841528
-0.265282,-0.179064,-0.459121,-0.234639,0.317030,-0.918932
0.031349,0.529084,0.875823,0.256231,-0.443539,0.858847
0.144932,-0.444045,-0.928574,-0.293996,0.051163,0.954436
0.041193,0.502273,0.348136,-0.302654,0.744767,0.594746
0.180126,-0.107310,0.041495,0.006542,0.310872,0.950429
-0.511583,0.358124,0.953746,0.262924,-0.132952,0.955612
-0.159576,-0.384415,-0.160749,-0.734982,-0.659217,0.158854
0.150161,0.543016,0.412704,-0.224733,0.785776,0.576239
-0.083834,-0.096469,0.133695,0.788706,0.498399,0.359918
-0.460021,0.160059,-0.290246,0.181518,-0.196671,0.963521
-0.043963,-0.401378,-0.465852,0.904300,0.124364,0.408381
0.404830,-0.354744,-0.912396,0.311286,-0.181276,-0.932867
0.154776,-0.223246,-0.128447,0.158786,0.402801,0.901409
-0.195140,0.318022,0.819019,0.907900,-0.197087,0.369966
0.261466,0.435357,-0.383750,-0.177281,0.098669,0.979202
-0.004830,-0.606552,-0.938473,0.369467,-0.033092,-0.928654
0.012091,0.548612,-0.237061,-0.130054,-0.131698,0.982722
-0.459099,0.260723,0.955646,0.338644,0.224155,-0.913824
-0.277712,-0.025355,0.858994,-0.599239,0.255741,0.758623
-0.436764,-0.439033,-0.323525,-0.012488,0.200727,0.979568
-0.063959,-0.058580,0.104741,0.149265,0.726628,0.670621
-0.078789,0.019350,-0.512504,0.210863,-0.143279,0.966958
0.248178,0.432910,0.722259,0.636468,0.195496,0.746116
0.180925,-0.134533,-0.928791,0.097368,0.208289,0.973209
0.006921,-0.148927,-0.192436,-0.582415,0.805969,0.105863
-0.369574,0.213570,0.917047,0.454194,-0.807767,0.375793
-0.212490,0.362031,0.582881,-0.519701,-0.455637,-0.722707
-0.079403,-0.187922,-0.965762,-0.401197,0.215441,0.890296
0.018612,-0.126603,-0.440156,-0.676741,0.723825,0.134528
0.007721,-0.157206,-0.642200,-0.692318,0.720348,0.042357
0.246638,-0.258684,-0.534003,-0.092063,0.762089,-0.640893
0.094477,0.657786,0.573923,-0.328470,0.431790,-0.840039
-0.033564,0.432444,0.868657,-0.259823,-0.939220,0.224404
-0.096631,0.098800,0.178447,0.217179,-0.842022,0.493794
-0.061067,0.199520,-0.146218,0.846636,0.499364,0.183966
0.010367,0.041735,-0.776638,0.146767,0.389576,-0.909225
-0.046179,-0.141819,0.268675,0.862070,0.489086,0.132781
0.211382,0.262939,0.602208,0.292861,-0.335716,-0.895281
-0.057561,0.086501,0.187296,0.318231,-0.648726,0.691291
-0.508568,-0.507169,0.608632,-0.619566,-0.310577,0.720888
0.277526,0.322217,0.568947,-0.045228,0.467371,0.882904
-0.094477,0.297619,0.562106,0.760351,0.101527,0.641528
0.215319,-0.354278,-0.928411,-0.309880,0.167528,0.935900
-0.225104,0.159127,-0.502135,0.227306,-0.155728,0.961291
-0.002616,-0.136746,-0.324701,0.929932,-0.201433,0.307655
-0.598216,-0.338365,0.104832,0.062253,-0.041113,0.997213
0.003354,-0.156039,-0.424104,0.707962,-0.706234,-0.004826
0.424642,-0.377247,-0.906895,-0.435432,0.254316,0.863552
0.009075,-0.192003,-0.021010,0.894485,0.264672,-0.360341
0.371912,-0.694803,-0.148824,0.433114,-0.075937,-0.898135
-0.272173,-0.008161,0.796001,0.011494,-0.877684,0.479101
0.085924,0.655395,0.546073,0.447496,0.178978,-0.876193
-0.094909,-0.268888,-0.771625,-0.257165,0.869479,0.421749
0.046547,0.561960,0.696670,0.782921,0.255904,-0.567051
-0.267251,-0.707333,-0.173489,-0.275074,0.714451,0.643346
-0.042733,-0.048032,-0.314984,0.866455,0.286052,0.409182
-0.269651,0.125205,0.810387,-0.100843,0.437452,-0.893569
-0.329518,-0.102649,0.335975,0.953619,-0.150466,-0.260712
0.238701,-0.442821,-0.923688,-0.317897,0.097629,0.943085
-0.471588,0.171952,0.029533,-0.168164,-0.191855,0.966909
-0.533857,-0.220333,0.589776,-0.205386,0.964114,-0.168231
0.346685,-0.498719,0.084401,-0.473771,-0.028020,0.880202
-0.303061,0.274946,0.858596,0.067732,0.997366,0.025951
-0.450793,-0.404406,0.795946,0.004602,-0.817377,0.576085
-0.706691,0.022207,0.809971,0.295574,-0.400143,0.867480
-0.131887,0.438911,0.377633,0.461816,-0.160912,-0.872258
-0.229780,0.011249,0.797032,-0.425027,0.877255,-0.223105
-0.957915,-0.608651,0.423254,-0.138655,-0.010464,0.990285
0.147699,0.671016,0.562649,-0.324302,0.245543,0.913530
-0.213352,0.529728,-0.237731,0.300494,0.387735,-0.871415
0.411967,0.085277,0.451556,-0.313500,-0.648824,-0.693358
0.098969,-0.082655,0.541422,0.169617,-0.984018,-0.054213
-0.003661,0.227789,0.537441,0.069596,-0.175042,0.982098
-0.383540,-0.297566,0.792526,-0.078139,-0.188233,0.979011
-0.765390,-0.014167,0.809120,0.062825,-0.727004,0.683753
0.117121,-0.103930,-0.931849,0.217413,0.552539,0.804632
-0.181725,0.244578,0.781524,0.949557,-0.274999,0.150722
0.189416,0.278910,-0.766051,-0.310424,-0.124324,0.942433
0.112937,-0.690022,-0.917807,-0.169267,0.207235,0.963536
0.264852,-0.166007,-0.933460,-0.227587,0.181004,0.956787
-0.127887,-0.096935,0.483370,0.981161,0.161979,0.105289
-0.481127,-0.452961,0.459102,0.234553,-0.425996,-0.873792
0.112813,-0.066219,-0.683315,0.222442,0.142762,-0.964437
-0.086786,-0.440836,-0.949493,0.386068,-0.217684,-0.896418
0.010613,-0.150677,-0.683985,0.688044,-0.718320,0.103009
-0.642333,-0.043891,0.820539,0.365653,0.795017,0.483989
0.097615,0.319538,0.903782,0.996221,0.002160,-0.086824
-0.289525,-0.126197,-0.169978,0.802603,0.559262,-0.207496
-0.768344,-0.073793,0.782030,-0.539102,-0.001006,0.842240
-0.368712,-0.739217,-0.219870,-0.244986,0.491191,0.835891
-0.617536,-0.076650,-0.415201,0.068070,-0.987989,0.138720
0.005999,-0.159828,-0.435831,0.851790,-0.513535,-0.103608
0.272051,0.349671,0.877687,-0.390626,0.878002,0.276629
0.035840,0.244055,-0.074774,0.984883,-0.127457,0.117306
0.289155,0.229305,0.399493,-0.492118,0.743958,0.452048
0.106906,0.322975,0.937713,-0.436996,0.836622,-0.330300
0.087278,0.274071,-0.173019,-0.053404,-0.047284,0.997453
-0.490478,-0.366346,0.806153,-0.265587,0.525064,-0.808562
-0.587325,0.345185,0.025099,-0.311921,-0.275028,0.909431
0.011659,0.282115,0.939902,0.813379,0.529358,0.241234
0.043963,0.640709,0.692345,0.441042,-0.854249,-0.275209
-0.014798,-0.058933,-0.270376,0.986249,0.026376,0.163148
-0.266881,-0.086270,0.776873,0.129912,0.928314,0.348361
-0.075157,0.409767,0.551249,-0.409029,0.088694,-0.908201
-0.017506,0.488516,0.349059,0.043467,-0.774516,-0.631059
0.445439,0.216074,0.088509,0.045580,0.289384,-0.956127
0.226150,0.281766,0.764350,-0.026698,0.519191,0.854241
-0.246148,0.434073,0.909320,0.246394,-0.379285,-0.891870
0.182833,-0.246620,-0.934021,-0.179589,0.009251,0.983698
0.564928,-0.470333,-0.893341,-0.142027,0.165530,0.975924
-0.305031,0.393562,0.903167,-0.517096,0.410543,0.751044
0.072512,-0.638030,-0.926023,0.233933,-0.173815,-0.956590
0.035840,0.329097,0.912378,0.262543,-0.598523,0.756863
0.100631,0.044997,-0.690373,-0.156302,0.625044,0.764781
-0.085680,0.166413,-0.985613,0.336668,-0.231983,-0.912600
0.309829,-0.149336,0.510876,0.132240,0.324823,-0.936484
-0.095463,-0.166239,-0.468151,-0.133043,0.514608,-0.847040
-0.124258,0.055724,-0.979008,-0.384789,0.138116,0.912612
0.022858,0.303158,0.926529,0.796676,-0.431680,-0.423036
0.015966,0.299021,0.170051,0.762469,-0.480131,0.433722
0.197046,0.332886,0.869852,-0.580772,0.685407,-0.439227
0.018550,-0.251516,-0.953619,0.542910,-0.070707,-0.836809
-0.118351,0.344484,0.389957,-0.521335,0.127794,0.843729
0.099093,-0.186468,0.626022,0.040450,0.089528,-0.995163
-0.082172,0.458731,0.910731,-0.712310,0.694706,0.099990
0.503831,-0.374216,-0.900072,-0.252383,0.260990,0.931766
0.102106,-0.402367,-0.185722,-0.524344,0.325928,0.786660
-0.044701,-0.075426,0.401050,-0.726079,0.256849,-0.637839
0.254883,-0.241839,-0.925498,-0.200484,0.369680,0.907272
0.280480,-0.441654,-0.917282,-0.408690,0.042226,0.911696
-0.548869,-0.482863,0.613192,-0.223596,-0.462994,0.857696
-0.255131,-0.067617,0.765834,0.929572,-0.281536,0.237979
-0.330872,-0.006528,0.324701,-0.646733,0.678801,-0.347803
-0.250515,-0.704071,0.623417,-0.022004,0.037085,0.999070
-0.382680,0.010200,0.076873,-0.079653,-0.907789,0.411793
0.389570,0.583993,0.341097,-0.477072,-0.876255,-0.067670
-0.235995,-0.090290,0.736790,0.747917,-0.652913,0.119685
0.212490,-0.511018,-0.922240,0.297626,-0.140393,-0.944303
-0.516075,-0.429765,0.455881,0.243125,-0.422210,-0.873286
0.337455,-0.538412,-0.909718,0.189149,-0.081140,-0.978590
-0.519335,-0.448649,0.447684,0.245296,-0.391159,-0.887031
0.021136,0.189086,0.085577,0.351278,-0.120363,0.928502
-0.571881,-0.102179,0.766703,-0.525160,0.416972,0.741850
-0.493556,-0.168804,0.779986,0.255072,-0.016429,0.966782
-0.441810,-0.090115,0.340119,0.772102,0.144695,0.618806
-0.103522,-0.254198,0.612685,0.706476,0.584926,-0.398438
0.176988,0.284680,0.923598,0.132681,0.207507,0.969194
0.032332,0.058929,0.596978,-0.019917,0.513411,0.857912
-0.299678,-0.038878,0.807890,0.799414,-0.576406,0.169390
-0.037134,0.423176,0.965979,0.898727,0.403054,-0.172735
0.107522,0.092446,-0.404216,0.733539,0.437626,-0.520004
-0.302815,-0.269702,0.814513,0.690010,0.140809,-0.709971
0.307061,-0.504081,-0.909645,0.343374,-0.100349,-0.933823
-0.782003,-0.128236,0.784926,0.273937,0.434325,0.858091
0.233595,-0.037829,0.206334,0.191232,0.169445,0.966809
-0.425935,-0.139545,0.859754,0.910380,0.147284,0.386672
-0.400400,-0.228142,0.767010,-0.505610,-0.796541,0.331483
-0.219813,0.055898,0.840246,0.937368,-0.322473,0.131730
-0.020582,0.107715,0.562360,0.690075,-0.586144,-0.424537
0.239255,-0.877535,-0.302190,-0.090589,-0.038975,-0.995125
0.176742,0.661809,0.568603,0.395421,-0.122856,-0.910246
0.496877,0.197713,0.899077,-0.433123,-0.356507,0.827833
-0.052884,-0.155690,0.218042,0.783156,0.621548,-0.018571
-0.191570,0.146188,-0.993322,-0.281473,0.161720,0.945843
-0.130349,-0.251807,0.330203,-0.196317,0.158071,0.967716
-0.091402,0.221030,-0.989667,-0.459794,0.094834,0.882947
-0.034980,-0.345886,0.119816,0.206419,0.019781,0.978264
0.023657,-0.126428,-0.442780,-0.650721,0.755190,0.079060
-0.157668,0.577230,0.944553,0.644480,-0.505440,-0.573739
-0.107030,0.561434,0.932193,0.040784,-0.742565,0.668531
0.046363,0.016319,0.738581,-0.772998,0.576290,0.265261
-0.006123,0.458849,0.827723,-0.640488,0.323619,-0.696452
0.018736,0.416822,0.557582,-0.226626,0.601359,-0.766164
0.204245,-0.072338,0.027380,0.452487,-0.564298,-0.690524
-0.128873,0.157088,0.687496,0.950246,-0.205032,0.234507
0.199445,0.338774,-0.068512,-0.286159,-0.069671,-0.955646
0.061067,-0.737993,0.110496,0.848596,0.180080,0.497450
-0.125858,0.097515,0.647792,0.967479,-0.239482,0.081442
-0.282942,-0.368911,-0.164079,-0.002545,0.888364,0.459133
-0.069682,0.409941,0.876801,0.101642,-0.062411,0.992861
-0.574220,-0.246385,0.247304,-0.676992,0.344558,0.650355
0.022735,-0.176791,-0.935577,0.957325,0.226188,-0.179912
-0.027043,-0.012007,0.406859,0.347508,-0.196425,0.916873
-0.452760,0.033456,0.021100,0.031349,-0.116921,0.992646
0.099707,0.597167,0.362414,-0.448028,0.882930,0.140380
-0.083956,0.126720,0.645784,-0.749015,0.631073,0.201799
0.057621,0.034740,0.410007,-0.723680,0.222298,-0.653354
-0.529734,-0.234264,0.588364,-0.253376,-0.478885,-0.840518
-0.035348,-0.142399,0.009609,0.933336,-0.263616,0.243703
-0.343117,-0.180053,0.836627,-0.472470,0.495117,-0.729130
0.339178,-0.504490,-0.911147,-0.153710,0.021326,0.987886
-0.035902,0.083060,-0.133460,0.794215,0.584511,-0.166041
-0.123396,0.168395,0.900253,-0.493766,-0.838596,0.230111
-0.162468,-0.146540,0.123000,-0.418455,0.874971,-0.243559
-0.433441,0.255596,-0.278755,0.235052,-0.313925,0.919892
-0.431349,0.319246,-0.089613,-0.178261,-0.058611,-0.982236
0.277157,0.533983,0.413753,-0.169794,0.982649,-0.074642
-0.680480,-0.284566,0.846019,0.242004,-0.529349,0.813157
-0.152193,-0.091105,-0.979135,0.276620,-0.065692,-0.958731
-0.534717,-0.335804,0.097973,0.108120,-0.059664,0.992346
0.025381,0.351304,0.087369,0.307986,0.158050,0.938171
-0.191386,-0.188388,0.107926,-0.529038,0.666662,-0.525053
0.406184,0.470969,-0.721915,0.919378,-0.266847,0.289026
-0.027043,-0.156857,-0.313862,0.984413,-0.172315,0.035199
-0.196124,0.108533,0.537604,0.445926,0.343828,0.826397
0.355975,-0.605097,-0.902533,-0.185257,0.280451,0.941821
0.127825,0.663499,0.713301,-0.256718,0.224727,0.939997
0.006121,-0.192704,-0.627796,0.960165,0.265166,0.088144
-0.410859,-0.705992,0.595621,0.301093,0.434925,-0.848636
-0.211384,-0.099440,-0.051574,0.478049,0.195718,0.856250
-0.171574,-0.099675,-0.980583,0.276620,-0.065692,-0.958731
0.108444,0.459606,0.548064,0.533861,-0.038010,-0.844718
0.115951,0.673699,0.566558,0.718278,-0.645102,0.260615
0.157914,0.238516,0.084021,-0.179369,0.132496,-0.974819
0.282510,-0.092332,-0.694046,-0.416234,-0.576627,-0.703030
-0.008029,-0.199232,-0.573417,0.849960,-0.520439,-0.081923
-0.086480,-0.197425,0.431976,-0.524263,0.820661,0.227296
-0.791478,-0.167815,0.767499,-0.683167,0.697531,-0.216180
-0.606215,-0.245628,0.591820,0.070197,0.942845,0.325755
-0.013936,-0.062661,-0.325208,0.780556,0.619511,0.083296
0.001568,-0.181629,-0.603999,0.983020,0.180200,-0.034631
-0.204493,-0.120249,0.191748,0.057083,0.997598,-0.039252
-0.041993,0.086266,-0.972530,-0.321123,0.197254,0.926267
0.013383,-0.143566,-0.564350,0.967526,-0.248761,-0.044844
-0.060453,-0.109935,0.426421,0.973044,-0.227530,-0.037628
0.271743,-0.669213,-0.909645,0.365932,-0.048058,-0.929400
0.518597,-0.405982,-0.897285,-0.163475,0.186880,0.968686
-0.501923,-0.083295,0.824539,0.227682,0.046964,0.972602
0.296416,-0.227619,-0.924502,-0.243990,0.285493,0.926803
-0.506168,0.125671,0.836211,0.311586,-0.709817,0.631723
0.022673,0.595359,-0.229262,0.220304,0.198340,-0.955054
0.011783,0.729248,0.566486,-0.040956,-0.919639,0.390624
0.096507,0.270865,-0.445024,0.961402,-0.217117,-0.169017
-0.412521,-0.257055,-0.323109,0.110506,-0.068255,0.991529
0.325089,-0.423934,-0.911600,-0.237899,0.100381,0.966089
-0.050854,0.132081,-0.974303,0.318885,-0.183341,-0.929892
-0.321581,0.236011,0.704560,0.037587,0.430355,0.901877
0.223319,0.320121,0.891567,-0.142321,0.440452,0.886424
-0.293954,-0.632782,0.603257,-0.026918,-0.317421,0.947903
-0.552931,0.050127,0.022928,0.300124,0.036463,0.953203
-0.132441,0.047271,-0.779171,-0.014195,-0.003860,0.999892
0.280542,0.802810,0.566015,-0.707343,0.601234,0.371731
-0.043717,0.761189,0.585270,-0.070204,0.721543,0.688801
-0.173542,0.443166,0.903565,0.783615,-0.407705,-0.468748
-0.325889,0.131964,-0.097448,0.155361,-0.007073,0.987832
-0.364590,-0.096992,0.294354,-0.200365,0.967625,-0.153482
0.022058,-0.126720,-0.592002,0.532883,-0.844683,0.050463
-0.035472,0.642865,0.786518,-0.507372,-0.294133,-0.809975
