-0.259208,0.450706,0.383319,0.653276,-0.647944,0.391661
-0.232937,0.017044,0.659728,0.726015,0.666259,-0.170297
-0.217062,-0.303644,0.571558,0.394193,-0.821935,0.411139
-0.593399,-0.139847,0.459819,0.820934,0.305890,-0.482181
-0.478753,-0.321750,0.002959,0.377911,0.059178,-0.923949
-0.046810,-0.275931,0.877289,0.798025,0.526472,0.293230
-0.232890,-0.345036,0.530585,0.066754,0.299754,0.951678
-0.095083,0.958299,0.498305,0.990913,0.126787,0.044907
-0.415582,0.065918,0.874042,0.858285,0.510087,0.056194
-0.745967,-0.625614,0.654674,0.017737,0.975939,0.217322
0.027269,-0.163132,0.811515,-0.358434,-0.042727,-0.932577
0.486180,0.281332,0.727536,-0.294728,0.645442,0.704656
-0.499223,-0.793528,0.736228,-0.481363,-0.455259,-0.749019
0.204251,0.350791,0.754536,-0.594798,-0.347186,-0.725037
0.351992,-0.500465,0.307251,0.425482,-0.039306,0.904113
-0.764720,-0.617424,0.629338,-0.174322,-0.806569,-0.564853
0.413771,0.033511,-0.149526,0.921684,-0.264977,0.283348
0.107382,0.553589,0.421004,0.061322,0.671010,0.738908
-0.189120,0.570588,0.666304,-0.645503,0.735202,0.206891
-0.476897,0.428395,0.369902,0.961526,-0.230316,-0.149740
-0.014552,-0.401346,0.527483,-0.762745,0.562445,0.319180
0.429553,0.140821,-0.993610,-0.163147,0.089946,0.982493
-0.040126,0.499624,0.719050,0.623431,0.768155,-0.145846
-0.228620,0.564434,0.172478,-0.192302,0.009768,-0.981287
0.056929,-0.098941,0.619763,-0.268707,-0.961130,-0.063451
0.685813,0.403472,-0.972589,0.190947,-0.112845,-0.975093
-0.567314,-0.611270,0.437401,-0.553368,-0.729067,0.402796
-0.034603,0.450175,0.840117,0.828907,0.428234,0.359902
-0.481121,0.051574,0.369388,0.932833,-0.065174,-0.354366
-0.393349,-0.089114,0.796022,0.588804,0.643924,0.488541
-0.727309,-0.269025,-0.000185,-0.197525,-0.120720,-0.972836
0.163127,-0.035726,0.214170,-0.683318,-0.551312,-0.478676
0.092158,-0.579220,0.108965,0.811671,-0.201576,-0.548231
0.531388,0.060118,-0.407319,0.450305,0.881577,-0.141591
0.742765,0.180840,-0.972384,0.036453,0.039759,0.998544
-0.445473,0.200363,0.673865,-0.005726,0.433553,0.901110
0.075309,0.475409,0.803707,0.712468,0.596010,0.370354
-0.632992,-0.563726,0.589352,-0.419810,0.445281,0.790876
-0.288217,-0.792864,0.394127,0.848981,-0.096074,-0.519617
-0.137089,0.220328,0.674626,-0.390073,-0.278545,0.877642
0.305948,0.141352,0.329525,0.721814,-0.138254,-0.678138
0.374782,0.077737,-0.237348,0.338401,0.878293,0.337766
0.225371,-0.281420,0.570119,-0.098997,0.701755,-0.705506
-0.893290,-0.198106,0.245813,-0.344849,0.447522,0.825108
-0.028012,-0.846430,0.870220,0.848520,-0.154854,-0.505999
0.536215,0.157776,-0.662646,0.917759,-0.393658,0.052458
-0.736499,-0.598743,0.619968,0.017399,0.721327,0.692376
0.653554,0.174466,-0.968089,-0.232263,0.173546,-0.957045
0.397944,0.328081,0.619742,-0.036609,0.944369,0.326843
-0.294437,-0.400195,0.722420,-0.498339,0.857001,-0.131181
-0.307944,0.469698,0.678653,0.595616,0.784629,0.172042
0.928891,0.324937,0.192800,-0.619038,0.228156,0.751490
-0.286639,0.311789,0.322929,0.406621,0.909739,-0.083872
0.339785,0.439861,-0.208560,0.924072,0.373155,-0.082747
-0.371904,0.349020,0.572010,-0.594610,0.355879,-0.720964
-0.076377,0.316792,0.513777,0.194335,-0.009620,0.980888
-0.133190,-0.200054,0.911521,0.819245,0.320390,0.475592
-0.309569,0.231572,0.365586,-0.141939,-0.549341,0.823455
-0.153009,-0.692727,0.819077,0.813273,0.289331,-0.504851
-0.786256,-0.242021,0.296854,-0.504980,0.244176,-0.827873
0.220543,0.152419,0.085951,-0.455164,0.679871,0.574980
0.245608,0.029616,-0.074383,0.027848,-0.502528,0.864112
0.447422,0.268583,0.724947,0.011986,0.909788,0.414901
-0.433730,-0.036035,0.834138,0.227974,-0.654866,0.720540
0.277913,0.309088,0.604393,-0.205706,-0.977146,0.053573
-0.831186,-0.056488,0.403497,0.455156,0.700791,0.549296
0.399336,0.731817,0.373826,0.306588,-0.209885,0.928414
0.261296,0.312674,0.556845,0.958659,0.239473,-0.153703
-0.033628,0.388242,0.873487,0.800191,0.068603,0.595808
-0.187403,-0.167161,0.800522,-0.639366,-0.588640,0.494685
-0.540532,-0.236443,0.681653,0.750307,0.634248,0.186464
-0.320986,0.333216,0.322559,0.304525,0.947259,-0.099823
-0.279631,-0.659259,0.618057,0.911495,-0.282419,0.299027
-0.107614,-0.215769,0.882076,0.815200,0.439247,-0.377506
-0.415674,0.346010,0.374134,-0.734740,0.676414,0.051200
-0.458470,-0.277347,0.429141,-0.177042,-0.529733,-0.829481
0.701965,0.389704,-0.974788,-0.100408,-0.013629,0.994853
-0.627515,0.329673,0.376210,-0.616812,0.359439,0.700248
-0.738541,-0.531586,0.603838,-0.634628,-0.530611,-0.561871
0.106918,0.411173,0.796597,0.607817,0.108137,-0.786680
0.131286,0.411395,0.759693,0.467031,0.872149,-0.145731
-0.545916,-0.292620,0.242690,-0.806477,0.494168,-0.324642
-0.475457,0.238257,0.334189,-0.719963,0.172574,-0.672214
0.316809,0.278233,0.713111,0.374240,-0.066819,-0.924922
-0.762862,-0.402851,0.606283,-0.625347,-0.272343,-0.731280
0.021978,0.556688,0.784556,0.238837,0.169779,0.956103
-0.361043,0.505158,0.655721,0.947747,-0.179914,0.263450
0.189909,-0.130240,0.784310,0.945615,0.062216,-0.319283
-0.094432,-0.677099,0.783447,0.009789,0.742450,0.669830
-0.655550,-0.361283,0.631763,-0.494014,0.868898,-0.031097
-0.298707,-0.022932,0.765961,0.956065,-0.254555,-0.145403
-0.491796,-0.274868,0.657817,-0.608085,0.756332,-0.241234
0.225602,-0.318031,0.591160,0.843098,0.531935,0.078940
-0.494627,-0.265484,0.017240,-0.096557,-0.064496,0.993236
0.186010,0.319669,0.545297,0.090119,0.930382,-0.355341
-0.284318,0.433530,0.604003,0.530628,0.846136,-0.049873
-0.471976,0.610386,0.539051,-0.407490,-0.912536,0.035065
-0.140152,-0.459561,0.488955,0.197092,0.216019,0.956290
-0.089512,-0.010978,-0.103992,0.413633,0.347288,-0.841605
-0.681635,-0.220196,0.266217,-0.501362,0.761250,-0.411261
-0.694353,-0.369251,0.422771,-0.234147,-0.659800,0.714030
-0.907447,-0.160432,-0.064150,0.314576,0.125862,-0.940851
0.364478,-0.074638,-0.135862,0.924989,0.002500,0.379985
-0.738680,-0.169374,0.359566,0.705037,0.702211,0.099109
-0.532642,0.379344,0.375100,-0.331952,0.692857,0.640122
-0.163359,0.331711,0.642509,0.160477,0.739584,0.653653
-0.317552,-0.068883,0.802536,0.991019,0.005342,-0.133614
-0.522894,-0.497632,0.555715,-0.182482,0.921036,0.344083
0.049270,0.336757,0.450182,0.817118,0.541461,0.197834
0.083803,0.084422,0.483572,0.822215,0.384090,-0.420044
0.147068,0.427908,0.312553,-0.108418,-0.319947,0.941212
0.181369,0.310770,0.838145,-0.515456,0.126416,-0.847540
-0.220961,0.104741,0.131054,0.048537,0.851653,0.521853
-0.611037,0.350569,0.646454,-0.469733,0.650131,-0.597227
-0.072896,0.576962,0.663098,0.249003,0.511122,-0.822649
-0.053030,0.232990,0.301806,-0.228331,-0.940827,0.250417
-0.116666,-0.259905,0.061191,-0.476871,0.100709,0.873185
-0.250296,-0.804595,0.381655,0.508954,-0.215027,-0.833504
-0.551440,-0.918589,0.576612,-0.344905,0.648014,0.679056
-0.082132,0.570456,0.523620,0.593452,-0.669976,-0.446034
0.185592,0.095533,0.589784,0.337285,0.915554,0.219087
-0.009677,0.108593,0.845768,-0.447804,0.878314,0.167443
-0.135278,-0.006640,0.674050,-0.587926,0.658074,-0.470407
-0.345215,-0.212759,0.448826,-0.675344,0.704531,0.218050
-0.116109,0.552836,0.620174,0.687696,0.722449,-0.071710
-0.142240,0.244987,0.340457,0.775140,0.573978,0.264021
-0.761748,-0.219665,0.569523,-0.676704,-0.555657,-0.483030
-0.090905,0.311258,0.820227,-0.795073,0.507844,-0.331592
0.156444,-0.032006,0.226478,0.150059,0.972983,0.175460
0.248346,0.052016,-0.138328,-0.318076,-0.870061,-0.376592
0.363781,0.421002,0.640722,0.201044,0.976238,-0.080872
-0.706932,-0.213997,-0.016705,0.048899,-0.400015,0.915203
0.259486,0.295497,0.531531,0.262816,-0.940219,0.216602
0.554782,0.108194,-0.638934,0.853480,-0.510617,-0.104124
-0.544385,-0.787640,0.619003,-0.312049,-0.604234,0.733162
-0.362900,0.444906,0.653523,-0.077327,-0.703538,0.706438
-0.048156,0.426005,0.174307,0.240045,-0.857009,0.455977
0.516303,0.060384,-0.361888,-0.224342,-0.956606,-0.185948
-0.683817,-0.263890,0.600201,0.413296,0.444223,0.794892
0.266355,0.331046,0.613537,-0.458014,-0.885150,0.082049
-0.480610,0.652574,0.605153,0.872144,0.361070,0.330142
-0.532084,-0.513303,0.590338,-0.665114,0.618838,0.417927
-0.847154,-0.226659,-0.036185,0.451618,0.478132,0.753280
-0.702291,-0.174244,0.407155,0.567644,0.302293,-0.765767
0.058600,0.326000,0.687406,-0.223746,0.973002,-0.056603
-0.256887,-0.768515,0.829350,0.174456,0.962317,0.208595
-0.825431,0.067201,0.317813,0.144608,0.919852,0.364639
-0.644132,0.320687,0.372059,-0.618613,0.287945,0.731031
0.513750,0.272876,-0.981815,0.372782,-0.009580,-0.927870
-0.049549,-0.912348,0.534962,-0.678609,-0.448036,-0.582025
-0.238692,-0.391739,0.793289,0.628879,0.204797,0.750046
-0.343174,-0.171810,0.001397,-0.310226,0.027899,0.950253
-0.446402,0.369517,0.351408,0.431238,0.871818,-0.232309
-0.324375,-0.397229,0.793782,-0.369892,0.905877,-0.206315
-0.655086,-0.655275,0.515791,-0.517273,0.739572,0.430652
-0.391167,-0.329232,0.557565,0.062323,-0.436385,0.897599
0.515282,-0.086192,0.092609,0.577585,0.389602,0.717360
0.405695,0.365753,-0.269258,-0.725843,-0.138875,-0.673695
-0.381234,-0.427642,0.288779,0.842087,0.064404,-0.535483
-0.670589,-0.616938,0.605071,-0.848141,-0.240955,0.471802
-0.252895,0.125946,0.723180,-0.627245,0.716085,0.306243
0.444684,-0.031962,0.053835,-0.088543,-0.935658,0.341619
0.080786,0.144495,0.797029,0.094599,0.968209,0.231564
-0.362157,-0.029306,0.559106,-0.115890,0.902456,0.414901
-0.456056,-0.090973,-0.174841,-0.184094,0.441872,0.877986
-0.326603,-0.485369,0.595167,0.834409,-0.066306,-0.547143
0.171436,0.509850,0.840056,-0.139859,-0.912802,0.383708
0.081018,-0.621099,0.665872,0.996416,0.077129,0.034727
0.144793,-0.146045,0.610434,0.619000,0.612486,0.491630
-0.440367,-0.485680,0.588592,0.799465,-0.566301,0.200398
-0.335607,-0.399044,0.563914,0.096195,0.823577,0.558988
0.081575,0.272699,0.767584,0.758259,0.501844,0.416168
0.486040,0.100094,-0.361395,-0.118504,-0.944450,-0.306547
0.096567,-0.543539,0.122280,0.852350,-0.213130,-0.477572
0.023788,-0.726682,0.781721,0.886685,-0.223413,-0.404816
-0.029265,0.413299,0.120800,0.579538,-0.634528,0.511380
0.373157,0.390765,-0.995336,-0.088778,-0.131573,0.987323
0.146743,0.530037,0.339203,0.563147,0.323677,-0.760328
-0.018033,-0.526185,0.745330,-0.510075,0.859416,-0.035044
0.183550,-0.272433,0.192985,0.995187,-0.038669,-0.090043
-0.451832,-0.120457,0.828528,0.711042,-0.197352,0.674886
-0.711434,-0.337421,0.456983,-0.587518,-0.764508,0.265236
-0.556731,-0.916596,0.615345,0.681768,0.693915,0.231676
0.171946,0.458497,0.829392,-0.344001,0.913187,-0.218525
0.196686,-0.010669,-0.071794,-0.296809,0.831132,0.470239
0.862702,0.225642,0.181560,0.513890,-0.419105,-0.748511
-0.404674,-0.720793,0.646886,0.821781,0.517004,0.239547
0.328924,0.374740,0.374792,0.813609,-0.206720,-0.543421
0.780593,0.289079,0.130479,-0.529215,-0.302041,0.792908
0.181693,0.138785,0.566318,0.318346,-0.935813,-0.151361
-0.116155,-0.702953,0.723221,-0.083429,0.685314,0.723453
-0.090208,-0.450042,0.067006,0.453316,0.031472,-0.890794
0.685627,0.306034,-0.973966,0.080356,0.051234,0.995449
-0.793868,-0.568241,0.636571,-0.328422,-0.719523,-0.611904
0.163824,-0.024171,0.336039,0.954062,-0.030288,-0.298076
0.660516,-0.002390,0.449196,-0.634095,0.411174,0.654873
-0.396551,0.023950,0.914377,0.984182,0.172186,0.041680
0.193158,-0.229138,0.637187,0.360814,0.329043,0.872665
0.087795,0.113551,0.516346,-0.639388,-0.579197,0.505681
0.017615,-0.046749,0.598722,0.209269,0.965301,0.156206
-0.013670,0.469963,0.822364,0.253766,0.842622,0.474965
-0.719882,-0.304263,-0.024596,-0.183458,-0.247244,0.951427
0.152962,0.641552,0.529805,-0.091542,-0.994693,-0.046959
-0.053401,0.161937,0.419833,0.959516,0.230688,-0.161589
-0.243473,-0.365532,0.694043,-0.272506,-0.390975,0.879135
-0.370280,-0.100536,0.778947,-0.245933,-0.941290,-0.231280
-0.130033,-0.292400,0.822939,0.972042,0.185614,-0.143813
-0.498387,0.395547,0.574804,0.921832,-0.317184,0.222754
-0.585648,-0.234096,-0.022479,0.029529,0.498925,0.866142
-0.447933,-0.864403,0.594469,-0.688550,0.695995,0.203691
-0.022860,0.512329,0.904227,0.115549,-0.915108,0.386298
0.609877,0.226128,-0.858816,-0.689929,-0.663289,-0.289905
-0.081204,-0.295365,0.940000,0.820585,-0.133454,0.555725
-0.619299,-0.057860,-0.191238,-0.046457,0.479539,0.876290
0.025366,-0.281066,0.790988,0.895085,0.355601,0.269018
-0.267331,-0.108105,0.763289,0.108693,-0.751427,0.650803
0.030704,0.130197,-0.136540,0.027576,0.378193,0.925316
0.132632,-0.297976,0.311196,0.727941,0.591390,0.346928
0.438000,0.281597,0.713543,-0.408329,0.753311,0.515548
-0.735710,-0.503121,0.687242,0.249076,-0.082193,-0.964990
-0.009771,-0.126389,0.745515,0.882399,-0.093020,0.461215
-0.435308,0.308380,0.601393,0.895933,0.431856,-0.103944
-0.153705,-0.401745,0.045822,0.465715,-0.127255,-0.875737
0.105665,0.435478,0.880617,0.925675,-0.153474,-0.345791
-0.338346,-0.006685,0.549982,-0.098912,-0.750982,-0.652872
-0.123535,-0.090619,0.018740,0.213067,-0.366057,0.905872
-0.565782,-0.387003,0.563688,-0.515122,-0.617673,0.594247
-0.145768,0.339457,0.142622,0.195235,-0.587214,0.785534
-0.538026,-0.915225,0.613783,-0.261828,0.923674,0.279773
-0.290771,-0.046527,0.569749,0.092955,0.992735,0.076402
-0.312632,0.052016,0.789015,0.580432,0.730675,0.359461
-0.463946,0.370357,-0.161444,0.489055,0.022309,-0.871968
-0.474668,-0.378679,0.641009,0.687400,0.472776,-0.551329
-0.389404,0.575369,0.484188,0.990903,0.109939,0.077624
-0.122004,0.406038,0.897179,-0.584833,-0.040588,-0.810138
0.030611,0.065165,0.159821,0.251149,0.965377,0.070512
0.052147,0.400283,0.639057,0.263109,-0.837539,0.478856
0.110864,0.716676,0.515914,0.644532,0.655642,-0.393334
-0.058924,0.435610,0.647050,0.748789,0.063612,-0.659749
-0.064170,0.619639,0.524585,-0.650355,0.448549,0.613059
-0.249971,-0.750543,0.807467,0.589935,-0.665478,-0.457293
-0.449512,-0.595245,0.600551,0.943453,0.117368,-0.310034
-0.164288,-0.656648,0.827665,0.956893,0.103363,-0.271425
0.400264,0.325689,0.719687,0.178885,0.981919,-0.061924
0.521919,0.130197,0.417572,-0.479431,0.639039,0.601478
0.061059,0.650982,0.637948,0.846433,0.327906,-0.419558
-0.457124,-0.324937,0.789755,0.757297,-0.548933,0.353799
0.907585,0.083094,0.172375,-0.142233,0.766373,-0.626452
0.160435,0.537563,0.525859,0.937571,0.291461,0.189766
-0.130869,-0.224047,0.932706,-0.689462,-0.604428,-0.399136
-0.503446,-0.065828,0.022068,0.117994,0.170141,-0.978330
0.322054,-0.445571,0.309696,0.400029,-0.123028,0.908208
-0.427324,-0.267829,0.807652,0.965387,-0.235979,0.111096
-0.064309,-0.007880,-0.120657,-0.361921,-0.454673,0.813810
-0.038130,-0.516269,0.760906,0.061216,0.998065,0.010887
-0.261204,0.367038,0.719337,0.537339,-0.554117,0.635784
-0.169208,0.376245,0.310888,-0.087423,-0.518426,0.850642
-0.612523,-0.098677,0.468346,0.934747,0.209291,-0.287133
-0.565040,-0.021382,0.536709,0.832422,0.334299,-0.441948
-0.301492,-0.492009,0.717447,0.141799,0.471555,0.870361
0.091369,-0.430784,0.072945,-0.614192,-0.165341,0.771641
-0.234236,-0.300279,0.575934,0.015002,-0.997388,0.070659
0.220033,0.424632,0.078965,0.942284,0.289471,-0.168246
0.079533,-0.295674,0.370888,-0.886883,-0.135622,-0.441640
0.133143,0.537075,0.584400,0.143121,-0.589987,0.794627
0.545823,0.307451,-0.982021,0.323368,-0.262552,-0.909120
-0.362854,-0.398690,0.603571,-0.571877,0.789682,-0.222170
-0.445195,-0.097481,0.843795,-0.705205,0.098621,-0.702111
0.548237,0.138651,-0.559722,0.990508,-0.135862,0.020888
-0.620135,-0.241446,0.695625,0.260078,0.035788,0.964924
-0.330223,-0.271636,0.635996,0.851030,0.524686,0.021288
0.082364,-0.145336,0.771097,-0.138494,-0.444625,0.884945
-0.456241,0.409182,0.357182,0.576350,0.617190,-0.535627
0.052055,0.213954,0.467586,0.238457,-0.968876,-0.066457
-0.502286,0.223870,0.363717,0.376694,-0.061945,-0.924264
0.456567,0.215945,-0.264779,0.621559,0.042806,0.782197
-0.258790,0.071628,0.804981,-0.745294,0.197788,-0.636723
0.546055,0.348444,-0.986911,-0.056080,0.026225,0.998082
0.263710,0.189340,0.302032,0.350459,0.887139,-0.300270
0.406716,-0.044048,-0.185382,0.985158,-0.075647,0.154084
-0.021142,0.811369,0.535044,0.793224,0.543237,-0.275117
-0.617861,0.280845,0.376436,0.088280,-0.990532,-0.105135
-0.518114,0.366595,0.591386,0.935476,-0.300361,0.186192
0.038409,-0.381071,0.600263,0.743803,-0.613042,-0.266340
0.339970,0.027137,-0.057678,-0.164473,0.978604,-0.123622
0.860566,0.070831,0.443360,-0.600625,-0.144125,-0.786433
-0.342152,0.494976,0.663242,0.841297,0.448211,-0.302201
-0.285015,-0.006375,0.735406,0.337901,0.597756,0.726987
-0.729629,-0.274204,0.609468,-0.295320,0.401406,0.866983
0.267144,-0.145779,0.172232,-0.863641,0.503808,-0.017376
0.099445,0.866219,-0.327347,-0.012012,0.367449,0.929966
-0.351899,-0.338750,0.330799,0.623394,0.289811,-0.726216
-0.650769,0.261234,0.338402,-0.369428,0.917623,-0.146601
-0.052380,0.481695,0.895412,0.260805,-0.181214,0.948231
-0.289610,0.031742,0.775454,0.833675,0.227813,-0.503078
-0.500337,0.111381,0.329977,0.522668,-0.261127,-0.811560
0.093689,0.663731,0.582263,0.802069,-0.392789,0.449891
0.284040,0.179380,0.287443,-0.196301,-0.954275,0.225445
0.422775,0.297402,-0.993918,0.157432,0.073113,-0.984820
-0.202766,-0.085838,0.828282,0.838736,0.099129,0.535439
-0.020492,0.685909,0.425154,-0.519738,0.572772,-0.633881
0.284504,0.261012,0.453449,0.140572,-0.919239,0.367748
-0.002901,0.469876,0.848419,0.743887,-0.655966,0.127835
-0.805797,0.110230,0.317217,0.593380,0.727859,0.343689
-0.845436,0.086857,0.352888,0.948401,0.160696,0.273334
0.010884,-0.059410,0.617133,0.554050,0.813783,0.175456
-0.183550,-0.335075,0.512462,-0.031893,0.928090,0.370988
0.206201,0.017530,0.168451,0.777355,-0.082838,0.623584
-0.341038,-0.465758,0.327265,-0.798753,0.258913,0.543100
0.132354,-0.319226,0.117266,0.615422,0.212823,-0.758922
0.236650,-0.091106,0.815234,-0.392686,0.848115,0.355666
0.202023,-0.544469,0.616475,-0.026671,-0.101952,0.994432
-0.490496,-0.123689,0.268930,-0.202880,-0.542712,0.815048
-0.495695,0.298509,-0.199232,0.738932,0.626771,-0.247259
-0.146279,-0.439948,0.783200,0.567364,0.779842,-0.264470
0.061106,-0.678207,0.665030,0.991753,0.126268,-0.021959
-0.305623,0.647705,0.535928,0.060936,0.997575,-0.033621
-0.037620,-0.425428,0.680584,0.846057,-0.023735,0.532563
0.656014,-0.115985,0.400785,-0.178039,-0.129121,0.975515
0.043236,-0.671787,0.811947,-0.640888,0.416946,-0.644530
-0.340064,-0.304352,-0.032301,-0.532415,0.735286,-0.419391
-0.319408,-0.623623,0.759570,0.845628,-0.155638,0.510579
-0.503307,0.005357,0.363491,-0.280416,0.944468,-0.171311
-0.084268,0.348710,0.832576,-0.819525,-0.013291,-0.572890
-0.285571,-0.067289,0.393182,0.766657,-0.237924,-0.596346
-0.466778,0.592015,0.621859,0.991185,0.129858,-0.026239
-0.314488,-0.288947,0.750406,-0.275635,-0.121266,0.953583
-0.329713,-0.318385,0.338525,0.704298,0.317054,-0.635170
-0.246722,0.195714,-0.147554,-0.023497,-0.183017,0.982829
-0.482374,0.458056,0.377648,0.832438,-0.299202,-0.466396
-0.436005,-0.757360,0.529024,-0.060433,0.629538,0.774616
-0.116991,-0.235203,0.913083,0.983476,0.178824,-0.028217
-0.421430,0.371819,0.329073,-0.243579,-0.859910,0.448580
-0.748381,-0.467617,0.519428,-0.169210,0.709197,0.684403
0.118522,0.302005,0.539339,0.159964,-0.636857,0.754204
0.663765,0.302758,-0.975918,0.051127,0.132876,0.989813
0.173060,-0.073133,0.291573,-0.639814,0.768213,-0.022090
-0.610295,-0.065430,-0.162513,0.017490,0.621027,0.783594
-0.606999,-0.494223,0.573571,0.493534,-0.729050,0.474248
-0.004618,-0.148214,0.668132,-0.411221,0.902810,-0.125827
0.153055,0.355970,0.771036,-0.554786,0.510573,-0.656908
-0.471002,0.030103,0.366203,0.978182,0.045401,-0.202727
0.112070,0.368498,0.564756,0.385605,-0.591060,0.708489
-0.051545,0.508831,0.826576,0.861589,0.281708,-0.422262
-0.409733,-0.500420,0.565640,-0.192556,0.355664,0.914563
-0.412890,-0.157112,0.279799,-0.332863,0.025056,0.942642
-0.016176,0.011112,0.841638,0.808096,-0.568208,0.155308
-0.359094,0.344460,0.606201,0.946476,-0.121071,0.299207
-0.159322,0.393909,0.655701,0.825808,0.095077,0.555879
0.675694,0.048032,-0.806357,-0.287999,-0.277993,0.916393
0.364292,0.369074,0.654879,0.389669,-0.425096,0.816977
-0.407737,-0.486078,0.062630,0.510326,-0.081152,-0.856144
0.010745,-0.304175,0.079397,0.486524,0.063980,-0.871321
-0.349114,-0.008190,0.540037,-0.098912,-0.750982,-0.652872
0.055350,0.685467,0.647872,-0.221727,0.230143,0.947561
0.078094,0.138431,0.605749,0.400052,-0.797632,-0.451377
0.053030,-0.177741,0.804631,-0.490153,0.755925,-0.433967
0.016130,0.030546,0.807734,0.038505,-0.653330,0.756093
0.241616,0.433264,0.606057,-0.387623,-0.074780,-0.918780
-0.519599,0.250211,0.345183,0.237763,0.366759,0.899420
-0.140755,-0.482802,0.756118,-0.207221,0.936815,0.281845
0.191162,0.046217,0.023753,0.331753,-0.019419,0.943166
-0.041937,-0.822967,0.492264,0.842308,-0.251999,-0.476459
-0.717190,-0.631105,0.512750,0.674219,-0.657887,0.335578
0.647102,0.315464,-0.969877,-0.004215,0.192627,0.981263
-0.827149,0.080703,0.300265,-0.117550,0.931370,0.344576
-0.172179,-0.111735,0.771118,0.917794,-0.269139,-0.291923
0.717282,0.213289,-0.974356,0.174073,-0.009788,0.984684
-0.475829,-0.280047,0.316744,-0.524135,-0.291955,0.800028
-0.065005,0.293107,0.859022,0.136630,0.791257,0.596024
-0.017847,-0.015405,0.018883,-0.033039,-0.360537,0.932160
0.192044,0.539688,0.783056,-0.332258,0.323747,0.885885
0.262271,0.025366,0.009514,-0.062087,0.875688,0.478869
-0.585787,-0.397672,0.439579,-0.066989,-0.701094,0.709915
-0.460373,-0.334278,0.850885,0.995637,-0.079238,0.049277
0.123860,0.088052,0.635790,-0.162614,0.905235,0.392564
0.071689,-0.068883,0.580044,-0.399580,-0.894053,-0.202497
-0.439207,-0.431537,0.034644,-0.283613,0.478281,0.831151
0.624637,0.395016,-0.986089,-0.131342,0.079339,0.988157
-0.051870,-0.061269,0.957034,0.895357,-0.286982,-0.340554
-0.924946,-0.202576,-0.066513,-0.393522,-0.010477,0.919256
0.414932,0.324715,0.690550,-0.359628,0.547302,0.755730
-0.132632,-0.720483,0.836254,0.394362,0.817695,-0.419349
-0.911068,-0.159591,-0.058006,0.314576,0.125862,-0.940851
-0.598830,0.353225,0.384059,-0.592719,0.801646,0.077764
-0.555803,-0.917924,0.597366,0.418556,-0.754915,-0.504890
-0.316113,0.719377,0.434237,-0.505641,-0.820359,0.267094
0.333612,0.112311,-0.348696,0.252851,-0.412954,0.874949
-0.756086,-0.224047,0.568476,0.846490,0.404671,0.345972
-0.315927,-0.512772,0.526722,-0.067533,-0.409210,0.909938
-0.469563,-0.585861,0.592989,0.980212,-0.039121,-0.194048
-0.494210,0.455664,0.348840,0.524736,0.107280,-0.844478
0.375107,0.243083,0.760597,-0.098143,0.958436,0.267895
-0.144051,-0.472575,0.741344,0.361226,-0.306030,-0.880830
0.194040,0.041304,-0.348511,-0.033872,-0.542358,0.839464
-0.550558,-0.280889,0.657591,-0.446180,0.831302,-0.331451
0.036877,0.032405,0.105965,0.955356,-0.228904,0.186810
0.383972,0.485856,-0.188177,0.924072,0.373155,-0.082747
-0.023927,0.184161,0.495243,-0.108142,0.970762,-0.214306
-0.421337,-0.281729,0.005342,0.495850,-0.137694,0.857422
-0.226902,-0.386914,0.707173,0.473916,0.054128,-0.878905
0.264638,0.001637,0.112766,0.981099,-0.121289,0.150778
-0.493188,-0.269379,0.838207,-0.280907,-0.161644,0.946025
-0.101812,-0.291115,0.915692,0.876293,0.460812,-0.140581
0.032932,-0.273584,0.705879,-0.717240,0.640530,0.274387
-0.361600,-0.006596,0.794830,0.291364,0.942722,0.162427
-0.352549,-0.369516,0.676208,0.503117,0.850386,-0.154005
-0.417207,-0.487715,0.723427,-0.026482,-0.945337,0.325019
0.372554,0.370225,0.709495,0.525061,0.699561,0.484692
-0.350090,-0.396211,0.718372,-0.450147,0.805899,0.384569
0.757154,0.091327,0.470216,0.277107,-0.199389,0.939923
0.754182,0.188411,0.172581,-0.787458,0.425398,0.446035
-0.339414,0.324317,0.355641,0.722150,0.623765,-0.299025
-0.043979,-0.539422,0.707892,0.237822,-0.936628,-0.257234
0.122746,0.438665,0.703331,0.876652,0.456310,-0.152520
-0.362111,-0.013813,0.318368,-0.226017,0.914549,0.335434
-0.407644,-0.040993,0.833193,-0.475559,0.475806,-0.739900
-0.481028,-0.919431,0.644009,-0.512886,0.808664,0.288117
-0.318666,0.466510,0.546284,0.516232,-0.566874,0.641995
0.490403,0.040462,0.105862,0.108552,-0.665223,0.738712
0.145165,0.360042,0.661064,0.420954,0.879787,-0.220843
0.403977,-0.071008,-0.138698,0.952671,-0.089681,0.290475
0.058228,-0.553190,0.100992,0.755186,-0.227361,-0.614819
-0.272993,-0.723493,0.681694,0.228668,-0.181088,-0.956513
-0.072153,-0.781398,0.855816,0.736172,-0.538295,-0.410231
-0.369073,0.039931,0.796001,-0.618944,0.450680,-0.643270
0.862191,0.070034,0.442785,-0.600625,-0.144125,-0.786433
-0.576179,-0.548099,0.599626,-0.491830,0.351472,-0.796600
-0.558356,-0.398778,0.430374,-0.282049,-0.111635,0.952883
-0.462926,0.185179,0.351491,-0.207612,-0.012404,0.978133
-0.081390,0.002125,0.655105,0.055631,0.916834,0.395375
-0.175288,-0.049494,0.594633,0.668322,0.619668,-0.411531
-0.603796,-0.483953,0.596297,-0.243692,0.904096,0.351034
-0.625194,0.268007,0.348840,-0.435997,0.828630,-0.351111
-0.013112,0.051928,0.845069,0.817215,-0.446792,0.364054
0.077908,-0.710789,0.739043,-0.158826,0.608817,0.777249
0.586483,0.276152,-0.968521,-0.281328,0.186787,0.941257
0.672909,0.109876,-0.799289,-0.088356,0.001824,0.996087
-0.273921,-0.586791,0.346025,-0.146291,0.437164,0.887405
0.448258,0.171721,-0.992521,-0.161335,0.040709,0.986060
-0.381930,-0.211518,0.765693,-0.273791,0.928525,-0.250757
-0.393766,-0.512063,0.314566,-0.633238,0.603380,0.484709
0.005268,0.163930,0.107979,0.786265,0.359757,0.502357
-0.389310,-0.217407,0.632996,0.269609,0.889686,0.368469
-0.366335,0.148126,0.667804,0.424579,0.600517,-0.677578
-0.398176,0.564523,0.448209,0.504751,-0.463602,0.728217
0.091740,0.725974,0.554113,0.195742,-0.883604,0.425358
-0.030936,-0.242817,0.929130,0.785932,-0.410707,0.462202
-0.509527,-0.190314,0.645283,-0.422331,-0.810886,0.405093
0.343359,0.504937,-0.267676,0.891327,0.448000,-0.069519
-0.280652,-0.580726,0.760762,-0.698933,0.715187,0.001072
-0.173339,-0.785250,0.637763,0.819847,-0.547044,0.169096
-0.303534,-0.582983,0.637866,0.025351,0.585787,0.810069
0.669614,0.259419,-0.969343,-0.249903,-0.298250,-0.921192
0.314163,0.241799,0.453449,0.162188,0.983845,-0.075785
-0.083664,-0.794457,0.464298,-0.789323,0.318727,0.524769
-0.335515,-0.121696,0.377052,0.919074,-0.359585,-0.161248
0.266448,-0.389216,0.322272,0.086146,-0.558566,0.824974
-0.374225,-0.759131,0.668091,-0.370272,-0.706936,-0.602611
0.143818,0.453008,0.485195,0.717221,-0.696841,-0.002552
-0.440182,-0.425340,0.640085,-0.341398,0.229687,0.911423
-0.352828,-0.225375,0.428956,-0.707074,0.621186,-0.337898
-0.056372,-0.862943,0.892720,0.885710,-0.090255,-0.455381
-0.371812,0.775688,0.593975,0.536776,0.659720,-0.525967
-0.511058,-0.430032,0.579551,-0.635180,0.669628,-0.384895
-0.104505,-0.059365,0.690529,-0.516852,-0.403762,-0.754878
-0.658753,-0.008987,0.306779,0.442091,0.705264,-0.554219
-0.347072,0.314976,-0.151951,0.350850,0.434575,-0.829487
-0.357934,-0.114126,0.807796,0.049035,-0.946055,0.320273
-0.039755,-0.769268,0.844679,-0.362758,0.743220,0.562166
-0.616097,-0.096242,0.462757,0.779555,0.325598,-0.535051
-0.076795,-0.130240,0.805207,-0.270032,0.669085,0.692393
-0.159182,-0.519058,0.729344,0.470265,0.320115,-0.822422
-0.416185,-0.097171,0.322662,0.617085,-0.030640,-0.786300
-0.652393,-0.050865,-0.185629,0.015468,0.667214,0.744705
0.388521,0.014211,-0.148376,0.919521,-0.220979,0.325038
-0.431502,-0.730532,0.684160,0.411225,0.665693,0.622693
-0.361972,-0.123069,-0.143609,0.252213,-0.349743,-0.902258
-0.722992,-0.265041,0.274293,-0.499134,0.483693,-0.718962
-0.170554,0.178141,0.781022,0.737759,0.059682,-0.672421
-0.387686,-0.262828,0.425504,-0.391173,0.751122,-0.531788
-0.269930,-0.018151,0.782645,-0.632473,0.651889,0.418353
-0.639304,-0.295764,0.615263,0.106701,0.251381,0.961989
-0.350321,0.093984,0.765714,-0.417525,-0.901065,-0.117282
-0.311611,0.475275,0.424764,0.924967,-0.174556,0.337587
0.587505,0.253707,-0.962993,-0.410710,0.338652,0.846541
0.415350,0.065696,-0.135102,0.834490,-0.476277,0.277105
0.053401,-0.695029,0.644626,-0.601187,0.520729,-0.606148
-0.145443,-0.588428,0.843364,0.980138,-0.062573,0.188184
-0.523730,-0.246314,0.807385,-0.621128,-0.536014,-0.571742
-0.209172,-0.684404,0.750652,-0.544839,-0.569473,0.615509
-0.306830,-0.413122,0.351388,0.704449,0.058178,-0.707366
0.181415,-0.356811,0.623975,-0.342705,-0.342327,0.874852
-0.427649,0.662668,0.458750,0.465581,0.091545,-0.880258
0.142890,0.033468,0.821337,-0.320222,0.518186,-0.793058
0.552971,0.130418,-0.751495,0.781496,-0.612140,0.120623
-0.402446,-0.424632,0.724885,0.736167,-0.673077,0.070897
-0.047831,0.629244,0.442970,0.738813,-0.562667,0.370891
-0.000905,-0.100890,0.707687,0.623517,0.702149,0.343821
0.081714,-0.077915,0.529024,0.823762,-0.512213,0.243008
0.471419,0.529241,0.085766,0.996273,0.036200,-0.078289
0.032329,0.132586,0.841433,-0.709695,0.701087,0.069355
-0.268909,0.021692,0.295313,0.240957,-0.731142,0.638256
-0.007125,0.445482,0.866275,0.974086,-0.026548,0.224615
0.295319,-0.089336,0.035075,-0.590714,0.689526,-0.419059
-0.082365,-0.711630,0.770255,0.412087,-0.278127,0.867658
0.351899,0.165966,0.248875,-0.104924,-0.972741,0.206798
-0.151199,0.387711,0.655762,-0.011257,-0.568283,0.822756
-0.296247,0.347071,0.394271,0.149369,-0.192103,0.969941
-0.467381,-0.191332,0.816570,0.930000,-0.259195,0.260613
-0.346190,0.075966,0.779789,-0.554975,-0.829538,-0.062204
-0.307341,0.443578,0.594941,-0.510122,-0.729770,0.455205
-0.245608,-0.028244,0.252409,0.705786,0.493180,-0.508566
0.185546,0.578689,0.481456,0.453851,-0.388246,0.802050
-0.091973,0.882686,0.493045,0.996119,0.082992,0.029328
-0.799763,-0.379875,0.629420,-0.655511,0.390146,-0.646600
0.541785,0.373324,0.533092,-0.393795,0.919193,-0.003045
0.027780,-0.172164,0.757926,-0.229084,0.504226,0.832632
-0.066955,0.293860,0.867138,-0.385024,0.615580,-0.687617
-0.557938,0.141042,0.355724,0.645107,0.031637,-0.763437
-0.142147,-0.587897,0.810344,0.854061,-0.519929,0.015918
0.106036,-0.000842,0.273984,0.094517,-0.992690,0.075049
-0.376917,-0.138563,0.757762,0.275692,-0.413514,0.867756
0.336953,-0.467395,0.303162,0.425482,-0.039306,0.904113
0.065794,0.368277,0.810077,0.291837,-0.665416,0.687061
0.667989,0.228739,-0.966466,0.454715,0.329214,0.827558
-0.537654,-0.239143,0.859679,0.791979,0.309672,0.526188
-0.022117,-0.049449,0.272608,-0.154176,0.949686,0.272627
0.316113,0.375537,0.375347,0.914616,-0.128434,-0.383382
-0.189166,0.417858,0.674132,0.780298,0.142056,0.609061
-0.052751,-0.009916,-0.399121,-0.567723,0.344378,0.747726
-0.805008,-0.371730,0.613126,-0.752957,-0.220311,-0.620096
0.460186,0.300146,0.477880,-0.456616,0.877743,-0.145154
-0.841583,-0.445083,0.617277,0.035502,0.935749,0.350876
0.060781,-0.078755,0.742207,0.131826,-0.815943,0.562902
-0.366752,-0.490372,0.319621,0.706129,-0.618397,-0.344916
-0.431688,0.603878,0.524811,0.119986,-0.872099,0.474391
-0.177702,-0.604764,0.786036,0.928926,-0.255115,-0.268352
0.286222,0.654921,0.153718,0.561222,0.465109,0.684619
-0.073685,-0.881845,0.811227,0.927393,-0.373056,0.027772
0.447515,0.097216,-0.376785,-0.024786,0.994704,0.099748
-0.177191,0.090176,-0.122979,-0.536750,0.035132,0.843010
-0.437583,-0.055780,0.904432,0.526534,0.014205,-0.850035
-0.096010,0.251583,0.326484,0.441660,0.723847,0.530076
-0.647567,-0.275799,0.569873,-0.230552,-0.334927,-0.913603
0.416324,0.318474,-0.988288,-0.195653,-0.003215,0.980668
-0.742625,-0.468591,0.424723,-0.537233,0.830245,-0.148572
0.234097,0.579752,0.217334,-0.292777,-0.149023,-0.944497
0.089976,1.000000,0.131136,0.194299,0.289455,0.937264
-0.579150,-0.291469,0.577475,0.729766,0.675275,-0.106978
0.507484,0.102041,-0.420778,0.249514,0.954463,-0.163530
0.379146,0.332109,0.500051,0.033360,0.988077,0.150302
-0.473972,0.503608,0.580270,0.405838,-0.824962,0.393361
0.267933,0.024392,0.142684,0.602958,-0.774805,0.190052
-0.573905,-0.365399,0.592722,0.875323,-0.420608,0.238533
-0.452760,-0.204126,0.815830,0.868293,0.075020,0.490346
-0.368934,-0.497764,0.678201,0.733254,-0.000102,-0.679954
-0.187217,-0.036124,0.279799,0.494258,-0.314548,-0.810412
-0.415535,-0.189384,0.299197,-0.461442,0.851937,0.247538
-0.299821,-0.020142,0.809111,0.886771,-0.397661,0.235589
-0.163499,-0.656072,0.822775,0.903593,0.074421,-0.421878
0.381838,0.081677,0.160807,-0.433185,-0.854783,0.285829
-0.220729,-0.135597,0.824481,0.549375,-0.163943,0.819335
-0.270997,0.308071,0.359237,0.515020,0.855620,0.051658
-0.638237,0.029440,0.345429,-0.141126,0.367801,0.919133
-0.538397,-0.961884,0.611790,0.301794,-0.929928,-0.210129
-0.856854,-0.002479,0.366634,0.498185,0.862759,-0.086366
-0.019054,-0.149586,0.338504,0.127836,0.790400,0.599105
-0.925410,-0.041259,0.429285,0.411544,-0.907679,0.082153
-0.401146,0.356546,0.582263,-0.264593,0.336877,-0.903606
-0.416463,0.580637,0.448682,-0.636122,0.286503,-0.716425
-0.478011,-0.619106,0.445291,-0.136231,-0.792188,0.594877
-0.093505,-0.870247,0.786118,0.885520,-0.295334,-0.358652
0.289517,-0.024038,0.053897,-0.720116,0.640006,-0.268003
0.386757,0.091372,0.161711,-0.372765,-0.872339,0.316341
-0.018496,0.333924,0.752707,-0.227236,0.889578,0.396252
0.080879,0.443535,0.809172,-0.512241,-0.705650,0.489559
-0.865302,0.028376,0.358991,0.974719,-0.163744,0.152024
-0.736127,-0.364691,0.715310,-0.722389,0.637695,-0.267394
-0.872450,-0.018372,0.363121,-0.490355,-0.850059,0.192229
-0.160296,0.405021,0.356319,0.829426,0.456500,-0.321964
-0.287011,-0.437868,0.060904,0.209624,0.246241,0.946268
-0.546659,-0.267697,0.595393,-0.260943,-0.315350,0.912394
0.227088,-0.422064,0.564818,-0.863157,0.293963,-0.410544
0.554132,0.252468,-0.966939,0.450188,0.003842,-0.892926
0.095036,-0.461995,0.563811,0.530232,0.193443,-0.825490
-0.128362,0.069636,0.151232,0.047653,0.394820,0.917522
-0.402539,-0.495817,0.041342,0.485021,-0.027334,-0.874075
-0.236047,-0.132896,0.014466,0.234372,-0.212272,-0.948689
-0.335840,-0.837974,0.385025,-0.394463,0.032751,0.918328
0.112256,0.724114,0.560832,0.955820,0.036148,-0.291721
0.042864,0.102528,0.089157,0.780382,-0.155686,0.605613
-0.635081,-0.003896,0.370333,0.032062,0.604204,0.796185
-0.714358,-0.579398,0.621366,0.088661,0.653828,0.751430
-0.347211,0.211298,0.359052,-0.095539,-0.238250,0.966493
-0.011442,0.387091,0.494935,0.561930,0.358102,0.745653
-0.017986,-0.712648,0.734255,0.713353,-0.538935,-0.447970
-0.317784,-0.016469,0.589332,-0.028340,0.988715,0.147106
-0.322101,-0.117934,0.783837,-0.348123,0.903381,-0.250426
-0.756086,-0.468281,0.510716,0.426814,0.808960,0.404244
0.096196,0.192572,0.826597,-0.006344,0.751428,0.659784
-0.406299,-0.055115,0.627365,-0.654101,-0.745765,-0.126438
-0.075774,-0.774581,0.809152,0.977890,0.164250,-0.129437
-0.436376,0.274072,0.390942,0.056777,-0.422012,0.904810
0.071689,0.396255,0.854521,-0.611855,0.623760,-0.486371
-0.042169,-0.082076,0.641564,0.301490,0.531215,0.791779
0.490403,0.109567,-0.559825,0.944202,-0.322039,-0.069087
-0.657082,-0.358448,0.226149,-0.414445,0.113527,0.902965
-0.558866,-0.015228,0.535640,0.718355,0.526427,-0.454796
0.076376,0.005357,-0.369182,-0.455265,0.475331,0.752857
-0.043329,-0.082385,0.882282,0.920382,-0.315950,-0.230375
-0.292720,-0.322812,0.602256,-0.197054,0.903497,0.380608
-0.312585,0.051619,0.714139,-0.737849,0.623320,0.258941
-0.048620,-0.481739,0.621489,0.432761,-0.893743,-0.118070
0.267423,0.602196,0.373949,-0.475102,0.258230,-0.841187
-0.173478,-0.745982,0.535681,-0.491116,-0.138245,0.860054
0.428670,0.349197,-0.991164,-0.177012,-0.019120,0.984023
-0.567407,0.141219,0.332299,-0.696293,0.182067,0.694282
-0.528836,-0.776573,0.728707,-0.529767,-0.507641,-0.679446
-0.302374,0.449777,0.506914,0.497493,-0.839392,-0.218912
-0.410662,-0.484351,0.054452,0.488530,-0.077795,-0.869072
0.066954,0.453141,0.873939,0.521107,0.527341,-0.671088
-0.231080,-0.430520,0.037808,-0.125869,0.245424,0.961210
0.601894,0.374563,-0.981117,-0.157565,0.060435,0.985658
0.678897,0.147638,-0.800255,-0.023279,0.074247,0.996968
0.751537,0.259108,-0.971110,-0.046808,-0.067783,0.996601
-0.261714,-0.792820,0.887316,0.674930,-0.625853,-0.390867
0.102509,0.449600,0.728399,0.915405,0.322592,-0.240764
0.603564,0.312586,-0.975795,-0.055050,0.275704,0.959665
-0.046903,-0.213157,0.921096,-0.667592,0.703378,0.244092
0.021142,-0.020408,-0.377052,-0.496987,0.479259,0.723405
-0.054191,-0.486831,0.618407,0.432761,-0.893743,-0.118070
0.035067,-0.639825,0.684160,0.951469,0.238843,0.194061
-0.190837,-0.693391,0.811042,0.696451,-0.544105,-0.467873
-0.150038,-0.164815,0.796782,-0.009988,-0.786350,0.617701
-0.273829,-0.688388,0.530729,-0.084738,-0.062425,-0.994446
0.026016,-0.043074,0.260300,-0.079386,0.968374,0.236535
-0.057114,-0.263269,0.071404,-0.468453,0.133051,0.873412
0.159461,0.700031,-0.271868,-0.012012,0.367449,0.929966
0.106361,0.440879,0.807837,-0.170045,-0.819356,0.547485
-0.237856,-0.725043,0.801405,-0.433002,0.901225,0.017382
-0.022117,0.444288,0.500668,-0.269874,-0.922555,0.275791
-0.278517,0.396211,0.558202,-0.279041,0.688819,0.669078
0.182204,0.555758,0.632544,-0.417629,0.824005,0.382887
-0.114437,-0.027668,0.797193,-0.145042,-0.081550,0.986059
-0.093318,0.139537,0.680440,0.676946,0.456201,0.577603
-0.461487,-0.047722,0.702098,0.347815,-0.864472,-0.362923
-0.371719,-0.298330,-0.015370,-0.576273,0.555183,-0.599735
-0.509202,-0.804817,0.547825,-0.149966,-0.542463,0.826586
-0.264313,0.232414,0.354182,-0.635050,0.275184,0.721793
0.198403,-0.398646,-0.090534,-0.103173,-0.174566,0.979225
-0.504932,0.272345,-0.233937,0.314017,0.949191,-0.020713
-0.378078,-0.003807,0.861549,-0.434693,0.168733,-0.884631
-0.111978,0.530081,0.659420,0.238172,-0.261534,0.935347
0.088723,-0.560760,0.553229,0.722865,0.156370,-0.673064
-0.554736,-0.219974,0.819899,0.986684,0.135418,-0.090094
-0.801666,-0.442427,0.619783,0.058610,0.942964,0.327694
-0.505952,-0.339811,0.592640,0.655826,0.746818,-0.110249
-0.000812,0.471425,0.478784,0.119356,-0.354323,0.927475
-0.265195,-0.828192,0.878706,0.899510,-0.398134,-0.179921
0.461254,0.082739,-0.413340,-0.110862,-0.984137,0.138506
0.266541,-0.084555,0.131506,-0.760613,0.648319,0.033913
-0.185360,-0.201203,0.923357,-0.702798,-0.468081,-0.535700
0.005222,0.305547,0.798837,-0.430259,-0.183994,-0.883755
-0.616747,-0.306609,0.707564,-0.253273,-0.004235,-0.967386
-0.060827,-0.285935,0.839254,-0.615328,0.713395,-0.335319
-0.152452,-0.349772,0.750077,-0.257755,0.755836,-0.601892
-0.162385,-0.579441,0.402757,-0.703914,0.697382,-0.134774
0.231219,-0.366727,-0.092034,0.069203,-0.211986,0.974819
-0.153241,-0.064722,0.806974,-0.141846,0.119436,0.982657
-0.692868,-0.228739,0.285697,-0.437460,0.483132,-0.758428
-0.587830,0.041481,0.290361,0.190064,-0.472061,0.860833
-0.235675,-0.170393,0.025870,-0.150924,0.236543,0.959828
0.204530,-0.014785,0.364230,0.874996,-0.468745,-0.121076
0.057718,-0.403250,0.627222,-0.491514,-0.479189,-0.727181
-0.154633,0.570100,0.652845,-0.060251,0.489714,0.869799
0.027408,0.543097,0.636098,-0.549175,0.775646,-0.311095
0.035159,0.356058,0.838001,0.895993,0.254976,0.363571
-0.474251,-0.313603,0.831200,-0.704639,-0.331086,0.627588
-0.686788,-0.022666,0.281423,-0.236206,-0.537344,0.809610
-0.076609,-0.491744,0.503832,0.363766,0.004320,0.931480
0.014087,0.026074,0.711899,0.249076,0.885171,0.392981
0.028522,0.603746,0.552818,0.421930,-0.436508,-0.794629
0.239527,0.194476,0.306203,-0.120407,-0.976935,0.176352
-0.522198,-0.223737,-0.006452,-0.540895,0.396308,0.741871
-0.560212,-0.253841,0.593400,0.853545,0.355673,-0.380733
0.431316,0.174466,0.394189,0.525604,0.254171,-0.811873
-0.445566,0.437249,-0.148766,-0.584164,-0.001391,0.811634
-0.580450,-0.310683,0.596585,0.607836,-0.067708,0.791170
0.102741,-0.309973,0.358107,0.818123,0.418082,0.394819
-0.359001,-0.249591,0.656153,0.481468,0.834041,0.269376
0.321915,0.219399,0.353032,0.499760,0.859033,-0.110917
-0.113927,-0.311435,0.481887,-0.217705,-0.896470,-0.385936
-0.037574,-0.522068,0.705755,0.039645,0.980736,0.191272
0.259950,-0.082253,0.123369,-0.633826,-0.489920,-0.598534
-0.445055,-0.512860,0.623009,0.082255,-0.837129,0.540785
0.148228,0.373457,0.691824,0.507547,0.833761,-0.217342
0.400496,0.064456,-0.169848,-0.362922,-0.880453,-0.305106
-0.488918,-0.249060,0.840611,0.540024,-0.136142,0.830566
-0.573580,-0.413785,0.310210,0.949232,0.235524,0.208536
-0.486087,-0.224977,0.814741,0.088293,-0.038567,0.995348
0.062870,0.695870,0.557996,0.084521,-0.219407,0.971965
-0.204855,0.452654,0.547106,-0.188627,0.794629,-0.577048
-0.461440,-0.293240,0.843816,-0.169902,0.324249,0.930589
-0.136810,0.712029,0.508990,0.717915,0.314926,-0.620822
-0.154309,-0.607774,0.793248,-0.422658,-0.046425,0.905099
-0.398083,-0.509275,0.056548,0.859236,-0.118872,-0.497577
-0.133561,-0.444597,0.823207,0.949622,-0.275031,-0.150254
0.158393,-0.242684,0.272710,-0.859941,0.508432,-0.044698
-0.020400,0.319714,0.824583,-0.440743,-0.798732,-0.409601
0.557567,0.088272,0.441798,0.686345,0.064691,-0.724393
0.152266,-0.108461,0.421312,0.635898,-0.771707,-0.010128
-0.754183,0.368852,0.364682,-0.390307,0.202103,-0.898229
-0.545777,-0.171056,0.690468,0.104175,0.560415,0.821634
-0.437258,0.365355,-0.158095,-0.475843,-0.112930,0.872250
-0.586298,-0.389437,0.625866,0.282831,0.312811,0.906728
-0.327206,0.446014,0.645591,0.197011,0.562440,-0.803024
-0.041240,-0.277436,0.833994,0.715152,-0.633358,0.295661
-0.002437,0.483111,0.785748,-0.000706,0.093358,0.995632
0.004015,0.514188,0.875439,0.606075,-0.778312,0.164023
-0.212421,-0.657710,0.766207,0.869794,-0.162565,-0.465865
0.310589,0.390677,0.720077,0.410930,-0.481164,0.774350
-0.268583,0.334145,0.652660,0.207401,0.563784,0.799458
-0.548701,-0.550312,0.596852,-0.615217,0.788160,-0.017671
0.204391,0.543628,0.409620,0.534204,0.262173,0.803674
-0.041658,-0.052946,0.844515,0.808205,-0.586775,-0.049998
-0.179791,-0.626057,0.363984,-0.189584,0.405199,0.894356
-0.180301,0.482492,0.695071,-0.422901,0.238817,-0.874140
0.307805,-0.048563,0.599441,-0.704889,0.427280,0.566184
-0.354638,-0.225552,0.780919,0.445839,-0.894938,0.017717
-0.180719,-0.326309,0.549058,0.532839,-0.657147,0.533142
-0.698067,-0.005180,-0.051637,-0.399620,0.116308,0.909273
-0.511105,-0.515915,0.615592,0.060034,-0.966520,0.249468
0.527072,0.440037,-0.986048,-0.202627,0.013252,0.979166
-0.532966,-0.278365,0.693591,-0.440251,-0.417315,-0.795002
-0.413586,0.317367,0.577599,0.061448,0.297032,0.952888
-0.223560,0.228164,0.670988,-0.010273,-0.130332,0.991417
-0.404396,-0.659038,0.810488,-0.593798,-0.644533,-0.481644
0.095360,0.149541,0.815337,0.005471,0.933440,0.358692
-0.228620,0.501085,0.672982,-0.510000,0.070030,-0.857319
0.384994,0.243925,-0.995767,-0.109547,0.006176,0.993962
-0.620367,0.309798,0.317464,0.095149,-0.835584,0.541061
-0.052519,-0.816770,0.863213,-0.472752,0.402537,0.783881
-0.363782,-0.289256,-0.014075,0.367759,-0.778223,0.509041
0.267655,0.486609,0.535168,0.402797,0.899059,0.171603
-0.149806,0.406171,-0.084164,-0.333329,-0.484132,0.809017
-0.622178,-0.183142,0.274560,0.103008,0.143345,0.984298
-0.019843,0.156271,0.498120,0.385123,0.905060,-0.180406
0.000209,-0.341316,0.875994,-0.625073,0.182317,-0.758975
-0.485344,0.299615,-0.177533,0.545529,0.147423,-0.825024
0.445705,0.222232,-0.989747,0.205937,0.000728,-0.978565
0.590522,0.308867,-0.973062,-0.188462,0.315728,0.929945
-0.108172,-0.087520,0.682352,-0.373972,-0.784935,-0.493986
-0.343220,0.176811,0.284895,0.995588,-0.088693,0.030636
0.022024,0.142238,0.257423,-0.303821,-0.784473,0.540644
-0.613451,0.328921,0.614400,-0.551830,0.633858,-0.541948
-0.012370,0.364425,0.615078,-0.028684,-0.992705,0.117104
0.138156,0.055426,0.675817,-0.632171,0.445544,0.633917
-0.826731,-0.273319,0.465449,-0.441952,0.671372,-0.594927
-0.415024,0.031211,0.902357,0.982850,0.161023,-0.089876
-0.150085,-0.149631,0.911644,-0.575927,-0.468528,-0.669918
-0.840052,0.054363,0.381429,0.786072,0.617485,-0.028355
-0.874492,0.009164,0.332710,-0.405784,-0.477752,-0.779161
-0.135232,-0.475806,0.737769,-0.587664,0.060144,0.806867
-0.586437,0.407543,0.647523,0.793404,-0.295545,0.532131
-0.126506,0.575502,0.537983,0.020892,-0.998577,0.049063
-0.156119,0.585462,0.695194,-0.749244,-0.440947,0.494165
-0.106965,0.269556,0.879323,0.478396,-0.686214,0.547948
0.308640,0.487272,0.596112,0.337258,0.923248,0.184040
0.142519,0.100403,0.692071,-0.501079,0.592040,0.631196
0.232936,-0.126345,0.823556,-0.309796,0.818740,0.483417
0.068254,-0.295056,0.801097,0.979844,0.049220,0.193603
0.628861,0.425871,-0.978754,0.118014,0.031452,-0.992514
-0.509898,0.376068,0.574989,0.926018,-0.354087,0.130817
0.078187,0.068440,0.829227,0.163951,-0.417836,0.893607
0.162384,-0.097924,0.430271,0.884780,-0.440538,0.151957
-0.090116,-0.810616,0.864467,0.634498,-0.238132,-0.735327
-0.553807,-0.515162,0.607742,-0.220919,0.353379,-0.909020
-0.318434,0.487583,0.468819,0.833823,0.550046,0.046777
0.031307,-0.124795,0.730618,0.656633,-0.752126,-0.056039
0.156397,0.409624,0.663530,0.378320,0.393188,0.838020
0.163870,-0.361902,0.339902,0.400188,0.761872,0.509314
-0.530878,-0.925185,0.619413,-0.361342,0.928066,0.090136
-0.032096,-0.330560,0.504654,0.357032,0.798182,0.485215
-0.628907,-0.340962,0.470874,-0.507082,0.126973,-0.852494
0.722667,0.100535,0.454969,-0.349214,0.209782,0.913259
-0.500661,0.145911,0.336018,0.507333,0.139502,-0.850384
-0.564529,-0.248263,0.433518,0.205309,-0.618785,0.758257
0.087331,0.358493,0.812398,0.388980,-0.613651,0.687115
-0.015990,-0.599849,0.772433,-0.364743,-0.513064,0.777000
-0.728422,-0.320997,0.462367,-0.684624,-0.084894,-0.723936
-0.667386,-0.664748,0.586290,-0.613592,0.784452,0.090220
-0.729118,-0.378769,0.599379,0.481172,0.389711,0.785238
-0.361368,-0.115410,0.284669,-0.215443,-0.292511,0.931677
0.205319,0.021559,0.020486,-0.208496,-0.458279,-0.864008
0.345447,-0.175483,-0.104260,-0.846566,0.195771,-0.494975
-0.167165,0.725663,0.514455,0.695341,0.238163,-0.678070
-0.745503,-0.589845,0.628085,0.020555,0.690110,0.723413
-0.082828,-0.012926,0.827439,0.587648,0.799500,-0.124375
-0.553158,-0.302493,0.659317,-0.413158,0.784521,-0.462416
-0.549490,-0.215990,0.797563,0.633171,0.599231,0.489914
-0.844786,0.020719,0.304272,0.976297,0.106328,0.188516
0.148692,0.786977,0.605626,0.978016,-0.071340,-0.195947
-0.146835,-0.337200,0.521709,-0.156672,0.983422,-0.091293
0.119775,0.082873,0.639283,-0.162614,0.905235,0.392564
0.027594,-0.125371,0.713029,0.269854,0.909763,0.315452
-0.671749,-0.623180,0.512010,-0.455522,0.853762,-0.252171
-0.261343,-0.359512,0.793680,-0.604632,0.159212,-0.780431
-0.159043,-0.668334,0.826700,0.900571,0.227713,-0.370295
-0.562997,-0.328346,-0.015801,0.024186,0.259935,0.965323
0.631228,0.417061,-0.980048,-0.078492,0.042457,0.996010
-0.464225,0.700873,0.456305,-0.367557,0.392810,0.842972
-0.540625,-0.140201,0.677543,0.637243,0.658725,0.400003
-0.153705,-0.564257,0.731584,0.168055,0.083837,0.982206
0.328784,0.527470,-0.254320,0.888543,0.432185,-0.153973
-0.377753,-0.309355,0.386997,-0.393236,0.793791,-0.463963
-0.544338,-0.795608,0.587975,0.971218,0.193387,-0.139060
-0.595999,-0.779318,0.547209,0.798991,0.478743,-0.363893
0.635452,0.113197,-0.803953,0.296979,-0.053526,-0.953383
0.039709,0.352561,0.747919,-0.557987,0.781000,0.280517
-0.246815,-0.017353,-0.461668,-0.299174,0.270316,0.915109
-0.852352,-0.255523,-0.007110,-0.476471,-0.497677,-0.724771
0.177377,-0.060206,0.812563,0.293708,0.591480,0.750924
0.099445,-0.083847,0.284690,0.008331,0.831625,0.555275
-0.313839,-0.758201,0.359915,0.250429,-0.283271,-0.925766
-0.286175,0.275754,-0.143033,-0.115676,0.078576,0.990174
-0.594050,-0.283854,0.285882,0.719648,0.549952,-0.423862
0.210379,0.331932,0.652002,-0.422629,-0.899324,0.112252
-0.017893,-0.074151,0.642304,0.125992,0.789166,0.601118
-0.486505,-0.343663,0.824707,0.970426,-0.234526,-0.057185
-0.715101,-0.219842,-0.024986,-0.057147,-0.456269,0.888005
-0.026666,0.207668,0.810159,-0.502761,0.516502,0.693150
-0.122978,-0.040373,0.676988,0.468946,0.303150,0.829572
0.514632,0.280580,0.738159,-0.260645,0.535243,0.803479
0.401750,0.032360,-0.202458,0.943165,-0.158671,0.292000
0.856389,0.321351,0.168780,-0.426673,0.102702,0.898556
-0.440693,-0.138297,0.676947,0.061975,-0.693210,0.718066
-0.337279,-0.308114,0.590462,-0.247573,-0.947513,-0.202305
-0.589918,-0.207800,0.462675,0.060979,-0.222593,0.973003
0.330362,0.045553,-0.022685,-0.483704,-0.873225,0.059238
0.151013,0.749746,0.577147,-0.719106,0.679951,-0.143362
0.134210,-0.311037,0.613578,-0.637760,0.025422,0.769815
-0.150781,-0.532782,0.520517,-0.469934,-0.007740,-0.882668
0.085010,-0.157112,0.768365,-0.252828,-0.377377,0.890878
-0.705632,-0.093895,0.261902,0.613825,0.447251,-0.650528
-0.844740,0.281597,0.433477,0.505841,-0.564098,0.652624
-0.102184,0.740804,0.528798,-0.380316,0.662772,0.645053
-0.407412,0.599894,0.552592,0.184292,-0.978294,0.094745
