-0.246293,0.311895,0.707864,0.935363,0.353486,0.011970
0.121257,0.109383,0.525396,0.924424,-0.370400,0.090791
0.007681,0.202319,-0.803762,0.813699,0.298722,-0.498658
0.046786,0.535565,-0.313726,0.748287,0.468741,-0.469413
0.044403,0.099890,0.810163,0.643657,-0.630910,0.433195
-0.189525,-0.251362,0.240187,-0.679183,0.089427,-0.728501
0.062025,0.183577,0.871259,0.749258,0.617655,0.238987
-0.454056,-0.059289,0.258040,-0.638295,0.746548,0.187740
0.192442,0.144624,0.183027,-0.193840,-0.977316,0.085317
-0.613104,-0.332597,-0.425287,-0.267638,-0.053942,0.962009
-0.614541,-0.809609,-0.142794,0.110966,-0.357313,0.927369
-0.846622,-0.082620,0.526280,0.998099,-0.061173,0.007467
-0.405052,-0.355262,0.488468,0.318835,-0.947681,-0.015654
-0.563195,-0.505999,-0.149257,-0.415827,0.881783,0.222592
-0.293983,0.162105,0.611735,-0.174002,0.922327,0.345015
-0.284740,-0.375580,0.251471,0.840953,-0.536754,-0.068514
-0.580242,0.027622,0.017653,0.293199,0.949790,-0.109239
-0.567468,-0.181721,0.059360,-0.460901,-0.089968,0.882880
-0.330253,-0.372217,-0.102582,-0.611449,0.362625,-0.703302
-0.084124,0.369100,0.814521,0.724371,0.675787,-0.136381
0.002711,-0.607938,-0.120772,0.659149,-0.263011,-0.704520
0.212035,-0.287863,-0.278356,0.137251,0.779820,0.610773
-0.666092,-0.234512,0.405413,0.868393,-0.467335,0.165803
-0.625509,0.442068,0.377980,0.862640,-0.362507,0.352761
0.109632,-0.258753,-0.277914,-0.019305,0.044873,0.998806
0.393757,0.114533,-0.344948,-0.589540,0.695605,0.410580
-0.276073,-0.262081,0.141531,-0.586890,0.535037,0.607697
0.507415,-0.518645,-0.231955,-0.236645,-0.285771,-0.928619
-0.344506,0.046818,0.869975,0.663497,-0.465589,-0.585661
0.198398,0.131278,0.856669,0.830626,0.471905,0.295578
0.129760,0.287444,0.806394,0.713323,0.630938,0.305104
-0.218977,0.078836,0.256566,-0.571805,0.254361,-0.779961
-0.032368,0.264218,0.900671,0.185088,0.542745,-0.819250
-0.240172,-0.187712,0.749213,0.511357,0.563702,-0.648656
0.067488,0.130716,-0.800583,0.429295,0.260457,-0.864794
-0.054467,0.217908,-0.441835,0.197502,0.449948,0.870942
-0.860670,0.370536,0.579924,0.807711,-0.155937,0.568583
0.108770,-0.340480,-0.143594,-0.770429,0.193563,0.607431
-0.540070,-0.417406,0.263956,0.138139,-0.143826,0.979914
-0.221770,0.100520,0.270166,-0.383376,0.710393,-0.590224
-0.611378,0.041704,0.601587,0.170951,0.945823,0.276035
-0.377983,-0.537562,0.335832,0.236350,-0.908739,0.343994
-0.754981,-0.185819,0.505921,0.985367,-0.166481,-0.036548
0.122325,0.063634,0.931935,0.741552,-0.667988,-0.062387
-0.414171,-0.407037,0.184564,-0.369391,0.458539,0.808265
-0.259232,0.115198,0.374970,0.773131,0.177444,0.608919
0.151489,0.409105,-0.294988,0.860041,0.238294,0.451161
-0.334935,0.213389,0.867912,0.782888,-0.527839,-0.329350
-0.167386,-0.059849,0.818479,-0.359577,-0.795140,0.488320
0.225508,-0.309897,-0.325516,-0.577325,-0.808132,0.116697
-0.328897,0.194157,0.800731,0.293938,0.894112,-0.337881
-0.222058,0.042895,0.607419,-0.073238,0.996280,-0.045405
-0.102978,0.153207,0.119530,0.015799,0.665619,0.746124
-0.186691,-0.467501,0.462678,0.847654,-0.432363,0.307482
0.302280,-0.338553,-0.113298,-0.237961,0.965203,0.108434
-0.026412,0.257668,0.557102,0.602694,0.630598,0.488985
0.266051,0.174540,-0.965852,-0.438958,0.637189,-0.633487
-0.516328,-0.634701,0.380444,-0.612113,-0.093462,-0.785228
-0.326474,0.022787,-0.002726,-0.224272,-0.073991,0.971714
-0.026206,-0.476048,0.015569,-0.366779,0.208672,-0.906603
-0.749189,-0.361603,0.450509,-0.219408,0.902667,0.370206
-0.369768,0.103638,0.438172,0.683977,0.105326,0.721860
-0.320600,-0.295956,0.136015,0.587714,-0.666722,-0.458338
0.049127,0.024259,0.527606,0.094388,0.731746,0.675010
0.097843,0.295536,0.883828,-0.092794,0.946101,0.310294
0.208585,-0.205998,0.031191,0.162556,-0.326111,-0.931250
-0.377736,0.058309,0.013548,-0.095820,-0.768271,0.632913
0.378682,0.088470,-0.988231,-0.082300,-0.038091,0.995879
0.058246,0.425499,0.825216,0.256993,0.889734,-0.377265
-0.025508,-0.077400,0.416950,0.427215,-0.863825,-0.267010
-0.705607,-0.299529,0.407034,0.809233,-0.460454,-0.364862
0.027685,-0.105285,0.275830,0.752873,-0.514745,-0.410147
-0.665969,-0.160773,0.472994,0.932957,0.220325,-0.284689
-0.249825,0.074984,0.570323,0.095033,0.979676,-0.176648
-0.191045,-0.040338,0.564555,0.309751,-0.404649,0.860414
-0.602793,-0.787539,-0.139552,0.068868,-0.333859,0.940104
-0.356377,0.125147,0.645589,-0.618352,0.662209,-0.423224
-0.402300,-0.549752,0.349453,0.761267,-0.601274,0.242778
0.367796,-0.044997,-0.247766,0.106301,0.164599,0.980616
-0.751489,-0.125531,0.484068,-0.602134,0.676114,0.424623
-0.029657,-0.197940,0.293725,-0.606741,-0.162880,-0.778033
0.033765,0.329165,0.873722,0.849591,0.266485,-0.455171
-0.764264,-0.252308,0.554933,0.823572,0.330559,0.460934
0.143685,0.170196,0.903429,-0.818864,0.560301,-0.124598
-0.459684,-0.640481,0.402929,-0.157141,0.312309,-0.936894
-0.515218,-0.181651,0.671085,-0.135803,0.587507,0.797742
-0.552228,-0.174400,0.554512,-0.318151,-0.775281,0.545637
-0.316492,-0.230238,0.634031,0.863636,-0.436709,0.251830
-0.152023,0.037045,0.576576,-0.429838,-0.872009,-0.234177
0.298624,0.134185,-0.992673,0.013867,-0.067815,0.997602
-0.160197,-0.166133,0.702812,0.459418,0.287294,0.840474
-0.269131,0.266530,0.776330,0.916410,-0.059611,0.395777
-0.589608,0.261521,0.373307,0.318854,0.861274,0.395651
-0.239104,0.342967,0.622388,0.647804,0.487043,-0.585781
0.112508,0.225615,0.664474,0.785331,-0.608629,0.113249
-0.390635,-0.307340,-0.095614,0.026220,-0.554964,0.831461
-0.030930,0.069939,0.862522,0.943554,-0.330216,0.025738
0.087944,0.403711,0.842437,0.133733,0.454631,0.880583
0.309181,0.213564,-0.561228,-0.633998,0.767239,0.096910
0.290491,0.189113,-0.259324,-0.337895,-0.920178,0.197735
-0.094023,-0.203580,0.496658,-0.507907,-0.611045,-0.607169
-0.243048,-0.421785,0.470131,-0.576475,-0.477710,-0.662926
0.329801,0.009686,-0.310083,-0.666113,0.526053,0.528736
-0.262600,0.048360,-0.113488,0.213940,-0.579972,0.786042
-0.694640,-0.656735,-0.147868,0.192194,0.438353,-0.878014
-0.448675,-0.080798,0.322358,0.550182,-0.833972,-0.042310
-0.315301,-0.323595,0.157552,-0.368835,0.572641,0.732149
0.062025,0.287724,0.814542,0.257458,0.435933,0.862368
-0.163442,-0.249295,0.680306,0.929470,0.129812,0.345304
-0.044650,0.257493,0.839300,0.026677,0.954446,0.297188
-0.702649,0.377927,0.565207,0.969857,-0.153830,-0.188983
-0.340070,-0.586920,0.325516,-0.508105,0.083394,0.857248
-0.222880,0.164171,0.677211,-0.462548,-0.773088,-0.434032
0.495584,0.064089,-0.078118,0.697252,0.460292,-0.549519
-0.122037,0.141436,-0.415729,0.100550,-0.037353,0.994231
-0.172273,-0.467290,-0.012664,-0.305436,-0.206438,0.929565
-0.606655,-0.073862,0.045549,-0.195952,-0.124835,0.972635
-0.226576,-0.768623,0.027906,0.494092,-0.653893,-0.572972
-0.780201,-0.267160,0.547523,0.758353,0.059525,0.649121
-0.541466,-0.510623,0.323200,0.000588,0.702955,0.711234
-0.569398,0.259664,-0.066728,0.659305,0.098022,-0.745458
0.352269,-0.400697,0.066876,0.373449,-0.290245,-0.881075
0.155597,0.299494,0.023085,-0.373042,0.582260,0.722366
-0.064859,0.012033,0.614493,0.840379,0.086541,0.535046
0.392031,-0.047519,-0.250945,0.153338,0.010875,0.988114
-0.297802,0.061672,0.280440,0.663412,-0.244287,0.707254
-0.780530,0.121294,0.572513,-0.656787,-0.550161,-0.515707
-0.580899,-0.003730,-0.442614,0.232458,-0.323506,0.917228
-0.649292,0.031370,0.653021,-0.553793,-0.648323,-0.522486
-0.339988,-0.205822,0.544428,0.219068,0.973747,0.061854
-0.519450,-0.364371,0.308273,0.201478,-0.829190,0.521393
-0.354570,-0.189638,0.763340,-0.292417,0.901951,-0.317768
-0.035983,0.055996,0.140583,0.625411,-0.485015,0.611246
0.192853,0.105425,-0.780267,-0.017879,-0.231334,0.972710
-0.144136,-0.049340,0.864922,0.094897,0.613654,0.783852
-0.000411,-0.082339,0.196859,0.079389,-0.139493,0.987035
-0.098172,-0.341286,0.002916,-0.188396,-0.068732,0.979685
-0.345697,0.384408,0.722012,-0.568726,-0.556578,-0.605616
-0.785172,-0.182036,-0.063739,0.624446,0.333286,-0.706390
-0.418114,-0.109173,0.639146,-0.700219,-0.667547,0.253129
-0.559335,-0.497977,-0.155131,-0.377459,0.919765,0.107501
-0.803615,-0.295010,0.550891,0.653887,0.257315,0.711492
0.381146,0.550558,-0.172963,0.720359,-0.406920,-0.561692
0.239392,-0.544707,0.088834,0.044189,0.213623,0.975916
-0.410105,-0.468867,0.308399,-0.525875,0.844328,0.102792
0.322325,-0.326432,-0.107593,-0.115303,0.962298,0.246347
0.018607,-0.583136,-0.113698,0.686010,-0.375026,-0.623495
-0.191867,-0.309828,0.639526,0.179629,0.751447,0.634871
-0.203040,0.025975,0.243155,-0.567765,0.211351,-0.795596
0.431177,0.164276,-0.982484,0.007754,-0.066464,0.997759
-0.863668,0.365281,0.565965,0.835808,-0.034885,0.547912
0.094229,0.098593,0.620072,0.899329,-0.422536,-0.112564
0.334607,0.247298,-0.795741,0.946599,-0.303890,-0.107706
-0.498994,-0.166798,0.488952,0.380897,0.755952,0.532405
-0.388991,0.194123,0.367706,0.045569,0.284979,0.957450
0.452331,0.236019,-0.985200,0.034671,0.033353,0.998842
0.397618,-0.485261,0.086813,0.300414,-0.858341,0.415934
-0.731362,0.428371,0.560976,0.024567,-0.996417,0.080932
-0.785623,-0.248524,0.556639,0.874432,0.436329,0.212100
-0.369069,-0.042334,0.641336,-0.679164,0.733135,0.035346
-0.226987,0.129947,0.347895,0.639668,0.432245,0.635602
-0.700267,0.155063,0.539649,-0.416499,0.727693,0.544969
-0.056357,0.237560,-0.220186,0.070467,-0.343614,0.936463
-0.425919,-0.024854,0.006116,-0.392221,-0.071488,0.917089
-0.051345,0.372638,0.368401,-0.183107,-0.632585,0.752534
-0.146436,0.150999,0.756203,-0.417242,-0.895035,-0.157550
-0.025180,-0.378733,0.425435,0.412032,0.135836,-0.900987
-0.366112,0.054175,0.594198,-0.288857,-0.952014,0.101148
-0.288560,-0.062057,0.891028,-0.823216,0.269838,0.499503
-0.428219,-0.476643,-0.123341,-0.623259,0.781144,-0.036897
-0.606367,-0.104128,0.480068,0.206205,-0.778981,0.592172
-0.319368,0.110434,-0.088792,-0.453809,-0.573587,-0.681950
-0.066010,-0.216751,0.130267,-0.630325,0.561062,-0.536563
-0.516534,-0.413343,0.130899,-0.755239,0.614065,0.229213
-0.248018,-0.158391,0.867891,-0.081086,-0.351873,0.932529
-0.769891,0.322019,0.399034,0.747172,-0.161102,-0.644811
-0.242268,-0.399155,0.421666,0.322935,0.841405,-0.433302
-0.127008,-0.237245,0.193469,0.440617,-0.834791,0.330124
0.287574,0.121329,-0.992189,-0.040906,-0.105832,0.993542
-0.314356,-0.158706,0.133067,0.072991,-0.748216,0.659428
0.433601,0.427986,-0.513142,0.445538,0.053037,-0.893691
0.051304,0.215351,-0.785172,0.546564,0.415368,-0.727143
-0.388869,-0.036519,0.722665,-0.256799,0.960270,-0.109249
0.062805,0.309128,0.760077,0.179548,0.738104,-0.650358
-0.555843,-0.053334,-0.012158,-0.733769,0.151492,0.662293
0.249538,0.454995,0.176269,0.463130,-0.053232,-0.884690
-0.298788,-0.311124,0.235955,-0.341240,-0.056850,-0.938255
0.114069,0.469953,-0.294672,0.822254,0.542783,0.171130
-0.532430,-0.510343,0.328042,-0.040627,0.700382,0.712611
0.271021,0.329620,-0.995916,0.150213,-0.086511,-0.984861
-0.385911,0.117335,0.444888,0.636725,0.123755,0.761095
0.304580,0.524250,0.064160,0.216994,0.058942,-0.974392
-0.263750,-0.401958,0.299052,0.692911,-0.661169,-0.287628
-0.009817,-0.297777,0.335642,-0.689422,-0.575533,-0.439841
0.233477,0.154643,0.926335,0.833313,-0.426592,0.351581
-0.441857,-0.218993,0.532196,0.333666,0.833472,0.440444
-0.207928,-0.213599,0.871386,-0.212194,0.965925,-0.148195
-0.438036,-0.131032,0.629567,-0.322705,0.888654,-0.325814
-0.521298,0.294660,0.421371,0.253559,-0.925291,0.282036
-0.223372,0.422136,0.798015,0.078858,0.936884,-0.340632
-0.284494,0.401538,0.736792,-0.073376,-0.925214,0.372284
0.036927,-0.104339,0.114751,-0.709979,0.588256,0.387149
0.073691,0.209606,-0.768245,0.546308,0.057020,-0.835641
0.294804,0.502181,-0.498868,-0.230584,-0.764747,0.601658
0.246827,0.303663,-0.792562,-0.203126,-0.793152,0.574152
-0.559540,0.029163,0.561270,0.936785,0.162334,0.309972
-0.629411,0.462456,0.367222,0.711517,-0.561688,0.422197
-0.742206,-0.342441,0.449098,-0.665845,0.743127,0.066429
0.211666,0.143783,-0.178585,0.638416,-0.736056,0.225050
0.286302,0.107912,-0.992505,-0.027232,-0.064646,0.997537
0.240132,0.471915,0.168311,0.463130,-0.053232,-0.884690
0.310783,0.200497,-0.377559,0.846912,0.530398,-0.037659
-0.784761,0.166973,0.421961,-0.152220,-0.136839,0.978828
-0.062395,-0.501059,-0.188480,-0.670777,0.426582,0.606701
0.267612,0.005587,0.070708,0.300158,0.930762,0.208777
-0.485110,-0.581384,0.370064,-0.288472,0.801960,-0.523110
-0.297762,0.096738,-0.054517,-0.673405,-0.632698,-0.382385
-0.322736,-0.262781,0.555523,-0.786929,0.425403,-0.446963
-0.479318,-0.045943,0.824226,0.144332,0.899067,0.413337
-0.395317,-0.209640,0.521248,-0.599148,0.327031,0.730803
-0.612652,-0.170056,0.049570,-0.422775,0.265231,0.866553
0.281249,0.229818,-0.371033,0.989184,0.126931,-0.073503
0.494763,0.183088,-0.979831,-0.172105,0.110440,0.978868
0.199631,-0.643214,0.088392,-0.007870,0.346301,0.938091
0.126104,0.161789,0.841279,-0.382053,-0.561317,0.734138
0.245472,0.580755,-0.446677,0.780602,0.624609,-0.022894
0.118423,0.361253,0.782793,-0.393490,0.540671,-0.743533
-0.729801,-0.226140,0.474194,0.812848,0.312869,0.491315
-0.790470,0.225650,0.551375,0.957707,-0.270124,-0.099151
-0.487985,-0.545269,-0.114119,0.666657,0.047024,0.743880
-0.807435,-0.175520,0.526785,0.886011,0.055328,0.460352
-0.249867,-0.108962,0.882586,0.029393,-0.641525,0.766539
-0.060053,0.901495,-0.365980,0.322961,0.327980,0.887764
-0.576094,-0.510834,-0.167089,0.312500,-0.934478,0.170571
-0.455658,-0.489850,-0.126246,-0.488434,0.775025,0.400960
0.202300,0.245722,-0.470383,-0.266997,-0.865544,-0.423728
-0.142206,0.115093,0.253176,-0.467774,0.774964,-0.424992
-0.573670,-0.559350,0.350085,-0.060395,0.836241,0.545026
-0.141466,-0.444871,0.461962,0.144483,0.923745,0.354711
-0.369357,0.208099,0.830437,0.878489,-0.109557,-0.465031
-0.348655,0.064264,0.306631,-0.630621,0.465334,-0.621114
-0.584925,-0.016516,0.534596,-0.814390,0.241514,0.527674
-0.795851,-0.244951,0.562176,0.853469,0.455192,0.253753
0.305977,0.189393,-0.520680,-0.038649,-0.998563,0.037124
-0.069336,0.074458,0.647736,0.737549,-0.675119,-0.015382
-0.012405,0.121083,0.765803,-0.106466,-0.925484,-0.363516
0.038283,0.090642,0.104645,0.610951,0.284147,0.738918
0.160813,0.195068,0.912187,0.995333,0.014163,-0.095457
-0.494804,-0.025695,0.806731,-0.039017,0.975549,0.216290
-0.779215,-0.000052,0.432193,0.079272,0.778405,0.622737
-0.272459,-0.573433,-0.025443,-0.091868,-0.189779,0.977519
-0.203696,0.350008,0.311241,-0.031357,-0.504675,0.862740
-0.255001,0.017953,0.657421,-0.341367,0.939813,0.014815
0.104621,0.303067,0.777572,0.893168,0.449384,0.017441
0.007106,0.084582,0.112330,-0.746923,0.105330,-0.656514
-0.643747,0.198536,0.581145,0.912101,-0.040260,-0.407984
-0.329801,0.354597,0.733676,0.519162,0.802064,0.295236
-0.029000,0.025450,0.683632,0.781712,0.222944,0.582428
-0.577654,-0.360972,-0.453983,0.456321,0.082739,-0.885960
0.067488,-0.157935,0.003926,0.020634,-0.054832,0.998282
-0.808256,-0.346820,-0.044580,0.284390,0.193766,-0.938924
-0.115547,-0.212268,0.643147,0.858653,-0.496104,0.128827
0.418731,0.622126,-0.169363,0.571897,0.099538,-0.814264
-0.721791,-0.129945,0.000326,-0.363292,-0.752909,0.548769
-0.238119,-0.146865,0.702243,0.632027,-0.774895,-0.008968
-0.872130,-0.077750,0.407097,-0.645926,-0.237655,0.725466
0.021894,0.083146,0.504721,0.792272,-0.518527,0.321612
-0.413596,-0.224353,-0.422908,-0.370217,0.071063,0.926223
-0.238242,0.071830,0.893007,0.622170,-0.495321,0.606269
0.213884,0.211567,-0.996968,-0.074507,0.031600,0.996720
0.354817,0.120032,-0.259134,0.764678,0.591356,0.256059
-0.370467,0.367943,0.778540,0.330931,0.815672,0.474514
-0.171493,0.038447,-0.408929,-0.013343,0.057153,0.998276
-0.025878,-0.429913,0.473457,0.229496,0.257861,0.938530
-0.707332,-0.444205,-0.045801,0.233412,-0.152929,0.960277
-0.475991,-0.110048,-0.459836,-0.850824,0.298500,-0.432430
-0.451469,-0.101606,0.015169,-0.476334,0.365174,-0.799847
-0.272253,-0.407843,0.304378,0.249759,-0.967932,-0.026977
-0.126761,-0.274026,0.628325,-0.641352,0.596709,0.482293
-0.544629,-0.267931,-0.032201,-0.698696,0.474377,-0.535528
-0.128404,0.328989,0.318336,0.490362,0.839292,-0.234808
0.067817,0.168024,0.891428,-0.374206,-0.914748,-0.152339
-0.533868,-0.406442,-0.113004,0.825570,0.312267,-0.470024
0.397371,0.168059,-0.986126,-0.029263,-0.085342,0.995922
-0.809982,-0.234968,0.533417,0.344071,0.934492,0.091317
-0.236311,0.079923,0.919703,0.989572,0.056969,-0.132291
0.282234,0.223933,-0.629462,-0.355189,0.934778,-0.005586
0.012241,0.365877,0.543775,0.768798,-0.006482,0.639459
0.005833,0.414255,0.556449,-0.525450,-0.771355,-0.359045
-0.817499,0.404901,0.559439,0.620834,-0.418307,0.663012
-0.285398,-0.382341,0.486573,0.435138,-0.085436,0.896301
-0.110043,-0.794615,-0.067971,0.720510,0.184427,0.668470
-0.142616,-0.812621,-0.078623,0.775571,0.266022,0.572470
-0.087369,0.075579,0.011927,-0.005240,0.054547,0.998497
0.596960,-0.033787,-0.056812,-0.463927,-0.208205,0.861059
0.235901,-0.094004,-0.307683,-0.767738,0.584494,0.262573
-0.030602,0.355788,0.353559,0.396957,0.428795,0.811517
-0.692134,-0.209710,0.451541,-0.752275,-0.041643,-0.657532
0.168002,0.319461,-0.772098,-0.324754,-0.300818,0.896684
-0.346478,0.044121,0.576829,0.145332,-0.856566,0.495150
-0.271185,-0.133624,0.696833,-0.653032,0.756285,0.039770
-0.667078,-0.491672,0.342464,-0.556389,-0.498100,-0.665078
-0.679113,0.145500,0.503163,0.021135,-0.929859,0.367308
-0.331773,-0.287863,0.157047,-0.322909,0.609156,0.724333
-0.647936,-0.590703,0.351474,-0.583222,-0.442012,-0.681526
-0.255289,-0.094670,0.577881,0.433592,0.224288,0.872750
-0.090286,-0.107316,0.603630,-0.013844,0.865518,0.500687
-0.208380,-0.068713,0.860669,-0.576073,0.652312,0.492574
-0.055165,-0.476608,0.013716,-0.007676,-0.110221,0.993877
0.225590,0.159337,0.912482,-0.303458,-0.871052,-0.386240
-0.384104,0.164767,0.774351,-0.656062,0.689580,-0.306694
-0.395605,-0.144799,-0.421455,-0.251543,0.200350,0.946882
-0.096817,0.029478,0.533922,-0.045480,0.970685,0.236013
-0.198275,-0.055646,0.732097,0.666108,-0.526345,0.528452
0.127254,0.174750,0.639947,0.989023,0.120637,-0.085320
0.046622,-0.105354,0.147615,0.793120,-0.563519,0.231101
-0.043500,-0.244041,0.657631,-0.685036,0.522657,0.507500
-0.043951,0.259559,0.872270,-0.687727,0.129335,0.714356
-0.697720,0.393096,0.459415,-0.303076,-0.861436,-0.407520
-0.253153,-0.167218,0.143594,0.153149,0.523494,-0.838152
-0.628507,-0.016692,0.035317,-0.326230,0.392877,0.859780
0.347176,0.283661,-0.701443,0.949343,-0.307785,-0.063379
-0.013637,0.246668,0.554028,0.929893,0.220924,0.294094
-0.671144,0.368329,0.431245,0.995278,-0.019320,0.095125
-0.758677,-0.127528,0.488658,-0.433130,0.873261,0.223190
-0.254467,-0.018619,0.887996,0.959549,-0.197024,-0.201113
0.424153,0.027552,-0.226481,0.532914,-0.118318,0.837857
0.203697,0.242464,0.695443,0.116458,-0.928953,0.351402
0.178887,0.365842,-0.322631,0.801379,0.570958,-0.178318
-0.492175,-0.243619,-0.485773,-0.062903,0.247891,0.966744
0.917396,0.060235,-0.250039,0.083350,-0.350668,0.932783
0.237626,0.174646,-0.103719,-0.159332,-0.953039,-0.257546
-0.558883,0.284641,0.528554,0.782556,0.584406,0.214652
-0.319490,-0.207678,0.542680,0.037408,0.981489,0.187828
-0.289505,0.013154,0.739339,0.922303,-0.117278,0.368242
-0.203574,-0.343037,0.678179,0.118524,0.760360,0.638596
0.378065,0.216997,-0.979831,-0.278878,-0.023848,-0.960030
-0.104539,0.062021,0.793004,0.760745,-0.397760,0.512888
0.185829,0.127599,0.921640,0.681292,-0.631873,-0.369563
-0.632040,-0.108577,-0.483899,-0.298928,0.630750,0.716098
-0.491929,-0.196749,0.100351,-0.488140,0.366725,0.791980
-0.416924,-0.503231,-0.138752,0.479644,-0.668723,0.568112
0.541426,0.193841,-0.980273,-0.056008,0.111916,0.992138
-0.260054,0.104023,-0.082855,0.138713,0.162665,0.976882
0.430561,-0.416040,-0.228228,0.094981,0.275644,0.956556
0.089382,0.157410,0.839616,-0.526730,-0.833335,-0.167652
0.416307,0.108333,-0.984210,0.089563,0.015835,-0.995855
-0.438530,0.280788,-0.021064,0.207681,0.206946,-0.956055
0.295954,0.192301,-0.734750,0.267050,-0.961263,0.068245
-0.121873,0.464733,-0.058602,-0.130832,-0.656896,0.742543
-0.398726,-0.271785,-0.066770,0.102836,-0.442235,0.890984
-0.410515,0.193492,0.802015,-0.761444,0.618178,0.195088
0.480838,0.053194,-0.080202,0.707560,0.466369,-0.530904
-0.084576,0.262852,0.817005,0.054975,-0.908827,0.413534
0.638940,-0.446762,-0.246060,0.282868,0.030197,0.958683
0.330705,0.046012,-0.314926,0.352766,-0.356382,-0.865187
-0.218649,-0.011262,0.021527,0.162551,-0.093292,0.982280
-0.688930,-0.078521,0.034580,-0.695621,0.442393,-0.566039
-0.133251,0.034698,0.712496,-0.722985,0.689702,-0.040047
0.198193,0.263728,-0.743402,0.677169,0.468017,0.567805
-0.134278,0.289090,0.858248,0.222171,0.926654,0.303237
-0.539741,0.412783,0.297094,-0.541702,0.277936,-0.793291
-0.275539,-0.050636,0.572471,-0.447674,0.139752,-0.883209
-0.560320,-0.367033,-0.103719,0.292281,-0.572339,0.766159
-0.679031,-0.532166,0.366885,-0.673154,-0.174721,-0.718565
-0.356459,-0.000438,0.800731,-0.176424,0.412667,0.893633
0.265476,-0.224178,0.114625,0.867054,-0.388321,0.312128
-0.390429,-0.022367,0.758140,-0.269818,0.895932,0.352852
-0.430931,-0.015641,0.730181,-0.350598,-0.900180,-0.258373
0.250154,0.016167,0.028117,-0.462477,-0.882175,0.088788
-0.516780,-0.141120,0.651357,0.258808,0.647085,0.717147
-0.161265,-0.099854,0.673484,0.728457,-0.271877,0.628834
-0.089998,-0.389522,-0.277598,0.199914,0.400162,0.894374
-0.177860,-0.442628,0.463941,0.149668,0.845827,0.512032
0.228630,0.107631,-0.787320,0.015907,-0.246460,0.969022
-0.764223,-0.344403,-0.027464,-0.302248,-0.342937,0.889404
0.259889,-0.008915,-0.171384,-0.577215,-0.335131,-0.744654
0.227110,0.063388,-0.037738,-0.516091,0.541765,0.663431
0.108688,0.193737,-0.780435,0.140343,-0.224840,0.964236
-0.430315,-0.147041,-0.006032,-0.628760,0.668089,-0.397892
-0.884206,-0.179199,0.453204,0.256835,0.802085,0.539162
-0.164962,0.315223,-0.132562,-0.132113,-0.797469,0.588718
-0.406695,-0.507015,0.308547,-0.920361,0.388061,-0.048419
-0.220250,-0.162734,0.800162,-0.334676,-0.744346,-0.577876
0.594208,-0.453418,-0.238608,0.238445,0.053345,0.969690
-0.193427,0.282855,0.707044,0.543760,0.701467,0.460727
0.217417,-0.303803,-0.299304,0.249525,-0.144343,0.957550
0.088930,-0.043560,0.428108,-0.734385,0.267438,0.623823
-0.751859,0.159582,0.476004,0.740325,0.667146,0.082676
-0.425385,0.033682,0.000705,0.233241,-0.257314,-0.937757
0.085932,0.510623,0.347685,-0.684766,0.501107,0.529138
-0.815897,-0.183858,-0.053149,0.624446,0.333286,-0.706390
-0.438283,-0.647032,0.351664,-0.542583,-0.621757,-0.564820
0.123475,0.403045,0.834458,-0.502174,-0.512061,-0.696861
-0.252865,-0.388296,0.755992,0.794456,0.507794,0.333146
-0.907784,0.327449,0.449056,0.818469,-0.055650,0.571850
-0.331485,-0.010282,0.691948,-0.401538,0.915834,-0.003978
-0.640008,0.174995,0.547165,0.891065,-0.287442,-0.351256
-0.240460,0.151735,0.808415,-0.388129,0.788741,0.476701
-0.282111,-0.210026,0.632178,0.880063,0.153173,0.449475
-0.088848,-0.223722,0.169953,-0.499868,0.832810,-0.237821
1.000000,0.077715,-0.246418,0.194820,-0.283296,0.939036
-0.739865,0.379364,0.440930,0.027968,0.973547,0.226768
0.175642,0.143013,-0.046875,-0.297800,-0.942557,-0.151330
-0.646498,0.125217,0.378970,-0.726172,-0.372659,-0.577754
-0.345861,-0.421540,0.139720,0.524459,0.044018,-0.850297
0.297187,0.477485,-0.517837,0.204204,-0.672892,0.710997
0.284206,0.197065,-0.232123,-0.428878,0.901010,-0.065144
0.089505,0.157130,0.856880,-0.380422,-0.897263,0.224050
0.145122,0.067662,0.550238,0.982452,-0.184399,0.028014
-0.590470,0.011368,0.392739,0.637022,0.044455,0.769563
-0.502321,0.000088,0.718433,0.427893,0.860471,0.276580
0.688437,0.062758,-0.238250,-0.211958,-0.577799,0.788177
0.151530,0.679576,-0.412192,0.817145,0.350355,0.457740
0.599179,0.250521,0.002621,-0.018097,-0.429880,0.902704
-0.420333,-0.347100,0.524427,-0.097687,-0.461114,0.881947
-0.136825,0.143013,0.928756,-0.521233,0.743926,-0.418199
-0.012816,0.192090,0.919597,0.339186,0.012703,0.940633
0.239762,0.462316,0.206628,0.919687,0.392503,0.010855
-0.643335,-0.565551,0.338084,-0.567064,-0.176396,-0.804564
-0.281331,0.174750,0.775656,0.428413,0.903122,0.028858
0.083221,0.153697,0.139931,-0.161056,-0.792544,0.588162
-0.684945,0.154713,0.482173,-0.088255,-0.080108,0.992871
-0.219593,-0.151104,0.710180,0.100856,0.477007,0.873093
0.379092,0.197625,-0.982126,0.151140,-0.239585,0.959039
-0.023249,0.043841,0.546765,0.979356,-0.194205,0.056084
0.285972,0.145956,-0.990000,-0.099541,-0.164774,0.981296
-0.482974,0.144028,0.518090,0.826502,-0.237492,0.510383
0.445430,-0.478815,0.078034,0.745476,-0.661275,0.083551
-0.095091,-0.110188,0.642789,0.773656,0.575248,0.265607
-0.375190,0.296762,0.744939,0.814918,-0.536277,0.219809
0.067776,0.172998,0.865112,0.443353,0.869599,0.217339
0.181023,0.210341,0.875975,0.835951,-0.522824,0.166856
-0.267201,-0.350043,0.254840,-0.707971,0.698906,-0.101527
-0.389279,-0.529049,0.355685,0.375218,-0.854725,0.358689
0.021073,0.271749,0.582934,0.983127,0.160956,0.086920
-0.263914,-0.038446,0.797446,-0.027008,-0.594378,0.803732
0.286836,-0.014695,0.114351,0.943254,0.029126,-0.330792
0.598275,0.155273,-0.973115,-0.178984,0.014588,0.983744
-0.150832,-0.215700,0.651947,0.997167,-0.070081,0.027323
0.240912,0.316974,0.298378,0.333078,0.554159,0.762868
-0.390471,-0.376666,-0.433056,0.158418,-0.194913,0.967942
-0.225344,-0.163470,0.769235,0.386170,0.783197,-0.487314
0.435490,0.260330,-0.985178,-0.035838,0.129838,0.990887
0.203902,0.073442,-0.995221,-0.196487,-0.048957,0.979283
-0.624399,-0.402483,-0.478047,-0.695795,0.079814,0.713792
0.123804,0.018794,0.096077,0.783496,-0.161042,0.600166
-0.319655,-0.190023,0.765845,0.409597,-0.694901,0.591052
-0.472376,0.133975,-0.089192,-0.500931,0.272300,0.821536
-0.104416,0.245547,0.794709,0.742562,0.396486,0.539815
0.041446,0.050286,0.393012,-0.072843,0.994424,-0.076254
0.013104,0.219519,-0.794162,0.757444,0.096176,-0.645777
0.282892,-0.052213,0.128162,0.912283,-0.124135,-0.390294
-0.608790,0.014731,0.404213,0.772749,-0.101178,0.626596
-0.034257,0.485962,0.317452,-0.197039,-0.349662,-0.915921
-0.243294,-0.774333,0.031612,0.566161,-0.808643,-0.159871
-0.279400,-0.392115,0.281998,0.700793,-0.598464,-0.388240
-0.296776,-0.015080,-0.295304,-0.045410,0.792125,0.608668
0.341056,0.103954,-0.986631,-0.115615,-0.033850,0.992717
-0.646991,-0.133834,-0.467836,-0.528018,-0.024780,0.848871
-0.525652,-0.104303,0.616177,0.077350,0.376590,0.923145
0.104046,0.048711,0.611356,0.901085,0.403454,-0.158969
-0.713001,0.411347,0.568513,-0.280794,0.946658,-0.158091
-0.004190,0.261416,0.846964,0.449062,0.752224,0.482185
-0.627644,0.260961,0.598682,0.798852,-0.449972,0.399199
-0.651920,-0.400942,-0.143805,-0.301807,0.889909,-0.342015
0.130417,-0.307656,-0.117488,0.706781,-0.320906,-0.630460
-0.186445,-0.250275,0.224481,-0.839658,0.232387,-0.490888
0.080469,0.018935,-0.241997,0.327973,-0.057477,-0.942937
0.036229,-0.397404,0.004011,-0.437002,0.319727,-0.840716
-0.295625,-0.180390,-0.059718,0.263232,-0.362953,0.893854
-0.632532,-0.405671,-0.152878,0.221557,-0.818165,0.530584
-0.458944,0.223828,0.572681,0.393252,0.663784,-0.636194
-0.095831,-0.292382,0.660558,-0.621404,0.387892,0.680732
-0.524954,0.197345,0.396149,0.047486,-0.102327,0.993617
-0.484576,0.323560,0.366317,0.176075,0.799579,0.574170
-0.637051,-0.042720,0.019569,-0.619289,0.003034,-0.785157
-0.845964,0.114708,0.421982,0.100977,0.250539,0.962826
-0.424030,-0.329655,0.464952,-0.528269,-0.194135,-0.826585
0.309140,0.192090,-0.583124,-0.371031,0.926896,0.056568
-0.132060,-0.232971,0.657484,-0.392694,-0.767282,0.507020
-0.842391,-0.178498,0.528806,0.960257,-0.251835,0.120360
-0.750996,0.116564,0.426971,-0.720035,0.476520,-0.504459
-0.421606,0.039987,0.447772,0.782167,-0.506551,0.362797
-0.245143,0.007935,0.257029,-0.591645,0.219131,-0.775846
-0.328117,0.191880,0.856417,0.971336,-0.129454,0.199369
-0.182584,0.106720,0.783404,-0.256617,0.056309,-0.964872
0.217827,0.099855,0.841532,0.921437,0.101398,0.375062
0.453728,-0.093164,-0.235807,-0.486118,0.152196,0.860538
-0.166852,-0.085177,0.826500,0.808243,0.103648,0.579655
-0.206326,-0.135166,0.677569,0.818301,-0.572951,0.045947
-0.464695,0.015922,0.458236,-0.673869,0.654436,-0.342949
-0.666461,0.365421,0.362612,-0.322780,-0.944033,-0.067941
0.064408,0.193772,0.868880,-0.593064,-0.633645,-0.496758
-0.881536,0.240222,0.439603,-0.307936,-0.740340,0.597554
-0.368248,-0.038936,0.685001,0.657734,-0.750533,-0.063926
-0.166153,0.352776,0.196690,0.336089,0.288673,-0.896500
-0.113699,0.090082,0.793172,-0.026648,0.803857,0.594225
0.098337,0.393656,0.815426,0.435504,-0.243405,0.866655
-0.070322,0.197520,0.830226,0.493259,0.839631,-0.227411
-0.461614,-0.372602,0.139594,-0.650211,0.757137,-0.062993
-0.069460,0.025450,0.127994,-0.387752,0.433663,-0.813378
0.076443,0.086754,0.596935,0.814362,-0.316794,0.486268
-0.350627,0.061146,0.309641,-0.625336,0.463342,-0.627909
-0.871308,-0.006674,0.455120,0.297373,0.920354,-0.254005
-0.853317,0.065771,0.422087,0.106804,0.089469,0.990247
-0.364716,-0.540328,-0.114246,0.691636,-0.404497,0.598350
-0.222304,-0.029057,0.886018,0.809681,0.166861,0.562650
-0.028548,0.372322,0.360380,0.454281,0.329453,0.827701
0.066420,0.046714,0.315389,0.916108,-0.332039,0.224712
-0.052043,0.468201,-0.025106,-0.106421,-0.584927,0.804074
-0.814870,0.051373,0.459878,0.494599,0.639474,0.588596
-0.513781,-0.631619,-0.141362,0.253683,-0.270368,0.928734
-0.782501,0.313822,0.479963,0.975429,0.144905,0.165952
0.418895,0.232515,-0.982294,0.025543,0.048453,0.998499
-0.218484,0.033122,0.892439,0.636575,0.765022,-0.097538
-0.475128,-0.025729,0.006263,-0.013090,0.511455,0.859211
-0.603040,0.170792,0.563502,-0.221144,-0.487954,0.844391
-0.826084,-0.286392,-0.005632,0.487247,0.469404,-0.736376
-0.271719,0.138178,0.877196,0.965305,-0.200184,-0.167667
-0.280509,0.379995,0.706728,0.910079,-0.145864,-0.387917
0.447361,0.079818,-0.088413,0.700228,0.471946,-0.535675
-0.461573,-0.609934,0.352190,0.850177,-0.050987,0.524022
-0.123804,-0.381009,-0.005042,-0.226543,-0.063639,0.971920
-0.778599,-0.137021,-0.041549,0.427531,0.675985,-0.600218
-0.434545,-0.486276,-0.106372,-0.727617,0.567382,0.385553
0.142740,-0.323560,0.113993,0.152743,-0.742863,0.651785
-0.229739,0.371762,0.676790,0.915540,-0.365318,0.168313
-0.704005,0.357785,0.494110,-0.453020,0.746825,-0.486853
-0.481701,0.281173,0.501290,0.750527,0.637413,-0.174395
0.587595,0.170652,-0.488005,-0.413654,-0.273425,0.868406
-0.881742,-0.103708,0.495016,0.880114,0.455858,0.132638
-0.224276,-0.393586,0.465983,0.534534,-0.243689,0.809252
-0.780695,0.162734,0.565123,0.934990,-0.056080,0.350212
-0.564305,0.037010,0.543628,0.882462,-0.393640,-0.257505
-0.328487,0.013925,0.795846,0.844990,-0.431917,0.315340
-0.362374,-0.721192,0.343621,-0.387123,0.597406,-0.702312
0.803574,-0.023138,-0.052412,0.197940,0.130048,0.971549
-0.035901,0.292137,0.286462,0.286495,0.917091,-0.277244
0.093654,-0.148582,0.009358,0.251145,-0.082773,-0.964404
-0.509099,-0.152190,0.067676,-0.444111,-0.172558,0.879198
-0.269789,-0.356629,0.264798,-0.652207,0.727130,0.214264
-0.041733,-0.451526,-0.283114,0.089198,0.342951,0.935109
-0.048100,0.146725,0.877259,-0.380161,-0.835369,-0.397034
-0.161430,-0.233181,0.566408,-0.104737,0.962687,0.249529
-0.276648,0.403535,0.792225,0.804927,-0.502470,0.315620
-0.020743,-0.166413,0.167005,0.807202,-0.569025,0.156953
0.864983,-0.101395,-0.293241,0.000102,-0.445450,0.895307
-0.815445,-0.145534,0.483563,0.901107,-0.269656,0.339547
-0.262190,-0.138494,0.143110,0.019516,-0.686135,0.727212
-0.109961,-0.042580,-0.098161,-0.495888,0.020769,-0.868138
0.045923,-0.434466,-0.153047,-0.633003,0.423120,0.648288
0.391210,-0.316869,-0.244418,-0.046964,0.231549,0.971689
-0.288560,0.410331,0.329684,-0.211804,-0.535617,0.817467
0.460382,0.232726,-0.510511,0.450909,0.036433,-0.891826
-0.306839,-0.477099,0.393244,-0.422713,-0.652605,0.628825
0.239926,0.034803,0.011843,-0.671110,0.710634,0.211211
0.244116,0.177868,-0.104561,-0.223314,-0.929067,-0.294899
-0.269624,-0.086717,0.752919,0.816307,0.527768,0.234742
-0.398562,-0.414464,-0.121846,0.631170,-0.603545,0.487194
-0.001684,0.107631,0.519353,0.646794,-0.583672,0.490901
-0.464079,-0.359746,0.108246,-0.441584,0.009093,0.897174
-0.110947,0.073091,0.209975,0.554291,-0.746379,0.368348
-0.757117,-0.123325,0.469899,-0.621697,0.505639,-0.598183
-0.207722,0.011753,0.592324,-0.096848,0.910243,-0.402588
-0.008503,0.074913,0.827489,0.747328,-0.647430,0.149446
-0.134155,-0.081603,0.767277,0.934172,-0.020734,0.356219
0.189074,0.002259,-0.020853,-0.852346,0.502696,0.144232
0.097515,-0.093829,0.142710,0.810112,-0.171358,-0.560674
0.110906,0.122589,0.769088,-0.046131,-0.972176,0.229666
0.226330,-0.511779,0.075108,-0.091366,0.276789,0.956577
-0.062230,-0.258893,0.005674,-0.190441,0.055469,0.980130
-0.578394,-0.188132,0.049528,-0.414870,-0.070899,0.907114
0.126432,-0.079257,0.722749,0.525155,-0.786200,0.325734
-0.019635,0.156149,0.918397,0.100766,0.441141,0.891763
0.251797,0.365947,-0.169700,-0.587521,0.192179,0.786057
0.156131,0.040162,0.834290,0.850584,0.018783,-0.525504
-0.000411,-0.148722,0.248776,-0.679303,0.569098,0.463330
0.059479,-0.011928,0.563207,0.527344,-0.421823,-0.737545
-0.498994,0.172858,-0.098393,-0.359904,-0.491357,0.793119
-0.027562,0.009511,0.629167,0.884983,-0.420780,-0.199373
-0.084576,0.215911,0.880186,0.975497,0.083265,0.203646
-0.500103,-0.317885,-0.080539,0.155328,-0.499682,0.852169
-0.657630,0.408159,0.421224,0.968502,-0.181965,-0.169980
0.121873,0.118070,0.663737,0.649174,0.760175,0.026589
-0.352023,-0.025729,0.606388,-0.649041,0.053171,-0.758893
-0.294434,-0.236649,0.605040,-0.344047,-0.924976,-0.161404
-0.051304,0.083005,0.160731,-0.672281,0.440869,-0.594704
-0.643911,-0.016832,0.711233,0.244229,-0.946843,-0.209380
-0.579503,-0.039707,-0.030601,0.822222,-0.336765,0.458847
-0.322078,0.138809,0.597966,0.685453,-0.456759,-0.567032
-0.268885,0.019319,0.015801,-0.025229,0.167509,0.985548
0.094270,0.323560,0.802394,0.807044,0.451548,0.380506
0.123681,-0.319987,-0.135467,0.706781,-0.320906,-0.630460
-0.159910,0.164522,0.787172,0.836579,-0.232558,0.496036
0.359047,0.075789,-0.319494,0.552194,-0.686656,-0.472849
0.363648,-0.404936,0.062770,-0.546251,-0.237888,0.803131
-0.075251,0.249295,0.862585,0.824955,0.532930,-0.188240
0.035285,0.410751,0.839237,0.427065,-0.903080,0.045403
-0.110618,0.338658,0.755992,0.464023,0.756184,-0.461378
-0.322078,-0.327378,-0.091950,0.032661,-0.219509,0.975064
0.251510,0.142697,0.960715,0.877311,-0.408894,0.251260
-0.485357,-0.492302,-0.146205,-0.444293,0.865071,0.232930
-0.032080,0.147216,0.951388,-0.296471,0.233927,0.925950
0.371165,0.169566,-0.985263,-0.022779,-0.078624,0.996644
-0.860629,-0.188517,0.477605,0.737071,-0.427848,-0.523137
-0.276237,-0.486172,0.328631,0.918372,0.253487,-0.303871
-0.516082,-0.388822,0.273114,-0.237974,0.511158,-0.825885
-0.054508,0.371833,0.523627,-0.455978,0.302450,-0.837023
-0.855659,-0.010211,0.506595,0.102969,-0.994586,-0.014025
0.421730,-0.459688,0.076560,-0.499064,0.866526,0.008259
-0.045060,0.226350,0.843890,0.935435,0.062855,-0.347866
-0.095091,0.004081,-0.107214,0.356042,0.074242,0.931516
-0.023413,0.125077,0.721065,-0.391334,0.675510,0.624935
-0.358760,-0.256511,0.101024,0.192301,-0.112274,-0.974892
-0.770630,-0.252798,0.522680,0.770199,0.615551,0.167002
-0.586075,0.200497,0.581734,-0.611833,0.237007,-0.754645
-0.396262,-0.547580,0.293515,0.911477,-0.011681,0.411184
-0.820785,0.432785,0.588871,-0.404199,0.903338,-0.143541
0.440172,0.043806,-0.253176,-0.716193,-0.533508,-0.449930
-0.246539,-0.182142,0.502405,0.086760,-0.980226,0.177845
0.593798,0.147987,-0.973810,-0.178984,0.014588,0.983744
-0.267529,-0.673130,-0.001084,-0.253297,0.842545,0.475351
-0.605709,-0.013994,0.442930,0.609374,-0.285275,-0.739785
-0.214295,-0.124060,-0.073887,-0.479846,0.403420,-0.779102
-0.516082,-0.571997,0.390339,0.490207,-0.502805,-0.711958
0.004067,0.101361,0.527880,0.805547,-0.173053,0.566698
-0.008051,-0.162769,0.122099,0.867299,-0.430139,0.250545
-0.464941,-0.326152,-0.420129,-0.309327,0.388211,0.868107
-0.401848,-0.553605,-0.182564,-0.761982,0.487056,-0.426803
0.141672,-0.295816,-0.133425,0.706781,-0.320906,-0.630460
-0.703759,0.363635,0.429877,0.958691,-0.256503,0.122956
0.273732,0.067697,-0.022727,0.805591,-0.469481,-0.361401
-0.184720,-0.111940,-0.087508,-0.534521,0.454441,-0.712580
-0.294229,-0.246598,0.117930,-0.086069,-0.187819,0.978425
-0.260136,-0.229503,0.728181,0.635811,0.308684,0.707431
0.391210,0.601107,-0.157910,0.571897,0.099538,-0.814264
0.121668,0.098664,0.391455,0.517985,-0.181010,-0.836018
-0.105812,0.043421,0.792499,0.814206,0.578515,-0.048884
0.204600,-0.129665,-0.322421,0.473500,-0.407088,-0.781074
-0.120641,0.035293,0.755487,0.689382,-0.719328,0.085559
0.046580,-0.452612,-0.009569,0.056951,0.112330,0.992038
0.181598,0.373794,-0.300525,0.617657,0.381779,0.687564
-0.489217,-0.356839,-0.102182,-0.676710,0.674035,-0.296211
-0.737729,-0.208029,0.470804,0.673367,0.621912,0.399752
-0.267652,0.236894,0.868375,0.464911,-0.881956,-0.077539
0.245923,0.197415,-0.156121,0.998916,-0.039013,0.025375
-0.395276,-0.280962,0.638915,0.304478,-0.952480,0.008623
-0.092914,0.401152,0.383012,0.927143,-0.320277,-0.194495
-0.169645,-0.490235,0.503753,0.137930,0.750299,0.646550
-0.598111,-0.504808,0.310062,0.519895,0.351868,0.778394
0.523640,0.143117,-0.972652,-0.014803,0.013456,0.999800
-0.188827,0.139860,0.327600,-0.660169,0.533432,-0.528798
-0.235038,0.095967,0.955957,0.574272,0.803729,0.155666
0.083344,0.268352,0.362696,0.911642,0.027282,0.410079
-0.243458,0.172509,0.851764,-0.198562,0.672837,-0.712645
0.002136,0.081113,0.470678,-0.216460,0.960559,-0.174559
0.079113,0.175906,0.534870,0.661205,0.727001,-0.185140
-0.006490,-0.513180,-0.010516,-0.392813,0.179915,-0.901847
-0.062271,0.102588,0.648684,0.851837,-0.479701,0.210383
-0.170795,0.018654,0.958841,0.687664,0.723686,-0.058290
0.457425,0.230064,-0.977978,0.049021,0.082658,0.995372
-0.336948,-0.414359,-0.131109,-0.536332,0.664247,-0.520696
0.044321,-0.078556,0.594577,-0.332220,0.311915,0.890134
0.203492,0.298688,0.574113,-0.381232,0.293801,0.876552
-0.017293,-0.142206,0.658579,-0.366451,-0.280843,-0.887040
0.076689,0.536196,-0.263219,0.705174,0.708877,-0.014957
-0.132429,0.237105,0.818437,0.043966,-0.082125,0.995652
-0.644568,0.172543,0.564870,0.964039,-0.252865,0.081787
-0.804313,0.221726,0.586829,0.888916,-0.401983,-0.219632
-0.429000,-0.685776,0.365812,0.650720,0.363536,0.666637
-0.873444,0.237315,0.439898,-0.307936,-0.740340,0.597554
-0.096447,-0.131416,0.753550,0.811720,-0.501985,0.298533
0.043869,0.349273,-0.257050,0.244076,0.907358,-0.342241
0.152352,0.189778,0.289157,0.949915,0.070705,-0.304405
-0.108564,0.127144,0.425856,-0.760571,0.067891,-0.645696
-0.261902,-0.189778,0.809636,0.483154,-0.855364,0.186855
0.144506,0.048535,0.502763,0.625157,-0.775235,0.090495
0.165044,0.147882,0.208396,0.286996,0.888694,0.357570
-0.350051,0.111135,0.321958,0.347020,-0.860987,0.371858
0.115958,0.115233,0.573713,0.774641,-0.562074,0.289834
-0.013226,0.198501,0.862312,0.262290,0.243597,-0.933737
-0.674759,0.011297,0.669568,0.694583,0.689343,0.205818
-0.633600,-0.008495,0.683001,-0.606618,-0.745476,-0.276187
-0.310741,-0.398315,0.174900,-0.411351,0.294154,0.862707
0.226864,0.186521,0.892165,0.132532,0.616869,0.775828
-0.478086,0.182562,0.541544,0.910328,-0.050757,-0.410763
-0.465927,-0.073476,0.245366,-0.596109,0.671328,0.440422
-0.167878,-0.212758,0.527333,-0.517094,0.735189,0.438304
0.019840,-0.491986,0.112183,0.519098,0.744974,-0.418989
-0.180489,-0.112746,0.661905,0.846706,-0.505122,0.167157
-0.723886,-0.223197,0.474552,0.871468,0.264304,0.413143
-0.232491,-0.213389,-0.091971,-0.538573,0.364710,-0.759556
-0.347587,-0.715412,0.336063,-0.160066,0.236484,-0.958360
0.195769,0.359887,0.816415,-0.875183,-0.034397,-0.482568
-0.337359,-0.039777,0.824626,-0.278960,0.762929,0.583198
-0.009612,-0.158495,0.122099,-0.784959,0.499742,-0.366193
-0.425057,-0.173069,-0.065360,0.338397,-0.144407,-0.929857
-0.266420,-0.302997,0.150647,0.182415,0.419984,0.889010
-0.522407,0.480672,0.318000,0.720156,-0.260992,0.642852
0.279893,-0.445922,0.079213,0.190704,0.178126,-0.965351
0.004354,-0.376981,0.441393,-0.005852,0.104891,0.994467
-0.214459,0.143643,0.346779,0.649304,-0.139192,0.747683
-0.679770,-0.053334,0.453162,-0.044764,0.262330,0.963939
-0.089341,0.407213,0.821005,-0.345197,0.119783,0.930855
-0.195933,0.391450,0.749445,0.446815,0.875604,-0.183503
0.263298,0.176397,-0.224733,-0.684280,0.729212,-0.003242
0.321422,-0.005412,0.156858,0.423109,-0.286744,-0.859509
-0.107291,-0.083391,0.150878,0.743210,-0.547392,-0.384708
-0.499897,-0.672324,-0.132773,-0.259319,0.246545,0.933793
0.286219,0.229889,-0.585461,-0.348541,0.935627,0.055865
-0.258574,0.203825,0.804310,-0.411527,-0.332796,0.848464
0.343685,0.401643,0.211365,-0.631135,0.699605,0.334994
-0.084288,-0.380589,-0.285704,0.076895,0.230797,0.969959
-0.376012,0.234723,0.449709,0.270808,0.289552,0.918054
0.486178,0.166693,-0.978631,0.301486,-0.114247,-0.946601
-0.033559,0.089345,0.650052,-0.650268,-0.754828,-0.085942
-0.011584,0.056662,0.514343,0.842065,-0.503858,0.192495
0.291805,0.205227,-0.275346,-0.179679,0.983712,0.005116
-0.061450,0.074002,0.154079,0.634350,-0.503648,0.586463
-0.127870,-0.103042,-0.073613,-0.632109,0.729163,0.262220
0.265517,0.180109,-0.335074,0.901557,-0.363558,-0.234563
0.144794,0.178779,0.261535,0.918819,0.393798,0.026349
-0.190018,0.135621,0.850122,0.258967,0.536565,0.803140
-0.453481,0.073477,0.022285,0.102826,-0.130943,0.986043
-0.078989,0.170967,0.384044,-0.231732,0.807939,0.541788
-0.549682,0.271540,0.528154,0.883520,0.096043,0.458442
-0.493530,0.062232,0.523227,0.800534,-0.168273,0.575178
-0.347258,0.074528,0.352590,-0.451207,0.890750,-0.054570
-0.327419,0.374599,0.705654,0.912589,-0.111165,0.393477
-0.043335,0.160003,-0.420866,0.113986,0.410712,0.904612
-0.830232,-0.293819,-0.016348,0.675398,0.202136,-0.709209
-0.512384,-0.666334,0.384886,0.474641,0.338633,0.812431
0.638735,-0.088190,-0.053970,-0.200798,0.138163,0.969841
-0.840789,-0.218188,0.577103,0.733261,0.609260,0.301878
-0.288930,0.017498,0.271345,-0.551144,0.322122,-0.769726
-0.167468,-0.228697,0.710517,0.906104,-0.098770,0.411365
0.379955,0.177343,-0.986526,-0.089485,-0.194301,0.976852
0.456234,0.022367,-0.232797,0.691781,0.071968,0.718512
-0.754364,0.246002,0.471141,-0.530561,0.839364,0.118207
-0.147916,-0.203125,0.211744,-0.613781,0.610279,-0.500831
-0.450647,0.011123,0.451098,-0.610431,0.645371,-0.459207
0.271062,0.339113,0.211912,0.752894,-0.640398,-0.151791
-0.432491,-0.036484,0.725213,0.424988,0.905198,0.001686
-0.586609,0.361007,0.324905,0.058303,0.482216,0.874110
-0.553460,0.243481,0.558702,0.803944,-0.387736,0.450926
-0.041774,0.112851,-0.089529,-0.325290,0.516002,-0.792419
0.475005,-0.059394,-0.226649,-0.502228,0.075898,0.861398
0.426659,-0.503582,-0.199006,0.172197,0.276046,0.945593
0.139905,-0.175205,0.012516,-0.278219,0.101519,0.955138
0.301130,0.255111,0.331979,0.018989,0.535237,0.844488
-0.004025,0.085843,0.536154,0.954700,-0.284787,0.086283
-0.292257,-0.248349,0.117993,-0.148778,-0.214822,0.965255
-0.200000,0.080587,0.251450,-0.548723,0.348120,-0.760076
0.237544,0.149458,-0.256208,0.754416,-0.650704,0.086253
-0.624112,-0.425183,-0.177974,0.175504,-0.908679,0.378814
-0.285480,-0.376806,0.265177,0.844361,-0.479146,-0.239736
-0.877223,0.388787,0.564050,0.836154,-0.156067,0.525823
-0.275169,-0.387736,0.293009,-0.538556,0.725081,0.429203
-0.384884,0.161474,0.570513,0.147436,0.940671,0.305617
-0.380324,0.200042,0.782983,0.458602,0.316689,-0.830297
-0.278579,0.154082,0.753845,0.372324,0.842818,-0.388631
-0.234545,-0.111379,0.583692,-0.179835,0.681952,0.708944
0.515178,0.199026,-0.981115,-0.003488,0.141902,0.989875
0.641323,-0.083531,-0.051633,-0.200798,0.138163,0.969841
0.599096,-0.032456,-0.272651,0.006540,0.239899,0.970776
-0.778394,-0.020510,0.518911,-0.053871,0.993811,-0.097150
0.779133,0.199271,-0.754540,-0.073412,-0.296321,0.952263
-0.488725,-0.060235,-0.074181,0.052397,-0.779077,0.624735
-0.030314,0.341461,0.781825,-0.171154,-0.981051,-0.090808
-0.273609,0.323175,0.741402,-0.304071,0.925567,0.225535
-0.165044,-0.448479,0.468131,-0.058004,0.674248,0.736223
0.278743,0.234617,-0.996210,-0.332442,-0.004259,0.943114
0.129472,0.154538,0.111888,-0.242976,-0.953222,-0.179807
-0.160033,0.044506,0.526511,-0.064017,0.986663,0.149656
-0.817170,-0.171212,0.535038,0.933304,0.065475,0.353066
-0.209489,-0.246143,0.601861,0.147971,0.686703,0.711718
0.838447,0.126303,-0.225554,-0.258470,0.073756,-0.963199
-0.066338,-0.374879,0.420740,-0.842884,0.063444,0.534342
-0.690244,-0.070744,0.035296,-0.668535,0.290533,-0.684582
-0.403738,-0.542991,0.386170,-0.761905,0.603165,-0.235993
0.097515,0.445957,-0.350906,0.618413,0.507279,-0.600194
0.354775,0.463962,0.056454,-0.196179,-0.123296,0.972786
-0.472623,-0.040022,0.729823,-0.632961,-0.773673,0.028105
-0.256357,0.141962,0.810689,0.530787,0.748847,0.396856
-0.193099,0.019881,0.603251,0.013646,-0.952910,0.302946
-0.187595,-0.359921,0.424213,0.819499,0.457035,0.345746
-0.535592,-0.015465,0.653863,-0.544616,0.096120,0.833159
-0.525652,-0.803408,-0.150836,-0.318098,0.568561,-0.758651
-0.267529,-0.050041,0.482173,-0.569514,0.809506,-0.142671
-0.352351,-0.035853,0.602682,-0.593168,0.478010,-0.647811
0.186322,0.118701,0.165489,0.391055,-0.891482,-0.228770
-0.075662,0.248455,0.906229,0.390125,-0.863010,-0.320960
0.012570,0.219485,0.606872,0.500556,0.845546,0.185733
-0.403122,0.065280,0.324884,-0.567963,0.608261,-0.554470
-0.200041,-0.084195,0.127088,0.049479,-0.385272,-0.921475
0.206120,0.131207,-0.078897,-0.487286,-0.844132,-0.223590
0.251427,0.185855,0.939409,0.996297,0.059506,-0.062059
0.274841,0.179480,-0.562344,-0.195136,0.960584,0.197990
-0.569029,-0.073441,-0.483289,0.188789,0.833577,-0.519141
-0.845266,-0.134184,0.545628,0.912283,0.245569,0.327774
-0.245512,0.054525,0.951346,0.960149,0.264248,-0.091030
-0.591292,0.273606,0.540807,-0.576487,-0.137542,-0.805447
0.498090,0.189148,-0.980315,-0.113528,0.131203,0.984834
-0.559828,0.222567,0.549986,0.868336,-0.431746,0.244107
-0.386486,-0.198886,0.505184,0.093525,0.152016,0.983943
-0.278374,0.323875,0.780119,0.916380,0.387577,0.100164
-0.566113,-0.016587,0.621546,0.934034,0.264635,0.239894
0.002465,0.127599,0.725549,-0.117048,0.992658,-0.030505
-0.569563,0.203545,0.543228,0.994002,0.044266,-0.100006
0.039269,-0.422836,-0.163342,-0.641776,0.386138,0.662587
-0.119039,0.325521,-0.467541,0.037176,0.452109,0.891187
0.273485,0.110119,-0.993347,-0.009674,-0.059688,0.998170
0.194167,-0.205331,0.018685,-0.015985,0.303842,0.952588
-0.142534,0.041775,0.783635,-0.527028,0.846157,-0.079116
0.107496,0.184314,0.661463,0.188303,-0.130517,-0.973400
-0.462477,0.214020,-0.068686,0.250200,0.767379,-0.590364
-0.294968,0.004361,0.266251,-0.505543,0.485024,-0.713567
-0.044773,0.338413,0.802899,-0.159147,-0.956310,0.245243
-0.269337,0.123746,0.915871,0.815673,0.487889,-0.310874
-0.370549,-0.059499,0.769193,-0.182836,0.918729,0.350013
-0.486342,0.002050,0.798646,-0.039017,0.975549,0.216290
-0.402259,0.079642,0.453141,0.819268,0.115365,0.561685
-0.879770,-0.090291,0.498216,0.836859,0.441726,0.323335
-0.734073,-0.626609,-0.149763,0.170591,0.601062,-0.780784
-0.069008,0.372708,0.785025,-0.608792,-0.705357,0.363103
-0.513946,0.064614,0.541607,0.875256,-0.207711,0.436786
-0.237708,0.212863,0.382107,-0.382782,0.440238,-0.812200
0.882645,-0.044962,-0.289156,0.026868,-0.447719,0.893771
0.552968,0.241308,-0.006200,-0.017312,-0.286022,0.958067
0.248840,0.201864,-0.210501,-0.190150,0.980905,-0.040845
-0.065886,0.428862,0.380696,0.924762,-0.288493,0.248167
-0.445101,-0.681222,0.371538,0.650720,0.363536,0.666637
-0.280427,0.038972,0.753866,0.783056,-0.566074,0.257650
-0.084534,0.269228,-0.217933,0.075835,-0.374385,0.924167
-0.618525,0.040549,0.026748,0.645781,-0.755592,-0.109763
-0.278332,0.189813,-0.391012,0.148752,0.126410,0.980762
0.506429,0.184104,0.148584,-0.606968,0.617032,0.500860
0.179257,0.279842,0.711633,0.107897,-0.770532,0.628203
0.503594,0.170021,-0.026432,-0.120360,-0.358514,0.925733
-0.549723,-0.396669,-0.082392,0.105232,0.751429,-0.651369
0.061039,0.460809,-0.264314,0.796867,-0.304084,0.522049
-0.784597,0.401854,0.444993,-0.276498,-0.932747,0.231370
-0.339412,-0.027306,0.663442,0.014809,-0.851259,0.524536
-0.150503,-0.049060,0.354422,0.108620,-0.255211,0.960765
-0.695708,0.065245,0.643505,0.538922,0.783343,0.309738
