0.157149,-0.517771,0.424941,-0.218893,0.844632,0.488551
-0.430151,-0.346193,0.667529,0.739927,-0.568665,-0.359344
-0.774371,-0.044251,0.184544,0.241274,0.408603,0.880245
-0.563339,-0.337133,0.781990,0.080247,0.018877,0.996596
0.535548,-0.368941,0.422980,0.838468,0.308262,0.449385
-0.033996,-0.140568,-0.966638,-0.047938,0.089622,0.994822
0.079913,0.186610,0.044190,0.963773,-0.232141,0.131347
0.154109,-0.122300,-0.962528,0.221156,-0.139716,-0.965179
0.448459,0.842857,0.055019,-0.131954,-0.235195,0.962949
0.049809,-0.033001,0.120908,0.970777,0.114587,-0.210860
0.231040,-0.408562,-0.941601,-0.026054,0.159213,0.986900
-0.721766,0.585166,0.228317,-0.125104,-0.328818,0.936070
0.849662,-0.571578,-0.915938,-0.095727,0.182543,0.978527
-0.284436,-0.069338,0.615077,-0.445453,0.792164,0.417190
0.163960,-0.386162,-0.942081,0.022506,0.144243,0.989286
0.066534,-0.267198,-0.957061,0.123062,-0.136038,-0.983031
0.406738,0.594226,0.047925,0.313348,-0.071063,0.946976
0.020860,0.119810,-0.476183,0.418725,-0.772208,0.477874
-0.031868,-0.309956,0.014438,-0.280371,-0.061846,-0.957897
0.529100,-0.542759,0.017192,0.386394,-0.240859,-0.890330
-0.723103,0.581832,0.215611,-0.125104,-0.328818,0.936070
-0.011190,0.056346,0.614722,0.170229,0.955438,0.241165
-0.643860,-0.133250,0.278746,0.437222,0.538079,0.720630
0.291127,-0.413391,0.342590,-0.099534,0.748898,0.655167
0.411178,-0.061125,0.422813,-0.111834,-0.213620,0.970494
-0.001519,0.225037,0.202028,0.829075,-0.271681,0.488696
-0.063491,0.102438,-0.710802,0.958943,0.224406,0.173410
-0.227755,-0.008314,0.541176,-0.638870,0.539915,-0.548030
-0.592836,-0.109607,0.275115,-0.006155,0.473057,0.881010
0.160434,-0.475312,-0.943145,-0.059154,-0.091335,0.994062
-0.006567,0.073619,0.467003,-0.708170,0.705845,-0.016669
0.200511,-0.419264,0.364894,0.039391,0.434385,0.899865
-0.108008,-0.255054,-0.698262,-0.234069,-0.495559,0.836441
0.322812,-0.769687,0.174445,0.193774,-0.036631,-0.980362
-0.540228,-0.088601,0.205304,0.160782,0.985886,0.046667
-0.527094,0.331557,0.785224,0.885220,0.392970,0.248917
-0.676701,-0.281334,0.762670,-0.382375,-0.913904,-0.136266
0.387947,-0.511002,-0.014334,-0.137174,0.329343,0.934193
0.912243,-0.545247,-0.912600,-0.237062,-0.231104,0.943606
0.185671,-0.380488,-0.947485,0.151113,0.013834,0.988420
0.357355,-0.335640,-0.941205,-0.100562,0.125870,0.986937
-0.447545,0.336535,0.221286,0.886027,0.451597,-0.104959
-0.264974,0.251220,0.766822,-0.703663,0.673351,0.226842
-0.382290,-0.129966,0.689249,0.653804,-0.167552,0.737880
-0.569055,-0.060031,0.658245,0.758398,-0.603271,0.246773
0.372986,-0.620707,-0.927560,-0.055027,-0.023464,0.998209
-0.467189,0.348979,0.781010,-0.468808,-0.862417,-0.190934
-0.118955,0.125684,0.743683,0.925925,-0.073800,-0.370427
-0.073343,0.587805,0.055457,0.020346,0.092431,0.995511
-0.405278,-0.086511,0.589080,-0.685028,-0.054516,-0.726475
0.260962,-0.659035,-0.930543,-0.113586,0.249763,0.961622
-0.072007,0.244698,0.237977,0.899734,0.167863,0.402865
-0.267287,-0.424390,0.596299,0.797569,0.473700,0.373486
-0.676944,0.062419,0.794509,0.515239,0.848600,-0.120029
-0.085629,0.156943,-0.981556,0.051666,0.060147,-0.996852
0.986316,-0.262718,-0.933652,0.156562,0.263072,0.951988
-0.572461,-0.041315,0.165849,0.676725,0.207034,0.706527
-0.359118,0.536684,0.420267,0.292617,-0.395096,0.870789
-0.166209,-0.287657,-0.970644,-0.191246,0.179684,0.964955
-0.000973,-0.088253,-0.964218,0.348849,-0.135989,0.927260
-0.676701,0.584470,0.228087,-0.297898,-0.092258,0.950129
-0.495225,0.075112,0.817710,-0.758859,0.368119,-0.537235
0.017454,-0.050523,-0.089278,0.980719,0.173141,-0.090620
0.379007,-0.788054,0.197751,0.129162,-0.746409,-0.652833
0.617771,-0.473519,0.361827,0.627317,-0.340031,0.700608
0.006690,-0.025336,-0.055540,0.988941,0.108628,-0.100974
0.225203,-0.587258,-0.935780,-0.144682,0.047555,0.988335
0.132884,-0.659484,-0.931211,-0.190543,0.271196,0.943475
-0.518274,0.289199,0.724092,-0.580696,0.748197,0.320926
-0.311986,-0.101692,0.419350,-0.396030,-0.150155,-0.905877
0.106854,-0.617471,0.400906,-0.380113,0.553158,0.741303
0.207932,-0.319512,0.400801,0.180838,-0.236063,-0.954763
-0.033508,0.596963,0.217405,0.543081,0.156698,0.824930
-0.279753,-0.028622,0.890860,0.917135,-0.365496,-0.158985
-0.272090,-0.363366,0.593878,0.876565,0.002669,0.481276
-0.569603,0.071527,0.692024,-0.051689,-0.301137,0.952179
0.019461,-0.090941,-0.863381,0.948222,-0.288368,0.133111
-0.174298,0.132304,-0.979720,0.211212,0.029693,-0.976989
0.832817,-0.520906,-0.917920,0.147541,0.270070,0.951469
-0.342333,0.052563,-0.985854,-0.174977,0.324614,0.929521
0.374141,-0.332952,0.405496,-0.671796,0.195077,0.714587
-0.399684,0.037481,0.426026,0.473826,-0.413179,0.777671
-0.164446,0.043106,-0.981181,0.043968,-0.030342,0.998572
0.082649,0.063414,-0.234201,0.917305,-0.284532,0.278555
0.824972,-0.539075,-0.917023,0.009058,0.095131,0.995424
-0.130998,0.105575,-0.976298,-0.159050,-0.108001,0.981345
-0.719698,0.557392,0.229590,0.061472,0.170993,0.983353
0.283100,-0.463366,-0.936781,0.269886,0.006124,-0.962873
0.425287,-0.680986,-0.921551,-0.146054,0.149938,0.977848
0.452533,-0.686112,0.179182,-0.699782,-0.234551,0.674753
-0.214437,-0.411946,0.616120,0.962489,0.153785,0.223530
-0.539256,-0.063514,0.745102,0.955408,0.121119,0.269304
-0.019095,-0.075560,-0.629285,0.906169,0.420493,-0.045216
0.432525,-0.202539,0.355734,0.445136,-0.569910,-0.690693
0.366965,-0.296914,-0.942623,-0.076648,0.130554,0.988474
-0.547953,-0.208911,0.763609,0.905133,0.360369,-0.225542
-0.379250,-0.309060,0.665005,0.806212,-0.590576,0.035242
-0.441647,-0.074764,0.420288,-0.350637,-0.073281,-0.933640
0.244847,0.003833,0.398026,0.158520,0.917531,-0.364702
-0.656387,0.078595,0.491227,-0.520587,-0.028297,-0.853340
-0.264368,-0.338030,0.652215,0.989354,-0.139165,-0.042570
-0.302984,-0.198855,0.671535,-0.139941,0.055143,0.988623
-0.260657,0.258139,0.753051,0.963856,-0.066592,-0.257966
-0.406495,0.046939,0.953515,-0.315182,-0.119704,0.941452
-0.134404,-0.030314,0.776482,0.117468,-0.841434,0.527437
-0.037462,0.589746,0.062760,0.096241,0.337814,0.936279
-0.418353,-0.119512,0.757808,0.660398,0.548026,0.513364
0.376512,-0.289697,-0.939202,0.049564,0.268400,0.962032
0.257557,0.250273,0.402825,-0.561893,0.447832,-0.695502
-0.370978,0.167148,-0.989234,-0.129435,0.087235,0.987743
0.043423,0.084271,-0.977112,-0.152084,0.243764,0.957836
0.134222,-0.114335,0.389368,0.502676,0.157139,-0.850073
0.024205,-0.046341,-0.951345,0.979186,0.119960,0.163719
0.414220,-0.411649,0.355088,0.202430,-0.977939,-0.051546
-0.330048,0.331458,0.805504,-0.577782,0.549928,-0.603115
0.611446,-0.558736,0.522377,-0.557294,0.266238,0.786473
0.527276,-0.237682,0.378664,0.004048,0.728360,0.685182
0.557806,-0.570284,-0.927831,0.174722,0.125881,0.976538
-0.423949,0.095171,0.733523,0.411011,0.487655,0.770235
-0.379309,0.159234,-0.988504,-0.043551,0.102350,0.993795
0.342639,0.393281,-0.019028,0.305075,-0.685005,0.661586
0.446634,-0.271081,-0.937888,-0.192005,0.139446,0.971437
0.583957,-0.335690,-0.936177,0.074070,0.122135,0.989746
0.291250,0.113588,0.038849,-0.201890,-0.347379,0.915734
-0.127713,-0.844749,0.342861,0.449741,-0.557676,-0.697661
-0.067322,-0.037283,-0.193265,0.842362,0.518086,-0.148371
-0.120416,0.578596,0.669845,-0.054715,-0.736585,0.674128
0.265888,-0.667149,-0.931962,-0.073657,0.213829,0.974090
0.161406,-0.549676,0.453024,0.138976,-0.195631,-0.970780
0.232987,-0.220956,-0.949634,-0.147268,0.325355,0.934054
-0.411360,0.019512,0.944251,0.237321,-0.776428,0.583813
-0.275982,-0.010454,0.869265,0.974250,-0.119734,0.191052
0.072068,-0.558537,-0.942227,0.001660,0.239424,0.970914
-0.520403,0.071479,0.529638,0.360230,0.776471,-0.517037
0.219608,-0.203435,0.232052,-0.311572,-0.925046,-0.217283
-0.060268,-0.189150,-0.964489,0.020330,0.101754,0.994602
0.451683,-0.673769,-0.919256,-0.038288,0.120092,0.992024
-0.695067,-0.050921,0.703416,-0.589754,-0.740373,0.322548
-0.225992,-0.035441,0.759999,0.883759,-0.387915,-0.261711
-0.490299,0.307117,0.777963,0.829252,0.496653,0.256275
0.079304,-0.565506,-0.941330,-0.023904,0.421321,0.906596
-0.264063,-0.592734,0.426339,0.149283,0.288599,0.945741
0.015448,-0.062071,-0.286466,0.982318,-0.185499,0.025314
0.198626,-0.322599,-0.937950,-0.130519,0.141303,0.981325
0.130512,-0.387158,-0.945795,-0.267964,0.098900,0.958339
0.103571,-0.026333,0.174445,-0.503570,-0.612759,0.609051
-0.478926,-0.566899,0.310104,0.976928,0.201488,0.070811
-0.015387,0.045793,0.322894,-0.632508,-0.762537,0.135906
-0.177035,0.041016,0.870788,-0.189891,-0.970406,0.149174
0.038861,-0.049627,0.033132,0.957762,-0.282655,0.052890
-0.453627,0.198905,0.769910,0.628688,0.571536,-0.527350
0.704980,-0.502788,-0.924534,-0.200241,0.084245,0.976118
-0.635103,-0.358935,0.562666,0.566870,0.049058,-0.822345
-0.127774,-0.219711,-0.967035,-0.034705,-0.035013,0.998784
-0.234812,0.199353,0.620272,0.671985,0.486010,-0.558776
0.952441,-0.565257,-0.909471,-0.138637,0.109168,0.984308
-0.160311,0.077550,0.190240,0.655743,0.072950,0.751451
0.374749,0.786760,0.056125,-0.159943,-0.483486,0.860616
-0.614060,-0.079244,0.631851,-0.085157,0.493215,-0.865729
0.442377,-0.265157,-0.945273,0.219885,0.008233,-0.975491
-0.253360,0.325534,0.387490,-0.295721,0.250491,-0.921848
-0.227573,0.011896,0.802896,0.833650,0.500129,0.234303
0.016543,-0.099503,-0.627470,0.929776,0.367531,-0.020891
0.015326,0.379542,0.623109,0.810350,-0.141881,-0.568509
0.827101,-0.512196,-0.918776,0.140002,0.081962,0.986753
-0.566381,-0.696118,0.357195,0.110819,0.566985,0.816239
-0.209086,-0.117422,-0.975339,0.211262,-0.041802,-0.976535
0.112875,0.427277,0.144005,0.988351,-0.146644,-0.040715
-0.209633,-0.150622,-0.979011,0.361710,-0.109176,-0.925876
-0.152587,0.569985,0.403472,-0.124940,-0.441679,0.888431
-0.022501,0.023096,0.227920,0.681966,0.683976,0.259035
0.101381,-0.415730,-0.948152,0.140932,-0.100088,-0.984947
0.028219,-0.449875,-0.947422,0.157896,0.027751,-0.987066
0.329866,-0.616327,-0.924973,-0.170521,0.054870,0.983825
-0.603964,-0.256696,0.589309,0.327970,0.389626,-0.860597
-0.520464,0.280935,0.836049,0.915269,0.213732,0.341468
0.542723,-0.554654,-0.923324,-0.039570,-0.000738,0.999217
-0.096394,-0.360080,-0.957228,-0.078282,0.198712,0.976926
0.448336,-0.303833,0.441820,-0.492310,0.858456,-0.143821
0.319163,-0.381284,-0.948382,-0.100984,0.272344,0.956886
-0.093170,0.141014,0.248910,0.479551,-0.142683,0.865836
-0.431489,0.506868,0.250829,-0.418054,0.230593,0.878668
0.296175,-0.598805,-0.939536,-0.271023,0.152028,0.950491
-0.332906,0.134842,0.569029,0.391300,-0.920252,0.004599
0.334794,-0.711997,0.011934,-0.219508,0.135833,0.966108
-0.311622,-0.147686,0.781531,-0.630358,0.643664,0.433988
0.028280,0.128074,-0.977404,0.033264,0.029565,0.999009
-0.612540,0.043006,0.899831,0.597811,0.461109,0.655745
-0.007967,0.197262,-0.984519,0.016967,0.305966,0.951891
-0.415070,0.301791,0.356674,0.395694,0.814196,0.424867
0.383446,-0.653659,-0.926767,-0.140226,0.071042,0.987568
0.401995,0.698257,0.053120,-0.386833,-0.117177,0.914674
0.090739,0.544798,0.175071,0.853903,0.202762,0.479309
-0.721218,-0.333400,0.548853,0.551085,0.125025,-0.825030
0.034119,0.621652,0.054476,0.097936,-0.285110,0.953478
-0.416103,-0.616327,0.350393,-0.215218,0.618877,0.755429
-0.411298,-0.332853,0.621711,0.309298,0.138108,0.940883
0.565470,-0.272922,0.408354,0.366649,0.384990,0.846966
0.087211,0.616475,0.717019,-0.179484,-0.618632,0.764905
-0.426807,-0.112394,0.891444,-0.393502,-0.175213,-0.902472
0.678587,-0.500449,-0.925828,0.196351,-0.094664,-0.975953
-0.005838,-0.200199,-0.970581,-0.047216,0.131969,0.990129
-0.357234,0.334495,0.742014,-0.010136,-0.406772,0.913473
-0.133248,0.322548,0.554257,0.605624,0.660978,-0.443090
-0.092622,0.263913,0.808926,-0.081760,-0.924142,0.373197
-0.218876,0.476605,0.563458,0.730061,0.561231,-0.389913
-0.359484,0.283324,0.327881,-0.608822,-0.742247,-0.280009
-0.635103,0.126679,0.720483,0.754168,-0.610514,-0.241873
0.155020,-0.037979,-0.966784,-0.108186,0.332257,0.936964
0.669526,-0.569737,-0.929375,-0.000864,0.242537,0.970142
-0.716353,-0.406570,0.535396,0.531463,-0.300977,-0.791808
-0.408076,0.071776,0.741326,0.487678,0.514666,0.705187
-0.166879,0.356047,0.532350,-0.134447,-0.643854,0.753244
0.145898,0.906968,0.058941,0.181086,0.115756,0.976631
0.113300,-0.155301,0.192514,-0.666440,0.473220,0.576126
0.224899,0.010553,0.396462,-0.197311,-0.975767,0.094587
0.890471,-0.239921,-0.932588,0.255241,0.285064,-0.923900
-0.316912,0.289098,0.321246,0.517161,0.834229,0.191330
0.185126,-0.249129,-0.946859,-0.269116,0.192980,0.943576
-0.079791,-0.065007,0.731603,0.128542,0.802154,0.583117
0.116585,0.351069,0.126729,0.159252,-0.131174,0.978485
-0.557014,0.059632,0.968161,-0.253180,0.580865,0.773625
-0.438058,-0.014634,0.159653,0.145196,-0.611453,0.777846
-0.395974,0.274415,0.204907,0.825441,0.564376,0.011292
0.545461,-0.403783,0.034989,-0.435366,0.570433,-0.696464
-0.697256,0.026630,0.724614,0.827574,-0.541045,0.149641
0.485312,-0.421852,-0.933381,-0.113526,0.189574,0.975281
0.424862,-0.383873,0.384778,-0.616624,0.747962,0.245616
-0.178312,0.025037,0.378852,-0.481589,0.742562,-0.465481
-0.033692,-0.155301,-0.245446,-0.751267,0.649504,-0.117229
0.165421,-0.266402,-0.949425,0.345829,-0.246413,-0.905364
-0.008028,-0.364361,0.550648,0.518278,0.842986,0.144095
-0.277504,0.638477,0.418181,-0.334495,0.272729,-0.902071
-0.061058,-0.156446,0.744059,0.342371,-0.131402,-0.930331
0.012650,-0.075212,-0.718438,0.036370,-0.950156,0.309647
-0.175150,0.009607,0.689249,0.973469,-0.117460,0.196371
0.335037,-0.337133,-0.941580,-0.095557,0.117379,0.988479
-0.277747,-0.058188,0.904755,0.933829,0.319429,-0.161025
-0.541689,-0.146740,0.284608,0.156193,0.665152,0.730189
-0.514444,0.077799,0.468944,0.028092,-0.680052,0.732625
-0.404001,0.137282,0.562081,0.230169,0.922992,0.308395
-0.000730,-0.030264,-0.918379,0.906001,-0.376303,-0.193798
-0.721157,0.191636,0.491164,-0.473835,-0.082024,-0.876785
0.041842,0.173121,-0.466816,-0.012465,-0.995319,0.095840
-0.341726,0.080935,0.703290,0.177628,0.982606,-0.054172
0.192544,0.744699,0.049260,0.127988,-0.120776,0.984394
0.195829,-0.523942,0.008867,-0.270128,-0.171666,-0.947397
-0.056437,-0.150473,0.568695,-0.314141,0.186286,0.930920
0.481907,-0.607766,-0.925202,-0.163939,-0.137292,0.976870
0.205560,-0.122201,-0.960546,-0.234527,0.113496,0.965461
0.006812,0.034346,0.314131,0.537867,0.842898,-0.014912
-0.172657,-0.151269,-0.973628,-0.079583,0.142023,0.986659
-0.005960,-0.198806,-0.963759,-0.014586,0.088683,0.995953
0.086116,0.463264,0.466628,0.617022,-0.119626,-0.777801
-0.620749,0.042807,0.898955,-0.696684,-0.345782,-0.628543
-0.199233,0.126430,0.780383,0.562069,-0.629877,0.536034
0.378946,-0.529318,-0.938618,-0.143698,-0.035283,0.988992
-0.214132,-0.317969,0.553590,-0.719570,-0.133704,-0.681427
-0.052118,0.798506,0.026643,-0.396294,-0.027797,0.917703
-0.385330,0.055500,0.944001,-0.064828,-0.273776,0.959606
0.422733,-0.571180,0.025600,-0.347728,0.347188,0.870945
-0.366356,0.059581,-0.989756,-0.046665,0.102630,0.993624
0.566442,-0.180637,-0.731812,0.142072,0.252002,0.957241
0.488902,-0.151219,0.361243,-0.273278,0.265729,0.924504
-0.057105,-0.181684,0.576791,0.436515,-0.359634,-0.824693
0.508362,-0.603932,0.326253,0.262395,-0.528410,0.807423
-0.524417,0.229069,0.880469,0.390401,-0.092152,0.916021
-0.412455,0.034643,0.242755,-0.180372,-0.603421,0.776755
-0.289789,-0.866900,0.353961,0.224563,0.473875,0.851478
0.156115,0.621403,0.037639,-0.029135,-0.447891,0.893614
0.081251,-0.243056,0.443886,-0.601713,0.301829,-0.739487
0.363680,-0.352465,0.092345,-0.232511,0.588081,0.774660
-0.287417,0.161921,0.788667,-0.174745,0.065081,0.982460
-0.004561,-0.111947,-0.675833,0.981022,-0.147007,0.126433
-0.224958,0.142260,-0.989005,-0.158471,0.124603,0.979470
0.553974,-0.420508,-0.928707,0.016004,0.137835,0.990326
-0.159582,0.213240,0.781761,-0.150256,-0.795530,0.586988
0.101320,-0.147139,-0.077990,0.788164,0.614136,-0.040424
-0.088974,0.281781,0.228046,0.041464,-0.185681,0.981735
0.275741,-0.329718,0.410649,-0.250108,0.800066,0.545289
-0.956212,-0.378696,0.529971,-0.582977,-0.077618,0.808773
0.047011,0.066302,0.517912,0.877423,0.166881,-0.449754
-0.095906,-0.320708,-0.957959,0.142680,-0.245481,-0.958844
-0.350300,0.284669,0.746521,-0.201128,-0.243566,-0.948801
-0.552270,-0.247935,0.554675,-0.148852,0.282065,0.947778
-0.395487,0.102239,0.819733,-0.187014,0.711197,0.677661
0.503558,-0.955949,0.231363,0.406344,-0.266810,-0.873897
-0.081554,0.091686,-0.460202,-0.537674,0.711361,-0.452627
0.773096,-0.599553,-0.919235,-0.012629,0.232112,0.972607
0.435688,0.621503,0.011642,-0.161765,0.971265,0.174574
0.889253,-0.593132,-0.911432,-0.074791,0.261466,0.962311
0.153927,-0.643107,0.410065,0.675774,0.638126,0.368952
-0.391534,0.642410,0.248847,-0.124354,-0.007180,0.992212
-0.480750,-0.170582,0.797680,0.411793,-0.645141,-0.643600
0.336862,0.594326,0.042041,-0.069516,-0.208780,0.975489
0.367390,-0.367248,0.383630,0.432251,-0.549348,0.715105
0.019036,0.455898,0.666215,-0.200822,-0.739085,0.642980
0.175029,0.266152,0.474327,0.718811,-0.207309,-0.663576
-0.564313,-0.079941,0.167748,-0.351769,-0.714935,-0.604257
-0.397494,0.079841,0.773644,0.181164,-0.934984,0.304933
-0.127045,0.353957,0.544660,0.622301,0.633326,-0.460044
-0.082953,0.025684,-0.378372,0.757710,0.585796,0.287609
-0.295505,-0.184222,0.860273,-0.060107,-0.162769,0.984832
-0.183299,0.412145,0.789835,-0.606340,0.718036,0.341727
0.158183,-0.714187,-0.926245,0.121011,-0.088968,0.988656
0.706441,-0.602788,-0.910868,0.157789,-0.043550,-0.986512
0.415497,-0.634147,0.164869,0.301652,0.174588,0.937297
-0.300674,0.352663,0.788500,-0.092909,0.972233,-0.214781
-0.016723,0.040168,0.183793,0.393165,0.778013,-0.490018
0.424376,-0.336934,0.420122,0.779071,0.138121,-0.611531
-0.318372,0.025784,0.817438,0.921943,0.331310,0.200639
-0.032231,0.183175,-0.979699,0.286491,-0.173933,-0.942162
0.545947,-0.630464,-0.924513,0.067972,0.041206,0.996836
-0.311257,0.747935,0.264850,-0.026290,-0.377437,0.925662
-0.461836,-0.060777,0.757037,0.065608,0.540484,0.838793
-0.906220,-0.467448,0.513426,-0.134354,-0.261335,0.955852
-0.636440,-0.094276,0.637464,0.402888,0.179601,-0.897455
-0.072127,0.418367,0.628033,0.015341,-0.806114,0.591562
-0.521498,0.079741,0.735672,-0.608513,0.717756,0.338434
0.187680,-0.687955,-0.926934,-0.110966,-0.121497,0.986370
-0.085932,-0.153460,0.111519,-0.301590,-0.474902,-0.826747
-0.126132,0.341563,0.567465,0.375367,0.836523,-0.399160
0.467007,-0.439672,0.444324,-0.550073,0.446884,0.705489
-0.472419,0.200199,0.874627,-0.706793,-0.415882,0.572263
0.330050,-0.524191,-0.931419,-0.134955,0.126801,0.982705
-0.279145,0.133002,0.740095,-0.248317,0.950337,-0.187614
0.113909,0.136685,-0.972230,-0.193938,0.114855,0.974267
-0.092441,-0.726581,0.408667,0.611850,0.622688,0.487748
-0.009244,-0.411050,-0.950114,0.059390,-0.168940,-0.983835
-0.238947,-0.272325,0.884538,-0.244982,0.421319,0.873198
0.765796,-0.506520,-0.917795,0.278455,-0.136841,-0.950651
-0.012711,-0.151866,0.577584,0.186901,-0.268962,-0.944842
-0.295687,-0.119114,0.676459,0.942808,-0.029755,0.332004
-0.128686,-0.046193,0.723591,0.473794,0.876619,0.084015
0.666850,-0.598009,-0.917044,-0.287064,0.159041,0.944616
0.016178,-0.025187,-0.039308,0.985508,0.082454,-0.148240
-0.121206,0.197062,0.771725,-0.487665,-0.656602,0.575375
-0.080095,-0.393479,-0.955309,-0.124961,0.159076,0.979326
-0.202638,-0.616725,0.409105,0.030887,0.858954,0.511120
0.035456,-0.326332,-0.954913,0.152660,-0.188915,-0.970055
0.324393,-0.648233,-0.928895,-0.296830,0.095526,0.950140
0.132032,0.542609,0.157650,0.896581,0.318937,0.307283
0.037645,0.266501,-0.979303,0.021669,-0.074758,0.996966
-0.096880,-0.464859,0.033174,-0.473373,0.252233,0.843977
-0.389710,0.158436,0.576978,-0.262917,-0.898961,0.350348
-0.064952,0.046790,0.556385,0.100812,0.984698,-0.142151
0.104787,0.053309,-0.973544,0.207198,-0.083785,-0.974704
0.457581,-0.155501,0.255670,0.041355,-0.832830,0.551981
0.410935,0.750821,0.053850,-0.019677,-0.287565,0.957559
0.404549,-0.454805,0.390912,-0.170677,0.857860,0.484713
0.459101,-0.317073,-0.068622,-0.200997,0.723607,0.660297
0.148879,0.971328,0.048655,-0.235189,0.184147,0.954346
-0.400048,0.449825,0.845480,0.468914,-0.586578,0.660338
0.097185,0.197611,-0.977738,-0.181252,-0.058984,0.981666
0.003102,0.211000,-0.989338,-0.174898,-0.032433,0.984052
0.386123,-0.405029,-0.942874,-0.055726,0.095667,0.993852
0.266862,-0.401743,0.344072,0.246967,0.777664,0.578140
-0.539378,0.101095,0.251476,0.169206,-0.141047,0.975436
-0.166028,0.298954,0.794780,-0.769831,-0.207866,0.603450
0.619413,-0.303335,-0.935405,0.078169,-0.013572,0.996848
0.068176,-0.147835,0.004611,-0.177351,0.391186,0.903062
-0.459466,0.078099,0.836529,-0.562524,0.607503,-0.560809
0.034178,-0.377203,0.553006,0.583004,0.233896,-0.778074
0.123153,-0.228323,-0.959753,-0.183874,0.162805,0.969373
-0.322873,-0.664112,0.320912,0.267877,0.382783,0.884149
-0.620688,-0.055949,0.734795,0.570146,0.043034,-0.820416
0.590464,-0.418120,-0.933589,0.025957,0.009946,0.999614
-0.484036,0.206222,0.768032,0.984207,0.014518,-0.176425
0.575444,-0.350373,-0.934486,0.135818,0.055927,0.989154
-0.182690,-0.040718,0.971562,0.840980,-0.458432,-0.287390
0.165298,-0.445048,-0.941330,-0.144682,0.165295,0.975574
-0.629385,0.130612,0.759269,-0.143070,-0.874186,-0.464037
0.223499,-0.369737,0.390369,-0.063566,-0.662759,0.746130
0.032781,0.042509,-0.972313,-0.184202,-0.240284,-0.953065
-0.211274,-0.159383,0.515825,0.567778,0.823177,0.002794
-0.625920,-0.201793,0.310626,0.139468,0.450701,0.881712
0.724685,-0.590294,-0.918275,-0.127487,0.391009,0.911515
-0.381499,0.144599,-0.986710,-0.051448,0.043923,0.997709
0.028948,-0.065755,-0.972897,0.248020,0.137932,0.958885
0.346470,-0.284968,-0.943500,-0.006448,-0.018824,0.999802
-0.100833,-0.135839,-0.974045,-0.116755,0.162869,0.979715
-0.848993,-0.443653,0.518100,0.504037,0.350407,-0.789406
-0.298363,-0.110802,0.887876,0.152206,0.479102,0.864462
-0.372134,0.106918,0.557450,0.002282,-0.874639,0.484769
-0.525085,-0.113937,0.435039,-0.827741,0.107484,-0.550719
-0.106063,-0.380788,0.541906,0.186944,0.296545,0.936543
-0.175879,0.388701,0.380166,-0.131913,-0.429964,0.893157
0.505383,-0.421404,0.451626,-0.524758,0.563148,0.638352
-0.013440,0.847835,0.043627,-0.525142,0.184511,0.830772
0.286322,-0.476208,-0.937303,-0.186274,-0.091399,0.978237
0.817613,-0.579542,-0.914374,-0.045337,0.256687,0.965431
-0.859149,-0.469538,0.524463,0.376508,0.421289,-0.825080
0.479171,0.600498,0.042208,0.439524,-0.870210,0.222605
0.080095,0.161125,-0.978155,-0.260832,0.113855,0.958647
-0.101136,-0.223445,-0.968057,-0.116919,-0.041791,0.992262
-0.194186,0.499203,0.610966,0.726714,0.015478,-0.686766
0.068967,-0.127079,0.150327,0.687830,0.682842,0.246206
0.728638,-0.466302,-0.925411,-0.204070,-0.028022,0.978555
0.577327,-0.353609,0.384172,-0.714429,0.686868,-0.133431
0.169008,-0.549827,-0.001168,-0.339480,-0.072796,-0.937792
0.193516,-0.346591,-0.944314,-0.121141,-0.013953,0.992537
0.559751,-0.528124,-0.923700,0.075301,0.062054,0.995228
-0.130085,-0.004082,0.726366,0.619045,0.751887,-0.226825
0.689290,-0.588054,-0.911619,0.086483,-0.412329,-0.906921
0.111232,-0.218218,-0.956790,-0.241586,0.197636,0.950040
-0.225810,0.221852,-0.986793,-0.078866,-0.045862,0.995830
-0.401386,0.514435,0.419141,0.055405,-0.646545,0.760861
-0.476920,-0.020557,0.673934,-0.005648,-0.922889,0.385024
-0.044152,0.129069,-0.480315,0.830099,0.545699,-0.114662
-0.244724,-0.422748,0.016837,0.057570,-0.004163,-0.998333
0.245272,-0.191240,0.370340,-0.329734,-0.192567,-0.924226
0.017334,-0.122450,-0.840264,0.962083,-0.224748,0.154543
0.134161,-0.388055,0.327046,-0.213769,0.757180,0.617236
-0.173082,0.327277,0.538192,0.214951,0.818246,-0.533170
-0.242168,-0.078448,-0.972939,-0.116410,0.001842,0.993200
0.078209,-0.469090,-0.947527,-0.046292,-0.004891,0.998916
0.306758,-0.527925,-0.930418,-0.132992,0.137912,0.981475
-0.248798,0.015081,0.700098,-0.309462,-0.192925,-0.931136
-0.353159,0.220308,0.733418,0.048005,-0.998292,0.033282
0.276046,-0.562271,-0.935905,-0.134442,0.063561,0.988881
-0.596058,-0.390145,0.765632,0.353976,0.244326,0.902777
-0.306695,-0.046243,0.582508,-0.347789,0.937332,0.021235
0.281701,-0.764810,0.166601,0.579854,-0.213858,-0.786151
0.462993,0.613091,0.007323,0.523837,0.837810,0.153850
-0.375113,-0.151219,0.843164,0.924202,-0.285730,-0.253393
0.375235,0.248531,0.402721,0.183630,-0.458910,0.869299
-0.780453,-0.236337,0.335893,-0.020107,0.608119,0.793592
0.189929,-0.648433,-0.934173,-0.051461,0.195120,0.979428
0.041233,-0.276905,-0.957103,-0.105687,0.107105,0.988615
-0.240466,-0.298308,0.257548,-0.707641,-0.514705,0.484070
0.814814,-0.554307,-0.916189,-0.032916,0.079885,0.996261
0.245942,-0.281732,-0.945732,-0.150718,0.019932,0.988376
0.109408,-0.093330,0.402867,0.933337,-0.113618,-0.340549
0.003284,0.098407,-0.980033,-0.139616,0.089246,0.986176
-0.655719,-0.164958,0.457072,0.290957,-0.120307,0.949142
0.830141,-0.522101,-0.917357,0.147541,0.270070,0.951469
0.611082,-0.523743,-0.925285,-0.024275,0.129645,0.991263
-0.032718,-0.090792,-0.758080,0.966054,0.244358,0.083837
0.058507,-0.549875,-0.942310,0.004734,0.201911,0.979392
0.400718,-0.282480,-0.942185,0.013487,-0.178015,-0.983935
-0.245149,-0.649180,0.308227,0.093710,0.390409,0.915860
0.045127,-0.083973,0.132404,0.933695,0.294488,-0.203693
0.525451,-0.497163,0.476538,-0.578026,0.555840,0.597435
-0.170224,-0.293680,0.003568,0.026993,-0.002037,0.999634
-0.236513,0.022897,-0.980158,0.140996,0.179685,0.973567
-0.606519,0.099950,0.506458,-0.349227,0.839179,-0.416915
0.221980,-0.448432,-0.941059,-0.000249,0.042403,0.999101
-0.390864,-0.512843,0.638695,-0.768955,0.137490,-0.624343
0.456426,0.594475,-0.003776,-0.673412,-0.699670,0.238700
-0.439943,0.270334,0.811409,-0.477026,0.502111,-0.721339
0.444383,0.464808,0.129066,0.947442,-0.097864,-0.304592
-0.098461,0.309507,0.837969,-0.306471,-0.516625,0.799484
-0.460439,-0.203883,0.157817,-0.522903,0.286561,-0.802779
-0.224897,-0.140517,-0.976882,-0.456566,0.007030,0.889662
0.558474,-0.764610,0.179641,0.426714,-0.012098,-0.904306
0.081858,-0.096915,-0.970289,-0.022791,-0.012257,0.999665
0.547103,-0.608313,0.106700,0.294062,0.920163,-0.258511
-0.412637,-0.452365,0.236683,-0.091799,0.660972,0.744775
0.230920,-0.434495,-0.942248,0.036465,-0.175909,0.983731
-0.756188,-0.227527,0.551754,0.917553,-0.185884,-0.351487
0.398650,-0.481632,-0.933422,-0.010396,0.072709,0.997299
0.094265,0.231607,-0.981535,-0.053887,0.126669,0.990480
0.430396,-0.646043,-0.927727,-0.069074,0.153289,0.985764
-0.334974,-0.379045,0.750506,0.635957,-0.477711,0.606095
0.015083,-0.048930,-0.002900,0.968807,0.163131,-0.186554
0.419571,-0.397959,0.385633,-0.590954,0.804147,0.064198
-0.400474,0.341065,0.214985,0.901696,0.425554,-0.076480
-0.329014,0.140218,0.203864,0.095743,-0.257080,0.961636
0.665937,-0.537283,-0.924993,-0.061093,0.159581,0.985293
-0.327738,-0.042858,0.942519,-0.437152,0.767916,0.468193
0.317461,-0.031608,0.404411,-0.346545,-0.774946,0.528550
-0.537493,-0.056098,0.262346,0.334069,0.227499,0.914681
-0.134343,-0.200549,-0.969455,-0.044436,0.058656,0.997289
0.119929,0.220208,0.455611,0.890154,-0.455599,0.007447
0.954570,-0.269538,-0.922698,-0.054186,0.120483,0.991235
0.249893,-0.403933,0.099480,-0.216259,0.624464,0.750517
-0.131362,-0.012693,0.446410,-0.782714,0.606564,-0.139422
0.138175,-0.267049,-0.952534,-0.335901,0.083650,0.938175
0.201909,0.414883,0.189551,-0.159804,-0.921579,-0.353773
-0.007785,0.338675,0.632957,-0.476162,0.722771,0.500871
-0.120354,0.155799,-0.983726,0.027241,0.123754,0.991939
0.142919,-0.607367,0.431555,0.652330,0.301889,-0.695218
0.141581,0.151617,-0.973461,0.133244,-0.052769,-0.989677
-0.404062,0.499503,0.676835,0.268957,-0.263980,0.926270
-0.618318,0.095818,0.907968,-0.556257,-0.566050,-0.608413
-0.459648,0.144650,0.801915,0.830127,0.198363,0.521096
0.012406,-0.070932,-0.366501,-0.504534,-0.862604,-0.036869
-0.126193,-0.083127,-0.975359,-0.073395,0.002684,0.997299
0.399198,-0.431856,-0.934361,-0.016109,0.100338,0.994823
-0.095663,-0.146044,-0.971625,-0.165350,0.170610,0.971366
-0.127713,0.177999,0.255440,0.737085,0.483813,0.471837
0.102476,0.411348,0.659643,0.825424,0.263673,-0.499150
-0.342942,0.099502,-0.988567,0.098831,0.010973,0.995044
-0.321778,0.046341,-0.988024,-0.107866,0.348069,0.931243
-0.030286,-0.122002,-0.967807,-0.099356,-0.183080,0.978064
-0.000608,-0.078597,-0.170899,0.973799,0.128141,-0.187869
0.488902,-0.413291,-0.927247,0.092348,-0.106409,-0.990025
0.125098,-0.319712,0.310960,0.259887,0.826450,0.499439
-0.247217,-0.106172,0.481921,-0.610933,-0.425661,-0.667513
-0.623000,-0.174863,0.294853,0.097933,0.547895,0.830795
0.568632,-0.682977,0.051159,-0.482643,0.389086,0.784645
0.202945,-0.292982,-0.945899,-0.182713,0.238471,0.953807
0.534028,-0.336985,0.390098,0.567502,0.479254,0.669520
-0.292404,0.086809,0.550585,-0.149126,-0.097941,0.983956
0.020496,0.034993,-0.972793,-0.179257,0.023430,-0.983523
0.282248,-0.357144,0.313234,0.235051,0.931832,0.276479
0.272154,-0.613689,0.427925,-0.276289,0.203886,0.939199
-0.660463,0.060926,0.696864,-0.059997,-0.163554,0.984708
0.219060,-0.621155,-0.935822,0.032781,0.324446,0.945336
-0.504956,-0.115033,0.257714,-0.416043,-0.612187,-0.672410
0.421699,-0.211449,0.367648,0.597899,-0.646899,-0.473326
-0.208173,0.743952,0.053475,-0.003078,0.149066,0.988822
-0.008148,-0.497911,-0.950030,0.019080,0.129682,0.991372
0.026272,-0.081235,-0.545828,0.996931,-0.013820,-0.077061
0.101138,-0.039971,0.381982,0.997762,-0.039529,0.053933
-0.156479,-0.489398,0.258716,-0.593850,0.464255,0.657122
0.100956,-0.277552,-0.954933,-0.157798,0.013980,0.987372
0.213101,-0.449827,-0.949029,0.078749,0.072247,0.994273
0.342578,-0.278846,-0.940266,-0.006448,-0.018824,0.999802
0.192240,-0.184918,-0.959190,-0.147021,0.257226,0.955102
0.562366,0.361324,-0.039809,0.187934,-0.165341,0.968165
0.620994,-0.607119,-0.924242,0.371730,-0.187372,-0.909235
0.212553,-0.908263,0.207348,-0.049314,0.478144,0.876896
-0.404062,0.086411,0.814497,-0.194853,0.577506,0.792792
-0.544061,0.035839,0.838115,0.824037,0.331137,0.459685
0.056984,0.264210,-0.980367,0.006543,0.124475,0.992201
0.087758,-0.368243,-0.950635,-0.006519,0.134533,0.990888
0.401934,-0.671031,0.166601,0.307165,0.166061,0.937056
0.155629,0.778846,0.050095,-0.186854,-0.087490,0.978484
-0.056680,-0.154903,0.740345,0.342371,-0.131402,-0.930331
0.134161,-0.238576,-0.073379,0.814250,0.580468,-0.007286
0.142797,-0.496217,-0.940829,-0.212235,0.028540,0.976802
0.013319,0.124042,-0.982516,0.168187,0.017015,-0.985608
-0.169311,0.531409,0.667842,0.569526,0.155985,0.807037
-0.083196,0.166600,0.509692,-0.546683,-0.368372,0.751958
-0.085141,-0.034794,0.740888,0.469623,0.876025,-0.109699
-0.153316,0.356794,0.796741,0.770754,-0.144155,-0.620610
-0.204403,0.223295,-0.987231,-0.057234,0.082441,0.994951
-0.125523,-0.249030,-0.969559,-0.073287,0.071997,0.994709
-0.258833,0.341413,0.269899,0.151131,0.129077,0.980050
0.003527,-0.311299,-0.956999,-0.194749,0.127506,0.972530
0.629751,-0.530066,-0.927581,0.045701,0.146760,0.988116
0.029982,-0.142111,0.000104,-0.209534,0.518506,0.829004
0.879949,-0.231956,-0.933339,-0.034838,-0.513305,0.857499
0.246185,-0.686910,-0.930480,0.067406,0.050299,0.996457
-0.124673,0.195121,0.309875,0.830779,0.547396,-0.100813
0.007419,-0.217521,-0.964447,-0.088093,0.281967,0.955371
0.545399,0.428073,-0.043064,0.064613,-0.645569,0.760964
0.590648,-0.360777,0.365749,0.746454,-0.587120,0.313204
0.266376,-0.670185,-0.926057,-0.033484,0.038893,0.998682
-0.133066,-0.237830,0.574183,-0.249099,0.464842,0.849630
0.125950,-0.661423,0.413695,0.734074,-0.003902,-0.679058
0.158305,-0.123694,-0.962820,0.193266,-0.136380,-0.971622
0.377973,-0.208712,0.346179,-0.240643,0.402205,0.883358
-0.382167,0.176306,-0.989255,-0.155402,0.180888,0.971149
0.565165,-0.517224,-0.923992,-0.193752,0.067640,0.978716
-0.186339,-0.360080,0.543575,0.244261,0.322775,0.914414
-0.182265,-0.110653,0.832586,-0.053357,0.260237,0.964069
-0.671653,-0.090394,0.298921,-0.506051,-0.495742,-0.705799
-0.057593,-0.237730,-0.965178,-0.166035,0.041699,0.985238
-0.634433,0.087854,0.255127,-0.051909,-0.419917,0.906077
0.447668,-0.653659,-0.926725,-0.079844,0.175707,0.981199
-0.237913,0.081035,-0.982411,-0.160506,0.159737,0.974024
-0.533601,-0.415929,0.716935,-0.333062,0.804127,-0.492391
-0.323176,-0.069587,0.770995,-0.559906,0.828550,-0.003249
-0.137383,-0.034545,-0.979011,-0.132578,0.240630,0.961520
-0.427172,-0.128572,0.608442,0.288501,-0.285025,0.914072
-0.077905,-0.323793,-0.959691,-0.115642,0.215868,0.969550
-0.160675,0.353509,0.811909,0.756851,-0.324081,-0.567581
-0.562914,-0.274266,0.582841,0.474810,-0.869503,0.136091
-0.325000,-0.067546,0.870454,-0.395221,-0.908412,0.136338
-0.558656,-0.019512,0.659851,0.756613,0.209470,0.619402
0.708327,-0.575113,-0.920007,-0.061164,0.396723,0.915899
0.042451,0.196068,0.014605,0.969423,-0.047128,-0.240829
0.122424,-0.332505,0.306620,0.190834,0.694101,0.694122
0.129660,-0.012295,0.266248,0.264731,0.959332,-0.097980
0.197958,-0.371330,0.345177,-0.196433,-0.820815,-0.536356
0.019158,-0.039522,0.016024,0.991470,-0.126291,0.032219
0.176245,-0.719363,-0.930585,-0.048361,-0.093404,0.994453
-0.295748,0.131956,0.549667,0.468084,0.147522,-0.871284
-0.074499,-0.167994,0.565190,-0.394819,-0.113286,0.911748
-0.312229,-0.392335,0.653425,-0.476803,-0.783058,0.399349
-0.323176,0.198556,-0.988066,-0.033255,0.002153,0.999445
0.262239,-0.330015,-0.943166,-0.048211,-0.018858,0.998659
0.138175,0.221950,0.464416,0.051933,-0.496770,0.866327
-0.086845,0.019611,-0.977613,-0.126141,0.101311,0.986826
-0.308580,-0.244151,0.852261,-0.288133,0.396485,0.871653
-0.076628,-0.046442,-0.975568,-0.138034,0.186658,0.972680
0.025847,-0.464361,-0.948152,0.151303,0.216180,-0.964559
0.557259,-0.385914,-0.930919,0.113839,0.110432,0.987343
-0.110017,-0.020458,0.460139,-0.775057,0.621267,-0.115387
0.509152,-0.310652,0.394208,-0.563892,0.187279,-0.804333
-0.295505,-0.459383,0.208037,0.047109,0.323196,0.945159
-0.392384,-0.108760,0.812598,0.714799,-0.690375,0.111558
-0.337589,-0.111996,0.152267,-0.270815,0.840321,-0.469595
0.380831,-0.051170,0.425212,0.257240,0.843393,-0.471716
0.267530,-0.410802,0.349767,0.157850,0.819569,0.550808
-0.569178,0.092285,0.473742,-0.600326,0.024833,-0.799370
0.161954,-0.559483,0.402345,-0.266261,0.354235,-0.896450
-0.333333,-0.037332,0.948507,0.544755,0.698975,0.463331
0.340267,-0.444152,0.378956,0.499238,-0.804041,-0.322925
0.008576,-0.008014,-0.963655,0.318535,0.521300,0.791696
-0.525999,-0.050423,0.652131,-0.335859,0.839277,-0.427565
0.807212,-0.513789,-0.919360,-0.104052,-0.148766,-0.983383
-0.365323,0.280587,0.782553,0.993984,0.023573,-0.106959
-0.189624,0.031408,0.379958,-0.481589,0.742562,-0.465481
-0.066836,0.120706,-0.981911,0.104944,-0.263696,-0.958880
-0.294592,-0.492883,0.222245,-0.245689,-0.478554,-0.842984
-0.090312,-0.146193,-0.365457,0.317753,-0.871557,-0.373392
0.056255,0.088302,0.016253,0.960204,0.161925,-0.227570
0.038436,0.170631,-0.979449,0.081692,0.030888,0.996179
-0.278111,-0.084421,0.814330,0.508361,-0.793898,-0.333609
0.564982,-0.430214,-0.930773,0.123810,0.003505,0.992300
-0.414765,0.160677,-0.988170,0.201400,-0.111540,-0.973138
0.662288,-0.515232,-0.927372,0.019688,-0.104344,-0.994346
-0.383871,0.078348,-0.991008,-0.362957,-0.233220,0.902148
-0.009366,-0.477352,0.111373,-0.720050,-0.192981,0.666548
0.304507,-0.641613,-0.938638,-0.124679,0.030527,0.991727
0.861521,-0.537781,-0.916627,0.055708,0.089319,0.994444
-0.287660,-0.085068,0.784828,-0.337299,-0.033240,0.940810
-0.175879,0.013489,-0.975547,0.002824,0.086420,0.996255
0.332665,-0.268492,0.203447,-0.278637,-0.637743,0.718084
-0.084107,0.690892,0.050700,-0.214580,-0.239756,-0.946822
-0.259501,-0.031608,0.698033,-0.578749,0.815322,-0.017330
0.663139,-0.180488,0.382879,0.194337,-0.943362,-0.268887
0.047438,0.549279,0.050074,0.636694,0.110167,0.763206
0.318373,-0.420907,-0.936531,-0.257965,-0.013003,0.966067
0.482638,-0.705675,0.012268,-0.641742,0.003314,0.766914
-0.393602,-0.311349,0.671660,-0.771672,0.463968,-0.435036
0.549657,-0.441016,0.371195,0.524983,-0.397185,0.752753
0.180746,-0.211797,0.413570,0.819786,-0.515426,0.249575
-0.041537,0.008461,-0.960045,-0.239747,0.529158,0.813949
0.624886,-0.252266,-0.936510,0.039768,-0.089098,0.995229
0.124187,-0.330564,-0.954328,-0.136910,0.132113,0.981734
-0.567110,-0.012544,0.699785,0.000358,-0.279410,0.960172
-0.415008,-0.347238,0.553152,-0.470729,0.089260,-0.877751
-0.229216,-0.166800,-0.975464,-0.325817,0.104703,0.939617
-0.010763,-0.161324,0.748107,0.221127,-0.200282,-0.954458
0.323116,-0.241713,0.204427,0.331301,0.940396,-0.076780
-0.680531,-0.241514,0.796136,-0.230335,0.538950,-0.810234
-0.445112,0.172124,-0.991926,-0.191876,0.093823,0.976924
-0.283282,0.011000,0.877986,-0.516685,-0.596759,-0.613934
-0.537493,0.151270,0.517933,-0.911648,-0.038245,0.409188
0.278417,-0.718418,0.445325,-0.636795,-0.106816,0.763598
-0.249954,0.094275,-0.981201,-0.177223,0.106931,0.978344
-0.057350,-0.255749,-0.963571,-0.098893,0.125427,0.987162
0.078514,-0.140021,-0.095621,0.780525,0.625121,0.001882
0.059600,0.732703,0.068184,0.298976,0.138754,0.944119
0.341483,-0.458239,0.394980,0.131111,-0.977363,-0.166045
0.867481,-0.260080,-0.937470,-0.024601,-0.029658,0.999257
-0.516815,0.404679,0.212001,0.805923,0.591150,-0.032092
0.125403,-0.033300,-0.971124,-0.021673,0.305806,0.951847
0.261814,-0.894575,0.204907,-0.248290,0.420358,0.872726
-0.012284,-0.340667,0.550627,0.674362,0.738278,-0.013495
0.092988,-0.083723,-0.732354,0.047303,-0.998862,0.006016
-0.452714,0.276405,0.802458,-0.416407,0.460060,-0.784187
-0.256218,-0.082729,0.532079,0.741794,0.090386,-0.664509
-0.040747,-0.161374,-0.967431,-0.030394,0.162361,0.986263
-0.068297,-0.003833,-0.975652,0.044556,-0.059704,-0.997221
-0.825822,-0.408114,0.547810,0.056185,0.996634,0.059704
-0.086420,-0.307368,0.177095,0.328812,0.656172,0.679206
-0.262239,0.423892,0.450834,0.269531,0.632219,0.726397
0.578361,-0.528671,0.347431,-0.572025,0.600772,-0.558445
-0.089399,0.033349,0.465209,0.908589,-0.385283,0.161316
-0.547771,-0.264710,0.768720,0.769756,-0.458663,0.443965
-0.360152,0.226780,0.798410,0.238732,0.015596,0.970960
0.290154,-0.414884,-0.040414,-0.113258,0.421572,0.899694
-0.048226,0.193678,0.819838,0.939664,-0.011733,-0.341897
0.363741,-0.388901,-0.937449,-0.001183,0.194080,0.980985
-0.148574,0.065655,0.600931,-0.920355,-0.205858,-0.332519
-0.129720,-0.012096,-0.980847,-0.296849,0.192049,0.935413
-0.261935,0.357391,0.536648,-0.189740,-0.539041,0.820630
0.513653,-0.308612,0.205304,-0.032108,0.530754,0.846918
0.342578,-0.363814,-0.940391,-0.041938,0.105222,0.993564
0.671046,-0.379045,0.110413,0.385865,0.011192,-0.922487
-0.356989,-0.141414,0.248492,-0.336625,-0.101122,-0.936193
0.636198,-0.470931,-0.929291,0.020401,0.081019,0.996504
0.025422,-0.177202,-0.964301,-0.166530,0.145466,0.975247
0.236393,-0.028521,0.268898,-0.304745,-0.908611,0.285580
0.071945,0.945594,0.063135,0.263956,-0.362225,-0.893935
-0.217356,0.360577,0.640093,-0.423268,0.311585,-0.850740
0.489206,-0.588054,-0.922030,-0.084278,0.153401,0.984564
-0.244115,-0.036337,0.534395,0.781674,0.113942,0.613191
-0.270693,-0.430962,0.619500,0.216063,-0.577724,0.787116
-0.248068,0.037182,0.733689,0.599826,0.579407,0.551812
0.163960,-0.292584,-0.047883,0.485927,0.717452,0.499136
-0.074804,-0.338279,-0.957667,-0.117031,0.225040,0.967296
-0.225567,0.164809,0.898371,0.050251,-0.777468,0.626912
-0.034056,-0.242061,-0.685869,-0.266690,-0.289080,0.919407
-0.030773,0.530165,0.674456,0.228959,0.584307,-0.778565
-0.032902,0.248282,-0.985666,-0.186372,0.002094,0.982477
0.208175,-0.155550,-0.955204,-0.234683,0.070337,0.969524
-0.321656,-0.002739,0.939369,0.988724,0.143177,-0.043883
0.154413,-0.399205,-0.945273,0.159660,-0.079771,-0.983944
-0.338259,0.088551,-0.995952,-0.002236,-0.045775,0.998949
-0.582314,-0.036536,0.263932,0.236542,0.365363,0.900310
-0.028035,-0.287257,0.316259,-0.431298,-0.313914,-0.845837
0.210059,0.566600,0.024870,0.140021,-0.117763,0.983121
0.380952,0.419463,0.141835,-0.661014,0.129719,-0.739076
-0.439275,0.012792,0.873855,0.172415,-0.979461,0.104539
0.149122,0.106570,-0.969726,-0.087097,0.056379,0.994603
-0.294167,0.040069,0.633875,-0.057496,0.904023,0.423599
-0.797724,-0.217969,0.641073,0.253769,0.031777,0.966743
0.154595,0.005774,0.364560,0.840834,0.432247,-0.325823
-0.442254,-0.654307,0.327923,0.685391,0.093185,0.722189
0.094204,0.092732,-0.975234,0.110914,-0.067375,-0.991544
-0.436295,-0.081981,0.860168,0.131012,0.337044,0.932329
-0.545947,0.173270,0.811179,0.987369,-0.133955,0.084609
0.289789,0.283027,-0.047174,-0.334878,0.376758,-0.863661
0.115551,-0.594774,0.382357,0.457378,-0.517141,-0.723444
-0.365504,-0.600399,0.317678,0.461346,0.389264,0.797267
0.698291,-0.475113,-0.926913,0.155910,-0.012412,-0.987693
-0.107402,0.216774,0.758747,0.447420,-0.800442,0.398883
-0.352064,-0.075212,0.791421,0.577284,-0.815879,-0.032943
0.149243,-0.548631,-0.939995,-0.084880,0.118164,0.989360
0.796327,-0.598059,-0.911202,-0.038337,0.039212,0.998495
-0.170892,0.617472,0.239604,-0.344737,0.289827,-0.892836
-0.097123,0.180985,0.744372,0.957423,-0.269707,-0.102948
-0.140182,-0.007468,-0.980075,-0.019583,0.085480,0.996147
-0.230918,-0.107466,-0.976966,-0.181752,0.062477,0.981358
-0.340813,-0.156297,0.586013,0.625638,0.335540,0.704265
-0.685093,-0.295770,0.785767,-0.625965,-0.120432,-0.770496
0.398164,-0.545147,-0.930063,-0.336937,0.052490,0.940063
0.225690,-0.025535,0.419537,0.128639,0.294957,0.946812
0.039166,0.099651,-0.975297,0.054673,0.134992,0.989337
-0.187800,0.129915,-0.981744,0.254212,-0.031244,-0.966644
-0.514200,0.093180,0.465877,0.008718,-0.810083,0.586250
0.134161,0.014584,0.363058,-0.648958,0.431199,0.626833
-0.003284,-0.323096,-0.957980,-0.224589,0.271655,0.935822
-0.169311,0.033847,0.662772,0.992590,0.041422,-0.114233
-0.331143,-0.033648,0.958334,0.415215,0.736465,0.534056
0.236513,-0.550175,-0.939223,0.207799,-0.021476,-0.977936
0.039836,0.171477,-0.981139,-0.046747,-0.010587,-0.998851
0.438546,-0.530265,-0.927372,0.098933,0.141255,0.985017
0.349146,-0.750673,0.179808,0.349789,-0.202123,-0.914764
0.363985,-0.467297,0.333869,0.733522,0.419220,0.534976
0.491638,-0.149876,0.362182,-0.273278,0.265729,0.924504
0.207932,-0.689746,-0.928874,0.015924,0.000984,0.999873
-0.068235,0.434793,0.221807,0.181198,0.196299,0.963657
-0.037159,0.026530,-0.974483,0.244110,-0.041857,-0.968844
-0.072736,-0.016875,-0.975130,0.009588,-0.012827,0.999872
0.391959,-0.389000,-0.936635,-0.003825,0.205746,0.978598
-0.530620,-0.286710,0.718980,0.542732,0.036611,0.839108
-0.248616,0.104380,-0.986856,0.295897,-0.134652,-0.945682
-0.136958,-0.143952,-0.972397,-0.091286,0.109957,0.989735
-0.210667,0.024589,0.726909,0.969930,0.243383,0.000364
-0.088183,0.159730,0.240210,0.667639,0.221642,0.710727
-0.440673,-0.110354,0.426276,-0.134925,0.900101,0.414263
-0.068965,0.199402,0.715371,-0.521536,0.783199,0.338525
0.619413,-0.538925,-0.924910,0.091055,0.129703,0.987363
0.019645,-0.529915,-0.946922,-0.116202,0.257389,0.959296
0.183788,-0.242509,-0.952367,-0.194864,0.239225,0.951209
0.377364,-0.328124,0.399758,0.735610,-0.050619,-0.675511
-0.166028,-0.165605,0.555322,0.018641,0.779397,0.626253
0.036977,-0.106172,0.567256,0.060786,0.448672,0.891627
0.337348,-0.733748,0.170168,-0.265178,-0.352629,-0.897403
-0.547285,-0.434943,0.653049,0.452137,-0.850746,-0.267962
0.004502,-0.052863,-0.172610,0.984565,0.051878,-0.167157
-0.093352,-0.551867,0.048238,-0.564856,0.276203,0.777592
0.254273,-0.359632,-0.940496,-0.228835,0.272927,0.934422
-0.338868,-0.033051,0.569280,-0.615641,0.127413,-0.777658
0.078028,-0.098706,-0.968141,0.003288,-0.045410,0.998963
0.006022,0.013887,0.361034,-0.198475,-0.979702,0.028136
0.322144,-0.674514,-0.928332,-0.238233,0.240446,0.940973
0.229582,0.001493,0.420852,0.268128,-0.159981,-0.950007
0.192058,-0.056894,0.414530,-0.759986,0.460995,0.458155
-0.076810,-0.273320,-0.696614,0.175377,0.397343,-0.900756
-0.718055,-0.212794,0.313297,-0.340925,-0.378705,-0.860438
0.107827,-0.169985,-0.053538,0.834853,0.542878,0.091123
0.771515,-0.525834,-0.913893,-0.219594,0.000594,0.975591
0.545581,-0.610901,-0.925348,-0.097625,0.041712,-0.994349
0.061303,0.127228,-0.979783,0.187056,0.104793,-0.976744
0.393298,-0.438627,-0.942811,0.048084,0.126226,0.990835
0.264429,-0.370882,0.330072,0.131976,0.817662,0.560367
0.026456,-0.062519,0.065013,0.763542,-0.634300,0.121106
0.019158,0.559681,0.062050,-0.414988,-0.438269,-0.797311
-0.454295,-0.132704,0.600388,-0.335199,0.215976,-0.917058
0.018974,-0.801245,0.413278,-0.405098,0.271737,0.872958
0.021530,-0.308164,0.502514,0.158621,0.465455,0.870742
0.105943,-0.264759,0.283816,0.448073,0.773218,0.448737
-0.183238,0.028819,0.398172,-0.265444,0.856187,0.443265
-0.121388,0.195272,0.335309,0.836187,0.535154,-0.120003
-0.372498,0.480885,0.262951,0.436867,-0.182120,-0.880897
-0.304870,0.059481,-0.986084,-0.085483,0.005204,0.996326
-0.085141,0.028073,-0.409710,0.900214,0.307286,0.308530
-0.440066,-0.233301,0.708298,-0.670480,0.267734,-0.691936
0.052363,-0.577004,-0.939452,0.071865,0.292954,0.953422
-0.038556,0.065106,-0.979282,0.046291,0.126623,0.990870
0.121450,0.915778,0.059734,-0.272373,-0.117633,-0.954974
0.503011,0.478347,0.004027,0.210360,0.057636,0.975924
0.041233,-0.072325,-0.658245,0.950908,0.301289,0.070699
0.594783,-0.329965,-0.932567,0.047644,0.092856,0.994539
-0.051632,-0.140419,-0.969580,-0.075441,0.187683,0.979328
0.283464,-0.751519,0.161280,-0.554623,0.143412,0.819650
-0.199112,-0.149378,-0.977070,0.305397,-0.094173,-0.947557
0.239737,0.263066,-0.036304,-0.541829,0.414133,-0.731379
-0.395547,0.328223,0.217780,0.920189,0.387515,-0.055532
0.950800,-0.256993,-0.931086,0.225461,0.063577,-0.972176
-0.389406,-0.003435,0.906591,-0.613463,-0.704838,-0.356183
0.312899,-0.436338,0.377642,-0.662898,0.744516,0.079135
0.027610,-0.050871,0.006969,0.999854,-0.013797,0.010064
-0.462141,0.434594,0.212293,-0.563728,-0.597366,0.570407
-0.441463,-0.063763,0.987419,-0.038005,-0.175466,0.983752
-0.442315,-0.064410,0.961735,-0.708917,-0.666724,-0.230034
-0.086297,-0.253858,0.076926,0.972086,0.207049,-0.110356
0.372620,-0.377104,-0.941518,-0.043213,0.199293,0.978987
-0.458005,-0.089049,0.982578,0.098561,-0.432126,0.896411
0.443776,0.612244,-0.013144,0.906449,0.225118,-0.357313
-0.309432,-0.430413,0.592710,0.637432,0.442931,0.630470
-0.273794,0.697262,0.254209,-0.005744,-0.182010,0.983280
-0.208600,0.206669,-0.989297,-0.130766,-0.059377,0.989634
-0.185185,0.065305,0.623026,-0.577255,0.790906,-0.203089
0.072979,-0.573121,0.409084,0.214345,-0.266783,0.939619
-0.322812,0.262070,0.753072,-0.130056,0.440355,0.888354
0.237731,-0.376506,0.086253,0.267754,-0.626538,-0.731955
-0.805935,-0.442409,0.533644,0.173342,0.880068,-0.442077
-0.254212,0.125435,0.900165,-0.108900,-0.340132,0.934051
0.441343,-0.346043,-0.941455,-0.018724,0.165387,0.986051
-0.447120,0.549128,0.216696,0.257765,-0.159560,0.952942
0.066715,-0.356446,-0.948507,-0.156466,0.118020,0.980607
0.286383,-0.419314,0.359928,-0.187130,0.859475,0.475694
-0.083378,0.837581,0.034822,-0.250185,-0.019834,0.967995
0.421031,-0.468642,-0.933005,-0.031319,0.167656,0.985348
-0.296114,-0.149378,0.812786,0.250951,0.930443,-0.267021
0.030225,-0.071279,-0.389013,0.402306,0.914480,0.043314
-0.150642,-0.253410,0.516890,0.441079,0.429061,0.788261
0.034665,-0.356099,0.547643,0.702441,0.522335,-0.483469
-0.298363,-0.202290,0.704334,0.966501,0.105203,0.234113
0.499848,-0.478945,-0.930814,-0.143394,0.002807,0.989662
0.069635,0.070084,0.026018,0.886261,0.093934,-0.453562
-0.693425,0.038576,0.261428,0.593523,-0.361710,-0.718955
0.009489,-0.111300,-0.584156,0.996832,0.062240,0.049515
-0.216688,0.634445,0.720816,-0.104565,0.786387,-0.608820
-0.278477,-0.027028,-0.977738,-0.178484,-0.156409,0.971432
-0.022137,-0.346243,0.325481,-0.309704,0.523754,0.793577
-0.610532,-0.196218,0.768950,-0.134485,0.965063,0.224870
-0.424921,-0.342708,0.834860,0.752577,-0.087752,-0.652631
-0.321960,-0.415381,0.392748,-0.367894,-0.456030,-0.810364
0.049078,0.568592,0.701120,-0.205992,-0.657772,0.724502
-0.027792,0.491587,0.067308,-0.470730,-0.307073,-0.827115
0.245029,-0.342459,-0.942874,0.026189,-0.026527,0.999305
-0.477224,-0.046492,0.867721,0.158455,-0.084946,0.983705
-0.214255,-0.382528,0.575226,-0.526239,0.409908,-0.745016
0.103935,-0.391140,-0.948278,0.270698,-0.125641,-0.954430
-0.042814,0.144300,0.839283,0.960374,-0.093240,-0.262656
