0.881419,-0.628878,0.475243,-0.190686,0.469567,0.862059
0.117059,-0.665537,0.525356,-0.310855,0.819992,-0.480606
0.223236,-0.090997,0.190794,-0.555890,0.808883,-0.191557
-0.059944,-0.063596,0.334305,0.882417,0.447073,0.146513
-0.109878,-0.236187,0.648496,0.859454,-0.459745,0.223547
0.286662,-0.393818,-0.356733,0.956098,0.187544,-0.225174
-0.817233,0.621729,0.436016,-0.204715,-0.057238,-0.977147
-0.126524,0.266230,0.287620,0.933504,0.311850,-0.176973
0.005330,0.006289,0.125711,-0.713960,-0.538977,-0.446951
-0.641209,0.185093,0.429759,0.848878,-0.495350,0.184487
0.237270,-0.146584,-0.411645,0.988451,0.134562,-0.069697
0.385661,-0.163790,0.612611,0.703817,0.618356,0.349681
-0.139469,-0.269672,0.592783,0.415867,0.624465,0.661134
0.074738,0.216065,-0.192052,-0.017317,-0.872020,0.489164
0.427872,-0.007872,0.824462,0.873398,0.234288,-0.426949
-0.274368,-0.294027,0.161338,-0.519695,-0.578294,-0.628882
0.265231,-0.106612,-0.808948,0.966954,0.112457,0.228808
0.536118,-0.317188,0.391332,0.314429,0.782706,0.537128
0.578873,-0.161803,-0.967201,-0.105844,0.197286,0.974615
0.162208,0.029320,0.832462,0.584903,0.478628,-0.654832
0.627611,-0.231817,-0.960058,-0.117896,0.072819,0.990352
0.262512,-0.079082,-0.236308,0.994690,-0.102745,-0.006006
-0.121627,0.058967,0.829690,-0.727896,0.671652,0.138024
0.555809,-0.183509,-0.961058,0.042300,0.182128,0.982365
0.665798,0.108600,0.687266,-0.526175,0.740272,0.418494
0.286771,-0.094301,-0.683352,0.998742,-0.019361,0.046264
0.230637,-0.465948,0.542984,-0.481757,0.537944,0.691756
0.316907,-0.086894,-0.134825,-0.420235,0.904344,-0.074591
0.679612,-0.316525,-0.953516,-0.453938,0.358803,0.815599
0.816144,0.196483,0.632610,-0.719743,-0.688157,0.091702
0.230417,-0.107137,0.045427,-0.275025,0.942300,-0.190873
-0.383268,0.492558,0.493900,-0.530576,-0.842678,0.091556
-0.117384,0.102509,0.670267,0.233893,-0.943346,-0.235356
0.069735,-0.077894,-0.094740,0.637030,0.770376,-0.026700
0.100522,-0.015950,-0.182709,0.499765,0.865309,0.038407
0.841383,-0.160615,0.588383,0.891566,0.415768,0.179575
0.302545,-0.100788,-0.202451,0.825338,0.562232,0.052084
-0.562445,-0.521543,0.444416,0.741040,0.052076,0.669439
-0.139578,-0.242270,0.822205,0.890297,-0.437381,0.126763
0.173303,-0.134935,0.677981,-0.683190,0.508170,-0.524418
0.540251,-0.517706,0.470558,0.655055,-0.249396,0.713236
0.207138,-0.038448,0.686866,0.708378,-0.668562,-0.226331
0.002392,0.580174,0.478100,-0.433080,-0.819766,0.374734
-0.373696,-0.487654,0.532070,0.943279,-0.313246,-0.110006
-0.148609,0.184963,0.296591,0.939673,0.286736,-0.186540
-0.047106,-0.265697,0.581526,-0.541381,-0.399451,-0.739828
-0.652959,0.052609,0.579241,0.782565,-0.412735,0.466092
-0.514362,0.643306,0.577812,-0.048424,-0.994780,-0.089822
0.367819,0.499570,0.441444,0.731922,-0.102688,0.673606
0.665362,-0.381248,0.467615,0.406283,0.112494,0.906796
-0.145561,-0.281983,0.636239,0.135154,0.188189,0.972789
0.272084,0.146850,0.707294,0.679327,0.723412,-0.123249
-0.184399,-0.297202,0.607611,0.039036,0.836623,0.546387
0.300261,0.193833,0.384675,-0.328791,-0.553967,0.764864
-0.369669,-0.284099,0.621097,0.743928,0.625926,-0.234068
-0.120432,-0.229967,0.630810,0.738925,-0.642686,-0.202345
-0.096063,-0.405071,0.635553,-0.728083,0.547767,0.412125
0.645671,0.040435,0.609640,-0.340895,0.162299,-0.925986
-0.562771,0.394480,0.330191,0.672975,-0.738049,0.048867
-0.060270,-0.207203,0.067712,-0.571517,0.816383,0.082983
0.206809,-0.164057,0.899060,0.664441,0.569619,0.483790
0.266320,-0.055259,0.684580,-0.689325,0.723653,-0.034020
0.499999,-0.101313,0.478672,0.338630,0.206040,-0.918083
0.733138,-0.546690,0.560212,-0.448896,0.893322,0.021630
0.640230,0.126331,0.663724,-0.599546,0.800279,0.009953
-0.546018,-0.535308,0.387932,0.964188,-0.253942,0.076514
0.261642,-0.311363,0.765292,0.984289,-0.018384,0.175606
-0.347149,0.076966,0.442616,-0.421129,0.905486,-0.052400
0.144582,-0.000198,0.829690,0.862159,0.362482,-0.353962
-0.002176,0.359009,0.542870,0.711034,0.639641,-0.292045
-0.019693,-0.286878,0.565612,-0.289778,0.942664,0.165569
0.291230,0.276554,0.731008,-0.221484,0.737693,-0.637773
-0.577893,0.018996,0.638239,-0.077667,0.930435,0.358132
0.127503,-0.521276,0.392017,0.927867,0.341266,0.150336
-0.549607,0.685523,0.602783,-0.452169,0.886000,-0.102701
-0.165036,-0.540333,0.799920,-0.535517,0.842807,0.053829
-0.439841,0.650189,0.515585,0.575788,0.804370,-0.146480
-0.149588,0.181126,0.539699,0.261263,-0.204900,0.943270
0.256310,-0.133481,-0.313134,0.624207,0.777449,-0.077068
-0.206374,0.009989,0.556070,0.889314,-0.305211,0.340540
-0.372823,0.087152,0.879518,-0.013301,-0.928907,0.370075
-0.244996,0.544832,0.665324,0.532094,0.845875,0.037028
0.260228,0.239233,0.726865,0.880723,-0.105633,0.461702
0.281658,-0.107937,-0.613040,-0.409037,0.905968,0.109131
0.370323,-0.074049,0.820091,-0.343797,-0.267128,0.900248
0.269690,-0.002185,0.029342,0.214208,0.944949,0.247360
-0.072454,-0.801332,0.479443,0.541097,0.468267,0.698527
0.652634,-0.333336,0.459872,-0.462804,-0.271174,-0.843965
-0.099433,0.541657,0.613297,0.274381,0.958657,0.075448
0.404698,-0.397655,0.670381,-0.193713,0.975351,0.105665
0.289925,0.073258,-0.990743,0.233078,-0.150607,-0.960725
-0.657527,0.535833,0.326876,0.927883,0.308451,0.209502
0.188207,-0.224409,0.089597,-0.583903,0.435417,0.685179
0.214860,-0.066504,-0.585698,0.300223,0.944184,-0.135583
-0.557223,0.626632,0.556498,0.628797,0.607619,0.485194
0.641100,0.139830,0.597526,-0.356397,0.825556,-0.437537
0.297216,-0.040961,0.813805,-0.051965,-0.218634,0.974422
0.251958,-0.027599,0.057284,0.037067,0.969204,-0.243454
0.278395,-0.021637,0.837776,0.920840,-0.372111,-0.116566
0.098238,-0.359938,0.021314,0.957230,0.116818,0.264695
0.199847,-0.071408,-0.331962,0.168982,0.981334,0.091808
0.892299,0.070745,0.560012,0.872971,-0.436378,-0.217934
-0.106289,0.868971,0.522471,-0.012753,-0.421738,0.906628
-0.194953,0.771023,0.502843,-0.132005,-0.534610,0.834726
0.261313,-0.270859,0.702123,0.721450,0.568159,0.395860
0.897083,0.056317,0.456416,0.773580,0.095849,0.626408
0.663948,0.268217,0.653838,0.290361,0.780957,-0.552989
0.480637,-0.256302,0.708037,-0.118183,0.771143,0.625596
0.274803,-0.148967,-0.608468,-0.736898,0.668452,0.100769
-0.169604,-0.553831,0.637810,0.120500,0.375648,0.918895
0.297541,-0.083848,0.365561,-0.637572,0.770349,0.008016
0.066472,0.306064,-0.151567,-0.531936,-0.799823,0.278079
0.286336,-0.177289,0.344162,0.249938,-0.555684,0.792936
-0.168735,-0.115345,0.708580,0.743192,-0.565451,0.357674
0.225414,-0.082790,0.511700,0.384351,-0.847443,-0.366217
0.310705,-0.042019,0.494643,-0.182789,0.931119,-0.315605
0.145346,-0.230888,0.848947,0.212319,0.269601,0.939274
-0.056352,0.663558,0.584983,0.784857,-0.601180,0.150275
-0.370213,-0.411420,0.597811,-0.053657,0.995053,-0.083604
-0.497280,-0.622133,0.515814,0.356745,-0.752888,0.553076
-0.426783,0.717424,0.603383,-0.630137,0.592623,0.501722
-0.051130,0.146584,0.663210,0.409043,-0.904005,-0.124336
-0.132072,-0.277483,0.570555,-0.381178,0.918704,-0.103374
-0.572455,0.488584,0.366589,0.852841,-0.430257,0.295874
0.037970,-0.202962,0.334533,-0.398165,-0.911417,-0.103841
0.240537,-0.206274,0.712979,0.862222,-0.136501,-0.487792
0.129024,-0.133747,-0.050141,-0.081716,0.995471,-0.048585
0.530351,0.267951,0.660724,-0.181311,0.865182,-0.467533
0.385007,0.117195,0.746607,0.731850,0.130388,-0.668875
-0.408181,0.101054,0.571812,0.786020,-0.617993,-0.016058
0.284922,-0.627820,0.588783,0.376788,0.772746,-0.510778
-0.630658,0.330420,0.367504,-0.334381,-0.471434,-0.816051
-0.202131,-0.335719,0.685323,0.184406,0.567872,0.802194
0.763598,0.032624,-0.955087,0.340395,-0.151007,-0.928078
-0.109227,0.068096,0.459872,0.812297,0.565608,-0.142340
0.229003,-0.053401,0.794434,-0.495930,0.618472,-0.609546
0.041668,-0.061875,-0.062798,0.458358,0.885858,0.071857
0.329852,-0.186821,-0.958944,-0.428070,0.870949,0.241255
0.490208,0.156641,-0.973658,-0.313585,0.128026,0.940890
-0.193104,-0.275100,0.093740,0.819559,0.171870,0.546611
0.149369,-0.707892,0.486986,-0.128706,-0.416883,0.899802
-0.571911,-0.828338,0.401017,-0.045236,0.898914,0.435784
-0.362381,-0.360866,0.510042,0.790408,-0.523972,-0.317347
-0.370648,-0.053934,0.418017,-0.701927,0.387611,-0.597542
-0.474435,0.472831,0.466586,-0.077744,0.981358,-0.175765
-0.106614,0.098801,0.758550,-0.456943,-0.682725,0.570167
0.215404,-0.098938,-0.666067,0.919390,-0.215604,0.328995
0.258594,0.073128,0.891289,0.327235,0.926570,-0.185434
-0.141644,-0.191450,0.584869,0.809497,-0.341219,0.477791
0.071475,-0.915558,0.385875,0.968026,0.021274,-0.249947
-0.095844,0.411687,0.313962,-0.830947,-0.071851,0.551692
0.001522,0.886436,0.520071,0.503712,-0.325267,0.800297
0.430481,0.003906,0.151053,0.189487,-0.970261,0.150629
0.034812,-0.586257,0.443159,-0.529765,0.679061,-0.508159
0.489883,-0.302364,0.740779,0.306126,0.682833,-0.663345
0.632508,0.223480,0.616439,0.263558,0.709592,-0.653465
-0.167101,0.028787,0.694437,-0.489259,0.720473,0.491472
0.228568,-0.084373,-0.025371,-0.229781,0.966261,0.116363
-0.078547,0.519418,0.754607,0.954627,-0.294248,0.045872
0.728894,0.197800,0.494900,0.691136,-0.547822,0.471404
0.435488,0.566676,0.479986,-0.199001,-0.962620,0.183742
0.142952,0.125935,-0.993629,-0.013780,0.220134,0.975372
0.182875,0.316921,0.774378,0.849032,0.418443,0.322569
-0.364011,-0.037923,0.515900,-0.356550,-0.824265,-0.439841
-0.015991,-0.012113,0.187280,0.576024,0.813816,0.076809
0.067232,-0.123286,0.427559,-0.358104,0.641847,-0.678081
0.367059,0.243199,-0.986000,-0.164619,0.157908,0.973635
-0.204199,-0.188405,0.741265,0.603489,0.510155,-0.612815
-0.097802,0.355042,0.100368,0.507582,0.207291,0.836296
-0.645671,-0.042552,0.571869,0.434977,0.742474,0.509439
0.283617,-0.093510,-0.142425,-0.002663,0.998181,0.060228
0.272847,-0.041227,0.114168,0.059275,-0.993732,-0.094780
-0.428091,0.225468,0.226279,0.773176,-0.205828,0.599862
0.060924,-0.070083,0.660295,-0.752483,-0.515375,0.410071
0.765992,0.135201,-0.955858,0.245890,-0.020797,-0.969075
0.565384,-0.472169,0.437244,0.278106,0.845301,0.456205
0.309836,-0.225072,0.780578,0.742284,-0.541135,-0.395205
-0.429611,0.063863,0.598126,-0.227572,0.905890,0.357174
0.166122,-0.114553,-0.277421,-0.313800,0.948693,0.038881
0.706484,-0.425186,0.442816,0.577460,0.148890,-0.802728
0.589318,0.063725,0.776635,-0.108514,-0.635434,0.764492
0.067992,-0.029320,-0.153139,0.573309,0.812519,0.105498
0.738034,-0.585199,0.496043,0.982155,0.187699,-0.011866
-0.107484,-0.290586,0.560070,0.243119,-0.852912,0.461989
0.584421,0.322875,0.334876,0.717394,0.526017,-0.456784
0.132288,-0.795516,0.211537,0.882102,-0.300604,-0.362675
0.237599,-0.113624,0.543527,0.928139,-0.364119,0.077299
-0.123367,0.645156,0.616211,0.920063,0.095232,0.380019
-0.436248,0.161407,0.884632,-0.061300,-0.552692,0.831128
0.018279,-0.071408,0.124654,0.613139,0.748886,-0.251456
0.284597,-0.055655,0.286135,0.351292,0.919427,0.176771
0.441581,-0.505919,0.221708,0.851241,0.497628,-0.166602
0.161879,-0.046260,-0.357533,-0.375526,0.910776,-0.171660
0.083334,-0.054201,-0.118282,-0.596717,-0.798503,-0.079508
0.235640,0.003106,-0.987172,0.253837,-0.328069,-0.909911
0.141644,-0.765998,-0.960030,0.202701,-0.253017,-0.945989
0.460073,0.067966,0.213651,-0.418468,-0.817462,0.395779
0.131527,-0.303422,0.895174,0.152207,-0.818133,0.554519
-0.092471,-0.131364,0.568327,0.995467,0.094322,-0.012237
-0.333550,-0.518764,0.580269,-0.084545,-0.611155,0.786983
0.341276,-0.391306,-0.953173,-0.306840,-0.040742,0.950889
-0.216168,0.139564,0.677438,-0.438088,0.012658,0.898843
-0.472802,-0.197670,0.579526,0.979858,-0.064327,0.189052
-0.118148,0.139434,0.927316,0.321380,-0.841383,-0.434499
0.546128,-0.047843,0.645410,0.838427,-0.390053,0.380656
-0.117275,-0.262522,0.693066,0.879032,0.254287,0.403287
-0.089752,-0.409966,0.711779,0.893634,0.383555,-0.233030
-0.106614,0.642110,0.630725,0.869459,0.207830,-0.448160
-0.269799,0.090335,0.161881,-0.622436,0.482824,-0.615998
-0.382942,0.674940,0.537442,-0.266266,-0.820554,-0.505760
0.587684,-0.600289,0.491957,-0.454963,0.718012,0.526752
0.248694,-0.319829,0.734665,-0.092730,0.856503,-0.507743
-0.144691,-0.059629,0.723579,0.779162,-0.196389,0.595263
0.321476,0.099334,0.929802,0.011118,-0.957844,0.287074
-0.081050,0.535308,0.622525,-0.106852,0.962251,-0.250312
0.225195,-0.047051,-0.179138,-0.184908,0.977693,0.099628
0.751959,-0.622787,0.538813,0.854657,-0.268408,-0.444431
0.274912,-0.365762,-0.342476,0.956098,0.187544,-0.225174
-0.489339,0.748000,0.582840,0.458511,-0.609494,0.646749
0.658291,0.213423,0.419959,0.717455,0.456797,0.525923
-0.224325,0.977632,0.529528,-0.026005,0.727673,-0.685431
-0.698324,-0.145388,0.512928,-0.154102,0.889616,-0.429924
-0.147845,-0.446366,0.743007,0.798793,0.580996,-0.156117
0.213230,-0.099197,0.725779,0.105846,0.992947,0.053404
0.073759,-0.079211,-0.128425,-0.547010,-0.807753,0.219808
0.402849,0.605581,0.500986,-0.224586,0.956586,-0.185754
0.207898,-0.019125,0.031970,-0.259383,0.952242,0.161108
-0.653503,-0.069420,0.691209,0.859512,-0.365797,0.356974
0.808963,-0.125273,0.575355,-0.163582,0.480925,0.861366
0.382072,-0.360333,0.599640,0.924341,-0.189956,-0.330923
0.279480,-0.026275,-0.198509,-0.506487,-0.837002,-0.207119
0.159814,-0.559922,-0.964715,-0.361756,0.052109,0.930816
0.235205,-0.421882,-0.961201,-0.228255,0.177834,0.957222
0.750000,0.135460,0.668495,0.997393,0.047038,-0.054721
0.175697,0.818014,0.505785,0.128335,-0.204653,0.970385
-0.296237,-0.075107,0.662095,0.229878,0.809732,-0.539898
0.328547,0.294682,0.410531,-0.828963,0.548002,0.111866
-0.706700,0.384286,0.353533,0.954440,0.178533,0.239102
0.075393,-0.198728,0.287735,0.881060,0.472715,0.016536
0.766427,0.242932,0.546099,0.884739,-0.405399,-0.229975
0.376850,-0.067304,0.732436,0.582576,-0.805329,0.109775
0.180265,-0.010522,-0.991172,-0.176346,0.390541,0.903537
-0.183963,0.103696,0.635439,0.687592,-0.677810,-0.260367
0.191035,-0.003243,0.659695,0.670010,-0.735597,0.099916
0.370104,-0.373703,-0.951687,0.070378,-0.085592,-0.993842
-0.139253,0.045993,0.108911,0.047311,-0.938032,0.343304
0.292429,-0.087289,-0.100711,-0.260312,0.950016,0.172359
0.339862,-0.589965,-0.954058,0.050618,-0.132465,0.989894
-0.624892,0.139830,0.578669,-0.212738,0.961152,-0.175869
-0.641429,0.418173,0.462387,0.427099,-0.061141,0.902136
-0.081050,-0.050889,0.271792,0.973877,0.055937,0.220078
0.544823,-0.480109,0.404960,0.011474,0.855923,0.516976
0.788187,-0.215273,0.577755,-0.220561,0.710190,0.668568
0.495322,0.042681,0.769864,0.169108,0.936080,-0.308476
-0.011097,-0.205215,0.472101,0.170475,0.936024,-0.307891
-0.207788,0.062804,0.659553,0.262958,0.964744,0.011076
-0.495540,-0.708029,0.513671,-0.526185,0.752287,-0.396476
0.564620,0.007614,0.479158,-0.600619,-0.315291,0.734744
-0.856831,0.357554,0.439959,0.283623,0.654681,0.700679
0.040360,-0.479051,0.364961,0.943234,0.317338,-0.098015
-0.445060,0.244524,0.246393,0.844088,0.312486,0.435739
-0.145345,0.035274,0.374132,0.781375,-0.599911,0.171930
0.028829,0.084373,0.152024,0.830426,-0.498188,0.249402
0.197997,-0.019788,-0.988772,-0.288487,0.486704,0.824557
-0.163947,-0.289261,0.692552,-0.273329,0.847931,0.454208
0.533180,-0.354776,0.812548,-0.472369,-0.877991,-0.077460
0.852153,-0.013568,0.561555,-0.643998,0.146538,0.750862
0.880440,-0.194496,0.557755,-0.302360,-0.719951,-0.624699
-0.145671,-0.542320,0.643839,-0.338262,0.409690,0.847191
0.357375,0.062408,0.905717,-0.394168,0.655308,0.644362
0.317452,0.162732,0.835748,0.967178,-0.011658,-0.253831
0.654699,0.162861,-0.965230,-0.201820,-0.106892,0.973572
-0.377720,0.060421,0.736407,-0.033739,-0.897413,0.439900
0.049174,-0.063725,0.093597,-0.756004,-0.647629,-0.095049
-0.118908,-0.200716,0.572041,-0.687835,0.714009,-0.130673
0.472257,-0.246907,0.023399,0.645849,0.760784,-0.063930
0.025891,-0.168815,0.294020,-0.754866,-0.645993,-0.113448
0.393712,0.002314,0.161710,0.161428,-0.972737,0.166503
-0.593560,-0.016742,0.695694,-0.898343,-0.103454,-0.426940
-0.052654,-0.213690,0.757064,0.544174,-0.778935,0.311665
0.765338,0.190788,0.669552,0.438066,-0.539448,-0.719093
0.163513,-0.069420,0.218565,-0.298847,0.924804,-0.235433
0.539601,-0.153733,0.715522,0.337536,0.756934,-0.559572
-0.148064,0.110579,0.784777,-0.651369,-0.593454,-0.472791
0.139144,-0.656538,-0.964801,0.319376,-0.223239,-0.920958
-0.500653,0.549994,0.387046,0.922749,-0.355727,-0.148298
-0.034161,0.044669,0.855861,-0.160435,-0.908240,0.386471
0.070715,0.329232,0.197880,0.955166,0.114209,-0.273155
0.762074,0.159291,0.354076,-0.556464,-0.829623,-0.045533
-0.433094,-0.501687,0.515957,0.013509,0.640103,0.768171
0.201155,-0.054468,-0.625554,-0.247790,0.966938,0.060257
-0.155352,-0.058700,0.671666,0.519184,-0.043554,-0.853552
0.204853,-0.066908,0.089083,-0.585425,0.810086,0.032230
-0.227263,0.093905,0.633010,0.974555,0.170677,0.145300
-0.370104,0.674407,0.540841,0.358475,0.930598,0.074049
0.418951,-0.098405,0.615668,-0.615369,-0.636075,-0.465543
-0.654808,-0.687380,0.561584,0.896069,0.438002,0.072209
0.334530,-0.322479,-0.957516,0.235600,0.097854,-0.966911
-0.571911,-0.055526,0.641010,-0.187303,0.976707,0.104697
0.698324,0.266093,0.684723,0.688268,0.558591,-0.462886
-0.157636,0.111775,0.547642,0.945121,0.186559,-0.268219
0.767842,0.236850,0.681266,-0.130939,-0.988883,0.070462
-0.438317,0.005756,0.438787,0.804188,-0.448044,0.390561
-0.277960,0.050622,0.699837,0.977666,-0.050878,0.203915
-0.037531,0.022963,0.248736,0.755796,-0.547830,0.358685
0.265121,-0.043877,-0.051656,-0.224664,0.971904,0.070210
0.055808,-0.813248,0.389903,-0.641235,0.069985,0.764147
0.270019,-0.035136,-0.066798,-0.358902,0.933253,-0.015077
0.487270,-0.204949,-0.958115,-0.111352,0.149758,0.982432
-0.069626,-0.170802,0.405703,0.790309,0.568260,-0.229112
-0.662424,-0.817222,0.546670,0.982924,-0.165580,-0.080279
0.233246,-0.198728,-0.407588,0.993019,0.086597,-0.080087
0.342797,0.109125,0.828319,0.852078,-0.522361,0.033208
0.043624,0.049306,0.128568,0.945353,-0.313986,-0.087868
-0.220627,-0.309376,0.683752,-0.539987,0.833501,0.117000
0.250328,0.251932,-0.991743,0.365907,0.107188,-0.924458
-0.099326,0.207599,0.623896,0.491525,-0.862764,-0.118499
-0.528067,0.630065,0.512871,0.198818,-0.908434,0.367722
-0.238688,0.120378,0.587926,0.963974,0.265951,0.004871
-0.165906,0.232746,0.794320,-0.627619,0.456133,-0.630902
0.056246,-0.706437,0.384103,0.537759,-0.371756,-0.756712
0.499783,-0.130969,0.656038,0.778414,-0.348604,-0.522061
0.138490,-0.081465,-0.381532,-0.513451,-0.858092,0.006760
0.286552,0.002847,0.657724,0.929467,-0.368043,-0.025206
-0.239228,0.529088,0.684237,0.138177,0.979434,-0.147028
-0.094104,-0.239095,0.539184,-0.056869,0.897262,0.437821
-0.678961,0.528159,0.292820,0.821640,0.559288,0.110023
0.064948,-0.858510,0.451387,-0.874142,0.234510,0.425301
-0.163293,-0.035799,0.635239,-0.592023,-0.422848,0.686082
-0.246954,-0.502478,0.787377,-0.765876,0.377668,-0.520385
0.012946,0.688568,0.653181,0.803295,-0.561203,-0.199420
0.175913,0.396071,0.503900,0.181375,-0.832489,0.523513
0.578983,0.183638,-0.967687,0.232118,-0.109451,-0.966510
0.379244,-0.098009,-0.890946,0.969547,-0.068952,0.234998
0.104004,0.051552,0.848918,-0.185346,-0.981088,0.055800
-0.483681,0.535170,0.391874,0.922749,-0.355727,-0.148298
0.840188,-0.044806,0.564184,0.945395,-0.312289,-0.093299
0.096933,-0.125540,-0.086569,-0.577482,-0.806215,0.128577
-0.424608,0.004035,0.582383,0.221888,-0.803006,0.553124
0.259899,-0.075511,-0.566898,0.098628,0.994577,-0.033011
0.330941,-0.086490,0.552184,-0.344863,-0.902342,0.258552
0.013816,-0.037390,-0.020314,0.315435,0.945302,-0.083095
0.389685,-0.121565,0.675095,0.531910,0.322290,0.783071
-0.493147,0.888691,0.579869,-0.616696,0.281847,-0.735016
0.412534,0.008010,0.599868,0.606665,-0.783081,-0.136902
0.972477,0.195287,0.359618,-0.282952,0.955878,-0.078965
0.497390,-0.002977,0.158481,0.110777,-0.975972,0.187636
0.028175,-0.151875,0.251535,0.967679,0.241000,-0.074271
0.121517,-0.660117,0.533470,-0.806378,0.587829,0.064901
-0.344755,0.321550,0.406931,0.302263,-0.665225,0.682725
-0.042428,-0.073791,0.177338,0.851659,0.521839,-0.048602
0.445060,-0.229167,-0.964058,0.046275,0.263640,0.963510
0.863143,-0.576596,0.481529,-0.257532,0.385736,0.885937
-0.164598,-0.054064,0.618297,0.210819,-0.962009,-0.173475
-0.047431,-0.036994,0.226736,0.883350,0.313630,0.348322
0.089536,-0.000198,-0.116825,-0.467147,-0.884011,0.017266
0.391644,0.427698,0.443473,0.815421,-0.311072,0.488184
0.801785,0.092055,0.407760,0.307668,-0.823623,-0.476431
0.456919,-0.099730,-0.967687,-0.144264,0.059699,0.987737
0.302654,-0.140759,0.750893,0.924107,-0.364084,0.116055
0.027525,-0.254315,0.631496,-0.815710,0.567628,0.111431
0.152307,-0.070083,0.894003,-0.262427,0.945586,-0.192351
-0.390883,-0.613392,0.360075,-0.048645,0.168105,0.984568
0.938208,0.016742,0.422102,0.850210,-0.239661,-0.468728
0.266536,-0.010789,0.115511,0.059275,-0.993732,-0.094780
0.287097,-0.103696,-0.144796,-0.002663,0.998181,0.060228
0.618474,-0.166569,0.728693,0.803888,-0.334511,0.491799
-0.035466,-0.057772,0.202566,0.767651,0.611038,0.193248
-0.098018,0.613925,0.345876,0.118521,-0.146982,0.982013
-0.258050,0.225726,0.889203,-0.563588,0.822418,0.077440
0.845626,-0.503407,0.470072,-0.174410,0.610028,0.772947
0.240318,-0.156374,0.792234,-0.476275,-0.154420,-0.865631
-0.353895,-0.543112,0.541270,0.958731,-0.274532,0.073941
0.001306,0.387727,-0.150596,-0.531936,-0.799823,0.278079
0.279265,-0.085698,0.711951,0.681954,-0.222534,-0.696719
-0.254351,0.182847,0.811691,0.764071,0.594389,0.250794
-0.407201,-0.391968,0.340333,-0.682937,0.699885,0.209185
-0.408181,0.648201,0.574241,0.931607,0.311549,-0.187202
-0.201915,0.068362,0.618554,0.975674,0.156012,-0.154013
-0.266755,-0.368145,0.445387,0.871845,-0.076791,0.483724
0.180050,-0.086361,0.199366,-0.394270,0.872535,-0.288505
0.573325,-0.165374,0.683980,-0.337746,0.920272,0.197553
-0.260443,0.237908,0.760750,0.375359,-0.293202,0.879283
0.273063,-0.054330,-0.097769,-0.117291,-0.976815,-0.179096
-0.293408,0.200983,0.926488,-0.643734,0.459951,0.611598
-0.414708,-0.118391,0.632867,-0.613112,-0.266242,-0.743780
0.346060,0.507511,0.457844,0.926978,0.349139,0.137160
0.265557,-0.232084,0.825748,0.153891,-0.917406,-0.366994
0.048846,0.431277,0.211194,0.960500,0.077091,0.267389
-0.103570,0.095230,0.750950,-0.778654,-0.420637,0.465578
-0.116949,0.642110,0.650353,0.964666,-0.262294,0.024923
0.179070,-0.115345,-0.471929,-0.969343,-0.154754,0.190854
0.561685,-0.377540,0.400274,-0.136124,0.678597,0.721787
-0.162208,0.012638,0.506157,0.980940,0.074020,0.179659
0.120648,-0.031040,-0.991457,-0.194790,0.240525,0.950897
-0.570277,-0.295344,0.643353,-0.002779,-0.431149,0.902276
0.302764,-0.077894,0.254364,0.226928,-0.971339,-0.070744
0.800696,0.125007,0.701837,0.912157,0.408048,-0.038283
0.081920,-0.200320,0.574984,-0.034376,-0.732104,0.680325
-0.206048,-0.223214,0.731950,0.249288,0.783814,0.568762
-0.301240,-0.331082,0.170738,-0.635626,0.771082,-0.037583
0.454850,-0.324466,0.448416,-0.597415,-0.160628,0.785680
0.403938,-0.282904,-0.953401,0.341038,-0.306208,0.888780
0.242492,0.434055,0.789292,0.193311,-0.979142,0.062542
-0.126305,0.108600,0.880660,0.852473,0.517387,-0.074835
0.741623,0.130306,-0.956230,0.225814,-0.027117,-0.973793
0.328657,-0.340348,0.588297,0.510970,0.180562,-0.840421
0.204309,-0.122623,0.416588,-0.448837,0.853924,0.263361
0.013926,-0.715574,0.451930,-0.387922,-0.438545,-0.810675
-0.115970,-0.045331,0.557355,0.832527,0.145148,-0.534632
0.088772,0.107137,0.522014,0.825049,0.474139,0.307388
0.330721,0.098672,0.929745,0.073181,-0.955741,0.284962
0.647192,-0.019255,0.570726,0.095571,-0.471684,0.876573
0.657527,-0.078952,0.694409,0.968237,0.216874,0.124429
0.120432,-0.247570,-0.964230,0.004530,0.489497,0.871993
0.294932,-0.040169,-0.096054,0.375413,0.885599,0.273460
0.725740,-0.555819,0.473444,-0.437887,-0.728303,-0.527095
0.284922,0.011976,0.321619,-0.064904,-0.994798,0.078519
-0.093779,-0.185101,0.598097,0.912609,-0.386788,0.132436
0.110748,-0.273638,-0.003914,0.995664,-0.038894,0.084499
-0.251742,-0.644631,0.713408,0.975916,0.216706,0.025024
-0.701481,0.214085,0.428902,0.824072,-0.207913,0.526952
-0.254786,-0.025216,0.721522,-0.663692,0.559340,-0.496640
0.552001,-0.152141,0.634953,-0.460511,-0.881998,0.100044
0.707899,-0.182976,0.556127,-0.309756,0.940530,-0.139479
0.245756,-0.081731,-0.781921,0.997410,0.070313,0.015138
0.217579,-0.096159,-0.569469,-0.119904,0.992545,0.021850
-0.221606,-0.476014,0.771578,0.922658,-0.381625,-0.055367
0.335074,0.059888,-0.982258,-0.162225,0.183190,0.969600
-0.083659,-0.705646,0.470986,-0.755078,0.100794,-0.647841
-0.173413,0.223085,0.694323,-0.245502,-0.969195,-0.019738
0.170365,-0.091918,-0.427902,-0.144164,0.981289,-0.127628
-0.181025,0.089673,0.584983,0.536075,0.673705,-0.508670
0.330287,0.207065,0.413617,0.950156,-0.306107,-0.059174
0.304723,0.394480,0.819548,0.978136,0.161263,-0.131318
0.282528,-0.147246,-0.646210,0.839693,-0.311989,0.444498
0.448758,-0.415791,0.435216,0.917303,0.285169,0.277909
0.125216,-0.405596,-0.967544,-0.339826,-0.031143,0.939973
-0.066797,0.073920,0.408588,0.949137,-0.310170,0.054173
-0.325934,0.190788,0.191937,-0.644326,0.515780,-0.564637
-0.553415,-0.052214,0.644724,-0.044167,0.978353,0.202175
0.515557,-0.056713,-0.966058,-0.238527,0.138085,0.961269
-0.585619,0.310830,0.295677,0.854541,-0.188769,0.483866
-0.071259,0.396201,0.521356,0.738759,0.648781,-0.182530
0.385226,0.014626,0.750950,-0.191108,0.432149,0.881320
-0.289381,0.361521,0.173281,0.847431,0.111644,0.519034
0.299171,-0.109125,0.878860,0.835972,0.206682,0.508364
0.172758,-0.194496,0.842719,0.348096,-0.082890,0.933787
0.287097,0.058967,0.906545,0.153606,0.946557,0.283612
-0.415034,0.637878,0.586555,0.391167,-0.788237,0.475047
0.090187,-0.191450,0.132882,0.975896,0.217426,0.018808
-0.078981,-0.375424,0.651267,0.719244,0.688708,-0.091483
0.160574,-0.447950,-0.969629,0.304942,-0.041119,-0.951483
0.468449,-0.540066,0.226793,0.865409,0.457678,-0.203956
0.151979,-0.148829,-0.978715,-0.081055,0.483631,0.871511
-0.077132,0.870555,0.517014,0.356191,-0.421585,0.833903
0.794930,0.247966,0.671438,-0.241591,-0.704726,0.667079
0.077023,-0.193963,0.284535,0.889514,0.455925,0.029950
-0.874673,0.497057,0.450987,0.162481,0.715754,0.679188
0.537967,-0.497720,0.455872,0.343275,0.683722,0.643962
-0.698978,-0.673349,0.539156,-0.268568,-0.914327,-0.303114
0.475195,-0.084769,0.615582,0.485240,0.152213,-0.861030
-0.039709,0.685523,0.480615,0.906700,-0.323834,0.270234
-0.704525,0.418036,0.343476,0.837583,0.311116,0.449067
0.346604,-0.077490,0.322248,0.686107,0.727488,0.004347
0.467799,0.098801,0.633667,0.048950,-0.759368,0.648818
-0.660900,0.299448,0.353961,0.143199,0.932895,0.330456
0.749239,0.060688,0.240336,-0.100821,-0.944520,0.312597
0.479548,-0.279729,0.366418,0.847398,-0.211747,-0.486909
0.075499,0.254315,-0.190937,-0.215326,-0.897899,0.383943
0.262183,-0.148700,-0.601583,-0.295794,0.935543,0.193039
-0.040579,0.036857,0.251964,0.788429,-0.550725,0.274011
-0.128264,-0.216598,0.665181,-0.701542,-0.711858,0.033133
-0.166666,-0.021379,0.757892,-0.745108,-0.115307,0.656901
0.478024,-0.703658,0.498786,-0.427522,0.825678,0.368077
-0.140774,0.071408,0.129225,-0.192541,-0.932229,0.306392
-0.175913,-0.447950,0.489757,-0.491553,0.371832,0.787475
0.151544,-0.463040,-0.967172,-0.335328,0.051523,0.940691
-0.126524,-0.067966,0.291763,-0.661500,0.747790,-0.056809
0.169060,-0.655350,-0.957058,0.430199,-0.109730,-0.896040
0.197018,0.005231,-0.286649,0.989615,0.052812,0.133693
0.253591,-0.034344,0.757178,-0.518160,-0.625907,0.582881
0.212031,-0.093372,0.232308,-0.515218,0.730835,0.447694
0.304394,-0.067037,-0.031971,-0.618079,0.786113,0.002015
0.268711,-0.305806,-0.363904,0.956548,0.169489,-0.237255
0.243146,-0.087952,0.429588,-0.624246,0.768930,0.138069
0.701587,0.037390,-0.959144,-0.154090,0.046791,0.986948
-0.630004,-0.518360,0.472758,0.985236,0.106884,0.133740
0.250218,-0.123019,-0.807206,0.966954,0.112457,0.228808
-0.119887,0.113761,0.738922,0.795087,0.448140,-0.408665
-0.064078,-0.571701,0.481529,-0.442585,0.710123,-0.547581
-0.299716,-0.401234,0.771521,-0.734921,-0.182668,-0.653088
-0.077677,-0.124877,0.646496,-0.343644,-0.277205,0.897255
0.175262,-0.075907,0.381903,0.498913,-0.856406,-0.132869
-0.381309,0.218981,0.858404,0.693536,-0.166348,0.700953
-0.811685,-0.494674,0.614839,-0.276699,0.815505,-0.508320
0.223020,-0.138772,0.561698,0.966915,-0.251402,-0.043268
0.205504,0.249952,-0.997600,0.339840,-0.049164,-0.939198
-0.188751,-0.582816,0.690952,0.929854,-0.038019,-0.365958
-0.041558,-0.130831,0.688266,0.585902,-0.706887,0.396269
0.572346,-0.277612,0.416045,0.535039,0.843373,-0.049557
-0.166012,-0.076174,0.349076,-0.726711,-0.625629,-0.283690
-0.152852,0.465690,0.666124,-0.002206,-0.994729,0.102517
-0.082029,0.115612,0.292220,0.931098,0.360621,0.054856
0.614772,-0.127261,0.680638,-0.442899,0.756290,0.481524
0.116733,-0.782009,0.489100,0.554288,0.598519,-0.578395
0.578329,-0.206540,0.709980,0.806260,-0.560711,0.188545
0.385661,0.131760,-0.982286,-0.437026,0.141215,0.888294
0.161773,0.154653,0.634925,0.465803,0.859622,-0.209947
0.379460,0.118391,0.708751,0.852023,-0.489607,0.185312
0.265121,-0.072070,-0.879432,0.681544,-0.671525,0.290778
0.282309,0.072595,0.859547,0.142940,-0.945195,0.293554
0.095190,-0.457483,0.041599,0.989118,0.111117,0.096432
-0.152198,0.079348,0.697237,0.440077,0.897073,-0.039909
0.562230,-0.331211,0.805206,0.413988,0.910156,-0.015142
-0.412205,0.873075,0.588155,-0.580950,0.424333,-0.694578
-0.169386,0.225064,0.437673,-0.446636,0.814648,-0.369952
-0.366080,0.153071,0.854918,0.523307,0.850743,-0.048850
0.543080,-0.260277,0.681637,0.865939,-0.100218,-0.490005
0.662424,-0.047981,-0.958630,-0.246771,0.249651,0.936364
0.697344,-0.018333,0.529356,-0.537257,0.010305,0.843355
0.309836,0.125273,-0.985600,0.197619,-0.043558,-0.979311
-0.149259,-0.249952,0.416216,-0.093229,-0.990406,-0.102004
0.336598,0.005626,-0.979658,0.020119,0.128918,0.991451
0.610639,0.245712,0.628096,0.212329,-0.854261,0.474504
0.281004,-0.049305,0.459472,0.516996,-0.855762,0.019654
-0.041668,-0.021637,0.677409,0.961005,0.164813,-0.222051
0.444190,-0.358346,0.476015,0.312253,-0.894769,-0.319197
-0.750654,-0.580570,0.560355,0.902540,-0.286724,0.321266
-0.595081,-0.499441,0.464272,0.936838,0.290945,0.194128
0.656658,-0.091522,0.751521,0.808602,0.532597,0.250008
0.736946,-0.671232,0.530785,0.968773,0.014267,-0.247539
-0.075827,0.529217,0.642582,0.984627,0.152648,-0.084903
-0.617275,0.655213,0.635039,-0.341338,0.915943,-0.211038
0.579417,0.007743,0.782406,0.037672,-0.525933,0.849691
-0.142407,-0.470585,0.485614,0.125619,0.802200,-0.583691
0.124346,0.150154,-0.226336,0.879167,-0.245967,0.408124
-0.674389,0.411024,0.331333,0.764892,0.396754,0.507470
-0.458117,-0.530146,0.323619,0.726333,-0.646379,-0.233740
-0.277631,-0.119578,0.746407,-0.436025,-0.353600,0.827556
0.069081,-0.536496,0.168138,0.987756,0.131938,-0.083248
-0.199412,-0.296411,0.573784,0.463641,-0.834221,0.298516
0.342797,0.272450,-0.986229,-0.158217,0.154497,0.975243
0.383158,-0.425056,-0.950544,-0.090945,-0.026842,0.995494
0.692016,-0.537158,0.460730,-0.210557,0.611981,0.762329
0.265231,-0.034344,-0.223251,0.997544,-0.068209,0.015920
-0.270563,-0.344056,0.609697,-0.189319,0.952031,-0.240408
0.454744,-0.312155,-0.958344,0.037212,0.111301,0.993090
0.221062,-0.597777,-0.961144,0.282587,-0.087276,-0.955263
0.626631,0.268080,0.325848,0.626062,0.694237,-0.355079
-0.708659,0.437230,0.365304,0.938244,0.093968,0.332970
0.506745,0.191579,0.686580,-0.226818,0.966303,-0.121701
-0.323105,0.638144,0.558041,-0.599644,-0.614891,0.512188
0.250653,0.051947,0.768064,0.971914,0.220330,0.082688
-0.496955,-0.011184,0.593126,-0.154717,-0.974724,-0.161168
0.291994,-0.005360,0.673495,0.769471,0.258051,-0.584230
-0.062989,-0.199391,0.065455,-0.423883,0.893994,0.145252
0.302980,0.137714,0.695580,-0.571970,0.798936,0.185880
0.265557,-0.168023,-0.579412,0.927720,-0.345191,0.142052
0.360748,-0.315863,0.587069,-0.839649,0.303280,0.450567
-0.582027,0.740584,0.574898,-0.752719,0.167915,-0.636568
0.012837,-0.057505,-0.006628,-0.255191,0.964857,-0.062678
-0.432334,-0.060688,0.601383,0.764031,0.506498,0.399646
0.143602,0.045993,-0.991057,-0.094386,0.152634,0.983765
-0.174718,-0.260802,0.765035,0.873750,-0.229683,-0.428726
-0.378374,0.022437,0.551698,0.474991,-0.648305,0.595049
0.242927,-0.154387,0.584469,0.963556,0.024712,-0.266361
0.485530,-0.437230,0.784606,-0.711867,0.702209,0.012133
-0.021867,-0.111508,0.036027,0.873616,-0.411831,0.259211
-0.190165,-0.061350,0.640324,0.996148,-0.066613,-0.057034
-0.320605,-0.424660,0.583297,-0.211672,0.429421,-0.877948
0.586814,0.127657,0.564327,0.135497,0.975580,-0.172868
-0.131746,-0.070874,0.506700,0.999687,0.018160,-0.017201
0.620974,0.057505,0.657667,0.713938,-0.695812,0.078350
0.600523,0.074582,0.674952,0.866364,-0.496585,0.053064
-0.586054,0.334919,0.298734,0.932775,0.015275,0.360134
0.081050,-0.780289,0.404645,0.584218,-0.789157,-0.189528
0.539926,0.018592,0.593440,-0.268829,0.957291,-0.106422
0.620649,-0.340615,0.758235,-0.291582,0.951495,0.098172
0.657312,0.098276,-0.966201,0.140361,-0.084356,-0.986500
0.522409,-0.008801,0.653267,-0.368889,0.236361,0.898918
0.497171,-0.396201,-0.955916,-0.241485,0.111481,0.963980
0.277196,0.055784,0.643924,0.906825,-0.386255,0.168745
0.271214,-0.235388,0.690523,0.639911,0.315112,0.700870
0.236835,-0.139968,0.678438,0.727679,-0.358089,-0.585026
0.447672,-0.477330,-0.952516,0.068119,0.019930,0.997478
-0.445933,0.177685,0.881660,0.864279,-0.283064,0.415808
0.781005,-0.467806,0.453444,-0.325099,0.455105,0.828969
0.354111,0.005893,0.678381,-0.437680,0.881653,0.176419
-0.102806,0.003243,0.285792,0.991107,-0.120816,0.055774
0.264252,0.009989,0.717122,0.726439,-0.562996,0.394110
0.112381,-0.690289,-0.960058,-0.176634,0.312838,0.933238
0.601718,-0.029845,0.533813,0.498090,0.363348,0.787328
0.299610,-0.203365,-0.820662,0.965953,0.033394,0.256553
-0.534487,-0.133877,0.521014,-0.462487,0.884195,0.065614
-0.138924,0.107937,0.873289,0.815717,0.567906,0.109947
-0.073108,0.231946,0.557584,-0.137820,0.074837,0.987626
-0.793409,0.441068,0.383560,0.159797,0.097110,-0.982362
0.147845,-0.098138,0.858118,-0.406795,0.826643,-0.388818
-0.198432,0.886041,0.513100,0.064315,-0.780766,0.621504
0.628916,0.257094,0.637725,0.137858,0.910764,-0.389235
0.267515,-0.074049,-0.609811,-0.153775,0.982856,0.101718
-0.092036,0.887099,0.528185,0.200417,-0.655469,0.728144
-0.422324,0.667662,0.543927,-0.570497,-0.811238,0.128162
0.295148,0.700088,0.547041,-0.025427,-0.864671,0.501695
0.489120,-0.143272,0.476301,0.308993,0.252406,-0.916959
-0.239557,-0.307922,0.163652,-0.185184,0.948943,0.255370
0.026655,-0.208261,0.293792,0.806753,0.565835,0.170237
-0.243581,-0.162466,0.753921,0.716751,0.395650,-0.574220
0.942776,0.154524,0.423931,0.826303,0.093263,-0.555451
0.671126,-0.253256,0.447787,-0.130269,0.107840,0.985597
-0.125326,-0.321550,0.697437,0.791024,0.539091,0.289244
0.827569,0.242141,0.688380,0.974393,-0.148444,0.168889
-0.236944,-0.535566,0.679209,0.894384,-0.446147,0.032111
0.665798,0.239096,-0.965515,0.217406,-0.084487,-0.972418
0.263057,-0.218981,0.870461,0.798175,0.411920,-0.439590
0.087142,-0.163257,0.859404,0.830897,0.148522,-0.536238
-0.101720,0.033949,0.376789,0.915706,-0.399976,-0.038747
-0.219431,0.374495,0.399960,-0.525498,-0.773288,0.354793
0.213774,0.271126,0.566441,0.053203,0.865024,0.498901
0.113576,-0.185755,0.181709,-0.460685,0.883669,-0.083052
-0.674389,-0.468202,0.484700,0.927547,0.205310,0.312256
-0.102155,0.260535,0.329219,0.826442,0.562886,0.012404
0.667212,-0.515847,0.450644,0.379708,-0.700564,-0.604179
0.005330,-0.359542,0.614554,0.091978,-0.972442,0.214235
-0.369234,0.265035,0.893489,0.579740,-0.777924,0.242355
0.310051,-0.106741,-0.734550,0.984249,0.158072,0.079163
-0.080286,-0.352789,0.617840,-0.344216,-0.393360,-0.852515
0.095628,-0.057246,-0.994657,-0.173273,0.310579,0.934621
-0.288185,0.181126,0.190366,-0.677088,0.457884,-0.576103
-0.520235,0.584941,0.373504,0.603045,0.135520,-0.786112
0.002392,-0.068887,0.103254,0.564852,0.821016,0.082909
0.661336,-0.237108,0.722865,0.813738,0.547533,0.195033
-0.252502,0.064654,0.747293,0.835052,-0.529712,0.148635
-0.161228,-0.288728,0.561527,0.130043,-0.665347,0.735120
0.424174,-0.229967,0.438502,0.870599,0.412580,-0.268021
-0.234225,-0.267822,0.732008,-0.573129,-0.168570,0.801940
0.147736,0.059621,0.900831,0.371785,0.440780,0.817000
-0.080286,0.494278,0.348790,-0.549167,0.162389,-0.819784
-0.018604,-0.027858,0.193909,-0.639559,-0.767964,-0.034570
-0.613033,0.508174,0.267364,0.695811,0.718225,-0.000306
0.237164,0.270997,0.768492,0.647134,0.147589,0.747954
-0.533833,-0.518626,0.582983,0.178572,-0.796455,0.577730
0.051349,-0.815364,0.372532,0.192255,0.267217,0.944263
0.173957,-0.177555,0.681409,0.900866,-0.115937,-0.418329
-0.684725,-0.104229,0.756150,0.129061,-0.978590,-0.160327
-0.565383,-0.644760,0.540070,-0.677546,0.654242,-0.336004
0.280570,-0.074453,0.747093,-0.734307,-0.370806,0.568591
-0.019909,-0.291111,0.576126,0.857726,0.375725,0.350908
0.667102,-0.019788,-0.961201,-0.239324,0.282015,0.929081
-0.066037,-0.193171,0.743807,0.060078,-0.938935,0.338809
0.958985,0.124482,0.431102,-0.765088,-0.039422,0.642718
0.501088,0.233271,-0.976115,-0.332072,0.126337,0.934755
0.597369,-0.250478,-0.960087,0.072283,0.010304,0.997331
0.237708,-0.002185,-0.488100,-0.110271,-0.970909,0.212545
-0.560596,0.741779,0.588583,-0.329073,0.671864,0.663559
0.408181,-0.382435,-0.952630,0.203648,0.081860,0.975616
0.317232,0.285157,0.894060,0.991349,-0.127202,-0.032339
-0.022518,0.744558,0.539527,0.968120,0.232381,0.093500
0.097803,0.525646,0.606125,-0.678229,0.274818,-0.681529
-0.622607,0.732514,0.585097,-0.803879,0.002504,-0.594787
0.079851,-0.086490,-0.045742,-0.452281,-0.891873,-0.002216
0.365755,0.551715,0.528842,-0.149043,0.905695,-0.396865
0.212685,-0.060688,-0.501557,0.390585,-0.883170,0.259721
0.296562,-0.043343,0.692923,-0.755970,-0.635519,-0.156925
-0.100956,-0.264380,0.394532,0.455913,0.830617,0.319716
-0.081701,0.020579,0.331676,0.858180,0.480712,0.180118
0.788403,-0.295086,0.462787,-0.242273,-0.003369,0.970202
0.573325,-0.155316,0.624125,0.404930,0.821628,-0.401197
-0.129243,0.574213,0.681180,-0.329393,0.779083,-0.533413
0.338447,-0.135330,-0.967430,-0.080440,0.457274,0.885681
-0.222911,0.241875,0.180023,0.773964,-0.160324,0.612598
-0.433964,-0.159816,0.668867,0.813269,0.581220,0.027866
0.278940,-0.184834,0.771464,0.897004,-0.093328,-0.432058
0.021433,-0.909605,0.208194,0.998832,-0.033990,0.034354
-0.081050,0.550657,0.342276,0.202306,-0.232531,0.951316
-0.354330,-0.186159,0.664038,-0.297938,-0.702076,0.646778
0.113686,-0.057642,-0.258164,0.277535,-0.958416,-0.066432
0.323869,-0.098138,0.806034,-0.520263,-0.468541,0.714000
-0.285792,-0.091652,0.666695,-0.358929,-0.773976,0.521662
-0.147845,-0.444905,0.797349,0.934601,-0.190150,0.300606
-0.692886,0.338094,0.418045,0.575702,0.815913,0.053410
0.073215,-0.318771,0.713465,-0.040557,0.944256,0.326705
0.039055,-0.802795,0.456416,-0.126744,-0.144481,0.981357
-0.313315,0.219110,0.826691,-0.209251,0.861307,0.462995
0.141428,0.025612,-0.995543,-0.058833,0.059459,0.996496
-0.406767,-0.474955,0.269935,-0.390179,0.920335,0.027264
0.468343,-0.002847,-0.973801,-0.152558,0.062844,0.986294
0.019583,-0.113495,0.017828,-0.027686,0.919694,0.391657
0.072129,-0.646747,0.191737,0.987245,0.141206,-0.073541
-0.369234,-0.369462,0.498671,0.699093,-0.714455,0.028691
0.904590,-0.591823,0.616325,0.912198,-0.169752,-0.372932
0.173413,-0.574617,-0.964030,0.396963,0.092013,-0.913211
-0.231397,-0.625041,0.732665,0.984143,0.154614,-0.086935
-0.692016,0.645818,0.256850,-0.632108,-0.736745,-0.240099
0.770889,0.289924,0.325133,0.250972,0.935005,0.250558
-0.160793,-0.411816,0.655867,0.838549,-0.219187,-0.498792
0.184183,-0.352393,0.528271,0.941179,-0.330987,-0.068045
0.562880,-0.761628,0.529785,0.325167,-0.718650,-0.614662
0.612272,-0.067966,0.717894,0.901698,-0.432342,-0.004719
0.238468,-0.047181,-0.983200,0.255529,-0.284256,-0.924069
-0.047760,0.529088,0.605297,0.258209,0.080889,-0.962697
-0.209966,-0.476143,0.478986,-0.220515,0.451201,0.864749
-0.623693,-0.563364,0.538956,0.097692,-0.940767,0.324674
-0.484986,-0.132551,0.446358,0.955278,-0.096206,0.279622
-0.108682,-0.252594,0.581898,0.425774,-0.837229,-0.343167
0.367385,0.130435,-0.985543,0.290332,-0.228171,-0.929325
-0.126959,0.058967,0.841747,0.781233,0.506000,-0.365567
0.050589,-0.245187,0.621439,0.340460,-0.804593,0.486535
0.365970,-0.030378,0.603840,0.266582,0.711744,-0.649888
-0.218342,-0.432068,0.658295,-0.340819,-0.883431,0.321547
0.445388,-0.214747,0.619668,0.130951,0.866484,0.481723
-0.034052,-0.181522,0.379503,0.880915,0.470328,0.052731
-0.422759,0.255244,0.901374,0.272145,-0.761043,0.588855
-0.278611,0.241479,0.575555,0.815193,0.438255,0.378673
0.552980,0.049701,-0.965801,-0.297319,0.024640,0.954460
0.045476,-0.322616,0.253164,0.871588,0.483070,0.083540
0.949629,0.193041,0.335933,0.084499,0.991526,-0.098675
0.510009,-0.667662,0.265221,0.894075,0.427340,-0.134202
-0.898172,0.445438,0.473444,0.808421,-0.041840,-0.587116
0.506201,-0.256173,0.034313,-0.548787,-0.822786,-0.147836
0.065492,-0.068225,0.134882,-0.695416,-0.662144,-0.279218
0.178197,0.092581,0.910659,0.159849,-0.018934,-0.986960
-0.181135,0.311493,0.379761,0.065790,-0.946400,0.316226
0.299500,0.012242,0.818891,0.393396,0.721004,-0.570432
-0.210182,0.034215,0.720637,-0.240499,0.676203,-0.696355
0.291775,-0.376215,0.138825,0.831043,0.505043,-0.233023
-0.405462,0.252990,0.907231,0.240179,-0.585672,0.774146
0.217038,-0.187613,0.115597,0.873387,-0.110927,-0.474225
-0.940492,0.533450,0.438702,-0.553656,-0.156724,-0.817865
-0.618909,0.383760,0.344619,-0.502692,0.283679,0.816595
0.101282,-0.563364,0.058970,0.980491,0.184746,0.067122
0.162968,-0.050226,0.911002,0.877667,-0.044345,0.477216
0.778937,-0.000861,0.690380,-0.329625,0.720284,-0.610359
0.617166,-0.204424,0.530985,-0.432979,-0.697428,0.571072
-0.042209,-0.052480,0.139882,-0.467172,-0.869723,-0.159159
-0.432550,-0.234070,0.634439,0.294203,0.111941,0.949165
0.674934,0.266093,0.664381,-0.428767,-0.810207,0.399654
-0.083659,-0.501291,0.599754,0.156092,0.966923,0.201730
0.224979,-0.217922,0.855918,0.328161,-0.922087,-0.205101
-0.164598,0.085302,0.914717,0.857513,-0.513753,0.027016
0.485530,-0.231946,0.633925,-0.625539,0.726477,0.284486
0.713881,0.166965,0.652181,0.818249,-0.206452,-0.536513
0.393712,0.584278,0.497386,0.332715,-0.908300,0.253558
0.682766,-0.123682,0.554498,0.359182,-0.568809,0.739895
0.228352,-0.105288,-0.047713,-0.323531,0.945788,0.028529
-0.197782,-0.036203,0.469415,-0.639793,0.652308,-0.406398
0.548087,-0.362717,0.395303,0.137675,0.716083,0.684303
0.453220,0.049701,0.205994,0.058803,-0.986252,0.154435
0.188861,-0.094568,-0.003886,-0.218226,0.974688,0.048596
0.109443,-0.576200,0.061541,0.987385,0.138205,0.077271
0.561031,0.132027,0.263821,-0.534007,0.826259,-0.179257
0.393277,0.386410,0.421874,-0.522984,0.736819,-0.428469
0.270453,-0.068887,0.332019,0.553947,-0.831569,-0.040450
-0.529265,-0.715574,0.495928,-0.651062,0.534732,0.538684
0.669606,-0.240153,0.525471,-0.394595,0.779417,-0.486624
0.024912,-0.981735,0.426302,0.871817,0.470054,-0.137781
-0.059616,-0.255373,0.461730,-0.695169,0.710187,0.111239
-0.126415,-0.306993,0.749521,0.385087,-0.806710,-0.448249
0.236729,-0.089139,0.350218,0.854045,-0.520172,0.005296
-0.483246,0.534508,0.388360,0.922749,-0.355727,-0.148298
0.065492,-0.281845,0.237536,0.750048,0.652196,0.109853
0.256420,-0.227051,0.902403,0.771132,0.221254,0.596994
0.560052,0.094697,0.599840,-0.614351,0.750734,-0.242840
-0.615752,-0.086490,0.640525,-0.278962,-0.906292,-0.317512
0.226500,-0.436568,0.596611,0.322743,-0.902261,0.285941
-0.173628,0.050097,0.683209,0.026110,-0.140768,0.989698
0.875652,0.076828,0.503957,-0.013640,0.956818,0.290366
0.274368,0.033682,0.515585,-0.500692,0.855163,0.134174
-0.459747,-0.048902,0.662267,0.528689,0.780052,-0.334674
-0.267840,-0.529217,0.703037,0.995130,0.035756,-0.091855
0.219103,-0.073920,-0.270821,-0.071958,0.993457,-0.088689
-0.205288,-0.284761,0.696809,-0.420297,0.774217,0.473221
-0.108792,0.007081,0.350590,0.979593,-0.102838,0.172688
0.595626,0.025216,0.494100,0.501700,0.694369,-0.515896
-0.449196,0.559793,0.300648,-0.587925,0.718004,-0.372579
-0.615971,-0.118657,0.772978,-0.135825,0.982027,0.131055
-0.139688,0.088614,0.460844,0.771292,0.546809,0.325743
-0.456049,0.108996,0.877946,0.842727,-0.102784,0.528438
0.585290,-0.024683,-0.964315,-0.095213,0.145839,0.984716
0.447563,-0.316258,0.717151,0.577372,-0.696018,-0.426849
-0.155352,-0.413537,0.625068,-0.793278,0.599310,-0.107413
0.253916,-0.290319,-0.966430,-0.106197,0.137627,0.984775
0.364665,-0.029053,-0.915974,0.059576,0.997894,0.025671
0.188641,-0.003769,0.825205,-0.438818,-0.604250,-0.665071
0.052544,-0.163653,0.300820,-0.672317,-0.713316,-0.197915
-0.123802,-0.222026,0.597126,0.945714,-0.273091,-0.176201
0.434509,0.018333,-0.972658,-0.249540,0.178053,0.951855
0.765232,0.058563,-0.956516,-0.282637,-0.009791,0.959177
0.865101,0.153466,0.382475,-0.000765,0.988324,0.152363
-0.583876,-0.024416,0.560669,0.454233,0.275426,0.847238
0.747715,-0.566538,0.512900,-0.141247,-0.919913,0.365800
-0.115970,0.005093,0.752750,0.958899,-0.225152,0.172683
0.795149,-0.142746,0.609782,0.624584,-0.374508,0.685302
-0.049609,0.687381,0.551241,0.967234,0.208463,0.144922
-0.598348,-0.670699,0.471329,-0.679916,-0.674769,-0.287056
-0.006745,-0.184438,0.496472,-0.760321,-0.475009,-0.443033
0.267625,0.026533,0.354275,0.974230,0.173658,-0.143941
0.738250,0.018729,0.578326,0.647327,0.608256,-0.459338
-0.161335,0.404013,0.295134,0.945148,0.221638,-0.239943
0.244451,-0.033020,0.586640,0.745292,-0.640739,-0.184375
0.181464,-0.265568,0.711551,0.332764,0.804994,0.491174
-0.206483,0.434055,0.478415,-0.149884,-0.986764,0.061904
0.456594,-0.125669,-0.966315,-0.230483,-0.026185,0.972724
0.276217,-0.030636,-0.536956,-0.426216,0.903989,0.033825
-0.555158,0.433918,0.368961,0.914570,-0.359970,0.184343
-0.549066,-0.095230,0.747064,-0.275906,-0.957396,-0.085255
-0.281004,0.236979,0.874118,0.094493,-0.995114,-0.028624
-0.295908,0.209844,0.844090,0.961395,0.241818,-0.131317
-0.276762,-0.083315,0.709008,0.461290,-0.634476,0.620203
-0.267734,0.249548,0.862004,-0.465903,0.842351,0.270886
-0.435269,0.668849,0.533470,-0.574220,-0.649176,0.498840
0.663294,0.004698,-0.963715,-0.233066,0.165389,0.958294
0.538402,-0.350405,0.777749,0.121407,-0.984083,-0.129775
0.673629,0.110579,0.656381,-0.668442,0.736409,-0.104343
-0.484661,-0.089673,0.647639,0.934571,0.313678,-0.167878
-0.070821,-0.543378,0.716522,0.850004,-0.525469,-0.037085
-0.415578,0.246907,0.888175,0.775186,-0.623479,0.101785
-0.575284,-0.873204,0.433930,0.582065,0.580656,-0.569244
0.389360,-0.064921,0.729179,0.464989,-0.853828,0.234015
0.203439,0.317584,0.771749,0.774005,0.558985,0.297409
-0.130003,0.002847,0.467015,0.666958,-0.736424,0.113344
0.559942,-0.269938,0.699837,0.892071,-0.368124,0.262094
0.412205,-0.212623,-0.962373,0.357915,0.283699,0.889613
0.285357,-0.411557,0.580497,-0.358642,0.859074,-0.365197
0.271974,-0.031832,0.402246,0.983834,0.080082,0.160180
0.289056,-0.063992,-0.147196,0.482386,0.871732,-0.085950
0.552220,-0.390377,0.398931,-0.136124,0.678597,0.721787
0.518060,-0.327245,-0.952401,0.017785,0.257611,0.966085
0.172758,-0.494674,-0.964544,0.429848,-0.150035,-0.890348
-0.082245,-0.196612,0.728065,-0.702038,-0.626034,0.339446
-0.204524,0.145921,0.582869,0.818545,0.548091,-0.171990
-0.093560,-0.314272,0.604040,0.236471,0.897469,0.372332
-0.103134,0.118657,0.644667,0.394925,0.844711,-0.361244
0.438642,-0.431939,-0.953487,0.106284,0.062515,0.992369
0.823432,0.309376,0.705208,0.945198,0.144149,0.292954
0.229767,-0.385748,-0.958115,0.222816,-0.121451,-0.967266
-0.162858,0.112833,0.797863,-0.776450,-0.531135,-0.339149
-0.076153,-0.007872,0.243536,0.910107,-0.349063,0.223294
0.345519,0.042948,-0.983715,-0.026474,0.107662,0.993835
-0.179395,0.108600,0.665695,-0.126829,-0.898368,0.420535
-0.366624,-0.072199,0.561812,-0.620958,-0.277012,-0.733264
-0.308966,0.573154,0.516871,0.196773,-0.828217,0.524726
0.265447,0.033682,0.594411,0.723906,0.689723,-0.015580
0.694081,-0.426640,0.466586,0.792332,0.280001,0.542042
0.260988,-0.066245,0.228308,0.340366,-0.939192,0.045494
0.604112,0.074978,0.652638,-0.666842,0.701199,0.252272
-0.477914,-0.108196,0.651381,-0.098330,-0.759671,0.642830
0.202460,0.091126,0.883146,0.264708,0.932517,0.245645
0.605961,-0.353055,-0.954687,-0.188232,0.205042,0.960482
