-0.653907,-0.469638,0.757661,0.746478,0.663574,0.049393
-0.217495,-0.538524,0.842191,0.674737,0.662034,-0.326253
0.370082,-0.745047,0.465891,-0.798508,-0.307848,-0.517314
0.308227,-0.077929,0.346869,-0.376277,-0.892788,0.247678
-0.729991,-0.397704,0.720912,0.917902,0.396532,0.014757
-0.033773,0.883226,0.824406,-0.281394,-0.832692,-0.476909
-0.100847,-0.355370,0.936691,0.966417,-0.115089,0.229768
0.799378,0.369662,0.761956,0.923384,0.225339,-0.310780
-0.015034,0.209673,0.894856,-0.302039,-0.274643,0.912877
0.698858,0.012023,0.523895,-0.028784,-0.961313,0.273952
-0.378146,0.405764,0.535920,0.862812,0.173825,-0.474701
0.054708,-0.209334,0.951967,-0.644433,0.330152,-0.689714
-0.257466,-0.638094,0.771000,0.576311,0.627747,0.523259
0.225679,-0.418295,0.561199,-0.345226,0.195580,-0.917914
-0.534410,-0.206286,0.580315,0.707060,0.163151,0.688075
0.387398,0.154266,0.719228,-0.191898,0.367360,0.910067
-0.250169,0.802960,0.818225,0.058445,0.996670,0.056862
-0.391133,-0.574694,0.786158,0.868849,-0.471024,0.152441
-0.255211,-0.232499,0.884750,0.993773,-0.036310,0.105343
-0.311846,-0.473025,-0.116942,0.891421,-0.452320,-0.027847
-0.130734,0.113963,0.483356,-0.689182,0.355301,0.631498
-0.334737,-0.391608,0.106938,-0.288325,0.957481,-0.009951
0.072498,0.269211,0.591229,-0.402953,0.851934,-0.334420
0.361362,0.204321,0.662554,0.502768,0.858032,0.104904
0.950242,-0.110848,0.599161,-0.619926,-0.784081,0.030151
0.898710,-0.115860,0.573646,-0.065332,-0.997692,-0.018523
0.819836,-0.126020,0.602260,-0.157808,0.987324,-0.016949
-0.374766,0.321909,0.538783,0.841032,0.159720,-0.516870
-0.007028,0.150743,0.532922,0.698872,0.441711,-0.562556
0.627814,-0.345006,0.655144,-0.635074,0.666382,0.390662
0.581259,-0.336269,0.668348,-0.532342,0.830488,0.164020
0.037924,-0.442680,0.853677,0.094179,-0.971858,-0.215924
0.269682,0.135842,0.732886,-0.452718,-0.869168,-0.198982
0.159911,-0.597453,0.072698,-0.546196,-0.342692,0.764351
-0.160208,-0.208521,0.813863,0.666077,0.437927,0.603789
-0.363972,0.489349,0.546766,0.306342,0.650179,-0.695285
-0.386211,-0.329224,0.302911,-0.383886,-0.602233,-0.699962
0.534646,-0.185288,0.586732,0.790869,0.331307,0.514550
-0.043086,-0.337285,0.158559,0.131153,0.988114,0.080184
-0.340133,-0.525993,-0.505655,0.433999,0.899531,-0.049884
-0.225856,-0.221458,0.396704,0.477700,0.089793,-0.873922
-0.325250,-0.299963,0.225169,0.444053,-0.372854,0.814737
-0.412840,-0.298879,0.909272,0.867549,-0.119992,0.482661
0.325662,-0.596437,0.534657,-0.109716,0.836193,-0.537349
-0.418117,0.504521,0.544896,-0.124412,-0.863890,0.488074
-0.376666,-0.383547,0.192462,0.866668,-0.497553,0.036438
-0.092127,0.189217,0.724937,-0.446333,0.239258,0.862289
0.466388,-0.081925,0.548905,0.235544,0.112169,0.965369
-0.363440,-0.608494,-0.541393,0.592501,0.791934,-0.147591
0.877477,-0.054560,0.518977,0.978676,0.203444,-0.028342
0.710007,-0.291090,0.701594,-0.818979,0.141055,0.556216
-0.333908,0.114302,0.682731,0.850133,0.505464,-0.147583
-0.319082,-0.562976,-0.377555,0.795731,0.506147,-0.332607
-0.400327,-0.337488,0.862081,0.979939,0.141363,-0.140484
0.546272,-0.601043,0.488678,-0.225655,0.955269,-0.191157
-0.382417,-0.311681,0.253379,-0.829202,-0.350713,-0.435230
0.324182,0.570359,0.706461,0.771060,0.331606,-0.543603
0.042195,-0.207505,0.451104,-0.614587,-0.574618,-0.540460
-0.224079,0.048938,0.941929,0.844133,-0.433141,-0.315956
0.284624,-0.707996,0.463600,0.274290,0.073904,0.958803
0.013966,-0.338978,0.137961,0.277518,0.960680,0.008825
0.677981,-0.032276,0.426801,0.041885,-0.997637,0.054467
0.471549,-0.140719,0.366405,-0.513260,0.829852,0.218882
-0.320030,0.157449,0.766789,0.823237,0.554871,-0.119997
-0.105056,0.006198,0.852330,-0.162232,-0.985310,0.053347
-0.400088,0.113489,0.428333,0.975184,-0.158916,0.154152
-0.024224,0.612490,0.781745,0.500999,0.409523,-0.762424
0.602549,-0.280252,0.655868,-0.193396,0.599799,0.776428
-0.177404,-0.170454,0.774520,0.996950,-0.050905,-0.059153
-0.283559,-0.528296,-0.292823,0.965650,-0.023582,0.258776
-0.386095,-0.237850,0.570530,-0.701376,-0.523828,0.483400
-0.387872,0.331663,0.491794,0.271424,-0.791497,0.547596
-0.374291,-0.617299,-0.554934,-0.492625,-0.862781,-0.113707
-0.403646,0.779388,0.813256,0.933419,0.212819,0.288857
-0.102801,0.623057,0.822183,0.303314,0.839710,-0.450432
0.715284,0.160294,0.602429,0.798918,-0.542564,0.259527
-0.378859,0.243743,0.779320,-0.292673,0.955202,0.043960
-0.379156,-0.503844,0.777636,0.252727,0.169665,0.952545
-0.463840,0.154807,0.458143,0.949770,-0.212292,0.229933
0.076947,-0.518610,0.285311,-0.117872,-0.168843,0.978569
-0.308049,-0.395604,0.113624,0.125846,-0.990355,-0.057968
0.164595,-0.453111,0.302726,0.258273,0.481686,0.837421
-0.315701,-0.620754,-0.704104,0.847837,0.516935,0.118110
-0.050499,0.171944,0.526017,0.855441,0.154779,-0.494231
-0.614885,-0.257087,0.814402,0.373341,-0.650456,-0.661455
-0.370675,-0.397297,0.430034,-0.399665,0.437510,-0.805514
-0.017050,-0.587903,0.268402,0.075641,-0.227005,0.970952
-0.459985,-0.179124,0.906022,0.941356,0.192721,-0.276962
-0.077895,-0.284045,0.823648,0.572218,0.767658,0.288562
-0.154160,-0.053815,0.441537,0.583077,0.726452,-0.363714
0.669797,0.285535,0.742419,-0.614984,-0.537205,0.577239
-0.141882,-0.484201,0.896136,-0.615043,0.291879,0.732481
-0.640504,-0.046703,0.797139,0.788582,0.117690,-0.603562
-0.225914,-0.365733,0.050720,0.908771,0.374394,0.184294
0.881629,-0.117553,0.608930,0.290909,0.918286,-0.268558
-0.247088,-0.559793,0.024126,0.932019,0.343823,0.114565
-0.343514,0.802960,0.647582,-0.880176,-0.219626,0.420778
-0.211743,-0.215904,0.928590,0.393186,0.767983,-0.505576
-0.313327,-0.087547,0.652769,0.867681,0.490770,-0.079208
-0.283263,-0.515765,-0.256933,-0.654680,-0.751479,0.081689
-0.256814,-0.241846,0.898258,-0.271228,-0.959983,0.069769
0.882577,-0.117689,0.547136,-0.557128,0.815817,0.155084
-0.379272,-0.338301,0.696390,0.913144,0.402000,-0.067559
-0.177701,-0.237918,0.900784,0.206398,0.970722,-0.122878
0.006908,-0.350967,0.834780,-0.518062,0.250183,0.817937
0.608894,-0.521319,0.576374,0.061499,0.549743,0.833067
0.602133,-0.146679,0.662841,0.505453,-0.782118,-0.364429
0.304549,-0.188743,0.286339,0.398254,0.666246,-0.630483
-0.077776,-0.541233,0.280747,-0.103552,-0.527478,0.843234
-0.338533,-0.119450,0.362936,0.898380,0.392893,0.196337
0.486969,0.038846,0.512307,-0.182323,0.983235,-0.002762
0.145382,-0.569276,0.480695,0.666668,0.352840,0.656549
-0.550659,-0.634301,-0.987571,-0.005421,0.202720,0.979222
-0.326317,-0.577471,-0.491423,0.775150,0.522058,-0.355805
0.188849,-0.591018,0.308149,0.475896,-0.205459,-0.855166
0.128243,0.498222,0.676415,0.125925,-0.850583,0.510541
-0.150482,-0.095133,0.788499,0.926826,-0.340222,-0.158879
-0.363675,-0.219088,0.842140,0.873543,0.479154,-0.085638
-0.435969,-0.195922,0.861744,0.972646,-0.206302,0.106772
0.632258,0.051309,0.704306,0.667759,0.722294,-0.179968
-0.712617,-0.424256,0.711346,0.915352,0.393116,-0.087118
0.754781,0.041284,0.510994,-0.502680,0.863516,0.040651
-0.291801,-0.716598,-0.966215,0.881864,-0.198356,0.427751
-0.380698,-0.367155,0.825736,0.940445,0.237310,0.243407
-0.352943,-0.042910,0.640559,0.476123,0.696030,-0.537447
0.392675,0.634910,0.747438,0.327565,-0.933230,0.147590
0.387695,-0.752498,0.459525,0.214481,0.313335,0.925105
-0.354720,0.128052,0.700163,-0.290658,-0.950096,0.113291
0.022859,0.005724,0.881045,0.256886,-0.731498,0.631601
0.587010,-0.449792,0.572534,0.255465,-0.727195,0.637123
-0.371920,-0.295899,0.667944,0.021290,0.993348,0.113167
0.696661,-0.056457,0.439432,0.054886,-0.998464,-0.007604
0.002876,-0.341145,0.737333,0.513970,0.609996,-0.603109
0.429978,0.002811,0.554901,0.965079,0.251823,0.072163
-0.372452,-0.443086,0.917996,0.791313,-0.005872,0.611384
0.001392,0.217394,0.586985,-0.544838,0.361571,-0.756583
-0.106776,-0.406374,0.132723,0.849274,0.252054,-0.463899
-0.213640,-0.206421,0.413142,0.804520,0.356350,-0.475145
-0.385975,0.298066,0.483676,-0.264231,-0.700866,0.662547
-0.751342,-0.360653,0.694369,0.990432,0.054182,-0.126918
-0.236708,-0.526806,0.886957,-0.767061,0.367769,0.525703
-0.023869,-0.537779,0.277278,-0.048894,-0.590619,0.805468
-0.557836,0.394249,0.544004,0.292236,0.769077,-0.568435
0.744284,0.054967,0.533697,-0.290942,0.803323,-0.519639
0.725900,-0.477360,0.589814,-0.717321,-0.217617,0.661886
-0.230659,-0.380973,-0.017288,0.614865,-0.781397,-0.106582
-0.512469,-0.673045,-0.982636,0.267329,-0.293583,-0.917793
0.392440,-0.650828,0.618125,0.786009,0.597490,0.158729
-0.014795,-0.411115,0.870148,0.863181,0.067027,0.500425
-0.214114,0.938429,0.833265,-0.437172,0.575168,0.691421
-0.355611,-0.522403,-0.994257,0.226247,0.330734,0.916203
-0.602610,-0.507502,0.784187,0.242095,0.961139,0.132673
0.094085,0.046771,0.873753,-0.784680,0.413189,-0.462117
0.035611,0.099942,0.758015,-0.487963,-0.773575,0.404318
-0.541646,-0.554984,-0.992859,-0.103168,0.223050,0.969332
-0.457256,-0.744099,-0.979150,0.275224,0.094169,-0.956757
0.363559,0.484336,0.700937,0.737776,0.587923,-0.331714
-0.329340,-0.438074,0.769551,0.908990,0.309524,0.279162
-0.770732,-0.250516,0.676719,0.866396,0.241530,0.437061
-0.420311,-0.481830,0.783968,-0.829499,0.212869,-0.516351
-0.356798,-0.813052,-0.980413,0.032932,-0.012453,0.999380
0.166433,-0.668575,0.079216,-0.546196,-0.342692,0.764351
-0.111995,-0.089647,0.824035,0.546366,0.802233,0.240637
0.363440,0.610594,0.793400,-0.175290,-0.984058,-0.030070
0.742387,0.354828,0.717527,0.478912,0.822294,-0.307368
-0.404714,-0.274630,0.616711,-0.404378,-0.904174,-0.137653
0.277746,0.217191,0.681822,-0.186762,0.965513,-0.181396
0.073150,-0.375419,0.244874,0.617182,-0.537143,-0.574947
0.649042,-0.587428,0.624609,-0.214150,-0.967585,-0.133863
-0.059747,0.208724,0.704642,0.801963,-0.096358,-0.589551
0.135005,-0.547804,0.292334,-0.150975,0.365569,0.918459
-0.059569,0.237986,0.752709,0.896811,-0.255015,-0.361521
-0.382891,-0.278626,0.542741,0.211606,0.535183,-0.817803
0.431223,0.092492,0.693493,-0.040203,0.901902,0.430065
-0.017821,-0.129136,0.441066,0.261643,0.584953,0.767707
-0.334501,-0.491313,-0.385925,-0.703855,0.657736,0.268275
-0.332898,-0.553087,-0.550286,0.973520,-0.114425,0.197906
0.631013,-0.511295,0.654302,-0.075403,-0.004177,0.997144
-0.322520,-0.511295,-0.137742,0.847179,-0.521154,-0.103376
-0.391075,-0.191045,0.603860,0.774805,-0.614881,-0.146962
0.382475,-0.621499,0.639515,-0.539857,-0.828755,0.147377
-0.328391,-0.159413,0.366540,0.672044,0.735900,-0.082517
0.356501,0.432926,0.787758,0.714533,0.674835,-0.184500
-0.195079,0.800386,0.824743,-0.421721,0.614050,-0.667154
-0.378562,-0.322993,0.252570,0.045239,0.973917,0.222351
0.288717,-0.498357,0.320528,-0.790060,0.387258,0.475222
-0.449253,-0.322857,0.312191,0.861278,-0.495236,0.113760
0.081573,-0.627595,0.281185,-0.392485,-0.012734,0.919670
0.158014,0.284722,0.612281,-0.623156,-0.584291,-0.519886
-0.209072,-0.456633,0.937314,0.269276,-0.843106,0.465471
-0.463662,-0.249975,0.541680,0.394712,-0.143142,0.907586
-0.159260,0.696075,0.819016,0.919708,0.064231,0.387313
0.063779,0.019270,0.878317,0.852063,-0.197671,0.484680
-0.389949,0.298879,0.536038,0.881240,0.388702,-0.268936
-0.766168,-0.289396,0.729249,0.792771,-0.607701,-0.047046
0.420665,0.030244,0.591431,0.723306,0.684652,-0.089891
-0.012956,0.250787,0.725847,0.583638,0.714588,-0.385657
-0.696191,-0.466251,0.723404,0.814472,0.570848,0.103770
-0.382062,0.024215,0.387946,-0.222442,-0.923223,0.313336
-0.112292,0.723981,0.791126,0.726822,0.539013,0.425670
-0.352053,-0.444576,0.133750,-0.420409,0.887480,0.188774
0.462891,0.715650,0.751682,0.536423,0.583550,-0.609688
-0.382949,-0.267992,0.622639,-0.489506,-0.692094,-0.530462
-0.235405,-0.522065,0.906712,-0.596443,0.752541,-0.279172
-0.385440,-0.489823,0.881534,-0.011504,0.973735,0.227393
0.342030,0.428184,0.678352,0.721391,0.392154,-0.570798
0.401927,0.725539,0.773408,-0.519059,0.290987,-0.803682
0.820075,-0.031666,0.488897,-0.507776,-0.663017,0.550065
-0.521898,-0.555864,-0.991781,-0.124461,0.216181,0.968388
0.092779,0.068039,0.938662,-0.591217,-0.395642,0.702801
-0.113121,-0.056863,0.790924,-0.616939,0.786956,0.009289
-0.295537,0.173909,0.802090,0.913018,0.387002,-0.128952
0.215594,-0.563450,0.317530,-0.681357,0.731779,-0.015886
-0.280001,0.815017,0.814907,0.927101,-0.331439,-0.175018
-0.298740,-0.592034,-0.504509,-0.764291,-0.639813,-0.080614
0.333491,-0.140583,0.305892,-0.725783,0.105464,0.679791
0.565426,-0.262709,0.376578,0.664976,0.415451,-0.620651
-0.032647,-0.219765,0.902401,0.888477,-0.244599,-0.388304
0.651413,-0.177837,0.638891,-0.461512,0.884067,-0.073701
0.344046,-0.611136,0.531187,-0.057130,-0.891552,0.449300
-0.306627,0.569276,0.656710,-0.782929,-0.224901,0.580035
-0.066685,0.718969,0.824473,-0.683070,0.452768,-0.573076
0.503155,0.725133,0.767328,-0.414336,-0.444284,0.794316
0.450613,0.753649,0.765930,0.041651,-0.482948,0.874658
0.209666,0.784401,0.721249,0.126988,-0.271215,0.954105
0.187782,0.450130,0.799160,0.952647,-0.285745,-0.103985
-0.377672,-0.382802,0.871445,0.995165,0.021420,-0.095855
0.460162,-0.274156,0.633873,0.365052,-0.847499,-0.385335
-0.043321,0.128594,0.757274,-0.695574,-0.710597,-0.105964
-0.235821,0.605107,0.800423,-0.637408,0.768806,-0.051461
-0.342092,-0.523487,-0.533259,0.198011,-0.962519,-0.185336
-0.437923,0.772005,0.863513,0.949816,-0.306972,-0.060142
-0.031934,-0.415924,0.877761,0.965751,0.259046,0.014842
-0.616665,-0.084363,0.834022,0.039261,-0.519527,0.853552
-0.111282,-0.231415,0.817079,0.104719,0.945902,0.307089
0.607649,-0.617232,0.645780,0.474618,0.758807,0.446038
-0.156411,-0.112812,0.754141,-0.873341,-0.078769,0.480699
-0.371446,-0.325702,0.279282,-0.214580,0.936785,-0.276386
-0.363382,-0.580384,-0.786916,0.316224,0.948500,0.018718
0.368420,0.380499,0.709527,0.898402,0.273490,0.343623
0.715165,-0.467538,0.590959,-0.725263,-0.240968,0.644925
-0.415507,-0.198903,0.570345,0.294297,0.934324,-0.201065
-0.370795,-0.241846,0.580770,-0.608643,0.791818,-0.050773
-0.352766,-0.562299,-0.994072,-0.346635,-0.462659,-0.815960
0.768716,-0.119653,0.490244,-0.610405,0.658669,0.439956
-0.618681,-0.301792,0.609772,0.845855,0.097346,0.524455
-0.060282,-0.269550,0.962476,0.534525,-0.652432,-0.537229
-0.443382,-0.273614,0.508653,0.143875,-0.933932,0.327216
-0.486020,-0.226200,0.538918,-0.518105,0.530092,-0.671244
-0.660962,-0.462932,0.766756,0.940135,0.193295,0.280683
-0.230837,-0.468148,-0.054374,-0.435457,-0.726441,0.531658
-0.363914,0.290277,0.855226,0.115056,0.678211,0.725804
-0.305143,0.583093,0.713485,0.825515,-0.237393,0.512025
0.453640,0.324076,0.727497,0.836812,0.129726,-0.531899
-0.049369,-0.381177,0.964228,0.656713,-0.029827,-0.753550
0.074160,0.429268,0.800473,-0.633308,-0.770586,0.071545
-0.422504,0.020287,0.840961,0.105694,-0.988887,0.104556
0.632617,-0.611542,0.631767,0.680381,0.520352,0.516057
-0.236114,0.821790,0.824035,0.355949,0.933919,-0.033090
-0.216308,-0.438480,0.073187,-0.612536,0.757574,0.225569
0.105172,0.390321,0.637595,0.998316,0.057693,0.006133
-0.041841,-0.362346,0.962409,0.895558,0.042212,-0.442939
-0.723171,-0.256071,0.737653,0.934938,-0.323200,-0.146402
-0.460224,-0.083144,0.808827,0.967451,0.103408,0.230966
-0.052869,-0.384902,0.930325,0.370861,0.712068,-0.596172
-0.492246,-0.134555,0.902199,0.924660,0.291954,-0.244472
0.394691,0.312223,0.715927,-0.655534,-0.069936,0.751920
0.580904,-0.331121,0.662386,0.284034,-0.782625,-0.553915
0.122847,-0.478105,0.309783,-0.362587,0.127571,-0.923177
-0.936780,-0.198903,0.775244,-0.077066,0.995283,-0.058934
-0.690675,-0.408203,0.771252,0.997070,0.072919,0.023117
-0.441601,-0.670471,-0.968522,0.890856,-0.124572,-0.436872
-0.661320,-0.110848,0.692870,0.953665,0.250405,0.166796
-0.382891,-0.577133,-0.612618,0.852231,-0.516248,0.084801
-0.323291,0.787110,0.827437,-0.072896,0.914274,0.398483
0.400327,0.654350,0.816237,0.598279,-0.618608,-0.509299
-0.560327,-0.543536,0.788835,0.770791,-0.602789,-0.206221
0.580549,-0.512175,0.529772,0.403236,0.899531,-0.168064
0.302236,0.678599,0.728777,0.798149,0.594894,-0.095186
0.157004,-0.482914,0.302625,0.303836,0.400884,0.864278
0.570527,-0.248620,0.648020,0.165739,0.686506,0.707984
0.481394,-0.789413,0.550741,-0.184973,0.809753,0.556853
0.321156,-0.526535,0.324991,-0.659518,0.614494,0.432935
-0.207117,0.054560,0.916969,0.985429,-0.169325,0.016059
-0.210437,-0.026789,0.956767,0.740344,0.404414,-0.536972
-0.352824,-0.743489,-0.870216,-0.240254,0.968016,0.072267
-0.769607,-0.032953,0.798856,-0.253773,0.910855,-0.325489
0.272230,0.438819,0.640239,-0.911254,-0.137510,0.388211
-0.067873,-0.276527,0.964615,-0.156310,0.790102,0.592711
-0.262269,-0.532292,-0.178500,-0.662786,0.747352,-0.046686
-0.055953,-0.395604,0.217741,-0.374021,0.774239,0.510552
0.054647,-0.302672,0.454876,0.625223,0.237544,0.743417
-0.378266,-0.666068,-0.733745,-0.455882,0.861451,0.223770
-0.202904,0.469638,0.720727,0.807646,-0.157016,-0.568378
0.460282,-0.482643,0.577385,0.456950,-0.837248,0.300355
0.104521,0.015206,0.886569,-0.383974,-0.842949,0.376831
-0.428849,-0.121008,0.874645,0.583642,0.609576,-0.536450
-0.047415,0.488265,0.792389,0.898981,0.436537,-0.035625
-0.282550,0.421953,0.565292,-0.687480,-0.550000,0.474205
-0.450972,0.275646,0.911597,0.582816,0.427301,-0.691187
-0.686820,-0.026247,0.809618,0.143234,0.929988,0.338535
-0.244834,-0.501270,-0.168260,0.854603,0.518804,-0.022283
-0.102269,0.150134,0.493259,0.481868,0.558699,-0.675025
0.469533,0.452433,0.737366,-0.864232,0.177599,0.470704
0.576694,-0.145257,0.419003,0.438534,0.416322,-0.796470
-0.445217,-0.740983,-0.977078,-0.269761,-0.100184,0.957701
-0.045576,-0.428117,0.821239,0.189584,-0.430283,-0.882561
0.503988,-0.168354,0.606117,0.831788,0.228998,0.505657
0.854707,0.211095,0.689670,0.069611,0.926525,0.369737
-0.273120,-0.411318,-0.048059,0.888278,-0.215120,-0.405814
0.631133,-0.034037,0.407550,0.013491,-0.996042,0.087858
0.388465,-0.238866,0.359298,-0.822234,0.501958,0.268271
-0.075285,-0.335049,0.964430,-0.666176,-0.520909,0.533727
-0.555462,-0.676025,-0.985567,-0.095091,0.220055,0.970842
0.431756,-0.416940,0.634142,0.840737,-0.504742,0.195954
0.685752,0.009449,0.678352,0.987095,0.125779,-0.099111
-0.068050,-0.352660,0.184310,0.958688,-0.214631,-0.186683
0.802936,0.270769,0.676937,0.345737,0.934113,0.088880
-0.320504,-0.443899,0.162314,0.008503,-0.989082,0.147122
-0.518575,-0.160700,0.852751,0.161021,0.881804,-0.443276
-0.115137,-0.332814,0.123881,0.939040,-0.078985,-0.334611
-0.253611,-0.470857,-0.162382,0.407986,0.892657,-0.191601
0.005663,-0.254784,0.954257,-0.707164,0.662380,-0.247329
-0.285514,-0.030176,0.379492,-0.626700,0.690386,-0.361405
-0.278163,-0.319944,0.214373,-0.605299,0.791699,-0.082618
-0.040356,0.204592,0.517478,0.843713,0.029475,-0.535985
-0.459865,-0.237850,0.479432,0.856699,0.450556,-0.251130
0.061940,-0.667762,0.051730,-0.523526,-0.494547,0.693790
-0.025947,-0.437464,0.874174,0.766496,0.580771,0.274204
0.730526,0.368375,0.763674,-0.153756,0.821643,-0.548873
-0.296782,-0.475328,-0.241034,-0.342791,0.938354,0.044572
-0.457614,-0.275172,0.501966,-0.478348,0.877266,-0.039843
-0.317124,0.635181,0.717998,-0.458280,0.874710,-0.157675
0.224550,-0.608020,0.359382,-0.032017,-0.838967,0.543240
-0.663930,-0.439293,0.753164,0.677663,0.716855,-0.163988
0.010528,-0.471331,0.305505,0.169907,-0.824848,0.539220
-0.161692,0.099739,0.895294,0.040893,0.664297,0.746349
-0.065263,-0.314729,0.861980,0.849120,0.443561,-0.286791
-0.681126,-0.264402,0.682765,-0.687575,0.688139,0.231744
-0.000740,-0.243133,0.462489,0.791990,0.244825,0.559297
-0.384669,0.495377,0.625031,0.920269,0.120641,-0.372224
-0.144256,-0.045552,0.816540,-0.735032,-0.621891,0.270146
-0.366227,0.574965,0.633940,0.854988,0.104815,-0.507946
0.036440,-0.263657,0.923756,0.229238,0.684334,0.692197
-0.183040,-0.625834,0.868094,0.209926,-0.950588,-0.228720
-0.416336,-0.016087,0.826612,0.821595,-0.026301,-0.569464
-0.418294,0.232025,0.499103,0.032206,0.776483,0.629314
-0.049786,-0.335117,0.950030,0.003582,0.915598,0.402080
-0.103453,-0.248552,0.948986,0.631843,-0.595140,-0.496571
0.082401,0.035527,0.901441,0.926905,0.286147,-0.242831
0.475285,-0.730687,0.599515,0.801693,0.452567,0.390476
-0.499362,-0.403529,0.462068,0.661327,-0.141086,0.736710
0.132453,0.250855,0.634395,0.904818,0.304342,0.297794
-0.306569,-0.061469,0.633350,-0.129286,-0.627044,0.768180
0.219449,0.422833,0.807143,0.950032,-0.299923,-0.086521
0.629355,-0.032614,0.457840,0.231348,0.897105,-0.376406
-0.115730,-0.019406,0.864894,0.494569,0.866134,-0.072208
0.008095,-0.256071,0.804364,0.979884,0.143498,0.138691
-0.369962,0.799370,0.800945,0.332023,0.771691,0.542451
-0.384669,-0.858096,-0.980009,-0.038060,-0.064930,-0.997164
-0.200711,-0.427372,0.068623,-0.595322,0.753398,0.279255
0.271459,0.027602,0.565107,-0.569917,0.732988,-0.371379
-0.052515,0.172960,0.582084,0.731566,-0.578595,0.360611
-0.376369,-0.293189,0.682580,-0.047382,0.979449,0.196045
-0.289014,-0.566498,0.902030,-0.060847,-0.481385,0.874395
0.618562,-0.532970,0.530699,0.958201,0.285993,0.007703
-0.413611,0.326853,0.477764,0.961418,-0.189221,-0.199675
-0.180488,0.833170,0.832675,-0.474097,0.538939,-0.696259
-0.699452,-0.065127,0.772600,-0.338231,-0.726574,0.598072
-0.412127,0.438412,0.815159,-0.169385,-0.499655,0.849502
-0.049727,0.666678,0.805997,0.734707,-0.678308,0.010172
-0.015508,0.182375,0.590841,-0.525110,0.383651,-0.759652
-0.352411,-0.190097,0.628904,-0.656469,0.674336,0.338112
-0.090705,-0.265147,0.819437,0.325091,0.855890,0.402204
0.389117,-0.631456,0.561132,-0.701479,-0.520985,0.486315
-0.318369,0.577133,0.651018,0.746908,-0.022370,-0.664550
-0.388049,0.759678,0.818258,-0.602291,-0.715320,0.354347
0.001511,0.098791,0.573225,0.337877,-0.698955,0.630319
-0.147456,0.672706,0.854334,-0.360864,-0.932253,-0.026109
-0.229059,0.036407,0.905971,0.717545,-0.401120,-0.569414
-0.180608,-0.253971,0.687582,0.901776,0.339896,-0.266965
-0.518397,-0.476208,0.803892,0.163404,0.948193,-0.272449
-0.747900,-0.402581,0.748044,0.793013,0.473962,-0.382741
0.628288,0.343990,0.735329,0.909099,0.380202,-0.170251
-0.441304,-0.266841,0.392308,-0.675299,-0.707979,-0.206730
-0.364685,-0.357740,0.914999,0.940862,0.155456,0.301019
-0.247975,0.004978,0.891167,-0.128353,0.987851,0.087611
0.018889,-0.318725,0.860936,0.411932,0.892827,0.182131
0.306272,0.542791,0.685678,0.818985,0.378201,-0.431541
0.205395,-0.440038,0.564450,-0.345226,0.195580,-0.917914
-0.739419,-0.243269,0.706832,0.601956,-0.797984,0.029508
-0.725900,-0.114980,0.826241,0.862677,0.469303,0.188528
-0.345530,-0.159481,0.329639,-0.548160,0.810279,-0.207291
-0.083766,-0.356657,0.840759,0.927450,0.359771,-0.101984
0.012008,-0.406238,0.091999,-0.136749,0.980310,-0.142447
0.217611,0.281471,0.590504,-0.497560,-0.327381,0.803278
0.329043,-0.167880,0.309126,0.749940,-0.071722,-0.657607
-0.092840,0.881126,0.857719,0.607247,0.254317,0.752711
-0.080208,-0.369526,0.952640,0.664094,-0.284444,-0.691427
0.012069,-0.358892,0.790806,0.998733,-0.049433,0.009382
-0.180905,-0.646899,0.835673,-0.723334,-0.420496,0.547695
-0.414794,-0.262099,0.535633,-0.537421,0.609300,0.583037
-0.116856,0.770380,0.750469,0.943769,0.038758,-0.328326
0.088330,0.131100,0.918569,0.885554,0.452905,0.103302
0.737762,0.235479,0.620887,0.826455,-0.442524,0.348059
-0.070363,0.693433,0.781341,0.829090,0.524932,-0.192498
0.096102,0.321231,0.561385,0.891202,-0.436116,0.124745
-0.163053,0.344532,0.587406,0.577759,0.772308,-0.264073
-0.275730,0.834592,0.819656,0.970848,-0.111917,-0.211964
-0.352704,-0.546246,-0.384494,-0.523250,-0.829900,0.193587
0.126821,-0.262709,0.916801,0.965805,0.229331,0.120946
-0.167382,-0.172215,0.742806,0.867482,-0.386823,-0.312798
0.366107,-0.512853,0.347290,-0.529804,0.548079,0.647238
0.677688,-0.049141,0.443407,-0.226121,0.956282,-0.185456
-0.177821,0.908220,0.824456,0.526520,0.326101,0.785133
-0.198278,0.000576,0.923639,0.046316,0.720070,0.692354
-0.355907,-0.528161,-0.425740,-0.728702,-0.655954,-0.196770
-0.402224,-0.092424,0.800877,0.547262,0.475844,-0.688532
-0.395165,0.250855,0.890662,-0.801562,0.452130,-0.391249
-0.666597,-0.483185,0.781796,-0.111292,-0.974819,0.193239
-0.438872,-0.701832,-0.780920,0.909933,0.392892,0.132881
-0.391492,-0.445863,0.921028,0.753708,0.025440,0.656717
-0.289785,-0.554306,-0.996312,0.108540,0.357998,0.927393
0.384194,-0.799302,0.553840,-0.201055,0.213386,0.956056
-0.143424,0.314797,0.826309,-0.387586,0.323958,0.863034
-0.040889,0.244217,0.709796,-0.303442,-0.658259,0.688926
0.686523,-0.494497,0.577604,0.774366,0.030638,-0.631996
0.017524,-0.262167,0.810578,0.954919,-0.140351,0.261594
-0.195730,-0.214820,0.269800,-0.430422,-0.458667,0.777407
0.071550,-0.528770,0.315458,-0.038035,0.013553,0.999184
-0.063366,-0.016832,0.950990,0.886749,-0.382152,0.260069
0.298443,0.548887,0.732465,-0.342423,-0.824229,0.450992
-0.694587,0.056863,0.842326,0.068879,0.749045,0.658929
0.395462,0.383683,0.779892,0.031838,0.999491,0.002114
-0.359408,0.045010,0.648609,0.307521,-0.709824,0.633704
0.568094,-0.137535,0.661392,-0.524240,0.772611,0.358113
-0.428078,0.379754,0.547911,-0.194428,0.019731,0.980718
-0.413433,-0.225522,0.521840,0.951627,-0.248234,-0.181068
0.541407,-0.190165,0.647296,-0.051840,-0.703270,0.709030
-0.224908,-0.239543,0.845997,0.364709,0.876761,0.313492
0.252601,-0.774986,0.505116,0.507007,-0.230961,0.830422
-0.050911,0.159752,0.733695,-0.847139,-0.127346,0.515886
-0.245782,-0.606394,-0.034467,0.956927,0.103179,-0.271376
0.003886,0.455346,0.793922,0.543045,0.666713,-0.510486
-0.217021,-0.086531,0.715388,-0.747804,0.350219,0.564035
-0.287414,-0.706167,-0.984505,-0.622221,0.146136,-0.769081
-0.011831,0.277543,0.736171,-0.229259,-0.507830,0.830391
-0.390720,-0.326176,0.247636,-0.677736,-0.515158,-0.524678
-0.917094,-0.118028,0.758217,0.569507,-0.819328,-0.066053
0.080859,0.068446,0.853323,-0.606272,-0.144224,0.782070
0.621230,0.169438,0.726167,0.739353,-0.236478,0.630425
-0.343275,-0.317912,0.697468,0.778476,0.620693,0.093359
-0.397953,-0.608494,-0.918350,-0.328583,0.943682,0.038695
-0.089163,0.101297,0.886990,-0.006133,-0.689215,0.724531
0.875403,-0.111457,0.554901,0.991423,-0.072536,-0.108718
-0.083350,-0.350222,0.127889,0.929411,-0.034889,-0.367395
0.245485,-0.112473,0.322094,0.008584,-0.263776,0.964546
-0.125337,-0.009652,0.978863,-0.688901,0.723272,-0.047887
-0.574678,-0.018796,0.823985,0.600588,0.680519,-0.419747
-0.443320,-0.658685,-0.984303,0.406254,-0.375644,-0.832976
-0.146153,-0.123650,0.977550,0.962156,0.272152,-0.013742
-0.742800,-0.127375,0.854586,0.838064,0.392582,0.378852
-0.241037,-0.281065,0.867841,0.999280,0.037533,0.005527
0.545381,-0.057134,0.378818,0.741412,0.412853,-0.529019
0.551549,-0.033833,0.539743,0.398389,0.577843,0.712308
0.052218,-0.203305,0.942165,0.486365,0.701260,-0.521233
0.742091,-0.041691,0.452316,-0.620923,-0.679201,0.391331
-0.409340,-0.195855,0.761299,-0.132748,-0.911160,0.390083
-0.196918,0.301588,0.926872,0.796978,0.341971,-0.497877
-0.391669,0.554577,0.723792,0.387801,0.503664,0.771967
0.723113,-0.089308,0.709611,-0.697848,0.168777,-0.696077
0.881394,-0.101974,0.536341,0.903040,0.428484,0.030353
-0.413491,-0.340468,0.901491,0.853058,0.521084,-0.027624
-0.693994,-0.206218,0.768356,-0.737264,0.130304,0.662920
-0.149831,0.627731,0.765038,0.872648,-0.409329,0.266335
-0.184879,-0.137535,0.730849,0.400473,-0.876234,-0.268021
0.171772,0.096759,0.934535,0.584801,0.572016,-0.575157
-0.063663,-0.693975,0.029111,0.426617,0.703842,-0.567982
-0.364153,-0.344668,0.737097,0.951979,0.306037,0.008769
0.107369,-0.745521,0.490042,-0.664394,-0.406601,-0.627101
-0.284508,0.306398,0.867285,0.953246,0.287928,-0.091759
0.337169,0.078945,0.718436,0.074726,0.911020,0.405536
0.872200,0.274698,0.675607,-0.337502,0.727604,0.597231
-0.260666,0.125817,0.911024,0.752178,0.653351,0.085790
-0.383782,0.313577,0.499945,0.240592,-0.388737,0.889381
0.347369,0.428117,0.665839,-0.691933,0.505413,0.515545
-0.328449,-0.452298,0.130028,-0.292675,0.851052,0.435950
0.513359,0.023741,0.497166,-0.566366,-0.823992,-0.016340
0.144018,0.239882,0.743025,0.257761,-0.160713,0.952749
-0.029031,0.265892,0.736693,0.878983,-0.192744,0.436164
-0.384611,0.399871,0.522362,-0.136492,-0.966508,0.217329
0.680772,0.016493,0.468518,0.014361,-0.981272,0.192091
0.090585,0.296847,0.809804,0.913794,-0.405709,0.019534
0.704491,-0.023944,0.446438,0.357469,0.845494,-0.396680
0.345943,-0.690927,0.483339,-0.281825,-0.959378,-0.012954
0.376724,0.427778,0.762208,0.043905,-0.966439,0.253118
0.565426,-0.677312,0.644230,0.420370,0.712103,0.562315
-0.434959,-0.489891,-0.997945,0.117711,0.403360,0.907438
0.147221,-0.477563,0.274869,0.691664,0.140268,-0.708467
0.301646,0.629492,0.797273,0.326729,0.720471,0.611694
-0.346359,0.800725,0.637696,-0.859333,-0.296874,0.416428
-0.027724,0.014529,1.000000,-0.088695,-0.749791,0.655703
-0.341556,-0.184949,0.604382,0.013180,0.996147,0.086705
0.047530,-0.657805,0.053970,-0.523526,-0.494547,0.693790
-0.347546,0.340739,0.508754,-0.592749,-0.631997,0.499229
-0.041660,0.142073,0.528694,-0.754494,0.410090,0.512411
0.049843,0.267450,0.545806,-0.607513,0.571002,0.552163
-0.336043,-0.314052,0.675489,0.041705,0.994328,0.097842
-0.712262,-0.368917,0.768423,0.872504,0.329785,-0.360526
-0.066570,-0.059031,0.871799,0.334278,-0.643483,-0.688613
-0.365633,-0.374132,0.717543,0.804238,0.566344,0.180155
-0.290972,-0.154604,0.629612,0.853512,-0.156011,-0.497170
-0.333434,-0.148034,0.327568,-0.756320,0.630191,-0.175615
-0.326256,-0.275781,0.278979,0.892120,-0.280317,0.354323
0.859926,0.263251,0.670218,-0.096965,0.926745,0.362962
-0.739481,-0.267382,0.670453,0.813691,0.019434,0.580972
-0.247563,-0.716056,-0.987015,0.169209,0.068552,0.983193
0.372869,0.611474,0.753114,-0.508544,0.780588,-0.363408
0.337049,0.508179,0.685358,0.722624,0.545115,-0.425046
-0.481394,-0.722762,-0.979706,-0.159692,0.093710,0.982709
0.597688,-0.254919,0.637224,-0.235652,0.733869,0.637106
-0.373817,-0.251803,0.561385,-0.250484,-0.731983,0.633607
0.265291,0.760558,0.718099,-0.007786,-0.484984,0.874488
-0.410882,-0.323060,0.875235,0.961380,0.265389,0.072920
0.231253,-0.559319,0.347845,0.168399,-0.959595,0.225432
-0.368482,0.278017,0.906106,-0.659571,0.750875,0.033955
0.431459,-0.597318,0.434598,-0.273215,-0.848284,-0.453615
-0.339779,-0.334372,0.952388,-0.081593,-0.992946,-0.086031
-0.634930,-0.143225,0.620803,-0.000781,-0.974935,0.222490
-0.310304,0.220578,0.860953,-0.534179,-0.637957,0.554673
-0.270808,0.791919,0.827168,-0.591436,0.206737,-0.779399
-0.256695,-0.490907,0.857618,0.965283,0.140073,-0.220472
0.024166,-0.455752,0.896792,-0.846873,0.343264,0.406171
-0.005724,0.103871,0.840490,-0.565322,-0.073518,0.821587
-0.311372,-0.440715,0.063789,0.438172,-0.679414,0.588560
-0.491714,-0.636536,-0.986190,-0.163708,0.404420,0.899802
0.201659,-0.225793,0.250027,0.235467,-0.927617,0.289969
-0.055182,-0.071020,0.979604,0.022262,-0.484976,0.874244
-0.352527,0.819623,0.780718,-0.361871,0.925179,-0.114429
-0.452337,-0.300776,0.329420,0.541199,-0.796286,0.270243
0.753062,0.225319,0.610597,-0.653751,0.699504,-0.288624
-0.044982,0.072984,0.888237,0.537708,0.562767,-0.627824
-0.322817,-0.820300,-0.983074,-0.235744,-0.013078,-0.971727
-0.345411,-0.407864,0.751733,0.879564,0.471748,0.061813
-0.305621,-0.599147,-0.562783,0.434449,0.799820,0.414177
0.133343,0.365598,0.775446,0.811270,-0.580687,-0.068143
0.161927,-0.665730,0.490396,0.453478,-0.623931,-0.636449
-0.089105,-0.093237,0.878889,0.927271,-0.146940,-0.344349
-0.321098,0.855996,0.793366,-0.163466,-0.762828,0.625598
0.243885,0.612219,0.713586,0.959008,0.229382,0.166395
0.087205,0.249907,0.586749,0.468061,-0.853712,0.228242
-0.023869,0.140312,0.769703,0.532598,0.603471,-0.593432
-0.514959,-0.355844,0.471937,0.819255,-0.436687,0.371652
-0.889042,-0.092830,0.711666,-0.343821,-0.929270,-0.135071
0.569339,-0.571308,0.429074,-0.111005,0.967964,0.225217
-0.319733,-0.482237,0.893828,-0.049304,0.796431,0.602716
0.266301,-0.127443,0.328713,0.167672,0.526547,-0.833447
-0.374766,0.323738,0.494606,-0.198775,-0.717645,0.667439
-0.257582,-0.525316,0.845542,-0.243971,-0.798036,0.551014
-0.463307,-0.536966,0.801989,-0.433400,-0.892347,0.126023
-0.097405,-0.382328,0.952691,0.754596,0.245744,-0.608436
-0.286050,-0.490974,0.877155,0.403384,0.168335,0.899414
0.477717,-0.377519,0.622016,-0.587016,0.783519,-0.203740
-0.049608,-0.261219,0.948093,-0.134654,0.989119,-0.059258
-0.218917,0.245978,0.804701,0.783626,-0.270245,-0.559372
0.109324,0.299624,0.796044,0.724201,-0.587804,-0.360583
-0.070898,-0.330850,0.856624,0.995188,0.023676,-0.095077
-0.425649,0.251058,0.466733,0.877599,0.322627,-0.354586
-0.175982,-0.138890,0.730192,0.400473,-0.876234,-0.268021
-0.079379,0.560402,0.800743,0.882471,0.392239,0.259601
0.640442,0.001524,0.493124,-0.214176,0.893493,-0.394714
-0.710955,-0.420598,0.712996,0.857908,0.513514,0.017234
-0.204805,0.014258,0.445899,-0.697646,0.711052,0.087721
-0.030156,0.001321,0.985230,-0.733418,-0.676482,0.066859
-0.429030,0.723778,0.846485,0.937555,0.039415,0.345596
-0.406198,-0.314526,0.325833,-0.327424,0.934422,-0.140179
0.346421,0.192807,0.698967,-0.423925,0.902700,0.073626
0.270808,0.719917,0.714748,-0.724809,-0.453805,0.518375
-0.175331,0.509330,0.735126,-0.275323,-0.686987,0.672493
0.432349,-0.266976,0.627692,0.161913,0.404116,0.900263
-0.133937,0.044332,0.460973,-0.420848,-0.616373,0.665561
-0.409104,-0.467064,0.872978,0.846493,0.465563,0.258265
-0.375062,-0.341213,0.718739,0.879450,0.454497,0.141424
0.308404,-0.561012,0.350456,-0.655224,0.695969,-0.293782
0.032585,-0.136655,0.455769,0.539518,0.744253,0.393710
0.372156,0.412944,0.736305,0.285120,-0.896082,-0.340211
-0.115908,-0.053002,0.475625,-0.610824,-0.729122,0.308665
-0.255982,-0.570021,0.845441,-0.346691,-0.560374,-0.752188
0.049785,0.313713,0.753215,-0.129258,-0.990213,0.052644
0.422920,0.621567,0.734924,-0.347888,-0.654232,0.671532
-0.554039,-0.484201,0.787438,0.289872,0.928329,-0.232766
0.083114,-0.276188,0.925474,0.392114,0.897033,-0.203906
-0.182269,-0.543401,0.863007,0.944361,0.299997,0.134849
-0.762845,-0.081857,0.859690,0.910396,0.200558,0.361878
-0.060282,-0.309852,0.916076,-0.194138,0.199857,-0.960400
-0.161276,-0.145054,0.286305,-0.108966,-0.626315,0.771917
-0.377375,0.150202,0.716348,0.939272,-0.182466,-0.290645
0.141053,-0.003624,0.890224,-0.054348,0.988506,0.141074
-0.291030,0.250178,0.804600,-0.655929,0.659572,-0.367045
-0.222356,0.802825,0.828279,0.026145,0.386263,0.922018
0.557655,-0.301250,0.603052,0.994126,-0.107906,0.008349
-0.069711,-0.262438,0.456527,-0.166363,0.215655,0.962193
0.006492,-0.089985,0.959950,-0.050986,-0.758964,0.649133
-0.381230,-0.286484,0.652685,0.322361,0.898994,-0.296469
0.409872,0.130558,0.639312,0.729542,0.507560,-0.458423
-0.274427,-0.429878,0.064614,-0.213639,0.229565,-0.949557
-0.553685,0.007552,0.833500,-0.474194,-0.822501,0.314058
-0.299630,0.780879,0.865567,0.177013,-0.647288,0.741407
0.339065,-0.205608,0.311012,-0.659039,0.199466,0.725176
0.542001,-0.551936,0.529318,-0.395443,0.801422,-0.448717
0.888687,-0.117486,0.573831,-0.065332,-0.997692,-0.018523
-0.426062,-0.578758,-0.647952,0.897207,-0.323621,-0.300483
-0.292692,0.274359,0.794663,0.664213,0.120312,-0.737798
-0.422920,0.793680,0.863681,0.742910,-0.669390,-0.001313
-0.278637,-0.730348,-0.984034,-0.497106,0.064052,-0.865322
0.327146,-0.763877,0.499120,-0.521522,0.055679,-0.851419
-0.398904,0.151963,0.433672,0.040759,-0.798240,0.600958
0.729636,0.188268,0.601435,0.771039,-0.569943,0.284014
0.310420,0.497748,0.798587,0.755369,-0.268850,0.597609
-0.335211,-0.096962,0.627422,0.721474,0.093504,-0.686099
-0.453108,-0.508856,0.812061,-0.324133,-0.888653,0.324398
0.683675,0.045213,0.663110,0.924125,0.296648,0.240816
0.426182,-0.061334,0.412973,-0.168244,0.884082,-0.435996
-0.380578,0.818607,0.862014,-0.664097,0.513647,-0.543269
-0.373343,-0.560064,-0.742924,-0.353948,0.927740,-0.118401
-0.322817,0.179531,0.845189,0.491601,0.803053,-0.336799
-0.751520,-0.240966,0.749257,0.877816,-0.434307,0.202033
-0.397717,-0.344058,0.912135,0.910327,0.339836,0.236256
0.113063,0.398313,0.827269,0.739845,0.672776,-0.001424
0.039347,-0.295221,0.946544,-0.400336,0.615873,-0.678551
0.817288,0.185356,0.603170,-0.063661,-0.828222,0.556772
-0.006850,-0.550513,0.274111,-0.076931,-0.584721,0.807578
0.464433,0.784468,0.767648,-0.253788,-0.542329,0.800919
0.432230,-0.312290,0.609519,0.456906,0.346289,0.819341
-0.945735,-0.213804,0.792339,0.954929,-0.296808,-0.004000
0.593120,-0.627392,0.467120,0.422407,0.902499,0.084071
-0.481869,0.215701,0.801130,-0.488450,0.383588,-0.783758
0.073863,0.103736,0.895580,0.680752,-0.543010,0.491647
0.481452,-0.535476,0.390978,-0.325741,0.861635,0.389201
-0.430510,-0.330782,0.335955,-0.561418,0.817086,0.131072
0.214234,-0.485014,0.560711,0.355900,-0.150386,0.922344
-0.396888,-0.706980,-0.929112,-0.265856,-0.946185,0.184537
-0.133286,0.007417,0.951596,0.287232,0.834062,0.470998
0.410762,0.012497,0.552037,-0.471968,-0.729726,0.494718
0.068108,-0.116334,0.946544,0.996453,-0.019859,0.081772
-0.304850,-0.188607,0.630285,0.846503,-0.064588,-0.528451
0.371504,0.629966,0.757105,0.441251,-0.760476,0.476418
0.398843,-0.461307,0.374860,0.854109,0.304769,-0.421442
0.669145,0.332137,0.745366,0.823708,0.423088,-0.377495
-0.120237,-0.026992,0.819168,-0.499515,-0.820822,0.277011
0.063601,-0.296170,0.214289,0.655524,-0.153567,-0.739395
0.052808,-0.374674,0.933761,-0.437177,0.888704,-0.138140
-0.593359,-0.018796,0.848254,-0.477737,0.791874,-0.380398
0.049369,0.076235,0.897719,0.023402,-0.754801,0.655537
-0.652423,-0.184204,0.776608,0.727443,-0.439562,-0.526889
-0.106005,0.844752,0.824726,0.800539,-0.543181,-0.253163
0.429504,0.172148,0.688137,0.036719,0.866432,0.497943
0.182624,0.346090,0.595759,-0.079999,-0.571756,0.816514
-0.324714,-0.074813,0.401352,0.815732,0.373043,-0.442063
0.612155,-0.607071,0.645275,0.437815,0.739759,0.510955
-0.707814,-0.262099,0.681047,-0.372116,0.882299,0.288234
0.558249,-0.603888,0.495516,-0.510302,0.811911,-0.283536
-0.387637,0.303214,0.490935,-0.656081,0.738199,-0.156910
-0.313804,-0.629085,-0.592290,0.953749,-0.263169,0.145272
-0.426124,-0.220442,0.516804,0.973260,0.210498,-0.091954
-0.171001,0.619331,0.782436,0.496426,-0.757213,0.424488
-0.123143,-0.379551,0.935512,0.956088,0.163235,0.243414
-0.154160,0.110509,0.474598,-0.554529,-0.067290,0.829439
-0.232024,-0.474718,-0.189801,0.686176,0.705267,-0.178217
0.351459,0.680428,0.778697,0.837557,0.434753,-0.330890
0.766226,0.050428,0.524838,0.227217,-0.900133,0.371662
-0.782771,-0.161513,0.676382,0.753794,0.459502,0.469737
-0.345291,-0.242862,0.284974,0.731696,-0.517700,0.443404
-0.364982,0.741863,0.849180,0.237092,-0.614611,0.752357
0.103337,-0.521658,0.310355,-0.054074,0.273306,0.960406
-0.978768,-0.136926,0.805256,0.941551,0.171018,0.290231
-0.179185,0.108477,0.674866,-0.175245,-0.709404,0.682668
-0.451149,0.579978,0.569166,-0.787065,0.615857,-0.035342
-0.181259,-0.191384,0.276368,0.036603,-0.672657,0.739049
-0.133937,0.153046,0.725745,-0.117408,0.884711,0.451111
0.594662,-1.000000,0.606605,0.889553,0.374540,0.261564
0.018889,0.252142,0.545200,-0.683775,0.497727,0.533591
0.700458,-0.148305,0.711295,0.129321,-0.899884,0.416516
0.203024,-0.519694,0.562294,0.352862,-0.105096,0.929754
0.464136,-0.112812,0.580921,0.760328,0.357447,-0.542340
0.048005,-0.188675,0.234482,-0.458120,-0.565837,0.685533
-0.396707,0.314661,0.939487,-0.755529,0.634986,0.161146
-0.376724,-0.331798,0.744406,0.946041,0.323442,-0.019803
0.045456,0.228435,0.541764,-0.700642,0.406665,0.586280
-0.215656,0.490094,0.746091,0.598019,-0.626330,0.500084
0.029208,-0.400549,0.234903,-0.333627,0.765363,0.550374
-0.158785,0.066752,0.702504,0.929350,-0.123873,-0.347800
-0.276917,-0.547194,-0.239198,-0.047343,-0.985954,0.160166
-0.706923,-0.160565,0.644534,-0.663245,0.449169,-0.598626
-0.371682,0.756494,0.626226,-0.903149,0.022740,0.428724
-0.116085,0.778846,0.817854,-0.186530,0.847466,-0.497000
-0.411891,0.811630,0.855715,0.566661,-0.772932,-0.285433
-0.109740,-0.240763,0.815075,0.199100,0.907927,0.368821
0.712081,0.068310,0.624441,0.597658,0.520706,0.609648
-0.410350,-0.271379,0.616879,-0.404378,-0.904174,-0.137653
-0.190453,-0.144715,0.721804,0.430665,0.902472,0.008484
0.378859,-0.197277,0.330700,0.746639,-0.429192,-0.508257
-0.201543,0.390998,0.802898,-0.824426,0.506496,0.252554
0.461172,0.791919,0.773459,-0.012935,-0.382268,0.923961
-0.355433,0.270295,0.830688,0.948667,-0.146391,0.280357
0.868523,-0.117486,0.590100,-0.187556,-0.980288,-0.062120
0.159317,0.232635,0.579170,-0.170452,-0.746340,0.643368
0.344343,0.243946,0.636315,0.859641,0.367885,-0.354513
-0.410943,0.233176,0.896607,-0.091587,0.794987,0.599673
-0.347604,-0.510550,-0.246608,-0.075128,-0.986018,0.148745
-0.353182,-0.198022,0.327719,0.005720,-0.917458,0.397792
-0.659539,-0.456972,0.754983,0.693133,0.642482,-0.326777
0.483052,0.102449,0.538934,-0.613718,0.509838,-0.602839
0.022327,0.003962,0.843033,0.682196,0.143500,-0.716949
0.149888,0.817523,0.730562,0.108309,-0.294914,0.949365
-0.752349,-0.412605,0.799699,0.761812,-0.137236,0.633095
-0.016634,-0.478173,0.245766,-0.336563,0.670403,0.661275
0.380104,0.634978,0.819724,0.208698,-0.896687,-0.390381
0.563942,0.054154,0.511516,0.723246,0.660732,-0.200867
0.896455,-0.113218,0.584711,0.268534,0.962790,0.030410
-0.337643,-0.305585,0.784625,0.826995,0.553708,0.097401
-0.177763,-0.420327,0.103233,0.331102,-0.940477,0.076648
-0.099659,-0.248281,0.799732,-0.386069,-0.864228,-0.322584
-0.086969,-0.263996,0.925306,0.037873,-0.817363,0.574877
-0.279762,-0.479730,0.868161,0.701545,0.378375,0.603877
0.088153,-0.300640,0.444047,0.276448,0.168016,0.946228
-0.317895,-0.211908,0.618580,0.847395,0.308969,-0.431810
0.114601,-0.331188,0.904203,-0.456587,0.633744,-0.624417
-0.297614,0.279575,0.857904,0.512271,-0.478276,-0.713324
-0.153863,-0.025841,0.444720,-0.353240,-0.825535,-0.440130
-0.593001,-0.219697,0.824591,-0.153162,0.071280,0.985627
0.242933,-0.548481,0.549275,0.696393,0.464159,0.547351
-0.165782,-0.424798,0.097608,-0.850178,0.273899,0.449641
-0.329517,0.198699,0.735901,0.795177,0.402419,-0.453599
-0.416814,-0.627256,-0.734571,0.860382,-0.507392,-0.047917
-0.423336,-0.168016,0.773829,-0.343933,-0.863672,0.368483
-0.307517,-0.469232,-0.217371,0.498480,-0.856163,0.136025
-0.047889,-0.411725,0.925255,-0.339205,-0.894175,-0.292219
0.755907,0.294544,0.705047,0.899609,-0.315199,0.302247
0.294411,-0.910048,0.512493,0.956470,0.086120,0.278833
-0.161572,-0.003488,0.865702,-0.466574,0.878801,0.100084
0.527888,-0.098588,0.386245,0.997926,0.056674,-0.030508
0.050021,-0.225658,0.951192,-0.644433,0.330152,-0.689714
-0.248511,0.692891,0.719716,-0.793753,0.588984,-0.151835
0.415565,-0.133336,0.335551,-0.550370,0.806813,0.214816
0.590036,0.130762,0.628938,-0.639888,0.734509,-0.225922
0.728036,-0.253565,0.696356,0.859341,-0.493820,0.132949
-0.255747,-0.075152,0.451676,-0.646766,0.762133,0.029094
-0.390836,0.889389,0.894283,-0.586290,0.729308,-0.352667
-0.158072,-0.270024,0.716786,0.866954,0.483423,-0.121214
-0.291150,0.431707,0.706798,-0.269397,0.686660,0.675221
-0.209608,-0.165848,0.836431,0.724589,-0.684935,0.076390
-0.334320,-0.473567,0.819420,0.819637,0.423256,0.386070
0.198753,-0.239476,0.254878,0.222461,-0.953987,0.201047
0.048953,-0.221052,0.446994,0.496967,0.454449,0.739256
-0.623307,-0.131778,0.784389,0.957113,-0.234839,0.169665
-0.007382,-0.649812,0.281033,0.271057,-0.084650,-0.958834
0.581259,-0.214414,0.625687,0.054113,0.714145,0.697903
0.197627,-0.476818,0.314734,0.107910,-0.815454,0.568674
-0.272704,-0.422088,0.061246,-0.235842,0.939826,-0.247196
0.785084,-0.150608,0.693813,-0.245283,0.924428,-0.292009
-0.364743,-0.303891,0.939824,0.303709,0.949942,0.073287
0.441601,-0.689979,0.612062,-0.767567,-0.631156,0.111725
0.457494,-0.143022,0.380384,-0.199465,-0.963516,0.178469
-0.073389,-0.065398,0.913634,-0.547894,-0.755670,0.358853
-0.061647,0.031530,0.983613,-0.076961,-0.982569,0.169218
0.316472,0.361195,0.756415,0.257099,0.896615,-0.360530
-0.252840,-0.262302,0.257286,-0.428051,0.879848,-0.206493
-0.314575,-0.533308,-0.540753,0.765259,0.639861,-0.070404
-0.263514,0.188336,0.704744,0.189054,-0.669116,0.718709
-0.651355,-0.125817,0.676112,0.967980,0.247631,-0.041162
-0.261853,-0.047245,0.644887,0.924330,0.105104,-0.366835
-0.148111,0.012362,0.824894,0.781711,0.197761,0.591454
-0.226508,-0.270295,0.926603,0.854423,0.382119,-0.352061
-0.325130,-0.643310,-0.927260,0.730608,0.676677,-0.091215
-0.096695,0.622244,0.801534,0.933609,0.182042,0.308601
-0.318072,-0.182782,0.614690,-0.853268,-0.330869,0.403062
-0.215062,-0.037762,0.913921,0.802220,0.587672,0.105280
-0.409340,-0.500931,0.896051,-0.058623,0.998017,0.022938
-0.368420,-0.460358,0.846064,0.771563,0.634122,-0.050788
-0.061705,-0.602127,0.267644,0.100847,-0.148402,0.983772
-0.329637,0.180343,0.748061,0.914304,0.405014,0.003559
-0.455301,-0.480950,0.822974,-0.279810,-0.920936,0.271263
-0.209727,0.785349,0.840709,0.974947,-0.016465,-0.221825
-0.058918,-0.173164,0.458076,0.073938,0.624957,0.777150
-0.402937,-0.250584,0.570799,0.953659,-0.056893,-0.295462
0.213046,-0.260067,0.282061,-0.611237,0.758895,0.224650
-0.724416,-0.054628,0.762090,-0.130211,-0.871471,0.472846
-0.214766,0.835134,0.781071,0.131878,0.972636,-0.191278
-0.460043,-0.201138,0.866881,-0.418242,0.833038,0.362108
-0.447649,0.486030,0.548686,-0.241430,0.707884,-0.663786
-0.373108,0.574559,0.619860,0.937496,0.012238,-0.347781
-0.363794,-0.426220,0.126845,-0.617195,0.769928,0.162113
-0.302417,-0.021303,0.372317,-0.078134,-0.770565,0.632554
0.540578,-0.028753,0.455415,0.116507,-0.878667,0.463002
-0.221111,0.431774,0.726436,0.925738,0.346893,0.150579
-0.050140,-0.224100,0.765678,-0.505217,-0.800905,-0.321415
-0.044389,-0.455007,0.314700,0.103048,-0.897490,0.428827
-0.391014,-0.323670,0.249573,-0.698732,-0.534646,-0.475317
0.678694,-0.123446,0.715320,0.130043,-0.581646,0.802980
0.373046,0.215565,0.635607,0.788832,0.587953,-0.179040
-0.226866,-0.032817,0.438590,-0.478193,0.872207,0.102890
0.412840,-0.008433,0.568442,0.731129,0.670045,-0.128413
-0.213401,-0.452230,0.037246,0.978535,-0.110967,0.173654
-0.324953,-0.456227,0.828195,-0.105099,0.994403,0.010801
-0.240682,-0.581265,0.897971,0.676331,-0.699008,0.232303
-0.381407,0.971281,0.834966,0.819243,-0.573431,0.004294
-0.409162,0.586616,0.594344,0.882984,-0.413611,-0.221956
-0.339482,0.201206,0.884531,0.919471,0.102318,-0.379610
-0.431875,-0.362143,0.540703,-0.351108,0.121539,-0.928413
-0.766642,-0.131710,0.743766,-0.034685,0.311918,0.949476
0.291562,0.393437,0.701038,-0.690520,-0.543726,-0.477016
-0.341617,0.884580,0.824961,-0.409346,-0.422056,-0.808891
-0.411891,-0.346496,0.940548,0.450421,-0.832423,-0.322788
-0.463069,-0.346293,0.325075,-0.397469,0.912613,-0.095688
0.496810,-0.541301,0.397192,0.275303,-0.898238,-0.342603
0.063721,0.079758,0.893272,-0.282575,0.756187,-0.590197
-0.130556,0.033156,0.878788,0.040392,0.542070,-0.839362
-0.380282,-0.080367,0.378279,0.902525,0.347380,-0.254511
0.445514,-0.583364,0.414978,0.214118,0.913132,0.346905
-0.741555,0.001321,0.782958,-0.154737,0.940042,-0.303937
0.304137,0.100620,0.723640,-0.275735,-0.933156,-0.230632
0.181614,0.333356,0.588248,0.413207,0.404517,-0.815859
0.534349,-0.556812,0.405630,0.242626,0.913766,0.325828
0.208124,-0.223558,0.263737,-0.840583,0.214600,0.497361
0.367175,-0.716327,0.459255,-0.264689,-0.088506,-0.960264
-0.367056,-0.043384,0.869475,-0.716049,0.673657,0.182922
-0.213995,-0.280387,0.047216,0.982559,-0.107015,-0.152068
0.427369,-0.687066,0.592896,0.890995,0.412329,0.190036
-0.658946,-0.257154,0.836987,-0.569010,-0.779932,-0.260641
-0.011892,0.438819,0.781324,0.468899,0.702333,-0.535595
0.053760,-0.004369,0.908632,-0.488921,0.768707,0.412366
-0.297614,-0.173367,0.642967,0.857498,0.220032,-0.465063
-0.028198,0.153453,0.761804,0.757023,0.650590,0.060407
-0.300105,-0.570021,0.774789,-0.479788,-0.219971,-0.849362
0.411117,0.021506,0.558202,0.819654,0.569076,0.065722
0.433714,-0.687540,0.464257,-0.645229,0.763430,0.029222
-0.353656,-0.409896,0.752339,0.877974,0.475660,0.053937
0.136782,0.002066,0.874359,-0.318823,-0.927860,0.193462
-0.146866,-0.180547,0.750149,-0.690693,0.201901,0.694391
0.108553,-0.554848,0.284789,-0.027963,0.347046,0.937431
0.640265,0.350425,0.743716,0.289240,0.951183,0.107665
0.318249,-0.566702,0.556231,0.252376,0.895778,-0.365908
-0.255804,0.786365,0.677392,-0.308834,0.817256,0.486533
-0.146272,0.108680,0.480038,-0.607878,0.397883,0.687149
0.083705,-0.379415,0.868599,0.740701,0.668924,0.062463
-0.281659,0.595963,0.674057,0.963720,-0.062631,-0.259464
-0.497404,0.330714,0.495432,0.175583,-0.775496,0.606446
