0.717502,0.644481,-0.986910,0.090946,-0.102479,0.990569
0.708702,0.690164,-0.987626,0.307836,-0.121184,-0.943691
0.699439,0.733416,-0.990555,-0.249589,-0.090427,0.964121
0.690290,0.780312,-0.991571,0.013195,0.360122,0.932812
0.885125,0.171147,-0.972113,-0.245298,0.463010,0.851734
0.876209,0.217830,-0.972729,0.159370,-0.430917,0.888207
0.866886,0.265084,-0.974060,0.148716,0.241044,0.959052
0.857680,0.306192,-0.978105,0.008048,0.013917,0.999871
0.848128,0.363313,-0.974510,0.141115,-0.202017,-0.969162
0.839268,0.408707,-0.975342,-0.421668,-0.861100,-0.284081
0.830525,0.452173,-0.977256,0.080754,-0.256313,0.963215
0.821202,0.502073,-0.976956,0.347370,0.414816,0.840989
0.812459,0.538964,-0.982067,0.278280,0.273634,0.920698
0.803197,0.589077,-0.981617,0.184493,-0.087977,0.978888
0.793991,0.634188,-0.983914,0.217703,-0.349144,-0.911429
0.784898,0.679369,-0.985911,0.102748,-0.268122,-0.957890
0.776155,0.722119,-0.988092,0.345702,0.915758,-0.204639
0.932257,0.209680,-0.966004,-0.150140,0.037023,0.987971
0.922818,0.261510,-0.964939,0.412639,-0.083892,-0.907023
0.895720,0.396197,-0.969783,-0.116865,0.091525,0.988921
0.886864,0.437946,-0.972895,0.781938,0.594679,0.186895
0.877771,0.479984,-0.976474,-0.047383,0.132847,0.990003
0.868275,0.536603,-0.972895,0.275468,0.061715,-0.959327
0.859359,0.569704,-0.980935,-0.125828,0.363094,0.923217
0.850326,0.620461,-0.979154,-0.212462,-0.078067,0.974046
0.841470,0.665000,-0.980469,-0.248484,0.523795,0.814797
0.832610,0.703675,-0.985728,-0.507851,0.068767,0.858696
0.962826,0.270946,-0.966454,-0.153187,-0.194600,0.968847
0.953564,0.317772,-0.967869,-0.184318,0.262647,0.947124
0.944474,0.367888,-0.966653,0.306546,-0.173390,-0.935930
0.935498,0.404060,-0.973178,-0.141430,0.275438,0.950858
0.908226,0.542465,-0.977140,0.299601,0.048073,-0.952853
0.899310,0.586933,-0.978604,-0.132581,0.139328,0.981331
0.890104,0.629899,-0.981767,0.141525,0.145961,0.979115
0.978461,0.399344,-0.969400,-0.194249,0.385702,0.901943
0.976086,0.393909,-0.974843,0.316497,-0.337090,-0.886679
0.957384,0.495639,-0.972512,-0.053002,0.183638,0.981564
0.948528,0.538176,-0.974943,-0.183096,-0.076679,0.980100
0.960455,0.317558,-0.972446,0.006370,0.483591,0.875271
0.950899,0.376610,-0.967602,0.336637,-0.332846,-0.880846
0.941983,0.417716,-0.970765,-0.178526,0.085680,0.980198
0.949281,0.233631,-0.970166,-0.262702,0.011915,0.964804
0.939898,0.287032,-0.967369,-0.266674,0.033794,0.963194
0.930635,0.330570,-0.970265,-0.173601,0.025173,0.984494
0.921256,0.375609,-0.972562,0.061109,-0.293647,-0.953959
0.911873,0.422221,-0.973911,0.035619,0.357900,0.933080
0.928260,0.227053,-0.970299,-0.237939,0.069899,0.968762
0.918648,0.275380,-0.970998,-0.528739,0.000377,0.848784
0.909502,0.324422,-0.970349,-0.528042,0.127148,0.839646
0.900526,0.370818,-0.970715,0.240403,0.096019,-0.965912
0.891147,0.416001,-0.972795,0.092585,0.203072,0.974777
0.915637,0.239778,-0.973628,0.482972,0.123772,-0.866844
0.906028,0.293967,-0.971530,-0.490023,-0.046185,0.870485
0.896995,0.338433,-0.973012,-0.230992,-0.179069,0.956335
0.887439,0.386831,-0.973811,-0.240495,-0.172120,0.955268
0.877944,0.431085,-0.976507,-0.105196,0.198348,0.974470
0.904406,0.260367,-0.972729,0.003045,-0.080626,0.996740
0.894854,0.309909,-0.972829,0.482646,-0.238965,-0.842584
0.885415,0.353231,-0.975991,-0.179595,0.059207,0.981957
0.876325,0.403131,-0.974809,-0.398085,0.117007,0.909856
0.867119,0.447099,-0.976624,-0.013513,0.341058,0.939945
0.885358,0.285031,-0.975908,-0.139441,0.181192,0.973512
0.876209,0.333930,-0.975309,0.009411,-0.045241,0.998932
0.866713,0.385688,-0.974260,0.506891,0.064301,-0.859608
0.857563,0.421003,-0.980335,0.326644,0.210876,0.921322
0.907763,0.172864,-0.971664,0.100363,-0.124792,0.987094
0.860634,0.404348,-0.977972,-0.149288,0.023672,0.988510
0.899483,0.174365,-0.970981,0.329482,-0.301498,-0.894729
0.890277,0.227480,-0.968484,0.429708,-0.137798,0.892392
0.852181,0.406349,-0.977190,-0.149288,0.023672,0.988510
0.896589,0.176723,-0.972180,-0.300907,0.520876,0.798839
0.886864,0.229697,-0.970598,-0.061156,0.107952,0.992273
0.877308,0.280956,-0.969949,0.243618,0.039517,-0.969066
0.830408,0.510582,-0.976008,0.037628,0.472653,0.880445
0.820510,0.541822,-0.984963,-0.213340,0.007190,0.976952
0.811534,0.617601,-0.971647,0.262931,0.087256,-0.960861
0.802038,0.643480,-0.982433,-0.238351,0.460279,0.855180
0.792888,0.685303,-0.985162,-0.024984,0.197874,0.979909
0.900296,0.172006,-0.971480,0.329482,-0.301498,-0.894729
0.890974,0.217115,-0.972546,-0.469050,0.239744,-0.850009
0.881824,0.270305,-0.969899,-0.344601,0.074262,0.935807
0.872099,0.317059,-0.971247,0.069430,-0.055521,0.996041
0.862832,0.361812,-0.972612,0.327948,-0.042739,-0.943728
0.853337,0.411210,-0.972679,-0.391181,-0.899738,0.193517
0.843611,0.453461,-0.976407,-0.150473,-0.064715,0.986494
0.834055,0.500214,-0.977839,0.125498,0.323357,0.937918
0.824676,0.543538,-0.979753,-0.143593,0.012390,0.989559
0.815470,0.588647,-0.980935,-0.357536,0.170451,-0.918213
0.806148,0.645197,-0.977223,-0.435568,0.549385,0.713061
0.796652,0.673007,-0.986993,0.126132,-0.266035,-0.955676
0.787156,0.721548,-0.987343,-0.009924,0.119180,0.992823
0.915291,0.152059,-0.970082,0.100363,-0.124792,0.987094
0.905565,0.199672,-0.971214,0.325288,-0.069023,-0.943093
0.896243,0.243710,-0.972779,-0.092374,0.083480,0.992219
0.886630,0.293324,-0.972845,0.308031,-0.056627,-0.949690
0.876905,0.342366,-0.972978,-0.080810,0.036516,0.996060
0.867292,0.387691,-0.975076,-0.591390,-0.166454,0.789019
0.857970,0.433302,-0.976257,0.408836,0.177336,-0.895212
0.848707,0.477195,-0.978088,-0.182212,0.071563,0.980652
0.839211,0.527597,-0.977572,-0.051679,-0.002184,0.998661
0.829656,0.564771,-0.982599,-0.019674,0.065296,0.997672
0.820220,0.616385,-0.981517,0.059111,0.015004,0.998139
0.810608,0.659424,-0.984546,-0.037485,0.415048,0.909027
0.800995,0.704033,-0.986860,-0.018588,0.115567,0.993126
0.924613,0.176867,-0.969067,0.415227,-0.327452,-0.848741
0.914828,0.220117,-0.971947,0.344987,0.350190,-0.870833
0.905215,0.271876,-0.970998,-0.326922,-0.208578,0.921747
0.895953,0.317486,-0.971980,0.339442,-0.098483,-0.935457
0.886514,0.361596,-0.973677,-0.218081,-0.052789,0.974502
0.876905,0.407422,-0.975459,-0.592974,0.454988,0.664355
0.867582,0.453674,-0.976274,0.064525,0.759129,-0.647734
0.857970,0.501360,-0.977190,0.210342,0.247416,0.945802
0.848184,0.548471,-0.978255,0.229107,-0.176595,-0.957248
0.838515,0.591150,-0.981584,-0.099964,0.203347,0.973990
0.829426,0.639906,-0.980835,-0.075643,0.117880,0.990143
0.819987,0.675438,-0.986727,-0.124496,0.151305,0.980616
0.810434,0.723978,-0.987043,-0.332924,-0.111563,0.936331
0.944068,0.207607,-0.967219,-0.136158,-0.112090,0.984326
0.934109,0.255076,-0.968551,0.171018,0.099252,-0.980256
0.924730,0.300759,-0.969650,0.256986,-0.044683,-0.965381
0.914884,0.348157,-0.970698,-0.308452,-0.018538,0.951059
0.905159,0.391265,-0.973894,0.041158,-0.106353,-0.993476
0.895546,0.438376,-0.975076,0.145047,0.522945,0.839934
0.886284,0.485990,-0.975009,0.125691,-0.214600,-0.968581
0.877078,0.532530,-0.975442,-0.044022,-0.325093,0.944657
0.867232,0.573993,-0.979403,-0.106258,0.201276,0.973754
0.857913,0.617673,-0.981201,-0.158684,-0.012441,0.987251
0.848531,0.668432,-0.980136,0.296447,-0.474517,-0.828826
0.838862,0.708822,-0.984480,-0.489691,0.003181,0.871890
0.956458,0.256935,-0.965938,0.010135,-0.124969,0.992109
0.946732,0.301545,-0.968501,0.280122,-0.287294,-0.915966
0.937004,0.350443,-0.968984,0.272826,0.196630,-0.941755
0.927568,0.392408,-0.971630,-0.054182,0.499637,0.864539
0.918185,0.434659,-0.974227,-0.122261,-0.136556,0.983059
0.908576,0.484201,-0.974210,-0.124306,0.220839,0.967356
0.899310,0.528882,-0.975608,-0.098158,-0.117961,0.988155
0.889641,0.573707,-0.977839,-0.284648,0.392696,0.874509
0.879799,0.618746,-0.979903,0.168038,0.131094,-0.977025
0.870187,0.665714,-0.981084,0.018708,-0.010594,0.999769
0.981355,0.290106,-0.968085,-0.145402,0.183239,0.972256
0.972149,0.335932,-0.968984,0.039550,0.007966,0.999186
0.962423,0.383688,-0.969883,0.297433,-0.481668,-0.824336
0.952928,0.426438,-0.972163,0.226977,0.061292,-0.971969
0.943259,0.471905,-0.974127,-0.011198,0.202780,0.979160
0.933586,0.521161,-0.974427,-0.121089,-0.036253,0.991979
0.923977,0.569846,-0.974759,-0.130617,0.144249,0.980883
0.914598,0.614313,-0.976124,-0.106108,0.059622,0.992565
0.905215,0.655492,-0.979187,0.204343,0.324136,0.923677
1.000000,0.391479,-0.968751,-0.062457,0.152810,0.986280
-1.000000,-0.681156,0.581303,-0.705299,-0.303315,-0.640744
-0.920910,-0.744711,0.583866,-0.212206,-0.271794,-0.938668
-0.928610,-0.705820,0.582634,0.876598,-0.284817,-0.387886
-0.838805,-0.980341,0.538509,0.746194,-0.533182,-0.398636
-0.850442,-0.864527,0.559049,0.912661,0.161991,-0.375244
-0.863472,-0.723692,0.586329,0.342895,0.186254,0.920724
-0.866133,-0.781885,0.557701,0.487916,0.831037,-0.267051
-0.887846,-0.572204,0.593187,0.361122,0.565189,-0.741722
-0.894621,-0.543608,0.589808,-0.573318,0.796834,0.190689
-0.898674,-0.576138,0.568303,0.866697,0.366780,-0.338097
-0.920850,-0.348584,0.610031,0.133127,0.860520,0.491714
-0.804702,-0.453245,0.618720,0.378015,0.709804,-0.594376
-0.809972,-0.456676,0.605687,0.800439,0.505840,0.321595
-0.818944,-0.390477,0.612528,-0.220646,0.521285,0.824365
-0.825835,-0.357664,0.610398,-0.207916,0.858440,-0.468884
-0.830931,-0.363311,0.597082,0.235356,0.829183,0.507013
-0.837646,-0.341579,0.591173,-0.457325,-0.438291,-0.773792
-0.846103,-0.278454,0.597881,0.447716,0.319820,-0.835024
-0.866133,-0.093151,0.628008,0.309557,-0.776546,-0.548773
-0.796076,-0.888046,0.559082,0.238078,0.355595,-0.903809
-0.804123,-0.842938,0.559432,-0.340694,-0.422544,0.839872
-0.815530,-0.733844,0.578273,0.532917,0.055359,-0.844355
-0.823811,-0.678010,0.582235,-0.329385,-0.328016,0.885387
-0.834116,-0.587288,0.595767,-0.509045,-0.682342,0.524674
-0.851255,-0.466400,0.606453,-0.649525,0.650691,-0.393342
-0.845753,-0.684230,0.531718,-0.620028,-0.498372,-0.605963
-0.868102,-0.350587,0.615541,0.241250,0.768450,0.592691
-0.879566,-0.337289,0.596066,-0.176174,-0.367587,-0.913150
-0.887037,-0.296468,0.595867,-0.391223,-0.063150,-0.918127
-0.722541,-0.193594,0.827927,0.660931,-0.183425,0.727685
-0.730938,-0.132256,0.833986,-0.175412,0.598726,-0.781510
-0.709398,-0.779169,0.622249,-0.129902,0.975501,-0.177550
-0.719300,-0.797183,0.593087,0.340855,-0.939931,-0.018662
-0.749986,-0.337146,0.710133,0.398621,0.800069,0.448321
-0.766952,-0.119030,0.760150,0.939485,-0.333574,0.078077
-0.733599,-0.832071,0.547614,-0.303170,0.899635,-0.314239
-0.779169,-0.082284,0.747999,0.951950,-0.278924,0.126460
-0.762666,-0.599157,0.577275,0.201946,0.766893,0.609174
-0.802271,0.056765,0.753026,0.967142,0.231931,0.104132
-0.774480,-0.478338,0.599612,0.554629,0.209595,0.805268
-0.789704,-0.387617,0.602392,-0.412480,0.746807,-0.521670
-0.798334,-0.326209,0.608134,-0.345227,0.789872,-0.506874
-0.810378,-0.190162,0.636097,0.530589,-0.469424,-0.705773
-0.826472,-0.087646,0.642039,-0.301745,0.075772,0.950373
-0.837936,-0.073564,0.622398,-0.359156,-0.139747,-0.922756
-0.778590,-0.636546,0.602508,-0.183207,-0.746102,0.640130
-0.786637,-0.590936,0.603340,0.220161,0.466624,-0.856616
-0.788259,-0.660137,0.571949,0.700115,-0.334916,0.630611
-0.691796,-0.160066,0.823766,-0.383755,0.841765,-0.379688
-0.670199,-0.804046,0.612445,0.002601,-0.987916,0.154968
-0.678017,-0.761654,0.612145,-0.080385,-0.994683,0.064367
-0.681780,-0.788890,0.592954,0.155229,0.978896,-0.132913
-0.688958,-0.754289,0.591073,0.709480,-0.612601,-0.348366
-0.715883,-0.364598,0.688478,-0.425386,0.879153,0.214795
-0.721559,-0.353875,0.680239,0.861988,-0.506381,0.023550
-0.740084,-0.109736,0.737663,0.959522,-0.271110,0.076263
-0.778183,0.021661,0.706671,0.726125,0.636349,-0.260389
-0.776448,-0.118387,0.654040,-0.399053,-0.687093,0.607174
-0.782700,-0.101873,0.646899,-0.092207,-0.660498,0.745145
-0.788895,-0.087361,0.639077,0.184789,-0.183762,0.965445
-0.802907,-0.017658,0.636480,0.959182,-0.053708,-0.277643
-0.810841,0.035888,0.640425,0.232945,-0.110028,0.966246
-0.627873,-0.215756,0.832787,0.895074,0.078144,-0.439018
-0.634185,-0.193450,0.827628,0.978829,0.183213,-0.091255
-0.640380,-0.170359,0.823233,0.909875,0.154397,-0.385083
-0.645706,-0.164927,0.813513,-0.403122,-0.793428,0.456032
-0.619420,-0.872462,0.583683,0.870046,0.104786,-0.481705
-0.628859,-0.800759,0.591955,-0.019731,-0.694767,0.718964
-0.632563,-0.830497,0.571432,-0.152994,0.543099,0.825613
-0.666089,-0.332285,0.699697,0.694927,-0.463087,-0.550115
-0.639398,-0.802687,0.567488,-0.380405,0.330976,0.863567
-0.694690,0.082858,0.805091,-0.351063,0.930370,-0.105672
-0.646345,-0.775665,0.562811,-0.344098,0.862622,-0.370783
-0.680505,-0.262010,0.696035,0.515216,-0.022053,-0.856776
-0.707430,0.130613,0.796019,-0.526245,0.074078,0.847100
-0.713452,0.152131,0.791209,0.589868,0.550459,-0.590804
-0.676914,-0.516800,0.600061,0.641590,-0.359969,0.677337
-0.707659,-0.142335,0.683967,-0.583821,-0.231488,0.778181
-0.720629,0.004146,0.714976,-0.074188,0.707922,0.702383
-0.729662,0.075636,0.723964,0.880097,0.225379,0.417893
-0.729895,-0.019231,0.684550,-0.053622,-0.595165,0.801813
-0.726248,-0.194524,0.621283,-0.701974,0.294408,-0.648504
-0.733023,-0.163068,0.618837,0.558661,-0.290468,0.776869
-0.741416,-0.099299,0.625994,-0.131531,0.979807,0.150591
-0.748597,-0.065055,0.623946,-0.248164,0.127084,-0.960346
-0.754039,-0.045252,0.732720,0.907603,-0.364522,0.208282
-0.736147,-0.384615,0.635731,-0.466362,0.726327,0.504931
-0.765387,0.072562,0.755406,0.918493,0.127947,-0.374166
-0.770539,0.075636,0.745187,0.965923,0.257044,0.030355
-0.772222,0.005004,0.713095,-0.729262,0.248980,0.637327
-0.576920,-0.195309,0.830507,0.006180,0.996720,0.080687
-0.593364,-0.164569,0.805773,-0.613776,0.519399,-0.594562
-0.603210,-0.084572,0.816642,-0.558497,0.671803,-0.486582
-0.630711,0.132328,0.844289,0.260835,0.856030,0.446293
-0.636153,0.145411,0.837281,-0.176503,-0.952720,0.247329
-0.616292,-0.276309,0.707220,0.239070,0.665076,-0.707474
-0.643451,0.102303,0.802660,-0.143588,0.989072,0.033459
-0.648603,0.105877,0.792457,0.007172,-0.971164,0.238304
-0.650918,0.063054,0.769305,-0.261852,0.943811,0.201629
-0.662153,0.176651,0.790876,0.300898,0.594299,-0.745834
-0.638874,-0.234772,0.672948,-0.658834,0.405475,-0.633662
-0.546352,-0.123533,0.799998,-0.362551,-0.049285,-0.930660
-0.546235,-0.360023,0.699930,-0.582957,0.376439,-0.720038
-0.583115,0.157494,0.833936,-0.246425,0.967469,-0.057261
-0.589660,0.108307,0.797967,0.121965,-0.958463,0.257824
-0.537955,-0.747855,0.554904,0.117254,0.839753,0.530156
-0.599273,0.191308,0.810717,0.521237,-0.084528,-0.849216
-0.598460,0.094724,0.771701,-0.584597,0.163502,0.794678
-0.606161,0.145411,0.775230,-0.724422,0.279207,0.630283
-0.566962,-0.611453,0.545250,-0.365914,0.453117,-0.812891
-0.581380,-0.455319,0.578024,0.535129,0.612221,0.582085
-0.588155,-0.428869,0.573363,0.558503,0.492385,0.667556
-0.593887,-0.419716,0.564358,-0.376898,-0.697858,-0.609050
-0.619014,-0.064483,0.656603,0.448358,-0.522862,0.724976
-0.630421,0.048256,0.677792,0.739600,-0.410440,0.533414
-0.633376,-0.082786,0.615408,-0.056228,0.885236,0.461732
-0.639398,-0.069774,0.606886,-0.515303,0.770377,-0.375477
-0.642002,-0.271018,0.650628,-0.622343,0.757938,-0.195497
-0.659371,-0.049471,0.703142,0.734624,0.678240,0.017837
-0.665566,-0.034171,0.695668,0.763127,0.543937,-0.348955
-0.670083,-0.045540,0.680472,-0.194077,0.842543,-0.502449
-0.682416,0.085144,0.706770,0.440293,-0.823939,0.356745
-0.669330,-0.349372,0.555836,-0.452616,-0.787386,-0.418524
-0.689598,-0.066414,0.627225,0.382218,-0.523894,0.761212
-0.697238,-0.017514,0.630022,0.242548,-0.325957,0.913741
-0.498060,-0.353803,0.814362,0.195462,-0.872875,0.447083
-0.507209,-0.287532,0.821186,0.848898,0.309221,-0.428667
-0.526028,-0.145553,0.837947,0.915162,-0.031568,-0.401847
-0.528632,-0.179154,0.817608,0.292879,-0.880462,-0.372838
-0.519020,-0.404490,0.744388,0.874451,0.387264,0.292169
-0.527533,-0.344939,0.749764,0.938078,-0.165036,-0.304587
-0.434950,-0.515085,0.749880,0.313732,-0.302861,-0.899915
-0.464014,-0.159708,0.835184,-0.351555,0.031905,0.935623
-0.469573,-0.147198,0.827411,0.918477,0.358116,-0.167787
-0.479648,-0.065557,0.839129,0.934607,-0.000365,0.355682
-0.474785,-0.206534,0.789528,-0.705615,0.511121,-0.490777
-0.498639,0.081357,0.857871,-0.335100,0.895284,-0.293556
-0.468067,-0.381255,0.729757,-0.424101,-0.658802,-0.621385
-0.495222,-0.038604,0.813879,0.717765,-0.660181,0.221299
-0.518963,0.108093,0.821153,-0.273432,-0.852525,-0.445461
-0.529848,0.204747,0.837664,0.031827,0.036089,0.998842
-0.536389,0.236633,0.835983,-0.134637,0.374571,0.917371
-0.527706,0.024094,0.764162,-0.262808,0.711968,-0.651178
-0.486366,-0.715971,0.541272,0.351154,0.538946,0.765655
-0.532050,-0.142049,0.681887,-0.127458,0.097565,0.987034
-0.507382,-0.630754,0.528339,-0.139118,-0.227914,-0.963691
-0.568930,0.307265,0.789245,0.230044,0.040446,0.972339
-0.547507,-0.129467,0.650578,-0.768221,-0.213529,-0.603525
-0.555381,-0.083429,0.652043,0.921267,0.232600,0.311713
-0.571651,0.023378,0.659816,0.464897,-0.277728,0.840677
-0.576691,-0.066270,0.608900,0.152154,0.987961,0.027958
-0.391118,-0.478266,0.746585,0.076789,0.436074,0.896629
-0.398126,-0.443737,0.744920,-0.156395,0.457053,0.875582
-0.405187,-0.412497,0.742024,0.892744,-0.133089,-0.430460
-0.440682,0.039248,0.855574,0.078753,-0.542712,0.836219
-0.414973,-0.336646,0.751828,0.464866,-0.595812,0.654910
-0.422094,-0.302258,0.749814,-0.249701,-0.966947,0.051611
-0.445602,-0.025664,0.815261,-0.638179,0.649502,-0.413370
-0.449715,-0.033671,0.801712,-0.699933,0.297975,-0.649080
-0.461469,0.075209,0.821403,0.501053,0.689260,0.523323
-0.472004,0.166358,0.836183,0.568420,0.822595,-0.015354
-0.473859,0.124249,0.813147,-0.594980,0.020498,-0.803479
-0.483065,0.194310,0.822202,-0.163177,-0.453982,0.875941
-0.484861,0.076493,0.765909,0.569027,0.364945,0.736902
-0.492907,0.128110,0.769188,0.737251,0.069767,0.672007
-0.447224,-0.670217,0.527391,0.405354,0.457813,0.791262
-0.455387,-0.620103,0.529821,-0.415761,-0.175428,-0.892394
-0.530601,0.357736,0.779608,0.014833,0.034836,0.999283
-0.538185,0.401988,0.781089,-0.008089,-0.071566,0.997403
-0.501304,-0.292608,0.563759,-0.452939,-0.158156,-0.877401
-0.381566,-0.289033,0.853094,0.550584,-0.353823,0.756087
-0.386196,-0.285673,0.843390,0.155570,0.952229,0.262788
-0.398819,-0.238131,0.833986,0.562772,0.823128,0.075812
-0.317008,-0.377967,0.838047,-0.011312,0.275606,0.961204
-0.323492,-0.351159,0.834069,-0.314949,-0.153882,-0.936551
-0.332465,-0.289892,0.839445,0.986765,-0.079297,0.141442
-0.338720,-0.267157,0.834502,0.228984,0.910004,-0.345628
-0.525738,0.033316,0.648664,-0.038150,0.939377,0.340758
-0.524462,-0.069774,0.606220,-0.010165,0.952348,0.304844
-0.354411,-0.361596,0.753475,-0.129172,-0.300748,0.944915
-0.361472,-0.328567,0.751045,-0.142499,0.599906,0.787278
-0.375311,-0.263869,0.746368,-0.390368,0.844415,0.366847
-0.403162,0.073564,0.829675,-0.379881,-0.476324,0.792972
-0.406926,0.061553,0.815061,0.241065,0.970427,-0.012583
-0.412252,0.074637,0.807887,0.676788,0.319530,-0.663218
-0.383301,-0.495210,0.622948,-0.662824,0.538922,0.519834
-0.445255,0.292251,0.824931,-0.305619,0.928693,0.210063
-0.435470,0.075994,0.751844,0.340782,-0.450785,0.825021
-0.461063,0.327638,0.802045,-0.082858,0.937634,0.337605
-0.405074,-0.616172,0.515456,-0.455770,0.294037,-0.840129
-0.464190,0.005933,0.649829,-0.073240,0.945909,0.316056
-0.432519,-0.503432,0.498779,0.244592,0.548022,0.799904
-0.452549,-0.265156,0.556985,-0.597342,0.386156,-0.702899
-0.475365,0.027809,0.632535,-0.582037,0.608304,-0.539629
-0.263217,-0.265370,0.884436,0.705463,0.707887,-0.034886
-0.268659,-0.252358,0.876962,-0.104568,0.820314,0.562272
-0.267907,-0.318488,0.848334,-0.387013,0.134021,0.912283
-0.279138,-0.231484,0.860617,0.274233,-0.957731,-0.086878
-0.270105,-0.407135,0.802727,0.214475,0.842959,-0.493376
-0.295758,-0.241993,0.814412,-0.590775,-0.533081,-0.605648
-0.293093,-0.401058,0.748066,0.110928,-0.202393,0.973002
-0.338950,0.044538,0.838131,-0.359038,0.458828,0.812754
-0.343756,0.049113,0.828177,0.228838,0.971568,-0.060730
-0.295871,-0.620461,0.641124,-0.197341,-0.646913,0.736587
-0.353079,0.118888,0.836932,-0.172644,-0.306047,0.936231
-0.332409,-0.236846,0.725629,-0.590520,0.806558,0.027380
-0.330553,-0.329710,0.687679,-0.002574,-0.784083,0.620651
-0.325691,-0.468259,0.636496,-0.388134,-0.689746,0.611230
-0.388281,0.305978,0.834752,-0.171539,0.184282,0.967788
-0.381103,0.066844,0.743555,0.363942,0.759154,0.539658
-0.413178,0.338433,0.787813,-0.443451,0.889603,0.109354
-0.351110,-0.597656,0.514108,-0.579441,0.587454,-0.564929
-0.426727,0.410066,0.786798,0.200432,0.156914,-0.967060
-0.365296,-0.530311,0.509597,0.130760,0.521414,0.843226
-0.443170,0.592295,0.829192,0.335863,0.301431,-0.892376
-0.448499,0.606520,0.822518,-0.087482,-0.190453,0.977791
-0.378439,-0.481268,0.499195,0.086084,-0.158343,0.983624
-0.452899,0.602230,0.809718,0.450984,-0.064889,0.890170
-0.416249,0.028167,0.638344,0.372684,0.449033,0.812081
-0.415899,-0.055619,0.600993,0.468457,0.591918,0.655882
-0.427479,0.050758,0.620618,-0.372701,0.411463,-0.831740
-0.433328,-0.009151,0.578690,-0.181554,0.581225,0.793231
-0.511146,0.471047,0.604505,0.815368,0.190632,0.546658
-0.213597,-0.067200,0.951331,0.273623,-0.300473,0.913700
-0.198482,-0.307263,0.877179,-0.302542,-0.939088,0.163041
-0.201843,-0.319989,0.862798,0.249132,0.938825,-0.237785
-0.206589,-0.315270,0.853061,-0.088092,-0.924642,0.370509
-0.215795,-0.251143,0.859569,0.818862,0.349627,0.455220
-0.222686,-0.216685,0.858171,-0.323476,0.328048,-0.887551
-0.240289,-0.048900,0.892409,0.740730,0.568025,-0.358701
-0.245848,-0.030669,0.886833,0.909552,0.238542,0.340312
-0.232065,-0.265584,0.811915,0.557806,0.081629,0.825947
-0.248569,-0.107592,0.843790,0.905462,-0.417698,-0.075275
-0.273812,0.165500,0.907589,0.869323,-0.229226,0.437874
-0.250827,-0.192021,0.798583,-0.623847,-0.781072,-0.027244
-0.224944,-0.592437,0.676843,-0.780668,0.460130,0.422892
-0.293323,0.258722,0.901497,0.767313,0.364668,0.527492
-0.294655,0.219975,0.880192,-0.707376,-0.537044,0.459568
-0.298709,0.214613,0.867641,0.869154,0.492485,-0.045061
-0.244165,-0.521876,0.661281,-0.672954,0.322733,0.665565
-0.299345,0.163783,0.842208,-0.045713,-0.271773,0.961275
-0.280993,-0.208035,0.714660,0.047458,0.380142,0.923710
-0.303861,-0.015513,0.746618,0.747443,0.342021,0.569517
-0.334840,0.356663,0.842242,-0.273013,-0.181523,0.944729
-0.337734,0.334573,0.824582,0.763623,0.447365,0.465558
-0.323316,0.064555,0.735017,0.347640,0.748116,0.565216
-0.354641,0.446955,0.834502,-0.348651,0.907325,-0.234954
-0.357825,0.431729,0.819222,0.400688,0.834731,0.377721
-0.357072,0.357878,0.786615,0.048297,0.017889,0.998673
-0.295062,-0.542321,0.522664,0.325605,0.771754,0.546239
-0.366918,0.435660,0.797967,0.773381,-0.340309,0.534856
-0.299578,-0.548399,0.508149,-0.538826,-0.638008,-0.550103
-0.376527,0.513012,0.809785,-0.310248,-0.201471,-0.929062
-0.305600,-0.531099,0.501059,-0.345584,-0.369529,-0.862566
-0.379538,0.491278,0.791791,0.604929,-0.324860,0.726998
-0.322853,-0.424078,0.507267,0.229409,-0.322842,0.918229
-0.397140,0.619104,0.806905,-0.530914,0.127914,-0.837716
-0.337445,-0.279955,0.537660,0.162129,0.246124,0.955582
-0.342424,-0.278382,0.525992,0.495196,-0.018846,0.868577
-0.369406,0.060194,0.615957,-0.517771,0.462866,-0.719492
-0.370855,0.007650,0.587661,-0.520073,0.736478,0.432578
-0.146547,-0.290678,0.891943,-0.240095,-0.769909,0.591265
-0.179027,0.004718,0.948601,-0.189557,0.152880,0.969895
-0.187484,0.010438,0.929560,0.491234,-0.656822,-0.572079
-0.186152,-0.059479,0.899866,0.346310,0.733892,-0.584355
-0.180823,-0.177436,0.857471,0.234798,-0.534211,0.812089
-0.201493,0.027381,0.901963,0.827394,-0.560634,0.033284
-0.203175,-0.004074,0.882455,-0.615628,0.753061,-0.232166
-0.216954,0.116744,0.904459,0.757948,0.649119,0.064492
-0.211222,-0.009865,0.859186,0.796076,-0.391005,0.461929
-0.227899,0.152345,0.893224,-0.689620,-0.603488,-0.400284
-0.228764,0.108165,0.870038,0.721294,0.578403,-0.381031
-0.236292,0.152916,0.871852,0.945104,0.144349,-0.293159
-0.182328,-0.552045,0.675845,0.961234,-0.076431,0.264931
-0.246714,0.233129,0.883104,0.560910,0.305796,-0.769330
-0.191534,-0.491850,0.680705,0.986350,-0.136741,0.091740
-0.194662,-0.511367,0.663344,-0.390950,0.556690,0.732977
-0.223729,-0.187232,0.742606,-0.372244,0.909725,0.183940
-0.260552,0.246498,0.854059,0.380082,0.888849,0.255901
-0.210875,-0.478552,0.637495,-0.610003,0.735340,-0.295249
-0.227086,-0.322061,0.670086,0.543195,0.764013,-0.348170
-0.255167,-0.061481,0.721451,0.894111,-0.072246,0.441979
-0.265125,0.012655,0.731105,-0.656117,-0.365246,-0.660383
-0.293383,0.342294,0.814894,0.822629,-0.462952,0.330086
-0.302935,0.413570,0.824532,-0.335105,-0.756004,-0.562283
-0.308841,0.436731,0.820371,-0.158583,0.916258,-0.367861
-0.307915,0.361382,0.786865,0.251586,-0.368011,-0.895138
-0.266748,-0.222406,0.615574,-0.403863,0.056870,0.913050
-0.313936,0.384903,0.782670,-0.657038,-0.216483,-0.722105
-0.332582,0.588578,0.831306,0.554027,-0.210852,-0.805354
-0.327313,0.448813,0.778393,0.646384,0.044625,0.761706
-0.261305,-0.506435,0.494584,-0.633924,0.153287,-0.758053
-0.345318,0.582857,0.795703,0.948068,0.309703,0.072466
-0.286665,-0.277738,0.537877,-0.197119,-0.921255,0.335311
-0.352499,0.625394,0.797351,0.848880,0.186992,0.494405
-0.289736,-0.301902,0.518369,0.586069,0.686436,0.430499
-0.354814,0.592723,0.775913,0.912369,0.395856,0.104308
-0.324129,0.066128,0.604922,-0.597530,0.371151,-0.710778
-0.332988,0.126252,0.610764,-0.720940,0.339442,-0.604172
-0.090441,-0.425507,0.898367,0.434830,0.864033,-0.253712
-0.100980,-0.349658,0.907239,-0.729147,0.430959,0.531619
-0.100806,-0.400415,0.883504,0.889172,0.440934,0.122274
-0.119855,-0.222619,0.919307,0.846519,0.338993,-0.410473
-0.123502,-0.229267,0.906707,0.926276,0.371313,0.064334
-0.150137,-0.003003,0.945572,0.356285,0.060651,0.932407
-0.156968,0.031599,0.944523,0.245077,0.387576,0.888663
-0.151699,-0.086503,0.902113,0.669462,0.736016,-0.100502
-0.162817,0.002503,0.915595,0.330113,-0.933059,0.142922
-0.151353,-0.196310,0.850980,0.270892,-0.787961,0.552933
-0.178218,0.089863,0.917492,0.768834,-0.502024,-0.396064
-0.176483,0.011795,0.885385,0.804703,-0.563336,0.187363
-0.183487,0.048900,0.884969,0.956344,-0.234948,0.173795
-0.191941,0.105305,0.889979,0.862911,0.040606,0.503723
-0.164842,-0.245281,0.793639,-0.628479,0.775786,-0.056312
-0.169475,-0.243136,0.782820,-0.606176,0.795318,-0.004393
-0.211395,0.193594,0.881939,0.127464,-0.175696,0.976158
-0.219965,0.250502,0.886783,-0.491914,0.544591,-0.679295
-0.168549,-0.492280,0.667189,-0.576443,0.417624,-0.702356
-0.221700,0.159136,0.839212,0.291773,0.025336,0.956152
-0.181286,-0.382542,0.686597,-0.746781,-0.495421,0.443707
-0.230097,0.215828,0.844472,0.279029,-0.383524,0.880370
-0.186035,-0.377610,0.676577,-0.628008,-0.628306,0.459171
-0.202998,-0.213112,0.711398,-0.595999,-0.086844,-0.798275
-0.209773,-0.181440,0.709051,0.158199,-0.055042,-0.985872
-0.216837,-0.147198,0.707037,0.098576,0.245793,0.964297
-0.263390,0.371461,0.833087,0.887956,-0.216894,0.405574
-0.243646,0.035316,0.724730,0.703101,0.177081,0.688688
-0.276127,0.431227,0.828626,-0.447031,0.856391,-0.258376
-0.280240,0.424721,0.815344,0.680416,-0.704703,0.201064
-0.238493,-0.232627,0.611363,-0.403863,0.056870,0.913050
-0.284696,0.363169,0.774747,0.334372,0.557433,0.759910
-0.305890,0.604661,0.834602,-0.070416,-0.022343,0.997267
-0.243066,-0.377895,0.531002,0.791125,0.606288,-0.080842
-0.306526,0.484988,0.776478,0.694729,0.033656,0.718483
-0.241561,-0.470046,0.491288,0.784478,0.019386,0.619854
-0.313590,0.525594,0.777427,0.738034,0.104124,0.666681
-0.256616,-0.318202,0.524445,0.836893,0.542973,-0.069215
-0.321581,0.576995,0.781255,0.947427,0.120768,0.296306
-0.261768,-0.315700,0.512444,-0.708455,-0.526997,-0.469432
-0.334317,0.702246,0.807954,-0.751169,0.301543,-0.587210
-0.288750,0.018373,0.601160,-0.711025,0.368173,-0.599076
-0.337501,0.682729,0.790477,0.777246,-0.573680,0.258418
-0.339586,0.643768,0.766925,-0.467086,0.628134,0.622316
-0.303805,0.096441,0.600045,-0.854689,0.157274,-0.494745
-0.309537,0.109738,0.591589,-0.537675,-0.738714,-0.406457
-0.065661,-0.381827,0.927229,0.303418,0.912654,-0.273863
-0.070814,-0.370674,0.919340,-0.309673,0.947395,-0.080908
-0.076312,-0.353303,0.913564,0.725772,-0.640526,-0.250960
-0.081525,-0.341937,0.905758,-0.466589,0.549123,0.693368
-0.092003,-0.265869,0.914846,0.338563,0.687554,-0.642374
-0.093219,-0.305118,0.893724,0.449678,0.892917,-0.022110
-0.100690,-0.264155,0.894073,-0.655021,0.738761,-0.158682
-0.102079,-0.299042,0.874249,-0.300564,0.950102,-0.083468
-0.126629,-0.044109,0.931157,-0.607692,0.012741,-0.794070
-0.136125,0.024163,0.939047,0.411043,0.461863,0.785956
-0.143129,0.059123,0.937682,0.149872,0.837121,0.526086
-0.127845,-0.191735,0.859236,0.810813,0.560183,0.169638
-0.131725,-0.197741,0.846519,-0.297090,0.749932,-0.591050
-0.161658,0.134258,0.926098,0.979260,0.174814,-0.102424
-0.160905,0.013155,0.871603,0.573033,0.813262,0.101184
-0.159749,-0.058050,0.841343,-0.369157,0.590284,-0.717836
-0.177988,0.124892,0.880691,0.778107,-0.192642,0.597862
-0.178914,0.078996,0.856906,0.970862,-0.175012,-0.163699
-0.193100,0.210182,0.882355,0.316121,-0.352328,0.880870
-0.202825,0.284746,0.892609,0.196794,-0.363316,0.910645
-0.139655,-0.568200,0.653824,0.151835,-0.124621,0.980518
-0.200221,0.192379,0.856040,0.846042,0.363491,0.389983
-0.202306,0.160568,0.835883,-0.480761,-0.053075,-0.875244
-0.187368,-0.169002,0.719920,0.819565,-0.357794,-0.447545
-0.201146,-0.106734,0.714244,-0.471148,0.063906,0.879736
-0.237741,0.346370,0.833520,0.797152,-0.499980,0.338480
-0.206359,-0.096369,0.705938,-0.487221,-0.549476,-0.678742
-0.243183,0.363383,0.827611,0.703942,-0.290975,-0.647919
-0.224248,0.028025,0.718838,0.341341,0.841157,0.419454
-0.250304,0.338863,0.798133,0.873547,-0.482423,0.064685
-0.260899,0.423722,0.811366,0.468599,-0.864818,0.180292
-0.265822,0.363383,0.770570,-0.791793,-0.209058,-0.573898
-0.286725,0.606878,0.831606,0.052678,0.297466,-0.953278
-0.285912,0.461611,0.765742,-0.630396,0.005318,-0.776255
-0.225234,-0.451602,0.492537,0.873579,-0.064252,0.482423
-0.230793,-0.441950,0.483049,-0.718424,0.242045,-0.652136
-0.244805,-0.306192,0.511079,0.063091,0.870479,0.488145
-0.250650,-0.294037,0.501941,0.085835,0.960766,0.263746
-0.316255,0.646126,0.775097,0.772439,-0.430209,-0.467181
-0.276127,0.023164,0.585547,0.768865,0.044445,0.637865
-0.285393,0.091078,0.594286,0.359386,0.877575,0.317338
-0.327659,0.683015,0.763778,-0.331444,0.695584,0.637423
-0.290489,0.096155,0.583783,0.990280,0.062626,0.124188
-0.333914,0.707179,0.759434,0.600700,-0.568234,-0.562379
-0.339530,0.725337,0.753759,0.600700,-0.568234,-0.562379
-0.310056,0.173935,0.570567,-0.798927,-0.514311,-0.311769
-0.053847,-0.363954,0.911234,0.461865,0.688454,0.559207
-0.063866,-0.294251,0.918474,0.978783,-0.109761,0.173022
-0.071333,-0.252574,0.919057,0.334592,-0.533058,0.777108
-0.074228,-0.268946,0.904326,0.217173,0.927503,0.304261
-0.080076,-0.251501,0.898084,0.780615,-0.419782,-0.463059
-0.081928,-0.282457,0.879359,-0.126755,0.990416,0.054848
-0.108334,-0.000571,0.943508,-0.444145,0.020433,-0.895722
-0.086042,-0.342866,0.841176,-0.355292,0.515542,0.779733
-0.122286,0.067773,0.940345,0.359034,0.884349,0.298366
-0.125180,0.051688,0.925665,0.540513,0.765825,0.348365
-0.108447,-0.222118,0.841060,-0.127691,-0.785434,0.605630
-0.138846,0.119604,0.923002,0.774604,0.580392,0.251264
-0.143246,0.003861,0.858920,-0.369480,-0.913557,0.169996
-0.132651,-0.199312,0.791575,-0.522511,0.828703,-0.200583
-0.164669,0.174722,0.884336,-0.278401,0.693914,-0.664061
-0.170807,0.199744,0.880741,0.210816,-0.280297,0.936478
-0.180823,0.276952,0.891294,0.389503,-0.423131,0.818075
-0.175440,0.143051,0.843024,0.478729,0.731740,0.485154
-0.180999,0.157349,0.835800,0.041537,-0.558973,0.828145
-0.136471,-0.462467,0.660815,0.119298,-0.085376,0.989181
-0.151120,-0.459465,0.625977,-0.748328,0.207622,-0.629999
-0.181286,-0.095509,0.718705,-0.709503,0.203219,0.674765
-0.192347,-0.004074,0.733202,-0.228635,-0.660749,-0.714938
-0.190898,-0.091364,0.696700,0.513130,-0.839414,-0.179113
-0.202362,0.006005,0.713045,0.417109,0.676536,0.606893
-0.238783,0.472262,0.837248,0.716979,-0.534069,0.448009
-0.190089,-0.244138,0.628191,-0.423183,-0.165520,0.890797
-0.242374,0.457106,0.821419,-0.599003,0.800716,-0.007074
-0.245325,0.433729,0.803593,0.791885,-0.596481,0.130877
-0.249898,0.435802,0.793156,0.847758,-0.519626,0.106277
-0.263157,0.566844,0.820437,-0.056125,-0.750169,0.658860
-0.258874,0.433873,0.769837,0.782036,0.475143,0.403311
-0.264143,0.442594,0.760766,0.666092,0.353631,0.656708
-0.212091,-0.438376,0.484331,-0.454814,-0.065083,-0.888205
-0.230849,-0.303046,0.499893,-0.477807,-0.200565,-0.855262
-0.254474,-0.006363,0.577791,0.507057,0.305117,0.806100
-0.307742,0.765443,0.801013,0.903163,-0.332384,0.271693
-0.262521,0.041536,0.579821,0.803094,0.287626,0.521835
-0.269875,0.079568,0.579439,0.896652,0.063048,0.438223
-0.314170,0.718760,0.763745,-0.667909,0.464252,0.581694
-0.275434,0.088434,0.569552,0.894302,0.382569,0.232089
-0.289563,0.153704,0.564442,0.855370,0.433748,0.283206
-0.030572,-0.429082,0.895438,0.941281,0.018985,0.337089
-0.038852,-0.378325,0.898234,0.897668,0.157248,0.411662
-0.053444,-0.247641,0.921737,-0.421472,0.521290,-0.742036
-0.059639,-0.222476,0.917958,-0.268025,0.245456,-0.931619
-0.069365,-0.154703,0.925116,0.722987,-0.629502,-0.284634
-0.073072,-0.164427,0.911716,0.266601,-0.961182,-0.071088
-0.074634,-0.200957,0.891127,-0.747032,0.393828,-0.535578
-0.095014,0.010008,0.936966,0.330863,0.388387,0.860050
-0.100227,0.022948,0.930059,0.566661,0.660471,0.492618
-0.107291,0.058407,0.928827,0.538247,0.812619,0.223474
-0.111748,0.062197,0.919489,0.659298,0.738999,0.138589
-0.115455,0.052117,0.905858,-0.169784,0.985098,0.027484
-0.116554,0.006577,0.882522,-0.598510,0.740876,0.304775
-0.120607,0.000787,0.869855,-0.047383,-0.997117,0.059273
-0.124834,-0.002215,0.858420,-0.100494,-0.944495,0.312779
-0.130623,0.017158,0.853061,-0.613199,-0.789804,-0.014005
-0.144695,0.150272,0.878893,0.360090,-0.464382,0.809126
-0.151759,0.188520,0.878976,0.187847,-0.361950,0.913075
-0.090095,-0.671504,0.639210,-0.210233,0.671656,-0.710409
-0.155579,0.115529,0.836283,0.400359,0.794615,0.456399
-0.196340,0.631470,0.970672,-0.080275,-0.482177,0.872388
-0.133058,-0.475336,0.622765,-0.745380,0.270355,-0.609358
-0.139945,-0.446741,0.619236,-0.644277,0.210498,-0.735253
-0.172140,-0.044181,0.723032,0.153608,-0.169336,0.973514
-0.178914,-0.015369,0.719570,-0.480110,-0.327136,-0.813927
-0.163453,-0.318272,0.619685,-0.530664,-0.301696,0.792070
-0.219502,0.454390,0.833370,0.591993,-0.658021,0.465352
-0.173295,-0.241707,0.630238,-0.458531,-0.306681,0.834084
-0.223785,0.453033,0.822035,-0.599003,0.800716,-0.007074
-0.230503,0.483773,0.819621,0.699504,-0.705876,-0.111501
-0.233977,0.467188,0.803859,0.921812,-0.383313,0.057731
-0.244688,0.413784,0.753226,-0.436056,-0.893538,-0.106979
-0.202306,-0.414284,0.480619,-0.551180,0.177494,-0.815289
-0.236002,-0.033527,0.570966,0.080528,0.893754,0.441269
-0.245325,0.035244,0.579355,0.436871,-0.229760,0.869686
-0.252562,0.071347,0.577807,0.698237,0.094352,0.709622
-0.256672,0.051760,0.559215,0.797420,0.593128,0.110997
-0.303052,0.753217,0.764061,-0.711152,0.376946,0.593443
-0.263680,0.087505,0.558083,0.905112,0.404459,0.131093
-0.271381,0.133115,0.559981,0.808776,0.403967,0.427425
-0.098488,-0.433871,0.654356,-0.055284,0.767537,0.638616
-0.112850,-0.440521,0.616573,-0.487866,0.111061,-0.865825
-0.122922,-0.364240,0.626343,-0.713916,-0.198760,-0.671430
-0.129930,-0.331211,0.624180,0.534890,0.536042,-0.653109
-0.153032,-0.055475,0.692689,0.314745,-0.096462,0.944262
-0.162294,0.011224,0.700163,0.782023,0.039757,0.621980
-0.151409,-0.227051,0.618803,-0.539325,-0.328320,0.775457
-0.209370,0.516372,0.814162,0.958142,-0.133808,-0.253099
-0.217474,0.426724,0.753575,-0.421497,-0.902981,-0.083463
-0.176366,-0.393409,0.482533,-0.789511,0.404776,-0.461334
-0.208617,0.047540,0.603407,-0.470741,-0.840743,0.267497
-0.193969,-0.277524,0.491888,-0.548526,-0.586189,-0.596240
-0.031555,-0.219116,0.914929,-0.769246,0.301026,-0.563600
-0.031961,-0.271662,0.890145,0.005856,-0.867931,0.496650
-0.047479,-0.126538,0.918274,-0.083095,-0.996357,0.019190
-0.047942,-0.176795,0.894389,-0.294107,0.746548,-0.596797
-0.046090,-0.259436,0.861433,0.773497,-0.585208,0.243382
-0.047479,-0.298828,0.840211,-0.606966,0.579200,0.544169
-0.053155,-0.284172,0.832970,-0.707841,0.674273,0.210513
-0.059812,-0.255146,0.829658,0.083396,0.813049,0.576191
-0.093682,0.082428,0.899849,-0.030606,-0.996378,-0.079330
-0.098315,0.086861,0.890511,0.912405,-0.333382,-0.237432
-0.100746,-0.003503,0.843856,-0.537860,0.787084,-0.302003
-0.091601,-0.196454,0.778942,-0.366128,0.426117,-0.827269
-0.156449,0.529098,0.949084,0.680971,0.054890,0.730250
-0.127962,0.123749,0.834901,0.305564,0.745860,-0.591882
-0.133231,0.135116,0.827262,-0.077027,-0.560237,0.824743
-0.031442,-0.239205,0.821619,-0.126436,0.989734,0.066641
-0.076373,0.310267,0.960868,0.322262,0.544703,-0.774239
-0.216664,0.012297,0.567638,-0.254787,0.831921,0.492942
-0.223032,0.035674,0.562661,0.496891,0.837798,0.226261
-0.229517,0.059551,0.557867,0.870449,0.488423,0.061333
-0.234903,0.062197,0.545966,0.770811,0.600187,0.213603
-0.242430,0.105019,0.546982,0.865139,0.330266,0.377438
0.016387,-0.396697,0.866793,0.318416,0.671316,0.669287
-0.005096,-0.174363,0.915095,0.231995,0.386252,0.892742
-0.004690,-0.239490,0.886933,0.899539,-0.288674,-0.327868
-0.013956,-0.174434,0.893774,-0.272385,-0.923532,0.269992
-0.015634,-0.211467,0.872851,-0.570837,0.820340,-0.034472
-0.018066,-0.239563,0.854226,-0.595936,0.752071,-0.281512
-0.022872,-0.235917,0.844056,-0.489468,0.871122,-0.039595
-0.054483,0.130541,0.932922,-0.529171,0.495995,-0.688453
-0.021020,-0.506363,0.725945,-0.533994,0.198457,-0.821867
-0.075213,0.110809,0.873667,-0.780440,0.299342,-0.548915
-0.079786,0.111381,0.862681,0.574846,0.288317,0.765784
-0.085405,0.129611,0.857072,-0.666402,-0.547931,-0.505648
-0.085579,0.068988,0.829309,-0.083905,0.027245,0.996101
-0.120491,0.501574,0.939946,-0.527284,0.067854,-0.846976
-0.047885,-0.534244,0.647898,0.939949,-0.091918,0.328704
-0.125876,0.517443,0.934004,-0.656681,-0.043155,-0.752933
-0.059812,-0.430511,0.665675,-0.407946,-0.395332,-0.822978
-0.136182,0.602089,0.947170,0.066452,-0.006361,0.997769
-0.064732,-0.430869,0.653541,-0.712550,-0.042629,-0.700325
-0.141801,0.619390,0.941261,0.197729,0.168781,0.965617
-0.072665,-0.387547,0.653840,0.195711,0.412854,0.889522
-0.154943,0.682085,0.937932,-0.263898,-0.929782,-0.256638
-0.159573,0.688019,0.929143,-0.832617,-0.178222,-0.524391
-0.085635,-0.412211,0.611247,-0.598933,0.022380,-0.800486
-0.113486,-0.069272,0.698548,-0.716225,0.548916,-0.430944
-0.127438,-0.002573,0.694686,-0.641659,-0.018671,-0.766763
-0.140062,0.041464,0.683668,-0.463700,-0.790611,-0.399895
-0.162761,0.319561,0.754358,-0.646609,-0.754969,-0.109170
-0.170284,0.363383,0.756122,0.660073,0.606980,0.442581
-0.176076,0.379612,0.749248,0.672960,0.732061,0.105886
-0.181575,0.393695,0.742124,0.498784,0.863606,0.073479
-0.170751,-0.022876,0.579821,0.254326,0.866255,0.430024
-0.165538,-0.273521,0.478871,0.868474,0.120426,0.480886
-0.185979,-0.106876,0.504721,0.938734,0.307162,0.156304
-0.199468,0.033244,0.535214,0.833330,0.522226,0.181220
-0.205083,0.039749,0.524428,0.893991,0.278372,0.351126
0.035262,-0.316271,0.869822,0.116042,-0.060257,0.991415
0.028604,-0.347441,0.839229,0.152449,0.734788,0.660943
0.015691,-0.234344,0.858970,0.094850,-0.978403,0.183658
0.016154,-0.298185,0.830990,0.001834,0.665427,0.746461
-0.017313,0.090007,0.925149,0.680227,-0.388593,0.621519
-0.026692,0.158423,0.933338,0.152676,-0.734870,0.660799
0.003530,-0.250072,0.822002,-0.228925,0.688445,0.688213
-0.001389,-0.245211,0.812098,-0.057234,-0.995766,0.071928
-0.047479,0.322635,0.956890,-0.260249,-0.534436,0.804144
-0.055586,0.374036,0.960352,-0.206358,0.548721,0.810137
-0.051939,0.077137,0.835018,-0.176984,0.130969,-0.975461
-0.070524,0.211611,0.850398,0.456952,0.095408,0.884360
-0.097622,0.536389,0.931407,-0.739944,-0.029560,-0.672018
-0.096230,0.454820,0.897669,0.913561,0.037138,0.405003
-0.036248,-0.418143,0.648697,-0.415954,-0.094536,-0.904458
-0.111458,0.613669,0.932489,-0.487822,-0.754475,-0.439086
-0.119218,0.662212,0.935519,-0.137704,-0.954928,-0.262965
-0.057148,-0.400415,0.606003,0.153163,0.936271,0.316130
-0.088066,-0.009437,0.707503,0.441454,0.816632,0.371795
-0.092293,-0.019087,0.692739,0.330561,0.788563,0.518553
-0.097909,-0.005217,0.685299,-0.433534,-0.658808,-0.614833
-0.103931,0.015157,0.679756,0.354632,0.773815,0.524830
-0.114469,0.101945,0.693338,0.735396,-0.224926,0.639219
-0.129467,0.261510,0.729224,0.147082,-0.239895,0.959592
-0.140235,0.354590,0.745136,-0.418249,-0.864430,-0.278979
-0.146314,0.374608,0.739361,-0.331407,-0.936748,-0.112577
-0.140641,-0.033385,0.568087,0.208293,0.919392,0.333666
-0.127901,-0.327494,0.465922,0.746411,-0.089442,0.659447
-0.137051,-0.264155,0.472297,0.801592,0.066186,0.594197
-0.148861,-0.154276,0.493136,0.959975,0.279736,0.014004
-0.161255,-0.034601,0.517271,0.777536,0.056177,0.626324
-0.167100,-0.021231,0.508965,0.846806,-0.000931,0.531900
-0.175670,0.038032,0.515024,0.795274,0.144487,0.588781
0.018066,-0.032384,0.955991,-0.433238,0.229477,0.871576
0.086907,-0.442164,0.873034,-0.392533,-0.204508,-0.896713
0.080482,-0.418287,0.868241,0.280266,0.593060,0.754805
0.048695,-0.062553,0.951347,0.372740,0.715954,-0.590317
0.054889,-0.201815,0.903611,-0.011138,-0.852061,0.523324
0.026346,0.116744,0.978112,0.517644,-0.822554,0.235476
-0.182445,-0.025379,0.469617,0.201607,0.952093,-0.229943
-0.188120,-0.020160,0.458099,-0.489695,-0.803095,-0.339467
0.021423,-0.235701,0.807354,-0.302738,0.941935,-0.145285
-0.025013,0.347227,0.957107,-0.097656,-0.071733,0.992632
0.017716,-0.246140,0.793556,0.025421,0.986103,0.164177
0.005442,-0.205463,0.782354,-0.328999,-0.927057,-0.179793
-0.019628,0.082500,0.851196,-0.590034,0.120113,-0.798394
-0.046843,0.405134,0.930409,-0.125673,-0.476490,0.870152
-0.003937,-0.207177,0.758802,0.654197,0.226978,0.721462
-0.031615,0.122034,0.839812,0.800690,0.110133,0.588869
-0.042326,0.212970,0.854692,0.397031,0.059037,0.915904
-0.074924,0.622534,0.960103,0.999204,-0.019276,0.034918
-0.076546,0.581500,0.937582,-0.748280,0.631827,-0.202166
-0.093396,0.632757,0.919972,0.409922,0.813317,0.412891
-0.097679,0.628754,0.907805,0.637751,0.705542,0.309005
-0.104916,0.671648,0.909636,0.974720,-0.183967,0.126792
-0.034682,-0.396697,0.598846,-0.018321,0.938847,0.343847
-0.065891,0.007151,0.704939,0.036988,0.992109,0.119799
-0.108390,0.519374,0.832305,0.518490,0.658331,-0.545682
-0.075097,0.000001,0.679373,-0.395392,-0.664884,-0.633715
-0.081582,0.024022,0.674380,-0.333249,-0.724641,-0.603192
-0.116900,0.352660,0.736831,0.050792,-0.672527,0.738327
-0.113370,-0.027379,0.574162,0.306235,0.874668,0.375734
-0.107231,-0.308264,0.462593,0.865922,0.089349,0.492134
-0.113603,-0.288175,0.456168,0.893327,0.082906,0.441693
-0.130276,-0.091650,0.504404,0.837506,0.063987,0.542668
-0.136068,-0.083499,0.493918,0.888532,0.322558,0.326293
-0.143825,-0.037461,0.495799,0.980517,0.121138,0.154632
-0.153378,0.037175,0.506135,0.897032,0.007070,0.441910
-0.155463,-0.021589,0.474660,-0.243071,-0.954692,0.171695
-0.158937,-0.054976,0.451091,-0.247788,-0.939765,0.235462
-0.180476,0.046827,0.444816,-0.551682,-0.822500,-0.138349
-0.230386,-0.073062,0.269698,-0.121036,0.094208,0.988168
0.029357,0.020590,0.942160,0.916658,-0.115856,0.382513
0.036304,-0.188947,0.864545,-0.136001,-0.989996,-0.037569
0.002025,0.214185,0.962766,0.668779,-0.368493,0.645715
0.003241,0.136833,0.931024,-0.407611,0.908935,0.087693
0.032368,-0.259294,0.823167,-0.715958,0.572902,0.398983
-0.000523,0.127897,0.917775,0.830401,-0.094564,0.549082
-0.015461,0.273593,0.947186,0.449210,0.732041,-0.512177
0.085229,-0.017014,0.989248,0.975869,-0.174297,0.131530
0.081002,-0.019658,0.977979,0.810709,-0.580425,0.076541
0.079440,-0.054546,0.958455,-0.405579,-0.641128,0.651506
0.072605,-0.020232,0.957273,0.004805,0.449921,0.893056
0.070754,-0.056047,0.937100,-0.153634,-0.964556,0.214541
0.058074,0.055977,0.956657,0.885826,0.168283,0.432426
0.056395,0.019302,0.936068,0.887998,0.199280,0.414423
0.038273,0.143694,0.948085,0.983058,0.183294,-0.000043
0.027501,0.232843,0.962000,0.687561,-0.237902,0.686049
0.018468,0.298615,0.969657,0.963671,-0.003236,0.267071
0.056858,-0.229983,0.825347,-0.405362,0.907647,0.108900
0.013199,0.310695,0.962350,0.970929,0.233993,-0.050449
0.008047,0.323348,0.955559,0.734833,0.648258,-0.199456
0.004746,0.306979,0.940262,0.972081,0.178301,-0.152538
0.002258,0.278453,0.921570,0.968481,-0.011084,0.248840
0.039199,-0.243852,0.776595,-0.405977,-0.894371,-0.187837
0.033350,-0.228623,0.769305,0.514247,0.835705,0.192737
-0.012334,0.358952,0.922519,0.812949,0.517526,-0.266985
0.034276,-0.308550,0.735732,0.872152,-0.094419,0.480038
-0.022236,0.438948,0.934486,0.066983,-0.502324,0.862081
0.022232,-0.202317,0.754308,0.894381,0.237954,0.378763
-0.005792,0.134902,0.837764,0.755227,0.532210,0.382602
-0.042616,0.608237,0.961051,0.973232,-0.089392,-0.211728
-0.012507,0.167859,0.836283,0.613802,0.252434,0.748013
-0.048578,0.629469,0.956291,0.961432,-0.245191,0.124619
-0.055815,0.671004,0.957323,0.998250,0.049306,0.032652
-0.055469,0.599087,0.925865,-0.004937,0.341962,0.939701
-0.063806,0.658422,0.932373,0.979263,0.198809,-0.038979
-0.064965,0.608808,0.907555,0.179842,0.983695,-0.000650
-0.061548,0.486276,0.860884,0.721059,0.421101,-0.550225
-0.082797,0.745640,0.925681,0.504560,0.844373,-0.180148
-0.009089,-0.389620,0.594619,-0.281905,0.939820,0.193052
-0.087374,0.746070,0.914812,0.055127,-0.837277,0.543992
-0.077238,0.515371,0.835850,0.534300,0.838557,-0.106517
-0.049504,0.003719,0.673365,-0.383175,-0.562536,-0.732619
-0.077935,0.303118,0.739161,-0.135298,0.431693,-0.891816
-0.083434,0.312697,0.730206,-0.394529,0.227064,-0.890387
-0.091078,0.360380,0.733086,0.509184,-0.421276,0.750505
-0.088183,-0.285245,0.450342,-0.765600,-0.184378,-0.616329
-0.094958,-0.263655,0.443851,0.878649,0.141506,0.456017
-0.104683,-0.188875,0.453921,0.756885,-0.092355,0.646990
-0.117190,-0.062483,0.480253,0.880713,0.332794,0.337035
-0.127438,0.027595,0.496016,0.856001,-0.054330,0.514111
-0.128831,-0.040962,0.461794,-0.191057,-0.976972,-0.094990
-0.132651,-0.071705,0.438808,0.638146,0.717761,-0.278546
-0.138729,-0.056834,0.430718,0.251722,0.932520,-0.258927
-0.162701,-0.127894,0.341103,-0.309789,-0.941899,-0.129832
-0.206995,-0.041534,0.272827,0.259626,-0.041649,-0.964811
-0.217360,0.055905,0.291352,-0.188045,-0.723686,0.664017
-0.221643,0.025165,0.267234,0.891140,-0.015895,-0.453449
-0.014765,0.447171,0.899533,0.946750,-0.309617,-0.088324
-0.026982,0.565270,0.922685,0.186031,0.746843,0.638449
0.037230,-0.406705,0.644386,-0.439321,0.262641,-0.859079
-0.033467,0.593510,0.919822,0.541593,0.713103,0.445153
-0.041514,0.646912,0.924683,0.992023,-0.074666,0.101568
-0.044585,0.624251,0.907123,0.954334,-0.174822,0.242246
-0.054370,0.704818,0.919473,-0.146365,-0.361440,0.920836
-0.060912,0.735919,0.917576,-0.260381,-0.823094,0.504696
-0.053907,0.553618,0.853427,-0.566525,0.526668,0.633775
0.119911,-0.181298,0.941927,0.990011,0.122852,0.069175
0.116031,-0.190734,0.928578,0.693853,0.484113,0.533107
0.106825,-0.125536,0.935485,0.943643,0.111154,0.311743
0.095534,-0.035316,0.948668,0.724655,0.653598,-0.218370
0.088123,0.003575,0.948302,0.849046,0.504106,0.158109
0.079034,0.064699,0.953911,0.919942,0.296830,0.256122
0.075793,0.051330,0.940012,0.931626,0.072240,0.356166
0.069018,0.084788,0.938664,0.908996,0.146916,0.390053
0.067569,0.041966,0.916227,0.918922,0.346140,-0.189128
0.082218,-0.222334,0.833769,-0.407966,0.879979,0.243313
0.043252,0.256791,0.953561,0.221636,-0.212352,0.951727
0.033813,0.326638,0.962000,0.218044,-0.256524,0.941622
0.025303,0.384259,0.967160,-0.223134,-0.337171,0.914618
0.025360,0.321348,0.939397,0.968635,0.209917,-0.132968
0.029007,0.204533,0.896520,-0.022252,-0.993703,0.109814
0.018179,0.293895,0.910402,-0.447286,-0.298471,0.843119
0.056278,-0.257721,0.756322,0.937658,0.174506,0.300575
