0.392501,-0.100323,0.711952,0.880784,0.129929,-0.455343
-0.608268,0.112871,0.831198,0.744674,-0.663537,0.071975
-0.209271,-0.061975,0.227533,0.415966,0.129318,0.900138
-0.153705,0.052322,0.322848,0.077161,0.090809,0.992875
0.039798,0.238883,-0.431287,-0.705310,-0.689030,-0.166660
0.159611,-0.110721,0.579992,-0.557437,-0.816532,0.150128
0.062769,0.171621,0.215924,0.943270,0.210486,0.256782
0.487097,0.831561,0.690696,0.975029,0.080209,-0.207087
-0.610453,0.393195,0.786706,0.907940,0.388448,0.157330
0.093593,0.412326,0.786670,-0.509094,0.462826,-0.725682
-0.457987,0.298072,0.562463,0.322667,0.861179,0.392756
0.111307,0.183555,0.271473,-0.658864,0.695945,0.285585
0.044287,0.330365,-0.969114,-0.084356,0.723567,0.685080
-0.205197,-0.669526,0.565423,-0.543956,0.549496,-0.634165
-0.208799,0.677686,0.626588,0.326216,-0.329605,-0.885970
-0.236493,-0.015905,0.538425,-0.188136,-0.892463,-0.410018
-0.131504,0.036176,-0.053631,-0.750834,0.119983,0.649502
-0.232773,-0.639910,0.630690,0.276404,-0.444828,0.851897
-0.242694,-0.318035,0.755214,0.930190,0.338217,0.142670
0.105344,0.370687,0.926298,0.070823,-0.877770,0.473819
0.367936,-0.207643,0.766591,0.852209,0.009403,-0.523117
-0.123355,0.088344,0.016789,0.739289,-0.642234,0.202453
0.057808,0.206019,-0.103687,0.365116,0.890746,0.270669
0.076232,0.279907,0.860514,-0.726308,0.671953,0.144763
-0.467495,0.265341,0.674344,-0.462414,0.859114,0.219308
0.569766,0.304434,0.770889,-0.731810,0.064511,0.678449
-0.803486,0.556019,0.670759,0.794807,-0.324400,0.512880
-0.046532,-0.785841,0.550069,-0.472510,0.141118,0.869954
0.492412,0.114714,0.883982,-0.050476,-0.538352,0.841207
-0.536050,0.204352,0.831786,0.130971,-0.919111,0.371592
-0.124123,-0.690499,0.568419,-0.320530,0.515004,-0.795004
0.073752,-0.155255,0.886372,0.432318,-0.595550,0.677068
-0.396754,-0.071759,0.792091,0.813777,0.581157,0.004856
0.055743,0.173420,-0.368499,-0.673050,0.738441,-0.041337
0.031649,-0.182371,0.928527,-0.871307,0.480923,0.097655
-0.942192,0.484588,0.647238,0.746272,0.583738,0.319889
-0.840568,0.433780,0.642780,-0.130556,0.740877,0.658830
-0.461234,0.312200,0.917846,-0.034869,-0.698757,0.714508
-0.275938,-0.140689,0.673666,0.912804,0.362245,0.188597
-0.760555,0.266306,0.762900,-0.787280,0.434277,-0.437714
-0.125599,-0.225018,0.347528,0.290719,-0.907023,-0.304618
-0.821612,0.892636,0.689983,0.109877,-0.230900,0.966754
0.089282,0.232389,-0.463582,0.216182,0.974160,0.065398
0.379863,-0.017968,0.023601,-0.043887,0.595955,0.801818
0.780217,-0.134589,-0.026383,0.149717,0.713009,-0.684984
0.171655,0.294650,0.362079,0.737057,-0.664450,-0.123503
0.151992,0.249018,0.109322,-0.300253,-0.896673,0.325310
-0.319457,-0.180396,0.899675,0.026751,-0.826640,0.562095
0.153173,0.427199,0.783175,-0.462599,0.410330,-0.785896
0.380454,0.060834,0.643832,0.919756,-0.350105,-0.177414
0.211160,0.407762,0.745192,0.644899,-0.683925,0.341105
-0.027696,0.096461,-0.314663,0.088019,0.405771,0.909727
0.298317,0.418949,0.752931,-0.567412,0.810857,-0.143372
-0.788132,0.351073,0.528206,-0.644149,0.758542,-0.098420
0.417124,-0.434043,0.640266,0.890888,0.438976,0.116701
0.196042,0.253318,0.826847,0.947252,-0.065382,-0.313751
-0.329437,0.707479,0.666818,-0.501118,-0.848551,-0.169826
0.368291,0.082729,0.489992,-0.481931,0.776782,0.405404
-0.032242,0.275169,0.367411,0.895245,0.244632,0.372414
0.617419,0.211987,0.792252,0.721538,-0.083691,-0.687299
-0.264246,0.060088,0.852543,0.055482,-0.990285,0.127506
-0.457811,0.046092,0.813758,-0.520004,-0.177348,-0.835550
-0.727311,0.860211,0.657438,-0.558244,0.262815,-0.786951
-0.049780,-0.380208,0.590335,0.874748,0.058135,-0.481078
0.182226,0.529123,0.835603,-0.472153,0.050473,-0.880070
-0.107058,0.044644,0.514850,-0.776464,0.628614,-0.044146
0.031118,0.318342,0.462797,0.716138,-0.697907,-0.008447
-0.064070,-0.003357,0.865757,-0.653815,0.756401,0.019590
0.282904,-0.048418,-0.098177,-0.456473,0.106027,0.883397
0.212695,0.262751,0.841113,0.951281,-0.007591,-0.308232
-0.535578,0.882281,0.749383,0.825378,-0.545679,-0.144861
-0.212225,-0.303381,0.656761,-0.329415,-0.186141,-0.925655
-0.123768,-0.641577,0.608167,-0.067031,0.994928,0.075001
0.334809,0.097997,0.558968,-0.676739,-0.708027,-0.201798
0.787067,0.121734,0.750346,0.726295,-0.000863,0.687382
0.215353,0.584714,0.682350,0.943000,0.317873,-0.098527
0.190611,0.303513,0.439312,0.320443,-0.928563,0.187313
-0.686627,0.294079,0.546075,-0.445346,0.534956,0.717976
0.373250,0.227826,0.158789,-0.069241,-0.975458,0.209016
-0.092176,-0.556589,0.523588,-0.520119,0.294079,0.801869
0.903926,0.635522,0.634648,-0.650769,0.747161,0.135095
0.185946,0.646009,0.702037,0.673337,0.721823,0.159968
0.014643,0.205668,0.164228,0.444328,-0.132021,-0.886083
-0.621141,0.388852,0.774223,0.836952,-0.471713,0.277486
-0.037733,0.210802,0.873942,0.800482,-0.394800,0.450957
0.115972,0.249194,-0.190317,0.865781,0.467049,-0.179691
-0.799941,0.246430,0.826651,-0.687796,0.486608,0.538656
0.561205,-0.063774,-0.002595,-0.699929,-0.265820,0.662902
-0.439446,0.797732,0.615033,-0.343074,-0.904322,0.253974
-0.027636,0.287936,0.876849,0.993454,-0.008666,0.113907
0.080189,0.242875,0.030716,0.974355,0.063026,-0.216010
0.064717,-0.150254,-0.071999,0.882689,0.406340,0.236109
0.152702,0.185750,0.212376,-0.530922,0.481758,0.697159
0.025272,-0.341246,0.742339,-0.005462,0.577021,0.816711
0.264244,0.295966,0.807499,0.360415,0.906212,0.221089
0.545615,0.262049,0.073407,0.766842,0.335204,-0.547349
-0.056393,-0.642937,0.573965,0.396605,-0.870682,-0.290889
0.316327,0.516793,0.551870,-0.897558,-0.032785,0.439676
0.468969,0.364895,0.543863,-0.730881,0.595477,0.333498
0.766519,0.594542,0.721225,-0.235632,0.329548,0.914262
-0.029053,0.167628,-0.473657,0.730607,0.494806,-0.470511
-0.129261,0.173596,0.649021,-0.061363,0.931612,0.358237
-0.663952,0.631222,0.788578,-0.751442,-0.647156,-0.128547
-0.319989,-0.309085,0.901600,-0.129312,-0.566637,0.813758
-0.330795,-0.349100,0.819018,-0.647777,0.313564,-0.694307
0.094773,0.150034,0.765592,0.971031,0.232259,-0.056170
0.107056,0.204616,0.246436,0.800472,-0.489150,-0.346377
-0.816949,0.230678,0.838170,0.320484,0.134039,0.937723
0.054975,-0.004059,0.313325,-0.574078,0.621721,0.532821
-0.184944,0.298115,0.442575,-0.807350,-0.231619,-0.542714
0.128136,0.228046,-0.253818,0.471516,0.852281,0.226471
0.178388,0.245465,0.950800,0.715532,0.692375,-0.092903
-0.266549,-0.360375,0.673559,-0.481150,0.172886,-0.859421
0.074520,0.193910,-0.935019,0.807341,-0.588226,0.046813
-0.304931,-0.272009,0.732121,0.956792,-0.004075,-0.290744
-0.075170,0.144418,0.185520,-0.644900,0.551831,-0.528759
-0.496783,0.870083,0.746333,0.911530,-0.154436,0.381133
0.088100,-0.038370,0.273077,-0.177167,0.078776,0.981023
-0.891114,0.504992,0.734100,-0.050612,0.982113,0.181363
-0.285977,0.144023,0.791556,-0.600770,0.799288,0.014650
-0.132448,0.388763,0.895306,0.685105,0.719554,-0.113464
-0.144081,0.282715,0.411725,-0.628724,-0.709060,-0.319281
0.442810,0.278064,0.838795,0.976397,-0.214141,0.028155
-0.086803,0.181581,0.861727,0.255706,-0.959505,-0.118170
-0.021082,0.299169,0.825830,0.961840,0.273490,0.008146
0.077118,-0.668868,0.539049,0.886696,0.417715,0.198203
-0.658518,0.930588,0.660987,0.122809,-0.614511,0.779291
-0.021140,-0.045171,-0.020605,-0.638306,0.765490,-0.081183
-0.049544,-0.164381,0.851777,-0.298015,-0.117547,0.947296
0.156244,0.023057,0.476064,0.778995,0.580603,0.236786
-0.627341,0.914661,0.692408,0.907022,-0.418602,-0.045645
0.286566,0.414475,0.882306,0.332802,0.940723,-0.065442
-0.102216,0.142751,0.597664,0.985137,0.165680,0.045340
0.117152,0.240551,0.832072,-0.158438,-0.096301,-0.982661
-0.892827,0.406094,0.653141,0.563200,-0.726730,-0.393280
0.091585,-0.170656,0.880826,-0.725673,0.521920,0.448328
-0.507176,0.802076,0.750488,-0.591820,0.076757,-0.802407
-0.121879,0.516969,0.438973,-0.621927,-0.776907,0.098093
-0.682374,0.172016,0.808854,0.906184,0.398940,-0.140279
0.097667,0.273895,0.475208,0.968973,-0.200842,-0.144065
-0.150872,-0.001250,0.853649,0.932363,0.349588,-0.092128
0.076232,0.296317,0.606045,0.923115,0.384380,0.010504
0.701683,0.385297,0.571682,0.181638,0.975251,-0.126071
0.239562,-0.100937,0.881842,0.627873,0.749095,-0.211265
0.908651,0.202861,0.741358,0.850106,0.130817,-0.510105
-0.725836,0.404691,0.581026,-0.865126,0.380925,-0.326272
-0.411221,-0.334621,0.548286,0.542338,-0.055189,0.838346
0.754531,0.638242,0.602497,-0.822596,0.202593,0.531312
-0.482021,0.904219,0.743355,0.313749,-0.948498,0.043725
0.237437,0.327644,0.668655,0.866258,0.498315,0.035767
0.122822,0.207249,0.036316,0.400103,-0.911762,-0.092779
-0.634544,0.416450,0.529883,0.950079,-0.102391,0.294730
0.643461,0.188558,0.776862,0.404234,-0.795222,0.451903
0.369352,0.170437,-0.003486,-0.683435,-0.016050,0.729835
-0.269796,-0.136915,0.667567,0.988053,-0.096772,0.119945
-0.004429,-0.514117,0.481985,0.764604,0.557368,0.323607
0.322764,-0.096988,0.042432,-0.536792,-0.504221,0.676473
-0.165575,0.255994,0.844144,0.921712,-0.366523,0.126914
0.078299,0.164600,-0.392038,0.403936,0.906893,-0.119924
0.319219,-0.081631,0.037600,0.990483,-0.098172,-0.096462
0.253203,0.169208,0.893843,0.111731,0.933792,-0.339925
0.097195,0.261610,-0.941331,0.983107,0.159446,0.089876
-0.371361,-0.225369,0.562284,0.908906,0.222237,-0.352845
-0.464541,0.218437,0.891061,0.925767,-0.191952,0.325745
-0.284265,-0.106816,0.549088,0.531912,0.836346,-0.132646
0.120874,-0.024592,0.614694,0.142447,0.986680,0.078557
0.181458,0.403199,0.933842,0.351426,-0.934742,0.052513
-0.178094,-0.244587,0.847015,-0.388112,0.659119,0.644152
0.122645,0.122304,0.744372,0.882487,0.469858,0.021195
-0.239740,-0.223833,0.808301,-0.822939,0.258734,0.505794
-0.060408,0.354760,0.405109,0.138649,0.205770,0.968729
0.230115,-0.037404,0.046355,0.370395,0.029395,0.928409
0.176733,0.178949,0.851117,0.355077,-0.924593,0.138011
0.041748,-0.401180,0.626481,0.935695,-0.128224,-0.328685
-0.004074,-0.331505,0.750328,-0.321224,0.104124,0.941261
-0.131209,-0.046267,0.958700,-0.659996,-0.083425,0.746623
0.503455,0.337647,0.072997,0.695145,0.352373,-0.626584
-0.015825,0.408200,0.397602,0.764547,0.544930,0.344265
-0.130145,0.440494,0.854523,0.520416,0.612975,-0.594499
-0.109065,0.520085,0.431376,-0.097419,-0.962668,0.252547
0.024151,0.314701,0.736187,0.804330,0.571148,0.163838
-0.146856,0.142970,0.673684,-0.197265,0.897382,0.394704
0.018363,0.192593,0.270438,-0.220386,0.946344,-0.236353
0.541128,-0.041441,0.002719,0.984682,0.094286,0.146670
-0.820313,0.312682,0.608221,-0.887968,0.280611,-0.364376
-0.080368,0.003752,-0.030253,0.873072,0.447640,0.193298
-0.280190,-0.017836,0.525656,-0.016352,0.874820,0.484172
0.373073,-0.478709,0.692675,-0.248446,-0.753703,0.608446
-0.260999,0.343176,0.348366,-0.729220,0.159904,-0.665333
-0.774138,0.642280,0.657724,0.198225,-0.980128,-0.007431
0.034603,0.283330,0.739735,0.771577,0.633424,0.058678
0.246707,0.280170,0.840899,0.642151,0.743804,0.185466
0.413994,-0.542461,0.660131,-0.682433,0.610662,0.401718
0.070031,0.221771,0.638286,0.968666,-0.204220,0.141355
0.337643,0.468662,0.768463,-0.187341,0.694627,0.694548
0.127723,0.185837,-0.105631,-0.226871,0.935157,0.272048
0.008266,0.485729,0.738576,-0.297528,0.496977,-0.815163
0.891879,0.258671,0.777540,-0.335961,-0.936651,-0.099071
-0.470387,0.189390,0.586376,0.030358,-0.213389,0.976496
0.393090,-0.025075,-0.115153,-0.576402,-0.628930,-0.521735
-0.332803,0.333261,0.570345,0.947034,-0.321060,0.006862
-0.348569,0.685761,0.764843,-0.497037,-0.854257,0.152315
0.125301,0.249720,0.378200,0.823164,-0.566919,-0.031691
0.030882,0.166136,0.116633,0.927394,0.079332,0.365578
0.404429,0.294825,0.031947,-0.619242,-0.511706,0.595563
0.377324,-0.185003,0.743569,0.901717,-0.411088,-0.133840
-0.255744,-0.122261,0.553921,-0.296616,0.789295,-0.537617
-0.444229,0.394161,0.697454,0.896833,0.378053,0.229710
-0.313611,-0.679837,0.675556,-0.048041,-0.991473,0.121138
-0.266077,0.289516,0.477758,-0.657386,0.647304,-0.385799
0.153410,0.627273,0.722723,0.997235,-0.064787,0.036398
0.533568,0.078165,0.046605,0.581607,0.456513,-0.673297
-0.639801,0.106421,0.806607,0.922420,0.328117,0.203666
-0.159138,-0.464230,0.584129,0.009728,-0.070228,-0.997484
-0.210394,0.646228,0.699166,0.967923,0.146487,0.204126
-0.832183,0.632670,0.728786,-0.102235,-0.986502,-0.127916
0.098316,-0.169295,0.918292,0.673554,-0.712052,0.198260
-0.061176,-0.419125,0.568740,0.684536,-0.181393,-0.706051
-0.692000,0.154685,0.895199,0.860612,0.050543,-0.506747
0.399115,0.237610,0.781196,-0.481040,0.849881,0.215180
0.043577,0.371871,0.933681,-0.063980,-0.997730,0.021008
0.416710,0.309787,0.491168,0.291898,-0.116029,0.949386
0.508650,0.382972,0.883108,-0.088157,-0.758785,0.645348
-0.017361,0.298643,0.847354,-0.491465,-0.870876,-0.006171
0.343666,0.097514,0.073514,0.482720,-0.613478,0.625000
-0.425332,0.328917,0.926958,-0.351621,0.402007,-0.845431
0.336108,0.041792,0.323846,-0.489166,-0.427116,0.760452
0.094184,0.243534,0.087673,0.203887,-0.871680,0.445650
0.178860,-0.082026,0.899960,0.692513,-0.707057,0.143165
-0.317273,-0.015466,0.536356,0.842916,-0.458755,0.281134
-0.008032,0.254985,0.350506,0.923107,0.217875,0.316865
0.508533,0.313998,0.738469,-0.754540,0.502671,0.421889
-0.160614,0.068205,0.803896,0.983573,-0.092329,0.155114
0.153114,-0.794090,0.584414,0.759179,-0.603355,-0.244151
0.863005,0.237172,0.775525,-0.199432,-0.902712,0.381232
-0.014350,0.199219,0.853792,-0.771070,0.543007,-0.332557
0.503572,0.780445,0.688235,0.982266,-0.031451,0.184836
-0.500384,0.238488,0.681298,0.023609,-0.986569,0.161629
-0.244406,0.094268,0.772583,-0.779674,0.494186,-0.384563
-0.417126,0.375162,0.642370,-0.174192,0.983732,-0.043917
0.397637,0.298290,0.039169,-0.672057,-0.451988,0.586554
0.242456,0.319878,0.367055,0.625792,0.363003,-0.690372
-0.505168,0.727047,0.633347,0.755728,-0.027217,-0.654319
0.304576,-0.472917,0.703589,0.267098,0.925387,0.268919
0.104398,0.059562,-0.139851,-0.027904,0.424898,0.904811
0.113078,0.224930,-0.490313,0.291283,0.952073,-0.093332
-0.023030,-0.618893,0.573947,-0.106705,-0.714701,0.691243
0.404133,0.006340,0.919165,0.849201,0.440444,0.291319
-0.373607,-0.285348,0.897731,-0.352759,-0.545144,0.760513
0.320637,-0.524823,0.632812,0.191733,-0.106492,-0.975653
-0.591497,0.720466,0.615889,0.455247,0.818302,0.350901
-0.450311,-0.165610,0.565120,0.077228,0.260264,0.962444
0.102095,0.239760,0.073318,-0.569170,-0.816754,-0.094651
0.121169,-0.369327,0.650644,-0.612383,-0.026841,0.790105
-0.395159,-0.108527,0.837725,-0.227104,-0.757238,0.612384
-0.395986,0.034245,0.840239,0.616546,-0.704384,0.351729
0.047887,0.170612,0.256386,0.912644,-0.345767,0.218006
0.277709,-0.163328,0.596612,0.923898,0.325410,-0.201299
-0.204725,-0.663954,0.560144,0.876292,-0.215050,0.431121
-0.554474,0.267227,0.623557,0.865422,0.387006,0.318230
-0.919634,0.669394,0.728626,-0.652399,-0.028215,-0.757350
-0.830293,0.475858,0.625750,0.137790,0.752948,0.643493
0.377679,0.049470,0.547483,0.082366,0.982205,0.168787
-0.126779,0.553913,0.473407,0.978444,0.072651,0.193310
-0.166166,0.070706,0.816754,-0.434630,-0.262990,-0.861356
0.174135,0.389597,0.566279,0.474381,0.507649,-0.719205
-0.798465,0.373977,0.596630,-0.734520,0.635178,0.238807
-0.009920,0.771098,0.728322,-0.656093,0.674265,-0.338984
-0.711605,0.498848,0.607008,0.969547,-0.218255,0.111105
0.056568,0.156834,0.101511,0.723982,0.525527,0.446846
-0.009153,0.240813,0.780839,0.557959,-0.715486,0.420431
0.399882,0.017836,0.032553,0.443941,-0.093234,-0.891192
-0.946148,0.634645,0.730997,0.204583,0.178098,0.962511
0.185237,0.243578,0.961339,0.654467,0.752194,-0.076667
-0.200710,0.008271,0.513780,0.078117,0.961388,0.263875
0.044700,-0.347389,0.761847,0.966266,0.106702,0.234402
-0.462474,0.665534,0.822924,-0.029232,0.925714,0.377094
-0.232833,0.042669,0.052686,0.732217,0.171168,0.659212
0.248478,0.198517,0.118827,0.532693,0.232712,-0.813685
-0.212342,-0.230941,0.835103,0.786421,-0.196449,-0.585619
0.125537,0.192023,0.008158,0.924948,-0.278477,-0.258694
-0.058282,0.072023,-0.035496,0.113242,0.834322,0.539521
0.543253,0.318342,0.858767,0.074119,-0.996673,0.033898
-0.280012,-0.688042,0.673505,-0.300114,0.928344,-0.219336
-0.837261,0.744774,0.719495,-0.658684,0.280777,0.698068
-0.075289,-0.554001,0.512032,0.125742,0.086338,0.988299
-0.134987,0.431982,0.924533,0.692915,0.697868,-0.181243
-0.209212,0.009367,0.023851,0.737423,-0.009388,0.675366
-0.191734,0.186758,0.820267,0.965153,-0.243099,0.096869
-0.319929,-0.406445,0.805662,-0.072804,0.692015,0.718202
0.102450,0.475024,0.885302,0.258972,-0.948152,-0.184234
0.014643,0.198386,0.648950,0.312908,-0.831173,-0.459608
0.160140,0.166620,0.934448,0.824281,0.566122,-0.008166
0.129080,0.207293,0.039954,-0.479897,0.849829,0.217920
0.010037,0.372529,0.605385,0.927951,0.127521,0.350208
0.738057,0.224712,0.815523,-0.543877,0.179251,0.819797
-0.198052,-0.403199,0.570844,-0.196303,-0.326854,-0.924463
-0.176086,0.735428,0.647363,0.782295,0.487556,-0.387691
-0.636139,0.113397,0.808034,0.907940,0.341592,0.242815
0.387659,-0.207424,0.757175,0.884590,0.069860,-0.461107
-0.601949,0.919663,0.676376,0.939369,-0.186530,-0.287737
-0.037142,0.367615,-0.982738,-0.342149,0.194020,0.919397
-0.260644,-0.331155,0.839543,-0.273568,0.959271,-0.070430
0.588898,0.348178,0.771102,0.204741,-0.061437,-0.976886
0.241333,-0.074962,0.901155,-0.641195,-0.765857,-0.048289
0.026454,0.326503,-0.978030,-0.121634,0.600312,0.790463
0.103689,0.229055,-0.506308,0.311195,0.940829,-0.134158
0.726010,0.246473,0.733458,0.782641,-0.104525,-0.613634
0.049837,0.233837,-0.209647,0.854490,0.442787,-0.271635
-0.798820,0.253142,0.820998,0.875633,-0.480650,0.047360
0.234779,-0.496786,0.757461,0.966014,-0.254292,-0.046388
-0.498672,-0.178202,0.860354,0.470187,0.699402,0.538295
-0.122647,0.598271,0.814150,-0.795454,0.580641,-0.173517
0.089931,-0.404164,0.526316,-0.736844,0.290042,0.610685
0.602893,0.515521,0.713700,-0.025968,0.999147,-0.032093
-0.060940,0.287279,0.979582,0.201742,0.946814,0.250685
0.021433,0.047145,0.168383,-0.540195,-0.342086,-0.768873
0.122114,0.256434,0.740110,-0.157595,0.544221,-0.824007
-0.239682,0.764298,0.746601,0.584958,-0.744722,-0.321267
0.163802,0.394423,0.370924,-0.390213,-0.389341,0.834354
-0.261530,-0.040388,0.600588,0.929084,-0.041743,0.367506
-0.486095,0.681460,0.760974,-0.046158,-0.987130,0.153114
-0.137114,0.488932,0.717266,0.221195,-0.938171,0.266285
-0.194332,0.355199,0.395034,0.180152,0.919285,0.349944
-0.333039,-0.361823,0.672881,-0.256531,-0.253897,0.932592
-0.326543,0.710331,0.657367,-0.579770,-0.810309,-0.085234
-0.101388,0.371959,0.875333,0.937354,-0.161161,0.308860
-0.400828,0.288462,0.432214,-0.405122,0.417382,0.813430
0.042337,0.287936,0.117204,0.787931,-0.477524,0.388761
0.303100,-0.348792,0.696563,-0.304732,-0.768356,-0.562822
0.586419,0.161837,0.801828,-0.005293,0.964380,0.264467
-0.608505,-0.254064,0.817449,0.798841,-0.132017,0.586876
-0.164040,0.286576,0.926156,0.313638,-0.474186,0.822666
-0.883320,0.653994,0.710579,0.395455,0.681950,0.615272
-0.228403,0.432113,0.746726,-0.040958,0.322680,0.945621
-0.143608,0.059693,0.759119,0.984976,0.143908,-0.095461
-0.078654,0.169077,0.552316,0.965224,-0.029709,0.259732
0.268319,0.509906,0.536802,-0.773606,0.579641,-0.256028
0.338175,0.347081,0.976532,0.819225,-0.357027,0.448779
-0.622440,0.964241,0.683171,-0.369745,-0.730271,0.574450
0.284735,0.275080,0.832981,-0.463222,-0.863593,0.199080
-0.146619,-0.032052,-0.064473,0.991745,0.106491,0.071429
-0.445587,-0.326547,0.658936,0.235654,0.719431,-0.653366
-0.297845,-0.341202,0.889385,0.836811,-0.522362,-0.163967
0.242632,0.267358,0.737167,0.289707,0.823979,0.486959
-0.444169,0.465678,0.697330,0.908222,0.312668,-0.278158
-0.051551,0.128710,0.507022,-0.779068,0.626052,-0.033362
0.334396,-0.062238,0.034158,0.934807,-0.133033,0.329299
-0.265722,0.528992,0.848050,-0.649366,0.187613,-0.736971
0.457632,0.523155,0.696581,0.546271,0.174073,0.819321
-0.231651,-0.053550,0.576889,-0.626516,-0.762653,-0.160744
-0.410630,0.282232,0.549784,-0.320245,0.941712,0.103058
0.015411,-0.286532,0.437225,0.997248,-0.073020,0.012808
-0.848657,0.638944,0.681494,0.962180,-0.030692,0.270681
-0.044347,0.144462,0.357104,-0.558955,0.825316,0.080144
-0.654740,0.182239,0.856645,-0.647186,0.546928,-0.531056
-0.241276,-0.308339,0.648201,-0.247829,0.201817,-0.947550
-0.528492,0.007393,0.702430,0.091998,-0.895798,0.434836
-0.434544,0.673256,0.744924,0.014889,0.916323,0.400164
-0.599057,0.447426,0.793768,0.820476,-0.472141,0.322337
-0.267436,-0.261085,0.832785,-0.708128,0.630117,0.318602
0.211396,-0.098392,-0.116776,0.886347,0.235967,-0.398383
0.625213,0.592260,0.554563,-0.705043,0.523283,0.478633
0.222675,-0.499770,0.737988,0.885308,-0.438512,-0.154714
-0.373075,0.262883,0.807213,-0.094991,0.994707,0.039178
0.867611,0.402848,0.584628,0.390122,0.797646,-0.459963
0.084440,0.231599,0.210610,-0.158747,-0.974718,-0.157238
-0.389902,0.709058,0.785618,-0.194108,0.978063,-0.075595
0.370594,0.001645,0.765360,0.817858,-0.126891,-0.561255
-0.598642,0.458306,0.855290,0.719074,-0.683754,-0.124148
-0.203898,-0.740693,0.596523,0.761372,0.509784,-0.400542
0.288278,0.285172,0.884660,-0.715414,0.697812,0.035214
0.152465,0.584977,0.763613,0.986779,-0.150815,-0.059352
0.023736,0.625298,0.603602,-0.269622,0.206712,0.940518
0.076644,0.296799,0.552762,0.796284,-0.560738,0.226947
0.008680,0.303073,0.841487,0.408929,0.891563,0.194659
0.450783,0.511222,0.698845,0.546271,0.174073,0.819321
-0.137231,0.146480,0.639107,0.019281,-0.972387,0.232577
-0.789785,0.345238,0.610271,-0.695149,0.717692,0.041058
-0.358962,0.675582,0.762311,0.656982,-0.609068,0.444309
-0.250428,0.707084,0.658009,-0.258772,0.942000,0.213712
0.633185,0.178421,0.821123,-0.551083,0.699755,0.454589
-0.732566,0.292983,0.550265,-0.514754,0.144151,-0.845132
0.381281,0.269640,0.783567,0.839467,0.343453,0.421111
-0.420905,0.095847,0.878668,0.922515,-0.211631,0.322768
0.117448,0.006077,0.327163,0.636368,-0.681287,-0.361779
-0.169826,-0.027664,0.215853,0.213096,0.104653,0.971410
0.144434,0.072593,0.938924,0.508709,0.767558,0.389961
0.506230,0.093039,0.586269,0.451262,0.787252,-0.420233
0.078535,0.245596,0.750167,0.755995,0.544283,0.363631
-0.420373,-0.127350,0.550961,-0.757929,0.545214,-0.358169
0.625568,0.177720,0.704195,0.465084,-0.855169,-0.228873
0.096013,0.222035,-0.991369,0.176343,-0.837771,0.516762
-0.874935,0.482088,0.605671,0.400162,0.916202,-0.021075
0.012281,0.296668,0.828880,-0.448456,0.877072,0.172142
-0.408563,0.396880,0.676769,0.929848,0.367874,0.007152
0.259698,-0.396134,0.726807,0.879526,0.151437,0.451110
-0.463065,-0.295001,0.798725,-0.583126,0.669532,0.460099
0.392263,-0.295790,0.677518,-0.043983,-0.580370,0.813164
0.309890,0.211286,0.229941,0.221934,-0.947856,0.228723
0.314319,0.090538,0.479417,-0.097812,0.955875,0.277012
-0.104814,0.145077,0.642459,-0.309971,0.950241,-0.030981
0.028638,-0.230678,0.796228,0.916982,0.397054,0.038616
0.069323,-0.374241,0.420177,0.783256,0.408906,0.468301
-0.526780,-0.266350,0.839936,0.731975,0.462221,-0.500563
0.095660,-0.147182,0.813312,0.994879,-0.070920,0.072014
0.151107,0.273325,0.365610,0.917462,-0.393764,-0.056688
-0.729910,0.355111,0.737381,0.608929,0.738173,0.290356
0.123945,0.283636,0.354500,0.891379,-0.435507,-0.125609
0.619958,0.139328,0.838242,0.847996,-0.478724,-0.227433
-0.125303,0.164338,0.142348,-0.579431,-0.479227,-0.659242
-0.034426,-0.027401,0.262271,0.731928,-0.538913,-0.416957
-0.787069,0.709410,0.726967,0.954923,-0.148508,-0.257035
0.346088,-0.085975,0.807071,0.047909,-0.708568,0.704014
0.179451,0.551631,0.701181,0.435355,-0.852329,0.289830
0.419959,-0.227738,0.768980,0.887438,0.184972,-0.422184
-0.290819,0.301670,0.506148,0.914576,-0.128337,0.383510
0.591733,0.517715,0.712041,-0.041209,-0.996197,0.076763
-0.020963,-0.335191,0.833873,0.489620,0.860337,0.141749
0.524830,0.623061,0.665356,0.825285,-0.443608,0.349452
0.486330,0.274290,0.816593,-0.468338,0.824937,-0.316447
-0.631297,0.263892,0.888547,-0.010127,-0.069471,0.997533
-0.495484,0.235417,0.421872,-0.305037,0.653866,0.692396
-0.820609,0.455587,0.776363,0.630677,0.635278,-0.445723
0.036727,-0.000724,0.309010,-0.501682,0.678666,0.536402
-0.110896,0.114056,0.926637,0.900351,-0.407902,-0.151604
-0.630116,-0.080403,0.796335,-0.591849,-0.453546,-0.666341
0.013344,-0.370993,0.628443,0.715004,0.061203,-0.696436
0.764866,0.403594,0.804931,0.880720,0.339706,0.330049
-0.196280,0.365948,0.338416,0.803737,-0.189064,0.564146
-0.149926,0.254459,0.281280,-0.427344,0.157980,-0.890179
0.029525,0.216637,0.090812,0.948394,0.065479,0.310260
-0.238147,0.144198,0.694387,-0.457568,-0.889174,-0.001158
0.386713,0.450102,0.780090,-0.187341,0.694627,0.694548
0.264304,0.290349,0.696438,-0.622838,-0.758622,0.191221
-0.642221,0.349011,0.609433,0.132227,0.186716,0.973475
-0.214764,-0.297194,0.931078,0.910296,-0.269764,-0.313989
0.077295,0.393195,0.936106,-0.107147,0.994106,-0.016544
-0.076410,0.354891,0.915314,0.300993,0.491321,0.817317
0.164982,0.527631,0.714930,0.383399,-0.589345,0.711110
0.041097,0.300616,0.189729,0.872819,0.487672,0.019077
-0.262534,-0.228396,0.852312,-0.367764,-0.880550,-0.298967
-0.036317,0.731874,0.590192,0.164456,0.888406,-0.428589
0.071273,-0.299257,0.572752,0.177608,-0.864342,0.470497
0.029110,0.104052,0.937355,0.167197,0.244643,0.955089
0.488986,0.722967,0.695600,0.976955,0.120328,0.176297
-0.635490,-0.284032,0.822834,0.789554,0.270285,0.550953
0.727310,0.246166,0.735687,0.711466,-0.154533,-0.685518
-0.233010,0.477349,0.841505,0.764913,0.521629,0.377903
-0.451846,0.004936,0.841273,-0.634691,-0.564466,-0.527774
-0.533925,-0.152491,0.871107,-0.722101,0.474359,0.503542
-0.060644,-0.292982,0.869805,-0.256304,0.896299,-0.361878
0.595629,0.164820,0.798101,-0.156723,0.936963,0.312312
-0.456924,-0.210144,0.904061,0.269066,-0.931391,-0.245182
0.299143,-0.202378,0.651268,0.978855,0.041832,0.200233
0.638204,-0.077727,0.022727,0.465087,0.537853,-0.703142
0.063477,-0.155036,0.821943,-0.437349,0.898604,0.035165
0.755299,0.584363,0.696099,-0.156879,0.524832,0.836624
-0.813406,0.463484,0.625304,-0.300917,0.813559,0.497564
0.434838,0.861747,0.655887,0.561749,0.526574,-0.638089
-0.350045,0.121865,0.820284,-0.740686,0.182371,-0.646626
-0.548745,-0.145515,0.845232,0.133069,-0.424209,0.895734
0.122881,0.002830,0.324203,0.636368,-0.681287,-0.361779
0.414702,0.663998,0.594097,0.532893,0.174350,-0.828026
0.076704,-0.684531,0.554349,0.929271,0.224632,0.293249
-0.265841,0.498498,0.827400,-0.782479,-0.612657,-0.111256
0.330970,-0.390036,0.638037,-0.026745,-0.463458,0.885715
0.134750,-0.385210,0.661682,-0.484515,0.033446,0.874144
0.104517,0.187943,0.035068,-0.506965,0.861011,-0.040589
-0.398170,0.339227,0.393500,-0.518235,0.681223,-0.517077
-0.531563,0.266876,0.604904,0.802430,0.037185,0.595587
0.068674,-0.205449,0.881468,0.894501,-0.446885,-0.012703
-0.027577,0.040388,-0.048763,0.013453,0.390902,0.920334
-0.137054,0.033324,0.778860,0.996927,0.018662,-0.076086
-0.058105,0.501174,0.374241,0.494833,-0.760404,0.420626
-0.151108,0.616173,0.546289,-0.018576,-0.930073,0.366904
-0.287865,-0.253976,0.861959,0.271052,0.959830,0.072506
0.166341,-0.068863,0.586715,0.941354,0.159888,0.297135
-0.383348,0.271307,0.905060,0.448502,-0.866825,-0.217857
-0.311959,-0.336507,0.669047,-0.011449,0.220707,0.975273
-0.895483,0.455718,0.761758,0.120703,0.985720,0.117420
-0.135755,0.479587,0.762686,0.871278,0.185765,0.454276
-0.190849,-0.700546,0.597753,-0.207320,0.880174,0.426981
-0.151108,0.151964,0.731265,-0.497445,0.763485,-0.411873
-0.435548,0.101156,0.871499,0.962547,-0.268916,-0.034475
-0.125599,-0.628151,0.551139,0.816656,-0.249940,0.520195
-0.847773,0.265954,0.840346,-0.029887,-0.612686,0.789761
-0.158547,0.278678,0.858000,0.824875,-0.550308,0.129390
-0.392737,0.086019,0.829343,0.956791,-0.245775,0.155389
-0.000295,-0.111774,0.290910,0.019922,0.787968,0.615394
0.169588,0.288420,-0.982346,0.391576,-0.128504,0.911129
-0.684500,0.849768,0.650002,-0.517667,0.535179,-0.667536
0.398583,0.099270,0.741661,0.562036,-0.555662,-0.612662
0.363921,0.044731,0.637680,0.772805,-0.591589,-0.229770
-0.603603,0.362042,0.513263,-0.679136,-0.595629,-0.428952
0.047651,-0.323871,0.407677,0.896877,0.261167,0.356935
-0.277001,0.768641,0.694797,0.461491,0.465800,-0.755021
-0.073576,-0.801066,0.553350,0.339972,0.455212,0.822922
-0.258636,0.283022,0.332888,0.693870,-0.619010,0.367928
0.142839,0.205888,-0.067398,-0.721619,-0.677816,0.140822
-0.277060,0.652765,0.751861,-0.735356,0.670489,-0.098471
0.113433,0.037009,-0.142883,-0.595730,-0.058027,0.801086
0.198700,0.092469,0.865329,0.266165,-0.423330,0.865995
-0.629406,0.143015,0.834693,-0.291679,0.915805,-0.276088
-0.290583,-0.214312,0.780144,0.533119,0.834809,0.137398
0.461471,0.043766,0.741073,-0.288840,-0.019316,0.957182
-0.118749,-0.587961,0.563818,0.336601,0.584336,-0.738411
-0.101388,0.497268,0.703571,-0.158082,-0.960713,0.228124
0.131974,-0.269026,0.663751,-0.491102,0.275703,0.826321
0.837083,0.231819,0.782069,-0.738625,0.440012,0.510708
0.038205,0.146963,-0.071571,0.856886,-0.514854,-0.025914
-0.159021,0.045916,0.232883,-0.725361,-0.111433,-0.679289
0.484499,-0.052937,0.839347,0.238294,0.888658,0.391795
-0.098790,-0.053332,0.025331,0.671406,0.096281,0.734809
-0.055566,0.327073,-0.983594,0.405567,-0.184322,-0.895288
-0.090405,0.091986,0.505880,-0.831729,0.465627,-0.302354
-0.062120,0.484896,0.710633,0.410114,0.858052,-0.309116
-0.360025,-0.120374,0.721671,0.652774,0.688665,0.315637
0.010097,0.250379,-0.675931,0.508806,0.855629,0.094948
-0.011398,0.283592,0.917739,0.534191,-0.820272,-0.204434
-0.824330,0.364939,0.575124,0.836877,0.123830,0.533200
0.482255,0.053638,0.586875,0.438054,0.698038,-0.566438
0.082786,0.275431,0.586483,0.977006,0.184235,0.107313
-0.073812,-0.332251,0.734136,-0.666214,0.149835,0.730554
-0.000532,0.510694,0.378289,0.446667,-0.799350,0.401905
0.172542,0.259681,0.419946,0.579376,-0.801750,0.146699
0.107232,-0.012527,0.035799,0.590946,-0.172040,-0.788153
-0.775790,0.498014,0.617797,-0.699058,0.667064,0.257572
-0.314083,0.482306,0.557202,0.901031,-0.067128,0.428529
0.326600,0.005550,0.011796,0.851111,0.277314,0.445765
-0.449011,-0.023540,0.605385,0.837502,-0.338566,0.428910
-0.087334,0.095584,0.928242,-0.576411,0.816994,-0.016488
-0.282315,0.350942,0.310829,-0.310157,0.617421,-0.722907
-0.386834,-0.291183,0.653587,0.506790,-0.665439,-0.548046
0.168704,0.394774,0.579332,0.513032,0.471596,-0.717214
0.166341,0.421846,0.775115,0.360834,-0.640314,0.678083
0.194685,0.194393,0.801186,0.967546,0.197445,0.157701
-0.495425,0.092425,0.883768,0.148614,-0.976406,0.156672
0.399999,0.127174,0.008337,0.636591,0.531288,0.559003
-0.249012,-0.233179,0.919629,0.318605,0.109050,0.941594
0.391142,0.044995,0.679354,0.947741,-0.269466,-0.170804
-0.431946,-0.293026,0.818965,0.974924,-0.221763,-0.018579
0.114437,0.181142,-0.156560,0.823914,-0.454441,0.338599
0.183583,0.171753,0.795711,0.942571,-0.021833,0.333290
0.788781,0.425532,0.207169,-0.697165,-0.535629,0.476511
0.061588,0.163548,0.130721,0.987158,-0.118275,-0.107377
-0.220610,0.165084,0.644759,-0.592404,-0.784312,-0.184153
-0.129082,0.167716,0.668067,0.202475,0.913606,0.352602
0.186241,0.550930,0.680745,0.936051,-0.290967,-0.197853
-0.151285,0.153369,0.263591,-0.132790,-0.723781,0.677133
-0.214409,0.210671,0.662984,-0.203830,-0.960561,-0.189143
0.386596,-0.036527,0.888208,0.884351,0.466819,-0.002027
-0.222677,-0.184433,0.893451,0.224229,-0.954132,-0.198376
0.142898,0.026040,0.922875,-0.328367,0.851248,0.409331
-0.654091,0.127087,0.830342,-0.756438,0.244758,-0.606543
-0.114439,0.390080,0.904703,0.587672,0.807848,0.044969
0.360378,0.131738,0.939013,0.758313,0.279752,-0.588812
0.192442,-0.073076,0.913263,-0.432864,0.864762,0.254587
0.138235,0.230327,-0.038884,-0.110240,-0.977452,-0.180095
-0.129497,0.074435,0.787829,0.997888,-0.006087,-0.064678
-0.327074,0.225149,0.218225,-0.494523,-0.861880,-0.112297
0.028697,0.169077,-0.473550,0.023770,-0.739593,0.672634
0.167404,0.034026,0.470429,0.826017,0.557749,0.081311
-0.412520,0.636005,0.564763,0.369516,-0.415075,0.831367
-0.196221,-0.071935,0.594561,0.265112,0.887892,0.375983
-0.287157,-0.187373,0.716196,0.967464,0.250362,0.036502
-0.238560,0.487748,0.351237,-0.245218,-0.228493,0.942157
0.127723,0.025470,-0.141920,-0.575840,-0.097309,0.811751
0.551993,-0.084308,0.026116,-0.485781,-0.817942,0.308201
0.596103,0.438958,0.644100,-0.084230,-0.525387,0.846684
-0.199823,-0.166883,-0.020053,-0.184067,-0.037486,-0.982199
0.018718,0.186407,0.348955,0.911267,0.094832,0.400748
-0.150162,0.019459,0.920806,-0.731717,-0.676496,-0.083321
-0.927783,0.491433,0.739593,-0.050612,0.982113,0.181363
-0.408031,0.086896,0.836690,-0.565886,-0.570779,-0.594966
-0.471333,-0.286839,0.770461,-0.124956,0.843070,0.523086
0.205669,0.335980,0.400366,0.794866,-0.605488,0.039660
-0.016534,0.416450,0.646311,0.922190,0.386729,0.002442
0.128904,0.221025,0.316321,0.973423,0.005222,-0.228956
0.132329,0.184609,-0.251251,0.521762,-0.850383,0.067922
0.387717,-0.256740,0.772672,0.521392,-0.274001,-0.808129
0.470445,-0.059518,0.025349,-0.094594,-0.979944,0.175390
-0.012638,-0.019985,-0.102046,-0.516854,-0.206919,-0.830690
0.158133,0.176799,-0.147091,0.979208,-0.199990,-0.033980
-0.261648,0.357128,0.346975,-0.714387,0.063146,-0.696896
-0.896547,0.492530,0.708921,0.876291,-0.425717,-0.225563
-0.033246,-0.041573,0.327752,-0.025578,0.604617,0.796105
0.204723,0.125112,0.399902,0.503065,0.864108,-0.015624
0.168289,0.496523,0.618528,0.578871,0.733590,-0.356025
-0.382464,-0.126517,0.595221,-0.503042,-0.277735,0.818421
-0.566106,0.838405,0.626945,0.752860,0.233065,0.615534
-0.212933,0.125025,0.821390,0.983272,0.024849,0.180442
-0.094303,-0.191321,0.300432,0.834867,-0.425914,-0.348704
0.557662,0.138933,0.700950,-0.390439,0.863226,-0.319996
0.065663,0.269640,0.116526,0.753888,-0.383683,0.533329
0.249188,0.426278,0.905898,0.339830,0.927435,0.156144
-0.475229,0.318694,0.399724,-0.716382,0.524468,-0.460142
-0.161441,-0.354277,0.859320,-0.718007,0.696011,0.005884
-0.435253,0.684531,0.710650,-0.746518,-0.611263,-0.262810
-0.180750,-0.351249,0.844483,-0.636358,-0.742492,0.209172
-0.457515,-0.300441,0.843841,0.872508,-0.068382,0.483791
0.083377,0.167321,0.730016,0.956256,-0.253288,-0.146356
-0.220550,0.472786,0.352682,-0.245218,-0.228493,0.942157
-0.205728,0.492618,0.807160,0.875109,-0.366889,0.315558
0.102686,0.143847,0.100923,0.457206,0.720013,0.522058
-0.306466,0.183424,0.701841,-0.587781,-0.802596,-0.101749
0.118866,0.279644,0.349864,0.911001,-0.380198,-0.159771
0.202007,-0.079437,0.914244,0.497339,-0.854449,-0.150234
-0.096959,0.222648,0.923106,0.114479,-0.839392,0.531334
0.189843,-0.061449,0.691944,-0.692567,0.703201,0.160806
0.084793,0.153105,0.290553,0.013659,0.976184,0.216516
-0.154947,0.292148,0.932254,0.264110,-0.547200,0.794241
-0.019073,0.260338,0.352111,0.944543,0.161076,0.286168
-0.044229,-0.692385,0.540083,-0.430402,-0.151875,-0.889768
-0.286508,-0.022925,0.231046,0.411993,-0.102471,0.905407
-0.151462,0.694404,0.764718,0.648342,0.008749,0.761299
-0.082256,0.118487,0.376827,-0.162399,0.986668,0.010609
0.924298,0.736963,0.624002,0.959651,-0.143720,-0.241690
-0.061235,0.323826,-0.983701,0.513881,-0.035460,-0.857128
0.050250,0.029638,0.272186,0.927835,0.229677,-0.293888
-0.022086,0.436763,0.653319,-0.197367,-0.880931,0.430124
0.042456,0.216770,0.219295,0.967541,-0.243960,0.065938
0.258105,0.119892,0.431769,-0.194413,0.947394,0.254262
-0.690818,0.324792,0.712398,0.796193,0.604944,0.010915
-0.083910,0.254942,0.932272,-0.191534,-0.413071,0.890330
0.119338,-0.104798,0.283545,0.109994,0.174379,0.978516
-0.287157,0.414738,0.745210,0.101247,0.098452,0.989978
0.056510,0.423864,0.922411,-0.122925,-0.976670,0.176081
-0.424152,0.582432,0.752040,0.540349,0.423636,-0.727018
-0.067966,0.128491,0.371602,-0.478344,0.867797,0.134595
-0.043107,0.657548,0.601498,0.938368,0.174930,0.298102
-0.310483,-0.142136,0.696438,0.747478,0.542613,0.383209
-0.168174,0.404515,0.764041,-0.322151,-0.401053,0.857540
0.188957,0.435360,0.920111,-0.735483,-0.616693,-0.280634
0.639267,0.572515,0.555740,-0.672070,0.582448,0.457250
0.096072,0.186714,0.229709,0.477939,0.831139,-0.284222
-0.241631,0.094180,0.820231,0.965317,-0.254409,-0.058646
-0.305994,0.177895,0.708368,-0.594513,-0.799355,-0.087090
0.208976,0.380296,0.676626,0.991332,0.129352,-0.023017
-0.245764,-0.344405,0.528331,-0.847499,0.385529,-0.364847
-0.273163,0.167057,0.675324,-0.748676,-0.577835,-0.324948
-0.693653,0.177676,0.820909,-0.799133,0.404626,0.444594
-0.197756,0.039861,0.937462,0.381958,-0.849365,0.364263
-0.049661,0.115899,0.416504,-0.415503,0.901881,0.118190
-0.864128,0.664349,0.711703,0.172222,0.596407,0.783989
0.123649,0.273063,0.359922,0.833171,-0.527312,-0.166640
0.054148,-0.106509,0.875779,0.962619,0.264237,0.059524
0.689991,0.136652,0.845785,-0.566549,0.823289,-0.034896
-0.093712,0.675582,0.731407,0.844766,0.432283,0.315440
-0.368527,0.290832,0.431109,0.495050,0.622941,0.605698
-0.485681,-0.230985,0.840667,-0.787396,-0.180465,0.589441
0.396101,0.076103,0.883447,-0.275561,-0.028319,0.960866
0.101150,-0.234846,-0.082787,0.735992,0.253044,0.627921
0.255328,0.273063,0.651179,0.865134,0.501512,0.005417
0.056923,-0.764518,0.598894,0.112059,0.896256,0.429149
0.202951,-0.480815,0.737114,0.910266,-0.407498,-0.073223
0.161735,-0.176491,0.658330,0.972123,0.051009,0.228854
0.573604,0.219183,0.780340,0.164474,-0.473980,0.865038
-0.880308,0.297808,0.859516,0.562432,-0.686283,0.461178
0.068910,-0.198737,0.535304,-0.398372,0.414094,-0.818429
0.163921,-0.219753,0.654460,-0.174029,0.045777,0.983676
-0.180161,-0.692210,0.580652,-0.826999,0.287814,-0.482945
0.207026,0.035737,0.922928,0.906919,0.303696,-0.292004
-0.336405,0.116030,0.804788,-0.758220,0.067066,-0.648541
0.085089,0.183686,-0.164585,0.986352,0.119738,-0.113016
0.180336,-0.398855,0.798226,0.951508,0.304380,0.044561
-0.281194,-0.346818,0.673505,-0.247094,-0.187686,-0.950641
0.133450,0.203387,-0.108751,0.022975,0.965034,0.261117
0.043460,0.196235,0.238910,0.941513,-0.295275,-0.162379
0.208208,-0.083167,0.553618,-0.024511,0.534270,0.844959
-0.145852,-0.641445,0.610806,0.315570,-0.883424,0.346377
-0.496310,0.791589,0.625162,-0.157259,-0.302898,-0.939959
0.055447,-0.291358,0.796942,0.994854,0.087312,-0.051393
-0.083674,0.150386,0.555490,0.965224,-0.029709,0.259732
-0.734161,0.390475,0.533039,-0.412691,0.902176,-0.125555
0.244818,0.280214,0.765895,0.867232,0.405551,0.288855
-0.010275,0.038194,0.178084,-0.641485,-0.350808,-0.682225
0.031768,-0.125727,0.287415,0.002419,0.665253,0.746614
0.212223,0.441282,0.926744,-0.034120,0.993843,0.105411
-0.749219,0.590856,0.606865,-0.431158,-0.412575,0.802424
0.797047,0.391922,0.601569,-0.494522,-0.777643,-0.388226
-0.042752,-0.029814,-0.015951,-0.408604,-0.298872,0.862391
-0.175791,0.069346,0.754714,0.795497,0.570862,0.203225
-0.857633,0.464712,0.765735,0.120703,0.985720,0.117420
0.735871,0.360507,0.795515,0.761019,-0.562629,0.322953
-0.002481,0.135335,0.134608,-0.411759,-0.595927,-0.689439
-0.546442,-0.137134,0.816183,-0.243414,0.803776,0.542857
0.098316,0.241647,-0.061745,-0.439706,0.897747,-0.026624
-0.022086,0.302327,0.869877,0.913324,-0.407155,-0.007953
0.283317,0.319483,0.859676,0.946215,-0.194959,-0.258201
0.441098,0.325933,0.049512,0.589866,0.532969,-0.606632
0.282609,0.235681,0.211252,-0.032332,0.995404,0.090143
-0.002717,0.365203,0.241960,0.173211,-0.867627,0.466070
-0.527844,0.284471,0.597557,0.892523,0.008946,0.450912
-0.727252,0.497006,0.582649,-0.762210,0.516591,-0.390089
0.341777,0.239541,0.913334,0.928228,0.194380,0.317190
0.394509,0.783911,0.593669,0.805921,0.299888,-0.510449
-0.190790,0.490731,0.777683,0.930061,-0.097301,0.354286
0.167700,-0.044512,0.547430,0.633222,0.726358,0.267270
0.553881,-0.057851,0.004681,0.903099,0.327295,-0.278013
-0.283497,-0.246078,0.812492,0.466770,0.359628,-0.807957
0.359138,0.103964,0.062779,0.475406,-0.636067,0.607789
-0.332862,-0.243139,0.625607,-0.722759,0.364797,0.586978
-0.370594,0.522278,0.743658,-0.705563,-0.212698,0.675974
-0.252850,0.341640,0.348598,-0.729220,0.159904,-0.665333
0.104104,0.157975,-0.153208,0.850456,-0.171229,0.497398
0.207912,0.416976,0.951264,0.028878,0.902178,0.430397
0.189193,0.576070,0.708297,-0.778958,-0.316653,0.541254
-0.100266,0.044731,0.897445,-0.648481,0.748990,0.135961
0.218009,0.418818,0.581847,0.746466,0.347900,-0.567233
-0.481607,0.802471,0.606010,-0.301984,-0.867259,0.395812
-0.179038,0.456333,0.885623,0.538592,0.704670,-0.461907
0.684145,0.648421,0.695350,0.565220,-0.154340,-0.810374
0.026454,-0.217867,0.773724,0.965923,-0.258768,-0.005631
-0.283791,-0.176711,0.734243,0.880469,0.413337,0.232221
0.167700,-0.016827,0.505559,0.710800,0.642151,0.287064
0.083849,-0.632275,0.497891,-0.764583,-0.513594,-0.389401
-0.235725,-0.137134,0.551656,0.797627,-0.390597,0.459593
-0.304282,-0.466556,0.540029,-0.182939,0.770126,0.611097
0.333509,0.204572,0.136302,-0.155580,-0.949416,0.272770
-0.324004,-0.234144,0.809050,-0.678576,0.691437,-0.247890
0.284323,0.426234,0.867808,0.304022,0.942776,-0.136906
0.290050,0.411447,0.938407,-0.231076,0.751993,-0.617342
0.381339,0.596517,0.711328,0.336787,0.450023,0.827075
-0.566757,0.156133,0.890134,-0.035483,-0.974877,0.219899
0.211632,0.196719,0.094200,-0.887124,0.293283,0.356364
-0.375495,-0.228791,0.560983,-0.789288,-0.367079,0.492217
0.697668,0.042669,-0.004699,-0.062801,0.603614,0.794800
0.050191,0.196762,-0.690036,0.982636,0.178667,-0.050049
-0.478536,-0.195752,0.836494,-0.541055,0.839919,0.042387
0.295128,0.494154,0.781945,-0.336766,0.907444,-0.251267
0.803188,0.184257,0.743337,-0.082698,-0.742670,0.664532
0.199645,0.196499,0.812099,0.992761,-0.098926,0.068118
-0.526189,0.795888,0.746619,-0.591820,0.076757,-0.802407
-0.252967,-0.173771,0.688681,0.886365,0.338641,0.315721
-0.384648,0.303908,0.680193,-0.702503,0.252152,0.665514
0.081487,-0.105500,0.868022,0.785023,0.454149,0.421293
0.050841,0.156396,0.124069,0.939273,0.186730,0.287919
0.237318,0.434219,0.780161,0.381920,-0.655760,0.651242
-0.285622,0.135686,0.785440,-0.796177,0.244850,-0.553308
-0.273339,0.172191,0.678320,-0.761445,-0.584314,-0.280675
-0.513906,-0.150780,0.854612,0.570426,0.521217,0.634781
-0.297254,0.072944,0.803665,0.175196,0.660038,0.730518
0.096723,0.250248,0.736989,0.920856,0.388603,0.031813
0.580158,0.368317,0.896893,-0.572947,-0.559068,0.599311
-0.465487,-0.167672,0.902902,-0.033524,0.916009,0.399755
0.396988,-0.314832,0.670813,0.175131,-0.814833,0.552609
0.129907,-0.395608,0.819286,0.790848,0.258285,0.554841
0.075936,-0.726170,0.583951,-0.618909,-0.596388,-0.511148
0.291762,-0.048198,0.049619,-0.422670,-0.191915,-0.885731
-0.028640,0.395828,0.928831,0.060710,0.963998,-0.258886
-0.782286,0.548165,0.595809,0.008562,-0.721734,0.692117
0.058222,-0.249457,0.385047,0.966905,0.225615,0.119128
-0.447948,0.455367,0.724346,0.980556,-0.117173,0.157417
-0.674521,0.261259,0.578565,0.141886,-0.956745,0.253982
-0.265133,-0.014896,0.225607,-0.401732,0.181195,-0.897652
0.220844,0.346554,0.577692,0.799660,0.600282,-0.014296
-0.032006,-0.496830,0.576211,-0.718293,-0.198889,0.666707
-0.188782,0.295571,0.449797,-0.787992,-0.272264,-0.552215
-0.133097,-0.089441,0.945219,0.941022,-0.186338,-0.282411
-0.619665,0.123489,0.814881,0.448109,0.729203,0.517167
0.405373,0.293420,0.035585,-0.672057,-0.451988,0.586554
-0.277237,0.092469,0.033623,0.782233,-0.216422,0.584185
0.546028,0.363886,0.108894,-0.084276,-0.921733,0.378559
-0.493003,-0.173113,0.876421,0.248866,-0.968172,0.026622
0.463006,0.126604,0.702127,0.007616,-0.951969,0.306099
0.241097,0.178949,0.959467,-0.561716,-0.716180,-0.414200
0.077650,0.165346,-0.371941,-0.284966,0.928277,-0.238949
-0.259640,0.242919,0.868610,0.679614,0.573980,-0.456806
0.240625,-0.359059,0.550319,-0.352115,0.266952,0.897080
0.710657,0.509378,0.704570,-0.159536,0.880093,0.447196
0.099794,0.177018,-0.007142,0.959781,-0.257874,-0.110999
-0.064365,0.142224,0.476385,0.926766,-0.355299,-0.121927
0.124593,0.207249,0.670724,0.875897,-0.416152,-0.244176
-0.321879,0.670097,0.642727,0.843310,-0.406203,0.351891
-0.367878,-0.121339,0.877634,-0.850793,0.499995,-0.161728
-0.041512,-0.310927,0.583309,0.929292,-0.053149,0.365502
-0.167702,0.539741,0.479381,0.980380,0.030622,0.194724
0.239090,0.479323,0.814489,0.962240,0.135406,-0.236133
0.309831,0.403374,0.907129,-0.118431,-0.912039,-0.392631
0.259108,0.443828,0.467701,0.102038,0.895257,-0.433708
0.101091,0.180046,0.000615,0.947582,-0.150146,-0.282036
0.422734,-0.029375,0.042842,-0.074858,0.759829,0.645799
0.143962,0.160301,0.345210,0.737221,0.655286,-0.164637
-0.011456,-0.196893,0.830574,0.836487,-0.426932,0.343537
-0.210275,-0.344581,0.846873,0.366555,0.709718,-0.601613
-0.095838,0.091679,0.190192,-0.661739,-0.116229,-0.740670
-0.049544,0.182019,0.843056,-0.566338,0.752088,0.337083
0.138883,-0.157230,0.802149,0.773194,-0.626157,0.100488
0.182758,0.326416,-0.976532,0.110612,0.010763,0.993805
-0.017833,0.383543,0.334457,0.976183,0.158247,0.148408
0.222615,-0.171051,-0.106718,0.014217,-0.845729,0.533423
-0.007855,0.051094,-0.041755,-0.054759,-0.367669,-0.928343
-0.412284,0.628721,0.759494,-0.360364,-0.454825,0.814415
0.504575,0.685366,0.629299,0.811237,0.367769,-0.454578
-0.379393,0.356910,0.546128,0.729097,-0.612526,0.305334
-0.469679,-0.000987,0.626517,0.590618,-0.693960,0.411812
-0.533689,-0.204441,0.873033,0.312569,-0.934183,0.172053
0.589962,0.322685,0.762275,0.335517,0.128626,-0.933211
-0.131976,0.247614,0.917810,0.571780,0.710263,-0.410602
-0.368586,0.289736,0.906451,-0.414543,0.908389,0.054621
0.389430,0.062940,0.560216,-0.696528,-0.634480,-0.335088
-0.025038,-0.738368,0.549659,0.425447,-0.378533,-0.822015
0.594213,0.517715,0.669707,-0.424597,0.896822,-0.124212
0.025095,0.230547,0.297365,-0.769555,0.374164,-0.517480
0.041157,-0.156572,0.711952,0.473982,-0.683056,-0.555676
-0.280958,-0.312463,0.762846,0.874498,0.473424,0.105470
0.319162,-0.172762,0.002969,0.198952,-0.572885,0.795123
-0.368764,0.116205,0.578797,-0.796349,-0.210237,-0.567123
0.836375,0.209750,0.761330,0.342351,0.851653,-0.396840
0.497845,0.052761,0.022924,-0.120240,-0.081541,0.989390
-0.243521,-0.427857,0.516473,0.571374,-0.801524,-0.176326
-0.115147,-0.641313,0.609291,-0.298371,-0.912751,-0.279036
0.004842,0.388457,0.286273,-0.051379,-0.909735,0.411997
-0.638737,0.894654,0.650840,0.788433,-0.232376,0.569539
0.417656,-0.316105,0.669012,-0.022345,-0.913262,0.406760
0.230645,0.324705,0.556150,0.584481,0.811320,-0.011892
-0.047772,0.125201,0.876599,0.734545,0.242066,0.633915
-0.194864,0.170788,0.643208,-0.376469,-0.908132,0.183211
-0.050488,-0.262049,0.807641,-0.847497,0.385036,-0.365371
0.167640,0.626572,0.735883,0.968186,0.250231,-0.000041
-0.325422,0.047101,0.822014,0.096245,-0.894857,-0.435854
0.469855,0.048768,0.781641,0.879903,-0.475050,0.009957
-0.337054,0.606827,0.543079,0.585229,0.234110,0.776337
0.491172,-0.586644,0.669297,0.758799,0.651281,-0.007591
0.464539,-0.053375,0.846391,-0.453309,-0.829303,-0.326752
-0.777680,0.619683,0.610878,-0.721155,-0.617953,0.313160
0.348036,-0.433297,0.708885,0.386410,0.167644,0.906963
-0.081371,0.149376,0.859213,-0.370413,-0.801708,0.469104
-0.597049,0.946779,0.664785,0.781459,-0.418091,0.463166
-0.227400,0.719764,0.745210,0.206053,-0.906434,0.368674
-0.192384,-0.024286,0.916883,0.640227,0.765201,0.067650
-0.321879,-0.049514,0.854594,-0.390988,0.253184,0.884888
-0.059641,-0.005945,0.892221,0.567999,-0.806665,-0.163306
0.319398,0.251607,0.702733,0.319895,0.943660,-0.084688
0.188604,0.303204,0.465151,0.290862,-0.950805,0.106624
-0.591911,0.137353,0.816522,0.792641,-0.477514,0.379078
0.361677,-0.356822,0.571254,0.209177,-0.943625,-0.256547
0.081250,0.204352,0.684348,0.949210,-0.272846,-0.156699
0.675818,0.373801,0.633382,-0.470624,-0.242330,-0.848404
0.217537,0.323389,0.454451,0.822563,-0.532340,-0.200012
0.560969,-0.040607,0.014863,0.930030,0.089979,-0.356296
-0.514379,0.169077,0.870411,-0.350961,0.863680,0.361778
0.460289,0.127877,0.709046,0.182834,-0.954815,0.234309
-0.630353,0.274203,0.571967,-0.698945,0.205312,0.685072
-0.076410,0.052191,-0.023851,0.658616,-0.751948,0.028269
0.663714,0.439089,0.748687,-0.310132,0.829381,0.464699
-0.418955,0.186143,0.883233,0.993870,0.077085,-0.079243
0.199940,0.102999,0.092773,0.430231,0.401382,0.808575
0.444463,-0.082421,0.800651,0.947711,-0.316677,-0.039484
-0.614587,0.564092,0.747225,0.871035,0.491206,0.003780
0.283732,-0.535573,0.637020,-0.346536,0.360973,0.865801
0.191496,0.583748,0.839401,0.990262,-0.057767,-0.126667
-0.236671,0.138276,0.843645,0.911747,-0.402452,-0.082158
