0.133828,0.290737,0.237088,0.830856,0.040788,0.554991
0.616400,0.476914,-0.943153,-0.512066,0.438566,0.738545
0.272154,0.401237,0.320667,-0.140462,-0.928048,0.344959
-0.699196,0.155168,0.914856,0.354891,0.836674,0.417169
-0.257925,0.570880,0.721425,0.948631,0.230658,-0.216557
0.155248,0.242525,0.313313,0.332427,-0.064851,0.940897
-0.497912,-0.037026,0.548234,0.283213,0.929027,0.238117
-0.021553,0.370606,0.893641,-0.089371,-0.651509,0.753358
0.428513,0.124185,-0.364780,-0.346289,0.934831,-0.078576
-0.473135,-0.391926,0.270820,0.814385,-0.302853,0.495033
0.402856,0.133336,0.784482,0.280588,-0.223924,-0.933343
-0.212537,-0.131688,0.804543,0.355539,0.894405,-0.271353
0.703938,-0.178150,-0.919751,0.845786,0.189979,-0.498552
-0.539113,-0.021991,0.825464,-0.683903,0.571591,0.453387
-0.576583,0.110344,0.813234,-0.040824,0.367329,0.929195
-0.090564,0.358697,0.746124,-0.000072,-0.851075,0.525044
0.503640,0.233365,-0.975050,-0.353518,-0.385957,-0.852093
-0.378228,0.926203,0.505536,0.105322,0.991129,-0.081057
0.296674,-0.007949,0.717926,0.937685,0.301440,-0.172860
-0.492050,-0.046225,0.360683,-0.280679,0.760481,0.585566
-0.577835,0.934347,0.871924,0.772146,0.571957,-0.276867
0.391676,0.853767,-0.963531,0.335049,0.181477,0.924558
0.516173,0.591649,-0.950167,0.502178,-0.079604,0.861093
-0.158053,-0.245770,0.153231,0.767749,-0.585840,-0.259525
-0.215709,0.705277,0.555603,-0.434281,-0.566706,-0.700175
-0.483651,0.027713,0.789703,-0.214625,-0.805822,0.551894
0.070648,0.568017,0.552635,0.730412,0.422750,0.536452
0.404152,0.785347,-0.963347,-0.440571,0.144490,-0.886014
-0.718394,-0.004340,0.562242,0.073040,-0.249366,0.965651
0.351664,0.274326,0.883962,0.513555,0.795730,0.321053
-0.712130,-0.049910,0.576363,0.378031,-0.469593,-0.797856
-0.379035,0.034293,0.498849,0.000418,0.826579,0.562820
-0.258391,0.335042,0.939513,-0.358397,0.924402,0.130507
-0.799314,-0.116119,0.576968,-0.212160,-0.774442,0.596010
-0.231580,0.600962,0.839833,0.610656,0.254534,0.749874
-0.402656,0.070552,0.823375,0.938465,0.311897,0.148338
0.361131,0.128775,0.787733,0.536692,0.640214,0.549625
-0.810363,0.090294,0.811034,-0.341459,0.593838,0.728534
-0.358735,0.778711,0.340706,-0.556406,0.830911,-0.000175
0.359849,0.390567,0.492541,-0.086204,-0.761303,0.642640
0.315670,0.189175,0.843311,0.991239,-0.076386,-0.107751
-0.434896,0.631170,0.846937,-0.116510,-0.760007,0.639386
-0.824225,0.032469,0.819729,0.467739,0.605709,0.643691
-0.535290,-0.035375,0.948066,0.137177,0.034723,0.989938
0.237663,0.084969,0.294912,-0.702570,0.672496,0.232691
0.826719,0.040315,0.663284,-0.130798,-0.601075,0.788417
-0.429110,0.118940,0.928327,-0.070375,-0.122079,0.990022
0.736672,0.159275,-0.940626,-0.330754,0.485457,0.809280
-0.259540,-0.110821,0.311357,0.096990,0.896390,-0.432525
-0.654164,0.205837,0.549055,-0.275481,0.784346,-0.555798
-0.054363,-0.031328,0.365038,0.916799,0.227882,0.327949
0.358245,0.696210,-0.969958,0.100484,-0.615903,0.781388
0.665646,0.653534,-0.972314,0.371400,-0.012517,-0.928389
-0.805708,-0.030846,0.587548,0.501143,-0.754445,0.423873
0.824675,0.187577,-0.949371,-0.592364,-0.650690,0.475087
-0.357959,-0.053147,0.357001,0.565405,0.180997,0.804710
-0.297001,0.148226,0.334629,-0.541928,0.656778,-0.524363
-0.220601,-0.284829,0.685903,0.094506,0.903389,0.418279
-0.411598,0.059850,0.723730,0.158947,0.593177,0.789225
-0.325001,0.577417,0.949696,-0.336835,0.719621,0.607196
0.522565,0.333122,-0.972919,0.129635,0.189732,0.973240
0.739745,0.190070,-0.958550,-0.212512,-0.939981,-0.266972
0.322627,0.302485,0.233857,0.066889,-0.985712,0.154587
-0.487492,-0.049405,0.260708,0.343633,-0.481886,-0.806041
-0.414509,-0.551803,0.190392,0.896190,0.360236,0.258984
-0.425460,-0.084017,0.288529,-0.164652,0.953574,-0.252161
0.169642,0.929278,-0.964990,0.548178,0.804153,-0.229868
0.388035,0.244838,-0.960390,-0.193435,-0.170776,0.966136
-0.694575,0.607697,0.820401,0.960581,0.277675,0.013459
-0.384093,-0.286158,0.813376,-0.349389,0.758887,0.549561
0.315805,0.545643,-0.982377,-0.432754,0.447550,-0.782574
-0.474527,0.586765,0.808083,-0.435996,0.873708,-0.215736
-0.474251,-0.510380,0.314601,-0.642471,0.253723,0.723088
0.157311,0.185377,0.338595,0.850855,0.414343,-0.323058
-0.308554,-0.129378,0.809561,-0.213909,0.391877,0.894805
0.399591,0.207025,-0.108322,-0.638802,0.516795,0.569961
0.293203,0.657655,0.141544,0.978567,-0.129187,0.160370
-0.273679,0.145127,0.386581,0.159112,0.980489,0.115431
0.550364,0.212379,-0.958665,-0.319762,0.204681,0.925126
0.304545,-0.034852,0.161032,0.875117,-0.258881,-0.408840
-0.766054,-0.050769,0.576171,-0.385194,0.922364,-0.029492
0.416792,-0.020085,0.725073,-0.529342,0.848069,0.023989
0.250322,0.925744,-0.977798,0.087920,-0.318771,0.943745
-0.257306,0.499125,0.304639,-0.584745,-0.765860,-0.267456
0.133582,0.390834,0.890059,0.104805,0.974077,0.200476
-0.496152,-0.042937,0.937244,-0.302756,-0.947239,0.105251
0.698916,-0.396098,-0.917157,0.959477,0.020272,0.281057
-0.221728,-0.837576,0.233245,0.483002,0.423507,0.766388
-0.280883,0.079532,0.892599,-0.686469,-0.716268,-0.125384
-0.647698,0.781573,0.775952,-0.348458,0.595710,0.723676
-0.283835,-0.165328,0.810285,0.068675,0.120059,0.990389
-0.292135,0.183280,0.442446,0.553690,0.742222,-0.377537
-0.227386,0.386475,0.567548,-0.654481,0.755739,0.022668
-0.429496,0.793951,0.500581,0.078856,0.986227,-0.145386
0.467643,0.042614,0.780988,0.952960,0.178832,0.244718
0.278161,0.298335,0.057874,0.773763,-0.229861,0.590301
0.587238,-0.070388,-0.944605,0.690158,0.276558,-0.668728
-0.424121,-0.045848,0.892330,-0.154210,-0.964937,-0.212405
-0.416841,-0.208500,0.802074,0.875582,-0.168763,0.452632
0.377598,0.250508,-0.176073,-0.395969,0.908080,0.136382
-0.321485,0.140937,0.085046,-0.105032,0.623815,0.774483
-0.260392,-0.296418,0.847457,0.243608,0.952288,0.183855
-0.156331,0.321416,0.894886,0.814002,-0.328844,0.478814
-0.118615,0.354450,0.281711,0.447100,0.778930,0.439738
-0.321681,-0.264462,0.688322,0.435606,0.871832,-0.223956
-0.343502,0.099220,0.285097,-0.312796,0.937516,-0.152387
-0.569181,-0.062876,0.551658,0.127438,0.899026,0.418941
0.418657,-0.020683,0.838314,-0.657400,0.604760,-0.449546
0.009002,-0.034940,0.334311,0.884633,0.276511,-0.375454
0.234339,0.166608,0.527643,-0.364684,-0.818250,0.444380
-0.245938,0.128516,0.304733,-0.187629,-0.598306,0.778990
-0.291883,0.635747,0.722686,0.836553,0.386232,-0.388591
0.641136,0.466664,-0.954059,0.538276,0.234341,-0.809533
-0.122643,-0.346288,0.265233,-0.411940,-0.132402,0.901540
0.452915,0.498562,-0.968362,-0.550748,-0.437771,-0.710656
0.371401,0.280422,-0.076599,0.706656,-0.566588,0.423811
-0.341897,0.428478,0.873876,0.606334,0.748554,0.268375
-0.595574,0.100785,0.315492,-0.192693,0.921900,0.336109
0.187429,0.663511,0.289973,0.779756,-0.001801,-0.626080
-0.347398,0.239738,0.440750,0.477712,-0.874255,0.086428
0.420921,0.447886,0.497791,0.990026,0.096011,0.103106
-0.444906,-0.556051,0.320680,0.017534,-0.527424,0.849421
0.459742,0.296988,0.483338,0.989231,0.144810,0.021255
0.137952,0.243998,0.308384,0.537909,0.588012,0.604066
0.109386,0.021226,0.870585,-0.256444,-0.964359,0.065175
-0.257288,-0.145821,0.176501,0.241168,-0.957454,-0.158492
-0.280063,0.498587,0.179434,0.929169,-0.022677,-0.368958
0.633736,-0.145850,-0.936752,0.161337,0.768701,0.618925
0.051862,-0.814716,0.254621,-0.765734,-0.376586,0.521377
-0.249960,0.083356,0.315983,0.029881,-0.656592,0.753654
-0.538701,-0.021288,0.804411,0.824670,-0.476380,-0.304929
-0.289573,0.216236,0.941516,0.366997,0.877289,-0.309317
-0.406312,0.582734,0.817747,0.668779,-0.704671,-0.237007
0.299031,0.152351,0.855797,0.734345,-0.617176,-0.282543
-0.566423,-0.369419,0.343233,-0.019569,0.999599,0.020479
-0.657451,0.822281,0.788124,0.883723,0.264995,0.385761
-0.572452,-0.097427,0.455195,0.887632,0.135834,0.440066
0.097643,0.471317,0.477240,0.345802,0.727909,-0.592089
0.305245,0.107106,0.774107,0.570231,0.727499,0.381552
0.678272,0.381824,-0.950659,-0.132529,0.116221,0.984342
-0.409203,0.793902,0.739244,0.051089,-0.647555,0.760304
-0.369910,-0.083508,0.798619,0.859736,-0.083092,-0.503934
0.447754,0.124960,-0.441512,0.752166,-0.628136,0.199224
0.225872,0.452220,0.885593,0.237737,0.068010,0.968946
0.586776,0.065548,-0.845225,-0.361872,-0.928298,0.085504
-0.256365,0.412858,0.910007,0.063422,0.861121,0.504429
0.243579,0.111289,0.417882,-0.634371,0.412570,-0.653727
-0.476856,-0.283877,0.424114,0.724944,-0.664794,-0.180293
-0.213478,-0.382093,0.259068,0.867022,0.187690,-0.461568
-0.331968,0.287830,0.926771,0.356728,-0.167516,-0.919067
-0.230212,0.497293,0.244593,0.770414,0.537925,-0.342196
0.228914,0.635215,0.172016,0.477739,0.876064,-0.065402
-0.004591,0.435181,0.510466,0.330046,0.941007,-0.074670
0.196482,0.404099,0.082375,0.964506,0.238942,-0.112402
-0.402621,-0.051367,0.290174,0.250749,0.461545,0.850941
0.654760,-0.195496,-0.928611,0.987492,0.152049,-0.041710
-0.502357,-0.178263,0.685011,-0.301220,0.917968,-0.258072
0.386085,0.173399,0.690582,-0.066862,-0.120828,-0.990419
-0.518169,-0.045691,0.258474,-0.067472,0.426782,0.901834
-0.819574,0.038042,0.603938,0.456480,0.844326,0.280605
-0.252262,-0.062008,0.423774,0.930440,0.007839,0.366360
0.602522,0.311350,-0.943936,0.246921,-0.369929,0.895646
-0.353894,-0.083433,0.265448,-0.284972,-0.831697,0.476519
-0.726210,-0.046508,0.547740,0.813174,-0.187394,0.551028
-0.585594,0.000129,0.806466,0.850052,0.377460,0.367336
-0.035290,-0.073556,0.327480,-0.134961,-0.266876,0.954234
-0.012307,-0.566019,0.220343,-0.106431,-0.926236,0.361606
-0.815951,0.253174,0.714753,0.949257,-0.264357,-0.170374
-0.259821,-0.102691,0.901518,0.821497,0.435386,0.368215
-0.539643,0.401828,0.794956,0.398309,-0.699474,0.593369
0.540209,0.184391,0.769545,0.842924,0.513624,-0.160221
-0.403440,-0.058980,0.307348,0.398267,0.905752,-0.144902
-0.431268,0.079811,0.868103,-0.152229,-0.982080,0.111111
-0.438581,0.440858,0.812662,0.443032,-0.388523,0.807943
-0.833770,-0.047660,0.539863,0.850485,-0.021119,0.525575
0.304833,0.413385,0.049329,0.958559,0.270605,-0.089091
-0.811244,0.072077,0.786977,0.082259,-0.566422,0.820000
0.186818,-0.244226,0.243474,-0.483297,0.809308,-0.333833
-0.729828,0.259800,0.335966,-0.554514,0.466874,0.688870
-0.554471,-0.070416,0.303338,-0.616436,0.613725,0.493303
0.377085,0.288295,0.007711,0.996683,-0.056967,0.058125
-0.519317,-0.342135,0.820223,-0.306297,0.014633,-0.951823
-0.444802,0.284426,0.345303,0.709701,-0.296766,0.638948
-0.388002,0.040074,0.381029,0.908208,-0.392989,-0.143939
-0.474050,-0.402301,0.328328,-0.140067,0.230609,-0.962913
-0.452366,-0.142772,0.714520,0.306508,-0.865100,0.397058
-0.601718,-0.007155,0.720487,-0.099176,0.349280,0.931755
-0.478534,0.057830,0.888662,0.759687,-0.619783,-0.196838
0.347659,-0.000777,0.809907,0.837791,0.403211,0.368140
0.183248,0.295172,0.371571,-0.575026,0.814746,0.074399
0.495921,0.328890,-0.950372,-0.150739,-0.952692,0.263924
0.506903,-0.215130,0.906460,-0.493030,0.102216,-0.863987
0.048032,-0.013372,0.291769,0.932689,0.297316,0.204193
-0.370082,0.480083,0.157710,0.849640,-0.527015,0.019138
0.694920,-0.040082,-0.909755,0.066073,0.352057,-0.933644
0.557156,0.538137,-0.964501,0.325868,0.873957,0.360567
0.422752,0.315816,-0.065911,0.627960,-0.668897,0.397798
-0.549898,0.235563,0.459704,0.306560,0.819087,0.484888
0.075783,0.442527,0.551451,0.918499,0.198319,0.342096
-0.248166,0.302491,0.961217,-0.520465,0.837060,-0.168661
-0.180757,0.792953,0.687987,0.163361,0.945273,-0.282441
-0.398203,0.795838,0.357840,-0.623118,0.686180,-0.375341
0.033526,0.160377,0.361999,0.725971,-0.036327,0.686765
-0.534752,0.083339,0.732920,-0.286157,0.953860,-0.090916
0.681508,-0.311618,-0.910803,0.978532,-0.008440,0.205922
-0.509275,0.034954,0.926526,-0.593366,-0.801483,-0.074445
-0.309821,-0.287358,0.292065,0.601508,-0.592835,-0.535476
-0.362264,0.575378,0.860480,-0.543866,0.304953,-0.781802
0.689362,0.063131,-0.947001,0.705850,0.509094,-0.492543
-0.822175,-0.069976,0.573530,0.834101,-0.427218,0.348941
0.287340,-0.148995,0.487401,0.230179,0.141425,-0.962817
-0.291696,0.399634,0.886522,-0.662470,-0.599537,0.449098
0.412928,0.422693,-0.965961,0.239424,0.253844,-0.937144
-0.769378,0.025696,0.564123,-0.549739,0.828444,-0.107092
-0.575394,0.171964,0.286334,0.611290,0.306225,-0.729761
0.389663,0.104459,-0.375372,0.853753,0.504563,0.128541
-0.460175,0.488892,0.821856,0.553287,0.458813,-0.695244
-0.449223,0.214494,0.073837,-0.031590,0.597010,0.801611
0.282019,-0.312368,0.198155,0.126041,0.527178,0.840355
0.791874,0.237457,-0.938390,-0.020397,-0.544012,0.838829
0.299962,0.447130,0.473479,0.997016,0.048028,0.060433
-0.416172,-0.809334,0.293596,-0.089367,-0.993919,0.064325
-0.316607,0.682957,0.735794,0.187691,-0.331986,0.924423
0.345002,0.046900,-0.414269,0.881261,-0.413605,0.228716
-0.434110,-0.153406,0.691956,0.334811,0.777715,-0.532035
0.435159,0.149156,-0.951751,0.404774,-0.914272,0.016270
0.391834,0.133151,-0.959720,0.855545,0.047666,0.515530
0.109673,0.198635,0.330199,0.717980,0.382610,-0.581476
0.157517,-0.057680,0.223406,0.738837,0.458953,-0.493438
-0.468265,-0.471404,0.375638,0.894028,0.085142,-0.439847
0.217525,0.203517,0.390041,0.457198,-0.228434,0.859528
0.731915,0.301792,-0.934786,-0.569590,-0.385618,0.725855
-0.593318,-0.094469,0.767156,0.854252,-0.352603,-0.382001
-0.171627,0.446365,0.252269,0.685916,0.648772,-0.329566
0.561475,0.461787,-0.959296,-0.281947,-0.483907,-0.828457
0.650810,0.141595,-0.956518,0.391667,-0.467213,-0.792659
0.078754,0.526949,0.289148,0.787104,-0.346951,-0.509992
0.341223,0.539780,-0.976261,-0.087147,-0.555212,0.827131
-0.161478,-0.486477,0.324081,0.515805,-0.856658,-0.009047
-0.383225,-0.590470,0.262199,0.633102,-0.184251,0.751820
0.335955,0.371258,0.477189,0.281256,0.941699,-0.184655
0.171467,0.032769,0.393586,0.266745,0.945622,0.186134
0.230296,0.169254,0.163597,0.941308,0.111385,0.318643
-0.396106,-0.138597,0.828096,0.834759,-0.021456,-0.550198
0.050408,0.780010,0.373916,-0.663745,-0.742507,-0.090144
0.370192,0.121208,0.424672,0.283333,0.818613,0.499596
0.001998,0.035661,0.380944,0.348834,0.911884,-0.216294
0.585329,0.130256,0.611618,-0.188743,-0.970648,-0.149059
-0.341255,-0.133901,0.663750,0.903851,-0.325042,-0.278211
-0.531338,-0.015975,0.295965,-0.201081,0.578007,0.790869
0.473772,0.762485,-0.976405,0.789605,0.220433,-0.572655
-0.163102,0.347754,0.902008,-0.778547,0.185033,-0.599689
-0.086322,-0.278891,0.263954,0.953170,0.296040,-0.061869
-0.100860,-0.160537,0.295708,0.831555,-0.123043,0.541643
0.462692,0.511397,0.321851,0.774213,-0.262962,0.575713
0.341644,0.606178,-0.973730,-0.627640,0.443860,0.639575
-0.215362,0.364658,0.917008,-0.549996,-0.656161,-0.516679
0.441850,0.250321,0.777191,0.807697,-0.545504,-0.223720
-0.466923,0.148063,0.546282,0.758098,0.369538,0.537334
-0.282514,0.254986,0.679924,-0.042068,-0.784041,0.619282
-0.214103,0.373556,0.502165,0.639176,-0.062445,0.766521
0.603713,0.008885,-0.807675,0.840589,0.536843,-0.072183
0.365893,0.163424,0.729885,0.519690,0.730582,0.442913
-0.279797,0.047216,0.364801,0.195284,0.976916,0.086596
0.761020,0.290098,-0.963671,0.401640,-0.535793,-0.742706
0.284043,0.046376,0.431331,-0.403181,-0.271215,-0.874006
-0.569190,0.026761,0.559561,0.207619,0.975481,-0.073021
0.836161,0.174448,-0.952671,0.523686,0.401871,-0.751167
-0.698743,0.305972,0.667812,0.971397,-0.065438,0.228267
0.379755,0.389604,0.490429,-0.317762,-0.240427,0.917182
-0.027306,-0.063724,0.385045,0.624117,0.559637,-0.545237
-0.236812,-0.022038,0.342149,0.287043,-0.058374,0.956137
0.559892,-0.432059,-0.940278,-0.154441,-0.519593,0.840340
-0.478524,0.143599,0.586767,-0.618946,-0.689817,0.375578
0.360740,-0.035553,0.604660,-0.185563,0.207320,0.960513
-0.555008,0.702480,0.866365,0.419932,0.906500,-0.043760
0.197235,0.835145,-0.967867,-0.634765,0.470602,0.612868
0.541608,0.518403,-0.960016,-0.479340,0.273424,0.833950
0.365594,0.092500,0.858609,0.950263,0.248015,-0.188385
-0.660061,0.000997,0.348913,0.194835,0.095997,0.976127
-0.571164,0.463429,0.418184,0.822884,-0.546821,-0.154432
-0.746046,0.233579,0.713251,0.885989,-0.457377,-0.076351
0.601818,-0.148680,-0.916714,0.091727,0.869556,0.485241
0.691821,0.222572,-0.950223,0.245816,0.321885,0.914311
-0.179352,-0.135496,0.125687,0.497239,0.373473,0.783116
-0.404279,-0.168473,0.300116,0.703326,0.170946,-0.690007
-0.526035,0.337508,0.788524,0.946506,0.038347,0.320401
-0.620186,-0.572101,0.340999,0.874229,0.485149,0.018807
-0.001830,-0.507168,0.277000,-0.657913,0.529743,0.535279
0.573133,-0.293673,-0.913568,-0.076061,0.981901,0.173450
0.216264,0.058895,0.407224,0.197018,-0.741028,0.641920
-0.258188,0.101628,0.918246,0.791928,0.311344,-0.525277
0.237659,0.766190,0.277957,0.731721,0.645519,0.218839
0.095254,0.787028,0.281162,0.954962,0.241705,-0.172122
0.368573,0.073814,0.782583,0.380264,0.776441,0.502532
-0.094431,0.624633,0.522896,0.959682,-0.085473,-0.267777
0.274217,-0.129703,0.871271,0.514937,-0.781228,0.352878
-0.195999,0.580690,0.674324,0.848769,-0.525300,-0.060426
-0.618937,0.140864,0.345421,-0.773266,0.584346,-0.246168
-0.302426,0.198305,0.511642,-0.596806,0.564365,0.570363
-0.377071,0.048241,0.941963,-0.725477,0.672541,-0.146191
0.068967,-0.295505,0.306112,-0.493238,0.799918,-0.341829
-0.032075,0.408852,0.454527,-0.493112,0.622656,-0.607569
0.044736,0.151041,0.385192,0.790159,0.027509,-0.612285
-0.215488,0.418668,0.897323,-0.307350,-0.810088,-0.499293
-0.404386,-0.282220,0.818388,0.279966,0.875078,-0.394789
0.437512,-0.031797,-0.932228,0.768303,0.598752,-0.226289
-0.331334,-0.179654,0.236976,-0.513440,0.637218,-0.574746
-0.411620,0.045331,0.960483,0.123090,-0.204440,0.971109
-0.695191,0.623273,0.807323,0.240013,0.941646,0.236002
-0.479347,0.459219,0.823686,0.674077,-0.624564,0.394386
-0.261316,-0.349682,0.340365,-0.449264,-0.889472,0.083668
0.231451,-0.527022,0.257436,-0.111671,-0.405829,0.907101
-0.362783,-0.126682,0.637910,0.023053,0.851407,0.523999
0.111132,-0.427649,0.276506,0.449408,-0.873879,-0.185386
0.343118,0.575006,-0.970039,0.157085,-0.523650,0.837326
0.152443,0.162134,0.633188,0.642910,0.466737,-0.607308
0.641902,0.213947,-0.943006,0.163174,-0.678096,-0.716631
-0.002277,0.231504,0.325935,-0.340847,0.622982,-0.704072
0.401594,0.125394,0.726353,-0.682679,-0.427081,-0.592918
0.709730,0.076359,-0.912015,0.732648,0.440226,0.519065
-0.077693,0.298179,0.358876,0.878328,-0.467857,-0.098235
0.094904,-0.949864,0.261440,0.534398,0.782806,-0.318800
-0.020393,-0.019341,0.390755,-0.084179,-0.596747,0.798002
0.121105,0.407237,0.344435,0.331086,0.404189,0.852651
-0.635457,-0.273540,0.709581,0.154520,-0.160892,0.974801
0.044067,-0.163706,0.224406,-0.264199,-0.335567,0.904209
-0.102028,-0.788422,0.232002,-0.562183,-0.291883,0.773792
0.831372,0.746492,-0.948599,-0.582917,0.709450,0.396092
-0.463006,-0.439657,0.327205,0.719965,-0.355420,0.596093
-0.347123,0.098924,0.955473,-0.575303,0.480791,-0.661715
0.797720,-0.050339,-0.917269,0.152535,0.854618,0.496347
-0.446978,-0.533055,0.291340,0.867401,0.490756,0.082304
-0.576999,-0.276007,0.773241,0.938433,0.077538,-0.336648
0.102082,0.049956,0.128196,0.842769,-0.230452,-0.486449
0.238669,0.357325,0.097128,0.912107,0.191191,-0.362639
0.386472,0.253866,-0.361401,-0.637695,0.749005,0.179825
0.487481,0.925506,-0.965385,-0.208511,-0.676719,0.706098
0.768887,0.283650,-0.949260,0.262768,0.259897,-0.929197
0.453923,-0.027767,-0.933024,0.527274,0.846614,0.072297
-0.434335,0.048538,0.343061,0.881459,0.124015,-0.455686
0.362047,-0.050348,0.698684,-0.402307,-0.907214,-0.122928
0.198649,-0.217656,0.238226,-0.055438,-0.874187,0.482415
0.677951,0.339667,-0.949478,0.877310,-0.448984,-0.169530
-0.460714,0.558459,0.338654,0.861220,-0.083634,-0.501303
-0.492401,-0.386730,0.366072,-0.108234,-0.966686,-0.231956
-0.267544,-0.125307,0.880843,0.953292,-0.120370,-0.277030
0.356222,0.382669,0.090816,0.930546,0.361152,0.060449
0.436839,0.105206,0.807209,0.862159,-0.162031,0.480029
-0.360999,0.097917,0.626948,0.301062,0.898787,0.318660
-0.802980,0.365410,0.682940,-0.666220,0.589735,-0.456469
0.061813,-0.279878,0.318713,0.135428,-0.554605,0.821019
0.786720,0.576351,-0.954523,-0.193842,0.782874,0.591213
0.408058,0.181098,-0.131410,-0.688123,-0.723884,-0.049795
0.196132,-0.031138,0.126840,-0.465187,0.429831,0.773852
-0.344524,0.484439,0.258571,0.917623,0.218907,-0.331735
0.754162,0.442041,-0.949185,0.375361,-0.140261,-0.916205
-0.153543,0.032885,0.395025,-0.132691,0.606787,-0.783711
0.482343,0.198969,0.706878,-0.275993,-0.749348,-0.601918
0.507565,0.909585,-0.961708,-0.694136,0.264364,-0.669542
0.296373,0.565026,0.442472,-0.321951,-0.854019,0.408654
-0.323061,-0.205848,0.234291,-0.318206,-0.195961,0.927547
0.342148,0.242942,0.749810,0.680818,0.631827,-0.370515
0.135433,0.553967,0.668059,-0.769319,0.152238,-0.620461
-0.055733,0.307636,0.728569,0.065057,-0.983901,0.166450
-0.989724,-0.062743,0.564921,0.759612,0.439171,-0.479707
-0.227344,0.133628,0.447017,0.908301,0.368080,-0.198761
-0.316675,0.006822,0.662650,0.829503,0.469198,0.302949
0.395693,-0.030168,0.863370,0.933258,-0.314422,-0.173691
-0.451470,0.732133,0.674271,-0.214438,-0.679562,0.701578
-0.325700,-0.265051,0.237109,0.642584,0.307076,-0.701990
0.181069,0.230106,0.339770,-0.395248,-0.663523,0.635230
0.031598,0.275987,0.905559,0.703677,0.135901,-0.697402
0.165148,0.733174,0.289143,0.840129,0.277947,-0.465756
-0.548339,-0.373421,0.818049,0.414829,-0.509539,0.753848
-0.001066,-0.316362,0.302245,-0.333824,-0.525180,0.782782
-0.672968,0.896961,0.821760,0.603391,0.790691,-0.103570
-0.542482,0.720636,0.824595,0.272243,-0.832704,0.482170
0.298565,0.809973,-0.993328,0.594225,0.073006,-0.800978
0.790944,0.333810,-0.939242,0.825335,0.301097,0.477664
-0.543558,0.088627,0.579920,-0.538423,0.630161,0.559463
0.218555,0.182850,0.102808,0.532857,0.687684,0.493106
0.397923,-0.078419,0.872690,0.761003,-0.612591,-0.213557
0.542750,-0.374067,-0.921282,0.469526,0.217992,-0.855585
0.107110,0.050376,0.451403,0.727463,0.023582,0.685741
-0.183628,0.347399,0.954294,0.887854,0.191572,-0.418349
0.124105,0.054798,0.426644,0.917279,0.208876,-0.339073
-0.436522,-0.615083,0.254319,0.370152,-0.449647,0.812899
0.661188,0.354579,-0.956352,0.357593,-0.309705,-0.881028
-0.472751,0.093080,0.694885,0.320216,0.730162,0.603594
-0.238774,0.123359,0.964345,0.843438,0.508675,-0.172806
0.693838,0.020964,0.599042,0.662031,0.736334,-0.139737
-0.473640,0.595967,0.840085,0.730047,-0.616768,-0.294329
0.652983,0.447076,-0.968329,0.123112,-0.298967,0.946289
0.368630,0.593761,-0.977663,-0.903602,0.335969,0.265758
-0.421553,-0.019042,0.747243,-0.613357,-0.017322,-0.789616
-0.684687,0.122362,0.906060,-0.520179,-0.594314,0.613356
-0.700636,0.242940,0.420385,-0.186188,-0.893302,0.409078
0.569323,-0.389572,-0.922693,-0.482031,0.349179,0.803567
-0.616348,-0.047837,0.561138,-0.541602,-0.676252,-0.499349
0.024740,-0.626992,0.259219,-0.372727,-0.456773,-0.807733
-0.390174,-0.069242,0.260442,0.448817,-0.572314,0.686310
0.325732,-0.167623,0.876814,-0.095206,-0.913504,0.395534
-0.627154,0.395331,0.412711,0.725464,-0.662267,0.187360
-0.332172,0.284254,0.938688,0.992772,-0.078718,-0.090595
-0.237521,0.707517,0.722058,0.947797,-0.310363,-0.073179
0.585711,0.406945,-0.965483,-0.734567,-0.152139,0.661260
-0.443251,0.531984,0.823241,0.715657,-0.071882,-0.694743
-0.712539,-0.023524,0.352762,0.815202,0.536738,-0.217619
-0.106121,-0.200246,0.743528,0.912157,-0.408175,0.036922
-0.411732,-0.099743,0.330951,-0.277439,-0.273906,-0.920871
0.407015,0.353114,-0.180584,0.740702,0.657588,-0.137619
0.220459,0.712835,0.264466,0.837964,0.404870,-0.365920
0.008406,0.174069,0.318927,-0.701149,0.141903,-0.698751
0.324165,0.250021,0.072423,0.926012,-0.192400,-0.324784
-0.797519,0.048260,0.746890,-0.421135,-0.248634,0.872254
0.569433,0.270171,0.336417,-0.178255,0.897966,-0.402347
0.299816,0.647971,0.313413,0.394608,0.910872,-0.120815
-0.500533,0.143159,0.943730,0.696871,-0.679657,0.228991
-0.530797,0.093263,0.318004,0.010640,0.946042,0.323868
-0.473959,-0.335822,0.248215,0.889566,0.124640,0.439473
0.323012,-0.315160,0.678465,-0.568468,-0.177502,-0.803329
-0.560694,-0.075481,0.570785,0.005727,0.863820,0.503768
0.005494,0.171262,0.257602,0.654442,-0.264284,0.708420
0.535261,0.325666,-0.961317,0.214762,-0.762401,-0.610427
0.375374,0.052343,0.485568,0.030446,0.634881,0.772010
0.095024,0.624013,0.224582,-0.004041,-0.986548,0.163420
-0.509553,0.380576,0.795116,0.320728,0.906649,-0.274081
-0.109132,0.407894,0.397807,0.968666,0.122614,-0.215989
0.414562,0.317808,-0.004924,0.965681,0.090021,0.243633
-0.173121,-0.198821,0.300793,0.004696,0.642860,0.765970
-0.065376,0.248660,0.572750,0.952781,0.149327,0.264404
0.854829,0.523424,-0.949276,-0.645573,0.661185,-0.382192
-0.108647,0.308967,0.430077,-0.065194,-0.972588,0.223209
0.748906,0.248910,-0.938640,-0.508377,-0.503949,0.698275
0.523283,0.196750,-0.955873,0.146799,0.640483,0.753811
-0.180288,-0.243114,0.305620,-0.063571,0.190579,0.979611
-0.085743,0.825494,0.422706,0.491950,-0.274603,-0.826183
-0.572275,0.119680,0.300498,-0.266030,0.857749,0.439881
0.090539,-0.144363,0.312753,-0.772450,-0.605284,-0.192229
0.417945,0.023275,0.654481,-0.710973,0.521689,0.471548
-0.565247,-0.136630,0.312621,0.313464,0.552188,0.772547
0.033825,0.133125,0.384331,0.577174,-0.110174,-0.809155
0.632699,0.543147,-0.953417,-0.300638,0.485270,-0.821054
0.687087,-0.495818,-0.925306,-0.383676,-0.153534,0.910615
0.084329,0.038221,0.432070,-0.649937,0.653860,0.387361
-0.717315,-0.314626,0.706584,-0.583190,0.076565,-0.808720
0.207864,0.785999,-0.968412,0.883128,0.260348,0.390262
0.721885,0.753683,-0.946619,0.483895,0.838031,-0.252090
-0.515152,0.117476,0.632209,-0.383176,-0.916347,-0.116123
-0.555936,0.095101,0.371374,-0.943142,-0.031106,0.330931
-0.545946,-0.120375,0.268551,-0.585846,0.544507,0.600247
-0.521971,-0.511078,0.358091,0.784819,0.061272,-0.616689
-0.441111,0.121699,0.905061,-0.411949,-0.387909,-0.824515
-0.030882,-0.274757,0.309626,0.853092,0.467361,-0.231964
0.290544,0.207332,0.036906,0.869669,0.493583,0.007216
-0.407799,-0.187101,0.670813,0.138906,0.979783,0.143979
0.320946,0.158649,0.696522,-0.012421,-0.989917,0.141101
0.419175,0.369459,-0.037144,0.062591,0.983858,0.167649
0.059125,0.124866,0.454530,0.964995,0.160846,-0.207154
-0.534566,-0.580579,0.362965,-0.807916,-0.259481,0.529095
0.677892,0.765271,-0.943039,0.143778,-0.136556,0.980143
0.606151,-0.131693,-0.926584,0.891942,-0.066436,-0.447242
-0.244496,-0.112200,0.286596,0.184324,-0.923845,0.335463
0.232474,0.103091,0.911198,0.967963,0.201973,-0.149178
-0.498231,-0.071733,0.555563,0.058939,0.958837,0.277772
-0.376862,-0.001315,0.923497,0.187962,0.955977,-0.225341
0.187971,-0.191627,0.204879,0.743026,-0.173079,0.646495
0.236684,0.286515,0.106814,0.987933,-0.051647,0.146018
0.643431,0.415079,-0.955366,0.422725,-0.234007,-0.875525
0.291635,0.250850,0.131790,-0.301184,-0.948415,0.098977
0.429753,-0.169033,0.899691,-0.237223,-0.500294,-0.832725
0.845756,0.297310,-0.957372,-0.203253,0.525476,0.826174
0.468997,0.158530,0.763536,-0.549996,-0.629403,0.548960
-0.004551,-0.038356,0.291600,-0.217789,0.531473,-0.818599
-0.191512,0.461637,0.932372,0.960471,-0.201664,0.191905
-0.680811,0.033251,0.338797,0.888969,-0.143353,0.434953
-0.569072,-0.147047,0.805946,0.765945,0.484697,-0.422371
0.322481,0.264053,0.122678,0.969877,-0.181971,0.161941
-0.411397,-0.320783,0.330714,0.413031,-0.909991,-0.036353
-0.501756,0.006300,0.874160,-0.158566,-0.860606,0.483957
-0.260909,0.197710,0.340613,0.770589,-0.613025,0.174335
0.405304,0.520524,0.486424,0.927484,0.371437,0.042512
-0.946677,-0.051187,0.592498,0.858989,-0.199105,-0.471695
0.165323,0.342822,0.366782,0.222698,-0.974309,0.033579
-0.609606,0.124653,0.790998,-0.115375,0.859120,0.498600
-0.427732,-0.276892,0.421712,0.240820,-0.817295,0.523483
0.011478,-0.365751,0.300642,0.124749,-0.924603,-0.359927
-0.159183,-0.272473,0.838567,0.726715,-0.022361,0.686575
-0.639223,0.618458,0.810089,-0.482813,-0.838552,-0.252434
0.071253,-0.061756,0.606581,0.803505,0.318284,0.503065
-0.764834,0.283990,0.403771,0.825090,-0.554845,0.106644
-0.498036,0.151925,0.541676,0.976532,0.214148,-0.022925
0.441866,0.171485,-0.963444,-0.036810,0.400139,0.915715
0.346522,0.159700,0.896567,0.466069,0.745225,0.476885
-0.207169,0.320788,0.578094,0.139101,-0.910130,-0.390274
0.617641,0.379439,-0.974731,0.134045,-0.017969,-0.990812
0.762203,-0.044172,-0.928901,-0.639877,0.718313,-0.273101
0.543732,-0.054399,-0.919312,0.536952,-0.841365,0.061543
-0.424185,0.388904,0.885002,0.292884,0.944977,0.145729
0.411581,0.565652,-0.959911,-0.070994,-0.004111,-0.997468
-0.526903,0.228357,0.467606,-0.338594,-0.911711,0.232675
-0.505362,-0.066129,0.263939,-0.508523,0.500796,0.700434
0.794998,0.662684,-0.941373,0.648531,0.742246,-0.168753
-0.365023,-0.065719,0.289109,-0.011885,0.252697,0.967473
0.209921,0.010831,0.146400,0.765525,0.628437,0.137980
-0.170336,-0.289762,0.726985,-0.749054,-0.200476,0.631449
0.074707,-0.082605,0.364062,-0.445666,-0.710269,-0.544885
-0.357347,-0.070662,0.862930,0.795007,0.321838,0.514183
0.042545,0.318788,0.432360,-0.191041,0.965883,-0.174855
-0.120359,-0.030177,0.710148,-0.524128,0.582530,0.621248
0.836171,0.167377,-0.950947,0.280407,0.674004,-0.683440
-0.243876,0.144085,0.579852,0.709192,0.117636,-0.695132
-0.584470,-0.071083,0.803129,0.979943,-0.188908,-0.063453
0.460033,0.034676,0.696869,0.669163,-0.009494,0.743055
0.097784,-0.412718,0.297055,0.138740,-0.705533,0.694963
-0.258371,-0.026661,0.822773,0.788438,0.077818,0.610172
-0.395520,-0.269079,0.655713,-0.393206,-0.919267,-0.018384
0.722403,0.055112,-0.933034,-0.222113,0.744124,0.630036
0.130948,0.212056,0.613345,0.806732,0.410874,-0.424695
0.373028,0.193190,0.017002,0.761012,-0.052693,0.646594
0.781118,0.513231,-0.971665,-0.210236,-0.033492,0.977077
0.306354,-0.066429,0.235222,-0.283020,-0.750403,-0.597324
-0.533859,-0.207245,0.701144,0.581148,-0.100387,0.807583
-0.492806,0.138942,0.925859,-0.075021,0.432588,0.898465
0.321903,0.236428,-0.270392,0.494129,-0.632656,0.596308
-0.382413,0.058845,0.730487,0.899390,-0.401827,-0.172140
-0.616562,0.663860,0.776068,-0.396152,0.078883,-0.914790
-0.440308,0.030627,0.244144,0.013171,0.962384,0.271374
0.262306,0.090955,0.833963,0.678464,-0.531617,0.507020
0.184593,-0.009464,0.863336,0.275852,0.852696,0.443638
0.449041,0.788489,-0.968691,-0.260768,-0.378545,0.888090
0.106728,-0.071187,0.485213,0.766780,0.637031,-0.078993
0.403620,0.131498,0.868875,0.432225,0.824190,-0.365914
0.221443,-0.388985,0.269784,-0.174253,0.966149,0.190243
0.092042,0.675639,0.670880,0.265927,0.232100,0.935635
-0.752773,0.364044,0.452756,-0.433047,-0.770645,-0.467521
-0.134440,0.763015,0.697591,0.702983,-0.348456,-0.619995
-0.566088,-0.088908,0.456237,0.870743,0.069029,0.486870
-0.545400,-0.090465,0.265135,0.763190,-0.517488,-0.386971
-0.053781,-0.228991,0.265669,-0.580538,0.386545,0.716630
0.136071,0.157855,0.536320,-0.059718,0.972531,-0.224982
0.227209,0.702779,0.292806,0.941288,0.230298,0.246861
0.123246,0.792616,0.282549,0.240244,0.958560,0.153122
-0.305797,0.099573,0.537229,-0.112967,-0.992782,0.040288
0.457773,0.113062,0.368738,-0.712800,0.677810,0.180253
-0.756897,0.253900,0.403553,0.868718,-0.488011,-0.084700
0.022182,0.205745,0.399681,0.582600,0.632416,-0.510516
0.224100,0.872169,-0.984306,-0.033253,-0.454430,0.890162
-0.331587,-0.259005,0.212370,0.412441,0.898253,0.151768
-0.363020,0.183591,0.876079,0.623174,-0.689385,0.369327
0.683464,-0.401430,-0.914160,0.651051,0.637811,0.411498
0.214099,0.474884,0.452511,0.720814,-0.649706,0.241472
-0.391076,0.063107,0.695685,-0.401228,-0.046175,0.914813
-0.339087,0.479471,0.760409,0.541246,-0.755704,0.368733
-0.119792,-0.027616,0.381905,-0.078720,-0.559482,0.825096
0.333310,0.337014,0.050054,0.985885,-0.090384,0.140928
0.105932,-0.206393,0.643491,0.855456,0.050839,0.515374
-0.341698,0.063582,0.938194,-0.678274,0.646551,-0.349166
-0.420994,0.429522,0.808755,0.944595,0.318983,-0.077397
0.079124,0.823138,0.354523,-0.072375,-0.913412,0.400551
0.652368,0.314880,-0.956125,0.427496,0.096921,-0.898806
0.650805,0.602958,-0.947942,0.290817,-0.064179,0.954624
-0.117225,-0.030274,0.951193,-0.122404,-0.563940,0.816694
-0.075693,0.307455,0.409203,-0.546461,-0.824547,0.146634
-0.498138,0.073365,0.815495,0.466547,0.786564,-0.404539
-0.595453,-0.042038,0.747605,0.933272,-0.359165,-0.001840
0.850188,-0.012864,-0.940291,0.901105,-0.374973,-0.217725
-0.050523,0.314111,0.580075,0.939606,-0.073218,0.334334
-0.518417,-0.205403,0.814992,0.941144,0.298785,0.158034
-0.708159,-0.203601,0.545539,-0.134778,0.582316,0.801712
-0.046496,-0.143880,0.392144,-0.687727,-0.725550,0.024660
-0.003680,-0.067864,0.253957,0.901206,-0.389455,-0.190137
-0.541146,0.859081,0.781611,-0.408528,0.495040,0.766838
-0.341677,0.549011,0.840417,0.100552,0.162569,0.981560
-0.703846,-0.130760,0.577491,0.530902,0.431154,-0.729554
0.173716,-0.274085,0.218233,-0.586981,-0.725747,-0.358810
0.213431,0.258339,0.095540,0.192275,0.075472,0.978435
-0.446427,-0.187614,0.680589,0.202144,0.919467,-0.337221
0.564830,-0.378977,-0.932251,-0.110430,-0.942719,0.314779
0.491372,0.129363,-0.819297,0.990615,0.121607,0.062392
-0.405833,0.010750,0.942673,-0.506305,0.860293,0.059593
-0.572991,0.006662,0.549317,-0.319740,0.691929,0.647302
-0.460736,0.118386,0.355431,-0.420092,-0.428305,0.800049
0.514197,-0.074733,0.513396,-0.265153,0.790708,0.551792
0.458132,0.255319,-0.372692,0.870092,0.201130,-0.449986
-0.477043,0.052284,0.850922,0.539049,-0.784909,0.305522
0.437259,0.309429,-0.951922,0.245699,-0.561911,0.789866
-0.705933,0.237234,0.690126,-0.005816,-0.491453,0.870885
-0.321987,-0.409751,0.202019,-0.587183,0.746054,-0.314039
-0.344398,0.156897,0.327742,0.112614,-0.918200,0.379773
0.125989,0.272443,0.292920,0.656131,0.670569,-0.346163
-0.312544,0.381098,0.894049,-0.658198,0.739659,0.140286
0.355628,-0.067649,0.925709,-0.405169,-0.295457,0.865184
-0.238464,0.093504,0.592125,-0.260233,0.901038,0.346999
0.321977,-0.431026,0.235541,0.916239,-0.020814,-0.400092
-0.335221,0.481877,0.738308,0.718560,-0.686790,-0.109506
-0.377375,0.613547,0.817978,-0.312416,0.850914,-0.422304
-0.229748,-0.080424,0.772852,0.633338,0.769563,0.081578
-0.591144,0.235378,0.651404,-0.527634,-0.849368,0.013258
0.518472,0.100541,0.860972,0.721035,0.643141,-0.257834
-0.529460,0.609474,0.823399,0.980420,0.094781,0.172609
-0.473939,0.649970,0.819938,0.682327,0.300670,0.666354
0.757967,0.325358,-0.940499,0.032304,0.999350,0.015993
0.598162,-0.017210,-0.921356,-0.720575,0.691240,-0.054402
0.065902,-0.091501,0.623506,-0.775122,-0.478674,-0.412380
-0.083426,0.449060,0.743167,-0.315308,-0.937441,0.147595
-0.228929,0.305296,0.935363,0.772930,0.325966,-0.544357
-0.675248,0.326055,0.692485,0.842092,0.337924,0.420344
-0.635954,0.614878,0.821450,0.770549,-0.635220,0.052440
0.396579,-0.095011,0.799906,-0.714581,0.148223,-0.683669
-0.169432,-0.065223,0.253286,-0.307104,-0.702348,0.642180
0.865302,0.732816,-0.955402,0.524565,0.839679,-0.140610
-0.536422,-0.367357,0.281414,0.498746,-0.388235,0.774936
0.148379,0.866980,-0.975917,0.754564,-0.033021,-0.655396
-0.226025,-0.302990,0.833804,-0.071192,-0.936815,0.342506
-0.244792,0.080967,0.341855,0.904581,0.389035,0.174312
-0.519650,0.450238,0.883225,0.969232,0.106315,0.222004
0.432130,-0.033176,0.502214,-0.265153,0.790708,0.551792
-0.469947,-0.336413,0.296719,-0.024056,0.995823,0.088079
-0.293840,0.565193,0.745607,0.903102,0.385394,0.189418
-0.092845,0.382104,0.471228,-0.360437,0.847982,0.388601
-0.268796,0.094895,0.314662,0.670293,-0.712991,0.205795
0.422436,0.140684,0.300922,-0.351203,0.878781,-0.323112
-0.812136,-0.204500,0.550368,-0.453493,-0.860338,-0.232730
-0.335432,0.336000,0.917254,0.406858,0.626280,0.665011
-0.284697,0.022286,0.816463,0.838633,0.367380,0.402152
-0.655724,0.067711,0.804014,0.177769,0.982687,0.052188
-0.717346,-0.002902,0.316224,0.620705,-0.693405,0.365945
0.476024,0.123957,0.876914,0.792676,0.607398,0.052273
-0.527938,0.065670,0.318135,-0.520240,0.806408,0.281171
0.707875,-0.507305,-0.933515,0.060217,0.909932,-0.410362
-0.379324,-0.078521,0.268003,-0.069257,-0.969018,-0.237081
0.547125,-0.503399,-0.939973,0.562577,0.315978,0.763980
0.199010,0.743175,-0.953534,0.756137,0.389821,-0.525640
-0.603201,0.131928,0.398580,-0.213640,-0.903804,0.370805
0.488723,-0.363110,-0.923799,-0.108013,-0.146243,0.983334
-0.755738,0.242194,0.728671,0.809184,-0.534995,-0.242902
0.352966,0.448884,0.445976,0.790355,0.502972,0.349797
0.882417,0.667980,-0.951408,0.253015,0.552306,0.794318
-0.644706,-0.080222,0.595454,0.728997,0.502583,0.464730
-0.285212,0.117890,0.938721,-0.030017,0.233362,0.971927
0.739486,0.335914,-0.942856,0.067710,0.838718,0.540340
-0.076827,-0.060632,0.377766,-0.015735,-0.999848,-0.007452
0.303669,-0.086296,0.596068,0.286258,0.912836,-0.291181
-0.135868,-0.175985,0.298032,-0.259577,0.794849,0.548485
0.662610,0.570343,-0.969403,0.803933,-0.260967,-0.534405
-0.349700,-0.100548,0.803238,-0.431825,-0.392770,0.811948
-0.127187,0.399515,0.436097,-0.526318,-0.762933,0.375397
-0.237874,0.252190,0.439325,-0.300844,0.940231,-0.159558
0.004059,-0.360548,0.241949,-0.389825,0.315376,-0.865202
0.486891,0.165291,0.739003,0.459437,0.836086,-0.299798
-0.236266,-0.263934,0.144274,-0.517313,-0.481700,-0.707356
0.821473,0.540561,-0.948054,0.020231,0.043319,0.998856
-0.432320,0.746846,0.837317,-0.654451,0.739043,-0.159718
-0.269991,0.038523,0.345619,-0.051415,-0.374204,0.925920
0.317125,0.283775,0.815103,0.923649,0.317544,-0.214566
0.671643,-0.141840,-0.937663,-0.020961,0.547862,0.836306
-0.385227,-0.094850,0.282265,0.028969,0.994350,-0.102119
-0.108925,0.036105,0.126676,-0.073964,0.422534,0.903324
0.259439,-0.072506,0.267829,-0.441346,0.568047,0.694648
0.087557,0.255803,0.410774,0.287579,-0.599120,0.747231
0.230680,0.621999,0.183995,-0.060394,-0.923155,0.379654
0.284458,0.119460,0.848597,0.764556,-0.643692,-0.033376
0.388054,0.231280,-0.200695,-0.685715,-0.724830,0.066451
-0.306649,-0.069926,0.136350,0.134791,0.922807,0.360913
0.311767,0.267094,0.531831,0.485870,-0.613092,-0.622935
0.742071,0.698410,-0.971693,-0.406438,-0.259395,-0.876083
0.700098,0.410564,-0.955685,-0.057451,-0.663951,0.745565
-0.561969,-0.293552,0.828360,-0.624807,0.311474,-0.715961
0.305822,0.137847,0.668478,-0.131957,-0.987225,0.089297
0.825809,0.540893,-0.965451,0.830657,0.401459,-0.385798
-0.417008,0.575891,0.802387,0.399134,0.913876,0.074310
-0.619643,0.686174,0.624677,0.022233,-0.767805,0.640297
0.007876,0.314651,0.436898,-0.349948,-0.908539,0.228240
0.721312,-0.076207,-0.919677,-0.536949,0.556013,-0.634457
0.207041,0.208788,0.793803,0.384028,-0.694405,0.608543
-0.462811,0.525766,0.803717,-0.312660,0.184329,0.931808
0.477018,-0.405005,-0.907354,-0.146468,0.646002,0.749152
0.199145,0.791542,-0.985060,0.659280,0.751561,0.022497
-0.376980,-0.297891,0.327996,-0.071853,-0.895778,0.438655
-0.355957,0.153752,0.907035,0.843874,-0.230771,-0.484377
0.445642,0.104023,0.725279,-0.475877,-0.043777,0.878422
0.273130,0.220565,0.903171,0.951921,0.255515,0.168995
-0.338143,0.143454,0.503026,0.863770,-0.485767,0.133909
0.073881,0.690937,0.483061,-0.523977,0.808233,-0.268714
-0.219357,0.135515,0.443889,0.970613,0.174334,0.165885
-0.221738,0.757716,0.702561,0.765468,0.376057,0.522150
0.109171,0.358442,0.858002,-0.233497,-0.924010,0.302795
0.351970,-0.007238,0.929010,-0.162255,0.229859,0.959603
-0.308698,-0.337092,0.580562,0.926667,0.223401,-0.302292
-0.000509,0.422173,0.704966,-0.274516,-0.052376,0.960155
0.665129,-0.350332,-0.898703,0.827148,-0.316840,-0.464153
0.210495,0.683660,0.422026,0.980873,-0.184223,0.062845
-0.012303,0.204241,0.314337,0.744417,-0.368876,0.556573
0.373978,-0.221071,0.638297,-0.006973,0.955467,0.295017
0.831635,0.288881,-0.956171,0.424117,-0.583773,-0.692339
0.324009,0.160714,0.773933,0.812041,0.487610,0.320664
-0.306857,-0.132169,0.242514,-0.585998,0.311885,-0.747887
-0.470143,0.193351,0.682455,-0.085727,-0.952236,0.293082
-0.225829,0.105505,0.942001,-0.806785,0.424975,0.410481
0.899407,0.646480,-0.942496,0.115916,0.588636,0.800044
0.143162,0.380048,0.419245,0.778704,-0.625901,0.043218
-0.933206,-0.078640,0.603401,-0.168056,-0.247101,0.954305
0.343556,0.455304,-0.972657,0.417538,0.301230,0.857276
0.190202,0.631811,0.673967,0.989082,-0.144014,0.031243
0.202148,0.266119,0.465933,-0.250959,0.434878,0.864813
0.155494,0.318957,0.438958,0.509118,-0.846758,0.154274
-0.096394,0.181711,0.801125,0.090348,0.727791,-0.679822
-0.275999,-0.088013,0.259110,-0.679443,0.577008,-0.453232
-0.472950,-0.026362,0.894760,0.420611,0.705102,0.570892
0.394212,-0.039502,0.891617,-0.750769,0.659739,-0.033012
0.331994,0.334185,-0.969938,0.185193,-0.003953,0.982694
-0.443332,-0.437816,0.429882,-0.167425,-0.016175,0.985752
0.150870,-0.354387,0.305103,-0.082034,-0.469141,0.879305
-0.196721,0.367242,0.582695,-0.205717,0.932516,0.296806
0.546421,-0.014697,0.597957,0.302218,0.930545,-0.206763
-0.593306,-0.348119,0.327776,0.731741,0.559200,0.389679
0.286827,0.595599,0.106991,-0.465168,-0.293019,0.835320
-0.458561,-0.198276,0.285363,-0.083304,0.596065,0.798603
-0.628763,0.330233,0.395390,0.736440,-0.124715,0.664907
-0.063733,-0.037498,0.325242,-0.386697,-0.183947,0.903675
-0.452249,0.099354,0.869592,0.610114,0.754784,0.240960
-0.031337,0.792427,0.417365,-0.218924,-0.095499,-0.971057
0.085502,0.414049,0.684507,-0.895526,0.434460,-0.096322
0.662777,0.039453,0.587372,0.491666,0.860071,-0.136171
-0.432023,0.888610,0.495587,-0.051437,-0.971733,0.230412
-0.375867,-0.101433,0.773517,-0.168818,-0.853575,-0.492859
-0.515227,0.457130,0.871355,0.681877,0.386309,0.621135
0.231674,0.001017,0.157678,0.360107,0.878095,0.315074
-0.075952,-0.343851,0.268869,-0.553529,-0.484960,0.677067
-0.158224,0.314670,0.964546,0.271813,0.787586,0.553016
0.416706,0.732422,-0.959355,0.418830,0.644899,0.639286
0.015524,-0.593066,0.200782,-0.681656,-0.682363,-0.264057
-0.507412,-0.065229,0.281231,0.264834,-0.937697,0.224917
-0.283734,0.261628,0.687322,0.212937,-0.870236,0.444237
-0.617167,0.211145,0.690949,0.256862,-0.060503,0.964552
0.276003,0.412994,0.360001,-0.813951,0.024546,-0.580415
0.431493,0.388611,-0.972972,0.789716,0.609944,0.065708
0.321583,0.049000,0.804989,0.091160,-0.783357,0.614850
0.447735,0.127335,-0.955827,-0.180598,-0.855859,0.484655
-0.074509,-0.160803,0.363205,0.774768,0.012845,-0.632115
0.949868,0.663035,-0.933086,0.063411,0.278249,0.958414
-0.678127,0.025935,0.724059,0.599990,0.714098,-0.360660
-0.520676,0.203815,0.567033,0.923926,0.360142,0.129072
0.070415,-0.052540,0.280307,0.894619,0.228976,-0.383701
-0.731642,0.004564,0.745060,0.558288,0.824010,0.096552
-0.375449,0.157531,0.897286,0.725916,-0.451873,-0.518513
-0.540031,0.905113,0.860388,-0.076859,-0.648401,0.757410
0.116462,-0.983333,0.244126,0.702884,0.601417,-0.379806
0.101678,-0.159068,0.334601,-0.765588,0.459797,-0.449958
-0.319377,-0.069135,0.244507,-0.141305,0.292091,-0.945894
-0.676846,0.213022,0.918899,-0.186005,0.576635,0.795547
0.022858,0.027925,0.348248,-0.819287,0.299734,0.488802
-0.045579,-0.535973,0.242790,0.682199,-0.580426,0.444647
0.116612,0.168143,0.540383,0.210928,-0.935215,0.284399
0.666180,0.378750,-0.962240,-0.230388,-0.323633,0.917705
0.198322,0.159717,0.624570,0.379358,0.882369,-0.278410
0.362010,-0.024729,0.910430,0.958326,0.082289,0.273569
0.089876,0.380179,0.888816,0.491941,0.852463,-0.176922
0.028221,-0.470552,0.252410,0.254342,-0.960914,0.109335
0.261891,0.487208,0.880139,0.866214,-0.456853,-0.202383
-0.630972,0.012997,0.531384,-0.297375,0.767271,-0.568211
-0.743207,0.406004,0.285028,0.882679,0.456024,0.113663
0.042714,-0.070785,0.372372,0.722274,0.681751,0.116343
-0.488361,0.172206,0.855952,-0.725035,-0.378717,0.575238
-0.094895,-0.120524,0.727467,0.982557,-0.036507,-0.182342
-0.486930,0.259451,0.373314,0.377288,-0.855049,0.355732
-0.666484,0.177382,0.613812,0.028991,0.937700,-0.346235
-0.498448,0.079027,0.930759,-0.285262,0.451450,0.845469
-0.419206,-0.212745,0.238755,0.095409,-0.959243,0.265989
-0.074042,-0.152687,0.901904,0.256623,0.810096,-0.527152
0.586011,-0.436128,-0.913802,-0.600407,0.564209,0.566727
0.337711,0.086424,0.740272,0.889697,0.365244,-0.273925
0.587212,-0.023460,0.620681,-0.181921,0.438306,-0.880223
0.430146,0.378981,-0.067770,-0.045470,-0.943696,0.327675
-0.623718,0.070496,0.813954,0.216193,0.903954,-0.368955
-0.654665,-0.240322,0.611094,0.421109,0.900398,0.109319
0.400999,0.199960,0.722045,-0.557393,-0.718697,-0.415678
-0.385284,-0.694588,0.279710,0.978662,0.094122,0.182650
0.453945,0.144475,0.686612,0.780025,0.612638,-0.127422
-0.373802,-0.008100,0.570693,0.904455,-0.363191,0.223728
0.189224,0.714181,0.222321,-0.121213,0.990148,-0.070098
0.123086,0.916067,-0.973626,0.751736,0.596724,-0.280738
-0.328548,-0.088257,0.304832,0.237118,0.945982,-0.221116
0.579559,0.022090,0.641486,-0.250676,-0.954893,0.159187
0.093603,0.412193,0.891537,0.569626,0.800488,-0.186402
-0.289156,0.683413,0.569682,0.419602,0.499899,0.757651
0.013135,0.612736,0.714586,-0.707005,0.625738,0.329539
-0.236826,-0.464062,0.356150,-0.385377,0.198525,-0.901151
0.050202,-0.009907,0.392199,-0.774414,0.401831,0.488686
0.137526,-0.023981,0.428390,-0.307474,0.787428,0.534245
0.261605,0.364676,0.105610,0.982573,-0.107193,0.151854
0.383830,0.216655,-0.952559,-0.676719,0.080063,0.731875
0.006229,-0.304580,0.250055,0.010425,0.993565,0.112785
-0.289714,0.114595,0.874233,0.791825,0.043803,-0.609175
-0.312839,0.154620,0.400183,0.796877,-0.582607,0.159865
-0.591222,0.411710,0.791779,0.952034,0.281445,0.120081
0.106383,0.094040,0.847448,0.810456,0.093262,0.578327
0.003716,0.203945,0.310414,0.319825,-0.495108,0.807824
0.191293,0.041080,0.454127,-0.655099,0.157747,-0.738892
-0.435541,-0.240579,0.425423,-0.599506,0.603028,-0.526260
-0.263626,0.008969,0.426566,0.080046,-0.525097,0.847269
0.268402,0.931389,-0.981227,-0.254663,0.206860,0.944646
0.082242,-0.433087,0.316061,0.338944,0.919461,0.199269
-0.560311,-0.115070,0.718405,0.085534,-0.606765,0.790266
0.188982,-0.061532,0.585204,-0.657728,0.110502,-0.745106
-0.055807,0.328261,0.530038,0.015063,0.670831,0.741458
0.144678,0.074421,0.428355,0.466860,-0.858760,-0.211123
-0.568246,0.553157,0.831357,0.037151,0.263547,0.963931
-0.383265,-0.651977,0.258980,-0.783657,0.620746,0.023603
0.682343,0.090805,-0.941874,-0.234802,0.604381,0.761309
-0.560424,-0.030233,0.722587,-0.561185,0.227045,-0.795941
-0.450575,-0.193670,0.655647,-0.573089,0.582583,0.576339
-0.672137,-0.022543,0.343921,-0.749787,-0.457737,0.477803
-0.780830,-0.004846,0.816377,0.467739,0.605709,0.643691
0.352109,0.287822,0.028959,0.830893,-0.047740,0.554380
0.455680,0.138530,0.392757,-0.819036,0.258345,-0.512287
0.761578,-0.335295,-0.929179,-0.595049,-0.046762,-0.802328
-0.564048,0.516964,0.855416,-0.677874,0.590283,0.438238
-0.671073,0.598154,0.863335,0.420159,0.754776,0.503765
0.316178,-0.357586,0.273730,0.756563,-0.287565,0.587298
0.597887,0.049339,0.595650,0.162294,0.857745,-0.487785
0.338291,0.112532,0.413742,-0.684034,0.692729,-0.228524
-0.151265,0.677190,0.644849,-0.580049,0.790839,-0.195235
0.346909,0.812351,-0.973820,-0.246136,-0.063185,0.967174
0.003443,0.317282,0.571374,-0.584082,-0.057215,-0.809676
-0.016698,0.516402,0.693001,0.150360,0.581036,0.799868
0.281433,0.104445,0.878668,0.263170,-0.449031,0.853881
0.538123,0.267558,-0.972507,0.394989,0.001562,0.918685
0.513515,0.330306,-0.974793,-0.166845,0.180799,-0.969265
-0.382444,-0.549746,0.380732,-0.657697,0.553620,0.510823
0.501993,0.007933,-0.954710,-0.591934,0.351006,0.725540
0.340833,0.147504,0.623215,0.630774,0.755254,0.178086
-0.378951,0.739954,0.847191,0.737328,0.666764,0.108500
-0.105574,-0.041401,0.927479,0.420433,-0.462618,0.780526
-0.817029,0.387585,0.710315,0.717060,-0.128552,0.685054
0.657416,0.648763,-0.956103,0.565079,0.307383,0.765638
0.302316,-0.034107,0.884697,0.741487,-0.494521,-0.453482
-0.360549,0.585752,0.852208,0.890176,0.352692,0.288435
0.018731,0.057931,0.292792,0.995505,0.053780,0.077953
-0.094430,0.355109,0.447825,-0.608465,0.308603,-0.731118
-0.002838,0.068451,0.355001,0.767016,0.170661,-0.618515
-0.350789,0.027273,0.926778,0.994105,0.106823,0.018548
0.635678,-0.365305,-0.916865,-0.477783,-0.241211,0.844713
0.383572,0.121644,-0.674684,0.702795,0.705141,-0.094102
0.452902,0.822278,-0.958358,0.017711,-0.923856,0.382331
0.185282,0.672989,-0.972938,-0.699851,-0.286242,0.654426
-0.472163,0.181224,0.923472,0.241137,0.498045,0.832949
-0.495638,-0.426886,0.279134,0.850010,-0.032961,0.525734
0.653044,-0.163745,-0.907922,0.164696,-0.620187,-0.766971
0.060294,-0.113004,0.371850,0.721310,0.316213,0.616216
