-0.469279,0.020376,0.796556,-0.378342,-0.586473,-0.716176
-0.556928,0.374271,0.757454,-0.404948,-0.864871,-0.296676
-0.351091,-0.506621,0.831079,0.451182,0.069464,0.889724
-0.467210,-0.072655,0.773299,0.005955,0.860681,0.509110
-0.397159,-0.341239,0.827818,-0.193549,0.927587,0.319564
-0.364724,-0.357353,0.870972,0.983872,-0.069080,0.164993
-0.502926,0.146514,0.796457,0.412188,0.762858,0.498146
-0.208745,-0.628738,0.807592,0.983678,-0.170453,0.057651
-0.262753,-0.383456,0.791977,0.960634,0.183171,0.208880
-0.251022,-0.339314,0.820340,-0.259398,-0.226950,0.938726
-0.283457,-0.564086,0.817738,0.392061,-0.661830,-0.638959
-0.284663,-0.481566,0.837272,-0.594020,-0.802918,-0.049623
-0.379388,-0.114360,0.792702,-0.461644,0.589731,0.662648
-0.428388,0.119011,0.780282,-0.443579,-0.881628,0.161154
-0.234630,-0.374174,0.777120,-0.169686,0.274757,0.946422
-0.292256,0.241823,0.680765,0.990706,-0.080730,-0.109477
0.019347,0.206781,0.729750,0.724753,0.684450,-0.079124
-0.015852,0.397229,0.727378,0.324840,0.945256,-0.031131
0.028662,0.343442,0.777812,0.234528,-0.954083,0.186342
-0.139563,0.219571,0.717001,-0.407552,0.102204,-0.907444
0.075593,-0.185481,0.924371,-0.466990,-0.880533,0.081127
0.169454,0.229558,0.750108,-0.603679,0.448179,0.659323
0.176010,0.375853,0.797017,0.307159,-0.567447,0.763974
0.208792,0.358327,0.840698,-0.066626,-0.931432,0.357765
0.446380,0.043324,0.839315,-0.533440,-0.656874,-0.532878
0.379087,0.060145,0.830816,0.004437,-0.996085,0.088287
0.369941,0.172093,0.845409,0.906084,0.213478,0.365293
0.310247,0.170873,0.820505,-0.209588,-0.111709,-0.971388
0.315249,0.236744,0.843927,0.832640,0.459209,0.309576
0.481232,0.383563,0.779130,0.974508,0.003993,-0.224317
-0.030864,0.066796,-0.981390,-0.047220,0.945929,0.320919
-0.024303,-0.609822,-0.963503,-0.199402,-0.476553,0.856234
0.003130,-0.181107,-0.752180,0.841211,-0.223006,0.492578
0.047818,-0.053739,-0.975592,0.315146,0.125886,0.940657
0.121144,-0.084396,-0.974505,0.056669,-0.011131,0.998331
0.125631,-0.637325,-0.953554,0.757743,0.644603,0.101550
0.127874,-0.763645,-0.954674,0.064703,0.604166,0.794227
0.146334,-0.291301,-0.420355,-0.733512,0.607049,0.305699
0.157723,-0.285880,-0.475829,-0.181679,-0.982431,0.042683
0.128390,-0.140280,-0.088925,-0.103236,-0.991621,0.077660
0.139779,-0.127148,-0.142390,-0.558458,-0.781604,0.277884
0.155823,-0.191618,-0.217070,-0.572830,0.773539,0.271115
0.173593,-0.233493,-0.300644,0.966179,-0.044699,-0.253968
0.188089,-0.178305,-0.374005,0.841828,0.486734,0.233273
0.215174,-0.251362,-0.501326,0.913210,-0.403829,-0.054499
0.214485,-0.194249,-0.198952,0.741200,0.604763,-0.291349
0.230876,-0.103142,-0.288290,0.992228,-0.105850,-0.065416
0.238642,-0.149390,-0.320771,-0.471128,0.816036,0.334848
0.249510,-0.141862,-0.376542,0.925025,-0.183080,0.332883
0.260726,-0.125395,-0.434026,-0.677284,0.723818,0.131811
0.189295,-0.127844,-0.078680,-0.327265,-0.923216,-0.201418
0.197751,-0.146771,-0.119067,0.356006,0.926059,-0.125197
0.207240,-0.128720,-0.102926,0.381065,0.722183,-0.577271
0.215348,-0.151326,-0.143444,-0.367753,-0.893260,0.258544
0.223631,-0.166917,-0.185841,0.942841,0.320998,0.089505
0.233809,-0.153946,-0.240162,-0.205261,-0.812786,0.545204
0.256587,-0.109098,-0.360730,0.735888,-0.583785,0.343021
0.242955,-0.149743,-0.092549,-0.439887,-0.872093,0.214368
0.028662,-0.790100,0.882963,0.270795,0.317850,-0.908648
-0.694440,-0.058637,0.836514,0.117386,-0.839086,0.531183
-0.631813,0.009512,0.516746,-0.771432,-0.084947,-0.630616
-0.531048,0.002155,0.894460,0.147467,0.976311,-0.158333
-0.521734,0.012484,0.849494,-0.252603,0.850760,0.460867
-0.501719,0.065224,0.748658,0.101586,0.741737,0.662953
-0.453578,-0.021328,0.525641,-0.373070,0.364587,-0.853168
-0.419242,0.147220,0.856247,0.750992,0.638710,-0.167513
-0.404236,0.259692,0.775770,0.951546,-0.118534,-0.283741
-0.403888,0.120412,0.784466,0.390470,0.918436,-0.063319
-0.395090,0.128474,0.741279,0.592069,0.715789,0.370269
-0.372658,0.053664,0.641531,-0.699631,0.703896,0.122661
-0.397848,-0.621200,0.811248,-0.293620,0.219934,-0.930277
-0.350918,-0.168671,0.555552,-0.420680,0.746404,-0.515664
-0.344188,-0.208257,0.526399,0.764325,0.525086,-0.374288
-0.342119,0.099036,0.883490,0.613298,0.139383,-0.777456
-0.308305,0.232542,0.711664,0.481532,-0.875145,-0.047413
-0.305888,0.133029,0.707382,0.893968,0.447954,-0.012575
-0.303471,0.029487,0.702902,-0.586801,-0.768152,-0.256138
-0.317967,-0.354381,0.804133,-0.636370,-0.699836,0.324442
-0.325554,-0.617874,0.859969,0.361817,-0.750515,-0.553006
-0.317277,-0.627166,0.821328,0.560083,0.786251,-0.260992
-0.286737,-0.277293,0.646867,0.255110,0.932136,-0.256985
-0.273969,-0.211594,0.579896,0.954580,-0.297906,0.005473
-0.264822,-0.211936,0.537796,0.070712,-0.565743,0.821544
-0.261716,0.286328,0.849197,0.914624,-0.097210,0.392446
-0.246362,0.400201,0.767205,0.064771,-0.835705,0.545345
-0.233767,0.180679,0.722766,0.277430,-0.779670,0.561379
-0.227554,-0.009416,0.708963,0.517175,0.749751,-0.412799
-0.219619,-0.016772,0.670586,0.498644,0.626862,-0.598663
-0.243255,-0.550602,0.826665,0.653039,0.203300,0.729527
-0.242740,-0.681296,0.834868,-0.062570,-0.145537,0.987372
-0.194771,-0.192142,0.564282,0.686997,0.717994,0.111888
-0.188042,-0.229633,0.534338,-0.408459,-0.781540,0.471547
-0.121445,0.364817,0.800015,0.912947,-0.374312,0.162538
-0.117648,0.288425,0.787629,0.995917,-0.012135,-0.089455
-0.115231,0.181909,0.784367,0.877551,0.142395,-0.457852
-0.095218,0.374805,0.673452,0.432883,0.779952,-0.451982
-0.082107,0.443478,0.605953,-0.385671,-0.721320,0.575287
-0.098151,0.025980,0.716902,-0.303044,-0.130060,-0.944060
-0.097977,-0.113301,0.725862,0.957197,0.176099,-0.229702
-0.096597,-0.230510,0.728465,0.445535,-0.450053,-0.773919
-0.087972,-0.381884,0.700497,0.378171,0.924434,0.049081
-0.068822,-0.215272,0.595676,0.919206,-0.242739,-0.310061
-0.013951,0.204686,0.300482,0.892138,0.446293,0.070091
-0.056743,0.439275,0.764339,0.232787,-0.904164,0.358187
-0.050357,0.409494,0.734987,-0.007347,-0.999938,0.008371
-0.065368,0.008988,0.840039,0.862150,0.498948,-0.088025
-0.042769,0.241995,0.713377,-0.109631,0.021750,-0.993734
-0.029827,0.321189,0.643408,0.803564,0.554313,0.216845
-0.032585,0.126539,0.672331,0.720762,-0.514755,0.464252
-0.026893,0.073810,0.648877,0.923894,-0.378458,-0.056465
-0.027410,-0.079670,0.662976,0.251487,0.277654,0.927180
-0.010502,0.050863,0.571826,0.456832,-0.189154,0.869210
-0.036208,-0.658519,0.754159,0.820269,-0.453039,-0.349163
0.046954,0.243748,0.277390,-0.717096,0.560187,-0.414685
0.055579,0.232542,0.235488,-0.190331,0.953943,0.231879
0.059723,0.154053,0.221323,-0.168987,-0.975780,0.138910
0.097676,-0.164457,0.065013,0.857802,0.490728,-0.152843
0.107338,-0.162714,0.017247,0.605547,-0.760343,0.234930
0.117864,-0.148514,-0.035856,0.879707,0.349696,-0.322225
0.007095,0.160533,0.797017,-0.080019,-0.976695,0.199158
0.011407,-0.056017,0.795634,0.992529,0.121968,-0.003234
0.036771,0.239193,0.644430,0.152043,-0.752579,0.640708
0.042984,0.201531,0.616956,0.917351,-0.027662,-0.397117
0.046091,0.099218,0.611290,0.139070,-0.905634,0.400608
0.055927,0.116562,0.560988,-0.741948,0.395777,0.541178
0.060239,0.040169,0.545670,0.723690,0.302536,0.620278
0.034528,-0.533600,0.720592,0.916717,0.321375,0.237376
0.074561,-0.006956,0.478040,-0.684409,-0.676115,0.272860
0.084391,-0.139756,0.440683,0.942612,-0.333550,-0.015088
0.093364,-0.142739,0.396376,-0.505675,0.009166,-0.862675
0.118554,0.117781,0.249191,0.500233,0.583470,0.639789
0.125457,-0.071960,0.232226,0.348675,-0.910662,0.221629
0.162209,-0.088075,0.051605,-0.499354,-0.748614,0.436146
0.168765,-0.140280,0.023275,-0.784386,0.105162,-0.611294
0.180844,-0.105249,-0.040270,-0.636565,-0.405011,0.656316
0.010028,0.037015,0.905232,-0.039268,0.984491,0.170982
0.028320,0.233418,0.793888,0.711809,-0.406060,-0.573099
0.032285,0.152823,0.781205,0.268214,0.958016,0.101327
0.058512,0.343089,0.626213,-0.679295,-0.405074,-0.611942
0.058170,0.191715,0.640740,0.624598,-0.377463,0.683665
0.063688,0.138462,0.619394,0.347308,-0.831836,0.432928
0.080079,0.141787,0.532295,0.980466,0.175463,0.088873
0.088014,-0.019745,0.504854,-0.568642,0.778407,-0.265949
0.096818,-0.022729,0.460811,0.374158,0.527409,-0.762788
0.131843,-0.002754,0.275216,0.850297,0.519095,-0.086808
0.172214,-0.085969,0.074994,0.126700,0.985142,-0.115941
0.179633,-0.117856,0.039186,-0.451098,0.892473,0.001795
0.189295,-0.105773,-0.012895,0.605465,-0.375325,0.701815
0.198957,-0.111729,-0.060035,-0.528032,0.739080,-0.418261
0.050230,-0.034641,0.931981,-0.216251,0.559995,0.799776
0.069727,0.199253,0.806900,-0.415346,0.389721,-0.821952
0.080943,0.277218,0.738117,-0.014504,-0.622895,0.782171
0.085255,0.205209,0.722041,-0.254985,-0.957477,-0.134984
0.101473,0.375500,0.618175,-0.815671,-0.165478,-0.554344
0.087846,-0.643805,0.787003,0.234995,0.535263,0.811339
0.136672,-0.030781,0.467992,-0.284784,-0.702187,0.652557
0.148235,-0.126967,0.414593,0.429107,0.813471,-0.392597
0.165832,0.043677,0.302755,0.905504,0.423331,0.029223
0.168417,-0.055664,0.296957,0.901078,0.302638,0.310595
0.210694,-0.086846,0.075159,0.659546,0.693588,-0.289715
0.220356,-0.075457,0.021859,0.837272,-0.102345,0.537122
0.228291,-0.085445,-0.021295,-0.308466,-0.099479,-0.946019
0.236399,-0.107345,-0.059936,-0.227144,0.763643,-0.604363
0.116658,0.435415,0.814509,0.964039,0.134457,0.229238
0.118901,0.326621,0.811907,0.475041,0.462070,-0.748884
0.122181,0.241129,0.801036,0.825329,-0.416421,0.381346
0.137019,0.232018,0.721646,0.758077,0.535508,-0.372223
0.129943,-0.061973,0.789045,0.383631,-0.007549,0.923456
0.133050,-0.152898,0.780151,-0.219122,0.157849,-0.962844
0.131670,-0.336159,0.807427,-0.562463,0.788027,-0.250297
0.143401,-0.252591,0.733505,0.811954,-0.162819,-0.560554
0.159277,-0.245576,0.643968,0.915338,-0.015580,-0.402386
0.198093,-0.093507,0.413078,-0.330739,0.936778,-0.114272
0.207587,-0.064775,0.356385,0.735384,0.526409,0.426736
0.215869,-0.065127,0.310233,0.075032,0.921452,-0.381177
0.245714,0.332053,0.107277,-0.523250,0.693598,0.495108
0.185330,0.374452,0.843762,-0.515903,0.716365,-0.469750
0.192575,0.376901,0.801399,0.465638,0.248971,-0.849232
0.186362,0.086771,0.865998,0.312612,-0.089385,0.945666
0.181012,-0.191789,0.925853,0.462258,-0.875131,0.143046
0.190506,-0.142387,0.866162,0.061362,-0.474769,0.877969
0.194470,-0.214566,0.850745,-0.395630,-0.917975,0.028252
0.199130,-0.262226,0.827917,0.842694,-0.151483,-0.516643
0.207755,-0.241727,0.779657,0.878757,-0.221315,0.422854
0.246061,0.394074,0.498727,0.916780,-0.354361,0.184234
0.254170,0.407558,0.450829,0.990514,0.131873,-0.038616
0.251411,0.036491,0.501857,0.181504,-0.626899,-0.757664
0.278670,0.264953,0.326243,0.996869,0.068003,-0.040335
0.312659,0.300519,0.129151,-0.700303,0.313535,0.641304
0.293856,0.418947,0.805417,-0.597935,-0.189616,0.778793
0.323010,0.722048,0.611982,-0.213039,0.933627,0.288020
0.297478,0.021595,0.826994,0.026183,0.531464,0.846676
0.342856,0.500419,0.523170,0.426514,0.783919,0.451174
0.335779,0.193468,0.593600,0.148808,-0.783602,0.603179
0.317835,-0.330727,0.746616,0.355500,0.912126,-0.204073
0.373912,0.186464,0.378917,-0.793228,-0.136142,0.593511
0.427224,-0.363138,0.130567,-0.763421,-0.639347,-0.091780
0.396685,0.056284,0.807921,-0.530669,0.578351,0.619597
0.389439,-0.253639,0.879735,0.994211,0.098772,0.042297
0.432747,0.660551,0.542836,0.952905,-0.290133,-0.088292
0.441720,0.696469,0.487428,-0.132204,-0.519368,0.844262
0.471048,0.504269,0.339782,0.992268,-0.034037,-0.119358
0.480194,0.164736,0.859047,0.508061,-0.763736,-0.398223
0.494690,0.013190,0.792274,0.697158,0.251604,0.671317
0.498828,-0.366646,0.805351,0.932538,0.303210,0.196052
0.503488,-0.427437,0.787101,0.442989,0.027466,-0.896106
-0.029136,-0.733682,-0.959649,0.148975,0.294864,-0.943855
0.129253,-0.752075,-0.939949,-0.607813,0.767506,0.203711
0.272288,-0.817603,-0.946011,0.476647,0.598749,0.643667
0.484506,-0.794303,-0.943869,0.523476,0.676558,0.517921
0.476919,-0.896092,-0.940312,-0.367255,0.067093,0.927697
-0.168028,-0.246625,-0.654869,-0.023098,-0.987772,0.154187
0.021764,-0.007833,-0.987089,-0.498880,-0.814879,-0.295111
0.122697,-0.073179,-0.979282,-0.315135,0.160483,0.935380
0.089567,-0.401677,-0.914353,0.984822,-0.119738,-0.125651
0.085255,-0.570920,-0.947888,-0.716373,-0.485078,-0.501507
0.078526,-0.703025,-0.958364,-0.205426,-0.131495,0.969798
0.136846,-0.645912,-0.943474,-0.415324,0.612507,-0.672563
0.172388,-0.106991,-0.950458,-0.383714,0.650537,-0.655413
0.166695,-0.239268,-0.964458,-0.546222,-0.253384,-0.798397
0.159103,-0.332652,-0.953785,0.673036,0.393810,0.626048
0.150130,-0.392395,-0.927365,0.774188,-0.619992,0.127448
0.139089,-0.386792,-0.863194,0.679723,0.720628,-0.136640
0.323358,-0.091925,-0.971837,-0.378146,0.420921,0.824519
0.315765,-0.187063,-0.962119,-0.241580,0.394782,0.886446
0.308346,-0.288681,-0.956354,0.299957,-0.730403,0.613626
0.301443,-0.397999,-0.955103,-0.106521,0.086047,0.990580
0.294024,-0.503466,-0.953785,-0.556444,0.448436,0.699482
0.286779,-0.603684,-0.949667,-0.397697,0.199672,0.895527
0.279186,-0.701795,-0.941860,-0.589566,-0.462366,0.662292
0.228464,-0.196526,-0.495561,0.911973,-0.407033,-0.051275
0.218281,-0.218245,-0.450365,0.742165,-0.635030,-0.214309
0.207587,-0.188464,-0.380594,0.572154,-0.608407,0.549983
0.196887,-0.174445,-0.320079,0.469470,-0.688867,-0.552322
0.536097,-0.060048,-0.965446,-0.471802,0.122389,-0.873169
0.528505,-0.158330,-0.960241,0.420130,0.711075,0.563793
0.521601,-0.265028,-0.959583,-0.493406,0.132043,0.859718
0.514530,-0.372945,-0.957178,0.005971,-0.133170,0.991075
0.506764,-0.467558,-0.949700,0.403133,0.320591,0.857150
0.499692,-0.582308,-0.951051,0.484836,-0.750494,0.449102
0.491583,-0.683050,-0.944561,-0.445965,0.012823,0.894958
-0.067611,-0.754877,0.897326,0.855328,0.455632,0.246605
-0.081244,-0.872620,0.926809,0.505788,0.709970,0.490022
-0.526220,-0.180754,0.897589,0.906217,-0.120021,0.405420
0.116832,-0.377158,0.643343,-0.376104,0.821998,0.427627
-0.051741,-0.321616,0.638862,0.122846,0.903112,0.411459
-0.734815,-0.331252,0.354408,0.584246,0.718573,0.377239
-0.793999,0.030011,0.788320,0.928678,0.357226,-0.099736
-0.802965,0.080996,0.852788,0.341508,-0.910821,-0.231899
-0.656313,0.022996,0.804857,-0.363357,0.736541,0.570508
-0.698757,-0.268706,0.923383,0.496314,0.866248,-0.057326
-0.590747,0.217817,0.813060,-0.615859,0.672939,-0.409720
-0.595924,0.085370,0.795601,-0.112344,-0.112789,0.987247
-0.603685,0.066272,0.829926,0.433605,0.326711,0.839790
-0.611104,0.026151,0.854402,0.994871,0.100943,0.006474
-0.630775,-0.129769,0.907933,-0.284420,0.127433,-0.950193
-0.636989,-0.205637,0.914192,0.274426,0.375278,0.885357
-0.644750,-0.217368,0.949967,0.962405,0.270630,0.023148
-0.482396,0.065748,0.712850,-0.061600,0.581060,0.811526
-0.492058,0.133201,0.785751,0.497389,-0.453333,0.739658
-0.498266,0.055942,0.793756,-0.714570,0.531664,0.454668
-0.507238,0.106051,0.857630,-0.619645,0.605945,0.498869
-0.513103,0.007234,0.855423,-0.565723,-0.369590,0.737130
-0.519491,-0.060048,0.867546,0.388385,-0.887822,-0.246836
-0.528116,-0.034812,0.920681,-0.670203,0.663204,-0.333148
-0.400092,0.162981,0.747242,-0.032340,-0.111458,0.993243
-0.407168,0.105516,0.764405,0.339853,0.922472,0.183156
-0.416309,0.168767,0.836712,-0.046721,0.258420,0.964902
-0.423728,0.151069,0.869621,-0.318388,0.744776,0.586462
-0.433390,-0.146236,0.818858,-0.724797,-0.571606,0.384625
-0.281214,0.122860,0.698784,-0.432376,0.879230,0.200016
-0.282767,-0.160779,0.610631,-0.910500,-0.079294,0.405834
-0.288633,-0.278694,0.600946,-0.067404,0.796459,0.600924
-0.296916,-0.250314,0.656717,-0.412616,-0.863578,0.289795
-0.307783,-0.129244,0.755510,0.942837,0.331826,0.030816
-0.317103,-0.072132,0.823865,-0.127960,0.899330,0.418128
-0.326075,-0.002230,0.897622,-0.913420,0.398524,0.082720
-0.329182,-0.231034,0.835757,-0.736056,-0.647931,0.195976
-0.346263,-0.558484,0.814345,-0.281264,0.707307,0.648542
-0.352993,-0.608068,0.834241,0.360182,0.680384,0.638237
-0.361101,-0.600006,0.879273,-0.121106,0.959682,-0.253661
-0.082622,0.223784,0.227022,-0.601790,0.430338,0.672798
-0.173204,0.408788,0.778372,0.275730,0.564207,-0.778231
-0.175273,-0.226307,0.571299,0.927159,-0.369348,-0.062909
-0.182698,-0.251715,0.602626,0.621028,0.781833,0.055335
-0.199605,0.170521,0.838392,0.298662,-0.280108,0.912327
-0.205813,0.088172,0.843960,0.997285,0.029026,0.067670
-0.212716,0.037539,0.861814,-0.598118,0.237453,0.765422
-0.213753,-0.300070,0.752545,-0.316536,0.385474,0.866727
-0.233593,-0.476840,0.799718,0.928339,0.282061,0.242134
-0.239632,-0.572844,0.797940,0.411712,-0.638245,0.650490
-0.246362,-0.623135,0.817803,-0.400642,0.865625,-0.300299
-0.254645,-0.593001,0.870906,0.922538,-0.283193,0.262154
-0.261374,-0.650286,0.887114,0.086475,0.965452,-0.245812
-0.100394,-0.230863,0.510619,0.083835,-0.885142,-0.457707
-0.109882,-0.161838,0.588033,0.568516,0.268595,-0.777590
-0.117474,-0.166917,0.628716,-0.834232,0.548995,-0.051590
-0.132139,0.168414,0.826797,0.802376,-0.184124,0.567707
-0.138352,0.090802,0.834341,0.439209,0.878648,-0.187278
-0.146287,0.088353,0.875979,-0.168911,0.225861,0.959404
-0.149394,-0.162714,0.803474,0.644043,0.561680,-0.519350
-0.159745,-0.428485,0.768160,0.787016,-0.593113,-0.169775
-0.165443,-0.512053,0.771849,-0.691281,-0.507862,0.514009
-0.172514,-0.565316,0.790692,-0.589726,0.793743,0.148983
-0.187010,-0.612966,0.853447,0.491198,0.801401,0.341293
-0.193740,-0.667277,0.869687,0.075639,0.792009,0.605805
0.062998,-0.047430,0.441935,0.870927,-0.486199,-0.071386
0.040051,0.189437,0.644627,-0.598540,-0.478368,-0.642584
0.027630,0.357803,0.768522,-0.373368,-0.872628,-0.314828
0.016931,0.122166,0.747110,0.793628,0.070150,-0.604345
0.008822,0.139510,0.796721,-0.505559,-0.831331,-0.230864
0.001919,0.090449,0.815827,-0.572020,-0.221349,-0.789809
-0.004810,0.018098,0.825710,0.883330,-0.086363,0.460728
-0.009986,-0.094555,0.815926,0.599845,0.387826,-0.699841
-0.013609,-0.328450,0.753402,-0.660037,0.344911,-0.667374
-0.019300,-0.436367,0.748526,-0.565270,0.688131,-0.454914
-0.025688,-0.524318,0.752249,0.277910,0.605291,-0.745915
-0.034313,-0.473162,0.815629,0.463961,0.841875,0.275659
-0.038282,-0.660978,0.773530,-0.507219,0.860874,0.040309
0.086634,0.687359,0.566950,-0.711849,0.224959,0.665330
0.067484,0.430688,0.581807,0.822326,0.532840,0.199653
0.299374,0.403538,0.369924,0.796511,-0.604027,-0.026864
0.277464,0.492709,0.507984,0.847364,-0.117389,-0.517875
0.269182,0.469408,0.541749,0.451257,0.878848,-0.154897
0.265902,0.010560,0.411760,0.947916,0.143331,0.284449
0.241923,-0.137831,0.481498,-0.564395,0.630984,0.532277
0.234672,-0.184785,0.503570,0.902103,-0.424683,-0.076519
0.218281,-0.233493,0.570014,0.789170,0.504682,-0.350010
0.210172,-0.253287,0.603977,0.494748,-0.867518,-0.051349
0.201721,-0.262397,0.644331,0.870094,-0.240287,-0.430348
0.192227,-0.240145,0.698389,-0.528166,0.846447,0.067587
0.180670,-0.139403,0.787563,-0.114830,0.731661,0.671927
0.172214,-0.122059,0.836547,-0.114384,-0.504041,0.856072
0.166348,-0.222800,0.832166,-0.735770,0.133259,0.663991
0.158755,-0.248902,0.862967,0.336296,0.836095,0.433417
0.150304,-0.241898,0.906154,-0.126543,0.902893,0.410817
0.150820,-0.614720,0.783577,-0.019981,0.517695,0.855332
0.127526,-0.324247,0.993384,-0.328925,0.895427,-0.300031
0.462250,0.334502,0.146742,-0.414774,-0.551476,-0.723766
0.352692,0.206963,0.649799,0.982227,0.179571,0.054635
0.346478,0.110253,0.649503,-0.932918,0.359839,0.013391
0.338022,0.088877,0.684520,0.878254,-0.467372,-0.101161
0.338544,-0.241898,0.575746,0.827920,0.119886,-0.547883
0.314559,0.297888,0.867414,-0.274944,-0.529062,-0.802807
0.308520,0.204504,0.865932,-0.564132,-0.313813,-0.763726
0.302828,0.110253,0.865438,0.041193,0.123828,0.991448
0.297305,0.017393,0.864252,-0.007701,-0.937851,0.346953
0.291955,-0.113825,0.847649,0.368374,-0.884286,0.286948
0.285915,-0.197746,0.852557,0.126325,0.264097,0.956188
0.280224,-0.320911,0.839908,0.533288,-0.468796,0.704154
0.273842,-0.405185,0.843498,0.803820,0.589329,-0.081026
0.267976,-0.495586,0.843993,-0.107329,-0.961112,-0.254449
0.548176,0.906175,0.566159,-0.583213,-0.708288,0.397732
0.458111,0.316463,0.819352,-0.426032,-0.709688,-0.561106
0.454488,0.137403,0.780349,-0.240078,-0.905032,0.351112
0.447759,0.068025,0.791944,-0.655435,-0.733277,-0.180861
0.439477,0.055589,0.829498,0.303826,0.952703,0.006884
0.432921,-0.001524,0.844849,-0.459409,-0.024393,-0.887890
0.425671,-0.049355,0.864219,0.650922,0.498373,-0.572648
0.421016,-0.202130,0.838063,0.780272,-0.380772,-0.496173
0.504521,0.279143,0.824095,0.213531,0.833518,0.509561
0.485370,0.058038,0.850680,-0.523825,0.795200,0.305392
0.477951,-0.317061,0.767205,0.427887,0.851572,-0.302882
0.559392,0.030181,0.790890,-0.451467,-0.164743,0.876948
0.552488,-0.012217,0.813126,0.726013,0.651973,0.218715
0.546449,-0.096309,0.817870,-0.368094,-0.511703,-0.776316
0.536445,-0.381531,0.773694,0.946578,0.142473,-0.289295
0.528505,-0.379435,0.817375,0.106021,0.512669,0.852015
0.618917,0.234990,0.851207,-0.622324,0.043036,0.781576
0.663084,0.176477,0.863824,-0.423207,-0.516104,-0.744669
0.657734,0.022130,0.807031,-0.293491,0.849195,0.439011
0.727096,0.028428,0.816684,-0.040929,0.879146,-0.474793
0.189984,-0.781161,-0.935173,0.769850,0.459337,0.443102
-0.024477,-0.515732,-0.961065,0.547142,-0.224985,0.806236
-0.038451,-0.400105,-0.968444,0.766566,0.066570,-0.638706
0.147540,-0.404137,-0.953653,-0.529491,0.722894,0.443917
-0.057775,-0.831270,0.919627,-0.651465,-0.500025,-0.570585
-0.071924,-0.808846,0.896963,0.924185,0.350671,-0.151367
-0.768804,-0.115054,0.923580,0.848583,0.370247,0.377922
-0.632155,-0.264322,0.931948,-0.241919,0.957879,0.154733
-0.644060,-0.233493,0.910996,0.824521,0.372975,-0.425505
-0.306230,-0.538337,0.905495,-0.239298,-0.833813,-0.497485
-0.290186,-0.564611,0.920780,-0.423079,0.903656,-0.066407
-0.311238,-0.562868,0.907504,-0.359880,-0.864270,-0.351460
-0.316755,-0.563210,0.903453,-0.149489,0.880487,0.449884
-0.256367,-0.628567,0.886422,-0.248039,-0.923743,0.291849
-0.284320,-0.618922,0.834472,0.785662,0.341254,0.516025
-0.306751,-0.255917,0.847418,0.535460,-0.050493,-0.843050
-0.231698,-0.644329,0.871466,0.323619,0.845188,0.425357
-0.245156,-0.625231,0.849164,0.484717,0.721948,-0.493802
-0.269998,-0.592649,0.866097,0.374849,-0.816499,0.439110
-0.259820,-0.642576,0.819187,0.204155,-0.914354,0.349683
-0.179933,-0.656242,0.866887,-0.207667,-0.049523,0.976945
-0.193218,-0.607715,0.849823,0.754979,-0.083236,0.650445
-0.208577,-0.657471,0.814114,0.954358,-0.106599,-0.278994
-0.084692,-0.713889,0.888003,0.867094,0.453205,-0.206769
-0.164579,-0.258195,0.810227,0.948312,-0.312354,-0.056023
0.029009,-0.508204,0.949374,0.861473,-0.466823,-0.199849
0.017447,-0.340715,0.953327,-0.180210,0.941892,0.283484
-0.039488,-0.309875,0.854534,-0.596154,0.289824,-0.748734
-0.050530,-0.080718,0.868765,0.619905,-0.777773,0.103858
-0.199778,-0.165516,0.585859,0.142236,0.892775,0.427459
0.174457,-0.225783,0.908592,-0.662533,0.743844,-0.088006
0.163589,-0.013971,0.920780,-0.415977,0.658602,-0.627062
0.144265,-0.412017,0.824030,0.854799,-0.518762,-0.014314
0.133050,-0.177247,0.839479,0.851168,-0.289151,-0.438069
0.104579,-0.156929,0.790429,-0.147854,-0.951552,-0.269606
0.067311,0.236038,0.781633,0.783169,-0.614600,-0.094414
0.259694,-0.320911,0.848439,0.823098,-0.174103,-0.540553
0.249684,-0.001182,0.878944,0.764856,-0.237000,0.599021
0.232950,-0.161485,0.823239,0.404684,-0.549776,-0.730738
0.218281,-0.164115,0.796885,0.950045,-0.073775,-0.303270
0.204480,-0.145188,0.774221,0.584454,0.299096,0.754291
0.188779,-0.208610,0.735415,0.540319,0.817168,0.200730
0.170492,0.431394,0.799422,0.018405,-0.527193,0.849546
0.131670,-0.109269,0.644891,-0.507934,-0.695118,0.508737
0.336469,-0.249437,0.868501,0.938538,0.328664,-0.105485
0.323010,-0.198804,0.851800,0.681382,0.709676,0.179104
0.311800,0.023702,0.864910,-0.449634,0.798522,-0.400239
0.279360,-0.159207,0.778998,-0.329009,-0.863134,0.383085
0.219660,-0.213518,0.661691,-0.950697,0.146793,-0.273181
0.004852,-0.198804,0.273338,0.374019,-0.452914,0.809308
0.405657,-0.092460,0.875320,0.069151,-0.889222,0.452220
0.390303,-0.101570,0.846858,0.857019,-0.514773,-0.022982
0.378224,0.078184,0.852360,-0.530291,0.826073,-0.190777
0.359247,-0.200023,0.776033,-0.246683,-0.789922,0.561401
0.346820,-0.080890,0.771586,-0.359102,-0.293920,0.885809
0.338712,0.313832,0.816585,0.039889,0.070123,0.996741
0.323358,0.259350,0.780645,0.724992,0.569705,0.387068
0.240022,-0.150791,0.568828,0.099919,-0.929958,-0.353828
0.223631,-0.190741,0.533119,0.401080,-0.877914,-0.261538
0.167902,0.095358,0.475470,-0.005860,0.458018,0.888924
0.157897,0.326268,0.492534,0.862776,-0.503476,-0.046154
0.066278,-0.192495,0.249488,-0.632455,-0.627151,-0.454623
0.491757,-0.100340,0.857005,0.937309,-0.282167,0.204531
0.475018,-0.206332,0.810985,-0.220360,0.975282,0.016332
0.460528,-0.200729,0.785883,0.558971,0.715168,-0.419627
0.451898,0.165088,0.825413,0.700428,0.571798,0.427139
0.437234,0.188036,0.802551,0.402684,0.045158,-0.914225
0.422738,0.226232,0.782523,0.826729,0.411308,0.383855
0.347685,0.222907,0.648086,0.982227,0.179571,0.054635
0.331124,0.164211,0.609182,0.235530,-0.108853,0.965752
0.287990,0.275282,0.548568,-0.100302,-0.982147,-0.159146
0.277464,0.504793,0.564315,-0.564227,-0.789416,-0.241806
0.245714,0.464147,0.501264,0.842660,-0.040620,-0.536912
0.221562,0.114285,0.405040,0.960978,-0.001329,0.276622
0.224147,0.896188,0.528408,0.764738,0.582940,-0.274511
0.187052,0.010036,0.328055,-0.455258,0.890123,-0.020528
0.170660,-0.019574,0.294289,0.962656,0.191730,0.191137
0.153237,-0.071608,0.254825,-0.605671,0.795499,-0.018555
0.138399,-0.034641,0.233841,0.940688,0.325913,0.094272
0.419289,0.609748,0.610499,0.877588,-0.183707,0.442822
0.403245,0.590649,0.578908,0.820260,0.528329,0.219185
0.362007,0.131447,0.435083,-0.501424,0.778783,-0.376923
0.344062,0.715910,0.492534,-0.611010,0.590068,-0.527718
0.322842,0.468885,0.416866,0.715899,-0.646834,0.262860
0.288158,0.367266,0.339057,0.830088,-0.478747,0.285927
0.271941,0.367437,0.310035,-0.497666,0.796790,-0.342716
0.254860,0.312602,0.271032,0.761008,0.307677,-0.571140
0.150304,0.100266,0.051506,-0.545277,0.807633,-0.224504
0.128737,-0.083167,-0.015168,-0.393818,0.727023,0.562446
0.109413,-0.180925,-0.064647,-0.385426,0.902852,-0.190540
0.517289,0.945249,0.581774,-0.075216,-0.750872,0.656151
0.498313,0.772681,0.521194,0.055023,-0.938887,0.339800
0.414802,0.569968,0.339848,0.992268,-0.034037,-0.119358
0.381330,0.156149,0.763449,-0.157194,0.981166,0.112263
0.357346,0.019499,0.835197,0.904370,-0.337077,0.261713
0.340439,-0.147647,0.845705,0.981993,-0.167979,0.086440
0.246235,-0.118915,0.816881,-0.613183,0.757086,-0.225448
0.235019,-0.205284,0.835493,-0.325111,-0.343863,-0.880943
0.241401,-0.063374,0.879998,0.820897,0.200747,-0.534629
0.212415,-0.282190,0.942357,0.811744,0.164074,0.560492
0.209999,0.517592,0.593798,-0.311351,0.795856,0.519302
0.088362,-0.438472,0.805286,-0.508844,0.540016,0.670418
0.077320,-0.519410,0.825776,0.872332,-0.485401,0.058504
0.089051,-0.217196,0.946014,0.519224,-0.702361,-0.486924
0.063346,-0.487876,0.943774,-0.701600,0.604782,0.376825
0.056269,0.178573,0.515923,0.118785,-0.875818,0.467796
0.048850,0.184710,0.575054,0.887707,0.372715,0.270298
0.001230,0.075040,0.826632,0.894245,-0.445032,0.047660
-0.007917,0.011789,0.849033,0.825525,-0.496591,-0.268153
-0.026377,-0.163933,0.858487,-0.682616,-0.024061,-0.730381
-0.031379,-0.178305,0.886488,0.912701,0.396408,-0.099181
-0.196325,-0.642405,0.867810,0.148442,0.760567,0.632062
0.438615,0.566899,0.620915,0.842350,0.349786,0.409995
0.464569,0.110118,0.845255,0.807063,0.418117,0.416926
-0.594779,0.131786,0.798001,0.580322,0.162350,-0.798040
0.201433,-0.220281,0.234038,0.310867,-0.598673,-0.738209
0.173345,-0.261728,-0.381498,0.004168,0.991430,-0.130576
0.123860,0.013447,0.504741,0.806636,0.591019,0.005843
-0.179420,0.071978,0.851129,-0.355438,0.933423,0.048844
0.150338,-0.332014,-0.426881,0.980183,-0.152591,-0.126321
-0.231108,-0.831895,0.866186,0.267430,0.794608,0.545050
-0.879171,0.089120,0.878793,0.338474,-0.933350,0.119555
-0.131803,0.000429,0.718709,-0.479278,0.044686,-0.876525
-0.544074,0.308172,0.787997,0.154146,0.828484,0.538381
0.533729,-0.734266,-0.937509,-0.016683,-0.061360,0.997976
0.439522,-0.072365,-0.949320,0.000963,-0.729719,0.683746
-0.054098,0.401251,0.787262,0.607394,0.523128,-0.597837
0.319655,-0.216046,0.768663,-0.224567,-0.648267,0.727544
-0.457260,0.106656,0.824326,0.329225,-0.920735,0.209424
0.424496,0.047326,-0.966968,-0.125063,0.744777,-0.655489
-0.434727,-0.744656,0.792537,-0.062875,-0.648999,0.758187
-0.067405,-0.673253,0.785041,0.221696,0.927113,0.302180
0.028478,0.441777,0.208503,-0.144370,0.956513,-0.253458
0.272491,-0.285831,0.075274,0.343763,0.862538,0.371288
-0.068598,-0.497636,0.754696,0.599325,-0.064631,0.797893
-0.478064,-0.052501,0.813042,0.141205,0.366925,0.919471
0.328598,-0.532121,-0.948477,-0.389125,0.362271,0.846960
0.251213,0.496274,0.475189,0.837437,-0.519209,0.170651
0.162764,-0.173695,-0.462599,-0.626525,0.779069,-0.022747
0.262125,-0.045645,-0.097635,0.319769,0.893471,-0.315368
0.151726,0.241405,0.705589,0.837613,-0.046019,-0.544322
-0.383624,0.140150,0.714030,-0.639214,-0.751139,0.164909
0.339713,0.343619,0.143739,-0.222809,0.857743,0.463286
-0.131595,-0.214335,0.542163,0.381749,0.830683,0.405258
0.324522,0.461451,0.101873,-0.897675,0.173873,0.404905
-0.325170,-0.005277,0.546698,-0.479228,0.186095,0.857735
0.144927,-0.097782,-0.959625,0.008015,0.557008,0.830469
-0.051395,-0.434630,-0.967281,0.899495,-0.328742,-0.287816
-0.322851,0.057023,0.880280,0.882182,0.461802,-0.092163
-0.209237,-0.367401,0.754337,0.421150,-0.038674,0.906166
-0.150330,-0.197295,0.579789,0.822703,-0.006836,-0.568430
0.091826,-0.320405,0.629494,0.455001,0.726358,0.515149
0.164242,-0.352699,0.658615,0.748190,-0.646376,-0.149700
0.268852,0.309372,0.323815,0.988669,-0.115433,0.095967
0.455373,-0.029359,-0.983499,-0.736580,0.383401,0.557184
0.111318,-0.269860,-0.448944,0.316808,-0.935800,-0.154632
0.177897,-0.179454,0.899007,0.586281,-0.781525,-0.213291
-0.269575,-0.234858,0.848299,-0.308875,0.004856,0.951090
0.465247,-0.409999,0.139879,-0.763421,-0.639347,-0.091780
0.466951,0.079454,0.822536,0.944029,-0.217185,-0.248275
-0.261229,0.252541,0.746169,0.500527,-0.817731,0.284233
-0.314330,0.046298,0.860680,-0.034167,0.917552,0.396146
0.189514,0.319559,0.497925,-0.264076,0.964208,0.023814
0.352415,0.149816,0.733662,-0.280184,-0.916421,0.285780
0.194042,-0.363492,-0.948981,-0.114219,-0.987648,-0.107260
-0.526940,-0.039581,0.847342,0.917318,-0.348903,-0.191818
0.583176,-0.054247,0.851672,0.874729,-0.467451,0.127823
-0.074731,0.089068,0.842240,0.497650,0.758780,-0.420235
0.182273,-0.179754,0.725559,-0.302082,-0.841618,0.447688
-0.070218,0.053646,0.702703,-0.262314,0.861788,-0.434180
-0.141875,-0.634125,0.854995,-0.820013,-0.518835,-0.241640
-0.221037,0.122024,0.802170,0.305546,0.566669,-0.765198
0.287579,-0.049916,0.047156,0.975521,-0.146773,-0.163757
0.253983,-0.147420,0.048305,0.597123,-0.598251,-0.534359
-0.569663,-0.097495,0.893651,0.991829,-0.081508,-0.098140
-0.115603,-0.221838,-0.661060,-0.031309,-0.992478,0.118355
0.078101,0.216995,0.804638,-0.409216,0.548103,0.729469
0.425449,-0.420852,0.136475,-0.763421,-0.639347,-0.091780
0.561896,-0.163251,0.812485,-0.734383,0.510226,-0.447606
-0.044397,-0.690189,-0.970514,-0.157523,-0.802692,-0.575215
0.014517,0.239456,0.537094,-0.276078,-0.948361,-0.156180
-0.065964,-0.733912,0.799795,-0.078140,-0.914763,-0.396362
0.481152,-0.176352,-0.954072,0.976785,-0.118706,0.178323
0.310546,-0.274849,-0.956896,0.578217,0.181402,0.795461
0.438798,0.592795,0.344669,0.989240,0.142023,0.035121
0.379830,-0.589117,0.826581,0.747428,0.661449,0.061940
-0.083201,-0.343487,-0.982993,0.575557,-0.135009,-0.806540
0.180442,-0.865508,-0.945066,0.099540,-0.805053,0.584792
-0.638959,0.086186,0.788364,-0.381664,0.294459,-0.876143
-0.347132,0.152242,0.773898,0.021171,-0.531214,0.846973
-0.427757,-0.347848,0.339445,-0.284576,0.257574,-0.923402
0.277449,-0.094720,0.847562,-0.062039,-0.990832,0.120012
0.050088,-0.233113,-0.964882,0.851695,-0.285292,-0.439572
-0.074128,-0.578089,0.759852,0.554165,0.294543,-0.778554
0.255406,-0.192169,-0.970824,-0.382115,0.595441,0.706709
-0.413060,0.016427,0.756100,-0.537313,0.304181,-0.786618
0.149362,-0.180636,0.655481,0.771746,0.594765,0.225083
0.139805,-0.046497,0.523164,0.756032,-0.562564,0.334569
-0.262499,-0.249495,0.823037,0.163093,0.886234,-0.433579
-0.521407,-0.103909,0.894864,-0.583812,0.800119,-0.137744
0.442480,0.252631,0.830618,0.842697,-0.423412,-0.332542
0.220564,0.323705,0.473295,0.374298,-0.915137,-0.149752
0.276005,0.328923,0.577586,-0.128001,0.136075,0.982395
0.387607,-0.520764,-0.929264,-0.047422,0.446564,-0.893494
0.190763,-0.245949,-0.960598,-0.657633,-0.392423,-0.643058
0.009887,-0.251387,0.633741,-0.300814,0.483173,-0.822226
0.104902,0.342123,0.692467,0.386657,0.433050,0.814226
0.217467,0.504537,0.843201,-0.298671,0.511784,0.805527
0.087699,-0.384335,0.968544,-0.508152,0.795954,-0.328997
0.417050,-0.358681,0.130694,-0.763421,-0.639347,-0.091780
0.200739,-0.036345,0.127435,-0.482743,0.872693,0.073258
-0.853460,-0.051590,0.878904,-0.019285,-0.764088,0.644824
-0.589472,0.082268,0.792615,0.402067,-0.583730,0.705408
0.307079,-0.408206,-0.909601,0.642795,0.221148,0.733422
-0.400542,-0.332377,0.815085,0.238305,0.821036,0.518759
0.090839,0.153495,0.780496,0.032352,0.970920,0.237209
0.405008,0.165032,0.776231,0.836950,0.419959,-0.350927
0.018760,0.404746,0.737163,0.760698,0.601859,-0.243112
0.393110,0.218232,0.801779,-0.682249,0.697577,-0.218912
-0.380144,-0.330857,0.330108,-0.566714,0.799589,-0.198727
-0.038611,0.094027,0.823370,-0.120953,0.980947,-0.152031
0.204983,0.409755,0.802067,0.246097,0.785847,-0.567345
-0.226830,-0.268885,0.554330,0.225923,-0.894393,0.386031
0.415649,-0.097385,0.867156,0.051665,0.898753,0.435400
-0.008222,-0.045050,0.771670,0.876141,-0.082815,-0.474887
-0.012225,0.424448,0.704969,-0.845099,-0.280387,-0.455183
0.504198,0.018307,0.800801,-0.036275,0.952316,0.302950
0.358010,0.516628,0.374655,-0.640323,0.762798,0.090147
0.106804,0.233222,0.762875,0.761135,-0.159239,-0.628742
0.318737,-0.291630,0.829824,-0.741094,0.208709,0.638138
0.165341,-0.262414,0.688002,-0.902367,-0.041786,0.428938
0.154180,0.430471,0.802044,0.503322,-0.358204,0.786356
-0.017395,0.008736,-0.981909,-0.657000,-0.744808,-0.116667
0.240673,0.375965,0.836826,0.299572,0.699282,-0.649046
0.403131,-0.027938,0.854031,-0.484977,-0.584802,-0.650233
-0.289506,-0.502772,0.810557,0.264090,-0.022029,0.964246
0.226400,-0.144311,0.808253,0.894194,-0.445701,0.042039
0.249780,0.525036,0.818167,-0.346247,0.937757,0.026943
-0.186903,-0.842281,0.830569,-0.726758,0.299749,0.618040
0.246889,-0.092060,-0.970719,-0.377662,-0.070756,-0.923236
0.027460,0.420371,0.586386,0.508717,0.746185,0.429435
0.234927,0.400028,0.799630,0.243434,0.628835,-0.738449
0.063683,0.114462,0.135284,0.976106,0.154171,-0.153127
0.232411,-0.207144,-0.361565,0.919869,-0.389872,0.042920
-0.501361,-0.082539,0.644623,-0.697775,0.215902,-0.683006
0.363047,-0.012467,0.425701,0.915037,-0.099320,-0.390950
-0.220706,-0.040452,0.845686,0.981688,-0.112026,0.154074
-0.405423,0.131512,0.743398,0.726022,0.682689,0.082633
-0.634422,-0.329272,0.893829,-0.263946,0.838826,0.476133
0.178377,-0.306930,-0.604660,0.429047,0.901770,-0.052239
0.341455,-0.311027,-0.945176,0.872786,0.488073,-0.005453
-0.488734,0.167825,0.787586,0.346655,-0.795709,0.496666
-0.463962,0.005766,0.806246,-0.409705,0.483166,0.773752
0.440985,-0.278968,0.825373,-0.498127,0.811588,-0.305279
0.412843,0.157066,0.785953,0.966115,0.180418,0.184586
0.133927,-0.349598,0.739044,0.928230,0.362707,-0.082654
-0.071924,0.313534,0.820445,0.388779,0.655802,0.647128
0.348826,0.081282,0.867606,0.506454,-0.093245,-0.857210
0.402958,0.671571,0.614768,0.772961,0.221078,0.594690
-0.014188,-0.240817,0.895025,0.028220,0.978583,0.203907
-0.203357,-0.588349,0.814833,0.887191,-0.433502,-0.158011
-0.305294,-0.282051,0.318936,0.449713,-0.788564,0.419434
0.149317,0.241246,0.734862,0.561980,-0.348797,0.750013
-0.643374,-0.064136,0.805245,0.799742,0.576804,0.166463
0.292370,0.093798,0.871471,0.063194,0.368408,0.927514
-0.628766,-0.384930,0.349523,0.617285,-0.766273,-0.178284
0.125629,0.520611,0.548169,-0.356221,-0.852315,0.382971
-0.044336,-0.033341,0.834333,-0.507023,-0.009800,0.861877
0.249189,-0.474833,-0.961903,-0.482624,-0.170133,-0.859144
0.106538,0.146907,0.788483,-0.581415,-0.779726,-0.232343
0.323519,-0.211254,0.591586,-0.298019,0.123735,-0.946506
0.272795,0.862148,0.539702,0.318559,0.468390,-0.824094
-0.637043,-0.259783,0.914632,-0.411102,0.366102,-0.834844
-0.420126,0.199600,0.765304,0.876182,-0.200374,-0.438355
0.912327,-0.020786,0.826251,-0.108054,0.931744,0.346666
-0.068504,-0.121316,0.607816,0.047279,-0.972496,0.228072
0.093144,-0.219728,0.954622,0.439578,-0.714478,-0.544328
0.342594,-0.832509,-0.959677,-0.392389,0.364603,0.844450
-0.209340,-0.730239,0.818308,0.951953,0.297260,-0.073637
0.264081,-0.600167,-0.927289,-0.015089,0.082749,0.996456
0.505078,-0.710357,-0.935486,-0.084921,0.198637,0.976387
-0.456924,0.287654,0.776927,-0.303763,-0.916905,0.258868
-0.419910,-0.594957,0.877111,-0.709448,0.704755,-0.001716
-0.139627,0.104082,-0.973897,-0.520319,-0.840587,-0.150605
-0.388791,-0.515275,0.876953,0.573439,-0.809619,-0.125236
0.444709,-0.440544,0.757360,-0.337979,0.760554,0.554372
0.031816,0.225125,0.734720,0.753544,-0.554944,0.352433
0.200148,-0.793678,-0.943711,0.911398,0.273072,-0.307873
-0.010175,-0.274721,-0.797447,0.754256,0.584699,-0.298705
0.287598,-0.200480,0.079576,0.668755,0.742030,-0.046457
0.576652,-0.279695,0.783259,-0.566697,-0.294755,0.769398
0.044408,0.407488,0.578792,0.726718,0.659090,0.193603
0.141029,-0.129170,0.433202,-0.625909,-0.690400,0.362747
0.291624,0.121527,0.735343,0.324239,0.945826,-0.016788
0.106214,-0.162243,-0.951843,-0.534805,0.041358,0.843963
-0.467740,0.080486,0.793725,0.815207,-0.293474,-0.499311
0.092801,0.202801,0.737632,-0.643175,0.016396,-0.765544
-0.481329,-0.060119,0.885520,0.912436,-0.402550,-0.073582
0.054029,0.158873,0.796216,0.161436,-0.199185,0.966573
-0.876348,-0.359221,0.355555,0.788303,0.548645,0.278510
-0.231204,-0.669245,0.848421,0.916944,-0.375550,0.134818
0.344531,-0.455202,-0.953379,-0.584761,0.058943,0.809061
0.390121,-0.411583,0.763539,0.476169,0.452003,0.754292
0.319038,-0.033863,0.852900,0.971537,-0.209562,-0.110450
-0.059676,-0.517789,0.798398,0.528673,0.146570,0.836075
-0.010513,-0.671046,0.760245,0.152404,0.983923,0.093102
-0.187502,0.555991,0.609634,0.861637,-0.101093,-0.497356
0.364097,-0.132354,0.890870,-0.374361,-0.795044,-0.477240
-0.183970,-0.149348,0.502060,0.015687,-0.192188,0.981233
0.093361,-0.583653,0.734621,0.986994,0.054077,0.151392
-0.187321,-0.362515,0.854404,-0.276491,0.303401,0.911867
-0.072761,-0.368556,0.757293,-0.636235,0.422544,0.645493
0.271290,0.073912,0.916577,0.663846,-0.747569,-0.021206
-0.163247,-0.017173,0.671211,0.738833,0.557823,-0.378099
-0.016101,-0.661666,0.755694,0.752880,-0.487537,-0.442131
0.026406,0.493288,0.684263,0.957981,-0.211160,0.194124
-0.324422,-0.579365,0.926328,0.178456,-0.979213,0.096409
0.498277,-0.067566,0.854507,0.556665,0.828045,-0.066825
-0.432377,0.107894,0.775220,-0.610687,-0.735132,-0.294351
0.326454,-0.314088,0.797138,0.830235,-0.404955,0.383043
0.611482,-0.754645,-0.936022,0.492838,-0.233819,-0.838117
0.057354,0.124239,0.570538,0.751469,-0.638007,0.168051
0.093484,0.144607,0.781637,-0.635516,-0.694175,-0.337996
0.067210,0.444094,0.689803,0.356422,-0.074202,0.931374
0.335913,-0.440672,0.811645,0.041960,0.427508,0.903037
0.315194,0.280112,0.504382,-0.384185,-0.902120,-0.196422
-0.012658,0.142608,0.808322,0.768233,-0.510192,0.386681
0.230410,-0.339479,-0.935193,0.435788,-0.853531,0.285612
0.370208,-0.071823,-0.981938,-0.490323,-0.363389,-0.792169
-0.306418,-0.100250,0.530275,0.981694,0.100768,-0.161623
0.551250,-0.735056,-0.933861,-0.169357,0.142513,0.975197
0.318146,0.686069,0.541424,-0.486275,-0.506481,0.712049
-0.295852,0.236196,0.763173,-0.360348,-0.932801,-0.005634
0.179669,-0.190249,0.827135,0.346872,-0.611164,-0.711448
0.027927,-0.300907,0.266735,0.468948,-0.741402,0.480011
-0.552851,0.219836,0.809276,-0.112109,0.992952,0.038454
0.302830,-0.101057,0.849852,-0.169207,-0.966771,0.191634
0.361824,0.111303,0.429791,0.368003,-0.889579,0.270596
0.563869,-0.082368,-0.973889,-0.239282,0.958405,0.155574
-0.593886,0.091481,0.825567,0.583535,0.463474,0.666842
-0.048730,0.029195,-0.993815,0.684443,0.505307,0.525549
0.221432,-0.194720,-0.974664,0.159969,-0.577036,0.800899
-0.531245,-0.043691,0.851827,0.745432,0.098450,-0.659272
-0.059375,0.065672,0.580498,0.686537,0.175931,0.705490
0.546042,0.218251,0.818345,0.428477,0.869311,0.246387
0.105588,-0.091128,-0.973854,-0.050738,0.302134,0.951914
0.097936,-0.301787,0.592551,0.770485,-0.313851,-0.554843
0.666670,-0.252336,0.789087,0.765596,-0.325118,-0.555123
0.373583,-0.306335,-0.959402,-0.373017,0.005922,-0.927805
0.268640,-0.080581,-0.383376,0.954581,-0.289591,0.070090
0.115099,0.234332,0.746574,-0.641812,0.461999,-0.612074
-0.154411,-0.521845,0.766436,0.539649,-0.746317,-0.389601
0.290397,-0.416755,-0.804016,-0.033358,-0.964308,0.262675
0.518057,-0.077068,0.866755,0.657653,-0.512036,-0.552550
-0.591411,-0.072916,0.903696,0.800322,0.000250,0.599570
-0.409577,0.109666,0.839546,-0.062589,0.450409,0.890626
-0.203455,0.190676,0.716298,-0.718625,0.692962,-0.058149
0.290080,-0.086757,0.851618,-0.083814,-0.835795,0.542607
-0.212109,-0.181293,-0.646012,-0.922064,0.111957,0.370492
-0.157966,0.385410,0.661086,0.243400,0.881343,-0.404959
0.467248,0.052076,0.829242,-0.630463,-0.759210,-0.161605
-0.199641,-0.002492,0.832771,0.968497,-0.163822,0.187552
0.205325,0.966952,0.495372,-0.666154,-0.660152,0.347042
-0.531326,0.040316,0.844956,0.827099,0.114211,0.550329
-0.212944,-0.236108,0.713997,0.805141,-0.362056,-0.469749
0.306517,-0.259412,0.578538,-0.477550,0.693741,0.539137
0.295498,0.105289,0.753113,0.139716,0.987329,0.075245
0.243092,-0.061224,0.234667,-0.560868,0.099907,-0.821855
0.029020,0.406260,0.791158,-0.137496,-0.085668,0.986791
0.373644,-0.833211,-0.944657,-0.262704,0.347571,-0.900101
0.055313,0.307052,0.665457,-0.538515,-0.736405,0.409524
0.235207,-0.357589,-0.937325,-0.408776,0.515752,-0.752929
-0.813881,0.080260,0.880988,0.248464,0.191275,0.949568
-0.391751,-0.606484,0.815555,-0.073737,0.864891,0.496515
-0.074651,0.016373,0.647699,-0.792243,-0.012900,-0.610069
-0.073951,-0.145887,0.417651,0.145258,0.984244,0.100815
0.107908,0.189332,0.796035,-0.652341,0.610058,-0.449756
0.230279,-0.172953,-0.221615,0.109877,-0.993803,0.016835
0.507732,-0.899978,-0.942141,-0.478012,0.657890,-0.581966
0.285434,0.418261,0.840536,0.800232,-0.001471,0.599689
0.384483,-0.590476,0.833076,0.848671,0.387192,-0.360333
0.313426,0.343940,0.879069,-0.700712,0.285215,0.653953
0.069599,-0.359366,0.685569,-0.443684,0.775297,0.449509
0.356046,0.136084,0.743083,-0.554153,0.801689,0.224074
-0.009279,-0.244428,-0.624983,0.585795,0.738347,0.334197
-0.061019,-0.362672,-0.703012,-0.008840,-0.514208,0.857620
-0.473338,-0.055070,0.827334,0.884760,0.465996,0.006953
0.134037,-0.695186,-0.958197,0.519683,-0.205630,-0.829244
0.407839,0.635732,0.571381,0.967232,-0.232473,0.102074
-0.407467,-0.205032,0.660806,0.630783,0.757917,-0.166357
-0.166426,0.065802,0.599389,0.181081,0.946477,0.267190
-0.035068,-0.179775,0.714835,0.962783,0.234329,-0.134681
0.001463,-0.431729,0.850250,-0.315522,0.190707,-0.929557
0.493705,-0.095577,-0.969640,0.014819,-0.048884,0.998695
-0.360079,-0.716961,0.800749,0.052513,0.933522,-0.354652
0.591755,-0.071845,0.813647,0.261429,0.190184,0.946301
0.173884,-0.463723,0.884340,0.992099,0.113665,0.053101
-0.892985,0.051474,0.889782,-0.074957,-0.301162,0.950622
0.388137,0.606626,0.478595,-0.756481,0.319365,0.570739
-0.798398,0.027982,0.779138,0.951232,0.233109,0.202033
-0.515554,0.054217,0.422012,0.951392,0.288270,-0.108414
0.021089,0.358372,0.722707,-0.711854,-0.484727,0.508236
0.068978,-0.306551,0.751261,0.129375,0.919792,-0.370465
0.144580,-0.066858,-0.944941,-0.323888,0.047183,0.944918
0.339874,0.214217,0.671220,0.841326,0.108823,-0.529460
-0.356058,-0.368337,0.880207,0.923793,0.322145,0.206953
-0.547365,-0.132494,0.891068,0.801070,0.352310,-0.483906
-0.834793,0.055245,0.798699,0.322474,-0.946189,-0.027157
-0.437077,-0.677709,0.829437,0.839517,-0.496030,-0.221734
-0.479862,0.244516,0.801179,-0.567730,-0.821895,0.046604
-0.385987,-0.304809,0.815593,-0.083111,0.663059,0.743939
0.293059,-0.144358,-0.977992,-0.615135,0.534735,0.579368
0.263891,-0.148301,0.521079,-0.909324,0.402108,-0.106956
-0.624200,-0.199690,0.889272,-0.350411,-0.474159,-0.807704
0.271732,-0.379542,0.897902,-0.785581,0.225746,-0.576109
0.320799,0.113211,0.828448,-0.392683,0.555615,0.732866
0.408774,0.471894,0.382061,-0.623158,0.782081,-0.004913
-0.099699,-0.184882,0.672092,0.758461,-0.631319,-0.161779
-0.491669,0.107986,0.880116,-0.337739,0.546976,0.765995
-0.070254,-0.223856,-0.629502,0.212610,-0.915377,0.341880
0.126996,-0.130952,-0.229254,-0.581390,0.779814,0.232112
-0.512970,-0.117154,0.773899,0.271707,0.809295,0.520785
0.197206,0.869188,0.501830,0.805309,0.528767,-0.268110
0.038868,-0.478270,0.964792,-0.788219,0.270301,-0.552855
0.130794,-0.415183,-0.980731,-0.334274,-0.132084,0.933175
-0.379493,-0.244246,0.337678,-0.169941,0.937644,0.303224
0.069014,-0.641789,-0.942828,0.926682,-0.085931,-0.365892
0.198257,0.564229,0.563642,0.615866,0.769259,-0.170147
-0.321297,-0.331099,0.346315,-0.600396,0.778491,-0.182967
-0.178323,-0.495803,0.866123,-0.523159,0.833793,-0.176337
-0.032522,-0.060843,0.856102,0.911123,-0.108719,0.397535
-0.761539,-0.021547,0.793958,-0.211179,-0.759691,0.615038
-0.391268,0.269821,0.759771,0.787289,-0.614090,-0.055407
-0.559773,-0.225178,0.896910,0.370330,0.218621,-0.902807
-0.116836,0.065878,0.722338,0.714061,-0.494439,0.495628
-0.096155,-0.785162,-0.950019,-0.425151,0.894690,0.137025
0.046761,0.045377,0.816824,0.370162,0.320866,0.871794
0.016324,0.245141,0.305886,0.078982,-0.922298,0.378324
-0.030506,0.179951,0.313403,0.936738,0.281264,0.208357
-0.405193,-0.149772,0.811586,0.984106,0.153413,-0.089445
-0.549197,0.100279,0.844501,0.040456,0.288585,0.956599
0.245979,0.015289,-0.000629,0.996264,0.006309,0.086128
0.606151,-0.303192,0.788564,-0.801023,0.598173,0.023492
0.220902,-0.251563,0.697920,-0.477750,0.878237,-0.021301
-0.035023,0.489751,0.781145,0.843953,-0.536067,-0.019380
-0.235296,-0.500606,0.813936,0.265981,0.472320,-0.840338
-0.654856,-0.312469,0.910458,0.291436,-0.619325,0.729041
-0.510985,0.197557,0.807398,0.737939,0.673773,-0.038430
0.333986,0.423024,0.499406,0.905962,-0.024321,0.422659
-0.048802,-0.338400,-0.949823,-0.603806,0.342760,0.719676
0.044534,-0.529631,0.775466,-0.548528,0.310507,0.776339
0.248985,-0.158450,0.359285,0.227516,0.972670,0.046368
0.113474,-0.416275,0.963981,-0.379799,0.660645,-0.647535
0.101027,0.082586,0.809274,-0.685616,0.360276,-0.632560
0.304010,-0.212708,0.597486,0.792320,0.542346,-0.279444
-0.099678,-0.258676,0.605008,-0.559661,0.803935,0.201170
0.072865,0.332760,0.716029,0.705856,0.663286,0.248636
0.360667,-0.438184,0.866384,0.331463,-0.860156,0.387640
0.310014,-0.093165,0.864065,-0.571570,0.622164,0.534996
0.140705,-0.027975,0.468413,-0.023690,-0.914097,0.404803
0.196160,0.175867,0.216598,0.350968,0.695318,-0.627180
0.069931,-0.462239,-0.972392,0.846103,-0.460930,-0.267680
0.276696,-0.407557,0.879417,0.841901,-0.445812,-0.304062
-0.264562,0.240124,0.827761,-0.341646,-0.292020,0.893310
0.339864,0.126398,0.601891,0.050457,-0.495860,0.866935
0.636429,0.124377,0.828362,0.812166,0.518628,0.267231
-0.004198,-0.677995,0.786435,-0.019151,0.982374,0.185943
0.407900,0.172593,0.835447,0.922552,-0.092637,0.374588
0.142745,-0.309369,0.956507,0.726762,0.532188,0.434273
0.247878,-0.169598,0.089419,0.637681,0.756860,-0.143267
0.055047,-0.507001,0.834308,-0.730901,0.680043,-0.057665
-0.335558,-0.168545,0.787420,0.232758,0.609437,0.757899
-0.530370,0.078627,0.777320,0.798592,-0.592280,0.107034
-0.308125,-0.566196,0.802668,-0.281866,0.571447,-0.770714
0.262087,0.157663,0.282519,0.743962,-0.664824,-0.067294
0.444669,-0.263984,0.853565,0.870509,0.195486,0.451663
-0.126739,-0.749084,0.897742,0.763142,0.593434,-0.255833
0.220194,-0.596795,0.776996,0.569648,0.780521,-0.257466
