0.362838,0.296392,0.634575,-0.223919,-0.712771,0.664693
0.444617,0.464782,0.496645,-0.621181,0.600122,-0.503972
0.518461,0.649281,0.262118,-0.594728,-0.802712,-0.044177
0.660494,0.850845,0.327121,0.797922,-0.370536,-0.475419
-0.116539,-0.659134,0.626751,-0.429683,-0.292048,-0.854447
-0.091523,-0.610342,0.594629,-0.673476,-0.582136,0.455574
0.022249,-0.510940,0.849921,0.557453,0.816469,0.150416
0.049427,-0.463102,0.829651,0.827127,-0.540722,-0.153235
-0.078175,-0.454086,0.146175,0.747200,0.144079,0.648793
0.083464,-0.412623,0.837376,0.879172,0.145108,0.453872
0.084906,-0.358058,0.665277,0.354092,0.835184,0.420817
-0.000961,-0.345433,0.183480,0.934455,0.332704,-0.126895
0.111845,-0.305767,0.629623,0.044618,-0.679640,0.732187
0.163558,-0.260820,0.747481,0.733065,-0.297641,0.611576
0.112326,-0.249038,0.445903,-0.627456,0.778351,-0.021649
0.143596,-0.198442,0.438178,-0.636059,0.704672,0.314430
0.180033,-0.146518,0.453034,0.131661,0.819116,-0.558315
0.254960,-0.047115,0.509289,-0.087087,-0.903854,0.418884
0.295248,0.001683,0.554451,0.570084,0.573149,-0.588647
0.331447,0.052405,0.573863,0.781888,0.400806,-0.477500
0.356584,0.105289,0.529394,0.737096,0.476734,0.478971
0.415755,0.211896,0.478587,0.821015,0.378556,0.427351
0.479374,0.237139,0.722192,0.656778,-0.678317,0.329436
0.512324,0.458414,0.159975,-0.620131,0.238650,-0.747317
0.546721,0.510214,0.163705,-0.548338,0.819227,-0.167906
0.583882,0.557692,0.198336,-0.490210,0.777622,-0.393698
0.624654,0.604451,0.252214,0.791463,0.585462,-0.175558
0.657246,0.656133,0.248748,0.759553,0.633708,-0.146610
0.688633,0.714902,0.215701,0.974559,0.090299,0.205135
0.734576,0.749520,0.337058,0.819856,-0.325437,-0.471091
0.769931,0.800960,0.347887,-0.118061,0.893754,-0.432741
0.806013,0.845314,0.385126,-0.066324,-0.507040,0.859367
-0.035718,-0.681010,0.588455,0.951451,0.298253,0.076068
-0.004089,-0.631375,0.586111,0.948746,-0.265578,0.171318
0.107757,-0.530534,0.829981,0.182346,0.891141,0.415474
0.032228,-0.471032,0.237391,-0.211888,0.962911,0.167050
0.170054,-0.432452,0.825689,0.932875,-0.180910,0.311473
0.174022,-0.379809,0.668975,-0.128838,-0.985149,0.113498
0.203365,-0.327885,0.648573,-0.150062,-0.784590,0.601581
0.247745,-0.281969,0.724998,0.714760,-0.045850,0.697865
0.384844,-0.084859,0.776698,0.030471,0.508886,0.860294
0.427059,-0.041951,0.851770,0.323556,0.946176,0.007894
0.407214,0.037740,0.482482,0.140367,0.979384,0.145274
0.435717,0.090265,0.455081,-0.327183,-0.725359,0.605645
0.436197,0.165863,0.204576,0.669907,0.386101,-0.634154
0.566445,0.384497,0.149212,-0.746291,0.599717,-0.288772
0.605892,0.434015,0.187079,0.821565,0.217766,-0.526886
0.644616,0.479446,0.237292,0.864618,0.392469,-0.313694
0.682742,0.529206,0.267961,0.937224,0.307387,0.164697
0.523871,-0.045076,0.406419,0.621359,0.783457,-0.010366
0.580036,-0.009012,0.581787,-0.105003,-0.671012,0.733974
0.616837,0.037138,0.618035,0.314415,-0.180088,0.932047
0.652434,0.087016,0.637117,-0.166302,-0.795584,0.582571
0.690196,0.131127,0.685019,0.922548,0.016511,-0.385529
0.624291,0.187137,0.147198,-0.198436,0.957856,0.207690
0.700660,0.290141,0.198732,-0.338193,-0.747814,0.571314
0.737820,0.341589,0.219432,0.337096,0.853038,-0.398363
0.034393,-0.872479,0.641970,0.770265,-0.594982,0.229540
0.071558,-0.669954,0.147397,0.793082,0.579554,0.187448
0.179435,-0.618632,0.542633,0.982845,-0.064188,-0.172905
0.217315,-0.569473,0.574722,-0.782816,0.593026,0.188466
0.165723,-0.565145,0.287142,0.920452,-0.047370,-0.387974
0.249308,-0.517667,0.567921,-0.439030,0.891353,0.112878
0.293563,-0.467430,0.629293,-0.382835,-0.905220,-0.184430
0.370292,-0.369590,0.701196,-0.236980,-0.408024,0.881679
0.315092,-0.295196,0.155452,0.975156,0.152350,-0.160810
0.361274,-0.244475,0.227949,-0.405801,0.889213,0.211249
0.389296,-0.190504,0.190974,0.799349,-0.491225,-0.346034
0.512446,-0.176324,0.791851,0.329640,-0.883107,-0.333856
0.511125,-0.109016,0.556861,0.018423,-0.619133,0.785070
0.231750,-0.466587,0.730016,-0.644246,-0.760097,-0.084849
0.250270,-0.415506,0.652897,0.565951,0.822225,-0.060380
0.290198,-0.365504,0.694725,0.071102,-0.726871,0.683083
0.319181,-0.313580,0.670560,0.821074,0.133833,-0.554911
0.324232,-0.191949,0.282586,0.930290,-0.358817,0.076226
0.364159,-0.143151,0.326593,0.736845,0.528417,-0.421705
0.400120,-0.090625,0.338973,0.195997,0.900594,-0.387964
0.492484,-0.001199,0.521801,0.380135,0.780495,0.496311
0.537102,0.043873,0.604203,-0.167826,0.688795,0.705263
0.485147,0.077523,0.215437,0.943192,-0.093243,-0.318896
0.578351,0.089304,0.666367,0.352960,0.207427,-0.912356
0.509440,0.139065,0.133828,0.179498,-0.960725,-0.211632
0.546362,0.189301,0.158456,-0.326256,0.945276,0.003222
0.592544,0.230529,0.260731,0.093698,-0.473901,0.875579
0.631268,0.281492,0.290741,-0.336828,-0.715029,0.612601
0.666263,0.330893,0.308403,0.812540,-0.323146,-0.485134
0.693565,0.392669,0.241881,0.606273,0.767932,-0.206670
0.735659,0.437140,0.312628,0.821196,-0.236430,0.519364
0.131569,-0.914785,0.643125,0.920721,-0.322991,0.218974
0.158747,-0.865627,0.618729,0.795575,-0.537646,0.279281
0.213226,-0.762740,0.556696,0.560225,0.727292,0.396478
0.151652,-0.762505,0.238447,0.939030,0.021829,-0.343142
0.233192,-0.710456,0.484991,0.980933,0.183730,-0.063357
0.304027,-0.662985,0.692678,-0.713770,0.694727,0.088811
0.329043,-0.613467,0.655769,0.759094,-0.650382,0.027909
0.356220,-0.561177,0.620709,0.936873,-0.300752,-0.178376
0.393143,-0.512744,0.650487,0.971752,-0.146254,-0.185224
0.426215,-0.461539,0.649431,0.801357,-0.576796,0.158535
0.375944,-0.449765,0.351221,-0.780210,0.510145,0.361973
0.467827,-0.412381,0.701130,-0.676262,-0.411814,0.610802
0.507153,-0.303009,0.539067,0.794192,-0.482426,0.369493
0.497413,-0.235576,0.263934,-0.447357,0.818511,0.360432
0.575466,-0.202645,0.555277,0.945725,0.307304,0.105681
0.606013,-0.151924,0.544878,-0.935689,0.321614,0.145091
0.639566,-0.100001,0.545901,0.851766,-0.123306,-0.509206
0.678052,-0.051084,0.581555,0.875202,0.472309,-0.104619
0.063017,-0.925364,0.615988,0.192332,-0.590350,0.783898
0.101381,-0.875244,0.648045,0.799248,-0.560866,0.215944
0.131690,-0.826086,0.639560,0.909494,-0.217767,0.354115
0.184966,-0.724644,0.575778,0.756788,0.635395,-0.153445
0.108839,-0.724402,0.176844,-0.751478,0.406421,0.519715
0.228021,-0.673079,0.625892,-0.583096,0.736756,-0.342331
0.255320,-0.621038,0.594431,-0.427731,0.016986,0.903746
0.319420,-0.520315,0.588884,0.001905,0.853694,0.520772
0.367407,-0.473680,0.681454,0.668416,0.721675,0.180015
0.389054,-0.420076,0.612720,0.588537,0.807645,-0.036519
0.349728,-0.350605,0.173609,0.945667,0.227687,-0.232105
0.434153,-0.246397,0.262283,0.347340,0.601349,-0.719537
0.572938,-0.109376,0.525466,0.723850,-0.337730,-0.601648
0.620445,-0.065866,0.627906,0.851782,0.522701,-0.035363
0.649549,-0.014302,0.606877,0.968596,0.245531,0.039199
0.639687,0.069593,0.270470,-0.723171,0.081283,0.685870
0.721345,0.084734,0.648012,-0.123474,0.962177,-0.242837
0.694527,0.190746,0.148519,0.549242,-0.062461,-0.833326
0.805532,0.339300,0.225902,-0.528867,-0.834886,0.152531
0.299216,-0.861181,0.469310,0.879962,0.299077,-0.369081
0.241972,-0.879807,0.536855,-0.387931,0.788920,-0.476566
0.258689,-0.829453,0.458052,0.966076,0.208856,-0.151910
0.318341,-0.778248,0.589611,0.157052,0.949177,-0.272761
0.434153,-0.627765,0.682510,0.608988,-0.233575,-0.758008
0.496451,-0.526807,0.665145,-0.119592,-0.978944,-0.165426
0.407214,-0.505651,0.151787,0.791045,0.555266,-0.256762
0.495130,-0.468274,0.470003,0.990709,-0.042602,-0.129156
0.529163,-0.415865,0.469838,0.529149,0.840280,0.118030
0.570893,-0.366230,0.518368,0.982596,-0.169056,0.076969
0.608777,-0.316111,0.543887,0.802790,0.360250,-0.475130
0.603969,-0.248319,0.301140,0.903569,-0.356769,-0.237232
0.729643,-0.107454,0.474658,0.118671,-0.953199,0.278080
0.762235,-0.054209,0.464853,0.234131,-0.949971,0.206730
0.829465,0.132931,0.194474,0.017243,0.693762,0.719998
0.550208,-0.299524,0.537582,0.344792,0.311175,-0.885601
0.586649,-0.248796,0.555871,0.953533,0.293192,0.069379
0.619002,-0.196278,0.547981,0.972195,-0.175219,-0.155354
0.656284,-0.146158,0.573599,0.831480,-0.500952,-0.240183
0.683223,-0.093750,0.537516,-0.793961,-0.174953,0.582252
0.767406,0.154448,0.153570,0.550840,0.630451,-0.546906
0.134094,-0.963224,0.605886,0.799062,-0.114740,0.590199
0.174260,-0.809859,0.310285,0.928561,0.348621,-0.127427
0.258087,-0.760099,0.568977,0.634521,0.716204,-0.290575
0.282861,-0.707698,0.522065,0.949937,0.194751,-0.244320
0.341910,-0.659977,0.664716,-0.566275,0.819034,0.092289
0.362596,-0.607092,0.595982,0.813280,0.578330,0.064105
0.410102,-0.558535,0.677360,0.797467,-0.506438,-0.327975
0.444855,-0.507815,0.686538,-0.111845,0.565335,0.817244
0.429944,-0.446515,0.412725,0.508975,0.607113,-0.610212
0.473843,-0.399161,0.478917,0.843778,0.533323,-0.060036
0.512567,-0.347839,0.505427,-0.805918,0.559905,-0.192363
0.667228,-0.535581,0.532993,-0.099649,0.779205,0.618797
0.618158,-0.525846,0.538407,0.816279,0.489729,0.306356
0.660494,-0.414545,0.391101,-0.148946,0.943933,0.294628
0.707395,-0.367426,0.470267,0.448453,-0.848420,0.281201
0.942510,0.079086,0.202859,-0.104280,0.350400,0.930777
0.460971,-0.662141,0.629128,0.270649,-0.745640,-0.608910
0.447744,-0.538941,0.170407,0.832626,0.547953,-0.080506
0.573180,-0.450484,0.505988,-0.062419,0.752841,0.655236
0.678532,-0.231850,0.326989,-0.757813,0.367270,0.539288
0.713527,-0.178363,0.329366,0.892614,-0.042590,-0.448805
0.796151,-0.083297,0.432797,-0.366415,0.917721,-0.153390
0.902465,0.152167,0.205203,-0.108962,-0.090963,0.989875
0.291519,-0.367191,0.087939,0.852018,-0.118418,-0.509944
0.066625,-0.613225,0.109761,0.946149,-0.205372,-0.250251
0.068188,-0.436303,-0.158505,0.919337,-0.391180,-0.042410
0.071194,-0.414185,-0.100072,0.974668,-0.222883,0.018616
0.056403,-0.418991,-0.063823,0.758247,-0.546058,0.356204
0.053996,-0.405529,-0.013015,-0.414721,-0.907492,0.066817
0.032110,-0.420678,0.016862,-0.027602,0.986349,0.162341
0.028984,-0.407935,0.066316,0.944295,-0.096754,0.314557
0.026216,-0.396278,0.112732,0.308678,0.889726,-0.336311
0.452794,-0.541230,-0.957858,-0.157253,0.123812,0.979766
0.395668,-0.606733,-0.961457,-0.119513,-0.146021,0.982036
0.133852,-0.267672,-0.988660,0.032023,0.203906,0.978467
0.082741,-0.324885,-0.986844,0.403994,0.185439,0.895769
0.032712,-0.380169,-0.984137,-0.153093,0.092430,0.983880
-0.017441,-0.434741,-0.978855,-0.005474,0.708828,0.705360
-0.068911,-0.492673,-0.978062,-0.071696,0.093471,0.993037
-0.119663,-0.548082,-0.973276,-0.002321,-0.075422,0.997149
0.281298,-0.461422,-0.978294,0.297152,0.059144,-0.952997
0.224413,-0.526081,-0.981133,-0.149653,0.194149,0.969490
0.180276,-0.571638,-0.968753,0.099881,0.094881,0.990465
0.179193,-0.553246,-0.907513,0.531255,0.847051,0.016513
0.094408,-0.661063,-0.946436,0.921685,0.275551,0.273072
0.186651,-0.463102,-0.652980,0.266689,0.963720,-0.010991
0.485749,0.112259,0.083780,0.760010,0.496570,-0.419288
0.212507,-0.275484,-0.162896,0.520241,0.517411,-0.679438
0.074083,-0.462024,-0.258635,0.877451,0.329307,-0.348766
-0.317981,-0.396513,-0.994437,-0.095601,0.284195,0.953988
-0.046182,0.125838,-0.177191,0.999070,0.021913,0.037146
-0.078656,-0.267547,-0.178809,0.865391,0.480618,0.141793
-0.073121,-0.243272,-0.118691,0.762570,0.640025,-0.094102
-0.049672,-0.193754,-0.040053,0.878598,0.470554,-0.081514
-0.007579,-0.103008,0.106559,0.682288,-0.034455,0.730271
-0.093927,-0.196637,0.117916,0.792635,-0.432921,0.429313
-0.104391,0.466704,0.014749,-0.378493,-0.923532,0.061896
0.635356,-0.592670,0.545439,0.007970,0.999473,0.031482
0.316175,-0.967311,0.509124,-0.180077,0.882084,-0.435315
0.339745,-0.753005,0.567756,0.581664,0.762381,-0.283622
0.445457,-0.576685,0.719518,-0.275245,0.868375,0.412510
0.362955,-0.682697,0.685118,0.558668,-0.829141,-0.020368
0.121226,-0.975483,0.632891,0.873419,0.485549,-0.037179
0.903548,0.102406,0.193582,-0.255687,0.489915,0.833431
0.873001,0.075359,0.213786,0.091146,0.449058,0.888841
0.552135,-0.263820,0.278460,0.098920,0.908075,0.406957
0.525555,-0.285578,0.301899,-0.366527,0.780850,0.505896
0.608538,-0.141346,0.441612,-0.190785,0.903500,-0.383783
0.662776,-0.024520,0.596511,0.870569,0.484232,-0.087345
0.640887,-0.040990,0.620643,0.644569,0.730892,-0.224335
0.615633,-0.061061,0.643224,0.731227,0.681150,0.036617
0.139507,-0.758052,0.199822,-0.747994,0.606800,0.268884
0.134094,-0.747958,0.245017,-0.508232,-0.816957,0.272546
0.265182,-0.482814,0.570100,-0.464279,0.858628,0.217263
0.451352,-0.189785,0.801755,0.033319,0.908807,0.415884
0.149850,-0.621155,0.548773,0.971242,-0.234119,-0.043325
0.203846,-0.491345,0.741076,-0.667514,0.288413,-0.686471
1.000000,0.001199,0.219696,0.267827,0.206696,-0.941034
0.688273,-0.303845,0.346335,0.794907,-0.272002,-0.542345
0.629943,-0.374278,0.333625,0.811585,0.148276,-0.565105
0.567766,-0.375239,0.519886,0.926790,-0.322400,-0.192661
0.520986,-0.428608,0.518797,-0.088454,0.632048,-0.769864
0.459771,-0.503486,0.503215,-0.652008,0.458784,-0.603658
0.421645,-0.542191,0.513647,-0.474892,0.779000,0.409435
0.226457,-0.819234,0.362677,0.888517,0.295105,-0.351356
0.220325,-0.809741,0.406155,0.828472,0.540623,-0.146156
0.448585,-0.448922,0.683039,0.872156,0.021858,-0.488738
0.340589,-0.593513,0.622690,0.797972,-0.597394,0.079758
0.236320,-0.733535,0.564653,0.662602,0.748928,-0.008155
0.209259,-0.756490,0.583635,0.811147,0.243271,-0.531845
0.240529,-0.691948,0.661184,-0.464077,0.883931,0.057427
0.068431,-0.897362,0.632198,-0.700847,0.699626,-0.139057
0.046420,-0.912746,0.657057,0.226571,-0.889624,0.396529
0.534092,0.096274,0.643059,0.077831,-0.393460,0.916041
0.422970,-0.052889,0.574656,0.579265,0.494908,-0.647703
0.361032,-0.095313,0.655208,0.224405,0.052710,0.973069
0.178833,-0.315142,0.612258,0.832401,0.275406,-0.480896
0.303789,-0.117071,0.779603,0.201524,-0.825910,-0.526555
0.142513,-0.337018,0.668017,0.672144,0.024453,0.740017
0.075283,-0.419717,0.648837,-0.095521,-0.581070,0.808229
-0.050872,-0.587982,0.573434,0.667755,0.657287,0.349395
-0.055805,-0.579568,0.613380,0.393146,0.815987,-0.423793
-0.159590,-0.699401,0.604731,0.681661,0.476008,0.555657
0.012387,-0.435218,0.810107,-0.474828,0.051366,0.878578
0.014791,-0.416951,0.856359,0.970415,0.197216,-0.139283
0.736621,0.157691,0.154065,0.436433,0.747093,-0.501377
0.297894,-0.339425,0.147859,0.988348,0.121655,0.091479
0.376308,-0.205169,0.282817,0.712257,-0.687508,0.141500
0.451110,-0.076320,0.412593,0.578634,0.720539,-0.382107
0.451833,-0.058413,0.461651,-0.540157,-0.714858,0.444082
-0.232833,-0.265507,0.413418,-0.589313,-0.806815,0.041951
-0.072281,0.001442,0.704332,0.485293,-0.753252,0.443961
-0.105595,-0.032935,0.715557,0.340233,0.675403,-0.654273
-0.216600,-0.175363,0.655373,-0.519732,0.293770,-0.802233
-0.242816,-0.186418,0.718660,0.005426,0.618553,-0.785724
-0.303909,-0.258773,0.706115,0.550638,-0.773950,0.312728
-0.311727,-0.256851,0.742760,-0.356110,0.918621,-0.171234
-0.327483,-0.266226,0.770326,-0.575231,0.619264,0.534436
-0.376550,-0.322119,0.766926,0.026483,0.704072,0.709635
-0.297175,-0.187137,0.922154,0.651275,0.550955,-0.521814
0.650631,0.373801,0.319033,0.940821,-0.338290,-0.020392
0.591699,0.303845,0.306950,-0.777237,-0.012148,0.629091
0.465181,0.132690,0.219366,0.817837,0.110548,-0.564731
0.458446,0.139299,0.262481,0.681644,0.398568,-0.613600
0.442932,0.181613,0.448512,0.980563,-0.196146,-0.004883
0.401081,0.136776,0.454718,0.859214,-0.507872,-0.061777
0.353695,0.082453,0.452506,0.982988,-0.183448,0.008987
0.330966,0.064905,0.476408,0.905421,0.367276,0.212887
0.018039,-0.391950,0.153801,0.928146,-0.349652,-0.127624
0.014552,-0.380411,0.201109,0.950331,-0.308128,-0.043908
0.342872,0.112860,0.583668,-0.462774,0.835347,-0.296706
0.004569,-0.379450,0.239240,0.975431,0.143260,-0.167366
0.320143,0.095672,0.608560,-0.197409,0.961735,-0.189990
0.378231,0.195309,0.714698,0.521660,-0.850184,0.071118
0.045217,-0.288102,0.379910,0.514644,0.845791,-0.140639
0.314850,0.118025,0.697796,-0.082263,-0.866173,0.492927
0.005652,-0.329807,0.389087,-0.320512,0.932507,-0.166442
0.015033,-0.300962,0.445012,-0.552857,0.419260,-0.720118
0.100780,-0.162503,0.575382,-0.788159,0.608598,-0.091728
0.136619,-0.095313,0.657585,-0.655951,-0.753978,0.035286
-0.034878,-0.328729,0.533983,0.300824,0.257007,-0.918397
-0.037282,-0.316705,0.578485,0.928822,0.342204,-0.142080
-0.096694,-0.372238,0.613512,0.174626,-0.920563,0.349384
-0.162237,-0.452288,0.594827,0.640142,-0.751902,0.157678
-0.211546,-0.493994,0.637546,0.947813,0.300121,-0.107600
-0.134215,-0.369715,0.752928,0.305432,-0.615119,-0.726870
-0.215634,-0.456734,0.766067,0.622361,-0.782584,0.015103
-0.257126,-0.501806,0.771679,-0.663912,0.696197,0.273003
-0.227903,-0.446999,0.840116,-0.873518,0.340576,-0.347814
-0.228142,-0.420194,0.923640,-0.614216,-0.781208,-0.111589
-0.039689,0.244350,0.241122,0.808582,-0.561134,0.176984
-0.099942,0.174035,0.229798,-0.564261,0.744770,-0.356268
0.122669,0.521151,0.594497,-0.005189,-0.409826,0.912149
0.024414,0.397239,0.543458,0.192470,0.249319,0.949102
-0.035718,0.338221,0.575547,0.557725,0.722559,-0.408475
-0.293325,0.030286,0.506846,0.927999,-0.248068,0.277994
-0.324837,-0.001324,0.522395,-0.708561,0.472347,-0.524242
-0.401085,-0.094469,0.493905,0.871850,0.435069,-0.224927
-0.395914,-0.075484,0.544217,0.399527,0.885471,-0.237315
-0.430186,-0.110821,0.557060,-0.212433,0.976392,-0.039116
-0.454963,-0.133174,0.578815,-0.105597,0.992231,0.065782
0.742992,0.814062,0.350957,0.994870,-0.100716,-0.009533
0.642333,0.683416,0.291599,-0.713524,0.635998,-0.293922
0.610219,0.652164,0.308601,0.894451,-0.388527,0.221369
0.570413,0.609733,0.317019,0.959853,-0.280493,-0.002245
0.570413,0.624398,0.366374,0.955596,-0.293902,-0.021394
0.137823,0.147955,0.402524,-0.163709,0.569019,-0.805864
0.189055,0.235936,0.503512,0.148497,-0.748958,0.645763
0.048946,0.050842,0.410183,0.955481,-0.287470,-0.066457
-0.016479,-0.028122,0.392785,0.872078,0.098029,-0.479449
0.095851,0.158776,0.596577,-0.173442,0.953343,0.247092
-0.295372,-0.396278,0.209264,-0.382432,-0.893199,-0.236517
0.126636,0.215865,0.673366,0.819414,-0.546535,-0.172801
-0.210345,-0.261663,0.341779,0.567482,0.740558,-0.359914
-0.198076,-0.230889,0.399619,0.408954,-0.866105,0.287435
-0.814674,0.141705,0.778513,0.280559,-0.404807,0.870298
-0.212269,0.423436,0.345279,0.577372,-0.802451,-0.150713
-0.295372,0.333050,0.358418,-0.634773,0.726969,-0.261876
-0.329645,0.297118,0.370204,0.601202,-0.671388,0.433352
-0.322429,0.317791,0.422365,-0.714457,-0.661848,0.226953
-0.455202,0.212263,0.609650,0.919059,-0.371912,-0.130428
-0.462417,0.212740,0.647021,0.868029,-0.355733,0.346382
-0.547566,0.107813,0.610079,-0.457932,0.690320,-0.560140
-0.663139,-0.026200,0.592087,0.474086,-0.800216,-0.367283
-0.637885,0.018145,0.658609,-0.340817,0.605629,-0.719067
-0.653638,0.006973,0.685713,-0.062948,-0.574553,0.816043
-0.713050,-0.062741,0.674092,0.835332,-0.306706,-0.456236
-0.720387,-0.062859,0.710077,-0.619932,-0.433009,0.654360
-0.690560,-0.003488,0.819021,-0.486676,-0.688213,-0.538061
-0.536742,0.418272,0.607075,-0.090359,-0.436861,0.894979
-0.630189,0.331252,0.693438,0.758658,-0.236124,0.607193
-0.786773,0.161057,0.719815,-0.476511,-0.840845,0.256743
0.446419,-0.550363,-0.959014,-0.041200,0.010906,0.999091
0.285386,-0.656133,-0.964362,-0.223282,0.256456,0.940412
0.345761,-0.562864,-0.966343,0.491926,-0.006085,-0.870616
0.208176,-0.679806,-0.972648,-0.335336,0.279788,0.899593
0.274442,-0.579568,-0.969776,0.193685,-0.288297,-0.937748
0.339385,-0.481251,-0.967531,-0.538167,0.255044,0.803323
0.045580,-0.657814,-0.974893,0.052885,-0.099103,0.993671
0.102343,-0.569958,-0.977699,0.023786,-0.093463,0.995339
0.161873,-0.477766,-0.980109,-0.092641,-0.050305,0.994428
0.230546,-0.375004,-0.975950,-0.481738,-0.028287,0.875858
0.382198,-0.665149,-0.124403,-0.236424,0.941676,0.239477
0.096452,-0.715386,-0.966343,-0.149276,0.201800,0.967984
0.145038,-0.636899,-0.975322,0.030169,0.112831,0.993156
0.203967,-0.545676,-0.978162,-0.158232,0.364789,0.917546
0.279011,-0.434015,-0.971889,-0.285505,0.003519,0.958371
-0.023452,-0.607694,-0.967069,-0.697433,-0.348521,0.626196
0.052072,-0.495431,-0.960532,0.688700,0.573435,0.443694
0.095972,-0.423201,-0.972021,0.213837,0.681644,0.699740
0.138784,-0.353004,-0.982651,0.084284,-0.203799,-0.975378
0.083343,-0.430413,-0.669751,0.992336,0.052615,-0.111804
0.106913,-0.368152,-0.727029,0.544892,-0.799517,-0.252717
0.015874,-0.467188,-0.813986,0.065357,-0.899698,0.431591
0.028862,-0.434976,-0.841255,0.977598,0.206724,-0.039589
-0.011308,-0.469836,-0.898896,0.274082,0.961439,0.022691
-0.042695,-0.491712,-0.953732,0.753751,-0.569383,-0.328118
-0.013833,-0.439062,-0.972549,-0.110400,0.596953,0.794644
0.025735,-0.372356,-0.986679,-0.154629,0.219287,0.963329
0.094166,-0.269234,-0.984203,0.086518,0.001764,0.996249
0.192182,-0.633179,-0.196702,0.179597,0.855251,0.486098
0.210463,-0.595076,-0.219316,-0.705540,-0.708578,-0.011379
0.052436,-0.393630,-0.505377,-0.291788,-0.573749,0.765292
0.038243,-0.395552,-0.547799,0.989559,0.096299,-0.107236
0.030907,-0.387982,-0.586326,-0.362432,0.904188,-0.226025
0.024895,-0.380294,-0.623400,-0.174830,-0.984255,0.025993
0.008177,-0.385700,-0.666845,-0.718880,0.632020,-0.289419
0.003846,-0.374645,-0.704646,-0.627268,0.778780,-0.006099
-0.070115,-0.435819,-0.816066,0.835416,-0.543893,0.079124
-0.162237,-0.502166,-0.974926,0.220543,0.109349,-0.969228
-0.107397,-0.416826,-0.978756,0.122465,-0.062959,-0.990474
-0.060734,-0.340987,-0.988462,-0.016472,-0.052518,0.998484
-0.001927,-0.250725,-0.990046,-0.205634,0.010911,0.978568
0.145519,-0.537980,-0.230871,0.839506,0.516756,-0.167908
0.003127,-0.339065,-0.369725,0.890408,-0.435730,0.131580
-0.008779,-0.338941,-0.408978,0.280098,-0.897822,0.339796
-0.041374,-0.364903,-0.459587,0.258959,0.963578,-0.066772
-0.059773,-0.372114,-0.504023,0.873664,-0.447383,-0.191205
-0.235479,-0.412022,-0.987174,-0.222512,0.297163,0.928538
-0.183524,-0.330166,-0.992687,-0.464357,0.270682,0.843270
0.279976,-0.331370,0.107318,0.905886,0.423473,0.006344
0.211663,-0.404209,0.039443,0.920884,-0.128642,-0.368001
0.097895,-0.444593,-0.246651,0.859337,0.341148,-0.380996
0.095006,-0.386177,-0.380751,0.978031,-0.033312,0.205781
0.077448,-0.392794,-0.424527,0.989426,0.096870,-0.107942
0.071194,-0.385575,-0.460611,0.991275,0.016500,-0.130776
-0.340108,-0.413826,-0.991334,0.041048,-0.340225,-0.939448
0.025857,-0.524643,0.095929,0.946768,0.294938,0.129007
0.011304,-0.528605,0.057699,0.898297,0.390970,0.200512
0.048465,-0.466469,0.045814,0.981335,0.121954,0.148691
0.050751,-0.417787,-0.048967,0.783501,0.604779,0.142717
0.064342,-0.385098,-0.074651,0.968816,-0.208137,0.134443
0.060011,-0.375364,-0.109415,0.890619,0.424908,0.162025
0.054597,-0.367426,-0.143847,0.963186,0.172169,-0.206470
0.388335,0.073437,0.001279,0.949870,-0.297415,-0.096393
0.127000,-0.244593,-0.170258,0.937945,-0.076319,-0.338282
0.022487,-0.362621,-0.258272,0.416500,0.801038,0.429960
0.020204,-0.349159,-0.292969,0.038874,-0.995525,-0.086137
0.004808,-0.353004,-0.335028,0.326178,-0.945029,0.022967
0.018278,-0.374403,0.076088,0.957396,-0.123188,0.261184
0.016354,-0.361660,0.042942,0.598473,0.449344,0.663265
0.012989,-0.350840,0.010358,0.787732,0.005065,0.615997
0.000602,-0.351925,-0.027112,-0.765587,0.463344,0.446305
-0.003971,-0.342190,-0.062403,-0.400184,0.914518,-0.059248
-0.013712,-0.339667,-0.099015,-0.110986,0.966021,0.233421
0.460612,0.296032,0.085629,0.843994,-0.533132,-0.058688
-0.047988,-0.336542,-0.216378,0.995947,-0.069445,0.057159
-0.112928,-0.403490,-0.282801,-0.565700,0.770272,-0.294388
-0.038247,-0.262140,-0.341201,0.978235,0.062008,0.198020
-0.080700,-0.337143,0.094608,0.934049,0.329211,0.138461
-0.062419,-0.298556,0.071994,0.961067,0.261612,0.088935
-0.046061,-0.262742,0.049611,0.901779,0.182646,0.391707
-0.091160,-0.227162,-0.166131,0.848183,0.522603,0.086446
-0.080938,-0.208654,0.115076,0.847796,-0.233705,0.476050
-0.078413,-0.070436,0.101409,0.803960,0.312952,0.505676
-0.183285,-0.126924,-0.110570,0.866950,0.290545,0.404945
-0.091281,0.069109,-0.223773,0.587929,0.747962,-0.308047
-0.030668,0.202645,-0.134637,0.996165,-0.056673,0.066653
-0.051595,0.150721,-0.173890,0.997236,0.070849,-0.022381
-0.116418,-0.041951,0.105404,0.954063,0.097102,0.283434
-0.112928,0.036661,-0.050056,0.822273,0.452107,-0.345640
-0.112209,-0.028724,0.112732,0.971183,-0.104632,0.214141
-0.106557,0.051319,-0.043190,0.835254,0.435043,-0.336286
-0.011906,0.231248,-0.121563,0.998652,0.033104,0.039973
-0.066867,0.301204,-0.093601,0.974848,-0.082478,0.207045
-0.059773,0.356129,-0.063988,-0.486970,0.721516,-0.492215
-0.064823,0.410701,-0.035597,0.811000,-0.524012,0.260173
-0.084789,0.428725,-0.032592,-0.567537,0.747273,-0.345665
-0.104512,0.481134,0.007123,-0.378493,-0.923532,0.061896
-0.112330,0.558051,0.086718,0.355640,-0.904204,0.236507
-0.141673,0.532089,0.040466,-0.723484,0.599942,-0.341527
-0.671919,0.419951,0.725032,0.403904,-0.701913,0.586669
-0.766206,-0.020676,0.855434,-0.706382,-0.535882,-0.462445
-0.734697,0.033654,0.841007,-0.587568,0.351102,-0.729035
-0.736261,0.044834,0.811196,0.379705,-0.884851,-0.269931
-0.717862,0.081968,0.790662,0.056779,0.946379,0.318031
-0.803851,-0.006848,0.692711,0.608029,0.447029,-0.656099
-0.845823,-0.049280,0.642828,0.339844,-0.910236,0.236594
-0.523511,0.464305,0.593176,-0.700143,0.300188,-0.647833
-0.455683,0.565747,0.597699,-0.453155,-0.076998,-0.888100
-0.599520,-0.135338,0.696772,0.895247,-0.348333,0.277843
-0.547686,-0.054085,0.691655,0.003524,-0.976025,0.217629
-0.568130,-0.068874,0.651808,0.393312,-0.827179,0.401348
-0.545881,-0.015387,0.604797,0.817178,0.043282,0.574758
-0.466627,0.102164,0.613281,0.945965,-0.184462,0.266690
-0.447506,0.152761,0.563530,-0.296896,-0.219494,-0.929341
-0.738547,-0.137502,0.676073,-0.407816,0.373228,0.833299
-0.631029,0.017184,0.698984,0.946152,0.102679,0.307008
-0.676609,-0.030653,0.647318,-0.088424,-0.664929,0.741654
-0.672763,-0.012864,0.619158,0.498538,-0.848727,0.176414
-0.735057,-0.082336,0.558644,-0.637375,0.158261,-0.754126
-0.420566,0.345433,0.682874,-0.384438,0.862639,-0.328727
-0.572460,0.157815,0.580004,-0.550186,0.830646,-0.085567
-0.171379,0.203724,0.726847,0.658014,0.306353,-0.687870
-0.255804,0.103844,0.655769,0.055167,-0.944471,0.323931
-0.396031,-0.058296,0.528470,-0.635730,0.661417,-0.397964
-0.305833,0.086422,0.513482,0.901418,0.098468,0.421605
0.062896,0.611780,0.606778,-0.288231,0.598573,-0.747417
-0.238004,0.276445,0.303979,0.641750,-0.677156,0.360024
-0.402766,-0.065507,0.901455,0.429663,0.851611,-0.300246
-0.640289,-0.370074,0.759828,-0.061742,-0.745468,0.663676
-0.442455,-0.045795,0.708228,0.159122,0.911686,-0.378826
-0.548527,-0.162143,0.598128,0.897632,-0.427703,0.106428
-0.406135,0.038701,0.638471,0.634913,0.614394,-0.468408
-0.461335,-0.021997,0.581225,0.946592,-0.168573,0.274859
-0.537223,-0.109977,0.513482,-0.174051,0.943290,-0.282683
-0.311125,0.301923,0.353961,-0.770057,0.566407,-0.293591
-0.304390,0.323315,0.327451,0.914765,-0.219112,0.339405
-0.288396,-0.195918,0.970387,-0.365847,0.890619,0.270098
-0.268551,-0.157456,0.950810,0.971694,0.049326,-0.231035
-0.300423,-0.188106,0.906737,-0.616751,-0.707370,-0.345321
-0.276732,-0.133056,0.860650,0.661122,0.660790,0.355350
-0.441853,-0.329572,0.723909,-0.418651,0.637446,-0.646834
-0.200242,0.016466,0.781980,-0.648632,0.708846,-0.277153
-0.117259,0.139182,0.792478,0.406128,-0.300444,0.863014
-0.128445,0.136299,0.757748,-0.577468,0.191989,-0.793518
-0.189778,0.078242,0.670560,0.109312,0.897216,0.427849
-0.359230,-0.109258,0.497206,0.986096,0.001641,0.166168
-0.300302,-0.018747,0.495754,0.264642,-0.453454,0.851084
-0.030547,0.362738,0.570496,0.557725,0.722559,-0.408475
0.069631,0.507330,0.591658,-0.454542,0.451123,-0.768036
-0.527361,-0.269234,0.259906,0.680951,0.599673,0.420354
-0.219484,0.201083,0.261359,0.701778,-0.633216,0.326413
-0.500180,-0.318268,0.772241,0.095992,-0.965909,0.240426
-0.508720,-0.317791,0.738930,-0.529376,0.806533,-0.263183
-0.276611,0.015746,0.793534,-0.645633,0.744058,-0.171861
-0.185451,0.149041,0.807961,0.920974,-0.262180,0.288217
-0.153821,0.202763,0.794954,0.834453,0.311538,0.454569
-0.312689,-0.334979,0.940279,0.791062,0.611731,0.002559
-0.234998,-0.219834,0.948763,0.822514,0.557275,0.113645
-0.247506,-0.224162,0.913901,0.139256,0.983026,-0.119449
-0.268793,-0.240506,0.875936,0.982603,0.005917,0.185624
-0.246181,-0.198200,0.857415,0.995840,-0.036685,0.083404
-0.252799,-0.194473,0.824897,0.786335,-0.569793,-0.238773
-0.325318,-0.266351,0.732757,-0.602522,0.798087,0.004934
-0.018762,0.151565,0.851605,0.186646,0.889873,-0.416281
-0.005292,0.194348,0.800929,0.054397,0.979790,-0.192491
-0.162718,-0.000840,0.694626,-0.200746,0.866669,-0.456712
-0.152496,0.038099,0.639593,0.924152,0.360388,-0.126744
-0.316538,-0.127408,0.440621,0.862938,-0.262281,0.431910
0.083100,0.424397,0.579079,0.164761,-0.967863,0.189987
-0.024293,0.308533,0.465150,0.773034,0.589792,-0.233590
-0.159231,0.197356,0.243234,0.593015,-0.517874,0.616555
-0.247745,-0.225365,0.969826,0.201413,0.973123,0.111646
-0.240771,-0.203966,0.944174,-0.742818,-0.667160,0.055843
-0.273484,-0.236178,0.900795,0.931404,0.208190,0.298568
-0.250273,-0.193512,0.883760,0.960353,0.104313,0.258535
-0.254120,-0.174879,0.824435,0.841606,-0.510051,-0.177613
-0.334335,-0.257211,0.727144,-0.545062,0.829541,-0.121531
-0.232594,-0.109735,0.746523,0.763297,0.167851,0.623862
-0.197236,-0.050240,0.735266,0.623938,0.698734,-0.349959
-0.087314,0.107329,0.760092,-0.570318,0.680250,-0.460433
-0.156948,0.027404,0.696112,-0.556316,-0.330150,-0.762571
-0.314733,-0.119235,0.469211,0.370159,-0.832953,0.411305
0.095487,0.459735,0.585055,0.016941,-0.532051,0.846543
-0.155021,0.205051,0.274663,0.467178,-0.865600,0.180225
0.034276,0.467188,0.342440,0.008219,-0.898072,0.439771
-0.311125,-0.348441,0.841800,-0.472317,0.863188,0.178388
-0.223334,-0.220076,0.855203,0.863161,0.504864,0.008140
-0.243296,-0.234373,0.817502,0.076299,0.841634,-0.534631
-0.229706,-0.203724,0.794492,-0.632572,0.722325,0.279461
-0.256766,-0.227045,0.753291,-0.514237,0.066101,0.855097
-0.303671,-0.275961,0.701130,-0.602602,0.757234,-0.251927
0.028260,0.187981,0.802184,0.092118,0.984856,-0.146877
-0.177391,-0.070796,0.674290,0.077834,-0.920161,0.383727
-0.099579,0.044108,0.683468,-0.340310,-0.659060,0.670693
-0.277451,-0.123681,0.445507,-0.292396,0.874362,-0.387292
0.102585,0.399880,0.576471,0.700936,-0.677218,0.223750
0.010824,0.293032,0.500045,0.864360,0.468467,-0.182814
-0.009983,0.278367,0.460132,0.916379,0.388592,-0.096158
-0.180999,0.121993,0.219795,-0.378464,0.812798,-0.442860
-0.035480,0.325721,0.263075,-0.266738,0.934112,-0.237247
-0.231390,-0.481735,0.868970,0.154513,-0.984013,0.088567
-0.225136,-0.460820,0.844045,0.684508,-0.721744,0.102635
-0.253518,-0.485462,0.802481,0.794704,0.571766,0.203789
-0.223932,-0.405889,0.946056,-0.531582,-0.845233,-0.054791
-0.233435,-0.405654,0.912647,-0.308460,-0.950656,0.033255
-0.249308,-0.413826,0.877289,-0.865101,0.225562,0.448020
-0.318462,-0.492072,0.815554,0.949204,-0.118076,0.291668
-0.269513,-0.414428,0.809381,-0.352380,0.630039,-0.692011
-0.176069,-0.278250,0.824204,0.828364,-0.553321,-0.087458
-0.191341,-0.273078,0.760455,0.765424,-0.529661,0.365493
-0.176672,-0.240624,0.737874,0.714869,0.653344,-0.249208
-0.184606,-0.237623,0.705785,-0.092217,-0.889721,0.447094
0.106193,0.156971,0.816380,-0.405955,-0.766246,0.498063
-0.177993,-0.189067,0.619257,0.793208,-0.354812,0.494903
-0.091644,-0.062859,0.632462,-0.587971,-0.781390,0.209091
-0.225617,-0.170551,0.416885,0.394006,-0.777960,0.489426
0.040167,0.189903,0.518797,0.838168,0.467148,-0.281508
0.008056,0.270430,0.230029,-0.452329,0.812851,-0.366976
-0.249191,-0.373082,0.928856,-0.308197,0.873606,-0.376599
-0.449671,-0.613467,0.778876,-0.501416,-0.862167,-0.072461
-0.300661,-0.403849,0.819582,-0.517568,0.273684,-0.810692
-0.199882,-0.258296,0.839093,-0.332917,-0.822445,0.461249
-0.205655,-0.252889,0.807037,-0.534699,-0.333552,0.776428
-0.215395,-0.252765,0.772934,-0.228943,0.441184,0.867722
-0.193628,-0.211060,0.753753,-0.563733,-0.820643,0.093541
-0.245943,-0.267312,0.700238,-0.088822,-0.955341,0.281842
0.077448,0.171152,0.827769,-0.269411,-0.930366,-0.248670
0.069513,0.173676,0.794558,-0.374460,-0.620170,0.689325
-0.165606,-0.122595,0.652072,0.319574,-0.487600,0.812477
-0.096093,-0.018270,0.655869,0.111922,-0.931127,0.347096
-0.252196,-0.156253,0.429661,-0.058109,-0.816560,0.574329
0.168971,0.420912,0.580202,-0.078939,-0.892727,0.443630
-0.027060,0.178121,0.451252,0.945076,0.186873,0.268159
-0.002165,0.224162,0.433160,0.960797,0.276510,0.020291
-0.166208,0.078124,0.197181,-0.491672,0.592804,-0.637842
-0.009260,0.296274,0.246305,-0.593027,0.783679,-0.184844
-0.147086,-0.443273,0.903073,-0.491384,0.613194,0.618495
-0.291522,-0.619710,0.806377,0.913432,-0.398832,-0.081090
-0.193026,-0.477165,0.823312,-0.227350,0.941813,-0.247590
-0.132772,-0.384857,0.822784,-0.104727,0.311329,0.944514
-0.208059,-0.470797,0.758969,0.715457,-0.650925,0.253807
-0.179795,-0.375364,0.807961,0.878021,0.458072,0.138740
-0.394710,-0.644953,0.677624,0.872373,-0.486874,-0.043812
-0.290201,-0.494353,0.697532,-0.255151,-0.804888,0.535773
-0.158992,-0.281969,0.672672,0.078104,-0.990948,0.109186
-0.064103,-0.118509,0.631670,-0.274207,-0.441046,0.854569
0.097414,0.146877,0.591823,-0.173442,0.953343,0.247092
-0.205655,-0.221154,0.381362,0.506413,0.855676,0.106604
-0.205655,-0.207934,0.351650,-0.357157,-0.884892,0.299008
0.025977,0.121517,0.406089,-0.671440,0.741044,-0.004803
-0.145042,-0.031013,0.166280,0.818008,-0.295901,0.493260
0.044497,0.228725,0.232241,-0.922620,0.215434,0.319939
-0.177512,-0.423921,0.923211,-0.616491,-0.782796,0.084673
-0.156585,-0.434374,0.807466,0.926455,0.314757,0.206418
-0.177633,-0.448202,0.768114,-0.191830,0.971995,0.135748
-0.215036,-0.482572,0.721070,-0.633963,0.773337,0.006461
-0.265787,-0.534620,0.667258,-0.660245,0.676057,-0.327144
-0.307760,-0.576083,0.618530,-0.767610,0.620658,0.159869
-0.123153,-0.308298,0.648474,0.413645,-0.852397,0.319871
0.138542,0.045435,0.746490,0.992974,-0.097334,-0.067295
-0.127722,-0.286422,0.587531,0.860411,0.425847,0.279908
-0.118462,-0.259617,0.562012,0.294578,-0.944990,0.142188
0.239806,0.245671,0.650190,0.958387,0.184903,0.217497
0.170414,0.170074,0.585913,-0.217804,0.844812,0.488728
-0.155384,-0.223678,0.364592,-0.538698,-0.838261,0.084396
-0.301263,-0.368871,0.199228,0.651899,-0.289261,0.700968
0.182320,0.327041,0.290741,0.567812,0.632941,-0.526284
-0.127363,-0.436061,0.906176,-0.499873,0.730299,-0.465607
-0.273363,-0.613944,0.810041,0.922107,-0.384662,0.041872
-0.183524,-0.482814,0.822718,-0.471060,0.620823,-0.626644
-0.219125,-0.472360,0.725263,-0.695181,0.710337,0.110204
-0.333374,-0.594717,0.612423,0.773785,0.336160,0.536893
-0.290440,-0.524761,0.602651,-0.452525,0.506160,0.734181
-0.126882,-0.297236,0.651577,0.627199,-0.770263,0.115397
0.125917,0.046397,0.744245,0.894332,-0.309563,-0.323019
-0.114132,-0.253968,0.598887,0.775989,0.628012,-0.058676
-0.097777,-0.219474,0.577858,-0.331850,0.866938,-0.371878
0.160193,0.143987,0.646031,0.465050,-0.868308,0.172537
0.159591,0.170433,0.585847,-0.153656,0.618776,0.770394
-0.159473,-0.216950,0.366638,-0.511539,-0.857499,0.054981
-0.301986,-0.360457,0.203585,-0.382432,-0.893199,-0.236517
0.224652,0.378606,0.347722,-0.557958,-0.751689,0.351634
0.167889,0.318752,0.288595,0.446942,0.734814,-0.510188
-0.059773,-0.411662,0.858307,-0.260619,-0.895499,-0.360776
0.003846,-0.314908,0.859099,-0.501224,0.571354,-0.649868
-0.310887,-0.696158,0.767256,0.788882,0.509854,-0.343095
-0.060734,-0.356254,0.855071,-0.237161,0.482958,0.842916
-0.124115,-0.425241,0.797232,0.186710,-0.663353,-0.724639
-0.135059,-0.425483,0.763954,-0.398724,0.414415,0.818095
-0.153458,-0.435460,0.725725,-0.881763,-0.136496,-0.451511
-0.147446,-0.414061,0.700073,0.647613,0.735498,0.199098
-0.109320,-0.321994,0.629227,-0.737152,0.672613,0.064799
0.107995,-0.027044,0.705620,0.437997,0.416299,-0.796777
0.031266,-0.112141,0.640253,0.395222,0.481613,-0.782207
0.213949,0.165863,0.641508,-0.486843,0.855319,0.177236
0.152492,0.115266,0.550886,-0.566907,-0.801601,0.189873
0.041851,-0.013465,0.466834,0.993089,-0.017753,-0.116015
-0.155384,-0.253609,0.338907,-0.015709,-0.933730,0.357634
-0.007216,-0.048076,0.382155,0.978796,-0.196600,-0.057512
0.185087,0.228483,0.418700,0.210484,0.901768,-0.377507
0.194226,0.297954,0.301965,0.668981,0.575164,-0.470797
-0.077573,-0.294954,0.303253,0.418173,0.858861,-0.295785
-0.080700,-0.284500,0.271725,0.986797,0.114993,0.114054
0.264822,0.173800,0.415003,-0.482116,-0.854107,0.195105
0.593744,0.681252,0.401732,-0.629146,0.777222,-0.010081
0.654118,0.802889,0.341845,0.820328,-0.344663,-0.456365
0.545881,0.680166,0.253964,0.650382,0.758089,0.048000
-0.012270,-0.468875,0.867583,0.514394,0.841796,0.163640
0.013708,-0.421037,0.850747,0.970540,-0.039421,0.237693
0.030547,-0.385098,0.829453,0.939375,-0.102167,0.327317
-0.019004,-0.434741,0.776929,-0.719312,0.670768,0.180723
-0.036922,-0.444351,0.740053,-0.712488,0.614295,-0.339119
0.177751,-0.152643,0.814201,0.914465,-0.381309,0.135489
-0.064823,-0.452406,0.668744,0.397828,-0.873953,-0.279174
0.079735,-0.237381,0.679968,0.662512,0.169827,-0.729546
0.048586,-0.263226,0.634938,-0.139935,-0.252838,-0.957335
0.011425,-0.296157,0.587036,-0.500811,0.853010,-0.146841
0.051952,-0.229810,0.577957,0.684233,0.095492,0.722985
0.036320,-0.236178,0.541279,0.845087,-0.515460,0.141874
0.033553,-0.225123,0.509718,0.999058,-0.040799,0.014809
0.269872,0.093149,0.597171,0.285241,-0.845038,0.452271
0.031989,-0.198317,0.449205,0.863866,-0.022688,-0.503211
-0.035718,-0.270554,0.384796,0.022385,-0.998327,0.053314
0.010343,-0.292306,0.834504,0.714746,-0.698671,0.031563
-0.079375,-0.394232,0.762766,-0.029310,0.612863,0.789646
-0.125197,-0.439421,0.711529,0.025251,0.992876,0.116442
-0.065186,-0.347355,0.710638,0.742563,-0.571813,0.348755
-0.047026,-0.309978,0.690830,0.807836,0.559018,-0.186814
-0.038005,-0.270070,0.636754,0.703121,-0.645989,0.297186
-0.014072,-0.210099,0.589875,-0.423282,0.339105,-0.840143
0.254116,0.178363,0.632627,0.138163,-0.989868,0.032733
-0.116539,-0.240147,0.329729,0.135035,-0.877072,0.460988
0.364761,0.421756,0.480700,-0.631945,0.652157,-0.418732
0.403368,-0.038701,0.607009,-0.164022,0.985972,0.030924
0.433070,0.013582,0.591625,0.154267,-0.428001,0.890515
0.393987,-0.008535,0.512756,0.536776,0.839198,-0.087284
0.413828,0.031372,0.492155,0.266581,0.851050,0.452381
0.002404,-0.483533,0.254327,0.909965,0.388570,-0.144835
0.396751,0.038341,0.423652,-0.419028,-0.904114,0.083621
0.056642,-0.384614,0.221479,0.991255,0.131794,-0.006681
0.495849,0.252163,0.290774,0.790448,-0.403341,0.460987
0.573661,0.366707,0.301239,-0.038149,-0.956934,0.287788
0.051952,-0.485697,0.819186,0.888327,-0.114343,-0.444749
0.211905,-0.194231,0.722192,0.479842,-0.869667,-0.115893
-0.007098,-0.463586,0.587696,0.077166,-0.856341,0.510614
-0.051236,-0.505768,0.537152,0.988463,-0.151460,0.000010
0.008298,-0.414303,0.535865,0.244708,-0.491663,0.835695
0.281899,-0.047717,0.640749,-0.500759,0.854292,-0.139379
0.182078,-0.132814,0.501201,-0.681684,0.663380,0.308599
0.277568,0.004082,0.519391,0.792867,0.387003,-0.470734
0.124232,-0.178847,0.413781,-0.609986,0.780942,-0.134339
0.011543,-0.308775,0.326527,0.945582,0.074477,-0.316744
0.002525,-0.305290,0.292358,0.632480,0.773194,-0.046258
-0.018043,-0.316705,0.250530,0.919757,0.343454,-0.189964
-0.017199,-0.300602,0.219531,0.856467,0.285053,0.430360
-0.038728,-0.312861,0.176977,0.571056,-0.806993,-0.150526
-0.064103,-0.330768,0.133663,0.718987,-0.657465,0.225383
0.697295,0.716347,0.371722,-0.754462,0.645176,-0.120561
0.704268,0.739903,0.344751,0.043812,-0.998902,0.016600
0.735538,0.793991,0.331116,0.905290,-0.385261,-0.178952
0.582080,0.613225,0.220719,0.912105,0.367362,-0.181958
0.565484,0.607210,0.180311,-0.562279,0.762696,-0.319590
-0.073004,-0.303486,0.335375,-0.633577,-0.712832,0.300750
0.186170,-0.736419,0.668711,-0.763533,0.608350,0.216629
0.169691,-0.744114,0.631142,-0.800668,0.591893,-0.092701
0.183641,-0.711784,0.607834,0.807297,-0.581217,0.102268
0.175226,-0.709495,0.574689,0.348213,0.888833,0.297866
0.204326,-0.657938,0.559866,-0.027380,0.337839,0.940806
0.312204,-0.503971,0.582348,-0.103865,0.895173,0.433447
0.191459,-0.646399,0.493542,0.881477,0.316455,0.350507
0.525075,-0.185457,0.597468,-0.666415,-0.561372,0.490666
0.634997,-0.028966,0.621898,0.873276,0.474784,-0.109399
0.672638,0.032935,0.611994,0.855831,0.371429,-0.359991
0.330005,-0.382450,0.380504,0.500716,0.761593,-0.411412
0.550810,-0.069109,0.431411,-0.623798,-0.736288,0.262213
0.071675,-0.672118,0.156706,0.873470,0.452835,0.178861
0.092603,-0.630289,0.135215,0.947263,-0.156084,-0.279875
0.373181,-0.254811,0.248219,0.698658,0.538809,-0.470704
0.374381,-0.238944,0.218507,0.630260,-0.775310,-0.040819
0.324712,-0.288220,0.161064,0.924877,0.202542,-0.321839
0.672759,0.246030,0.155683,0.589678,0.512912,-0.623859
0.462535,-0.203364,0.826779,0.792232,-0.024095,-0.609744
0.146602,-0.543394,0.526456,0.894235,0.097994,-0.436739
0.546964,0.016466,0.634245,-0.395960,-0.917584,-0.035426
0.562837,0.051201,0.612126,0.379696,-0.887368,-0.261552
0.115332,-0.484134,0.298499,-0.863297,0.089318,0.496730
0.479131,-0.000723,0.450822,-0.642790,-0.744486,0.180451
0.344197,-0.145315,0.321872,0.736845,0.528417,-0.421705
0.461936,0.078484,0.227718,0.908339,0.030999,-0.417084
0.623329,0.299517,0.281233,0.609943,0.486907,-0.625213
-0.109683,-0.815625,0.593374,0.948655,-0.316313,-0.000517
0.372458,-0.176206,0.796538,0.555684,0.656010,-0.510750
0.172337,-0.408295,0.641706,-0.371839,-0.924286,0.086205
0.246541,-0.881737,0.522197,-0.623068,0.643556,-0.444547
0.548645,-0.377285,0.429892,0.261831,0.937947,-0.227376
0.710643,-0.112017,0.391960,0.990890,0.009651,0.134325
0.619241,-0.215623,0.313817,0.837175,0.109294,-0.535904
0.816234,0.138338,0.198798,-0.158765,0.288348,0.944272
0.264943,-0.674525,0.461552,0.853706,-0.511138,0.099621
0.214188,-0.726926,0.406651,0.898137,0.438314,-0.035071
0.579914,-0.238944,0.559139,0.913735,0.344406,0.215577
0.134696,-0.787983,0.275753,0.996542,-0.004162,-0.082986
0.365242,-0.475126,0.360366,0.490947,0.565146,-0.663009
0.095006,-0.810343,0.192460,-0.446055,0.821386,0.355472
0.490076,-0.242671,0.269513,-0.659120,0.556395,0.505950
0.377390,-0.624523,0.724867,-0.675665,0.662052,0.324290
0.413828,-0.564067,0.713774,0.393916,-0.845385,-0.360768
0.292844,-0.708417,0.626355,0.934172,-0.254200,0.250409
0.276607,-0.715628,0.588224,-0.242587,-0.877879,0.412893
0.248585,-0.738582,0.545340,0.997992,0.054677,-0.031969
0.255081,-0.716347,0.517873,-0.834091,0.258360,0.487383
0.228741,-0.735817,0.474427,0.960666,-0.227462,0.159315
0.095128,-0.868994,0.655109,-0.741184,0.667775,-0.068721
0.653876,-0.432210,0.564289,-0.322437,-0.039789,0.945754
0.622848,-0.458656,0.518368,-0.713000,-0.697224,0.074230
0.119182,-0.338823,-0.195645,-0.262499,-0.859125,0.439316
0.055559,-0.404928,-0.178710,0.963251,0.128050,-0.236117
0.064100,-0.387739,-0.138169,0.944391,0.293101,0.149057
0.052795,-0.394474,-0.105585,0.937256,0.134317,0.321730
0.050990,-0.390263,-0.070162,0.790882,-0.394280,0.468026
0.299336,-0.438702,-0.971130,-0.344648,-0.025072,0.938397
0.175824,-0.572716,-0.975653,0.037811,0.120289,0.992019
0.061454,-0.696276,-0.975653,0.028597,0.383244,0.923204
0.130365,-0.435460,0.009896,0.442914,0.814252,-0.375262
0.057486,-0.505174,0.058459,0.942069,0.320661,0.098403
0.032591,-0.526683,0.087774,0.971635,0.215676,0.097004
0.216834,-0.454688,0.053473,0.832248,-0.532288,-0.155026
0.273601,-0.382333,0.108540,0.437932,0.867381,-0.236361
0.248828,-0.618155,-0.972153,-0.234026,0.116966,0.965169
0.146481,-0.727527,-0.967432,-0.106188,0.236134,0.965901
0.180514,-0.408295,-0.972714,0.103783,0.450827,0.886557
0.075767,-0.521393,-0.969083,0.019067,-0.412375,0.910815
0.000000,-0.601326,-0.956604,0.073138,-0.895247,0.439527
0.043415,-0.489665,-0.624423,-0.683217,-0.722365,-0.106784
0.081298,-0.423921,-0.494879,0.960711,0.127421,0.246573
0.053276,-0.448437,-0.466784,0.811623,-0.574896,0.103744
0.045099,-0.450484,-0.430602,-0.529360,0.846481,-0.056989
0.071077,-0.413826,-0.384713,-0.068676,0.997479,-0.017841
0.083343,-0.391950,-0.342027,0.810748,0.454910,0.368435
0.065061,-0.405771,-0.309542,0.996653,0.078960,-0.021189
0.052194,-0.413342,-0.275406,-0.489148,0.857245,-0.160828
0.059530,-0.397357,-0.235757,0.922373,-0.047298,0.383393
0.128321,-0.311900,-0.176729,0.594749,0.453553,-0.663750
0.041370,-0.403490,-0.166924,0.741793,0.463895,0.484297
0.054117,-0.382215,-0.126317,0.919593,0.391662,0.030817
0.062055,-0.366106,-0.086173,0.961639,0.028904,-0.272792
0.034874,-0.390388,-0.057584,0.820323,0.212632,0.530902
0.032951,-0.384857,-0.020642,0.931101,0.358557,0.066992
0.026337,-0.385098,0.013230,0.406004,0.623458,0.668178
0.011062,-0.396036,0.044131,-0.437892,-0.692593,-0.573206
0.017797,-0.381614,0.083318,0.984270,0.044504,0.170972
0.018278,-0.374278,0.119104,0.941944,0.213565,0.259098
0.048105,-0.386177,-0.033220,0.754637,-0.164689,0.635138
0.038365,-0.390989,-0.000470,-0.272981,0.961983,-0.008428
0.037161,-0.384981,0.036538,0.654374,0.701609,-0.282027
0.023812,-0.393755,0.069518,0.972931,-0.216728,0.080211
0.025493,-0.385458,0.106922,0.885252,0.441184,-0.147260
0.199397,-0.395677,-0.982057,-0.267427,0.379968,0.885498
0.092001,-0.511182,-0.979317,0.102711,0.066908,0.992458
-0.002165,-0.612022,-0.971856,-0.076568,-0.193258,0.978156
0.046663,-0.469469,-0.484678,0.967316,-0.245622,0.063011
0.095370,-0.400122,-0.390688,-0.744175,-0.662152,0.088077
0.091879,-0.397599,-0.354671,0.848335,-0.501819,0.168836
0.062055,-0.424639,-0.327567,0.648474,-0.720601,-0.245387
0.073840,-0.404451,-0.285244,-0.612282,0.265208,0.744833
0.058807,-0.414428,-0.253419,0.769174,0.624870,0.133825
-0.032353,-0.330166,0.016763,0.865269,-0.159773,0.475165
-0.028143,-0.317431,0.054365,0.762936,0.382479,0.521190
0.096691,-0.391825,-0.978954,0.122462,0.199679,0.972179
0.029824,-0.461063,-0.961853,-0.306960,0.951364,-0.026098
-0.056525,-0.553246,-0.953302,0.940999,0.301118,-0.154431
-0.065784,-0.555169,-0.915733,0.418318,-0.803545,0.423467
0.023449,-0.420436,-0.725609,0.586796,-0.732212,0.345739
0.186049,-0.388341,-0.984665,0.055289,0.213008,0.975485
0.059651,-0.526683,-0.988792,0.153504,0.033706,0.987573
0.040647,-0.540988,-0.956208,0.574468,-0.794051,0.198672
0.052795,-0.464305,-0.636011,0.943441,-0.307303,-0.124435
0.087431,-0.415990,-0.584576,0.959550,-0.228423,-0.164580
0.076608,-0.412865,-0.510857,0.994918,0.057855,-0.082410
0.042211,-0.444953,-0.483456,0.970472,-0.224285,-0.088772
0.070956,-0.404568,-0.435091,0.991262,0.036106,-0.126872
0.080095,-0.386059,-0.394749,0.915399,0.401191,-0.033025
0.059890,-0.401568,-0.364344,0.807186,-0.045390,-0.588550
0.052795,-0.402286,-0.328194,0.492910,-0.828029,-0.267220
0.054359,-0.393513,-0.290856,0.907443,0.220459,-0.357693
0.051471,-0.389427,-0.253122,0.760561,0.219205,0.611144
0.114370,-0.309017,-0.194292,-0.692470,-0.337411,0.637682
0.057846,-0.366590,-0.174715,0.940375,0.246039,-0.234861
0.072758,-0.341948,-0.133415,0.943864,0.279028,-0.176816
0.040768,-0.371754,-0.107566,0.694025,0.654941,0.298968
0.042934,-0.361902,-0.069171,0.753212,0.544212,0.369467
0.033432,-0.365027,-0.035960,0.688808,0.267266,0.673879
0.017437,-0.376442,-0.003673,0.577875,-0.606742,0.545824
0.011785,-0.374880,0.031949,0.708876,0.452935,-0.540689
0.012266,-0.367309,0.069221,0.956982,0.109989,-0.268493
-0.010104,-0.386177,0.097876,0.920137,0.352097,0.171392
0.011906,-0.316705,-0.986514,0.010718,0.007540,0.999914
-0.078656,-0.412498,-0.977864,-0.110579,0.421499,0.900062
-0.182441,-0.524761,-0.975322,0.220696,0.105630,-0.969606
0.089116,-0.367191,-0.983972,0.073433,-0.405268,-0.911244
0.001802,-0.460101,-0.974200,0.016213,0.528310,0.848897
-0.113651,-0.584497,-0.974134,-0.293230,-0.117489,0.948795
0.001083,-0.384497,-0.617721,0.040659,-0.987915,0.149569
-0.042574,-0.412263,-0.517493,0.757522,0.645186,0.099474
-0.021768,-0.362019,-0.393330,0.977507,-0.180803,-0.108580
-0.005292,-0.303368,-0.200036,0.021872,0.974050,-0.225274
0.500661,0.310220,0.109827,0.871491,-0.470840,0.137162
-0.031512,-0.279446,0.050172,0.902624,0.338077,0.266408
-0.041733,-0.282813,0.084176,0.903308,0.357419,0.237248
0.027659,-0.406974,-0.684045,0.801826,-0.372403,-0.467324
