0.617816,0.080595,-0.967824,-0.604271,0.708675,0.364192
0.404320,0.077800,-0.963859,0.470704,-0.269282,-0.840193
0.168955,0.074472,-0.968776,-0.066588,-0.003999,0.997773
0.292305,0.124103,-0.551685,0.342067,0.856987,-0.385438
0.214843,0.127080,-0.513544,0.920885,-0.246716,-0.301832
0.211606,0.134066,-0.454668,0.537198,0.688459,0.487280
0.228063,0.141757,-0.388457,0.965695,-0.252465,0.060775
0.150059,0.144551,-0.351069,-0.617939,-0.145535,0.772639
0.067738,0.147527,-0.312730,0.815312,0.437326,-0.379490
0.076914,0.155388,-0.249810,-0.290144,-0.935123,-0.203375
0.002418,0.159057,-0.210163,0.996636,0.079008,-0.021795
-0.018364,0.164657,-0.158383,-0.618161,-0.621165,-0.481696
-0.019172,0.170770,-0.101965,-0.354018,0.885668,0.300439
0.008085,0.178460,-0.035674,0.235334,0.960946,-0.145604
-0.046972,0.182822,0.005599,-0.165513,-0.261345,0.950949
-0.130381,0.186150,0.041480,0.391479,0.897824,-0.201632
-0.205955,0.189116,0.079224,-0.162526,-0.064958,0.984564
-0.428356,0.186321,0.077995,-0.524915,0.801657,0.286024
-0.588691,0.185447,0.091078,-0.476127,0.792867,0.380347
-0.339017,0.202395,0.210536,0.853679,0.480186,-0.201626
0.786783,0.184571,-0.963225,-0.034029,-0.640092,0.767544
-0.371949,0.306906,0.276351,-0.245253,0.942204,0.228261
0.556550,0.180550,-0.966674,-0.142601,0.534242,0.833217
0.343588,0.178279,-0.962551,-0.359467,0.504493,0.785029
0.066386,0.172689,-0.979956,-0.352370,0.617887,0.702887
0.036428,0.267408,-0.127220,0.945995,0.296899,-0.130170
-0.002706,0.271951,-0.078771,0.071944,0.979296,-0.189217
-0.022409,0.277893,-0.025683,0.820102,-0.058112,-0.569259
-0.163848,0.278074,-0.005027,-0.453377,0.876917,0.159579
-0.190297,0.283492,0.043541,0.750754,0.510079,-0.419748
-0.209728,0.289082,0.093655,0.880694,0.287043,0.376808
-0.157101,0.297647,0.165338,0.003299,0.679497,0.733670
-0.153320,0.303588,0.220765,0.199612,-0.477739,0.855524
-0.105002,0.311972,0.289434,-0.050699,0.464991,0.883862
0.618088,0.294853,-0.974009,0.252505,0.288371,-0.923625
0.392442,0.292228,-0.973613,0.658970,-0.738187,-0.144355
-0.138741,0.409144,0.147893,-0.047144,0.815968,0.576172
-0.247792,0.410542,0.176122,0.925324,0.125022,0.357973
-0.208114,0.418051,0.240747,0.164277,-0.833237,0.527948
-0.144952,0.426968,0.310725,-0.019978,-0.120414,0.992523
-0.096905,0.435533,0.378522,0.081172,-0.947704,0.308656
0.629967,0.337668,-0.969608,-0.295518,-0.036530,0.954639
0.389477,0.333817,-0.976111,-0.646802,-0.149706,0.747820
-0.180042,0.474156,0.302280,0.403322,0.716445,0.569243
-0.197587,0.479565,0.352593,0.862351,0.506299,0.003357
0.483677,0.416653,-0.979282,0.335166,0.044738,-0.941096
-0.248055,0.561878,0.366350,0.221345,0.782597,0.581849
0.005927,0.592288,0.592182,0.153696,-0.321493,0.934355
-0.035366,0.596662,0.635199,-0.548058,0.627009,-0.553618
0.070711,0.497399,0.476411,0.174210,-0.982126,-0.071264
0.243450,0.523787,0.677463,0.936991,-0.196278,-0.289004
-0.035095,0.541782,0.866978,-0.603128,0.492040,-0.627801
-0.733358,0.529025,0.847075,0.369252,0.113903,0.922323
0.220510,0.454754,0.512847,0.916198,0.150027,0.371581
-0.054797,0.489527,0.861824,0.008845,0.224630,0.974404
-0.516889,0.487255,0.901233,0.110646,0.835444,0.538322
0.109573,0.339759,0.507693,-0.253974,0.794467,0.551651
-0.547934,0.329273,0.499288,-0.560136,-0.037403,-0.827556
-0.150084,0.171121,0.566054,-0.323157,-0.702037,0.634597
-0.063710,-0.578254,-0.960053,0.551690,0.627168,-0.549816
0.290954,-0.561646,-0.950736,-0.153436,0.051606,0.986810
0.599464,-0.546446,-0.952124,-0.483420,0.283505,0.828209
0.674504,-0.375004,-0.955851,-0.598057,0.798248,0.071606
-0.026462,-0.408208,-0.970520,0.325272,0.647858,-0.688824
0.313087,-0.392305,-0.964573,0.094990,-0.624867,0.774931
0.191360,-0.259838,-0.963859,0.704552,-0.053135,-0.707660
0.520108,-0.243763,-0.961560,-0.153278,-0.508739,0.847167
0.065579,-0.134890,-0.972701,0.757480,0.523765,0.389735
0.454253,-0.116363,-0.956009,0.389033,-0.298752,0.871436
0.781924,-0.100982,-0.953670,-0.323929,-0.033015,0.945505
-0.045893,-0.014476,-0.973415,-0.586574,0.109502,0.802459
0.315245,0.002825,-0.962789,0.625068,-0.083233,-0.776120
0.626992,0.017332,-0.961243,-0.183100,0.143540,0.972559
0.144128,0.133725,-0.366889,-0.255583,0.313092,0.914686
0.174622,0.136690,-0.418351,0.824983,0.553100,0.116120
0.216729,0.140189,-0.465650,0.268040,0.624514,0.733578
0.238862,0.142812,-0.519095,0.295099,0.267208,-0.917342
0.237783,0.145255,-0.576941,-0.793458,0.545513,0.269889
0.288260,0.150844,-0.681134,0.931290,0.306724,0.196518
0.337378,0.162556,-0.963899,0.861358,-0.355838,-0.362549
0.658573,0.177415,-0.962948,-0.486643,-0.135915,-0.862963
-0.134696,0.260251,0.023599,0.428782,-0.845648,-0.317847
-0.047244,0.265840,-0.015890,0.549218,0.782213,-0.294112
-0.047788,0.267760,-0.071119,-0.014050,-0.720134,0.693693
0.010786,0.273882,-0.167502,-0.144926,-0.971931,-0.185329
0.242100,0.315300,-0.979282,0.374498,-0.757509,-0.534725
0.605404,0.332068,-0.967983,0.214661,-0.178085,0.960316
0.402162,0.446189,-0.979481,-0.500641,0.045824,-0.864441
-0.280180,0.364931,0.290663,-0.382661,-0.891003,0.244303
-0.153856,0.372089,0.259064,-0.254889,-0.921701,-0.292402
-0.124705,0.375417,0.210377,0.276875,0.897854,0.342342
-0.210272,0.373838,0.141906,0.539065,-0.083055,0.838159
-0.132803,0.378904,0.103329,-0.272010,0.669513,0.691204
-0.249950,0.376110,0.030061,0.780455,-0.581222,0.230370
-0.086922,0.384675,0.003656,-0.800241,0.337574,0.495639
-0.115266,0.491628,0.327694,0.804892,0.591791,-0.043969
-0.166542,0.491628,0.267668,-0.430519,0.447195,0.784009
-0.195964,0.581803,0.384707,0.386387,0.405988,-0.828178
-0.230246,0.582677,0.325712,-0.370459,0.206502,0.905603
0.004575,0.364398,0.647173,0.593951,0.571085,0.566643
0.085282,0.478348,0.871299,0.814306,0.551495,0.180995
-0.004864,0.491458,0.450442,-0.390221,0.260329,-0.883152
-0.414592,0.290127,0.412698,0.870919,0.224604,-0.437097
0.042095,0.192092,-0.158740,0.743888,0.546444,0.384747
0.167340,0.329796,0.863132,0.565644,-0.818223,-0.102753
-0.338210,0.320367,0.107413,0.007522,0.963581,0.267310
-0.063437,-0.257917,-0.970956,0.853498,-0.517601,0.060254
-0.085842,0.196454,-0.112590,0.374106,-0.805328,0.459882
-0.038875,0.122887,-0.293224,0.864531,-0.426871,0.265267
-0.027541,0.057523,-0.328153,-0.268998,0.957995,0.099422
0.154383,0.041801,-0.456769,-0.762039,-0.631789,-0.141911
0.190280,-0.007138,-0.598152,0.966009,-0.195820,-0.168765
-0.015127,0.507703,0.887714,-0.341283,0.742979,0.575768
-0.004864,0.399704,0.866899,0.158372,-0.878434,0.450858
0.006198,0.406872,0.820789,0.737217,-0.393815,-0.549018
-0.503667,0.324036,0.338042,0.145781,0.975497,0.164783
-0.488281,0.291877,0.265289,0.683725,-0.729436,-0.021055
-0.472359,0.262170,0.187144,-0.714467,0.589645,0.376638
-0.428628,0.231760,-0.011529,0.035824,0.994932,-0.093951
-0.245897,0.434307,0.248439,0.173782,-0.438931,0.881555
-0.231054,0.401625,0.175289,0.890949,-0.398824,0.217139
-0.237265,0.304634,0.172078,-0.432817,-0.890506,-0.140245
-0.213781,0.290832,0.069074,-0.750941,-0.096868,0.653226
-0.196507,0.258149,-0.013392,-0.021941,0.980610,0.194736
-0.178963,0.227920,-0.095463,-0.476535,0.327697,-0.815799
-0.164654,0.188774,-0.168176,0.971724,0.205673,0.115980
-0.137127,0.178983,-0.284343,-0.512347,-0.798182,0.316868
0.033463,0.192262,-0.979520,0.151662,-0.979339,0.133766
0.023471,0.082514,-0.976031,0.027458,0.043599,0.998672
0.014567,-0.030380,-0.973811,-0.032211,0.262168,0.964485
0.006742,-0.134890,-0.975912,0.326357,0.210210,-0.921576
-0.002171,-0.246558,-0.973533,0.805559,-0.418788,0.419155
-0.013505,-0.362769,-0.965763,-0.459191,0.413279,-0.786349
-0.022409,-0.473221,-0.965604,-0.421735,0.049967,-0.905341
-0.031321,-0.581049,-0.962789,0.148088,0.008629,-0.988937
-0.040498,-0.688353,-0.960846,0.161696,-0.522855,0.836945
-0.052103,-0.807882,-0.948516,-0.255505,0.240713,0.936362
0.259916,-0.037899,-0.934719,0.583566,-0.748004,-0.316134
0.261802,-0.120736,-0.966357,0.952957,0.227054,0.200799
0.252091,-0.228734,-0.963582,0.259773,0.306581,0.915711
0.242915,-0.342503,-0.961084,0.518847,0.381156,0.765192
0.234547,-0.449104,-0.961084,0.934512,0.339113,0.108119
0.224827,-0.561123,-0.958785,0.008242,0.462458,0.886603
0.214843,-0.675244,-0.953710,0.968087,0.244094,-0.056795
0.208632,-0.779925,-0.961719,0.403278,-0.313849,-0.859573
0.195947,-0.896137,-0.946256,0.008351,0.074603,0.997178
-0.009188,0.194364,0.211448,0.563898,-0.031277,0.825252
-0.001355,0.139666,0.161453,-0.512261,-0.420322,0.748944
0.050464,0.195409,-0.027943,-0.714283,-0.674859,0.185379
0.099862,0.158364,-0.234942,-0.682151,-0.686145,0.252734
0.116056,0.119559,-0.312215,0.197822,-0.595492,-0.778624
0.136022,0.089682,-0.402413,-0.654630,0.671976,-0.346278
0.157348,0.056296,-0.495743,0.890176,-0.447449,0.085886
0.173542,0.015411,-0.574800,-0.681765,0.589949,0.432616
0.299866,0.328058,-0.980075,-0.011104,0.445598,0.895164
0.193518,-0.022689,-0.664046,0.000958,0.956374,0.292143
0.224827,-0.034049,-0.793296,-0.116850,0.518421,0.847104
0.252626,0.343086,-0.057996,0.794494,-0.444092,0.414201
0.300945,0.144732,-0.312810,0.901367,0.430666,-0.045438
0.322806,0.115549,-0.408915,0.777333,-0.506199,0.373517
0.495282,0.458071,-0.982573,0.703854,0.708628,0.049351
0.484211,0.345700,-0.975159,0.264711,0.176771,0.947987
0.475307,0.235078,-0.971115,0.376236,0.078779,0.923169
0.465053,0.120967,-0.968062,0.694724,0.328292,-0.639986
0.455060,0.011561,-0.964335,0.674934,0.735448,0.059835
0.443998,-0.106923,-0.954622,0.374440,0.319558,0.870447
0.434822,-0.217022,-0.954899,-0.246596,-0.693858,0.676574
0.426989,-0.325895,-0.955494,-0.524088,-0.797041,-0.300095
0.421321,-0.425691,-0.965089,0.791246,0.454637,-0.408944
0.410259,-0.536836,-0.957437,-0.270622,0.307778,0.912160
0.399461,-0.653570,-0.948595,0.586640,-0.402246,-0.702888
0.388661,-0.763328,-0.942133,0.367280,0.066541,-0.927727
0.733070,0.323855,-0.972661,0.560466,0.823957,0.083510
0.722007,0.205724,-0.963741,-0.678597,0.646807,0.348061
0.712831,0.097896,-0.962829,-0.213322,0.512291,-0.831896
0.703655,-0.012204,-0.958150,-0.656914,0.479968,-0.581459
0.692312,-0.127892,-0.951490,0.699017,0.461936,-0.545885
0.683680,-0.234323,-0.951688,-0.702884,0.331863,-0.629143
0.675311,-0.346001,-0.950578,0.193951,0.224819,0.954903
0.664512,-0.460293,-0.945582,-0.167449,-0.983007,0.075223
0.657495,-0.568291,-0.949507,0.073042,0.207909,0.975417
-0.164383,0.439555,0.904167,0.876097,0.481476,-0.025220
-0.127407,0.474850,0.768177,0.952161,-0.305211,-0.015354
-0.044278,0.484290,0.441601,0.432360,0.150058,0.889127
-0.099064,0.256582,0.586948,0.481834,0.807551,-0.340143
0.040744,0.670228,0.878872,0.799491,-0.593908,0.089935
0.025629,0.483245,0.881053,0.798863,-0.376263,0.469301
0.029138,0.418574,0.848819,0.667534,0.649615,-0.363866
0.121451,0.457197,0.495997,0.722020,0.603190,-0.338894
-0.586260,0.379780,0.708706,-0.341579,-0.903259,-0.259705
-0.574383,0.344303,0.645547,0.486165,0.755050,-0.439936
-0.547390,0.346927,0.533821,0.892135,-0.449079,0.049230
-0.518239,0.356718,0.412539,0.861319,0.497306,0.104003
-0.395433,0.522732,0.890647,-0.029302,0.864459,0.501848
-0.348465,0.591766,0.719172,-0.373530,-0.196553,0.906555
-0.311217,0.626016,0.577790,0.745714,-0.654590,-0.124188
-0.363580,0.399352,0.719609,0.594936,0.794706,-0.120391
-0.308252,0.337839,0.470900,0.855231,-0.074123,-0.512919
-0.905290,0.510850,0.830819,0.522059,-0.719583,0.457881
0.865868,-0.319079,-0.944432,-0.177283,-0.239956,0.954459
0.847244,-0.219998,-0.947763,-0.175206,0.472073,0.863973
0.826462,-0.121781,-0.955692,-0.136793,0.967407,0.213099
0.808916,-0.013953,-0.954225,-0.533124,-0.078540,0.842384
0.789214,0.086536,-0.959538,0.282725,-0.814434,-0.506719
0.771133,0.188774,-0.960410,0.060323,0.126701,-0.990105
0.751430,0.284368,-0.967309,-0.011634,0.708802,0.705312
0.701760,-0.483183,-0.949983,0.374418,0.635333,-0.675398
0.686111,-0.373436,-0.946494,0.941322,0.273739,-0.197432
0.663977,-0.277138,-0.956525,-0.672406,0.537104,-0.509302
0.648319,-0.172105,-0.953274,0.011832,-0.847972,0.529909
0.629967,-0.073024,-0.956644,0.726124,-0.602933,-0.330478
0.609185,0.027294,-0.962591,-0.357901,0.368804,0.857841
0.590561,0.124636,-0.966912,-0.101679,0.721392,0.685022
0.571665,0.228966,-0.969926,-0.605027,0.179479,0.775713
0.551155,0.329796,-0.975119,-0.409592,0.705218,0.578707
0.533065,0.434307,-0.977022,-0.179354,0.670782,0.719641
0.581648,-0.504154,-0.953393,0.103206,-0.447272,0.888424
0.561945,-0.406640,-0.958269,-0.206329,-0.053880,0.976998
0.543865,-0.301778,-0.959815,0.690775,-0.371171,-0.620533
0.528478,-0.197630,-0.957278,0.269046,-0.190601,0.944079
0.509318,-0.094347,-0.959895,0.674836,-0.286720,-0.679991
0.495546,0.018729,-0.952758,0.579364,-0.398659,-0.710921
0.471254,0.111880,-0.965961,0.737854,-0.128339,-0.662646
0.453174,0.209915,-0.969450,0.431132,0.092786,0.897505
0.433743,0.306213,-0.975437,-0.022309,-0.846412,0.532061
0.413768,0.407566,-0.979758,-0.124389,0.205727,0.970672
0.396223,0.507703,-0.982018,-0.757006,0.499028,-0.421798
0.504730,-0.557283,-0.955494,-0.857226,0.203397,-0.473067
0.486369,-0.452251,-0.957159,-0.002385,0.378000,0.925803
0.468289,-0.348444,-0.959459,0.846840,-0.014128,-0.531659
0.450472,-0.241320,-0.958507,0.216852,0.112031,0.969755
0.433471,-0.140479,-0.959538,0.375418,-0.671920,0.638423
0.421594,-0.025313,-0.947128,0.782562,-0.360086,-0.507873
0.395416,0.062419,-0.966278,0.188037,-0.515455,0.836031
0.377599,0.161511,-0.969093,-0.263600,0.704400,-0.659042
0.357352,0.263387,-0.973851,-0.617127,0.419783,-0.665535
0.336298,0.361604,-0.981740,0.436016,0.008393,-0.899900
-0.869665,0.152764,0.035413,0.091432,-0.967990,-0.233744
-0.480991,0.381358,0.387641,0.845940,0.447449,0.290128
-0.284224,0.599456,0.389504,-0.521484,0.419758,0.742871
-0.449146,0.275973,-0.003045,0.103434,0.366175,0.924780
0.017804,0.229659,-0.097762,0.845575,0.055265,-0.530988
-0.037260,0.217957,-0.203066,0.854801,0.422611,0.301189
-0.054797,0.385027,0.272029,0.992115,0.086675,-0.090528
-0.166277,0.336964,0.053572,0.966036,-0.229007,0.119709
0.101477,0.194364,0.047427,0.885663,-0.033439,-0.463123
0.068544,0.240848,0.000484,0.441136,-0.085694,-0.893340
-0.065060,-0.853844,-0.953393,0.282447,0.639096,0.715388
0.164094,0.133191,-0.218528,0.243986,0.789563,-0.563082
0.133057,0.183356,-0.260277,0.883565,0.173298,-0.435065
0.076914,0.162556,-0.372677,0.490819,0.340015,-0.802176
0.113354,-0.907156,-0.943164,-0.358499,-0.138622,0.923181
0.092572,-0.815573,-0.953155,-0.378253,0.089389,-0.921376
0.211334,-0.832532,-0.944115,-0.388969,-0.125661,-0.912640
0.190815,-0.735713,-0.952877,0.898958,-0.360486,-0.248847
0.353843,-0.103776,-0.454073,0.619946,0.719411,0.313233
0.172464,-0.628931,-0.953353,-0.142027,-0.866427,-0.478678
0.315788,-0.063584,-0.513188,0.169399,0.710245,0.683269
0.151409,-0.533166,-0.963582,0.127251,-0.928482,0.348895
0.134136,-0.432677,-0.965445,0.242716,-0.528548,-0.813465
0.264233,0.077277,-0.566632,-0.007772,-0.981152,0.193079
0.099591,-0.226985,-0.967626,-0.204882,0.091890,0.974464
0.081501,-0.128949,-0.970282,-0.152022,0.495312,-0.855310
0.069896,-0.008887,-0.955970,-0.175425,0.351359,0.919659
0.047762,0.083912,-0.968934,0.800531,0.050114,-0.597192
0.025901,0.179505,-0.979322,0.847129,0.503854,0.168830
0.074483,-0.718412,-0.957952,-0.013499,0.035339,0.999284
0.056675,-0.614605,-0.959736,-0.344849,0.563643,-0.750590
0.203772,-0.039638,-0.504941,0.510532,0.859719,0.015508
0.039937,-0.512367,-0.958824,-0.690126,-0.041688,-0.722487
0.213764,0.137917,-0.431435,0.966131,0.221614,-0.132205
0.020777,-0.411536,-0.963899,-0.126710,0.795304,0.592820
0.145470,0.092125,-0.574879,-0.332071,-0.257578,0.907404
0.001338,-0.311570,-0.969926,-0.399119,0.196149,-0.895673
-0.016742,-0.208809,-0.973058,0.200038,-0.225998,0.953368
-0.032401,-0.104299,-0.970362,0.918622,0.231170,0.320461
0.260724,-0.821514,-0.947604,-0.389217,0.765244,-0.512749
0.241292,-0.726977,-0.954939,0.631706,-0.254083,0.732386
0.408637,-0.106752,-0.460853,0.696837,0.715397,0.051242
0.225099,-0.624216,-0.953036,-0.280060,-0.580091,0.764893
0.373818,-0.055894,-0.509421,0.811854,0.158159,-0.562031
0.204316,-0.527396,-0.962036,-0.088735,0.473034,0.876564
0.327394,-0.042443,-0.591055,-0.441952,-0.827216,-0.346976
0.187307,-0.426736,-0.963344,0.672367,-0.290208,-0.680956
0.309314,0.055774,-0.595258,0.744371,0.618847,0.250878
0.172464,-0.314535,-0.957318,0.994540,-0.072484,-0.075071
0.237239,0.011742,-0.740764,0.634192,-0.024320,0.772793
0.133330,-0.112341,-0.968062,-0.508604,-0.442792,0.738415
0.121451,0.001780,-0.955970,0.100306,0.678263,0.727941
0.096616,0.083560,-0.975952,0.765470,0.327067,-0.554151
0.076650,0.182652,-0.982930,0.117734,0.603992,0.788247
0.325508,-0.812427,-0.945186,0.021156,0.302901,0.952787
0.304182,-0.714390,-0.952956,-0.304461,0.880515,-0.363314
0.289339,-0.607267,-0.948397,0.179991,-0.980551,0.078252
0.267741,-0.517785,-0.960608,-0.148339,0.331508,-0.931718
0.249390,-0.414672,-0.963542,-0.016722,-0.196613,0.980339
0.231309,-0.316284,-0.967150,0.262754,-0.173029,-0.949221
0.288796,-0.018668,-0.778825,0.353220,-0.916663,-0.186986
0.197570,-0.097483,-0.962075,0.262929,0.435097,0.861138
0.180025,0.009119,-0.961441,0.230643,-0.377696,0.896744
0.158699,0.099645,-0.972741,-0.096667,0.196039,0.975820
0.140075,0.194886,-0.978252,0.556995,-0.614112,-0.559127
0.342781,-0.812608,-0.944274,0.416702,0.526013,0.741397
0.322535,-0.718764,-0.953194,-0.239596,0.804493,-0.543494
0.306340,-0.607437,-0.948476,-0.057405,-0.812698,0.579851
0.283672,-0.514469,-0.962075,0.057628,0.084696,0.994739
0.266391,-0.408038,-0.961996,-0.288654,-0.089276,-0.953262
0.248854,-0.309298,-0.964732,0.445495,0.308975,0.840279
0.225905,-0.071093,-0.934679,0.388115,0.830941,-0.398628
0.201342,0.010516,-0.955097,0.182579,0.458572,0.869699
0.177051,0.100519,-0.971234,0.184250,0.078363,-0.979750
0.156269,0.197510,-0.980274,0.684855,-0.367488,-0.629227
0.339808,-0.801770,-0.943560,0.763747,0.443811,-0.468745
0.317946,-0.705132,-0.953036,0.113160,-0.961545,0.250252
0.302025,-0.599395,-0.950102,-0.432586,-0.892646,0.126701
0.279620,-0.505733,-0.962155,-0.085098,-0.077128,0.993383
0.261802,-0.400699,-0.963423,-0.280199,0.901004,-0.331181
0.242100,-0.300039,-0.967864,0.012449,0.541939,0.840326
0.297708,-0.022337,-0.793851,0.594677,0.558941,0.577880
0.212685,-0.086827,-0.958507,-0.542805,-0.063658,-0.837443
0.192982,0.015582,-0.962115,-0.120047,-0.841170,-0.527277
0.172464,0.108029,-0.971313,-0.145520,-0.002521,0.989352
0.151137,0.207121,-0.979124,0.856571,-0.419605,-0.300361
0.432664,-0.676119,-0.945186,0.437353,-0.426848,-0.791532
0.410531,-0.580526,-0.955771,-0.145826,0.623580,0.768038
0.393249,-0.480207,-0.957595,-0.119196,0.163854,0.979257
0.372739,-0.381297,-0.963661,0.042595,-0.529691,0.847120
0.357352,-0.269971,-0.958864,-0.473648,-0.667929,-0.574046
0.340887,-0.162154,-0.957119,-0.729793,0.057719,0.681227
0.343053,-0.015521,-0.912278,0.256699,0.846901,0.465687
0.304454,0.035859,-0.962472,-0.259681,-0.030932,0.965199
0.281506,0.131794,-0.973613,0.524143,-0.319437,-0.789452
0.263425,0.231408,-0.976467,0.894026,0.355736,-0.272340
0.245881,0.338191,-0.975555,0.692068,-0.540500,0.478437
0.350607,-0.701462,-0.949269,0.398536,-0.910962,-0.106384
0.333061,-0.594851,-0.949031,0.087486,0.955272,-0.282491
0.312823,-0.501711,-0.957873,0.160225,0.285833,-0.944790
0.293927,-0.405244,-0.963344,-0.277025,-0.134896,-0.951347
0.275031,-0.299336,-0.964494,0.279026,-0.090714,0.955989
0.272873,-0.163369,-0.931309,-0.234172,0.632829,-0.738032
0.249933,-0.068128,-0.942252,0.289143,-0.955856,0.052303
0.225099,0.019956,-0.959934,-0.598221,0.380120,-0.705437
0.202158,0.113277,-0.973018,0.003122,0.538295,0.842751
0.184341,0.211665,-0.975278,-0.539542,0.769228,0.342321
0.163831,0.304986,-0.984000,0.740900,-0.526751,0.416655
0.471798,-0.673143,-0.946335,-0.602120,0.455766,0.655537
0.451288,-0.574755,-0.953829,0.064615,0.411021,-0.909333
0.431577,-0.477935,-0.959221,0.188666,0.142217,-0.971689
0.414576,-0.376401,-0.959815,-0.621447,0.775630,-0.110464
0.398381,-0.267880,-0.957595,-0.203584,0.904572,0.374570
0.380029,-0.167913,-0.959578,0.187309,0.474319,-0.860196
0.382459,-0.018326,-0.915807,0.339469,0.921943,0.186496
0.346018,0.047913,-0.956683,0.235290,0.557507,0.796131
0.323341,0.142983,-0.968459,-0.370157,-0.650114,0.663577
0.306340,0.244347,-0.969014,0.007576,0.332871,0.942942
0.284751,0.336441,-0.979243,-0.025219,0.356094,0.934110
-0.904211,0.574817,0.847947,-0.403478,0.383899,-0.830558
-0.678029,0.391321,0.807705,-0.646472,-0.584317,0.490558
-0.701777,0.453005,0.784313,0.860897,-0.508778,-0.001074
-0.695575,0.596832,0.835300,0.837685,0.352341,0.417301
-0.711768,0.674602,0.828560,-0.547854,-0.833969,0.065967
-0.435646,0.462615,0.885335,0.550123,0.611440,0.568776
-0.493141,0.417880,0.771467,-0.203141,-0.958342,-0.200785
-0.556838,0.365273,0.645468,0.645244,0.719019,-0.258207
-0.594893,0.383278,0.583142,0.033939,0.933143,0.357901
-0.642940,0.378734,0.496988,0.255552,-0.567678,-0.782582
-0.185981,0.333124,0.898854,-0.671490,-0.709367,0.214243
-0.241853,0.423298,0.825229,-0.345048,0.369966,0.862593
-0.285575,0.420504,0.747243,0.809757,-0.565937,-0.154946
-0.326060,0.433080,0.678375,-0.665405,0.736806,0.119807
-0.453192,0.331545,0.423680,0.600490,0.457921,0.655530
-0.391652,0.765128,0.658393,0.863113,0.263139,0.431037
-0.395160,0.885009,0.686027,0.869008,-0.461758,0.177778
0.006198,0.399704,0.854885,-0.060663,0.997911,-0.022224
-0.075316,0.280869,0.672388,-0.136423,-0.676472,0.723723
-0.110941,0.309349,0.617239,0.695351,-0.367134,-0.617819
-0.163032,0.288037,0.516614,-0.604172,0.677335,0.419754
-0.148461,0.591766,0.632583,0.196270,0.820646,-0.536673
-0.190025,0.603648,0.560226,-0.550838,0.669480,-0.498371
-0.224308,0.635978,0.508883,-0.316918,0.640748,0.699289
0.073948,0.492151,0.540878,0.687565,0.449945,-0.569916
0.070167,0.617450,0.571407,-0.273621,-0.897546,0.345750
0.398925,0.289082,0.631988,0.538059,0.649979,0.536675
0.379214,0.358809,0.615772,-0.131091,-0.766958,-0.628164
-0.565743,0.191388,-0.015058,-0.595618,0.740589,-0.311075
-0.228088,0.287685,0.007343,-0.827217,0.430138,-0.361516
-0.234291,0.319492,0.059400,0.031711,-0.547841,0.835982
-0.242660,0.318095,0.100554,0.220088,0.920922,0.321658
-0.251029,0.320708,0.141034,-0.707337,0.142546,-0.692355
-0.254537,0.478167,0.271831,0.766612,-0.587475,0.259190
-0.258582,0.538113,0.329597,0.329969,-0.906360,0.263879
-0.262092,0.594208,0.387284,0.351595,0.051059,-0.934759
-0.005136,0.091080,0.238963,0.241567,0.456886,0.856096
0.005391,0.349721,0.358579,0.541576,0.667570,-0.510926
0.294463,0.331375,-0.986022,-0.384196,-0.814597,0.434540
0.279620,0.248710,-0.969370,-0.489939,0.743455,0.455230
0.259916,0.107336,-0.971551,-0.379330,0.424090,0.822348
0.244529,0.014356,-0.958388,-0.102809,0.851790,0.513696
0.205123,-0.287805,-0.968934,0.199754,-0.258163,-0.945225
0.189201,-0.366791,-0.948952,0.534423,0.181838,-0.825425
0.151681,-0.633122,-0.949904,-0.228411,0.645030,0.729222
0.183534,0.015411,-0.679667,0.660324,-0.745562,-0.090049
0.176515,0.047742,-0.624517,-0.703789,0.018566,-0.710166
0.116863,-0.857343,-0.934481,0.144360,-0.727398,0.670860
0.166796,0.043369,-0.580350,0.495786,0.370372,-0.785507
0.155998,0.037598,-0.536857,-0.083350,-0.978494,0.188687
0.153304,0.140189,-0.457205,0.872591,0.096185,-0.478888
0.142233,0.121490,-0.420651,0.799633,0.272860,0.534916
0.131171,0.090376,-0.388298,-0.064899,-0.997868,0.006842
0.125504,0.142460,-0.326726,0.740979,-0.189421,-0.644260
0.036700,0.178460,0.105034,0.404945,0.837630,-0.366599
0.028060,0.182652,0.148329,0.983069,-0.034959,-0.179872
0.005391,0.116072,0.206056,-0.553404,0.815683,-0.168536
0.564647,0.434307,-0.975873,0.770594,-0.575978,-0.272828
0.547374,0.314596,-0.970520,-0.414309,0.908451,-0.055370
0.527942,0.182652,-0.969410,0.104198,0.417594,0.902639
0.510660,0.059795,-0.966278,0.757407,0.651310,-0.046153
0.491773,-0.069697,-0.965882,0.828387,-0.197162,-0.524311
0.474229,-0.189065,-0.959855,0.946600,-0.291539,-0.137669
0.455333,-0.334642,-0.965009,0.992259,0.032365,-0.119898
0.437515,-0.446832,-0.956406,-0.415062,0.542821,0.730115
0.418356,-0.584366,-0.957000,-0.139936,-0.498654,0.855431
0.400539,-0.694466,-0.947644,0.851309,-0.467930,-0.237307
0.791372,0.239802,-0.968459,0.503514,-0.138279,0.852849
0.773291,0.109778,-0.966080,0.235704,0.828465,0.508025
0.755475,-0.012556,-0.961203,-0.485753,0.659348,-0.573851
0.738201,-0.123178,-0.954186,0.042484,0.474630,0.879159
0.720113,-0.257566,-0.955296,0.413639,0.032568,0.909858
0.700682,-0.390555,-0.954027,0.238853,-0.033661,0.970472
0.683136,-0.516911,-0.952639,-0.670558,0.612499,-0.418564
-0.632413,0.384323,0.484856,0.277001,-0.960503,0.026545
-0.672898,0.490060,0.780864,0.862481,-0.505664,-0.020751
-0.684232,0.438498,0.803146,0.975662,0.021392,-0.218234
-0.363044,0.485335,0.809965,-0.454402,0.245995,-0.856157
-0.275320,0.631616,0.477958,-0.544916,0.776849,0.315551
-0.305278,0.444098,0.495403,0.523133,0.839456,-0.147123
-0.307436,0.510850,0.554993,0.120479,0.700632,0.703278
-0.354404,0.404419,0.711679,0.122021,-0.905235,0.407015
0.219159,0.438498,0.560266,0.896653,0.317536,-0.308518
0.147365,0.385379,0.844894,-0.517955,0.436440,0.735692
0.146014,0.483767,0.909678,-0.423499,-0.896567,0.129679
0.005119,0.457197,0.431531,-0.728994,0.678135,0.093280
-0.000548,0.505260,0.485808,-0.210136,0.975008,0.072125
-0.004864,0.559083,0.541473,0.806166,0.539902,-0.242080
-0.061008,0.242246,0.595393,-0.456965,-0.706139,0.540879
-0.066412,0.400057,0.719529,0.871928,0.473851,-0.123315
-0.083949,0.276325,0.720401,0.650540,0.600637,-0.464793
0.395952,0.294853,0.766234,0.831152,0.555771,-0.017464
-0.391924,0.240848,-0.001617,0.112746,0.867177,0.485070
-0.344420,0.307077,0.050043,0.979926,0.198992,0.012138
-0.314190,0.321935,0.141986,-0.194123,0.946535,-0.257659
-0.290970,0.344826,0.189602,-0.725779,0.232189,-0.647559
0.525775,-0.219294,-0.957199,-0.123799,-0.558779,0.820024
0.164910,-0.465882,-0.964811,0.216117,0.114693,0.969608
0.846436,-0.000844,-0.956049,0.762332,0.569251,-0.307901
0.900150,-0.229086,-0.939952,0.718819,-0.082398,-0.690297
0.584621,-0.522682,-0.948595,0.314678,0.838983,-0.443942
0.341702,-0.742347,-0.944908,0.066199,0.046740,0.996711
0.647783,-0.542606,-0.946454,-0.400122,-0.327006,0.856136
0.403513,-0.761920,-0.940705,-0.210867,-0.045480,0.976456
0.880175,-0.273117,-0.943322,-0.401562,-0.000381,0.915832
0.566270,-0.565315,-0.951569,-0.417860,-0.026649,0.908120
0.330097,-0.778176,-0.946653,0.200589,0.450835,-0.869777
0.612693,-0.577379,-0.948992,-0.034354,0.495429,0.867969
0.373818,-0.793035,-0.944353,-0.170274,-0.404348,0.898615
0.867218,-0.375878,-0.944036,-0.515749,0.138046,-0.845545
0.612693,-0.607790,-0.942727,-0.070271,0.594717,0.800858
0.641844,-0.521102,-0.947921,0.220640,-0.359347,0.906746
0.411610,-0.726273,-0.939516,-0.179517,-0.185731,0.966063
0.726867,-0.496815,-0.951529,0.709162,-0.325847,-0.625230
0.798118,-0.236947,-0.952996,-0.041657,0.895044,0.444029
0.493123,-0.518831,-0.958983,0.955620,-0.046423,-0.290921
0.268820,-0.716662,-0.951252,-0.076211,-0.849342,0.522312
0.664241,-0.407334,-0.947723,0.845289,-0.244744,-0.474961
0.398653,-0.650082,-0.948278,-0.329973,0.444032,0.833038
0.161129,-0.863466,-0.943084,0.022120,-0.124404,0.991985
0.568156,-0.228553,-0.962670,0.123767,-0.204052,0.971105
0.322806,-0.447877,-0.959102,-0.023308,0.126370,0.991709
0.059912,-0.686956,-0.958943,0.197152,0.051226,0.979034
0.642379,-0.333233,-0.952917,0.309685,0.586549,-0.748369
0.341159,-0.611107,-0.958071,0.817029,-0.326755,0.475074
0.070167,-0.855423,-0.957080,0.750564,0.642373,-0.154957
0.602973,0.329626,-0.971472,-0.011734,0.006311,0.999911
0.367344,0.120263,-0.964454,-0.192712,-0.915173,0.354006
0.104713,-0.115659,-0.962274,0.911510,-0.217763,0.348895
-0.080175,0.320708,0.238686,0.871947,0.228969,-0.432760
0.725517,0.234907,-0.967983,0.836964,0.498283,-0.226284
0.501484,0.035859,-0.960846,0.987047,0.140153,0.078079
0.316868,-0.119157,-0.943441,0.582529,0.589065,-0.560056
-0.021058,-0.435302,-0.957238,0.749270,0.387220,0.537267
0.240214,-0.056939,-0.748336,-0.428938,0.706367,-0.563079
0.242915,-0.019190,-0.697429,-0.773637,-0.185320,0.605923
0.205931,-0.024438,-0.654808,0.731440,-0.441421,0.519753
0.208632,0.045641,-0.552756,0.898558,-0.438547,0.016451
0.203237,0.076222,-0.502007,0.874907,-0.479873,0.065264
0.196491,0.104882,-0.451734,-0.408416,0.280889,0.868503
0.136838,0.077619,-0.411452,-0.385305,0.627336,-0.676749
0.103906,0.076403,-0.368475,-0.476486,0.765964,0.431578
0.037780,0.076051,-0.280854,0.447975,0.793502,0.411914
0.004575,0.075528,-0.238233,-0.458705,0.038763,-0.887743
0.009436,0.214811,-0.038251,-0.171512,-0.662385,0.729267
-0.065325,0.169724,-0.003639,-0.738188,-0.658754,0.145332
-0.022409,0.314426,0.150431,-0.640186,-0.710564,0.291993
0.265855,0.297466,-0.978370,-0.155441,0.211075,0.965031
0.010514,0.066611,-0.977102,0.474866,-0.129850,-0.870426
-0.053455,0.238576,-0.227171,0.652743,0.440681,-0.616220
-0.077746,0.245744,-0.183282,0.773904,0.630111,0.063507
-0.137934,0.250811,-0.095740,0.863808,-0.493817,0.099899
-0.214053,0.338362,0.135563,0.779929,0.109496,-0.616215
-0.220798,0.362830,0.181554,0.998223,-0.049517,-0.033163
-0.368711,0.244518,0.205303,-0.695554,-0.489009,-0.526379
-0.401372,0.243814,0.246774,0.752009,0.013667,-0.659011
0.404048,0.286810,0.637419,0.466563,0.675668,0.570781
-0.099064,0.369998,0.789229,0.313377,0.663940,-0.678954
-0.131723,0.367203,0.829194,-0.484916,0.616660,-0.620151
-0.414592,0.361433,0.437200,0.878030,-0.432875,-0.204164
-0.235642,0.574464,0.513204,-0.679833,0.359628,0.639135
-0.589498,0.343257,0.644278,0.486165,0.755050,-0.439936
-0.274776,0.316164,0.491121,0.557073,0.702978,0.442145
0.045876,0.674772,0.592221,-0.266047,0.716398,0.644975
-0.391924,0.356537,0.705217,0.412270,0.826081,-0.384218
-0.177690,0.518443,0.357513,-0.698474,-0.024121,-0.715229
0.194709,-0.708577,-0.968465,-0.625019,-0.056335,0.778574
0.291556,-0.332934,-0.964701,-0.217370,0.433586,0.874502
0.689366,-0.490588,-0.948384,0.201625,-0.289632,0.935661
-0.323935,0.387388,0.402080,0.730071,-0.678446,-0.081901
-0.505752,0.283776,0.405657,0.918443,0.350719,-0.182916
-0.781556,0.495552,0.808110,-0.043913,-0.989482,0.137829
0.001249,0.604361,0.565072,0.905765,0.371091,-0.204649
0.466018,-0.170187,-0.951376,-0.359909,-0.479026,0.800624
-0.361706,0.827173,0.676680,0.927192,0.012354,0.374384
-0.303159,0.278733,0.253258,0.765598,0.441795,0.467629
0.213271,0.034073,-0.530117,0.773770,-0.429317,0.465796
0.298029,0.038108,-0.709560,-0.278034,0.618540,-0.734919
0.826262,0.170242,-0.976689,-0.810250,0.249647,0.530255
0.248509,0.496533,0.916932,0.950297,-0.115417,-0.289163
0.124814,0.045325,-0.466056,0.998806,0.046442,-0.015170
0.036156,-0.245211,-0.980639,-0.713385,0.375398,0.591741
0.872148,0.009026,-0.934557,-0.346927,-0.664938,-0.661437
-0.514820,0.460714,0.757138,-0.020174,-0.969483,0.244327
0.308276,-0.487051,-0.972635,-0.141583,0.989817,0.014699
0.049148,0.204844,0.598198,0.919450,-0.242026,-0.309895
-0.168364,0.691465,0.551759,0.428372,0.895028,0.124189
0.298031,-0.798766,-0.974306,-0.697984,-0.255214,0.669092
0.085809,0.360512,0.513168,-0.110607,0.084391,-0.990275
0.383987,-0.089923,-0.569958,0.496810,0.836414,0.231497
0.134934,0.430443,0.843348,-0.521929,0.033764,0.852321
0.144961,0.112720,-0.608381,0.247258,-0.958601,0.141237
-0.033226,0.623085,0.583510,0.332629,0.861591,0.383430
0.054528,0.523471,0.862769,0.334715,0.409435,0.848722
0.088151,0.356203,0.844199,-0.337598,0.520735,0.784132
-0.021259,-0.276536,-0.981517,-0.326763,0.364851,0.871843
-0.589858,0.137334,-0.025274,0.530547,-0.768061,0.358611
0.107775,0.160461,-0.261818,0.865234,0.491265,-0.100148
-0.361367,0.491692,0.350690,0.840355,-0.539703,0.050253
0.453021,-0.584264,-0.940864,0.175058,0.440957,0.880291
-0.281850,0.405759,0.117874,-0.641376,0.762505,-0.084983
-0.132669,0.420816,0.370273,0.880492,-0.241202,0.408111
0.144862,0.202862,0.093206,-0.683056,-0.505223,0.527432
0.310906,0.138090,-0.618113,-0.376197,0.912342,-0.161581
0.769889,-0.011586,-0.947239,0.388184,-0.723697,-0.570592
-0.025635,0.367337,0.800912,0.987094,0.160058,-0.005168
0.309672,-0.658768,-0.950277,-0.356214,0.181138,-0.916679
0.358368,-0.415485,-0.972089,-0.469280,-0.362764,0.805095
-0.036583,0.428305,0.884048,0.919830,0.233269,-0.315435
0.091344,0.178650,-0.223895,0.605036,0.794648,0.049663
0.223131,0.424404,0.862793,0.955888,0.273295,-0.107646
0.267326,0.004149,-0.944505,-0.095749,-0.038995,0.994641
-0.522357,0.377994,0.406229,0.865105,0.390252,0.315115
-0.540345,0.368443,0.615281,-0.253753,-0.891228,0.375929
0.677512,-0.230839,-0.953784,-0.506101,0.136726,-0.851568
0.273860,0.176908,-0.957171,0.153692,0.142111,0.977846
-0.281453,0.342132,0.497646,0.499623,-0.659346,-0.561818
0.361508,0.053128,-0.968740,-0.055545,-0.966744,0.249639
0.121990,0.006094,0.148688,0.865117,-0.443361,0.234528
0.367295,-0.727516,-0.945668,0.344563,0.107884,0.932544
0.137482,-0.483214,-0.978322,0.125237,0.318831,0.939501
0.725250,-0.319938,-0.960055,-0.669051,0.098691,0.736635
-0.413652,0.226549,0.606877,0.604764,0.270081,0.749210
0.083562,-0.426493,-0.974440,-0.417122,0.580803,-0.699054
-0.208869,0.309284,0.137048,-0.668439,0.650751,-0.360157
0.365998,0.098869,-0.727045,0.880649,0.454719,-0.132995
0.573852,0.050305,-0.970083,-0.064865,0.662467,0.746278
0.445893,-0.152559,-0.971567,0.832776,0.267345,-0.484779
0.652435,0.040396,-0.946326,-0.029499,0.425345,0.904551
0.171484,0.420564,0.857720,-0.654950,-0.752361,0.070664
0.777388,-0.037760,-0.942190,0.312504,-0.663722,0.679569
0.329400,-0.387816,-0.968955,0.239527,-0.653462,0.718063
-0.701468,0.418661,0.490979,-0.684267,0.650248,0.330085
0.278307,0.072498,-0.939175,-0.449927,0.483511,0.750855
-0.129582,0.177344,-0.147765,0.410401,0.891304,0.192736
-0.319630,0.370663,0.477999,0.851451,0.523849,-0.024769
-0.122894,0.406175,0.848682,-0.228190,0.911283,0.342773
0.068131,0.285290,0.590836,0.060569,0.092341,0.993884
-0.655349,0.406953,0.762243,0.540150,0.831806,-0.127813
0.519017,-0.674006,-0.933961,0.464977,-0.092144,-0.880515
0.192616,-0.454978,-0.971582,0.960998,-0.267964,0.068393
0.762450,0.123846,-0.963780,0.968465,0.024474,0.247944
-0.004769,-0.343569,-0.960746,0.433256,-0.460973,-0.774463
0.753798,0.287861,-0.977365,-0.007892,-0.707389,0.706780
0.614413,-0.384719,-0.958282,-0.049932,-0.353733,-0.934013
0.062971,0.062570,-0.353360,-0.339940,-0.883445,0.322437
0.051036,0.399732,-0.033030,-0.016069,0.997742,-0.065216
0.361415,-0.136549,-0.945644,0.821800,0.483935,0.300754
-0.099444,-0.023017,-0.974886,0.783648,0.248889,-0.569166
0.723281,-0.113585,-0.941816,0.714064,0.698939,-0.039958
0.116111,0.037446,-0.959032,-0.172007,0.556585,0.812790
0.105287,0.040436,-0.344376,0.317794,0.934834,-0.158405
-0.071618,0.642871,0.494961,0.509203,0.677521,-0.530733
-0.422811,0.390813,0.385822,0.899544,0.396021,0.184355
0.582490,0.075264,-0.968050,0.321643,-0.946412,0.029169
0.653790,-0.028935,-0.947717,-0.487323,-0.192124,-0.851825
0.520237,-0.448027,-0.964038,0.094302,0.971873,0.215799
0.213867,-0.637075,-0.948601,-0.518999,-0.487028,-0.702455
0.191649,0.124567,-0.519390,0.188021,-0.512923,0.837591
0.273872,0.396261,0.599940,-0.464787,0.559227,0.686469
-0.174450,0.332388,0.783827,-0.060149,-0.898582,0.434663
0.159934,0.124656,-0.963714,0.845406,0.398012,0.356195
-0.470329,0.340481,0.422860,0.131514,0.265625,-0.955064
0.232873,0.051309,-0.939830,-0.410077,0.482556,0.773936
0.633965,0.402989,-0.964413,-0.197987,-0.277295,0.940164
0.277718,-0.270838,-0.974037,-0.390539,0.867921,0.306909
0.355694,-0.060309,-0.570542,0.496810,0.836414,0.231497
0.732506,0.055752,-0.953038,-0.506767,-0.093951,-0.856948
0.280381,0.221918,-0.990739,0.077146,0.157812,0.984451
0.352719,-0.325677,-0.969727,-0.562505,0.307369,-0.767537
-0.156503,0.305892,0.774878,0.100586,-0.923997,0.368934
0.051319,0.117019,-0.316494,0.930983,-0.361487,-0.050966
-0.405017,0.276499,0.183171,-0.348628,0.484746,0.802172
0.130340,-0.001171,-0.962458,0.533092,0.604419,-0.592022
0.161694,-0.559893,-0.976890,0.219035,0.062782,0.973695
-0.179366,0.379336,0.324495,0.648140,-0.679440,-0.343914
-0.392809,0.240457,0.605604,-0.583166,-0.220540,-0.781844
0.157318,0.110026,-0.642871,0.921730,0.081131,-0.379250
0.146927,0.179577,-0.973944,-0.696354,0.399445,0.596268
0.205814,0.037463,-0.969165,0.106350,0.732076,0.672871
0.319587,-0.563780,-0.956646,-0.571055,0.301305,0.763617
0.061001,0.641724,0.523419,0.825009,0.533885,0.185274
-0.177008,0.709147,0.538546,0.870453,0.380717,-0.312034
0.378628,-0.155321,-0.952223,0.854127,0.447634,-0.264745
-0.099032,0.475408,0.413084,0.954768,0.214558,0.205870
-0.208064,0.418211,0.090011,-0.267367,0.962664,0.042336
-0.015841,0.192791,-0.250375,0.770177,-0.567033,0.292062
-0.811452,0.502899,0.820943,0.233660,-0.940516,0.246643
-0.086593,-0.396750,-0.974242,0.395671,0.566921,-0.722527
0.807553,0.097294,-0.953469,0.806867,-0.377163,0.454658
-0.284707,0.627580,0.345908,0.995544,0.048949,0.080602
0.237244,0.069781,-0.965511,0.494271,-0.285904,-0.820948
0.881573,0.194527,-0.969316,-0.671419,-0.628178,-0.393177
0.620271,0.159504,-0.956803,0.468789,0.088855,0.878830
-0.053663,0.263824,-0.097889,-0.146733,0.394294,0.907194
0.156188,-0.013098,-0.585965,0.502231,0.863175,-0.051896
-0.197981,0.523813,0.229110,0.946200,0.318254,-0.058471
0.255038,-0.526542,-0.956494,-0.798903,0.601356,0.011210
0.313753,-0.109283,-0.505646,0.429891,0.682713,0.590844
0.342863,-0.344502,-0.965044,0.387930,0.198107,0.900147
-0.360453,0.471009,0.314941,0.834087,-0.425935,0.350540
-0.293982,0.216343,0.198216,0.948878,0.284475,-0.136764
-0.654830,0.509359,0.795456,0.989880,-0.127956,0.061361
0.194960,0.173587,-0.338816,0.246560,-0.283773,0.926651
0.049389,0.445446,0.873161,0.153533,-0.721680,0.674986
0.321108,-0.081462,-0.630915,0.057434,-0.662659,0.746716
-0.276842,0.564101,0.819299,-0.019665,-0.890158,0.455227
-0.399823,0.727884,0.659891,0.769994,0.478996,0.421512
0.503129,0.019260,-0.826835,-0.446305,0.894804,0.011734
-0.704661,0.468802,0.807264,-0.674427,-0.615540,0.407748
0.209792,0.056834,-0.427877,0.962838,0.171725,-0.208455
0.179278,0.113648,-0.360551,0.845403,0.514675,-0.142843
0.426678,-0.586436,-0.963073,0.240120,-0.803969,0.544037
-0.184810,0.617060,0.523663,0.863391,-0.079929,-0.498163
-0.358024,0.528755,0.299497,0.571052,0.368077,-0.733771
-0.048855,0.528407,0.537741,-0.552500,0.554246,0.622540
0.201144,0.220661,-0.971090,-0.714012,0.677162,-0.177870
0.217293,0.188854,-0.695533,0.907240,0.073890,-0.414073
0.670587,0.268965,-0.961149,0.967605,0.019588,-0.251709
-0.477799,0.401395,0.645583,0.193738,-0.962815,0.188290
0.351877,0.182621,-0.964576,-0.578211,-0.381954,-0.720960
0.220978,0.033695,-0.753189,0.036025,-0.159055,0.986612
0.358924,-0.688342,-0.941938,-0.643927,-0.762852,0.058433
0.531223,0.463581,-0.988810,0.751727,0.519691,-0.405989
-0.020921,0.515635,0.539325,0.079631,-0.261803,0.961831
0.446456,-0.092302,-0.567402,0.410308,0.828649,0.380774
0.366947,-0.458781,-0.958786,0.175264,0.960690,-0.215305
0.086592,-0.919796,-0.946205,0.714746,0.180066,-0.675806
0.316532,-0.840992,-0.932101,-0.540930,0.018168,-0.840871
0.080587,0.099812,0.075877,-0.353076,0.925722,0.135557
-0.028253,-0.167721,-0.967199,0.830648,0.472603,-0.294397
0.747233,0.273037,-0.968297,0.461154,-0.562816,-0.685985
0.312359,0.061506,-0.568067,0.778843,0.525012,-0.343170
0.123587,-0.061079,-0.955630,-0.699241,0.559071,-0.445535
-0.262029,0.435697,0.711903,0.620088,-0.775839,0.116466
0.305322,0.423207,-0.988347,0.802753,-0.441920,0.400368
-0.178838,0.185790,-0.099757,0.742448,0.528541,0.411602
-0.180193,0.407563,0.490666,0.101915,0.645380,-0.757033
0.269171,0.082419,-0.946695,0.424702,-0.812937,-0.398450
0.120463,-0.290027,-0.960978,0.114826,-0.851849,-0.511046
-0.269788,0.258432,0.014835,-0.343676,0.814274,0.467809
0.183508,0.038861,-0.638253,0.963679,-0.001024,-0.267060
0.322808,0.022456,-0.982011,-0.721975,0.294259,0.626229
-0.038980,0.248455,0.594628,-0.250416,-0.591102,0.766740
-0.346283,0.601958,0.473514,0.441290,-0.792677,0.420627
0.124250,0.067615,-0.613480,0.971904,-0.158880,0.173667
0.662485,0.214764,-0.964860,-0.046705,0.141904,0.988778
-0.322887,0.321629,0.590610,0.626000,0.776150,0.075594
0.681029,-0.303019,-0.958534,0.077452,0.830706,0.551298
-0.064534,0.342791,0.365062,0.662893,0.527947,-0.530890
0.282148,-0.379843,-0.949172,0.360435,-0.814090,-0.455350
-0.491696,0.119261,0.055098,0.712298,-0.612244,0.343203
0.528299,0.037888,-0.965834,0.388060,0.466493,0.794854
-0.210714,0.343605,0.181800,0.997266,-0.027942,0.068403
-0.715603,0.592175,0.838163,-0.293819,0.746315,0.597230
0.077967,0.144437,-0.006348,0.880420,-0.137006,-0.453972
-0.216488,0.559675,0.635984,0.272649,-0.961255,0.040632
0.464548,-0.339072,-0.959972,-0.114128,-0.818692,0.562778
0.397427,-0.203517,-0.963692,-0.069287,-0.705429,0.705386
0.613553,0.159616,-0.969650,-0.415030,0.363160,0.834185
-0.147883,0.624159,0.477925,-0.301481,0.952727,0.037703
-0.046577,-0.659316,-0.946406,-0.167652,-0.293516,0.941138
-0.173125,0.434858,0.390012,0.054521,0.892998,-0.446745
-0.304391,0.275854,0.063415,0.228339,0.800977,0.553442
-0.183657,0.293651,-0.048167,-0.690536,0.523655,0.498945
0.417434,0.456807,-0.984445,-0.720749,0.687217,0.090852
0.700712,-0.372502,-0.937980,0.411988,-0.417922,-0.809696
0.303979,-0.088534,-0.940810,-0.491504,0.820259,0.292573
-0.012846,0.279925,-0.266513,0.855436,-0.344710,-0.386528
0.242932,0.078978,-0.366914,-0.401551,-0.896398,-0.187688
0.127029,0.169543,-0.545650,-0.560163,0.826778,-0.051537
0.800856,0.342914,-0.967977,-0.681258,-0.237066,0.692594
-0.065757,-0.407620,-0.977741,0.719098,-0.183916,-0.670129
0.612851,-0.405708,-0.938490,0.141326,-0.185041,-0.972516
-0.274344,0.353176,0.784407,0.477803,0.017157,-0.878299
-0.537019,0.363614,0.496634,-0.521449,-0.815898,-0.249802
0.394649,-0.061390,-0.877942,0.973293,0.229562,-0.001569
0.334605,-0.689409,-0.939563,0.432821,0.757348,-0.488968
0.526949,0.501487,-0.981230,-0.261484,-0.306317,0.915312
0.824384,0.044169,-0.948104,0.984809,0.173380,-0.009541
0.938684,0.203571,-0.953617,0.029856,-0.761258,0.647761
0.701831,-0.071199,-0.939027,-0.208457,0.284446,0.935754
-0.258045,0.392062,0.852920,0.121056,0.973993,-0.191527
0.183227,0.175090,-0.436640,0.740024,-0.624151,-0.250600
0.062046,-0.086471,-0.977525,0.455941,-0.008988,0.889964
-0.375259,0.231767,0.176949,-0.032969,-0.997120,0.068306
0.315738,0.129776,-0.506888,0.011498,0.302166,0.953186
-0.295919,0.533883,0.863464,-0.618643,-0.557741,0.553359
0.661965,0.091856,-0.964773,-0.876785,0.089328,0.472513
-0.104138,0.584197,0.406713,0.696416,0.151030,-0.701566
0.310503,0.454714,-0.984109,-0.627269,0.452582,-0.633800
0.746834,0.128301,-0.971608,-0.088831,-0.963567,0.252285
-0.473009,0.386075,0.548289,0.819356,-0.527383,-0.224773
0.077343,0.431155,0.866197,0.260878,-0.894975,0.361886
0.220579,0.027270,-0.972778,0.232143,0.698998,0.676396
0.059495,0.367623,0.838390,0.442865,0.877242,-0.185251
0.033299,0.641473,0.564415,0.823919,0.200478,-0.530063
0.078847,0.121837,-0.321164,0.798132,-0.591249,0.115797
0.589233,0.092634,-0.979043,-0.356847,0.549622,0.755364
0.002984,0.023831,-0.217061,-0.750136,0.423138,-0.508183
-0.300072,0.350204,0.354100,0.319884,0.884289,-0.340158
0.018622,-0.368185,-0.967828,0.246762,0.419819,0.873419
0.251637,0.061115,-0.566334,0.728902,-0.681287,-0.067450
0.499757,0.417840,-0.971247,0.258423,-0.964202,-0.059439
0.066165,0.022372,-0.976576,-0.291198,0.394168,-0.871685
0.121612,-0.038764,-0.751012,0.620887,-0.047138,-0.782481
-0.028435,0.241012,-0.002262,0.211959,-0.021609,0.977040
0.136034,-0.396214,-0.969891,0.037995,-0.544013,0.838216
0.095616,0.160262,0.195806,0.965163,0.104942,0.239682
0.630146,0.086681,-0.974434,0.162017,0.982832,0.088266
0.454301,-0.075662,-0.944639,-0.315595,0.073614,-0.946034
-0.014692,-0.398402,-0.971580,-0.393059,0.567734,-0.723313
-0.402487,0.373541,0.377835,0.490155,0.403387,0.772675
0.329019,-0.420491,-0.955786,0.824962,0.565132,0.007971
0.460872,-0.324219,-0.964823,0.997534,0.007981,-0.069728
0.347821,-0.038371,-0.957952,0.003366,0.106059,0.994354
0.023820,0.042248,-0.279424,0.127801,0.953597,0.272616
-0.027099,0.239617,0.399011,0.661475,-0.221325,0.716566
0.194184,-0.070833,-0.600902,0.240517,0.963782,0.115222
0.328872,-0.367998,-0.957880,0.879474,0.446376,-0.165150
-0.430137,0.753683,0.659832,0.815080,0.415518,0.403720
-0.221487,0.297875,0.059056,-0.206102,0.181640,-0.961524
-0.262150,0.334364,0.341938,-0.215486,0.518500,0.827480
0.438189,-0.141582,-0.969881,0.551801,0.558986,-0.618911
0.440247,0.159168,-0.962476,0.647606,0.652891,0.392861
0.236428,-0.883104,-0.935407,0.156802,-0.378409,-0.912261
0.382101,0.289738,-0.969933,0.708368,-0.692767,0.135238
0.000848,0.113679,-0.225272,-0.004677,-0.807850,0.589369
-0.409619,0.315112,0.462414,-0.146582,-0.606138,0.781735
-0.107445,0.595792,0.734283,0.332367,-0.937778,0.100517
-0.076578,0.017027,-0.984424,-0.376845,0.222970,0.899040
0.167880,0.095619,-0.598333,0.241521,-0.960772,0.136328
-0.227286,0.419678,0.331545,-0.275995,0.759569,0.588967
0.017420,0.237459,0.110644,-0.609560,-0.792569,-0.016429
-0.017217,-0.920476,-0.947633,0.592526,0.610482,0.525570
0.146969,0.192306,-0.977479,-0.641716,0.566360,0.517144
-0.695388,0.404149,0.567810,0.785092,-0.611323,0.099576
0.077714,0.105632,-0.226375,-0.538315,0.656318,-0.528644
0.343796,0.039192,-0.687733,0.472133,0.758964,0.448401
0.479432,-0.400033,-0.944131,0.471610,0.678693,0.562992
-0.645624,0.350735,0.487094,-0.127235,0.879063,0.459412
0.203510,0.260382,0.616284,0.801388,-0.512414,-0.308559
0.847150,-0.333112,-0.951026,-0.130744,0.151815,0.979723
0.062389,0.259288,0.026687,0.727433,0.131920,0.673379
-0.114186,0.352036,0.858387,0.254315,0.953543,-0.161491
0.716981,-0.242442,-0.955951,0.461755,0.001826,0.887005
-0.346103,0.543293,0.899137,-0.285724,0.783547,0.551739
-0.456286,0.220905,0.067793,0.826424,-0.550503,0.118192
0.152622,-0.012129,-0.955737,0.926771,0.229843,0.297100
0.250331,0.106428,-0.971152,-0.282845,0.503989,0.816084
-0.243301,0.231276,-0.088743,-0.721591,0.485179,-0.493871
-0.200771,0.248797,-0.012401,-0.110627,-0.957848,-0.265120
0.448888,0.278550,-0.990937,0.359708,0.238677,0.902022
0.662847,0.302931,-0.963226,0.805890,0.507905,-0.304260
0.890713,0.214936,-0.974110,-0.397562,0.202001,0.895064
-0.434829,0.372522,0.406007,0.114673,0.792195,0.599397
-0.014282,0.114542,0.160383,0.835512,0.537726,0.113003
0.021319,0.287032,0.806637,0.091160,0.921143,0.378399
-0.266328,0.262639,0.056722,-0.700304,-0.429382,0.570268
-0.112114,0.444233,0.799165,-0.167464,0.939551,-0.298662
-0.229172,0.336193,0.287540,-0.490504,0.854972,-0.168608
0.195760,0.022859,-0.658381,0.945386,0.006365,0.325890
0.319169,0.007284,-0.544101,0.206454,-0.977432,-0.044756
0.515350,0.192815,-0.957629,0.954903,0.173480,0.240965
-0.593553,0.432730,0.762463,-0.044128,-0.457929,0.887893
0.263071,0.214971,-0.513803,-0.293876,-0.506262,0.810763
-0.316895,0.440616,0.346814,0.493224,0.184787,0.850049
-0.024324,0.145760,0.217452,0.705028,-0.658353,0.263640
0.154625,0.118353,-0.990914,-0.102886,-0.035130,0.994073
0.247828,-0.742843,-0.958516,0.279895,-0.143153,0.949298
-0.191012,0.372807,0.304818,0.362271,0.225774,-0.904315
-0.325340,0.450094,0.441793,-0.658341,0.157617,0.736032
0.014326,0.089504,-0.360515,-0.079770,-0.996754,-0.010907
-0.797666,0.538218,0.878915,-0.542759,0.779846,0.311854
0.252945,-0.017084,-0.952414,0.638596,0.413843,-0.648790
0.189838,0.359397,0.812720,-0.018567,0.999443,-0.027732
0.061182,-0.930193,-0.960190,0.058854,-0.180046,0.981896
-0.178189,0.493031,0.471150,-0.596627,0.556547,-0.578180
-0.503273,0.434252,0.551214,0.946162,0.096879,0.308855
0.239799,0.147385,-0.464247,0.468236,0.581986,0.664866
-0.224046,0.681277,0.541412,0.908671,0.344131,0.236410
-0.046976,0.388455,0.353310,0.849662,-0.004780,-0.527306
-0.094354,-0.036693,-0.222909,0.899389,0.408180,-0.156491
-0.132444,0.185571,-0.087830,-0.622953,-0.733856,0.270898
0.223460,-0.106495,-0.940318,-0.041593,-0.847728,0.528799
-0.121550,0.235589,0.037883,0.684664,0.728480,0.023512
0.256921,0.135993,-0.971828,0.517729,-0.292337,-0.804049
-0.292756,0.477945,0.798593,-0.657184,-0.753144,-0.029716
0.364002,-0.104017,-0.929935,-0.220768,0.836248,0.501948
0.396496,-0.063579,-0.903398,0.873984,-0.439224,0.207928
-0.423635,0.260137,-0.001521,0.127830,0.230468,0.964647
0.247322,-0.128799,-0.959152,0.135194,-0.459383,0.877889
