-0.665566,0.515323,0.764154,0.067584,0.186661,0.980097
-0.167217,0.853924,0.530038,0.223669,-0.452173,0.863430
-0.487798,0.570512,0.786336,0.644682,-0.694271,0.319958
0.516736,-0.348709,0.848343,0.358786,0.214006,-0.908556
0.872023,-0.386958,0.774214,-0.025114,0.980807,0.193358
0.765739,-0.088339,0.799380,0.146172,-0.374862,0.915485
0.161795,0.044215,0.567065,0.972542,0.183767,0.142798
-0.509883,0.865170,0.477198,-0.361528,0.459892,0.811047
0.237073,-0.080915,0.356861,0.943947,0.329620,-0.017751
-0.007148,-0.014662,0.610392,0.126396,-0.675719,0.726242
0.242594,-0.053823,0.036062,0.986298,-0.161938,0.031502
-0.173724,0.754156,0.530989,-0.103355,-0.351742,-0.930374
0.533696,-0.106871,0.642837,-0.326683,0.945114,0.006201
-0.013162,0.294659,0.903229,-0.159305,-0.956743,-0.243445
0.313680,-0.080279,-0.489680,0.781094,-0.624381,-0.006343
0.366035,-0.001456,0.941712,-0.035856,-0.981425,0.188464
0.186394,0.235600,0.849467,-0.129160,-0.988880,-0.073719
-0.178801,-0.049269,0.803185,-0.420677,-0.759405,-0.496321
0.150850,0.611994,0.669328,0.893508,0.127590,0.430540
0.718512,-0.106416,0.763477,-0.055700,0.336539,0.940021
0.489870,-0.102135,0.882430,0.262785,-0.618825,-0.740270
0.493666,0.380721,0.825728,0.332409,-0.357069,-0.872930
-0.195021,0.562225,0.746180,-0.335837,0.775421,-0.534730
0.466404,-0.157506,0.551730,0.871682,-0.489434,-0.025001
0.220360,0.055873,0.755016,0.795742,-0.032634,-0.604756
0.466453,0.276945,0.584491,0.962075,-0.183502,-0.201837
-0.440967,0.433497,0.623134,0.443754,-0.882207,0.157457
0.418141,-0.213925,0.870193,0.475918,0.683584,-0.553367
0.293962,-0.149036,0.411430,0.827632,0.555650,-0.079241
0.222579,0.529621,0.669487,-0.465487,-0.483723,0.741171
0.290807,-0.070215,-0.096743,-0.725281,0.642960,-0.246109
0.272862,-0.097035,-0.556774,0.951895,-0.292511,0.091287
-0.044565,0.781613,0.535976,0.906462,-0.182601,0.380767
0.172591,-0.130048,0.742793,0.672309,0.560582,-0.483475
-0.284890,0.280543,0.447449,-0.514356,-0.492040,0.702378
0.495686,-0.208551,0.716100,-0.085008,0.511973,0.854785
0.445256,0.164519,0.797420,0.678105,-0.245282,0.692827
-0.095834,0.182461,0.871980,0.952140,0.304598,-0.025482
0.301455,0.763854,0.672153,0.096315,0.607209,-0.788683
-0.060438,0.258823,0.904367,-0.718578,0.649529,-0.248513
0.712349,0.202678,0.838066,0.955493,0.168033,-0.242483
-0.261079,0.533127,0.742159,0.444822,-0.775157,0.448626
0.229382,-0.083739,-0.989522,-0.289123,0.327215,0.899632
0.089869,0.099904,0.657812,-0.211928,0.969779,-0.120896
0.324526,-0.129638,-0.787734,-0.414364,0.909992,-0.014741
0.272862,0.309869,0.800533,0.418065,0.313219,-0.852710
-0.310426,0.555667,0.618046,0.891219,-0.303690,-0.336899
-0.199063,0.746460,0.658172,0.484607,0.459830,-0.744118
-0.252156,0.236966,0.434808,0.273621,0.342838,0.898662
-0.309785,0.295115,0.453978,-0.451392,-0.354299,0.818973
0.555387,-0.298165,0.730542,0.768198,0.103413,-0.631804
0.825930,0.183963,0.759772,0.406326,-0.178583,0.896106
0.106779,0.221712,0.944408,0.690681,0.440759,0.573317
-0.311067,-0.009198,0.910089,-0.082558,-0.993469,0.078764
-0.006260,0.151678,0.631551,0.752307,0.348565,0.559049
0.221839,-0.037202,0.690473,-0.722045,-0.234863,0.650761
0.402564,-0.071353,0.861387,0.158374,0.964359,0.211967
0.259996,-0.077319,-0.651542,0.921308,0.388049,0.024680
0.343112,-0.186239,0.564601,0.111757,0.820931,0.559985
-0.079812,0.439871,0.915768,-0.382551,-0.690838,-0.613513
-0.327384,0.101226,0.549337,-0.858106,0.507408,-0.078679
0.111660,0.347252,0.882819,0.191631,0.923595,-0.332039
-0.136653,0.147535,0.475843,0.508114,0.845683,-0.163218
-0.099728,0.209508,0.897319,0.991114,0.089418,-0.098473
0.235889,0.633350,0.708662,0.730136,0.562308,0.388215
0.534977,0.457266,0.671995,0.010149,-0.881799,0.471515
0.526793,-0.042985,0.837907,-0.173335,-0.979058,-0.106771
-0.113384,0.245664,0.409138,-0.579296,0.382800,-0.719639
-0.801331,0.659351,0.764903,-0.316419,0.702923,-0.637007
0.290757,-0.193571,0.806010,0.719258,0.359518,-0.594487
-0.323045,0.818725,0.651485,-0.441705,-0.207265,-0.872890
0.686172,-0.206729,0.854396,0.832403,0.114562,-0.542200
0.161105,0.094987,0.767080,-0.296685,0.683826,-0.666603
0.037467,-0.133282,0.879951,0.772860,-0.457764,0.439476
0.199704,-0.055781,-1.000000,-0.069135,0.229525,0.970844
0.109984,0.120122,0.672845,-0.124129,0.986855,-0.103484
0.135174,0.371250,0.889031,-0.482344,-0.738090,0.471770
0.461129,-0.276080,0.859426,0.506388,0.848425,-0.154095
0.286962,-0.115112,-0.971678,0.127138,0.929897,0.345147
0.188070,0.233460,0.627976,-0.006210,-0.215288,0.976531
-0.342173,0.821593,0.683064,0.796021,-0.589054,-0.139158
-0.077939,0.754064,0.526304,0.820346,-0.547564,0.164943
0.910871,-0.028095,0.788181,0.141971,-0.947740,0.285714
0.196302,0.038523,0.465552,0.776847,-0.627166,-0.056320
0.589056,-0.524748,0.450375,-0.316856,-0.087102,0.944466
-0.007691,0.070489,0.447506,-0.581547,0.450359,-0.677481
-0.102932,-0.152406,0.931796,0.555432,0.818502,-0.146794
-0.122947,0.524977,0.522341,-0.339274,0.317191,0.885597
0.242791,-0.022084,0.125757,-0.635874,0.770923,-0.036643
0.301750,-0.094303,-0.267397,-0.686461,0.727128,0.007456
-0.234064,0.365420,0.480556,0.386420,-0.755658,0.528829
-0.374512,0.720778,0.468492,0.378081,0.269186,-0.885773
0.227656,0.436273,0.692736,-0.473454,0.505031,0.721655
0.656396,-0.057283,-0.986697,-0.045145,-0.010673,0.998923
0.220065,0.441511,0.825036,0.633415,0.335607,-0.697247
-0.440276,0.546561,0.749351,0.679427,-0.722780,0.126366
0.423959,-0.321933,0.676578,0.796015,0.590554,-0.132689
-0.351539,-0.176767,0.801067,0.732772,0.548625,0.402562
0.182401,0.125314,0.781911,0.304554,-0.850459,0.428912
0.375203,-0.211329,0.654540,-0.649141,0.543138,0.532557
0.272812,-0.060789,-0.099986,-0.277138,0.786940,-0.551289
-0.881784,0.432039,0.598054,-0.399275,0.223564,-0.889156
-0.118461,0.248168,0.867988,0.991819,-0.121954,-0.037711
-0.003253,0.404263,0.918636,0.025840,0.994781,0.098710
-0.474833,0.559629,0.822254,-0.678658,0.486649,-0.550087
0.264433,0.247030,0.787590,-0.652617,0.446521,-0.612136
0.321174,0.347116,0.829519,0.405234,0.591541,-0.697040
0.247966,-0.020080,-0.092433,0.481802,0.632191,-0.606796
-0.139414,0.248578,0.439521,0.797499,0.554021,-0.238863
-0.775401,0.398661,0.693154,0.391584,-0.720742,0.572008
-0.129553,-0.091252,0.814197,0.136890,0.848761,0.510750
-0.198520,-0.038204,0.911358,0.169535,0.817080,0.551034
0.055953,0.035153,0.411588,0.230992,-0.926823,0.296045
-0.309439,0.018442,0.892188,0.393003,-0.422727,-0.816610
-0.064185,-0.243750,0.979720,0.870726,0.117452,-0.477537
0.177866,0.587770,0.665365,0.975651,0.218564,0.018306
0.256495,-0.094485,-0.335486,-0.456457,0.886849,-0.071733
-0.113531,0.512409,0.548126,0.721540,0.667177,-0.185079
0.077397,0.076819,0.949986,0.285756,-0.916652,0.279449
-0.063198,0.094942,0.933223,0.681190,0.720477,-0.129975
-0.025831,0.059469,0.443355,-0.581547,0.450359,-0.677481
-0.310426,0.265699,0.441986,0.012213,-0.310807,0.950395
0.177324,0.506262,0.653618,-0.260892,-0.424274,0.867137
-0.024352,0.005966,0.411977,-0.544041,0.671924,-0.502531
-0.060587,0.085606,0.457581,-0.716768,0.170818,-0.676066
0.067489,0.157325,0.799654,0.325441,-0.926481,0.188999
0.532068,-0.123082,0.807380,-0.374451,-0.923305,-0.085404
0.679025,0.018533,0.669977,-0.155254,-0.970849,0.182618
0.614740,0.273166,0.895027,-0.647257,-0.344244,0.680114
0.005177,-0.196257,0.918939,0.874905,0.167085,0.454558
0.484644,0.083648,0.774993,-0.679984,0.727055,-0.094939
0.001628,-0.140476,0.973696,0.725050,-0.269968,0.633577
0.750604,-0.194389,0.858951,0.942931,-0.059646,0.327601
0.622480,0.375438,0.780830,0.940355,-0.327455,0.092228
0.710033,0.210874,0.845950,0.953623,0.196112,-0.228348
0.013509,0.139293,0.737186,0.617677,-0.678713,0.397270
-0.369829,-0.124994,0.792246,0.761462,0.407870,0.503803
0.576979,0.702245,0.774287,-0.330096,0.941788,-0.063810
-0.375104,0.015664,0.785183,0.874006,-0.285947,0.392872
-0.028050,0.371250,0.856328,0.532746,0.738482,-0.413310
0.132069,-0.170393,0.720525,-0.533224,0.695668,0.481371
-0.530392,0.454579,0.656875,-0.396326,0.207425,-0.894372
0.268278,-0.101635,-0.273004,0.540840,-0.834330,-0.106704
0.128076,-0.093211,0.978106,0.197123,0.971519,-0.131508
0.036135,0.125542,0.344379,-0.031535,-0.865874,0.499267
0.220557,0.000320,-0.373753,0.964656,0.093691,0.246294
0.245108,-0.094121,-0.129317,0.646282,-0.762163,0.037766
0.179444,-0.076773,-0.998386,-0.057197,0.179485,0.982096
0.580084,-0.289468,0.503704,0.417905,0.900005,-0.123880
-0.488489,0.678157,0.538484,0.161616,-0.294906,0.941759
0.331182,0.349894,0.740660,0.968701,0.196732,-0.151376
-0.390288,0.588726,0.447636,0.213543,-0.336639,0.917101
0.580233,-0.393242,0.880744,-0.554423,0.447234,-0.701852
0.095243,0.198944,0.787893,0.774124,0.618173,-0.136361
0.567956,-0.168252,0.730138,0.971288,-0.184000,-0.150808
-0.044909,0.186057,0.376463,0.873384,0.070570,0.481893
0.238846,-0.041300,0.138167,0.802777,-0.555169,0.217570
0.144196,0.042895,0.512756,0.892676,0.316587,0.320784
0.368943,0.549975,0.685875,-0.129745,-0.010495,0.991492
-0.650431,0.563453,0.764586,-0.186176,0.280811,0.941533
0.329800,-0.138018,-0.719847,0.971160,-0.186727,0.148260
0.785112,0.015255,0.699582,-0.442803,0.894291,-0.064560
0.057530,0.246710,0.824387,-0.688892,-0.603400,0.401667
0.494997,-0.125130,0.644278,0.850091,-0.521817,-0.071080
0.790436,-0.961887,0.554857,0.132415,-0.549152,-0.825166
-0.344688,0.973590,0.429533,-0.230083,-0.100576,0.967960
-0.238846,0.356586,0.702753,0.299265,-0.376813,0.876614
0.193542,-0.299941,0.906875,0.486821,0.873195,0.023148
0.820459,-0.350530,0.749438,0.842966,-0.522633,-0.127525
0.322554,-0.120394,-0.874517,0.974378,0.207505,-0.086770
0.626079,0.355220,0.843557,-0.217944,0.585301,0.780975
0.021100,-0.086790,0.974705,-0.642025,-0.013378,-0.766567
0.013212,-0.005920,0.989377,0.529673,-0.235956,-0.814722
0.435298,-0.198807,0.564255,-0.653028,0.754201,-0.068811
-0.364457,0.379128,0.527025,0.291929,-0.956431,-0.004217
0.216909,0.080279,0.249611,0.999700,-0.023986,0.004912
-0.040867,0.001504,0.475656,-0.631923,-0.608255,-0.480312
-0.099383,0.254224,0.945460,-0.230621,0.491623,0.839715
0.025093,-0.219753,0.958043,0.246182,0.797447,-0.550884
0.887898,-0.034470,0.770020,0.758742,-0.532659,-0.374947
0.423762,0.044261,0.751658,-0.569311,0.642430,0.513000
0.436480,-0.024362,-0.992260,0.031083,0.275791,0.960715
-0.530736,0.785893,0.704411,-0.749062,0.661978,-0.026278
-0.136653,0.121944,0.916229,-0.660608,0.514949,-0.546282
-0.718609,0.395201,0.753661,0.463463,0.880026,-0.103717
0.056298,0.040573,0.938368,-0.213699,0.754519,-0.620511
-0.434755,0.530941,0.734405,-0.568558,0.747104,-0.344350
-0.051861,0.184691,0.377558,0.881403,0.073665,0.466585
-0.257677,-0.115704,0.816446,0.259824,0.331747,0.906882
0.897363,0.187333,0.751485,0.471929,0.546997,-0.691431
0.437812,-0.022222,0.820280,-0.013024,-0.737395,0.675336
0.736998,-0.453031,0.509902,0.684548,0.702508,-0.194619
-0.118166,0.318337,0.909614,-0.561048,-0.357401,-0.746652
0.441707,-0.022404,0.813030,0.435729,0.646773,-0.625959
0.038502,0.652339,0.559297,0.318811,0.143516,0.936890
-0.584076,0.509221,0.781781,-0.614816,0.709567,0.344261
0.871334,-0.353399,0.725858,-0.296447,0.939160,0.173489
0.532808,0.391057,0.593975,0.941179,-0.045935,-0.334771
-0.006359,-0.059241,0.494667,0.332802,0.822019,0.462090
0.015676,-0.180593,0.930773,0.920028,-0.191561,0.341837
0.706187,-0.016848,0.658735,0.229215,0.826809,-0.513661
-0.737589,0.562453,0.728870,0.725673,0.279636,0.628652
-0.390535,0.458222,0.790977,0.832437,0.210534,-0.512566
-0.230959,0.413733,0.720280,0.387114,-0.443483,0.808372
0.605472,-0.085651,0.738340,0.882568,-0.453158,-0.125384
-0.017944,0.062157,0.438498,-0.663351,0.425159,-0.615797
-0.398570,0.180913,0.817224,0.558534,-0.704751,0.437454
0.400986,-0.009880,0.940934,-0.187402,-0.909402,0.371306
0.534829,-0.199171,0.775613,0.930168,-0.336063,-0.147817
-0.456938,0.476754,0.635183,0.992365,0.010647,0.122877
-0.553166,0.623014,0.556572,0.541446,0.360371,0.759585
0.301060,-0.155048,0.732963,0.318031,0.841115,0.437472
0.169386,0.168617,0.621750,0.293364,-0.215941,0.931293
0.250432,0.034151,0.347074,0.781007,-0.624343,-0.014994
-0.629431,0.600884,0.691813,-0.624880,-0.701728,-0.342203
-0.298792,0.157825,0.581003,0.357539,0.453595,-0.816344
-0.594084,0.605300,0.663693,0.203669,-0.014927,0.978926
-0.049051,0.156369,0.379461,0.892820,0.104176,0.438201
0.267243,0.860708,0.679230,-0.800199,-0.309365,0.513785
-0.239191,0.054779,0.845863,0.342924,0.915218,0.211613
0.810304,0.037931,0.728207,-0.448477,-0.709359,0.543763
0.237614,0.000774,0.267642,0.965887,-0.219032,-0.138155
0.297067,-0.012978,0.727140,0.856572,-0.386881,-0.341478
0.627114,-0.353308,0.570092,0.065009,0.946553,0.315929
-0.315159,-0.166340,0.793154,-0.515760,-0.513011,-0.686157
0.242938,0.593234,0.718449,0.805668,-0.591731,-0.027458
0.060193,0.116024,0.682675,0.382267,-0.815067,0.435360
0.032881,0.460726,0.843932,0.196354,-0.209024,0.957995
-0.105448,0.305133,0.870626,0.982325,-0.122799,0.141269
0.000296,-0.152134,0.901456,0.333208,0.905980,0.261101
0.492925,-0.277947,-0.982387,0.019551,0.094769,0.995307
0.706532,-0.368790,0.773061,0.229490,0.598812,0.767306
0.458072,0.081144,0.788844,-0.395591,0.750355,-0.529600
0.169978,0.023405,0.600404,0.895259,0.334896,-0.293865
0.585310,0.226538,0.790357,0.909767,-0.128854,-0.394614
-0.088291,0.093393,0.468146,-0.370281,0.804546,-0.464324
0.292039,-0.144256,0.713087,0.986797,0.026950,-0.159705
-0.670988,0.413279,0.761978,-0.365440,-0.926494,0.089787
-0.131132,0.159419,0.964831,-0.536915,-0.533170,0.653799
0.037220,0.594918,0.699063,0.200734,-0.873742,0.443035
0.161499,0.005874,0.757971,-0.670709,0.556499,0.490366
-0.193098,0.323756,0.450822,-0.800995,-0.553723,-0.227591
0.206557,-0.068621,0.089565,0.399284,0.912796,0.085884
0.303575,-0.176312,0.635976,-0.521237,-0.326131,-0.788639
-0.447029,0.442877,0.609441,-0.198858,-0.975678,-0.092236
-0.554153,0.250581,0.656400,-0.224972,0.966133,-0.126390
-0.542764,0.750604,0.463664,0.771743,0.559377,-0.302506
-0.576535,0.627658,0.806616,-0.208268,0.857103,0.471168
-0.122060,0.688813,0.546483,-0.296563,0.851166,0.433090
-0.131229,0.319658,0.922225,0.189880,0.671810,0.715973
0.125266,-0.024998,0.902825,-0.360665,-0.851880,0.379764
0.182648,0.036155,0.819141,-0.757358,0.558832,-0.337811
0.046537,-0.114156,0.868910,0.939974,-0.331497,-0.080980
-0.475967,0.795911,0.494696,0.588468,-0.762792,-0.268056
-0.028494,0.082510,0.961372,-0.283893,-0.590681,0.755315
-0.328272,0.523246,0.445935,-0.632104,-0.267771,-0.727147
0.585507,0.348710,0.811055,0.740366,0.361593,-0.566665
0.756175,0.107372,0.761689,0.344240,-0.232021,0.909761
0.483905,0.099450,0.776852,0.083305,-0.906698,0.413471
0.201282,0.145895,0.712770,0.854771,0.026715,-0.518318
0.650087,0.679387,0.634030,-0.800100,-0.206431,0.563229
0.294059,-0.029552,-0.203964,0.905048,-0.410312,-0.111944
0.234804,0.743272,0.668723,0.054538,-0.770829,0.634704
0.763914,-0.322435,0.775065,-0.240988,-0.296787,-0.924036
0.691841,0.224534,0.854122,0.847186,-0.348848,0.400726
-0.226916,0.099494,0.865754,0.939316,-0.338557,-0.055362
0.598669,0.570739,0.601470,-0.424171,-0.011496,0.905509
-0.291397,0.145076,0.591655,-0.353245,-0.529379,0.771346
-0.528517,0.727882,0.540271,0.650696,0.655321,-0.383599
-0.069904,-0.212376,0.961372,0.839167,-0.458292,0.292860
-0.093912,0.407859,0.883727,-0.574261,-0.010648,0.818603
0.097560,-0.282000,0.626348,0.180767,-0.267480,-0.946456
0.220360,0.064843,0.763116,0.718859,-0.023532,-0.694758
-0.768598,0.546059,0.750922,0.897896,-0.228274,-0.376395
0.470792,-0.351031,0.436985,0.795814,0.544245,-0.265477
-0.430663,0.117800,0.822139,0.868282,-0.483061,0.112867
0.013359,0.007832,0.728034,-0.073163,-0.509159,0.857557
0.559724,-0.233231,0.711329,-0.257914,0.232164,0.937859
-0.300616,-0.120304,0.792289,-0.500418,0.856635,0.125531
-0.358195,0.952097,0.443889,-0.230083,-0.100576,0.967960
-0.040472,-0.181913,0.975930,-0.593578,0.649581,-0.475089
0.237270,-0.048221,0.123595,-0.613505,0.789313,-0.024416
0.189451,0.116526,0.780715,0.270283,-0.856235,0.440237
0.622036,-0.226447,0.817584,0.337865,-0.940587,-0.033823
0.251861,-0.075771,-0.069227,-0.526079,0.847321,0.072717
0.266503,-0.004416,0.931998,0.378867,-0.925175,-0.022597
0.143209,0.204545,0.884895,-0.280202,-0.567937,-0.773909
0.445797,-0.129912,0.555347,0.437541,-0.744747,-0.503895
0.500765,-0.329949,-0.976895,0.077395,-0.011537,-0.996934
0.363569,0.581213,0.678769,0.248200,-0.341745,-0.906426
0.442692,0.225764,0.549654,-0.789036,-0.346071,0.507599
0.393148,0.157825,0.530542,-0.186768,-0.802291,0.566963
0.210649,0.097810,0.919775,0.730961,-0.408337,0.546769
0.491299,-0.042757,-0.976766,-0.209961,0.361697,0.908345
-0.094404,0.376440,0.905578,0.871183,-0.112092,0.477991
0.856494,-0.337735,0.763577,-0.180413,-0.983573,0.005883
0.455411,0.154001,0.800043,0.452691,-0.417282,0.788002
0.260094,0.291425,0.883670,0.999384,0.010467,-0.033495
-0.043283,0.075953,0.820107,0.087140,-0.195856,0.976753
-0.613655,0.632030,0.755448,0.028337,0.924644,-0.379778
0.184571,0.038205,0.100879,0.834752,0.450564,-0.316515
0.114271,0.254178,0.928322,0.751440,0.578738,-0.316861
0.534237,0.200629,0.744998,-0.450797,0.711478,0.539056
0.263051,-0.119576,-0.819977,0.803128,-0.574355,-0.158433
0.302490,0.243114,0.851398,0.606750,0.700292,-0.376093
-0.538525,0.746870,0.691784,0.843442,-0.252416,0.474227
-0.125364,0.078867,0.464139,0.806433,0.358305,-0.470408
0.161548,0.102818,0.108907,0.673585,0.575190,-0.464154
0.079665,0.081008,0.651225,0.836914,-0.364342,0.408447
0.144047,0.031055,0.667296,-0.281950,-0.957857,-0.054898
0.080355,0.433633,0.914471,0.107732,0.991583,-0.071811
0.434558,-0.240152,-0.979360,0.400930,0.096519,-0.911010
0.177571,-0.009016,0.658014,0.973374,-0.133090,-0.186628
0.486863,0.407131,0.661732,0.024235,0.851646,-0.523556
-0.644960,0.296799,0.664024,0.069230,0.993764,0.087407
0.159232,0.012932,0.428711,-0.265897,0.939188,-0.217312
-0.735223,0.372888,0.669242,-0.511316,0.569420,-0.643674
0.225191,-0.050681,0.231032,-0.279968,0.959312,0.036584
-0.654374,0.429945,0.725108,-0.103698,-0.964032,-0.244724
-0.352526,-0.009106,0.905160,-0.071559,0.977972,0.196085
0.408627,0.350668,0.575987,-0.198084,-0.283632,0.938251
0.605472,-0.194025,-0.957726,0.276652,0.527286,-0.803389
-0.324870,0.433041,0.452364,-0.600799,-0.060616,-0.797099
-0.806753,0.445427,0.734434,0.948672,0.265762,-0.171444
0.177077,-0.009016,0.219083,0.882911,-0.433962,-0.179292
-0.557011,0.796093,0.529922,-0.244728,0.101254,0.964290
0.615578,-0.437867,0.829749,-0.400528,0.678162,-0.616176
0.110427,0.106052,0.768175,-0.468860,-0.687927,-0.554009
0.035347,0.043213,0.406486,0.230992,-0.926823,0.296045
0.089969,0.201722,0.896397,0.836572,0.499794,0.224395
0.109046,0.039297,0.370525,-0.635746,-0.721020,-0.275605
0.300222,-0.083648,-0.471995,0.777954,-0.590853,0.213730
0.179247,0.014526,0.762799,0.848143,-0.511275,-0.138752
0.260735,-0.097445,-0.331666,0.594059,-0.792615,0.137314
0.120730,0.525705,0.661142,0.689471,-0.257733,0.676908
0.639932,0.325077,0.854540,0.025153,0.557569,0.829749
-0.448262,0.323483,0.630917,-0.773209,-0.612228,0.165300
0.336703,-0.177678,0.743139,0.095566,0.896445,0.432727
-0.396598,0.268203,0.755780,-0.045550,-0.850198,0.524488
0.351541,0.675699,0.717325,0.922575,0.154473,-0.353544
-0.550357,0.790493,0.474935,0.876206,-0.112134,0.468711
-0.180133,-0.004690,0.922514,0.318331,-0.636381,0.702627
0.255608,0.288421,0.867556,0.084983,-0.753460,0.651979
0.273453,0.759210,0.674560,0.163577,-0.531280,0.831255
0.457777,-0.209645,-0.968175,-0.208309,0.507780,0.835923
-0.711462,0.366604,0.703387,-0.089175,0.857936,0.505958
0.404190,0.153090,0.889233,0.928095,0.224896,-0.296752
0.135568,0.130050,0.922225,-0.710574,0.695205,0.108508
0.717624,-0.077547,0.824387,-0.119933,0.950696,-0.285997
-0.106877,0.544557,0.740948,0.925230,0.043369,-0.376919
-0.321616,0.240154,0.718146,0.252572,-0.876365,0.410111
0.552083,-0.674969,0.547651,0.395888,-0.042013,-0.917337
0.648509,-0.157142,0.801903,-0.379288,0.157672,0.911746
-0.558787,0.652157,0.687994,-0.293155,0.788866,-0.540139
-0.600837,0.596831,0.455549,0.027370,-0.955033,0.295235
-0.222283,0.723646,0.660911,0.530912,-0.801839,0.274203
0.357851,-0.229452,0.861862,-0.004927,-0.700297,0.713834
-0.111511,0.066665,0.795344,0.185900,-0.863217,-0.469359
0.504215,-0.150994,0.865033,0.829162,0.558930,0.009290
0.098497,0.323437,0.849294,0.470385,0.204150,-0.858522
0.251220,-0.129592,0.917743,0.298796,0.658977,0.690268
-0.290164,0.002232,0.822975,-0.299053,0.515813,0.802810
0.481785,0.042849,0.910233,-0.275414,0.952984,-0.126366
-0.338920,0.377944,0.520467,-0.050349,-0.997826,0.042523
0.455263,-0.257138,-0.978423,-0.100445,-0.371515,0.922977
-0.304658,0.271299,0.718031,0.810957,-0.296344,0.504508
-0.041213,0.069669,0.458187,0.645858,0.397431,0.651856
0.194380,0.024635,0.658360,0.863538,0.473611,-0.173190
-0.231550,0.460362,0.729706,0.140654,-0.538594,0.830743
-0.632142,0.649105,0.479922,0.604677,-0.599072,0.524861
0.483313,0.155822,0.789305,0.431675,-0.182523,0.883370
0.361598,-0.157780,0.876967,0.338266,-0.191148,0.921433
0.332907,0.370294,0.738830,0.986325,0.135350,-0.094035
0.492434,0.101635,0.774517,0.218489,-0.934601,0.280685
-0.225732,0.773553,0.687259,-0.785775,0.618453,0.008570
0.469805,-0.174035,0.889594,-0.676024,-0.567437,0.470114
-0.557752,0.275397,0.672730,-0.180415,0.980195,-0.081654
-0.596992,0.571513,0.700432,-0.533029,-0.843097,-0.071185
-0.538477,0.449935,0.661026,-0.441838,0.307679,-0.842682
-0.118757,-0.077911,0.914053,0.643477,0.421215,0.639152
0.611438,-0.249942,-0.980614,-0.707491,0.434251,-0.557568
0.607346,0.542189,0.662972,0.895494,-0.377780,0.235313
0.164900,0.026411,0.574935,0.913752,0.346753,0.211708
0.026572,0.115888,0.964471,-0.095075,-0.758925,0.644200
-0.408281,0.629389,0.453978,0.422866,0.064551,0.903890
-0.332808,0.414873,0.730311,-0.452930,0.443808,-0.773233
-0.926546,0.360868,0.592332,0.527870,-0.048809,0.847921
0.184965,-0.233049,0.900533,0.617875,0.745036,0.251302
-0.387577,0.528528,0.469746,-0.490728,-0.471362,-0.732805
0.571507,-0.242702,-0.964716,-0.104174,-0.327670,0.939032
0.202908,-0.075133,0.710032,0.812811,0.007475,0.582479
-0.612867,0.420427,0.786279,-0.416195,0.254575,-0.872911
0.273947,-0.079231,-0.159614,-0.607263,0.787731,0.103495
-0.641359,0.582942,0.735644,-0.584452,0.735027,-0.343731
0.373923,0.088521,0.481277,0.930347,0.101627,-0.352317
0.934829,0.008652,0.790602,-0.667727,0.658215,-0.347697
-0.381118,0.562271,0.732228,0.825527,-0.564249,0.011340
-0.351342,0.384592,0.474618,0.461139,0.885889,-0.050519
0.285630,0.165247,0.894926,0.903265,0.400028,-0.155211
-0.161302,0.396339,0.903747,0.120650,0.982008,-0.145275
-0.157210,0.077501,0.440213,0.872836,0.427822,-0.234790
0.164653,0.055417,0.193644,0.806507,0.195778,0.557869
0.161845,0.037931,0.628005,0.811639,0.578087,0.084008
0.270792,-0.283047,-0.977284,0.019091,-0.271910,0.962133
-0.319596,0.326488,0.444782,0.557509,0.063247,-0.827758
-0.248016,0.123492,0.472788,0.551624,0.788858,0.270949
-0.481735,0.532991,0.693370,0.611737,0.752989,-0.242457
-0.258959,0.810893,0.518391,-0.056655,0.241853,0.968657
-0.498693,0.790765,0.558475,-0.110137,0.476904,0.872028
0.289278,-0.123582,-0.587763,0.746947,-0.657360,0.099745
0.161548,0.334184,0.899856,0.962604,-0.202485,-0.179979
-0.099531,0.316471,0.891136,0.877384,-0.475134,-0.066671
0.189499,0.125632,0.765365,0.207280,-0.605506,0.768373
0.494898,-0.280724,-0.974359,0.585205,-0.308017,-0.750107
-0.041754,0.132508,0.819285,0.967404,-0.200227,0.155046
0.141583,0.018397,0.368175,-0.560179,-0.807397,-0.185227
0.401036,0.170849,0.523350,-0.182275,-0.856826,0.482311
-0.474142,0.612632,0.443845,0.450126,0.588314,-0.671769
0.731921,-0.495696,0.575339,0.185272,0.871085,0.454846
-0.101356,0.470880,0.755981,-0.369746,0.846764,0.382463
0.119301,0.396430,0.915350,-0.151167,-0.854911,0.496262
0.438403,0.002322,0.872946,0.788454,-0.451267,0.417969
0.514568,0.375394,0.594379,0.933049,-0.353015,-0.069275
0.749076,-0.150494,0.840602,0.948162,0.173460,0.266271
0.239784,-0.088201,0.913188,0.420738,-0.037444,0.906409
-0.757209,0.501572,0.783554,0.045275,0.701746,0.710987
0.525018,-0.324711,-0.972744,-0.000442,-0.851822,0.523831
0.560562,-0.156050,0.766647,0.869436,-0.487082,0.082657
0.654129,-0.187331,0.802465,-0.399707,0.154875,0.903465
0.126991,-0.081963,0.844263,-0.452926,0.869191,-0.198404
-0.051565,0.112426,0.492346,-0.109350,0.960220,-0.256943
-0.655903,0.392196,0.761905,-0.515552,0.831727,0.206002
0.352182,0.301353,0.809297,0.137125,0.686710,-0.713881
0.489820,-0.149082,-0.978409,0.247032,0.291681,0.924066
0.405769,-0.463503,0.518838,-0.366287,0.102954,-0.924789
-0.426917,0.419881,0.820798,0.057360,-0.832715,0.550723
0.420754,-0.142616,0.506601,-0.352372,0.727385,-0.588851
0.673306,-0.530440,0.456731,-0.358334,-0.198652,0.912214
0.173773,-0.060197,0.881118,0.191910,0.981393,0.006244
-0.216071,0.813715,0.641683,-0.578965,-0.045497,0.814082
0.197930,0.210100,0.788224,0.956840,-0.273226,0.099017
-0.060191,0.207960,0.842822,0.786726,0.268138,0.556026
0.161992,-0.004644,0.764615,0.369774,-0.927867,0.048271
-0.615232,0.395975,0.650677,-0.010049,-0.862446,0.506050
0.854277,-0.354492,0.769256,-0.145619,-0.979900,-0.136346
-0.521863,0.681163,0.523306,0.054812,0.396315,0.916477
0.250383,-0.058011,0.035298,0.991765,-0.128030,0.003181
0.493616,-0.165019,0.900879,-0.363282,-0.479791,0.798640
0.360316,-0.391968,0.799539,-0.243749,-0.962195,0.121520
-0.449840,-0.056827,0.795085,0.715702,-0.049208,0.696670
0.051368,0.312509,0.854065,0.260169,0.428953,-0.865050
0.242495,-0.066025,0.210334,-0.518152,-0.824845,-0.226163
-0.432782,0.767133,0.550360,-0.393014,-0.297943,-0.869926
-0.353118,-0.026729,0.926218,0.119081,-0.713600,0.690359
0.207741,-0.182459,0.764212,0.681864,0.722931,0.111501
-0.487898,0.683303,0.523912,0.922724,0.364407,-0.125647
-0.024008,0.115432,0.746238,0.414191,-0.801640,0.431067
-0.565590,0.625246,0.448559,0.103394,-0.284508,0.953082
0.238255,-0.062611,0.098270,-0.614890,0.788442,-0.016397
-0.904954,0.340012,0.582473,0.502887,-0.187050,0.843870
-0.358935,0.480442,0.539478,0.023462,0.019535,0.999534
0.098448,-0.091617,0.965466,0.239370,-0.800661,-0.549221
0.295588,-0.038887,-0.992289,-0.133127,0.109009,0.985086
0.218931,-0.042302,0.351153,0.975969,0.061205,0.209140
0.411782,-0.129184,-0.985183,0.126481,-0.067392,0.989677
0.169140,-0.216747,0.885024,-0.219078,-0.914175,-0.341011
0.219868,-0.001502,0.215826,0.981949,0.090377,-0.166154
-0.844318,0.508448,0.572874,0.187834,-0.252079,0.949302
0.562829,-0.356040,0.870669,0.306307,0.243390,0.920292
-0.088094,0.019672,0.468060,-0.255513,-0.198987,0.946106
0.120632,-0.070351,0.325569,-0.310573,0.148186,0.938928
0.190437,-0.016894,0.670626,0.955842,-0.086435,-0.280881
-0.226867,0.157097,0.536711,0.354812,-0.666386,0.655772
-0.185753,0.102182,0.833785,-0.478682,-0.874949,0.072987
0.874636,-0.649924,0.548169,0.478259,0.523180,0.705373
-0.089475,0.163699,0.961170,0.648578,0.622776,0.437604
0.510082,0.415965,0.651441,0.422763,0.776433,-0.467357
0.639192,-0.086243,-0.987936,-0.092841,0.280612,0.955321
-0.332117,0.553163,0.658172,0.900645,-0.152240,0.407015
0.252305,0.012022,0.316186,0.867847,-0.495959,-0.029417
0.697511,-0.561677,0.457668,0.617974,0.773279,-0.141941
-0.274882,0.388963,0.506486,-0.287083,0.898311,-0.332597
0.179147,-0.141022,-0.992491,-0.125238,0.251304,0.959772
-0.164407,0.641319,0.563448,-0.754056,-0.269203,-0.599107
-0.123244,0.049861,0.815192,-0.495921,-0.748263,-0.440641
-0.811683,0.498702,0.582589,0.842474,0.536206,-0.052159
-0.598077,0.549611,0.776016,0.656043,0.637411,0.404122
-0.084792,0.015118,0.453113,-0.367028,0.660588,-0.654915
0.198866,-0.064159,0.148299,-0.053157,-0.979467,0.194471
-0.290067,-0.017304,0.554065,0.770187,0.423235,0.477163
-0.630219,0.819043,0.497564,0.837093,-0.504797,-0.210845
0.275426,-0.024816,-0.213563,0.827636,-0.534990,-0.169720
0.210945,0.498338,0.656313,0.383634,0.402443,-0.831183
0.272665,0.826238,0.675641,0.035814,-0.364188,0.930637
-0.807394,0.455262,0.781998,0.253007,-0.843667,0.473512
0.356915,0.027503,0.943773,-0.717165,0.685067,0.127895
0.743851,-0.912526,0.557927,-0.413882,0.697249,0.585273
0.120385,0.252130,0.934044,0.550602,0.169421,0.817394
0.062412,0.114932,0.965148,0.691488,0.029354,-0.721791
0.538379,-0.043395,-0.984174,0.183783,-0.051890,0.981596
0.474194,0.796457,0.632963,0.238613,0.728645,0.641982
0.248410,-0.027730,-0.367974,0.921088,0.304669,0.242431
0.498940,-0.317471,0.843615,0.608228,-0.750300,0.259055
-0.351589,-0.202039,0.799784,-0.675962,-0.550231,-0.490225
-0.350307,0.238788,0.706327,0.300942,-0.787844,0.537341
0.574118,-0.323163,0.777371,0.236324,0.205425,0.949711
-0.264628,0.086882,0.526045,-0.311351,0.870232,0.381781
-0.468621,0.429807,0.628121,0.625666,-0.761337,0.170024
0.551738,0.093484,0.860623,-0.803650,0.181858,-0.566634
-0.370864,0.386549,0.737705,0.915316,0.026638,0.401854
-0.556026,0.579619,0.672672,-0.515400,-0.635501,-0.574892
0.255510,0.837257,0.681709,-0.800199,-0.309365,0.513785
0.096377,0.343063,0.849308,-0.521405,0.170988,0.836002
0.433819,-0.107554,0.877241,0.205805,-0.978264,-0.025379
-0.071777,0.432267,0.909945,-0.513536,-0.754810,-0.408095
-0.582844,0.562999,0.694350,0.242392,-0.673730,0.698093
0.083116,0.232732,0.848213,0.610603,0.778369,-0.145964
0.185162,0.646237,0.535861,0.070258,-0.228710,0.970956
0.080455,0.126178,0.973782,0.874303,0.072404,-0.479950
0.164259,0.027413,0.548933,0.987373,0.158247,-0.007280
0.442248,-0.096125,0.904382,0.346509,0.899228,-0.267060
0.399212,-0.314831,0.677011,0.802611,0.590255,-0.086110
0.903574,0.149128,0.793254,0.631504,0.773923,0.047385
0.083165,-0.094804,0.865048,0.649203,-0.681468,0.337841
0.222233,0.176267,0.811387,0.088067,-0.840954,0.533892
-0.005422,0.411001,0.894091,0.190592,0.964157,-0.184598
0.172443,-0.206001,0.905967,0.748171,0.151218,-0.646045
-0.750652,0.330085,0.654569,-0.248748,-0.460446,-0.852123
-0.087600,0.054961,0.469516,0.469827,0.154202,-0.869186
-0.838402,0.352444,0.575757,-0.440834,-0.121005,-0.889395
0.242248,0.639999,0.707553,0.591409,0.743314,0.312601
0.304758,0.169983,0.735169,0.438410,0.047658,-0.897511
0.077644,0.046127,0.640574,-0.397514,0.700968,-0.592137
0.541040,0.422613,0.637244,0.927614,0.163970,0.335629
-0.312644,0.466008,0.869660,-0.404427,-0.275808,-0.871991
-0.033866,0.321069,0.817829,0.816672,-0.125384,0.563317
0.261622,-0.022768,0.143096,0.924736,-0.329259,0.190926
0.236382,0.211375,0.897939,0.853069,-0.089250,-0.514109
-0.029430,-0.010792,0.942044,-0.131521,-0.232034,0.963775
-0.570323,0.270298,0.653704,-0.038932,-0.994670,0.095476
-0.188415,0.422841,0.919818,-0.161754,-0.636291,0.754301
-0.572146,0.389828,0.784448,-0.512921,0.441352,-0.736288
-0.677249,0.697464,0.680037,-0.105801,-0.781902,0.614357
0.210304,0.047949,0.757423,-0.885305,0.459073,-0.074075
0.576238,-0.191977,0.851975,0.987152,0.001238,0.159780
-0.184323,0.075908,0.748357,-0.655673,0.510245,-0.556545
-0.213852,0.393061,0.444941,0.905133,0.419449,-0.069260
-0.335814,0.210601,0.591640,-0.592326,-0.773128,0.226767
0.259453,-0.039889,-0.408129,0.965119,-0.051223,0.256751
-0.872270,0.588954,0.583511,-0.176252,-0.562396,0.807865
-0.120286,-0.159100,0.957942,0.710850,0.433993,0.553482
-0.139611,0.089704,0.779173,0.206345,0.689827,0.693945
-0.211091,-0.045125,0.758619,-0.325917,0.532593,0.781104
0.406557,-0.295068,0.672773,0.850261,0.492993,-0.184426
0.300814,-0.148217,0.417469,0.830678,0.554949,-0.044794
0.595563,-0.157916,0.808446,0.081053,0.344006,0.935463
-0.044318,0.201722,0.823595,0.931610,0.274018,0.238782
0.074637,0.255180,0.877025,0.737974,0.674829,0.000400
0.150999,0.003006,0.666691,-0.570197,-0.814530,-0.106843
-0.404879,-0.015436,0.917325,0.689901,0.672695,-0.267430
0.572986,0.402851,0.844336,-0.222887,0.662306,0.715313
0.029037,-0.217613,0.897117,0.972029,0.032744,-0.232568
-0.028198,0.299213,0.929447,0.201507,0.934461,-0.293559
-0.087206,0.726970,0.539651,-0.961046,0.171400,-0.216826
0.499237,-0.512318,0.438628,0.081126,-0.106647,0.990982
0.080996,-0.081873,0.314630,-0.307877,0.433498,0.846930
-0.204634,-0.068985,0.816734,-0.550109,0.752511,0.362088
-0.190091,-0.035244,0.830672,0.966160,0.156654,0.204924
0.847523,-0.240289,0.716474,0.931413,0.363283,0.022235
-0.418683,0.335914,0.552681,0.114644,0.939270,0.323463
0.548140,-0.232366,0.854439,-0.334104,0.902583,-0.271511
0.571507,0.131916,0.859498,0.900306,0.058599,0.431295
-0.198275,-0.007968,0.933338,-0.272805,-0.137018,0.952262
0.505349,-0.366194,0.492058,0.255723,0.864257,0.433204
0.375155,0.155549,0.515869,0.223268,0.853438,-0.470951
-0.266502,0.364374,0.492303,-0.009597,-0.927221,0.374392
-0.243036,-0.030418,0.755737,-0.834684,-0.188494,-0.517467
0.053390,0.126498,0.975468,-0.200739,-0.337337,0.919732
-0.312152,0.014162,0.944379,0.134411,-0.979743,0.148447
0.450530,-0.045216,0.840516,0.923810,-0.367669,-0.106745
-0.311609,-0.172123,0.856126,0.354936,-0.901483,0.247687
0.391028,-0.260690,0.812150,-0.591047,0.805945,-0.033417
0.525955,-0.535768,0.491208,0.601969,0.790936,-0.109786
0.175992,-0.002960,0.491265,0.996280,0.047394,-0.071975
0.020557,-0.142344,0.882416,0.878086,-0.276516,0.390519
0.658615,-0.470925,0.662453,0.821155,0.355607,-0.446373
0.283610,0.837394,0.688239,0.910325,0.282429,-0.302558
-0.224747,0.149675,0.537028,0.138540,-0.874808,0.464239
0.299927,-0.051045,-0.993370,-0.132651,0.145841,0.980374
0.151590,0.086654,0.592447,0.945937,0.262996,0.189830
-0.817599,0.508220,0.782718,0.827906,-0.555921,-0.074320
-0.479467,0.606758,0.438700,0.351917,0.554188,-0.754341
0.233868,-0.008514,0.246195,0.979651,0.192406,-0.057122
0.596994,-0.343245,0.728942,0.363728,0.699463,0.615186
0.319301,0.020036,0.422384,0.495010,0.670888,-0.552154
-0.298595,0.056465,0.544508,0.331089,0.194731,0.923288
0.814690,0.005646,0.801009,0.475805,0.061321,0.877410
0.398078,0.608260,0.755751,-0.532038,0.458850,0.711613
-0.379986,-0.024452,0.899784,0.429395,-0.898803,-0.088168
-0.691644,0.458404,0.685270,-0.637709,-0.764581,-0.093500
0.299384,-0.049633,-0.296325,0.774982,-0.629272,0.058480
0.268967,-0.322299,-0.972571,-0.050678,-0.129793,0.990245
0.136456,0.605438,0.675497,-0.657321,0.648853,-0.383300
0.706631,-0.956513,0.543355,0.781605,-0.555249,-0.284238
0.179985,0.026547,0.292563,-0.097402,-0.839450,0.534637
-0.359624,0.041983,0.791381,0.901492,-0.332129,0.277493
0.577916,0.421839,0.824070,0.786014,0.052939,-0.615938
-0.192013,0.309823,0.890761,0.815922,-0.400921,0.416574
0.100814,-0.094577,0.777602,0.683353,0.688636,0.242507
0.658516,-0.528937,0.452883,-0.358334,-0.198652,0.912214
0.326843,0.635036,0.703834,-0.406637,0.711021,0.573668
0.282623,-0.047630,-0.065422,0.900350,-0.434265,-0.027997
0.493369,-0.146076,0.651384,0.792331,-0.593390,-0.141775
0.225734,-0.022266,-0.059426,-0.888068,-0.352938,-0.294569
-0.020606,0.285325,0.818017,0.896810,0.036907,0.440874
0.175845,0.220209,0.880931,0.187834,0.981561,-0.035460
0.348040,-0.258732,-0.974661,0.275666,-0.468344,0.839442
0.253734,0.078230,0.060767,0.925691,0.344487,0.156282
0.102440,-0.261782,0.627991,0.310887,-0.225656,-0.923271
0.301060,0.234324,0.862251,0.967680,0.066872,-0.243152
0.332758,0.700651,0.661992,-0.503746,-0.453052,0.735516
0.617451,-0.202039,-0.960219,-0.270863,-0.369924,0.888701
0.099827,0.034926,0.407062,0.282798,0.957651,-0.054128
-0.193492,0.270981,0.426636,0.400333,-0.574720,0.713744
0.227951,0.334639,0.927976,0.463188,0.770775,0.437451
0.084595,-0.074541,0.945402,0.115019,0.977446,0.177115
0.306384,-0.113292,0.724949,0.320608,0.801820,0.504276
0.259749,-0.075543,-0.054108,0.468018,-0.883717,0.002087
0.477199,-0.127862,-0.984030,-0.019593,0.034041,0.999228
-0.039093,0.237422,0.398487,0.863465,-0.234722,0.446469
0.421839,-0.187695,-0.984981,0.136860,0.473108,0.870310
0.504018,-0.249624,0.876578,-0.412585,-0.258560,0.873453
0.207592,0.003462,0.409239,-0.158008,0.979705,-0.123336
0.805768,-0.158235,0.808331,-0.634523,-0.662795,-0.397598
-0.229627,0.348482,0.473061,0.246591,-0.780282,0.574764
0.462017,0.183417,0.712439,-0.727441,0.681569,-0.079333
0.147154,0.055645,0.735529,0.859065,0.511636,0.015371
-0.208084,0.092528,0.936624,-0.146045,-0.119834,0.981993
-0.379886,0.049861,0.800865,-0.276802,0.131454,-0.951893
0.181070,0.119940,0.930700,-0.189737,0.355455,-0.915233
0.350506,0.178635,0.892822,-0.277713,-0.466572,0.839753
0.727976,-0.972497,0.554944,0.199123,-0.968186,-0.151548
0.306730,0.313192,0.870813,0.713952,0.123057,-0.689297
0.453833,-0.261282,0.460291,0.834548,0.379449,-0.399436
0.510279,0.784209,0.636206,0.472031,0.574665,0.668541
-0.091446,0.426301,0.896829,0.669759,0.573199,-0.472086
0.276806,-0.003962,0.717930,-0.347718,0.884869,0.309998
0.655805,-0.046628,0.756500,-0.091668,-0.941746,0.323591
-0.040719,-0.014024,0.816792,0.998113,0.044343,-0.042486
-0.237121,0.264105,0.820078,0.987532,-0.106122,-0.116268
0.199754,-0.105505,0.903993,-0.235566,0.562289,0.792679
-0.325314,0.359136,0.718550,-0.506557,0.219172,-0.833885
0.225437,0.271664,0.860147,-0.290532,-0.837726,0.462392
-0.134631,0.263604,0.416676,-0.581685,0.431199,-0.689717
0.296870,-0.033240,-0.337821,0.892591,-0.427577,0.143035
-0.224846,0.506534,0.753517,0.174814,0.973268,-0.148963
0.301060,-0.088339,0.702638,-0.113813,0.498292,0.859507
0.543111,0.382406,0.603430,0.945722,-0.315766,-0.076826
0.235791,-0.055189,0.112669,-0.313144,0.925471,-0.213179
0.075622,0.603706,0.729937,-0.080937,0.772260,-0.630130
-0.308947,0.012158,0.825166,-0.256967,-0.117890,-0.959203
0.060292,0.275807,0.880268,0.621096,0.772435,0.132605
0.296772,-0.024134,-0.280023,0.752897,-0.647019,-0.120470
0.522898,-0.151814,0.874560,-0.677180,-0.699636,0.227899
0.151885,0.221574,0.921519,0.530370,0.843817,-0.081736
0.330589,-0.138108,0.449481,0.653276,0.640700,-0.403403
0.300025,-0.039797,-0.513433,0.994911,-0.095560,0.031951
-0.149716,0.696645,0.550288,-0.135594,0.809639,0.571051
0.586198,0.241520,0.857841,0.738878,0.673535,-0.020235
-0.079812,0.741816,0.511949,0.981101,0.192481,0.019785
0.200197,0.026047,0.415711,0.290233,-0.890277,0.350959
-0.459650,0.351214,0.575195,0.971498,-0.234614,-0.033871
0.290413,-0.033741,-0.181868,0.694742,-0.686055,0.216015
-0.344589,0.611402,0.449611,0.350215,-0.129050,0.927737
-0.249987,-0.094895,0.771375,-0.328444,0.764484,0.554697
-0.390535,-0.012430,0.859743,-0.676913,0.716741,-0.167544
0.458418,-0.124766,0.517310,0.749048,-0.644922,0.151670
0.101159,0.091526,0.871462,-0.042903,0.999020,-0.010852
0.167464,0.054733,0.535414,0.980802,-0.126641,0.148291
-0.267586,0.514367,0.466734,0.773136,0.630312,-0.070472
0.326349,-0.120212,-0.782055,0.758365,-0.635133,0.146590
0.320927,-0.083831,-0.377976,0.600469,-0.793265,-0.100840
0.270792,-0.076271,-0.992851,0.048648,-0.286382,-0.956880
0.614937,0.368882,0.833785,-0.840231,-0.005383,0.542203
0.168893,-0.235508,0.926622,0.040152,-0.884080,0.465607
0.168154,-0.043850,0.585760,-0.288529,0.270800,0.918378
0.461425,-0.084741,-0.980974,0.345977,-0.254603,-0.903038
0.558590,0.161423,0.842577,0.750897,0.660264,0.014318
-0.102046,0.406767,0.899193,0.882068,0.109953,-0.458112
0.793493,0.140750,0.754454,0.549501,-0.263723,0.792779
-0.393590,0.135149,0.857841,0.773388,-0.283006,-0.567255
0.509292,-0.195893,-0.983136,-0.168548,-0.166602,-0.971512
0.303279,-0.038249,-0.044076,0.885034,-0.441923,0.146354
0.277742,-0.249214,-0.969559,-0.069676,0.652485,-0.754592
0.368401,0.664907,0.712857,0.911779,0.310978,-0.268239
0.252305,0.253450,0.886048,0.543504,0.613280,0.573141
-0.354893,-0.046309,0.827587,-0.036901,-0.417681,0.907844
0.267538,0.288421,0.862511,0.087324,0.695554,-0.713147
-0.376288,0.229452,0.714399,0.343182,-0.846981,0.406016
-0.289277,0.223988,0.835918,0.885047,-0.427151,0.185025
-0.225585,0.249852,0.690574,-0.404509,0.072812,-0.911631
0.039242,-0.060471,0.501730,-0.463916,0.583946,0.666175
0.330984,0.056099,0.443831,0.601197,0.712693,-0.361429
0.198374,0.013251,0.759772,0.841909,-0.524232,-0.127945
0.231946,0.016348,0.621159,0.221936,0.500186,-0.836994
-0.191963,0.558581,0.574301,0.853051,0.144774,0.501342
0.436136,0.028050,0.906313,-0.350372,0.931060,-0.101818
-0.207198,0.207687,0.692346,0.468923,0.639217,0.609519
-0.187429,0.171987,0.442620,0.441306,0.713487,0.544229
-0.256298,0.089432,0.780902,0.298930,-0.937574,0.177752
0.260834,-0.088156,-0.226261,-0.204039,0.945281,-0.254581
0.187085,0.434817,0.823523,0.470812,0.315931,-0.823726
-0.106926,-0.035062,0.865538,0.665613,0.675405,0.317471
0.048756,0.015210,0.974604,-0.321853,0.707927,0.628689
0.203698,-0.125540,0.938527,0.938810,-0.018096,-0.343960
0.205818,0.027503,0.515307,-0.779588,-0.577829,-0.241569
0.277496,-0.125268,-0.558778,0.976272,-0.212131,0.043504
0.487701,-0.113337,0.541842,-0.986691,0.135277,-0.090229
0.285729,-0.097217,-0.430225,0.788713,-0.590520,0.170933
0.316885,0.765858,0.667282,-0.190280,-0.631591,0.751589
-0.811978,0.560995,0.674531,0.544752,-0.547027,0.635616
0.588662,-0.277446,-0.979663,0.287479,0.178893,0.940932
-0.411239,0.431765,0.606601,-0.045018,-0.998980,-0.003536
0.180182,-0.079141,0.040819,0.137036,0.990415,0.017280
0.173725,0.023451,0.559369,0.965950,-0.178761,0.187043
0.624895,-0.068439,0.739421,0.844576,-0.494645,-0.204983
0.739956,-0.704795,0.531695,0.833483,0.014695,-0.552350
0.529850,-0.169801,-0.983122,-0.004143,0.217020,0.976158
0.788069,-0.505668,0.573133,0.187035,-0.932735,-0.308258
-0.194577,0.158691,0.444393,0.825681,0.427824,-0.367720
0.401233,0.241110,0.348256,-0.833688,0.342686,-0.433048
0.282722,-0.075815,-0.238037,0.918432,-0.359504,0.165044
0.188564,0.042393,0.096526,0.755391,0.511891,-0.409086
-0.384667,0.911799,0.421937,0.586080,0.006874,-0.810224
0.303870,0.013388,0.710061,-0.671590,0.633612,0.384059
0.313040,-0.050681,-0.198400,0.901886,-0.431107,0.027353
0.338476,-0.088019,-0.703085,0.902019,-0.386891,0.191513
-0.503277,0.724330,0.515826,0.973554,0.123812,-0.191998
0.542421,-0.200263,0.893485,0.597301,-0.219434,0.771414
-0.334384,-0.180957,0.808922,-0.674822,-0.663993,0.322069
0.161007,-0.043395,0.260507,0.865452,-0.500966,-0.005076
-0.713679,0.608534,0.751369,-0.369402,-0.929165,0.013961
0.460685,0.164519,0.695561,-0.763531,0.625348,-0.161122
0.322603,-0.144028,-0.773206,0.582804,-0.808996,0.076585
0.254475,0.149765,0.882127,-0.473655,-0.878808,-0.057858
0.066405,0.252994,0.939752,0.285427,0.560722,0.777253
-0.351886,0.607122,0.783453,0.863715,0.496916,0.084085
0.033128,0.081235,0.323508,0.371358,-0.624174,0.687386
0.263495,-0.013842,0.102234,0.930992,0.359747,-0.061940
0.643578,0.019080,0.672413,0.251525,0.964273,0.083141
-0.467882,0.489232,0.701340,0.996669,0.080615,0.012363
0.447770,-0.289968,0.466417,0.910763,0.129257,-0.392177
-0.705447,0.720095,0.689839,0.611965,0.673635,0.414384
0.257727,0.194299,0.804382,0.951520,-0.264343,-0.157263
-0.163569,0.061063,0.829908,0.738040,0.147847,0.658360
-0.159230,0.257184,0.934462,0.903590,-0.404704,-0.140500
-0.164604,0.248032,0.925137,0.968824,0.200728,-0.145220
-0.198126,0.357998,0.468319,0.237348,-0.865495,0.441117
0.149914,-0.008652,0.713159,0.986945,0.154207,0.046473
0.480997,-0.213423,-0.965451,0.070595,0.500642,0.862771
0.066405,0.242886,0.945835,0.083340,0.556720,0.826509
-0.411682,0.064979,0.839017,0.300300,0.659637,0.688983
0.220310,0.161195,0.922384,-0.511702,0.620824,-0.593918
-0.224649,0.119258,0.513232,-0.131271,0.988877,0.069933
0.604979,-0.237238,0.719069,0.963687,0.266711,-0.013169
-0.141484,0.209964,0.680282,0.248822,-0.618311,0.745506
-0.079418,0.105278,0.476578,-0.043000,-0.878247,0.476271
0.282376,0.261282,0.806155,-0.109368,-0.248505,0.962436
0.561450,-0.080323,-0.986307,0.098787,-0.020377,0.994900
0.262657,-0.065297,-0.038037,-0.762530,0.640426,0.091666
-0.491347,0.787533,0.524517,0.908257,-0.202076,-0.366380
0.086961,0.650335,0.725468,-0.611865,0.702743,-0.363005
0.550357,-0.294931,0.848847,-0.217398,-0.192371,0.956939
0.212866,-0.108283,0.972932,-0.030733,0.999485,-0.009253
0.202761,0.037021,0.507207,0.889554,0.450817,0.073878
-0.655065,0.387278,0.781335,0.856007,-0.336715,-0.392269
-0.423760,0.449433,0.777184,0.530212,0.632720,-0.564394
0.588760,0.717272,0.761026,0.117322,0.990678,0.069223
0.416268,-0.247620,0.812828,0.535093,-0.838268,0.104798
0.446094,-0.110468,-0.981090,-0.068025,0.165408,0.983876
0.187528,0.005966,0.823638,0.781687,-0.595308,0.185939
0.456792,0.277310,0.829980,0.843558,0.529536,0.089446
0.237220,-0.010700,0.860435,0.819687,-0.351820,-0.452034
0.575794,-0.136424,0.750130,0.994779,-0.046789,0.090694
0.415183,-0.219844,0.718665,-0.265681,-0.828522,-0.492914
0.169584,-0.370338,0.625569,0.253143,0.148040,-0.956035
0.524970,0.562953,0.740487,0.907790,0.406646,0.102746
0.323737,0.605028,0.679447,0.065339,0.526669,0.847556
-0.567266,0.794409,0.472456,0.310655,-0.819107,0.482241
-0.294897,0.033059,0.845806,0.423279,-0.727040,-0.540599
0.394529,0.173671,0.532171,-0.186768,-0.802291,0.566963
0.315553,-0.356176,0.784751,0.149162,0.392433,0.907605
0.053093,0.101498,0.624978,-0.256378,-0.952688,0.163263
0.236826,-0.019216,0.614831,0.534100,0.107105,-0.838609
0.030811,-0.248530,0.917411,-0.686021,-0.711220,-0.153433
0.215874,-0.037566,0.228423,-0.252796,0.966520,0.043965
-0.323786,0.264742,0.738858,0.582258,-0.673162,0.455882
0.494356,-0.048176,-0.978625,0.139653,-0.260663,-0.955276
0.572246,0.488002,0.599135,-0.423966,0.233720,0.875002
-0.663100,0.396203,0.772802,0.912929,-0.254180,-0.319302
0.802712,-0.156642,0.781998,0.828128,0.319475,0.460587
-0.306778,0.093666,0.576636,0.890291,-0.140303,-0.433239
0.215627,-0.064387,0.245445,0.985409,-0.029220,0.167674
-0.034212,0.121898,0.714932,-0.158060,0.982842,-0.095071
0.296772,-0.108874,-0.984808,0.093910,0.834864,0.542387
-0.407443,0.616958,0.454699,0.392009,-0.121995,0.911837
-0.378308,0.391968,0.525108,0.400136,-0.916262,0.018827
0.727582,-0.956241,0.560724,0.046688,0.778326,0.626122
-0.383535,-0.027002,0.801196,0.909878,-0.335108,0.244591
0.500222,0.098448,0.770078,0.160506,-0.912183,0.377041
-0.396400,0.006102,0.794970,0.779472,-0.064157,0.623143
0.083313,-0.176540,0.331810,-0.160024,0.794930,0.585217
-0.371160,-0.029871,0.826506,0.011949,0.678345,0.734646
0.129850,-0.149810,0.964514,0.386048,-0.224802,0.894668
0.421889,-0.229588,-0.971606,-0.015914,-0.934104,0.356646
-0.383435,0.266382,0.755275,-0.245736,-0.907226,0.341402
-0.120631,0.245890,0.865927,0.910350,-0.297383,0.287794
0.195170,0.673057,0.727083,-0.026581,-0.440864,0.897180
0.428198,0.278722,0.567224,0.525405,0.513372,-0.678527
0.481638,0.618278,0.735212,0.019028,-0.265229,0.963998
0.176978,-0.208687,0.933108,0.961664,-0.207153,0.179696
0.249445,-0.055371,0.028812,0.976848,-0.193220,0.091837
0.824501,-0.343518,0.751427,-0.708102,0.560683,0.429215
-0.272516,0.694687,0.641078,-0.643449,0.659928,-0.387904
0.557949,-0.198079,0.874258,0.998406,-0.056378,-0.002811
0.096969,0.208051,0.787230,0.774124,0.618173,-0.136361
0.249791,0.160057,0.949106,0.142458,-0.868061,-0.475580
0.395021,0.183007,0.541741,0.120487,-0.877551,0.464099
-0.707024,0.672693,0.773883,-0.473339,0.437609,-0.764492
0.209367,0.076591,0.237547,0.991239,0.022683,-0.130122
-0.791668,0.504986,0.761502,0.786469,-0.409951,0.461959
-0.302686,0.398206,0.508028,0.306932,-0.945881,0.105362
-0.550160,0.548745,0.677717,-0.705804,-0.642632,-0.298101
0.316097,0.256410,0.865826,0.735067,0.546414,-0.401383
0.041065,-0.036018,0.770164,0.041679,0.953375,0.298898
0.463989,0.065617,0.953474,-0.734335,0.590529,-0.334705
0.562534,0.272210,0.723652,0.906733,-0.385872,-0.170114
0.250086,-0.069531,-0.093572,-0.641182,0.646737,-0.413059
-0.051417,0.146214,0.371678,0.899458,-0.103213,0.424644
-0.289326,0.197578,0.564932,-0.689137,0.675647,-0.261901
-0.337983,0.234780,0.592649,-0.385155,-0.892939,0.233056
0.327681,-0.122080,-0.779057,0.738863,-0.670478,0.067384
-0.014542,0.458085,0.838123,-0.411449,0.500137,-0.761953
0.105744,-0.176495,0.721375,-0.533224,0.695668,0.481371
0.472616,-0.191839,-0.975829,-0.101612,0.795374,0.597541
0.534337,-0.366878,0.547016,-0.639531,0.690846,0.337241
0.178703,0.075088,0.756140,0.634143,0.291675,-0.716093
-0.377619,0.651929,0.704483,0.829539,-0.517448,-0.210031
0.214001,-0.118027,0.718291,0.137038,0.616963,0.774969
-0.101158,0.488776,0.523321,-0.525416,0.480927,0.701888
0.086221,0.107782,0.892894,0.715137,-0.697937,-0.038250
-0.304559,0.238878,0.897550,0.740843,-0.649639,-0.170647
-0.148237,0.234598,0.424243,0.140262,-0.853252,0.502283
-0.664481,0.633260,0.753373,0.362487,0.814675,-0.452666
