-0.316302,0.343637,0.837150,-0.268314,0.959399,0.086954
-0.407780,0.165780,0.663241,0.921131,0.374600,0.105799
0.833400,0.661214,-0.954356,-0.461302,0.487655,0.741211
0.335331,-0.215174,-0.954566,-0.396095,-0.411521,0.820828
0.458322,0.602119,-0.954725,-0.039230,0.897969,0.438307
-0.247074,0.211294,0.777595,-0.725347,0.570434,-0.385326
-0.117809,0.019236,0.138738,-0.131150,0.668483,0.732073
0.008881,0.152928,-0.957104,0.586595,0.123873,0.800351
0.830023,-0.125170,-0.920479,0.932541,-0.076711,0.352822
0.236223,0.143823,-0.334801,-0.078775,0.472681,0.877705
0.022646,0.203693,0.054612,0.941708,-0.112487,0.317069
0.580759,-0.070295,-0.940997,0.549254,0.308948,0.776448
0.467993,0.721673,-0.948457,0.964493,0.063508,-0.256360
-0.071926,0.562257,0.817461,0.680911,-0.424064,0.597102
0.058696,-0.186614,-0.962920,0.306186,-0.576143,-0.757832
-0.417742,0.026351,0.973078,-0.299492,0.190164,-0.934956
0.353340,0.073979,0.515022,-0.499059,-0.564238,-0.657705
0.144863,0.383849,0.441046,0.349071,-0.935648,0.052072
-0.460984,0.258146,0.715304,-0.639300,-0.640634,-0.425304
-0.165007,0.113667,0.311260,0.277400,-0.057775,0.959016
0.858159,0.123434,-0.929854,0.180403,0.680521,0.710174
-0.401769,0.175190,0.878940,-0.332333,-0.646259,0.686953
0.684712,0.380016,-0.950410,0.551896,0.537271,0.637770
0.830925,0.531537,-0.949752,0.502536,0.292007,0.813751
0.890040,0.152888,-0.936848,0.032803,0.135280,0.990264
0.421369,-0.277220,-0.917602,0.000494,-0.976842,0.213960
-0.588566,-0.166826,0.623784,-0.249840,0.834061,0.491856
0.600217,0.511644,-0.939040,0.989492,0.144074,-0.012206
0.804281,-0.499317,-0.921107,-0.452885,-0.375643,0.808571
0.686286,-0.188495,-0.939668,0.026016,-0.257035,0.966052
0.251211,-0.291844,-0.949265,-0.576236,0.063875,-0.814783
-0.428693,0.089899,0.722424,0.731099,0.433259,-0.527050
0.058991,-0.178585,-0.958526,0.362167,-0.759086,-0.540946
-0.173966,0.311747,0.608799,0.599699,-0.687557,0.409422
0.008537,0.265152,0.561470,-0.363338,0.399718,-0.841553
-0.087792,0.191704,0.258446,-0.668785,0.729583,0.142950
-0.261792,0.041271,0.741481,0.383959,0.886768,0.257328
-0.492154,0.010719,0.577839,-0.631362,0.367839,0.682698
0.434082,-0.157043,-0.937167,0.979802,-0.055436,-0.192131
-0.343440,-0.025782,0.519487,-0.457030,-0.867753,-0.195264
-0.143153,0.331727,0.914749,0.611991,-0.348030,-0.710170
0.265205,0.284386,-0.983546,0.417313,-0.001761,-0.908761
-0.023972,0.062581,0.690036,0.312376,-0.897494,0.311329
-0.040334,0.281507,0.227860,0.999964,-0.004174,0.007349
-0.029522,-0.439215,-0.961866,0.308518,-0.727111,0.613292
0.407596,-0.328434,-0.943736,-0.023124,0.788030,0.615202
-0.499682,0.029734,0.976666,0.395833,-0.909456,0.127305
0.565454,0.702721,-0.964643,-0.485421,0.662282,0.570744
0.367491,0.452387,-0.951594,-0.514645,0.752561,-0.410843
0.344821,-0.043867,-0.959693,0.026513,-0.106727,0.993935
0.450554,-0.079317,-0.956349,0.679050,0.493534,0.543429
0.312184,-0.005736,-0.446395,-0.652530,0.732360,-0.194560
0.830477,-0.195560,-0.946270,-0.538024,-0.037917,0.842076
0.116719,0.346883,-0.066992,-0.144005,-0.528990,0.836321
0.588194,-0.068698,-0.967648,0.830948,0.043878,-0.554617
0.814883,-0.615267,-0.926717,-0.569762,0.520767,-0.635746
0.513752,-0.613440,-0.936023,-0.416816,0.155134,-0.895655
-0.025228,-0.197991,0.426457,0.575641,0.287698,0.765420
-0.247599,-0.235430,0.438617,-0.436265,-0.814214,0.383052
0.368429,0.415595,-0.982124,-0.006776,-0.163994,0.986438
0.674423,0.183451,-0.949792,-0.156032,0.690660,0.706146
0.323035,-0.637112,-0.937599,0.041310,-0.366383,0.929547
-0.479273,0.192695,0.688941,-0.533002,-0.145378,0.833531
0.373485,-0.157712,-0.938342,0.832893,-0.090571,-0.545973
0.152691,0.230554,-0.136915,0.921981,0.210311,-0.325147
0.539713,0.600645,-0.956730,-0.198339,0.701283,-0.684736
-0.273954,0.116022,0.458124,-0.216149,0.973359,-0.076493
0.062887,0.133600,-0.985528,0.934023,0.214934,0.285315
0.430800,0.033657,-0.955076,-0.575670,0.335674,0.745605
-0.356475,0.311183,0.830930,-0.610089,0.423075,-0.669924
0.503879,-0.675705,-0.934641,0.936570,0.317052,-0.149381
0.890221,0.670440,-0.949753,-0.349553,-0.135734,0.927032
-0.317508,0.036117,0.710782,0.805328,0.572961,-0.152195
0.779745,0.470595,-0.954795,0.626303,0.405151,-0.666031
-0.214859,0.012635,0.430550,0.952830,0.235546,-0.191398
0.289446,0.457838,-0.964131,0.338311,0.758023,-0.557627
0.465266,0.387827,-0.946793,-0.220179,0.960578,0.169740
0.402344,0.074437,-0.949133,-0.573284,0.677247,-0.461175
0.273602,0.073118,-0.966596,0.123763,-0.293671,-0.947861
0.100019,0.449514,-0.070662,-0.534315,0.531456,0.657315
0.187031,0.102767,-0.321826,0.924909,0.171605,0.339258
0.438276,0.093268,-0.946691,-0.188424,-0.709070,0.679497
0.723143,-0.436938,-0.943332,-0.707093,0.481539,0.517823
0.686478,-0.551623,-0.944479,0.777897,0.540551,0.320437
0.950097,0.035759,-0.930966,0.485560,0.681614,0.547388
-0.107257,0.269855,0.176039,0.619217,-0.766668,-0.169678
0.296992,-0.716583,-0.922211,-0.370777,-0.080074,0.925263
0.049423,-0.031637,-0.954789,-0.596715,-0.173642,-0.783441
0.596974,-0.569715,-0.945382,0.957397,-0.275763,0.085708
0.496452,-0.491476,-0.942751,0.166987,0.054525,-0.984450
0.458593,-0.162277,-0.925226,-0.645817,0.448862,0.617612
0.614357,-0.004390,-0.926979,0.206209,-0.974964,-0.083205
0.946221,0.759276,-0.961006,0.564869,0.719285,-0.404415
0.288023,0.107347,-0.970816,-0.762849,0.031651,0.645802
-0.412517,0.060958,0.550604,0.791397,0.575736,-0.205474
0.278081,0.117866,-0.330903,0.045899,0.384506,0.921981
0.698414,-0.119114,-0.948169,0.903007,-0.249474,0.349772
0.696328,-0.020993,-0.936508,0.510709,0.477656,0.714857
0.905941,0.307796,-0.939580,-0.087062,0.118149,0.989172
-0.048281,0.213081,0.135828,0.187617,0.904355,0.383330
0.352080,-0.675141,-0.951203,-0.302798,-0.071062,0.950402
0.473274,0.170197,-0.944441,0.244319,-0.936158,0.252816
0.780966,0.515820,-0.959003,-0.744031,0.667340,-0.032780
0.158970,0.049487,-0.454753,0.953719,0.261958,-0.147643
0.923705,-0.038098,-0.944876,0.073991,-0.163040,0.983841
0.020918,0.224511,0.289589,-0.586030,0.806568,-0.077573
-0.468514,0.195147,0.585268,0.756756,0.249140,-0.604358
0.208561,0.168532,0.617601,0.807433,0.481151,0.341388
0.693585,-0.262514,-0.919670,-0.177271,0.574352,0.799184
-0.447646,0.211495,0.716366,0.719810,0.582362,0.377793
-0.429914,0.060090,0.559419,-0.674034,0.689811,-0.264271
0.777814,-0.100378,-0.944032,0.534751,0.062662,0.842683
-0.365916,0.620495,0.685790,0.292622,-0.912669,0.285320
-0.277090,-0.015119,0.423498,0.035721,-0.984311,0.172787
0.596219,0.529313,-0.944022,0.908058,-0.418046,0.025848
0.145845,0.312143,-0.136144,0.415719,0.894632,-0.163745
0.380834,-0.723267,-0.942676,0.076121,-0.996805,0.024199
0.816951,0.334783,-0.955981,0.672415,-0.200996,-0.712362
0.151954,-0.137733,-0.960020,0.950065,0.056035,0.306980
0.888517,0.327111,-0.943014,-0.224413,0.345060,0.911358
0.445049,-0.151426,-0.951336,0.361342,0.422496,-0.831222
0.294006,0.018786,0.533680,0.815320,0.047568,-0.577054
0.552834,0.058157,-0.950717,-0.160927,-0.553914,0.816873
0.252103,-0.275158,-0.929088,-0.234139,0.632249,0.738539
0.139470,0.134509,-0.179693,0.921225,-0.362582,0.140996
0.086108,-0.844689,-0.918702,0.032145,-0.217713,0.975483
0.387768,-0.083487,-0.598639,-0.345465,-0.933537,-0.095720
0.284769,-0.240865,-0.961663,0.925510,-0.350856,-0.142584
-0.218017,0.186862,0.295194,0.001409,0.992187,0.124754
0.205753,0.118198,0.281658,0.558308,0.812024,0.170028
0.460259,-0.610283,-0.935760,-0.342549,0.243724,0.907336
0.770208,0.413094,-0.930115,0.800944,0.511786,-0.310746
0.332452,0.035000,-0.517840,-0.017500,0.978093,0.207433
0.321814,-0.118339,-0.944616,-0.323806,-0.619698,0.714929
0.510116,0.507031,-0.950617,0.160240,0.313711,0.935900
0.256598,0.063124,0.497722,0.397765,0.857802,-0.325514
0.282435,-0.724352,-0.933059,-0.422804,-0.171324,-0.889879
0.078621,0.349364,0.451566,-0.090736,-0.185308,-0.978483
-0.037033,0.109117,0.176692,0.856168,0.254962,-0.449412
0.290985,-0.063499,-0.360915,-0.613040,-0.786464,-0.075209
0.015787,0.117532,0.159699,0.954533,-0.297397,-0.020552
0.780796,0.610676,-0.920289,-0.346477,0.282905,0.894382
0.081079,0.287040,-0.033465,0.256384,-0.913619,0.315544
-0.131688,0.232056,0.925185,-0.696835,0.560597,-0.447383
0.531768,-0.538166,-0.934671,0.615965,-0.000634,-0.787773
0.158025,0.152104,-0.974678,0.868104,-0.333240,-0.367894
0.527530,0.579007,-0.947285,-0.680988,0.322594,0.657411
0.360952,-0.060342,-0.974136,-0.487044,0.639752,0.594563
-0.165551,0.383888,0.815427,0.840029,-0.469456,0.271960
0.287853,-0.837166,-0.947060,0.976630,0.194258,-0.091965
0.092139,0.236476,0.642754,0.809872,0.581343,0.078409
0.207635,-0.387238,-0.947770,-0.552747,0.065391,0.830780
0.422248,-0.822241,-0.944132,0.767819,-0.314457,0.558185
0.553635,0.500075,-0.951628,0.166266,0.891989,-0.420371
0.142650,-0.078765,-0.958341,0.931799,-0.078060,0.354483
0.822441,-0.174178,-0.931478,0.124146,-0.412918,-0.902267
-0.007718,0.512072,0.800315,0.853988,-0.331454,0.401051
-0.347224,-0.030910,0.408652,-0.335864,0.908122,0.250020
0.166023,0.280266,-0.088021,-0.727402,0.436701,0.529319
0.789338,0.088045,-0.934766,-0.137869,-0.630160,0.764128
0.820167,0.337401,-0.845392,-0.741902,-0.632329,-0.223029
-0.335951,-0.063587,0.718142,-0.754762,-0.393373,0.524968
0.027981,0.157879,-0.042131,0.007267,0.901514,0.432689
0.031393,0.206752,-0.146270,0.576608,0.816893,0.014453
0.489940,0.032372,0.562522,0.907682,0.408805,0.094825
-0.248985,0.318285,0.944259,0.677507,0.713636,-0.178068
0.127598,0.199575,-0.263958,-0.735847,0.581332,0.347250
0.319941,-0.027516,-0.440507,-0.640518,0.739198,-0.208143
0.838146,-0.039124,-0.927624,-0.800038,-0.014064,0.599785
0.092955,-0.701390,-0.950320,-0.065260,-0.991925,-0.108748
-0.303462,-0.084959,0.499570,0.716970,0.446020,-0.535742
0.107784,-0.435170,-0.950785,0.080279,0.537934,0.839156
0.668506,-0.086893,-0.893759,0.982864,0.183859,0.013167
0.713604,-0.578135,-0.932577,0.881343,-0.166767,-0.442068
-0.004283,0.289696,0.035150,0.785856,-0.491583,0.375202
-0.394511,0.080663,0.785881,-0.301824,-0.951741,-0.055609
-0.082075,0.203928,0.288329,-0.527037,-0.004256,-0.849832
0.890428,0.313127,-0.932176,0.122552,0.977947,0.169116
0.428135,-0.105701,-0.714744,0.704898,0.702020,-0.101426
-0.902124,-0.334373,0.717908,0.052156,0.782358,0.620642
-0.442464,0.050157,0.661016,0.923596,0.141732,-0.356206
0.204125,-0.581336,-0.961219,-0.037038,0.064280,0.997244
0.776233,-0.585755,-0.938854,-0.227060,-0.237838,0.944392
0.032910,0.167148,0.048774,0.872156,0.110349,0.476620
0.537382,0.351820,-0.961029,0.432178,0.004960,0.901775
0.671968,-0.430618,-0.902541,0.059075,-0.347994,0.935634
0.629673,0.303293,-0.950658,-0.116296,0.930917,0.346222
0.550941,-0.116253,-0.934775,0.473144,0.444821,0.760440
0.110589,0.151571,-0.180927,-0.563924,-0.748515,0.348877
0.252197,-0.445570,-0.948658,-0.001608,-0.998582,0.053219
0.808157,-0.288263,-0.910382,-0.323766,-0.261158,0.909380
0.081383,-0.688913,-0.924307,0.231175,0.959168,0.162959
0.381338,0.047794,-0.964944,0.293375,-0.590334,-0.751956
-0.125364,0.079177,0.185289,0.849625,0.424355,0.313146
0.449981,0.501036,-0.959575,0.557311,0.585315,0.588906
0.738839,0.066517,-0.938414,0.760319,0.213043,-0.613618
0.146157,-0.608264,-0.934799,0.210372,0.538866,-0.815700
0.347705,0.413147,-0.948482,0.321822,0.150127,-0.934822
0.336311,0.520669,-0.952195,0.670442,0.039335,-0.740918
0.768373,-0.289616,-0.927275,-0.623874,0.717990,-0.308663
0.841780,-0.404635,-0.918441,-0.292156,0.348647,0.890556
0.115268,-0.133935,-0.387848,0.300158,-0.509841,0.806205
0.072151,-0.680235,-0.944419,-0.018795,-0.581135,0.813590
-0.410602,-0.013139,0.424829,0.833863,-0.521766,-0.180092
0.124788,-0.900733,-0.926542,0.430074,0.081786,0.899081
-0.013947,0.080206,0.114351,0.867726,-0.415372,-0.272979
0.187698,-0.721155,-0.962312,-0.100098,0.142202,0.984763
-0.282862,0.323117,0.877797,0.944608,0.210439,0.251854
0.115245,-0.963630,-0.937368,0.027487,0.715396,-0.698179
0.549146,-0.516286,-0.935933,0.592158,0.063882,-0.803286
0.712713,-0.408617,-0.932139,-0.061246,0.141329,0.988066
0.072954,-0.966466,-0.940908,0.259285,0.799945,-0.541165
-0.460061,0.144346,0.723775,-0.719378,-0.231338,0.654964
-0.351029,0.314367,0.800067,0.319304,0.926374,-0.199688
-0.327670,0.133266,0.525427,-0.415267,-0.908145,0.053161
0.170490,0.053001,-0.951294,0.973724,-0.209643,-0.088944
-0.170622,0.259642,0.321371,0.338449,0.623480,-0.704787
0.433537,-0.141619,-0.949996,-0.685095,0.499688,0.530053
-0.064759,0.287222,-0.001530,-0.363635,-0.931336,-0.019575
0.359901,-0.149739,-0.952406,0.084415,0.414802,0.905987
-0.520633,0.156500,0.785425,0.992804,-0.110651,-0.045788
-0.311574,0.242538,0.865371,-0.695869,0.646833,0.312047
-0.425221,-0.038833,0.544791,0.648337,0.241332,-0.722093
0.400012,0.402242,-0.975414,0.989499,-0.120737,-0.079463
0.189985,0.319932,-0.983992,0.208526,0.292365,-0.933295
0.279699,0.339564,-0.958211,-0.395795,-0.758263,0.518058
0.946472,-0.497633,-0.922187,0.652096,-0.371159,-0.661069
0.297109,-0.014769,-0.481781,0.755815,0.169748,0.632400
0.712224,0.391593,-0.950110,0.009821,0.022927,0.999689
0.043453,0.289777,0.559953,0.338296,0.086044,0.937098
0.367483,0.027409,-0.941699,-0.539089,0.197637,0.818732
0.277761,-0.245401,-0.969955,-0.049729,-0.186294,0.981235
0.356762,0.570899,-0.966912,-0.589002,0.280271,0.757974
0.664043,0.185062,-0.957863,0.022851,-0.965935,0.257775
0.655121,0.313089,-0.943151,-0.734050,-0.344463,0.585249
-0.184732,0.219589,0.926871,0.001419,-0.395329,0.918538
0.121855,0.124567,-0.960187,-0.009555,-0.722318,0.691495
0.268558,-0.601529,-0.922596,-0.097050,0.151781,0.983638
0.225118,-0.275656,-0.939468,0.151230,0.610775,0.777228
0.395353,0.402198,-0.970827,0.716309,-0.471207,0.514650
0.139080,-0.485346,-0.944535,-0.550989,-0.537406,-0.638440
0.502815,-0.170396,-0.948538,0.688048,-0.512926,0.513320
0.022130,0.236346,0.037759,0.647273,0.747073,0.151390
-0.004055,0.308195,0.412174,-0.236373,0.684473,-0.689655
-0.292398,0.253038,0.635098,0.367447,0.929987,-0.010343
0.311392,0.034991,-0.425112,0.834146,-0.383915,0.395991
0.401744,-0.750314,-0.924194,0.831773,0.000554,-0.555116
0.059707,0.394029,-0.139287,0.456661,0.011414,0.889567
0.176085,-0.447626,-0.949994,0.262054,0.182331,-0.947672
0.088568,-0.705384,-0.929102,-0.092715,-0.994484,-0.049055
0.564838,0.339286,-0.964451,-0.261946,0.537497,0.801550
0.517112,0.219001,-0.961610,0.425405,0.797727,0.427391
0.178788,-0.003404,-0.943428,-0.438385,0.289048,0.851041
0.857013,0.707001,-0.950013,0.324133,-0.383252,0.864902
-0.314449,0.406563,0.580441,0.221000,-0.943435,0.247164
0.742821,-0.195482,-0.930095,0.131512,0.044001,0.990338
0.818450,-0.326708,-0.936151,0.208111,0.169658,-0.963279
0.758039,-0.250958,-0.929208,0.497906,0.116809,0.859329
0.131451,-0.980411,-0.950744,-0.011882,-0.028293,0.999529
0.531347,0.206040,-0.960045,0.027195,0.905535,0.423398
0.002940,-0.195044,-0.973435,-0.607207,0.134072,0.783150
-0.511688,0.259066,0.829223,0.928174,0.310387,0.205313
-0.192190,0.169134,0.961141,0.042434,-0.169505,0.984615
0.110897,0.182881,0.641902,-0.026834,0.368296,0.929321
0.360174,-0.274492,-0.842030,-0.667402,0.713904,-0.211932
0.425326,0.572951,-0.978541,-0.155899,-0.545270,0.823636
-0.516145,0.289427,0.862040,-0.129391,0.005603,0.991578
-0.162972,0.038422,0.296447,0.489980,-0.862640,0.125584
-0.551866,0.309393,0.755269,-0.084922,-0.988230,-0.127237
-0.178790,0.151417,0.125992,0.009990,-0.345528,0.938355
0.941220,0.140560,-0.926741,0.748101,0.465469,0.472953
0.533571,-0.170716,-0.943698,0.216868,0.945635,-0.242368
0.243573,-0.189309,-0.522859,0.519705,0.853750,0.031907
0.751231,0.635509,-0.944048,-0.553280,0.142837,-0.820658
-0.181314,-0.264408,0.851210,-0.302788,0.385393,-0.871660
0.355118,-0.165424,-0.944593,-0.520676,-0.088610,0.849143
-0.050323,0.519699,0.694979,0.933813,-0.355134,-0.043276
0.535866,-0.519965,-0.915439,0.830708,0.295111,0.472052
0.959855,0.693726,-0.951438,0.213552,0.161544,0.963483
0.680218,0.602674,-0.949842,-0.110749,-0.735813,0.668067
-0.069031,0.054525,0.278000,0.916245,0.345899,-0.202112
-0.028348,0.233259,-0.029994,0.411171,0.034828,0.910893
0.079058,-0.947925,-0.921525,0.178897,0.454709,0.872488
0.291304,-0.011401,-0.375360,-0.315967,0.779541,0.540816
0.324972,0.245848,-0.967446,0.388460,0.246348,0.887925
-0.606377,0.370377,0.857139,-0.164336,0.019043,-0.986221
0.816213,0.701244,-0.929877,0.006656,0.373077,0.927776
0.381170,0.482409,-0.965560,0.991554,0.006074,-0.129553
0.269910,0.210911,-0.982576,-0.388210,0.210791,0.897140
-0.008716,0.236681,-0.208096,0.907520,0.392652,0.149102
0.856570,0.427370,-0.931429,-0.080560,0.995010,-0.058863
0.048404,-0.699879,-0.907901,-0.008376,0.041347,0.999110
0.376117,-0.458799,-0.926381,-0.710126,0.628452,-0.317443
0.432849,-0.596684,-0.917582,-0.268935,0.165213,0.948883
0.963863,-0.292663,-0.915870,0.972340,-0.075523,-0.221023
0.763190,-0.118085,-0.946132,-0.220600,-0.371002,0.902049
0.050088,0.320381,-0.985896,0.406568,0.162514,-0.899051
-0.325930,0.010437,0.603402,0.055701,-0.570487,0.819415
0.936462,-0.350770,-0.906636,-0.193465,-0.426088,-0.883754
-0.499301,0.313282,0.857503,-0.083201,0.506928,0.857963
0.354288,-0.242003,-0.913637,0.831392,0.490233,-0.261645
-0.151048,0.259062,0.296014,-0.268456,0.904369,0.331736
-0.487926,0.292273,0.557040,0.953349,0.300351,0.030253
-0.391090,-0.196234,0.907111,0.283060,0.926385,-0.248370
-0.353961,0.260832,0.852314,0.245183,0.415346,-0.875998
0.436955,-0.424274,-0.888107,0.933946,-0.322323,0.154442
0.687626,0.747260,-0.940553,0.472776,-0.326384,0.818509
0.248836,0.095203,0.519436,0.586578,0.808550,0.046618
0.231899,0.079936,-0.976759,-0.093495,-0.576193,0.811948
0.840299,-0.519669,-0.922501,0.131469,-0.345780,0.929060
0.918906,-0.414292,-0.919303,0.826428,-0.369847,0.424534
0.156922,-0.095144,-0.254193,0.037573,0.951601,0.305030
0.840750,0.254797,-0.875453,0.470099,0.864029,0.180170
-0.689051,-0.428275,0.670925,-0.359476,0.929602,-0.081345
-0.243715,0.057336,0.826255,0.835760,0.106088,0.538749
0.100622,0.169768,0.526269,0.546892,-0.716807,0.432548
-0.018510,0.325032,-0.123943,0.905872,0.383835,0.179070
0.457504,-0.200749,-0.939730,0.324336,0.208099,0.922768
-0.471146,0.004938,0.558536,-0.457541,-0.526395,-0.716634
-0.035362,0.296274,0.442622,0.340878,0.019785,-0.939899
0.189928,0.049659,-0.312576,0.581343,0.797148,-0.163080
-0.157858,-0.069286,0.165129,-0.342591,0.734007,-0.586400
0.433669,-0.143777,-0.946461,-0.633510,0.673456,0.380949
0.688493,0.522850,-0.952105,-0.151294,0.355310,0.922423
-0.260079,0.215679,0.903788,-0.667576,-0.696641,0.262741
0.553585,-0.658471,-0.910962,0.117276,0.100692,0.987982
-0.044273,-0.097482,0.386574,-0.224702,0.596968,0.770154
0.346345,-0.515669,-0.932138,0.440854,-0.896458,0.044843
0.224961,-0.300307,-0.942396,0.603208,0.187675,0.775189
-0.083360,0.453336,-0.077456,-0.411303,0.525439,0.744812
-0.372261,0.139417,0.811494,0.659518,0.668175,0.344352
-0.269917,-0.091244,0.692355,0.023172,0.999330,0.028323
-0.383671,-0.047040,0.593781,-0.455806,-0.338077,0.823374
0.194936,0.080266,-0.955140,0.465388,-0.828296,0.311994
-0.553985,0.024310,0.596132,-0.690574,0.615115,-0.380449
-0.172124,0.202666,0.732646,0.213626,0.312184,-0.925692
0.021367,-0.500184,-0.938564,0.286034,0.492973,0.821682
0.187706,-0.069041,-0.509175,-0.547108,0.555154,0.626480
0.065005,0.196649,0.375612,0.264929,-0.956240,0.124171
0.060975,0.608021,0.711262,0.945850,0.076992,0.315342
0.688177,-0.701732,-0.936482,-0.636104,0.760347,-0.131319
-0.231642,0.110197,0.984605,0.250521,0.310801,0.916866
0.967957,0.265731,-0.952343,0.943071,0.305358,0.131811
0.813313,-0.013878,-0.936355,0.328493,-0.048722,-0.943249
0.313769,0.042002,-0.966249,-0.773140,0.542840,0.327993
0.173774,-0.517906,-0.925599,-0.019223,-0.346069,0.938012
0.112818,0.243123,-0.007424,0.107547,-0.966314,-0.233819
0.261187,0.083320,-0.966190,0.604567,-0.670367,-0.430241
0.254547,-0.995368,-0.941841,0.056115,-0.614439,0.786967
0.850492,0.573779,-0.850242,0.541025,0.068300,-0.838229
0.509773,-0.459517,-0.911115,0.767738,-0.282122,-0.575314
0.486495,-0.355920,-0.947649,-0.147820,-0.467266,0.871672
0.178387,0.198634,-0.968250,-0.628419,0.046783,0.776467
0.081281,0.268489,-0.956299,-0.078254,-0.558363,0.825898
-0.001264,0.243345,-0.957261,-0.587823,0.514153,-0.624589
0.719839,-0.089297,-0.922620,-0.221836,0.830567,0.510830
0.194479,-0.040612,-0.458750,0.784738,0.616465,-0.064478
0.275772,0.134516,-0.304873,0.786224,0.454793,0.418348
0.845516,-0.083618,-0.922517,0.822333,-0.568902,-0.010872
0.680385,0.449848,-0.943364,0.977468,0.109957,0.180182
0.575250,0.444629,-0.971125,-0.047071,-0.163958,0.985344
0.301957,-0.041003,0.595072,0.131952,0.956672,0.259553
0.270638,-0.015809,0.508139,0.921759,-0.027971,-0.386754
-0.279801,0.307850,0.871819,0.536113,0.821993,-0.192121
-0.294503,0.103427,0.522860,-0.782485,-0.518491,-0.344796
-0.211743,-0.061730,0.785313,0.951845,0.064169,0.299790
0.701848,0.302910,-0.946796,-0.450326,-0.122549,0.884414
0.006771,-0.088731,-0.968647,0.776394,-0.062181,-0.627173
-0.055493,0.205022,-0.057258,0.777236,-0.616792,-0.124389
0.255033,0.011147,-0.966998,0.855292,-0.205633,0.475596
-0.229058,0.012058,0.793265,0.991357,-0.056686,-0.118312
0.973680,0.569769,-0.956565,0.818286,0.355535,-0.451668
0.411450,-0.539496,-0.881516,0.470642,-0.250017,0.846161
0.236789,-0.693075,-0.951559,0.877183,0.154373,-0.454664
-0.241650,0.080144,0.310816,-0.056402,-0.487147,0.871497
-0.500736,-0.090463,0.562661,0.813419,-0.276590,0.511711
-0.177435,0.029113,0.350176,0.491936,-0.844207,-0.212869
0.703260,0.221822,-0.934297,0.641708,-0.586125,-0.494639
0.382741,-0.137568,-0.546707,0.055455,-0.910941,0.408792
-0.128452,0.051349,0.742151,-0.090206,0.593779,0.799556
-0.252782,0.281236,0.957819,0.596410,0.564044,-0.571095
0.761278,0.512279,-0.948757,0.232387,-0.595406,0.769083
-0.187294,0.250074,0.791623,0.881637,-0.427363,0.200195
-0.394663,0.199599,0.830595,0.121684,-0.965696,0.229399
0.594662,-0.700330,-0.915267,0.004372,-0.426946,0.904267
-0.050369,-0.326638,0.421096,0.146481,0.323950,0.934666
0.732714,-0.271467,-0.941656,0.858940,0.454937,-0.235061
0.050131,-0.653696,-0.960093,0.385850,-0.003931,0.922553
0.304771,0.070301,-0.944568,0.040063,-0.110505,0.993068
-0.016670,0.074027,0.017656,0.333821,0.942392,0.021472
-0.005027,-0.781733,-0.949749,0.558628,0.421049,0.714599
-0.049694,0.187741,-0.045805,-0.703080,-0.699200,-0.129605
-0.166323,0.158611,0.284796,-0.670242,-0.630023,0.392233
0.906726,-0.105421,-0.945639,0.113156,0.376668,0.919411
0.678891,-0.484548,-0.951935,-0.126222,0.066015,0.989803
0.663605,0.780481,-0.935754,-0.406956,0.312983,-0.858154
0.081668,0.322139,-0.023900,-0.316039,0.930130,-0.187024
0.236137,-0.089895,-0.511347,0.822532,0.562137,0.086279
0.067718,0.568596,-0.963537,-0.505356,0.809784,-0.298103
0.744963,-0.643979,-0.932044,0.045624,-0.958923,0.279974
0.836058,-0.107759,-0.924960,0.386528,-0.907130,-0.166464
-0.495514,0.107420,0.597314,0.847107,-0.390869,0.360043
0.382459,0.266546,-0.953949,0.876044,0.091895,-0.473395
0.416579,-0.174282,-0.942234,-0.139705,0.875303,0.462955
0.110809,0.373859,-0.984199,-0.120556,0.367460,-0.922193
-0.468207,0.304432,0.825882,0.896656,0.305866,-0.320084
-0.393312,0.594431,0.699689,0.585038,-0.725882,0.361699
-0.303191,0.198260,0.763808,-0.356074,0.914492,0.192136
0.057029,0.338661,0.674344,0.915979,0.372193,-0.149851
0.111272,-0.092790,-0.952479,-0.183939,0.982589,0.026163
0.828188,0.594992,-0.940514,-0.169942,0.900403,-0.400492
0.388892,-0.299625,-0.918075,-0.627228,-0.758417,0.177171
-0.114807,0.427147,0.588623,0.666251,-0.705165,0.242592
-0.287895,0.382361,0.925152,0.397694,0.847011,0.352721
0.469898,-0.850631,-0.934514,0.168246,-0.876119,0.451785
0.204464,0.142886,-0.335019,0.082572,0.801799,0.591861
0.409919,-0.286995,-0.932173,-0.054413,-0.000428,0.998518
0.214719,-0.603870,-0.932262,0.646454,0.426662,0.632501
0.009764,0.322465,-0.185012,-0.550136,0.826146,-0.121791
0.650899,0.643832,-0.949963,0.145536,0.552208,-0.820906
0.426949,-0.254894,-0.874183,0.650756,0.385397,-0.654207
0.637683,0.649403,-0.943762,-0.350361,0.786852,-0.508046
0.645663,-0.266358,-0.857821,0.383880,-0.815686,0.432772
0.498231,0.125003,-0.973020,-0.685504,0.720055,0.107727
0.850808,-0.051633,-0.918306,-0.304709,0.739115,0.600717
0.817171,0.115305,-0.943463,0.563803,-0.766034,0.308738
0.171408,-0.022771,-0.939175,0.203884,-0.054188,-0.977494
0.589997,-0.684711,-0.941623,-0.367486,-0.260410,0.892827
0.576973,-0.593164,-0.935259,-0.263128,-0.259832,0.929113
0.072432,0.155914,-0.014027,-0.422106,0.586462,-0.691295
0.754885,-0.061194,-0.927547,0.476765,0.655880,0.585249
0.472323,-0.425927,-0.943314,0.887471,0.149027,-0.436103
-0.232516,0.082087,0.523270,-0.673706,-0.361074,0.644784
0.570620,0.638952,-0.955105,-0.528211,0.846298,-0.069087
-0.098398,0.078532,0.303791,0.545345,-0.665686,0.509373
-0.344415,-0.025179,0.438670,0.958692,0.093652,-0.268588
-0.377023,0.038738,0.481498,0.881997,0.430578,-0.191531
0.438168,0.589045,-0.980574,0.173977,-0.049954,0.983482
0.559138,-0.348848,-0.937668,-0.721615,0.620734,-0.306531
0.585375,0.352734,-0.958102,0.919369,-0.354296,0.170979
0.786414,-0.139473,-0.915767,0.379654,0.250422,-0.890591
-0.098106,0.200011,0.340793,-0.626308,0.596121,0.502373
0.828760,0.156773,-0.945431,0.067411,0.324554,0.943462
0.329236,-0.870617,-0.932220,-0.226840,0.839335,-0.494025
0.042220,0.112493,0.631864,-0.244379,0.241161,0.939212
0.269171,-0.047740,-0.299943,-0.757303,-0.615871,-0.217245
0.655299,0.590098,-0.953177,-0.307023,0.812035,0.496322
0.812465,0.190823,-0.964003,-0.298362,0.810113,0.504676
-0.107768,0.184793,0.223757,0.826080,-0.556047,0.091674
-0.046746,0.705180,0.827752,0.358007,-0.753832,0.550971
0.269303,0.083581,-0.425325,0.689133,-0.601764,0.403702
0.885602,0.597243,-0.958472,0.745625,-0.101429,-0.658601
0.489386,0.035088,-0.920393,-0.143771,0.694767,0.704719
-0.089651,0.101683,0.281798,0.907124,-0.395786,-0.143108
0.653546,-0.607891,-0.926888,0.168694,-0.534500,-0.828162
0.393028,-0.075546,-0.365536,0.746093,0.658497,-0.098619
0.627293,-0.179691,-0.912296,0.113405,-0.687796,-0.716991
0.594412,0.019546,-0.919384,-0.540228,0.583785,0.606093
0.371812,-0.077029,-0.960176,0.863152,-0.048698,-0.502590
-0.012187,0.200404,0.187909,0.881784,-0.451319,0.136995
0.149855,0.202974,-0.118876,0.855401,-0.216323,0.470630
0.536891,0.037643,-0.949589,0.248150,0.572727,0.781285
-0.047001,0.332993,0.193192,0.981798,-0.128931,-0.139460
-0.534209,0.198125,0.717306,0.780810,-0.040031,-0.623484
0.607251,0.286007,-0.942814,0.358821,0.465956,0.808785
0.492800,-0.192851,-0.903371,0.775115,0.251325,-0.579684
0.575408,0.259848,-0.927716,0.393889,0.153659,0.906223
0.269370,0.374829,-0.956981,0.366989,0.913098,0.177684
0.009701,0.233786,-0.986383,0.997354,-0.046160,-0.056163
0.903225,0.216390,-0.936205,-0.447110,-0.105769,0.888204
-0.115983,0.582752,0.456209,-0.614517,-0.772660,0.159265
-0.491863,0.265876,0.800545,0.963141,-0.127961,-0.236610
0.625938,0.436463,-0.946768,-0.532947,-0.111348,0.838790
0.903982,0.865602,-0.968813,-0.434086,0.657686,-0.615645
0.737544,-0.466687,-0.932532,0.059565,-0.585379,-0.808569
-0.316621,-0.082133,0.533716,0.251541,0.952000,0.174423
0.552549,0.051493,-0.947738,-0.085364,-0.240957,0.966774
-0.008122,-0.320953,0.422980,0.782777,-0.362478,-0.505835
-0.017504,0.184182,0.357410,-0.051155,-0.927588,0.370086
0.198214,0.094129,-0.384574,0.668461,0.665106,0.332857
0.411648,-0.650232,-0.943965,-0.621804,-0.629280,0.466225
-0.368490,0.020123,0.406932,0.619908,-0.746186,0.242735
0.812458,0.207902,-0.946581,0.242667,-0.140921,0.959820
0.225964,-0.045423,0.606333,-0.423824,-0.903073,-0.069512
0.202482,0.254392,0.513225,-0.409720,-0.909411,-0.071421
0.067645,0.223064,-0.967907,-0.690048,0.429662,-0.582430
0.363424,-0.109857,-0.702655,0.331223,0.941949,0.054994
0.243655,-0.568120,-0.947997,-0.015868,0.568090,0.822814
-0.145996,0.368302,0.929191,0.528003,-0.537339,-0.657632
0.408074,-0.041665,-0.962086,0.151972,-0.568206,0.808731
0.684391,0.000399,-0.954448,-0.103031,-0.202535,0.973840
0.456313,-0.676933,-0.931992,0.148759,0.952442,-0.265943
0.065051,0.403381,-0.061095,-0.217812,0.828537,0.515834
0.454722,-0.571833,-0.933537,-0.388945,-0.608278,-0.691896
0.767745,0.329270,-0.836821,0.714003,0.417959,0.561704
-0.227411,0.302921,0.874488,0.707567,0.210221,0.674653
0.774112,0.477337,-0.934662,-0.169219,-0.270715,-0.947670
-0.429918,0.286265,0.534254,0.202003,0.800796,-0.563844
0.035312,-0.140279,-0.954240,0.962783,0.268284,-0.032739
0.401180,0.145777,-0.959197,0.262307,-0.944456,-0.197983
0.426765,0.093273,-0.975602,0.152154,-0.615288,0.773479
0.597905,0.639539,-0.963823,0.645427,0.603028,-0.468809
-0.062952,0.197518,0.364111,-0.365665,0.930712,-0.008074
-0.355193,-0.043060,0.503629,0.861462,-0.361971,0.356174
0.125900,0.377528,-0.055646,-0.143416,-0.986141,0.083412
-0.157307,0.223818,0.376774,0.913433,-0.158383,0.374906
-0.045169,-0.689008,-0.943833,-0.822445,-0.189542,-0.536338
0.320944,-0.186381,-0.961770,-0.560517,0.641135,-0.524182
0.100529,0.175871,-0.288093,0.945373,0.130430,0.298761
0.110065,0.044071,-0.129327,0.714107,-0.700022,-0.004523
0.339179,-0.067949,-0.464367,0.413400,-0.893033,-0.177742
0.891312,-0.374023,-0.916111,0.156562,-0.020199,0.987462
0.009174,0.614079,0.646910,0.969682,0.244358,-0.002476
0.378994,-0.404591,-0.948842,-0.302233,0.815550,-0.493491
0.724344,0.769367,-0.946914,0.062620,0.893591,0.444493
0.768763,0.523119,-0.939646,-0.479494,-0.344967,-0.806897
-0.189428,-0.032126,0.382683,-0.418822,-0.778805,0.466959
0.697624,0.184526,-0.938072,-0.305825,0.745208,-0.592568
0.264876,-0.362290,-0.940170,0.805792,0.583108,0.103366
0.840912,0.195518,-0.950026,0.724011,-0.681812,-0.104595
-0.507712,-0.168744,0.621159,0.075401,0.769580,0.634083
0.812691,-0.317179,-0.936686,0.380204,0.421426,-0.823314
0.854635,-0.077589,-0.933109,0.017155,-0.075930,0.996966
0.080702,0.415221,-0.091415,0.802282,0.484033,-0.349365
-0.067876,0.272287,0.072702,0.353705,-0.624528,0.696317
0.453628,0.026885,-0.951552,0.852277,-0.406210,-0.329570
0.136072,-0.529459,-0.958654,0.342800,0.117649,-0.932012
0.103554,-0.092635,-0.336988,0.898914,0.437021,0.031090
0.484797,-0.332344,-0.880105,-0.371828,0.640354,-0.672079
0.481979,-0.170053,-0.902166,-0.495010,0.656890,0.568737
0.438058,-0.537750,-0.933265,-0.294472,-0.955642,0.005931
-0.423873,0.088979,0.869134,0.366655,-0.794825,0.483547
0.086848,0.138574,-0.184722,-0.637195,0.708782,0.302672
0.730331,0.120675,-0.966889,-0.289721,0.147532,0.945672
0.904268,0.634979,-0.939260,0.801915,-0.512455,0.307119
0.004299,-0.729085,-0.943352,0.805150,0.536196,-0.253430
-0.439798,0.276640,0.697208,0.704163,0.661971,0.256806
-0.333674,0.035491,0.724484,-0.588169,-0.526227,0.614119
-0.026561,0.322608,0.474059,-0.732046,-0.527250,-0.431411
-0.315798,0.291026,0.821407,0.129354,0.769884,-0.624937
0.673165,0.185832,-0.961747,-0.114732,-0.978588,-0.170884
0.530657,0.589065,-0.975947,-0.337781,-0.028865,0.940782
-0.104546,0.272802,0.363014,-0.589332,0.712570,-0.380698
0.084947,0.441301,-0.074743,0.849786,-0.306269,-0.429026
0.155540,-0.037998,-0.974217,0.117574,0.127994,0.984781
0.751423,-0.470645,-0.941460,0.025276,0.560866,0.827521
0.622245,-0.734144,-0.911638,0.613435,-0.676122,-0.408113
0.083025,0.109064,-0.982895,0.991531,-0.086356,-0.097000
0.500146,-0.583727,-0.946509,-0.080908,0.383376,0.920042
0.053935,0.664425,0.649218,-0.636723,0.769926,-0.042400
-0.126789,0.197878,0.325881,0.777784,0.611610,0.144861
0.344311,-0.589387,-0.933985,0.798492,0.416286,0.434875
0.072570,-0.234492,-0.970816,-0.492686,0.703450,-0.512268
0.116648,0.453244,-0.077294,-0.297219,0.898852,0.322066
0.805783,-0.075745,-0.914941,-0.206297,-0.698647,0.685079
0.468500,-0.532980,-0.957372,0.195184,-0.031610,-0.980257
-0.320448,0.256805,0.854571,0.366387,0.262551,-0.892652
0.107292,0.030746,-0.956109,-0.096876,0.812852,0.574357
-0.358266,0.058943,0.567448,0.273653,0.349755,-0.895983
0.739845,0.142237,-0.960052,0.624496,0.728399,-0.281851
0.285868,0.151290,0.590449,-0.055176,-0.911246,0.408150
-0.156767,0.115786,0.244205,-0.504371,-0.667736,-0.547484
0.273994,0.085638,-0.528785,-0.105823,0.871000,0.479750
0.480507,0.260368,-0.939001,0.124025,0.440425,0.889182
0.701711,-0.067953,-0.945543,0.947065,0.318360,0.041419
0.927684,0.641777,-0.949360,-0.624087,0.776933,-0.083006
-0.239474,0.167020,0.949514,-0.168901,-0.920626,0.352023
-0.627241,-0.301632,0.622798,-0.138145,0.977899,0.156939
-0.051871,0.556091,0.832338,-0.761210,0.496058,-0.417714
0.036946,-0.825367,-0.931203,0.892197,-0.436891,0.114502
0.959212,0.171619,-0.938623,0.902339,0.368967,0.222816
0.299791,-0.344548,-0.957835,-0.253211,-0.957945,-0.134999
0.171188,0.270526,0.576459,0.783449,0.621085,0.021465
0.048145,0.362065,0.372844,-0.817101,0.509283,0.270143
0.448391,-0.169907,-0.828459,-0.627921,0.769504,0.116531
-0.254523,0.076786,0.913528,0.741345,0.475103,0.474010
0.554508,0.516649,-0.957587,0.365133,0.918436,0.152164
-0.430796,0.180285,0.847215,0.431676,-0.781289,0.450825
0.322865,-0.311819,-0.955835,0.665386,0.504753,-0.549988
-0.086417,0.201210,0.040040,-0.397073,0.878331,-0.266208
0.044832,0.064110,-0.049795,0.601103,-0.798401,0.035093
0.368977,-0.158740,-0.680246,-0.238286,-0.970811,-0.027293
0.061504,0.232184,-0.975825,0.880102,-0.467201,0.084520
0.530395,-0.141428,-0.950837,-0.045191,-0.566234,0.823005
0.905167,-0.207201,-0.932267,0.502180,0.476414,-0.721696
0.029829,-0.139960,-0.978194,0.281815,-0.077076,-0.956368
0.302499,0.457260,-0.962544,0.014673,-0.607897,0.793880
0.580983,0.256448,-0.961982,-0.679916,-0.368045,0.634238
0.180632,0.065099,-0.314574,-0.513559,-0.840205,0.174104
-0.191111,0.192540,0.872590,-0.520926,0.840801,0.147272
0.094796,0.315381,-0.970102,-0.717492,-0.450525,0.531256
0.317496,0.421928,-0.946445,0.382956,-0.165973,-0.908734
0.093271,0.150403,-0.118157,0.294255,0.820159,-0.490666
-0.129273,-0.339043,0.847694,-0.512455,0.856814,-0.057097
0.795209,-0.123392,-0.930234,0.347819,0.031901,0.937019
0.517403,0.275821,-0.965956,0.984097,-0.069938,-0.163283
0.138691,-0.499197,-0.956596,0.379031,0.268970,-0.885432
-0.506930,0.208045,0.784359,0.261631,0.937843,0.228035
-0.198260,0.366598,0.911281,-0.276257,0.518518,0.809210
-0.125913,-0.096551,0.382287,0.383931,0.883385,-0.268751
-0.006509,0.197300,-0.040003,-0.282424,0.949904,-0.133858
-0.360339,0.012120,0.431945,-0.587756,0.685484,-0.429715
0.597266,-0.444865,-0.918939,0.894372,-0.434577,-0.106029
0.919883,-0.091484,-0.940839,0.742017,0.366667,0.561219
0.852871,0.176989,-0.930335,0.975448,0.085047,-0.203144
0.220498,0.057744,-0.348925,0.534792,0.563554,-0.629607
0.285561,-0.494510,-0.926843,0.117825,0.618944,-0.776547
0.664839,0.302566,-0.947743,0.281363,0.481080,0.830299
0.312396,-0.005721,0.616745,-0.722659,0.454016,-0.521185
0.527331,0.416226,-0.944720,0.527185,-0.323849,-0.785620
-0.587284,0.471118,0.875810,0.400440,-0.599366,-0.693115
0.495990,0.599919,-0.949496,0.052009,-0.997841,-0.040107
0.463638,-0.864909,-0.951412,0.319505,-0.521789,0.790982
0.082628,0.211477,0.699175,0.760114,-0.593605,0.264310
0.108304,0.435724,-0.131847,0.725200,0.462592,-0.509994
0.429340,0.278709,-0.958617,0.889059,-0.282383,-0.360326
0.270712,0.043660,-0.325447,0.936077,0.191579,-0.295053
0.704169,-0.731871,-0.915970,-0.484737,0.373503,-0.790902
-0.333324,0.106667,0.836543,0.596952,0.008590,0.802231
0.520214,0.042550,-0.900068,0.384380,0.709123,-0.591097
0.788434,0.630166,-0.954342,0.622580,-0.203877,0.755532
0.912886,-0.319954,-0.921828,0.254603,-0.457453,-0.852006
0.186595,-0.202072,-0.450833,0.855599,0.408310,0.318173
0.342121,0.154083,-0.962111,-0.258056,0.372099,0.891599
-0.085679,0.300713,0.276426,0.909246,0.162790,0.383107
0.384857,-0.514670,-0.920904,0.046479,-0.035165,-0.998300
0.662060,0.091549,-0.947418,0.782384,0.614955,-0.098522
0.090662,-0.566019,-0.933924,-0.018042,-0.355544,0.934485
0.412930,-0.401265,-0.937211,0.859807,0.401216,0.315844
0.012619,0.366475,0.037363,0.804043,0.388999,0.449659
0.241149,0.018151,-0.260904,0.793159,-0.467641,0.390142
0.260574,-0.871118,-0.933122,0.161456,-0.251140,0.954390
-0.247550,0.235383,0.959881,0.484300,0.362309,-0.796358
0.447444,0.632985,-0.957076,0.752700,0.060448,0.655582
0.745847,0.566809,-0.866559,-0.691670,0.336203,-0.639187
-0.961697,-0.369527,0.762958,0.957828,-0.287240,0.007614
0.836905,0.653544,-0.948491,0.992643,0.033986,-0.116208
0.059763,0.101922,-0.960858,0.581408,-0.163387,0.797038
0.196379,-0.372376,-0.957471,-0.657047,0.113529,-0.745252
0.945101,0.811123,-0.928573,0.375251,0.787181,0.489422
-0.238305,0.008128,0.848574,0.988116,-0.108084,-0.109289
0.513130,-0.459891,-0.937496,0.832063,0.068578,0.550425
0.003846,0.127523,0.068854,0.984415,0.162087,-0.068231
0.590389,-0.081616,-0.951204,-0.356840,0.669532,0.651453
-0.304732,0.050219,0.603998,-0.205699,0.718022,-0.664930
0.630980,-0.276269,-0.866949,0.403441,-0.903223,0.146364
-0.329747,0.275777,0.600198,0.456703,0.592325,-0.663758
0.152999,0.076651,-0.274452,-0.271819,0.942081,-0.196465
0.475778,-0.280521,-0.904086,-0.083002,0.988911,-0.123153
0.410990,0.486861,-0.957873,0.152816,0.259386,0.953607
0.295293,0.476862,-0.953634,0.067166,-0.791970,0.606854
0.298173,-0.096599,-0.942275,-0.114995,-0.745965,0.655982
-0.123760,0.473537,0.609883,-0.196480,-0.951003,-0.238723
0.591968,0.680156,-0.962260,0.670677,0.678182,-0.300436
-0.275061,0.090025,0.385998,0.809573,-0.162385,-0.564112
0.317952,0.115886,0.572271,0.782452,-0.394119,0.482120
0.899647,-0.197905,-0.928271,0.627418,-0.123172,-0.768880
0.354683,0.017515,-0.980148,0.031191,0.028590,0.999104
0.057801,0.391318,-0.980585,0.585876,-0.490893,0.644805
-0.203454,-0.061501,0.431833,0.890483,0.424265,0.164436
-0.351009,0.201786,0.509794,-0.695770,-0.645332,0.315359
0.361771,-0.172747,-0.938749,0.784861,0.167320,-0.596656
0.644467,0.283950,-0.951623,-0.223691,0.122792,0.966894
0.909868,0.132973,-0.921435,-0.097593,0.283634,0.953953
0.254366,0.061545,-0.399597,0.787324,-0.461783,-0.408506
0.828191,-0.332891,-0.919021,0.834679,-0.455388,0.309731
0.801224,0.725578,-0.848666,0.154986,-0.165716,0.973919
0.288414,-0.500362,-0.957655,0.299467,-0.283255,0.911091
0.306103,-0.089703,-0.947885,0.842381,-0.044231,-0.537064
-0.556555,0.285666,0.858166,0.276623,0.158715,0.947781
-0.165649,-0.071280,0.381692,0.575747,-0.401618,0.712193
0.269023,-0.606604,-0.941359,0.274180,-0.545375,-0.792080
0.819715,0.473309,-0.947184,0.710695,-0.052841,0.701513
0.395805,0.320191,-0.947074,0.736118,-0.070299,-0.673193
0.354596,0.116863,-0.981374,0.148136,0.240057,0.959390
0.604135,-0.837070,-0.931989,-0.200170,0.950082,0.239326
-0.132904,-0.318409,0.890249,-0.613731,0.530766,0.584484
0.739842,-0.270280,-0.919633,-0.496044,-0.204957,-0.843761
0.371747,0.005843,-0.943743,0.991608,-0.005370,-0.129168
0.389586,0.520135,-0.964794,-0.343063,0.108622,0.933011
0.081868,0.176279,-0.137322,0.479390,0.015693,0.877462
0.489780,0.385258,-0.953421,-0.443279,0.889124,-0.113851
0.680905,-0.451871,-0.917347,0.765040,-0.339239,0.547385
0.004898,0.058793,-0.043291,-0.012550,-0.888144,0.459393
-0.158384,0.255810,0.155971,-0.767693,0.619797,0.162787
0.740558,-0.315851,-0.924556,0.839995,-0.347500,0.416716
0.365686,0.176125,-0.956706,0.324959,-0.624126,-0.710541
0.007912,-0.661849,-0.963621,-0.172346,-0.205526,0.963357
0.388911,-0.817091,-0.935588,-0.223655,-0.281169,0.933232
0.627951,-0.480539,-0.931025,0.072699,0.453856,-0.888105
0.305446,0.077615,0.578740,0.831232,-0.238178,0.502320
-0.325112,-0.134112,0.808574,0.968378,0.037121,0.246711
0.390403,-0.292982,-0.946383,0.232406,0.659897,0.714509
0.709859,0.458372,-0.968450,-0.247496,0.362869,0.898372
-0.242499,0.244605,0.315640,-0.550111,0.650604,-0.523538
0.443307,-0.453293,-0.950532,0.974790,-0.159437,-0.156088
-0.049086,0.104779,0.714952,0.866367,0.208421,0.453838
0.147847,0.086440,-0.188350,0.982743,0.168543,0.076215
0.253861,-0.384592,-0.931929,0.598515,0.760207,-0.252718
0.096266,0.168974,-0.068223,-0.601327,0.790452,-0.116584
0.173108,-0.711038,-0.928646,-0.377652,-0.073930,0.922992
0.325693,0.523832,-0.954311,-0.488154,0.870353,-0.064746
0.182375,0.256173,-0.951243,-0.010378,-0.288619,0.957388
0.367406,-0.008796,-0.947437,0.999871,-0.002999,0.015794
-0.386654,0.275336,0.763593,-0.181801,-0.800433,0.571188
-0.226667,0.027713,0.791373,0.771902,-0.159410,0.615431
0.408772,-0.066013,-0.756364,0.197123,-0.975132,0.101290
0.241760,-0.116227,-0.967700,0.283811,0.508534,0.812923
0.158525,0.279981,-0.071828,-0.950060,0.233845,0.206648
0.567165,-0.251037,-0.906425,0.451284,-0.354441,0.818971
0.539589,0.502000,-0.964356,-0.421413,-0.771030,0.477413
0.506389,0.402673,-0.959482,0.545340,-0.502914,-0.670583
0.016314,0.227227,-0.079743,-0.008036,-0.550077,0.835075
-0.109011,0.104260,0.132296,0.137243,0.437225,0.888819
-0.462799,0.063403,0.475531,-0.690537,-0.691287,-0.212796
0.729100,0.676424,-0.953555,0.312565,-0.440424,0.841624
0.185682,-0.062017,-0.905761,0.951490,0.092303,-0.293509
0.494276,-0.468239,-0.920757,-0.317281,0.549173,0.773138
0.875105,-0.054685,-0.940509,0.072156,0.595484,0.800120
-0.298543,0.081602,0.409049,-0.602942,-0.601072,-0.524570
-0.524535,0.003026,0.568283,0.628127,0.465256,0.623694
0.707407,0.008265,-0.935966,-0.456874,0.451012,0.766717
0.454007,-0.611809,-0.918295,-0.196119,0.565143,0.801343
0.219307,-0.214081,-0.972916,-0.240646,-0.011172,-0.970549
-0.049778,-0.153129,0.395859,0.098005,0.898305,0.428302
-0.262986,-0.062773,0.483884,-0.172068,0.904944,0.389190
-0.378978,-0.038987,0.515986,0.858713,0.463909,0.217717
0.931599,0.840745,-0.939927,-0.568073,0.809138,0.150297
0.545173,-0.300163,-0.931377,0.295929,0.220691,0.929366
-0.554676,0.169200,0.883703,0.957931,0.241284,0.155401
0.601411,0.266059,-0.982367,0.778042,-0.213837,-0.590699
0.796373,-0.520654,-0.917771,-0.554795,0.721820,-0.413738
0.036205,0.058084,-0.958003,0.257549,0.460222,0.849626
0.256896,-0.285585,-0.445680,-0.557683,0.600871,0.572664
0.779573,0.219558,-0.939698,-0.626876,-0.135719,0.767207
0.800403,-0.517733,-0.934339,0.093853,-0.630290,0.770666
-0.291540,-0.049375,0.423830,0.072347,0.959271,0.273066
0.245801,-0.286605,-0.937120,-0.573124,0.241481,-0.783081
0.472843,0.256082,-0.954617,0.987655,0.156635,0.001993
-0.205417,0.031671,0.738731,0.052409,0.633204,0.772208
-0.341371,0.273991,0.544089,-0.421815,-0.647275,0.634907
0.422250,-0.144479,-0.931107,0.065313,-0.614420,-0.786271
-0.265515,-0.060010,0.148820,-0.137648,0.957631,0.252974
-0.518400,0.286986,0.585112,0.081536,-0.990616,0.109686
-0.262008,0.335955,0.614465,-0.521855,0.805087,-0.281962
-0.431276,0.126686,0.613828,-0.645017,0.476217,-0.597637
0.186071,0.308184,-0.971019,0.839892,-0.384430,0.383140
0.962601,-0.012871,-0.944730,0.955380,-0.236355,0.177161
-0.455096,0.232053,0.557931,0.933772,0.007972,0.357781
0.850881,-0.359205,-0.922583,0.560478,0.078507,-0.824440
0.209664,-0.343650,-0.927025,-0.381261,0.420247,0.823427
0.507754,0.567566,-0.971019,0.194357,0.665346,-0.720791
0.278483,0.082860,-0.941677,0.213695,-0.086544,-0.973059
0.362146,-0.332550,-0.924332,0.934682,-0.348860,0.068317
-0.020328,0.657340,0.679965,0.304188,-0.621300,0.722119
0.823452,-0.219279,-0.927238,0.313159,-0.442230,-0.840454
-0.292858,0.267499,0.946832,-0.655239,0.446447,-0.609382
-0.473160,0.037171,0.914290,0.486979,0.835234,-0.255414
0.358773,0.156553,-0.973522,0.920243,0.358341,0.157303
-0.083698,-0.781962,-0.924046,0.579445,0.018114,-0.814810
-0.534595,0.303170,0.701906,0.837687,-0.246128,-0.487547
0.311240,-0.115542,-0.952614,-0.628996,0.435586,0.643916
-0.298305,0.074120,0.619443,0.873556,-0.034975,0.485465
0.423059,-0.139026,-0.360447,0.909149,-0.008186,0.416392
0.108827,-0.972016,-0.938054,-0.044606,-0.781106,0.622803
0.658624,-0.692527,-0.931129,-0.780556,-0.616032,-0.106005
0.262838,0.030896,-0.987298,0.159519,0.283723,0.945545
0.813367,0.360506,-0.936202,0.745845,-0.615081,-0.255716
0.385146,-0.588768,-0.946532,-0.758277,0.224897,-0.611913
-0.054725,0.162817,0.271469,0.233427,0.970597,-0.058773
0.080402,0.593961,-0.042874,0.574440,-0.778851,-0.251811
0.326678,0.490728,-0.975740,-0.144158,-0.479432,0.865658
-0.294779,-0.056359,0.617814,-0.666821,0.604624,-0.435636
0.073614,0.506283,-0.955798,0.066575,-0.183970,0.980675
0.500184,-0.272636,-0.912501,-0.044911,-0.989859,0.134770
-0.347737,-0.110788,0.683855,-0.589453,-0.776067,-0.224201
0.725262,0.240348,-0.960551,-0.530207,-0.253445,0.809102
0.837009,0.413397,-0.851077,0.187400,0.556739,0.809273
0.704761,0.661656,-0.946457,0.444530,-0.621295,-0.645280
-0.104996,-0.033301,0.726603,0.027566,-0.968498,-0.247489
0.266848,-0.171374,-0.958592,0.740003,0.370084,-0.561635
0.486622,0.564805,-0.972184,0.496381,0.544386,-0.676202
0.823040,-0.443879,-0.923156,-0.479248,0.197083,0.855266
0.196032,-0.051857,-0.443492,0.687169,0.698008,0.201456
0.729324,-0.420879,-0.937304,-0.107880,0.326621,-0.938979
0.289899,-0.743543,-0.936830,0.736843,-0.382444,-0.557494
0.504806,0.061170,-0.953380,0.834692,0.043499,-0.548997
-0.013941,-0.175623,0.404817,-0.486718,0.631064,0.604039
0.300200,0.003213,0.567489,-0.584492,-0.797414,-0.150002
0.282297,0.479186,-0.959782,-0.499178,-0.809364,0.309436
-0.326966,-0.044927,0.523621,-0.507113,-0.676654,-0.533832
0.293584,-0.451753,-0.953564,0.568097,0.590047,0.573682
0.632234,-0.680562,-0.925744,-0.141593,-0.265185,0.953744
-0.238464,0.125339,0.360613,0.731082,0.520618,0.440993
0.957823,-0.137847,-0.923340,-0.755832,0.638221,0.146259
0.099014,-0.677800,-0.949022,-0.178627,0.870469,-0.458667
-0.267045,0.033505,0.533490,0.220349,-0.563834,0.795951
-0.376392,0.039409,0.807372,-0.235928,0.930106,-0.281496
0.059054,0.041701,0.324905,-0.242909,0.969900,-0.016987
0.718581,0.780224,-0.961067,-0.404310,0.777638,0.481469
0.256446,-0.949322,-0.940861,-0.254620,0.369137,-0.893816
-0.182699,0.173017,0.717723,-0.476115,0.495763,-0.726315
0.082396,0.431148,0.401964,0.024407,0.930324,0.365925
0.264745,-0.054474,-0.956744,0.056821,0.016466,0.998249
0.733663,0.248167,-0.827426,0.838976,0.140485,0.525722
0.831039,0.088431,-0.947631,-0.503367,-0.843075,-0.189330
-0.296550,0.032524,0.382275,0.874998,-0.164900,0.455178
0.526880,0.717307,-0.977553,0.201513,0.831106,-0.518321
-0.235739,0.198141,0.843520,-0.560223,0.814858,-0.148851
0.331071,0.483074,-0.975597,0.206810,-0.439715,0.874003
-0.248961,-0.005202,0.370347,-0.450779,-0.832867,-0.321141
0.484647,-0.082841,-0.744061,-0.422125,-0.893336,-0.154148
0.909547,-0.340032,-0.940151,0.380916,0.428768,-0.819183
-0.189685,-0.218397,0.830794,-0.340920,0.839025,0.424041
0.715209,-0.308358,-0.941052,0.248958,0.144504,0.957674
0.273197,-0.756612,-0.927195,-0.317298,-0.665814,0.675288
-0.005905,0.245956,0.002597,0.050716,-0.995359,0.081781
0.407962,0.060779,-0.923628,0.727486,0.113239,-0.676713
0.278663,0.101538,-0.958299,-0.449864,-0.000264,-0.893097
0.129793,0.151218,-0.958316,0.028527,-0.619641,0.784366
0.092415,0.188459,-0.197113,-0.609727,-0.649980,-0.453608
0.789140,0.608881,-0.938344,-0.544298,-0.802407,-0.244710
0.810314,-0.314160,-0.928910,-0.249594,0.308227,0.917986
-0.178874,0.127996,0.386497,-0.039463,0.996436,-0.074549
-0.172686,0.187209,0.385371,0.245868,0.008506,0.969266
0.492560,0.234301,-0.942949,-0.664761,-0.059942,-0.744647
0.902649,0.246332,-0.953325,-0.476517,0.878398,0.036724
0.509007,0.412157,-0.946865,0.155523,-0.551845,0.819317
-0.113533,0.203455,0.254511,-0.677720,0.652366,-0.339285
0.277247,-0.059108,-0.539650,0.702719,-0.508975,0.497121
0.756457,0.408644,-0.949524,-0.280151,0.441894,0.852200
0.814404,-0.099316,-0.944526,0.376488,0.162262,-0.912101
-0.302062,0.226564,0.855141,0.490455,0.626145,-0.606133
0.202513,-0.029878,0.678109,-0.310099,-0.938838,-0.149738
0.167457,0.004301,-0.971303,0.204589,-0.439186,0.874791
0.579225,0.659445,-0.946581,-0.740840,0.446475,0.501813
0.427340,-0.297363,-0.381477,0.092267,-0.995669,-0.011401
-0.296861,-0.060045,0.439943,-0.041945,0.993925,0.101754
0.084890,0.308039,-0.065595,0.637295,-0.669535,-0.381547
0.581196,0.575348,-0.933323,0.773543,0.214821,0.596224
0.404914,0.437317,-0.965392,0.661087,0.510142,-0.550199
1.000000,0.718458,-0.951723,0.960674,0.197593,0.195097
0.349314,0.454197,-0.975013,-0.080105,0.743781,0.663607
0.764918,0.239768,-0.939010,0.231679,0.148881,0.961332
-0.098306,0.064831,0.272951,0.833782,0.315574,-0.453014
0.446000,0.460180,-0.958069,-0.209307,0.104808,-0.972217
0.210811,0.607108,-0.951152,0.016840,0.999856,0.002077
0.212023,-0.625861,-0.954111,0.563608,0.508603,-0.650899
