0.101556,0.495094,0.668571,-0.613600,0.717235,0.330256
0.629389,-0.421469,-0.671293,0.630901,-0.771780,-0.079494
0.000484,0.180219,0.494518,-0.564438,0.823213,-0.061077
0.939326,-0.467006,-0.911852,0.722228,0.411081,0.556237
-0.462459,-0.071540,0.627564,0.177977,-0.052889,0.982612
-0.522826,-0.567908,0.077273,-0.068950,0.974040,0.215622
-0.316770,0.123640,0.926047,0.827567,0.293410,0.478584
0.966568,-0.597506,-0.920850,-0.541358,0.834718,0.100885
-0.602856,0.316303,0.659459,-0.198313,-0.755341,0.624605
0.538214,-0.703992,-0.944858,0.077424,-0.967089,0.242372
-0.347409,0.036550,0.806455,0.217421,0.861288,0.459252
0.323429,-0.560361,-0.954312,-0.252896,-0.276285,0.927206
0.148601,-0.034274,0.763508,-0.232867,0.949593,0.209871
-0.381550,-0.096070,0.601423,-0.711452,0.669651,-0.213080
-0.420726,0.007425,0.631323,0.491643,0.272915,-0.826924
0.558096,-0.325231,-0.953034,0.476676,-0.115458,-0.871464
-0.004354,0.173894,0.585829,0.732373,-0.605124,-0.312177
-0.307393,-0.216258,0.945609,0.689557,0.641149,0.336808
0.299887,-0.078966,0.008032,0.741261,0.505862,0.441176
-0.468947,-0.377849,0.742790,0.733078,0.054011,0.677996
-0.341359,0.185303,0.882422,0.926224,0.106796,-0.361531
-0.018778,0.033691,0.607015,-0.542261,0.078612,0.836524
0.637731,-0.310709,-0.290395,-0.383574,-0.923350,-0.017229
-0.014470,0.137974,0.391239,-0.319323,-0.712411,-0.624902
-0.003910,0.218150,0.471776,0.982179,0.167106,0.086020
0.397999,0.300393,0.729496,-0.694699,-0.629165,-0.348633
0.643026,-0.233246,-0.521182,0.841629,-0.071930,-0.535244
0.396191,-0.083242,-0.979704,0.717544,-0.388036,-0.578410
-0.071671,-0.552830,0.611765,0.574834,-0.811391,0.105879
0.820413,0.307111,-0.275612,-0.167497,-0.079119,0.982693
0.466645,-0.184769,-0.054157,0.911521,0.409418,-0.038798
-0.598331,-0.475249,0.683239,0.048308,0.589653,0.806210
-0.062299,0.119521,0.692124,-0.680968,0.550203,0.483280
-0.172283,0.326291,0.653184,-0.695004,-0.716158,0.063925
-0.057382,0.145420,0.659169,0.767405,0.158290,-0.621317
-0.177988,0.842218,0.728163,-0.620749,-0.139896,0.771427
0.256683,-0.081434,-0.970303,-0.271447,-0.657330,0.703018
0.698438,-0.211354,-0.950666,0.028066,-0.055923,0.998041
0.649753,-0.357166,-0.934574,0.941669,0.126812,-0.311735
-0.353100,0.412026,0.680640,-0.329712,0.939788,0.089933
0.139425,0.222344,0.381811,-0.348591,0.722538,-0.597011
0.164162,0.490011,0.795036,0.999239,-0.033212,-0.020434
-0.356186,-0.041286,0.842272,0.866637,-0.498637,-0.017370
-0.619666,-0.347638,0.683648,-0.331731,0.639126,-0.693882
0.060897,0.192772,0.752644,-0.102342,0.275169,0.955933
0.098362,-0.685727,0.663448,-0.435397,-0.876303,-0.206210
0.335589,-0.186994,0.028933,-0.167987,-0.536211,0.827199
0.170817,0.182236,0.505805,0.744926,0.044008,-0.665694
-0.524274,-0.738651,0.684017,-0.502888,0.056143,-0.862526
0.580615,-0.256330,-0.331599,0.823750,0.184459,0.536108
0.592844,-0.712796,-0.946154,0.862820,0.413747,0.290441
-0.017546,-0.658078,0.723438,0.771963,0.563854,0.293500
0.848137,-0.589130,-0.941617,0.643074,0.446841,-0.621924
0.078637,0.015890,0.524904,0.952153,0.272101,-0.139163
0.014455,-0.620673,0.621648,-0.261427,0.522274,0.811718
-0.117821,-0.125778,0.495378,0.278217,0.842529,0.461238
-0.079153,0.368959,0.709247,0.069582,0.657981,0.749813
-0.132226,0.597492,0.392366,-0.541061,0.840877,0.013386
0.470519,-0.273119,-0.505780,-0.025920,-0.994283,0.103582
-0.558353,-0.505153,0.689637,0.103146,-0.913053,0.394583
-0.044734,0.498028,0.670468,0.021584,-0.741358,0.670763
0.317959,-0.165990,-0.030571,0.700990,-0.683730,-0.202797
0.097196,-0.455914,0.621797,0.809501,-0.276600,-0.517880
-0.213019,0.171370,0.731223,0.742467,0.366300,0.560862
0.068359,0.191879,0.579294,0.444568,-0.836821,0.319516
0.118106,0.058586,0.498296,-0.039992,0.841589,0.538636
0.056401,0.056430,0.536859,0.886250,0.463173,-0.005682
0.079585,0.322518,0.511644,-0.187997,-0.904143,-0.383645
-0.384035,-0.200355,0.643354,-0.398603,0.814874,-0.420828
-0.408080,-0.247571,0.575575,-0.182344,0.636086,0.749764
0.185557,0.146651,0.376131,0.012314,-0.130696,0.991346
-0.658637,0.452941,0.829043,-0.161751,0.271892,-0.948637
0.002361,0.295495,0.584920,-0.556648,0.825194,-0.095907
-0.526464,-0.619658,0.095860,-0.068950,0.974040,0.215622
0.020016,0.191705,0.694629,0.894003,-0.421059,0.153190
0.556650,-0.234035,-0.334576,-0.570639,0.297592,-0.765383
-0.015100,0.601284,0.731146,-0.757109,-0.171066,-0.630494
-0.238986,0.035500,0.804732,0.724449,0.571581,-0.385316
0.441409,-0.279985,-0.960371,-0.350657,-0.113949,0.929546
0.423462,-0.108797,-0.180273,0.554588,-0.794861,-0.246227
-0.186964,0.113325,0.685017,0.906152,0.410638,-0.101314
-0.191734,0.290623,0.798152,0.064639,0.145958,0.987177
0.579365,-0.261268,-0.503119,0.500478,0.856193,0.128279
0.833031,0.274629,-0.244895,0.752940,-0.576719,-0.316979
0.256129,0.477930,0.682493,0.807401,-0.204438,0.553451
0.275253,0.099983,0.501830,0.420142,0.460756,-0.781783
-0.235045,-0.234398,0.782276,0.606706,0.760221,-0.232316
0.330904,0.468853,0.648138,0.949745,0.296678,0.099836
0.166522,-0.010273,0.438635,0.619709,0.767808,0.162580
0.094077,0.656753,0.346198,-0.171597,0.101314,0.979944
0.377767,-0.191569,-0.047962,0.883239,-0.101787,-0.457742
0.158731,0.197612,0.380714,-0.345543,0.754589,-0.557850
0.146025,-0.590878,0.624068,-0.330713,0.060337,0.941800
-0.050545,-0.171233,0.919566,0.043963,0.108742,0.993097
0.659442,0.359486,-0.263573,0.708032,-0.011125,-0.706093
-0.448791,-0.503283,0.684663,-0.777062,-0.551894,0.302635
0.404250,-0.225561,-0.151804,0.676314,0.728578,-0.108503
0.259870,-0.194080,-0.969091,-0.236114,0.550660,0.800639
0.104069,0.170398,0.507869,-0.068642,0.886709,0.457204
-0.059190,-0.335775,0.689390,0.659994,0.744173,0.103025
0.048191,0.022735,0.448487,0.664264,0.678293,0.314120
-0.195859,-0.576567,0.706708,-0.261369,-0.744472,0.614368
0.487046,-0.261616,-0.945092,-0.182737,-0.253298,0.949972
0.525008,-0.211799,-0.392037,0.730527,0.667783,0.142812
0.602298,-0.486115,-0.936697,-0.674478,0.109792,0.730086
-0.152540,0.292193,0.643352,-0.595074,0.114632,-0.795453
-0.428477,-0.502659,0.696369,0.145084,0.782501,-0.605510
0.348324,-0.158172,-0.959817,0.663326,0.659442,-0.353744
0.287869,-0.349743,-0.967830,0.871460,0.083514,0.483303
0.071805,-0.008397,0.761489,0.185786,-0.398227,0.898275
0.379141,-0.488350,0.032790,0.872782,0.421819,0.245602
0.149561,-0.063740,0.542872,-0.156369,0.063427,-0.985660
0.492193,-0.573680,-0.948829,-0.444467,-0.040187,0.894893
0.198896,-0.427491,-0.962083,0.700250,0.411201,-0.583578
0.292744,0.385602,0.545730,0.698932,0.653517,0.290533
-0.466709,0.731588,0.644516,0.304133,0.915871,-0.262075
-0.154752,0.760157,0.721735,0.984318,-0.134860,0.113711
0.191699,0.039988,0.558989,0.499132,0.416192,-0.760034
0.602979,-0.274150,-0.628999,0.690559,0.688660,-0.221077
-0.362238,0.353906,0.735179,-0.245538,-0.025680,0.969047
0.498855,-0.137258,-0.185520,0.533497,0.475250,-0.699656
0.471126,-0.211161,-0.411697,0.990923,0.113413,-0.072177
-0.111444,0.293012,0.251944,0.779396,0.600882,0.177432
-0.117798,0.357442,0.753603,0.858081,0.482514,-0.175721
0.658391,0.056492,-0.197845,0.003782,-0.945400,0.325891
0.608172,-0.572369,-0.945157,-0.316444,0.801969,-0.506665
0.322418,0.726098,0.621062,0.870464,0.400764,0.285800
-0.244655,0.498123,0.701498,-0.813613,0.526193,-0.247295
0.518184,-0.296446,-0.347081,0.262430,0.918261,-0.296525
0.148963,0.907714,0.599960,-0.271039,-0.643845,0.715543
-0.520603,0.439887,0.754248,-0.742647,0.669619,-0.009250
-0.488102,-0.407022,0.749808,0.359783,0.146397,-0.921479
-0.408092,0.360092,0.767589,0.176111,0.869210,0.462015
0.379894,-0.144843,0.009515,0.242185,0.724402,0.645437
-0.313768,-0.356248,0.639391,0.855908,0.417841,0.304681
0.083382,0.019308,0.504330,0.860398,-0.033107,0.508546
0.601199,-0.386670,-0.695027,0.210639,0.976825,-0.038003
0.687772,0.320540,-0.277043,0.020377,0.459435,0.887978
0.495380,-0.162986,0.483045,-0.101248,0.948540,0.300036
0.108631,0.156838,0.699811,-0.384824,0.798878,0.462282
-0.260745,0.001724,0.820390,0.795151,-0.520953,-0.310391
-0.324617,0.259583,0.850400,-0.567678,0.661431,-0.490154
-0.368847,0.054009,0.792772,-0.218047,-0.543352,0.810694
0.037483,0.307778,0.646418,-0.389298,0.919658,0.051739
-0.614058,0.364991,0.924573,0.817132,0.567645,0.100376
0.045730,0.185543,0.493255,0.775638,-0.630472,0.029854
-0.020683,0.094228,0.804299,0.418470,0.722415,0.550454
-0.021375,-0.536741,0.723625,0.655133,0.626060,0.422906
0.421377,-0.622908,-0.968181,0.510968,0.211103,0.833275
-0.503024,0.722600,0.808181,-0.778786,-0.624730,0.056611
0.234180,0.357290,0.419213,0.434776,-0.581603,0.687537
-0.036900,-0.003329,0.565157,0.875055,0.193160,0.443811
0.468619,0.413556,0.625152,-0.513475,-0.490725,-0.703941
0.147567,0.487210,0.767035,0.979253,-0.199867,-0.033428
-0.283763,-0.230115,0.707820,-0.395470,-0.484835,0.780089
-0.135249,0.359925,0.639138,0.797281,-0.216284,0.563529
-0.412582,-0.016407,0.467977,-0.211509,0.797017,0.565710
0.570991,-0.384791,-0.949390,-0.394080,0.568001,-0.722548
-0.373996,0.335863,0.827809,0.889095,-0.404571,-0.214085
-0.545280,0.842692,0.612009,0.382208,0.923323,0.037302
0.169074,0.042132,0.459292,0.828201,0.180433,-0.530592
-0.063190,-0.542688,0.648185,0.093307,-0.562487,0.821524
-0.302530,0.454567,0.748961,-0.121152,0.860918,-0.494107
-0.123688,0.134103,0.775687,-0.214375,-0.256442,-0.942486
0.150406,0.310887,0.814465,0.666410,-0.292609,0.685768
0.423443,-0.707805,-0.958728,0.527572,0.836924,-0.145688
0.117870,0.382877,0.796153,-0.625355,0.595744,-0.504003
0.521966,-0.095051,-0.132582,0.873451,-0.410072,-0.262536
-0.085133,0.034309,0.754509,-0.279317,-0.957293,-0.074644
-0.110108,0.257978,0.632600,0.960006,0.168370,-0.223695
0.160693,0.494789,0.667113,-0.103695,-0.644332,0.757683
-0.099725,0.092862,0.841688,-0.729059,0.521061,-0.443811
0.090535,0.251731,0.633993,-0.020640,-0.751584,0.659314
0.310862,0.344874,0.726242,0.332747,0.864044,0.377767
0.756547,-0.402420,-0.769464,-0.682360,-0.729632,0.044967
-0.311179,0.343475,0.688150,0.452568,0.616231,-0.644548
-0.348193,-0.481357,0.610694,0.594729,0.790808,0.144639
-0.558030,0.469275,0.859620,-0.313735,0.767599,0.558894
0.018593,0.226287,0.438076,-0.891751,0.168824,0.419856
-0.560708,0.710770,0.791515,0.433436,0.854140,-0.287362
0.258067,0.341288,0.568943,0.866965,-0.243431,-0.434871
-0.341717,-0.465713,0.613812,0.525941,0.828761,0.191157
0.573846,-0.315314,-0.620894,0.863026,-0.488483,0.128722
0.109041,0.407233,0.692952,0.818889,-0.494393,-0.291542
0.241663,-0.282390,-0.964495,0.296513,0.090183,-0.950761
0.675784,-0.080966,-0.211441,-0.629118,-0.380698,-0.677702
0.370576,-0.006552,0.091957,0.860598,-0.507130,-0.046799
0.235291,-0.352286,0.001519,0.227613,-0.765925,-0.601291
0.576297,-0.368286,-0.572106,-0.506719,-0.861604,0.029586
-0.383604,0.204761,0.898204,-0.386837,-0.905336,0.175281
-0.298415,-0.274356,0.620552,-0.400645,0.338425,-0.851441
-0.506379,0.519833,0.857821,-0.727132,-0.395373,-0.561212
-0.171975,0.425272,0.320044,-0.389090,-0.836512,0.385819
-0.123654,0.440321,0.762895,0.754687,-0.402489,-0.518122
0.105958,-0.119196,-0.980636,0.126169,0.005077,-0.991996
0.000063,0.368605,0.673101,0.755897,-0.342386,-0.558024
-0.402236,0.261425,0.829087,0.800076,0.268054,-0.536679
0.108000,0.186195,0.513646,0.610833,-0.299431,0.732955
0.108514,-0.117156,0.537203,0.848352,0.516311,-0.117138
-0.317517,0.658368,0.527704,0.830852,-0.244066,0.500116
-0.509388,0.398624,0.846906,0.941196,0.300963,-0.153532
0.333704,0.605888,0.603461,0.976231,-0.041206,-0.212779
0.111965,0.147259,0.274734,0.809572,0.568981,0.144409
0.061033,0.064353,0.315569,0.917277,0.300574,0.261263
0.168312,0.144249,0.391486,0.501557,-0.753713,0.424685
-0.108615,-0.487373,0.021946,-0.580111,0.418428,-0.698848
-0.139880,0.025653,0.682599,0.865105,0.397477,0.305951
-0.112774,0.195252,0.571231,0.608521,0.783962,-0.122905
-0.485627,0.619010,0.828806,-0.415811,-0.600521,-0.682990
0.148271,0.448978,0.442690,-0.632221,-0.088526,0.769714
-0.018644,0.001143,0.570657,0.840826,0.446425,-0.306131
-0.250324,0.376124,0.697726,0.495457,-0.245568,0.833198
0.476173,-0.426213,0.072225,-0.295768,0.862367,0.410907
-0.193106,-0.238871,0.681353,-0.580698,0.709075,0.400002
0.411711,-0.017786,0.428464,-0.597489,-0.742803,-0.302077
0.004377,0.320059,0.785192,0.814824,-0.378600,-0.439004
-0.265858,-0.412166,0.776541,0.855786,0.149173,-0.495356
0.470380,-0.162980,-0.167389,-0.723030,0.625841,-0.292492
0.490411,-0.180125,-0.335001,-0.686013,0.259597,0.679703
-0.048240,-0.328592,0.642758,0.857740,0.388649,0.336503
0.507835,-0.263686,-0.287924,-0.633711,-0.766372,-0.105279
-0.294064,0.740247,0.739652,0.179733,0.465185,-0.866775
-0.390358,-0.209319,0.600710,0.913017,-0.325818,0.245442
-0.199385,-0.079807,0.592183,0.767426,0.620872,-0.159920
0.000010,-0.658238,0.658747,0.685487,0.552438,-0.474257
0.797424,-0.361055,-0.888687,-0.076900,0.948659,0.306809
0.325694,-0.494256,-0.954219,0.650424,-0.394617,-0.649019
0.150979,-0.611148,0.622293,-0.330713,0.060337,0.941800
-0.651073,-0.169907,0.707257,0.677272,-0.117461,0.726296
0.437343,-0.709108,-0.947740,-0.022432,0.601838,0.798303
0.415983,-0.406001,-0.965990,-0.597709,-0.112368,0.793800
-0.474339,0.469674,0.779026,0.079404,0.166820,0.982785
-0.099153,-0.631400,0.668035,-0.040023,0.130892,-0.990588
0.235304,0.252151,0.775333,0.250860,0.936865,-0.243624
-0.071860,0.206532,0.792737,-0.861504,0.243950,-0.445308
0.515040,-0.023621,0.467511,-0.314098,0.942302,-0.115797
-0.386547,0.278048,0.799496,-0.588806,-0.648237,-0.482801
-0.183100,0.192104,0.634285,-0.287265,0.441513,0.850027
-0.093446,-0.560415,0.027288,-0.582322,0.577895,-0.571785
-0.270694,-0.653382,0.732555,-0.372692,-0.904305,0.208167
0.512688,0.317729,0.517210,-0.321945,-0.920826,0.220070
-0.011898,0.273252,0.594910,0.635283,-0.638494,0.434444
-0.146910,0.415888,0.709106,0.428852,0.893347,-0.134227
0.413226,0.277378,0.493553,0.273400,0.950445,0.148011
-0.433909,-0.404263,0.619119,0.151128,0.568005,0.809031
0.468342,-0.300072,-0.964918,0.125869,0.205723,-0.970482
-0.397883,0.443551,0.363171,-0.045372,0.998970,0.000391
-0.027178,-0.838936,0.722619,-0.124477,0.992046,-0.018730
-0.306668,-0.040278,0.854036,0.177260,-0.913466,-0.366277
0.381644,-0.102358,-0.000724,0.927491,0.063106,0.368482
0.773094,0.000986,-0.196964,0.445873,0.395798,-0.802833
0.111581,-0.035534,0.462866,0.894398,0.431390,-0.118129
0.059047,0.105873,0.730372,0.824257,-0.119673,-0.553425
0.383667,-0.420376,-0.960743,-0.026219,0.071713,0.997081
-0.022968,0.402677,0.658618,-0.068927,0.026384,0.997273
0.390990,-0.195497,0.077796,0.816552,-0.552505,-0.167277
0.215393,-0.160712,0.536387,0.970861,0.184084,-0.153435
-0.110612,-0.210240,0.814945,0.832428,0.083412,0.547819
-0.250176,0.110692,0.806210,0.848693,0.007867,-0.528827
0.423342,-0.176976,-0.138850,0.317033,0.812013,-0.490025
0.360453,-0.184435,0.052520,0.932863,0.168930,0.318165
-0.611077,0.615443,0.832360,-0.289018,-0.292688,0.911484
0.518890,-0.285906,-0.285805,-0.027629,-0.991948,0.123598
0.830570,0.021684,-0.955381,-0.396991,0.319320,-0.860484
-0.129064,0.006648,0.701072,-0.675073,-0.482365,-0.558212
0.686112,-0.383952,-0.791424,-0.576587,-0.816598,0.026745
-0.225525,0.837885,0.731436,0.492262,0.551817,0.673184
0.831347,-0.550917,-0.933117,0.569589,0.103048,-0.815444
0.236858,0.346407,0.689379,-0.774432,-0.447929,-0.446782
-0.079098,-0.458921,0.592935,-0.251676,-0.239326,0.937754
0.158558,-0.364843,-0.976807,-0.589698,-0.572626,0.569523
0.675871,-0.554976,-0.948840,-0.082766,-0.527575,0.845467
0.027827,-0.041687,0.105677,-0.002523,-0.775847,0.630917
-0.246056,-0.061884,0.536810,-0.616998,0.369126,-0.695025
0.481315,-0.287542,0.008213,0.486697,-0.516233,-0.704720
0.535241,-0.676933,-0.957637,-0.527622,0.195547,0.826666
0.330458,0.198419,0.707388,0.551945,-0.833848,-0.007380
0.059770,0.310037,0.268812,-0.453371,0.842012,-0.292353
0.460747,-0.420018,0.035115,0.481855,-0.597635,-0.640818
0.109879,0.267525,0.811327,0.776930,0.313900,-0.545753
0.192226,-0.162390,-0.972912,-0.165817,0.534467,0.828764
0.080034,0.648369,0.770174,-0.577968,0.812545,0.075658
0.777512,-0.672624,-0.943263,-0.127656,0.103113,0.986444
-0.475440,0.385659,0.927717,0.263746,-0.946644,0.185213
-0.395511,-0.078855,0.692666,0.485669,0.693780,0.531785
-0.890976,-0.100693,0.727947,-0.001738,-0.133927,0.990990
0.619142,-0.275077,-0.523639,0.793003,-0.079155,-0.604053
-0.251903,0.412188,0.673246,-0.414802,0.901504,0.123407
0.037681,-0.758975,0.671831,0.258962,-0.781073,-0.568210
-0.126056,0.119364,0.447986,-0.224430,-0.882603,-0.413089
0.898594,-0.128713,-0.939176,-0.330372,0.908239,-0.256818
0.351969,0.220667,0.695834,0.424914,-0.780205,-0.459052
0.498041,-0.257807,-0.343994,-0.028441,0.996214,0.082145
0.738701,0.071037,-0.183009,0.055490,0.998378,-0.012715
0.090054,0.202964,0.408815,0.875179,-0.326803,0.356736
-0.073335,0.518942,0.686182,0.269519,-0.950748,0.153093
-0.243632,0.141863,0.881617,0.365421,0.925565,0.098975
-0.237422,0.065061,0.625711,0.336133,-0.771487,0.540206
-0.264504,0.015848,0.912295,0.905463,0.402902,-0.133444
0.518441,-0.267925,-0.509355,-0.166188,-0.985213,0.041678
-0.274697,-0.026507,0.780938,0.876116,-0.212493,0.432745
-0.118427,-0.341374,0.783561,-0.844359,-0.210046,0.492889
0.850833,0.174334,-0.212964,0.500517,-0.775208,-0.385403
-0.418260,0.018673,0.944734,-0.577578,0.711295,0.400579
0.618463,0.444216,-0.279954,0.835480,-0.253635,-0.487485
-0.172943,0.438336,0.662065,-0.394534,-0.430599,0.811743
-0.046807,0.104253,0.549449,0.907425,0.409236,0.095421
0.505171,-0.145937,-0.413229,0.961846,-0.029420,-0.272004
0.003617,0.100686,0.775633,0.680702,0.641712,-0.353341
-0.253078,0.432774,0.301577,0.009739,-0.890416,0.455044
0.402415,-0.116861,-0.098324,0.576863,0.743281,-0.338767
-0.366979,0.743961,0.654103,-0.332239,-0.906599,0.260184
0.472990,0.095524,0.423369,-0.088290,-0.357997,-0.929539
-0.281955,0.197970,0.441345,-0.298171,-0.938642,-0.173334
0.751922,-0.028903,-0.206814,0.531466,0.518293,-0.670012
-0.153837,0.271419,0.641498,0.754684,0.287971,0.589512
0.035165,-0.046706,-1.000000,-0.112371,-0.582072,0.805335
0.128124,-0.065392,0.802742,0.965642,0.259186,-0.018901
0.728476,0.014203,-0.193454,-0.256589,-0.515148,0.817792
0.210554,0.175068,0.367198,0.851963,0.420662,-0.311774
0.402690,-0.180343,-0.182513,0.597158,-0.524216,-0.607124
-0.214231,-0.039915,0.816541,0.987260,-0.115004,0.109967
-0.067939,-0.623790,0.694479,0.513454,0.657783,-0.551078
-0.413894,0.506255,0.736286,0.965063,-0.023955,-0.260919
0.572232,-0.082393,-0.943894,-0.141403,-0.545027,-0.826408
-0.431966,0.040574,0.582003,0.840632,0.529375,0.114454
-0.577970,0.633287,0.868417,0.552119,0.809196,0.200912
-0.392861,0.075606,0.804368,0.323539,0.850117,0.415480
-0.463508,0.229232,0.909179,-0.016468,-0.821581,0.569854
-0.268226,-0.493948,0.631686,-0.752996,-0.654328,0.069654
0.035445,0.205354,0.789635,0.800682,-0.532310,0.274870
0.032301,-0.361188,0.016982,-0.615686,0.675780,-0.405281
-0.115024,-0.671895,0.693330,0.766281,-0.458311,0.450294
-0.079462,0.333336,0.762620,0.668510,-0.435965,-0.602519
0.403889,-0.010740,0.411312,-0.714029,-0.669763,-0.203912
-0.047620,-0.206257,0.767158,0.357508,-0.721959,-0.592422
-0.650862,-0.482972,0.684443,-0.045564,0.818503,0.572692
0.507322,-0.214841,-0.212637,-0.249818,-0.967622,-0.036041
0.154115,-0.666045,0.648333,0.484319,0.844371,0.229070
0.559631,0.387048,-0.271438,-0.431558,0.492002,0.756103
0.346612,0.018950,0.091579,-0.271228,-0.799175,-0.536428
-0.114220,0.193968,0.176541,-0.202194,-0.964247,-0.171307
0.113778,0.183623,0.524664,-0.451745,0.543676,-0.707349
-0.238022,-0.041237,0.895478,0.780235,0.044992,0.623866
-0.366486,0.428513,0.759184,0.892387,0.248146,0.376920
0.834764,0.296457,-0.272246,0.803196,0.273620,-0.529158
-0.043552,-0.720487,0.666391,0.815001,0.316302,0.485517
0.567108,-0.299280,-0.361027,-0.033108,0.995162,0.092506
0.684367,-0.099276,-0.430625,-0.266666,0.667246,0.695466
0.647286,-0.135181,-0.936662,0.329513,-0.085755,-0.940249
0.594571,-0.227427,-0.621048,0.266197,0.963616,-0.024133
0.317883,-0.011009,0.076407,0.818785,-0.258325,0.512698
0.162428,-0.294586,-0.982211,0.407334,0.429391,0.806041
-0.178956,0.905277,0.717415,0.314498,0.868229,-0.383756
-0.136596,0.335890,0.741479,-0.157731,0.762367,0.627628
0.531110,-0.252280,-0.520634,0.414490,-0.831441,0.370005
0.634732,-0.500681,-0.945025,-0.714069,0.383673,-0.585576
0.441074,-0.273943,-0.962085,0.257659,-0.085779,-0.962421
-0.376774,-0.333782,0.712772,0.024441,0.872063,0.488783
0.196172,-0.213533,-0.971777,-0.169639,0.022768,0.985243
0.195813,0.075141,0.128629,0.885389,-0.212694,-0.413337
0.146770,0.318908,0.806130,-0.721770,0.120454,-0.681571
0.849691,-0.492497,-0.903489,0.760663,0.117787,-0.638371
0.720877,-0.249103,-0.953600,0.330186,0.108107,-0.937705
0.118917,-0.935096,0.665439,-0.038300,-0.724206,0.688519
0.088250,0.300352,0.337665,-0.055150,0.433915,0.899264
-0.127028,-0.723774,0.706431,-0.575143,-0.541351,0.613311
0.002108,0.410366,0.791922,0.936857,-0.052598,-0.345736
0.283664,0.660918,0.687758,-0.586233,0.013642,-0.810028
-0.212689,-0.319393,0.741226,0.073440,0.992533,0.097394
-0.356310,0.099945,0.820098,0.258908,0.326416,-0.909076
0.202290,0.735454,0.344639,0.871873,0.179877,-0.455501
-0.137428,-0.547865,0.622948,0.339868,0.679980,-0.649706
-0.154796,0.752897,0.714556,0.994803,0.099906,0.019666
0.313012,0.068207,0.042191,-0.556034,-0.774768,-0.300933
-0.043573,0.297190,0.798034,-0.605746,0.794125,-0.049365
0.565594,-0.160552,-0.957671,0.233690,0.102808,-0.966861
0.464075,-0.378926,-0.535994,0.087007,0.989162,-0.118272
-0.434271,0.372267,0.719364,0.461719,0.605928,-0.647817
0.367666,-0.110857,-0.183005,0.829375,-0.444560,-0.338385
0.403565,-0.463702,-0.961607,0.097936,-0.064827,0.993079
0.512837,-0.089408,0.029028,0.108299,0.841293,0.529620
-0.499991,0.618150,0.689964,-0.337517,0.221653,0.914851
-0.277628,0.041227,0.646282,0.024745,0.888840,0.457550
0.592758,-0.356782,-0.572868,0.595416,0.803069,0.023678
0.173771,-0.075625,-0.994220,-0.398846,0.695578,0.597573
0.096133,0.484707,0.815715,0.325668,-0.759796,-0.562717
0.589369,-0.639988,-0.950904,-0.097160,-0.101405,0.990089
-0.142736,-0.337290,0.627947,0.433854,-0.319695,-0.842357
-0.400423,-0.447226,0.620517,0.608988,0.470326,0.638691
0.273004,-0.345974,-0.958868,0.466148,0.014448,0.884589
-0.319624,0.087531,0.839943,0.962744,0.183629,0.198506
-0.092202,-0.008932,0.744697,0.903768,-0.423187,-0.064150
0.084936,0.262707,0.652598,-0.522609,0.831535,0.188225
-0.010714,0.571139,0.770242,0.244518,0.112672,-0.963076
0.542155,-0.161051,-0.198808,0.974516,-0.220925,-0.038863
0.392958,-0.219642,-0.187017,0.720991,0.397596,0.567529
0.821294,-0.660785,-0.947250,-0.083099,-0.325064,0.942034
0.662967,-0.376384,-0.957031,0.385082,0.168990,0.907278
0.630830,-0.246875,-0.958042,-0.396930,-0.401958,0.825153
-0.214710,0.006431,0.807331,0.939417,0.340756,0.037149
-0.260480,-0.041098,0.952987,-0.598106,-0.793005,0.115813
-0.255518,-0.079070,0.889690,-0.104824,-0.994489,0.001998
0.723446,-0.437194,-0.850276,-0.691190,-0.721003,0.049105
0.539668,-0.436708,-0.955922,0.179592,0.228600,0.956812
0.228416,0.529191,0.829882,0.800494,0.134209,-0.584121
-0.330303,-0.104513,0.642498,0.907318,0.420304,0.010889
0.004068,0.089544,0.532566,0.943423,0.027969,-0.330409
0.460348,0.080840,0.394660,-0.693524,0.083424,0.715587
0.583140,-0.156352,-0.473274,-0.137571,0.952559,-0.271488
-0.329151,0.188383,0.813847,-0.030438,-0.272374,0.961710
0.163705,0.619766,0.584823,0.855473,0.202059,-0.476800
-0.174419,-0.135540,0.910076,0.746105,0.626687,-0.224923
0.425268,-0.196729,-0.970680,-0.478312,-0.051066,0.876704
0.607730,-0.450180,-0.661042,0.799048,0.374458,0.470429
-0.260067,-0.100805,0.919556,0.123056,0.728663,0.673727
-0.139641,-0.014162,0.756795,0.577389,0.808938,0.110644
-0.259663,-0.013062,0.974943,-0.370274,0.892839,0.256391
0.345964,-0.175178,-0.046766,-0.080656,0.961623,0.262250
-0.306877,0.052468,0.870270,0.741772,0.499400,-0.447633
0.560917,-0.486525,-0.946482,0.928406,-0.283463,-0.240230
0.023696,0.876623,0.726935,-0.400523,-0.146559,-0.904490
0.084437,0.077580,0.508163,0.803250,-0.300851,0.514080
-0.065765,0.427821,0.704880,-0.109291,0.565388,0.817553
0.495861,-0.462452,-0.956915,-0.116093,-0.164916,0.979451
0.253144,-0.439536,-0.962416,-0.492885,0.119726,0.861818
0.556681,-0.240552,-0.337643,-0.084752,-0.993695,0.073402
0.218955,-0.384819,-0.002517,-0.156914,0.830680,0.534180
0.424614,-0.228273,-0.013101,-0.452748,0.716136,-0.531195
-0.019747,0.002920,0.605187,-0.555768,0.466215,0.688306
0.586718,-0.227337,-0.394365,0.670185,0.661284,0.336980
-0.394420,-0.149405,0.613426,0.985235,-0.157597,-0.066899
0.528809,-0.573051,-0.958258,-0.593085,-0.018556,0.804926
0.686943,-0.254024,-0.495095,0.931364,-0.361937,-0.039528
0.046268,0.340680,0.562746,0.994603,-0.083860,-0.061086
-0.183417,0.709594,0.604856,-0.049563,-0.812138,-0.581356
0.383266,-0.005550,0.062314,0.043753,-0.696282,0.716434
0.186630,0.613396,0.787802,0.977834,0.176205,-0.113103
-0.050453,0.386094,0.667856,0.563013,-0.510210,-0.650156
-0.029140,0.148189,0.728709,-0.399220,0.916775,0.012150
0.756462,-0.511442,-0.946526,-0.575339,-0.203525,0.792189
0.273127,-0.104289,0.080263,0.152072,0.828246,-0.539336
-0.189418,-0.681061,0.641299,0.554181,-0.630402,0.543579
0.146819,0.461798,0.805142,0.528312,0.784338,-0.325116
0.077193,0.214462,0.603017,-0.151589,-0.932282,0.328438
0.931670,-0.191613,-0.935798,0.542135,-0.262531,-0.798227
0.307160,0.009708,0.119973,0.941298,0.161174,0.296615
-0.210908,-0.050661,0.582376,0.173422,0.497913,0.849710
-0.484729,-0.248225,0.618106,0.065318,-0.300042,0.951687
0.755633,-0.243335,-0.949770,0.317866,-0.121188,-0.940359
-0.303005,0.464427,0.386318,-0.055414,-0.868343,0.492858
0.388800,-0.171892,0.534834,0.208863,0.746908,0.631273
0.167705,-0.617832,0.640563,-0.710319,-0.636858,-0.299765
0.477672,-0.582075,-0.959912,-0.354391,-0.253457,0.900093
-0.097189,0.128615,0.184601,-0.202194,-0.964247,-0.171307
0.368823,-0.062460,-0.956141,0.842111,-0.257152,-0.474049
0.217158,-0.327334,-0.985586,-0.223734,0.030296,0.974179
0.843580,-0.449989,-0.923837,-0.023552,-0.992091,0.123295
0.745034,-0.691246,-0.949755,0.466302,-0.001798,-0.884624
0.472299,-0.277960,-0.114050,0.861220,0.489005,0.138473
0.542975,-0.405838,-0.951599,0.443383,0.233211,-0.865462
-0.008026,0.145684,0.817332,-0.650897,0.409521,-0.639238
-0.122265,0.080033,0.689391,-0.405362,0.684020,0.606464
0.575168,-0.496220,-0.946722,-0.631237,0.479957,0.609247
0.379658,-0.364085,-0.954695,-0.130375,0.091104,0.987270
0.237060,-0.352352,-0.019860,0.456696,0.445937,0.769785
-0.119725,0.384256,0.265914,-0.451539,-0.891896,0.025176
-0.306274,-0.120154,0.972962,0.264503,0.665323,0.698128
0.307431,0.436330,0.622105,0.990738,0.118237,-0.066773
0.775509,-0.149717,-0.947675,-0.437285,0.060705,0.897272
0.497776,-0.107079,-0.219016,0.700310,0.460461,0.545474
0.454982,-0.348427,-0.951529,-0.142686,0.117089,0.982818
0.267348,-0.175650,0.000252,0.985767,-0.160331,0.050573
0.027345,0.337748,0.774042,0.654317,0.347804,-0.671492
-0.330922,-0.497248,0.726486,0.624998,0.733229,0.267867
-0.524510,0.480882,0.863808,-0.393644,0.905207,0.160139
-0.149194,0.062592,0.692810,-0.424457,0.378206,0.822676
-0.113336,-0.074436,0.609878,0.270751,-0.572090,-0.774214
-0.611858,0.422403,0.761096,0.812415,-0.581353,0.044828
-0.252480,-0.189612,0.971085,0.778042,-0.428650,0.459249
-0.037430,-0.178056,0.598521,0.731678,0.617869,0.287899
-0.060827,0.060332,0.730630,0.417689,-0.394838,-0.818315
-0.244946,-0.073747,0.850014,0.620068,0.491408,-0.611582
-0.330941,0.037890,0.562629,0.515939,-0.261608,-0.815701
-0.419578,0.805060,0.620117,0.253771,0.964513,0.072902
-0.149433,0.119979,0.687190,0.810717,0.558878,0.174336
0.311455,-0.196448,-0.977927,-0.348535,-0.326451,0.878609
0.169268,0.631820,0.733065,0.737480,-0.662463,0.131401
0.423585,-0.510676,-0.953823,0.002199,-0.004719,0.999986
0.078919,-0.082466,0.552261,-0.707854,-0.519579,-0.478520
0.228589,-0.318546,-0.974863,0.029088,0.083704,0.996066
0.446387,-0.292358,0.009320,-0.149772,0.498034,0.854126
0.677759,-0.555389,-0.954449,0.072660,-0.233172,0.969717
-0.159873,-0.139295,0.869004,-0.741350,-0.621147,-0.254119
0.134369,-0.034888,0.768917,-0.491615,0.609701,0.621755
0.813362,-0.614008,-0.936413,-0.310359,-0.493019,0.812779
-0.407655,0.560183,0.732905,0.782011,0.616737,0.089971
-0.516517,0.720844,0.634000,0.869346,-0.490502,0.060367
0.079265,0.387278,0.766353,0.226371,-0.839936,0.493218
0.684060,-0.285026,-0.942523,-0.028632,-0.744576,0.666923
0.346146,-0.580067,-0.962891,0.179775,-0.119475,-0.976425
0.659015,-0.367397,-0.754989,-0.774188,-0.624619,0.102392
-0.119858,0.001320,0.733738,0.465068,-0.307432,-0.830179
0.758233,-0.197766,-0.927075,-0.424391,0.830730,0.360251
0.109366,0.117501,0.369690,0.882792,0.469695,-0.008036
0.285486,-0.173934,-0.967483,0.886520,0.282359,0.366546
0.853437,-0.158326,-0.939773,-0.264040,-0.151671,0.952512
0.510878,-0.352666,-0.951199,-0.544518,0.361560,0.756819
0.306579,-0.276776,-0.977657,-0.128231,0.169434,0.977164
0.017154,0.282667,0.718285,0.968350,0.231085,0.094325
-0.462817,-0.148308,0.575406,0.038725,0.242125,0.969472
0.499539,-0.536236,-0.949625,-0.182244,0.070099,0.980751
-0.290959,-0.270925,0.578174,-0.506880,0.743966,0.435416
0.743241,0.045435,-0.214583,-0.738436,0.431122,0.518503
-0.249560,0.101368,0.572674,-0.324084,-0.031674,0.945498
-0.203338,0.419264,0.694752,0.377186,0.865802,-0.328813
0.507819,-0.461235,-0.940719,0.353851,0.507675,0.785529
-0.261677,-0.108368,0.890638,-0.323954,-0.934534,-0.147311
-0.377073,0.458539,0.769776,0.698004,0.650135,0.300193
0.441604,-0.150914,-0.215547,0.808767,0.553701,-0.198270
0.137283,0.161802,0.633199,-0.370494,0.401295,-0.837673
-0.446095,-0.328983,0.592755,0.165140,0.816990,0.552501
-0.000176,0.008958,0.116246,0.434539,0.718729,0.542775
0.709395,-0.419594,-0.812677,0.967594,0.244317,-0.063802
0.066526,0.680709,0.769224,0.122375,-0.991487,-0.044486
-0.051329,0.078374,0.435877,0.047533,-0.082107,0.995489
-0.331130,-0.088533,0.968731,0.491046,0.839403,0.232974
-0.247914,-0.057866,0.936087,-0.318202,0.672330,-0.668371
0.396824,-0.584426,-0.966244,-0.123173,-0.067694,0.990074
-0.319986,-0.017490,0.670751,0.225854,0.665954,0.710982
0.360702,-0.150901,-0.972879,0.700582,0.077029,-0.709402
0.185323,-0.121668,0.084658,0.423151,-0.885118,0.193672
0.100924,0.004524,0.519411,0.281099,0.959646,-0.007870
0.398284,-0.352287,-0.956402,0.060461,-0.082208,-0.994780
-0.526018,-0.289599,0.613180,0.938239,0.219889,-0.267128
0.249796,-0.041852,0.056497,0.862560,0.434512,0.259210
0.247067,-0.190333,-0.977495,0.531234,-0.467086,-0.706839
0.013282,0.161894,0.705908,0.930525,0.349512,-0.109384
0.396159,-0.160030,-0.008125,0.698951,0.195143,-0.688031
-0.202901,0.050693,0.566474,0.183712,0.956226,0.227776
0.860059,0.055322,-0.183182,-0.605680,0.792263,-0.073960
0.275616,-0.372920,0.002231,0.134761,-0.935214,-0.327435
-0.284454,-0.327948,0.697487,-0.573151,0.421011,0.703027
0.349563,-0.060380,0.103621,0.978708,0.117351,-0.168403
0.187074,-0.336320,-0.978430,0.500477,0.612484,0.611871
-0.126601,-0.593777,0.662224,-0.474446,0.791252,0.385773
-0.128732,0.917239,0.736635,0.522589,0.487904,-0.699179
0.472196,0.243240,0.394728,0.836173,0.119784,-0.535226
-0.287087,0.125897,0.824888,0.808186,0.585774,0.060856
0.831878,-0.550616,-0.867678,0.438533,0.898031,0.035053
-0.027695,-0.114245,0.606539,0.794412,0.594994,-0.122034
-0.530440,-0.338376,0.671544,-0.278523,0.915484,-0.290370
0.101579,0.608801,0.342876,-0.657761,0.680347,0.323231
0.137219,0.646547,0.822077,0.947816,0.220295,-0.230468
-0.026058,0.202086,0.539987,0.819037,0.319346,-0.476651
0.083407,0.237880,0.610938,0.077403,0.399233,0.913577
0.723814,-0.448843,-0.716081,0.049911,-0.888814,0.455542
0.476068,-0.017215,-0.024529,0.653488,0.598771,-0.463062
-0.165383,-0.248155,0.784946,0.725581,0.488833,-0.484329
-0.443855,0.460410,0.887643,0.633118,0.772306,0.052004
0.152861,0.144987,0.377806,0.252526,0.282898,-0.925310
0.010783,0.303835,0.734460,0.722210,0.460450,-0.516138
-0.357631,-0.421029,0.713139,0.737374,0.407470,0.538746
0.030683,0.750892,0.327736,0.935798,-0.141934,0.322703
-0.228554,-0.037624,0.878322,0.873656,0.378046,-0.306277
-0.439533,-0.417553,0.721507,-0.426491,-0.541252,-0.724674
0.031648,0.258703,0.603255,0.636275,-0.759266,-0.136633
0.505146,-0.205657,0.496746,-0.133390,0.980423,0.144838
0.678115,-0.242755,-0.472819,0.829972,-0.134707,0.541295
-0.242095,-0.129434,0.927625,0.837048,0.273026,0.474139
0.241110,0.176513,0.471914,-0.433238,0.497163,0.751754
0.276249,-0.299702,-0.020956,0.220812,0.482501,0.847605
0.510240,-0.273538,-0.374518,0.513730,0.857283,-0.033860
-0.693393,0.394442,0.829523,-0.097574,-0.293268,0.951038
-0.054360,0.095733,0.653343,-0.321651,0.940979,0.105348
0.052318,0.151059,0.386025,0.511348,-0.721528,0.466819
-0.547109,0.548755,0.817665,0.772439,0.320454,0.548314
-0.162891,0.091245,0.751686,-0.277328,0.910587,0.306464
-0.253472,0.465621,0.655444,-0.565545,0.791006,0.233385
0.280599,0.213897,0.752433,-0.326249,-0.937419,-0.121681
-0.289068,0.094943,0.609678,0.325973,-0.742109,0.585675
-0.296820,0.079500,0.766934,-0.147074,0.988935,-0.019405
0.444503,-0.331021,0.018481,-0.248070,0.869742,0.426627
0.000128,0.235309,0.614499,0.658379,-0.649809,0.379849
-0.513149,0.391476,0.936358,-0.013543,0.943692,0.330548
0.274688,0.652616,0.652828,0.914464,0.210883,-0.345374
0.348035,0.384537,0.626435,0.634814,0.481773,0.604074
-0.227148,-0.196384,0.547804,0.968069,0.145528,0.204119
0.625910,-0.259876,-0.398655,0.489697,-0.827132,0.275770
-0.364425,-0.052601,0.555984,0.771377,-0.149963,0.618457
-0.684481,-0.630894,0.707484,0.965130,0.171331,-0.197913
-0.237980,-0.350453,0.754359,0.496923,-0.671127,-0.550142
-0.022319,0.104739,0.524320,0.873255,-0.289909,0.391636
0.157068,0.236900,0.300348,0.992064,0.018839,-0.124315
-0.227231,0.011542,0.773045,-0.320714,-0.734951,-0.597486
-0.174775,-0.084525,0.608554,0.892204,0.013913,-0.451418
-0.969925,-0.358078,0.724504,-0.341111,-0.608335,0.716639
0.704650,-0.445055,-0.834995,0.688590,0.588771,0.423311
0.637964,-0.500676,-0.938599,0.908228,-0.086946,0.409343
0.088545,0.725657,0.815500,0.989660,-0.070557,-0.124881
-0.352203,0.134442,0.867557,0.842841,0.242833,0.480261
-0.505569,-0.034494,0.504614,-0.146174,0.945445,0.291146
-0.334391,-0.074884,0.832824,-0.152486,0.981025,-0.119739
-0.175558,0.050443,0.896127,0.389159,0.179439,0.903525
0.088131,-0.099744,0.531731,-0.731250,0.125171,0.670527
0.077474,0.551552,0.298366,-0.631041,0.580168,-0.514968
-0.238090,0.397356,0.651639,0.705358,0.708753,0.011769
0.538351,-0.446176,-0.965835,-0.608558,0.101665,0.786970
0.170410,-0.317773,0.618790,-0.113327,0.842180,0.527153
0.083129,0.379918,0.496571,-0.065549,0.059548,0.996071
-0.226011,0.120760,0.815634,-0.659839,0.740365,0.128343
0.242890,0.195778,0.387621,0.759276,0.004781,0.650751
0.597246,-0.685202,-0.950041,-0.199650,-0.119041,0.972609
0.051263,0.046331,0.516098,0.979152,0.021721,-0.201964
0.183453,-0.139258,0.538654,-0.776936,0.200665,0.596744
0.417261,-0.129795,-0.957834,-0.151717,0.026825,0.988060
0.469600,-0.167715,-0.066972,-0.378067,0.858093,0.347479
-0.268294,0.180386,0.584929,0.130740,-0.451136,0.882827
0.541512,-0.618630,-0.940616,0.015539,0.296637,0.954864
0.564996,-0.500074,-0.924215,-0.103560,0.763491,0.637461
-0.338554,-0.009235,0.919875,0.673470,-0.518943,0.526438
0.017433,0.803013,0.343027,0.976474,0.133690,0.169193
0.569983,-0.332024,0.054322,-0.510195,0.859801,0.021063
0.530247,-0.251482,-0.459201,-0.513292,0.844235,-0.154267
0.228850,-0.353391,-0.963794,0.738092,0.170345,-0.652842
0.083851,-0.189938,0.551545,0.335300,0.689570,0.641924
-0.225236,0.706319,0.753754,0.541565,0.664854,0.514467
-0.647365,-0.706099,0.709281,0.991542,0.042356,-0.122683
0.001265,-0.005557,0.539756,0.853026,0.305521,-0.423089
0.659524,0.170717,-0.218022,0.388997,0.839940,0.378395
-0.583458,0.478949,0.924251,0.210980,-0.971660,-0.106601
0.151362,0.019514,0.502823,0.473802,-0.261860,-0.840798
0.063622,0.639265,0.771993,0.393973,-0.711037,-0.582419
0.257404,0.590218,0.589823,0.653358,0.032222,-0.756363
0.606590,-0.394218,-0.579593,0.576851,0.685594,-0.444077
-0.975101,-0.336857,0.718180,-0.341111,-0.608335,0.716639
0.825750,-0.082838,-0.938027,-0.006552,0.316988,0.948407
-0.192356,0.242626,0.545406,0.343264,0.647170,0.680691
-0.173006,-0.261080,0.703634,-0.806521,0.557330,0.197248
-0.102047,0.470530,0.772585,0.892080,-0.382707,-0.240269
-0.108901,-0.050906,0.728748,0.370045,0.888599,-0.271033
-0.388890,-0.505325,0.586637,0.849801,-0.006032,-0.527069
-0.158540,0.110203,0.793918,-0.608796,0.767763,-0.199768
0.137542,0.284557,0.649223,-0.265029,0.643582,-0.718026
-0.248687,0.264464,0.661396,0.924028,-0.166502,0.344165
0.143291,0.499544,0.699728,-0.560122,0.806933,-0.187412
0.260388,-0.195065,-0.982391,0.171617,-0.467074,0.867404
-0.459806,0.338506,0.912034,-0.474585,-0.052361,-0.878651
-0.012702,0.229230,0.765505,-0.197828,-0.441478,0.875192
0.625325,-0.242910,-0.361447,0.263977,0.964436,0.013392
0.484665,-0.140945,-0.263327,-0.226688,-0.971565,-0.068361
0.071473,-0.477085,0.598976,-0.717998,0.259245,0.645965
0.378443,-0.092203,0.043513,0.951929,0.278214,0.128172
0.162685,0.706211,0.322421,0.768299,0.178403,-0.614727
0.166734,0.389397,0.815188,0.751509,-0.216843,0.623067
0.216678,0.167101,0.554376,-0.554578,0.706846,-0.439103
0.641558,-0.561784,-0.934607,-0.707349,-0.606656,0.362803
0.637874,-0.408127,-0.953372,0.047409,-0.165853,0.985010
-0.009304,-0.291155,0.652934,-0.515144,-0.854085,-0.071872
0.878427,-0.293727,-0.951469,0.813666,0.398657,0.423107
-0.136092,0.406609,0.282267,-0.448389,-0.888229,0.099982
-0.035654,0.066277,0.819608,0.512414,-0.639811,0.572777
0.072346,0.199807,0.563672,0.778457,0.563393,0.276753
0.498377,-0.234795,-0.212572,-0.218584,-0.972729,-0.077582
0.298092,0.422156,0.598243,-0.538140,0.726350,-0.427576
0.343689,-0.221676,-0.095901,0.652777,0.605363,0.455431
0.578540,-0.719659,-0.942222,-0.087439,-0.239954,0.966838
-0.035059,-0.851879,0.700955,0.120866,0.957187,0.263031
-0.522655,-0.413682,0.697321,-0.673627,-0.257020,-0.692941
0.820458,0.469904,-0.265148,0.703305,0.523973,-0.480431
0.285651,0.176596,0.522478,0.148719,-0.642804,0.751456
-0.006939,-0.146903,0.608853,0.875218,0.456613,0.159680
-0.047642,0.284285,0.693526,0.642967,0.765891,0.002199
0.059577,0.093165,0.473339,-0.420189,0.507215,0.752446
0.637929,-0.422899,-0.955515,0.052511,0.096208,0.993975
-0.324803,0.300447,0.834054,0.449517,0.756864,0.474438
0.776958,-0.479086,-0.935130,0.249474,0.081759,-0.964924
0.731725,-0.440519,-0.953187,-0.170643,-0.224457,0.959427
0.139917,-0.824659,0.681670,0.996872,0.071519,-0.033639
0.089690,0.271193,0.780350,-0.358618,-0.704408,-0.612538
0.003265,0.364642,0.713662,0.289934,0.329645,0.898483
0.364166,-0.119086,-0.051625,0.996387,-0.002097,0.084899
-0.283674,-0.129149,0.990972,0.508137,-0.854197,-0.110205
0.451692,-0.154658,-0.133717,0.410662,-0.018835,-0.911593
0.101576,0.247961,0.608197,0.958719,-0.282918,-0.028554
-0.621063,-0.170439,0.706510,-0.443039,0.323767,-0.835997
0.101130,-0.417498,0.008586,-0.280804,-0.752633,-0.595561
-0.061819,0.151293,0.553467,0.845069,0.078055,0.528930
0.020676,-0.161047,0.749737,0.089040,-0.976481,0.196359
0.016109,0.076173,0.582935,-0.573893,0.409987,-0.708913
0.369338,-0.084882,0.042598,0.913112,0.386824,0.128816
0.704681,0.423900,-0.282815,0.593903,0.330376,0.733574
0.411581,-0.077572,-0.114033,0.358569,0.931256,0.064729
0.532016,0.235136,0.542586,-0.594251,0.804226,-0.009287
0.185726,0.380976,0.624820,0.929578,-0.366169,0.042488
-0.499981,0.342889,0.949167,0.759753,-0.599242,0.252358
0.201177,-0.391265,-0.984926,-0.624514,-0.739014,-0.252666
-0.396122,0.152131,0.845022,0.805475,0.452353,-0.382867
-0.380283,0.322101,0.827820,0.193057,-0.949762,0.246334
0.000314,0.184115,0.574162,-0.201076,0.880769,-0.428736
-0.437197,0.321910,0.701712,0.775429,0.511773,0.369862
0.146962,-0.177260,-0.993556,-0.569337,-0.143084,0.809557
-0.380303,-0.088966,0.619668,0.791913,-0.393819,0.466669
0.194292,-0.164792,0.116872,-0.209576,-0.793999,0.570651
0.547572,-0.076142,0.443819,-0.658150,0.689230,0.302986
-0.288780,-0.098398,0.520948,0.537893,-0.834162,-0.121838
0.165320,0.147703,0.621358,0.925040,-0.159004,-0.344990
0.111833,-0.739998,0.678646,0.040206,0.741080,0.670212
0.422841,-0.116882,-0.193648,-0.307862,0.918995,-0.246313
-0.431771,0.247014,0.669131,0.981563,0.042070,-0.186454
0.410302,-0.168496,-0.071993,-0.186150,-0.969946,0.156693
-0.090036,-0.609124,0.062353,0.307518,0.888349,0.340983
0.300990,0.170908,0.743447,-0.151516,0.968754,0.196363
-0.097991,0.219643,0.669570,0.772392,-0.582034,0.254257
-0.409355,0.319836,0.759576,0.961942,-0.035266,0.270970
0.726603,-0.382172,-0.705981,0.161588,-0.905412,0.392579
0.551617,-0.279488,-0.282850,0.369517,-0.718620,0.589103
0.223356,0.353482,0.765539,-0.379236,-0.367843,0.849041
0.668469,0.350521,-0.277578,0.265447,0.124557,0.956046
0.038499,0.193957,0.589306,0.459166,-0.825397,0.328462
0.649842,-0.347351,-0.917317,0.900658,-0.341441,-0.268763
-0.278517,0.027627,0.803702,0.586374,0.800458,0.124229
0.185086,0.236460,0.535155,0.105935,-0.868291,0.484612
0.402014,-0.091809,0.000857,0.829626,0.304105,0.468232
-0.192626,-0.193996,0.950076,-0.614310,0.618342,0.490180
0.474343,-0.502784,-0.944663,-0.737860,-0.266658,0.620045
-0.021649,0.339953,0.684192,-0.172331,0.783239,0.597360
0.233650,0.274843,0.776863,0.226484,0.935958,-0.269606
0.603787,-0.304138,-0.341247,0.509184,0.839366,-0.190252
-0.455676,0.397129,0.800743,0.171455,0.963176,0.207112
-0.018307,0.182300,0.779261,0.581975,0.480160,-0.656317
-0.077667,0.019058,0.091430,0.792527,0.284241,-0.539544
-0.452940,0.634860,0.794097,0.856826,0.473876,-0.203201
-0.376330,-0.012652,0.899667,-0.719143,0.650737,-0.243668
-0.359249,0.348457,0.717383,0.552805,-0.789391,0.266962
-0.207114,-0.555028,0.620337,0.268799,-0.063491,-0.961102
-0.061062,-0.140066,0.750564,0.275106,0.946857,-0.166670
0.010262,-0.009411,0.726506,0.887094,0.458966,0.049134
0.171727,0.151383,0.240472,0.933229,-0.355946,-0.048845
0.089462,-0.128386,0.770871,0.610715,-0.780381,0.134283
-0.422573,0.171516,0.786781,0.937159,-0.332599,-0.105408
-0.109007,-0.583343,0.731355,-0.129540,-0.530328,0.837838
-0.221406,-0.279276,0.934659,0.858746,0.506154,0.079773
0.031425,0.174108,0.814955,-0.664864,0.647980,-0.371589
0.643621,-0.330731,-0.562860,-0.583479,0.789085,-0.192087
0.487047,-0.151266,-0.217925,0.736200,0.675999,0.032176
-0.064903,0.637794,0.742050,-0.737720,-0.622366,0.261590
0.912324,-0.118865,-0.941365,-0.446478,0.754460,0.481091
-0.659354,-0.573120,0.603515,0.961381,-0.258083,0.095603
0.669548,-0.352629,-0.639077,-0.313696,-0.863923,0.393995
-0.245540,-0.076967,0.801766,-0.328123,-0.313486,-0.891102
0.145101,0.027583,0.451388,-0.520988,-0.852955,-0.032256
0.521942,-0.464478,-0.950052,0.499969,0.366588,0.784630
-0.287349,0.202561,0.450606,-0.298171,-0.938642,-0.173334
0.177781,0.070911,0.223605,0.572557,0.796930,-0.192566
0.514999,-0.306539,0.028999,-0.586164,0.477723,0.654364
-0.111703,0.264885,0.629286,-0.712302,-0.351432,-0.607554
0.105287,0.395478,0.687322,-0.601712,-0.028883,0.798191
0.029724,0.187694,0.778586,0.388794,-0.732047,0.559416
-0.205429,-0.216432,0.911488,0.189974,0.849581,0.492060
0.161389,0.273083,0.521348,0.777959,0.387229,-0.494807
0.591951,-0.703775,-0.954857,0.254003,0.204478,-0.945342
0.413435,-0.271011,-0.102385,-0.138815,-0.990065,-0.022389
-0.401259,-0.203367,0.631802,0.795479,0.596580,0.106322
-0.220432,-0.000054,0.819161,0.907710,0.293464,0.299903
0.207843,0.115600,0.199158,0.778622,0.587174,-0.221302
-0.069093,0.226265,0.712862,0.900432,-0.397354,-0.177009
0.466162,-0.235022,-0.402971,0.982520,0.150510,-0.109545
0.005618,-0.449281,0.019069,-0.671795,0.292971,-0.680338
-0.443450,0.597700,0.739483,0.752303,0.405078,-0.519569
0.561615,-0.349963,-0.524992,-0.281240,-0.929302,0.239379
0.149895,0.133251,0.509749,0.549193,-0.025818,0.835296
-0.031192,0.159863,0.674948,-0.273774,-0.952817,0.131103
-0.490316,0.511134,0.825121,0.910431,-0.139682,-0.389364
0.258804,-0.117543,-0.956771,0.164439,0.234745,0.958047
-0.103072,0.433263,0.491951,-0.615329,-0.787634,-0.031683
-0.066085,0.006439,0.765173,0.003130,0.920299,0.391204
0.035140,0.200236,0.763454,0.889460,-0.360419,0.280997
-0.514118,0.518637,0.811823,0.966742,0.054893,0.249792
0.371722,-0.083891,0.452820,0.358712,0.708479,0.607769
-0.411861,0.298858,0.816478,0.849754,0.091200,-0.519231
0.004078,0.177008,0.496925,-0.578776,0.780521,-0.236232
-0.030227,0.182786,0.674625,0.762035,-0.015167,0.647359
-0.207284,0.393968,0.660831,0.679657,0.499135,-0.537522
-0.330595,-0.473150,0.746384,-0.075178,-0.931736,0.355270
-0.187695,-0.328249,0.761642,0.166187,0.974669,-0.149677
-0.204278,-0.157529,0.634477,-0.296219,0.899594,-0.320911
-0.051034,0.370975,0.770929,-0.131880,0.124196,0.983455
-0.259201,0.445057,0.702408,0.881687,-0.236993,0.407999
0.034992,-0.022091,0.420044,0.352892,-0.605200,-0.713582
-0.902409,-0.040968,0.736303,0.097464,-0.021419,0.995009
0.093327,0.107943,0.779743,0.543885,-0.104924,-0.832574
-0.403197,0.111486,0.802568,0.897548,0.432901,0.083699
-0.538964,0.405599,0.943997,0.088104,0.980762,0.174194
0.365204,-0.171655,0.052675,0.798527,-0.460335,0.387875
-0.254947,-0.105590,0.930126,0.510905,-0.743010,0.432333
-0.463689,0.417886,0.775421,-0.640964,0.212933,-0.737444
-0.071191,0.339406,0.744168,0.010234,0.987364,0.158139
0.561645,-0.550786,-0.945235,0.163318,0.280776,-0.945776
0.467637,-0.176208,-0.046829,0.807991,0.557862,0.189582
0.003792,0.523630,0.683095,0.314832,0.815751,-0.485212
0.000727,0.203423,0.666667,0.513652,0.717340,-0.470729
-0.060615,0.231825,0.774562,0.419626,0.652107,-0.631404
0.216571,0.744215,0.755673,0.895163,-0.365199,0.255563
0.721906,0.020478,-0.199095,0.636805,0.445783,-0.629092
-0.115963,-0.018806,0.825937,0.716745,-0.615726,-0.327350
-0.195390,0.342975,0.626614,0.991664,-0.128587,0.008252
0.216778,0.298147,0.766158,0.023687,0.689839,0.723575
-0.108397,0.144694,0.630839,0.922369,-0.023067,-0.385622
-0.151303,0.152782,0.815102,-0.288036,0.249915,-0.924434
-0.122713,-0.547185,0.674050,-0.609520,-0.792412,0.023831
0.808862,-0.489713,-0.855087,-0.473518,-0.867090,0.154712
0.357043,0.575496,0.628439,0.918652,0.312714,0.241429
0.038856,-0.020907,0.770153,0.775464,-0.026020,-0.630856
0.200238,0.051721,0.284128,-0.678221,-0.731131,-0.073918
-0.046622,-0.190972,0.656253,0.721457,0.568091,0.395945
-0.093577,0.223753,0.768200,-0.725857,-0.452979,0.517630
-0.579090,0.475119,0.898661,0.113048,0.946077,0.303577
-0.146382,-0.151076,0.621466,0.253106,0.865017,0.433224
0.161553,0.178884,0.757311,-0.031946,-0.342907,0.938826
-0.165954,-0.017304,0.717439,0.727404,0.603932,-0.325805
0.243270,-0.094509,0.504708,0.309232,-0.326600,0.893145
-0.028694,0.159197,0.785904,0.908329,0.374349,0.186548
-0.124200,0.059139,0.822591,0.278383,0.235108,-0.931250
-0.315502,-0.329235,0.690386,-0.661775,0.441108,0.606199
0.544603,-0.209729,-0.338939,-0.678050,-0.089023,0.729605
-0.344740,0.012509,0.931479,0.699225,0.702675,-0.131652
0.786649,0.008600,-0.941637,0.120200,0.474878,-0.871805
-0.291459,0.146345,0.814085,0.800147,0.497757,0.334668
-0.195686,0.563992,0.814242,-0.542090,0.560269,-0.626288
0.598026,0.258288,-0.260186,-0.659141,-0.393935,-0.640584
-0.034040,0.616392,0.717946,0.246079,0.423704,0.871734
0.071016,0.445101,0.770244,0.295535,0.849217,0.437594
-0.447457,0.684825,0.755180,0.861897,0.506999,0.009238
-0.472006,-0.400123,0.744102,-0.226684,-0.176801,0.957787
0.427247,-0.566791,-0.959363,-0.060693,-0.425774,0.902791
-0.013761,0.116132,0.816606,0.314777,-0.532520,0.785709
0.476066,-0.259151,-0.181874,-0.320812,0.938466,0.127910
0.006647,-0.155800,0.768018,-0.672649,0.403351,0.620364
-0.309992,0.169635,0.837368,-0.284569,-0.670280,0.685380
0.014974,0.133107,0.318525,-0.588237,-0.790792,-0.169192
-0.147645,0.545215,0.450733,0.384839,0.800056,0.460228
0.481102,0.382758,0.614695,0.556206,-0.725950,-0.404514
0.322912,-0.373005,0.006874,-0.201570,0.931199,0.303707
0.324551,-0.618874,-0.959352,-0.238743,0.101481,0.965766
-0.267379,0.564302,0.749407,-0.241360,0.734974,0.633687
-0.406920,0.502416,0.355076,0.089178,0.983046,0.160210
0.434158,-0.182552,-0.008996,0.877032,-0.268297,-0.398536
-0.478554,0.275399,0.702294,-0.743858,-0.445348,0.498338
0.361587,-0.476406,-0.951422,-0.377466,0.560579,0.737069
