-0.500630,0.532649,0.818558,-0.674659,-0.678412,-0.290848
0.382881,-0.668303,-0.975289,0.272196,0.800919,0.533327
-0.108410,0.171427,-0.584133,-0.046588,0.983035,0.177404
0.239749,-0.111346,0.679554,-0.564964,-0.619307,-0.545228
-0.121844,0.022212,0.206742,0.259290,-0.869535,-0.420331
0.115829,-0.147755,-0.691112,-0.615873,0.269791,-0.740212
-0.117930,-0.208779,-0.434917,0.987698,0.097174,-0.122515
-0.190288,0.302335,0.456326,-0.813770,0.151018,-0.561224
0.005107,-0.107319,0.393527,0.276955,0.568054,0.774991
0.358990,-0.722479,-0.932999,0.389810,-0.657730,0.644545
-0.436051,-0.068498,-0.476270,0.602412,0.414441,0.682158
0.407309,0.572889,0.638620,0.585748,0.805148,0.092927
-0.352342,0.056201,0.339765,0.697596,0.692901,-0.182339
-0.741691,-0.753843,-0.734659,0.211290,-0.329534,0.920198
0.495813,-0.391490,-0.979830,0.083481,0.777027,0.623908
-0.104963,0.297900,0.737434,0.522293,0.438977,-0.731101
-0.331196,-0.511599,-0.705666,-0.626527,0.104848,-0.772315
-0.323901,0.186156,0.556486,-0.588654,-0.802184,0.099937
-0.195911,0.197373,0.711834,-0.072624,-0.803648,0.590658
0.284647,-0.341986,-0.944327,0.720633,0.678779,-0.141236
0.795324,-0.226068,-0.943444,0.557024,0.603758,-0.570263
-0.158470,0.219313,0.804603,0.929612,0.224336,0.292394
0.593396,-0.298972,-0.978518,0.247516,-0.029823,-0.968425
-0.342814,-0.265651,-0.447739,-0.216566,0.793649,0.568524
-0.054101,0.713383,0.734897,-0.066874,0.923022,0.378891
-0.243848,0.433606,0.790616,0.838416,0.326816,-0.436177
-0.020807,-0.218168,-0.359664,0.864781,0.442695,0.237013
0.083046,-0.154270,-0.640732,0.546504,0.785345,-0.290803
0.146865,-0.127253,-0.532135,-0.195136,0.438749,0.877167
0.351177,-0.424008,-0.493733,-0.215159,0.626359,-0.749254
-0.098097,-0.051997,0.618631,0.542088,0.783167,0.304614
-0.109404,0.176579,0.294726,0.821886,0.564622,-0.075533
-0.315430,-0.376988,-0.336354,0.078305,-0.166945,0.982852
-0.131785,-0.582907,-0.310375,-0.696925,-0.249194,0.672457
0.121962,-0.510938,-0.948067,0.302687,-0.466854,0.830920
0.269358,-0.114422,0.630292,0.971044,0.120709,0.206162
0.855495,-0.466654,-0.955326,-0.149327,-0.419355,0.895457
0.675168,-0.057395,-0.974082,-0.022837,0.623829,0.781227
-0.407833,-0.030707,0.308647,0.959348,0.227574,-0.166916
-0.251946,-0.213371,0.377564,-0.536392,0.383882,0.751611
0.040937,-0.472742,0.159539,-0.471390,-0.368363,-0.801311
-0.382427,0.223515,0.566632,0.318911,0.648448,-0.691239
-0.282786,-0.237041,-0.079747,0.837728,-0.488876,0.243335
0.126340,-0.460842,0.147262,0.387876,0.838360,0.383020
0.473737,0.082778,0.303701,0.661324,-0.455173,0.596211
0.375526,0.222482,0.398622,0.990821,-0.093488,-0.097639
-0.308624,-0.496489,-0.708957,-0.688644,-0.063903,-0.722278
0.536192,-0.559872,-0.943188,-0.389323,0.873808,0.291355
0.404901,0.502947,0.348941,0.877918,0.362294,0.313055
-0.462492,0.087309,0.346070,0.918900,0.359391,-0.162668
0.066925,0.041194,0.720720,-0.640662,-0.717232,-0.274098
-0.360764,0.296463,0.602249,0.323222,0.890713,-0.319621
-0.088479,0.399443,0.395943,0.739081,0.663337,0.117231
0.383060,0.388122,0.442169,-0.474770,-0.863910,0.168087
-0.206004,0.095900,0.177828,0.785356,-0.228009,0.575524
0.169648,-0.795656,-0.947089,-0.540257,-0.717584,0.439540
-0.207059,-0.465240,0.322455,0.041205,-0.980517,-0.192066
-0.326058,0.068794,0.650376,-0.482242,-0.813570,0.324879
-0.344259,0.154929,0.378241,-0.523516,0.819076,-0.234619
-0.121130,-0.618881,-0.969301,-0.646824,-0.216975,0.731123
0.365654,-0.377645,-0.393180,-0.558726,-0.800131,-0.218209
-0.337182,0.022908,0.193144,0.801420,-0.545371,-0.245553
-0.349309,0.655697,0.855197,0.935612,-0.335712,-0.109215
0.008774,-0.267475,-0.363777,0.653353,0.014092,0.756922
0.478549,-0.756495,-0.935706,-0.124453,0.090945,0.988049
-0.470581,0.154588,0.553306,0.161742,-0.382703,0.909603
0.466211,0.007838,-0.980731,-0.297783,-0.339075,-0.892386
-0.549635,0.612696,0.786291,0.459937,-0.249050,0.852310
0.344272,-0.411350,-0.753272,0.879316,0.476223,-0.003849
0.397000,0.071560,-0.689068,-0.096141,0.889443,0.446820
0.482635,-0.827394,-0.940380,0.250336,0.494206,0.832522
-0.392574,0.115576,0.435423,-0.428367,-0.805799,0.408888
-0.127075,-0.098546,-0.181897,-0.050423,0.923585,0.380063
-0.121063,-0.478072,0.152757,0.648449,0.706161,-0.284342
0.036126,-0.591159,-0.969860,-0.211267,0.760898,0.613515
0.570876,-0.746876,-0.960799,-0.492621,0.306178,0.814604
-0.232863,-0.193857,-0.243442,0.959141,-0.229720,0.165155
0.365674,-0.435207,-0.317109,-0.662749,0.742218,-0.099377
0.207175,0.181347,0.309402,0.514747,0.429436,0.742038
-0.122253,0.227884,0.756497,-0.027056,-0.168532,0.985325
-0.450830,0.138083,0.362778,-0.677790,-0.735245,0.003945
0.390227,-0.689335,-0.964352,0.604854,0.184653,0.774632
-0.351002,-0.051832,0.329330,0.686676,0.696291,-0.208939
0.151871,-0.282109,-0.760415,0.763873,0.173292,0.621665
0.385511,-0.382561,-0.898750,0.901590,0.204693,-0.381100
-0.304180,0.474487,0.738096,-0.305106,-0.192851,0.932587
0.009838,-0.386131,-0.327218,0.341588,-0.866080,0.364997
-0.268877,0.303221,0.312956,0.228496,-0.973397,-0.016967
-0.119662,-0.329093,0.015596,0.821031,0.436892,0.367470
-0.375830,0.370550,0.520133,0.995546,-0.090730,-0.025621
0.141194,-0.239712,-0.533822,-0.447049,0.100018,-0.888900
0.509081,-0.319580,-0.981565,-0.179939,-0.005839,0.983660
0.427285,0.389602,0.361897,0.887972,-0.363787,-0.281361
-0.291820,0.244819,0.589565,-0.525759,-0.848380,0.061874
-0.386696,0.755510,0.889204,-0.695092,0.702557,0.152516
0.183370,0.336358,0.095163,-0.727088,0.500935,0.469476
0.416398,-0.726147,-0.957916,-0.308598,0.064554,-0.949000
-0.375663,0.395673,0.567845,-0.924971,0.185305,-0.331800
-0.425568,-0.452557,0.315478,-0.430859,-0.652236,-0.623657
0.378242,0.061648,0.672050,0.874382,0.236671,0.423606
0.099227,-0.163971,-0.428998,0.555526,0.802992,-0.215857
-0.025931,0.755159,0.189962,0.989484,-0.140124,-0.035862
0.243056,0.146812,-0.457758,-0.630861,0.629945,0.452971
0.081622,-0.653110,-0.350936,0.574753,-0.816186,-0.059151
-0.081199,0.141460,0.757802,0.501663,0.008670,0.865019
0.450161,-0.615451,-0.968086,0.170630,-0.281753,0.944193
0.163201,0.282613,0.623176,-0.261852,-0.183707,-0.947463
0.247634,0.136165,0.715285,0.252995,-0.867382,0.428535
0.150961,-0.135635,-0.675890,0.893645,0.270579,0.358031
-0.265049,0.283956,0.284446,-0.639295,0.511518,-0.574153
0.121854,-0.213422,-0.990875,0.855565,-0.492306,-0.160133
-0.527641,-0.026632,0.567192,0.233621,0.968364,-0.087704
0.117551,-0.465177,-0.945978,0.167418,-0.626999,0.760818
-0.294980,0.030188,0.076342,0.896553,-0.057452,0.439194
-0.460407,-0.020534,0.563975,0.326336,0.944751,0.030836
0.847064,-0.638548,-0.952653,0.200757,-0.869148,0.451971
0.333886,-0.419575,-0.866247,0.609860,0.792409,-0.012573
0.845138,-0.593276,-0.965687,-0.836431,0.454914,0.305673
-0.830894,0.121253,0.569549,0.104968,0.989911,-0.095173
0.018819,0.160568,0.787068,-0.456196,0.076368,-0.886596
0.023863,0.453165,0.556852,0.926444,-0.312084,-0.210487
-0.153910,0.749777,0.666360,-0.554190,0.655510,-0.513011
-0.170348,0.403994,0.624862,0.922748,0.115838,0.367584
0.542917,0.206821,0.336047,-0.624768,-0.651833,-0.429859
0.514932,-0.231946,-0.987728,0.205435,0.042475,-0.977749
0.191682,-0.257424,-0.668604,0.165335,0.492578,0.854419
0.818770,-0.371647,-0.941377,0.380799,0.360294,0.851575
0.222113,0.136405,-0.675826,-0.233498,-0.630882,0.739910
0.136083,-0.119844,0.631221,0.870354,0.393279,0.296336
-0.041040,-0.248407,-0.397775,0.490631,-0.431130,0.757237
0.189152,-0.188582,-0.681036,0.791014,-0.230314,-0.566791
0.140841,0.102442,0.817861,-0.244604,0.966416,-0.078795
0.620806,-0.749314,-0.940626,-0.393426,0.487509,-0.779456
0.348240,-0.843458,-0.955675,0.026318,0.233868,0.971912
0.120607,0.063988,0.845843,0.353510,0.735325,-0.578211
-0.119551,-0.228249,-0.510982,0.474385,-0.412042,0.777934
0.001372,-0.303781,-0.448314,0.912575,0.395656,0.103257
0.059103,-0.325862,0.393219,0.924892,0.042797,-0.377813
0.179879,-0.245112,-0.706350,0.693510,0.708070,-0.132969
0.429325,0.060385,0.653765,0.988721,-0.059041,-0.137643
0.101901,-0.467577,-0.954298,0.055211,0.997165,-0.051115
0.156994,-0.155214,-0.488179,0.306171,-0.270502,0.912737
0.362789,0.309516,0.410506,0.909539,-0.389933,-0.143844
-0.319516,0.097994,0.315092,-0.448935,0.840153,0.304304
-0.293618,0.318776,0.632275,0.749895,0.124409,-0.649754
-0.336428,0.798760,0.843300,-0.189916,0.878178,-0.439016
-0.274991,0.065909,0.208393,0.302601,-0.953037,-0.012393
0.477682,0.029778,-0.979859,-0.343536,0.402819,-0.848363
-0.133752,-0.995124,-0.291475,0.971484,0.174144,-0.160911
-0.235257,-0.156481,0.327862,-0.251965,0.605064,0.755255
0.210638,-0.256490,-0.719128,-0.743869,0.602746,0.288716
-0.426123,0.721456,0.821376,0.628229,0.587558,-0.510005
0.340604,-0.750353,-0.954534,0.088396,0.996077,0.004122
-0.126257,-0.157346,-0.631246,0.674051,0.550541,0.492503
0.589893,-0.707074,-0.938828,-0.628515,0.655251,-0.419063
-0.573789,0.800288,0.796504,0.460994,0.886316,0.043905
0.498970,-0.710017,-0.950559,0.356837,-0.212851,0.909594
0.001314,0.130703,-0.487257,0.867643,-0.436555,0.237941
0.844526,-0.432951,-0.955734,-0.177663,-0.307639,-0.934770
-0.364344,0.205852,0.358977,-0.127728,0.989336,-0.069991
-0.337503,0.058440,0.209852,0.170242,-0.748284,0.641162
-0.312552,0.495132,0.618466,-0.121172,0.980471,-0.154899
-0.049499,-0.205435,-0.347856,0.991154,-0.025988,0.130151
0.427454,-0.386528,-0.601473,0.950992,-0.125966,0.282394
0.009063,-0.308997,-0.426137,-0.140892,-0.901036,-0.410225
0.208866,-0.116044,0.735766,0.840876,-0.479104,0.251770
-0.049386,-0.594611,-0.952672,0.894219,-0.353651,-0.274413
-0.472680,0.163878,0.797026,-0.453072,0.667483,0.590925
0.672999,-0.777869,-0.934945,0.116798,0.003021,0.993151
0.501954,-0.373744,-0.542354,-0.932281,0.215498,0.290538
0.099030,0.259047,0.269317,0.350285,0.667288,-0.657287
0.390212,-0.373102,-0.970474,-0.246039,0.683452,-0.687283
-0.366766,0.018312,0.338967,0.989691,-0.125416,0.069154
0.066096,-0.162059,0.834871,0.170795,0.224399,-0.959413
0.535437,-0.718835,-0.952327,-0.359968,-0.019046,-0.932770
-0.667968,-0.501277,-0.715131,0.001287,0.910088,0.414412
0.731952,-0.623527,-0.967944,-0.059496,0.179848,-0.981894
0.539783,-0.294513,-0.313589,-0.744832,0.595704,-0.300604
0.193754,-0.630838,-0.941261,0.178323,0.330526,0.926797
-0.327946,-0.511471,0.369293,-0.562675,-0.384674,0.731726
0.164039,-0.179397,-0.674638,0.473581,0.872806,0.118030
0.483564,-0.209272,-0.981224,-0.182645,-0.540828,0.821064
0.543994,-0.204219,-0.941721,0.198336,0.332242,0.922105
-0.353582,-0.756472,-0.680606,0.066335,0.621683,0.780455
0.674130,-0.695665,-0.942914,-0.128318,-0.678505,0.723302
-0.064918,0.239939,0.744811,0.185711,0.880353,-0.436453
-0.369601,0.001226,0.478410,0.994443,0.054252,0.090220
-0.046837,0.235454,0.046444,-0.600356,-0.034225,0.799000
-0.366571,-0.121193,0.306681,0.948333,0.174123,-0.265228
-0.448913,0.336945,0.669636,0.368175,0.865236,-0.340316
0.007331,0.054081,0.736702,-0.332189,-0.340940,0.879438
-0.539108,0.017776,0.362147,0.788294,0.607508,0.097602
0.651758,-0.688467,-0.948509,0.927497,0.371411,-0.042470
0.182952,-0.492305,-0.920867,0.522360,0.618156,-0.587386
-0.308025,0.790973,0.841948,0.718843,-0.562554,0.408408
0.207255,-0.213642,-0.978825,-0.461104,-0.104892,0.881125
-0.320392,0.055282,0.113907,-0.629142,0.684073,-0.369086
-0.544299,0.287652,-0.554241,0.622438,0.697000,0.356037
-0.222990,-0.446630,0.368013,0.606194,0.746030,-0.275624
-0.125186,-0.036145,0.634398,-0.196815,0.857830,-0.474755
-0.003309,0.611054,0.698147,-0.695888,0.711431,-0.098008
0.610783,-0.642155,-0.957747,-0.368238,0.113318,0.922800
0.156295,-0.402220,-0.362394,0.639877,0.711522,0.290334
0.061457,0.660471,0.693849,0.589502,-0.236317,-0.772426
-0.457938,-0.234013,0.341617,0.963660,0.267040,0.007040
-0.031465,-0.550996,-0.379766,0.911865,-0.240923,0.332352
-0.021626,0.011926,0.696932,0.621207,0.309829,0.719797
0.234618,0.637192,0.410531,-0.065301,0.995362,-0.070637
0.283332,0.540090,0.583676,0.413225,0.754326,-0.510135
0.239203,-0.142079,-0.652267,0.910961,-0.188871,0.366713
-0.380675,0.354180,0.771487,-0.491690,-0.850190,-0.188196
-0.178481,-0.116352,-0.059330,0.636314,-0.718997,-0.279551
0.424122,0.099841,-0.990663,-0.218077,-0.063702,0.973850
0.170240,-0.065419,0.680729,0.955057,-0.205618,-0.213510
0.015348,-0.498542,0.097891,0.893669,-0.144678,-0.424763
0.472199,-0.058560,-0.991491,0.308430,-0.453717,-0.836069
-0.044377,-0.148557,0.373684,-0.656278,0.355686,-0.665422
0.148023,0.259126,0.310152,0.101315,0.726011,-0.680178
0.372977,-0.115250,-0.968163,-0.241386,0.969896,0.032177
-0.428839,0.788833,0.913511,-0.227061,0.807526,-0.544376
-0.065306,0.457494,0.487256,-0.158218,0.987388,0.005724
-0.548813,0.797063,0.824076,0.518166,0.676570,-0.523218
-0.573928,-0.106906,0.450429,0.560337,0.540747,0.627388
0.152898,-0.711017,-0.970358,0.380419,-0.295682,-0.876273
0.511152,0.050164,-0.981354,-0.038015,0.992630,-0.115065
0.072788,-0.049510,0.321596,0.201812,-0.951211,-0.233388
-0.380589,-0.090891,0.461902,-0.703152,0.613739,-0.359028
-0.118173,-0.623075,-0.973211,-0.374654,0.276117,0.885095
0.886471,-0.477684,-0.951051,0.507470,0.779212,-0.367836
0.089582,0.070051,0.263989,-0.602010,-0.225740,0.765914
0.331346,-0.168855,-0.964734,0.014335,-0.038021,0.999174
-0.099456,-0.063986,-0.182049,0.841302,-0.530500,-0.103835
0.161405,-0.187655,0.758939,0.888717,0.000363,0.458457
-0.396320,0.684388,0.682527,0.367843,-0.706776,0.604284
0.465440,-0.671843,-0.960000,0.438320,0.429858,-0.789365
0.428934,-0.092150,-0.434925,0.271085,0.232646,-0.934018
-0.532270,-0.157384,0.500921,-0.219304,-0.724997,0.652905
0.362140,-0.099144,-0.980683,-0.452598,-0.212383,0.866053
-0.009011,0.160181,0.768511,0.218142,0.974320,-0.055807
0.211934,-0.436471,-0.970009,-0.657081,0.362760,0.660794
0.726544,0.003935,-0.972804,0.960721,0.097292,0.259902
0.508518,-0.402241,-0.436240,0.811790,0.583923,-0.005626
-0.244661,0.003301,0.012190,-0.091223,0.995731,0.014058
0.765298,-0.475708,-0.934740,-0.844747,0.453454,0.284221
-0.269770,-0.106842,0.193915,-0.624546,-0.415984,-0.660983
0.098398,-0.073745,-0.658810,0.908501,0.088327,0.408442
-0.436296,-0.165220,0.215056,0.991308,0.131527,-0.003082
0.416545,0.269527,0.654579,0.833037,0.551224,0.046927
0.204559,-0.211605,-0.755001,0.353866,0.636836,0.684995
0.211850,-0.797405,-0.954873,-0.305896,-0.514889,-0.800823
0.440719,-0.183901,-0.420199,-0.742712,0.591804,0.313283
0.326349,-0.308042,-0.827358,0.635977,-0.615505,-0.465495
-0.465866,0.563889,0.843952,-0.768885,0.558033,0.312112
0.023341,0.015739,-0.511177,0.848773,-0.523889,-0.071580
-0.172772,0.215301,0.793149,0.415379,0.848069,0.328997
-0.028027,-0.248996,-0.330460,0.992580,0.113508,-0.043592
0.723662,-0.571173,-0.951230,0.370260,-0.170074,-0.913226
0.087166,-0.339395,-0.368368,0.250677,0.956280,0.150631
-0.137350,0.159482,0.801915,-0.660596,-0.516567,-0.544767
-0.474880,-0.060667,0.190531,0.993128,-0.106059,0.049481
-0.397079,0.577687,0.831020,0.683455,-0.588208,-0.432320
-0.098434,0.580653,0.320351,0.978487,-0.110305,0.174343
0.643904,-0.442929,-0.956992,0.592490,-0.287280,-0.752612
0.373215,-0.153566,-0.987111,0.155794,0.273668,0.949123
0.252190,0.369985,0.349089,-0.655639,0.319941,0.683941
-0.147325,-0.193855,-0.230596,-0.768717,0.286761,-0.571702
0.360129,-0.283926,-0.982429,0.957897,0.147690,0.246212
-0.441373,0.511185,0.835422,0.428925,-0.584445,-0.688802
-0.010008,0.474072,0.577773,0.461386,0.881251,0.102566
-0.095346,-0.166794,-0.472027,0.383778,-0.008388,0.923387
0.054434,-0.472634,-0.966924,0.195556,0.860965,-0.469572
0.269222,0.009604,0.592282,0.936806,-0.323090,0.134192
-0.020381,0.370478,0.317318,-0.658537,-0.064496,-0.749779
0.112634,-0.204316,-0.697640,-0.103912,-0.982908,0.151967
0.531369,-0.888113,-0.949447,0.935480,0.147428,-0.321157
-0.045952,0.092848,0.797217,0.527750,0.615506,0.585349
0.644370,-0.175817,-0.464449,0.029984,-0.944057,0.328416
-0.578040,-0.481329,-0.732500,-0.310050,0.948695,0.062023
-0.136049,-0.129993,-0.211188,0.062036,-0.989586,0.129892
0.341545,-0.860604,-0.958284,0.000675,0.246513,0.969139
0.340580,-0.188160,-0.391215,-0.267505,-0.668392,0.694041
0.097378,0.737763,0.674190,0.197608,0.966223,-0.165423
0.004921,0.674300,0.661405,0.208549,-0.260286,0.942740
-0.089772,0.244222,0.792721,-0.030639,-0.077950,0.996486
-0.296494,-0.071206,-0.128196,-0.140547,-0.865063,0.481573
-0.705965,0.944912,0.874187,0.789884,0.603834,-0.107087
-0.019492,0.652530,0.509709,-0.733002,0.586836,0.343994
0.335246,-0.365913,-0.809941,0.905837,-0.211188,-0.367231
0.008369,-0.245785,-0.374094,0.360756,0.932500,0.017290
0.440672,-0.186583,-0.978952,-0.361696,-0.855450,0.370650
-0.033311,-0.190513,0.295870,0.877522,-0.041341,-0.477752
0.582511,-0.416524,-0.534416,0.944529,-0.283889,-0.165140
-0.588888,0.082081,0.557192,-0.007345,-0.629532,0.776940
-0.188583,0.465150,0.435558,-0.582761,-0.605454,-0.542047
0.042904,0.018624,0.612765,-0.262823,0.461370,-0.847385
0.445675,0.103071,0.345147,0.102570,-0.873922,0.475121
-0.408030,0.425366,0.766122,0.809399,-0.201444,-0.551629
-0.444802,0.265848,0.734457,-0.727063,0.427349,0.537357
0.117816,-0.320793,-0.982074,-0.704933,0.189916,-0.683375
0.222991,0.172160,0.558748,0.547706,0.733700,-0.402122
0.719182,-0.142199,-0.965689,-0.544202,-0.421616,-0.725317
0.332374,0.056516,-0.989513,-0.117626,-0.050751,0.991760
-0.225187,0.101357,0.728915,0.375826,-0.899510,0.222795
-0.189519,-0.086929,0.001511,0.968599,-0.247366,-0.025030
-0.434740,0.449770,0.755889,-0.646725,-0.762579,0.014807
0.249731,-0.420371,-0.914716,0.808370,-0.563728,-0.169556
-0.130037,-0.287316,-0.301807,0.372373,0.923526,-0.091860
0.003441,0.016217,0.864630,0.259713,-0.535278,0.803758
0.487304,0.288363,0.334330,-0.696386,-0.483001,-0.530808
-0.355882,0.042157,0.087493,0.760218,-0.579276,0.294122
-0.003478,-0.355430,-0.414313,0.907641,-0.110083,-0.405056
0.171842,-0.684408,-0.955231,0.961224,-0.272569,-0.041878
-0.015501,-0.398351,-0.358327,0.291261,0.150252,-0.944771
0.115796,0.456672,0.641022,-0.000718,-0.703309,0.710884
0.085655,0.726657,0.713480,-0.711255,-0.439262,-0.548786
-0.046877,-0.406055,-0.500162,0.925255,0.156253,-0.345670
0.190687,-0.079632,-0.435917,0.202932,0.978866,-0.025305
0.114078,-0.213661,-0.486294,-0.664528,0.746856,-0.024662
-0.208320,0.650690,0.189159,0.934575,-0.353748,0.037845
0.020051,-0.345112,-0.986714,-0.255516,0.113190,0.960156
0.261063,-0.085680,0.583941,-0.483954,0.253405,-0.837600
0.055715,-0.149814,-0.666059,0.037428,0.968968,0.244337
0.036242,-0.701818,-0.978274,0.660439,0.247827,-0.708803
0.095170,-0.583532,-0.957051,0.727072,0.504808,0.465333
0.095505,0.293349,0.106539,-0.060710,0.746076,0.663087
0.170821,-0.153341,-0.487342,0.302260,-0.243484,0.921604
0.228740,0.194343,0.734258,-0.418603,-0.282117,0.863239
0.338753,-0.774943,-0.949052,-0.574491,0.817206,0.046194
-0.379093,0.654728,0.778162,0.671448,0.392743,-0.628419
0.329221,-0.342031,-0.980539,0.187044,0.522717,0.831734
-0.557997,0.221852,0.778578,0.987709,0.060195,0.144245
-0.125421,0.061931,0.713550,-0.588568,0.245520,0.770264
-0.309777,-0.004798,0.524795,-0.530805,0.845925,0.051542
0.299637,-0.020084,-0.474422,-0.342260,-0.683876,0.644338
0.012306,-0.456448,-0.993218,-0.248428,0.733454,-0.632715
-0.219213,-0.433880,0.152539,0.876513,-0.295498,0.380008
0.327204,-0.133901,-0.968247,0.925399,-0.275129,0.260653
-0.110439,0.531241,0.360141,0.970767,-0.231002,-0.065190
-0.091428,-0.179294,-0.236649,0.909432,0.094978,0.404860
-0.076072,0.599429,0.409242,-0.240752,-0.969341,-0.049152
-0.145298,0.449355,-0.449503,0.107137,-0.910244,0.399972
-0.161014,-0.195709,-0.217660,-0.234438,0.347624,0.907853
0.801782,-0.355539,-0.946099,-0.127286,0.801392,0.584439
-0.200823,-0.117577,0.059805,0.969767,-0.243793,0.010860
0.303792,0.112395,-0.722570,-0.279970,0.876283,-0.392102
0.382917,-0.366708,-0.929067,0.525975,0.138998,-0.839065
0.415073,-0.672086,-0.955565,-0.460747,0.246937,0.852487
0.222955,0.086941,0.539002,-0.599140,-0.565047,0.567233
-0.446338,0.107409,0.420900,0.674086,0.086317,0.733593
-0.065739,-0.174339,-0.435892,-0.425746,0.102922,0.898970
-0.283769,-0.130811,0.379325,0.129643,-0.033667,0.990989
-0.040711,-0.295869,-0.420689,0.852433,-0.321558,-0.412261
0.102803,-0.473871,-0.979344,-0.047141,0.200039,0.978653
-0.304172,-0.004068,0.505946,-0.386975,0.882272,0.268041
-0.235170,0.037977,-0.041853,-0.230321,0.973078,-0.008504
0.607789,-0.414183,-0.958560,0.363448,0.051731,-0.930177
0.527799,-0.400250,-0.908451,-0.500380,0.529017,0.685391
0.152707,-0.276687,0.425442,0.905082,0.226346,-0.359993
-0.011256,-0.197282,-0.639029,0.796130,0.046775,-0.603316
-0.468809,0.563303,0.836622,0.066042,0.924439,0.375569
0.077632,-0.012169,0.623198,-0.737595,0.644606,-0.201087
-0.723376,0.160295,0.553229,-0.489374,0.808329,-0.327288
0.397712,-0.267194,-0.601454,-0.558107,0.418200,0.716677
0.388427,-0.015607,-0.714981,0.135988,0.351537,0.926245
-0.319557,-0.077454,-0.000460,0.903949,-0.316440,0.287651
-0.487961,0.515916,0.839780,-0.242004,0.828939,0.504275
-0.067609,0.232098,0.097165,-0.532160,-0.740889,0.409742
0.195344,-0.113917,-0.704054,-0.685095,0.433551,0.585388
-0.476466,0.588571,0.802351,0.761077,0.647430,-0.039951
0.384106,0.079923,0.589440,0.046868,0.370422,0.927680
-0.311671,-0.658304,-0.691128,0.007811,0.472861,0.881102
0.185477,-0.002577,-0.479670,-0.396076,0.456075,-0.796944
0.226727,-0.461723,-0.982068,-0.619405,0.775800,0.120301
0.528670,-0.638590,-0.947854,0.273545,0.343212,0.898542
0.008195,0.175085,0.230203,0.136501,0.968207,0.209626
-0.228635,-0.140136,-0.415400,-0.679263,-0.365723,0.636277
0.544502,0.124909,-0.970222,0.488986,0.390004,-0.780250
-0.602417,0.215608,-0.537671,0.753843,0.566259,0.333273
-0.293138,-0.072706,-0.152083,0.761972,-0.607051,0.225585
-0.050699,0.594266,0.541001,-0.066464,0.852973,0.517705
0.462560,0.036893,0.614899,0.319610,-0.912340,0.255902
-0.305165,0.683179,0.653527,-0.067660,-0.920965,0.383726
-0.293551,0.512606,0.782656,0.496540,0.365587,-0.787270
0.158335,-0.690793,-0.974411,0.594164,0.091696,-0.799100
-0.038612,-0.638205,-0.320860,0.150155,-0.803042,-0.576695
0.095336,-0.389883,-0.570569,0.735011,0.678016,-0.007249
0.075136,0.510667,0.656736,-0.261250,-0.941961,0.210850
0.029391,-0.530532,0.150655,-0.558714,0.794762,-0.237049
0.199592,-0.341729,-0.630718,0.924389,0.379049,-0.042751
0.483466,0.064735,0.579891,0.022990,0.551281,0.834003
-0.271752,0.179507,0.632862,0.995849,-0.051093,0.075323
0.460476,-0.652396,-0.971672,0.339203,0.333765,-0.879512
0.167602,-0.314767,-0.989356,-0.750253,-0.475666,0.459198
-0.235607,-0.399819,-0.718784,0.813301,-0.510966,0.278307
-0.172816,0.013211,0.595115,-0.301689,0.684201,0.663967
-0.201344,-0.005203,0.172582,0.782032,-0.480960,-0.396362
0.418888,-0.034986,-0.989853,0.512982,-0.557297,0.652894
-0.679980,0.752341,0.970565,-0.661882,0.644841,-0.382220
-0.353993,-0.112455,0.190286,-0.020843,0.317463,0.948042
-0.452987,0.177660,0.582515,-0.169353,0.014372,0.985451
-0.187909,0.339594,0.794411,0.159638,-0.368130,0.915967
-0.075086,-0.532719,-0.340991,-0.562823,-0.490043,-0.665649
0.069096,-0.219505,-0.537041,-0.291808,-0.158235,-0.943297
0.226847,-0.198018,0.633243,0.907805,-0.258214,0.330477
0.195827,-0.481286,-0.973167,0.103967,0.994538,0.009242
-0.023247,-0.222652,-0.373906,-0.075059,0.983325,0.165647
0.118679,-0.224841,-0.990549,0.941626,-0.336631,0.004472
-0.043270,0.505098,0.489295,0.601456,0.797722,-0.043473
-0.110657,0.591992,0.209327,0.986620,-0.154130,0.053157
-0.136054,-0.156023,-0.223034,-0.543262,0.798699,0.258740
0.506997,-0.454703,-0.955562,0.415638,0.217477,-0.883147
0.472184,-0.157231,-0.974433,0.967651,-0.249509,0.037361
0.422665,-0.123688,-0.707883,-0.712653,0.654817,-0.251676
0.173621,-0.039208,0.837813,0.631415,0.124713,-0.765351
0.054775,-0.352304,-0.399792,0.084380,0.634441,0.768352
-0.292331,0.351744,0.767936,0.371963,0.844419,0.385486
-0.172974,-0.226464,-0.252627,0.349988,-0.188468,0.917599
-0.338920,0.272836,0.474691,-0.106261,-0.416626,0.902846
0.143335,-0.178870,0.727357,-0.720821,-0.660255,0.210903
-0.015670,-0.107389,-0.152548,-0.139457,0.937342,-0.319282
-0.184099,-0.094177,-0.253851,-0.622210,0.719059,-0.309531
-0.408661,0.728302,0.781558,-0.125619,-0.324821,0.937396
0.446364,-0.422329,-0.927783,0.814617,0.441127,0.376572
0.447217,0.000835,-0.971635,0.928147,-0.133946,0.347278
-0.202772,0.136199,0.256708,-0.034361,-0.874470,0.483862
0.127025,-0.054115,-0.431131,-0.380624,-0.483102,-0.788503
-0.657789,0.120673,-0.460027,-0.656426,0.200540,-0.727247
0.389266,0.599213,0.375325,0.148449,-0.988848,-0.011945
0.005032,-0.294705,-0.980907,0.558276,0.083078,-0.825485
-0.497722,0.200565,0.427670,-0.696686,0.540697,-0.471461
0.257004,0.299315,0.314561,0.004772,-0.929085,0.369835
-0.143959,-0.577719,-0.336826,0.253536,0.593180,0.764105
0.444305,0.500986,0.656318,0.858206,-0.068058,0.508773
0.242324,0.342081,0.635125,0.159625,0.548561,-0.820732
0.239783,0.617479,0.617586,-0.088381,0.961417,-0.260511
0.556770,0.073270,0.610859,0.577955,-0.806911,0.121913
-0.498858,0.352642,0.556567,-0.774628,0.624355,0.100661
0.525336,-0.294068,-0.417800,0.903182,0.361861,0.230910
0.181966,0.112339,0.261865,0.622705,0.282021,-0.729865
0.524405,-0.847399,-0.958385,-0.734902,0.129191,0.665754
-0.006246,-0.510452,-0.975739,-0.278184,0.714678,-0.641755
-0.789862,-0.462930,-0.706647,-0.231972,0.837930,0.494026
0.400057,0.530706,0.314220,-0.373172,-0.710241,0.596909
0.525475,-0.210784,-0.954064,0.442023,0.870519,0.216361
0.103716,-0.045721,0.361405,0.370794,-0.916962,-0.147287
-0.262695,-0.026006,0.014512,0.555848,-0.830881,0.025890
-0.177251,0.561145,0.606284,-0.034499,-0.998837,-0.033670
-0.395741,0.177792,0.456041,0.815384,0.507545,-0.278473
0.433723,-0.321379,-0.924770,0.351751,0.013755,0.935993
0.438741,-0.649254,-0.953322,-0.064276,-0.229037,0.971293
0.814413,-0.456168,-0.970660,0.005091,-0.052338,0.998616
0.120433,-0.040242,0.362249,-0.307687,0.946090,0.101201
-0.022797,-0.206724,-0.635401,0.598526,0.708248,-0.374369
0.087069,0.692623,0.761160,0.780961,0.022087,-0.624189
0.001575,0.240423,0.286555,-0.240084,0.129990,0.962009
-0.450882,0.365748,0.583694,0.914342,0.363333,0.178794
-0.284738,-0.278177,0.287408,-0.095597,0.817079,0.568545
-0.246142,0.169179,0.274319,-0.377034,-0.729631,0.570512
-0.135503,-0.006822,0.718909,0.257972,0.909169,-0.326898
0.627067,-0.347787,-0.967858,-0.087097,-0.383783,0.919307
-0.403971,0.531009,0.780193,0.837197,0.460499,-0.295029
-0.143134,-0.036895,-0.147458,0.353031,0.427228,0.832373
-0.109308,0.180392,0.829720,-0.059593,0.978658,0.196665
-0.189335,0.044922,0.128603,0.476604,-0.877103,-0.059487
0.533161,-0.917025,-0.943753,0.819016,-0.354337,0.451285
0.103322,0.015813,0.757107,0.765597,-0.220487,0.604357
-0.327264,-0.069199,0.134337,-0.627757,0.764038,0.148887
0.313814,-0.333082,-0.959824,0.441372,-0.804488,-0.397479
0.327090,-0.362110,-0.949808,-0.413283,0.907452,0.075681
-0.358859,0.750657,0.858214,-0.223109,-0.739399,0.635226
-0.394931,0.170805,0.401420,0.901571,-0.289473,0.321520
0.101349,-0.179358,0.753347,0.910212,0.350666,0.220337
0.232529,0.172646,0.730535,-0.530057,-0.398466,0.748508
0.257884,-0.181289,0.618983,0.945443,0.322975,-0.042704
-0.030652,0.233488,0.073969,-0.618706,0.785619,-0.002308
-0.670717,0.772804,0.971166,0.819692,-0.572329,0.023326
0.883947,-0.545972,-0.951849,0.738216,-0.560115,-0.375910
0.252746,-0.320570,0.616956,-0.085387,0.017355,0.996197
-0.297207,-0.295241,-0.360706,0.519688,-0.835633,-0.177883
-0.459057,0.135985,0.419535,0.627584,-0.175880,0.758422
-0.844763,0.314976,0.541895,-0.319938,0.365793,-0.873977
-0.329370,0.074779,-0.510831,-0.571457,-0.413456,-0.708866
0.041817,-0.330144,-0.965167,0.721128,0.540790,-0.433037
0.170680,-0.549616,-0.948353,-0.487990,0.250692,0.836074
-0.115449,0.303031,0.271042,0.015560,-0.936871,0.349328
0.424225,0.029570,-0.972991,0.398016,0.878613,0.263860
0.306040,-0.507585,-0.960350,-0.460346,-0.356928,0.812825
0.596774,0.352904,0.381195,0.960568,0.272914,0.053164
-0.648895,-0.506278,-0.723294,0.424485,0.668147,-0.611058
-0.105189,-0.287997,-0.377512,0.085355,0.905418,0.415852
0.726290,-0.679323,-0.962423,0.522608,-0.845033,-0.113134
-0.438603,0.422186,0.523300,0.639640,-0.195931,-0.743284
-0.255383,-0.370814,-0.709753,-0.763758,0.265790,-0.588242
-0.005936,0.541509,0.529581,-0.604596,0.793991,0.063578
-0.547434,0.796181,0.964312,0.719770,0.682111,0.129059
0.567393,-0.361672,-0.913019,-0.603508,0.460724,0.650777
-0.069486,0.163531,0.280627,0.010130,0.758589,0.651491
-0.534377,-0.167839,0.465892,-0.703705,-0.707582,-0.064242
-0.267444,0.708275,0.808149,0.258127,0.848883,-0.461268
0.262344,-0.140414,-0.874397,0.645054,-0.628883,0.434065
0.026569,-0.165439,-0.338598,0.977317,-0.003829,0.211746
-0.159466,0.431375,0.420695,0.710784,0.491925,0.502788
0.390451,-0.591423,-0.961228,0.270239,-0.452284,-0.849947
0.188999,-0.154949,0.860646,-0.757379,0.372891,0.536031
-0.091982,0.422608,0.113177,-0.577934,0.485093,-0.656260
-0.283985,0.269650,0.817662,0.952401,-0.209327,-0.221620
0.145738,-0.348004,-0.360137,0.631396,0.720978,0.285535
0.064451,0.675188,0.526186,-0.699379,0.571510,0.429238
-0.097266,-0.236527,-0.207474,-0.576140,0.410956,0.706525
0.282385,-0.642701,-0.931095,0.770141,-0.625387,0.125597
-0.028624,-0.295959,-0.333862,0.910633,-0.398658,0.108715
0.580008,-0.401417,-0.965741,-0.256627,0.407842,0.876246
0.854776,-0.477882,-0.906542,-0.913684,0.296870,-0.277580
0.020607,-0.031418,0.623565,0.930006,-0.367286,-0.013819
0.466716,-0.121448,-0.975132,-0.220437,0.118342,0.968196
0.241591,-0.045445,-0.506632,-0.308606,0.950657,0.031841
0.033043,0.635832,0.707227,0.984790,-0.110925,0.133734
0.534081,0.194389,0.330605,-0.503884,0.018147,0.863581
0.132164,-0.047463,0.762001,-0.656045,-0.727084,0.202372
-0.432627,0.037670,0.378152,0.860494,0.483672,0.160034
-0.385176,0.066739,0.235786,0.779493,-0.595521,-0.194283
0.461035,-0.681298,-0.970576,0.978921,0.188341,0.079006
-0.423899,-0.574749,-0.693301,-0.391111,0.415970,-0.820975
-0.227723,-0.143920,-0.251746,-0.719454,0.488756,-0.493461
0.094902,0.252228,0.688290,-0.342029,0.340227,-0.875935
0.063462,-0.380696,0.424497,-0.185901,-0.504561,0.843125
0.622013,-0.606349,-0.965000,0.868952,-0.470106,-0.154670
0.429996,0.068124,-0.975159,0.442828,-0.533369,-0.720709
0.794693,-0.435654,-0.962049,0.198228,-0.979926,-0.021235
0.211642,0.255308,0.600395,0.999193,0.017629,-0.036078
0.737623,-0.585506,-0.964163,0.413355,0.405839,-0.815127
-0.095117,0.282651,0.328412,0.148465,0.851873,0.502266
-0.431088,0.568581,0.788207,0.370368,0.891610,0.260498
-0.417264,0.242792,0.518417,0.781051,0.583762,-0.221770
0.437419,0.251028,0.317183,-0.584464,0.538881,0.606638
-0.452909,0.036616,0.385598,-0.411819,0.195223,0.890108
-0.331198,-0.058939,0.243944,0.986827,0.137813,0.084731
-0.053713,-0.372774,-0.976341,0.541461,-0.350724,-0.764077
0.329200,-0.269342,-0.421688,-0.304871,0.923181,-0.234075
0.204661,-0.335499,-0.796817,-0.388822,0.838147,-0.382526
-0.715237,-0.411812,-0.704535,-0.495175,0.746233,0.444903
-0.197346,0.107842,0.153702,-0.611603,0.610171,0.503620
0.648437,-0.374576,-0.910648,-0.364447,-0.866474,0.341177
-0.232839,-0.052077,0.568178,0.561550,0.682729,-0.467486
-0.084571,-0.184093,-0.417126,0.835445,-0.533371,-0.132467
0.273688,-0.605316,-0.964109,0.497197,-0.852201,-0.162939
-0.101320,-0.200152,0.556559,0.620277,0.784029,-0.023550
-0.139457,0.233794,0.810123,0.318774,0.898121,0.302923
0.099116,0.231593,0.293594,0.588953,0.722020,-0.363071
-0.818578,-0.545171,-0.725248,-0.156553,0.987337,0.025623
-0.190536,-0.048756,-0.138241,0.835483,0.135525,0.532542
-0.312982,-0.016100,-0.021171,-0.252304,0.960010,0.121343
-0.531359,0.001202,0.290280,-0.686753,-0.724617,0.057457
-0.076302,-0.115192,-0.540483,0.959154,0.279419,0.044153
0.410548,-0.871034,-0.958787,0.285668,-0.746254,-0.601247
-0.209079,-0.013606,-0.130815,0.899094,0.169351,0.403671
0.397538,0.228593,0.335938,0.707713,0.319095,-0.630333
-0.394647,0.735790,0.855545,0.680566,-0.373256,0.630484
-0.115984,0.562617,0.659904,-0.685628,0.114962,-0.718817
-0.142731,0.047246,0.109482,-0.390117,0.848527,0.357506
-0.538396,0.757981,0.911260,-0.661522,-0.305586,0.684840
0.055283,-0.141239,-0.585036,0.272047,-0.711101,0.648326
0.509246,0.241580,0.343393,0.497048,0.771074,0.397980
0.614639,-0.211003,-0.951916,0.831703,-0.106107,0.544988
-0.141648,-0.298606,-0.365692,0.646321,0.446875,0.618524
-0.629745,0.019964,0.478195,0.937697,-0.338112,-0.080032
-0.382256,-0.001140,0.414403,0.794685,0.451380,-0.405872
0.596033,-0.235295,-0.978696,0.155275,-0.302890,0.940291
-0.414619,0.292253,0.487579,-0.090111,0.988716,-0.119673
-0.508954,0.075430,0.277657,-0.367773,0.804888,-0.465724
-0.144783,0.379860,-0.405896,0.047963,0.605559,0.794354
0.241773,-0.245672,-0.933025,-0.054602,-0.241021,0.968983
-0.507985,0.630262,0.912493,-0.118508,-0.985708,-0.119733
0.326669,-0.313814,-0.937700,0.218922,0.335797,0.916141
0.332391,-0.269578,-0.678591,-0.604858,0.759778,-0.238503
0.281821,-0.733753,-0.975910,0.467167,0.272579,-0.841104
-0.031118,-0.218240,-0.489029,-0.455047,0.717337,-0.527598
0.535605,-0.601915,-0.944107,-0.239191,-0.058156,-0.969229
-0.272471,0.124844,0.733755,0.435654,0.844041,0.312729
-0.365665,-0.085107,0.466170,-0.612690,0.679324,-0.403892
0.449109,-0.271558,-0.945672,-0.700886,0.702720,0.122241
0.318557,-0.449989,-0.316604,0.359071,-0.928151,-0.097995
0.267577,-0.147754,-0.971211,-0.717447,0.109238,0.687995
0.356073,-0.358667,-0.959463,-0.166606,-0.979261,-0.115283
-0.061721,0.182503,0.814565,-0.464076,0.790466,-0.399747
0.387778,-0.906453,-0.944324,0.232213,0.964046,-0.129197
-0.607551,0.719045,0.954178,-0.456177,0.572785,-0.681043
0.363261,-0.035783,0.669605,0.156475,-0.370004,0.915758
-0.113925,-0.231951,-0.128390,0.807515,0.569404,0.153942
-0.049351,0.466606,0.443844,0.115703,-0.988689,-0.095431
0.040070,0.429663,0.617773,0.853966,-0.507398,-0.115280
0.668349,-0.453286,-0.947507,-0.254585,-0.866368,-0.429642
-0.062394,-0.173533,-0.644147,0.987210,-0.065574,0.145314
-0.272002,-0.155729,0.105516,0.776146,-0.611121,-0.155337
-0.478742,0.312379,0.548918,0.007123,-0.856574,0.515975
0.308345,-0.017246,-0.727147,-0.382696,0.191381,-0.903834
-0.372401,0.531588,0.841566,0.195436,0.969097,0.150520
-0.340977,0.509201,0.626497,0.020856,-0.532326,0.846282
0.174410,-0.175805,-0.590862,-0.720476,-0.675705,0.156005
0.049004,-0.202353,0.700432,-0.605388,-0.749833,0.266938
0.684256,-0.674863,-0.936622,0.299569,-0.443436,0.844762
-0.019823,0.735868,0.710160,0.218227,0.829023,0.514877
0.427124,-0.701364,-0.967984,0.533234,0.277429,0.799184
0.053061,-0.094873,-0.419550,-0.691118,-0.620180,-0.371123
0.554969,-0.542209,-0.969719,-0.370528,0.841415,0.393357
-0.435340,-0.067038,0.388976,-0.184905,-0.046466,-0.981657
0.259891,-0.629783,-0.255446,-0.697911,0.678864,0.228177
-0.095525,-0.227226,-0.378646,0.700831,-0.168613,-0.693113
0.274234,-0.254567,-0.665848,0.386267,-0.391899,0.834993
-0.476117,-0.731333,-0.744139,0.302697,-0.404208,0.863128
0.126954,-0.001322,0.610873,0.362194,0.244060,-0.899583
-0.198282,-0.240386,-0.220601,0.564927,-0.548849,0.616135
0.469372,-0.797605,-0.959585,0.897204,0.297359,-0.326501
0.480022,-0.258798,-0.970945,-0.413598,-0.035614,0.909763
-0.115235,0.414307,0.761712,-0.709444,-0.650167,-0.271979
0.289301,0.371476,0.626581,-0.423307,-0.724016,0.544621
0.084654,-0.573609,-0.964153,0.124597,0.983908,0.128068
-0.272604,-0.318739,-0.738830,0.404007,0.250688,-0.879735
0.097801,-0.511902,-0.958369,0.921940,-0.149308,-0.357397
0.193328,-0.182593,0.646819,0.745341,0.657729,0.108899
0.334183,0.407802,0.646671,0.582157,0.591746,-0.557611
0.250519,-0.266287,-0.441629,-0.087114,0.530823,0.842993
-0.064549,0.025063,0.657901,-0.115653,-0.992792,0.031435
-0.277863,0.080064,0.416934,0.726011,0.517273,0.453140
-0.403435,0.088304,0.365510,0.393672,0.739868,-0.545543
-0.049031,0.176052,0.784370,0.356141,0.255088,0.898940
-0.384698,0.480627,0.646747,-0.054599,0.817957,0.572682
-0.020190,-0.204813,-0.428579,0.645297,-0.187306,-0.740613
0.484052,-0.851714,-0.939413,0.081084,0.112743,0.990310
0.653074,0.138334,0.361535,0.779522,-0.590763,0.208193
-0.052497,0.552569,0.723386,-0.489894,0.702917,-0.515666
-0.255744,-0.045015,0.527917,-0.274375,0.914155,0.298396
0.448061,-0.514255,-0.364302,0.707803,0.688366,0.158644
0.858981,-0.396535,-0.967209,-0.043133,0.206314,0.977535
0.069833,-0.133002,-0.666877,-0.180785,0.930205,0.319429
-0.229757,0.032941,0.110888,0.277576,-0.902648,-0.328906
-0.381399,-0.068308,0.576800,-0.036990,0.998865,-0.030019
-0.000548,-0.445740,-0.948783,0.162873,-0.985415,0.049284
0.032537,-0.285381,-0.454443,-0.284011,0.904190,0.319027
0.034415,-0.242557,-0.481652,-0.040247,0.980264,0.193552
-0.074854,-0.336887,-0.342326,-0.070322,0.884565,-0.461085
0.202699,-0.475349,-0.925652,-0.086826,-0.964596,0.249030
0.335870,-0.362293,-0.808548,0.819834,-0.141813,-0.554762
0.349113,0.056218,0.643972,-0.058179,0.981993,0.179735
-0.105167,0.706588,0.695264,0.892636,-0.022857,0.450197
-0.152706,0.252210,0.546432,0.745216,-0.063362,0.663806
0.025556,-0.437654,-0.967402,0.760248,0.093892,-0.642812
-0.397478,0.024618,0.272889,-0.582666,0.654883,-0.481278
-0.488889,-0.337302,-0.705168,-0.511386,0.812515,-0.279827
0.230916,-0.268752,-0.971343,-0.615680,-0.551316,-0.563018
0.082157,0.166258,-0.688785,0.806340,0.387116,-0.447166
-0.008600,-0.543921,-0.401788,0.812504,-0.565476,-0.141685
-0.483909,0.566115,0.741078,0.589258,-0.783850,-0.195844
-0.277046,-0.254919,-0.726442,-0.323636,0.041759,0.945260
-0.377430,0.673198,0.853802,0.956548,0.084392,0.279094
0.426218,-0.184577,-0.983616,0.363076,0.725601,-0.584533
0.140347,0.517984,0.541778,-0.318381,0.582480,-0.747898
0.114578,-0.072985,-0.466962,0.739738,-0.641316,-0.203716
0.266229,-0.652163,-0.923827,-0.762338,0.475161,-0.439389
0.254519,0.020917,0.815201,-0.706987,0.506113,-0.493982
0.133066,0.617628,0.672020,-0.386405,-0.368144,0.845672
0.155909,0.116718,0.582592,-0.313300,0.932483,-0.179773
-0.069449,-0.051232,0.857633,0.449265,-0.580544,0.679065
-0.295212,-0.484519,0.334927,-0.028963,0.915581,0.401090
0.281244,-0.354523,-0.936194,-0.596293,-0.609016,-0.523005
-0.087426,0.180342,0.768922,0.708254,-0.691944,0.139961
0.172979,0.106018,0.609525,0.167255,-0.980395,-0.104165
0.197742,-0.137715,-0.983081,0.376948,-0.271995,-0.885398
-0.137649,0.089018,0.536087,0.091440,-0.799191,0.594082
0.361897,-0.314976,-0.903039,0.761970,-0.635342,-0.125471
0.414739,-0.341800,-0.289540,-0.699030,0.658499,-0.278810
-0.343381,-0.096789,0.540082,0.141340,-0.796151,0.588359
-0.510750,0.047758,0.413587,0.836258,-0.159504,0.524625
0.044229,0.071796,0.748975,0.831017,-0.168060,-0.530251
0.712209,-0.320008,-0.971949,0.756685,0.585470,-0.290952
-0.406428,-0.506144,0.332606,0.232655,0.853246,0.466736
-0.951678,0.166622,0.550015,0.628376,0.759952,0.166181
-0.050748,-0.072556,-0.469278,0.170291,0.628460,-0.758973
0.138381,-0.192790,-0.414461,0.773998,0.577026,0.260708
-0.267632,0.720007,0.731433,-0.509141,0.742949,-0.434513
-0.778305,0.165105,0.544048,0.555368,0.736605,0.385979
0.330360,0.422661,0.374026,-0.619316,-0.711589,0.331796
-0.132962,-0.218593,-0.718461,-0.248594,0.844032,0.475195
0.087920,-0.049113,-0.499011,0.164914,0.700846,0.693987
0.577495,0.228656,0.657223,0.932804,0.355054,0.061753
-0.286898,0.155367,0.385791,0.977255,-0.039434,0.208369
0.000638,-0.587511,-0.956440,0.018978,-0.999358,0.030398
0.058090,-0.759682,-0.961574,0.704300,0.489405,-0.514240
-0.164314,-0.622436,-0.321891,-0.235824,0.430989,0.870997
0.002536,-0.085894,0.720629,0.866001,0.492728,0.085208
0.667341,-0.201807,-0.959406,-0.498077,0.503874,0.705713
-0.176616,0.442140,0.767895,-0.573833,0.780305,-0.248676
-0.067007,-0.119194,0.750527,0.935774,0.352103,-0.018742
-0.031930,-0.173787,-0.584860,0.981813,0.188587,0.021875
-0.033500,0.241513,0.286649,0.919240,0.005452,0.393659
-0.009442,0.080883,-0.508196,0.864416,-0.501601,0.034367
-0.278295,0.380025,0.804820,0.914332,0.393160,-0.097073
0.515760,-0.530774,-0.957605,-0.362041,-0.734890,0.573465
0.147752,-0.477077,0.161088,0.388241,0.688830,0.612195
0.344914,-0.905900,-0.969199,0.517001,0.078508,0.852377
-0.299499,0.532375,0.674927,0.186762,0.686392,0.702841
-0.488436,0.773701,0.868936,-0.211742,-0.087853,0.973369
0.001964,0.452596,0.450864,0.293557,0.863491,0.410130
-0.019348,0.530188,0.654128,-0.111044,0.990685,-0.078815
0.077127,0.041555,0.719996,-0.645784,-0.742836,-0.176519
0.436066,-0.102968,-0.973006,0.870533,-0.376636,-0.316729
0.231232,-0.656234,-0.976632,0.021302,0.389808,0.920650
-0.020406,-0.235293,-0.567896,0.999012,0.040177,0.019020
0.276167,0.110786,-0.451927,-0.179518,0.799532,0.573168
-0.276362,0.189865,0.129817,0.530183,0.748077,-0.399108
0.629997,-0.483467,-0.948175,0.886096,-0.443593,0.134388
-0.404576,0.409259,0.793943,0.920806,-0.334253,0.200974
-0.127411,0.533966,0.697361,-0.668316,0.612942,-0.421493
0.196704,-0.294129,-0.691423,0.816644,-0.144630,0.558726
0.190746,-0.676066,-0.969774,-0.247791,0.746259,0.617816
-0.049979,0.909288,0.680331,0.738729,0.662548,0.123730
-0.072228,-0.100058,-0.170748,0.771007,0.608127,0.189020
0.014042,-0.530488,-0.978326,0.515747,0.806445,0.289227
0.567681,0.120260,0.612930,0.475301,-0.751072,0.458235
-0.306708,-0.150803,-0.061610,0.902686,-0.254245,-0.347157
0.352467,0.023266,0.686618,-0.006698,-0.769813,0.638235
0.249881,-0.516262,-0.941574,-0.411686,0.415842,0.810919
0.498441,-0.105390,0.338471,0.841124,0.415903,-0.345738
0.356850,-0.114375,0.660199,-0.386454,0.706078,-0.593386
0.174841,0.637163,0.550005,-0.045803,0.880029,0.472707
-0.614957,0.833887,0.838557,0.051070,0.295213,0.954066
0.266912,-0.264852,0.722816,-0.315640,-0.947677,0.047750
0.663330,-0.722481,-0.945424,-0.281509,0.589802,-0.756892
-0.101132,-0.160130,-0.209855,0.675013,-0.045034,-0.736430
-0.356452,0.071903,0.285676,0.321977,-0.801814,0.503413
-0.178434,0.504146,0.655915,0.882773,-0.452212,-0.127343
-0.290878,0.076371,0.159335,0.379058,-0.877142,-0.294852
-0.151135,0.143711,0.551043,0.225776,0.325207,0.918295
0.489198,-0.079384,-0.958165,-0.708979,0.705038,-0.016415
-0.146925,-0.170768,-0.109273,0.928334,0.348605,0.129117
0.280007,-0.195212,-0.975846,0.356526,-0.820407,0.447013
-0.403182,0.071768,0.286324,-0.627620,0.694150,-0.352490
-0.127991,0.191121,0.726606,0.431806,0.826848,-0.360369
0.111742,-0.025177,-0.432227,0.379519,0.770487,0.512167
0.642575,-0.220280,-0.966653,0.517065,-0.344639,0.783497
-0.492687,0.394483,0.644137,0.704046,-0.597758,0.383412
0.055729,-0.725545,-0.974144,0.833447,0.250785,-0.492415
-0.113431,-0.327550,0.350985,-0.594839,0.762211,-0.255344
0.176185,-0.276039,-0.725665,0.476799,-0.319471,0.818902
-0.027356,-0.400221,0.087352,0.006315,-0.898301,0.439336
-0.063932,-0.322141,-0.367573,0.187981,0.724866,0.662747
0.676983,-0.572189,-0.923228,-0.505081,-0.260939,0.822681
0.314291,0.093604,-0.709444,-0.159810,0.893342,0.420001
-0.374957,-0.063490,0.150524,0.482867,-0.727339,0.487665
0.244361,-0.140015,-0.667314,0.957183,-0.283687,0.057645
-0.633783,-0.606058,-0.730167,0.943520,0.303426,-0.133053
-0.305095,0.211431,0.728399,0.523841,0.565030,0.637442
0.273545,-0.080827,-0.914334,0.144838,0.983414,-0.109173
0.332948,-0.678314,-0.964229,0.011672,0.211784,0.977247
-0.281753,0.031579,0.388898,0.530815,0.151713,-0.833797
-0.482020,0.033479,0.536445,0.443625,0.750875,0.489268
0.324813,-0.392112,-0.868492,-0.252514,-0.902293,-0.349434
-0.235399,0.038009,-0.117333,-0.327428,-0.838604,-0.435355
0.593972,-0.220935,-0.959853,-0.256043,0.963840,0.073854
0.184348,-0.202320,-0.676013,-0.613849,0.262043,0.744663
0.458802,-0.280408,-0.978677,0.966108,-0.014252,0.257743
-0.204815,-0.005049,0.115686,0.411827,-0.720369,-0.558093
0.012355,-0.696445,-0.954416,0.492876,0.837961,-0.234296
-0.436957,-0.206698,0.456146,0.874019,0.223661,0.431353
-0.081718,-0.117993,-0.178959,0.990765,0.097068,0.094671
0.525018,-0.137252,0.308410,0.226505,0.932042,0.282832
-0.364452,-0.213508,0.310847,0.996274,-0.030280,0.080752
-0.175976,0.164739,-0.615566,0.486162,0.864766,0.125801
-0.343300,-0.140996,-0.428565,-0.830042,0.156057,0.535422
0.264567,-0.025192,0.736042,-0.722317,0.266309,-0.638230
-0.296008,0.655685,0.802727,-0.117430,-0.912278,0.392377
-0.118639,-0.499009,0.147183,-0.569698,-0.821840,0.004745
0.540187,-0.811587,-0.968559,0.083678,-0.266714,0.960136
0.457290,-0.824070,-0.941516,-0.386957,-0.657446,0.646551
0.676364,-0.354461,-0.967977,-0.571027,0.038373,0.820034
0.480870,-0.177581,-0.980455,0.274476,0.673079,-0.686751
-0.423099,-0.466409,-0.721163,-0.130763,-0.720093,0.681445
-0.131326,0.136995,-0.533923,-0.007924,0.966574,0.256265
-0.374838,0.114399,0.356539,-0.571723,0.818530,0.056050
-0.607354,-0.674483,-0.711194,0.794107,-0.324988,0.513592
0.218901,-0.313863,0.611482,0.693178,0.214873,0.687993
-0.014666,0.020088,-0.458367,0.965172,-0.021240,0.260752
-0.084665,0.383710,0.100502,0.654629,-0.350294,0.669891
0.736273,-0.339782,-0.961094,0.335081,0.583037,0.740127
0.304518,-0.054927,0.807506,0.649419,-0.744191,0.156317
0.025890,-0.548638,-0.978747,0.812383,0.569824,-0.123835
0.154643,-0.251508,-0.624326,-0.155434,0.987542,0.024505
-0.034260,-0.073867,-0.218809,0.909368,0.116336,0.399394
0.150868,-0.082170,0.759963,0.976970,0.171910,0.126399
0.848712,-0.181752,-0.945041,-0.473920,-0.851906,0.222836
-0.164647,0.467610,0.628135,0.746487,0.356433,0.561883
0.438415,0.139071,0.343758,0.088434,0.063953,0.994027
-0.464984,0.664466,0.885928,-0.415405,0.456925,-0.786548
0.346843,-0.384986,-0.938459,-0.642709,0.392750,0.657779
-0.836178,0.046675,-0.431880,-0.473745,0.090029,-0.876048
-0.181552,-0.096395,-0.130269,0.911169,0.343699,0.227251
0.564879,-0.952391,-0.926414,-0.364579,0.416565,0.832800
0.449306,-0.928144,-0.944476,0.014356,-0.977721,0.209419
-0.357853,-0.007777,0.166497,0.957330,0.117905,0.263853
-0.364572,0.475822,0.769837,0.349100,0.798741,-0.490042
0.507177,-0.752742,-0.937367,-0.161424,0.848602,0.503802
0.282988,-0.603003,-0.220622,0.833255,-0.473887,-0.284811
0.325652,0.107765,-0.973013,-0.190161,0.020975,0.981529
0.409411,0.023753,0.639452,0.133646,0.990762,0.022996
0.178003,0.568421,0.626078,0.202322,-0.977904,0.052619
0.436195,-0.457804,-0.931136,0.834329,0.281342,-0.474070
0.242397,-0.170626,-0.971138,0.346117,-0.935066,-0.076514
0.010870,-0.497166,-0.986536,0.344972,0.808498,0.476786
0.335284,-0.484554,-0.952148,0.449225,0.693315,-0.563481
0.046750,0.424700,0.578928,-0.725952,0.676355,0.124650
0.074883,0.749853,0.707336,0.718263,-0.151916,0.678984
0.087179,-0.183967,-0.669503,0.670245,0.619362,0.408855
0.082801,-0.311934,-0.998450,0.248311,-0.204947,0.946751
0.431445,0.009329,-0.964692,0.961993,0.066067,-0.264962
0.018106,0.026504,0.244205,0.668357,-0.028221,-0.743305
-0.299134,-0.010697,0.021694,0.101595,0.977926,0.182590
-0.379981,-0.243497,0.334862,0.957617,0.275875,0.082845
0.417600,0.384586,0.382973,0.722951,-0.484133,-0.492907
-0.263999,-0.108907,0.102726,0.940623,-0.037286,-0.337398
0.440739,0.195813,0.627910,0.538467,0.291462,-0.790634
-0.543801,0.796736,0.960657,0.691339,0.491769,-0.529351
0.004465,-0.057961,-0.638290,-0.070637,0.604038,0.793819
-0.439911,-0.084141,0.447744,0.259368,-0.256100,0.931204
0.310115,-0.178497,-0.988332,0.137161,0.319192,0.937712
0.617940,-0.159171,-0.975850,-0.227570,0.182930,0.956425
0.318055,0.611830,0.636292,0.355182,0.927810,0.114078
0.375980,0.163644,0.353327,0.918411,-0.094616,-0.384147
0.116701,-0.492688,-0.974101,0.852996,-0.143761,0.501728
-0.263951,0.553496,0.858452,0.957551,0.249716,-0.144006
0.134007,0.069978,0.529877,0.564341,0.759602,0.323301
0.244457,0.096571,0.614402,-0.042259,-0.492745,0.869147
-0.290357,0.205877,0.214651,0.445125,-0.874601,-0.192187
0.138333,-0.374048,-0.972916,0.628722,0.447897,-0.635686
0.018969,0.063884,0.738846,-0.326332,0.526757,-0.784878
-0.806593,0.022400,0.548667,-0.466870,-0.767831,0.438711
0.144423,-0.929247,-0.238194,-0.642162,0.405776,0.650365
0.825417,-0.189061,-0.946351,-0.368097,-0.738116,0.565410
0.017075,-0.243407,-0.386620,0.813646,0.527971,0.243365
-0.141654,-0.249206,-0.248495,0.648589,0.696855,-0.306146
-0.104655,0.244395,0.241648,0.724732,0.549776,-0.415343
0.432852,0.264833,0.629805,0.728170,0.506090,-0.462212
-0.230359,-0.046761,0.561985,0.844144,-0.376521,-0.381646
-0.085137,-0.544973,0.335514,0.579201,-0.733880,-0.354889
0.436344,0.234948,0.419583,-0.275224,-0.459345,0.844543
0.021539,-0.486630,0.169495,-0.060033,0.155509,0.986009
