-0.333654,0.121061,0.581888,-0.550400,-0.754666,0.357125
-0.203661,-0.078274,0.770851,0.887641,-0.357114,0.290798
-0.368987,0.372687,0.650273,0.902008,0.418764,0.104969
-0.198806,0.282101,0.176831,0.749148,0.107995,0.653540
-0.343643,-0.336255,0.289410,0.978236,-0.125529,0.165219
-0.154950,0.034061,0.067148,-0.929334,0.330959,0.163720
0.363123,-0.323746,-0.966279,-0.500790,-0.067304,0.862948
0.026297,-0.191606,0.420978,-0.212935,-0.737317,0.641110
0.109949,0.218928,0.464821,-0.510028,-0.778183,0.366475
0.268172,-0.006719,0.751737,0.162347,-0.482535,0.860699
-0.192339,-0.282082,0.652863,0.879449,-0.469442,-0.078703
0.209253,0.739499,0.589040,0.959098,0.104522,-0.263071
0.154016,0.778136,0.450767,0.926491,0.364860,-0.092148
-0.223207,-0.033820,0.740507,0.887606,-0.460021,-0.023148
-0.236399,-0.180694,0.013173,0.983809,-0.078923,-0.160906
-0.088032,-0.862865,0.558251,0.005672,0.793865,0.608068
-0.338612,0.704696,0.677977,0.290420,-0.951315,0.103224
0.113278,-0.159265,0.533097,-0.707955,-0.705726,0.027394
-0.416930,-0.178643,0.699108,-0.622068,-0.143069,0.769781
-0.255976,0.429019,0.646044,0.967535,-0.053716,-0.246963
0.263805,-0.101937,0.643394,-0.668725,0.739990,0.072266
-0.114802,-0.192240,0.757831,0.882339,0.446859,-0.147632
-0.364065,0.154551,0.890296,0.469305,0.879982,-0.073386
0.245587,0.406729,0.732202,0.272177,0.953250,0.131281
-0.545571,0.322085,0.629470,0.668017,0.659557,0.344582
-0.305260,-0.284058,0.856074,0.140888,0.927986,0.344953
0.264295,0.650119,0.576677,0.854284,-0.436742,-0.281878
-0.024644,-0.708367,-0.955159,-0.495847,0.062865,-0.866132
-0.147597,-0.296756,0.714999,0.513394,0.680400,-0.522956
0.263865,0.020012,0.656030,0.986174,-0.020506,-0.164437
0.457452,-0.216689,0.628673,-0.164148,-0.331378,0.929109
-0.708721,0.277524,0.679572,-0.599026,0.436152,0.671520
-0.147399,-0.110927,0.335564,0.098823,0.408825,0.907246
-0.272942,0.505226,0.650361,0.395979,-0.009869,-0.918207
-0.206739,-0.615668,-0.530366,0.297028,0.949328,-0.102716
-0.299628,-0.269156,0.520513,0.186864,0.982352,-0.008201
-0.532868,0.678924,0.575336,0.578025,0.116764,-0.807622
0.038709,-0.323388,0.784235,0.885539,-0.298028,-0.356370
-0.489721,-0.414369,0.680988,0.949384,0.158372,-0.271270
-0.176053,-0.179944,0.773433,-0.314123,-0.947552,0.058927
-0.455349,0.583609,0.282342,-0.578930,0.573616,-0.579487
0.464323,-0.401466,0.747064,0.814135,0.281362,-0.507957
0.248611,-0.296569,0.532032,-0.730470,0.054757,-0.680746
0.020642,-0.127721,0.336214,-0.646576,0.514077,0.563618
0.059828,-0.556255,-0.970672,-0.074336,0.308237,0.948401
0.464389,-0.153477,0.769308,0.904336,0.416625,-0.092737
-0.424814,0.231959,0.606553,-0.139710,-0.570887,0.809054
0.210475,0.082689,0.631833,-0.514866,0.854012,-0.074674
0.296075,0.909859,0.514572,-0.135103,0.918953,0.370503
-0.499526,-0.811382,0.487502,-0.431668,-0.573576,-0.696185
-0.327211,-0.279045,0.437178,-0.779007,0.537892,0.322212
-0.215930,-0.239622,0.412138,0.671139,0.739439,0.052932
-0.499283,-0.583260,0.609470,-0.000572,-0.745870,0.666091
0.192140,0.797616,0.561728,0.868461,-0.358979,0.341919
-0.502695,-0.692783,0.789752,0.757480,-0.647606,-0.082653
0.320104,-0.291857,0.704462,0.700912,-0.690513,-0.178645
0.483243,-0.253035,0.798434,0.802983,-0.129439,-0.581776
0.077012,0.145377,0.675778,0.239576,0.966552,-0.091544
-0.476274,0.904204,0.575536,-0.751425,0.659211,0.028300
-0.153959,0.224721,0.473206,0.995407,0.056554,0.077238
-0.213193,-0.642157,-0.722537,0.957968,0.285914,-0.023447
-0.399229,0.210491,0.610724,0.827469,0.553542,-0.094265
-0.216565,-0.076460,0.813102,0.394403,0.371375,0.840552
-0.185831,-0.245985,0.618224,-0.291661,0.942171,-0.165069
0.423353,0.305751,0.513299,0.915891,0.395102,-0.070980
0.613023,-0.079091,0.384757,0.102120,0.969885,0.221122
-0.554267,-0.715355,0.798167,0.854575,-0.476437,-0.206662
-0.127589,-0.581371,0.843130,-0.730812,-0.377190,-0.568896
-0.171466,-0.248300,0.842896,0.934196,-0.100628,0.342275
-0.171655,-0.035272,0.068522,-0.927366,0.115883,0.355758
-0.266107,-0.304246,0.611605,-0.859079,0.457681,-0.229154
-0.337022,-0.791701,0.698077,-0.685281,-0.607323,-0.401931
-0.225054,-0.500342,-0.570426,0.362025,0.932101,0.011216
-0.243369,-0.191021,-0.978712,0.192021,-0.077743,0.978307
-0.292135,-0.190519,0.608321,-0.367090,-0.592972,0.716679
-0.237230,-0.307406,0.603752,0.842097,-0.202490,0.499870
0.820750,-0.114067,0.520462,0.791044,-0.123878,-0.599086
0.095315,-0.392442,-0.979942,-0.047377,0.181656,0.982220
0.371372,-0.374794,-0.951292,0.490758,-0.343055,-0.800919
0.266026,0.740128,0.551938,-0.797570,-0.498538,0.339620
0.179398,-0.324969,0.742552,0.251176,-0.346270,0.903885
0.422169,0.415359,0.346940,0.262481,0.963435,0.053817
-0.244250,0.812446,0.707482,-0.695347,0.662043,-0.279627
-0.634614,0.447594,0.599122,-0.362484,-0.901404,-0.236803
0.127053,-0.304361,0.793726,0.792768,-0.240535,-0.560056
-0.093648,0.097417,0.575258,-0.320320,-0.518246,0.792979
-0.330477,-0.024708,0.359037,0.882544,0.358269,-0.304564
-0.108429,-0.318825,0.878037,0.896581,0.366699,-0.248342
-0.407782,-0.803589,0.759880,-0.518337,-0.796162,-0.312176
0.077809,0.677717,0.423959,0.799957,-0.563053,0.207462
-0.168508,-0.221760,0.268607,-0.656131,-0.743446,-0.129542
-0.628831,0.620880,0.585440,-0.399110,-0.807316,-0.434685
0.326975,-0.313212,0.655563,-0.400727,0.537664,-0.741845
-0.629922,0.366518,0.625627,0.979039,-0.153146,-0.134270
-0.070265,-0.437979,-0.965026,-0.250546,-0.041490,-0.967215
-0.157869,-0.468739,0.605900,0.144249,0.711464,-0.687758
-0.254386,-0.228617,0.513593,0.176885,0.664026,0.726485
-0.134784,-0.349786,-0.953885,-0.146641,-0.244833,-0.958412
0.279051,-0.115482,0.689173,-0.020388,-0.362040,0.931939
0.097541,0.332283,0.495302,-0.474352,-0.402689,-0.782836
0.170526,-0.403984,-0.956643,0.495381,0.074919,-0.865439
0.015512,0.319329,0.684040,0.842591,-0.290172,0.453696
0.076380,0.248785,0.617710,0.442451,-0.862890,0.244250
-0.549864,0.457922,0.672280,0.926642,-0.161805,-0.339342
0.344460,-0.125914,0.652929,0.085122,-0.446872,0.890539
-0.142440,-0.270113,0.305914,-0.477420,0.865408,0.152112
0.796428,-0.217015,0.476155,0.599432,0.739910,0.305311
0.460121,-0.393154,-0.960412,0.223202,-0.369330,0.902095
0.089522,-0.244171,0.658899,-0.619359,-0.442563,-0.648484
-0.167590,-0.377395,-0.120806,0.949406,-0.300020,0.092819
-0.291403,-0.325535,0.808993,-0.495894,0.850324,-0.176175
-0.084468,0.395297,0.598247,0.996777,0.009833,0.079613
-0.135559,-0.247978,0.875843,0.590884,0.061446,-0.804413
-0.445012,0.473859,0.248468,-0.770232,0.517895,-0.372192
-0.563054,0.579710,0.577821,0.264038,0.755692,0.599344
-0.146123,0.692817,0.488888,0.753578,0.652996,-0.075608
-0.183726,-0.287438,0.466275,0.742719,-0.583714,0.328094
-0.234915,-0.214775,0.208802,-0.565439,-0.804256,-0.182894
0.136399,0.270448,0.659316,0.836978,0.234745,-0.494330
-0.658621,-0.721699,0.726213,-0.150219,0.977646,0.147116
-0.569424,0.195339,0.633809,-0.376647,0.744113,0.551754
0.244342,-0.028174,0.575161,-0.114963,-0.988167,0.101537
0.026315,-0.115541,0.348624,-0.277011,0.929735,-0.242605
-0.166943,-0.190231,0.858448,0.837686,-0.531318,0.126425
0.101771,-0.334822,0.719499,-0.537499,0.833961,-0.124917
0.075898,0.385610,0.475432,0.283058,0.957789,-0.050177
0.214006,-0.179190,0.757345,0.913575,-0.074936,0.399705
0.087735,-0.196307,0.654958,0.418493,0.683105,-0.598524
0.012023,0.073661,0.440241,0.971181,-0.203264,0.124460
-0.279963,-0.243035,0.209684,-0.763022,-0.633488,-0.128417
0.041128,-0.025020,0.502011,-0.723941,-0.675220,-0.141377
0.702231,-0.172271,0.432650,-0.334987,0.941998,0.020559
-0.422804,-0.761965,0.608484,0.131686,-0.649410,0.748950
0.922516,-0.192761,0.436926,0.419054,0.904048,0.084209
-0.256398,-0.642879,-0.968212,0.742474,-0.090876,-0.663682
-0.351730,-0.052161,0.636893,-0.666281,-0.276500,0.692544
0.424825,-0.040237,0.642661,0.718876,0.572101,-0.394864
-0.012014,-0.207170,0.642203,0.673246,0.370292,-0.640019
-0.179861,-0.007252,0.669145,0.860640,0.151532,-0.486146
0.235992,0.695084,0.538710,0.507748,-0.764018,-0.398081
0.253583,-0.270098,0.624958,0.219157,0.166114,0.961445
-0.464253,-0.792244,0.590086,-0.317214,-0.742603,0.589844
-0.087911,0.687446,0.394970,-0.715986,0.601300,0.354686
0.263433,0.734086,0.548366,0.902943,0.421529,-0.083712
0.035550,-0.420628,0.344549,0.810373,0.557685,-0.179674
-0.345810,-0.733443,0.608994,0.824131,0.550168,-0.134623
0.204598,0.210055,0.505416,0.319678,-0.697246,0.641602
0.103948,0.274543,0.704437,0.905301,-0.395516,-0.154910
0.148074,0.578932,0.457856,0.995902,-0.064746,-0.063141
0.862411,-0.047834,0.529240,0.956322,0.285294,-0.063677
0.097439,0.095297,0.534510,0.997270,-0.042917,0.060092
0.181269,0.645710,0.721163,0.571938,0.666506,-0.478181
-0.762348,0.170475,0.765984,-0.452491,-0.855198,-0.252762
-0.047075,0.000891,0.409145,0.905500,0.001656,-0.424343
0.378540,0.743664,0.582513,0.792549,0.549651,-0.264104
0.065031,-0.343825,0.617066,0.512486,0.146686,0.846074
0.778107,0.055875,0.483204,0.954398,0.165519,-0.248452
0.470404,0.444647,0.346299,0.183842,0.465104,0.865957
-0.727269,0.297664,0.763681,0.479616,-0.828303,-0.289624
-0.392254,0.951248,0.586426,0.012723,0.920945,0.389485
-0.325967,0.301036,0.656484,-0.532535,0.814798,-0.229154
-0.647445,0.210628,0.759317,-0.642451,0.639061,-0.422916
-0.251849,-0.359836,-0.971164,-0.085807,0.123970,0.988569
-0.572656,0.295878,0.642451,0.937827,0.104977,0.330848
-0.274680,-0.523167,-0.615748,0.886406,0.462859,0.006810
-0.533775,0.279819,0.667845,0.700748,-0.021932,-0.713072
-0.362209,-0.090471,0.445891,0.084739,-0.721256,0.687465
-0.258244,-0.233487,0.336490,0.888978,0.385896,0.246580
-0.349549,0.492602,0.301511,0.911806,0.343807,-0.224516
-0.160868,-0.533003,-0.982735,0.371148,-0.086664,-0.924521
-0.268448,0.821011,0.482013,-0.720817,-0.674499,0.159603
-0.265413,-0.332099,0.687122,-0.264120,0.774278,-0.575095
-0.007280,-0.047531,0.689295,0.340679,0.635067,-0.693273
-0.538651,0.372115,0.729883,-0.735004,0.656442,0.169862
-0.113391,0.956590,0.660725,0.915887,-0.267980,0.298895
-0.295364,-0.699752,0.651421,0.275358,0.607791,0.744828
-0.219791,-0.387754,0.776046,0.142708,-0.962592,-0.230330
-0.452369,-0.234797,0.743889,0.884184,-0.430514,-0.181318
-0.067551,-0.448523,0.595942,0.287342,0.556699,-0.779436
-0.258232,-0.259330,0.700098,0.609680,-0.340617,0.715731
0.069766,-0.387243,0.816422,-0.078396,0.225031,0.971193
0.257502,-0.472797,-0.971963,-0.078650,0.080828,0.993620
-0.299713,-0.034549,0.837012,-0.713759,0.158272,0.682274
-0.246523,0.620598,0.675795,-0.030263,0.996346,0.079863
0.097347,-0.550400,0.607926,-0.762409,0.646468,-0.028484
0.706928,0.213696,0.495595,0.917796,0.218810,-0.331319
0.057567,-0.150168,0.453812,0.891105,0.012257,-0.453632
-0.318309,0.010212,0.496331,0.924181,0.092487,0.370588
0.297929,-0.331578,0.634710,0.734730,0.526614,-0.427609
0.250768,-0.079612,0.592795,0.930807,0.090038,-0.354248
0.295608,-0.066049,0.743358,0.476347,0.547310,-0.688147
-0.380270,0.297880,0.429174,0.737339,0.507037,-0.446368
-0.290291,-0.236805,0.819177,0.227754,-0.266451,0.936553
0.707702,-0.119430,0.493585,0.904234,0.385870,-0.182937
0.251430,0.159217,0.790916,0.037854,-0.908467,0.416238
-0.471317,-0.394020,0.732645,0.406099,-0.687181,-0.602384
0.089493,-0.060963,0.597737,0.735471,0.614530,-0.285369
-0.357226,0.200149,0.531786,-0.182728,0.507252,0.842203
0.158839,-0.876791,-0.892141,0.360933,-0.786326,-0.501417
-0.286398,-0.208315,0.406224,0.520715,0.651569,0.551646
-0.196909,-0.217968,0.705663,-0.779454,0.613925,0.124689
-0.178892,-0.119911,0.663417,0.478892,-0.065213,0.875448
0.607181,-0.185722,0.826766,0.715299,0.631292,-0.299696
-0.159514,0.040043,0.673455,-0.228238,-0.377914,0.897267
-0.417830,-0.975461,0.572219,0.708902,-0.259701,0.655754
0.044985,0.265744,0.444612,-0.362062,-0.170180,0.916488
0.012320,-0.251356,0.439407,0.971453,0.190214,-0.141768
-0.307424,-0.392275,0.855996,0.632489,0.171078,-0.755441
-0.059568,0.278892,0.339827,-0.087199,-0.630325,0.771419
0.708065,-0.158776,0.516141,-0.370945,0.909350,-0.188370
-0.623469,0.495283,0.574683,-0.550023,-0.095838,0.829632
-0.082540,-0.538382,0.398064,-0.639657,0.354687,0.681936
-0.088564,0.182524,0.703651,0.679985,-0.714281,0.165602
-0.000653,-0.575606,-0.964962,-0.170892,0.149225,0.973924
-0.043753,-0.150193,0.639309,-0.159437,-0.361285,0.918724
-0.344313,0.062091,0.763303,0.935409,0.227725,-0.270464
0.252545,-0.405048,0.611576,0.584032,0.395541,-0.708840
-0.486893,-0.834331,0.573327,0.801139,-0.359035,0.478822
-0.075942,-0.435408,0.921402,0.570752,0.767429,-0.292053
-0.407398,0.192614,0.603722,0.678504,0.618072,0.397013
0.497639,-0.352281,0.758560,0.818803,0.174370,-0.546952
-0.299697,0.909509,0.535188,0.233055,0.972458,-0.003364
-0.472786,0.643966,0.661282,-0.590104,0.659863,-0.465144
0.182306,-0.333884,-0.965514,0.113086,0.098657,-0.988675
0.233813,0.141918,0.615466,0.897484,-0.169208,-0.407298
-0.251490,-0.215039,-0.994094,-0.023701,-0.253071,0.967157
0.740750,0.265267,0.467677,0.538182,0.469670,-0.699836
-0.241263,0.566954,0.597449,0.681161,-0.644754,0.346860
-0.302963,-0.103816,0.943183,0.850621,-0.524556,-0.035841
0.093386,-0.153614,0.609723,-0.173520,0.984431,-0.028045
0.520465,0.420942,0.349425,0.381997,0.869410,0.313375
-0.186908,-0.356198,0.796134,0.124847,0.339492,0.932287
-0.190006,-0.222744,0.723758,0.643886,-0.746064,0.169702
0.039499,-0.119689,0.683645,0.753551,-0.013495,-0.657251
0.025288,0.407877,0.727236,-0.708031,0.690846,-0.146371
0.583398,-0.073555,0.654614,0.305861,0.942467,0.134924
-0.967750,0.352451,0.678892,-0.329743,0.917729,-0.221457
0.130160,-0.243809,0.650851,-0.011149,-0.958822,0.283787
-0.685370,0.257793,0.651892,-0.691505,0.106246,-0.714516
-0.449532,-0.451007,0.693998,0.824231,0.536820,-0.180189
-0.178030,-0.324429,0.943608,-0.534964,0.621668,-0.572139
0.214109,-0.249816,0.675843,0.941876,0.299499,-0.152218
-0.326665,-0.002366,0.854200,0.885788,-0.045306,-0.461873
-0.458174,0.706806,0.361996,0.779920,-0.613676,0.122989
-0.257995,-0.426994,0.815139,0.428256,0.642031,0.635919
-0.443302,-0.436897,0.676476,-0.122044,-0.920292,0.371709
-0.297543,-0.191034,0.196066,0.505886,0.847708,0.159598
-0.342398,-0.033936,0.823216,0.812333,-0.469954,0.345338
-0.029596,0.631953,0.566048,0.979274,-0.109826,0.170179
0.051180,0.226997,0.365524,0.950793,0.238945,-0.197223
-0.443613,0.022803,0.659692,0.800669,-0.435876,0.411024
-0.360507,-0.222969,0.881977,-0.305847,0.931653,0.196162
-0.037325,0.137227,0.464875,0.101483,0.549266,0.829462
-0.556267,0.416010,0.667903,-0.624035,0.149668,-0.766929
-0.412288,-0.280205,0.725408,0.979926,-0.106572,-0.168483
0.438536,0.505190,0.599951,0.457426,0.888017,-0.046760
0.026236,0.247016,0.641408,0.554248,-0.641433,-0.530446
-0.225852,0.886164,0.482584,0.516753,0.712665,-0.474420
-0.305708,0.664306,0.665402,0.609650,0.619841,-0.494088
-0.558737,0.809987,0.580351,-0.742251,0.510115,0.434564
-0.536088,0.497213,0.796867,0.955089,-0.041887,0.293343
-0.001164,-0.301463,0.747100,-0.296479,-0.608715,0.735912
-0.241888,-0.292217,0.805596,0.714324,-0.665631,0.216049
-0.378160,0.251800,0.441404,0.761517,0.207906,-0.613895
-0.127588,-0.311856,0.331193,0.326971,-0.944654,-0.026807
-0.292975,0.545945,0.654982,0.073327,-0.424805,0.902310
-0.382703,0.630624,0.728357,-0.716406,0.684910,-0.132894
-0.499634,0.586491,0.449148,-0.579933,0.097060,0.808862
0.438813,0.271388,0.521700,0.812236,0.572997,-0.109306
-0.368844,-0.045527,0.846642,0.392941,0.513123,-0.763087
-0.170338,-0.246144,0.443004,0.883813,0.467468,0.018661
0.157881,0.784837,0.469375,-0.815485,0.527343,0.238523
-0.612297,0.295061,0.694576,0.835385,-0.538198,-0.111690
-0.305633,-0.206386,0.819214,0.686000,0.567924,0.454825
-0.034264,0.226241,0.747106,0.812269,-0.580179,0.060098
0.141626,-0.223134,0.643499,0.377041,0.913879,-0.150550
-0.033212,-0.107555,0.627242,0.680509,-0.579658,-0.448224
-0.179717,-0.322988,0.545122,0.911189,0.344347,0.226186
0.223543,-0.360824,0.525573,-0.511902,0.821782,-0.250263
0.629552,-0.220551,0.438212,-0.566702,0.435083,0.699680
-0.339179,-0.193465,0.392551,0.952027,0.176310,0.250117
-0.036520,0.097725,0.072529,0.024187,-0.802103,0.596696
-0.229014,-0.262045,0.666432,0.011569,0.644275,0.764707
-0.088590,-0.169408,0.722280,-0.305156,0.449380,-0.839606
0.202640,-0.248254,-0.957003,-0.023911,0.327165,0.944665
0.459949,0.458119,0.342143,0.075420,0.711651,0.698473
-0.185988,-0.266985,0.647903,-0.606670,0.765496,0.214402
0.028660,-0.347585,0.843243,-0.012036,0.910510,0.413312
-0.171311,0.287236,0.155096,0.735144,-0.315968,0.599774
-0.223115,0.032527,0.654284,-0.674413,-0.422752,-0.605349
-0.508013,-0.876446,0.611008,0.376183,0.849956,0.368864
0.123439,-0.311188,0.666230,0.804727,-0.354761,-0.475982
-0.611951,0.275540,0.734054,0.121877,-0.977164,0.174056
-0.450968,-0.324104,0.883569,0.959436,0.127710,-0.251344
0.426881,-0.201068,0.649891,-0.083519,-0.843821,0.530086
-0.001836,-0.571195,0.500047,0.967907,-0.099351,0.230838
0.295320,0.740696,0.590926,0.911402,0.333606,-0.240941
-0.077747,-0.027386,0.303031,0.938393,-0.344952,-0.020633
-0.089007,-0.362061,0.396062,0.054554,-0.029461,0.998076
-0.136205,-0.286190,0.369354,0.844368,-0.524714,0.108251
-0.219110,-0.137314,0.752649,-0.389432,-0.851365,0.351454
-0.227093,-0.433673,-0.158035,0.943805,0.309677,-0.115464
-0.321918,-0.320020,0.855626,-0.284935,0.331446,0.899420
0.626802,-0.329431,0.520501,0.914702,-0.001482,-0.404125
0.447128,-0.282241,-0.968579,-0.173723,0.135102,0.975483
-0.114306,-0.291675,0.925597,0.895151,0.442280,0.055612
-0.236693,-0.239221,0.403797,0.943065,0.313190,-0.111980
0.053310,-0.585454,0.589782,0.618958,0.324915,-0.715067
0.302138,0.714600,0.599046,0.033997,0.999264,0.017767
-0.174922,-0.377465,-0.178248,0.974499,-0.214107,0.067157
-0.166352,-0.273135,0.717838,-0.276473,0.175086,0.944938
0.338448,-0.280342,0.668567,-0.187573,0.642805,-0.742710
0.219086,0.694112,0.569355,0.369720,0.510159,-0.776560
-0.336971,-0.518125,0.705026,0.814187,0.026523,0.579997
0.413118,-0.103361,0.713751,-0.780785,0.301640,0.547164
-0.015752,-0.184245,0.679863,0.800141,-0.431866,-0.416253
0.128779,0.820885,0.455907,0.917737,-0.280326,-0.281382
-0.277248,-0.038300,-0.005287,0.798778,0.311377,-0.514779
0.377238,-0.403781,-0.962623,-0.411814,0.272744,0.869494
0.384207,-0.233980,0.635631,-0.243778,-0.800889,0.546946
0.053441,-0.559368,-0.960937,-0.024438,-0.108424,0.993804
0.174401,-0.420982,-0.962208,0.500610,0.249778,-0.828855
-0.318324,-0.250965,-0.981028,0.197285,-0.467906,0.861477
-0.048810,0.349488,0.346292,-0.114868,-0.659741,0.742662
-0.145443,-0.289539,0.529758,0.888145,0.282786,-0.362259
-0.307911,-0.613972,0.621444,0.962488,-0.271203,-0.008141
0.106665,-0.178143,0.653813,0.122206,0.986868,0.105624
-0.363050,0.262830,0.589708,-0.126606,-0.368220,0.921078
0.105866,0.399346,0.522494,0.996177,-0.081790,-0.030675
-0.349769,-0.151949,0.191270,0.354054,0.929588,0.102524
-0.525770,0.320749,0.646094,-0.602447,-0.754178,-0.261291
-0.727056,0.350846,0.430776,-0.277066,-0.328846,-0.902826
0.056296,-0.328567,0.487720,0.783389,0.535013,-0.316328
-0.192177,-0.846602,0.623780,0.545337,-0.769481,0.332427
-0.354192,0.416693,0.631141,-0.350240,0.152851,0.924104
-0.274536,-0.365424,-0.382063,0.964344,0.127265,-0.232043
0.048240,-0.398767,-0.221062,-0.052557,0.993571,-0.100273
0.338036,0.596249,0.593189,0.494581,-0.126493,-0.859877
-0.480905,0.064032,0.661089,0.973525,-0.082413,0.213209
0.400671,0.357342,0.359260,-0.161346,0.409511,0.897925
-0.065720,-0.081226,0.666253,-0.421984,0.003018,0.906598
-0.506940,0.345620,0.636452,-0.104029,-0.858235,-0.502605
-0.350644,-0.172832,0.891633,-0.403548,0.881306,0.245864
-0.166286,-0.131032,0.757668,0.462462,0.482812,-0.743654
0.115073,0.254004,0.659663,0.741729,0.156604,-0.652160
0.555248,-0.332588,-0.953755,-0.008407,0.310893,0.950408
-0.072290,-0.287887,0.861769,0.521130,0.798971,0.300114
-0.034068,-0.303822,-0.962995,-0.128208,0.131427,-0.983000
-0.383806,0.046474,0.805608,0.858262,-0.444112,-0.257198
-0.299735,-0.144114,0.750352,-0.821355,0.224402,0.524423
0.017252,0.609426,0.727145,0.932920,0.355212,-0.059030
-0.361857,0.131488,0.892608,-0.699681,-0.714444,-0.004096
0.105891,0.815459,0.492098,0.850230,-0.204730,0.484969
-0.637490,0.705788,0.564543,-0.473824,0.880028,-0.032267
-0.139635,-0.111556,0.388309,0.909156,0.415938,0.020772
0.252479,-0.084511,0.658779,0.833284,-0.441936,0.332161
-0.138201,-0.474917,0.748609,-0.395291,0.761834,0.513180
-0.272169,-0.210838,0.399387,0.980067,0.046207,-0.193220
0.351905,-0.338290,-0.957765,-0.492026,-0.427588,0.758339
0.268825,0.703890,0.568137,-0.296789,-0.370910,0.879967
-0.374841,-0.355993,0.865860,-0.106391,-0.672084,0.732792
-0.074019,0.135334,0.767671,0.886946,-0.252881,-0.386494
0.019647,-0.491137,0.345047,-0.523612,-0.629364,-0.574223
-0.307462,-0.037927,0.855297,-0.763185,0.573777,0.297201
-0.222763,-0.010714,0.034179,0.612820,0.614536,-0.496786
-0.302980,0.385238,0.163816,0.852480,-0.081023,0.516443
0.048037,0.557626,0.400947,0.375074,-0.812386,0.446484
-0.258567,-0.225901,0.643794,-0.697105,-0.716618,-0.022425
-0.015722,-0.278219,0.351834,0.785882,0.526151,-0.324891
-0.192184,0.351181,0.493476,0.869930,-0.211792,-0.445382
-0.746072,0.209672,0.742017,-0.766208,0.168184,-0.620193
-0.141221,-0.707937,-0.676453,0.696877,0.675507,-0.240943
-0.304282,-0.295585,0.410993,-0.427699,0.167197,-0.888323
-0.653447,0.302806,0.647371,-0.468709,0.873524,-0.131408
-0.754162,0.486165,0.611596,-0.169223,0.865586,0.471301
0.202539,0.751698,0.576769,0.819681,0.536478,-0.200785
-0.354515,0.077144,0.762519,0.923477,0.266838,-0.275658
0.161176,0.899005,0.500570,0.860122,0.465482,-0.208606
-0.026482,-0.083183,0.279495,-0.643911,0.703555,-0.300647
-0.537793,-0.346014,0.721528,-0.562824,0.819967,-0.104321
-0.168717,-0.507819,-0.054295,0.945651,0.324772,0.016359
-0.159295,-0.112763,0.538773,0.568621,0.464529,0.678884
-0.186634,-0.181381,0.335263,-0.183408,-0.543413,0.819185
0.050792,-0.717440,0.510499,0.973232,-0.087205,0.212639
-0.016430,-0.126095,0.442405,-0.522615,0.845333,-0.110837
-0.234999,-0.205462,0.623301,0.169788,-0.218556,0.960940
-0.287678,0.482791,0.648124,0.421248,0.786648,0.451370
0.010475,0.159561,0.526153,0.067709,0.974854,-0.212310
-0.599413,0.444995,0.344874,0.960022,-0.274725,0.053695
-0.187402,-0.233013,0.705146,-0.729988,0.678208,0.084569
-0.640670,0.448119,0.639439,0.661070,0.014376,0.750186
0.275981,0.780968,0.583016,0.183702,0.943293,0.276498
0.172833,0.367606,0.665115,-0.688812,-0.479789,0.543452
-0.116501,-0.136241,0.788046,-0.756184,0.168247,-0.632360
-0.171186,-0.300861,0.297634,0.115085,-0.976126,-0.184210
-0.866310,0.198324,0.638385,-0.456613,-0.206244,-0.865429
-0.192342,-0.619067,-0.716533,0.986717,0.146853,0.069447
0.145012,0.814476,0.528130,0.922451,-0.376447,-0.085860
-0.205806,-0.667776,-0.936788,-0.616149,0.787109,0.028628
-0.385951,-0.229327,0.845972,0.980544,-0.078379,-0.179970
-0.286332,-0.320348,0.880403,0.934033,-0.236524,0.267653
-0.182930,-0.160541,0.557659,-0.498192,-0.142543,-0.855270
-0.174938,-0.198476,0.874773,-0.807110,0.404311,0.430238
0.756213,-0.030892,0.513780,-0.532532,0.453195,0.714860
-0.125351,-0.054940,0.377985,-0.782878,0.016057,-0.621967
-0.141002,0.141775,0.531124,0.342061,0.429264,0.835899
-0.445013,0.323659,0.611385,-0.125602,-0.406636,0.904915
-0.107356,-0.258813,0.585110,-0.151660,-0.832496,0.532869
-0.157146,0.302625,0.668339,0.321836,0.871870,0.369139
-0.047244,0.104272,0.662287,-0.489433,-0.447657,0.748371
0.157135,-0.409713,0.604440,0.650890,0.468286,-0.597537
-0.306539,-0.776818,0.634017,0.983738,0.053852,0.171345
0.075116,0.685344,0.473985,0.853356,0.239122,0.463254
0.297007,0.703198,0.616595,-0.080425,0.712312,0.697239
0.520267,-0.151236,0.674124,0.184749,0.792535,0.581168
0.199758,-0.042211,0.668036,-0.860156,0.459003,-0.222368
-0.113331,-0.202212,0.380894,0.737024,-0.609493,0.292086
-0.303648,-0.337912,0.823280,-0.448015,0.652295,0.611387
0.130888,0.670856,0.504813,-0.715409,-0.601594,0.355351
-0.371375,-0.370789,0.701908,-0.542024,0.577565,-0.610433
-0.132589,-0.547185,-0.562970,0.546564,0.833825,0.077477
-0.072440,-0.315210,0.863463,0.557468,0.739689,0.376948
0.450331,-0.309747,0.674456,-0.321086,-0.945481,0.054493
-0.103313,-0.394274,0.953286,0.430797,0.770530,-0.469785
-0.324770,-0.791162,0.608079,-0.629364,-0.560882,0.537878
-0.259549,-0.311712,0.695761,0.219091,-0.921357,0.321093
-0.336423,-0.005915,0.756727,0.897934,0.439663,-0.020264
-0.271704,-0.326487,0.012529,0.991336,-0.074981,-0.107842
-0.183957,-0.358567,-0.071769,0.895706,0.442916,0.039187
-0.209828,0.406144,0.541415,0.877777,0.073218,0.473442
-0.084074,-0.293404,0.587595,0.579568,0.777422,0.244368
0.205598,0.383072,0.704829,0.039508,-0.355972,0.933661
-0.643851,0.474250,0.428886,0.040209,-0.008635,0.999154
-0.317813,-0.606924,0.614442,0.610464,-0.174255,-0.772637
0.207358,-0.423598,-0.967384,0.044387,0.133900,0.990000
0.204858,0.184668,0.612722,-0.646974,-0.603026,0.466674
-0.231332,-0.276513,-0.051707,-0.789358,-0.530780,0.308523
0.284913,0.759694,0.598682,-0.642483,-0.647387,-0.410007
0.774198,0.125514,0.481355,0.860473,0.094078,-0.500734
-0.637713,0.469875,0.610011,-0.103350,-0.981980,0.158219
-0.164414,-0.224136,0.698496,0.481998,-0.369655,0.794376
-0.103682,-0.767315,0.557757,0.393658,-0.319996,0.861763
-0.517498,0.281216,0.638810,-0.702756,-0.647703,-0.294306
0.202169,0.820042,0.576820,-0.487254,0.873022,-0.020405
0.171523,0.850254,0.526720,0.929968,0.315331,0.189013
0.590031,-0.163633,0.488344,-0.473104,0.874648,0.105654
0.175155,-0.211908,0.745388,0.650729,-0.682495,0.332794
-0.309791,-0.104856,0.454556,-0.291506,-0.606346,0.739844
0.091320,0.381213,0.524663,0.995859,0.088148,-0.022223
-0.194200,-0.338939,0.726727,0.844144,-0.534051,0.047014
-0.576469,0.322220,0.750504,-0.356936,0.765002,-0.536068
-0.525866,0.328822,0.753652,0.226110,-0.952681,0.203159
-0.630660,0.325261,0.282541,0.733398,-0.385202,-0.560131
-0.014357,-0.441030,0.675256,-0.288770,-0.953059,-0.091052
0.711052,-0.183448,0.530786,0.676353,0.288461,-0.677744
-0.396118,0.570221,0.274654,0.867931,0.487562,0.094754
-0.343216,-0.121998,0.707648,-0.587818,0.686655,-0.427756
-0.207832,-0.144268,0.722370,0.971315,-0.007322,0.237686
0.372379,-0.188649,0.647752,0.217596,0.949050,-0.227939
-0.295550,-0.857028,0.652332,-0.067155,0.763758,-0.642000
-0.295860,-0.215064,0.251689,-0.391020,0.900538,-0.190091
0.194630,0.689727,0.421760,0.796207,-0.598400,0.089287
0.095874,-0.281353,0.762618,-0.454348,0.864773,0.213858
-0.011401,0.279838,0.333089,-0.039423,0.723213,-0.689499
-0.447793,-0.228496,0.874675,0.801512,-0.593615,-0.072113
-0.085788,-0.138037,0.658774,0.161003,0.844720,0.510418
-0.317957,-0.240624,0.308155,0.750173,0.655489,-0.087033
-0.263614,-0.735644,-0.735996,0.955399,-0.251802,-0.154297
-0.408328,0.234661,0.642882,0.429065,-0.530795,0.730863
0.231038,0.314242,0.526671,-0.241303,0.716312,0.654729
-0.019449,-0.037207,0.520159,0.317149,0.850009,0.420597
-0.056922,0.144928,0.623920,-0.656244,-0.418013,-0.628179
-0.110123,-0.236193,0.323098,0.596707,-0.802398,0.009923
-0.159351,0.616716,0.515888,0.740510,-0.083790,-0.666801
0.351471,0.640860,0.618062,0.153531,-0.972828,0.173300
-0.077386,-0.330053,0.777118,0.591582,-0.723017,0.356760
-0.235534,-0.290117,0.338266,-0.273442,-0.957141,0.095448
-0.421103,-0.211977,0.685611,-0.176300,-0.607768,0.774297
-0.483592,-0.091057,0.685184,-0.034542,0.678535,0.733756
-0.601516,-0.753536,0.733819,-0.077074,0.963909,0.254833
-0.332990,0.679116,0.655480,-0.623366,0.694733,-0.358834
0.157691,0.750161,0.399949,0.794110,-0.604856,-0.059490
0.411586,0.546314,0.570868,0.039233,0.980909,0.190470
-0.325820,-0.570427,-0.690586,0.953289,0.297653,0.051412
0.108504,-0.149529,0.565730,0.708796,-0.210024,-0.673423
-0.614187,0.568333,0.578216,-0.032346,0.555492,0.830892
0.249973,-0.216551,0.546069,0.989933,0.116641,0.080171
-0.154070,-0.350725,0.353809,-0.474791,0.861854,0.178274
-0.380322,0.077869,0.856798,-0.455616,0.873358,-0.172222
-0.583036,0.223072,0.673368,-0.391684,0.865984,0.310894
-0.398977,-0.214878,0.760167,0.724748,-0.365592,-0.584023
-0.479695,0.660965,0.310646,0.978981,0.201060,0.034227
-0.025327,0.216117,0.707595,0.280927,-0.955887,0.085794
-0.138115,-0.289683,0.855039,0.085253,0.910910,0.403700
-0.434005,-0.728239,0.595979,-0.480267,-0.115459,0.869490
0.071208,0.761399,0.451327,0.947573,0.262336,0.182440
0.069496,0.166834,0.454797,-0.855850,0.514177,0.056068
-0.181494,0.035659,0.676220,0.685672,0.229869,-0.690662
-0.478086,0.316306,0.406250,0.492685,0.405732,-0.769833
-0.538028,-0.456837,0.739452,0.908262,-0.076735,-0.411306
-0.492279,0.305825,0.627782,0.046953,0.311008,0.949247
0.118201,0.625780,0.727488,0.422844,0.827927,0.368428
-0.566649,0.317666,0.438652,0.112008,0.976855,0.182232
-0.391417,0.602180,0.271770,0.923197,0.368888,0.107835
-0.637990,0.437767,0.645208,0.503892,0.675325,0.538543
-0.129500,-0.697066,-0.918263,-0.413885,0.902923,0.115889
-0.297555,-0.444020,-0.316658,0.438245,0.887858,-0.140178
-0.343223,-0.184891,0.695737,-0.106536,0.896099,-0.430878
0.111497,-0.047676,0.584714,-0.309162,-0.925939,0.216925
-0.718856,0.197373,0.747331,-0.213999,0.906705,0.363443
0.403941,0.692753,0.598248,0.539876,0.758567,-0.364841
-0.219738,-0.301909,0.861162,-0.315508,0.930080,0.188164
-0.272801,-0.270990,0.872044,0.804641,-0.450562,0.386713
0.057203,0.580110,0.734642,0.160445,0.404866,0.900189
-0.638356,0.295759,0.699590,-0.579839,-0.263769,-0.770852
0.019066,0.126080,0.477675,0.997557,-0.068152,0.015326
-0.372174,0.007529,0.799717,0.639064,0.583876,0.500685
-0.321511,-0.306436,-0.995277,0.007370,0.225976,0.974105
0.163122,-0.251926,0.743622,0.181966,0.646583,0.740823
-0.285020,0.400733,0.663803,-0.264504,0.195533,0.944354
-0.403389,0.727646,0.462772,0.869674,0.180435,0.459467
0.212470,-0.089691,0.622457,0.892260,-0.216927,-0.395998
-0.294090,0.784588,0.451962,0.409886,0.617597,-0.671243
-0.154328,0.311443,0.602794,-0.326497,0.269070,-0.906091
0.137385,-0.399095,0.832686,0.854545,0.440090,-0.275814
-0.122162,-0.010226,0.597792,0.523278,0.849602,-0.066002
-0.017053,-0.304035,0.730632,0.852355,-0.364107,0.375388
0.067164,-0.355233,0.867777,-0.136990,-0.879360,0.456026
-0.265934,-0.491283,-0.463306,0.773432,0.632661,-0.039279
0.785074,-0.075216,0.512991,-0.416021,0.034810,0.908689
0.116645,0.643102,0.717774,0.021854,0.995857,-0.088266
-0.510165,0.743888,0.591375,-0.668903,0.330809,0.665683
-0.023707,0.496585,0.380907,0.535186,0.565874,-0.627186
-0.250595,-0.375849,0.583492,0.759245,-0.496850,-0.420341
-0.253051,-0.415429,-0.975539,0.158540,0.259617,-0.952609
0.099753,0.078837,0.779608,-0.017636,-0.872105,0.489002
-0.100716,-0.078386,0.681769,-0.063975,-0.643022,0.763171
-0.165616,-0.311482,0.528978,0.811944,0.507380,-0.288639
0.293468,-0.214946,0.518717,0.818329,0.526195,0.231207
-0.197667,-0.215537,0.732332,0.650936,0.620339,0.437564
-0.227441,-0.264800,0.531750,0.674834,0.638702,-0.369675
-0.264453,-0.472719,-0.360570,0.883778,0.413389,0.219193
0.271954,0.710458,0.568925,-0.390401,-0.846807,-0.361255
0.292746,-0.188213,0.691067,-0.351233,0.699825,0.621997
-0.202072,-0.209837,0.153835,-0.578777,-0.814242,-0.045020
-0.229816,-0.074299,0.879992,-0.020897,0.894009,0.447562
0.344409,-0.095709,0.694957,0.477281,0.792724,-0.379198
-0.413825,-0.182889,0.684972,0.819662,0.214763,-0.531066
-0.081577,-0.431374,0.904958,0.881218,0.282740,-0.378832
-0.024426,0.397481,0.367238,0.878046,-0.471780,0.080370
-0.476185,-0.410547,0.052149,-0.515886,0.844820,-0.141920
-0.432363,-0.644765,0.596214,0.804082,0.554334,0.214862
-0.011056,-0.378274,0.860407,-0.095820,-0.990988,0.093603
-0.564373,0.396735,0.300578,0.932244,-0.327593,-0.153637
-0.480190,0.229460,0.596169,0.926974,0.285099,0.243798
-0.572990,0.335787,0.645380,0.956851,0.271334,-0.103989
-0.172080,-0.301566,-0.966719,0.486877,-0.289363,-0.824148
0.489048,-0.148819,0.644353,-0.494937,0.091250,0.864124
-0.034916,-0.352140,0.748747,0.667919,-0.740241,-0.076987
0.087079,-0.023920,0.466794,0.907170,0.081118,-0.412870
-0.250063,-0.200414,0.632720,-0.584651,-0.449179,-0.675589
-0.259078,0.462913,0.573609,0.936122,0.243003,-0.254215
-0.150279,-0.073970,0.659679,0.519735,-0.640813,-0.565008
-0.378954,-0.383431,0.945179,0.044814,-0.995419,0.084449
-0.556623,0.582526,0.369812,0.929542,-0.368162,0.020189
0.052661,-0.026867,0.553735,-0.285192,-0.951100,0.118633
-0.766538,0.320635,0.634302,0.119431,0.737966,0.664185
-0.221070,0.931829,0.523911,-0.254758,0.624350,0.738434
-0.408970,0.895248,0.530026,0.799364,-0.492879,0.343638
-0.279252,-0.250297,0.520171,-0.605465,-0.763832,0.223548
0.031617,-0.292481,0.643122,-0.287069,0.715130,0.637323
0.166881,0.384864,0.479392,0.951675,0.306212,-0.023417
0.317335,0.760726,0.566011,0.115499,-0.049309,0.992083
-0.039854,0.649044,0.550154,0.976690,-0.000774,-0.214654
-0.074510,0.145903,0.520945,-0.094849,0.990338,0.101167
-0.360699,-0.025746,0.497401,0.880483,0.449794,0.149781
-0.018273,-0.250232,0.691797,0.971383,-0.175767,-0.159754
-0.081368,-0.189677,0.634983,-0.266174,0.782890,-0.562348
0.436211,-0.145825,0.679030,0.345274,-0.907125,0.240644
0.828072,-0.117009,0.514406,-0.078184,0.542322,0.836525
-0.024755,-0.095389,0.568021,0.878201,-0.464970,-0.112093
-0.811041,0.340889,0.633689,-0.482798,-0.256306,-0.837385
0.800151,0.097411,0.438633,-0.807680,-0.505997,0.302689
-0.566280,0.482753,0.406965,0.257841,-0.479596,0.838753
0.135974,-0.146520,0.608739,0.030904,0.977197,-0.210075
-0.133771,-0.249503,0.830686,0.953113,0.250108,0.170357
-0.184453,-0.740277,0.507083,0.410972,-0.888086,-0.205924
-0.299228,-0.287715,-0.986810,0.231113,0.041889,-0.972025
0.114808,0.448198,0.531870,-0.080259,-0.450015,0.889407
-0.742591,0.527786,0.557882,0.419685,-0.572746,-0.704149
-0.196444,-0.033373,0.534445,-0.061964,-0.158030,0.985488
-0.270968,0.119584,0.902430,0.570066,0.783706,-0.246637
0.016154,0.171121,0.518528,0.113708,0.985068,0.129270
-0.483635,0.738776,0.275045,0.932806,0.291814,0.211464
-0.351254,-0.581449,0.643745,0.996791,-0.000569,0.080052
-0.094252,-0.050741,0.666662,0.044786,0.736114,0.675374
0.429071,0.421134,0.352352,0.123619,0.728049,0.674287
0.244563,-0.296991,0.684862,0.215026,0.975194,-0.052542
0.022563,0.411782,0.498761,0.513043,0.544060,0.663917
-0.538382,0.424713,0.736842,0.429035,-0.894318,0.126983
-0.178061,-0.262579,0.177435,0.945456,0.028850,-0.324470
-0.323231,-0.355313,0.734068,0.111172,-0.234063,0.965844
-0.294341,-0.296579,0.929025,-0.230014,0.961751,0.148759
-0.377933,0.197076,0.540289,0.542174,-0.537515,-0.645852
-0.391180,0.608247,0.460667,0.427795,0.061361,-0.901791
-0.145304,-0.512964,0.374592,0.720443,-0.126326,-0.681911
0.215868,0.382752,0.371223,0.494025,-0.617392,0.612182
0.239855,0.621480,0.558154,0.628747,0.365793,-0.686201
0.037711,-0.033597,0.659562,-0.838192,0.545026,0.019500
0.234252,0.697980,0.548996,0.841985,-0.092645,-0.531487
-0.295598,-0.749431,0.433323,-0.669150,-0.486142,-0.562053
-0.000405,-0.274622,0.745441,0.767211,0.617233,-0.174387
0.163904,-0.028999,0.604030,0.743584,0.602064,0.290863
0.465429,-0.176232,0.434513,-0.101165,0.848550,0.519354
0.650760,-0.085077,0.531144,-0.148806,0.389249,0.909034
0.099157,0.654579,0.484739,0.113682,0.991838,0.057737
0.130630,0.417595,0.661780,0.461513,0.466046,-0.754855
0.660300,-0.216100,0.499309,-0.669884,-0.717260,0.191816
-0.379496,0.405411,0.636122,0.673384,0.116388,-0.730074
-0.298287,-0.651961,0.622674,0.930796,-0.216658,-0.294413
-0.375381,0.218193,0.600829,-0.546388,0.282602,-0.788413
-0.390212,-0.414718,0.639074,0.997277,0.048536,-0.055517
0.467425,-0.140385,0.727270,0.867001,-0.311577,-0.388881
0.103549,-0.079618,0.612844,0.949635,-0.107620,0.294297
-0.233318,0.361537,0.475259,0.833297,-0.030010,-0.552011
0.194867,0.777780,0.534328,0.982250,-0.098133,-0.159860
0.163154,-0.502466,0.595923,-0.216316,-0.452581,0.865089
-0.199151,-0.343286,0.581137,0.882170,-0.470119,0.027639
0.137596,-0.387247,0.617934,0.471947,0.825802,-0.308734
0.550872,-0.166959,0.502440,0.055671,-0.988032,-0.143850
-0.186527,-0.347410,0.770522,-0.113045,0.445193,0.888270
-0.691430,0.345352,0.757308,-0.417132,0.813999,-0.404236
0.099276,-0.431941,0.636187,-0.123401,0.973214,-0.193974
0.223872,-0.143293,0.390226,-0.595367,0.671288,0.441487
0.852774,0.036078,0.533162,0.263135,0.961404,-0.080392
-0.356731,-0.104728,0.817957,0.882979,0.445653,0.147448
-0.261091,-0.157025,0.762311,0.803719,0.364938,0.469953
-0.134072,0.488544,0.523142,-0.605971,0.051467,-0.793820
-0.391238,0.058646,0.653388,-0.041489,-0.930494,0.363951
-0.615772,0.495990,0.582404,0.530548,0.692465,0.488888
0.243945,0.483751,0.724523,0.336568,0.852088,0.400834
-0.408396,0.846085,0.510876,-0.467186,0.859161,-0.208757
-0.435694,0.621095,0.671680,-0.509010,0.842045,-0.178518
-0.283758,0.054835,0.482214,-0.574408,0.784978,-0.232089
0.146080,0.763435,0.519073,0.948732,-0.128561,-0.288755
-0.209829,-0.218386,0.820405,0.735939,0.632603,0.241263
0.029733,0.707092,0.562550,0.984530,0.027037,0.173117
-0.326121,-0.234073,0.607658,-0.174155,0.181426,0.967861
-0.370968,-0.295365,0.887299,-0.431805,-0.005607,0.901949
0.215416,0.474402,0.699734,0.787972,0.509071,-0.346334
0.177983,-0.163722,0.537984,-0.521453,-0.817714,0.243785
-0.025545,0.069886,0.615155,-0.660078,-0.054980,-0.749183
-0.388562,0.072331,0.820903,0.133656,0.975185,0.176494
-0.395632,0.892825,0.544960,0.806744,0.162082,-0.568237
-0.166623,-0.394402,0.653063,-0.681206,0.681225,-0.268125
-0.153019,-0.181312,0.867446,-0.737479,0.673333,0.052405
-0.664593,0.271412,0.699563,-0.213846,0.942347,-0.257396
-0.204063,0.271206,0.516002,0.942688,-0.158937,0.293391
0.229924,-0.223178,-0.973044,0.211352,0.558439,-0.802170
0.292292,-0.397341,0.628250,0.552878,0.422531,-0.718187
-0.490394,0.391236,0.754993,0.967184,-0.250716,-0.041184
0.748623,-0.141917,0.527957,-0.655492,-0.131449,-0.743674
0.252923,-0.243223,0.721684,-0.249767,-0.885593,0.391589
-0.240909,0.709862,0.650502,-0.101933,0.840091,-0.532782
0.198192,0.564272,0.555549,-0.136372,-0.283836,0.949126
0.245733,-0.227089,0.693627,0.859865,-0.328273,-0.390985
-0.392139,0.310311,0.638434,-0.591459,0.737705,0.325526
0.500126,-0.480376,0.768310,0.862345,0.375299,-0.339870
0.263845,-0.315083,0.653303,-0.536104,-0.611713,0.581722
-0.289478,-0.074988,0.739569,-0.468615,0.811111,-0.349998
-0.317017,0.500467,0.650753,-0.236884,-0.004468,0.971528
0.343582,0.129340,0.633519,-0.539520,0.679747,0.496853
0.214316,0.828553,0.550660,0.986185,-0.066397,-0.151759
-0.071162,0.228561,0.689999,-0.720632,0.690340,-0.064189
-0.513822,0.396785,0.406671,-0.254286,0.417126,-0.872551
-0.444859,0.316144,0.647998,-0.171291,-0.018498,-0.985047
-0.466063,0.273715,0.649958,-0.324260,0.757137,0.567097
-0.274559,0.127117,0.899151,-0.604849,-0.774637,0.184648
0.142325,-0.387176,0.635134,0.565764,0.002399,0.824564
0.113713,0.312466,0.638621,-0.613228,0.789750,0.015703
0.187533,0.512938,0.530902,0.945253,-0.296743,0.135799
-0.272890,0.505772,0.646867,0.902777,-0.093111,-0.419910
-0.181762,-0.305589,0.672528,0.837162,0.030534,-0.546103
-0.214733,0.887144,0.534899,0.077813,0.915659,0.394353
0.342374,-0.221044,0.710354,-0.313732,-0.925164,-0.213645
-0.257246,-0.230627,0.821830,0.411030,0.875200,-0.255107
-0.075934,0.638719,0.556683,0.983960,-0.139313,-0.111421
0.300413,-0.039547,0.665264,0.847361,0.351783,-0.397779
-0.385345,-0.983598,0.581281,-0.881233,0.367629,0.297114
-0.248762,-0.270785,0.853329,0.822379,-0.212776,-0.527654
-0.030021,0.148950,0.312345,0.978720,0.182088,-0.094613
-0.342897,-0.777906,0.601733,0.800382,0.238023,-0.550212
1.000000,-0.277380,0.437654,-0.685236,-0.608145,-0.400764
0.364067,-0.209248,0.445835,0.405858,0.898012,0.169862
-0.019333,-0.492788,0.598155,-0.357893,-0.490118,0.794794
0.220005,0.788006,0.541924,-0.101852,0.889900,-0.444639
-0.007307,-0.481588,-0.220570,-0.040081,0.989439,0.139300
-0.222985,-0.457170,-0.447636,0.414874,0.909389,-0.029850
0.088117,-0.087217,0.400421,0.557539,0.440957,0.703354
-0.213160,-0.247928,0.864604,0.741407,-0.354656,-0.569679
-0.089839,-0.280827,-0.964269,0.022411,0.048823,0.998556
-0.576811,0.483936,0.281191,-0.777544,0.623772,0.079590
0.760500,-0.099993,0.516974,0.019196,0.514271,0.857413
-0.279786,-0.138952,0.815558,0.122118,0.876018,-0.466562
-0.510944,0.427424,0.680967,0.769332,0.404810,-0.494224
0.242270,0.787661,0.443436,-0.462541,0.866317,-0.188550
0.194791,0.806438,0.591045,-0.641735,-0.766916,0.003939
-0.602281,0.216336,0.301837,0.968597,-0.248365,0.011628
-0.296723,0.487875,0.331911,0.957614,0.267201,0.107606
0.274352,0.294448,0.700576,0.387383,-0.564822,0.728636
0.211167,-0.413692,-0.953569,-0.048256,-0.070170,0.996367
-0.070961,-0.068570,0.665333,-0.697760,0.155726,0.699200
0.024934,0.278161,0.357666,0.816165,0.143796,-0.559641
0.279334,-0.097356,0.654160,0.623635,0.641917,0.446119
-0.435761,0.431739,0.651706,0.937348,0.199770,0.285430
-0.822622,0.208008,0.755895,0.879501,0.395382,0.264861
-0.123721,-0.813162,0.542403,-0.421791,0.774749,0.471016
-0.312998,-0.221158,0.253367,0.462810,-0.854419,0.236168
0.225814,-0.070870,0.540848,0.081732,-0.995536,-0.047199
0.250080,0.299305,0.576098,-0.332237,0.932747,0.140007
-0.506654,0.338579,0.673406,0.413702,0.421585,-0.806918
-0.040513,-0.159592,0.249641,-0.639949,0.762390,-0.096055
0.302675,-0.314728,0.507767,0.911633,-0.410665,-0.016709
0.012419,-0.244028,0.636909,-0.493293,-0.391564,0.776749
0.804887,-0.162544,0.411109,0.099110,-0.519495,0.848706
0.452514,-0.483196,0.744979,0.916278,0.263160,-0.301961
-0.122903,-0.236966,0.773351,0.816857,0.501710,-0.284662
-0.549053,0.691051,0.378355,0.872037,-0.485638,-0.060886
-0.432339,0.749709,0.479139,-0.319475,-0.815682,0.482285
0.160653,0.423819,0.441033,0.830212,0.523639,0.191180
0.203355,0.763891,0.533857,0.928979,0.281758,-0.240022
-0.183793,-0.132927,0.812574,-0.405446,-0.835193,-0.371572
-0.316483,0.101790,0.808299,-0.087695,-0.897610,0.431978
0.240584,-0.209299,0.566987,0.975141,0.221567,0.002843
0.008029,-0.142394,0.706476,0.906716,-0.217628,0.361254
-0.539025,0.471672,0.450872,-0.714876,-0.468865,0.518765
-0.447557,0.696728,0.289876,0.949852,0.311954,0.021596
-0.230620,-0.263961,0.538870,0.886696,0.460829,0.037518
0.558613,0.341312,0.371505,-0.083574,0.747026,0.659521
-0.105458,0.223643,0.130191,0.722466,-0.435934,0.536660
-0.198889,-0.218289,0.795264,0.018393,0.255676,0.966587
0.229243,-0.101893,0.617612,0.756593,0.146525,0.637258
-0.284022,0.338565,0.615220,0.514629,0.693589,-0.504075
-0.077030,0.865092,0.525007,-0.074227,0.357041,0.931135
-0.135680,0.991655,0.533272,0.449533,0.464452,-0.763023
-0.181705,-0.401982,0.824546,-0.066345,0.764640,0.641034
-0.014918,-0.637324,-0.954075,-0.495619,-0.801178,-0.335374
-0.008104,0.133942,0.501614,-0.281089,0.924714,0.256695
-0.275649,-0.600676,-0.627208,0.599110,0.742250,-0.300220
0.052711,0.770453,0.469593,0.814372,-0.575895,-0.071719
-0.145309,0.052108,0.496451,-0.523043,0.151190,0.838789
-0.283136,-0.534168,-0.939181,-0.241815,0.717957,0.652736
-0.200530,-0.218182,0.529164,0.484533,0.874625,0.016099
-0.238934,-0.227223,0.904659,-0.461444,0.716963,0.522527
-0.227349,-0.637884,0.581927,0.396140,0.444932,0.803186
-0.090118,-0.723557,-0.772983,0.606576,0.793681,0.046230
-0.113995,0.184355,0.649751,-0.671339,-0.567795,0.476354
-0.154435,0.056288,0.463525,-0.719423,0.064265,0.691593
0.009921,0.010326,0.423389,0.914002,-0.322957,-0.245560
-0.041398,-0.412017,0.771583,-0.228816,0.545854,0.806031
-0.165124,-0.523529,-0.170121,0.693869,0.661209,-0.285215
-0.022119,-0.346358,0.663909,0.751915,0.654980,0.075005
0.253126,-0.158958,0.524528,0.407945,0.745139,-0.527587
-0.240821,-0.227668,0.417845,0.705937,0.706229,0.053781
-0.327952,-0.396178,0.443352,0.797722,-0.592297,-0.113245
-0.236221,0.804041,0.437885,0.646144,0.480586,-0.592904
-0.150410,-0.263023,0.799349,0.761843,-0.122774,-0.636020
-0.271194,0.824764,0.514322,-0.204982,-0.487609,0.848658
-0.375383,-0.029768,0.841251,0.941279,0.070600,-0.330166
-0.410210,0.289098,0.611373,0.678816,0.152683,-0.718260
-0.617660,0.494331,0.598330,-0.150616,-0.978630,-0.139992
-0.407922,-0.636076,0.625771,-0.407497,0.609985,0.679606
-0.300664,-0.218251,0.767598,-0.123475,0.970012,0.209359
0.364464,0.148968,0.637612,0.071640,-0.700776,0.709775
-0.312710,-0.412412,-0.399891,0.857111,0.305704,-0.414614
-0.053248,-0.331953,0.803514,0.428237,0.652394,-0.625297
0.282198,-0.044623,0.700954,0.909402,0.288948,0.299161
-0.582405,0.500967,0.573293,-0.375311,0.424297,0.824084
-0.103930,0.084017,0.468433,0.321389,0.680740,0.658257
-0.297639,0.891698,0.508562,0.233183,-0.880133,0.413511
-0.002185,-0.228049,0.446245,0.974990,0.215575,0.054054
0.111540,-0.039168,0.539921,-0.557503,-0.829925,-0.020356
0.522547,-0.488891,0.755588,0.801583,0.189496,-0.567060
0.389977,-0.118192,0.707409,0.813609,0.381720,-0.438554
-0.191835,-0.651175,-0.795220,0.133063,0.983838,0.119823
-0.225274,-0.047783,0.020036,0.879366,0.252159,-0.403895
-0.196304,-0.654205,0.627780,0.779909,0.082704,-0.620404
0.241473,0.021603,0.417974,0.852031,-0.411960,0.323006
0.148171,0.333581,0.406485,-0.363730,0.926066,0.100512
-0.271333,-0.379703,0.793241,-0.106528,0.584429,0.804422
0.149660,0.756989,0.462200,0.615575,0.705266,0.351662
0.411565,0.006666,0.686243,-0.293507,0.090620,-0.951652
-0.162230,-0.862135,0.556893,-0.557719,-0.516743,-0.649559
0.150795,0.019844,0.609713,0.084944,-0.245546,0.965656
0.107157,0.199210,0.654254,0.048900,-0.075884,0.995917
-0.658348,0.396119,0.624405,0.038957,0.207682,0.977420
-0.341104,-0.323379,0.694333,0.377237,-0.902875,-0.206179
0.176343,0.755123,0.503879,0.942130,0.036635,0.333240
-0.577216,-0.142715,0.694978,0.762783,0.237951,-0.601283
0.802086,0.022056,0.544955,0.754304,-0.656198,-0.020712
-0.643931,0.264533,0.683998,0.736074,0.659509,-0.152455
0.570790,-0.092307,0.524803,0.753403,0.057249,-0.655062
-0.318180,-0.008410,0.806642,-0.577998,0.444729,0.684204
0.485546,-0.126333,0.671047,0.185242,0.748697,0.636505
0.139751,0.344608,0.525456,0.925229,0.153109,-0.347144
-0.202497,-0.304606,0.466326,0.660607,-0.723672,0.199743
-0.032260,0.392945,0.354069,-0.418878,0.778256,-0.467824
0.302562,-0.351435,0.656038,-0.266757,-0.837396,0.477084
-0.147055,-0.196548,0.656042,0.729520,-0.636464,0.250426
-0.413235,0.905862,0.537413,-0.742729,0.486086,-0.460515
-0.608015,0.336047,0.685930,-0.759937,-0.514681,-0.396989
0.195309,0.207511,0.651287,0.760971,0.597233,-0.253448
0.280225,-0.496621,-0.966540,0.324207,-0.030782,-0.945485
0.370575,-0.164872,0.727766,-0.630743,0.674719,0.383297
-0.160224,0.656482,0.663956,0.874991,-0.343728,-0.340943
-0.224380,0.509269,0.544045,0.935032,-0.111346,0.336627
0.210440,0.376802,0.698948,-0.030903,-0.557288,0.829744
-0.356539,-0.225791,0.760238,0.599149,-0.446775,-0.664389
-0.257688,-0.129847,0.329645,-0.050501,-0.913601,0.403463
-0.387461,0.187053,0.588920,-0.584323,0.238017,-0.775832
-0.245753,-0.275783,0.609137,-0.461217,0.887047,0.020665
-0.105525,-0.592079,-0.954958,-0.234875,0.782824,0.576212
0.075822,0.572317,0.488689,-0.348354,0.880471,0.321591
-0.717524,0.412638,0.664969,0.205311,-0.804568,-0.557242
0.883577,-0.173812,0.546435,-0.122570,0.352307,0.927824
-0.279518,-0.737347,0.688571,0.887577,0.344236,0.306118
-0.175653,0.013481,0.537825,0.008077,-0.097623,0.995191
-0.559586,0.293526,0.689960,-0.039006,0.389233,0.920313
-0.195549,0.453826,0.494252,0.815081,0.223105,0.534666
-0.629234,0.296739,0.721941,0.982192,-0.158952,0.100163
-0.192923,-0.585076,-0.658646,0.757677,0.602049,-0.251918
-0.231432,-0.135142,0.730799,0.749887,-0.245637,0.614274
-0.168870,-0.142871,0.731297,0.232094,0.736197,0.635725
0.085667,0.084818,0.630384,0.894180,0.054481,0.444381
-0.242852,0.041182,0.823300,0.962342,0.193776,-0.190652
-0.010010,0.314916,0.702493,0.812675,-0.533781,-0.233748
-0.675580,0.504572,0.566034,-0.612041,0.281858,-0.738893
-0.412913,-0.216744,0.842848,0.948427,-0.279563,-0.149437
-0.526190,0.461284,0.687778,0.896326,-0.261281,-0.358233
-0.105098,0.555868,0.577954,-0.882631,0.202983,-0.423982
0.046140,0.459048,0.386733,-0.248395,-0.649040,0.719060
-0.132378,-0.235854,0.651437,-0.620576,0.773435,0.129168
0.074069,-0.212315,0.816526,-0.605040,-0.679110,-0.415615
-0.508871,-0.363827,0.801834,0.904467,-0.053691,0.423150
-0.470799,0.081595,0.614536,0.890805,-0.311590,-0.330724
-0.188789,-0.246471,0.651970,0.440412,-0.759631,0.478538
-0.331148,0.071463,0.517065,-0.667571,0.649383,-0.364214
-0.344027,-0.300756,0.936854,0.906104,-0.357638,0.225989
