0.096839,-0.660315,-0.972234,-0.165170,0.637915,0.752186
0.237302,-0.735385,-0.957442,-0.110239,0.194948,0.974599
-0.063524,-0.455244,0.439210,0.420673,0.482226,-0.768435
-0.142272,-0.324937,0.448735,0.862461,-0.144646,0.485014
-0.276434,-0.137192,0.489430,0.726510,-0.538818,-0.426448
-0.204127,-0.174799,0.514482,0.530877,0.846741,-0.034621
-0.156162,-0.198050,0.543174,-0.563350,-0.186451,0.804906
-0.157591,-0.194621,0.578604,-0.440600,0.876801,-0.192594
-0.179356,-0.173399,0.684156,-0.521283,-0.532175,-0.667124
-0.093018,-0.218339,0.706033,0.894597,-0.311257,0.320649
-0.167331,-0.206947,0.370364,0.709480,0.701123,0.071168
-0.224603,-0.172455,0.412609,0.801032,0.248999,0.544378
-0.136543,-0.188382,0.781809,-0.611700,0.751821,-0.246147
-0.075264,-0.174332,0.120578,0.939636,-0.121496,-0.319880
-0.061374,-0.178542,0.154652,0.904413,-0.080919,0.418913
-0.056934,-0.177770,0.188726,0.913848,0.109981,-0.390879
-0.060373,-0.173236,0.223807,0.889325,-0.409691,0.203113
-0.075981,-0.161225,0.262024,0.663348,-0.720321,0.202750
-0.310368,-0.010000,0.540038,0.503689,0.336752,-0.795548
-0.106476,-0.099425,0.786688,-0.551633,0.440187,-0.708475
-0.046482,-0.129382,0.813367,0.905834,-0.354503,-0.231930
-0.055505,-0.194154,0.010147,0.045098,-0.904233,0.424652
-0.058512,-0.189782,0.045498,0.261207,-0.955459,-0.137362
-0.121656,-0.151700,0.091150,0.825690,0.410282,-0.387176
-0.088150,-0.151700,0.298034,-0.638078,0.495973,0.588955
-0.240206,0.064135,0.644080,-0.193368,-0.939157,0.283890
-0.293899,0.100656,0.720902,-0.609147,0.716941,0.339021
-0.274857,0.099094,0.819562,-0.715488,0.063523,0.695731
0.097555,-0.043549,-0.006310,0.924688,-0.379648,0.028622
0.090109,-0.036214,0.031249,0.860276,0.233011,0.453466
0.104145,-0.041215,0.065517,-0.474179,0.878990,0.050300
-0.004246,-0.232075,-0.104583,0.634518,-0.760833,0.136090
-0.257392,-0.023889,0.705220,-0.356168,0.933896,-0.031350
-0.370646,0.041818,0.753930,0.781193,0.241516,0.575681
-0.317381,0.014661,0.781539,0.765466,-0.352231,0.538512
-0.013982,-0.223339,-0.067759,0.595662,-0.786457,0.163313
-0.008398,-0.223806,-0.033492,0.003729,-0.970059,0.242839
0.081663,-0.179170,-0.143768,-0.946066,0.313940,0.080002
0.038566,-0.151547,-0.100285,0.202561,-0.923559,0.325588
-0.117072,-0.022174,0.419423,-0.333073,-0.860040,0.386516
-0.168760,0.009974,0.462210,0.812983,-0.564420,-0.143140
-0.342296,0.112667,0.555875,0.252648,0.763675,-0.594112
-0.241211,0.058830,0.575506,0.445550,-0.545181,-0.710115
-0.208278,0.043847,0.606056,-0.694217,0.660875,-0.285145
-0.100035,0.007641,0.864517,0.819132,-0.461273,-0.340955
-0.131964,0.148721,0.796678,-0.186766,-0.094169,0.977881
0.127626,0.018090,0.931503,0.090593,-0.732582,0.674623
-0.065525,-0.053541,0.376676,0.364584,-0.798507,-0.479025
0.037706,0.004831,0.181059,0.978095,-0.197344,0.066226
0.020240,0.017623,0.218309,-0.508955,-0.037838,0.859961
-0.334423,0.240640,0.584257,0.136931,0.962264,-0.235156
0.061476,0.130146,0.356618,0.841838,0.486091,-0.234574
-0.287314,0.349420,0.716991,-0.034560,-0.071374,0.996851
0.059326,0.159951,0.703284,0.864278,-0.295304,0.407208
-0.236916,0.326940,0.778054,0.164644,-0.322583,0.932112
-0.158452,0.286362,0.800860,0.654096,0.684764,-0.321336
-0.099319,0.256719,0.827732,-0.352562,0.741905,0.570331
-0.139837,0.281532,0.867614,0.552180,-0.825857,0.114269
0.016230,0.198033,0.881593,0.467860,0.675173,0.570306
0.073501,-0.177923,-0.177764,-0.439368,0.886943,-0.142437
-0.129386,-0.046206,0.068111,0.718147,0.064601,-0.692887
0.028259,0.286991,0.558043,0.726712,-0.387607,0.567143
-0.064813,0.341609,0.604624,-0.329107,-0.944052,-0.021337
-0.114494,0.372357,0.646713,0.499694,0.752556,0.428913
-0.223597,0.435405,0.696547,0.368127,0.492224,-0.788795
-0.099891,0.386092,0.918377,0.836538,-0.183730,-0.516185
-0.512110,0.342704,0.643926,0.110550,-0.687214,0.717994
-0.289604,0.222066,0.646675,0.544173,0.735302,0.403989
-0.226176,0.189918,0.671533,-0.302571,0.951196,0.060633
-0.342585,0.257024,0.722180,-0.005409,-0.656373,0.754417
-0.211857,0.186955,0.737900,-0.424782,-0.875910,0.228784
-0.089295,0.121878,0.756138,-0.657641,-0.681555,-0.320923
-0.054216,0.050085,0.123908,0.296106,0.405809,-0.864662
0.054458,-0.007190,0.142610,0.887640,-0.365832,0.279755
0.118175,0.146063,0.934717,0.368107,0.901205,-0.228752
0.110874,0.252814,0.685898,0.730138,-0.211646,-0.649696
-0.250518,0.458818,0.801634,0.734163,0.237247,-0.636175
0.286700,0.163704,0.764308,-0.165848,0.286218,0.943702
0.103428,0.267797,0.822195,0.948101,0.167438,0.270313
0.043434,0.151369,0.498568,0.895492,-0.030209,-0.444052
0.061616,0.143881,0.529893,-0.527258,0.470761,0.707378
0.001910,0.180087,0.573454,0.938146,-0.295605,0.180278
0.002483,0.182897,0.608457,-0.750655,-0.290740,-0.593285
0.001766,0.186327,0.643848,-0.054018,0.965258,-0.255656
0.078802,0.165571,0.906645,0.393658,-0.842680,-0.367319
0.018663,0.441653,0.747038,-0.056914,-0.457820,-0.887222
0.147526,0.372985,0.763146,-0.514896,-0.653162,0.555213
0.157266,0.473173,0.614730,0.710005,-0.538511,0.453761
0.159839,0.474735,0.649462,-0.103632,0.839868,0.532805
-0.117361,0.631265,0.720786,0.713768,0.194893,0.672720
0.041573,0.546052,0.734105,-0.678471,-0.554018,-0.482433
0.102139,0.381882,0.561799,-0.318588,0.929036,0.188134
0.041428,0.418393,0.605437,0.955086,-0.293931,-0.037614
0.030120,0.426975,0.640750,-0.659998,0.566875,-0.493007
-0.031735,0.464124,0.684195,0.544513,0.815846,0.194682
-0.039469,0.470992,0.719973,0.981019,-0.049952,-0.187370
0.186043,0.580076,0.619996,0.325689,-0.808951,-0.489412
0.031838,0.649373,0.432782,0.424243,0.864604,-0.269216
0.144808,0.589601,0.450787,-0.730678,0.650091,-0.208548
0.453363,0.298535,0.434679,-0.320287,-0.775683,0.543812
0.123904,0.489404,0.585612,0.488417,0.598656,0.634870
0.182464,0.472554,0.784675,0.669215,0.720265,-0.182674
0.245032,0.440711,0.809843,-0.088203,-0.822263,0.562232
0.027826,0.563225,0.871951,0.153042,0.987924,-0.024182
-0.138120,0.658108,0.928289,0.602038,0.755326,-0.258906
0.076796,0.735520,0.477582,0.712835,0.060163,0.698747
0.321779,0.852568,0.656316,0.241505,0.859613,0.450268
0.237875,0.781556,0.657245,-0.448441,-0.893507,-0.023367
0.053598,0.880811,0.648882,0.155235,0.947285,-0.280274
0.232574,0.662013,0.627585,0.580887,0.058225,0.811899
0.005489,0.857559,0.648804,0.046135,0.874827,-0.482234
-0.050638,0.810742,0.490940,0.776996,0.521879,0.352021
0.273526,0.757838,0.642105,-0.045578,0.956397,0.288491
-0.134109,0.642343,0.727446,0.550554,0.367038,0.749782
0.134067,0.640476,0.652715,-0.644346,0.350621,0.679620
-0.065385,0.588506,0.906567,0.232463,-0.951715,0.200498
-0.163175,0.576485,0.887633,0.999318,0.029801,0.021818
-0.170477,0.567121,0.856656,0.769843,-0.537072,0.344812
-0.103326,0.559787,0.814102,0.191688,0.963923,0.184684
-0.139694,0.549490,0.786146,-0.712144,0.681861,-0.167081
-0.292898,0.537002,0.777395,-0.389823,-0.860700,0.327464
-0.422477,0.524363,0.764153,-0.552368,0.821430,-0.141923
-0.033596,0.525144,0.669829,-0.470521,0.123804,-0.873660
-0.123802,0.489871,0.846279,0.711827,-0.374192,0.594376
-0.075120,0.481917,0.805352,0.991822,-0.118236,-0.048065
-0.077699,0.473335,0.773368,0.560131,-0.220166,0.798612
-0.134682,0.462714,0.749710,-0.579509,-0.487741,-0.652900
0.043006,0.439463,0.621622,0.562296,-0.748821,0.350843
-0.269989,0.377662,0.783397,0.867073,0.069039,-0.493375
-0.155729,0.352534,0.666848,0.429207,0.326899,-0.841973
-0.111200,0.308375,0.878921,0.485802,0.140042,-0.862777
-0.074404,0.299945,0.839852,0.906458,0.392896,0.154813
0.087676,0.179935,0.779486,-0.660698,0.728587,-0.180663
-0.031451,0.137947,0.663983,0.564579,0.568772,-0.598121
-0.049633,0.127803,0.632813,-0.793482,0.456835,-0.402104
0.163422,0.085205,0.933362,0.968973,0.229681,0.091309
0.078941,0.073032,0.912685,0.852543,-0.009787,-0.522566
0.052453,0.063040,0.884612,-0.357343,0.567992,-0.741412
-0.353177,-0.005162,0.748432,-0.677499,-0.575554,-0.457966
0.234152,-0.833696,-0.954190,-0.107199,-0.587162,0.802340
0.084814,-0.731946,-0.964606,0.313767,-0.332501,-0.889378
-0.054072,-0.636902,-0.975177,-0.211893,0.357239,-0.909660
0.072785,-0.277492,-0.356421,-0.623274,-0.531097,0.573991
-0.042331,-0.528599,-0.982495,-0.112314,-0.172108,0.978654
0.206659,-0.529684,-0.960850,-0.133370,-0.111903,0.984728
0.087103,-0.452748,-0.976996,0.454736,0.063178,-0.888383
-0.031735,-0.375031,-0.991594,0.644441,-0.429274,-0.632787
0.089109,-0.309487,-0.395878,0.963004,0.251435,0.096973
0.078802,-0.322432,-0.432275,0.894194,-0.447540,0.011220
0.492593,-0.888324,-0.934210,-0.504015,0.582428,-0.637766
0.371893,-0.808730,-0.948963,0.850892,0.196508,0.487204
0.224845,-0.708066,-0.958449,-0.181396,0.498678,0.847594
0.079229,-0.607716,-0.968400,0.287043,-0.394820,0.872768
0.276388,-0.526570,-0.857388,0.094736,0.948789,0.301370
0.471689,-0.687158,-0.895296,-0.646652,0.247072,0.721663
0.464099,-0.700265,-0.931809,-0.385151,-0.001885,0.922852
0.297152,-0.583684,-0.938934,-0.000990,-0.722998,0.690850
0.184466,-0.370659,-0.974170,-0.401154,0.646540,0.648892
0.030693,-0.265470,-0.983424,0.185678,0.161039,-0.969324
0.606853,-0.490202,-0.940831,0.998549,-0.033337,0.042285
0.483002,-0.408275,-0.954809,0.077756,0.275355,0.958193
0.334521,-0.306210,-0.965303,0.095044,-0.188886,0.977389
-0.583701,-0.178389,0.687990,-0.240381,-0.874080,0.422138
-0.225747,-0.152328,0.763185,0.319571,0.583109,0.746899
-0.155446,-0.228483,0.717030,-0.568606,-0.822155,0.027357
-0.312946,-0.321965,0.555487,0.936965,0.349161,-0.013546
-0.029157,-0.570263,0.475723,0.892055,-0.119474,0.435848
-0.197398,-0.154976,0.794045,0.439545,0.629066,-0.641152
-0.302061,-0.052912,0.843685,-0.549660,0.834759,0.032432
-0.460134,-0.038557,0.661543,-0.025835,0.079920,0.996466
-0.325260,-0.195869,0.767289,0.921147,0.381405,-0.077577
-0.178211,-0.024507,0.785410,0.289481,-0.762307,-0.578869
-0.286742,0.043684,0.768451,-0.751548,0.312700,-0.580856
-0.357616,0.082081,0.745644,0.126763,0.268418,0.954926
-0.267844,-0.008752,0.696430,-0.161309,0.962519,-0.218028
-0.103042,-0.179323,0.600520,0.323696,0.892715,0.313499
-0.235483,-0.092556,0.585922,0.774616,-0.402975,0.487423
-0.101180,-0.067743,0.808720,-0.450007,0.841656,-0.298510
-0.204555,-0.137192,0.545304,0.772107,-0.228403,0.593028
-0.771985,0.303069,0.602068,0.606345,-0.553540,0.570911
-0.134109,-0.250020,0.429413,0.191646,0.963126,-0.188840
-0.012265,-0.387986,0.338613,0.879935,-0.110126,0.462155
0.061188,0.017309,0.954503,0.379826,-0.454650,-0.805621
-0.071109,0.030740,0.802525,-0.717903,-0.258307,0.646447
-0.061662,-0.080850,0.837799,0.959622,0.029847,0.279705
-0.009686,0.158236,0.843491,-0.134528,-0.961413,0.239975
-0.126524,0.233773,0.826338,0.521957,-0.623174,-0.582421
-0.135970,0.221447,0.792612,-0.433610,-0.342058,0.833654
-0.230759,0.278723,0.772245,0.467140,-0.277873,0.839384
-0.303351,0.318824,0.749826,0.983361,0.101756,0.150488
-0.304356,0.302126,0.716255,0.776825,-0.392933,-0.492084
-0.321248,0.297450,0.683808,0.325320,-0.890969,-0.316767
0.008928,-0.197116,0.206460,0.486406,-0.097265,-0.868302
-0.030018,-0.184629,0.177845,0.958699,0.263644,-0.106713
-0.025006,-0.208508,0.140248,0.827496,-0.216502,0.518052
-0.020999,-0.230674,0.104354,-0.509728,0.856089,-0.085377
-0.186513,0.065850,0.716139,-0.695263,-0.025641,-0.718298
-0.072971,-0.215691,0.346241,0.972153,0.185021,0.143829
-0.186802,-0.115189,0.096029,-0.688718,0.564792,-0.454618
-0.313802,0.149806,0.700767,0.420808,0.515275,0.746600
-0.220019,0.055553,0.650701,0.111326,-0.945184,-0.306976
-0.290465,0.093007,0.627779,0.833949,-0.026239,0.551217
-0.371935,0.140138,0.606676,-0.064083,0.669210,-0.740305
-0.502803,0.226591,0.592311,0.508052,0.703035,-0.497619
-0.063235,-0.242847,0.309689,0.465081,-0.063469,-0.882990
-0.035602,-0.304019,0.233797,0.954515,0.000207,0.298162
-0.043192,0.311490,0.816774,0.799235,0.178160,0.574006
-0.133969,0.365489,0.796910,0.723029,0.493318,-0.483598
0.064338,0.135299,0.900836,0.026557,-0.987150,0.157574
0.027542,0.145911,0.871486,0.977911,-0.074226,-0.195397
-0.325832,0.282152,0.650585,0.890329,-0.256006,0.376530
-0.270561,0.218475,0.606444,0.362975,0.575446,-0.732878
-0.220736,0.159179,0.562961,-0.545542,0.738677,-0.395906
0.111730,0.115325,0.927205,0.297379,0.855348,-0.424200
0.180031,0.223628,0.954736,-0.247005,0.961583,0.119779
0.141229,0.125621,0.719314,0.446679,0.727178,-0.521239
0.073645,0.161827,0.695927,0.963242,-0.157021,0.217968
0.029260,0.085672,0.492140,0.753310,-0.521032,-0.401310
0.035700,0.253595,0.589562,-0.581162,-0.244770,0.776105
0.042718,0.229400,0.554171,0.430880,-0.627553,0.648475
0.071211,0.188050,0.513902,-0.665808,0.738917,-0.103449
0.110874,0.137643,0.471774,-0.716771,0.678276,0.161804
0.030120,0.049618,0.199645,0.926494,-0.315706,-0.204787
0.032694,0.028710,0.164061,0.936219,-0.336086,0.102667
0.053886,-0.007343,0.125302,0.945922,-0.324233,0.010270
0.042434,-0.017173,0.090453,0.188676,0.973987,0.125504
-0.092157,0.276694,0.686402,0.666556,0.598481,0.444436
0.004777,0.180402,0.635872,0.542093,-0.818621,0.189722
-0.013553,0.175401,0.603269,0.957747,0.284437,-0.042613
-0.003529,0.149035,0.567413,0.715000,-0.308109,0.627570
0.066199,0.074433,0.522110,0.959741,-0.275996,0.052181
0.023964,-0.217405,-0.081466,0.743872,-0.631649,0.218344
-0.006536,-0.211785,-0.113333,-0.690920,0.303005,0.656367
-0.001380,-0.235351,-0.151628,0.296119,0.934986,-0.195228
0.073217,-0.178704,-0.170640,-0.352217,0.862577,-0.363187
0.046585,-0.176361,-0.202081,0.793457,0.516190,0.322450
0.067344,-0.213500,-0.243357,0.178883,0.983298,-0.033541
0.065199,-0.232075,-0.280761,0.214669,0.968608,-0.125362
0.041145,-0.290284,-0.195382,-0.564891,-0.568282,-0.598292
0.064627,0.268264,0.654574,0.844149,0.515453,0.147381
0.002055,0.299631,0.630218,-0.583564,-0.633260,0.508365
0.090254,0.096903,0.369900,0.738098,-0.489739,0.464076
0.085386,0.064135,0.299699,0.910252,0.162107,-0.381002
0.080663,0.028235,0.227679,0.992834,0.076117,-0.092129
0.082664,0.531078,0.885968,-0.162161,-0.925849,0.341333
0.138791,0.467715,0.842755,-0.268758,0.898653,-0.346686
0.233007,0.374386,0.793464,0.116605,0.288686,0.950297
0.146381,0.425260,0.773097,0.182093,-0.563218,0.805995
0.031265,0.499701,0.757144,0.025105,-0.651132,0.758549
0.047730,0.468496,0.719508,0.269357,-0.538798,-0.798212
0.051597,0.370480,0.829823,0.228033,0.855319,-0.465221
0.311755,0.144501,0.756254,0.935191,-0.250134,-0.250702
0.001338,0.355030,0.733680,-0.278096,-0.674329,0.684064
0.112875,0.247193,0.681020,0.054585,-0.773450,0.631503
0.125905,-0.143898,-0.033646,0.604504,-0.677687,0.418706
0.141657,-0.176675,-0.073567,-0.559617,-0.783587,0.269850
0.094838,-0.156853,-0.100982,-0.275136,0.892893,-0.356430
0.105290,-0.183847,-0.138734,0.995774,-0.027660,-0.087576
0.080947,-0.265166,-0.321340,0.939211,0.247956,0.237489
0.308893,0.091597,0.361807,-0.604476,0.479893,0.635855
0.460092,0.363460,0.811508,0.957039,0.210167,-0.199764
0.306887,0.468334,0.801054,-0.071995,-0.869582,0.488512
-0.017132,0.502511,0.695424,0.766905,0.386972,-0.511967
0.213248,0.488309,0.711260,-0.381951,0.682673,-0.622953
0.221550,0.409029,0.570782,-0.648627,0.359708,-0.670741
0.035989,0.441959,0.651863,0.100015,-0.883805,0.457040
0.190339,0.279504,0.556378,0.884128,-0.172394,-0.434280
0.170723,0.783585,0.646132,-0.008764,-0.966638,0.255996
0.103857,0.696657,0.657748,0.154552,0.378696,0.912526
0.108440,0.566341,0.412028,0.735502,-0.169016,0.656103
0.088965,0.600832,0.449664,-0.690573,-0.636160,0.344106
0.079086,-0.431525,-0.818590,0.880821,-0.425424,0.207772
0.025109,-0.441042,-0.761090,-0.228892,0.953042,-0.198291
0.399954,-0.430431,-0.918528,-0.022269,-0.125753,0.991812
0.198356,-0.641426,-0.959301,-0.567965,0.302324,0.765517
0.083381,-0.294504,0.735228,-0.483786,-0.629983,0.607513
-0.112633,-0.238323,0.671998,-0.576584,0.690161,0.437297
-0.007969,-0.232389,0.773910,0.921355,-0.379727,-0.083135
0.260640,-0.204137,0.735500,-0.679525,0.210670,-0.702754
0.075651,-0.226454,0.817510,0.969274,0.055691,-0.239595
-0.004674,-0.043082,0.336987,-0.480556,0.718320,-0.503073
-0.188091,-0.067429,0.488694,-0.495763,-0.482298,0.722224
0.077368,-0.032156,0.278906,0.972134,-0.234398,0.003605
0.346550,0.067726,0.767328,0.551927,0.151756,0.819968
0.094549,0.038541,0.866298,-0.592287,-0.668142,-0.450313
0.061476,0.033540,0.907496,0.847529,0.330487,-0.415298
0.169863,0.043847,0.910246,-0.156613,0.307727,0.938497
-0.341007,-0.088499,0.631186,0.823474,-0.281268,-0.492726
0.126766,-0.055103,0.925966,0.091394,-0.994949,0.041518
0.176019,-0.050883,0.945520,-0.486713,0.855554,0.176460
-0.160314,0.027301,0.542555,0.804985,0.583981,-0.104714
0.012795,0.045247,0.527647,0.812948,0.171998,0.556357
-0.228325,0.015756,0.659452,0.347289,0.512548,0.785293
-0.316236,0.004831,0.716681,0.744632,-0.262023,0.613895
-0.180073,0.018090,0.712925,0.935642,0.349963,-0.045831
0.090109,0.046495,0.673856,-0.637747,-0.138587,-0.757676
0.063193,0.041970,0.713119,0.987331,0.139879,-0.074908
0.069923,0.041189,0.743128,-0.695593,0.533202,-0.481504
0.247182,0.059135,0.729072,-0.552278,0.424009,-0.717779
-0.142560,0.133109,0.598119,0.950183,0.299887,-0.084968
0.054031,0.140138,0.869821,0.922555,0.097670,-0.373299
0.067777,0.139976,0.897313,0.674542,0.573040,-0.465423
0.088965,0.141072,0.924185,0.408616,-0.912539,-0.017492
0.096555,0.140605,0.954426,0.197844,0.951656,-0.234963
0.180171,0.148406,0.965035,0.596139,-0.784186,0.172249
0.064054,0.149806,0.672230,0.845672,-0.511489,-0.152372
-0.114066,0.128898,0.753388,-0.255416,-0.940776,0.222941
-0.151579,0.122964,0.796407,0.590969,0.582610,-0.557961
-0.074832,0.130146,0.808798,-0.566417,-0.553215,0.610840
0.134784,0.151836,0.784714,0.817670,-0.503518,0.279078
0.112875,0.148254,0.821769,0.759067,-0.631933,0.156455
0.406828,0.195071,0.413383,0.953123,-0.295284,-0.066056
-0.023573,0.297135,0.634865,0.273317,0.859585,-0.431754
-0.210140,0.274198,0.718579,-0.138765,0.880263,-0.453741
-0.210428,0.272636,0.750484,-0.403615,0.870619,-0.281279
-0.000807,0.294325,0.726013,0.588320,0.023660,-0.808282
0.313617,0.321329,0.806087,0.852939,-0.521493,0.023265
0.337959,0.322101,0.831062,0.760709,-0.626664,-0.169159
-0.421045,0.255462,0.676412,-0.676561,0.203008,-0.707851
-0.147428,0.284647,0.634981,-0.239585,0.803411,-0.545096
-0.483472,0.416059,0.267716,-0.532852,0.843398,-0.068901
-0.696527,0.229867,0.654496,0.214876,0.278128,0.936201
-0.444959,0.254690,0.650857,0.413593,0.896471,-0.158996
-0.221452,0.267635,0.817897,-0.093809,0.978232,-0.185099
-0.168332,0.272169,0.835128,0.584694,0.042662,-0.810131
-0.188807,0.268416,0.873113,0.916478,0.229466,0.327740
0.173442,0.307432,0.810114,0.179887,0.455478,0.871883
-0.034169,0.432595,0.746225,0.796505,0.604040,-0.026760
0.085959,0.443987,0.747077,-0.689387,0.691256,0.216589
0.099272,0.443835,0.775304,0.275367,-0.071412,0.958683
0.036561,0.459914,0.394797,-0.034247,-0.963345,0.266072
-0.238922,0.415278,0.703207,0.650871,0.747143,-0.134703
0.121326,0.454294,0.637963,0.892454,-0.256061,-0.371427
-0.493924,0.387807,0.739294,0.257333,-0.940347,0.222546
-0.118217,0.522333,0.732324,0.302525,0.948605,-0.092879
0.064482,0.541375,0.716371,0.106810,0.034088,0.993695
-0.320532,0.508912,0.623442,-0.409340,0.413378,-0.813363
-0.412314,0.493147,0.748122,-0.430232,0.548313,-0.717114
-0.364061,0.496425,0.766631,-0.347473,0.888014,0.301155
-0.602888,0.498454,0.335206,-0.690169,-0.721237,-0.059033
-0.267555,0.407781,0.775808,0.944352,-0.224157,0.240734
-0.875504,0.451484,0.679006,0.678333,0.717459,0.158486
-0.845581,0.453198,0.702665,0.734631,0.535020,-0.417218
0.149959,0.549024,0.725432,0.936209,0.019258,-0.350915
-0.088294,0.520152,0.821614,0.384299,0.905983,0.177506
-0.117789,0.514999,0.862000,0.356237,0.912238,-0.202283
-0.057939,0.519990,0.878766,0.627071,-0.293384,-0.721601
-0.816226,0.554482,0.729149,0.035084,-0.087463,0.995550
0.016373,0.640315,0.664525,0.889607,-0.396205,0.227203
-0.018705,0.633923,0.707195,-0.448488,0.603528,0.659251
0.444340,0.685112,0.616550,0.387079,0.261582,0.884163
0.073645,0.774374,0.478008,-0.599414,-0.019540,-0.800201
-0.606755,0.689170,0.764114,-0.685091,-0.656198,-0.316315
-0.001240,0.755333,0.663983,0.803370,0.388305,0.451459
0.151537,-0.242686,-0.979281,0.210967,0.334387,0.918519
0.069062,-0.247839,-0.981991,0.026913,-0.043086,0.998709
-0.017704,-0.252830,-0.984005,0.836320,-0.051762,0.545793
0.604991,-0.400940,-0.940560,0.800149,0.159239,-0.578278
0.070350,-0.312135,-0.631415,0.968523,0.191398,-0.159153
0.532111,-0.408427,-0.949737,-0.623045,0.720234,0.305088
0.448496,-0.413265,-0.951983,0.291900,0.139688,0.946193
0.326791,-0.411389,-0.929757,-0.500507,-0.268730,0.822968
0.223411,-0.412018,-0.917638,-0.313285,-0.948352,-0.049810
0.124188,-0.414199,-0.910591,-0.709061,0.677872,-0.194222
0.119032,-0.436832,-0.970414,-0.203005,-0.030915,0.978690
0.034271,-0.442289,-0.973899,0.122598,0.221315,0.967465
-0.041903,-0.449005,-0.980791,-0.641342,0.308068,0.702691
0.134928,-0.429649,-0.554206,0.972518,0.134235,0.190235
0.597974,-0.548573,-0.928596,0.507743,-0.263499,0.820223
0.531111,-0.557937,-0.944703,-0.297944,-0.055755,0.952954
0.449352,-0.563395,-0.947259,-0.262751,-0.851318,-0.454114
0.368026,-0.569643,-0.953299,0.005189,0.749794,0.661651
0.280828,-0.574949,-0.954771,0.243996,0.725780,0.643202
0.203797,-0.582122,-0.963638,-0.117084,0.486634,0.865724
0.123471,-0.587589,-0.967742,0.625584,0.766275,0.146521
0.029688,-0.590399,-0.962863,0.716862,0.192229,-0.670192
-0.050205,-0.596800,-0.969717,-0.219141,0.149812,0.964123
0.050307,-0.368792,-0.382364,-0.711807,-0.311467,-0.629539
0.548436,-0.728050,-0.928983,-0.319486,0.350586,0.880351
0.471978,-0.735537,-0.938198,-0.539758,-0.239993,0.806886
0.390507,-0.741938,-0.944123,-0.532546,0.350634,0.770358
0.311038,-0.747396,-0.948421,-0.109833,-0.096718,0.989233
0.236874,-0.754730,-0.956823,0.170254,0.407372,0.897252
0.151681,-0.760198,-0.959843,0.458678,0.320810,-0.828671
0.070783,-0.765808,-0.963212,-0.161585,0.433014,0.886786
0.503618,-0.869435,-0.928867,-0.572929,0.606948,0.550788
0.425442,-0.875369,-0.934520,0.153637,0.403604,0.901942
0.353707,-0.883799,-0.946949,-0.299072,0.257197,0.918915
-0.029445,-0.363172,0.714126,0.221658,-0.273293,0.936044
-0.308218,-0.459302,0.506506,0.992856,0.116232,-0.026975
-0.194820,-0.501442,0.385001,-0.302405,-0.910469,-0.282130
-0.152440,-0.432926,0.554016,-0.109303,0.960752,-0.254967
0.804588,-0.617242,-0.035157,0.184219,0.914848,-0.359327
0.002915,-0.210538,0.810656,0.725319,0.531018,-0.438101
0.016802,-0.231455,0.756293,0.059902,-0.576159,0.815140
-0.055934,-0.235513,0.755131,0.073016,-0.335620,0.939163
-0.116644,-0.242686,0.744096,-0.464434,-0.112375,0.878449
-0.120795,-0.260479,0.699412,-0.011766,0.999924,0.003650
-0.115784,-0.280301,0.648882,0.805047,0.560006,0.195685
0.828070,-0.476942,0.026913,0.020335,-0.996874,0.076351
-0.038897,-0.350532,0.459847,0.333790,0.440905,0.833179
-0.202121,-0.337577,0.513321,0.768184,-0.638994,-0.039741
0.626467,-0.497851,-0.000811,0.430501,0.876549,-0.215248
-0.158880,-0.365820,0.437080,-0.595881,-0.644855,-0.478631
-0.667461,-0.285607,0.706110,0.743123,-0.059992,0.666460
-0.062951,-0.404217,0.326533,0.901199,-0.319696,0.292635
0.071784,-0.031071,0.924766,0.348343,-0.735974,0.580516
0.099990,-0.070706,0.819988,0.783010,0.115437,-0.611203
-0.044193,-0.080698,0.812670,0.802540,0.556942,0.213879
0.099990,-0.141402,0.637227,0.719660,-0.170890,0.672968
-0.054645,-0.131725,0.682723,0.959278,-0.277138,0.054587
-0.290465,-0.105816,0.779757,0.829191,0.377393,-0.412331
-0.127096,-0.154509,0.633200,0.805248,0.081049,-0.587372
-0.367212,-0.128296,0.731976,-0.282462,0.730054,-0.622282
-0.272855,-0.164654,0.626036,0.704818,-0.188034,0.684014
-0.195108,-0.197745,0.531364,-0.228422,0.956548,0.181216
-0.249513,-0.205546,0.517735,-0.630012,0.614101,0.475357
-0.165753,-0.241124,0.416519,0.145316,0.885229,0.441873
-0.297910,-0.234103,0.451445,0.109167,0.942235,0.316664
0.401671,-0.390329,-0.041739,0.286457,0.569314,-0.770600
-0.084856,-0.315097,0.214785,0.965424,0.058536,0.254029
0.237586,-0.399216,-0.043752,-0.228183,0.747369,0.623997
0.184466,0.136385,0.925850,-0.414477,0.450000,-0.791017
0.641503,0.059763,0.663595,0.450778,0.268873,0.851180
0.284983,0.085511,0.779602,-0.293919,-0.808976,0.509087
0.054458,0.108457,0.870131,0.335446,0.334804,-0.880558
0.077080,0.087539,0.811857,0.755109,-0.655595,-0.002602
0.165996,0.055391,0.715365,-0.677259,-0.609541,0.412044
0.009928,0.065069,0.761326,-0.716993,-0.480470,0.505043
-0.063379,0.060078,0.758538,-0.405059,0.758540,-0.510435
-0.218158,0.069756,0.804500,0.004504,-0.997800,0.066148
-0.176206,0.045247,0.734144,0.970218,0.226499,-0.085884
-0.254814,0.042132,0.736390,-0.026078,-0.246708,0.968739
-0.256675,0.024176,0.690041,-0.620541,0.479371,0.620590
-0.321248,0.018566,0.683653,0.309596,-0.943756,-0.116086
-0.218158,-0.018582,0.571944,0.978029,0.100079,0.182878
-0.151723,-0.049950,0.481841,0.473957,0.866435,0.157023
-0.150290,-0.068991,0.431310,0.756118,0.471909,0.453418
-0.080705,-0.100358,0.339427,0.977122,-0.202144,0.066104
-0.227320,-0.090842,0.383181,-0.176391,-0.961933,0.208737
-0.800046,-0.018897,0.649192,-0.158620,0.266801,-0.950609
-0.043048,-0.184162,0.113763,-0.356411,0.931887,-0.067511
-0.039181,-0.205385,0.058431,-0.591933,0.796434,-0.123727
-0.054216,-0.222711,0.014716,-0.344522,0.471448,0.811814
-0.058224,-0.241752,-0.034963,-0.503831,0.852786,-0.137513
0.007783,-0.274834,-0.130990,-0.565383,-0.756943,-0.327687
-0.011692,-0.291846,-0.173621,0.930972,-0.080742,0.356050
0.020813,-0.319155,-0.248778,0.260807,0.922591,0.284262
0.039711,-0.344445,-0.318088,0.809401,-0.318143,0.493614
0.574780,0.195223,0.653102,0.504672,0.179885,0.844362
0.380912,0.210359,0.719198,0.363698,0.923393,-0.122753
0.339821,0.200062,0.697321,0.866647,0.467231,-0.174980
0.126622,0.219570,0.777627,0.968375,0.208074,0.137677
-0.062518,0.234868,0.844963,0.829191,-0.023039,-0.558491
-0.026583,0.211617,0.777744,-0.721737,0.510819,0.467076
-0.024722,0.194757,0.732518,0.346065,-0.484326,-0.803534
0.033127,0.167133,0.650818,-0.521300,-0.801902,-0.291889
-0.017704,0.158398,0.633935,0.815157,-0.514381,0.266329
0.053314,0.127650,0.543368,0.945161,0.324429,0.037634
-0.000952,0.120163,0.530009,-0.580048,-0.229716,0.781521
-0.179500,0.134051,0.592195,0.924177,0.324747,-0.201086
0.128912,0.060230,0.353366,-0.723856,-0.559203,0.404134
-0.497935,0.156207,0.693797,0.350588,0.583403,0.732618
-0.029729,0.052429,0.353327,0.813309,0.440854,0.379706
-0.589429,0.136862,0.653954,-0.585501,-0.225609,-0.778645
-0.512827,0.104237,0.557152,0.610548,0.349481,-0.710700
-0.613623,0.105332,0.573609,0.659840,-0.407249,-0.631474
0.041285,-0.017488,0.157943,0.882925,-0.435595,0.175217
-0.638110,0.091597,0.541354,-0.273270,-0.870953,0.408368
0.070495,-0.041986,0.089214,-0.706985,-0.210862,-0.675062
0.063766,-0.060561,0.040697,0.917551,-0.372703,0.138538
0.069923,-0.080850,-0.014480,0.960753,0.233497,0.149777
0.348411,0.416840,0.793348,0.952306,0.009814,-0.304987
0.166856,0.429480,0.852900,0.727682,-0.343433,0.593744
0.168862,0.413249,0.808062,-0.156669,0.751721,-0.640602
0.196495,0.374853,0.700109,0.874927,-0.304943,-0.376180
0.107435,0.372671,0.706227,-0.683304,0.027153,-0.729629
0.351701,0.315547,0.515683,0.421788,-0.723970,0.545860
-0.004963,0.340990,0.635833,0.865461,0.351528,0.356940
-0.187662,0.355345,0.700535,-0.258808,-0.598681,0.758023
-0.381526,0.371109,0.771587,0.874589,0.381351,0.299442
-0.273568,0.335370,0.658291,-0.120717,-0.561336,0.818736
-0.426917,0.344419,0.704678,0.099975,0.992523,-0.070020
-0.451972,0.332093,0.674127,0.859372,-0.510966,-0.019815
-0.094019,0.215513,0.305468,0.467743,0.872405,-0.141870
-0.685931,0.303374,0.629328,0.744713,0.657397,-0.115029
-0.733183,0.293858,0.610006,-0.325909,-0.657550,0.679273
-0.273428,0.154807,0.164913,-0.179788,-0.914820,0.361635
0.373610,0.497672,0.665183,0.813016,0.022855,0.581793
-0.020711,0.544965,0.851971,-0.072544,-0.866845,0.493272
0.041001,0.518438,0.769922,0.129379,-0.984926,-0.114811
-0.042047,0.516094,0.774530,-0.003888,-0.733262,0.679935
-0.032880,0.497367,0.722760,0.842823,0.424513,0.330813
-0.011976,0.476917,0.663208,-0.584218,0.508058,-0.632903
-0.229899,0.496425,0.747735,-0.041448,0.745652,0.665045
-0.301918,0.491900,0.746341,0.031445,-0.496211,0.867633
-0.434218,0.497987,0.781616,0.536649,-0.061716,0.841546
-0.229754,0.445864,0.608999,0.200386,-0.185640,-0.961968
-0.456984,0.450541,0.654264,-0.071914,0.829567,0.553757
-0.659443,0.450855,0.683536,0.509828,0.822119,0.253370
-0.730176,0.446178,0.681445,0.453438,0.690799,-0.563197
-0.828828,0.446797,0.696934,0.268926,0.960099,0.076744
-0.819088,0.427289,0.641718,-0.446998,-0.444697,0.776168
-0.875648,0.420269,0.630257,-0.386618,-0.232347,0.892492
0.092404,0.516408,0.432821,-0.384848,0.629008,0.675456
0.111446,0.495177,0.372339,0.979939,-0.196109,-0.035494
-0.560219,0.593030,0.740185,0.295911,0.596059,-0.746425
-0.537309,0.572427,0.679819,-0.233174,-0.935973,0.263790
-0.687936,0.580857,0.725742,0.506577,0.439880,-0.741543
-0.753370,0.575551,0.720476,-0.045115,0.756375,0.652581
-0.268416,0.472239,0.364208,0.494125,-0.849324,-0.185713
0.445917,0.627674,0.689538,0.021633,-0.826436,0.562615
0.376761,0.622835,0.685937,0.074380,-0.433153,0.898246
0.309750,0.616911,0.679045,-0.086767,0.019118,0.996045
0.221839,0.614253,0.684195,-0.068959,0.641217,0.764255
0.157266,0.607547,0.675909,0.927963,-0.333985,0.165341
0.186615,0.586629,0.613452,-0.434202,-0.095291,-0.895761
0.015513,0.597717,0.669713,0.495950,-0.543499,0.677232
-0.099603,0.599584,0.691784,0.726773,0.629068,0.275818
-0.202121,0.583200,0.660885,0.928686,0.369669,-0.029778
0.308605,0.737549,0.646249,0.216812,0.973451,0.073384
0.249471,0.730681,0.636452,0.394798,0.185798,-0.899785
0.156977,0.728653,0.644274,0.864356,-0.338474,0.371919
0.036133,0.730995,0.668823,0.554181,0.558219,0.617475
-0.048343,0.695256,0.580888,0.767209,0.053226,-0.639185
0.066488,0.659203,0.462558,0.494871,0.617614,-0.611274
0.001054,0.653269,0.456131,-0.677044,-0.641373,0.360904
0.018807,0.596936,0.295943,0.521889,-0.760467,0.386420
0.187332,0.891736,0.694185,0.864824,0.417766,-0.278479
0.153398,0.881439,0.669636,0.485332,-0.750500,0.448556
0.012506,0.870981,0.661466,0.429499,-0.896401,0.109529
0.091687,0.809027,0.472432,-0.428321,0.218851,-0.876724
0.001194,0.806370,0.479053,-0.065489,0.226667,0.971768
-0.089868,0.804655,0.487998,0.960673,0.182895,0.208940
0.042434,-0.207108,-0.985050,0.105272,0.095234,0.989873
0.129772,-0.201955,-0.982417,0.636504,0.539977,-0.550716
0.124332,-0.325090,-0.354563,0.403919,-0.876716,0.261187
0.032410,-0.293256,-0.986057,0.049598,0.330081,0.942649
0.117030,-0.288570,-0.979436,-0.216567,0.378676,0.899835
0.205086,-0.284045,-0.976261,-0.410103,-0.073437,0.909078
0.289850,-0.279673,-0.968517,0.072372,-0.904674,0.419914
-0.124663,-0.631129,-0.981101,-0.627606,0.218108,0.747355
-0.038324,-0.626758,-0.965148,0.073157,-0.207438,0.975509
0.045007,-0.622233,-0.966735,-0.378759,-0.310663,0.871797
0.133495,-0.617861,-0.958256,-0.453453,-0.153952,0.877884
0.217687,-0.613184,-0.952215,0.802047,-0.020269,0.596917
0.305026,-0.608659,-0.950395,-0.382660,0.464460,0.798654
0.392941,-0.603658,-0.944587,-0.397211,-0.026516,0.917344
0.480708,-0.599448,-0.935953,-0.677742,0.674866,-0.291929
0.564472,-0.594924,-0.934017,-0.412866,-0.447297,-0.793390
0.084386,-0.412637,-0.626498,-0.163773,-0.981139,-0.102687
0.036561,-0.396416,-0.953725,-0.050656,-0.064324,0.996643
0.134640,-0.395634,-0.873419,0.656840,-0.743937,0.122960
0.209381,-0.385956,-0.962476,-0.192083,0.670313,0.716788
0.297008,-0.381432,-0.959921,0.138141,-0.074107,0.987636
0.380768,-0.376431,-0.957830,0.761095,-0.316704,-0.566067
0.464532,-0.371907,-0.956978,0.101942,-0.067151,0.992521
0.552587,-0.367230,-0.946872,-0.103306,-0.564908,-0.818662
-0.076838,-0.505814,-0.980171,0.679129,-0.131196,-0.722199
0.012223,-0.500975,-0.969407,-0.348245,-0.268079,-0.898253
0.100133,-0.496603,-0.962476,-0.302456,0.123642,0.945110
0.185755,-0.492231,-0.947607,0.698125,0.310758,-0.645020
0.268658,-0.487239,-0.956746,-0.737838,0.651233,0.177454
0.357146,-0.482867,-0.947414,0.019039,0.215275,0.976368
0.440478,-0.477724,-0.949969,0.260300,0.111938,0.959017
0.528817,-0.473666,-0.935953,0.304688,0.016497,0.952309
0.615443,-0.468199,-0.941490,0.705587,-0.213974,-0.675546
0.154827,-0.762846,-0.954693,0.600066,0.436258,-0.670521
0.241882,-0.757693,-0.954771,0.069830,0.489418,0.869249
0.326647,-0.753483,-0.948847,-0.194929,-0.291198,0.936593
0.411411,-0.748805,-0.941180,-0.181233,0.345985,0.920570
0.498750,-0.744271,-0.938392,0.351860,0.673630,0.649936
0.583515,-0.740061,-0.929331,-0.379283,0.191231,0.905304
0.259924,-0.866787,-0.948033,0.560188,0.812243,-0.162639
0.344544,-0.862415,-0.941180,-0.248027,0.008239,0.968718
0.432171,-0.857576,-0.937114,-0.158384,0.168236,0.972940
0.519798,-0.852899,-0.931616,0.624143,-0.401524,-0.670242
0.027542,-0.699169,0.442307,0.862965,0.462729,-0.202913
-0.271567,-0.498479,0.508597,0.921810,-0.110917,-0.371434
-0.220019,-0.487868,0.377992,-0.301462,-0.903486,-0.304687
-0.147572,-0.482553,0.354334,-0.151718,0.988403,0.006402
0.017518,-0.477724,0.437041,-0.606124,-0.472188,0.640041
0.329509,-0.432459,-0.038680,0.556140,0.478575,-0.679466
0.411695,-0.428868,-0.020869,0.389450,0.582251,-0.713662
0.488726,-0.424506,-0.016454,0.506492,0.593031,-0.625924
0.704931,-0.516740,0.009643,-0.374717,0.273086,0.886008
0.860854,-0.508624,0.022189,0.008887,-0.971353,0.237477
-0.263833,-0.400311,0.543562,-0.540519,-0.785129,0.302343
-0.156162,-0.405150,0.732054,0.670286,0.139068,-0.728956
-0.035030,-0.390329,0.595679,0.961946,-0.271021,-0.034743
0.055459,-0.390329,0.688648,-0.613969,-0.764570,0.196150
-0.007253,-0.343969,-0.161424,0.431296,0.841767,-0.324671
0.192056,-0.377212,0.605398,0.023406,0.557622,0.829765
0.079086,-0.340387,-0.134088,0.558533,0.656614,-0.506851
0.241882,-0.334453,-0.073722,-0.245730,0.738748,0.627589
0.323212,-0.330395,-0.067527,0.071222,-0.895103,-0.440135
-0.331556,-0.317126,0.535856,0.785682,0.551345,-0.280575
-0.222886,-0.320717,0.703710,0.762528,-0.503797,0.405880
-0.191097,-0.306048,0.485326,0.900135,-0.163737,-0.403666
-0.109338,-0.304182,0.533223,-0.521996,-0.254974,0.813946
-0.004531,-0.308706,0.717959,0.833495,0.517942,-0.192413
0.074646,-0.306210,0.751607,-0.032235,-0.576732,0.816297
-0.017849,-0.279520,0.198290,0.968915,-0.228492,-0.094841
0.005777,-0.259231,-0.123014,0.525462,-0.738385,0.422702
0.074506,-0.250487,-0.201229,0.798397,0.580751,0.159027
0.272237,-0.286226,0.608535,-0.530913,0.821178,0.209281
0.305887,-0.233484,-0.266977,-0.630500,0.434941,0.642881
0.388074,-0.230512,-0.238285,0.831676,-0.348572,-0.432218
0.486292,-0.233484,-0.087197,0.224206,0.691548,-0.686653
-0.607327,-0.265937,0.668784,-0.516951,-0.570085,0.638564
-0.533014,-0.261107,0.665919,0.851862,-0.320634,0.414157
-0.340723,-0.243000,0.541045,-0.713420,0.376165,0.591212
-0.254381,-0.241124,0.596880,-0.184467,0.980474,0.068143
-0.165898,-0.240971,0.688106,0.620310,0.759447,0.196099
-0.097169,-0.235351,0.656510,0.897008,-0.246626,0.366813
-0.004819,-0.235818,0.759274,-0.552508,0.582256,-0.596417
-0.022572,-0.206013,0.216218,0.997110,0.009005,-0.075437
0.110730,-0.218653,0.581275,0.411830,-0.517565,-0.750015
0.004917,-0.187753,-0.078175,-0.704477,0.671210,-0.230628
0.079374,-0.181981,-0.096800,-0.193258,0.960411,-0.200655
0.258062,-0.210071,0.583870,-0.200355,-0.063421,0.977668
0.341538,-0.210223,0.668861,0.969270,-0.086709,0.230212
0.310899,-0.166216,-0.140089,0.357112,-0.832861,0.422864
-0.792460,-0.165283,0.651321,0.833576,0.402668,0.378167
-0.563653,-0.154824,0.699180,0.310779,0.739045,-0.597686
-0.493068,-0.150299,0.697205,0.228478,-0.656169,0.719194
-0.413599,-0.147337,0.720863,0.560346,0.625427,0.543004
-0.353609,-0.139526,0.653838,-0.007995,-0.735609,0.677359
-0.278724,-0.135630,0.656703,-0.322253,-0.609370,0.724446
-0.226320,-0.126734,0.554829,0.972298,0.168288,-0.162224
-0.177923,-0.116437,0.426819,0.844498,-0.440374,0.304785
-0.049204,-0.125800,0.717920,0.202456,0.530482,0.823165
-0.107048,-0.110655,0.395804,-0.541718,0.689904,0.480181
0.076079,-0.111131,0.597190,0.869346,0.486892,0.084695
0.065199,-0.079754,0.051539,0.669917,-0.700793,-0.245155
0.449641,-0.092395,0.647643,-0.729006,0.681291,-0.066279
-0.666172,-0.052445,0.494696,0.874583,0.455613,0.165898
-0.556640,-0.055255,0.657168,0.702898,0.708386,0.064214
-0.467580,-0.054636,0.735228,0.079634,0.633387,0.769727
-0.389688,-0.051350,0.753930,-0.175878,0.863695,0.472332
-0.317381,-0.047292,0.760745,0.149943,0.981687,-0.117507
-0.306357,-0.028566,0.449974,0.549101,0.826903,-0.121324
-0.218730,-0.026851,0.510920,0.950337,-0.299642,-0.084112
-0.138693,-0.023574,0.535120,-0.257785,0.898849,0.354425
-0.021855,-0.031537,0.785217,0.415908,0.767101,-0.488444
0.021814,-0.019678,0.628360,0.423639,0.309393,-0.851355
0.107435,-0.018421,0.697205,-0.655133,-0.606617,-0.450351
0.118892,0.005612,0.304810,0.919197,0.103777,-0.379877
0.253194,-0.009686,0.694727,-0.061439,0.902404,0.426488
0.327935,-0.005476,0.700496,-0.233478,-0.679926,0.695118
0.400387,-0.000475,0.687099,0.918794,-0.290096,0.267696
0.472690,0.003116,0.696159,0.064315,-0.929511,0.363143
0.613153,0.013565,0.660614,-0.352594,0.765342,-0.538451
-0.797756,0.038226,0.643616,0.606372,-0.567652,-0.556852
-0.737046,0.045409,0.586425,-0.211535,0.964277,-0.159445
-0.690370,0.054458,0.481647,-0.011193,0.970992,0.238850
-0.576828,0.051019,0.645629,-0.613245,0.555098,-0.561958
-0.407442,0.055553,0.738752,0.560428,0.781420,-0.274414
-0.327977,0.057734,0.781035,0.220639,-0.938248,0.266475
-0.266983,0.063973,0.734803,0.553149,-0.508164,-0.660148
-0.201693,0.070689,0.692132,-0.493818,-0.692304,0.526174
-0.147856,0.079423,0.597228,0.972623,0.172334,-0.155900
-0.044481,0.075680,0.757764,-0.436843,-0.560519,0.703553
0.047301,0.074747,0.864710,0.130646,0.730790,-0.669983
0.082092,0.091130,0.632154,-0.253659,0.569422,0.781931
0.166140,0.091759,0.707505,0.027959,0.783136,0.621222
0.241025,0.094254,0.734067,-0.443246,-0.826299,-0.347510
0.309750,0.100342,0.696314,-0.415059,0.901680,0.121243
0.380056,0.105018,0.692094,0.129136,0.910878,0.391950
0.457515,0.107828,0.718346,0.863081,0.052080,-0.502373
0.523237,0.115791,0.654922,0.057678,-0.519746,0.852371
0.581937,0.127650,0.512159,-0.478120,0.715228,0.509755
-0.954396,0.144663,0.511811,0.765442,0.583014,-0.272382
-0.878082,0.149035,0.513786,0.544259,0.734342,-0.405615
-0.796323,0.152150,0.538218,0.397094,-0.729021,0.557535
-0.696243,0.151369,0.649811,-0.103574,-0.210597,0.972071
-0.645268,0.159484,0.563812,0.590634,0.792493,0.152007
-0.561652,0.162294,0.603656,-0.263307,-0.828586,0.494079
-0.484761,0.165419,0.625882,-0.378124,-0.762546,-0.524924
-0.411309,0.170096,0.620693,0.025015,-0.993797,-0.108362
-0.325832,0.171819,0.673082,0.393905,0.059290,-0.917237
-0.250663,0.176030,0.675521,-0.250238,0.438287,-0.863299
-0.179500,0.180554,0.673624,-0.351819,0.883355,-0.309688
-0.268988,0.204282,0.205376,0.694677,0.715413,-0.074887
-0.089868,0.179459,0.773175,0.034764,0.415654,0.908858
-0.013553,0.183212,0.789089,-0.658850,-0.586283,0.471370
-0.101897,0.209111,0.286069,0.391795,0.892803,-0.222260
0.116742,0.196005,0.708163,-0.597299,0.521076,-0.609683
0.195494,0.198814,0.740688,0.735056,-0.652497,-0.184229
0.245604,0.211617,0.579804,-0.142333,-0.243676,-0.959356
0.401816,0.214893,0.674902,-0.553902,-0.816497,-0.162865
0.448924,0.232058,0.447573,-0.790163,-0.172595,0.588093
-0.461996,0.266387,0.625998,-0.440934,0.862384,0.248739
-0.377947,0.268730,0.669907,0.014376,-0.831755,0.554957
-0.299199,0.271074,0.705801,0.928674,-0.174616,-0.327221
-0.203127,0.269512,0.822427,-0.096336,-0.786659,0.609826
-0.082566,0.285428,0.682027,0.331322,0.745980,0.577702
-0.025723,0.293858,0.599590,0.730175,0.676148,0.098330
0.013796,0.308680,0.405058,0.960095,0.107790,-0.258068
0.112447,0.305870,0.545498,-0.189804,-0.680181,0.708045
0.193345,0.306651,0.604895,0.058037,0.425115,0.903277
0.287128,0.303851,0.742237,0.144451,-0.984553,0.098943
0.474123,0.331465,0.475297,-0.588488,-0.806048,0.062991
-0.896263,0.373290,0.650121,-0.484908,0.382289,0.786587
-0.830401,0.378596,0.627856,-0.321984,-0.659015,0.679725
-0.757093,0.383597,0.621893,-0.507183,-0.141197,-0.850193
-0.701967,0.391246,0.553435,0.944812,-0.015551,0.327243
-0.426629,0.392646,0.778402,-0.365284,-0.602347,0.709751
-0.379809,0.402790,0.667467,0.494010,-0.385159,0.779491
-0.296910,0.403409,0.726787,-0.452047,-0.605392,0.655098
-0.157019,0.413554,0.701542,-0.530068,0.601310,0.597875
-0.080989,0.417459,0.714978,-0.300941,0.906106,0.297332
-0.006252,0.421831,0.719663,0.749042,0.377917,0.544163
0.072645,0.424641,0.745373,-0.480432,0.797598,-0.364724
0.137506,0.431033,0.708627,0.700212,-0.583206,0.411793
-0.765539,0.251252,0.587277,-0.125838,0.986858,0.101372
-0.687508,0.254690,0.600132,-0.148667,-0.953186,0.263315
-0.591146,0.255157,0.688260,-0.528314,0.846872,-0.060767
-0.507959,0.256557,0.740378,0.782368,0.566320,-0.259193
-0.596298,0.388902,0.684001,0.286542,0.938663,0.191848
-0.516261,0.392017,0.707659,-0.576580,-0.783730,0.230917
0.256633,0.450236,0.529003,0.839996,0.521673,0.149215
0.346261,0.446797,0.656432,-0.496858,0.863855,-0.082982
0.397377,0.462095,0.477504,0.753775,0.657029,0.011651
-0.850304,0.490652,0.662976,-0.583891,-0.564779,0.583178
-0.675335,0.491586,0.794277,0.907349,0.303945,-0.290405
-0.470731,0.507817,0.738752,0.739885,-0.672319,-0.023600
-0.399712,0.512655,0.726671,0.736357,-0.161602,0.657010
-0.316808,0.514532,0.767328,0.284119,0.951676,0.116574
-0.168043,0.520619,0.807133,-0.473583,0.822185,-0.315801
-0.101036,0.527172,0.772555,0.769027,0.624864,-0.134695
-0.039325,0.534659,0.722141,0.060874,0.094698,0.993643
0.023819,0.542623,0.663169,0.657823,0.143077,0.739458
0.113452,0.540908,0.759855,0.522204,0.598850,-0.607192
0.058182,0.561816,0.415706,0.612777,-0.783131,-0.105883
0.164279,0.554015,0.612600,-0.558455,0.645014,-0.521618
0.237875,0.557454,0.629250,-0.261263,0.088955,-0.961160
-0.738623,0.639534,0.716681,-0.572905,-0.039623,0.818663
-0.531297,0.679959,0.345583,-0.420543,0.435147,-0.796110
-0.154729,0.673558,0.726129,0.774198,0.402768,0.488258
0.091543,0.706801,0.479053,-0.401176,-0.154397,0.902895
0.192344,0.700086,0.649579,0.691348,-0.403483,0.599366
0.340393,0.709764,0.638776,-0.226523,-0.770085,0.596369
0.409694,0.714917,0.622590,0.689535,0.623961,0.367715
-0.134253,0.822753,0.522110,0.528259,-0.066541,0.846472
-0.055505,0.826192,0.541509,0.164439,0.980819,-0.104662
0.102567,0.828221,0.628863,0.296746,0.648079,-0.701381
-0.086144,0.934181,0.649927,0.604055,0.679119,0.417031
0.393081,-0.312916,-0.962089,0.390945,-0.634532,-0.666732
0.287128,-0.315574,-0.962670,-0.053520,-0.050658,0.997281
0.163134,-0.321498,-0.977306,0.087069,0.354313,0.931064
0.589956,-0.525322,-0.911559,0.936058,-0.349399,-0.041409
0.426015,-0.538581,-0.955816,-0.038454,0.506918,0.861136
-0.005535,-0.548888,-0.958604,-0.713918,-0.344234,0.609774
0.374899,-0.754416,-0.945284,-0.029094,-0.939446,0.341459
0.254483,-0.759417,-0.954190,0.417902,0.510119,0.751756
0.139079,-0.763942,-0.962205,0.555538,0.702651,-0.444588
0.029403,-0.470541,-0.973434,0.022175,-0.168947,0.985376
0.132634,-0.408112,-0.785949,-0.839256,0.539086,-0.070967
0.348267,-0.825894,-0.942884,-0.241130,0.427937,0.871049
0.227851,-0.826675,-0.952680,0.277635,0.378830,-0.882840
0.339960,-0.883637,-0.941064,0.470940,0.446729,-0.760690
0.377189,-0.624728,-0.943658,-0.227818,0.159018,0.960631
0.254195,-0.621918,-0.955158,-0.049673,-0.145467,0.988115
0.130489,-0.619585,-0.966503,0.801516,-0.080852,0.592482
0.560461,-0.382518,-0.937424,0.065296,0.906661,0.416776
0.437467,-0.379708,-0.949234,-0.261853,0.058167,0.963353
0.360580,-0.400778,-0.923562,-0.572417,-0.800908,-0.175742
0.226995,-0.358485,-0.955894,0.027429,0.456444,0.889329
0.309610,-0.655009,-0.939941,0.976603,0.079454,-0.199832
0.159411,-0.640493,-0.967510,0.399037,-0.003473,-0.916928
0.062905,-0.650171,-0.958991,0.855249,0.518214,0.002096
0.116742,0.782956,0.476730,-0.324805,0.334505,-0.884652
0.257490,0.811523,0.623713,-0.528699,0.752146,0.393386
0.007783,0.789824,0.528770,0.160344,0.981787,0.101900
-0.004819,0.798568,0.581624,0.875241,-0.343579,-0.340449
-0.008541,0.808865,0.639511,0.930153,0.357750,0.082647
-0.058796,0.812142,0.665958,-0.628941,-0.668555,-0.396823
0.219116,0.475364,0.327307,0.872335,0.302886,0.383785
0.432315,0.529830,0.587626,-0.318095,0.707348,-0.631248
0.079229,0.491281,0.424534,0.829887,-0.357119,0.428665
0.216827,0.533411,0.631457,0.180655,-0.055122,0.982001
-0.443954,0.453198,0.281307,-0.207496,-0.868885,0.449426
0.145952,0.546213,0.705801,-0.428349,0.563545,0.706352
0.060615,0.545747,0.713274,-0.063195,0.476275,0.877022
-0.090729,0.536536,0.680439,-0.522935,0.351619,-0.776468
-0.080989,0.548242,0.742392,-0.637240,-0.756845,-0.145295
-0.142272,0.550890,0.761752,0.977140,-0.020696,-0.211587
-0.269705,0.544651,0.743786,0.138182,-0.868315,-0.476377
-0.111060,0.576647,0.893751,-0.001074,-0.998741,0.050150
-0.683213,0.533411,0.729149,0.762377,0.557064,-0.329335
-0.885811,0.517028,0.666383,0.610617,0.695601,-0.378531
0.398810,0.227533,0.491366,0.289334,-0.938871,0.186567
0.033266,0.184298,0.319718,0.716824,0.686146,-0.123964
-0.161602,0.168228,0.259933,0.218503,-0.763050,0.608286
0.069494,0.228933,0.529003,0.883544,-0.468332,0.003960
0.022386,0.233925,0.558353,0.733074,-0.436768,0.521379
0.174875,0.268264,0.710292,-0.569900,0.175690,0.802713
0.036277,0.260463,0.684930,-0.002440,-0.182135,0.983270
-0.136687,0.247193,0.636607,0.145963,-0.917657,-0.369595
-0.343297,0.241736,0.630605,0.735013,0.445086,-0.511522
-0.317097,0.257652,0.705220,0.982435,0.138936,-0.124576
-0.395701,0.257805,0.714513,-0.510452,-0.846095,0.153497
-0.237772,0.291829,0.863781,0.284015,0.955878,0.075056
-0.569670,0.256557,0.725510,0.154659,0.936812,-0.313790
-0.615201,0.261863,0.754163,-0.600595,0.666855,0.441124
0.134784,-0.138907,-0.136488,-0.448390,0.886590,0.113602
0.102712,-0.129858,-0.093005,0.096338,0.991349,-0.089141
0.105290,-0.115656,-0.027064,0.968197,-0.050054,0.245129
0.091543,-0.103168,0.030668,0.232746,-0.857024,0.459717
0.067633,-0.093490,0.078411,0.870665,-0.383716,-0.307740
0.047157,-0.082565,0.130645,0.900458,-0.199855,0.386307
0.063477,-0.066028,0.206692,0.806044,0.476806,-0.350640
0.648088,0.041818,0.643499,-0.347905,0.069077,-0.934982
0.080947,-0.048854,0.282198,0.917610,-0.394849,-0.045666
0.062765,-0.038243,0.331721,0.599973,0.726364,-0.335303
0.081519,0.004049,0.524821,0.130664,0.454261,0.881234
0.052597,0.012632,0.567839,0.679963,-0.669294,-0.299493
-0.123373,-0.001256,0.520136,-0.626716,0.600032,0.497180
0.104857,0.046961,0.720244,0.594091,-0.725492,-0.347443
-0.121079,0.024805,0.639550,0.532186,-0.234694,0.813447
-0.172054,0.029482,0.666654,-0.460217,0.752536,0.471052
-0.137548,0.047904,0.746496,-0.242799,0.962617,0.120073
-0.209567,0.048990,0.759468,-0.443575,0.733678,0.514741
-0.279440,0.051495,0.776156,-0.195037,0.706074,-0.680750
-0.360194,0.051648,0.786223,-0.150006,-0.941297,-0.302421
-0.541461,0.036979,0.736506,0.900789,-0.001327,0.434255
0.107291,-0.350836,-0.102763,0.326008,0.939767,-0.102742
-0.041470,-0.287788,0.189229,0.977565,-0.207195,0.037903
-0.043909,-0.244401,0.377837,0.911599,0.300202,0.280832
-0.105760,-0.241124,0.399056,-0.742358,-0.584040,-0.328331
-0.054789,-0.219120,0.490089,0.948192,-0.249616,-0.196530
-0.168475,-0.223806,0.480951,-0.697793,0.601850,-0.388410
-0.129241,-0.204298,0.563580,-0.119458,-0.990455,-0.068765
-0.176061,-0.197745,0.595137,-0.259500,0.946559,0.191537
-0.148856,-0.179952,0.671456,-0.627297,0.042669,-0.777610
-0.213434,-0.176513,0.691629,0.614869,0.766562,-0.185253
-0.492062,-0.194621,0.638001,0.925806,-0.367998,0.086377
-0.527858,-0.186972,0.675405,0.162116,0.947817,0.274521
-0.722159,-0.204451,0.617440,0.897382,0.362381,0.251765
-0.059512,-0.443070,0.405290,-0.935427,0.277279,-0.219298
-0.206989,-0.453529,0.375476,-0.212472,-0.963188,-0.164694
-0.282447,-0.437927,0.449819,-0.311580,0.738688,-0.597710
0.000621,-0.376593,0.681252,-0.706279,-0.700864,0.099796
0.090827,-0.173084,-0.144929,-0.946066,0.313940,0.080002
-0.150434,-0.338510,0.492954,0.946913,0.232267,-0.222278
-0.241928,-0.383613,0.563580,-0.041704,-0.409569,0.911325
-0.347164,-0.385642,0.559127,0.392361,0.809246,0.437235
0.075362,-0.134068,0.000079,0.968270,-0.044473,0.245919
-0.038324,-0.174180,0.061296,-0.720971,0.482627,-0.497265
