0.542480,0.128596,0.738097,0.261708,0.922061,-0.285153
-0.058645,-0.194601,0.891057,-0.036260,-0.269842,0.962222
0.700574,0.605303,0.685301,-0.416675,0.418771,0.806854
-0.107325,-0.714607,0.485601,-0.415607,-0.180645,0.891425
0.489084,0.262901,0.253636,-0.140721,-0.957964,0.250006
0.543073,0.536269,0.598619,0.440216,0.057452,0.896052
0.475542,0.558156,0.751170,0.844353,-0.048066,0.533626
-0.624984,0.009084,0.802471,-0.377950,0.914790,-0.142525
-0.393031,-0.166227,0.533410,0.918369,-0.129027,0.374099
0.542061,0.110126,0.724977,-0.426374,-0.874435,0.231451
-0.401384,0.179376,0.403293,0.134997,-0.691825,0.709333
0.332123,0.404169,0.540458,-0.652545,-0.498894,0.570342
-0.779022,-0.366495,0.624466,0.466870,0.395193,0.791110
-0.278786,-0.462260,0.712454,0.450164,-0.892376,0.031899
-0.180049,0.048661,0.345415,-0.727090,-0.586316,0.357176
-0.143956,0.403824,0.306511,0.350599,0.580584,-0.734849
-0.202839,0.152732,0.845514,0.971962,-0.233423,-0.028336
0.008471,-0.127385,0.091095,-0.575018,-0.817192,0.039391
-0.153562,-0.098058,-0.379805,-0.395203,0.833209,-0.386752
0.246513,-0.158830,0.901346,-0.188125,0.575494,-0.795874
0.557275,0.737878,0.596699,0.963533,-0.230254,-0.136338
-0.140854,-0.445737,0.711180,0.912768,0.383593,0.140394
0.582687,0.810977,0.531822,0.967932,0.201885,0.149501
0.269839,0.505515,0.536305,0.889434,0.211923,-0.404963
-0.646581,-0.430901,0.696313,-0.128725,-0.930487,-0.342964
0.180231,0.533933,0.486624,-0.459940,0.741593,-0.488360
-0.750386,-0.263117,0.791035,-0.585602,0.810323,-0.021129
0.469753,0.017864,0.520101,-0.638552,0.670289,0.378105
-0.157080,-0.050262,-0.979407,-0.266905,-0.858845,-0.437204
-0.257248,-0.100048,0.794952,0.997482,0.059763,-0.038177
0.113828,-0.139193,0.806971,0.522951,-0.846846,0.096821
0.636261,0.584628,0.597061,0.807830,0.261228,-0.528366
-0.074750,-0.112288,0.963062,0.974020,0.006584,0.226366
0.253552,0.066525,0.872368,0.061718,-0.340963,-0.938049
-0.035734,-0.125395,0.282944,0.280511,-0.958819,0.044492
-0.085729,-0.687183,0.495575,0.426939,0.273958,-0.861783
0.100170,0.613478,0.640198,0.737544,0.601846,-0.306283
-0.904606,-0.369220,0.721028,0.596581,-0.046783,0.801188
0.127610,-0.000822,0.443126,-0.752371,0.586926,0.299092
-0.859501,-0.409750,0.814931,-0.174681,0.057938,-0.982919
0.508652,0.574851,0.240689,-0.314849,-0.281166,0.906540
0.600049,0.713223,0.496126,0.690696,-0.355938,0.629481
-0.288807,-0.584065,0.859893,0.534462,-0.724490,0.435276
-0.015153,-0.052770,0.580511,-0.441978,0.306061,-0.843197
-0.299665,-0.493403,0.779361,-0.093171,0.607611,0.788751
0.068669,-0.142610,0.547365,0.730387,0.621399,-0.283545
-0.142165,-0.121502,0.131809,0.802367,-0.575958,0.156457
-0.503875,-0.193261,0.644351,0.913019,0.148506,0.379925
-0.211608,-0.538907,0.826966,0.962963,0.173437,0.206451
-0.473154,-0.089407,0.586615,-0.730282,-0.548489,-0.407244
-0.820725,-0.440201,0.775602,0.209807,-0.916553,0.340459
0.492664,0.322548,0.435134,-0.940713,0.091651,0.326588
-0.681960,-0.306631,0.788643,0.774657,0.322252,-0.544113
-0.276517,0.103810,0.841109,-0.357289,0.728715,0.584224
0.226227,0.290194,0.470294,-0.423874,-0.516654,0.743908
-0.065804,-0.119858,0.037277,0.260791,-0.964854,0.032324
-0.700931,-0.374886,0.801779,-0.273685,0.918725,0.284676
0.485683,0.445348,0.233169,-0.394713,0.129020,0.909701
-0.073618,-0.158960,0.060575,-0.489549,-0.783902,-0.381888
0.086387,-0.050608,0.410089,0.381542,0.526618,-0.759670
0.321381,0.176089,0.696345,0.243358,-0.931556,0.270149
0.736072,0.120550,0.831544,-0.672484,-0.372594,0.639484
-0.103269,0.071240,0.840889,0.847479,-0.530606,-0.015378
-0.309209,-0.483672,0.899710,-0.311662,0.367513,0.876242
0.203557,0.802067,0.503158,-0.554924,0.621448,0.553048
0.181064,0.566331,0.677089,0.918350,0.277090,-0.282584
0.209106,0.222111,0.445312,-0.729682,-0.529162,0.433072
0.512232,0.701587,0.599264,-0.630674,0.364413,-0.685167
-0.179037,-0.048748,-0.643659,-0.496439,0.861064,0.110075
-0.120270,-0.067693,-0.120482,-0.278882,0.943164,-0.180737
0.591517,0.862235,0.560705,-0.611932,0.310062,-0.727599
-0.630832,-0.165881,0.859153,0.121399,-0.651249,0.749091
-0.182376,0.146849,0.379286,-0.836736,0.263311,0.480146
-0.131489,-0.196635,0.988233,0.975224,0.219336,-0.028818
-0.023146,-0.519702,0.840448,0.939274,-0.319246,0.125884
0.516944,0.376660,0.512865,0.805250,0.565531,-0.178179
-0.609116,-0.167395,0.888509,-0.906790,0.000948,-0.421582
-0.268404,0.015139,0.684263,0.583416,0.663209,-0.468807
-0.153085,-0.105195,-0.117745,-0.301965,0.894169,-0.330575
-0.640733,-0.491241,0.797107,0.972678,0.027473,0.230529
-0.444279,-0.272676,0.796950,0.895752,0.444415,0.011154
0.549697,0.452571,0.739466,0.910054,-0.414441,-0.006286
0.692461,0.518880,0.440923,-0.449903,0.104145,-0.886985
-0.414209,-0.178771,0.799593,0.539547,0.826422,0.160982
0.049636,0.015442,0.007418,-0.053071,-0.921436,0.384890
0.608161,0.441671,0.702795,0.774695,0.462792,0.430896
-0.609414,-0.142481,0.869505,-0.074175,-0.980181,-0.183696
0.289287,0.830918,0.513337,-0.347932,0.880980,-0.320651
-0.554646,-0.330983,0.861120,-0.287747,-0.894627,-0.341824
0.262680,-0.238808,0.852467,0.501971,0.660236,-0.558672
-0.150875,0.250011,0.414242,0.517980,-0.498546,0.695089
-0.859206,-0.501449,0.786771,0.862651,0.436382,0.255744
-0.281648,-0.374454,0.881555,0.971201,0.215627,-0.101364
0.989560,0.791081,0.739591,-0.657898,0.719137,-0.223635
-0.272162,-0.123708,0.768821,0.972727,0.016180,-0.231387
-0.792028,0.067390,0.724945,-0.198980,0.735287,-0.647889
0.931453,0.148925,0.665589,0.114683,-0.847303,0.518580
-0.046115,-0.211471,0.874020,0.913017,-0.359620,-0.192547
0.674801,0.305203,0.326144,0.863009,-0.495401,-0.098965
-0.159585,0.136944,0.878314,0.055347,0.977321,-0.204404
-0.130713,-0.446559,0.628084,-0.649645,0.717902,0.250158
0.185598,-0.285350,0.922395,0.534259,0.456482,0.711472
0.172235,0.494658,0.481857,-0.566655,0.527583,-0.632896
-0.113949,-0.169212,0.949894,0.514547,-0.290882,-0.806615
0.408364,0.299278,0.772990,-0.584674,-0.704342,-0.402565
-0.319950,-0.640598,0.834438,0.781949,0.110277,0.613510
-0.484307,-0.738310,0.807112,0.434201,-0.894947,-0.102656
0.411587,0.093646,0.590611,0.857053,-0.459044,-0.233962
0.169791,-0.319910,0.833557,0.840434,-0.533055,-0.097584
0.151774,0.282668,0.706602,0.962083,-0.206893,-0.177738
0.427812,-0.126649,0.864927,0.848110,-0.386065,-0.362854
-0.244900,-0.474285,0.886700,0.972201,-0.149231,-0.180430
-0.024398,-0.239976,0.665086,0.579663,0.787593,-0.209017
0.398580,0.878931,0.533804,-0.194200,-0.728388,0.657067
0.122480,-0.238073,0.893024,-0.238578,0.903016,0.357271
0.448098,0.594792,0.604424,0.822840,0.051891,0.565899
-0.737620,-0.141442,0.834281,0.531421,0.079686,0.843352
0.891719,0.144383,0.648080,-0.206538,-0.976453,0.062305
0.270374,0.617198,0.584570,0.975257,0.220604,-0.014384
-0.582986,0.144816,0.479277,0.928371,-0.096707,0.358852
0.374777,-0.096284,0.879195,0.114172,0.430248,0.895462
-0.677127,-0.572603,0.732984,0.543346,-0.737147,-0.401732
0.790481,0.465331,0.601891,0.145060,-0.616798,0.773639
-0.119258,-0.108353,0.085259,0.781523,-0.623721,-0.013925
0.665854,0.331416,0.551990,0.962814,0.236733,-0.130178
0.593010,0.536485,0.773824,0.950421,0.206307,0.232675
0.101360,-0.423980,0.858414,-0.736129,0.361258,0.572369
0.426622,0.092348,0.572001,-0.613262,0.754405,0.234058
-0.280574,0.072192,0.747961,0.177297,-0.928518,0.326221
0.503344,0.079675,0.769089,-0.717780,-0.166365,-0.676102
-0.096885,-0.447467,0.653051,0.771300,0.636376,-0.011066
0.174263,0.045460,0.811140,-0.765888,0.053566,0.640739
0.393927,-0.193650,0.847480,0.894610,0.243497,-0.374675
0.101182,-0.149834,0.903234,-0.516156,-0.316581,-0.795839
0.519748,0.302954,0.653979,0.955887,-0.275747,-0.101213
0.438671,-0.233877,0.804800,0.860082,0.432127,-0.271154
-0.739768,-0.091656,0.844460,0.167507,0.316341,0.933740
-0.196278,-0.057745,0.837632,0.219973,0.951578,-0.214737
0.366246,-0.144946,0.836200,0.993340,-0.029471,-0.111387
-0.122957,0.109996,0.897287,-0.026848,-0.998311,0.051528
-0.177900,-0.098966,-0.270485,-0.697534,0.664089,0.269134
0.475779,0.207837,0.715380,0.942497,0.334206,0.002511
0.233983,0.155024,0.202775,0.406146,-0.900758,-0.153886
-0.113767,-0.074225,-0.937560,-0.851354,0.437676,0.289200
0.670923,0.517756,0.531271,-0.685059,0.069136,0.725200
-0.847511,-0.470089,0.670592,0.616677,0.226183,0.754024
-0.145744,0.157230,0.895148,-0.090613,0.995884,0.001990
0.089727,0.533241,0.490856,0.511208,0.179835,-0.840432
-0.217514,-0.348199,0.228088,-0.250467,0.811469,0.528000
-0.034838,0.312081,0.309295,-0.690777,-0.581128,0.430252
0.676352,0.380380,0.576405,0.295953,-0.881151,0.368762
-0.713220,-0.419568,0.682532,-0.559013,0.258943,-0.787689
-0.831820,-0.189325,0.821271,-0.329407,0.905812,-0.266451
0.272344,0.497470,0.533363,0.889434,0.211923,-0.404963
-0.463606,-0.188417,0.762733,0.954294,0.256627,0.153188
0.684585,0.009862,0.786692,0.745057,0.487095,-0.455663
0.163823,0.009775,0.691358,0.267612,0.876228,-0.400760
0.561629,0.103638,0.722098,0.392568,0.900494,-0.187084
0.231955,-0.321856,0.854072,0.167549,-0.893536,0.416557
0.491946,0.657554,0.575367,0.909119,-0.124982,0.397344
0.545400,0.608979,0.763645,-0.206984,0.958012,0.198423
-0.423516,0.156841,0.415941,-0.533064,0.753039,-0.385713
0.059242,0.030278,0.808764,-0.181275,-0.812993,0.553337
-0.037642,-0.101129,0.375259,-0.207170,-0.243485,0.947521
0.021536,0.041135,0.866720,0.443198,0.498969,-0.744718
-0.095931,-0.140533,0.171186,-0.166618,-0.977708,-0.127774
-0.052378,-0.073489,-0.136198,-0.614114,-0.743642,0.264313
0.137096,-0.016264,0.651808,-0.422670,-0.809157,0.408185
0.327528,0.024093,0.741574,0.835565,0.064244,-0.545622
0.550950,-0.041654,0.757258,-0.766522,-0.128350,0.629261
-0.235411,0.018773,0.793961,-0.633510,0.749416,-0.192462
0.611384,0.607163,0.619133,0.415744,-0.022450,-0.909205
0.219604,-0.189368,0.879620,-0.054551,0.771460,0.633935
0.528159,0.095766,0.855378,-0.123988,-0.787446,0.603785
-0.398817,-0.256845,0.902117,-0.053803,0.434386,0.899118
-0.149921,-0.171288,0.406313,-0.274622,-0.877359,-0.393477
-0.771684,-0.509667,0.760924,0.971316,-0.071255,0.226865
-0.111502,-0.473593,0.921860,0.961811,-0.205312,-0.181013
-0.591696,-0.212077,0.827721,-0.433091,0.774066,0.461794
-0.057392,-0.099399,-0.186351,-0.034775,-0.995598,0.087036
0.491233,0.070332,0.855519,-0.140928,0.955978,-0.257382
0.198845,0.065314,0.608876,-0.481277,0.635427,-0.603826
0.235771,0.234396,0.836956,0.986628,-0.101878,0.127222
0.483477,0.560751,0.228575,-0.409295,-0.275180,0.869916
0.125524,0.077036,0.762214,0.832266,0.512709,0.210861
-0.173487,-0.164410,0.394357,-0.302549,0.942371,0.142830
0.224079,-0.309269,0.910455,-0.597941,0.508961,-0.619213
-0.276816,0.350361,0.473110,0.237792,-0.514973,0.823564
-0.878057,-0.065055,0.673235,0.029270,-0.847874,0.529389
0.416958,0.282495,0.727651,0.819205,0.408268,-0.402765
0.458537,-0.189801,0.758139,-0.803655,0.585516,-0.106343
-0.653561,-0.144989,0.813908,0.396778,0.862361,0.314484
-0.102613,-0.442103,0.712989,-0.680241,-0.731096,-0.052640
0.651653,0.507678,0.454751,0.936216,-0.164542,0.310523
0.275326,0.182577,0.209178,-0.101238,-0.988006,-0.116596
0.205348,0.147454,0.872336,0.517089,-0.282379,0.808010
-0.653918,-0.501363,0.784474,0.902568,-0.304577,-0.304309
0.672474,0.628184,0.473110,0.718720,-0.026435,-0.694797
0.437418,0.440157,0.639569,-0.397169,0.790587,0.466077
-0.867141,-0.392837,0.748260,0.955214,0.138911,0.261284
0.767391,0.087764,0.838906,0.804855,-0.565670,-0.179513
-0.242988,-0.508153,0.859137,-0.634874,-0.772554,0.009751
-0.165491,-0.003633,0.319190,-0.453520,-0.605326,0.654140
0.128506,-0.217873,0.882342,0.968969,0.100092,-0.226011
-0.779619,-0.276050,0.813027,-0.030346,0.822548,0.567886
0.643300,0.418098,0.444966,-0.865307,0.127591,0.484731
-0.455435,-0.380985,0.586065,-0.494681,-0.628527,-0.600203
0.487770,0.166789,0.798853,0.797683,-0.455221,0.395571
-0.651114,-0.401185,0.675374,0.247381,0.855366,0.455138
-0.002565,-0.175613,0.409696,-0.253197,0.885635,0.389284
-0.173130,-0.117566,-0.141830,0.540555,-0.831672,-0.126972
-0.038181,-0.290584,0.592940,0.881262,0.454080,0.131108
-0.100585,-0.084908,-0.590124,0.792840,0.093988,-0.602139
-0.562223,0.042260,0.217075,0.148996,0.211425,0.965971
0.182139,0.173191,0.816724,0.901334,-0.427481,-0.069695
-0.056140,-0.271595,0.569169,0.970585,0.170212,0.170270
-0.426382,0.166313,0.401373,-0.267488,0.735140,-0.622912
0.572069,0.306804,0.308398,0.257560,0.833754,-0.488382
-0.177722,-0.406332,0.552761,0.915578,0.402000,-0.010578
-0.774550,-0.174964,0.812524,0.059083,-0.871315,0.487154
0.230404,0.230416,0.444982,0.836691,0.545178,-0.052249
0.539556,0.143865,0.758674,0.742845,0.616665,-0.260589
0.186315,-0.125957,0.608435,0.368887,-0.458323,0.808617
0.093488,0.392793,0.635463,0.548060,0.831345,0.092171
0.204929,0.250443,0.842997,0.975520,-0.175147,-0.132983
-0.189356,-0.056577,-0.760043,-0.589585,0.791627,0.160364
0.636560,0.092478,0.792403,-0.884703,0.300854,-0.356073
-0.123372,-0.071067,0.347870,-0.530258,0.143129,0.835668
-0.415643,-0.243393,0.828099,0.588186,-0.664040,0.461615
-0.282005,-0.107098,0.547538,-0.570011,0.768413,-0.290911
-0.774011,-0.443661,0.653397,-0.159970,0.931892,0.325557
-0.161973,-0.010121,-0.994494,0.191423,0.411966,0.890866
0.264767,-0.187292,0.765046,0.527180,-0.768637,0.362324
0.441475,0.077685,0.592420,-0.726656,0.678755,0.106128
-0.892076,-0.313638,0.724914,0.889676,0.175470,0.421530
0.400849,0.274666,0.363680,-0.063382,-0.968832,0.239471
-0.140016,-0.171850,0.223982,0.939189,-0.326985,-0.104902
-0.815474,-0.408106,0.669805,0.412306,-0.078084,0.907693
-0.248359,-0.440287,0.883364,0.873244,-0.484000,-0.056468
0.529892,0.608633,0.246887,-0.394754,-0.250163,0.884075
-0.061864,-0.269562,0.641692,0.894884,0.295723,-0.334261
0.717338,0.056187,0.797831,0.538648,-0.273385,-0.796944
-0.564969,0.057053,0.213221,0.148996,0.211425,0.965971
-0.503100,-0.177516,0.810211,-0.712562,-0.506415,-0.485591
0.417435,-0.096630,0.746812,-0.344671,0.790536,-0.506215
-0.704568,-0.423635,0.646475,-0.424270,0.795801,-0.432082
-0.349361,-0.522773,0.783137,-0.040142,0.549026,0.834841
-0.621165,-0.181020,0.880391,0.363732,0.918936,0.152502
0.215249,0.088326,0.707955,0.721123,0.405856,-0.561482
0.907471,0.085816,0.723639,0.467229,-0.835391,-0.289514
-0.583998,-0.452182,0.620926,-0.811455,0.356754,-0.462890
-0.177842,-0.297288,0.455617,0.499444,-0.827116,-0.257750
0.619380,0.105541,0.835367,-0.251940,0.767234,0.589812
0.588477,0.813313,0.528990,0.991049,-0.020532,0.131910
0.973393,0.782517,0.724080,-0.657898,0.719137,-0.223635
0.184884,0.049569,0.726723,-0.351912,-0.924184,-0.148468
-0.490155,0.179809,0.444431,-0.778029,0.560107,-0.284519
-0.308375,0.010381,0.821916,0.818279,0.504972,-0.274630
0.432408,0.249448,0.732591,0.909818,0.346050,0.229086
0.326694,0.222241,0.605478,0.026572,-0.120551,0.992351
-0.066040,-0.075479,-0.135160,-0.614114,-0.743642,0.264313
0.677306,-0.054024,0.763976,0.333307,0.926785,-0.173136
0.253195,0.184480,0.221071,0.235592,0.971388,-0.030022
0.150339,0.107920,0.118531,-0.015943,0.992808,-0.118650
0.759337,0.438081,0.587811,0.197488,-0.675159,0.710745
0.154756,0.385051,0.642353,-0.002360,-0.903973,0.427583
0.150937,-0.180760,0.889374,0.405118,-0.124477,0.905751
0.338324,-0.191877,0.741180,0.831538,0.049033,-0.553300
0.135843,-0.163675,0.883003,-0.646951,-0.144822,0.748653
-0.170683,-0.228124,0.155957,0.942136,0.049222,0.331598
0.659766,0.564427,0.615877,-0.748973,-0.340098,0.568659
-1.000000,-0.348328,0.635038,0.250890,0.950313,0.184283
-0.587042,-0.275055,0.688919,-0.891655,0.375036,-0.253572
-0.217456,-0.436481,0.256389,0.440278,0.721740,0.534084
0.401027,-0.105584,0.749864,-0.373414,0.782914,-0.497602
-0.089727,0.232796,0.234616,-0.564240,-0.583720,0.583870
0.147299,-0.346468,0.889468,0.976799,0.119488,0.177725
0.104106,-0.339591,0.872557,0.910010,-0.393968,-0.129119
0.153740,-0.165751,0.573967,-0.584530,0.808477,0.068476
-0.084775,-0.112202,0.004035,0.059018,-0.997916,0.026097
-0.703436,0.009905,0.721815,-0.024892,-0.131194,0.991044
-0.897862,-0.418141,0.819745,0.409447,-0.656357,0.633679
-0.108636,-0.059994,-0.545870,0.118748,0.920518,-0.372217
-0.260051,-0.758813,0.433907,-0.145407,0.815633,0.560000
0.597008,0.368269,0.533552,0.825516,0.415247,-0.382223
-0.201288,-0.368009,0.887187,0.949353,-0.200148,0.242218
-0.103687,-0.169947,0.249436,0.835230,-0.508475,-0.209389
0.594084,0.394567,0.503048,0.953886,0.210851,0.213641
-0.392612,-0.247675,0.812068,0.631763,-0.726059,0.271501
0.121468,-0.219170,0.900512,-0.237419,0.962702,0.129759
-0.492303,-0.717288,0.788769,0.187511,0.944759,0.268830
-0.234519,0.135646,0.756487,-0.186901,-0.492483,0.850017
0.052979,0.611877,0.499445,0.603703,0.543320,-0.583392
0.341012,0.087676,0.538948,-0.183299,-0.904329,0.385474
-0.061507,0.336693,0.764542,0.317984,0.326701,0.890030
0.271390,-0.183139,0.735124,0.964766,-0.257714,0.053009
0.040030,-0.210433,0.534622,0.817535,-0.306573,-0.487494
0.072248,0.091872,0.383581,-0.130765,-0.466292,0.874913
-0.235531,0.045590,0.707121,0.791510,0.553650,-0.258811
-0.152845,-0.482979,0.904146,-0.509781,0.466208,-0.723031
-0.649326,-0.215796,0.750037,0.967434,-0.037949,0.250262
-0.644134,-0.054976,0.841266,0.194215,0.952943,-0.232765
0.575470,0.185043,0.778968,-0.103308,-0.757331,0.644809
-0.448393,-0.212466,0.856384,-0.510335,-0.848802,0.138177
-0.900130,-0.352264,0.619983,0.174940,0.925305,0.336461
-0.181421,0.295817,0.435527,0.397667,-0.557744,0.728548
-0.442607,-0.131840,0.728516,0.976323,-0.020432,0.215351
0.054708,-0.296033,0.738915,0.943844,-0.048771,-0.326772
0.629878,0.560275,0.612274,-0.717409,-0.564491,0.408257
0.700038,0.725723,0.697713,0.291505,0.902360,0.317443
-0.472793,-0.184307,0.814648,0.019076,0.849620,0.527049
-0.326570,0.006748,0.210389,0.327952,0.777123,0.537147
-0.459015,0.055755,0.212592,0.148996,0.211425,0.965971
-0.095931,-0.163372,0.922175,-0.458046,0.265611,-0.848319
0.382234,0.312081,0.385846,-0.781454,0.623440,0.025546
-0.634769,-0.075436,0.859672,-0.587501,-0.650384,0.481501
-0.418684,-0.309313,0.557291,-0.725477,-0.210428,-0.655288
-0.708865,-0.017691,0.702921,0.391626,-0.852392,0.346492
-0.185179,-0.529564,0.757132,0.914416,-0.308401,0.262168
-0.302647,-0.705091,0.833793,0.769309,0.159611,0.618617
-0.338503,-0.447986,0.751422,-0.394991,0.850357,-0.347671
0.668538,0.511830,0.615216,-0.766887,0.329874,0.550515
-0.051486,-0.102123,0.309154,-0.115975,0.912159,0.393086
0.116516,-0.049137,0.412622,-0.374071,-0.517868,0.769340
-0.335521,-0.038237,0.331697,-0.111497,0.145395,0.983071
-0.111203,-0.366755,0.568005,-0.474673,0.781815,-0.404290
0.220500,0.336952,0.525749,0.169359,0.909437,-0.379792
-0.034183,-0.201436,0.885771,-0.032254,0.786497,0.616752
0.505430,0.481336,0.743367,-0.432598,-0.567801,-0.700329
-0.662690,-0.044120,0.723105,-0.414186,0.024421,0.909865
0.595337,0.687530,0.597297,0.938012,0.098285,-0.332376
-0.054050,-0.169557,0.496724,-0.745146,0.587296,0.315977
-0.102493,-0.060773,-0.198354,-0.126983,0.989263,-0.072340
-0.089009,-0.086033,-0.993833,0.197152,0.177412,0.964187
-0.682615,-0.292962,0.729838,-0.277625,0.894006,0.351678
-0.220139,-0.320818,0.207888,-0.524577,0.824019,0.214036
-0.464262,-0.566504,0.749628,-0.536704,0.213155,-0.816403
-0.279143,-0.754617,0.427488,-0.117554,0.796691,0.592844
-0.109055,-0.042346,0.849163,0.679152,-0.646034,0.348414
-0.330689,-0.321207,0.796399,0.534558,0.598086,-0.597111
-0.563596,-0.497210,0.798790,-0.226698,-0.970891,-0.077323
0.660902,-0.130585,0.720540,0.418930,0.676506,-0.605671
0.313148,0.078853,0.748622,0.709935,0.545863,-0.445001
-0.130713,-0.019854,0.696282,0.548433,0.685599,-0.478723
0.618244,0.472944,0.505424,-0.673798,0.738464,-0.025826
-0.899355,-0.348631,0.639380,-0.403307,0.234605,0.884479
-0.413018,-0.183053,0.483824,0.523209,-0.851393,-0.037190
-0.203674,-0.072667,0.306589,-0.562601,0.634749,-0.529692
0.369588,-0.119599,0.624214,0.519288,0.617148,-0.591158
-0.389572,-0.507505,0.898593,-0.387896,-0.388685,0.835740
-0.263511,-0.172239,0.473331,-0.489615,-0.793184,-0.362127
-0.035319,-0.162118,0.087508,-0.096612,-0.005853,0.995305
-0.800560,-0.559410,0.763582,0.157136,0.423620,0.892107
-0.784928,-0.140707,0.869568,-0.194493,0.913205,-0.358092
0.402160,-0.324149,0.765108,0.894586,-0.210597,-0.394163
0.756416,0.182837,0.846930,-0.690677,-0.140397,0.709404
-0.795549,-0.022925,0.780211,0.979000,0.034990,-0.200833
-0.656186,-0.548207,0.729602,0.670571,-0.596803,-0.440637
-0.232014,-0.113456,-0.146078,0.608892,-0.793072,-0.016943
0.259338,0.697824,0.549425,0.967685,-0.245403,-0.057994
-0.105654,-0.224923,0.498879,0.932717,-0.350206,-0.085991
-0.211728,-0.345863,0.587968,-0.440207,-0.672232,0.595250
-0.130593,0.168087,0.601073,0.601507,-0.420666,0.679138
-0.070395,0.024179,0.793945,-0.607233,-0.378149,0.698764
-0.200571,-0.053419,-0.860050,-0.265822,0.956665,0.118871
-0.044564,-0.303603,0.629280,0.879218,0.322096,-0.351041
-0.048143,-0.251654,0.715254,0.892499,0.449651,0.035479
-0.292328,-0.217180,0.554633,0.780922,0.070562,0.620630
-0.734816,-0.072408,0.861214,-0.571362,0.809662,0.134136
0.630475,0.527315,0.607256,0.903564,-0.185757,-0.386091
0.744305,0.544790,0.653948,0.938674,0.289965,-0.186581
-0.517479,-0.344392,0.849809,0.354577,-0.913682,-0.198647
0.114724,-0.149963,0.487772,0.861188,-0.262729,0.435120
-0.176768,-0.629309,0.485995,0.599563,0.099182,-0.794158
-0.112157,0.001428,0.885205,0.983307,-0.097901,0.153372
0.241976,0.165924,0.665196,-0.409299,-0.836479,0.364386
-0.748715,-0.364116,0.602851,0.386216,0.425896,0.818199
-0.225987,0.167049,0.765502,0.616524,0.787273,-0.009920
0.276342,0.075392,0.594670,0.774373,-0.598097,-0.206462
0.425369,-0.014879,0.778764,0.856767,0.234668,-0.459218
-0.512290,-0.402742,0.625174,-0.030842,0.985397,0.167456
-0.088711,-0.094554,0.231360,-0.697825,0.631378,0.338235
0.479420,-0.121848,0.844287,-0.634327,-0.755694,0.162961
-0.793521,-0.032700,0.833023,0.052403,0.691110,0.720847
0.416419,0.467105,0.747992,0.847239,-0.531175,-0.006219
-0.632322,-0.500930,0.857958,-0.044848,-0.874029,0.483799
-0.667820,-0.392924,0.649464,0.259705,-0.950653,0.169741
0.762202,0.716121,0.505030,-0.372331,-0.046448,-0.926937
0.524878,0.545482,0.760420,0.330773,-0.172463,-0.927818
0.564910,0.358450,0.500909,0.990952,0.045426,-0.126294
-0.454776,-0.860331,0.498391,0.619195,-0.737071,-0.270785
0.768706,0.389852,0.373465,0.297369,-0.871028,0.391002
-0.400190,-0.584325,0.826022,-0.298812,0.952786,-0.053953
0.093667,-0.200355,0.569468,0.831860,-0.395857,-0.388982
-0.449529,0.142826,0.401924,-0.656818,0.684941,-0.315351
0.445054,0.215754,0.741920,0.842823,0.152649,0.516088
0.253195,-0.056317,0.520432,0.759020,-0.045060,-0.649506
-0.776218,-0.160431,0.842698,-0.274692,-0.937814,-0.212249
-0.495824,-0.196418,0.641771,0.910306,0.142638,0.388585
-0.143836,0.007916,0.725071,-0.622665,-0.675729,0.394562
-0.801037,0.036334,0.641441,0.545583,0.815237,0.194238
-0.434731,-0.100307,0.771086,0.933739,-0.338014,-0.117802
0.184586,-0.296553,0.842934,0.859093,-0.474514,0.191824
-0.531859,-0.250573,0.865068,0.835634,0.231563,0.498091
0.269063,0.193088,0.434803,0.061806,-0.761050,0.645743
-0.049396,0.098620,0.870260,-0.133648,-0.632396,0.763029
-0.171874,0.388511,0.304355,-0.124758,-0.717951,0.684822
0.163765,0.093083,0.786158,0.670438,0.409922,-0.618447
0.176888,-0.279208,0.920539,0.255231,0.400135,0.880198
-0.116869,-0.178814,0.080806,0.507711,-0.786512,-0.351607
-0.639659,-0.479173,0.785953,-0.632129,0.752097,-0.186449
-0.229505,0.030927,0.344220,-0.130216,0.763365,-0.632707
-0.806943,-0.311086,0.685238,0.131056,-0.977472,0.165447
0.176589,0.092737,0.850060,0.740848,0.671326,-0.021583
0.154516,-0.109910,0.338179,0.812628,0.027036,-0.582156
-0.067533,-0.048964,0.797862,0.109220,0.698057,0.707663
-0.906812,0.015096,0.710708,0.355500,-0.796394,0.489261
0.554351,0.465375,0.546484,0.908708,0.317197,-0.271359
0.113053,0.123924,0.373560,-0.135850,-0.610988,0.779896
-0.491528,-0.305549,0.840212,0.015484,0.451841,0.891964
-0.765480,-0.141485,0.850013,0.449029,-0.138839,0.882665
0.397328,0.518708,0.711416,0.787091,-0.381259,-0.484902
-0.095691,-0.048402,-0.286138,0.021282,0.985222,0.169957
-0.278902,-0.126086,0.521328,0.848321,-0.463495,0.255976
-0.371853,-0.199317,0.881099,-0.710510,-0.691550,0.130133
0.673013,0.521000,0.516845,0.865580,-0.260035,-0.427964
-0.329851,-0.538431,0.786378,-0.347739,0.482654,0.803818
-0.830152,0.028029,0.721956,0.229468,-0.936468,0.265278
0.625523,0.091223,0.767830,0.878452,0.399239,-0.262547
0.470350,-0.110126,0.726817,0.799915,0.580847,0.150839
0.659052,0.545957,0.794197,0.494186,-0.483019,0.722823
-0.426859,-0.038453,0.331603,-0.129904,-0.124099,-0.983730
0.592413,0.617631,0.612652,0.886412,0.122390,-0.446424
-0.039553,-0.148838,0.925714,0.950149,-0.149877,-0.273413
0.274791,0.172023,0.853820,-0.428817,0.373791,0.822433
0.140676,-0.078766,0.856369,-0.634075,-0.291631,0.716171
0.462893,0.025867,0.518796,-0.537379,0.714691,0.447706
0.279263,0.323241,0.473142,0.486258,0.640440,-0.594466
-0.380086,-0.205934,0.686025,-0.324238,-0.887824,-0.326554
0.351629,0.679830,0.699979,0.046296,-0.618484,0.784432
-0.150460,-0.099701,-0.382086,-0.525318,0.843016,0.115605
0.192221,-0.061032,0.881870,0.837829,-0.541667,0.068109
-0.373940,-0.798478,0.455648,0.160795,0.633496,0.756854
-0.063357,0.380682,0.292824,-0.690777,-0.581128,0.430252
0.138050,-0.180501,0.859971,0.289468,-0.215894,0.932522
-0.156901,-0.356719,0.661389,-0.921353,0.388496,-0.013413
0.705584,0.572689,0.514155,0.850945,-0.325627,0.412140
0.619675,0.128379,0.804485,-0.675793,0.286688,-0.679053
-0.039732,-0.147151,0.035861,0.178109,0.978173,0.107023
0.658036,0.568277,0.780683,0.785171,-0.158467,0.598661
0.587224,0.704052,0.587654,0.998894,-0.010961,-0.045712
0.143181,0.106622,0.381866,0.613868,0.295015,-0.732210
-0.070992,-0.116917,0.096522,-0.567742,-0.701896,-0.430129
-0.829377,-0.087201,0.689061,0.222022,-0.859430,0.460529
0.409737,-0.137636,0.819367,0.811134,0.152367,0.564665
-0.134707,0.233314,0.411898,0.675776,-0.459069,0.576700
-0.123849,-0.495004,0.748999,-0.371077,0.655945,0.657296
0.387605,-0.075003,0.863888,-0.141453,0.947227,-0.287665
0.108042,-0.329988,0.625048,-0.812754,0.388767,0.433926
-0.286837,-0.575630,0.804281,0.762981,0.645940,-0.024935
0.455319,-0.254466,0.772550,0.819404,0.295345,-0.491273
0.034962,-0.146978,0.544753,0.759624,0.490056,-0.427570
0.041403,-0.194386,0.730184,-0.099557,0.989514,0.104646
-0.138586,-0.107704,0.350072,0.073521,0.008196,0.997260
0.175756,0.162723,0.795565,0.975507,-0.192510,0.106421
-0.660662,-0.042995,0.876442,-0.048175,-0.444827,0.894320
-0.142525,-0.074614,-0.182984,0.515209,-0.854871,0.061287
-0.170206,-0.507981,0.778071,0.995664,-0.084553,-0.038774
-0.286480,-0.085428,0.825031,-0.846084,0.301133,0.439842
0.519391,0.112072,0.753042,-0.134525,0.974103,0.181733
0.650699,0.363467,0.575084,-0.718456,0.670895,-0.183634
0.079884,-0.128985,0.839252,0.867033,0.407472,-0.286741
-0.184823,-0.320516,0.488181,0.502897,-0.645161,-0.575206
-0.826868,-0.446126,0.663276,0.642943,-0.241839,0.726731
-0.090382,-0.068039,0.936381,0.854138,-0.229215,0.466806
-0.414329,-0.238938,0.731175,0.861463,0.507316,0.022627
-0.817859,-0.286085,0.873595,-0.821409,0.546817,-0.162106
-0.838087,-0.484969,0.680990,0.823937,0.057311,0.563776
-0.167341,-0.461957,0.634267,-0.625202,0.743584,0.237077
-0.462295,0.133613,0.405055,-0.685821,0.639221,-0.347916
0.545939,0.060470,0.590627,0.725762,0.686388,0.046274
0.013125,0.041827,0.858618,-0.560811,0.316664,-0.764994
0.213399,-0.175570,0.668641,0.979044,0.100175,-0.177308
-0.145329,-0.136554,0.238313,0.865551,-0.478790,-0.146903
-0.226046,0.132531,0.837097,-0.539355,0.734778,-0.411337
0.497077,0.098188,0.688510,0.836194,0.543450,-0.073765
0.362309,0.213937,0.303915,0.313137,0.544385,0.778197
0.241200,0.130629,0.858949,-0.411982,0.470677,0.780214
-0.424947,-0.171850,0.599106,-0.003039,-0.980917,0.194404
-0.509487,-0.974609,0.516593,0.276639,0.559012,0.781650
-0.575168,-0.113284,0.848629,0.872722,0.010419,0.488106
-0.468737,-0.691077,0.738097,0.300759,0.931249,0.205716
-0.273295,-0.014923,0.643093,0.940382,0.295760,-0.167952
-0.077674,-0.145335,-0.992669,0.145619,0.019445,0.989150
-0.385752,0.000346,0.330989,0.229490,0.517233,-0.824502
-0.116811,-0.144816,0.878613,-0.169805,0.925776,0.337794
-0.258919,-0.626065,0.804784,0.833283,0.317515,0.452575
0.804321,0.663567,0.489125,0.841597,-0.511813,0.172517
0.151297,0.012631,0.180231,0.112389,0.535376,0.837103
-0.584475,-0.566763,0.407808,-0.156487,-0.971477,-0.178168
-0.133218,-0.140577,0.305284,0.837798,0.518574,-0.170807
-0.127906,-0.369436,0.593065,0.813682,0.100203,0.572609
-0.062282,-0.248670,0.641283,0.888528,0.243282,-0.389014
0.412960,-0.217743,0.775460,0.839600,0.219793,-0.496753
-0.343393,-0.196505,0.674367,-0.014257,0.972864,0.230937
0.558228,0.617198,0.753986,0.167632,-0.880298,0.443819
0.384620,-0.173970,0.843406,0.970804,0.065525,-0.230750
0.578394,0.506121,0.783688,0.326282,-0.754291,0.569724
0.635963,0.773779,0.537170,-0.360770,-0.266345,0.893815
0.343338,0.002682,0.538004,-0.521095,0.261970,0.812300
-0.214830,-0.195164,0.407037,0.887863,0.225475,0.401074
0.096408,0.100697,0.071949,0.308969,-0.929990,0.199138
-0.281528,-0.190882,0.476792,0.397826,0.793347,0.460798
0.249852,0.693585,0.544737,0.944830,-0.098602,-0.312367
-0.084833,-0.147368,0.288246,-0.165255,0.983441,0.074392
-0.094977,-0.098750,-0.674934,0.538190,0.741973,0.399784
0.553098,0.484060,0.608955,0.380665,0.869405,0.315007
-0.156304,-0.065963,-0.239761,-0.882023,0.235494,0.408140
-0.567652,-0.478870,0.776561,0.307090,0.853195,0.421608
-0.241914,-0.169644,0.444919,-0.341308,-0.939757,-0.019111
0.140854,-0.369177,0.892662,-0.427153,0.857275,0.287437
-0.443026,-0.113284,0.779818,0.883697,-0.432986,-0.177772
-0.394342,-0.104935,0.551880,-0.203705,-0.825331,0.526623
-0.107205,-0.053636,-0.522209,-0.121406,-0.983781,-0.132044
0.565628,0.517929,0.557307,0.950514,-0.295126,-0.097077
-0.443026,0.049007,0.212639,0.139407,0.217363,0.966084
-0.488127,-0.203253,0.834470,0.256496,-0.539188,-0.802176
-0.261901,-0.053679,0.618315,0.994975,0.076499,-0.064602
0.460984,-0.154635,0.858776,-0.475952,0.645880,-0.596916
-0.502564,-0.530819,0.784254,0.199183,0.576533,0.792424
0.157261,-0.149790,0.581172,-0.197953,0.974286,0.107618
0.296566,-0.357671,0.900402,0.654514,-0.592989,0.469015
0.149626,-0.108439,0.904838,-0.517374,0.837666,0.175043
-0.254681,-0.350491,0.162879,0.879873,-0.475209,0.000053
-0.602791,-0.497643,0.843579,-0.075332,0.997102,0.010648
-0.303721,-0.629958,0.869505,-0.169603,-0.980804,0.096220
-0.130713,-0.054285,-0.827281,-0.523109,0.841487,-0.135114
0.556557,-0.105108,0.688605,0.059654,0.932412,0.356439
0.600169,0.690687,0.613658,0.974791,0.181277,-0.130083
0.185241,-0.287296,0.913727,0.022698,0.220501,0.975123
-0.146043,-0.445737,0.826478,-0.765869,-0.640565,0.055866
-0.784571,-0.226610,0.838151,0.613939,-0.192549,0.765509
-0.216203,-0.107920,-0.382558,-0.502051,0.848010,0.169775
-0.730163,-0.311518,0.765030,-0.767037,0.528014,-0.364493
0.673668,0.176651,0.821271,0.671171,0.723635,-0.160880
-0.287135,-0.187465,-0.987257,-0.448722,-0.155915,0.879965
-0.834089,-0.408019,0.669412,0.447810,-0.032009,0.893555
-0.723838,-0.003590,0.728264,-0.488435,0.269482,-0.829947
-0.149742,-0.064492,-0.150719,-0.639557,0.738858,0.212263
0.538540,0.791773,0.579536,0.897836,0.263135,-0.353058
-0.264348,-0.170552,0.792875,0.909081,-0.413981,0.046820
-0.886647,-0.425321,0.817480,-0.681406,0.599844,-0.419372
-0.776338,-0.078334,0.783955,0.995766,0.086180,-0.031986
0.088536,-0.184091,0.744311,0.235801,-0.958854,0.158103
-0.531083,-0.314416,0.846961,0.134545,0.635581,0.760220
0.379609,-0.072408,0.870228,-0.599420,-0.799683,-0.034677
-0.187983,0.332367,0.278492,-0.352084,-0.858691,0.372407
-0.027799,-0.211039,0.357104,-0.487418,0.867730,0.097308
0.311182,0.538302,0.579221,0.681664,0.473958,-0.557403
0.453585,0.634326,0.610418,-0.721557,0.670525,0.172485
-0.247584,-0.126303,0.171138,-0.179012,0.832557,0.524216
-0.203553,-0.434145,0.829609,-0.766684,-0.641165,-0.033220
0.483058,0.734850,0.483462,0.678680,0.691573,-0.247226
0.115918,0.405208,0.647403,0.137610,0.932313,-0.334449
0.402101,0.542671,0.625379,0.855937,0.480194,0.191795
0.595872,0.092219,0.874114,0.987503,-0.131999,-0.086101
-0.276816,-0.511397,0.834202,-0.338619,0.867298,0.364871
0.079527,-0.020892,0.450315,0.349927,-0.935849,0.041691
-0.239172,-0.086768,0.780683,0.983882,0.157425,-0.084811
-0.682018,-0.027813,0.697100,-0.107444,-0.994017,-0.019658
-0.176469,-0.165838,0.883018,0.221821,0.587210,0.778448
-0.710536,-0.178511,0.821161,-0.724185,0.689345,-0.018957
-0.259276,-0.517236,0.322730,-0.821145,0.554970,0.133152
0.569145,0.493490,0.742958,-0.583950,0.737925,0.338331
-0.292266,-0.009992,0.210594,-0.172044,0.138268,0.975337
0.529772,0.104330,0.777301,0.795704,0.583930,0.160878
-0.416536,-0.270340,0.825755,0.654579,-0.752551,0.072062
-0.180824,-0.051256,-0.957949,-0.219548,0.969830,0.105967
0.584777,-0.098015,0.715947,-0.613923,-0.651082,0.446309
0.221333,0.078161,0.854638,-0.653511,0.748137,-0.114955
-0.065206,-0.454907,0.793725,0.589678,0.489436,-0.642443
0.240425,-0.238721,0.669066,0.981149,0.148574,-0.123580
-0.160899,-0.240105,0.126051,0.943290,0.173143,0.283242
-0.267629,-0.772568,0.430933,-0.145407,0.815633,0.560000
-0.559299,-0.402439,0.628053,-0.121083,-0.924460,-0.361542
0.075828,0.430598,0.487190,0.482257,0.871259,0.091297
-0.224793,0.035080,0.702040,0.727977,0.502630,-0.466275
-0.215963,-0.115100,-0.411347,0.981060,-0.184987,0.057452
-0.004175,-0.267659,0.565944,-0.201103,-0.610717,0.765887
-0.114127,0.257840,0.237873,-0.733583,-0.418638,0.535349
0.037824,-0.309875,0.792325,0.525665,0.810264,0.259129
0.023088,-0.108741,0.304654,-0.690187,0.686998,0.227324
-0.447858,-0.222631,0.577601,-0.680601,0.455430,-0.573903
0.340593,0.123145,0.815529,-0.670061,0.055379,0.740238
-0.525891,-0.442666,0.608341,0.781349,-0.441380,0.441223
0.593487,0.082400,0.853631,-0.474272,0.877260,0.074033
-0.131489,0.241663,0.401012,-0.425847,0.783846,-0.451929
0.572903,0.010986,0.788502,-0.446474,0.731072,-0.515940
0.182437,0.597041,0.520919,0.771652,0.172109,-0.612317
0.073679,-0.389290,0.896202,-0.758467,0.622158,0.194030
0.630297,0.619361,0.473425,-0.648690,-0.011437,-0.760967
-0.163346,-0.323803,0.496771,-0.400954,0.786396,0.469911
0.154516,0.278948,0.710928,0.962083,-0.206893,-0.177738
-0.739171,-0.227951,0.838985,-0.286174,-0.956084,-0.063301
-0.709400,-0.355119,0.825314,-0.459665,0.853960,-0.243846
-0.907053,-0.481465,0.803101,0.540105,-0.281771,0.793027
-0.162509,-0.429387,0.819729,0.480031,0.874137,-0.073855
-0.124807,-0.105152,0.953827,0.978888,-0.059591,0.195518
-0.012171,-0.249578,0.892630,0.978683,-0.162625,-0.125429
-0.234457,-0.411090,0.261297,0.440278,0.721740,0.534084
0.072485,-0.218132,0.742816,-0.657834,0.519931,-0.544910
0.779145,0.740300,0.508743,-0.091541,-0.362001,0.927672
0.509130,0.300403,0.661719,0.952985,-0.302655,-0.014846
0.726168,0.050694,0.837947,-0.015986,0.432592,0.901448
0.287496,-0.294736,0.860742,0.901604,-0.337110,0.271047
-0.708268,-0.242009,0.779676,-0.781242,0.623706,-0.025533
-0.300619,-0.830140,0.460320,0.283209,-0.715062,-0.639123
0.383130,0.252736,0.285981,0.383383,-0.907159,-0.173435
0.196875,0.139366,0.761978,0.663475,0.626850,-0.408485
-0.205822,0.081361,0.861277,-0.221697,-0.865668,0.448854
0.063895,-0.175224,0.779503,0.373253,-0.907802,0.191254
-0.104700,-0.087807,-0.549064,0.144753,0.953535,-0.264231
-0.386291,-0.181236,0.606673,0.238996,0.968361,-0.071824
0.632922,0.341278,0.535393,0.808696,0.335755,-0.482991
-0.090859,-0.227216,0.916071,-0.361879,0.591708,-0.720365
-0.432404,-0.209654,0.853852,0.825213,0.564633,0.014571
-0.305928,-0.589904,0.384037,0.294148,0.740472,0.604300
0.571293,0.484104,0.673235,-0.092643,0.907209,0.410353
-0.251341,-0.474891,0.604235,-0.684293,0.711084,0.161562
-0.662690,-0.192179,0.765360,0.969672,0.025772,0.243047
0.114604,0.078939,0.765093,-0.313636,-0.906860,0.281491
0.537229,0.593235,0.755984,0.181473,-0.668676,0.721069
0.311120,0.052987,0.526724,0.158799,-0.912444,0.377133
0.567059,0.065185,0.692522,0.741484,0.646738,-0.178691
0.477749,0.676846,0.504983,0.816255,0.051958,-0.575350
0.449114,0.641853,0.705973,0.775863,0.413204,-0.476758
0.560017,0.482158,0.672511,0.327707,0.942674,-0.063031
0.196697,-0.185778,0.652768,0.920878,0.380716,-0.083895
-0.375731,-0.593538,0.376423,-0.391947,-0.780461,-0.487092
0.140078,0.392924,0.637807,0.037902,-0.835051,0.548866
-0.257248,-0.166356,0.797626,0.911570,-0.408224,-0.048923
-0.593724,-0.139539,0.856384,0.864443,0.013701,0.502544
0.055065,-0.099009,0.896689,-0.124580,-0.561295,0.818185
-0.007336,-0.251784,0.910722,0.309459,-0.817726,0.485345
-0.732668,-0.436222,0.712438,0.730247,0.664727,0.157726
0.615142,0.086941,0.836311,-0.420675,0.783686,-0.457022
0.006028,-0.161123,0.516357,0.478101,0.767596,-0.426867
0.965160,0.755742,0.700954,-0.591973,0.803500,-0.062895
-0.220438,0.109477,0.866059,-0.657736,0.232251,0.716549
-0.424113,-0.585795,0.855456,0.442687,0.893485,0.075577
0.104284,0.355422,0.493168,0.089634,-0.412218,0.906665
0.009247,-0.018556,-0.036144,-0.822027,0.556955,0.118625
-0.878953,-0.330767,0.643675,0.620514,-0.035975,0.783370
-0.717932,-0.367144,0.825849,0.432437,-0.785996,0.441824
0.548681,0.385181,0.771370,0.445185,0.561322,0.697659
-0.877161,-0.392231,0.640261,0.605916,0.124444,0.785735
-0.260230,-0.448506,0.915709,0.987423,-0.145708,0.061353
-0.208269,-0.381720,0.502497,0.924383,-0.381465,-0.000466
0.173727,0.618236,0.717315,0.941370,0.237689,-0.239431
0.401206,-0.227086,0.788014,0.676186,0.722141,-0.145892
-0.121941,-0.068905,0.964116,0.995107,-0.088513,0.043906
0.213042,0.101259,0.428306,0.873259,0.018080,-0.486920
-0.857950,-0.475280,0.793221,0.123161,-0.299886,0.945991
-0.142762,-0.190968,-0.988610,-0.312999,0.159752,-0.936222
-0.442429,0.185129,0.427378,0.517123,-0.820145,0.244837
0.482759,0.501708,0.740645,0.889472,-0.335538,0.310249
-0.089607,-0.133397,0.152669,0.907979,-0.399651,-0.125912
-0.110009,-0.072970,-0.072878,0.754198,-0.532562,-0.384138
-0.114247,-0.253212,0.972768,0.959234,-0.173559,0.223043
-0.850853,-0.367144,0.713665,0.986245,-0.002131,0.165275
-0.301635,-0.044076,-0.990734,-0.186087,0.299147,0.935886
0.471602,-0.073403,0.869127,0.900940,0.217275,-0.375631
0.102314,0.221203,0.422218,0.120852,0.371607,0.920490
-0.637394,-0.607163,0.780431,0.980686,0.141680,-0.134837
0.080958,0.113889,0.773572,0.194534,-0.954458,0.226199
-0.384201,-0.233358,0.757809,0.923591,0.383368,-0.002917
0.456866,0.298196,0.421243,0.934150,-0.143190,-0.326896
-0.307122,-0.278515,0.218523,0.510257,-0.829134,-0.228416
-0.666746,-0.312687,0.692081,-0.489687,0.644706,-0.586993
-0.152426,-0.042606,-0.992952,0.343249,0.744279,0.572912
-0.102850,-0.079069,-0.554318,-0.159905,-0.974728,0.155998
0.363442,0.257494,0.786991,-0.603101,-0.414720,-0.681379
0.175100,0.572256,0.681447,0.885909,0.390198,-0.250821
-0.223482,0.327220,0.279216,-0.352084,-0.858691,0.372407
-0.017597,-0.455383,0.858036,-0.326748,0.592744,-0.736132
0.508889,-0.249232,0.798790,0.911015,0.032674,-0.411076
-0.303543,-0.481898,0.696250,0.656177,-0.749999,0.083265
-0.177245,-0.407284,0.545115,0.981886,0.180269,0.058336
-0.706298,-0.603833,0.753121,0.294041,0.927285,-0.231697
-0.433839,-0.247502,0.822781,0.584814,-0.683230,0.437252
0.081676,-0.368485,0.618221,0.809546,-0.376591,-0.450349
0.248541,0.116571,0.584208,0.930335,0.081762,-0.357480
-0.226584,-0.764350,0.441615,-0.328611,0.791176,0.515806
0.127552,0.184999,0.140556,0.945900,-0.306537,0.106343
-0.554886,-0.050694,0.604660,0.860437,0.353362,0.367129
0.264887,-0.172325,0.718306,0.723478,-0.596670,-0.347225
-0.393388,-0.808902,0.455475,0.258750,0.734881,0.626895
-0.033407,-0.150958,0.916968,0.830474,-0.419360,-0.366674
-0.178079,-0.214629,0.130126,0.940547,-0.304750,0.149997
-0.859501,-0.206929,0.816567,0.173703,-0.053994,-0.983317
-0.349896,0.095117,0.782052,0.000239,0.885449,0.464737
0.220620,0.171461,0.217122,-0.060205,0.993658,0.094972
-0.654097,-0.133613,0.867680,0.287973,-0.894957,0.340770
-0.188700,-0.010381,0.320952,-0.069564,-0.605042,0.793149
0.054053,-0.104633,0.190520,0.226259,-0.781850,0.580963
-0.423756,-0.840132,0.472402,-0.628035,-0.624935,-0.463712
-0.440579,-0.378736,0.590989,0.345078,0.773764,0.531234
-0.132323,-0.143129,0.076936,0.930871,0.092577,0.353425
-0.397266,-0.091267,0.552241,-0.249637,-0.966312,0.062623
-0.315774,-0.147671,0.703235,0.154563,-0.911512,0.381126
-0.802231,-0.442061,0.811785,-0.173188,0.644356,-0.744856
0.297640,-0.143086,0.600947,-0.588524,0.193329,0.785024
0.605059,0.131320,0.547821,-0.042751,-0.951419,0.304916
-0.192757,0.121113,0.788407,0.905765,0.420176,0.055147
0.014854,0.048315,0.015708,-0.118259,0.936029,-0.331458
0.652549,0.699295,0.670167,-0.822329,0.516595,-0.238549
-0.186494,-0.066785,-0.746199,0.032781,0.998207,-0.050082
0.552800,0.500757,0.549661,0.737153,0.290864,-0.609921
-0.545339,-0.164064,-0.656921,0.075502,-0.250299,0.965220
-0.952809,0.079286,0.712611,0.857488,0.487256,-0.165216
-0.471959,-0.080799,0.841518,0.963050,0.202180,-0.177925
-0.783198,-0.295428,0.780211,0.044376,-0.416937,0.907852
-0.122597,-0.191920,0.261785,0.954318,0.295712,-0.042793
-0.351389,-0.167092,0.550165,0.991406,-0.061510,0.115455
0.585076,0.814524,0.524900,0.999390,0.002405,-0.034831
-0.137631,-0.035080,-0.409475,-0.434582,0.898198,0.066169
-0.210596,-0.138501,0.879306,0.729963,0.133526,0.670317
-0.168357,-0.228902,0.130708,0.963683,-0.224441,0.144711
-0.687207,-0.025044,0.715569,0.391777,-0.850335,0.351342
-0.160182,-0.108569,-0.527432,-0.512363,0.718288,0.470687
0.062763,0.008305,0.331587,0.874518,0.301111,-0.380197
0.635664,0.137203,0.873107,-0.737013,0.195246,-0.647063
-0.548263,-0.175396,0.818471,-0.559312,-0.123124,-0.819763
-0.734041,-0.289199,0.761600,0.812674,0.568803,0.126585
-0.793161,-0.140577,0.852561,0.868913,-0.157387,0.469276
-0.109411,-0.179290,0.885819,0.925439,0.309621,-0.218396
-0.533526,0.032311,0.685506,-0.427519,0.854881,-0.293948
-0.200870,0.304771,0.627738,0.906314,0.254052,0.337716
0.647775,0.203599,0.831072,0.397663,0.736935,-0.546618
0.125462,0.374800,0.637854,0.258848,0.840013,-0.476840
0.583761,0.497816,0.760877,-0.722958,0.677951,0.133098
0.384503,0.088499,0.560092,0.736993,-0.536627,-0.410941
-0.688820,-0.070375,0.750100,-0.388508,-0.906832,-0.163453
0.412184,0.246377,0.283275,-0.472102,0.868429,0.151495
0.663942,0.301657,0.319348,-0.183681,-0.940677,0.285287
-0.215963,0.078896,0.831969,0.842086,-0.143641,0.519865
-0.159049,-0.049700,-0.446602,-0.528779,0.847772,0.040936
0.127789,0.231887,0.664566,0.804889,0.483035,-0.344718
0.539855,0.638003,0.246226,-0.361782,-0.282999,0.888271
-0.565205,-0.416108,0.781359,0.385688,-0.260378,0.885126
0.420894,-0.216618,0.767924,-0.738045,0.112141,0.665368
-0.068309,-0.248800,0.571072,0.869015,-0.478101,0.127407
0.336478,0.020892,0.735139,-0.810384,-0.156337,0.564655
0.030308,-0.043860,0.909699,0.275810,-0.880764,0.384946
0.139124,-0.092219,0.938441,-0.352857,-0.932081,0.081951
0.148074,0.292876,0.697525,0.890816,-0.452387,-0.042336
0.637277,0.107963,0.531318,-0.145560,-0.918948,0.366532
-0.437775,-0.949781,0.511402,-0.060179,0.517678,0.853456
0.308976,-0.073922,0.419622,-0.486015,0.867105,-0.109171
-0.864453,-0.438427,0.803227,0.314371,-0.807411,0.499259
-0.233681,0.070807,0.058845,0.389532,0.919317,0.055863
0.438612,0.061941,0.820956,0.982614,-0.166394,0.082364
0.550950,-0.035469,0.716717,-0.044003,-0.846646,0.530334
-0.286542,-0.652710,0.402018,0.161515,0.532912,0.830613
0.477210,0.229941,0.735485,0.924921,0.296634,0.237759
-0.369763,-0.269086,0.913978,-0.609331,-0.313674,-0.728233
-0.589369,-0.049051,0.614728,0.835924,0.459301,0.300457
-0.234876,-0.444526,0.897712,0.941855,-0.324205,0.088319
-0.200272,-0.262381,0.149759,0.936811,-0.341782,0.074636
-0.119614,0.327825,0.270217,-0.443542,-0.856630,0.263543
-0.750030,-0.356849,0.691610,0.542313,0.226240,0.809143
-0.601480,-0.362386,0.593569,0.223233,0.251386,0.941792
0.019628,-0.187551,0.753498,0.409311,-0.889455,0.203311
0.400193,-0.093516,0.848393,0.689677,0.225251,-0.688192
0.509548,0.174185,0.809456,-0.565817,0.200011,-0.799904
-0.237920,-0.350188,0.183378,0.851945,-0.504970,-0.138547
-0.384678,-0.187378,0.570160,0.922033,-0.084434,0.377791
-0.401264,-0.420174,0.782854,-0.124710,-0.571620,0.810986
0.152073,-0.376054,0.904524,-0.520508,0.851134,0.068135
-0.261362,-0.075825,0.321330,-0.479505,-0.638026,-0.602494
0.667999,0.088499,0.851303,-0.340829,0.605139,-0.719473
-0.778607,-0.268567,0.840417,0.939186,-0.292714,0.179580
-0.060433,-0.093343,-0.142396,0.808427,0.565462,-0.163394
-0.783737,-0.446559,0.651446,-0.576576,0.441723,-0.687343
0.656186,0.593711,0.675248,-0.647946,0.735955,-0.196305
-0.418148,-0.091094,0.558314,-0.397238,-0.902773,-0.164932
-0.230400,-0.157014,0.440467,-0.166314,-0.983765,0.067421
-0.904486,-0.457026,0.777662,0.096732,-0.861228,0.498927
-0.136856,-0.053289,-0.396559,-0.511815,0.858166,0.039964
0.539257,0.381807,0.746592,-0.607444,-0.511823,0.607493
-0.103389,0.085254,0.844900,0.980741,-0.175652,-0.085398
-0.887601,-0.445262,0.820374,-0.427774,0.490365,-0.759310
0.355748,0.227432,0.318309,0.873643,0.276747,-0.400199
-0.192637,0.074917,-0.007732,-0.568817,-0.701939,0.428636
0.275505,0.110558,0.561035,-0.005811,-0.926286,0.376777
0.633578,0.361348,0.570537,0.994459,0.011056,-0.104541
-0.215963,0.045763,0.404945,0.681869,0.602746,0.414429
-0.542895,-0.834681,0.566085,0.387174,0.757365,0.525827
-0.207493,-0.247416,0.153597,0.920978,0.275411,0.275588
-0.273713,-0.593365,0.799545,0.818129,0.486133,0.307147
0.406158,-0.096804,0.821177,0.719637,-0.251734,0.647111
0.055007,0.664907,0.646443,0.490620,0.854410,-0.171103
-0.051603,-0.093862,-0.133303,0.515577,0.805211,-0.292944
-0.594915,-0.128034,0.852215,-0.646149,0.395062,-0.653006
0.076126,0.418270,0.625064,-0.121316,0.822514,0.555656
0.255999,0.604221,0.571827,0.971713,0.220793,-0.083814
0.440819,0.748821,0.472701,0.794051,0.538407,-0.282136
0.247405,0.556469,0.490463,-0.187732,-0.970034,-0.154245
0.147419,-0.129547,0.859185,-0.143611,0.011795,-0.989564
0.530547,0.427094,0.765801,-0.424358,-0.868140,0.257399
0.629878,0.376962,0.547601,0.933947,0.109245,-0.340308
0.247467,0.108050,0.573778,0.860617,0.471209,-0.193133
-0.234220,-0.477745,0.677860,-0.137819,0.990427,0.007725
-0.476314,-0.550067,0.784380,0.049820,0.989510,0.135604
-0.125043,-0.163632,-0.991001,-0.323584,0.171579,-0.930513
-0.303244,-0.093343,0.562561,-0.033962,0.828647,-0.558741
0.397208,0.521822,0.563222,0.067588,-0.835759,0.544921
-0.790000,-0.270297,0.849462,0.980938,-0.189176,0.044414
-0.052975,-0.137809,0.882153,-0.007559,-0.886543,0.462585
0.618124,0.326744,0.462853,-0.576807,-0.789899,0.208213
0.683274,0.856698,0.530217,-0.041297,-0.639886,0.767359
-0.624267,-0.477010,0.864911,-0.140841,-0.906940,0.397019
-0.922262,-0.481162,0.799010,-0.413840,0.241238,-0.877805
0.216684,-0.214888,0.886936,0.260486,0.149167,0.953885
-0.690968,-0.376227,0.836452,0.890055,0.452671,0.053770
0.186792,0.083394,0.813122,0.910492,0.234344,-0.340716
-0.671516,-0.427614,0.757258,0.122894,0.785819,0.606123
-0.422802,-0.357282,0.574187,0.313604,0.680581,0.662164
0.061212,-0.101908,0.574518,0.965906,-0.053649,-0.253274
-0.225150,-0.524677,0.315163,0.625499,-0.745276,-0.230901
0.223245,-0.134262,0.848518,-0.617802,0.782112,-0.081372
-0.700155,-0.172974,0.830144,0.995460,0.080212,-0.051236
-0.520760,-0.534582,0.692758,0.640828,0.760408,0.105449
-0.541162,-0.242355,0.658840,0.864187,-0.057140,0.499916
0.226049,-0.300229,0.913082,-0.585397,0.449072,-0.675014
0.665195,0.133656,0.792623,0.830716,0.195270,-0.521325
0.525417,0.092348,0.708726,-0.647794,-0.718768,0.252458
-0.263871,-0.000476,0.647969,0.897251,0.382121,-0.221189
0.015991,-0.027121,0.918997,0.346525,-0.932645,0.100466
-0.853956,-0.363251,0.624403,0.782046,0.603475,0.155636
0.912482,0.758510,0.689092,-0.181319,-0.854612,0.486582
0.621703,-0.143432,0.770441,-0.553976,0.621812,0.553588
-0.206718,-0.333794,0.887030,0.694815,-0.712634,-0.096876
-0.114841,-0.020373,-0.992276,0.293486,0.384591,0.875189
0.592173,0.638609,0.684310,-0.692960,-0.082721,0.716215
-0.580299,-0.507375,0.806625,0.078075,-0.960970,-0.265408
-0.129519,-0.117609,-0.135852,-0.281179,0.942996,-0.178035
-0.298234,-0.586098,0.623978,0.786260,-0.491487,-0.374482
0.215249,0.216013,0.198354,-0.068238,-0.979606,0.188987
