-0.169480,0.447180,-0.975305,0.073267,-0.056839,0.995691
-0.101180,0.386734,-0.965835,-0.190533,-0.074526,0.978848
-0.018670,0.312873,-0.960386,0.152383,0.251454,0.955798
0.073040,0.229410,-0.958180,0.359094,-0.133462,-0.923709
0.159744,0.151543,-0.953769,-0.122974,0.134433,0.983262
0.237893,0.080895,-0.947758,0.210747,-0.311134,-0.926705
0.297471,0.028450,-0.934135,-0.408124,0.119475,0.905075
0.359799,-0.026195,-0.920599,-0.262822,0.385086,0.884666
0.440368,-0.097844,-0.914934,-0.286026,-0.065465,0.955983
0.105172,0.311676,-0.190001,-0.214436,-0.810170,0.545566
-0.151554,0.400941,-0.972624,0.607642,0.694623,0.385058
-0.068886,0.326885,-0.967218,-0.387098,0.476628,0.789291
-0.003331,0.268234,-0.956753,0.058684,0.390606,0.918686
0.099358,0.174167,-0.959910,0.777644,0.465738,-0.422323
0.168303,0.113122,-0.949012,0.255031,-0.075628,-0.963971
0.243708,0.045064,-0.941963,-0.117529,-0.002796,0.993065
0.310554,-0.013575,-0.929854,0.293965,-0.483348,-0.824596
0.380627,-0.075623,-0.919259,-0.484502,0.077861,0.871318
0.455061,-0.142483,-0.910090,0.053816,-0.008439,0.998515
-0.006884,0.375922,-0.178497,-0.321141,0.917796,0.233494
0.075302,0.344501,0.141393,-0.743643,0.656139,0.128364
0.112923,0.312274,0.159384,-0.753698,0.577193,0.314305
0.120511,0.321681,0.278527,-0.217763,-0.591859,0.776069
-0.234065,0.448781,-0.978462,-0.503860,0.066639,0.861211
-0.168509,0.390728,-0.967997,0.131328,-0.225616,-0.965324
-0.083417,0.314278,-0.963499,0.324642,-0.492165,-0.807701
-0.001882,0.240417,-0.959045,0.411244,0.444077,0.796036
0.085147,0.161157,-0.955066,-0.123040,0.081407,0.989057
0.166529,0.088298,-0.948666,0.545658,0.811042,-0.210874
0.242412,0.020045,-0.940406,0.578716,-0.291380,-0.761699
0.297797,-0.027991,-0.925400,0.370840,-0.401297,-0.837520
0.375138,-0.097441,-0.918869,-0.258348,-0.304371,0.916850
0.466203,-0.180110,-0.915712,0.187201,-0.053722,-0.980852
-0.020124,0.350708,-0.207689,0.554461,0.792873,-0.252834
0.115180,0.226209,-0.220143,0.360809,0.746979,-0.558426
0.090153,0.293057,0.134085,-0.680719,0.732502,0.007919
0.095642,0.291054,0.162195,-0.697230,0.669150,0.257116
-0.261673,0.439570,-0.979976,-0.203551,0.303300,0.930901
-0.189018,0.374517,-0.972192,0.892104,-0.370104,0.259179
-0.113287,0.306264,-0.964062,-0.172139,-0.588044,-0.790299
-0.044505,0.245218,-0.953164,0.107873,-0.483545,0.868647
0.053020,0.156355,-0.953034,0.179638,0.250018,0.951431
0.138916,0.078892,-0.949704,0.047372,0.069880,0.996430
0.219972,0.005433,-0.944687,-0.137148,0.157409,0.977964
0.279876,-0.047012,-0.930286,-0.381419,0.153247,0.911611
0.355921,-0.115656,-0.923324,-0.895808,0.437507,0.078210
0.422609,-0.174697,-0.911474,-0.027172,0.058933,0.997892
-0.057908,0.343890,-0.205223,-0.744973,0.658210,0.108513
0.205761,0.097302,-0.261573,0.138257,-0.958258,0.250255
0.302960,-0.007772,0.015850,0.237877,-0.882991,0.404650
0.053665,0.243618,0.247216,0.568473,-0.733180,0.373208
-0.205648,0.349498,-0.973143,0.345373,-0.260379,-0.901621
-0.137023,0.288049,-0.963672,-0.398088,0.073089,0.914431
-0.059361,0.218403,-0.957445,-0.067469,-0.137075,0.988260
0.031220,0.135930,-0.954720,0.148366,0.187304,0.971033
0.099840,0.074688,-0.945163,0.177218,0.041729,0.983287
0.196557,-0.013380,-0.944385,-0.308869,0.227348,0.923533
0.259530,-0.069026,-0.931065,-0.659310,0.213079,0.721046
0.356246,-0.157290,-0.930200,-0.675791,0.210903,-0.706276
0.415016,-0.209136,-0.916923,0.677108,-0.085134,-0.730943
0.046234,0.197183,-0.249983,0.453703,0.832349,-0.318354
-0.271523,0.378121,-0.977987,-0.177491,0.016098,0.983991
-0.200804,0.314877,-0.967997,0.369286,-0.229893,-0.900432
-0.122329,0.244217,-0.962634,-0.360702,0.279204,0.889910
-0.041277,0.170967,-0.956407,0.349207,-0.329878,-0.877060
0.050113,0.087895,-0.954028,0.633574,0.527317,0.566145
0.131652,0.014437,-0.947801,-0.062804,0.304387,0.950476
0.214641,-0.060816,-0.943476,0.564700,-0.181594,-0.805070
0.267281,-0.106848,-0.927216,-0.055526,-0.143956,0.988025
0.338808,-0.170495,-0.917053,0.903457,-0.177986,-0.389984
0.420993,-0.245162,-0.912080,0.901743,0.189619,-0.388463
-0.039341,0.238218,-0.247172,-0.603076,0.642672,-0.472516
0.098067,0.112316,-0.260232,-0.249126,-0.919008,0.305550
0.233370,0.015439,0.011785,0.042682,-0.989078,0.141080
0.004740,0.233612,0.116397,-0.367479,0.865062,-0.341506
-0.011407,0.260428,0.244232,-0.154884,0.667572,-0.728257
-0.268779,0.322279,-0.974441,0.405505,-0.389542,-0.826935
-0.196118,0.257227,-0.965229,0.190018,-0.014674,-0.981671
-0.108606,0.178370,-0.961164,0.428724,-0.052852,0.901888
-0.038853,0.115320,-0.952342,0.494648,0.366880,0.787859
0.029284,0.054679,-0.942568,-0.397760,0.098553,-0.912181
0.136171,-0.043200,-0.945595,-0.262165,0.159324,0.951780
0.202209,-0.102645,-0.935087,0.724245,-0.013505,-0.689410
0.291662,-0.183506,-0.931454,-0.332930,0.205673,0.920248
0.353502,-0.238358,-0.917875,0.440166,-0.033603,-0.897288
0.439722,-0.316018,-0.912815,0.018335,-0.349210,0.936865
-0.026584,0.138141,-0.577745,0.262511,0.896935,0.355803
0.081274,0.039456,-0.581248,0.405550,0.816699,-0.410526
-0.036271,0.172970,-0.276666,-0.123765,0.950756,-0.284156
0.196399,-0.014186,-0.005470,0.094976,0.975964,-0.196145
0.007165,0.179371,0.239346,0.577723,-0.738442,0.347763
-0.003976,0.192785,0.272429,0.754644,-0.654417,-0.047444
-0.344666,0.327288,-0.981403,0.252766,-0.118507,-0.960242
-0.264418,0.254222,-0.976603,0.806611,-0.234877,-0.542413
-0.201287,0.198381,-0.965143,-0.135747,0.441765,0.886801
-0.125399,0.130127,-0.956969,0.443356,-0.515049,-0.733594
-0.071310,0.081689,-0.942395,0.789540,-0.437632,-0.430239
0.001833,0.016441,-0.933011,-0.091947,0.366952,0.925685
0.047851,-0.024191,-0.914026,0.899314,-0.404148,0.167029
0.169756,-0.136069,-0.922286,0.050063,0.470523,0.880966
0.261792,-0.219544,-0.920859,0.300557,-0.372552,-0.877992
0.341553,-0.291389,-0.915194,-0.544054,-0.013803,0.838937
-0.005918,0.049669,-0.618656,0.485710,0.841022,-0.238260
-0.116840,0.178370,-0.284493,-0.239130,0.970542,-0.029415
-0.057100,0.166959,0.228491,0.180760,-0.947533,0.263642
-0.378735,0.280243,-0.974743,-0.444505,0.245486,0.861482
-0.297678,0.207188,-0.970029,0.291398,-0.208126,-0.933687
-0.223244,0.139534,-0.961942,0.780639,-0.005321,-0.624959
-0.148006,0.072086,-0.953466,0.416559,-0.001740,-0.909107
-0.114258,0.043060,-0.930157,0.289197,0.832174,-0.473129
-0.075991,0.010039,-0.909745,0.880658,0.241884,-0.407349
-0.096657,0.031650,-0.868228,-0.614617,-0.768560,-0.177656
-0.051448,-0.007577,-0.848724,-0.524618,-0.850009,-0.047536
0.012811,-0.065422,-0.837783,-0.437106,-0.899400,-0.004130
0.272933,-0.306611,-0.895344,-0.663632,0.745027,-0.067291
-0.167056,0.114514,-0.635738,-0.314840,0.122191,0.941246
-0.161567,0.111522,-0.604687,0.499427,-0.708079,0.499196
-0.161729,0.117520,-0.537699,-0.688752,0.685527,0.235950
-0.177389,0.134330,-0.498518,0.964822,-0.113043,0.237358
-0.146710,0.108516,-0.474776,0.954387,0.046583,-0.294915
-0.157368,0.120928,-0.437455,-0.712824,0.565775,-0.414464
-0.175778,0.140743,-0.398793,0.310417,-0.911672,0.269250
-0.143808,0.113122,-0.377775,-0.422756,0.617565,0.663243
-0.158985,0.130127,-0.339373,-0.451773,0.891223,-0.040274
-0.163346,0.136932,-0.306419,0.344063,-0.842701,0.414096
-0.152362,0.128734,-0.277271,0.696438,-0.714544,0.066345
-0.158497,0.139742,-0.209808,-0.339317,0.939094,0.054463
-0.153496,0.137542,-0.180184,0.885411,-0.464725,0.008789
-0.159148,0.145740,-0.147101,-0.624079,0.779462,0.054437
-0.156886,0.145740,-0.115834,0.267391,-0.777145,0.569691
-0.032556,0.044465,0.031203,-0.313669,-0.949532,-0.001279
-0.116032,0.131935,0.181482,0.820914,-0.550349,-0.152371
-0.118456,0.136736,0.213095,0.597010,0.745425,-0.296515
-0.129760,0.149148,0.246049,-0.659194,0.749482,0.061158
-0.147035,0.167961,0.281035,-0.398746,0.529227,0.748946
-0.194990,0.090497,-0.338897,-0.437488,0.898847,0.026050
-0.202095,0.099904,-0.303305,0.728623,0.453759,0.513041
-0.190954,0.094101,-0.244145,0.783970,-0.588013,0.199077
-0.173033,0.079294,-0.217592,0.731937,-0.668895,0.129799
-0.185302,0.093099,-0.182217,0.641238,0.728816,-0.240086
-0.196443,0.106513,-0.146020,0.913817,-0.384758,-0.129998
-0.182721,0.100515,-0.055635,0.531049,0.845577,0.054638
-0.188372,0.107917,-0.023244,0.997101,-0.069259,0.031513
-0.153816,0.078293,-0.002702,0.994196,0.107186,-0.009294
-0.174481,0.099305,0.034230,-0.686889,-0.724106,-0.062073
-0.171580,0.101113,0.096028,0.183504,0.881523,0.435020
-0.169800,0.102114,0.126776,-0.693411,-0.709493,0.125705
-0.182721,0.115919,0.160638,-0.472518,0.866163,0.162754
-0.167864,0.104509,0.185721,-0.691834,0.507084,0.514034
-0.182878,0.120928,0.221312,0.142207,0.853569,0.501196
-0.168992,0.110116,0.246395,-0.484521,0.820897,0.302270
-0.167864,0.111522,0.277099,0.239759,-0.253086,0.937263
-0.398592,0.228408,-0.979414,-0.066687,-0.830854,0.552481
-0.327066,0.164357,-0.969856,0.824802,-0.466880,0.318944
-0.257475,0.101308,-0.960948,-0.311369,0.906444,0.285324
-0.156560,0.009636,-0.963370,-0.404269,0.385037,0.829646
-0.128469,-0.014576,-0.937898,-0.686091,0.723926,-0.072177
-0.017379,-0.115656,-0.943649,-0.093390,-0.047766,0.994483
-0.007855,-0.122460,-0.911474,-0.507238,-0.825272,0.248265
0.074168,-0.196321,-0.905290,0.699210,0.476953,0.532561
-0.157531,0.022854,-0.786883,-0.485680,0.864311,-0.130696
-0.193699,0.059674,-0.740350,0.604383,-0.793819,0.067621
-0.211620,0.079087,-0.700520,0.982123,0.105193,-0.156104
-0.203711,0.073882,-0.668778,0.960535,0.271540,0.060316
-0.191920,0.065685,-0.639673,0.747656,0.146670,-0.647687
-0.220825,0.095505,-0.595173,0.286615,-0.916753,0.278238
-0.165928,0.048863,-0.546175,0.939549,0.224325,-0.258702
-0.190629,0.074286,-0.505091,0.902930,0.232170,0.361683
-0.182558,0.069289,-0.475338,0.821887,-0.557348,-0.117753
-0.189983,0.080491,-0.407139,-0.072312,-0.882481,0.464756
-0.191920,0.084902,-0.373061,-0.711350,0.356839,-0.605514
-0.467218,0.207592,-0.984128,-0.698275,0.714334,-0.046257
-0.396982,0.144140,-0.975608,-0.083629,0.631812,0.770597
-0.327066,0.081494,-0.965316,-0.220825,0.338628,0.914641
-0.246171,0.008232,-0.960515,0.441943,-0.438855,-0.782364
-0.173516,-0.057408,-0.951174,-0.003443,0.082126,0.996616
-0.075508,-0.146478,-0.951001,-0.004588,0.172103,0.985068
0.022987,-0.236146,-0.950915,-0.594545,0.781984,0.187127
0.067551,-0.275984,-0.932708,-0.127170,0.235197,0.963592
0.132781,-0.334232,-0.921637,0.438527,-0.127106,-0.889684
0.234020,-0.426100,-0.922243,-0.073770,0.000637,0.997275
-0.142674,-0.042797,-0.352260,0.742747,0.668018,0.045598
-0.045150,-0.132075,-0.352044,0.600323,0.795758,0.079885
-0.010762,-0.162298,-0.331891,-0.558528,-0.780467,0.280924
-0.246822,0.063279,-0.187536,-0.101884,0.983315,-0.150702
-0.211457,0.041264,-0.042359,0.834802,0.550511,-0.006541
-0.143966,-0.012781,0.060956,0.644236,0.752813,-0.135032
-0.150426,-0.005170,0.093131,0.214589,0.970174,0.112756
-0.225185,0.069289,0.177893,-0.595299,0.707846,0.380228
-0.244560,0.089703,0.214825,-0.627724,0.636181,-0.448593
-0.327228,0.028657,-0.396025,-0.408778,-0.271773,-0.871229
-0.271848,-0.003973,-0.155707,0.390002,-0.907857,0.153929
0.016527,-0.260164,-0.061257,0.885689,-0.212383,0.412854
-0.243269,-0.015786,0.054036,0.746255,-0.029982,0.664984
-0.316733,0.063474,0.230264,0.835459,-0.532914,0.134206
-0.234710,-0.011181,0.233853,0.849779,0.433428,-0.300026
-0.219696,-0.022786,0.260277,0.212183,0.188407,0.958896
-0.486755,0.133133,-0.986506,-0.634951,-0.336129,-0.695597
-0.431696,0.084498,-0.970894,-0.268065,0.264778,0.926301
-0.331101,-0.007577,-0.972019,-0.090889,0.350412,0.932175
-0.270395,-0.061415,-0.958310,-0.414774,0.159681,0.895804
-0.189501,-0.135068,-0.953380,-0.061785,0.061662,0.996183
-0.099889,-0.216136,-0.951390,-0.028757,0.020868,0.999369
-0.027875,-0.281384,-0.941833,-0.033600,0.345167,0.937940
0.065452,-0.365849,-0.940882,-0.062501,0.035924,0.997398
0.128907,-0.423095,-0.928038,-0.106761,0.222903,0.968977
0.205278,-0.491751,-0.919734,0.065302,0.014598,0.997759
-0.391650,-0.048808,-0.966008,0.074027,-0.259661,0.962858
-0.326582,-0.107446,-0.954158,-0.413492,0.253153,0.874607
-0.245689,-0.180904,-0.949444,-0.354526,-0.407784,0.841441
-0.137511,-0.279381,-0.952947,0.052849,0.323417,0.944779
-0.045638,-0.363247,-0.950482,0.314314,-0.350251,-0.882344
0.098387,-0.492948,-0.931886,0.297442,0.041765,-0.953826
-0.390684,-0.008371,-0.354509,-0.489813,0.869441,-0.064469
-0.364041,-0.017387,-0.138711,0.087560,-0.227163,0.969913
-0.224052,-0.115863,0.279218,0.946729,0.256061,0.195288
-0.353708,-0.193523,-0.953942,0.284107,-0.172812,-0.943090
-0.274430,-0.265576,-0.947239,0.984085,-0.067160,0.164519
-0.169318,-0.361047,-0.950915,0.075471,0.579682,0.811340
-0.122492,-0.402681,-0.933530,0.438736,0.210949,0.873505
0.071749,-0.578610,-0.933141,-0.339084,-0.141316,0.930082
-0.111351,-0.648672,-0.936298,0.180686,0.164265,-0.969727
-0.375345,-0.330629,0.136161,0.907254,0.012583,0.420394
-0.190309,-0.712319,-0.927778,0.320600,0.464456,0.825528
-0.290415,-0.803185,0.162324,-0.266883,0.845103,0.463221
-0.599776,-0.636858,0.221009,0.373326,0.655648,0.656318
0.482996,-0.003973,0.003352,0.458066,0.521365,-0.719968
0.529333,-0.235548,-0.903863,0.463727,0.243182,-0.851950
0.510441,-0.253762,-0.906934,-0.192925,-0.405427,0.893537
0.483641,-0.269974,-0.907020,-0.044851,-0.523932,0.850578
0.550487,0.134134,-0.200683,0.114681,-0.983602,-0.139192
0.587946,0.161157,-0.189006,-0.442153,0.893889,0.073916
0.566309,0.273243,-0.137543,0.219994,-0.962757,0.157166
0.834501,0.190378,-0.153977,0.336602,-0.938049,0.082232
0.909098,0.325884,-0.099400,-0.370521,0.898154,-0.236714
0.885200,0.241211,-0.120894,-0.414623,0.893614,-0.171878
-0.617214,-0.780170,0.773737,0.715872,-0.268876,-0.644385
-0.398592,-0.890655,0.588038,0.815815,0.576844,-0.041193
-0.755593,-0.550195,0.777672,0.862610,0.344020,0.370883
-0.622058,-0.672885,0.767596,-0.615521,0.621343,0.484837
-0.626902,-0.665677,0.796268,-0.555561,0.830826,0.032855
-0.449942,-0.753550,0.443467,-0.706374,0.158227,0.689928
-0.351935,-0.830404,0.588687,0.955552,0.241411,0.169234
-0.851984,-0.359252,0.793068,0.513689,-0.359748,-0.778913
-0.798540,-0.406480,0.805998,-0.210027,0.521068,-0.827271
-0.522760,-0.660875,0.753584,0.978890,0.021233,-0.203283
-0.861671,-0.342234,0.878868,-0.508985,-0.694513,-0.508514
-0.744934,-0.447320,0.900448,-0.251149,-0.965928,-0.062514
-0.422654,-0.659483,0.441953,-0.456562,0.888446,-0.047063
-0.406186,-0.672494,0.466949,0.057158,-0.997746,-0.035152
-0.324321,-0.746342,0.471058,0.216553,0.384014,0.897573
-0.147198,-0.908674,0.448094,-0.590782,-0.786820,-0.178582
-0.458496,-0.615638,0.570394,-0.143921,0.964355,0.222052
-0.277337,-0.780365,0.574719,0.234835,-0.167922,0.957421
-0.147681,-0.898461,0.565031,0.291248,-0.151394,0.944592
-0.706343,-0.375463,0.757649,0.778588,-0.385437,0.495216
-0.752523,-0.330018,0.798647,0.281759,0.200529,0.938296
-0.755430,-0.324618,0.827967,0.409735,-0.893464,0.183955
-0.784492,-0.294798,0.864597,0.449763,0.635757,0.627317
-0.401500,-0.649869,0.782818,0.085180,-0.950318,0.299400
-0.416356,-0.633853,0.814388,0.533807,-0.798000,0.279724
-0.473835,-0.578012,0.858153,-0.248319,-0.920021,0.303149
-0.176260,-0.765962,0.351958,-0.724902,-0.606904,-0.325861
-0.333851,-0.616848,0.429671,-0.499735,0.859492,0.107419
-0.317703,-0.630249,0.453457,0.378542,0.519140,0.766290
-0.325129,-0.620244,0.484464,0.985107,-0.086999,0.148311
-0.434765,-0.515769,0.546782,0.817091,-0.164830,0.552443
-0.357581,-0.585219,0.552231,0.016599,-0.990886,0.133674
-0.356128,-0.584425,0.581119,0.764022,-0.497056,-0.411347
-0.178522,-0.747943,0.558155,0.854901,-0.491328,-0.166556
-0.510166,-0.436105,0.684909,-0.107449,-0.992252,-0.062374
-0.601555,-0.349234,0.739313,0.106068,-0.419631,0.901476
-0.530994,-0.412491,0.746449,-0.274967,-0.956112,0.101207
-0.707634,-0.245358,0.826194,-0.550923,0.464562,0.693301
-0.282664,-0.638862,0.731053,0.931076,0.281281,0.232333
-0.293160,-0.627049,0.762666,0.780399,-0.354790,0.514881
-0.390684,-0.534179,0.819188,0.826166,-0.093575,0.555602
-0.444453,-0.481538,0.862953,0.943693,-0.010907,-0.330643
-0.277821,-0.504761,0.737972,0.972829,-0.118315,0.199010
-0.298649,-0.482943,0.771704,0.756182,0.458772,0.466602
-0.259091,-0.517772,0.787835,0.822047,-0.551043,0.143497
-0.367757,-0.414494,0.847298,-0.684297,0.669674,0.288574
-0.396656,-0.385261,0.882803,0.849162,-0.313050,-0.425352
-0.252311,-0.517772,0.870175,-0.691543,0.713984,-0.109520
-0.315762,-0.498349,0.372024,0.879281,0.377510,0.290432
-0.329652,-0.476139,0.493762,0.973912,-0.214509,0.074032
-0.449134,-0.362453,0.559064,-0.484952,-0.727650,0.485126
-0.474643,-0.336627,0.595909,0.938870,-0.066090,0.337868
-0.255376,-0.538382,0.559150,0.105779,-0.255413,0.961028
-0.180621,-0.606036,0.565334,0.403841,0.792361,0.457249
-0.091493,-0.686494,0.568664,-0.237098,0.957877,-0.162039
-0.377119,-0.419088,0.680282,0.713126,0.272939,0.645721
-0.309469,-0.479339,0.689580,0.754757,0.457125,-0.470508
-0.543588,-0.259969,0.786278,-0.539177,0.840620,0.051438
-0.476580,-0.221340,0.378209,0.550659,0.834498,0.019701
-0.278145,-0.404086,0.346250,0.870863,-0.403519,0.280660
-0.029491,-0.630652,0.331200,0.911589,-0.233574,-0.338302
-0.282664,-0.392871,0.438061,0.914805,-0.253386,0.314527
-0.589281,-0.101644,0.616754,0.802468,0.458013,0.382452
-0.611080,-0.079031,0.651221,0.715145,0.697605,-0.043769
-0.109740,-0.542987,0.531992,0.969536,0.003608,0.244923
-0.246171,-0.414287,0.601618,0.837112,-0.422257,0.347767
-0.283793,-0.377063,0.641707,0.972962,-0.221248,0.066290
-0.308016,-0.352838,0.676736,-0.612813,0.330801,0.717657
-0.414583,-0.252162,0.735421,-0.509070,-0.175314,-0.842682
-0.370018,-0.291194,0.751292,0.382895,0.908303,0.168453
-0.339660,-0.317411,0.769888,0.300525,-0.400563,0.865583
-0.338532,-0.316018,0.798257,0.723265,0.681743,0.110061
-0.422008,-0.236953,0.850542,0.775578,0.625457,0.085338
-0.348219,-0.303203,0.857807,-0.626998,-0.517935,-0.581907
-0.677763,-0.044801,0.291803,0.156661,0.804026,-0.573584
-0.177714,-0.361047,0.553355,-0.124925,-0.990148,0.063250
-0.307691,-0.238358,0.621078,0.668106,0.533873,0.518279
-0.273622,-0.268581,0.639198,-0.381616,-0.904543,-0.190189
-0.434765,-0.116462,0.715528,0.844860,0.430909,0.317064
-0.293805,-0.245761,0.703289,0.815914,0.520155,0.252435
-0.422816,-0.123669,0.769628,0.929467,-0.286828,0.231994
-0.393592,-0.148481,0.788700,-0.328546,0.879935,0.343179
-0.309144,-0.224944,0.791554,0.958983,-0.149177,-0.241035
-0.372118,-0.164692,0.838044,0.232729,0.225608,0.946012
-0.248758,-0.277585,0.830000,-0.430463,0.537838,0.724867
-0.204357,-0.316408,0.845741,-0.561653,0.710049,0.424707
-0.213399,-0.306000,0.876619,-0.601267,0.604530,-0.522515
-0.595421,0.115125,0.325665,-0.731911,0.456552,0.505833
-0.265389,-0.184911,0.312475,0.888234,0.270538,0.371280
-0.746551,0.268234,0.549333,0.101661,-0.684737,0.721665
-0.463020,0.006838,0.491513,-0.000282,-0.998480,0.055108
-0.187884,-0.245162,0.466647,-0.730324,-0.658951,-0.180030
-0.252956,-0.180708,0.544230,0.787409,0.599995,0.141398
-0.348540,-0.089634,0.602007,0.952053,0.214756,-0.217887
-0.310598,-0.122668,0.620040,0.904845,-0.076470,-0.418817
-0.338369,-0.095046,0.656108,0.617961,-0.785717,-0.027805
-0.339985,-0.091443,0.684434,0.956751,-0.269217,0.110227
-0.371629,-0.060413,0.722490,-0.170289,0.968969,0.179167
-0.363558,-0.066619,0.747659,-0.092324,-0.661148,0.744554
0.033640,-0.433100,0.661384,-0.567598,0.694539,-0.442095
-0.619959,0.176171,0.878825,0.004908,0.859762,0.510670
-0.427335,0.001036,0.878781,-0.491911,-0.799027,0.345803
-0.323192,-0.094240,0.876014,0.436205,-0.756428,0.487382
-0.107798,-0.286185,0.927087,-0.545762,0.821803,-0.163660
-0.285892,-0.054610,0.356542,0.010240,-0.415870,0.909366
-0.295579,-0.043603,0.389626,0.094039,0.830593,0.548883
-0.320285,-0.018584,0.425995,0.368418,-0.619844,-0.692865
-0.401825,0.059479,0.480702,-0.020400,-0.999354,0.029589
-0.304301,-0.028797,0.480961,-0.405950,-0.900023,-0.158627
-0.305754,-0.025791,0.510931,-0.497370,0.628087,0.598439
-0.316733,-0.014186,0.542544,-0.613427,0.746749,-0.257049
-0.295096,-0.031998,0.564340,-0.138706,0.916457,0.375322
0.095642,-0.389268,0.535538,0.031092,0.893030,0.448923
0.084344,-0.377063,0.568361,0.119028,-0.953200,-0.277924
-0.136865,-0.169103,0.662465,-0.463674,0.849065,0.253170
-0.127823,-0.176311,0.687504,0.758319,-0.624525,-0.186871
-0.110543,-0.189920,0.710381,0.805682,-0.575446,-0.140496
0.270834,-0.541985,0.629079,0.780829,-0.442331,0.441191
-0.106669,-0.189321,0.765693,-0.372294,0.928115,0.000143
0.012166,-0.298194,0.760114,0.482902,0.793329,0.370722
0.077884,-0.357444,0.769974,0.069924,-0.949873,-0.304717
0.136008,-0.409290,0.782170,0.005255,0.988604,0.150446
-0.243915,0.002037,0.297166,-0.079515,-0.549988,0.831379
-0.266196,0.026849,0.364716,-0.709026,0.664415,-0.236295
-0.230029,-0.004975,0.383787,-0.393457,0.780925,0.485126
-0.194019,-0.036200,0.401086,0.673989,0.733610,0.086924
-0.218888,-0.010973,0.437456,0.188386,-0.188648,-0.963806
-0.277175,0.047263,0.513136,-0.624385,0.540390,0.564022
-0.138156,-0.080436,0.500854,-0.070656,0.044827,0.996493
-0.321576,0.094907,0.615240,0.476791,-0.459204,-0.749535
-0.175132,-0.039400,0.599974,0.408815,-0.660850,0.629402
-0.024809,-0.177508,0.583541,-0.427715,0.554199,0.714089
0.101782,-0.293600,0.575411,0.824671,-0.124705,0.551695
0.103881,-0.293198,0.603045,0.756105,0.522029,0.394704
-0.017059,-0.179108,0.667525,0.766921,0.111470,0.631987
-0.043539,-0.152281,0.704197,0.846048,-0.440274,-0.300603
-0.029491,-0.163093,0.728891,0.735144,-0.553156,-0.391894
-0.246822,0.040458,0.818972,0.629470,-0.030674,-0.776419
-0.210329,0.066076,0.324324,0.004958,0.395690,0.918371
-0.222924,0.081689,0.387463,0.924049,-0.317701,-0.212601
-0.241328,0.109310,0.539343,-0.591182,0.790821,0.158447
-0.062268,-0.052814,0.543581,0.423803,0.902802,0.073077
-0.229383,0.104509,0.622549,-0.684633,0.597984,0.416764
0.201725,-0.294798,0.524380,-0.519803,0.774683,0.360100
-0.150263,0.034863,0.657318,-0.538201,-0.314017,-0.782134
-0.003819,-0.099444,0.642442,0.992554,0.119504,0.023570
0.038972,-0.137670,0.657837,0.784717,0.617790,-0.050545
0.245162,-0.327416,0.627003,-0.331424,-0.781824,0.528119
0.270025,-0.348843,0.647761,0.146274,-0.380892,0.912976
-0.113775,0.012837,0.815858,0.758166,0.414170,0.503635
-0.193536,0.088493,0.866932,-0.112960,0.920529,0.373986
-0.251986,0.147340,0.937726,0.111603,-0.992950,0.039930
-0.192728,0.136932,0.315242,0.292682,0.114274,-0.949357
-0.218243,0.162757,0.353385,-0.357539,-0.844123,0.399526
-0.288154,0.230412,0.403940,0.484363,0.805074,-0.342415
-0.226639,0.174766,0.413930,0.930323,0.292355,-0.221420
-0.183849,0.145740,0.548036,0.836712,-0.532183,0.129205
0.099840,-0.114056,0.520229,0.930838,0.349573,0.106487
0.049950,-0.065019,0.564556,-0.334325,-0.086583,-0.938472
-0.371467,0.331283,0.745670,0.453501,0.779709,0.431730
-0.262161,0.231609,0.742254,-0.005489,0.998267,0.058586
-0.021095,0.008842,0.700824,0.794326,-0.031369,-0.606681
-0.149455,0.130530,0.765693,-0.673397,-0.732252,-0.101705
-0.126370,0.111313,0.786494,0.194096,0.979901,-0.046052
0.048822,-0.049809,0.764698,-0.771350,0.421588,-0.476742
-0.095691,0.086698,0.833546,0.839634,0.327600,-0.433235
-0.067433,0.062277,0.853785,0.719705,0.587899,-0.369324
-0.052256,0.050476,0.877787,0.700633,-0.152252,-0.697089
-0.024002,0.026250,0.897983,0.109908,0.716338,0.689043
-0.062268,0.064085,0.935866,-0.489869,-0.764804,0.418453
-0.025293,0.031455,0.952300,0.034394,-0.858904,0.510980
0.004903,0.005238,0.971760,0.336961,-0.874259,0.349470
-0.100210,0.131336,0.356369,0.809052,-0.572671,-0.132224
-0.235681,0.259829,0.427985,-0.050831,0.986620,0.154908
-0.158985,0.190574,0.434472,0.567435,-0.024247,-0.823061
-0.132342,0.168365,0.455100,0.293815,-0.946898,0.130599
-0.119747,0.158555,0.479837,0.694202,-0.414587,-0.588388
-0.064850,0.109713,0.492984,0.979584,0.156307,0.126427
-0.067112,0.113720,0.522088,-0.495601,-0.237167,0.835542
0.066097,-0.005573,0.541506,0.249988,-0.100054,0.963066
-0.053226,0.108309,0.606375,0.875276,0.455859,0.161507
-0.108931,0.162158,0.650702,0.948277,-0.056277,0.312415
-0.167381,0.218598,0.695721,-0.544214,-0.816173,-0.194144
-0.209038,0.260037,0.736848,0.116410,-0.935772,0.332836
-0.131696,0.189572,0.741821,0.702093,0.712081,-0.002417
-0.114583,0.175963,0.765607,0.910053,0.397064,-0.118925
-0.047737,0.116115,0.774861,-0.383237,0.915116,-0.125267
-0.076154,0.144347,0.811577,0.186285,-0.430306,0.883252
-0.063234,0.134732,0.835233,0.384724,-0.636815,-0.668172
-0.071148,0.143944,0.864597,-0.764464,-0.077678,0.639970
-0.068241,0.143736,0.892101,-0.719232,0.659338,0.219039
-0.028845,0.109115,0.908016,-0.328948,0.362513,0.871996
-0.058715,0.139534,0.944645,-0.726777,0.646193,-0.232872
-0.060652,0.143137,0.973014,0.239310,0.881191,0.407718
-0.030782,0.117116,0.992475,0.959618,0.223549,0.170760
-0.165439,0.187776,0.317145,0.062296,0.470015,-0.880457
-0.121684,0.148745,0.332671,0.872267,0.434848,-0.223735
-0.221953,0.326079,0.340887,0.898414,-0.309770,0.311280
0.069650,0.065881,0.398707,-0.341728,-0.922111,-0.181478
-0.064042,0.193384,0.469242,0.522599,-0.760669,0.385062
-0.098599,0.228604,0.509460,0.946923,-0.073922,0.312845
-0.132825,0.262639,0.548079,-0.201398,-0.748465,0.631854
0.112272,0.036060,0.503146,0.934043,0.120399,0.336255
0.044298,0.102310,0.552966,0.224980,0.974259,-0.014261
-0.075991,0.216803,0.616927,0.527584,-0.778881,-0.339117
-0.021415,0.168365,0.630030,-0.621739,0.775703,-0.108282
-0.063880,0.214591,0.728285,0.896471,0.192209,-0.399243
-0.035626,0.190977,0.747832,-0.736370,0.219228,0.640077
-0.034980,0.192382,0.776202,0.352747,0.903406,-0.243777
-0.077765,0.234809,0.815945,-0.412619,-0.910898,-0.003235
-0.040149,0.202191,0.833719,0.767542,-0.297885,-0.567577
0.012974,0.154756,0.846823,-0.634534,0.529256,0.563253
-0.023677,0.191576,0.885614,-0.171154,0.830389,0.530245
0.070615,0.106109,0.886090,-0.161499,-0.735045,-0.658504
0.071104,0.107514,0.913248,0.855779,-0.113916,-0.504644
0.087896,0.094308,0.936818,-0.032963,-0.891846,0.451136
0.035901,0.145141,0.978161,0.764108,0.450245,0.461972
-0.474643,0.646932,0.564988,-0.489527,0.645801,-0.585922
0.224170,-0.004767,0.382231,-0.211275,-0.930273,0.299924
-0.029811,0.235812,0.488010,0.340735,-0.939511,-0.034917
0.475727,-0.224345,0.483426,0.462121,-0.777463,0.426608
0.065772,0.166557,0.690921,0.114075,0.967818,0.224311
0.108237,0.128930,0.707441,0.159353,0.792841,0.588226
-0.024322,0.255626,0.774731,0.065182,-0.844738,-0.531195
0.034611,0.203181,0.785197,-0.456515,0.832420,0.314120
0.011200,0.228005,0.819578,0.796234,-0.595191,0.108440
0.113081,0.134940,0.818756,0.089541,0.954438,0.284659
0.071749,0.176171,0.857807,0.596165,0.335422,-0.729437
0.122448,0.138141,0.955110,-0.027026,-0.876683,0.480310
-0.054838,0.307473,0.317016,0.720985,-0.098763,0.685876
0.192684,0.092708,0.420201,-0.341127,-0.901326,-0.266917
0.027022,0.250630,0.498908,-0.067111,-0.818683,0.570311
0.417116,-0.112858,0.411422,0.772304,-0.220291,-0.595834
-0.055483,0.347298,0.724955,0.792635,0.019595,0.609382
0.139240,0.167363,0.697018,0.123481,0.769140,0.627037
0.074656,0.230607,0.743551,0.089082,0.301144,0.949409
0.163779,0.150150,0.746578,-0.152533,0.977816,0.143557
0.171855,0.145544,0.773045,-0.369944,-0.922478,0.110346
0.142147,0.175963,0.810150,0.175335,0.764600,0.620197
0.111469,0.209790,0.873549,0.619800,0.208509,0.756553
0.124384,0.205392,0.494281,0.106305,-0.638941,0.761875
-0.195798,0.525035,0.761541,0.889248,0.375294,0.261520
0.235957,0.124923,0.692045,0.230221,0.107244,0.967211
0.053177,0.300058,0.772872,0.996731,-0.066840,0.045384
0.082402,0.275039,0.792765,0.970246,0.021496,0.241166
0.115825,0.246819,0.810626,0.301920,0.683709,0.664369
0.095805,0.268442,0.844790,-0.525202,0.499955,0.688627
0.023307,0.354299,0.532554,0.653823,0.711978,-0.256129
0.272607,0.126524,0.517677,0.621711,-0.200041,0.757271
-0.106669,0.497011,0.744632,-0.707252,0.413282,-0.573579
0.076267,0.327679,0.718814,0.989721,0.142078,-0.016308
0.311037,0.109713,0.679374,-0.492534,0.852638,-0.174410
0.179927,0.237009,0.746449,0.519540,0.824791,-0.223153
0.104526,0.311468,0.797090,-0.579132,0.238221,-0.779651
-0.041598,0.451982,0.866500,-0.209061,0.783004,0.585831
0.003770,0.412144,0.880598,-0.468023,-0.613020,-0.636522
0.127129,0.299459,0.873765,0.864700,-0.437697,0.246406
0.030092,0.397533,0.541592,0.736492,-0.132869,0.663269
0.156837,0.281648,0.533246,0.591887,0.775320,0.220339
0.458452,0.000229,0.471707,0.106380,0.494898,0.862415
0.246610,0.207592,0.594179,0.592563,0.799933,0.094748
0.388541,0.080491,0.609748,-0.125157,-0.971659,-0.200536
-0.033689,0.482804,0.761585,-0.710061,0.074490,0.700189
0.351077,0.126731,0.706230,0.078759,-0.970259,0.228898
0.023952,0.445775,0.886522,0.246878,0.926766,-0.283119
0.140048,0.339688,0.880684,-0.444821,0.698721,0.560288
0.132135,0.350903,0.910092,-0.630134,0.682720,-0.369899
0.151835,0.335889,0.932882,-0.036316,-0.007051,0.999315
0.138916,0.339896,0.541289,0.704387,0.395641,-0.589328
0.099683,0.381322,0.581465,-0.150969,0.470596,0.869338
0.263891,0.233014,0.590417,0.278684,-0.602133,0.748178
-0.300910,0.776426,0.814215,-0.461813,-0.756435,0.463179
-0.153007,0.639724,0.799468,0.421232,0.850225,-0.315723
-0.016251,0.514224,0.788181,-0.354935,-0.774856,0.523086
0.326051,0.193384,0.716263,-0.153615,0.931888,-0.328614
-0.105379,0.606300,0.868792,-0.024304,0.126033,0.991728
0.025086,0.493407,0.914892,-0.206698,0.901255,0.380810
0.144567,0.384132,0.909054,-0.723453,0.631755,-0.278392
0.176699,0.357903,0.928558,0.806375,-0.267028,0.527689
0.109853,0.417751,0.573248,0.492067,0.138894,-0.859406
0.170885,0.364512,0.584622,0.652036,0.656358,-0.379531
0.250808,0.292056,0.590201,-0.087258,-0.125083,0.988302
0.345106,0.205991,0.590547,0.350067,0.919983,0.176308
-0.099244,0.633115,0.750081,-0.315317,0.859755,-0.401742
-0.077282,0.616110,0.772526,0.052981,0.995930,0.072909
0.028639,0.523436,0.797825,0.088697,-0.970599,0.223765
0.190422,0.374114,0.779661,0.636404,-0.110603,-0.763385
0.380144,0.197989,0.753627,-0.365507,0.914913,0.171282
0.185258,0.399133,0.920860,-0.807317,0.210319,-0.551366
0.054311,0.520638,0.602872,0.568086,0.821410,0.050633
0.203017,0.383325,0.586741,0.595341,0.788929,-0.152182
0.436332,0.169366,0.576535,-0.528241,0.723460,0.444486
-0.013669,0.603099,0.738794,-0.453862,0.791777,0.408776
-0.013826,0.607094,0.766601,-0.300935,-0.953579,0.011167
0.042036,0.562663,0.806690,-0.308447,0.918454,-0.247595
-0.001074,0.608499,0.846909,0.775239,0.084781,0.625952
0.439077,0.192980,0.748222,-0.413969,0.909603,-0.035380
0.097421,0.529239,0.585876,-0.174529,0.935138,-0.308313
0.216582,0.424360,0.606980,0.508495,0.693684,-0.510132
0.198981,0.445775,0.641750,-0.607693,0.495396,-0.620719
0.060765,0.592092,0.768634,0.690028,-0.683543,-0.237972
0.066417,0.591688,0.795792,0.289541,-0.941956,0.169956
-0.042569,0.699975,0.855126,0.792464,-0.335795,0.509159
0.142793,0.552658,0.593790,-0.368760,0.859622,-0.353647
0.165720,0.535848,0.616494,0.278238,-0.700882,0.656772
0.259367,0.450785,0.618051,0.524458,0.767991,-0.367606
0.325085,0.392732,0.626830,0.130347,0.737168,-0.663018
0.158778,0.556664,0.704327,-0.570032,0.763766,0.302862
0.082082,0.635521,0.756049,-0.635376,0.740984,0.217348
0.135363,0.588879,0.768028,0.486621,-0.671295,-0.559074
0.130844,0.598298,0.798214,-0.222389,-0.240436,-0.944846
-0.041440,0.768424,0.877095,0.484782,-0.392980,0.781379
0.236120,0.473201,0.334357,-0.114465,-0.841002,0.528785
0.389990,0.368519,0.524769,-0.519620,0.853801,0.031923
0.192201,0.564067,0.613943,0.837133,-0.352458,-0.418307
0.185095,0.575673,0.644301,0.220895,-0.051603,0.973932
0.266473,0.502814,0.649577,-0.111907,-0.489251,0.864934
0.163779,0.606495,0.709343,-0.603969,0.128164,-0.786636
0.210285,0.567463,0.724826,0.780933,0.395608,-0.483360
0.273898,0.511622,0.734080,0.549815,0.735081,-0.396685
0.429227,0.366918,0.716566,0.973459,0.220794,0.060223
0.148928,0.641923,0.827275,0.562208,0.489807,0.666342
0.363352,0.444969,0.538435,0.381669,-0.918823,-0.100460
0.211251,0.596893,0.612775,-0.635104,0.112685,0.764163
0.164105,0.647530,0.655416,-0.094097,-0.907690,0.408957
0.261629,0.559267,0.655891,0.989046,-0.047463,-0.139765
0.207377,0.616500,0.700175,0.695303,0.696729,0.176416
0.175245,0.653333,0.739053,0.038847,-0.999055,0.019481
0.355276,0.485809,0.715268,0.824394,0.558778,0.090229
0.298279,0.546256,0.760849,0.743060,0.629300,-0.227690
0.292308,0.515629,0.347331,0.242967,-0.961279,-0.130039
0.266310,0.583284,0.563604,-0.703211,0.398684,-0.588681
0.421314,0.444969,0.576621,0.675648,0.737212,0.004212
0.160231,0.702969,0.682963,0.656998,0.739053,-0.148845
0.394188,0.481998,0.641663,-0.381316,0.891698,-0.243873
0.358508,0.522630,0.681796,0.605557,0.790850,0.088641
0.245807,0.637317,0.743075,0.716812,0.465133,-0.519453
0.323632,0.568270,0.749433,-0.702307,-0.667290,0.247969
0.328475,0.515226,0.364370,0.200479,0.962378,0.183401
0.453608,0.431959,0.504833,0.380931,-0.900101,-0.211444
0.259367,0.639320,0.651999,0.923878,0.155068,0.349861
0.412114,0.503217,0.665578,0.663929,0.717040,0.212256
0.202696,0.712779,0.755746,-0.544699,0.649101,-0.531009
0.272770,0.650939,0.762839,0.762864,0.623285,-0.171915
0.296506,0.633921,0.784808,0.851242,0.009047,0.524695
0.316363,0.558863,0.362510,0.207008,0.974125,0.090714
0.353502,0.528835,0.380414,0.200518,-0.956289,-0.212847
0.176374,0.754815,0.671373,0.047754,0.857714,-0.511905
0.165075,0.772431,0.703073,-0.525201,0.617932,-0.585084
0.430518,0.520430,0.653470,-0.563540,-0.818131,0.114386
0.211576,0.747009,0.776937,0.846961,-0.045083,-0.529740
0.248709,0.716578,0.793803,0.894701,-0.249628,-0.370399
0.383047,0.538242,0.381366,-0.917184,0.193693,0.348220
0.334773,0.592483,0.425433,0.975202,0.196535,0.101764
0.464266,0.480397,0.445370,-0.120610,-0.185788,0.975159
0.171210,0.808653,0.711030,-0.600424,0.797385,0.060571
0.214157,0.786834,0.784678,0.391107,-0.869720,-0.301036
0.382564,0.579680,0.421757,0.851463,0.356145,0.384931
0.465394,0.505819,0.425650,-0.578528,0.517273,0.630661
0.221263,0.797048,0.706230,0.796439,-0.512546,0.320906
0.447636,0.565472,0.430407,-0.170905,-0.963943,0.203975
0.472500,0.548455,0.453197,0.792581,0.417152,0.444746
0.216419,0.847489,0.707743,0.680828,-0.659094,0.319482
0.436653,0.642925,0.465393,0.156872,-0.512979,0.843945
0.395321,0.869295,0.531386,-0.118384,0.775734,0.619856
0.489613,-0.169103,0.508422,-0.200829,0.977037,0.071178
0.527880,-0.158890,0.519407,-0.573942,0.684303,0.449800
0.526589,0.165164,0.746665,-0.468021,0.883474,-0.020746
0.507697,0.471198,0.441953,0.941276,0.158207,-0.298278
0.565018,0.422553,0.454970,0.980807,0.191584,-0.036239
0.582940,0.370914,0.439402,0.266087,0.768368,0.582072
0.516581,0.403543,0.481523,0.629372,0.777019,0.011499
0.546289,0.946564,0.449694,0.320195,-0.903099,0.286158
0.752636,0.606702,0.389409,0.667854,-0.398569,0.628580
0.682563,0.685157,0.441737,0.942170,-0.219781,0.253005
0.621206,0.636316,0.431488,0.614967,-0.769602,0.171838
0.552261,0.593484,0.377084,0.572783,-0.006400,0.819682
0.498498,0.573670,0.415703,-0.218984,0.964989,0.144367
0.526426,0.503412,0.466085,0.932541,0.360119,0.026119
0.100811,0.763819,-0.972797,-0.273204,0.343241,0.898635
-0.140575,0.497610,-0.976041,-0.107199,0.085408,0.990562
-0.081481,0.447376,-0.971197,-0.100246,-0.083698,0.991436
-0.019966,0.395139,-0.966267,-0.068736,0.562388,0.824012
0.131490,0.555662,-0.085951,-0.017644,-0.946493,0.322242
0.121802,0.578874,-0.042402,0.286635,0.926804,-0.242642
0.105818,0.287255,-0.958526,0.478125,0.455613,0.750875
0.165879,0.235812,-0.954461,-0.188313,0.177241,0.965983
0.099683,0.537447,-0.224857,-0.689293,0.579834,0.434359
0.221746,0.509228,0.011396,0.430770,0.883215,-0.185390
0.040745,0.343500,-0.960775,0.264742,0.898950,0.348999
0.236277,0.172970,-0.957099,0.376900,-0.472524,-0.796660
0.288755,0.130726,-0.945812,-0.083599,0.276354,0.957413
0.352048,0.076485,-0.943390,-0.437853,0.708731,0.553159
0.400327,0.039066,-0.928902,-0.198133,0.496566,0.845083
-0.029491,0.179775,-0.284104,0.053996,0.987986,-0.144806
0.069970,0.225806,0.085476,-0.277139,0.847639,-0.452441
0.376429,-0.081438,-0.020606,-0.662236,-0.491379,0.565678
0.050758,0.313667,0.280948,0.219067,-0.975662,0.009699
-0.082451,0.002636,-0.899755,0.934129,-0.253679,-0.251098
-0.127823,0.070682,-0.822171,0.562996,-0.823786,0.066434
0.011037,-0.068024,-0.869742,-0.259733,-0.954339,-0.147566
0.177507,-0.238150,-0.937033,-0.037451,0.243356,0.969214
0.224979,-0.275385,-0.924232,-0.484875,0.240818,0.840775
0.288592,-0.330421,-0.920426,-0.052852,0.274184,0.960224
0.041553,0.115724,-0.287477,0.401778,0.566297,-0.719640
0.055119,0.255028,0.130582,-0.562273,0.809662,-0.168218
-0.138476,0.032261,-0.953726,-0.272205,-0.184637,0.944359
-0.115874,0.023648,-0.923713,-0.683393,-0.658444,0.315316
-0.099564,0.119328,-0.619866,0.319489,0.943400,-0.089012
-0.059199,0.090497,-0.602092,0.318982,0.706144,-0.632149
-0.375990,0.233014,-0.975565,-0.298893,-0.450653,0.841175
-0.311081,0.176769,-0.973186,0.686587,-0.184846,-0.703158
-0.247625,0.122321,-0.971197,-0.150717,0.714384,0.683330
-0.190954,0.074688,-0.964667,-0.653203,-0.570162,0.498239
-0.246822,0.107514,0.161070,-0.409949,0.893902,0.181328
-0.212428,0.083289,0.177028,0.799456,-0.325089,-0.505161
-0.172388,0.053065,0.189656,0.802500,-0.543176,-0.246888
-0.164474,-0.044006,-0.042748,0.661305,0.748779,0.044784
-0.152205,-0.042797,-0.012303,-0.621397,-0.600887,-0.502792
-0.158014,-0.020783,0.030511,0.888905,-0.433037,-0.149424
-0.156077,-0.008176,0.068135,-0.706347,-0.702866,0.083985
-0.160113,-0.395278,-0.940103,-0.166573,0.576629,0.799845
-0.095528,-0.451914,-0.938936,0.173163,0.081021,-0.981555
-0.028683,-0.509758,-0.937206,0.186184,-0.194452,-0.963080
0.029930,-0.558001,-0.929767,-0.019405,-0.063795,0.997774
-0.387614,0.129333,-0.101606,-0.191878,0.929392,-0.315299
-0.372763,0.018041,-0.355157,0.503931,-0.859720,0.083279
-0.331426,-0.253164,-0.960861,0.204686,-0.102221,-0.973475
-0.284118,-0.289191,-0.947671,0.086936,0.123538,0.988524
-0.219696,-0.345838,-0.946547,0.185690,-0.130020,0.973968
-0.335300,-0.074022,-0.508032,-0.507650,0.829615,0.232444
-0.648056,-0.101448,-0.248643,-0.720797,-0.673178,-0.165176
-0.576366,0.028450,0.219279,0.277967,0.868464,0.410494
-0.237292,-0.337629,0.052436,0.921060,-0.278748,-0.271933
-0.199188,-0.364651,0.068308,0.963516,-0.244715,-0.108407
-0.442191,-0.075830,0.252276,0.047679,-0.987809,0.148190
-0.338369,-0.613036,0.130582,0.942488,0.210593,0.259550
-0.274430,-0.669085,0.130755,0.947127,0.256202,0.193162
-0.237780,-0.695107,0.145588,-0.365140,0.741072,0.563458
-0.143320,-0.769968,0.164444,0.215471,0.850750,0.479370
0.550325,0.142746,-0.222781,-0.118022,-0.964512,0.236193
0.545481,0.286046,0.194932,0.830818,-0.450161,-0.327257
0.909256,0.320081,-0.103466,-0.370521,0.898154,-0.236714
0.790258,0.533844,0.257120,-0.147314,-0.955706,0.254803
0.333481,0.524034,0.349710,0.118830,0.962387,-0.244317
0.376104,0.501617,0.395550,0.757574,-0.545395,-0.358644
0.392734,0.495618,0.420287,0.463717,-0.845149,-0.265875
0.295052,0.610698,0.509417,0.923037,-0.295815,0.245961
0.230950,0.690361,0.579259,0.899064,-0.187530,0.395621
0.268089,0.672953,0.625316,0.621043,-0.000555,-0.783776
0.352048,0.595085,0.612256,-0.401489,-0.667450,0.627149
0.160231,0.808849,0.749389,-0.153446,-0.602339,-0.783353
0.209959,0.352100,0.772958,0.785486,0.145682,-0.601488
0.411626,0.148549,0.699008,-0.414136,0.855930,0.309637
0.178636,0.432166,0.917789,0.133062,0.671760,0.728720
0.237893,0.737798,0.739399,0.898769,-0.160254,0.408084
0.242091,0.744407,0.770104,0.883198,0.409359,-0.228882
0.109691,-0.103855,0.424525,0.175477,-0.966902,0.185226
-0.164637,0.210597,0.613424,-0.515612,0.846062,-0.135367
-0.060652,0.109713,0.588644,0.883990,-0.467248,0.015504
-0.146873,0.216998,0.669254,0.856607,0.401430,0.324157
0.027993,0.140743,0.869224,0.870426,0.478510,0.115702
0.039291,0.140939,0.895388,0.853399,0.519062,-0.047796
0.021370,0.172360,0.936731,0.109292,0.460941,0.880675
0.019597,0.186970,0.969685,-0.455395,-0.883201,0.112122
-0.048703,0.409346,0.303480,0.710137,-0.300652,0.636643
0.061254,0.391327,0.521396,-0.288172,0.844626,-0.451181
0.200917,0.252622,0.477156,0.329499,0.483898,0.810724
0.163779,0.305469,0.532597,0.836445,0.547425,0.026163
-0.190954,0.711776,0.794625,-0.551459,0.824799,0.124900
0.120023,0.389336,0.658054,-0.017394,0.998744,0.046985
0.137141,0.383129,0.682488,-0.760599,-0.346631,-0.548941
-0.258929,0.191783,0.350791,-0.614085,0.787377,0.054195
-0.182878,0.121527,0.342963,0.538142,-0.824243,-0.176142
-0.196443,0.150944,0.387290,0.857321,-0.346104,-0.381067
-0.137511,0.126731,0.458517,-0.013084,0.996565,0.081768
-0.185948,0.206993,0.555777,-0.676053,0.623268,-0.393052
-0.377281,0.804047,0.597985,-0.821337,0.431175,0.373489
-0.290577,0.734597,0.616667,-0.739804,0.585556,0.331382
0.030250,0.399939,0.469933,0.808125,-0.505936,-0.301602
0.078849,0.360505,0.477934,-0.315680,0.612120,0.725021
0.042199,0.496608,0.765909,-0.424298,0.251208,0.869980
-0.032881,0.588684,0.838044,0.825174,0.515526,0.230915
0.007002,-0.314808,0.628992,0.043745,-0.503144,0.863095
-0.111031,0.190574,0.683396,0.189047,0.912500,-0.362774
-0.155915,0.251827,0.740308,-0.075366,0.971121,0.226370
-0.153496,0.262431,0.772569,0.477966,0.782582,-0.398890
-0.088103,0.204391,0.770407,0.725630,0.465585,-0.506648
-0.063397,0.190574,0.790559,0.034707,-0.929027,0.368382
-0.076799,0.217193,0.829611,-0.299392,0.518612,0.800879
-0.038050,0.186970,0.840206,0.769629,-0.379959,-0.513130
-0.041923,0.203988,0.874932,-0.347303,0.930228,0.118562
-0.120230,-0.316213,0.354164,-0.324669,0.753552,-0.571620
-0.338207,-0.059619,0.513785,0.916552,-0.032058,-0.398629
-0.334979,-0.048209,0.547517,0.617239,-0.768561,0.168315
-0.318669,-0.052814,0.572037,0.056061,0.746374,0.663162
0.139724,-0.432904,0.625489,0.374040,0.562447,-0.737392
0.236120,-0.524967,0.607672,0.975205,0.070189,-0.209878
0.056730,-0.314417,0.736415,0.768848,0.629057,-0.114719
0.085797,-0.333023,0.752979,0.277311,0.921707,0.271210
0.105655,-0.341037,0.775294,0.300558,0.762174,0.573373
0.142306,-0.368451,0.787532,-0.511797,-0.833833,-0.206847
-0.324967,-0.031191,0.610613,-0.647174,-0.310487,0.696250
-0.300910,-0.043407,0.631803,0.049528,0.986174,0.158141
-0.051448,-0.305206,0.527148,0.394298,0.309509,-0.865294
-0.145582,-0.187708,0.612645,0.132212,0.865548,0.483060
-0.276367,-0.029787,0.717820,-0.536099,0.802972,0.260448
-0.268779,-0.024191,0.747400,-0.569940,0.693290,-0.441041
0.076267,-0.376465,0.625922,-0.344985,-0.315671,0.883933
-0.071631,-0.770958,0.307069,0.910457,0.076363,-0.406494
-0.296875,-0.502551,0.470279,0.829330,-0.488299,0.271617
-0.375345,-0.398881,0.550414,-0.637243,0.061946,-0.768169
-0.502415,-0.241350,0.656021,-0.305568,0.819837,0.484247
-0.230995,-0.530575,0.538003,0.317575,0.941298,-0.114470
-0.469154,-0.248962,0.705927,0.979033,-0.081569,-0.186656
-0.520178,-0.177104,0.768331,-0.530927,-0.492843,0.689363
-0.096337,-0.636663,0.566588,-0.364780,-0.717769,0.593080
-0.204194,-0.501757,0.659178,-0.335674,-0.939217,-0.072068
-0.359843,-0.108852,0.347980,-0.028959,-0.961445,-0.273468
-0.253119,-0.212532,0.322637,0.988666,0.029114,0.147281
-0.139610,-0.324618,0.293446,-0.680905,-0.520641,-0.515075
-0.247950,-0.188319,0.392696,-0.563740,0.765424,-0.310359
-0.362587,-0.474135,0.402253,0.894969,-0.401208,0.195095
-0.774480,0.006436,0.675785,-0.499980,0.723469,0.476039
-0.348056,-0.312414,0.804528,-0.686508,0.431485,0.585259
-0.363879,-0.280590,0.846390,0.830410,0.368591,0.417803
-0.212103,-0.435104,0.797522,-0.669290,0.545734,-0.504208
-0.513881,-0.690097,0.447964,0.975596,-0.010172,-0.219337
-0.977925,-0.114458,0.819361,0.260150,0.965526,-0.009085
-0.873295,-0.218335,0.793068,0.107891,0.993931,-0.021485
-0.845204,-0.235352,0.809890,0.038684,0.993692,0.105261
-0.802413,-0.253971,0.852055,-0.598578,-0.513042,-0.615217
-0.527283,-0.549389,0.732956,-0.686033,-0.160723,-0.709596
-0.523889,-0.537588,0.765088,0.988661,-0.140201,-0.053780
-0.351772,-0.321820,0.774472,-0.238672,0.481527,-0.843307
-0.513718,-0.505153,0.857461,0.512275,0.145732,-0.846367
-0.377764,-0.642869,0.816853,0.413710,-0.885541,0.211333
-0.244398,-0.777763,0.777067,0.975941,0.027871,0.216247
-0.652091,-0.741944,0.756611,0.854951,-0.485427,-0.182808
-0.649347,-0.729935,0.787662,0.947219,-0.177405,-0.267028
0.601511,-0.078627,0.531819,0.821088,-0.348150,-0.452335
0.694029,0.655532,0.380803,-0.215898,0.737619,-0.639770
0.650593,0.711178,0.438148,0.977972,-0.173745,-0.115688
0.519326,-0.052411,0.405281,-0.066875,0.838516,0.540757
0.616042,-0.057615,0.624408,-0.403984,-0.736820,0.542119
0.093386,0.725997,-0.971543,0.198462,-0.433595,-0.878981
0.149573,0.672146,-0.968732,0.336082,0.409439,0.848180
0.201888,0.534247,-0.054814,-0.266037,0.935156,-0.233897
0.320241,0.424958,-0.025623,0.294103,0.939203,-0.177204
0.345106,0.393538,-0.065712,0.199109,0.964832,-0.171625
-0.026258,0.593888,-0.968948,0.306702,0.473846,-0.825472
0.033157,0.537851,-0.965229,-0.344395,-0.067523,0.936393
0.094351,0.479798,-0.957229,-0.315824,0.116258,0.941668
0.150057,0.426962,-0.955412,-0.108467,-0.005250,0.994086
0.204796,0.373723,-0.954764,-0.026812,0.094424,0.995171
0.261949,0.318676,-0.953985,0.014704,0.235157,0.971846
0.317497,0.265632,-0.951953,-0.604735,-0.384555,0.697433
0.201888,0.353505,0.186283,-0.525545,0.846272,-0.087324
0.063353,0.431959,-0.112158,0.019452,-0.958200,0.285436
0.434396,0.125925,0.170584,0.815674,-0.491616,-0.304941
-0.132987,0.460985,-0.972322,-0.362796,0.085355,0.927951
-0.075183,0.406744,-0.967435,0.169932,0.629404,0.758270
0.394030,0.088493,-0.242156,-0.230908,0.867464,0.440668
-0.017379,0.351697,-0.961294,-0.104570,0.105384,0.988918
0.040425,0.296063,-0.959953,0.363675,-0.238730,-0.900416
0.097584,0.242213,-0.955456,0.304388,0.323392,0.895972
0.155708,0.186176,-0.953034,-0.038382,0.349969,0.935975
0.214483,0.130530,-0.949747,-0.386686,0.291268,0.875007
0.275515,0.073089,-0.941530,0.000261,0.356784,0.934187
0.336546,0.016441,-0.927735,-0.756233,0.316907,-0.572435
0.395158,-0.037996,-0.919475,-0.334337,0.303238,0.892337
0.114052,0.237216,0.282721,0.033410,-0.683048,0.729609
0.073848,0.248822,0.144940,0.802152,-0.562356,-0.200769
-0.131371,0.366515,-0.261314,-0.625498,0.614486,-0.480790
-0.046441,0.296063,-0.205310,0.971775,-0.224756,0.071674
0.349624,0.007840,0.273207,-0.626549,0.364513,0.688888
-0.301877,0.389336,-0.979976,0.307926,-0.200133,-0.930123
0.165233,0.076289,-0.282201,0.135861,0.979413,-0.149303
-0.241008,0.332883,-0.969986,0.136327,-0.311123,-0.940541
-0.182232,0.276443,-0.967348,-0.200083,0.057179,0.978109
-0.122980,0.221201,-0.959737,0.111464,-0.122428,0.986198
-0.063722,0.164761,-0.955499,0.328342,-0.489675,-0.807719
-0.005755,0.109518,-0.952472,-0.156751,0.097197,-0.982844
0.051078,0.054470,-0.952126,0.240105,0.354493,0.903706
0.108079,0.000438,-0.947671,-0.110296,-0.050665,0.992607
0.164912,-0.053413,-0.942914,-0.097270,0.220758,0.970466
0.224653,-0.110048,-0.936903,-0.627591,0.207853,0.750285
0.286818,-0.166696,-0.923367,0.327738,-0.216103,-0.919721
0.346234,-0.223344,-0.917529,0.434473,-0.321864,-0.841211
0.416149,-0.285794,-0.891711,0.005678,-0.009015,0.999943
0.171047,-0.264171,-0.934222,-0.054949,0.198277,0.978605
0.234503,-0.322224,-0.920037,-0.482068,0.075222,0.872899
0.293761,-0.377455,-0.910047,-0.305011,-0.215192,0.927718
-0.010599,0.154352,0.252579,-0.603271,0.767305,-0.217504
-0.045475,0.161951,0.124052,-0.522983,0.739204,-0.424343
0.048822,0.035657,-0.046121,-0.519998,-0.792137,-0.319564
-0.044992,0.060078,-0.367829,0.742184,0.555430,-0.375048
-0.413449,0.290651,-0.978333,-0.400052,-0.202767,0.893781
0.197527,-0.107654,-0.046813,0.535382,0.656313,0.531620
-0.043376,0.042058,-0.449996,0.961426,-0.003269,-0.275044
-0.357424,0.237412,-0.975478,-0.203084,-0.213146,0.955681
0.248226,-0.156886,-0.047505,-0.268215,0.325897,0.906560
-0.092784,0.053872,-0.624148,0.464218,-0.443753,-0.766541
-0.195635,0.097912,-0.894133,-0.622804,0.742196,-0.247507
-0.118294,0.030856,-0.857806,-0.022758,0.991497,-0.128127
-0.097790,-0.001176,-0.915583,0.816059,-0.336412,-0.469974
-0.062106,-0.042199,-0.949834,-0.031647,0.008307,0.999465
-0.005272,-0.097246,-0.950136,-0.116515,-0.228336,0.966585
0.051886,-0.151487,-0.945120,-0.064967,0.124777,0.990056
0.112598,-0.208330,-0.938071,-0.133000,0.283988,0.949559
-0.045475,-0.240557,-0.948060,-0.132988,0.230211,0.964011
0.013457,-0.296202,-0.944385,-0.170504,0.008195,0.985323
