0.144742,0.111452,0.784955,0.378802,-0.722170,-0.578774
-0.067072,0.138997,0.469962,0.785488,0.614566,-0.072918
-0.024744,0.172592,0.493696,-0.453581,0.869963,0.193464
0.018670,0.206282,0.517271,-0.421921,0.833367,-0.357048
0.004682,0.167805,0.615711,0.656333,-0.646074,-0.389635
-0.159176,0.190755,0.609499,0.283033,0.931988,0.226473
-0.151725,0.185777,0.652347,0.007208,-0.974535,0.224119
-0.011484,0.274450,0.809207,-0.519727,0.452405,0.724716
0.076802,0.344573,0.855520,-0.605365,0.784386,0.135170
-0.406597,0.241540,0.765641,0.046120,0.737188,-0.674112
-0.134107,0.459128,0.900360,-0.049583,0.097839,0.993966
-0.469088,0.297989,0.803353,0.492236,0.298986,-0.817503
-0.531943,0.516262,0.694997,-0.221121,0.893582,-0.390663
-0.449651,0.352680,0.675325,0.837588,0.546078,-0.015682
-0.481805,0.315276,0.892156,0.990081,0.016921,0.139478
-0.452922,0.371623,0.816454,-0.300085,0.609152,0.734086
-0.449468,0.330702,0.824459,-0.675294,0.654417,-0.340170
-0.492338,0.291247,0.823224,-0.696683,0.418907,-0.582365
-0.480713,0.347798,0.829834,-0.316078,0.736193,-0.598427
-0.443109,0.345550,0.679386,0.954887,0.270988,0.121474
-0.525402,0.471926,0.684802,0.409405,0.320478,0.854214
0.469365,-0.350093,-0.976020,0.516302,0.559287,-0.648561
0.401243,-0.400194,-0.980201,0.915553,-0.336743,-0.219923
0.599801,-0.353807,-0.973033,-0.456938,-0.427598,-0.779980
0.536945,-0.401171,-0.983267,0.812717,-0.244975,0.528657
0.448842,-0.462800,-0.975820,-0.214482,0.905774,-0.365473
0.743491,-0.396683,-0.965069,0.515552,0.432589,0.739644
0.658476,-0.456547,-0.960290,0.144487,-0.978970,0.144015
0.578729,-0.513288,-0.956467,0.111944,0.168583,0.979310
0.496979,-0.571203,-0.953958,0.961162,-0.187228,0.202764
0.414687,-0.629410,-0.950573,0.879349,0.225546,-0.419373
0.875196,-0.444435,-0.965825,0.835578,-0.112359,0.537759
0.766198,-0.517782,-0.945118,0.396353,0.124058,-0.909678
0.628318,-0.619545,-0.956268,0.263093,0.365230,0.892967
0.537671,-0.681853,-0.945396,0.967156,0.251565,-0.036401
0.459375,-0.737420,-0.942410,-0.372562,0.581776,0.723003
0.373995,-0.797094,-0.936635,0.429329,0.764211,0.481308
0.334756,-0.830689,-0.960529,-0.772503,0.572679,0.274368
0.911891,-0.599427,-0.948064,-0.129425,0.155465,-0.979326
0.824697,-0.659882,-0.939543,-0.118453,0.106291,0.987254
0.752760,-0.712617,-0.943127,0.270414,-0.066647,0.960435
0.635043,-0.789965,-0.913618,0.414738,-0.610240,-0.674981
0.425586,-0.943002,-0.927835,0.852666,0.473520,0.220773
0.387078,-0.976597,-0.951927,0.876415,-0.262695,0.403594
0.932602,-0.493856,-0.955432,0.507702,-0.034831,0.860829
0.851219,-0.551473,-0.953321,-0.705437,-0.333110,0.625617
0.772374,-0.607725,-0.952166,-0.327595,0.020938,0.944586
0.689904,-0.665443,-0.946551,0.279766,-0.465741,0.839534
0.577276,-0.740061,-0.920308,-0.669892,-0.639882,0.376557
0.380354,-0.886452,-0.941693,-0.358035,-0.822187,0.442516
0.401609,-0.862334,-0.902667,0.784886,-0.612389,-0.094522
0.461920,-0.376172,-0.630045,0.872507,-0.327022,-0.363026
0.429949,-0.416115,-0.706543,0.825010,0.442544,0.351444
0.379810,-0.312302,-0.516233,0.001717,-0.927490,0.373845
0.267725,-0.182314,-0.285703,0.858689,-0.159617,-0.487008
0.268092,-0.192370,-0.333967,-0.683881,0.352959,-0.638535
0.022666,0.108722,0.745013,0.066586,0.965826,0.250493
0.187795,-0.026541,0.081855,0.356139,0.918069,0.174108
0.183254,-0.048614,-0.006151,0.705690,0.472029,0.528384
0.185072,-0.086310,-0.189612,0.400838,0.915578,-0.032343
0.182528,0.283826,0.713952,-0.580961,0.793761,0.180078
-0.039824,0.018189,0.218485,-0.052237,-0.858423,-0.510276
-0.013119,0.024537,0.157796,-0.637633,0.259315,-0.725382
-0.038188,0.000706,0.129961,0.889505,-0.455524,-0.035750
0.015581,-0.038945,0.071701,-0.598272,-0.227065,-0.768448
-0.033831,-0.086310,0.014556,0.039504,0.915029,0.401450
-0.013302,-0.083770,-0.044420,-0.623936,-0.071439,-0.778203
0.124396,0.255405,0.726377,-0.612007,0.582079,-0.535380
-0.032195,0.014965,0.152739,-0.425112,0.361243,-0.829930
0.043012,0.222883,0.754411,0.176445,0.169560,0.969596
0.051732,0.218687,0.709134,0.959358,0.070268,-0.273304
-0.053811,0.011936,0.147721,-0.182190,0.810531,0.556639
0.054821,0.221130,0.733824,0.243434,0.806188,-0.539259
-0.003495,0.037228,0.152580,0.750659,-0.225095,-0.621163
0.106045,0.274742,0.685798,-0.642942,0.737059,0.208255
0.051190,0.223080,0.635941,0.922684,0.023268,-0.384855
-0.040916,0.047194,0.197260,0.245731,0.967570,0.058525
-0.048184,0.032346,0.157956,-0.554329,-0.157308,-0.817297
-0.179522,0.362932,0.849785,0.427098,-0.649074,-0.629516
0.042829,0.396921,0.907567,0.670326,0.277728,0.688135
0.164178,0.458150,0.802158,-0.124096,0.798636,0.588881
-0.103588,0.292517,0.912027,0.951736,0.306852,0.006409
-0.098500,0.286366,0.871727,0.816451,-0.282259,0.503724
-0.092141,0.271231,0.791048,0.798814,0.260727,-0.542141
-0.111034,0.250523,0.761898,0.847127,-0.481208,-0.225420
-0.168440,0.158721,0.556735,0.748023,-0.456030,-0.482181
-0.138282,0.125615,0.334328,0.757521,0.646131,0.093149
-0.163351,0.100710,0.306412,-0.808380,0.510072,0.293852
-0.302141,0.468409,0.892953,0.797456,0.070476,-0.599247
-0.315950,0.451021,0.861652,-0.645890,0.163107,-0.745803
-0.329212,0.434521,0.830989,-0.089803,0.815296,0.572039
-0.496885,0.318006,0.847118,0.494204,-0.154587,-0.855491
-0.552289,0.267714,0.800326,0.572005,0.170226,0.802392
-0.577542,0.243686,0.774442,0.833817,-0.292032,0.468473
-0.722324,0.140558,0.779141,0.760547,-0.446057,0.471807
-0.377531,0.219563,0.842936,0.599274,0.445030,-0.665447
-0.202956,0.302579,0.666205,0.947445,0.063509,-0.313551
-0.550288,0.463622,0.924810,0.859921,0.432117,0.271683
-0.680723,0.351607,0.841184,0.880051,0.038931,-0.473281
-0.635668,0.484324,0.702364,0.583650,-0.778535,-0.230731
-0.721049,0.617244,0.706943,0.373557,0.098419,0.922371
-0.892902,0.489891,0.685917,-0.106262,-0.511787,0.852515
0.831599,-0.611343,-0.948343,-0.233163,0.304793,0.923437
0.890092,-0.558411,-0.950693,-0.237586,0.733186,0.637175
0.414870,-0.683218,-0.959931,0.919070,0.100017,-0.381191
0.474271,-0.630579,-0.958577,-0.322379,-0.035388,0.945949
0.533857,-0.577647,-0.959971,0.245269,-0.495520,-0.833249
0.593442,-0.534776,-0.929348,0.111836,0.991137,0.071696
0.646125,-0.474030,-0.970405,-0.254672,0.124562,0.958972
0.705887,-0.421879,-0.967537,-0.179687,-0.128199,0.975335
0.600161,-0.822195,-0.930184,0.059644,-0.850047,0.523319
0.658659,-0.768184,-0.935919,-0.457458,-0.862824,-0.215099
0.717696,-0.713791,-0.943923,-0.137318,-0.186113,0.972885
0.774919,-0.663393,-0.941773,-0.102461,0.069558,0.992302
0.406515,-0.411817,-0.976856,0.898829,0.128474,-0.419048
-0.740486,0.351410,0.742107,0.640222,0.626051,0.445169
-0.693801,0.373286,0.819043,-0.828889,0.549371,0.105526
-0.643845,0.443111,0.719049,0.988516,-0.077008,0.130024
-0.594977,0.472021,0.775318,0.053198,0.513394,0.856502
-0.760288,0.550930,0.698422,0.887426,0.024897,0.460277
-0.664735,0.631115,0.716819,0.999339,-0.032582,-0.016129
-0.615139,0.670569,0.734221,-0.684480,-0.728956,0.010542
-0.610965,0.255697,0.812114,0.765847,-0.640845,0.052878
-0.560644,0.301208,0.807335,0.458791,-0.826570,-0.326026
-0.514320,0.331483,0.853051,-0.453693,0.409414,0.791545
-0.466183,0.363421,0.896497,-0.539204,0.389258,-0.746818
-0.418040,0.400730,0.919514,0.013627,0.762238,0.647154
-0.364087,0.472313,0.820835,0.344138,0.440046,0.829415
-0.218762,0.601227,0.822109,0.874338,-0.360649,0.324755
-0.121756,0.681894,0.844210,0.716237,-0.231198,0.658446
0.157093,0.893527,0.990716,-0.156084,-0.356153,0.921300
-0.484893,0.083424,0.799928,0.858790,0.162733,-0.485797
-0.433846,0.144266,0.735058,-0.443463,0.640216,0.627267
-0.543569,0.174935,0.776592,-0.330182,0.628477,-0.704271
-0.491978,0.239490,0.698660,0.374102,-0.927387,0.001110
-0.443658,0.263416,0.776911,0.128856,-0.644392,0.753760
-0.393697,0.308826,0.772889,0.274785,0.929499,-0.246018
-0.248188,0.431785,0.797300,0.645693,0.738109,-0.195641
-0.152092,0.510206,0.826689,0.689588,-0.697799,-0.193766
-0.004765,0.636777,0.843693,-0.362117,-0.073802,0.929206
-0.689804,0.047683,0.767752,-0.770087,-0.631916,0.087459
-0.642027,0.087037,0.781371,0.795842,-0.174755,0.579737
-0.591889,0.133918,0.769783,0.161628,0.237747,0.957785
-0.658925,0.209704,0.825375,-0.092039,-0.956058,-0.278354
0.008497,0.386763,0.876626,0.882916,-0.469305,-0.014580
0.060270,0.439695,0.845286,0.413225,-0.905449,0.096987
0.105685,0.465577,0.907846,0.932938,-0.295472,0.205727
-0.477625,-0.025176,0.794552,0.787123,0.503342,-0.356489
-0.278347,0.180305,0.672179,-0.294584,-0.953312,0.066452
-0.228386,0.219372,0.693683,0.265034,-0.576941,0.772590
-0.176795,0.269175,0.674847,0.972930,0.220279,-0.069884
-0.138105,0.247787,0.913819,0.043973,0.675405,0.736135
-0.089602,0.295646,0.893391,0.222475,-0.867078,0.445736
-0.036736,0.358927,0.825096,-0.073249,-0.698616,0.711738
-0.333935,0.256186,0.634069,0.517851,0.853324,0.060560
-0.189695,0.351702,0.773168,0.518110,0.809259,0.276880
-0.144641,0.369084,0.870214,0.350709,-0.177654,-0.919480
-0.044364,0.468212,0.826490,-0.171972,0.958310,-0.228185
-0.191514,0.182940,0.652626,0.241949,0.868409,-0.432812
-0.140283,0.231580,0.639086,-0.311708,-0.932527,0.182293
-0.094868,0.223372,0.835410,-0.211869,-0.422657,0.881177
-0.045456,0.279529,0.787185,0.919257,-0.150126,-0.363907
0.000685,0.307950,0.838157,-0.703375,-0.703127,-0.104291
0.050640,0.350337,0.845286,0.448638,0.873373,0.189587
0.094969,0.370842,0.920271,-0.625986,-0.670340,0.398479
0.148738,0.440571,0.832782,-0.171386,0.500781,-0.848437
0.196332,0.471926,0.875192,-0.239824,-0.282180,0.928902
-0.210950,0.187434,0.628653,-0.679526,-0.569375,-0.462663
-0.160447,0.227574,0.647529,-0.028477,0.991078,0.130206
-0.118846,0.214782,0.856436,-0.664041,0.729249,0.165063
-0.066894,0.274843,0.799371,0.995693,-0.090568,0.019843
-0.018025,0.311759,0.825693,0.799947,0.451391,0.395387
0.031930,0.356489,0.824737,0.045013,0.254153,0.966116
0.076259,0.378853,0.894864,0.755340,0.542362,-0.367838
0.126031,0.435004,0.846162,0.169810,0.903429,0.393675
0.176530,0.480712,0.840985,0.439894,0.770827,0.460781
-0.239291,0.124053,0.626981,0.986706,0.136862,-0.087637
-0.187877,0.174935,0.605835,0.775410,-0.466472,0.425610
-0.139557,0.212243,0.628852,0.227939,0.702579,-0.674112
-0.042551,0.265562,0.757000,0.798988,0.453790,0.394579
0.003412,0.289000,0.825813,0.814849,0.573407,-0.085007
0.054094,0.337641,0.811397,-0.113335,0.863504,0.491442
0.101145,0.359612,0.887776,-0.612828,0.574060,-0.543045
0.150917,0.405027,0.882121,0.645221,-0.030737,0.763377
0.201056,0.462645,0.832304,-0.738627,-0.060399,0.671404
-0.292334,0.059694,0.789176,0.959204,0.156129,-0.235694
-0.241469,0.146025,0.621844,0.984049,-0.000918,-0.177897
-0.192967,0.134210,0.507235,0.734809,0.366397,0.570797
-0.143737,0.162631,0.565097,0.086590,-0.046328,0.995166
-0.092689,0.206187,0.572145,0.144006,-0.983896,0.105878
-0.046182,0.207164,0.726217,0.483540,0.630816,0.606845
0.003412,0.245546,0.749434,0.622443,0.653895,0.430101
0.048645,0.237827,0.933292,-0.711523,0.260477,0.652600
0.062449,0.377971,0.442365,0.989666,-0.135113,-0.048012
0.098966,0.287439,0.913740,0.904693,0.049269,-0.423205
0.145651,0.324843,0.930306,0.984319,-0.012203,-0.175973
0.292795,0.464206,0.894665,-0.604855,-0.770628,-0.200707
0.346021,0.528958,0.828719,-0.344788,0.815821,-0.464282
0.396342,0.573688,0.827604,0.547133,-0.558812,-0.623197
-0.133742,0.124250,0.346593,0.449844,0.762810,-0.464501
-0.084695,0.114677,0.551358,0.141640,-0.974756,-0.172597
-0.037279,0.056863,0.933133,0.838298,-0.413193,0.355709
0.064450,0.182159,0.798495,0.533978,0.427428,0.729502
0.116401,0.259608,0.677794,0.802857,-0.256006,-0.538407
0.167815,0.324354,0.603724,-0.106651,0.631990,-0.767603
0.417049,0.523683,0.687231,0.921276,0.331864,-0.202771
0.461194,0.540284,0.772252,0.388229,-0.916078,0.100399
0.513877,0.604839,0.705032,0.891925,-0.041767,-0.450250
-0.107037,0.096413,0.305377,0.976651,0.022395,0.213660
-0.001494,0.190462,0.303067,0.995606,0.061925,0.070238
0.091332,0.132839,0.832383,0.798848,-0.600315,0.038252
0.198877,0.317713,0.491227,-0.664918,0.025043,-0.746496
0.243023,0.291349,0.738960,-0.574740,0.798823,-0.177640
0.294791,0.347893,0.700174,0.677306,-0.722606,-0.138194
-0.077793,0.104227,0.321306,-0.635106,0.701854,-0.322553
0.073531,0.102272,0.817410,-0.529338,0.828194,0.184112
0.122400,0.156378,0.777070,0.822196,-0.052311,-0.566796
0.176712,0.281776,0.495289,0.750435,-0.257405,-0.608761
0.275171,0.301894,0.739797,0.587884,-0.801477,0.109664
0.323857,0.344668,0.741509,-0.675138,0.721380,-0.154268
-0.018935,0.112626,0.257829,-0.629178,0.342510,-0.697726
0.034835,0.147395,0.302948,0.856347,0.366332,-0.363966
0.141110,0.092801,0.817768,-0.576399,-0.812500,-0.087227
-0.074157,0.104913,0.305337,0.763956,0.122167,0.633598
0.084070,0.100615,0.814344,-0.540773,0.841168,-0.000205
0.134569,0.157159,0.771774,-0.514794,-0.051352,0.855774
0.187252,0.278944,0.506957,0.817775,-0.075024,0.570627
0.282256,0.291736,0.758314,-0.157067,-0.919895,0.359338
0.332217,0.330023,0.780177,0.810659,0.138184,-0.568978
-0.058534,0.017307,0.161141,-0.446568,0.747478,-0.491786
-0.005674,0.050902,0.206140,0.261729,-0.905347,0.334432
0.047009,0.076200,0.280289,0.875850,-0.481361,-0.034312
-0.017665,-0.008766,0.135137,-0.101021,0.939675,-0.326812
0.037563,0.025610,0.183800,-0.127452,-0.934367,-0.332737
0.551841,0.289781,0.837122,0.907264,0.420469,-0.008784
-0.017482,-0.018827,0.078391,0.597323,0.628150,-0.498630
0.038655,-0.001148,0.183800,-0.465934,-0.047436,-0.883547
0.000142,-0.014142,0.099855,0.540940,0.464534,-0.701136
0.056639,0.009492,0.183919,-0.699630,0.336670,0.630215
0.581816,0.271422,0.841383,0.907264,0.420469,-0.008784
-0.010757,0.021998,0.172650,0.928259,0.355370,-0.109759
0.045734,0.055981,0.221711,0.950630,0.033412,0.308521
-0.016933,-0.007204,0.124425,-0.207140,0.679894,0.703447
0.039558,0.022481,0.188300,-0.582257,-0.801865,0.134123
-0.037279,0.015549,0.157756,-0.229316,0.708485,-0.667430
0.019762,0.046801,0.214065,-0.738998,-0.200698,-0.643119
-0.034740,0.001583,0.157199,-0.267110,0.440362,-0.857166
0.021397,0.036936,0.198216,-0.781757,-0.618129,0.082299
-0.128658,-0.078501,0.019932,-0.159721,-0.985618,0.055190
-0.013845,-0.008867,0.108457,-0.305364,-0.947527,0.094582
0.044831,0.017110,0.180495,0.416650,-0.672563,-0.611605
0.053728,-0.022732,0.052706,0.327618,0.944781,0.007377
-0.045273,-0.070585,0.057763,0.042488,-0.945093,0.324027
0.011767,-0.031721,0.091094,0.860087,0.505783,-0.066584
0.092424,-0.044804,-0.026142,0.846822,0.439572,-0.299448
0.155280,-0.020294,0.058042,0.533974,0.837649,-0.114960
0.164361,-0.066878,-0.035182,-0.474314,-0.778676,-0.410720
0.311322,-0.113556,-0.258703,0.709702,0.702563,0.052239
0.347290,-0.357711,-0.612165,0.806886,0.326970,0.491962
0.415413,-0.330953,-0.517786,0.839797,-0.346542,-0.417912
0.322770,-0.232123,-0.387209,0.254760,0.905964,0.338121
0.490803,-0.425396,-0.721078,0.896823,0.131003,0.422548
0.874469,-0.718280,-0.941812,0.404505,-0.053203,-0.912987
0.800898,-0.767796,-0.943087,0.369781,0.448087,-0.813929
0.922612,-0.480378,-0.955232,0.200933,-0.171047,0.964556
0.846130,-0.532428,-0.957343,-0.492502,0.485910,-0.722034
0.776371,-0.578529,-0.950414,-0.386412,0.099070,0.916990
0.699712,-0.630191,-0.952047,0.365512,0.746026,0.556639
0.621782,-0.684297,-0.960250,0.273589,-0.280842,-0.919933
0.548936,-0.733128,-0.960489,-0.019326,0.121824,-0.992364
0.477177,-0.780201,-0.954914,-0.629527,-0.266879,-0.729706
0.410873,-0.823756,-0.946989,-0.325120,0.912144,0.249580
0.348383,-0.863115,-0.929985,-0.184022,0.276331,0.943280
0.781278,-0.403323,-0.973152,-0.622760,-0.769538,0.141354
0.711337,-0.450294,-0.970683,-0.065437,-0.141984,0.987704
0.636861,-0.499912,-0.969250,0.582179,0.802389,0.131302
0.585814,-0.529889,-0.941494,-0.100669,0.894711,0.435154
0.500250,-0.589467,-0.955471,0.773438,-0.055615,0.631428
0.418501,-0.646107,-0.964113,-0.520148,0.674562,0.523844
0.645399,-0.366795,-0.982590,-0.303080,-0.448824,-0.840654
0.574732,-0.412991,-0.975820,0.810704,0.188569,-0.554257
0.502977,-0.460845,-0.975064,0.012801,0.774019,0.633033
0.437217,-0.503816,-0.966462,-0.175581,0.418570,0.891050
-0.450377,0.976639,0.982991,0.098219,0.718338,0.688726
-0.656923,0.702406,0.738044,0.750828,-0.554674,0.358600
-0.743939,0.637165,0.706027,-0.278345,-0.133128,-0.951210
-0.812427,0.590092,0.701567,0.576458,0.665864,-0.473626
-0.647843,0.604839,0.711563,0.774456,0.463967,-0.430061
-0.728134,0.546143,0.688267,0.929667,-0.094313,0.356124
-0.788988,0.506397,0.693603,-0.477997,0.744435,-0.466193
-0.634759,0.514992,0.690935,0.456193,-0.561348,-0.690490
-0.713420,0.457566,0.670586,0.400482,0.051938,0.914832
-0.582625,0.500829,0.682334,0.368754,-0.330863,0.868648
-0.631854,0.472313,0.702444,-0.431410,0.732301,0.526898
-0.833134,0.366938,0.843175,-0.234594,0.827626,-0.509903
-0.318489,0.664608,0.814224,-0.049682,-0.568608,0.821107
-0.549562,0.481886,0.681418,0.717786,0.468189,0.515347
-0.598430,0.452881,0.698700,0.710834,0.430254,0.556414
-0.789354,0.356489,0.853210,0.337396,0.941082,-0.022982
-0.189512,0.708557,0.838078,0.693586,0.357855,-0.625202
-0.556287,0.433252,0.697107,0.653584,0.340698,0.675835
-0.635491,0.407566,0.832184,-0.118198,-0.667653,0.735030
-0.700160,0.363814,0.831507,0.881629,-0.262205,0.392401
-0.672003,0.404634,0.941217,0.890604,0.105336,-0.442413
-0.071251,0.660019,0.828560,-0.076265,-0.697929,0.712095
-0.133564,0.617637,0.827047,-0.069732,0.624855,0.777620
-0.205678,0.566559,0.816295,0.072150,-0.719109,0.691142
-0.262724,0.529835,0.822428,0.869258,0.010757,-0.494242
-0.458548,0.364107,0.658321,0.742392,0.632377,-0.221256
-0.334838,0.495655,0.891838,0.866231,-0.461958,-0.190365
-0.471083,0.386173,0.803632,0.867520,-0.291994,0.402675
-0.519409,0.357168,0.821273,0.041762,0.855489,0.516134
-0.560101,0.334905,0.846958,0.075272,0.179106,0.980946
-0.588801,0.324062,0.889488,-0.050786,0.059566,0.996932
-0.684354,0.251888,0.849626,0.782304,-0.621693,0.038701
-0.770278,0.189097,0.824379,-0.393268,0.768270,-0.505076
-0.167897,0.514211,0.821352,-0.385604,-0.824308,-0.414519
-0.330121,0.412544,0.856077,0.572390,0.816739,0.072857
-0.461642,0.307169,0.774163,-0.395536,0.910523,-0.120412
-0.460910,0.323573,0.853210,0.407655,-0.367527,-0.835908
-0.546291,0.260293,0.824936,0.137752,-0.956667,0.256542
-0.639848,0.190170,0.787942,0.909010,-0.040213,0.414830
-0.713787,0.138603,0.777827,-0.723138,0.508934,-0.466967
-0.730313,0.138114,0.831427,-0.598371,0.707849,0.375370
-0.203682,0.355803,0.712120,0.547968,0.762725,0.343483
-0.252551,0.343107,0.809008,-0.187773,-0.062640,0.980213
-0.385525,0.236170,0.724983,-0.260378,0.916097,-0.304910
-0.388796,0.249743,0.800406,0.974607,-0.091467,-0.204391
-0.483618,0.178255,0.764048,0.427380,-0.904069,-0.002211
-0.671636,0.052953,0.768429,0.901202,0.347444,-0.259071
-0.346469,0.200912,0.746646,-0.382433,-0.484439,0.786806
-0.360090,0.204721,0.808928,-0.676903,-0.704108,0.214556
-0.505056,0.103053,0.788141,0.212440,0.725871,0.654202
-0.611875,0.035768,0.812273,0.013862,0.264992,0.964151
0.029935,0.452195,0.739279,0.788558,-0.078624,0.609914
0.031570,0.470459,0.823264,-0.464278,0.741708,-0.484061
-0.234018,0.256288,0.647210,0.881175,-0.136543,0.452644
-0.255273,0.252866,0.701488,-0.166135,0.592420,-0.788314
-0.306321,0.221226,0.715505,-0.198763,0.698895,0.687051
0.105685,0.385589,0.421060,0.564891,-0.824684,0.028182
0.156184,0.498487,0.816136,-0.098105,-0.923384,-0.371130
0.133659,0.494189,0.868860,0.034627,-0.640322,0.767325
-0.005674,0.381393,0.773845,0.749731,-0.569100,0.337683
-0.030926,0.373775,0.822308,0.695566,-0.465711,-0.547084
-0.135017,0.308826,0.846560,0.764473,0.637055,-0.098702
-0.163717,0.298478,0.889966,-0.393401,-0.900974,-0.182979
-0.246919,0.236951,0.863763,-0.713370,0.691467,-0.113917
-0.356459,0.153058,0.810561,0.923617,0.303489,-0.234149
-0.453831,0.079711,0.771814,-0.265659,-0.248790,-0.931412
-0.496701,0.055885,0.797977,-0.583707,0.531867,0.613518
0.195789,0.393011,0.491187,-0.320193,-0.792827,-0.518557
0.165997,0.382370,0.538177,0.921945,0.275872,-0.271868
0.317138,0.538335,0.814145,0.859863,0.349547,-0.372092
-0.121756,0.148564,0.332735,0.452891,0.444643,-0.772776
0.210685,0.471532,0.838755,-0.660319,0.275215,0.698739
-0.121933,0.164974,0.417835,0.965689,0.043186,0.256085
-0.102679,0.198957,0.523045,0.832741,0.453778,-0.317220
-0.111943,0.206574,0.593889,-0.060674,0.958446,0.278748
0.064627,0.399847,0.971522,0.549772,0.824497,0.133996
-0.108673,0.271327,0.910156,-0.056105,0.048797,0.997232
-0.165535,0.235192,0.919235,0.482596,0.806404,0.341782
-0.397877,0.053835,0.793596,-0.665073,0.200326,0.719408
-0.469271,0.004414,0.786468,0.029097,0.437049,0.898967
0.378718,0.526806,0.675325,0.730880,0.593504,-0.336999
0.210685,0.387640,0.538576,0.457291,0.883052,0.105380
0.352563,0.534037,0.805065,-0.516918,-0.540321,0.663964
0.300972,0.502588,0.821352,-0.157936,0.901731,0.402414
-0.130470,0.108233,0.273400,0.267569,-0.943962,0.193242
0.224855,0.448189,0.805543,0.034441,0.438778,0.897935
-0.126656,0.127469,0.362801,0.788990,0.606260,-0.099716
0.203417,0.443212,0.855480,0.321371,-0.858679,0.399239
-0.115031,0.153255,0.457617,0.762643,-0.018863,-0.646544
-0.104859,0.177277,0.549288,0.674010,0.584494,0.451749
-0.092141,0.204625,0.646653,0.945234,0.210747,0.249235
0.044104,0.342814,0.889966,0.035192,0.290916,0.956101
-0.133198,0.226793,0.907806,-0.620185,-0.765325,0.172186
-0.277438,0.111160,0.810322,0.940210,0.311183,-0.138456
-0.345011,0.064379,0.804786,0.531874,-0.815662,0.227607
-0.414592,0.016919,0.799769,0.915978,0.156125,-0.369607
-0.491612,-0.037676,0.783800,0.774068,-0.381718,-0.505085
0.381629,0.524077,0.657604,0.696109,0.223031,-0.682414
0.188887,0.364005,0.490391,0.986863,0.086223,0.136630
0.323497,0.515385,0.824379,-0.464933,0.856272,-0.225022
0.242656,0.456880,0.802517,-0.041352,0.877871,0.477109
-0.108129,0.141631,0.364115,0.044416,0.907014,0.418753
0.176712,0.411858,0.800287,-0.436307,-0.414832,0.798468
-0.112126,0.152861,0.442246,-0.294155,-0.940404,0.170625
-0.090688,0.186653,0.550442,0.098622,-0.328277,0.939419
-0.086874,0.204327,0.632914,0.980473,0.164967,0.107041
0.078798,0.366252,0.910275,0.946020,0.091768,-0.310844
-0.082151,0.250428,0.867984,0.441793,-0.382424,0.811523
-0.101044,0.247108,0.921426,0.174793,-0.756090,-0.630694
-0.263993,0.116435,0.805503,0.947268,-0.278561,-0.158387
-0.325940,0.075318,0.809685,0.470920,-0.881476,-0.035140
-0.402783,0.020729,0.793278,-0.743035,0.647394,0.169647
-0.475630,-0.029962,0.782287,0.420909,0.899163,-0.119755
0.148738,0.368499,0.500824,0.395630,0.670410,0.627716
0.345295,0.555329,0.826131,0.784741,-0.495459,-0.372427
0.293338,0.522610,0.838038,0.106556,-0.742803,0.660976
-0.133015,0.146710,0.309160,0.057258,-0.993134,0.102011
0.208140,0.460791,0.811994,0.233834,-0.745155,0.624553
-0.135560,0.158137,0.388765,0.134791,0.798051,-0.587320
0.164727,0.434909,0.833897,-0.372947,-0.746715,-0.550752
-0.143915,0.163800,0.457020,0.628924,0.589711,-0.506652
-0.152635,0.170053,0.527545,0.011545,0.749826,-0.661534
-0.019478,0.299843,0.767832,-0.758531,0.592018,-0.272297
-0.013668,0.318304,0.852493,-0.464811,-0.073132,0.882385
-0.030743,0.316057,0.905776,0.232126,0.142850,0.962139
-0.178979,0.211462,0.879413,0.995287,-0.096949,0.001944
-0.290515,0.126395,0.821233,0.856603,-0.349221,0.379836
-0.372808,0.067896,0.801362,-0.292185,0.955260,0.045886
-0.481439,-0.001052,0.826131,0.824653,0.226904,-0.518133
0.183615,0.384904,0.454113,-0.534294,-0.795244,0.286562
0.160547,0.377679,0.507753,0.761066,-0.307023,-0.571415
0.343293,0.550054,0.816216,0.838167,-0.013150,-0.545255
0.283531,0.510402,0.821631,0.354779,0.867962,0.347525
-0.128841,0.152081,0.314656,-0.575259,-0.762056,-0.297233
0.239929,0.484425,0.843334,0.326732,-0.942774,-0.066501
-0.131020,0.162631,0.390875,0.306758,-0.944162,0.120239
-0.117210,0.186653,0.485134,-0.720427,-0.678077,-0.145591
-0.154814,0.167317,0.520456,-0.264791,-0.959072,-0.100336
-0.026020,0.290663,0.749912,-0.131915,0.936695,0.324348
-0.007852,0.318304,0.848153,0.922568,0.203141,-0.328027
-0.028925,0.312444,0.898846,-0.085088,-0.218531,0.972113
-0.068346,0.290270,0.927399,0.746974,0.488186,0.451336
-0.161356,0.221423,0.890722,-0.518747,-0.253359,0.816524
-0.307230,0.108328,0.794950,0.755925,0.008122,-0.654608
-0.360090,0.074638,0.808609,-0.592631,-0.031777,-0.804847
-0.487981,-0.011305,0.808769,0.762642,0.629035,-0.150636
0.090789,0.372505,0.399716,0.641795,0.644772,0.415172
0.109682,0.399847,0.501541,-0.495304,0.590685,0.636997
0.132024,0.463717,0.839352,-0.690809,0.719220,-0.074201
0.032113,0.390083,0.796822,-0.103155,0.771277,0.628085
-0.025653,0.352578,0.805105,0.570465,0.499726,0.651800
-0.030017,0.359028,0.871568,-0.338807,0.928705,-0.150724
-0.093416,0.316253,0.869577,0.553838,-0.760108,0.339853
-0.119572,0.305315,0.913620,-0.173216,-0.984856,-0.007354
-0.215491,0.234900,0.874515,0.297296,0.471655,-0.830154
-0.300328,0.174249,0.851259,0.911468,-0.310372,-0.269990
-0.436207,0.071020,0.771256,0.198431,-0.001235,0.980114
-0.486528,0.039869,0.788499,-0.695924,0.689508,-0.200668
0.141110,0.495363,0.847118,0.751724,0.531573,-0.390308
0.059000,0.436960,0.823224,0.807633,0.514972,0.287287
-0.021839,0.379730,0.803990,0.870300,0.147088,-0.470045
-0.073431,0.346820,0.816335,0.844980,0.121995,-0.520698
-0.121390,0.326893,0.908443,0.820745,0.002365,0.571290
-0.185698,0.283826,0.908523,0.878573,0.432702,-0.202182
-0.330847,0.173569,0.814981,0.756120,0.615992,0.220988
-0.411864,0.116042,0.793995,-0.435555,0.844762,-0.310915
-0.485802,0.065160,0.784597,0.346193,-0.620916,0.703288
-0.531760,0.036447,0.802795,0.977926,-0.018796,-0.208105
0.101505,0.385393,0.425600,0.481742,-0.668065,0.567109
0.094603,0.389690,0.497280,0.812442,-0.108356,-0.572884
0.250468,0.536964,0.833299,0.028630,-0.661643,0.749272
0.182528,0.491066,0.829237,0.062488,0.867749,0.493058
-0.030377,0.344376,0.803154,-0.686363,-0.629169,-0.364762
-0.044547,0.342033,0.860896,-0.417461,-0.397496,-0.817143
-0.090688,0.313714,0.879094,0.925626,-0.281152,0.253319
-0.140101,0.281973,0.893630,0.317357,0.072318,0.945545
-0.211127,0.233726,0.886541,0.857174,0.213646,-0.468623
-0.428030,0.075318,0.787344,0.676179,0.718811,-0.161533
-0.495066,0.029711,0.785473,0.089821,0.347755,0.933273
0.376905,0.539604,0.657365,0.670885,0.354531,-0.651322
0.202148,0.406100,0.525355,0.909494,-0.345236,0.231588
0.313324,0.515868,0.810680,-0.198209,-0.859124,-0.471826
-0.129201,0.163508,0.364911,0.103599,0.970702,-0.216808
0.230487,0.467037,0.864440,-0.647551,-0.365122,-0.668852
-0.139374,0.164777,0.431534,-0.553774,-0.816059,-0.165475
-0.112310,0.196322,0.537978,0.897149,0.238622,0.371730
-0.108129,0.209215,0.617463,0.014247,-0.998769,0.047523
-0.099409,0.234119,0.774362,0.381213,-0.737386,0.557618
-0.086331,0.253844,0.862608,0.677373,0.235852,0.696807
-0.119028,0.236557,0.898647,-0.527127,-0.272569,0.804887
-0.207863,0.173176,0.871369,-0.087270,0.893720,-0.440056
-0.341380,0.074048,0.793198,0.202621,-0.959356,-0.196419
-0.478168,-0.018827,0.784278,0.793730,0.576632,-0.193618
0.398704,0.420454,0.656250,0.811347,-0.171996,-0.558689
0.298970,0.348090,0.612246,-0.337528,-0.233346,0.911935
0.008679,0.108424,0.264121,0.933478,0.328591,-0.143687
-0.093050,0.034206,0.220436,-0.254099,0.960889,-0.110120
0.164727,0.276405,0.756084,-0.386529,0.579102,-0.717800
0.073531,0.211164,0.726018,0.938606,-0.344196,0.023385
-0.013485,0.167704,0.843374,0.840040,0.369722,-0.397036
-0.223119,0.024633,0.824578,0.778183,-0.623005,-0.079348
-0.306504,-0.033575,0.804985,0.638382,0.105606,-0.762441
0.112404,-0.014142,-0.060270,0.925627,-0.238234,0.294041
0.121491,0.004807,0.034149,-0.010135,0.970016,0.242829
0.079346,-0.018732,0.067758,0.922506,-0.178225,0.342373
0.039015,-0.041777,0.099417,0.724082,0.647353,-0.237991
0.479538,0.346331,0.789017,0.796132,-0.182127,-0.577065
0.404880,0.294961,0.777628,-0.412562,-0.129990,-0.901607
0.163091,0.134306,0.790490,0.663412,0.530281,0.527907
0.261910,-0.173325,-0.422771,0.968731,0.151739,0.196303
0.290433,-0.136118,-0.297411,-0.460428,0.482213,-0.745303
0.279168,-0.132798,-0.220872,0.005546,0.138423,0.990358
0.383808,-0.275285,-0.519260,-0.112662,-0.983854,0.139064
0.395433,-0.251066,-0.413094,0.510376,0.850097,0.129811
0.389983,-0.187882,0.025945,0.718568,0.659799,0.219830
0.471910,-0.456744,-0.817886,-0.355075,0.913942,-0.196551
0.476999,-0.420806,-0.616824,0.423225,-0.319370,-0.847870
0.449386,-0.687319,-0.966144,-0.381443,-0.347478,0.856598
0.636312,-0.526867,-0.956148,-0.007875,0.557430,0.830186
0.710250,-0.460553,-0.962361,-0.299704,-0.281551,-0.911541
0.762933,-0.410452,-0.980838,0.607415,-0.166045,-0.776837
0.444662,-0.825318,-0.970126,-0.663345,0.655312,-0.361302
0.653936,-0.648157,-0.948343,0.468578,0.876816,0.107836
0.809618,-0.510748,-0.957542,0.627467,-0.174801,0.758769
0.878833,-0.448440,-0.964591,0.656550,0.752772,0.047708
0.433946,-0.395801,-0.966422,0.639188,-0.297667,-0.709108
0.488808,-0.344627,-0.981913,0.737140,-0.193218,-0.647527
0.470275,-0.517389,-0.966622,-0.038267,0.123349,0.991625
0.622142,-0.382424,-0.975582,-0.044720,0.762551,0.645380
0.349292,-0.226162,-0.447301,0.271377,0.733053,-0.623689
0.294430,-0.065805,-0.002607,-0.445989,0.542531,0.711866
0.213230,-0.082012,-0.213664,0.846197,0.147426,0.512071
0.172716,-0.100472,-0.278853,-0.401428,-0.736075,0.545022
0.160003,-0.061405,-0.003085,0.146868,0.017709,0.988998
0.156550,-0.042366,-0.088543,0.827015,0.525344,0.200150
0.111501,-0.064338,-0.153533,0.836767,0.398402,-0.375627
0.096238,0.000802,0.066564,-0.626656,0.059296,-0.777037
0.114766,0.024925,0.035662,0.166662,0.982988,-0.077191
0.057365,-0.006131,-0.036177,-0.619290,-0.319481,-0.717225
0.000685,0.028829,0.189495,0.374603,0.865322,-0.333002
0.003230,0.042116,0.149513,-0.319740,-0.941522,0.106316
-0.069256,-0.000075,0.070705,0.595359,-0.684553,-0.420636
0.213590,0.227282,0.879692,0.461554,-0.530117,0.711298
0.025754,0.109109,0.714191,0.689544,0.427809,0.584388
0.082251,0.161165,0.702523,0.777987,0.264849,0.569729
0.329489,0.354146,0.783362,0.099626,-0.190040,0.976709
0.399064,0.468212,0.587039,0.080345,0.681843,0.727073
-0.078702,0.128542,0.309001,-0.432452,-0.383109,0.816219
-0.123934,0.106475,0.245445,0.883849,0.403348,-0.236900
0.061905,0.279725,0.876586,0.651682,-0.427247,-0.626714
0.146920,0.373966,0.805463,-0.597652,0.801727,-0.006815
-0.087057,0.213024,0.653622,0.904243,-0.329107,0.272091
-0.157902,0.171418,0.581504,0.827940,0.329956,-0.453480
-0.140466,0.195249,0.550562,0.818793,0.562112,0.116654
-0.163351,0.189580,0.499669,0.510307,0.825118,0.242418
-0.191148,0.180699,0.446905,0.410489,-0.904965,-0.111970
-0.228025,0.164580,0.390238,-0.414698,-0.896517,0.155828
0.064085,0.388713,0.496165,0.558906,-0.217546,-0.800186
-0.302690,0.120536,0.811756,0.674803,0.737988,-0.003786
-0.152452,0.241344,0.846201,0.472770,-0.260261,0.841874
-0.006583,0.359612,0.877661,0.707727,-0.689098,0.155775
-0.030560,0.352286,0.829516,0.029036,-0.994866,0.096947
-0.022749,0.368893,0.794831,0.803493,0.255266,-0.537810
-0.197507,0.251793,0.672258,0.432787,0.573285,-0.695730
-0.246736,0.226793,0.609220,-0.395974,-0.917092,-0.046331
-0.378258,0.165361,0.858148,0.615035,-0.389748,-0.685440
-0.270896,0.255018,0.870732,-0.254838,0.910124,-0.326699
-0.176252,0.335197,0.877422,-0.475392,-0.152611,-0.866436
-0.355007,0.214878,0.754213,0.138614,0.869073,0.474866
-0.135926,0.386567,0.822069,-0.202442,0.553527,-0.807852
-0.349008,0.240855,0.683090,0.827807,-0.288293,-0.481272
-0.151366,0.396527,0.739279,-0.084268,0.812877,-0.576306
-0.565550,0.155013,0.799928,0.818058,0.543214,-0.188941
-0.518317,0.200518,0.783920,0.084861,-0.417184,0.904851
-0.498154,0.225619,0.756482,0.700705,0.680143,0.215449
-0.418589,0.295057,0.755925,-0.226070,0.970285,0.086251
-0.172438,0.497122,0.796822,0.508373,0.423475,-0.749817
-0.391884,0.347404,0.654259,0.782722,0.622370,0.001435
-0.682536,0.165558,0.797499,0.632763,-0.527068,0.567283
-0.600066,0.236849,0.797977,0.817779,-0.115866,-0.563749
-0.353189,0.428072,0.878019,-0.542015,0.569153,0.618291
-0.424765,0.386078,0.807455,-0.673979,0.388326,0.628455
-0.326484,0.479931,0.779499,0.427011,-0.381270,0.819936
-0.365180,0.462257,0.722753,-0.261039,-0.692072,0.672974
-0.635308,0.305017,0.843494,0.908051,0.016061,-0.418551
-0.547749,0.379831,0.846600,0.694283,0.414591,-0.588290
-0.492704,0.442431,0.796583,-0.461009,0.583248,0.668799
-0.646934,0.285972,0.874356,0.402620,0.912693,-0.069919
-0.769008,0.297989,0.913581,0.886611,0.159799,0.434034
-0.637847,0.404539,0.937036,-0.130264,0.684447,-0.717331
-0.701252,0.379044,0.834693,-0.641047,0.764949,0.062538
-0.619685,0.460594,0.798853,0.428329,-0.870362,-0.242908
-0.639483,0.479245,0.673811,0.495499,0.596478,-0.631423
-0.721049,0.538823,0.689462,-0.714538,-0.319590,-0.622333
-0.819330,0.680428,0.726456,0.364494,0.774830,-0.516510
-0.505422,0.978689,0.980522,0.098219,0.718338,0.688726
0.468822,-0.481547,-0.972117,0.379473,0.079544,-0.921777
-0.307230,0.401022,0.767832,0.873318,-0.203532,0.442595
-0.436390,0.313416,0.772968,0.164586,-0.793959,0.585269
-0.464907,0.296129,0.805822,-0.603507,-0.621184,0.499910
-0.362818,0.370353,0.878338,-0.106727,-0.313084,0.943710
0.037563,0.322893,0.468329,0.996524,-0.070784,-0.043925
-0.188969,0.167024,0.443838,-0.418900,0.622990,0.660611
-0.159176,0.191637,0.495408,0.860011,0.504179,0.078638
-0.107403,0.232259,0.553509,0.832389,-0.532937,-0.152007
-0.149003,0.206384,0.584729,-0.551609,0.807604,-0.208576
-0.177161,0.189974,0.618459,0.658626,-0.750633,0.052555
-0.158634,0.207260,0.667639,0.689348,-0.077937,-0.720225
0.049554,0.357955,0.772849,-0.642498,-0.157994,-0.749823
0.011041,0.334219,0.804508,0.629779,0.753625,0.188225
-0.025836,0.312146,0.834693,-0.557595,-0.809044,0.185836
-0.079606,0.277574,0.859980,0.275210,-0.065638,0.959141
-0.220940,0.181968,0.861533,0.314910,-0.131175,0.940013
-0.103771,0.267810,0.936518,-0.077750,-0.474984,0.876553
0.091698,-0.000760,-0.010094,0.937632,-0.317527,0.141500
0.097147,0.008032,0.037892,-0.111262,-0.253054,0.961033
0.062992,-0.012187,0.071303,0.866293,0.205337,0.455382
0.173625,0.126885,0.721439,0.073557,-0.886684,0.456487
0.001777,0.092115,0.213627,0.496847,0.736438,0.459131
0.002864,0.097784,0.259462,0.847739,0.334678,0.411496
0.049371,0.168390,0.665409,0.197028,-0.848387,-0.491345
0.130755,0.230113,0.733186,0.772353,-0.624863,0.114089
-0.421311,0.282849,0.744536,0.843739,0.273400,-0.461906
-0.453648,0.261950,0.802039,0.045571,0.713457,0.699215
-0.461276,0.184507,0.803393,-0.174929,0.933823,-0.312050
-0.255639,0.390471,0.767951,-0.181034,0.634435,0.751478
-0.452012,0.259214,0.724585,0.971015,-0.189645,-0.145483
-0.291968,0.375921,0.821910,0.631756,0.059643,-0.772870
-0.456187,0.260293,0.715983,0.741443,-0.663064,0.103002
-0.239107,0.171322,0.578238,0.494197,0.817922,0.294571
-0.286884,0.166732,0.478046,0.233252,0.925852,-0.297307
-0.189695,0.247984,0.848073,0.044483,0.892939,0.447974
-0.089419,0.342230,0.827804,0.027571,0.997192,-0.069628
-0.299236,0.223276,0.650317,-0.363675,0.036908,0.930794
-0.075432,0.334320,0.767951,-0.202148,0.557488,0.805197
-0.268534,0.214878,0.634388,-0.628589,-0.766684,-0.130662
-0.344834,0.209799,0.839432,0.781827,0.039028,-0.622273
-0.212586,0.328461,0.826290,0.919650,0.387762,0.062326
-0.237289,0.245933,0.851179,-0.717572,0.696465,0.005183
-0.157541,0.321815,0.827366,0.075860,-0.616380,0.783786
-0.298510,0.256288,0.663816,0.149310,-0.757402,0.635648
-0.140826,0.101688,0.229795,0.998451,0.048433,-0.027366
0.034835,0.184209,0.733704,0.644776,-0.493285,0.583895
-0.046365,0.193198,0.747960,0.999000,-0.012471,-0.042931
-0.143005,0.163019,0.594326,0.906567,0.409903,-0.100576
-0.112310,0.202867,0.559124,0.965350,-0.065290,0.252659
-0.221123,0.149541,0.445710,-0.157503,-0.977851,0.137839
0.646485,-0.703825,-0.951848,-0.328842,0.493286,0.805315
0.708249,-0.674528,-0.954317,0.788607,0.070663,-0.610824
0.401426,-0.433205,-0.972356,0.942262,-0.221671,0.251007
0.549663,-0.491901,-0.974944,0.497931,-0.495202,-0.711927
0.548570,-0.455861,-0.976458,0.333155,-0.042534,-0.941912
0.721692,-0.514170,-0.954436,-0.689217,-0.072145,0.720954
0.441031,-0.371778,-0.975343,0.928538,-0.280901,0.242719
0.062449,0.426218,0.432210,0.893654,-0.103850,0.436575
0.161273,0.412836,0.491346,0.232909,0.946439,-0.223623
0.330581,0.408538,0.637653,0.031716,-0.964193,0.263298
0.382899,0.394477,0.652825,0.960726,-0.118633,-0.250861
0.194697,0.508549,0.875511,-0.255935,0.283894,-0.924068
-0.200777,0.591070,0.816733,0.887468,-0.278368,-0.367304
0.035927,0.491846,0.800685,0.580859,0.200610,-0.788897
0.368363,0.358247,0.791844,0.660659,0.325444,-0.676474
0.485720,0.314882,0.796981,-0.515021,0.651468,0.557085
0.126574,0.490577,0.881444,0.638646,0.614222,-0.463534
-0.029467,0.457178,0.856237,0.832483,0.455061,-0.316057
-0.626771,0.678676,0.719408,-0.377048,-0.032946,0.925608
-0.255091,0.568413,0.801282,0.387549,0.722609,-0.572400
-0.017116,0.468212,0.783959,0.841878,0.345641,-0.414457
0.221041,0.379146,0.793039,0.122280,0.554422,-0.823204
0.321495,0.343208,0.800884,-0.566153,-0.434154,-0.700701
0.107864,0.451808,0.860976,-0.232755,-0.533496,0.813146
0.051007,0.349944,0.791725,0.134318,-0.507216,0.851287
-0.002037,0.394089,0.848432,-0.710623,0.674495,-0.200179
-0.180432,0.486571,0.903187,-0.433367,0.078058,-0.897830
-0.077245,0.449167,0.909399,-0.165313,0.857528,0.487152
0.067538,0.403072,0.934208,0.862098,0.283029,0.420335
0.086974,0.299747,0.588592,-0.467949,0.819740,-0.330227
-0.295239,0.529346,0.781013,0.964090,0.039090,0.262684
-0.074882,0.335489,0.640520,-0.321953,0.108843,-0.940478
-0.087240,0.392820,0.765562,-0.709230,0.692110,-0.134075
0.006135,0.320843,0.777628,0.547531,-0.823292,-0.149668
-0.053085,0.358634,0.812711,0.393596,0.853932,-0.340416
-0.065619,0.374556,0.839631,0.683076,-0.425158,0.593842
-0.299596,0.492627,0.903943,0.348411,-0.907420,-0.234945
0.062814,0.345938,0.890125,0.124292,0.096890,0.987504
-0.534665,0.449459,0.667241,-0.243490,-0.478858,0.843450
-0.022205,0.273764,0.724823,0.774754,0.622520,0.110568
-0.128658,0.362640,0.840507,-0.580441,0.483286,-0.655380
-0.194236,0.402780,0.875550,0.390909,0.290370,0.873427
0.215952,0.203647,0.854325,-0.271803,0.806446,-0.525136
-0.059083,0.306388,0.913341,-0.664353,-0.438769,-0.605076
-0.020753,0.159305,0.665728,0.075933,0.495868,0.865072
-0.067437,0.190558,0.697984,-0.722092,-0.607155,-0.331580
-0.261632,0.289882,0.756801,-0.237031,0.794668,0.558855
-0.328485,0.388230,0.937593,0.295115,0.824145,-0.483418
-0.152635,0.318006,0.932775,0.790376,0.263140,0.553230
-0.128109,0.316545,0.953164,0.848679,0.456918,-0.266402
0.008136,0.140362,0.701090,-0.549830,-0.690411,-0.470127
0.065720,0.123761,0.716302,0.870130,0.390388,0.300785
-0.260362,0.340180,0.941615,-0.021391,-0.082766,0.996339
0.052093,0.107840,0.709253,-0.586083,-0.509335,-0.630147
0.092968,0.117800,0.775557,-0.509450,0.842945,0.172929
-0.522496,0.426903,0.952965,-0.309681,-0.182811,-0.933101
-0.095595,0.251209,0.928753,0.081119,-0.824495,0.560025
0.208323,0.088991,0.884232,0.288477,0.766265,-0.574124
0.852854,-0.527159,-0.954595,-0.105150,-0.120350,0.987147
0.918792,-0.554697,-0.950852,-0.414941,-0.391761,-0.821187
0.742405,-0.797386,-0.936914,-0.342231,0.938025,0.054656
-0.923055,0.147979,0.809366,0.520022,0.149143,-0.841031
-0.732857,0.065649,0.788141,0.857795,0.362652,-0.364241
-0.514868,-0.027715,0.780097,0.980179,-0.188717,0.060293
-0.859838,0.142901,0.805901,0.151695,0.245372,0.957487
-0.706878,0.075318,0.775438,0.843656,-0.514290,0.154107
-0.697798,0.073172,0.795667,0.530871,0.261130,-0.806218
-0.638939,0.048166,0.797420,0.795835,0.592931,0.122795
-0.485980,-0.017653,0.789893,0.756247,0.454022,-0.471120
-0.758835,0.124345,0.801441,0.870652,0.117336,0.477699
-0.665278,0.083818,0.792004,0.920438,-0.166066,0.353858
-0.521771,0.022189,0.787623,0.904737,0.354903,0.235575
-0.498697,0.013891,0.802198,0.958694,-0.182047,0.218553
-0.719596,0.131379,0.785274,0.842182,0.239275,0.483195
-0.501785,0.040453,0.801720,-0.662844,-0.568688,-0.487064
-0.567186,0.100514,0.782327,0.651869,0.043227,-0.757098
-0.505239,0.074340,0.783203,-0.679523,0.288907,-0.674375
-0.378075,0.020430,0.785752,0.500021,0.237754,-0.832738
-0.322670,-0.000760,0.812393,0.225449,0.729054,0.646261
-0.595886,0.148469,0.773526,-0.382217,-0.003576,0.924066
-0.471632,0.095632,0.774880,0.676152,0.075963,0.732836
-0.444928,0.085576,0.789057,0.506502,0.677469,-0.533378
-0.406415,0.076390,0.867626,-0.190803,0.451204,-0.871785
-0.210950,0.034498,0.838396,-0.542886,0.646242,-0.536327
-0.455461,0.177861,0.717974,0.870918,-0.127618,0.474569
-0.600975,0.246619,0.792402,0.437085,0.098913,-0.893965
-0.484350,0.195344,0.774561,-0.514711,0.467744,-0.718532
-0.513411,0.222400,0.943288,0.937197,-0.119031,-0.327861
-0.504513,0.256091,0.811198,-0.441628,0.819265,-0.365747
-0.495975,0.259608,0.898488,0.132102,-0.878065,-0.459947
-0.246919,0.147783,0.835688,-0.117558,-0.897768,0.424491
-0.107946,0.088115,0.833339,0.700194,-0.712728,-0.041809
-0.198776,0.156474,0.516753,-0.041032,-0.842779,0.536694
-0.541390,0.327775,0.828322,0.001219,0.237587,0.971365
-0.578811,0.346719,0.863604,0.398836,-0.916996,-0.006965
-0.515595,0.319865,0.864639,0.425705,-0.768978,0.476915
-0.511958,0.319865,0.886183,-0.439744,0.825074,0.354792
-0.084329,0.130401,0.805941,-0.688911,0.639027,0.342121
-0.078880,0.129811,0.827286,0.266216,0.247126,0.931696
-0.228751,0.228844,0.580070,0.641638,0.481626,-0.596939
-0.327027,0.280601,0.708656,-0.537987,0.435021,-0.722030
-0.234567,0.240366,0.699696,0.050512,-0.386950,0.920716
-0.125021,0.195344,0.731116,-0.330946,-0.383071,0.862399
-0.509962,0.374067,0.910395,-0.083906,0.961328,-0.262312
-0.055269,0.170732,0.798614,-0.857148,0.509269,0.077082
0.041743,0.128154,0.788499,0.095277,0.991474,-0.088896
0.099144,0.103834,0.792163,0.281072,-0.923008,0.262783
-0.011307,0.155794,0.851777,-0.517110,0.172055,0.838447
0.035561,0.136064,0.857869,-0.388910,0.156582,0.907872
-0.047452,0.207457,0.547137,-0.283836,0.436537,0.853740
-0.163174,0.261855,0.613163,0.848891,-0.405918,0.338547
-0.065442,0.222496,0.649640,0.988429,-0.143437,0.049326
-0.057808,0.220445,0.669750,0.869292,0.494274,0.005062
-0.318672,0.340567,0.785154,-0.365844,-0.215336,-0.905422
0.043195,0.179524,0.704674,0.844274,0.431890,0.317290
-0.044364,0.220934,0.758593,0.959497,0.144386,-0.241907
-0.158450,0.274253,0.821154,0.910905,-0.019293,0.412164
-0.390066,0.380904,0.922859,-0.077646,-0.837831,-0.540379
-0.332116,0.355898,0.924611,-0.348281,0.654353,0.671210
-0.188243,0.292422,0.898329,-0.764173,-0.265813,-0.587694
-0.127932,0.266737,0.899484,0.844243,0.068711,-0.531538
-0.013485,0.218001,0.906054,0.912294,0.371463,0.172440
0.060270,0.186069,0.903864,0.676528,0.707181,0.205439
0.062088,0.197591,0.346075,0.965411,-0.242723,-0.095221
0.031386,0.225816,0.577681,-0.675780,0.641016,0.363894
0.045008,0.221322,0.596158,0.394711,-0.768774,-0.503180
-0.451647,0.448291,0.796225,-0.452436,0.891065,0.036121
-0.397694,0.429735,0.868263,-0.380841,0.395960,0.835569
-0.107220,0.299551,0.789495,0.148388,-0.152708,0.977068
-0.299962,0.388230,0.878418,-0.283467,-0.424105,0.860105
-0.120847,0.310197,0.861573,0.137394,0.770544,-0.622402
-0.302141,0.393696,0.946115,0.098011,-0.633682,0.767360
-0.193692,0.346039,0.931620,0.362485,0.564234,0.741785
-0.041459,0.278843,0.902749,0.993588,-0.027696,-0.109612
0.003590,0.259995,0.909320,0.727995,0.317765,-0.607494
0.021031,0.253647,0.925089,0.755261,-0.423877,-0.499910
0.118763,0.220934,0.362840,0.713980,0.312852,-0.626383
0.055364,0.262731,0.581942,0.499817,-0.334428,-0.798962
-0.370990,0.459908,0.803313,0.642600,-0.764998,-0.042940
-0.209858,0.392820,0.837600,0.925753,-0.271633,0.263055
-0.007126,0.302675,0.789734,0.588147,-0.788774,-0.178658
-0.082694,0.338225,0.838715,-0.187821,0.833085,0.520282
-0.091597,0.343887,0.864719,0.904403,-0.222335,0.364173
-0.030017,0.317523,0.866391,0.353526,-0.474510,0.806139
-0.101044,0.350921,0.912306,-0.618381,0.483045,-0.619897
-0.023841,0.317421,0.907886,-0.267154,-0.144263,-0.952794
0.148373,0.238315,0.370765,0.764910,0.417850,-0.490218
0.095695,0.274939,0.585486,-0.603583,0.793462,0.078138
-0.310318,0.460689,0.753934,0.888884,0.178575,-0.421896
-0.345921,0.479734,0.811437,0.194751,0.217232,0.956495
-0.017299,0.333730,0.741868,-0.574044,0.156404,0.803748
-0.200595,0.419965,0.851697,0.705016,-0.232363,0.670045
-0.111400,0.380904,0.843773,-0.324157,-0.742426,0.586282
-0.041099,0.350725,0.841582,0.785858,-0.141350,-0.602037
-0.065985,0.363326,0.872046,0.875771,0.046652,-0.480467
0.033749,0.319472,0.860936,-0.636145,-0.509493,0.579427
0.056456,0.310781,0.875112,0.876205,-0.434761,-0.207960
0.029208,0.319668,0.349421,0.690242,0.457515,-0.560577
-0.009671,0.355511,0.633153,-0.422243,0.797798,-0.430383
-0.330298,0.504448,0.793557,-0.699920,0.689302,-0.187014
-0.026380,0.371039,0.755805,0.635416,-0.709326,-0.305128
-0.082694,0.399847,0.821034,-0.060829,-0.136551,0.988764
0.065354,0.334320,0.792203,-0.412866,-0.205961,0.887199
0.006501,0.362348,0.835370,0.081423,0.793539,0.603047
-0.106677,0.415083,0.896059,0.019720,-0.428270,0.903436
-0.027289,0.380707,0.891758,-0.347532,0.320370,-0.881240
-0.023658,0.380511,0.913103,-0.416932,0.499927,-0.759105
0.122034,0.316152,0.886501,0.434104,0.737940,0.516718
-0.692532,0.674867,0.730876,0.940572,-0.335142,0.054814
0.153096,0.301113,0.590145,-0.410165,0.553680,-0.724709
-0.244918,0.484032,0.755725,0.913237,-0.140503,-0.382436
-0.289972,0.506200,0.795150,0.288585,-0.956913,0.032190
-0.187877,0.466066,0.849148,0.524202,-0.253804,-0.812894
0.008679,0.378365,0.804149,0.334860,0.564181,-0.754698
0.146011,0.317618,0.779858,0.379836,-0.901189,0.208766
-0.041825,0.405999,0.889050,-0.224951,0.757083,0.613370
-0.009488,0.392820,0.899802,0.396425,-0.889606,-0.226823
-0.015121,0.397112,0.924372,-0.302218,0.825337,-0.476951
0.156184,0.320545,0.887975,0.745225,-0.556666,-0.367101
0.144742,0.329242,0.937633,0.993703,0.081964,-0.076393
0.452291,0.600053,0.687072,-0.869685,0.073164,0.488155
0.431036,0.550441,0.676281,0.973213,0.049494,0.224514
0.400339,0.578081,0.826290,0.472469,-0.417909,-0.775967
0.511149,0.531397,0.834613,-0.026674,0.296094,0.954786
0.411782,0.496043,0.667958,0.745592,0.260183,-0.613513
0.326767,0.547026,0.814583,-0.117964,-0.569654,0.813375
-0.063806,0.665097,0.834852,-0.142099,-0.677257,0.721894
0.271179,0.528273,0.899444,-0.636646,-0.277783,0.719388
0.668106,0.346624,0.786906,-0.057349,0.971586,0.229633
0.251377,0.458150,0.611570,0.993139,-0.097751,-0.064179
0.354015,0.417622,0.646772,0.747793,0.046622,-0.662293
0.379268,0.408443,0.661905,-0.754501,0.512888,0.409481
0.432671,0.386173,0.667241,0.708148,0.705450,-0.029436
0.164904,0.515284,0.806698,-0.163528,-0.986309,0.021309
0.217587,0.495262,0.833936,0.582330,-0.774496,-0.247081
0.139657,0.533840,0.883953,0.008722,-0.392721,0.919616
0.227943,0.495459,0.876586,0.079023,0.585834,0.806569
0.421228,0.408246,0.833658,0.442967,0.830314,-0.338170
0.554929,0.348382,0.810202,0.559664,0.717533,-0.414635
0.406149,0.341348,0.785592,-0.172180,-0.197487,0.965066
0.446480,0.325040,0.795190,-0.472859,0.681994,0.557933
0.200146,0.432763,0.504926,0.590738,0.724647,-0.354845
0.222677,0.434521,0.617662,0.967947,-0.105573,0.227887
-0.280525,0.671249,0.822507,-0.277191,-0.351238,0.894314
0.307325,0.400336,0.636140,-0.344896,0.904619,-0.250423
0.144015,0.487841,0.809923,-0.142650,-0.407363,0.902057
0.156916,0.484229,0.828759,0.613223,0.768301,0.183498
0.084973,0.520071,0.876864,-0.467306,-0.737392,0.487727
0.158546,0.488330,0.873679,-0.341306,-0.215854,-0.914832
0.468639,0.346719,0.789256,-0.599495,0.475583,0.643759
0.183980,0.406297,0.482705,0.331622,0.809453,0.484575
0.177622,0.411763,0.510103,0.980900,-0.191754,-0.032643
0.199420,0.404342,0.527147,0.772723,-0.629403,0.082162
0.233392,0.398089,0.611490,-0.517758,0.147689,0.842683
-0.222210,0.612362,0.798096,0.632259,0.609018,-0.478901
-0.210224,0.608940,0.817171,0.930429,-0.112563,0.348757
0.300972,0.387932,0.798614,0.481206,0.485794,0.729688
0.109865,0.405027,0.416999,0.979817,0.182531,0.081488
0.088971,0.417235,0.450210,0.916941,0.080846,-0.390747
0.139657,0.398775,0.482028,0.641699,0.741331,0.196600
0.175260,0.386763,0.516952,0.826402,-0.556344,-0.086842
0.251011,0.363617,0.611848,-0.556775,0.102716,0.824288
-0.219488,0.583941,0.803154,0.993346,0.113814,0.017595
-0.204226,0.579154,0.820357,0.056556,-0.633137,0.771971
