0.478666,0.584016,0.783436,-0.410288,-0.885165,-0.219425
0.426808,0.567740,0.738211,0.904718,-0.385542,-0.181228
0.368657,0.561908,0.728707,0.742267,-0.631310,-0.224692
0.276652,0.500772,0.539165,0.848458,-0.500708,0.171494
0.178100,0.596768,0.881901,0.494282,0.648385,-0.579035
0.139835,0.541350,0.701387,0.076268,-0.691898,0.717956
0.012207,0.570599,0.823656,0.369369,0.212878,-0.904571
-0.043047,0.555203,0.781291,0.938401,0.186599,0.290834
-0.104470,0.563337,0.820409,0.876717,-0.479939,-0.032036
-0.203022,0.484604,0.571371,0.564915,0.730413,0.383886
-0.326244,0.512866,0.689559,-0.359797,-0.849035,0.386892
0.660919,0.668132,0.789216,-0.348818,0.937045,-0.016477
0.646192,0.595231,0.545213,0.418328,-0.826585,0.376509
0.577218,0.605674,0.592822,-0.685766,0.314018,-0.656595
0.430710,0.650977,0.773217,-0.411797,-0.882419,-0.227510
-0.385021,0.499014,0.653957,0.252634,0.952311,-0.171113
0.284833,0.583022,0.568720,0.821274,0.061611,0.567197
0.198743,0.642071,0.785075,0.859782,0.505792,0.070355
0.127248,0.672864,0.902339,-0.655095,0.560002,-0.507197
0.079545,0.639104,0.796515,0.563963,0.819911,-0.098444
0.010448,0.676273,0.934903,-0.021362,-0.658512,0.752267
-0.090373,0.622722,0.771370,-0.521791,-0.214974,0.825542
-0.144998,0.611171,0.742352,-0.543317,-0.718678,0.433945
-0.202768,0.605124,0.732699,0.382490,0.718502,-0.580910
0.536436,0.680669,0.598453,0.898081,0.201975,0.390714
0.280051,0.706401,0.732014,0.118558,-0.566556,0.815450
0.218251,0.714865,0.772234,0.415158,0.073415,-0.906782
0.161864,0.712012,0.772383,-0.448787,-0.078000,0.890228
0.046066,0.707388,0.777567,0.145267,0.234447,0.961214
-0.071744,0.702006,0.780517,-0.325922,0.132093,0.936123
0.654750,0.772705,0.583229,-0.769909,0.386841,0.507537
0.596097,0.766658,0.572503,0.458001,-0.040615,0.888023
0.099054,0.794699,0.759572,0.028429,0.150881,0.988143
0.059030,0.734328,0.558322,0.276911,-0.137893,-0.950950
-0.018503,0.795142,0.782364,0.827525,0.556793,0.071997
0.004279,-0.199804,-0.973415,0.130527,-0.045970,0.990378
0.158715,0.300196,-0.988043,0.293976,-0.314717,-0.902514
0.164380,0.337365,-0.993585,-0.284715,0.148800,0.946993
0.116551,0.269631,-0.994330,-0.296529,0.185077,0.936919
0.220514,0.272161,-0.983336,-0.401119,0.118821,0.908287
0.144618,0.247523,-0.992274,0.519082,-0.140150,-0.843156
0.044806,0.100399,-0.418405,0.860002,-0.492126,0.134938
0.090750,0.194636,-0.986822,-0.338903,0.089040,0.936598
0.187538,0.198046,-0.983723,-0.363435,0.203411,0.909142
0.164757,0.212670,-0.982562,0.520145,-0.071967,-0.851041
0.076400,0.006161,-0.542373,0.740510,0.625663,0.245340
0.125738,0.032773,-0.687077,0.560684,0.828019,-0.004195
0.117180,0.044203,-0.754528,0.816741,-0.563511,0.124056
0.124606,0.053666,-0.809406,0.800796,-0.598938,-0.000543
-0.024921,0.075438,-0.974488,0.469307,0.120734,0.874742
0.147387,0.083351,-0.981102,0.201385,-0.216237,0.955346
0.251857,0.086432,-0.972313,0.345236,-0.061841,-0.936476
0.344493,0.090063,-0.971657,-0.123296,0.146952,0.981429
0.044806,0.071914,-0.386884,0.669097,0.742114,0.039701
0.065322,0.080056,-0.430948,0.770553,-0.609174,0.187498
0.070231,0.088962,-0.483741,0.895539,-0.444978,0.001998
0.137949,0.175723,-0.985869,-0.138550,0.185191,0.972887
0.232852,0.179568,-0.983694,0.458922,0.023772,-0.888158
0.325234,0.182871,-0.980953,-0.396236,-0.360621,0.844364
0.050722,0.131849,-0.989682,0.249374,0.156951,-0.955604
0.148270,0.134708,-0.983217,-0.353056,0.114874,0.928523
0.252991,0.137346,-0.971717,0.266091,0.403427,-0.875467
0.337191,0.141635,-0.977080,-0.121593,0.117369,0.985616
0.057647,0.029692,-0.381641,0.980432,-0.180259,-0.079117
0.059660,0.039256,-0.438068,0.939467,-0.308240,0.149634
0.060920,0.049263,-0.495628,-0.226914,-0.937462,0.263960
0.082315,0.057512,-0.540377,0.845365,0.247989,0.473138
0.087980,0.066747,-0.594123,0.249384,0.943749,0.217129
0.182126,-0.020672,-0.943891,-0.126456,-0.785184,0.606213
0.250471,-0.015725,-0.957714,0.775199,0.100520,0.623668
0.125235,0.005718,-0.803656,0.801758,-0.597414,0.016742
0.134550,0.015175,-0.858028,0.995750,0.087205,0.029606
0.100441,0.028699,-0.945946,0.122445,-0.986377,-0.109852
0.169538,0.034202,-0.961945,0.286952,-0.871086,-0.398583
0.244429,0.039477,-0.974011,-0.261041,-0.537016,-0.802166
0.335305,0.042665,-0.972313,-0.120034,0.109787,0.986681
-0.119700,-0.120520,-0.979552,0.152757,0.393314,0.906625
-0.114411,-0.081479,-0.982800,0.003333,-0.092050,0.995749
-0.024545,-0.078076,-0.981995,0.230725,0.110241,-0.966754
-0.083448,-0.158675,-0.974518,0.392344,0.224752,-0.891938
0.003649,-0.154279,-0.978122,-0.266196,-0.010610,0.963860
-0.103460,-0.869473,0.618116,0.282784,0.740248,0.609973
-0.041284,-0.865298,0.607569,-0.277687,-0.790027,-0.546578
-0.384394,-0.823291,0.650560,0.224517,0.807365,0.545668
-0.293391,-0.812512,0.610668,0.615473,0.634153,0.468020
-0.034489,-0.796458,0.579355,0.076289,0.849777,0.521593
0.015983,-0.753134,0.624581,0.508523,-0.853377,-0.114680
-0.003526,-0.743563,0.568451,-0.664610,-0.447074,-0.598681
-0.005665,-0.710140,0.654135,0.899076,-0.328818,0.289035
0.003399,-0.693864,0.565949,0.546432,-0.558122,-0.624429
0.394081,-0.687267,0.612992,0.872239,0.280231,-0.400836
-0.682821,-0.674951,0.612872,0.961477,0.063375,0.267481
-0.622151,-0.670884,0.603071,0.875398,0.022913,0.482859
-0.560605,-0.666595,0.592137,0.107901,0.289769,0.950995
-0.273882,-0.668239,0.661971,0.857628,-0.495843,-0.136434
0.119066,-0.661206,0.709341,0.037402,-0.240688,0.969882
-0.009691,-0.636024,0.541400,0.833323,-0.203695,-0.513889
0.116551,-0.636024,0.568153,-0.824810,0.527544,0.203435
0.405916,-0.639319,0.648445,0.185660,-0.463458,0.866451
-0.577471,-0.611614,0.577360,0.983523,-0.044994,0.175096
-0.475140,-0.609741,0.588562,-0.503430,0.428660,0.750206
-0.294651,-0.604466,0.598780,0.948256,0.237817,0.210364
-0.534174,-0.580935,0.417819,-0.361587,0.884437,-0.295003
-0.018756,-0.589949,0.577806,0.768835,0.286740,-0.571553
0.138702,-0.583351,0.576078,0.980310,-0.197395,0.005267
0.157331,-0.576203,0.539671,-0.604198,-0.723242,-0.334463
-0.469982,-0.544645,0.574350,-0.284590,-0.931128,0.228053
-0.412964,-0.540357,0.562493,0.117042,0.948878,0.293141
-0.328007,-0.537169,0.564668,0.232086,0.759691,-0.607458
0.113151,-0.549042,0.725310,0.918372,-0.390630,-0.063255
0.027817,-0.518913,0.540208,0.789422,-0.612217,0.044754
0.156829,-0.519356,0.570328,-0.467369,0.452926,-0.759226
0.219381,-0.514954,0.560407,0.899089,-0.436477,-0.033564
0.343863,-0.514846,0.586982,-0.198734,-0.891865,-0.406302
-0.559975,-0.508578,0.631255,0.945654,0.135880,-0.295425
-0.557079,-0.500658,0.588323,0.159181,-0.818659,0.551778
-0.450219,-0.499450,0.604381,0.849904,-0.521833,-0.073167
-0.321711,-0.491201,0.587489,0.027743,-0.480263,0.876686
-0.128888,-0.487241,0.606824,-0.567454,0.599528,-0.564414
-0.004029,-0.487027,0.632327,0.314164,0.917184,-0.245102
-0.017120,-0.478006,0.578343,0.509321,0.843174,-0.172192
-0.507740,-0.446341,0.293255,0.298687,0.853094,0.427804
0.025424,-0.472509,0.558143,-0.563164,0.786366,-0.253917
0.029576,-0.464704,0.515003,-0.779749,0.528437,-0.335776
0.221524,-0.468771,0.580815,0.965036,0.259896,-0.034041
0.199872,-0.459200,0.522153,0.613362,0.782712,-0.105587
-0.909250,-0.487684,0.697752,0.931364,-0.291187,-0.218568
-0.584896,-0.460301,0.614660,0.869418,0.033315,-0.492952
-0.475140,-0.458435,0.630808,0.380472,0.851768,-0.360183
-0.446570,-0.452167,0.601373,0.998229,-0.033456,-0.049182
-0.047326,-0.452824,0.694535,-0.459927,0.862827,0.209755
-0.069102,-0.443482,0.636349,0.725529,0.424076,-0.542002
-0.068095,-0.435784,0.592405,-0.089612,0.995932,-0.009424
0.066582,-0.427642,0.577121,-0.012105,0.999817,0.014833
0.147011,-0.424125,0.577389,0.064572,0.472166,-0.879141
0.212713,-0.420387,0.570567,0.559658,0.644769,0.520629
0.289615,-0.417528,0.570656,-0.515615,0.662432,0.543438
-0.613593,-0.418186,0.612038,0.946931,0.109062,-0.302370
-0.479800,-0.417635,0.641354,-0.572980,-0.290343,0.766417
-0.473001,-0.410709,0.601700,0.517526,0.732939,0.441552
-0.420389,-0.405541,0.585910,0.470978,-0.689011,-0.550857
-0.094902,-0.409058,0.679102,-0.466736,0.600080,0.649662
-0.135433,-0.398944,0.611830,0.885888,-0.319351,-0.336478
0.043927,-0.402246,0.670551,0.676874,0.690405,0.255308
-0.252864,-0.375635,0.452349,-0.294875,0.913791,-0.279346
0.223410,-0.389044,0.638405,0.979696,0.034880,-0.197429
0.047829,-0.361554,0.439925,0.923150,-0.125748,-0.363292
0.421649,-0.377722,0.616865,0.964669,-0.263234,0.011037
-0.530521,-0.388608,0.694713,0.915852,0.269956,-0.297218
-0.586908,-0.377614,0.619367,0.784710,0.365516,-0.500628
-0.455509,-0.377500,0.649339,0.958104,-0.102037,0.267630
-0.433856,-0.363319,0.572712,0.842565,-0.537241,-0.038174
-0.405413,-0.357272,0.544200,0.283452,-0.937329,0.202656
-0.377972,-0.351003,0.513663,0.319131,-0.935289,0.152939
-0.163500,-0.355620,0.589962,0.833464,0.327401,-0.445136
0.017999,-0.358150,0.648356,0.921104,0.373235,0.110735
-0.212966,-0.336707,0.469688,0.249457,-0.858171,0.448680
-0.153179,-0.332633,0.459261,0.959025,-0.135315,0.248919
0.210950,-0.346379,0.625505,0.765680,-0.249071,-0.593041
-0.063689,-0.321747,0.418087,0.936215,-0.042506,-0.348847
-0.005915,-0.317022,0.404055,-0.870104,0.317070,0.377340
-0.081689,-0.303827,0.309790,0.814109,-0.570292,-0.109519
0.287979,-0.310532,0.435397,0.640229,-0.482180,-0.598005
-0.520200,-0.348472,0.801729,0.630090,0.328866,0.703445
-0.579737,-0.338244,0.727605,0.674068,0.734162,-0.081482
-0.532538,-0.333298,0.709401,0.899551,0.436348,0.020194
-0.497799,-0.327687,0.686550,-0.126222,0.135886,0.982651
-0.448333,-0.322962,0.669449,-0.410755,0.753077,-0.513960
-0.481686,-0.313176,0.605961,-0.603169,0.452204,-0.657039
-0.397231,-0.310203,0.607897,-0.441125,0.841261,-0.312550
-0.384394,-0.303498,0.571431,-0.649462,0.755264,-0.088172
-0.341724,-0.298216,0.550963,-0.609700,0.674201,-0.416797
-0.210700,-0.298001,0.579445,0.875664,0.354508,-0.327927
-0.223663,-0.289310,0.527427,-0.269241,-0.215998,-0.938538
-0.135683,-0.286565,0.531508,0.762494,-0.251911,0.595939
-0.206670,-0.274356,0.442845,0.977584,-0.194055,-0.081685
-0.168409,-0.268195,0.417640,0.227690,-0.954344,0.193349
0.255506,-0.286229,0.621155,0.813157,-0.053530,-0.579578
-0.154689,-0.261269,0.379267,-0.016281,0.985773,0.167290
0.384390,-0.286565,0.652348,0.554877,-0.771475,-0.311347
-0.093392,-0.257094,0.368899,0.341501,0.900917,0.267815
-0.077283,-0.249725,0.329453,0.594831,0.288017,0.750481
-0.084204,-0.241148,0.277703,0.618171,0.770247,0.156793
-0.003272,-0.229053,0.226490,-0.670504,-0.724637,-0.159139
-0.083072,-0.214865,0.127012,-0.102718,0.992938,-0.059348
-0.518817,-0.293927,0.796485,0.921791,-0.364004,-0.133426
-0.539206,-0.285464,0.741845,0.788328,-0.593174,-0.163350
-0.528006,-0.278645,0.706213,0.650901,-0.733770,-0.194704
-0.495153,-0.273256,0.681873,0.057068,0.702992,-0.708904
-0.457268,-0.267866,0.658187,0.316193,0.430561,0.845363
-0.428194,-0.261933,0.631374,-0.271122,0.077038,-0.959457
-0.336565,-0.259289,0.637690,0.113940,0.928930,0.352288
-0.313403,-0.252806,0.604173,0.085227,0.687133,0.721515
-0.261422,-0.247853,0.587846,-0.355787,-0.818958,0.450249
-0.166646,-0.245765,0.597708,-0.509541,-0.454848,0.730398
-0.202265,-0.235872,0.532521,-0.145190,0.986449,-0.076414
-0.000503,-0.239825,0.602445,0.938788,-0.077410,-0.335684
-0.177724,-0.221576,0.455358,0.925701,-0.376538,0.036008
0.402517,-0.240376,0.701774,0.768392,-0.623716,-0.143360
-0.065702,-0.179126,0.232180,-0.693347,-0.709822,-0.124184
-0.014224,-0.165381,0.164282,-0.184906,-0.967011,-0.175213
-0.006042,-0.157139,0.117865,0.911104,0.411094,-0.029868
-0.148270,-0.130198,-0.073136,0.930931,-0.349790,0.104948
-0.101701,-0.124588,-0.095302,0.684694,-0.727737,-0.039910
-0.632222,-0.239389,0.731567,-0.413238,-0.486574,0.769727
-0.623411,-0.232463,0.692479,-0.188828,-0.981826,-0.019047
-0.606168,-0.225530,0.657294,0.874176,-0.333204,-0.353258
-0.466709,-0.225530,0.689738,-0.320505,0.266778,-0.908904
-0.474764,-0.217724,0.642367,0.031314,-0.672329,0.739590
-0.377219,-0.215529,0.653778,0.592316,0.463609,0.658960
-0.341474,-0.209919,0.628603,0.810395,-0.508885,0.290336
0.058527,-0.224543,0.811471,0.610693,-0.443503,-0.656018
0.077406,-0.218167,0.777388,0.682164,-0.645297,-0.343867
-0.040781,-0.203650,0.664742,-0.115163,-0.993024,-0.025307
0.021648,-0.191992,0.610251,0.973377,0.117363,0.196882
0.305475,-0.185287,0.640222,-0.838821,0.544051,-0.019670
0.386153,-0.182321,0.641026,-0.034734,-0.795607,0.604816
0.270360,-0.142843,0.382902,0.957893,0.241207,0.155754
-0.007425,-0.090828,0.008913,0.375381,0.845682,0.379356
-0.063562,-0.078183,-0.079453,-0.684365,0.728140,-0.038180
-0.076903,-0.068505,-0.139753,0.645042,-0.744844,-0.170668
0.042291,0.021443,-0.336028,0.774602,0.591643,-0.223495
-0.583636,-0.195515,0.796783,-0.587092,-0.461800,0.664879
-0.186282,-0.187488,0.846061,0.586728,-0.649096,0.484174
-0.415231,-0.167689,0.675110,0.833308,0.468028,-0.294190
0.017746,-0.168904,0.785849,-0.584158,-0.002565,-0.811636
0.093896,-0.165824,0.786147,0.926853,-0.134593,-0.350469
0.223161,-0.158125,0.772145,-0.636325,0.714575,0.290644
0.021522,-0.139104,0.610012,0.981639,-0.152414,0.114695
0.165763,-0.131628,0.601223,0.506638,0.838704,0.199735
0.347009,-0.134702,0.663222,0.028793,0.999002,0.034148
0.488104,-0.135581,0.701834,-0.654968,0.520709,0.547612
0.214095,-0.086432,0.345959,0.913595,0.279430,-0.295403
0.793329,-0.098305,0.557488,-0.670314,-0.694562,0.261271
0.020266,-0.032001,-0.025140,0.840356,-0.120644,-0.528438
0.037758,-0.024081,-0.067655,0.227125,0.966590,0.118817
0.030333,-0.014403,-0.125959,-0.785237,0.565294,0.252675
0.012084,-0.004068,-0.192218,0.941236,-0.288961,-0.174860
0.025801,0.003852,-0.236461,0.891548,-0.406070,-0.200621
0.427814,-0.080821,0.621036,0.293674,0.850445,0.436462
0.242416,-0.053988,0.415316,0.936260,0.080124,0.342049
0.632222,-0.069277,0.605097,0.439147,-0.852751,0.282783
0.178100,-0.042008,0.328858,0.547231,0.819466,0.170334
0.804780,-0.071807,0.662388,-0.492896,-0.843622,0.212971
0.065702,-0.001315,0.057237,0.975190,-0.150254,0.162569
0.057770,0.007591,0.001703,0.986218,0.074557,-0.147703
0.042418,0.017376,-0.061458,0.249483,0.950017,0.187686
0.043927,0.026175,-0.112403,0.378770,0.914017,-0.145283
0.031213,0.036068,-0.174968,0.763310,-0.645350,-0.029694
0.032219,0.045196,-0.229787,0.963381,-0.264986,-0.040986
0.019759,0.055532,-0.293603,0.505664,0.859377,0.076000
-0.629076,-0.150541,0.776286,-0.736575,-0.597410,-0.317109
-0.098805,-0.134266,0.811531,-0.762623,0.280673,-0.582777
0.138576,-0.139319,0.900790,-0.090946,0.325529,0.941148
0.056637,-0.127776,0.810607,-0.438049,-0.884844,-0.158629
0.079296,-0.121621,0.778878,0.995362,-0.078546,0.055552
0.096539,-0.115131,0.745510,-0.304066,0.947620,0.097772
0.210823,-0.114251,0.767855,0.911773,0.219411,-0.347173
-0.007932,-0.094459,0.595414,0.272880,0.788223,0.551580
0.054498,-0.090278,0.587102,-0.018249,0.821691,0.569642
0.173192,-0.089177,0.609744,0.615321,0.787972,-0.021894
0.462807,-0.090278,0.687176,-0.230863,0.850222,0.473101
-0.114914,-0.107211,0.819545,0.904220,-0.341978,0.255807
0.000000,-0.106110,0.841651,0.314025,-0.853039,0.416788
0.119320,-0.105231,0.866469,0.735961,0.127200,-0.664967
0.006419,-0.092479,0.758232,0.018068,-0.968610,0.247928
0.046570,-0.087533,0.737913,-0.130080,-0.778754,-0.613695
0.190561,-0.087418,0.775392,-0.349353,0.909856,0.223864
0.027817,-0.064217,0.589902,0.086531,0.781810,0.617483
0.115921,-0.061472,0.596814,-0.105023,0.647021,0.755204
0.257016,-0.061801,0.634770,0.858618,-0.258430,-0.442706
0.478789,-0.059270,0.674454,-0.820025,0.520153,0.238745
0.457898,-0.050142,0.614213,0.226419,0.893421,0.387987
0.210696,-0.028477,0.417521,0.993278,-0.114492,-0.017027
0.651731,-0.045854,0.635992,0.585029,0.308223,-0.750160
0.721205,-0.042115,0.632476,0.823650,-0.555681,0.113224
0.707615,-0.033759,0.577687,0.799403,0.596296,-0.073392
0.681561,-0.024303,0.513335,0.825785,0.464988,0.319162
0.071867,0.019571,0.086821,0.598762,0.658595,-0.455780
0.058654,0.028813,0.026282,0.919076,-0.381812,0.097565
0.045187,0.038048,-0.035091,-0.721440,0.691099,0.043661
0.037128,0.047176,-0.093813,-0.250313,0.966120,0.062891
0.042291,0.055639,-0.143179,0.160206,-0.986748,-0.025724
0.015733,0.065867,-0.213014,0.689959,-0.701284,0.179325
0.009945,0.075438,-0.272301,-0.036904,0.999308,-0.004612
0.010698,0.084123,-0.325958,0.442471,0.895898,0.039833
0.030836,0.091929,-0.369992,0.910772,0.412882,0.004753
-0.639017,-0.124145,0.789365,0.822854,0.560492,-0.093589
-0.094526,-0.122386,0.917534,0.918824,-0.337386,0.204775
-0.063436,-0.116889,0.891673,0.655103,0.748480,0.103043
-0.370297,-0.094345,0.820171,-0.691771,0.594383,0.410074
-0.078919,-0.094130,0.896381,0.977278,0.021692,0.210851
-0.098551,-0.086647,0.843856,0.108957,0.960690,-0.255348
-0.072501,-0.080714,0.814719,0.846565,-0.302986,0.437638
0.048333,-0.079505,0.838642,0.516762,0.851971,0.084277
0.030583,-0.071807,0.783883,0.354991,0.933495,-0.050678
0.142859,-0.070378,0.804887,-0.714362,0.599658,-0.360690
0.165763,-0.064767,0.774975,0.270756,-0.817814,0.507811
-0.064066,-0.046182,0.597261,0.024925,0.957472,0.287448
-0.020266,-0.041344,0.577836,-0.109679,0.691775,0.713735
0.061423,-0.037934,0.578849,-0.283126,0.288354,0.914708
0.230209,-0.039035,0.630927,-0.194135,0.320352,0.927193
0.353305,-0.031122,0.611770,-0.148673,0.760204,0.632444
0.398991,-0.026283,0.593447,0.332139,0.880766,0.337543
0.250471,-0.003410,0.409418,0.757805,-0.420380,0.499012
0.733289,-0.021772,0.654106,0.770024,0.318579,-0.552784
0.768911,-0.016054,0.628067,0.724211,0.456134,-0.517165
0.680551,-0.003631,0.525103,0.942866,0.332538,0.020552
0.069224,0.038269,0.098351,0.744059,0.666039,-0.052608
0.054751,0.047062,0.039063,0.881229,-0.472634,0.007252
0.047952,0.055639,-0.017901,0.666757,-0.744805,0.026471
0.012837,0.100284,-0.309006,0.232780,0.965357,0.117898
-0.369414,-0.056189,0.821601,-0.787208,0.200173,0.583296
-0.411455,-0.047726,0.754895,0.517901,-0.843439,0.142794
-0.260415,-0.047283,0.795085,0.928286,0.277618,-0.247412
-0.154059,-0.045304,0.810339,-0.565268,-0.317623,0.761307
-0.179234,-0.037719,0.754150,0.292670,0.955226,0.043454
0.018630,-0.039699,0.823001,-0.245535,-0.965424,0.087577
0.145750,-0.032216,0.807837,0.288938,-0.518878,0.804537
0.192701,-0.027384,0.789842,-0.583361,0.699672,0.412491
0.057144,-0.013853,0.666648,-0.166794,-0.956182,0.240616
0.044933,-0.006155,0.613349,0.806123,0.078390,-0.586533
0.054375,0.000221,0.574142,0.878117,0.133125,-0.459552
0.097042,0.005389,0.554211,-0.321210,-0.825615,-0.463880
0.093266,0.012866,0.504635,-0.480475,0.826290,0.293920
0.310257,0.016383,0.539969,-0.074562,-0.996492,0.038012
0.190058,0.037605,0.371015,0.466354,0.465072,-0.752477
0.721205,0.017155,0.647223,-0.588252,0.328128,0.739116
0.059157,0.051793,0.243978,-0.744111,0.667281,0.032179
0.671866,0.027162,0.570984,-0.614412,-0.203532,0.762281
0.077782,0.058498,0.206916,-0.068639,-0.924334,0.375360
0.063059,0.067190,0.147002,0.998013,0.049985,0.038367
0.061423,0.074995,0.095818,-0.604431,-0.780309,0.160567
0.075896,0.068834,0.320039,0.901777,0.431735,-0.020105
0.676525,0.046954,0.635247,-0.635321,0.584784,0.504376
0.073757,0.076754,0.268915,0.804196,0.593191,-0.037331
0.649338,0.055532,0.570715,-0.812516,0.442621,0.379346
0.096035,0.083130,0.232299,0.960061,-0.279760,0.004225
0.642920,0.063337,0.518251,0.784381,0.350595,0.511693
-0.912650,-0.005826,0.537795,-0.634342,0.772959,-0.011998
-0.580114,-0.012866,0.677284,0.150862,-0.510050,0.846812
-0.082945,-0.026612,0.907702,0.642684,-0.180751,-0.744504
-0.199495,-0.015504,0.801252,0.033594,0.086333,0.995700
-0.196853,-0.008799,0.758827,-0.417236,0.903753,-0.095625
-0.162494,-0.003739,0.733623,-0.280057,0.705952,0.650538
0.143988,-0.009893,0.862387,0.646750,0.589722,0.483675
-0.044557,0.004617,0.712648,0.542628,0.818401,0.189140
0.006042,0.009020,0.697931,0.430137,0.079527,0.899254
0.052988,0.013638,0.679400,0.725580,0.655842,0.208340
0.057017,0.020121,0.637719,-0.141266,0.965685,-0.217935
0.068091,0.026833,0.597857,0.999773,0.013553,0.016423
0.075896,0.033430,0.555670,0.855599,-0.347558,0.383605
0.088860,0.040135,0.516135,0.267019,-0.844447,-0.464339
0.059533,0.048384,0.452855,0.030993,0.989404,0.141842
0.235494,0.046954,0.511458,-0.220542,-0.930259,0.293221
0.064696,0.062350,0.360796,0.290713,-0.932016,0.216406
-0.845438,0.028370,0.552542,0.015564,-0.669567,0.742588
-0.147011,0.020671,0.807866,0.953923,-0.161841,-0.252661
-0.086721,0.024410,0.799316,-0.442043,0.857102,0.264525
-0.086974,0.030900,0.754895,0.438607,-0.487533,0.754941
-0.073507,0.036840,0.719829,0.655766,0.555046,0.511757
-0.013344,0.041015,0.709073,-0.692279,0.062685,-0.718902
0.016993,0.046404,0.680710,0.272564,0.959610,-0.069690
0.138576,0.047947,0.705141,-0.207760,0.941215,-0.266363
0.080679,0.056961,0.627501,-0.167288,-0.936201,-0.309101
0.073380,0.064002,0.578760,0.232794,-0.918100,0.320778
0.236877,0.063780,0.627709,0.609954,-0.195648,-0.767905
0.105853,0.076425,0.505946,0.476271,-0.707267,-0.522436
0.124606,0.082579,0.469241,0.975489,-0.044752,-0.215449
0.090750,0.091157,0.400867,-0.732408,-0.503371,-0.458471
0.078036,0.098855,0.344380,0.932107,0.360239,-0.037469
0.544618,0.084123,0.579564,-0.160323,-0.800925,0.576902
0.682944,0.084559,0.617520,-0.645120,0.237878,0.726109
0.801634,0.085882,0.642278,-0.175151,0.715110,0.676713
0.661042,0.099848,0.509432,0.927391,0.097863,0.361067
-0.853869,0.070156,0.545511,-0.844236,0.256134,0.470808
-0.252233,0.053995,0.833786,-0.465218,-0.673696,0.574199
-0.226052,0.059270,0.804857,-0.079280,0.354586,0.931656
-0.143611,0.062236,0.808492,0.099904,0.992012,-0.077010
-0.078666,0.066196,0.801014,-0.682183,0.558326,-0.472121
-0.070738,0.072357,0.761092,0.423643,0.785553,0.451036
0.246949,0.066310,0.896589,-0.518547,-0.227585,-0.824205
-0.003649,0.082579,0.711546,0.589871,-0.564208,0.577687
0.256639,0.078297,0.817221,0.960206,-0.064970,0.271631
0.261798,0.090720,0.731716,0.822818,-0.545096,0.160752
0.319196,0.094902,0.719322,0.730007,-0.681374,0.053101
0.267087,0.104023,0.642755,-0.482678,0.615632,0.622912
0.288232,0.109855,0.608582,0.885897,-0.276515,0.372459
0.225549,0.119312,0.525967,0.869882,0.484297,-0.093604
0.496412,0.120849,0.594639,0.471608,-0.839665,0.269348
0.546381,0.125137,0.578819,0.672036,-0.625494,0.396390
0.686973,0.125688,0.616299,-0.266781,0.937563,-0.223168
-0.869352,0.102379,0.548550,0.418964,-0.707809,0.568749
-0.267337,0.087754,0.834680,0.084223,-0.769813,0.632688
-0.202142,0.091378,0.827381,0.450547,0.814954,0.364496
-0.139332,0.095009,0.820349,0.392550,-0.433122,0.811363
-0.059410,0.098090,0.822852,0.276353,0.659569,-0.698997
-0.093392,0.105674,0.760227,0.354661,0.851822,0.385506
0.250724,0.098855,0.912171,0.982698,0.181891,0.034936
0.009438,0.114144,0.730971,0.929136,0.359961,0.084467
0.241033,0.111943,0.818532,0.983131,0.181183,0.025008
0.382504,0.112714,0.855535,0.932593,0.180069,-0.312804
0.230835,0.124701,0.724119,0.363866,0.622675,-0.692732
0.408559,0.123815,0.783823,-0.092497,-0.995631,-0.012773
0.020516,0.146031,0.510445,0.501174,0.533971,0.680955
0.428194,0.135916,0.705409,0.299699,0.879447,0.369802
0.179230,0.152521,0.511130,0.322134,0.900146,-0.293200
0.562994,0.143722,0.692449,-0.657075,0.741146,-0.137677
0.575958,0.149662,0.653123,0.360206,-0.059498,-0.930973
0.544745,0.157360,0.588919,-0.424720,0.756327,-0.497577
0.705472,0.156917,0.640401,-0.597112,-0.745898,-0.295115
0.619635,0.167367,0.540267,0.982506,0.163955,0.088320
0.670610,0.178796,0.475975,0.411497,0.319175,-0.853697
-0.240530,0.117661,0.880561,-0.282431,0.196622,0.938921
-0.160858,0.121178,0.881514,0.733969,-0.620614,-0.275914
-0.147514,0.126346,0.847372,0.893830,-0.051863,0.445397
-0.128635,0.131735,0.814302,-0.100296,-0.263206,0.959512
0.099054,0.129869,0.897960,0.311788,0.683070,-0.660456
-0.014980,0.146031,0.747238,0.760645,0.290181,0.580701
0.165010,0.145480,0.806794,0.905984,0.420499,0.048716
0.236877,0.149333,0.803368,-0.230107,-0.077996,-0.970035
0.306858,0.152628,0.800597,0.002350,0.191344,0.981520
0.170295,0.163843,0.676123,0.589610,-0.426267,-0.686044
-0.039774,0.178139,0.507168,-0.205758,-0.406965,0.889968
0.156702,0.183528,0.530108,0.453009,0.877815,0.155637
0.269350,0.185401,0.551440,0.985106,-0.021953,0.170543
0.467086,0.184408,0.622168,-0.007944,-0.454890,0.890512
0.621144,0.191005,0.621929,0.901254,-0.355654,0.247489
0.561358,0.206509,0.488696,0.955688,0.159364,0.247514
-0.296540,0.170004,0.877075,-0.511941,0.187862,0.838227
-0.238767,0.173964,0.865724,0.333165,0.851965,0.403927
-0.210070,0.179018,0.840132,-0.307548,0.789970,-0.530435
-0.171682,0.183421,0.819753,0.112602,0.970394,0.213672
-0.092763,0.186609,0.820022,0.098814,0.079792,0.991902
-0.115295,0.193092,0.765084,0.983206,-0.082263,0.162906
-0.133670,0.200025,0.710891,-0.438373,-0.731076,0.522835
0.126242,0.197052,0.813557,0.994550,-0.086100,-0.058806
0.156575,0.202005,0.786415,0.998861,0.023648,0.041436
0.336311,0.201784,0.846686,0.624474,0.620779,0.473989
0.141222,0.226851,0.600240,-0.433510,0.892357,-0.125572
0.145877,0.233013,0.556058,0.897796,0.404843,-0.173391
0.407172,0.229825,0.663610,0.519513,-0.238801,-0.820414
0.499685,0.232570,0.671832,-0.305715,-0.281988,0.909407
0.518817,0.244449,0.592583,0.865989,-0.111386,-0.487500
0.538703,0.250054,0.556862,0.908367,-0.226975,-0.351215
0.534674,0.256544,0.507853,-0.605481,-0.175577,-0.776251
0.570799,0.261712,0.481129,0.971658,-0.004927,0.236338
0.817367,0.271718,0.488070,-0.664442,0.287919,0.689651
0.155695,0.241698,0.944615,-0.281953,-0.840524,0.462624
0.220264,0.245107,0.939461,-0.512792,0.012002,-0.858429
0.190307,0.251926,0.880322,0.998356,-0.057116,0.004722
0.164757,0.259074,0.821779,0.674428,0.734165,-0.078413
0.230962,0.262483,0.816834,0.158719,0.775920,0.610538
0.247325,0.268309,0.781678,0.362250,0.511356,0.779288
0.217495,0.275457,0.719203,0.258991,0.940236,-0.221090
0.193453,0.282497,0.659588,0.889726,-0.256007,-0.377952
0.223034,0.287444,0.632327,0.359442,0.806111,-0.470092
0.350281,0.288759,0.662477,0.630760,0.717586,-0.295317
0.427814,0.292504,0.661971,-0.454259,0.701835,0.548704
0.455885,0.297558,0.633519,-0.414257,0.763319,-0.495717
0.522716,0.301518,0.626577,-0.285723,0.924709,-0.251545
0.579104,0.305807,0.612992,0.924233,0.314138,-0.217049
0.580993,0.312183,0.566276,-0.721037,0.609926,0.328780
0.771931,0.330331,0.494565,-0.123685,-0.392545,0.911378
0.985273,0.328237,0.578760,0.568942,0.749786,-0.337826
-0.217245,0.230590,0.907225,0.825785,0.257626,-0.501706
-0.188421,0.235100,0.882378,0.181756,0.743666,-0.643370
-0.185149,0.241148,0.841145,0.316654,-0.107045,0.942482
-0.750409,0.259510,0.528708,0.666050,0.726981,0.166961
-0.137696,0.245550,0.824163,-0.259475,-0.807014,0.530473
-0.043800,0.294699,0.960465,-0.775134,0.615618,0.142063
-0.086217,0.301626,0.895993,-0.203032,-0.036661,-0.978486
0.074387,0.302176,0.943423,-0.331490,-0.895195,0.297894
-0.028697,0.311525,0.842575,0.848148,-0.483617,-0.216241
0.134800,0.311632,0.892418,0.877097,0.400789,0.264706
0.088484,0.319109,0.822584,0.756501,0.485368,-0.438320
0.226936,0.320210,0.857024,0.942816,-0.320989,0.089797
0.216362,0.326921,0.806645,-0.273318,-0.215070,0.937573
0.239143,0.331868,0.776792,0.827004,-0.425956,-0.366914
0.274639,0.336814,0.754090,0.510675,-0.321312,-0.797477
0.220768,0.344734,0.677165,0.998576,-0.034147,-0.040982
0.360226,0.345613,0.714883,0.011963,0.180140,0.983568
0.559848,0.350452,0.740833,0.365315,0.890881,-0.269957
0.498175,0.359359,0.657949,0.491461,0.791675,-0.362929
0.513152,0.364748,0.621721,-0.491635,0.864045,-0.108262
0.499182,0.371896,0.567230,0.524403,0.847520,-0.081917
0.721586,0.375741,0.608374,0.404108,-0.842626,0.355918
0.625927,0.386077,0.501328,-0.069768,-0.199720,0.977366
-0.004909,0.359802,0.958558,-0.663879,0.648222,-0.372926
-0.009944,0.365627,0.913005,-0.542924,-0.162158,-0.823977
-0.033229,0.372446,0.856935,0.415586,0.900860,-0.125456
-0.023285,0.377943,0.818711,0.368488,0.919350,0.137885
-0.056261,0.384762,0.757874,0.858584,0.441520,-0.260566
0.222907,0.380910,0.873500,-0.299068,-0.917512,0.262163
0.132914,0.389930,0.777954,0.881803,0.248679,-0.400726
0.351791,0.388279,0.860659,0.199008,-0.962206,0.185893
0.476903,0.389816,0.888277,0.669670,0.120807,-0.732767
0.231718,0.404991,0.701178,-0.712712,0.260770,0.651184
0.416863,0.404333,0.763534,0.149855,0.241652,0.958722
0.426808,0.409723,0.725966,-0.406251,-0.386909,0.827806
0.534170,0.417857,0.699152,0.625841,-0.685624,0.371810
0.504594,0.425334,0.636707,0.689682,0.154255,0.707491
0.587666,0.428414,0.639626,-0.224551,-0.971221,-0.079409
0.692005,0.430944,0.654850,0.834605,-0.418843,0.357777
0.513782,0.444468,0.498557,0.399340,0.091067,-0.912269
0.810446,0.438643,0.633548,0.787142,0.602754,-0.130745
0.091253,0.438314,0.818592,0.360603,0.931699,0.043620
0.314790,0.436662,0.901594,-0.704771,0.701511,0.105734
0.323597,0.442274,0.862506,0.310807,0.583947,0.749937
0.331276,0.453596,0.781351,0.015985,0.554263,0.832188
0.343736,0.459207,0.743276,0.925657,0.357575,0.123687
0.386530,0.469872,0.678327,0.291511,-0.849519,0.439702
0.307238,0.478885,0.585433,0.388621,0.895564,-0.216652
0.432977,0.480536,0.613200,0.901514,-0.429296,-0.054575
0.607551,0.480100,0.672696,-0.270584,0.912810,-0.305878
0.649465,0.484389,0.652944,0.593412,-0.656956,0.465050
0.413717,0.493624,0.510445,-0.261515,-0.962572,0.071164
0.745877,0.486912,0.664056,-0.325322,0.945212,0.027195
0.707362,0.495054,0.594192,0.928072,-0.174341,-0.329071
0.690872,0.508577,0.486879,0.081726,-0.131941,0.987883
-0.118567,0.416427,0.913363,-0.362661,0.793063,0.489417
-0.050095,0.419951,0.910175,0.270412,0.845506,-0.460431
-0.018756,0.424454,0.886132,-0.447736,-0.121771,-0.885835
-0.078036,0.432481,0.809624,0.793779,0.604617,0.065976
-0.019635,0.436220,0.800210,0.087489,0.411660,0.907128
-0.223410,0.493953,0.832892,-0.130662,-0.765413,0.630135
-0.246948,0.500772,0.776435,0.911092,0.370990,-0.179658
-0.013593,0.498899,0.862715,0.857452,0.112633,0.502085
0.079799,0.501544,0.871325,0.906077,-0.394268,0.153547
0.086974,0.507262,0.833428,0.880343,0.124337,-0.457753
0.041534,0.514517,0.765292,-0.403583,-0.669377,-0.623743
0.149023,0.516604,0.782066,0.288533,0.212786,0.933526
0.129265,0.523094,0.727455,0.931694,0.329457,-0.152983
0.290748,0.523645,0.775660,0.261809,0.307575,0.914797
0.329513,0.528262,0.752869,-0.553940,0.362540,-0.749477
0.334045,0.534202,0.709908,0.520199,-0.820595,-0.236680
0.391439,0.538269,0.699599,0.552952,-0.713521,0.430270
0.544618,0.544424,0.700046,-0.002768,0.815764,0.578379
0.601132,0.548276,0.689142,0.928359,0.231874,0.290489
0.802894,0.553116,0.717296,-0.072084,-0.908983,0.410554
0.589805,0.567848,0.540089,0.161983,0.972136,0.169449
0.687477,0.570599,0.552870,0.998063,0.035704,-0.050942
0.682187,0.576975,0.502788,0.170706,-0.869035,0.464369
-0.002393,0.560371,0.905229,0.822887,0.528828,-0.207842
0.005539,0.571807,0.824669,0.369369,0.212878,-0.904571
0.069478,0.575653,0.817251,0.126742,0.828806,0.544992
0.127375,0.585445,0.761598,0.699703,0.714097,0.021959
0.244429,0.587090,0.785879,0.819642,-0.566570,0.084768
0.305348,0.590613,0.777895,-0.017866,-0.373902,0.927296
0.417244,0.592922,0.797290,0.512397,0.594282,-0.619902
0.612586,0.603694,0.777567,-0.547560,0.787036,0.284169
0.523727,0.632064,0.540416,0.761961,0.515351,-0.392210
0.553557,0.700354,0.530287,0.972897,-0.065954,-0.221632
0.070987,0.628218,0.919679,-0.354375,0.620257,-0.699786
-0.100441,0.639654,0.782066,0.459522,-0.743342,-0.486089
0.104720,0.649883,0.768629,-0.115562,-0.756889,0.643245
0.199246,0.652521,0.778044,-0.070034,0.076852,0.994580
0.290245,0.655158,0.785611,0.078486,-0.196303,0.977397
0.389426,0.657467,0.797975,0.624416,0.435132,-0.648664
0.117180,0.674622,0.929033,0.102431,0.993114,0.056862
0.021775,0.689247,0.788888,0.841060,0.520482,0.147364
0.066079,0.693314,0.771460,0.401072,-0.384090,0.831635
0.141975,0.696287,0.771996,0.015698,0.584963,0.810908
0.571429,0.740489,0.570746,0.835704,-0.070222,0.544673
-0.007048,0.733563,0.789335,0.936502,0.319190,0.145193
0.051102,0.737630,0.778044,-0.632977,0.525430,0.568563
0.198362,0.744006,0.774767,0.384012,0.534199,-0.753104
0.422656,0.747859,0.816357,0.641145,0.642936,-0.419007
0.606794,0.788101,0.561837,-0.421682,0.394393,-0.816479
-0.013593,0.756322,0.808075,0.946531,0.302395,0.112410
-0.000884,0.760940,0.772919,-0.180866,-0.136930,0.973929
0.172308,0.766658,0.782542,0.606193,0.334486,-0.721560
0.539460,0.805149,0.592107,-0.226273,-0.663260,0.713363
0.658272,0.812512,0.570328,-0.599410,0.768409,-0.224177
-0.016236,0.785793,0.808760,0.947701,0.316084,-0.044194
0.277408,0.798001,0.802087,0.862347,0.336344,-0.378458
0.655507,0.840888,0.570805,-0.542224,0.786916,-0.294546
0.194963,0.792061,0.787816,0.563545,0.474725,-0.676057
0.699810,0.834398,0.585940,0.959740,-0.135647,-0.245966
-0.007302,0.788323,0.809922,0.919889,0.386315,-0.067565
0.188041,0.798223,0.789990,0.440331,0.586546,-0.679759
0.677532,0.838908,0.581143,0.955355,-0.246409,-0.163031
0.193707,0.821425,0.793208,0.653839,0.421871,-0.628108
0.667587,0.861117,0.575751,-0.846121,0.518939,0.121577
0.656890,0.895755,0.615107,-0.800493,-0.526112,0.287084
0.225926,0.277873,-0.979791,-0.396178,0.334256,0.855170
0.119193,0.280846,-0.973356,-0.656921,0.665033,0.355227
0.263058,-0.058391,-0.968648,-0.456725,0.177622,-0.871695
0.194337,-0.042223,-0.949968,-0.510969,0.562840,-0.649709
0.301070,-0.051465,-0.972998,0.016171,0.138302,0.990258
0.208180,-0.046297,-0.961260,0.576376,-0.598037,0.556904
0.077279,0.090828,-0.475429,-0.579412,0.788462,0.206423
0.115671,-0.106225,-0.975560,0.383786,0.309215,-0.870112
0.585023,0.645702,0.559037,-0.273962,-0.553084,0.786792
0.035872,-0.033981,-0.068012,0.082593,-0.992661,-0.088337
0.628066,0.572243,0.532104,-0.004861,-0.950888,0.309498
-0.060667,-0.120741,-0.068965,0.800300,-0.595296,0.071713
0.543235,0.502752,0.504903,0.091619,-0.543813,0.834191
0.443674,0.504732,0.509879,0.059213,-0.834489,0.547834
0.322971,0.498463,0.507197,-0.261126,-0.907605,-0.328734
0.346379,0.544209,0.549652,0.857813,-0.476869,0.191711
0.148647,0.772047,0.771519,0.556772,0.402736,-0.726504
0.052358,0.026504,0.086613,0.799926,0.435531,-0.412832
0.548521,0.482516,0.506631,-0.199324,0.268061,-0.942557
0.614976,0.545196,0.564191,0.978223,0.190034,0.083472
0.316172,0.475919,0.507049,0.636173,0.289359,0.715230
0.329766,0.517484,0.546494,0.848396,-0.507045,0.152087
0.202392,0.767209,0.787667,-0.717738,-0.336479,0.609617
-0.135053,-0.167474,-0.092204,0.983097,-0.159103,0.090589
0.034989,-0.061358,0.003610,0.772649,0.383555,0.505865
0.015860,-0.107325,0.005219,-0.544774,-0.748302,-0.378504
0.045309,0.025182,0.130646,0.918243,0.365306,-0.152910
0.683824,0.531122,0.593596,0.881512,-0.067144,-0.467362
0.152296,0.490436,0.570090,-0.089835,0.988566,0.121108
-0.016740,0.468663,0.554300,0.087814,-0.877159,0.472103
0.109126,0.697932,0.768838,0.010507,-0.010805,0.999886
0.014347,0.700791,0.774081,-0.010902,0.497852,0.867193
-0.067714,0.709039,0.784390,0.586935,0.243552,-0.772134
0.022908,-0.106003,0.035339,0.886614,-0.445511,0.124237
0.243676,0.441938,0.551469,0.510108,-0.842430,0.173496
0.159471,0.670555,0.771668,0.868911,-0.211311,-0.447595
0.088733,0.682978,0.785402,-0.052353,-0.455850,0.888516
-0.075393,0.663078,0.771221,-0.644570,-0.044160,0.763269
0.184646,0.697495,0.778729,0.474285,-0.208401,-0.855349
0.096412,0.702220,0.785969,-0.420799,-0.666631,0.615249
-0.060667,0.685179,0.773992,-0.131516,0.336414,0.932485
0.260542,0.468442,0.556058,0.038674,-0.980713,0.191591
-0.132787,-0.209261,-0.071706,0.977109,-0.210705,0.029358
0.010068,-0.116782,0.013561,0.989748,-0.142268,-0.012591
0.158211,0.475697,0.581650,-0.006538,0.960174,0.279326
-0.058150,0.511437,0.622615,0.349682,-0.935878,0.043061
0.202895,0.674951,0.772919,-0.107216,0.211728,0.971430
0.101447,0.674729,0.775869,-0.419589,0.806722,-0.416106
-0.018126,0.668575,0.773545,-0.128193,0.262878,0.956275
-0.151040,0.659998,0.768897,-0.629929,0.338197,0.699151
-0.150156,-0.247195,-0.062322,0.973517,0.036981,0.225604
0.724101,0.494725,0.628871,-0.085852,-0.940324,0.329273
0.046066,0.513638,0.666797,0.992791,-0.093395,0.075120
0.175707,0.630748,0.775541,-0.449972,-0.115305,0.885568
0.067212,0.629755,0.777984,0.795848,-0.004595,0.605479
-0.174324,0.583902,0.740743,0.125794,-0.557421,0.820645
-0.147514,-0.280296,-0.050047,0.954223,0.143019,0.262686
0.017116,-0.139104,0.081518,-0.633296,0.545143,0.549322
0.604278,0.381789,0.567647,0.105911,0.266298,0.958054
0.506860,0.385091,0.573754,-0.700648,-0.525981,0.482117
0.535304,0.431495,0.617490,-0.453539,0.864052,-0.218441
0.574072,0.518255,0.700106,0.045722,0.046780,0.997858
0.401384,0.493181,0.681009,-0.073506,-0.623244,0.778565
0.406796,0.532001,0.718220,-0.631638,0.719726,0.288145
0.144241,0.514517,0.709133,0.878905,0.094816,0.467479
0.179107,0.561908,0.753703,0.674695,0.731080,-0.101528
0.134550,0.581921,0.774469,0.454751,0.548400,-0.701754
-0.110889,0.605895,0.804827,0.426513,-0.239690,-0.872144
0.029327,-0.164944,0.090396,0.983825,-0.106290,-0.144193
0.081812,0.087089,0.333029,0.996245,-0.015475,-0.085181
0.521710,0.282712,0.509551,-0.681477,-0.729912,-0.053085
0.538703,0.324942,0.550427,0.864372,0.423365,-0.271337
0.461044,0.335606,0.562552,0.928273,0.371353,0.020152
0.610320,0.425998,0.645347,0.945886,-0.247209,0.210208
0.633981,0.471301,0.688695,0.577350,-0.811176,-0.093060
0.390056,0.457663,0.682558,0.295587,-0.821570,0.487495
0.297420,0.462502,0.689827,-0.110035,0.975056,-0.192765
-0.075646,0.369037,0.610370,-0.776887,0.076955,0.624920
0.354687,0.554102,0.777031,-0.373164,0.926473,0.048954
0.168406,0.526719,0.755788,0.974040,0.138652,0.178946
0.054375,0.523645,0.756295,0.009158,0.544346,0.838811
-0.148900,0.560592,0.798064,-0.238257,-0.189539,-0.952527
0.619758,0.428085,0.667691,0.189108,-0.775797,0.601978
0.586029,0.452059,0.691764,-0.274285,0.749186,-0.602899
0.416990,0.429515,0.675020,-0.181947,-0.826507,0.532711
0.344116,0.440951,0.688367,0.512216,-0.854599,-0.085408
0.221017,0.435340,0.686341,0.486105,-0.772304,0.408960
0.071867,0.419072,0.675080,0.904810,0.216397,-0.366729
0.273252,0.523645,0.770298,0.579751,0.698317,0.419811
0.158084,0.520786,0.771072,-0.768324,0.638299,-0.047468
-0.746257,0.248188,0.533177,0.666050,0.726981,0.166961
-0.101071,0.540028,0.797498,0.574223,-0.010237,0.818635
-0.164633,-0.314384,-0.029699,0.976998,0.084204,0.195920
0.025801,-0.163293,0.111221,0.998760,-0.022091,0.044620
-0.067085,-0.158897,0.118431,-0.023795,0.929773,0.367365
0.293391,0.125466,0.383676,0.951804,-0.066811,0.299340
0.081055,0.088190,0.353884,0.952301,0.291451,-0.090437
0.500061,0.275786,0.523852,0.829668,0.557772,0.023268
0.547388,0.329116,0.574022,0.710138,0.695751,-0.107863
0.545878,0.364856,0.608523,0.897961,-0.438970,-0.031166
0.009691,-0.152736,0.108272,0.995014,-0.096595,-0.024848
0.659406,0.233449,0.466679,-0.441948,-0.172733,0.880253
0.551794,0.233342,0.469450,-0.679620,-0.230933,-0.696266
0.563497,0.311304,0.545541,-0.561604,-0.777656,0.282581
0.606544,0.401038,0.631880,-0.124916,0.979349,0.158973
0.718689,0.475697,0.701327,-0.446044,-0.723673,0.526632
0.604278,0.471408,0.700225,-0.731001,0.672128,-0.117823
0.397354,0.436441,0.672249,-0.085265,0.860328,-0.502560
0.372814,0.462945,0.698973,0.575785,-0.663600,-0.477605
0.264821,0.498685,0.737079,0.140036,0.976251,-0.165296
0.235241,0.525074,0.763773,0.047332,-0.731016,0.680717
-0.079799,0.558720,0.805661,0.321081,0.299231,-0.898537
0.048333,-0.163407,0.097964,0.912461,-0.397887,-0.095401
0.091253,0.083351,0.339345,0.967795,0.109831,-0.226515
0.499812,0.264021,0.504486,0.930144,0.320443,0.179302
0.555946,0.321089,0.559037,0.920221,-0.362639,-0.147265
0.607174,0.413239,0.647551,0.988356,-0.085777,0.125679
0.647829,0.462395,0.694773,-0.151509,0.916345,0.370618
0.411578,0.452059,0.691942,-0.640253,-0.062073,0.765652
0.042794,0.360788,0.613081,-0.417015,-0.806653,0.418819
0.026054,0.392017,0.644423,-0.586798,-0.480923,0.651446
0.382001,0.549485,0.788292,-0.681408,0.731901,0.002235
0.234611,0.535296,0.778908,-0.459922,-0.646607,-0.608581
-0.039018,0.512208,0.764369,0.904987,-0.350766,-0.240754
0.075017,0.585660,0.833220,0.390099,0.865203,0.315033
0.041157,-0.157139,0.118580,0.925982,0.330975,0.181694
0.090873,0.089949,0.360498,0.806255,-0.486215,0.336969
0.524983,0.279417,0.534607,0.467479,0.791643,-0.393402
0.616992,0.384098,0.634949,0.699527,-0.608390,-0.374864
0.690246,0.444361,0.692390,0.345855,0.898703,-0.269660
0.363499,0.403346,0.661673,-0.207041,0.792424,-0.573758
0.294271,0.415877,0.676182,-0.357982,0.711835,-0.604269
0.168913,0.409723,0.673620,0.909641,0.323316,0.260804
0.314410,0.495054,0.753643,0.879672,0.461770,0.113780
0.326620,0.533652,0.791123,-0.337319,-0.924205,-0.179057
-0.156325,-0.362654,-0.020999,0.976600,-0.210339,-0.044824
0.021018,-0.218496,0.115660,0.714013,-0.587980,0.380085
0.010571,-0.182535,0.151203,-0.665954,-0.726574,-0.169102
0.654877,0.160655,0.469897,-0.161950,-0.252596,0.953922
0.088733,0.072908,0.400718,0.958050,-0.270617,0.094377
0.183762,0.179683,0.502967,-0.400477,-0.907871,0.124048
0.253367,0.239389,0.559811,-0.255955,-0.816299,0.517825
0.239143,0.271497,0.591720,-0.206619,-0.978246,0.018550
0.153053,0.277108,0.600091,-0.707727,0.688911,0.156603
0.162114,0.316914,0.638882,0.891477,-0.352865,0.284173
0.193204,0.363976,0.684405,0.999248,0.037380,-0.010327
0.096539,0.436334,0.758738,0.856650,0.155506,0.491904
0.038012,0.452609,0.776286,0.015849,-0.883775,0.467644
-0.037255,0.461516,0.787577,-0.114567,0.985862,-0.122273
-0.021521,0.502201,0.827231,0.557157,-0.358519,-0.749026
-0.165264,0.489664,0.819426,-0.062391,-0.996814,0.049698
0.075266,0.604573,0.925160,0.427315,-0.069775,-0.901406
0.121713,0.357157,0.754269,-0.539575,-0.696503,0.473014
0.143484,0.399165,0.795175,-0.441158,0.354540,0.824428
0.128762,0.428193,0.824461,0.165413,0.927163,0.336165
0.061423,0.441280,0.839208,0.030921,-0.799001,0.600534
-0.038515,0.441938,0.843022,0.322480,-0.833706,0.448263
0.030460,0.500329,0.898138,-0.705376,-0.684228,0.185141
-0.187035,-0.425555,-0.006222,-0.351112,0.831786,0.429944
0.332662,0.030021,0.425923,0.869425,-0.488963,0.070818
0.497673,0.124701,0.513811,0.767312,0.603636,0.216464
0.554563,0.219154,0.604858,0.810281,0.169595,-0.560966
0.304342,0.168575,0.563089,0.892038,0.218573,0.395593
0.251604,0.221247,0.616507,0.382934,0.922194,0.054029
0.200755,0.240268,0.637094,-0.430666,0.892777,0.132195
0.220894,0.282497,0.677702,0.712132,0.696938,-0.084529
0.228192,0.320982,0.715568,-0.327042,-0.944913,-0.013533
0.178604,0.340224,0.736185,0.966069,0.258282,0.000237
-0.037508,-0.249946,0.189338,0.974816,0.183734,0.126394
-0.021399,-0.205408,0.233104,-0.693347,-0.709822,-0.124184
0.746380,0.143279,0.552959,-0.350203,0.924627,0.149744
0.587412,0.122829,0.537705,0.166252,0.920113,0.354617
0.469982,0.117003,0.535918,-0.048556,-0.995833,-0.077194
0.606921,0.201562,0.615375,0.721474,-0.426589,-0.545432
0.166393,0.083244,0.512799,0.178088,0.139272,-0.974109
0.410698,0.205193,0.625236,0.572479,0.085487,0.815450
0.497042,0.271718,0.688069,-0.235017,0.891204,-0.387973
0.446190,0.290189,0.708120,0.052388,0.957437,-0.283849
0.153179,0.224214,0.652556,-0.766043,0.600167,-0.230169
0.280301,0.302397,0.725847,-0.013198,0.991351,0.130575
0.234991,0.322962,0.747476,0.017551,0.999608,-0.021816
0.189428,0.342096,0.768123,0.804436,0.559463,-0.199709
0.197732,0.380802,0.805811,0.738574,0.673840,0.021174
0.072877,0.374091,0.803427,0.368622,-0.101832,0.923985
0.043927,0.399608,0.829764,-0.413561,0.809407,-0.416926
-0.037762,0.406420,0.838881,0.212378,0.962288,-0.169993
-0.086217,0.423575,0.857710,-0.598158,0.726614,0.337993
0.109879,0.206180,0.634591,0.874812,-0.427580,-0.227771
0.252737,0.290524,0.714138,-0.265488,0.886226,0.379631
0.257895,0.326808,0.749830,0.890993,-0.364819,-0.270258
0.170672,0.331425,0.757487,0.562123,0.826826,-0.019399
0.103210,0.344184,0.772353,0.898816,0.419274,-0.127827
0.087600,0.372775,0.801461,0.245577,0.125725,0.961189
0.040024,0.391796,0.822167,-0.464138,0.695454,-0.548561
-0.049339,0.397407,0.830479,0.518140,0.271337,-0.811115
-0.092386,0.417971,0.852526,-0.559613,0.763078,0.323335
0.001886,-0.198375,0.234712,-0.693347,-0.709822,-0.124184
0.602392,0.125245,0.537050,0.323016,0.873225,0.364883
0.474891,0.117882,0.534041,0.320831,0.946599,0.031895
0.584393,0.191227,0.603637,0.411447,0.200658,-0.889071
0.102707,0.058941,0.488249,0.250776,-0.963691,0.091714
0.336815,0.177038,0.597857,0.852750,0.452954,0.260097
0.454752,0.288215,0.704664,0.214171,0.950212,-0.226337
-0.168913,-0.411588,-0.002945,-0.279182,0.783478,0.555175
-0.034866,-0.209147,0.196012,0.997375,-0.021849,0.069031
0.844305,0.208603,0.586446,0.949521,-0.002616,0.313692
0.501322,0.125795,0.514556,0.767312,0.603636,0.216464
0.522340,0.205630,0.594520,0.924370,0.336498,-0.179749
0.278538,0.156588,0.553347,0.916981,-0.346043,-0.198493
0.392195,0.230154,0.623657,0.378460,0.431794,0.818732
0.380111,0.261712,0.656013,0.439124,-0.472862,-0.763919
0.220391,0.242026,0.641354,0.664622,-0.742076,0.087183
0.196726,0.269410,0.670015,0.886002,-0.322208,-0.333440
0.196349,0.305149,0.705677,-0.282625,0.867544,-0.409257
0.141222,0.322304,0.725012,0.655199,0.697329,-0.290597
0.146381,0.357821,0.760675,0.592263,0.800897,0.088253
0.159974,0.396084,0.798571,0.099361,0.723152,0.683505
0.067212,0.400152,0.805930,-0.717577,0.547293,-0.430760
0.077279,0.437105,0.842515,-0.063167,-0.826469,0.559428
0.001260,0.446119,0.854403,0.987255,0.152594,0.045193
0.149526,0.218388,0.633995,0.952440,-0.280701,-0.118594
0.197106,0.268202,0.682915,-0.721650,-0.618062,0.311801
0.239519,0.317901,0.731448,-0.316727,-0.943287,0.099464
0.135556,0.318015,0.735380,0.411091,0.908022,0.080629
0.113028,0.345170,0.763833,0.766401,0.400239,0.502433
0.184392,0.402574,0.819158,0.284840,0.567709,-0.772381
0.132030,0.418300,0.837123,0.422683,0.883329,0.202656
0.053364,0.427099,0.848444,-0.521405,-0.837163,0.165214
0.000377,0.442710,0.865992,0.905409,0.387061,0.174409
0.330773,0.030678,0.437572,-0.453526,0.850752,0.265583
0.486721,0.119748,0.522511,0.339268,0.762387,0.551056
0.660036,0.216080,0.613617,-0.655316,-0.731928,-0.186661
0.089490,0.056632,0.472042,-0.763714,0.642546,0.062253
0.294397,0.162964,0.572622,0.794466,-0.491009,-0.357397
0.426808,0.276665,0.683422,-0.528757,-0.823895,0.203991
-0.037255,-0.236751,0.236321,-0.749230,-0.611307,-0.254869
0.758210,0.115788,0.564906,0.551792,-0.819898,-0.152622
0.599496,0.095338,0.550069,-0.184585,0.777648,0.600992
0.493516,0.093687,0.551976,0.800557,0.593830,0.080466
0.617496,0.172092,0.627054,-0.579349,0.800670,0.152584
0.232974,0.074445,0.541906,0.986948,0.075071,0.142469
0.093392,0.062679,0.535173,-0.390626,0.914166,-0.108219
0.438008,0.216080,0.678148,0.312698,0.738523,-0.597330
0.057267,0.156695,0.631761,0.983330,-0.093232,0.156107
0.251980,0.291290,0.760972,0.107092,0.827057,0.551822
0.242416,0.321425,0.791987,-0.482378,-0.745814,-0.459426
0.207300,0.344512,0.816446,0.836032,0.524142,0.162251
-0.024418,0.302290,0.782095,0.722677,0.165465,0.671088
0.005285,0.380030,0.859467,0.824562,0.431356,-0.366100
-0.047576,0.395534,0.877194,0.163318,0.929514,0.330652
-0.112398,0.408293,0.892567,0.650597,0.500408,0.571240
-0.049842,-0.223993,0.244276,-0.737545,-0.638486,-0.219918
0.455128,-0.011765,0.441802,0.666030,0.326097,-0.670868
0.258149,-0.043652,0.416597,0.914054,-0.192239,0.357142
0.559595,0.133279,0.585850,-0.484806,0.813751,-0.320581
0.118314,0.050693,0.517863,-0.555439,0.810054,0.187881
0.137446,0.092922,0.560377,-0.041797,0.927482,0.371524
0.223410,0.261819,0.729600,-0.761502,-0.294957,-0.577162
0.234611,0.299209,0.767080,0.300061,0.953222,0.036480
0.274762,0.345613,0.813020,-0.053321,-0.998330,-0.022230
0.129768,0.332089,0.804410,0.460605,0.527281,-0.714015
0.072247,0.346056,0.820945,0.513907,0.857846,-0.000213
-0.891250,0.028370,0.532581,-0.537169,0.842372,-0.043116
0.032096,0.401145,0.878535,-0.248802,0.848884,0.466362
-0.075646,0.400152,0.881186,-0.404450,-0.912644,-0.059164
-0.088234,0.428414,0.910681,-0.145485,0.949238,0.278894
-0.039521,-0.241698,0.235368,-0.722746,-0.665014,-0.188134
0.643046,0.102043,0.562165,-0.407539,0.893035,0.190786
0.601885,0.122393,0.584212,0.593198,0.297169,-0.748202
0.616739,0.163185,0.625475,0.989922,0.027637,-0.138893
0.259409,0.076868,0.550188,0.905754,0.390995,-0.163501
0.104344,0.059599,0.538510,-0.418238,0.897591,-0.139312
0.388166,0.189797,0.661345,0.737749,0.151968,-0.657747
