0.028583,-0.027919,0.614598,0.031320,-0.995488,0.089565
0.021130,-0.061637,0.689067,0.752291,0.502050,-0.426619
0.012998,-0.086587,0.771049,-0.867875,0.307314,-0.390321
0.005549,-0.120119,0.838451,0.961193,0.060236,0.269219
0.169182,0.509842,-0.103300,-0.271330,-0.912264,-0.306847
0.160880,0.470032,-0.020065,0.907269,0.081379,0.412602
0.153425,0.414026,0.042104,-0.626930,-0.775737,0.072047
0.147496,0.351730,0.091124,0.587506,0.767390,0.256808
0.141230,0.293631,0.143677,0.928427,0.064035,0.365956
0.107180,0.328302,0.538966,0.289171,0.897630,0.332628
0.118361,0.016274,0.305943,-0.597204,-0.013202,-0.801980
0.109046,-0.001817,0.402909,-0.029350,-0.937482,0.346794
0.098882,0.006938,0.524027,-0.614635,0.168327,-0.770642
0.092447,-0.045440,0.575507,0.910485,0.263838,0.318445
0.083638,-0.065636,0.664691,-0.089472,0.865703,0.492496
0.075166,-0.073449,0.761657,0.909791,0.317805,0.266985
0.068900,-0.122398,0.817699,-0.490443,-0.871385,-0.012384
0.074659,-0.523963,0.611735,0.107684,-0.086401,0.990424
0.070425,-0.604537,0.631325,0.812872,0.312660,-0.491409
0.280976,0.081419,0.291988,0.737386,0.547437,0.395694
0.258618,0.279539,0.625824,-0.973690,-0.055748,0.220950
0.264041,0.045225,0.480017,0.960790,-0.015542,0.276842
0.267426,-0.161069,0.364177,0.873925,0.360013,0.326568
0.258788,-0.179357,0.458056,0.689909,0.715216,0.111768
0.252518,-0.230608,0.515172,0.913777,-0.119075,-0.388371
0.257434,-0.467387,0.375269,-0.380881,0.044776,0.923539
0.239817,-0.472910,0.581903,0.591401,0.500249,0.632452
0.227111,0.475171,-0.030576,0.962793,-0.114581,0.244745
0.221351,0.397260,0.005742,0.955594,0.282919,0.082439
0.214238,0.347160,0.074083,-0.541955,-0.794918,-0.272744
0.207968,0.288294,0.130572,-0.192083,-0.951250,-0.241304
0.201873,0.232486,0.185048,-0.373207,-0.845370,0.382186
0.192387,0.222010,0.289842,0.939397,-0.114607,-0.323106
0.188660,0.120287,0.294448,0.542651,-0.655680,0.524989
0.182390,0.069990,0.351698,0.492565,0.867918,0.064023
0.173922,0.046562,0.442402,-0.122559,-0.979366,-0.160692
0.167657,-0.006014,0.499786,-0.570687,-0.817278,-0.079826
0.161216,-0.062776,0.550818,0.013066,0.671734,0.740677
0.157493,-0.147361,0.566607,0.344225,0.615999,-0.708558
0.152578,-0.219179,0.596394,0.922496,0.352760,-0.156719
0.148008,-0.294230,0.626047,0.960019,0.025611,-0.278760
0.146312,-0.413858,0.605205,-0.698248,0.190083,-0.690158
0.142415,-0.505860,0.617102,0.620667,0.156551,-0.768287
0.359913,0.296875,0.574389,-0.049796,-0.812938,0.580217
0.387016,-0.127351,0.099040,0.925119,0.369274,-0.088268
0.374651,-0.084495,0.266360,0.856401,0.464025,-0.226403
0.374651,-0.238409,0.209245,0.895610,-0.206430,0.394041
0.358899,-0.136501,0.431937,0.717733,0.147245,0.680572
0.357033,-0.257466,0.414627,0.695457,0.702142,-0.152764
0.347547,-0.247363,0.533017,0.870920,-0.163078,-0.463578
0.343991,-0.336702,0.547553,0.817278,0.046988,-0.574324
0.348736,-0.577876,0.404519,-0.406153,0.726433,-0.554377
0.347547,-0.713503,0.373077,0.866562,0.144002,-0.477842
0.345345,-0.832746,0.354963,-0.310205,0.756014,-0.576381
0.298934,0.273446,0.150609,0.970202,-0.225086,-0.089690
0.297068,0.143145,0.123953,-0.464703,0.836731,-0.289711
0.289784,0.095139,0.191936,-0.561046,0.617505,0.551285
0.257264,0.446976,0.702976,0.975644,-0.210208,-0.062700
0.481198,-0.260512,0.590356,0.895248,0.162761,-0.414776
0.491872,-0.577295,0.363908,-0.686756,0.256027,0.680306
0.486957,-0.654834,0.393785,0.666026,-0.379304,0.642291
0.480862,-0.700166,0.452063,0.984886,-0.167797,-0.042946
0.465783,-0.609490,0.651720,-0.531445,0.515650,-0.672064
0.462732,-0.718072,0.646666,-0.398805,-0.108471,0.910598
0.606717,-0.062393,0.414001,0.113275,-0.993273,0.024014
0.610108,-0.261849,0.307240,0.058182,0.655150,0.753255
0.594863,-0.470050,0.419816,0.349205,0.298410,0.888261
0.593503,-0.762265,0.335507,0.043749,0.451719,0.891087
0.586220,-0.944189,0.358631,0.749762,0.642093,0.159917
0.706150,-0.079356,0.313949,0.235551,-0.820273,0.521218
0.698360,-0.410812,0.291541,-0.145866,-0.548480,0.823342
0.809311,-0.489862,0.315559,0.512105,0.845019,-0.153924
0.459688,0.797302,-0.940125,0.852598,-0.505900,-0.130928
0.430553,0.768723,-0.941735,-0.395583,-0.067251,0.915965
0.410733,0.744144,-0.939096,0.452657,0.240309,0.858693
0.395318,0.866446,-0.946565,0.336396,0.606108,0.720743
0.395995,0.789105,-0.942227,-0.633808,-0.726457,-0.265608
0.376176,0.767200,-0.942048,0.450661,-0.872833,-0.187261
0.402602,0.720717,-0.920803,0.614913,0.280808,0.736904
0.386846,0.783583,-0.948802,-0.499609,0.781972,0.372707
0.345009,0.581463,-0.934534,-0.777874,-0.305835,-0.548978
0.329930,0.708904,-0.940035,0.165616,0.188875,0.967935
0.315197,0.851204,-0.939991,-0.229238,-0.002000,-0.973368
0.305199,0.530038,-0.930196,0.935520,0.243949,0.255521
0.290632,0.644329,-0.938694,-0.042021,-0.707289,0.705674
0.276065,0.759771,-0.946610,0.118592,-0.435612,0.892288
0.261161,0.885689,-0.952827,0.035419,-0.895804,0.443036
0.245576,0.467742,-0.921429,0.431319,0.344782,0.833720
0.229313,0.557651,-0.941735,-0.473425,0.479107,0.739138
0.214409,0.687953,-0.946476,-0.687594,0.067844,0.722918
0.199671,0.820346,-0.950009,0.680106,0.305274,0.666530
0.208986,0.239345,-0.917717,0.255997,0.755424,0.603159
0.194248,0.379738,-0.918567,0.800059,0.594994,0.076728
0.179345,0.467172,-0.937262,-0.209171,-0.067592,0.975540
0.164436,0.579754,-0.946431,-0.243426,0.169580,-0.954980
0.149192,0.694429,-0.956897,0.419231,-0.903847,0.085480
0.135131,0.826823,-0.958284,0.468440,-0.311123,-0.826902
0.141566,0.057421,-0.916196,-0.272619,-0.121555,0.954413
0.127340,0.213057,-0.911455,0.941285,0.326333,-0.086540
0.112602,0.314780,-0.924471,0.305096,0.902712,0.303361
0.097187,0.407352,-0.943390,-0.569470,-0.397195,-0.719680
0.081772,0.530991,-0.950904,-0.352289,0.412200,0.840229
0.067034,0.669663,-0.952469,-0.409024,0.692591,-0.594153
0.052978,0.812347,-0.950233,-0.348500,0.239504,-0.906193
0.033158,-0.017060,-0.922234,-0.483305,0.626282,0.611708
0.017914,0.095522,-0.933684,-0.478490,-0.521789,0.706246
0.004024,0.280109,-0.918164,-0.206976,0.978121,-0.020988
-0.010714,0.364880,-0.937620,0.278724,0.230701,-0.932250
-0.024098,0.535561,-0.924963,0.727981,-0.591347,0.346919
-0.038495,0.722437,-0.908369,0.357301,-0.422970,-0.832726
-0.054246,0.752156,-0.948802,-0.118373,-0.073161,0.990270
-0.069832,0.825869,-0.974788,0.783897,0.120232,-0.609138
-0.080672,0.442023,-0.877687,0.934697,0.355439,0.002239
-0.093885,0.646806,-0.853938,0.985786,-0.124430,0.112883
-0.111167,0.612704,-0.920222,0.801148,0.124409,-0.585392
-0.126918,0.633470,-0.964187,-0.394311,-0.172462,-0.902649
-0.141144,0.765480,-0.965753,-0.255914,0.931963,0.256812
-0.211272,0.155528,-0.947862,-0.715259,0.318860,0.621879
-0.224826,0.298967,-0.945581,0.807451,-0.344533,-0.478874
-0.239901,0.390214,-0.964948,-0.417534,0.153842,-0.895543
-0.253455,0.538223,-0.960967,0.525945,0.789145,0.317225
-0.124209,0.567372,-0.539066,-0.256652,0.604070,0.754473
-0.345771,0.276493,-0.956182,0.094563,0.992735,0.074404
-0.360338,0.398400,-0.964143,-0.173673,-0.247680,0.953149
-0.373892,0.538793,-0.962712,-0.372774,0.629621,0.681628
-0.482471,-0.190984,0.546524,0.293079,-0.013335,0.955995
-0.611887,-0.598061,0.374374,0.816465,0.156809,-0.555693
-0.397605,-0.670646,0.382603,0.403935,0.880186,-0.249218
-0.424537,-0.335179,0.403088,0.541139,-0.609511,0.579366
-0.439275,0.141808,0.512980,0.958132,0.225800,-0.176059
-0.507031,-0.432716,0.384348,-0.367291,-0.655989,-0.659375
-0.355763,-0.329656,0.377192,-0.645075,0.235163,-0.727032
-0.369653,0.134379,0.483013,-0.280202,-0.927953,0.245746
-0.322565,-0.073833,0.827717,0.774807,-0.231821,-0.588160
-0.285469,-0.628732,0.378533,0.976956,0.012059,0.213101
-0.299018,0.227916,0.611288,-0.649224,0.259071,0.715116
-0.312738,-0.086204,0.466018,0.367210,0.706247,-0.605286
-0.326463,-0.170405,0.394188,-0.948353,0.251780,-0.192961
-0.239730,-0.074973,0.839838,0.920970,0.309503,-0.236691
-0.301732,-0.682448,0.438153,0.642419,0.580806,-0.499962
-0.315617,-0.536532,0.440389,0.965300,-0.251260,-0.071163
-0.329849,-0.140687,0.522998,0.966669,-0.114251,0.229123
-0.342891,0.032657,0.536461,0.972723,0.007981,-0.231831
-0.170620,-0.579202,0.466018,0.770726,0.594157,-0.230129
-0.184511,-0.259373,0.523938,0.152151,0.143793,0.977841
-0.198230,-0.492722,0.404832,-0.514582,-0.286908,-0.808015
-0.211443,0.355927,0.635753,0.853816,0.068786,-0.516010
-0.239053,-0.304891,0.335015,0.505558,0.448988,0.736763
-0.207039,-0.045254,0.820337,0.016827,0.853609,0.520642
-0.246507,-0.041441,0.693718,-0.398760,0.778855,-0.484124
-0.258366,-0.690830,0.446115,0.530680,0.746358,-0.401658
-0.008512,0.101998,0.983051,-0.379860,-0.912060,0.154443
-0.033920,-0.022396,0.863006,0.717187,0.692359,0.079259
-0.072881,-0.166220,0.692018,0.995724,-0.054448,-0.074621
-0.086431,-0.036685,0.689469,-0.146196,-0.973637,-0.175092
-0.099479,-0.139733,0.615313,0.753731,-0.497973,-0.428849
-0.112521,-0.147547,0.570855,0.944719,-0.239048,0.224415
-0.126577,-0.207169,0.507926,-0.197951,-0.964201,-0.176441
-0.139624,-0.069822,0.509625,0.029237,-0.271690,0.961941
-0.167912,-0.408137,0.311310,0.972038,0.118895,0.202499
-0.222454,0.034180,0.278571,-0.479824,0.786627,0.388571
-0.131828,-0.030965,0.767650,0.340248,0.918870,-0.199773
-0.157748,-0.064869,0.672921,-0.295178,-0.738100,0.606695
-0.090329,-0.159929,0.321866,0.817467,-0.575969,0.002858
-0.105744,-0.500907,0.164296,0.027870,-0.213270,0.976596
-0.131999,0.118951,0.278257,-0.817002,0.576219,-0.021876
0.071779,-0.134595,0.843908,0.716784,0.696130,0.040299
0.058396,-0.133257,0.802045,-0.308429,0.801398,-0.512478
0.045524,-0.062590,0.783304,0.703752,-0.603695,0.374548
0.032482,-0.074403,0.738444,0.670266,-0.353476,-0.652533
0.019268,-0.062393,0.699398,-0.241472,0.942763,0.229977
0.006055,-0.051917,0.661113,0.499969,0.778641,0.379143
-0.007494,0.031319,0.644251,0.056314,-0.204199,0.977308
-0.021725,-0.036488,0.579219,-0.549694,0.830587,-0.089227
-0.035786,-0.478816,0.392801,-0.211705,0.748411,-0.628540
-0.048658,-0.043162,0.490751,-0.474270,0.470241,0.744273
-0.062212,-0.165266,0.408276,-0.578744,0.160852,0.799489
0.136826,-0.318797,0.723997,0.530544,0.666625,-0.523578
0.123107,-0.002771,0.780665,0.683473,0.134163,-0.717541
0.109723,-0.361095,0.624884,0.099124,-0.460270,-0.882228
0.096174,-0.280511,0.606994,-0.145273,0.514333,0.845197
0.069407,-0.043162,0.599078,0.894182,-0.280916,0.348604
0.055346,-0.080681,0.542812,-0.279827,0.956328,-0.084457
0.042474,0.159528,0.577833,0.827234,-0.479471,-0.292901
-0.014101,-0.073635,0.326025,-0.157163,0.220650,0.962608
-0.028838,-0.352515,0.190505,0.814725,0.233923,0.530569
-0.041374,0.109044,0.297400,-0.747214,-0.620277,-0.238596
-0.056448,-0.167359,0.161657,0.772807,-0.586304,-0.242936
0.231344,-0.372711,0.663438,0.644300,0.077237,-0.760862
0.217625,-0.279557,0.649573,0.552809,0.764051,0.332609
0.204246,-0.209076,0.630162,0.692742,-0.720902,-0.020199
0.190356,-0.202030,0.588880,0.839976,-0.301164,0.451377
0.176630,-0.198599,0.546032,0.219710,-0.906965,0.359363
0.162911,-0.126211,0.525280,0.959214,0.117944,0.256899
0.149698,0.049992,0.539592,-0.271989,0.609740,-0.744473
0.135808,0.025995,0.489365,0.762603,0.475108,0.438986
0.121918,0.067897,0.458504,0.702337,0.647792,0.295107
0.080417,0.075524,0.328574,-0.215692,-0.341026,0.914975
0.023332,0.084663,0.151459,-0.392337,-0.541116,0.743818
0.376517,-0.742651,0.632801,0.931581,0.058574,-0.358784
0.363133,-0.623779,0.628328,0.755868,0.290948,-0.586527
0.335689,-0.511581,0.576581,-0.071666,0.572365,0.816862
0.321292,-0.246037,0.617102,-0.596448,0.586234,0.548252
0.308079,-0.188310,0.593666,-0.432589,-0.820019,-0.374746
0.281487,0.231533,0.643043,0.782486,0.279420,-0.556453
0.268274,0.163143,0.578951,-0.662274,-0.713854,0.227610
0.239817,-0.138408,0.392488,-0.652552,-0.747354,0.125051
0.225926,0.027901,0.401478,0.378755,0.911992,0.157527
0.184763,0.116660,0.298429,-0.448788,0.721791,-0.526884
0.171213,0.167341,0.271504,0.559084,0.573895,0.598389
0.197298,0.425455,0.005608,0.790366,0.593213,0.153033
0.183749,0.518608,-0.007810,0.464428,0.621742,0.630668
0.169182,0.576324,-0.035540,0.450539,0.861937,0.232550
0.139706,0.561082,-0.135414,0.654935,0.747773,0.109072
0.124461,0.613855,-0.165470,0.285007,0.917066,0.278857
0.080417,0.662431,-0.291776,0.761068,0.545010,-0.351767
0.065002,0.670617,-0.338515,0.938804,0.310268,0.149599
0.018761,0.719577,-0.469562,-0.048165,-0.551512,0.832775
0.449525,-0.464341,0.521925,0.741464,0.670045,-0.035642
0.435970,-0.659217,0.414851,0.093710,-0.487180,0.868259
0.421744,-0.528532,0.411944,0.921763,-0.045357,-0.385092
0.407342,-0.467004,0.386897,0.897524,-0.432826,-0.084336
0.380239,-0.124874,0.411675,-0.237444,0.490013,0.838754
0.514566,-0.494431,0.441195,0.415330,0.750531,-0.514008
0.500511,-0.460341,0.409215,0.109382,0.754466,0.647160
0.486450,-0.452342,0.367039,0.021818,-0.674484,0.737967
0.722749,-0.766265,0.367665,0.868050,-0.001052,0.496475
0.638053,-0.761696,0.382603,-0.643445,-0.107129,-0.757959
0.623150,-0.657497,0.371198,0.288716,0.743265,0.603489
0.608748,-0.521301,0.370214,-0.066387,-0.958011,0.278942
0.792371,-0.784751,0.375090,-0.708928,0.679399,0.189309
-0.394218,0.399736,-0.968302,0.758848,0.648831,0.056291
-0.306473,0.375541,-0.964993,-0.211540,0.822525,0.527924
-0.215341,0.614611,-0.967452,-0.151213,0.320894,-0.934966
-0.229737,0.411363,-0.964545,-0.104297,0.035340,-0.993918
-0.242273,0.243915,-0.955466,0.184221,-0.709694,0.679998
-0.188067,0.668710,-0.971433,0.659966,-0.053853,0.749363
-0.201621,0.475741,-0.966155,0.712223,0.557477,-0.426564
-0.213309,0.322965,-0.953990,0.901198,-0.432497,-0.028075
-0.228383,0.095139,-0.957792,0.037937,0.038329,0.998545
-0.165709,0.772723,-0.974296,0.035028,0.988893,0.144444
-0.179087,0.578045,-0.969331,0.121236,-0.118221,-0.985558
-0.190946,0.423735,-0.957389,0.430453,-0.222955,-0.874644
-0.206191,0.198582,-0.959089,-0.241922,-0.528649,0.813637
-0.198907,0.619948,-0.966379,0.998028,0.057395,0.025400
-0.212291,0.423362,-0.961862,0.287177,-0.580494,0.761942
-0.225163,0.237625,-0.956584,0.991869,0.059255,-0.112622
-0.193660,0.761678,-0.976756,0.317910,0.722713,0.613693
-0.207716,0.569848,-0.971299,0.915867,-0.381614,-0.124729
-0.218556,0.426408,-0.957479,-0.409553,0.146477,0.900450
-0.233294,0.215150,-0.956047,0.807113,0.234572,-0.541797
-0.246678,0.554989,-0.966200,0.787887,0.006733,-0.615782
-0.260061,0.371356,-0.960699,-0.623095,0.580152,0.524572
-0.273611,0.165237,-0.959760,0.954762,-0.094326,-0.282014
-0.341030,0.367542,-0.967050,0.401832,0.841327,-0.361524
-0.388459,0.464881,-0.973312,-0.705783,0.289717,-0.646478
-0.400654,0.295154,-0.962667,0.215595,-0.489124,0.845149
-0.373722,0.477845,-0.967855,0.779819,0.166271,-0.603520
-0.386764,0.299921,-0.960967,0.640485,0.678209,-0.360294
-0.408957,0.436698,-0.974117,0.772843,0.515194,0.370525
-0.386934,0.427746,-0.972238,0.973814,-0.198202,-0.111363
-0.405229,0.440884,-0.968481,0.098951,0.770517,0.629692
-0.364236,0.367158,-0.970002,0.715888,0.507676,0.479343
-0.280388,0.540514,-0.970315,-0.018108,-0.872669,0.487977
-0.292923,0.364112,-0.960967,-0.146771,0.721045,0.677165
-0.203989,0.108858,-0.956450,-0.462001,0.056393,0.885085
-0.047981,0.693092,-0.947236,0.904344,0.366319,0.219025
-0.061871,0.504319,-0.941109,-0.087989,-0.458393,0.884383
-0.074577,0.323163,-0.932700,-0.675939,0.105425,0.729378
-0.088804,0.118951,-0.931314,0.896085,-0.438462,-0.069166
-0.058651,0.632714,-0.775891,0.987057,-0.158834,-0.022143
-0.151649,0.849111,-0.980781,-0.430953,0.667986,-0.606690
-0.165539,0.650805,-0.976800,-0.651488,0.046990,-0.757202
-0.175702,0.517841,-0.960609,-0.049406,0.126659,0.990715
-0.187390,0.350974,-0.951351,-0.666900,0.406417,-0.624555
-0.036463,0.854064,-0.959581,-0.030708,-0.004818,0.999517
0.116159,0.767770,-0.954303,0.522495,-0.206010,0.827380
0.101762,0.571557,-0.949383,-0.572888,-0.663791,0.480812
0.089567,0.411933,-0.935697,0.748643,0.416902,0.515487
0.075842,0.216859,-0.929883,-0.541325,0.730837,0.415747
0.061952,0.018751,-0.926483,0.322411,-0.163642,0.932348
0.296055,0.798244,-0.951798,0.260316,0.945722,0.194537
0.284703,0.651003,-0.938917,0.165530,0.940930,-0.295382
0.271831,0.479938,-0.929212,-0.287605,0.926620,-0.242197
0.261326,0.336301,-0.915078,0.883943,-0.272268,0.380152
0.132422,-0.372711,0.631057,0.522335,-0.559121,-0.643856
0.165791,0.042946,0.543125,-0.142285,0.357992,0.922820
0.091428,0.800918,-0.349562,0.945468,0.287211,0.153626
0.075166,0.643375,-0.247900,0.220923,0.973698,-0.055718
0.067546,0.586416,-0.171150,0.181291,0.961012,0.208780
-0.019864,-0.301090,0.388418,0.279906,-0.188598,-0.941320
0.208139,0.318779,0.098056,0.284291,0.909588,0.303032
0.171720,0.040272,0.420978,0.577764,0.716636,-0.390669
0.164095,-0.022780,0.490796,0.243162,0.894232,-0.375793
0.080588,0.695382,-0.282518,0.504021,0.862547,-0.044445
-0.178581,-0.457098,0.322939,0.921820,-0.049033,0.384505
-0.167570,-0.259943,0.402820,-0.428737,0.552857,-0.714517
-0.171127,-0.290614,0.439093,0.569083,0.358788,0.739876
-0.016137,-0.084495,0.638347,-0.705348,-0.504161,0.498302
-0.018339,-0.093262,0.678824,0.955916,-0.000896,0.293640
-0.015625,-0.013827,0.733569,-0.454342,-0.308255,0.835794
-0.054758,0.835775,-0.504404,0.887174,0.456684,-0.066043
-0.004785,-0.029826,0.482343,0.325221,0.487795,0.810116
-0.009019,-0.058020,0.519599,-0.001144,0.989099,0.147250
-0.164691,-0.008107,0.778653,0.183557,0.847889,0.497383
-0.184511,-0.429286,0.536685,-0.456633,0.202974,-0.866192
-0.280894,-0.294800,0.369991,-0.386907,0.796063,0.465389
-0.274965,-0.104120,0.568888,-0.220897,0.937794,-0.267856
-0.862234,-0.714946,0.424969,-0.344317,-0.793623,0.501606
-0.289689,0.277064,-0.955499,0.004342,0.226928,0.973902
0.088190,0.624449,-0.943644,0.561636,-0.048808,-0.825944
-0.546919,-0.241964,0.326074,-0.600520,0.719963,0.347892
-0.808642,-0.724355,0.359760,0.948932,0.313189,0.037942
0.272506,0.909527,-0.942757,-0.188669,-0.182683,0.964899
0.033922,-0.083021,0.598018,0.849718,-0.475043,0.228723
0.115325,0.042835,0.892781,0.323808,0.919166,-0.224239
-0.571304,-0.220714,0.337688,0.979782,-0.022360,0.198812
0.037654,0.653908,-0.183887,0.325814,0.937694,0.120728
-0.044875,0.198799,0.462627,0.819285,0.459550,-0.342908
0.021750,0.187345,-0.943886,0.404587,0.112000,0.907615
0.462105,0.705911,-0.942533,-0.624518,-0.573623,-0.530033
-0.050600,0.041273,0.742438,0.567131,-0.807314,-0.163115
0.013494,0.114562,0.968214,-0.379860,-0.912060,0.154443
-0.337910,-0.474834,0.325172,-0.083298,-0.123484,0.988844
0.327477,0.723814,-0.192864,-0.391350,0.918646,0.054168
-0.166893,-0.545390,0.412384,0.651581,0.495231,0.574620
0.284722,-0.769006,0.334656,0.996997,-0.065963,-0.040558
0.084630,0.039325,0.296941,0.397648,-0.896085,-0.197252
0.157096,0.290521,-0.903981,0.533502,0.315432,-0.784779
0.085682,-0.239373,0.532482,0.634275,0.295316,-0.714481
-0.495498,-0.427191,0.409343,-0.538619,0.789065,0.295409
0.179961,-0.385187,0.646386,0.724843,0.679303,-0.114676
0.391902,-0.236040,0.628097,0.147002,-0.193045,0.970116
-0.457437,-0.138097,0.330736,-0.594414,0.372477,-0.712694
-0.303056,-0.189216,0.518087,0.852363,0.214182,0.477077
0.354974,0.103825,0.668685,-0.141119,0.473245,0.869554
-1.000000,-0.475130,0.458137,0.971643,0.233094,0.039720
0.303800,-0.338134,0.513734,0.407509,0.888082,0.212712
0.112714,0.462136,-0.925221,0.797917,0.425674,-0.426768
-0.248794,-0.100543,0.822099,-0.728497,0.483755,0.485049
-0.033607,-0.125721,0.297799,0.810746,-0.501386,0.302163
-0.567991,-0.247507,0.435968,0.220060,0.950766,-0.218216
-0.386299,-0.210186,0.342879,0.646601,-0.693858,0.316967
-0.048055,0.740691,-0.979874,0.436318,0.134213,-0.889727
-0.124102,-0.295464,0.421764,0.938054,-0.146675,0.313914
-0.167638,0.592366,-0.944947,-0.429835,-0.664030,0.611805
-0.359303,0.508352,-0.946014,-0.704892,-0.044733,0.707903
0.307199,-0.010076,0.302417,0.904972,-0.423702,0.038751
0.453185,-0.292721,0.377758,-0.628345,0.694683,-0.350138
-0.295335,0.152114,-0.971524,-0.520604,0.141550,0.841983
-0.002808,-0.061706,0.496024,0.260005,-0.912415,-0.316065
-0.268872,-0.220691,0.435564,-0.644126,-0.711130,-0.281773
0.114751,0.560922,-0.943383,-0.296597,-0.160443,0.941429
-0.184425,-0.897198,0.378550,-0.712015,-0.495161,0.497845
-0.445023,-0.264422,0.487024,0.208377,0.549646,0.808992
-0.514405,0.537923,-0.968863,-0.440508,0.073406,-0.894743
0.418159,-0.722986,0.617798,0.906751,-0.049762,-0.418719
-0.344764,-0.163824,0.412840,0.826789,0.539295,-0.159941
0.018681,0.105349,0.178868,-0.670416,0.671461,-0.315726
-0.204543,0.041661,0.285131,-0.438756,-0.322146,-0.838877
0.234892,-0.393334,0.647493,0.484984,0.832195,-0.268777
-0.164726,0.746195,-0.986227,-0.893752,0.425326,-0.142497
-0.475078,-0.682712,0.340226,-0.457742,-0.012587,-0.888996
0.075546,0.326647,0.150929,-0.514713,0.617051,-0.595246
0.147284,0.679495,-0.959592,-0.446453,0.480109,-0.755100
0.251315,0.662217,-0.936969,0.068836,0.176051,0.981971
-0.072774,0.845847,-0.975323,0.821628,0.406940,-0.399158
0.379507,0.774799,-0.939649,0.481363,-0.870313,-0.104142
-0.235774,0.164723,0.614723,0.553161,-0.276654,-0.785796
0.180022,0.060180,0.508457,0.232673,0.706340,-0.668541
0.135699,-0.033279,-0.928345,-0.223273,0.974702,0.010224
-0.256729,0.311632,-0.959653,0.153162,0.986359,-0.060312
0.124087,-0.501815,0.608950,0.898593,0.393570,-0.193994
0.218154,0.521252,-0.028001,0.963294,0.229653,-0.139011
0.674694,-0.937860,0.348575,0.658649,-0.087657,-0.747327
-0.204880,-0.683070,0.342942,0.434508,0.568471,0.698601
0.144465,0.526988,-0.943820,0.752501,0.582414,-0.307466
-0.072850,-0.128340,0.450022,0.856081,-0.470664,0.213542
0.365847,-0.194237,0.245175,-0.222574,-0.747153,0.626277
-0.275723,0.261109,0.589024,0.192372,0.981313,-0.004265
-0.658412,-0.794461,0.345275,0.783221,-0.147624,-0.603964
0.180528,0.592539,-0.159731,0.343009,0.819570,0.458966
-0.574057,-0.443162,0.385518,-0.640672,0.767549,-0.020188
-0.141034,-0.090375,0.380963,-0.353255,0.933216,-0.065715
-0.576475,-0.695441,0.411731,-0.841445,0.535954,0.068730
0.510226,-0.205972,0.468451,0.953368,0.294682,0.065208
0.052035,0.547959,-0.636321,0.686793,0.623522,0.373545
0.176368,0.807128,-0.942205,0.898182,0.330236,0.290195
0.053350,0.017288,0.147108,-0.282653,-0.058612,0.957430
0.841221,-0.744710,0.386850,-0.740928,0.301212,0.600248
0.411176,-0.412909,0.378987,0.957250,0.053117,-0.284344
-0.143821,0.372757,-0.971146,-0.102419,0.578217,0.809429
0.410815,-0.527649,0.623844,0.362624,-0.927503,-0.090790
0.106443,-0.124929,0.607143,-0.030327,-0.019064,0.999358
0.044126,0.260868,0.570913,0.860316,-0.509562,-0.014251
0.082485,0.653010,-0.524691,0.915908,0.260120,-0.305697
-0.185032,-0.150341,0.520102,0.369354,0.560594,0.741156
0.203250,0.104466,0.334428,-0.416361,0.813286,0.406460
-0.292947,-0.156324,0.805302,-0.046675,0.298745,0.953191
0.144836,0.322770,0.496225,-0.240666,-0.958251,0.154388
-0.294953,-0.059284,0.519562,0.902107,0.322629,0.286553
0.556803,-0.156503,0.315936,-0.486878,0.787526,-0.377827
0.117987,0.265781,0.267283,-0.253357,0.874632,0.413316
-0.087382,-0.068987,0.705339,-0.629495,-0.753445,0.189887
0.285219,0.922559,-0.920785,0.110861,0.723737,0.681112
0.240017,-0.553534,0.364776,0.055633,-0.562479,0.824938
-0.768936,-0.596011,0.431791,0.272017,-0.238008,-0.932394
-0.019825,0.075118,-0.918635,-0.695715,-0.692208,0.191909
-0.217188,0.242071,0.603980,-0.584146,-0.544155,0.602220
0.069111,-0.029920,-0.896886,0.687635,-0.725810,-0.018913
-0.404227,-0.343838,0.438080,0.884917,0.408524,0.223673
0.032891,-0.141969,0.419693,0.990930,-0.055071,0.122573
-0.084788,0.511365,-0.925263,-0.715629,0.683240,-0.145114
0.083166,0.012640,0.699618,-0.128864,-0.475071,0.870460
0.388285,-0.455656,0.595227,0.406877,-0.644347,-0.647509
0.183812,0.095067,0.450348,0.922194,0.100481,-0.373445
-0.095635,-0.062702,0.361958,0.684386,-0.685479,0.248463
-0.293066,0.316925,-0.956483,-0.115599,0.189537,0.975045
0.109549,0.668612,-0.946855,-0.431980,0.839307,0.330087
0.270494,0.835233,-0.970470,0.028956,0.365005,0.930555
0.736791,-0.422054,0.387086,0.975244,-0.181067,0.126938
0.774018,-0.539169,0.310698,-0.660358,0.127543,0.740041
0.432532,-0.551843,0.616541,0.837898,-0.223128,-0.498137
0.782250,-0.015415,0.441139,0.201903,0.912098,-0.356809
0.264398,0.860910,-0.938313,-0.307319,0.853799,0.420218
0.268273,0.265713,0.164819,-0.313681,-0.770807,-0.554491
-0.283113,0.345949,-0.967018,-0.275952,-0.946578,0.166858
0.416393,0.704321,-0.926156,-0.134262,0.988716,0.066436
0.032179,0.129973,0.152005,-0.016703,0.746475,-0.665204
-0.291889,-0.751799,0.364940,0.014834,-0.212669,0.977012
0.578612,-0.531030,0.404469,-0.115758,-0.915255,0.385887
-0.580458,-0.689968,0.432421,-0.410377,0.404332,-0.817377
0.312794,-0.081315,0.449781,0.508700,-0.845738,0.161093
-0.056621,0.186012,0.297519,0.312357,-0.144325,-0.938937
-0.411908,0.010685,0.470852,0.855847,-0.263679,0.444971
-0.084946,0.213994,0.725767,-0.096331,-0.903926,0.416699
0.390380,-0.443310,0.375821,0.987098,0.020317,-0.158823
-0.278393,-0.344448,0.376275,-0.620638,0.260082,0.739706
0.097792,-0.085978,0.485751,0.148828,-0.833419,0.532225
0.434580,0.770525,-0.930907,-0.462848,0.671968,-0.578127
-0.555837,0.062243,0.354378,-0.678232,-0.405993,-0.612513
-0.004640,0.645356,-0.413491,-0.610527,-0.684095,0.399089
-0.504616,-0.579572,0.348318,-0.305157,-0.870711,-0.385672
-0.501448,-0.298026,0.481314,-0.221229,0.973067,0.064793
0.318486,-0.267227,0.523940,0.986623,0.100197,-0.128587
-0.340136,-0.490704,0.557643,-0.352997,-0.727877,-0.587867
0.021079,0.752800,-0.660057,0.023526,-0.834976,0.549784
-0.299090,-0.068164,0.809470,-0.434757,-0.142439,0.889212
0.202353,0.921413,-0.926465,0.369821,-0.918763,-0.138231
0.005571,0.344054,0.629468,-0.185066,-0.906859,0.378625
-0.542485,-0.223545,0.301606,-0.655384,0.224667,-0.721108
0.276239,0.024392,0.720857,0.830896,0.241999,-0.501047
0.253001,-0.332996,0.574564,0.982206,-0.078930,0.170414
-0.277124,0.079352,0.500780,0.804134,0.591695,-0.057139
-0.028968,0.592978,-0.951447,0.975536,0.213201,-0.053611
-0.723482,-0.534449,0.449000,0.288412,0.037256,-0.956781
0.051539,-0.029786,0.587005,0.773985,-0.027471,0.632607
0.068800,-0.081564,-0.889216,-0.662720,0.697241,-0.273236
-0.362847,-0.537464,0.468920,0.413636,0.541894,-0.731612
-0.093248,-0.703788,0.463939,0.325081,-0.776482,0.539813
-0.308257,0.043436,0.531080,0.904185,-0.203039,-0.375798
-0.768521,-0.803624,0.375891,0.888296,0.380534,-0.257145
0.071943,0.395539,-0.923277,0.194585,0.793491,0.576635
0.060819,0.719444,-0.959381,0.142322,-0.875134,-0.462477
-0.343361,-0.201588,0.417822,0.712491,0.540841,-0.447044
0.277988,0.409213,0.090137,0.015753,0.890890,0.453947
-0.104053,-0.476038,0.584150,-0.549365,-0.033027,0.834929
0.077967,0.118292,-0.926293,0.766098,-0.615543,-0.184936
-0.108277,0.713652,-0.964909,0.845417,-0.431273,-0.315077
-0.416301,0.012242,0.300718,0.825232,0.469267,-0.314293
0.484515,-0.524363,0.585243,0.203977,0.368898,0.906812
-0.119976,0.249319,0.529011,0.595857,0.779175,-0.194529
-0.194257,0.331442,-0.969470,-0.615183,-0.338521,0.712007
0.012696,-0.060143,0.718459,0.768956,-0.610041,0.191199
0.072856,0.337489,0.162606,0.162937,0.808987,0.564794
0.316582,-0.940370,0.331176,0.130923,0.990428,-0.043718
0.350161,-0.216956,0.544991,0.887224,-0.290942,-0.358033
0.690332,-0.988075,0.362657,-0.614593,0.759381,-0.213580
0.183470,-0.074410,0.827978,0.030973,-0.755089,0.654890
0.096503,0.512375,-0.936719,-0.672434,-0.266950,-0.690340
-0.045735,0.689369,-0.933875,-0.209510,-0.718279,0.663461
0.042745,0.807639,-0.965711,0.847472,0.241890,-0.472526
0.196240,0.017965,-0.932953,0.844322,-0.271635,0.461882
-0.295397,-0.344920,0.457755,-0.496474,-0.415048,-0.762396
-0.154720,0.279359,-0.953180,0.100454,0.994894,0.009773
-0.176708,-0.094260,0.367982,-0.148315,-0.129792,0.980386
0.241774,-0.596685,0.456427,0.099855,-0.919734,0.379629
0.064331,0.019560,0.443556,-0.236670,0.574046,-0.783874
0.235310,-0.126041,0.370047,0.719402,0.533962,0.444235
0.193264,0.110969,0.357336,0.529681,0.846705,0.050292
0.392445,-0.478639,0.592791,-0.522660,0.523666,0.672755
-0.224473,-0.495470,0.348229,0.931777,-0.169752,0.320898
0.061530,0.048617,0.825942,0.269011,0.939383,0.212585
-0.457874,-0.530981,0.362446,0.618749,0.600991,-0.505924
-0.183140,-0.712820,0.429131,0.120819,-0.455024,0.882245
0.256201,0.786161,-0.942569,0.157628,-0.947802,0.277174
0.480346,-0.278701,0.456863,0.690596,0.307341,-0.654689
-0.119889,0.170055,-0.904758,-0.419453,-0.116056,0.900328
-0.171066,-0.116976,0.824822,-0.230283,-0.635808,-0.736694
-0.096808,-0.099576,0.603425,0.827852,-0.549730,-0.111618
-0.110602,-0.194991,0.328613,0.710590,-0.700552,0.065487
-0.117088,0.053421,0.237898,-0.461226,-0.592844,-0.660156
-0.439895,0.530429,-0.975258,0.907981,0.057996,0.414979
-0.063154,-0.095322,0.341176,-0.662188,-0.359460,0.657492
-0.040593,-0.660478,0.340213,-0.472751,-0.569934,0.672073
-0.005391,-0.085672,-0.895414,0.995698,0.068202,-0.062729
0.451082,-0.095310,0.392456,-0.038705,-0.998643,-0.034831
0.132824,0.875286,-0.935615,-0.466286,0.764413,-0.445253
-0.488945,-0.273310,0.450223,0.934014,-0.274656,-0.228435
-0.102574,0.321901,-0.954986,-0.555136,0.248083,0.793901
0.264768,-0.121275,0.320152,0.281752,0.956171,0.079701
0.175471,0.803897,-0.950211,0.900649,0.076833,-0.427701
0.442915,-0.408564,0.412852,-0.401203,0.882698,0.244706
-0.206077,0.135864,-0.956243,-0.696833,0.184820,0.693012
-0.119854,-0.060926,0.784078,0.217226,-0.909302,-0.354942
0.769381,-0.065238,0.332612,-0.088524,0.977021,0.193892
0.257697,0.465929,-0.913016,-0.433202,-0.866375,-0.248456
0.160731,0.033442,0.328816,-0.328179,0.899077,-0.289759
0.393326,0.611319,-0.920927,-0.544528,0.366821,-0.754275
0.146773,0.044129,0.388224,0.045171,-0.927163,0.371925
-0.015789,0.144372,0.555088,0.753277,-0.205382,-0.624813
-0.178677,-0.333379,0.302502,-0.490757,-0.347121,-0.799165
0.087421,0.568750,-0.056345,0.217105,-0.930645,0.294558
-0.059083,-0.566972,0.462326,0.997613,0.041341,0.055310
0.019750,-0.460934,0.372024,0.976918,0.133691,0.166608
0.372012,0.078843,0.672153,-0.276371,0.067757,-0.958660
0.088472,-0.061976,0.860266,0.198225,-0.822426,0.533218
-0.262719,-0.023024,0.693865,-0.456101,0.836681,-0.303209
0.133904,0.204541,0.258161,-0.455284,0.319952,0.830872
-0.081337,-0.100714,0.760967,-0.106749,-0.593751,0.797536
0.286625,0.423534,-0.043044,0.547120,0.436567,0.714191
0.095583,0.035913,-0.906219,-0.611515,0.100457,-0.784830
0.119123,0.401900,-0.949673,0.317919,0.143211,0.937239
-0.741360,-0.644280,0.423086,-0.327161,-0.485163,0.810914
-0.016105,0.396941,0.430963,-0.545641,-0.760150,-0.352771
-0.390383,-0.319792,0.430157,-0.572181,-0.550918,-0.607535
-0.043354,-0.095986,0.390583,0.277571,0.959416,-0.049750
-0.359824,-0.027599,0.335896,-0.582672,-0.637221,-0.504424
-0.027415,-0.056735,0.563697,0.537502,-0.836210,-0.108831
-0.465935,-0.352841,0.476894,0.823283,0.152994,-0.546624
0.342726,0.104023,0.263055,0.754278,0.643795,0.128811
-0.025708,-0.328022,0.623740,-0.239483,-0.854605,0.460758
-0.324487,0.433709,-0.950805,0.367407,-0.209156,-0.906237
-0.201559,0.470371,-0.977700,-0.079738,0.047471,0.995685
0.237193,-0.289865,0.588559,0.122608,0.406974,0.905174
0.400466,0.696790,-0.949286,0.022546,0.977764,0.208494
-0.147645,-0.115142,0.866439,0.480720,-0.021161,-0.876619
0.017369,-0.040769,0.788809,0.263809,-0.868348,0.419973
0.474078,0.730459,-0.951683,-0.018307,0.360383,0.932625
0.463633,-0.410104,0.433503,0.526384,0.829329,-0.187440
0.057232,-0.011079,0.600907,0.942406,-0.334225,0.012845
-0.128892,-0.613037,0.479556,0.873741,0.450460,0.183477
-0.474176,0.474522,-0.976437,0.297615,-0.931904,0.207319
-0.181774,0.121260,0.340296,0.126900,0.944564,0.302814
-0.323299,-0.319557,0.419596,-0.613803,0.788874,0.030376
0.029166,0.796008,-0.946894,0.282583,0.076802,0.956163
0.306482,-0.363145,0.327588,0.846161,0.090181,0.525241
-0.611513,-0.515214,0.452269,0.171422,0.476551,-0.862272
0.171585,-0.017411,0.365893,0.681932,-0.720797,-0.124179
-0.136276,-0.199493,0.862235,0.271348,-0.331309,-0.903662
0.082987,0.667379,-0.956586,-0.776432,0.619746,-0.114317
0.389514,-0.099331,0.090912,0.950422,0.307368,-0.047155
-0.086421,-0.688908,0.456539,0.683851,0.157739,-0.712366
-0.192889,-0.281724,0.512833,0.744502,0.281854,0.605207
-0.259493,-0.928260,0.330695,0.136822,0.304819,0.942531
-0.030603,0.023857,0.154395,-0.430070,0.328347,-0.840969
0.594115,-0.679905,0.355419,0.472907,0.423316,-0.772763
-0.016148,-0.009266,0.491039,-0.856577,0.486355,-0.172437
0.351214,-0.104609,0.427790,-0.771564,-0.635784,-0.021634
0.038920,0.062783,0.149359,-0.259208,-0.457800,0.850430
0.279681,0.544690,-0.923484,-0.212140,-0.061303,0.975315
-0.085129,0.406471,-0.946215,0.862497,-0.306177,-0.402933
-0.086385,0.744090,-0.951936,0.444956,-0.239243,-0.863005
0.042680,-0.669846,0.398042,-0.121312,0.931212,0.343698
0.234648,0.271006,0.570549,-0.506277,-0.763196,0.401516
-0.235159,0.155302,0.348055,0.218948,0.975464,0.023047
0.170480,0.065312,0.285817,-0.712868,-0.466312,-0.523805
0.152289,0.077263,-0.913827,0.020133,-0.246469,0.968941
0.105468,0.762419,-0.431343,-0.449794,-0.626150,-0.636884
-0.051021,0.639330,-0.951724,-0.034823,0.762997,0.645463
-0.151464,0.020518,0.632407,-0.600178,-0.036497,0.799034
0.090251,-0.156521,0.769647,0.250033,0.902393,0.350958
0.099828,0.736132,-0.453908,0.386474,0.784620,-0.484777
0.107131,0.305394,0.127389,-0.045515,0.982576,0.180200
0.106569,0.015636,0.327615,0.821674,-0.568821,-0.035989
0.188254,0.901084,-0.960909,-0.432462,0.891902,0.132238
0.349448,-0.053269,0.704370,-0.009633,0.903097,0.429329
0.194325,-0.213148,0.756397,-0.470261,-0.810009,0.350342
0.114140,0.329557,-0.927946,-0.196829,-0.064841,0.978291
0.769745,-0.049675,0.469551,0.139976,-0.829696,0.540381
-0.005807,0.007153,0.455760,0.997505,0.067528,0.020567
0.077933,-0.492035,0.349730,0.067414,0.957526,-0.280354
0.046080,0.595067,-0.951711,0.618904,-0.615573,-0.487880
-0.232988,-0.199006,0.528273,0.318686,0.511463,0.798025
0.157612,-0.505279,0.603836,0.891087,0.201209,0.406791
0.102964,-0.484026,0.591724,0.665339,-0.647076,0.372312
-0.266045,-0.139745,0.382974,-0.121700,0.965987,-0.228163
-0.027891,0.725065,-0.969764,-0.127304,0.433274,0.892226
0.408389,0.774748,-0.937977,-0.315781,-0.948781,-0.009797
0.192927,-0.619081,0.342967,-0.759974,0.631741,-0.152779
0.007766,-0.161487,0.661506,0.800454,-0.577180,0.161670
0.340211,0.932937,-0.948780,0.020801,-0.754762,0.655669
-0.422314,0.504798,-0.961232,-0.420089,-0.134831,0.897411
0.532862,-0.207768,0.311641,-0.577825,0.814280,-0.055378
0.153462,0.266186,0.244843,-0.233169,-0.971782,-0.035676
-0.454805,0.031990,0.342366,0.561477,0.171041,0.809623
0.092820,0.483353,0.089057,-0.438714,-0.870105,-0.224605
-0.249563,-0.325689,0.458235,-0.616998,0.435667,0.655368
-0.104550,-0.185884,0.272057,-0.073175,0.792295,0.605734
0.271975,0.787048,-0.941509,-0.238896,-0.954585,-0.178032
-0.140057,-0.498783,0.409267,0.226346,0.684737,0.692751
-0.512479,-0.293811,0.465030,0.309526,0.950205,0.036107
0.057875,0.461320,-0.091142,-0.362561,-0.744990,-0.559945
-0.100622,-0.051988,0.412686,-0.408727,0.858866,0.308692
0.097658,0.412102,-0.938791,0.067499,0.110739,0.991555
0.420030,-0.757309,0.377600,-0.213599,0.252776,-0.943652
-0.000569,0.614867,-0.931515,-0.183078,0.776773,0.602582
0.072571,0.199581,-0.921223,-0.499286,0.622843,0.602312
-0.124988,0.193600,0.340734,-0.320429,0.931741,-0.170834
-0.196812,0.272161,0.319843,0.015454,0.922283,0.386207
-0.399269,-0.372701,0.496303,0.503097,0.330218,0.798655
0.069454,0.318347,0.294225,0.252903,-0.617073,0.745158
-0.691917,-0.451403,0.350780,0.611987,0.775388,0.155714
0.089240,0.257889,0.194155,0.184106,0.789567,0.585397
0.163727,-0.438373,0.584457,-0.543238,0.540219,-0.642694
0.440317,-0.263277,0.199537,0.963370,-0.089234,-0.252893
0.170837,-0.143819,0.513310,0.825920,0.349615,0.442296
-0.274240,-0.699744,0.340071,-0.745744,0.190665,0.638367
0.109314,-0.662463,0.625178,0.698791,0.597724,0.392960
-0.430616,-0.098313,0.413515,-0.640709,0.259042,0.722765
0.072333,0.256871,0.593466,-0.506562,0.859564,-0.067411
0.057608,0.058289,0.784148,-0.436461,-0.861210,0.260419
-0.513388,-0.493156,0.447307,-0.170564,0.520158,-0.836865
0.196166,-0.079388,0.515451,-0.604048,0.047030,-0.795559
-0.107133,-0.275842,0.630811,-0.152222,-0.349055,0.924656
-0.031886,-0.169029,0.413588,-0.573042,0.643612,-0.507333
0.043527,0.733979,-0.356534,0.976700,0.187014,0.105275
0.279197,-0.105983,0.348258,-0.504828,0.813313,0.289259
0.549327,-0.666791,0.678762,0.956420,-0.241241,-0.164510
-0.283983,-0.815964,0.385635,0.869150,0.142554,-0.473557
-0.026972,0.623062,-0.963477,-0.459974,0.280895,-0.842331
-0.252665,0.139052,0.290955,0.507847,0.556932,-0.657205
0.189216,0.770424,-0.948631,0.872588,0.488416,0.006312
-0.372365,-0.162854,0.447521,-0.705446,-0.087255,-0.703372
0.197007,0.597273,-0.958776,0.704294,0.643088,-0.300678
-0.004050,0.487579,-0.306209,0.495352,0.017588,0.868514
-0.769664,-0.649358,0.388745,-0.049443,0.964413,0.259736
-0.315689,-0.258274,0.377035,0.997678,-0.017892,0.065711
-0.241697,0.259015,-0.956473,0.858347,0.127467,0.496984
-0.079705,0.621490,-0.658052,0.870289,-0.315069,0.378589
-0.019665,0.296108,0.343621,-0.153255,0.594123,0.789639
-0.010635,0.427090,-0.485903,-0.770969,0.494035,-0.401916
0.250207,0.659463,-0.950143,0.306701,0.495303,0.812778
-0.065892,0.421371,-0.449138,0.840641,-0.459758,0.286262
-0.013398,0.017323,0.486179,0.666826,-0.255876,0.699907
-0.233339,-0.982335,0.360430,0.464561,0.866428,-0.182990
-0.158491,0.109450,-0.958420,0.028850,0.982833,0.182229
-0.576978,-0.296520,0.399921,0.204890,0.925964,0.317191
-0.408309,-0.635318,0.373124,0.922911,-0.175819,-0.342526
0.335037,0.270597,0.671032,0.527257,-0.833675,0.164271
-0.436418,-0.597882,0.393782,-0.087662,-0.654607,0.750870
-0.007536,-0.057015,-0.892326,0.468985,-0.075914,-0.879938
-0.054675,-0.117464,0.194225,-0.698469,-0.082375,-0.710884
-0.765762,-0.330785,0.363801,0.863263,-0.391349,0.318783
-0.043686,-0.534051,0.173615,0.686889,0.164789,-0.707834
0.419361,-0.490563,0.351049,-0.495780,-0.170004,0.851646
-0.075758,0.126290,0.639765,0.621200,0.690221,-0.371087
-0.447682,-0.172104,0.404417,-0.667253,0.147930,0.729993
0.236021,0.575412,-0.951367,0.943094,0.196537,0.268229
0.006926,0.137443,0.979119,-0.379860,-0.912060,0.154443
0.177283,0.321557,-0.274169,0.909639,0.415081,-0.016249
0.125278,0.579476,-0.943006,0.095196,-0.216278,0.971680
-0.755640,-0.097868,0.452407,0.986819,0.066181,0.147674
-0.012748,-0.065587,0.349058,0.221125,-0.725791,0.651407
0.567208,-0.352742,0.447497,-0.304478,-0.949518,0.075553
0.013422,0.713829,-0.938551,0.943085,0.290137,0.162514
-0.064507,0.022141,-0.940262,0.570629,-0.414894,-0.708693
0.187885,0.256819,0.593433,0.238088,0.970601,-0.035335
0.098429,-0.102177,0.852052,0.952111,-0.022912,0.304892
0.350349,0.919756,-0.950639,-0.106554,-0.647769,0.754348
0.005146,0.002281,-0.927171,0.650090,0.336837,-0.681119
0.717909,-0.087854,0.431409,0.155933,-0.982025,0.106355
-0.138932,-0.426892,0.453121,-0.520460,0.420376,-0.743239
0.243953,0.385167,-0.022106,-0.565434,-0.754618,-0.332921
-0.190861,0.257281,0.436731,-0.390457,0.838920,-0.379152
0.298623,0.329920,0.694905,-0.301119,-0.849593,0.433034
0.342989,0.260805,0.122775,0.755554,0.580133,0.304277
0.034011,-0.056850,0.803329,-0.054639,0.765432,0.641193
-0.044973,-0.135357,0.495086,0.313119,-0.722253,-0.616691
-0.022941,-0.112265,0.718281,0.976210,0.148295,-0.158187
0.078436,0.670144,-0.398000,0.359689,0.932868,0.019537
-0.603800,-0.186992,0.355458,0.865046,0.109200,0.489664
0.134739,0.506229,-0.083958,-0.256673,0.965455,-0.044888
0.045970,0.577168,-0.943439,-0.144298,0.985613,-0.088001
-0.085840,0.605270,-0.920997,-0.118792,-0.326806,0.937596
-0.030547,-0.089497,0.633952,0.805088,0.315477,-0.502302
0.000240,-0.043131,0.689753,-0.686890,-0.708583,0.161530
-0.193986,0.121751,0.369807,-0.130312,0.983726,-0.123704
0.472179,-0.809836,0.355717,0.084143,-0.986807,0.138316
0.339732,0.373353,0.645489,-0.448458,0.755010,0.478377
-0.055142,0.031328,0.776903,0.346873,-0.570523,0.744434
0.217631,0.850730,-0.932913,-0.627373,0.328223,0.706167
-0.071129,-0.278194,0.388502,-0.602895,-0.379835,0.701600
0.445466,-0.405584,0.391749,0.136974,-0.989545,-0.045149
0.108244,0.583874,-0.404757,0.615022,0.782042,-0.100784
0.026684,-0.059317,0.479319,-0.733014,0.023731,-0.679799
0.100951,0.138145,0.460109,0.406463,0.857048,-0.316635
0.371328,-0.691617,0.612345,0.499493,-0.399225,-0.768847
0.371454,0.718410,-0.923233,0.740963,0.541639,0.396990
0.107546,0.651550,-0.291530,0.722400,0.569890,-0.391617
-0.029856,-0.029875,0.672846,0.810463,0.554729,0.188216
0.228117,0.518005,-0.921738,-0.088715,0.774989,0.625717
-0.060517,0.593529,-0.537934,0.326742,-0.631602,-0.703078
-0.217938,0.709997,-0.966893,0.869589,-0.099457,-0.483656
-0.233267,0.033576,0.284296,-0.075679,0.704876,0.705282
-0.116435,-0.619382,0.578578,0.070617,0.997057,0.029850
-0.011131,0.657772,-0.947108,0.579963,0.687742,-0.436640
0.088942,0.727486,-0.951452,0.913811,-0.147707,0.378328
0.360956,0.166322,0.610273,0.885806,0.011986,-0.463900
-0.072358,-0.715397,0.417283,0.713978,-0.640885,-0.281961
-0.124574,-0.072666,0.559254,0.463196,0.708215,0.532805
0.502596,-0.264136,0.475064,0.840010,0.532193,-0.105612
0.384758,-0.787856,0.382606,0.353767,0.622961,-0.697688
0.238761,-0.325166,0.629179,-0.083643,0.792436,-0.604193
0.090273,0.109725,-0.953986,-0.348021,0.208328,0.914046
-0.091912,0.353594,-0.952165,0.460279,0.521242,-0.718644
0.140590,0.093256,-0.936275,-0.082025,-0.781704,-0.618232
-0.527710,-0.297879,0.453485,0.680278,0.728247,0.082939
0.164566,0.330175,-0.284099,0.869573,0.491717,0.045345
0.192834,0.114152,-0.923211,0.939436,-0.258382,-0.225165
0.200362,0.305491,-0.906717,0.104956,-0.158214,0.981811
0.234284,0.420225,-0.011596,0.795916,0.590374,-0.134076
0.491953,-0.265574,0.084329,0.789424,0.613433,0.022574
0.132053,-0.632881,0.622363,-0.309782,0.720245,0.620711
0.097803,-0.100680,0.446844,-0.058904,-0.996090,0.065843
0.367780,0.372951,0.656584,-0.692055,0.711443,0.122102
0.686974,-0.284951,0.327575,0.731847,0.220279,-0.644885
0.429214,0.934169,-0.924309,-0.537390,-0.296315,-0.789562
0.175571,0.631834,-0.943576,-0.349055,0.260138,-0.900271
-0.578409,-0.338513,0.308381,0.782158,0.106879,0.613845
0.317219,0.042532,0.273129,-0.704868,-0.681017,-0.198434
0.522146,0.025838,0.477691,0.059684,-0.493866,0.867487
0.159207,-0.089378,0.542138,0.594974,0.703855,-0.388065
-0.290928,-0.564985,0.393350,0.790351,0.312322,0.527068
-0.258186,0.263347,-0.975866,0.992123,0.124084,-0.017167
0.124131,0.802838,-0.946846,0.286034,0.715639,-0.637216
0.252349,0.489337,-0.945806,0.795145,-0.604976,-0.041807
0.238030,-0.123860,0.451177,0.786917,0.459031,-0.412373
-0.178417,0.179955,-0.943499,-0.424705,-0.134222,-0.895327
0.179049,-0.215244,0.638721,0.027198,0.882274,0.469950
-0.210148,-0.964208,0.328398,-0.308386,0.471909,0.825954
0.280884,0.332517,-0.912658,0.730289,-0.550426,0.404609
0.179364,0.061606,0.634394,-0.234590,-0.498676,-0.834440
-0.071517,0.040564,0.630294,0.560385,0.708731,-0.428565
0.014790,0.292420,-0.908499,0.417333,-0.814779,-0.402453
0.092124,-0.025714,0.155167,-0.725327,0.326353,0.606131
0.024532,0.433939,-0.923965,0.294537,0.368286,-0.881824
-0.270929,-0.594716,0.371735,0.833496,-0.202275,0.514168
-0.535574,-0.219554,0.309009,-0.260772,0.944704,-0.198827
0.189464,0.490270,-0.931563,-0.277629,-0.036393,0.959999
0.153176,0.439073,-0.951019,0.799195,0.042615,-0.599559
0.122849,0.697289,-0.934344,0.768090,-0.132512,-0.626481
-0.408467,-0.147447,0.304259,0.842073,-0.504030,-0.192010
0.070345,-0.050181,0.517358,-0.725320,0.440276,0.529215
0.502681,-0.518155,0.537286,0.400100,0.895822,0.193451
-0.135822,0.122802,0.682803,0.968710,0.242205,0.054193
0.493749,-0.084784,0.448163,-0.241714,0.826209,-0.508874
0.027216,0.172737,-0.930045,0.796312,-0.590437,-0.131422
0.349122,0.090561,0.447876,-0.365372,-0.835355,0.410714
0.365522,0.614788,-0.946044,0.649779,-0.436354,-0.622401
-0.205252,0.405593,-0.944661,-0.383250,0.546234,0.744814
0.021427,-0.324700,0.403263,0.221973,0.188122,0.956733
0.000208,-0.032711,0.663077,-0.495710,-0.615139,-0.613088
0.408728,0.265205,0.580263,0.992933,0.046077,-0.109365
-0.197872,0.152166,0.705493,0.747214,0.412086,-0.521398
-0.109771,-0.589749,0.458065,-0.660010,0.747457,-0.075469
-0.385629,0.263244,0.479878,-0.424966,0.879816,0.212905
0.337511,0.137077,0.121915,0.953644,-0.255160,0.159550
-0.117997,-0.172193,0.445121,-0.494761,0.867911,-0.044071
0.006328,0.397678,0.369318,-0.014913,-0.986486,0.163166
0.062360,-0.109994,0.828650,0.920915,0.353856,0.163407
0.077334,-0.026366,0.753259,0.949930,0.309093,-0.045773
0.029533,-0.099295,0.808710,0.886707,0.004021,-0.462314
0.590114,-0.042637,0.443705,-0.143789,0.970077,-0.195639
0.025500,0.182760,0.198412,-0.795793,0.316242,-0.516434
0.070149,0.545108,-0.957097,-0.134183,-0.764853,0.630075
0.140251,0.070286,0.335471,-0.375105,0.926598,0.026697
0.044632,0.055193,-0.925184,-0.612782,-0.281008,-0.738602
-0.065238,0.058958,0.724538,-0.628512,0.777299,0.027917
0.601392,0.231427,0.428523,0.938980,-0.299127,0.169823
0.070078,0.127120,0.984357,-0.365939,-0.916515,0.161524
0.837037,-0.042501,0.343013,-0.153401,0.956602,0.247750
-0.032451,0.605230,-0.951043,0.816992,0.293867,0.496151
-0.057939,0.828166,-0.972646,0.762865,0.096656,-0.639292
-0.461168,0.349169,-0.976710,-0.353364,-0.186378,-0.916732
0.100916,0.044262,0.500656,0.550009,-0.825918,0.123891
0.331363,0.416270,-0.907333,0.448370,0.823037,-0.348675
0.004909,0.099259,0.965356,-0.379860,-0.912060,0.154443
0.035116,0.821032,-0.939261,-0.180196,0.841850,0.508742
0.071742,0.059677,-0.928788,-0.327300,0.296830,0.897088
-0.199582,-0.015240,0.280450,-0.583493,0.514030,-0.628736
-0.734315,-0.489990,0.397308,0.703879,0.528254,0.474872
0.015368,0.179835,-0.941210,-0.348874,0.006192,-0.937149
-0.002932,0.282528,-0.914131,-0.411434,0.809486,0.418872
-0.458407,-0.058705,0.392735,0.725367,-0.188541,-0.662038
-0.190409,0.423524,-0.953383,-0.358794,0.412584,0.837282
-0.440745,-0.057287,0.327885,0.204741,-0.549035,0.810334
0.397987,0.822685,-0.927674,-0.172214,-0.270526,0.947184
-0.020392,-0.108029,0.430459,0.897394,0.296498,0.326762
-0.684900,-0.154807,0.616741,-0.675393,-0.708598,-0.204287
-0.515327,-0.440933,0.569381,0.776642,0.429210,0.461092
0.726025,0.008804,0.334737,0.244723,-0.942827,0.226248
0.387577,0.393823,0.624024,0.482534,-0.867569,0.120355
0.715344,-0.393450,0.334960,0.960872,0.236313,-0.144505
0.309173,-0.166131,0.682655,0.853282,0.096573,-0.512430
0.226463,0.576607,-0.928159,0.694101,-0.199859,-0.691578
-0.446380,0.158607,0.379139,-0.345252,0.938397,0.014535
-0.194192,0.596393,-0.978709,0.977185,-0.191112,0.092659
0.646409,0.062234,0.465959,0.005234,-0.315922,0.948771
0.242488,0.447881,0.701075,0.893108,-0.180816,-0.411902
0.711848,-0.081016,0.321202,-0.160351,0.967339,-0.196321
-0.186301,-0.485797,0.368647,0.246096,0.933106,0.262203
0.096157,-0.057661,0.338987,0.933893,-0.294936,0.202130
0.321402,-0.325238,0.551186,0.549839,0.441720,-0.708915
0.039725,-0.031620,-0.939741,0.310747,-0.675984,0.668193
0.129261,0.217518,-0.922077,0.983410,0.137748,-0.118028
0.314335,0.286456,0.411214,0.865832,0.250779,0.432949
0.317186,0.569853,-0.953694,-0.773650,0.457894,0.437949
0.270728,0.114121,0.231003,0.731784,0.678457,0.064719
0.200049,0.205467,-0.909459,-0.776758,0.227894,-0.587121
0.157714,0.867201,-0.966947,-0.586114,0.752283,0.300899
-0.498450,0.083652,0.279487,0.046042,-0.485087,0.873253
0.391523,0.826916,-0.949210,-0.186081,-0.217513,0.958155
0.305031,0.168290,0.364837,0.946480,-0.135419,0.292981
-0.025118,-0.103972,0.779175,0.839216,0.543278,-0.023775
-0.046479,0.031160,-0.930917,0.487774,-0.023561,-0.872652
-0.242859,0.256372,-0.947326,0.167027,-0.189231,0.967623
-0.248980,-0.899949,0.376614,-0.671271,-0.221423,0.707366
-0.101151,0.518088,-0.948531,0.693380,0.117092,-0.710995
0.191780,0.400425,-0.927015,0.144903,-0.264636,0.953400
0.186047,0.297295,-0.929536,0.627427,0.509919,0.588488
0.217581,0.331378,0.156225,0.302187,0.889035,0.343948
0.348568,-0.132511,0.312788,0.686900,0.713042,-0.140499
0.247978,0.700058,-0.943091,0.837861,0.379229,-0.392651
0.060508,0.284396,-0.926467,-0.562933,-0.802582,-0.197406
0.350017,-0.573694,0.602484,-0.519562,-0.854425,0.003699
0.297171,-0.085684,0.335455,-0.239997,0.880452,0.408908
0.248896,-0.275920,0.556754,0.643587,0.380269,0.664222
0.158180,0.303433,-0.908531,0.591976,0.320469,-0.739502
