-0.375408,0.436792,0.860387,0.903137,0.247155,-0.351081
-0.371311,0.316055,0.916923,0.798191,-0.282813,0.531890
-0.319563,0.381169,0.788183,0.641588,-0.025567,-0.766623
0.041903,0.445340,0.521928,0.934366,-0.349495,0.069381
-0.064888,0.479076,0.506826,0.739773,-0.453051,0.497474
-0.309091,0.301943,0.143719,0.834165,-0.315154,-0.452600
-0.068126,0.066648,0.088021,0.687340,0.665995,0.289854
-0.084446,0.145494,0.164452,0.541422,0.824352,0.165242
0.434632,-0.703857,-0.961581,0.440160,0.149006,-0.885470
-0.403889,0.441822,0.551163,0.881357,0.470768,-0.039838
0.928703,-0.244376,-0.949458,-0.338448,0.027685,0.940578
-0.616947,0.158183,0.742384,-0.195051,-0.167904,0.966314
0.264347,-0.232097,-0.964327,-0.031616,0.083719,0.995988
-0.476182,0.338322,0.680521,0.401810,-0.915201,-0.030907
0.944411,-0.286022,-0.948715,-0.482483,0.266682,0.834321
0.738038,-0.850884,-0.953513,-0.390379,0.321159,0.862822
-0.697122,0.342313,0.749523,0.939671,0.151687,-0.306610
0.388595,-0.382306,-0.967743,0.634118,0.751505,0.182029
-0.339045,0.754992,0.202501,0.132361,-0.546177,0.827146
0.341419,-0.399107,-0.978917,0.082850,-0.334161,0.938867
-0.144760,-0.025639,-0.187298,0.517537,0.849381,-0.103476
0.654993,-0.336934,-0.960273,0.412565,-0.355325,-0.838770
-0.063558,-0.041106,0.485231,-0.866766,0.422758,0.264560
-0.603098,0.288415,0.852212,-0.664055,-0.659457,-0.352347
0.100976,-0.125583,-0.506327,0.701445,-0.687252,0.188835
-0.019358,0.268965,0.269400,-0.526959,-0.843680,0.102561
0.378432,-0.929265,-0.951740,-0.187425,-0.130832,0.973527
0.081456,0.094433,0.276277,0.287414,-0.953294,0.092864
0.783545,-0.091002,-0.947204,0.530608,0.470165,-0.705266
-0.072672,-0.177391,0.650709,0.260890,0.117504,0.958191
-0.231067,-0.017770,0.861438,-0.435603,-0.829321,0.349966
-0.716635,0.399669,0.552083,0.507383,0.807565,0.300670
0.959452,-0.059911,-0.954203,0.207701,-0.284142,0.936015
-0.354819,0.305417,0.615617,0.207905,0.308704,0.928158
0.731225,-0.394984,-0.955168,-0.118248,0.387854,-0.914104
-0.286307,0.324958,0.842078,0.315528,0.877345,-0.361536
-0.454676,0.309459,0.757709,-0.381094,0.674264,0.632562
-0.119834,-0.473305,0.162027,-0.634261,-0.250408,-0.731443
0.212671,-0.299309,-0.442854,0.874539,0.470809,0.116276
-0.501666,-0.232531,0.233700,0.891219,-0.162797,0.423350
0.506636,-0.751779,-0.942853,-0.381190,-0.609769,0.694893
-0.389178,0.381338,0.688738,0.280576,0.387447,0.878158
-0.443732,0.397279,0.665635,-0.093651,-0.963679,0.250106
0.685672,-0.392996,-0.980006,-0.220282,0.482794,0.847576
0.273687,-0.692587,-0.963781,0.158469,-0.638171,-0.753409
-0.296546,0.225600,0.841891,0.323930,-0.396167,-0.859140
0.605558,-0.361797,-0.957790,-0.020720,-0.568416,0.822481
0.148635,-0.132399,-0.493120,-0.513521,0.857403,0.034006
0.199858,-0.845148,-0.967977,-0.034391,0.984518,0.171876
-0.528350,0.403132,0.771728,0.653319,-0.627032,-0.424270
-0.518122,0.522213,0.775659,-0.091344,0.676881,0.730403
-0.253110,-0.018510,0.871574,-0.038879,-0.424296,0.904688
-0.272510,0.321858,0.937614,-0.040311,0.174674,0.983801
0.334782,-0.401427,-0.904945,0.961381,0.268637,0.059837
0.380679,0.334712,0.332862,0.364863,0.922708,-0.124439
0.466476,-0.353862,-0.915154,0.960262,0.093260,0.263059
-0.268323,0.352626,0.693252,-0.377714,-0.895040,-0.237139
-0.318968,0.159940,0.887675,0.822421,0.204891,-0.530700
-0.151218,0.156340,0.827853,0.970756,0.131623,0.200768
-0.309276,0.028973,0.872650,0.081417,-0.493357,0.866008
0.544406,-0.640454,-0.961242,0.239077,-0.426940,-0.872103
-0.475492,0.501906,0.898498,0.946138,-0.286389,0.151010
-0.520000,0.669343,0.832913,0.951337,-0.141401,0.273796
-0.293723,0.296922,0.483438,0.591731,0.263348,-0.761907
0.025205,0.007694,-0.281880,0.341169,0.938359,-0.055550
-0.388516,0.430658,0.505045,-0.454634,-0.411239,0.790057
0.001781,-0.199776,0.478595,0.735717,-0.401107,0.545741
-0.489158,-0.136403,0.738600,-0.019328,-0.862387,0.505881
-0.521721,0.566434,0.883277,0.392516,0.199544,0.897838
-0.405394,0.359131,0.531807,0.908239,-0.240629,0.342345
-0.679141,0.190108,0.925109,0.473278,0.876993,0.083015
0.122444,-0.084114,-0.436432,0.980895,0.190060,0.041492
-0.314843,0.297637,0.287365,0.531626,0.846947,-0.007396
-0.365452,0.270385,0.806269,-0.744379,0.647837,0.161885
-0.331835,0.521648,0.507739,-0.208777,0.450411,-0.868068
0.353877,-0.070971,-0.973867,-0.493941,-0.037670,0.868679
0.161563,-0.598056,-0.980269,0.463335,-0.181148,-0.867471
0.326263,-0.471125,-0.978841,-0.199902,0.309323,0.929709
-0.265002,0.444880,0.367222,-0.235106,0.770589,-0.592383
0.461674,-0.077727,-0.962667,-0.196028,-0.070063,0.978092
-0.296137,0.150638,0.468494,0.858134,-0.383501,0.341368
-0.329749,0.619223,0.868903,0.442164,-0.296366,0.846557
-0.365151,0.394461,0.927192,0.915861,-0.107571,-0.386817
0.563434,-0.776327,-0.956063,0.987977,0.116126,-0.102061
-0.857375,0.457523,0.360941,-0.040615,-0.590463,0.806042
0.590776,0.120414,-0.966508,0.233788,-0.141729,-0.961902
-0.272654,-0.009879,0.555974,0.466821,-0.881536,-0.070511
-0.271211,0.311649,0.341550,-0.643205,-0.763766,0.054307
-0.472334,0.317645,0.881258,0.952650,0.195269,-0.233083
0.206323,0.283024,0.613256,0.958608,0.227992,0.170562
-0.688790,0.176867,0.935406,0.316848,-0.847267,-0.426317
-0.628567,0.269373,0.743833,-0.583606,-0.765651,-0.270522
-0.700716,0.262192,0.919702,0.354732,0.885395,0.300400
-0.761532,0.027350,0.754722,0.309174,-0.098862,-0.945853
-0.521340,0.386585,0.882951,0.009074,0.130663,0.991385
-0.444064,0.365039,0.935795,-0.742612,0.621301,0.250025
-0.725940,0.145663,0.811213,0.147393,0.950616,-0.273139
-0.364507,0.317633,0.350866,-0.063326,0.944038,0.323701
-0.649341,0.283708,0.913194,0.640428,0.563525,0.521815
0.084955,0.494185,0.555372,-0.487771,-0.024457,0.872629
0.608619,-0.756277,-0.943946,0.141691,0.715908,0.683666
0.643283,0.042620,-0.978546,0.817655,-0.086725,0.569138
-0.296885,0.002864,0.601360,0.786289,0.606644,-0.117187
-0.214652,0.120089,0.221190,0.142014,0.967407,0.209654
0.924334,-0.058188,-0.957062,0.809721,-0.565318,-0.157378
0.310082,-0.475781,-0.976126,0.243173,-0.074340,0.967130
-0.336897,0.614144,0.696701,0.602214,0.740422,0.298519
-0.103126,0.595518,0.034227,0.992187,-0.025531,-0.122120
-0.059060,0.001222,-0.054884,-0.610246,0.668208,0.425557
-0.792727,0.424642,0.788342,0.713494,-0.579632,0.393641
-0.683950,-0.083332,0.670023,0.746833,-0.055207,0.662716
-0.326638,-0.112329,0.523970,-0.392471,0.754044,-0.526673
-0.711252,0.075503,0.767881,0.756239,-0.425629,0.496932
-0.383469,0.305016,0.404306,0.060110,-0.948285,-0.311678
-0.193680,0.624775,0.574604,0.906963,0.417652,-0.054629
-0.418672,-0.221750,0.241876,0.891219,-0.162797,0.423350
-0.022095,0.524050,0.636336,0.716099,0.547645,0.432767
-0.687626,0.286454,0.858320,0.573958,0.747459,0.334481
-0.628201,0.424987,0.407631,0.321985,0.943397,0.079542
-0.490539,0.275154,0.592581,0.990538,0.116790,0.072080
-0.333230,0.365151,0.717344,0.351516,0.247741,0.902807
-0.422252,-0.034867,0.575902,-0.647573,-0.324767,0.689330
-0.254491,-0.052745,0.630518,0.980796,-0.079414,-0.178137
0.146559,-0.128301,0.027566,-0.708523,-0.631107,0.315751
-0.831964,-0.066393,0.246676,0.297046,0.937972,-0.178806
0.002226,-0.156817,-0.225390,-0.679355,-0.665057,-0.310123
-0.003740,-0.574187,-0.971395,-0.468860,0.280285,0.837622
0.433928,-0.162485,-0.977606,-0.614897,0.759012,-0.214015
-0.302631,0.290197,0.484508,-0.776060,-0.387915,0.497246
-0.432559,-0.081838,0.566362,-0.442228,-0.850340,0.285232
-0.450374,-0.405803,0.199236,0.226071,-0.831599,0.507282
-0.433987,0.414207,0.722579,0.146529,0.141853,0.978983
-0.185219,-0.077180,0.840640,0.979229,-0.149762,0.136680
0.547201,-0.597783,-0.967228,-0.429654,0.060699,0.900951
0.593317,-0.624386,-0.962859,-0.058981,0.533433,0.843783
-0.585558,0.331629,0.738319,-0.354231,-0.597017,0.719785
-0.252790,-0.068796,0.592141,0.781038,0.367604,-0.504823
-0.035382,0.199407,0.201914,0.301888,0.953165,0.018442
-0.309427,0.281159,0.809877,-0.659758,-0.675376,-0.329524
-0.524976,0.283531,0.724561,-0.294937,-0.880972,-0.370001
0.766048,-0.194452,-0.975700,-0.370144,0.485763,0.791851
-0.132217,0.134293,0.034908,-0.746684,0.528174,-0.404346
-0.212631,0.475216,0.541530,0.534482,0.514860,-0.670260
-0.066747,0.170733,0.239933,0.167305,0.937129,-0.306264
0.636942,-0.165869,-0.970548,0.606313,0.364508,-0.706767
-0.313294,-0.338430,0.611524,-0.530884,0.137376,-0.836236
-0.557483,0.314854,0.807147,0.690538,0.596600,-0.408933
-0.442642,0.580471,0.710575,0.984513,0.002459,0.175293
-0.256217,0.335752,0.866246,-0.576130,-0.628169,0.522951
-0.328530,0.382043,0.928840,0.636413,0.724761,0.264009
-0.084684,0.043872,0.016340,0.501949,0.840312,0.204751
-0.158572,-0.250382,0.473666,0.330405,0.709853,0.622046
0.160025,-0.182219,-0.546279,0.832693,0.279628,-0.477944
-0.458854,0.433913,0.862643,-0.705118,0.535004,-0.465381
0.632707,-0.244024,-0.959846,-0.065689,0.219331,0.973437
0.077272,-0.009186,-0.237413,-0.206502,-0.889131,0.408415
-0.221531,-0.045990,0.539117,-0.193821,0.483986,-0.853341
-0.694577,0.178767,0.820296,0.659219,-0.692344,0.293411
-0.579419,0.099878,0.745633,-0.403214,0.741197,0.536699
-0.958050,-0.021725,0.759875,-0.612865,-0.491115,0.619033
0.074776,-0.611098,-0.980260,0.450346,0.403000,-0.796731
-0.317283,0.313098,0.766413,0.760308,-0.484037,-0.433173
-0.010069,-0.443250,0.167774,0.947215,-0.073298,0.312107
-0.266665,0.312890,0.605100,0.060519,0.934958,0.349558
-0.035255,0.106241,-0.010328,0.997895,-0.010246,-0.064037
0.792825,0.041158,-0.978058,-0.582881,-0.489257,0.648751
-0.715351,0.253443,0.884249,0.191113,0.979376,0.065560
0.342287,-0.679910,-0.961880,-0.574634,0.641854,0.507758
-0.047807,0.080838,-0.153786,-0.670613,0.736823,0.085847
-0.323836,0.100170,0.884871,-0.613356,-0.472562,0.632835
-0.111726,0.222998,-0.030098,0.727108,-0.546405,-0.415639
0.310818,-0.584717,-0.966791,-0.151858,0.065677,0.986218
-0.600841,-0.162705,0.713592,0.746469,0.431175,-0.506826
-0.556769,0.546720,0.823808,0.780506,0.625033,0.011957
-0.552695,0.099744,0.529568,0.952580,-0.144019,-0.268050
0.364877,-0.399001,-0.981898,0.844326,-0.408139,-0.347184
-0.440859,0.254261,0.728770,-0.629360,-0.718356,0.296430
-0.624788,0.468528,0.735323,-0.607454,-0.775759,-0.170870
-0.187168,0.028548,0.547146,0.826590,0.479197,-0.295161
0.450582,-0.079372,-0.983252,0.171676,-0.025332,0.984828
-0.362967,0.206583,0.751134,0.096496,-0.070193,0.992855
-0.268924,-0.178359,0.628192,-0.384533,0.900197,-0.204400
0.314280,0.285652,0.309401,-0.387830,0.853126,-0.348946
-0.311896,0.375950,0.485741,0.342649,0.930710,-0.127949
-0.188002,0.197509,0.845540,0.659363,0.019197,-0.751580
-0.184995,0.050618,0.877172,-0.685016,-0.473866,0.553356
0.461803,-0.470790,-0.847474,0.739086,-0.563629,0.368883
-0.378467,0.289942,0.256109,0.167930,0.707681,0.686285
-0.360492,0.335824,0.893298,0.807563,-0.251093,0.533661
-0.211481,0.145884,0.577691,-0.636754,-0.703445,-0.315767
-0.798691,0.188408,0.859291,-0.810724,-0.555276,0.185459
-0.160036,0.078627,0.087247,0.738230,0.597276,0.313494
0.576753,-0.131483,-0.968832,0.590279,0.086984,-0.802499
-0.285907,0.740033,0.850534,0.908870,-0.087271,0.407847
-0.716777,0.489352,0.792535,-0.810054,0.225838,0.541120
0.149818,0.124664,0.257201,0.107065,0.975105,0.194182
0.282868,0.438149,0.469101,-0.516613,0.323593,0.792716
-0.194157,0.363321,0.499233,0.983490,-0.066479,-0.168306
-0.299881,0.588306,1.000000,0.326175,0.939742,-0.102448
-0.702373,0.181133,0.742155,0.884000,0.434241,0.173145
-0.330342,0.190562,0.190814,0.447363,-0.810450,0.378204
-0.290639,0.279937,0.806322,-0.348401,-0.926011,0.145328
0.783108,-0.565300,-0.948038,0.214276,0.773981,0.595852
0.083377,0.200505,0.335452,0.883692,-0.412002,-0.222132
-0.317882,0.286483,0.481835,0.780206,0.382239,-0.495149
0.401232,-0.434712,-0.967452,-0.296542,0.336776,0.893669
-0.725849,0.284014,0.901092,-0.641597,0.738550,-0.207115
0.889515,-0.054939,-0.958083,0.997057,0.009597,0.076058
-0.315597,0.410540,0.634160,0.402592,-0.174957,0.898504
-0.079328,-0.498420,0.157164,-0.493964,-0.451873,-0.742840
0.666548,-0.220804,-0.961238,-0.134011,0.462595,0.876383
-0.448468,0.781573,0.823329,0.477672,0.679929,-0.556351
0.584890,-0.803555,-0.951390,0.904484,0.169911,-0.391203
0.083617,-0.762455,-0.969112,-0.580761,0.184398,0.792915
-0.474895,0.193771,0.537319,0.881659,-0.405177,-0.241887
-0.364784,0.786002,0.864989,-0.712742,-0.417982,-0.563285
0.098067,-0.127871,-0.399384,0.990240,0.099575,-0.097522
-0.110446,0.005283,-0.045213,0.141883,-0.703154,0.696738
-0.573125,0.836030,0.855154,0.771735,-0.503549,-0.388413
-0.234201,0.417892,0.723401,0.777608,-0.005338,-0.628727
-0.560374,0.276942,0.883086,-0.664368,0.429063,-0.611980
-0.568402,0.379021,0.726925,0.921912,-0.257877,-0.289097
-0.483313,0.529249,0.803845,0.830177,-0.555302,-0.049453
0.090205,-0.158919,-0.496459,-0.792279,0.609706,0.023517
-0.126655,-0.198328,0.151542,-0.601299,-0.225195,-0.766633
0.318276,-0.214248,-0.989623,0.681403,0.169796,0.711940
0.582589,-0.717686,-0.959315,0.290102,-0.173981,-0.941048
-0.241031,-0.201128,0.162951,0.214181,-0.862676,0.458166
-0.594012,-0.184976,0.321375,0.987862,-0.036986,0.150869
0.039712,-0.484393,-0.993451,0.394873,0.296644,-0.869527
-0.033932,0.286814,0.266836,0.304281,0.913483,-0.270113
-0.012494,0.143006,0.173831,0.846601,0.524774,0.088762
-0.100233,0.586867,0.025881,-0.392897,-0.151637,0.906994
0.468081,0.030141,-0.976073,0.852923,-0.291490,-0.433077
-0.627285,0.120315,0.758532,0.489428,0.374668,-0.787454
-0.556000,0.468701,0.091730,-0.489139,-0.819401,-0.298874
-0.875057,0.475247,0.365253,-0.040615,-0.590463,0.806042
-0.466372,0.708969,0.851617,-0.686251,0.496471,0.531579
0.151347,-0.034540,-0.409125,0.949913,-0.311428,-0.026032
-0.040444,0.224745,0.365012,0.004799,-0.969331,0.245712
0.185235,-0.193415,-0.536273,0.023729,0.750484,0.660463
-0.007542,-0.088937,-0.315412,-0.718638,0.634853,-0.283761
0.034707,-0.618361,-0.988781,-0.896185,0.072919,-0.437647
-0.387379,0.155886,0.881822,0.961446,0.274697,0.012798
-0.206708,0.633146,0.539994,0.729393,0.638889,-0.244553
-0.260156,0.279888,0.295385,-0.352134,-0.909068,0.222703
-0.001224,-0.047888,-0.305886,-0.024976,-0.978121,0.206533
-0.096514,0.269559,0.890403,-0.130450,0.927220,-0.351063
-0.476188,0.259080,0.844973,0.562367,0.777392,0.281790
-0.473549,0.337275,0.484818,0.157032,0.944486,0.288594
0.004824,0.354928,0.638187,0.573338,-0.223009,-0.788384
-0.450732,0.406097,0.499319,-0.079481,-0.002504,0.996833
-0.399900,0.453450,0.959516,-0.234928,-0.274860,-0.932342
-0.526342,0.357327,0.683670,0.060681,-0.992633,0.104865
-0.189358,0.454809,0.508076,-0.324572,0.910024,0.257894
-0.427249,0.402926,0.662470,0.168384,-0.964521,0.203338
-0.614669,0.201664,0.548240,0.939492,-0.184057,0.288927
-0.205294,0.260496,0.546182,0.461892,-0.627433,-0.626884
0.250951,0.171748,0.539502,-0.098545,-0.780685,0.617106
-0.077195,0.193670,0.400321,0.342459,-0.796920,-0.497634
-0.277376,0.588498,0.497635,-0.247230,0.833948,0.493365
-0.070995,0.002291,0.629380,-0.689271,-0.721756,-0.063033
0.190441,-0.513088,-0.986708,-0.277336,0.549060,0.788427
-0.233790,0.213776,0.090429,-0.626999,0.752186,-0.202701
-0.386327,0.465690,0.940709,-0.749354,-0.511651,0.420335
-0.098039,-0.068470,0.483452,0.766777,-0.625233,-0.145384
0.659466,-0.710814,-0.965000,-0.237072,-0.219000,0.946486
0.038873,-0.825508,-0.966452,0.020636,0.361317,0.932215
0.510930,-0.656548,-0.954326,-0.370702,0.604194,-0.705358
0.269579,0.013552,-0.987393,-0.143952,-0.263759,0.953787
-0.035402,0.143190,-0.030775,-0.462491,-0.070552,0.883812
0.025500,-0.659644,-0.970748,0.261124,-0.789509,-0.555419
-0.285850,0.345897,0.548823,0.559048,-0.827587,0.050645
-0.103949,0.596037,0.557234,-0.512011,0.382852,0.768941
-0.099563,0.428083,0.346507,0.250670,0.261067,-0.932206
0.510068,0.060380,-0.976561,-0.479452,-0.845257,-0.235935
0.453472,-0.531252,-0.941117,-0.287772,-0.957676,-0.006673
-0.343478,0.265837,0.866556,-0.016378,-0.321627,0.946725
0.483770,-0.021225,-0.986537,0.355133,0.037073,0.934080
0.052415,-0.144808,-0.113130,0.904752,0.424394,-0.036260
-0.475942,0.168979,0.524888,0.710212,-0.664178,-0.233379
0.647739,0.108847,-0.978575,-0.034976,-0.148859,0.988240
-0.254409,0.209392,0.215416,-0.302199,0.886918,-0.349359
-0.353149,0.189687,0.793617,-0.577070,-0.298924,0.760023
-0.086054,-0.067875,0.628613,-0.632931,-0.083542,-0.769688
0.083926,0.587605,0.462353,-0.177506,0.899881,0.398378
-0.646648,0.229984,0.935055,-0.043848,-0.022334,0.998789
0.615989,0.143987,-0.961970,-0.114533,0.185026,0.976037
-0.338307,0.268700,0.747033,-0.353894,-0.045929,-0.934157
0.130042,-0.116025,-0.385055,0.978016,0.178759,-0.107375
-0.506440,0.521839,0.902714,0.291426,-0.449207,0.844562
0.097388,-0.194281,-0.109122,-0.745493,-0.650107,0.146975
0.447104,-0.346967,-0.814994,0.816714,0.421138,-0.394489
-0.148234,-0.022390,0.142133,0.996894,-0.056587,-0.054766
-0.067747,0.228978,0.182337,0.592441,0.663562,-0.456836
0.339154,-0.112076,-0.981662,-0.110922,-0.300446,0.947327
-0.232289,0.098594,0.888866,0.150652,-0.865914,0.476966
-0.172189,0.098432,-0.038671,0.892205,0.335964,-0.301826
-0.780946,0.057818,0.753062,-0.111894,0.008222,0.993686
0.815869,0.029837,-0.964205,-0.401298,-0.914012,-0.059510
0.395591,-0.375488,-0.957738,-0.256064,0.511616,0.820171
0.609747,-0.859925,-0.951838,-0.007665,0.473467,0.880778
-0.723589,0.061360,0.718354,0.799798,0.053254,-0.597903
-0.158679,0.309764,0.188235,-0.424138,0.642220,0.638483
0.314785,0.527647,0.462296,0.704867,0.646251,-0.292442
-0.610246,-0.179600,0.455481,0.532421,-0.274961,-0.800577
-0.683603,0.474615,0.346634,-0.386154,-0.882721,0.267746
-0.459920,0.596604,0.890567,0.851581,0.500384,-0.156290
-0.384413,0.358695,0.575124,0.863093,-0.194695,0.466010
0.537804,-0.284587,-0.969378,-0.302485,-0.333376,-0.892952
0.212081,0.101358,-0.984439,-0.316564,0.255912,0.913398
0.218164,-0.591149,-0.957007,-0.538518,0.685576,-0.489882
0.520051,-0.640348,-0.900801,0.897402,0.437645,-0.056010
-0.193984,0.548769,0.602292,0.369284,0.796136,-0.479370
-0.488750,0.376199,0.296089,0.569634,0.714581,0.406068
0.029121,-0.236604,-0.119026,0.714411,0.691721,0.105541
-0.170125,0.203734,0.168989,0.835049,0.333218,0.437789
0.500564,-0.733120,-0.951696,0.989127,0.058091,0.135106
-0.751416,0.322167,0.964578,0.400270,-0.838626,0.369447
-0.582720,0.310412,0.904542,0.766009,-0.284038,0.576674
-0.194902,0.200307,0.102597,0.830786,0.152817,0.535202
-0.379028,0.373084,0.480566,0.287748,0.866545,-0.407799
-0.220157,0.307622,0.864735,0.711471,0.112207,0.693699
0.557590,0.118375,-0.969765,-0.337325,0.004846,0.941376
-0.498968,0.573177,0.773327,0.671775,-0.377616,-0.637279
-0.134384,0.256271,0.149957,0.522289,0.836040,-0.168081
0.453946,-0.575451,-0.960676,0.771440,-0.611376,-0.176353
0.361563,0.050933,-0.985281,-0.240138,-0.036058,0.970069
-0.501069,0.278172,0.740245,0.349978,-0.838515,0.417621
-0.767363,0.439125,0.342912,0.092801,-0.579338,0.809787
-0.317989,0.188646,0.470049,0.851838,-0.241618,0.464750
0.755663,0.026185,-0.958509,0.157008,0.986425,-0.048105
0.088786,-0.143335,-0.350646,0.896718,-0.068146,-0.437325
-0.106509,-0.043684,0.643553,0.905556,-0.228997,-0.357113
0.879940,-0.287013,-0.954488,0.441394,-0.285238,-0.850771
0.183861,-0.585422,-0.957159,0.954732,-0.262346,-0.140222
-0.672470,0.207995,0.793615,0.755601,-0.158573,-0.635549
0.207564,-0.190779,-0.427155,-0.760946,-0.647328,-0.043905
0.482493,-0.569746,-0.936014,0.821137,0.242479,0.516661
0.413349,-0.550565,-0.956183,0.903988,0.053673,-0.424176
-0.165182,0.122461,0.140612,0.074135,-0.843564,0.531887
0.037399,-0.221795,-0.319672,0.723420,0.578787,0.376390
0.147051,-0.080036,-0.430429,0.948538,0.314301,0.038602
-0.760878,0.299628,0.927345,0.828514,0.470578,-0.303514
0.301383,-0.295180,-0.989483,0.826343,0.513679,-0.230849
0.606363,-0.017906,-0.975924,-0.590406,-0.600051,0.539778
-0.045769,0.539871,0.431683,0.989480,-0.138635,-0.041351
-0.487677,-0.352105,0.170102,0.804610,0.416434,0.423304
0.016205,-0.620957,-0.984513,-0.254169,0.689631,0.678091
0.628423,-0.473296,-0.959779,0.900976,-0.203539,-0.383164
0.389882,-0.511262,-0.961474,0.730902,0.159854,-0.663498
-0.128118,-0.440039,0.164291,0.333956,0.550001,0.765488
-0.063042,0.227390,0.300568,0.165713,0.908212,-0.384305
0.090778,-0.148928,-0.024380,-0.707572,-0.699848,-0.097749
-0.076868,0.149729,0.504531,0.545659,0.802708,-0.240658
-0.474209,0.367365,0.710636,-0.320001,0.946133,0.049324
-0.004346,0.615729,0.842991,-0.576661,0.535743,-0.616799
0.355760,-0.245810,-0.801610,-0.338772,-0.938942,0.060173
-0.472766,0.397995,0.698494,0.767209,0.611019,-0.195052
-0.806615,0.236932,0.801529,0.660854,0.603674,-0.445926
-0.311287,0.258749,0.885869,-0.592157,-0.506828,-0.626479
0.510142,-0.382131,-0.959214,-0.140285,0.788979,0.598191
0.803166,-0.202419,-0.944593,-0.598712,0.251883,-0.760328
-0.335931,0.334684,0.375675,-0.726230,-0.669749,-0.155004
-0.137594,0.043952,-0.054112,0.884819,0.408740,0.223665
-0.600582,0.429071,0.722318,0.868338,-0.488650,-0.084918
-0.476471,0.401998,0.677122,-0.092645,-0.666412,0.739805
-0.643086,0.433255,0.523260,-0.666024,-0.702552,-0.250664
-0.231419,0.427103,0.507020,-0.208975,0.889793,0.405706
-0.469706,0.123287,0.536051,-0.656811,0.410457,0.632553
-0.694826,0.328168,0.808201,0.581069,0.809812,0.081014
-0.369862,0.200926,0.767500,0.307796,0.694819,-0.649991
0.651684,-0.494953,-0.952553,-0.203104,0.864125,0.460474
0.072647,0.054164,-0.148642,0.970627,0.174194,-0.165948
-0.512863,0.371586,0.903587,-0.240360,0.665932,-0.706231
-0.116518,0.630852,0.757836,-0.340183,-0.653484,0.676191
-0.595474,0.545083,0.572571,0.973213,0.170928,-0.153752
-0.209185,-0.112527,0.526730,0.544813,0.132676,0.827995
-0.150068,0.417437,0.005023,0.864372,-0.183612,0.468133
0.588041,-0.807248,-0.942626,-0.104748,-0.236829,0.965888
-0.081382,0.250178,0.311732,0.076494,0.991641,-0.103904
-0.643916,0.700615,0.900297,0.035642,-0.872373,0.487540
0.623757,-0.506831,-0.939889,-0.667961,-0.740623,-0.072836
0.359244,0.119328,-0.992282,0.221117,0.772825,-0.594852
-0.138790,0.287136,0.398581,0.086671,-0.541362,0.836311
0.183521,-0.153559,-0.448922,0.829478,0.510271,0.227132
-0.041268,0.433839,0.448492,0.904957,0.012299,-0.425326
0.046597,0.663132,0.831905,-0.361969,0.012307,-0.932109
0.108474,0.020860,-0.199667,0.204566,0.810585,0.548731
0.124618,-0.301018,-0.975393,-0.651444,0.590692,0.476134
0.074463,-0.176207,-0.191172,0.884819,0.461817,0.061808
0.272692,-0.768179,-0.950296,0.895942,-0.077067,-0.437433
0.139055,0.306274,0.500604,-0.508685,0.380184,-0.772463
-0.222750,0.374962,0.967793,0.839108,0.456449,0.295891
-0.460309,0.076735,0.709520,0.976536,0.026197,0.213754
-0.593180,0.372510,0.837906,-0.174610,-0.130869,0.975902
-0.267915,0.776373,0.560107,0.856079,0.362813,-0.368096
-0.179353,0.123826,-0.051348,0.488585,-0.870820,-0.054384
-0.216544,0.306249,0.809309,0.856459,-0.368366,0.361642
-0.434551,0.238619,0.408919,0.369257,0.778495,-0.507538
0.664849,-0.339245,-0.958267,-0.142774,0.335678,0.931094
-0.537746,0.646730,0.895317,0.551391,0.797435,0.245085
0.820108,-0.720778,-0.938630,0.481094,-0.138339,0.865685
-0.135640,-0.189595,0.172922,0.837638,-0.414680,0.355533
-0.164007,-0.238513,0.483579,-0.579723,-0.573612,0.578697
-0.749266,0.414132,0.348867,0.206326,-0.600710,0.772384
0.123106,-0.251593,-0.972654,-0.474174,0.130842,0.870654
-0.160302,0.403656,0.927922,-0.023523,-0.302020,0.953011
-0.136647,0.138728,0.090860,0.990196,0.090784,-0.106165
-0.298936,-0.216644,0.162158,0.091749,-0.644794,0.758830
-0.089475,0.227210,0.171837,0.681188,0.731967,0.014384
-0.257395,0.250129,0.906665,-0.564285,-0.794109,0.225772
0.318266,-0.412501,-0.881342,0.778755,0.614671,-0.125383
0.165211,0.005127,0.200065,-0.222184,-0.967316,0.122207
-0.210984,0.078912,-0.005403,0.996336,0.068697,0.050936
0.220877,-0.326951,-0.688406,-0.351636,0.810242,-0.468893
0.575035,0.093093,-0.968596,0.150306,0.248390,0.956928
0.544719,-0.868417,-0.949619,0.038793,-0.034844,0.998640
0.241734,-0.414914,-0.826498,0.641117,0.754458,0.140576
0.422219,-0.235772,-0.960465,-0.071622,0.152232,0.985746
-0.623675,0.295400,0.762351,-0.016241,-0.810896,0.584965
-0.433523,0.157875,0.786929,-0.267300,0.751240,-0.603481
-0.399588,0.808611,0.726693,-0.049124,-0.949284,0.310560
-0.237130,0.458335,0.812177,0.709925,0.699647,-0.080624
0.902101,-0.408068,-0.965484,0.956756,0.276150,-0.091425
-0.245288,-0.082754,0.179385,0.031617,0.705487,0.708017
-0.415600,0.198454,0.520156,-0.486150,0.607732,-0.627949
0.033389,0.489398,0.624337,0.798041,0.321214,0.509854
-0.188766,0.563014,0.693194,0.750990,0.658205,-0.052732
-0.185849,0.090565,0.817414,0.824086,0.539812,-0.171712
-0.381517,0.315569,0.517372,0.959374,-0.184915,0.213092
-0.432870,0.533207,0.693677,0.910563,-0.284626,0.299770
0.222821,-0.166563,-0.347115,-0.560457,-0.688761,-0.459887
-0.421511,0.353912,0.052848,0.164814,0.876736,-0.451852
-0.737712,0.150957,0.728204,0.806247,0.096454,-0.583663
-0.188440,0.036933,0.017246,-0.557795,-0.818948,-0.134866
-0.415620,0.793408,0.856027,0.557796,-0.385911,-0.734804
-0.519505,0.418880,0.748599,-0.360423,-0.081521,0.929220
-0.399329,0.345928,0.541938,0.992915,0.111211,-0.041865
-0.226568,0.333788,0.621027,0.213825,0.928784,-0.302719
-0.027851,0.279654,0.324191,0.879000,0.417328,-0.230643
-0.506397,0.181221,0.701546,-0.577950,-0.353751,0.735414
-0.193227,0.044261,0.839256,0.990711,-0.108611,-0.081824
0.262240,0.282288,0.310005,-0.770594,0.636894,-0.023463
-0.555056,0.495765,0.630537,0.916667,-0.378711,-0.127668
-0.178610,0.301384,0.788029,0.818765,0.411140,-0.400734
0.478072,-0.401588,-0.945009,0.163346,-0.981719,-0.097701
-0.668744,0.254611,0.883100,-0.629292,0.726111,0.277046
-0.035189,-0.789495,-0.967384,-0.432207,-0.239264,-0.869454
-0.350363,0.438246,0.915862,0.434129,0.431639,0.790708
0.298817,-0.735710,-0.952282,-0.504799,-0.500624,-0.703245
-0.056982,0.394914,0.569717,-0.038677,-0.965141,0.258857
-0.408753,0.144071,0.921537,0.910771,0.126788,0.392963
-0.564837,0.483973,0.262511,0.721223,0.259794,0.642140
0.626254,-0.609615,-0.944343,-0.564659,-0.214443,-0.796979
-0.389160,0.247954,0.357001,0.907353,0.108223,0.406199
-0.284356,0.225486,0.781109,-0.554734,-0.592039,-0.584602
0.708923,0.644730,0.449737,-0.162374,-0.399854,0.902081
0.026605,0.611781,0.829238,-0.499181,0.812968,-0.299835
-0.353619,0.578377,0.404622,-0.827634,0.395472,-0.398277
0.260533,-0.149353,-0.977984,-0.250961,-0.286744,0.924552
-0.738704,0.710182,0.898371,0.139442,-0.791583,0.594938
-0.279823,0.362963,0.664241,0.630778,0.253432,0.733410
-0.151389,-0.014416,0.786631,-0.220409,0.971848,-0.083259
-0.206067,-0.424398,0.175383,0.843149,0.503051,0.189840
-0.398294,0.461138,0.784930,0.718922,0.673692,-0.171145
-0.518493,0.311261,0.554821,0.452594,0.119758,0.883638
-0.101871,0.123394,0.790228,0.904429,-0.192963,-0.380491
-0.373422,0.847245,0.538136,-0.050372,-0.734296,0.676958
-0.141024,0.178572,0.096031,0.988091,-0.104655,0.112798
0.664911,0.076722,-0.965775,-0.095354,0.066734,0.993204
-0.478477,0.316829,0.244703,-0.362809,0.178131,-0.914680
-0.336624,0.334255,0.446658,0.077819,0.982734,-0.167863
0.648737,-0.866516,-0.959294,-0.642464,0.377638,0.666805
-0.051357,0.513785,0.547145,-0.454804,-0.217952,0.863511
-0.376814,0.419746,0.936551,0.862131,0.236840,0.447924
-0.631011,0.576763,0.797018,-0.342969,0.675733,-0.652500
-0.142313,0.126878,-0.025145,-0.527651,-0.571130,0.628804
-0.328275,0.300659,0.513675,-0.713422,0.343037,-0.611027
-0.241862,0.125707,0.118463,0.773085,0.140252,-0.618603
0.526126,-0.021197,-0.985379,-0.104998,-0.430661,0.896385
-0.431395,0.560823,0.873140,0.848830,-0.518901,-0.101144
0.022608,0.417706,0.629273,0.606036,-0.512182,-0.608597
0.369939,-0.290336,-0.813646,-0.004449,-0.876991,0.480486
-0.314485,0.336167,0.823978,0.942304,-0.334080,0.021321
-0.139215,0.191590,0.256030,-0.312463,-0.862825,0.397366
-0.092208,0.186054,0.289578,-0.000116,-0.863553,0.504258
0.542717,0.071315,-0.974108,0.272610,0.925126,-0.264245
0.032965,-0.186668,0.623209,0.082836,-0.867092,0.491212
-0.614783,0.243170,0.823728,-0.272533,0.455537,-0.847474
-0.172361,0.366994,0.540703,-0.567144,0.822547,0.042011
-0.376507,0.225572,0.877017,0.693940,0.300516,0.654322
0.268273,0.322712,0.332246,-0.925512,0.257723,0.277500
-0.159233,0.249162,0.361673,0.123850,0.822340,0.555353
0.577717,-0.728967,-0.953561,0.495983,-0.137443,-0.857386
-0.012209,0.164276,0.310235,-0.463606,-0.874220,-0.144250
0.083346,-0.438216,-0.982111,0.460028,-0.272842,0.844945
-0.109154,0.095954,0.825268,0.855269,0.451613,-0.254089
0.080711,-0.163349,-0.997298,-0.138379,0.054474,0.988880
0.192387,-0.254830,-0.569585,-0.500272,0.861746,-0.084395
-0.573712,0.264820,0.789753,0.932152,0.360750,-0.030865
0.067587,-0.125181,0.633667,0.451475,0.886856,0.098272
0.063118,-0.581080,-0.969612,-0.446637,-0.589938,-0.672672
-0.237814,0.245136,0.318194,0.273341,0.960626,0.049827
-0.695147,0.448609,0.539052,-0.567907,-0.759701,-0.316758
0.366936,-0.153199,-0.971454,0.162237,0.402147,-0.901087
-0.106622,0.702033,0.037539,0.973985,0.170650,0.149103
-0.699299,0.724044,0.918306,0.480728,0.724347,-0.494188
-0.716862,0.636011,0.898743,-0.205457,-0.723694,0.658828
0.623037,-0.334755,-0.965604,-0.508174,-0.665844,0.546270
-0.680065,-0.072341,0.775656,-0.682173,-0.567557,-0.460998
-0.397500,0.753068,0.607421,0.118973,-0.924026,0.363349
0.346159,-0.346299,-0.813630,-0.550654,0.505581,0.664205
-0.375284,0.964551,0.446233,0.100461,-0.517909,0.849516
-0.308661,0.328134,0.610282,0.464825,0.883226,0.062045
-0.118020,0.596030,0.606193,-0.458000,-0.852364,-0.252411
-0.141150,-0.238451,0.149690,0.663108,0.430051,0.612653
-0.488747,0.338719,0.886302,0.271529,0.356678,0.893897
0.196642,0.002258,0.503152,0.720435,0.561737,-0.406724
-0.271425,0.312877,0.955269,0.534410,-0.294960,0.792089
0.317412,-0.429936,-0.798442,-0.584392,-0.803421,0.114022
-0.049323,0.050743,0.093894,-0.517914,-0.834359,0.188706
-0.720492,0.625289,0.826482,-0.420155,-0.900137,-0.114992
-0.748821,0.401336,0.799625,-0.189486,0.535821,0.822794
-0.760145,0.161777,0.766444,0.800653,-0.172113,0.573875
-0.003655,0.446959,0.598040,0.363258,-0.833568,0.416183
-0.225474,0.183446,0.458729,0.884888,-0.462695,-0.053719
0.172234,-0.734750,-0.972022,0.707889,0.704599,-0.049329
-0.264850,0.209089,0.771966,0.769128,0.612529,-0.182348
-0.383990,0.161090,0.548187,0.341486,-0.058077,-0.938091
-0.621189,0.410718,0.791675,-0.311575,0.377997,-0.871802
-0.576376,-0.069243,0.729042,0.832329,0.449639,-0.324120
0.748255,-0.556383,-0.951313,-0.128375,-0.628438,0.767193
-0.412640,0.382497,0.832817,0.933467,0.233318,-0.272399
-0.411403,0.534683,0.734719,-0.488552,0.272714,-0.828821
-0.851102,0.309900,0.787300,-0.498170,-0.241808,-0.832680
-0.547325,0.740364,0.850911,0.930075,0.034154,-0.365778
0.552910,0.078994,-0.969271,-0.324533,-0.014926,0.945757
-0.360504,0.448814,0.822246,0.217465,-0.797183,-0.563212
-0.196568,0.529604,0.199443,-0.543861,-0.720617,0.430032
-0.367581,0.765223,0.791987,0.439820,0.867694,0.231659
0.325507,-0.230510,-0.713211,0.135409,-0.990398,0.027866
-0.268432,0.471904,0.885331,-0.638926,0.428882,-0.638619
-0.413171,0.380184,0.487497,-0.681630,0.731596,0.012159
-0.106817,-0.057988,-0.203921,0.026295,-0.956499,0.290548
-0.032804,0.318537,0.384054,-0.814757,0.568917,-0.111818
-0.141838,0.420694,0.545116,-0.390636,0.897986,0.202547
-0.024310,-0.772613,-0.977272,-0.443260,0.231538,0.865974
-0.023597,-0.803473,-0.970077,-0.601419,-0.301107,-0.740020
-0.218718,-0.075274,0.843190,0.990821,-0.050458,0.125411
-0.303128,0.706131,0.583984,0.651641,-0.554351,-0.517745
-0.425751,0.288848,0.888621,-0.193317,0.537003,0.821131
-0.235100,0.151873,0.781672,-0.161987,0.090416,0.982642
0.717748,-0.058711,-0.972174,0.068147,0.113778,0.991166
-0.494840,0.496843,0.742534,-0.445364,-0.771716,-0.453988
-0.278785,0.209876,0.900933,0.499236,0.653903,-0.568484
0.683804,-0.062234,-0.962033,0.107913,0.627961,0.770727
-0.296909,0.125056,0.791142,0.767114,0.633145,0.103267
-0.306537,0.328693,0.816044,-0.628754,-0.444217,0.638232
-0.553796,0.371208,0.512780,0.856321,0.449260,0.254716
-0.081586,-0.185732,0.493293,-0.671434,0.415611,-0.613550
0.048923,-0.020311,-0.194698,0.799748,0.383840,0.461595
-0.404453,0.622030,0.712327,0.128919,0.851816,0.507730
-0.149357,-0.680981,-0.988273,0.304667,-0.243577,0.920787
-0.534395,0.271752,0.892342,0.299990,-0.543670,0.783856
0.420453,-0.350887,-0.843134,-0.328783,0.881544,-0.338795
0.157102,-0.191412,-0.401288,0.844419,0.378796,-0.378775
0.084625,0.118526,0.245613,0.500158,0.860004,0.101174
-0.514160,0.428458,0.899406,-0.278704,0.212269,-0.936625
-0.394043,-0.130372,0.540174,0.020878,0.995748,0.089718
0.406020,-0.648462,-0.970176,0.469758,0.475691,-0.743670
0.074120,-0.114081,-0.409532,0.828889,-0.466473,-0.308780
-0.110887,0.127490,0.838691,-0.289822,-0.644615,0.707442
-0.281758,0.361274,0.503719,0.885734,0.240783,-0.396862
0.140914,-0.184746,-0.342533,0.245078,0.933903,-0.260313
0.576899,-0.837030,-0.961028,-0.074994,0.073459,0.994475
-0.011826,0.010753,0.004592,-0.516755,-0.854930,0.045368
-0.314237,0.071301,0.785589,-0.608063,-0.772717,0.182119
-0.243288,0.042213,0.111814,-0.623878,-0.657014,-0.423213
0.361130,0.302946,0.324292,-0.669039,-0.157979,0.726243
0.412195,-0.603520,-0.955554,0.843138,-0.468603,0.263684
0.454623,-0.675182,-0.941139,0.658074,0.321433,0.680897
-0.214524,0.300796,0.838984,-0.487837,0.169748,0.856272
0.257132,-0.834200,-0.948269,0.323740,0.057093,-0.944422
0.310199,-0.591654,-0.978200,0.908507,0.091207,-0.407795
-0.299879,0.329183,0.870842,-0.668424,-0.378770,-0.640112
-0.268678,0.380861,0.770995,0.990735,0.104004,-0.087339
-0.276574,0.568611,0.215028,-0.516797,-0.731978,0.443991
-0.041063,0.039918,-0.259736,-0.130271,0.984327,0.118865
0.929862,0.054157,-0.967570,-0.580753,0.422126,0.696085
-0.124935,0.151650,0.768638,0.509298,-0.570616,-0.644215
0.490723,-0.434360,-0.945604,-0.544015,-0.801651,0.247796
0.397411,-0.330665,-0.984679,0.653827,-0.092229,-0.751002
-0.922382,0.520422,0.351557,0.134105,0.627799,-0.766736
-0.496264,0.484693,0.509562,0.209941,-0.106125,0.971937
0.585825,-0.877572,-0.961767,-0.136983,0.183915,0.973350
-0.053636,0.203604,-0.028806,-0.481693,-0.158731,0.861845
0.315405,0.036492,-0.978189,-0.013419,0.865806,0.500200
-0.325216,0.378913,0.240162,-0.022686,-0.262933,0.964547
0.785219,-0.029625,-0.974504,-0.000677,0.334647,0.942343
-0.457406,-0.390930,0.195854,0.352616,-0.913306,0.203799
0.219123,0.452113,0.446041,-0.685428,-0.361792,0.631898
0.863502,-0.622662,-0.947136,0.866761,-0.243641,0.435160
-0.529054,0.323520,0.760632,0.056184,-0.541606,0.838753
0.789825,-0.362362,-0.952925,0.688592,0.114699,0.716021
0.056781,0.374283,0.631538,-0.024203,0.671787,0.740349
-0.341220,0.365564,0.604890,0.894615,0.086635,0.438358
0.752247,-0.048013,-0.980812,-0.031398,-0.355848,0.934016
-0.058594,0.026511,0.105727,-0.613870,-0.627477,-0.478996
0.581586,0.033427,-0.968506,-0.544696,0.191551,-0.816464
0.376026,-0.525758,-0.971662,0.504649,0.075904,-0.859981
0.478857,-0.127522,-0.977087,0.658964,-0.649782,0.378880
-0.517183,-0.132428,0.539010,-0.348084,-0.936945,-0.031183
-0.243508,0.191814,0.068104,-0.008216,0.997884,0.064501
-0.271884,0.315671,0.378001,0.666550,0.673729,0.319061
-0.205501,0.501461,0.027160,0.827604,-0.011953,-0.561185
-0.272023,0.219156,0.723729,0.913117,0.240563,0.329161
-0.720568,0.299928,0.898427,0.959180,0.184506,-0.214316
0.102964,0.406364,0.626113,-0.544639,-0.764336,-0.345194
-0.335621,0.432570,0.893009,0.810771,0.267500,-0.520667
0.625726,-0.597622,-0.964144,-0.362444,0.463130,-0.808793
-0.493569,0.273801,0.737194,-0.197418,-0.927409,0.317708
-0.136660,0.304672,0.338724,0.202057,0.723413,-0.660187
-0.164784,0.282374,0.848812,0.581609,0.784857,0.213847
-0.264342,0.325230,0.534825,0.749540,-0.632052,-0.196722
-0.075499,0.070336,0.013104,0.949381,0.287465,-0.126644
0.609856,-0.351981,-0.954149,-0.187661,0.206235,0.960339
0.438328,-0.738829,-0.969134,0.101780,0.840922,0.531499
0.590887,-0.735728,-0.964064,0.159416,0.367536,0.916244
0.525227,0.418613,0.378115,0.419753,0.831521,0.363841
-0.213838,-0.004505,0.533530,0.121589,-0.715990,0.687440
0.473027,-0.804496,-0.955117,-0.517968,0.043617,-0.854287
-0.321911,0.406561,0.959964,0.232638,-0.525947,0.818083
-0.190353,0.169995,0.664157,0.919202,-0.362248,-0.154418
0.551007,-0.729551,-0.966707,0.038741,0.227898,0.972914
-0.138023,0.435141,0.551400,0.655380,0.755067,0.018738
-0.272398,0.194354,0.490879,-0.101212,-0.992664,-0.066134
-0.455539,0.021895,0.520468,-0.608522,-0.690364,-0.391278
0.775884,-0.336833,-0.942005,-0.216978,0.144598,0.965408
-0.512335,0.391348,0.946703,-0.225846,-0.931729,0.284385
-0.310768,0.162014,0.351001,0.917727,0.298397,0.262177
-0.915763,0.106974,0.754561,-0.716046,0.435206,-0.545778
0.292911,-0.308480,-0.975242,-0.517537,0.412587,0.749618
0.503990,-0.029778,-0.976295,0.340174,0.249765,0.906586
-0.765863,0.278869,0.894652,0.126416,-0.939433,-0.318568
-0.031008,-0.211951,0.481731,0.968641,-0.109181,0.223189
0.722575,-0.192007,-0.967025,0.435562,0.265056,-0.860251
0.584897,-0.541721,-0.937058,0.051729,-0.527207,0.848161
0.400846,-0.432470,-0.836988,0.987428,0.075117,0.139079
0.072689,-0.285114,-0.994995,-0.581977,0.376200,0.720955
-0.014669,-0.570993,0.151597,0.623948,-0.137480,0.769278
-0.648145,0.224169,0.476125,0.875075,-0.403457,0.267331
-0.533492,0.512192,0.794413,0.867120,0.217898,-0.447910
-0.531663,0.464005,0.778697,-0.768404,0.492367,-0.408814
-0.685726,0.474498,0.521765,-0.754626,-0.414948,-0.508289
0.254601,0.469863,0.444199,0.424239,0.552963,-0.717114
-0.288741,-0.164702,0.620334,-0.466442,0.874283,0.134389
-0.281586,0.684034,0.425021,-0.405787,-0.622828,0.668897
-0.505056,0.456797,0.738156,-0.471760,0.807525,-0.354042
-0.709916,0.281459,0.921023,0.125999,0.925974,0.355944
-0.335905,0.313647,0.562264,-0.154730,0.513934,-0.843760
-0.411459,0.369945,0.923118,-0.144155,0.441985,0.885364
0.365999,0.220354,-0.975138,0.224129,-0.671802,0.706009
-0.464926,0.255261,0.885597,-0.243108,0.800675,0.547556
0.118675,-0.040797,0.070023,0.609185,0.789648,-0.073137
-0.127453,0.055464,0.030142,-0.142389,-0.823736,0.548803
-0.325402,0.436285,0.913167,0.873739,-0.075049,0.480571
-0.136328,-0.009146,0.116617,-0.664686,-0.483886,-0.569250
-0.349211,0.349533,0.933417,0.568286,0.310798,0.761876
0.216124,0.350483,0.582861,0.142841,0.764981,0.628013
0.728594,-0.996378,-0.959477,0.062097,-0.430026,0.900678
-0.545271,0.383927,0.908275,-0.799307,0.251766,-0.545639
0.380502,0.070664,-0.979833,0.095803,-0.116651,0.988541
-0.408839,0.587210,0.580573,0.081283,-0.334460,0.938898
-0.619641,0.404934,0.843562,0.904628,0.270652,-0.329234
-0.645720,0.395833,0.773066,0.513667,-0.446550,0.732625
-0.428320,0.278070,0.557835,0.108403,0.993244,-0.041421
-0.218755,0.015841,0.655741,0.653061,0.754235,0.068126
0.047713,-0.002597,-0.203069,0.978174,0.059287,-0.199149
0.373723,-0.779104,-0.963347,0.405251,-0.344502,-0.846812
-0.104844,-0.066977,0.513589,0.278083,0.955558,0.097872
0.239355,0.251413,0.315860,0.850111,-0.526128,0.022357
-0.943074,0.192773,0.792317,-0.382924,-0.780700,-0.493838
-0.347986,0.182795,0.503309,0.429161,-0.005163,0.903213
-0.065208,0.163772,0.137348,0.492843,0.852358,-0.174904
-0.099323,-0.020307,-0.016362,0.649041,0.229221,0.725399
-0.548657,-0.199163,0.228191,0.940041,-0.083983,0.330561
0.513020,0.124718,-0.983219,-0.503733,0.292736,-0.812747
0.214222,-0.240078,-0.983821,-0.061439,0.690649,0.720576
-0.598830,0.333926,0.784011,0.802102,-0.591209,-0.084282
-0.193415,0.321627,0.168551,0.938498,0.086082,-0.334383
0.261066,-0.622220,-0.968038,-0.073460,-0.082883,0.993848
0.429317,0.032695,-0.979638,0.770852,0.378549,-0.512335
0.029841,0.153607,0.233004,0.032697,0.999227,-0.021821
-0.013500,-0.555551,-0.977547,-0.669973,0.684067,0.288423
-0.771191,0.279274,0.841515,0.129015,0.467448,0.874555
-0.619859,0.405689,0.721106,0.883476,-0.164858,-0.438511
0.264224,-0.829133,-0.965343,-0.277286,-0.567009,0.775637
-0.210148,0.370609,0.930041,0.686121,-0.347591,-0.639077
0.179750,-0.185045,-0.118445,-0.705155,-0.678317,-0.206501
-0.420941,0.282529,0.881927,0.245125,-0.969465,0.007119
-0.236239,-0.259695,0.441680,0.416979,0.822981,-0.385786
0.577686,0.025365,-0.971299,0.025807,-0.080687,0.996405
0.648521,-0.798949,-0.947437,-0.098635,0.345513,-0.933216
-0.227338,0.038359,0.637307,-0.305642,-0.899403,0.312503
-0.279330,0.171598,0.479863,0.751657,-0.646945,0.128351
-0.354825,0.380717,0.854673,0.820459,0.570471,0.037533
-0.365818,0.310847,0.485449,-0.633493,-0.764717,-0.117875
0.574662,0.528707,0.408489,0.901512,-0.317846,0.293684
0.889833,-0.681094,-0.961318,0.740304,0.168906,-0.650708
-0.062331,0.408206,0.426550,0.359193,-0.915021,0.183623
-0.106360,0.597742,0.512043,-0.413454,-0.830574,0.373100
0.502756,-0.411071,-0.945124,0.513307,-0.858091,0.014017
0.465080,-0.781755,-0.947071,0.808622,-0.562375,-0.172813
0.058785,-0.530968,-0.986585,0.752424,-0.652793,-0.087860
0.359153,0.104132,-0.974452,-0.309400,0.362810,0.879000
-0.356019,0.206377,0.946042,0.895484,-0.258386,0.362414
-0.702514,-0.063089,0.791561,0.902316,0.429142,0.040773
-0.210374,0.365880,0.905649,0.230971,0.781248,0.579917
0.469482,-0.023535,-0.964857,0.550758,-0.376317,-0.745017
-0.279895,0.396345,0.790362,0.780486,0.614711,-0.113893
-0.002904,-0.804151,-0.969903,-0.342588,-0.487519,-0.803093
-0.105592,0.213685,0.163576,0.140434,-0.984590,0.104219
-0.383229,0.332018,0.552601,-0.859185,0.300429,0.414178
0.057238,-0.249881,-0.984036,-0.201336,-0.049579,-0.978267
0.021418,0.541345,0.550976,0.518768,0.582711,-0.625562
-0.671634,0.104622,0.763487,-0.714170,0.543038,-0.441667
0.163289,-0.125024,-0.463593,0.453858,0.889776,-0.048088
-0.421925,0.361105,0.885990,0.246582,-0.869328,-0.428330
-0.347348,0.133902,0.741913,-0.244875,0.237650,0.939978
0.171838,-0.070600,-0.992859,-0.366246,0.415939,0.832381
0.048498,-0.546895,-0.986118,0.637606,-0.307279,0.706427
0.388146,-0.669279,-0.959559,0.056429,-0.057942,0.996724
0.468715,-0.466970,-0.974418,0.204104,-0.459630,0.864339
0.227778,-0.009105,-0.967983,-0.292284,0.427962,0.855230
-0.330682,0.407908,0.645704,0.743841,-0.429005,-0.512499
0.002689,-0.759600,-0.977622,0.564555,0.576572,0.590629
-0.319631,-0.004855,0.539972,0.847551,-0.220389,0.482790
0.576962,0.305776,-0.966516,0.320231,0.689907,0.649216
-0.310702,0.440912,0.838887,-0.730256,0.523593,0.438836
-0.716830,0.304869,0.943880,-0.644706,0.728034,0.233068
0.639275,-0.093512,-0.973074,-0.386805,-0.435261,0.812976
0.059149,-0.206936,-0.999255,-0.210093,0.288917,0.934017
0.036236,0.290006,0.406895,0.911394,-0.048174,-0.408705
-0.337729,0.501393,0.523571,-0.627834,-0.699297,-0.341772
0.415466,-0.175600,-0.996110,-0.289451,-0.034959,0.956554
0.841985,-0.534504,-0.959232,0.680428,-0.429837,-0.593514
0.355165,-0.605490,-0.968627,0.277744,-0.138036,-0.950686
-0.394930,0.299362,0.789156,-0.168111,0.425828,0.889049
-0.358509,0.246276,0.913727,0.923954,0.008786,0.382403
-0.008950,-0.167878,-0.152950,0.831711,0.547327,0.093219
-0.386304,0.040017,0.750583,-0.334115,0.354120,-0.873479
0.501684,-0.087351,-0.973694,0.284268,0.408898,0.867176
-0.608468,0.439621,0.774476,0.293835,-0.492610,0.819143
0.135283,-0.168037,-0.571016,-0.758093,0.473787,0.448131
-0.166897,0.273000,0.299369,0.242926,0.890789,-0.384034
0.186979,0.329430,0.616208,0.481741,0.816492,-0.318223
0.318744,0.407782,0.485983,0.791516,-0.603288,-0.097708
0.319401,-0.740845,-0.958096,0.877552,-0.014587,0.479260
-0.199193,0.257918,0.189806,-0.851395,0.478352,0.215188
0.115550,-0.443375,-0.983543,-0.267496,0.905244,-0.330118
0.156630,-0.133836,-0.989186,-0.408748,0.745555,0.526376
-0.092306,0.120177,-0.190688,-0.776597,-0.525498,-0.347489
-0.063379,-0.753213,-0.970487,-0.585709,-0.738765,-0.333422
-0.118474,0.425376,0.579897,-0.072423,0.155280,0.985212
-0.652693,0.410606,0.785369,-0.678931,-0.733739,0.026059
0.256859,-0.541007,-0.946600,0.002592,0.316453,0.948605
-0.147549,0.009615,0.821444,0.951403,-0.061292,0.301787
-0.010439,-0.664766,-0.989960,-0.860097,0.454815,0.231032
0.503800,-0.065737,-0.985004,0.256177,0.624168,0.738097
0.239312,-0.253612,-0.800782,0.880919,0.460443,-0.109427
-0.049022,-0.711628,-0.975876,-0.220105,-0.686236,0.693278
0.274080,-0.525072,-0.978871,0.901158,0.384699,-0.199803
-0.465236,0.401308,0.401177,-0.371075,-0.906438,-0.201677
-0.613699,0.535124,0.860604,0.918359,-0.143510,-0.368811
-0.167982,0.475177,0.554821,-0.555612,-0.825140,0.102176
-0.005836,-0.038781,-0.020859,-0.672095,-0.331787,-0.661971
0.609468,0.133307,-0.971845,-0.692759,-0.392153,-0.605229
-1.000000,0.334637,0.328465,-0.071707,-0.633404,0.770491
0.173397,-0.185151,-0.138874,0.795483,0.604735,-0.038762
-0.190024,0.384622,0.350846,0.752422,-0.531291,0.389347
-0.068768,0.072542,-0.038910,-0.654755,-0.754804,-0.039580
-0.610566,-0.118654,0.754732,-0.267551,-0.945339,0.186417
0.116565,-0.653540,-0.978051,0.568838,0.227525,-0.790352
0.219197,-0.302241,-0.971100,-0.382311,0.481206,-0.788847
-0.101905,-0.263076,0.578331,0.630556,0.636520,-0.444119
-0.770846,0.331131,0.916366,-0.609675,-0.469817,-0.638410
0.304174,-0.282069,-0.988168,-0.679534,-0.395748,0.617751
-0.645889,0.386938,0.688231,-0.680904,0.436168,-0.588325
-0.348457,0.491744,0.662021,0.697129,-0.713354,-0.071672
-0.326199,0.400933,0.866211,0.533543,0.842904,0.069607
-0.148639,0.118637,0.235769,0.392325,0.883636,-0.255475
0.287563,-0.198468,-0.982785,-0.229836,0.304228,0.924457
0.985994,-0.255225,-0.953881,0.982466,-0.040444,0.182001
-0.050903,0.346182,0.478037,0.653236,0.073478,-0.753581
-0.189156,0.290533,0.497278,0.959849,0.075841,-0.270069
-0.615416,0.147818,0.735304,0.451043,0.429124,0.782568
-0.163382,0.153640,-0.012994,-0.621046,0.743785,-0.247154
-0.364170,0.394793,0.468222,-0.289681,-0.933913,0.209501
-0.032203,0.230458,0.537664,0.167189,0.879671,-0.445227
0.098143,0.025782,0.173867,0.447749,0.447194,0.774298
-0.256678,0.203463,0.886256,-0.573416,0.694921,-0.433912
-0.151532,0.059354,-0.060778,0.963193,0.054565,-0.263216
0.348070,0.312438,0.326405,-0.396543,-0.624584,0.672792
0.495344,-0.902020,-0.951059,0.405226,0.511302,-0.757867
-0.362291,0.337995,0.881854,0.056113,-0.741975,0.668075
0.006314,-0.103569,-0.288932,0.663719,0.198042,-0.721288
-0.737869,0.683682,0.904512,-0.534015,-0.837201,0.117996
0.175694,-0.671105,-0.972310,0.714817,-0.151293,-0.682749
0.262241,-0.341968,-0.703736,0.895523,-0.417384,-0.154369
-0.428893,0.232426,0.775222,0.462256,-0.870225,-0.170375
0.210361,0.246172,0.439256,-0.657562,0.110076,0.745316
-0.573340,0.453047,0.863597,-0.024955,-0.981268,0.191024
-0.250686,0.449182,0.868154,0.924786,-0.266794,0.271279
-0.439261,0.324482,0.748860,-0.126104,0.901232,0.414583
-0.534310,0.193969,0.605941,0.357418,0.785475,0.505254
-0.072492,0.220705,0.341679,0.853287,0.437796,-0.283258
-0.134308,0.497866,0.028883,0.548678,-0.131964,-0.825553
-0.050698,-0.387534,0.164631,-0.639341,0.228055,0.734326
0.131338,-0.135057,-0.467007,0.175264,0.979702,-0.097302
-0.345045,0.398845,0.528907,0.475018,-0.748423,0.462840
0.283195,-0.869503,-0.951810,-0.074480,0.697723,0.712485
-0.440173,0.310030,0.670586,0.339788,0.365400,-0.866618
-0.272247,0.207031,0.659183,0.784612,0.065552,-0.616512
0.343500,-0.014225,-0.980249,0.944343,0.226579,-0.238491
0.009034,-0.497786,0.171821,0.995767,-0.079145,0.046736
-0.334490,0.300881,0.640437,-0.383173,-0.644285,-0.661872
-0.534351,0.403037,0.682411,0.986241,-0.147120,-0.075396
-0.105374,0.677121,0.031807,0.973985,0.170650,0.149103
-0.193175,0.282900,0.190424,0.708753,-0.624604,-0.327931
-0.449731,0.423149,0.469847,-0.326866,-0.944544,-0.031538
0.111250,0.198683,0.293898,0.529408,-0.815334,0.234431
-0.281111,0.379493,0.435095,0.008416,0.946606,0.322283
-0.394755,0.304998,0.550098,0.854603,-0.223147,0.468892
-0.432636,0.402283,0.585488,-0.541987,-0.733182,-0.410725
0.094233,-0.533645,-0.980860,0.799911,-0.558284,-0.220141
-0.257473,-0.199707,0.498502,-0.367023,0.894728,-0.254472
-0.479124,0.413192,0.695098,-0.283025,0.907040,0.311728
-0.088853,0.728253,0.043153,0.978126,0.181530,0.101566
0.379283,-0.459916,-0.955073,-0.390744,0.918706,0.057426
-0.468945,0.336332,0.786363,0.957963,0.279712,-0.063786
-0.572187,0.537255,0.789061,-0.408555,0.587298,-0.698688
-0.441596,0.143907,0.944656,0.317361,0.745289,0.586366
-0.440552,0.302534,0.821914,0.462896,0.686688,-0.560524
0.704177,-0.443184,-0.942596,-0.043663,-0.159132,0.986291
-0.491832,0.383544,0.669046,0.610124,0.581255,0.538415
0.343696,0.112239,-0.983924,-0.374735,0.482005,0.791988
