0.426586,-0.480528,0.514154,0.897240,-0.140856,-0.418474
-0.338816,0.404349,0.392181,0.205431,-0.955382,-0.212232
0.043184,-0.193214,0.839974,0.822199,0.565556,-0.064305
-0.337164,-0.275124,0.866526,0.822422,0.498233,0.274566
0.010290,0.758484,0.499215,0.880957,0.454211,-0.132695
0.154840,0.277824,0.690378,-0.706828,0.654644,0.268020
0.028305,0.142536,0.706576,0.573997,-0.784125,-0.235959
-0.343941,-0.145305,0.787040,-0.439120,0.799752,-0.409354
0.014421,-0.359210,0.743538,-0.774385,0.006339,-0.632683
0.706517,-0.385504,0.541420,-0.711502,0.558831,0.425997
-0.247325,-0.434004,0.842342,0.943881,-0.311829,-0.108866
0.035910,0.622338,0.697500,0.160901,-0.606880,0.778337
0.194346,0.682109,0.399735,-0.055794,-0.264428,0.962790
0.105501,-0.315190,0.627766,-0.319486,0.639854,-0.698939
0.323443,0.622208,0.515507,0.476576,0.156600,0.865073
0.306748,-0.756507,0.367828,-0.122769,-0.051418,0.991102
-0.165171,-0.000924,-0.255908,0.686004,0.315612,0.655582
-0.089881,-0.364680,0.713829,-0.599006,0.769141,-0.222743
0.085499,0.504777,0.499760,-0.188474,0.401082,0.896443
-0.389563,-0.159935,0.798333,0.505951,-0.149069,0.849584
-0.158560,-0.590642,-0.169506,-0.613923,-0.212893,-0.760115
-0.105004,-0.240067,0.522178,0.922737,0.012843,0.385216
0.042854,0.545239,0.542097,0.207676,-0.972335,0.106934
-0.046985,0.679472,0.508029,0.822430,-0.294917,0.486449
0.536593,0.109390,0.599448,0.113010,-0.714180,0.690779
0.155834,-0.088765,0.802524,0.776635,-0.240953,-0.582048
-0.222943,-0.284481,0.674518,-0.323364,-0.583707,-0.744797
-0.370883,-0.535751,0.482886,0.722937,-0.608565,-0.327125
0.589239,0.251136,0.407101,0.084504,0.970369,-0.226369
-0.141286,0.166654,0.170802,0.788518,0.495522,0.364277
0.032273,0.238682,0.551286,0.638503,0.733424,-0.233244
-0.118064,-0.413839,-0.180724,-0.435428,-0.283047,-0.854568
-0.133684,0.933376,0.529300,0.294378,0.569687,0.767332
0.557419,-0.230446,0.532006,0.539101,0.080248,-0.838409
0.075252,-0.060889,0.278758,0.978639,0.155676,-0.134275
-0.266996,0.007906,0.603394,0.803138,0.106366,-0.586222
0.414273,0.527379,0.558351,0.111881,-0.869177,0.481679
-0.025746,0.494892,0.519641,0.008523,-0.593364,0.804889
-0.341709,0.388072,0.423919,0.580241,0.682752,-0.444039
-0.158891,0.036638,-0.261395,0.497550,0.412330,0.763170
-0.493367,-0.623658,0.350916,0.186017,0.943217,0.275207
0.199718,0.119737,0.671324,0.023230,0.170912,0.985013
0.367163,0.157363,0.562673,-0.510412,0.606285,0.609834
-0.136410,-0.680132,-0.158024,0.973578,-0.129032,-0.188407
-0.354436,-0.765734,0.203762,-0.073982,-0.128080,0.989001
-0.378321,0.501483,0.358902,0.879217,-0.021930,0.475916
-0.227157,-0.139111,0.661139,0.834742,0.482080,0.266093
-0.251043,-0.489028,0.530108,0.801223,0.448103,-0.396541
-0.031695,0.076045,0.708681,-0.444038,-0.626415,0.640652
0.292203,-0.788666,0.398551,0.842489,0.298690,0.448326
-0.079797,-0.200858,0.762912,0.920871,-0.344844,0.181876
0.249060,-0.043031,0.588755,0.293579,0.103086,0.950360
0.090705,-0.337925,0.611530,-0.658159,-0.027239,-0.752386
-0.287161,-0.111895,0.865004,0.646599,-0.695111,0.314214
-0.164016,-0.009226,0.744534,0.556112,0.636511,0.534409
-0.436176,-0.111302,0.741903,0.951413,-0.093675,0.293323
-0.203108,0.071301,-0.295087,0.942333,0.260600,0.209989
0.034588,-0.198221,0.842887,0.908536,0.417029,-0.025489
0.462044,-0.346888,0.504627,-0.576909,0.499424,0.646337
-0.643621,-0.350906,0.893379,-0.595169,0.140902,0.791152
-0.147816,-0.325140,0.760206,0.428646,-0.687824,0.585800
-0.147733,-0.001582,0.531461,0.756835,-0.580382,0.300596
-0.522872,-0.251532,0.809909,-0.262119,-0.964989,0.009469
-0.341129,0.070444,-0.991544,-0.312147,-0.366291,0.876581
-0.004173,0.216407,0.518213,0.236247,0.970237,-0.053168
0.222529,-0.349721,0.382297,-0.018343,0.020864,0.999614
-0.288399,0.003426,0.579191,0.863410,0.266664,0.428267
-0.019960,0.807774,0.416271,-0.222704,-0.817464,0.531183
-0.122939,0.057199,-0.256189,0.795539,0.354610,0.491293
0.301540,0.626885,0.643344,-0.082495,-0.925493,0.369671
0.253852,-0.420494,0.371436,-0.734507,0.516267,-0.440417
-0.071945,0.386095,0.510171,0.845044,-0.407129,0.346622
0.031282,-0.125667,0.678389,0.132483,-0.972346,-0.192330
-0.322949,-0.247448,0.812408,0.965859,0.244293,-0.086241
-0.070787,0.022734,0.469901,-0.797088,0.587680,-0.138861
-0.488409,-0.469457,0.151429,-0.696653,0.273993,-0.663025
-0.198893,-0.042307,0.869120,0.877969,-0.002822,-0.478709
-0.007727,0.676771,0.487715,0.444227,0.111178,0.888989
0.472705,-0.343922,0.505510,0.709327,-0.519096,-0.476859
0.904705,0.338319,0.500606,0.805524,0.514408,-0.294135
0.327494,0.568171,0.517988,0.042681,0.766161,0.641230
0.379892,0.205799,0.316246,-0.702815,0.336044,0.626997
-0.346998,-0.682901,0.225128,0.206676,0.104571,-0.972805
0.175422,-0.314399,0.602999,-0.259083,0.883029,0.391327
0.845862,0.131795,0.447183,0.243046,-0.765538,0.595719
-0.062441,-0.083823,0.698064,0.956434,-0.130318,-0.261250
0.312204,-0.832884,0.388893,0.796335,0.508832,-0.327017
0.590314,0.198549,0.456202,0.200497,0.940116,-0.275648
-0.039714,0.080065,0.690885,0.582937,0.785256,-0.208702
-0.152527,-0.389787,0.325021,0.385393,0.911230,-0.145368
-0.049795,0.681185,0.498426,-0.625700,0.300750,-0.719757
0.533617,-0.296936,0.535276,0.773366,-0.008944,-0.633897
-0.205670,-0.172983,0.559347,0.998644,-0.023407,-0.046510
-0.033017,-0.137001,0.852095,0.769554,0.626017,-0.126051
-0.052605,0.155980,0.450941,-0.217622,-0.927663,0.303449
-0.173933,0.190509,0.298150,0.820725,0.475909,-0.316102
0.440638,-0.240594,0.353941,-0.231686,-0.727262,0.646074
0.437992,0.689620,0.533096,-0.191694,0.800421,-0.567961
0.233440,0.541020,0.556848,-0.721310,0.581380,0.376442
0.006902,0.321581,0.711123,0.698953,0.578274,0.420789
0.192280,0.577792,0.400637,0.605636,-0.417260,-0.677569
0.195420,-0.322967,0.553616,0.860012,0.028458,-0.509479
-0.369395,0.607314,0.562767,-0.074333,0.345401,0.935507
-0.178809,0.125140,0.013314,0.990499,0.128945,-0.047806
-0.408817,-0.021352,0.639285,0.730903,0.671562,0.121592
0.250218,0.696606,0.398589,-0.133244,-0.091410,0.986859
-0.232366,-0.070973,0.798333,0.897765,-0.352418,0.264235
-0.108063,-0.272224,0.531029,-0.080101,0.842858,-0.532141
-0.702880,0.211730,0.400355,0.227345,0.649445,0.725627
0.182610,-0.216013,0.703457,0.736541,0.410354,0.537697
0.165421,-0.207249,0.535482,0.973916,0.024532,-0.225581
-0.107814,-0.031697,0.394060,0.836537,0.224925,0.499614
0.071367,-0.116046,0.266243,0.963169,0.054055,-0.263408
0.705276,-0.249489,0.539823,0.005513,0.096274,0.995340
-0.047152,-0.203955,0.751562,0.954579,-0.277285,0.109050
0.102855,0.818385,0.512407,0.011798,0.063092,0.997938
-0.274514,-0.020363,0.179690,0.047920,0.751127,0.658417
-0.054507,0.132915,0.396822,0.987980,0.100167,-0.117736
0.311293,0.202436,0.572839,0.919522,0.276920,0.278917
-0.414026,-0.192685,0.859517,0.769863,-0.412156,0.487276
-0.342122,0.050412,0.708248,-0.085534,0.695764,0.713159
0.374437,0.115190,0.330997,-0.765743,0.246880,0.593875
0.199637,-0.116903,0.622260,-0.531190,-0.809450,0.250256
-0.082276,0.562570,0.530428,-0.786008,0.021487,-0.617843
-0.175172,0.137528,-0.088910,0.365087,0.928639,0.065882
-0.173273,0.103986,0.174053,0.823651,-0.400242,0.401752
-0.176743,0.259900,0.698984,-0.513992,0.475207,-0.714136
0.538081,0.108599,0.423788,0.784335,0.187718,0.591253
-0.294021,-0.136870,0.672695,0.855717,0.458152,0.240512
0.134428,-0.479408,0.541834,0.938834,0.292470,0.181804
-0.606181,0.146292,0.440963,0.897110,0.293500,0.330228
-0.235092,0.120330,-0.610985,0.985679,-0.117912,-0.120554
0.130955,0.509456,0.448348,0.869306,-0.494100,-0.013099
0.069629,0.696143,0.636522,0.787447,0.608666,0.097225
-0.319972,0.106029,0.670516,0.393788,-0.088352,0.914945
0.173850,0.796836,0.598433,0.838897,0.190164,-0.509989
-0.238315,-0.057859,0.869082,0.347893,-0.206804,-0.914441
-0.135833,0.141615,-0.521615,0.893058,-0.438386,0.101318
0.332699,0.228071,0.559028,0.340107,-0.729626,0.593274
0.047646,0.106556,0.248372,-0.629873,0.526987,0.570566
-0.347659,0.118087,-0.990792,0.474561,-0.003540,-0.880216
0.093681,-0.132324,0.690152,0.109727,0.817704,0.565084
0.331625,0.194595,0.705073,0.976675,0.213326,-0.024469
-0.166495,0.328171,0.690960,-0.347184,0.795448,-0.496715
-0.032192,-0.420627,0.736604,0.273227,0.697579,-0.662367
-0.014174,-0.168040,0.710954,-0.130362,0.963911,0.232125
-0.455350,-0.530808,0.333214,0.108951,-0.161348,0.980865
0.010126,0.111763,0.755508,-0.011663,-0.670404,0.741904
-0.277821,-0.258386,0.680851,0.906280,0.221384,0.360064
-0.328154,-0.131797,0.858916,0.447895,-0.888018,0.103987
0.228315,-0.070906,0.553973,0.765058,-0.165542,0.622319
-0.392289,-0.133576,0.176101,-0.244609,0.583621,0.774308
-0.276169,0.258583,0.705862,0.693578,-0.109978,0.711937
-0.111203,-0.794465,-0.152406,0.981682,0.188983,0.024216
-0.193355,0.254696,-0.984836,-0.226883,-0.293761,0.928563
0.365344,-0.155322,0.584058,0.398374,0.610958,-0.684126
-0.085003,0.072947,0.701765,-0.510073,-0.782155,0.357853
0.047812,-0.191565,0.835972,0.867447,0.436128,0.239431
0.642713,-0.354532,0.517123,-0.700628,0.666114,0.255759
0.163436,-0.564087,0.535388,-0.322883,0.380130,0.866746
-0.414770,-0.536805,0.331166,0.820785,-0.226168,0.524557
-0.378074,-0.240660,0.722962,0.219838,0.861042,0.458561
-0.348403,-0.255816,0.784277,0.831157,0.544569,0.112349
0.218398,0.016013,0.543769,0.760508,0.576331,-0.299116
-0.555767,-0.759144,0.358676,0.864769,-0.231249,0.445756
-0.197652,-0.969094,0.223361,-0.053398,0.562134,0.825321
-0.284434,-0.442175,0.124726,0.196764,-0.545186,0.814897
-0.427580,-0.376673,0.987241,-0.676214,0.426037,0.601022
-0.121618,0.056803,-0.274022,0.918730,-0.212875,-0.332596
-0.684614,0.292849,0.427546,0.372876,0.364131,0.853447
-0.203191,0.093048,-0.667847,-0.543113,-0.764243,0.347795
0.163105,0.767841,0.595896,0.768829,0.345876,0.537841
-0.344105,-0.439012,0.970291,0.698860,0.618697,0.358899
-0.693210,-0.600726,0.333966,0.162690,0.574219,0.802375
0.443284,0.366324,0.445492,0.059935,0.269573,0.961113
-0.525601,-0.613246,0.383349,0.828885,-0.549171,-0.106586
0.038472,-0.340098,0.710203,0.284170,0.958731,-0.009060
-0.281872,-0.126986,0.820864,0.815093,-0.578320,-0.034208
-0.605851,-0.238484,0.901046,0.098604,-0.600995,0.793147
-0.475021,0.352157,0.340111,0.343873,-0.659302,0.668635
-0.188562,-0.229917,0.663901,0.229071,0.862045,0.452112
0.516839,0.157825,0.587271,0.497329,0.272806,-0.823553
-0.548412,-0.260956,0.810435,-0.262119,-0.964989,0.009469
0.361710,-0.657332,0.354336,-0.412489,0.053092,0.909414
-0.432869,-0.243691,0.893642,0.667058,-0.643531,-0.375368
-0.128806,0.050675,-0.987185,-0.075905,0.089471,0.993093
0.453284,0.217990,0.345447,0.817514,0.546885,-0.180517
-0.202694,0.110510,-0.448423,0.954166,-0.161122,0.252203
-0.025496,0.849817,0.429932,-0.005450,-0.799888,0.600125
0.357412,-0.158946,0.589808,-0.328440,-0.572591,0.751177
0.851565,0.415551,0.495626,0.649495,0.552771,-0.522112
-0.400635,-0.118419,0.684985,-0.398621,0.680720,0.614591
0.238812,0.017133,0.561508,-0.504312,-0.857196,-0.104329
0.461466,-0.346228,0.369425,0.114256,0.973402,-0.198578
-0.012355,0.236508,0.551286,0.033233,-0.962272,0.270053
0.137485,0.520724,0.479334,-0.315178,0.817049,-0.482798
-0.208150,0.100955,-0.690566,0.993222,-0.077025,-0.087042
-0.383446,-0.304515,0.135625,-0.599144,0.329781,-0.729569
-0.564527,0.077298,0.428448,0.953472,0.241763,0.180116
-0.071862,0.300230,0.350671,0.804558,-0.365069,-0.468414
-0.151039,0.106293,-0.280768,0.802228,0.214805,-0.557036
-0.150212,0.683426,0.505379,-0.650443,-0.714343,-0.258144
0.140461,-0.404548,0.382861,-0.615267,-0.072708,0.784958
-0.067070,-0.368830,0.728148,0.923536,0.210256,0.320738
-0.165834,0.094365,0.677976,0.549228,0.782765,0.292623
-0.128476,-0.490939,-0.179390,0.132057,-0.030283,0.990779
0.128725,0.600724,0.668242,-0.596072,-0.534152,-0.599483
0.736436,0.250279,0.445736,-0.490776,0.482008,0.725815
-0.146328,0.078747,0.014328,0.141733,0.970826,-0.193413
-0.220216,-1.000000,0.223154,-0.053398,0.562134,0.825321
0.692466,0.490279,0.392594,0.982094,-0.135438,-0.130951
0.185256,-0.577595,0.545911,-0.574550,0.205168,0.792337
-0.314434,-0.221880,0.762179,0.899592,0.369469,-0.232869
-0.118972,0.144448,-0.364671,0.983257,-0.093611,-0.156342
-0.635025,-0.273740,0.884867,0.073604,-0.915785,0.394868
0.423613,0.332915,0.415576,0.884944,0.380110,0.269055
-0.336584,-0.281450,0.139590,0.027527,0.171345,0.984827
-0.343114,-0.226690,0.170013,0.965763,-0.212001,0.149521
-0.005331,0.741020,0.506074,0.933864,0.352064,0.062849
0.485682,-0.018782,0.339641,0.829446,0.410749,0.378556
-0.250712,-0.876178,0.196415,0.087130,0.152432,0.984466
0.138973,0.667215,0.580713,-0.844486,0.535576,-0.000686
0.204265,0.144513,0.683425,0.394298,-0.290253,0.871942
-0.105501,0.540756,0.540744,0.598329,-0.130272,0.790590
-0.018141,0.060823,0.237154,-0.626023,-0.030442,0.779210
-0.222943,0.240395,-0.984873,-0.023462,-0.131744,0.991006
0.419892,0.649620,0.501621,0.820413,-0.487414,-0.298915
-0.027811,-0.411862,0.337048,0.895703,-0.104745,-0.432140
-0.236663,-0.182471,0.622373,-0.473421,-0.691320,-0.545848
-0.063516,-0.284284,0.509137,0.876949,0.430729,0.213153
-0.130955,-0.393478,-0.182152,0.148580,0.165575,0.974940
-0.225505,0.103920,-0.974388,-0.306894,0.513984,-0.801022
-0.180958,0.104909,0.235406,0.630248,-0.772901,0.073559
0.607586,0.425964,0.419748,-0.312045,0.686877,0.656375
-0.145503,0.144249,0.351930,0.897933,0.116024,-0.424565
-0.569238,-0.630577,0.094754,0.597970,-0.800884,-0.031879
-0.114757,-0.036640,0.385360,0.468791,0.549527,0.691560
-0.022522,0.337726,0.499140,0.407617,-0.853415,0.324856
-0.223687,0.113014,-0.425517,0.718482,-0.672169,0.178808
-0.408570,-0.460429,0.986621,0.754146,0.170971,0.634060
-0.730733,0.405270,0.411141,0.732959,-0.232912,0.639158
-0.039878,-0.122769,0.661458,0.908038,-0.260566,-0.327983
0.580891,0.084018,0.379798,0.171539,0.969112,0.177193
0.724700,0.307017,0.482604,0.072848,0.607236,0.791175
-0.198644,0.157232,-0.451711,0.982247,-0.166297,0.086813
0.577256,-0.522110,0.513891,-0.276584,-0.095096,-0.956273
0.134675,-0.128304,0.805812,0.240173,0.938588,0.247728
-0.773462,-0.305239,0.324570,-0.222044,-0.332529,0.916581
0.524857,-0.348402,0.371868,0.471607,0.718251,0.511568
-0.313525,-0.249555,0.738483,0.539578,0.838788,0.072734
-0.045911,0.140822,0.407627,0.986227,0.036778,0.161257
-0.068144,0.337858,0.352456,-0.796181,0.595623,0.106437
-0.374023,-0.777134,0.386281,0.568545,0.430744,0.700868
-0.120377,-0.390115,-0.184990,0.148580,0.165575,0.974940
-0.111617,0.913871,0.526895,-0.540326,0.255787,-0.801636
-0.267656,-0.014893,0.845988,-0.692982,-0.705170,0.150036
-0.187321,0.031564,0.345034,-0.547139,0.820365,0.166252
-0.329806,-0.143791,0.877576,0.723646,-0.688836,-0.042920
0.033678,0.065239,0.792771,-0.683026,-0.429344,0.590880
0.433697,0.283031,0.711612,0.873461,-0.416637,0.251950
0.272615,0.193146,0.601834,0.928170,-0.315496,0.197390
0.018885,0.388402,0.730610,0.304383,-0.757747,0.577210
0.178231,0.619241,0.645242,-0.206053,0.858849,0.468957
-0.234431,-0.100627,0.848036,0.956711,0.018002,-0.290483
0.035249,-0.188204,0.573478,0.245914,0.873054,0.421074
0.388405,0.140822,0.407721,0.863478,0.425652,-0.270603
0.036821,0.885270,0.516127,-0.760946,0.157662,-0.629368
-0.070043,0.063656,0.635677,0.934829,0.211879,-0.284960
0.482539,-0.339375,0.505943,-0.632952,0.760879,0.142951
-0.334932,-0.167710,0.708436,-0.207495,-0.977114,0.046839
-0.078639,0.106029,0.699341,-0.459055,-0.825714,0.327817
0.495683,0.686786,0.499291,0.030954,0.985499,0.166836
0.433117,0.353936,0.407872,0.754569,0.204527,0.623534
-0.381298,-0.416739,0.997294,-0.271380,0.871668,0.408104
-0.236994,0.796639,0.532701,0.026185,0.508368,0.860742
-0.185172,0.104579,-0.797149,0.996724,0.041890,-0.069182
0.047729,0.199076,0.610365,0.966707,-0.254707,-0.024527
-0.193274,-0.504316,0.208742,0.701146,-0.042489,0.711751
-0.229637,0.094892,-0.848712,0.941512,0.309489,-0.133309
-0.362287,-0.411203,0.982167,-0.109956,0.971202,0.211366
0.143435,-0.098255,0.780820,0.799938,-0.195956,-0.567187
-0.318070,-0.636904,0.372638,0.378573,0.285542,0.880425
-0.225091,0.053442,-0.803501,0.966610,0.235972,-0.099908
-0.225505,0.274794,-0.984554,0.056226,0.346000,-0.936548
-0.361296,0.083558,-0.986264,-0.359473,-0.319220,0.876857
-0.333360,-0.344382,0.131529,-0.113633,0.058337,-0.991809
-0.605440,-0.422010,0.144946,-0.520890,0.702372,-0.485125
-0.088062,0.002569,0.550966,0.189175,0.963273,-0.190572
-0.275508,0.199472,0.687973,0.572268,-0.590778,0.568762
-0.384685,-0.347018,0.963902,-0.505351,-0.834599,0.219236
-0.094922,-0.002308,0.452482,0.268339,-0.956932,0.110797
0.271788,0.031498,0.621471,0.853671,0.450541,0.261264
0.296665,0.239076,0.588116,0.973634,-0.011605,0.227819
0.166329,-0.502406,0.508912,-0.713114,-0.686520,-0.141979
0.735112,0.280791,0.426137,-0.824405,-0.006255,0.565966
0.300054,0.273410,0.465880,-0.093935,0.909437,0.405093
0.683126,-0.527447,0.513121,0.378978,-0.080021,-0.921940
-0.202777,-0.377464,0.800194,0.895803,-0.159291,-0.414927
-0.144593,0.458517,0.469939,-0.334503,-0.839006,0.429159
-0.191206,-0.130347,0.575789,0.992436,-0.120356,0.024202
-0.290467,0.107545,-0.914218,0.911363,-0.381244,-0.155148
0.514029,-0.372917,0.489651,0.367275,0.845871,0.386797
-0.229142,-0.119012,0.133145,0.918584,-0.297506,0.260181
0.462952,0.184908,0.566563,-0.589553,0.127424,0.797615
-0.339229,-0.407052,0.924328,0.975270,0.213105,0.058615
0.264847,-0.495289,0.392031,-0.762503,-0.183806,0.620326
-0.095583,-0.151171,0.474280,0.815641,0.389826,0.427511
0.302284,-0.830642,0.379271,0.924788,0.310411,-0.220026
-0.395266,-0.465370,0.322616,-0.619417,0.035454,0.784261
0.209388,-0.286721,0.739761,0.207903,0.965659,-0.155815
-0.600314,-0.005075,0.192938,-0.369968,0.444768,-0.815662
-0.324434,0.527644,0.458025,-0.204938,-0.651919,0.730070
-0.341461,-0.194268,0.903977,0.904200,0.091537,-0.417185
-0.285509,0.102142,-0.186531,0.947229,0.320185,0.015461
-0.533039,-0.615817,0.157855,0.689466,0.101795,0.717129
-0.856274,0.225765,0.421514,-0.316969,-0.419224,0.850754
-0.094259,0.532256,0.394793,0.430880,-0.093870,0.897514
0.115004,0.653508,0.701258,-0.761104,-0.639798,-0.106678
-0.216165,0.007313,0.159189,-0.475140,-0.383681,-0.791853
0.341873,-0.608963,0.528511,0.564703,-0.165821,0.808464
-0.667837,-0.454959,0.338683,0.918881,0.335255,-0.207995
-0.093351,-0.296672,0.634061,-0.510265,-0.835213,-0.205056
-0.447912,-0.647645,0.349450,-0.069794,-0.653168,0.753990
0.313112,-0.769094,0.373070,0.946457,-0.036873,-0.320718
0.001610,0.535156,0.485310,0.972663,-0.171515,-0.156552
-0.110212,-0.867414,-0.129349,-0.795842,0.563686,0.221120
0.720733,0.637166,0.437524,-0.361823,-0.742923,0.563160
-0.224267,0.151893,-0.375682,-0.679673,-0.733453,0.009553
0.157403,0.271170,0.691731,-0.706828,0.654644,0.268020
-0.323940,0.619044,0.471574,0.590717,0.581507,-0.559377
0.268895,-0.135421,0.808518,-0.650918,0.632584,0.419694
0.016239,-0.590578,0.378482,-0.687605,-0.415753,-0.595272
0.239554,-0.190511,0.583870,-0.406009,-0.237517,-0.882464
0.500972,-0.443032,0.525974,0.312882,0.054261,0.948241
0.538328,0.677232,0.505661,-0.189022,-0.978330,-0.084503
-0.214844,-0.172850,0.659579,0.754920,0.247878,0.607168
-0.297078,-0.195058,0.731192,0.935320,0.109655,0.336382
-0.062191,-0.547809,0.363788,-0.456212,0.542084,0.705703
-0.134428,-0.220099,0.225297,0.636592,0.071257,-0.767902
-0.084178,0.114333,0.818383,-0.458642,0.465505,-0.756937
-0.168891,0.118681,0.252506,0.000223,0.879925,0.475113
0.271705,-0.033740,0.563575,-0.593233,0.566264,0.572206
0.484772,-0.319077,0.506469,0.727640,-0.657412,-0.195830
0.469399,-0.347809,0.511956,0.862987,-0.319716,-0.391196
-0.207489,0.164810,-0.391561,0.965835,0.114924,0.232284
-0.065004,-0.107282,0.858052,0.926506,0.333299,0.174637
0.251292,0.778779,0.625154,-0.641401,-0.294101,0.708597
-0.193438,-0.094695,0.544652,0.929229,-0.320969,0.183061
-0.147486,-0.053181,0.460092,0.824636,-0.411665,0.387952
0.177818,-0.329885,0.374555,-0.109531,0.119367,0.986790
-0.034175,-0.010742,0.584884,0.844006,0.534562,0.043571
-0.863381,-0.657003,0.157611,-0.730205,0.578764,-0.363089
-0.131038,0.160460,-0.570584,0.998686,-0.050818,-0.006564
-0.304599,-0.316179,0.851606,-0.602172,-0.678526,-0.420703
-0.097152,-0.768700,-0.176684,0.958877,0.124530,-0.255043
-0.002521,0.320988,0.455977,-0.336608,-0.692196,0.638403
0.809497,0.430048,0.486268,0.893101,-0.429697,0.133160
-0.482623,0.406787,0.385811,-0.031450,-0.506005,0.861957
-0.133684,-0.674728,-0.178432,-0.554019,0.828456,0.082001
-0.217737,0.022603,0.105841,0.992510,-0.110873,-0.051296
0.115088,-0.188534,0.467552,-0.512444,-0.035141,0.858001
0.130460,-0.115453,0.544671,-0.399506,0.474362,-0.784458
0.194429,-0.218979,0.598978,-0.819128,0.453529,0.351199
-0.096905,-0.710510,0.192243,0.059102,0.047385,0.997127
0.034422,0.006919,0.627522,-0.202815,0.443291,0.873132
0.809991,0.323888,0.452820,0.868311,0.466888,-0.167486
-0.437415,0.668665,0.375476,0.875251,0.441265,0.198042
-0.012108,-0.398025,0.735251,-0.164887,0.332274,0.928658
-0.242036,0.120921,0.267088,0.929172,-0.080395,0.360800
0.279887,0.240725,0.612207,0.945261,0.217134,0.243585
0.033431,0.674859,0.391862,0.138235,-0.408187,0.902372
-0.519899,-0.418189,-0.218419,0.997081,-0.013933,0.075071
0.477417,0.100493,0.390490,0.586083,-0.251924,-0.770092
-0.159469,0.832949,0.526369,0.712904,0.343555,0.611341
0.383116,0.024711,0.338025,0.888904,0.266438,0.372639
-0.765857,-0.517430,0.325735,0.039437,0.459165,0.887475
0.878260,0.365271,0.487659,0.864694,0.481212,-0.144009
0.053432,-0.191764,0.847472,0.963880,0.141646,-0.225546
-0.609404,-0.613049,0.171779,0.145575,-0.092773,0.984988
0.500889,-0.314136,0.492676,0.783401,0.538450,-0.310411
-0.287491,-0.236113,0.479146,0.487313,0.478412,-0.730512
-0.201786,0.133048,-0.301833,0.939247,0.336646,-0.066964
-0.004256,-0.127777,0.787115,0.842125,-0.514516,-0.161553
0.766849,0.354990,0.464565,-0.602788,0.710471,-0.363150
0.117981,-0.059902,0.834957,-0.000402,-0.880853,0.473389
0.677259,-0.350906,0.516391,-0.671556,0.574954,0.467376
-0.052274,-0.192094,0.494875,0.977489,0.210921,-0.005271
-0.151783,0.154727,0.193897,0.970411,0.241032,-0.014381
-0.058804,0.200790,0.399660,0.982803,0.148924,-0.109179
-0.342122,0.481646,0.375457,0.989872,0.108786,0.091209
0.639323,0.268797,0.499760,-0.101934,-0.984433,-0.143184
0.129800,-0.217003,0.738164,0.818003,0.575121,0.010346
0.456175,-0.204218,0.519998,-0.644151,-0.432158,0.631117
0.012191,0.864051,0.498520,0.871227,-0.481375,-0.096130
-0.764039,0.472618,0.412663,0.372127,0.241669,0.896168
-0.229886,0.107545,-0.690059,0.963847,0.256125,-0.073470
0.012025,0.785963,0.410127,0.009434,-0.707611,0.706539
-0.609571,0.294959,0.386243,0.354709,-0.539363,-0.763720
-0.180297,0.160593,-0.662041,0.873436,0.486757,-0.013315
-0.038059,0.199472,0.460825,-0.050422,-0.960138,0.274940
0.391379,-0.202899,0.358620,-0.164193,-0.982867,0.083745
-0.071781,-0.370479,0.559516,0.792340,0.590630,-0.152817
-0.266168,-0.369687,0.889245,-0.046139,0.728708,0.683269
-0.184512,0.152422,-0.579491,0.992745,-0.102280,-0.063209
-0.246745,0.111630,-0.956780,-0.415674,-0.907401,0.061952
0.105995,-0.159342,0.461295,-0.529770,-0.060811,0.845958
0.220216,-0.546295,0.348567,0.724884,0.294801,0.622604
-0.517749,-0.837958,0.342403,-0.131642,-0.197409,-0.971442
0.647341,0.099899,0.394737,0.913474,-0.405090,0.038297
0.159552,-0.139308,0.718790,0.882004,-0.406412,0.238535
0.309805,-0.753346,0.369744,-0.282839,0.131136,0.950161
0.167237,-0.157299,0.541007,0.238129,-0.446361,0.862587
-0.515351,-0.213312,-0.170464,0.778655,0.071228,0.623397
-0.105004,0.058649,0.644960,0.888373,0.442062,0.123994
0.395843,0.222141,0.685981,-0.705663,0.654087,0.272414
0.510806,0.163097,0.343324,0.886556,-0.447917,-0.115713
-0.201950,0.228928,0.692877,0.424650,-0.806957,0.410480
-0.249143,-0.189061,0.127564,-0.818229,0.433947,0.377083
0.001280,-0.121912,0.662342,0.154084,0.987424,-0.035384
0.090705,0.226688,0.550008,-0.060478,0.996952,0.049277
0.370967,0.254892,0.692896,-0.634102,0.729653,-0.255970
0.273110,0.653837,0.517537,0.459327,0.630428,-0.625763
0.137898,0.161450,0.528004,-0.644778,0.486476,-0.589578
-0.396834,-0.387348,0.391223,-0.438855,-0.359584,-0.823472
-0.238151,-0.117629,0.652702,0.524668,0.752396,0.398276
-0.704532,0.291729,0.434292,-0.082823,0.384295,0.919488
-0.230794,0.069851,0.262278,0.749358,0.258918,0.609446
-0.139470,0.084612,0.063993,0.944620,0.322843,0.058872
-0.075499,-0.226821,0.310853,0.154800,0.778772,0.607907
-0.163933,-0.189325,0.608655,0.771654,0.378519,0.511149
0.569074,-0.386294,0.493503,0.491005,0.447254,-0.747582
-0.709161,-0.281714,0.884622,-0.112010,-0.891086,0.439795
-0.401215,-0.408766,0.982411,0.680899,0.086764,0.727220
-0.340137,-0.187084,0.819210,0.950772,0.296388,0.090476
0.098557,0.555190,0.556265,-0.151085,-0.881637,0.447091
0.294102,0.436769,0.643964,0.869800,-0.406281,-0.279970
-0.153355,0.707940,0.506732,0.611114,-0.460490,0.643807
-0.543865,-0.017199,0.184614,-0.296723,0.500121,-0.813532
-0.170710,0.169554,0.167288,0.797559,0.560612,-0.222741
0.280384,-0.237958,0.385980,-0.603607,0.737543,0.302801
-0.361627,-0.434992,0.976380,0.787264,-0.594728,-0.162829
-0.420223,0.391959,0.381677,0.189725,0.788465,-0.585088
-0.435101,-0.364810,0.975797,0.834499,0.365300,0.412514
-0.539072,-0.227414,0.816147,-0.283830,-0.958523,-0.025974
-0.455020,-0.260956,0.904635,-0.487846,-0.856115,-0.170509
-0.473616,-0.557826,0.373784,0.876468,-0.275161,0.395082
-0.163189,0.116704,-0.613203,0.965312,0.134318,-0.223900
-0.218231,-0.136277,0.129330,-0.893232,0.411533,0.181044
-0.294268,-0.263329,0.833736,0.452638,0.890697,0.042152
-0.150626,0.087445,-0.416046,-0.722318,0.551024,-0.417888
0.059879,-0.145504,0.721722,0.395663,0.906686,-0.146190
-0.055084,-0.272160,0.758797,-0.552632,0.307515,-0.774618
-0.497912,-0.038551,0.674763,-0.471196,-0.861765,-0.187975
-0.862721,0.250676,0.430928,-0.636803,-0.691080,-0.341892
-0.215091,-0.488568,0.845274,0.996236,-0.044223,-0.074550
0.443695,0.679933,0.491323,-0.515640,0.767748,0.380367
-0.621637,-0.254235,0.834901,-0.603437,0.692404,-0.395527
0.083764,0.338122,0.702536,0.125878,0.824565,0.551586
-0.219306,0.136804,0.537343,0.845078,0.511743,-0.154799
0.021778,0.360330,0.699830,0.186691,0.930530,0.315055
0.092854,0.119933,0.673522,-0.241355,-0.245910,0.938763
-0.265177,-0.199671,0.344884,0.560970,0.532236,0.634063
-0.318815,-0.127380,0.879492,-0.661248,0.747477,0.063476
-0.003679,-0.116376,0.883664,0.756197,-0.422830,-0.499381
-0.347165,-0.248699,-0.216408,-0.144892,0.450690,0.880844
-0.383363,-0.441318,0.967923,0.254997,0.805911,0.534307
-0.640233,-0.444615,0.330414,0.339313,0.922566,0.183682
0.375345,0.128501,0.503124,0.690557,0.663826,-0.287168
-0.198644,-0.075323,0.523080,0.996821,-0.078972,-0.010592
0.701639,0.007249,0.433822,0.282476,-0.406870,-0.868714
-0.331130,0.296803,0.575188,0.308237,0.755149,0.578568
-0.412538,-0.139244,0.363167,0.926418,0.345449,-0.149714
-0.035910,0.050345,0.829639,-0.338102,0.853277,-0.396995
-0.109632,0.164283,-0.994513,-0.024785,0.097126,0.994963
0.169883,0.400922,0.708624,0.257596,0.963963,0.066485
-0.157239,-0.746623,-0.167833,0.814887,0.249643,-0.523104
-0.101119,-0.043824,0.220148,0.586519,0.028512,-0.809433
0.674697,-0.368633,0.530597,-0.750114,0.593571,0.291550
0.235589,0.344712,0.690209,0.787327,-0.076783,-0.611736
0.444108,-0.329754,0.486569,-0.586377,-0.803965,-0.099011
-0.464110,-0.331071,0.185892,-0.704579,-0.683286,0.191540
-0.085666,0.045929,0.715690,-0.618970,0.774801,-0.128681
-0.778174,0.215617,0.426494,-0.122647,-0.826179,0.549897
-0.243688,0.977396,0.517800,-0.122496,0.620916,0.774246
-0.453365,-0.073740,0.158287,-0.039744,-0.206037,0.977737
0.254432,-0.010018,0.522347,0.800835,0.326794,-0.501865
0.063763,0.255023,0.602924,0.185001,-0.202151,0.961722
-0.767512,-0.420363,0.165560,0.549266,0.340096,0.763309
0.417663,0.265173,0.600613,0.821488,-0.541631,0.178307
0.029380,-0.400858,0.713435,0.005284,0.972102,0.234499
-0.130294,-0.194135,0.487396,0.792843,0.415175,0.446128
-0.200712,0.223195,-0.329306,0.958119,0.275186,0.079248
-0.312698,-0.192751,0.831406,0.947711,-0.205719,0.243973
-0.194098,-0.404152,0.849051,0.993270,-0.043043,-0.107527
-0.031695,-0.146887,0.874607,-0.356373,0.874454,0.329134
0.175999,-0.584318,0.542022,-0.574550,0.205168,0.792337
-0.021778,0.797100,0.507277,0.964231,0.148675,0.219440
-0.246167,0.258517,-0.987485,0.111312,-0.677341,0.727199
0.085663,-0.108139,0.795984,0.367973,-0.929425,-0.027667
-0.006488,0.451466,0.494593,0.752968,-0.624149,0.208510
0.071945,0.291202,0.711311,-0.535580,-0.415442,-0.735230
-0.436506,-0.206722,0.815922,-0.360970,0.916104,-0.174510
-0.121618,0.110510,0.726307,0.379949,0.770449,0.511906
0.292283,0.210807,0.554198,-0.303412,-0.895071,0.326788
0.116823,0.113410,0.802279,0.907030,-0.242802,0.344012
-0.342783,0.033674,-0.992653,-0.344826,-0.254836,0.903412
0.477747,-0.396179,0.496378,0.727454,-0.628030,0.276384
-0.141783,0.124084,0.129931,0.877553,-0.392578,0.275288
0.652713,0.114596,0.400769,-0.794538,0.555934,-0.244227
0.109715,-0.444482,0.534073,0.749784,0.352920,-0.559706
-0.091285,0.148138,0.837118,0.928645,0.160500,-0.334453
-0.038142,-0.554993,0.369876,-0.392906,0.478706,0.785153
-0.156908,0.083228,0.130082,0.950886,-0.268333,0.154316
-0.294102,0.170147,0.471555,-0.570751,0.794834,0.206110
0.258730,0.616408,0.628574,0.841384,0.516057,-0.160493
0.032192,0.042042,0.778509,0.752043,0.658632,-0.025213
-0.371544,-0.232158,0.831049,0.947631,-0.037456,0.317163
-0.633620,0.534695,0.408567,-0.783429,-0.469419,0.407290
-0.332369,-0.386821,0.318933,-0.847255,0.530047,0.034771
0.046738,0.547149,0.482886,0.908251,-0.011697,-0.418262
-0.352123,0.576342,0.464301,-0.289083,-0.671276,0.682510
-0.203605,0.934760,0.528548,0.910408,-0.308913,-0.275189
-0.109468,0.046062,0.523907,-0.380731,-0.916578,-0.122180
-0.206331,-0.297464,0.464471,0.087017,0.382258,0.919949
-0.190545,-0.682438,-0.190777,-0.278785,0.533557,0.798496
-0.844374,0.129488,0.424182,-0.428541,-0.111735,-0.896587
0.031035,-0.352489,0.734951,0.468609,-0.398016,-0.788662
-0.331708,-0.415090,0.992220,-0.174299,-0.970618,-0.165891
-0.135005,-0.039604,0.283267,0.223513,0.608648,0.761308
0.316335,0.212520,0.690566,-0.723390,0.614434,0.314923
-0.201950,0.099505,-0.066944,0.896379,0.427024,0.118975
-0.488986,-0.367644,-0.227533,0.996068,-0.056601,-0.068158
-0.159138,-0.822011,0.388799,-0.068859,0.408510,0.910153
0.190214,-0.157629,0.700412,0.950324,-0.115283,0.289127
-0.457663,-0.057992,0.665705,0.333860,0.941311,0.049705
-0.237077,-0.396639,0.891387,0.269222,-0.859798,-0.433898
-0.218481,-0.154729,0.596215,-0.574531,-0.740343,-0.349009
-0.197158,0.073607,-0.983126,-0.157967,0.494627,-0.854629
-0.032356,0.037628,0.701108,0.911145,0.365107,-0.191081
-0.221455,0.083294,-0.414279,-0.425827,-0.904472,-0.024523
-0.296087,-0.317299,0.331805,0.823697,-0.484171,0.295130
0.415431,-0.405996,0.526632,0.096655,0.985305,0.140828
-0.032523,-0.215156,0.683651,0.852056,-0.519278,0.065964
-0.222448,0.125733,-0.949527,-0.632696,-0.771722,-0.064358
-0.913798,-0.311829,0.328535,0.006413,-0.329533,0.944122
-0.501302,-0.000067,0.359823,-0.743246,-0.234098,0.626724
0.740154,-0.296475,0.538921,0.802114,-0.096586,-0.589308
0.544278,0.072947,0.422341,-0.738446,-0.069157,-0.670757
-0.435432,-0.451532,0.387389,-0.525317,-0.335723,0.781877
0.252861,0.333179,0.460055,0.209347,-0.586436,-0.782475
-0.119386,0.121910,0.126342,0.778106,-0.537666,0.324756
-0.149801,0.020494,0.533227,0.834864,-0.372652,0.405134
-0.065665,0.120000,0.115613,0.898458,-0.439057,-0.001555
0.008224,0.650610,0.486156,0.837805,0.527060,-0.142447
0.094920,0.031168,0.815226,0.431097,0.900622,0.055091
-0.093021,0.033541,0.378407,-0.846862,0.254876,-0.466758
-0.152197,0.156770,0.156051,0.935819,0.256852,0.241393
-0.298980,0.401383,0.484540,0.998340,-0.040467,0.040988
0.176743,0.154992,0.259910,-0.001835,-0.867593,0.497271
-0.876442,-0.684614,0.156014,-0.762252,0.205697,-0.613727
-0.013596,0.840263,0.498126,-0.120597,0.017885,0.992540
-0.287738,-0.226096,0.712439,0.992241,0.062813,0.107293
0.114013,0.273344,0.387934,-0.265662,0.335592,0.903771
-0.484277,-0.774367,0.355463,-0.590510,0.155791,-0.791850
0.538328,0.373442,0.386243,0.864032,-0.452316,-0.221043
-0.117567,-0.356839,0.561602,0.886576,-0.459157,-0.056191
0.158477,0.308994,0.432883,-0.575320,0.426902,0.697683
-0.352701,-0.149458,0.866094,-0.569862,0.737464,-0.362497
-0.059712,-0.437958,0.537794,0.909002,0.118912,-0.399470
0.190298,-0.606656,0.543281,-0.551418,0.244708,0.797531
-0.621968,0.378517,0.424990,0.194910,-0.708558,-0.678200
-0.305507,-0.232357,0.753779,0.992374,-0.093824,0.079948
-0.055911,-0.288107,0.485028,0.248041,0.132118,-0.959698
0.404439,0.204679,0.684308,0.800767,-0.411953,-0.434819
-0.235753,0.200659,-0.316039,0.918007,-0.324003,-0.228658
0.125335,0.211004,0.698120,0.882241,0.368217,-0.293373
0.088556,0.309983,0.713529,-0.747054,-0.079075,-0.660044
0.457579,0.333705,0.398664,-0.508327,-0.411368,-0.756558
-0.588165,0.382735,0.369575,0.280316,-0.038863,0.959121
-0.097071,0.131465,0.368824,0.932275,0.189500,-0.308144
-0.522955,-0.822867,0.342760,0.683473,0.081716,0.725388
-0.014587,0.127774,0.399979,0.999225,0.030362,-0.025034
-0.170049,-0.025636,0.761841,0.952601,-0.298852,0.056920
-0.150212,0.257990,0.335657,0.981281,-0.076910,-0.176558
0.433777,-0.412257,0.496416,-0.588771,0.187578,-0.786234
-0.425265,-0.350642,0.968318,-0.889659,0.138668,-0.435061
-0.339890,-0.068403,0.928725,0.679786,0.666894,-0.305194
-0.019299,-0.134761,0.843094,0.875215,0.393842,0.280869
-0.573866,-0.553806,0.168190,-0.338333,-0.286548,-0.896338
0.470226,0.679339,0.510152,0.559892,-0.782146,0.273437
-0.296087,0.117100,-0.939323,0.969047,0.237843,-0.066174
0.064260,0.171531,0.233978,-0.629873,0.526987,0.570566
0.455020,0.479405,0.416591,0.851716,-0.293486,0.434103
-0.308897,-0.112819,0.896047,0.949234,0.312795,-0.033376
-0.935452,-0.531005,0.146468,0.232768,0.009915,0.972482
0.009298,0.079208,0.824227,0.943920,0.164135,0.286487
-0.193604,0.116243,-0.128710,0.965114,0.138603,0.222137
-0.174677,-0.148601,0.544559,0.814837,-0.392516,-0.426582
-0.281872,0.138845,0.528097,0.993600,0.111456,0.018333
-0.141286,0.231695,-0.984967,0.195171,-0.157429,0.968052
-0.062358,0.020296,0.576597,0.907215,0.420215,-0.019503
-0.757842,0.361910,0.407609,-0.496336,-0.132810,-0.857911
-0.387825,-0.233477,0.153270,0.726162,-0.571924,0.381566
-0.227488,-0.677761,0.361645,-0.531322,0.732555,0.425511
-0.205421,-0.148601,0.615401,-0.495526,-0.619288,-0.609046
-0.742633,0.329488,0.417756,0.856148,0.189463,-0.480743
0.040044,0.775552,0.396259,0.137954,-0.427904,0.893234
-0.231622,0.076310,-0.146825,0.971078,0.235031,0.042051
-0.697755,-0.642835,0.344188,0.812705,-0.070558,-0.578387
0.392537,-0.731468,0.368034,-0.476806,0.834102,0.277361
0.417827,-0.393411,0.574380,-0.233062,0.809307,0.539169
0.239390,-0.360726,0.587722,0.892618,-0.315802,-0.321717
0.339063,-0.800330,0.378914,0.928968,-0.159590,-0.333990
-0.379810,-0.217332,0.868687,0.855898,0.516496,-0.025896
-0.181949,-0.062669,0.532325,0.966459,0.255601,-0.025010
-0.025662,0.066094,0.704340,0.515062,0.750429,-0.414207
-0.069466,0.423327,0.515338,-0.618574,0.617080,-0.486393
-0.280631,-0.302275,0.697368,0.954253,0.165484,0.249031
-0.355097,0.067413,0.716103,0.805886,-0.584801,-0.092498
-0.115335,0.025964,0.467646,-0.548246,0.810228,-0.207260
-0.215174,-0.078156,-0.181701,0.879467,-0.278475,0.385991
-0.325839,-0.234004,0.478827,0.487313,0.478412,-0.730512
-0.162198,-0.527118,0.544089,-0.005649,0.593017,0.805170
-0.133187,-0.853377,-0.118187,-0.795842,0.563686,0.221120
0.009959,0.131795,0.709226,-0.296496,0.936688,0.186294
-0.205834,0.076374,-0.712082,0.987920,-0.154471,0.012351
0.490888,0.032091,0.532626,0.842090,0.001930,-0.539334
-0.128395,0.787940,0.540406,-0.112704,-0.021897,0.993387
0.397661,0.533112,0.555194,0.111881,-0.869177,0.481679
-0.534527,-0.294894,0.188090,-0.214414,-0.608877,0.763738
0.102938,0.635782,0.685849,-0.855515,0.517275,-0.022834
0.369892,0.365470,0.440662,0.690601,0.499725,0.522825
-0.227241,0.128368,-0.900163,-0.747879,0.638187,0.182740
0.396421,0.233608,0.568029,0.157982,-0.924862,-0.345935
-0.314353,-0.343592,0.753441,0.936173,0.036452,0.349644
-0.147155,0.067940,-0.045559,0.381994,0.911337,-0.153447
-0.120790,-0.675058,-0.182904,-0.529815,0.847462,0.033223
-0.911733,0.099439,0.432225,0.007411,0.313687,0.949497
-0.594695,0.090938,0.436115,0.882625,0.307711,0.355370
-0.212528,0.246326,-0.987279,-0.064662,-0.260453,0.963319
-0.171288,-0.259902,0.630566,0.982397,0.170647,0.075997
-0.089053,-0.529424,0.530183,0.002370,0.855944,0.517063
0.528905,0.347743,0.439892,-0.136227,-0.902743,0.408042
-0.380967,-0.410543,0.975571,-0.058778,0.998250,0.006429
-0.227737,0.111893,-0.360913,-0.575109,-0.813367,-0.087655
-0.109385,-0.291994,-0.185516,0.390613,0.321611,0.862547
-0.337575,-0.188337,0.805380,0.875867,0.170876,0.451286
0.005991,0.100955,0.647233,0.106877,0.991633,-0.072392
0.081368,0.552223,0.391561,0.719881,0.104910,-0.686123
-0.676349,0.322041,0.433277,0.249599,-0.542963,-0.801805
0.525682,0.179967,0.588248,0.850723,0.209757,-0.481947
0.103682,0.629061,0.658377,-0.622257,-0.539805,-0.566927
0.443531,-0.111566,0.608336,-0.622781,-0.350071,0.699710
0.486590,0.440132,0.411423,-0.609011,0.777205,-0.158299
0.316335,0.188731,0.558558,0.831952,0.550457,0.069663
-0.108063,0.939966,0.532363,0.243143,-0.098298,0.964997
-0.062028,0.026491,0.518646,0.149760,0.980775,0.125109
-0.354683,-0.362966,0.911475,0.650437,0.605825,0.458158
-0.213192,0.017199,-0.992258,0.190104,0.385599,-0.902870
-0.088476,0.730742,0.506563,-0.330136,0.476270,-0.814970
0.134839,-0.685799,0.367997,0.445933,0.222087,0.867076
-0.005248,0.452520,0.363769,-0.556693,0.485053,-0.674400
-0.191125,-0.128173,0.549952,0.779510,-0.300591,-0.549553
0.019299,-0.366789,0.747917,0.090675,0.973130,-0.211653
0.115748,-0.340098,0.615063,-0.026681,-0.576684,0.816532
-0.042604,-0.079341,0.818440,0.285162,-0.847488,0.447714
-0.190875,-0.361649,0.930642,0.397793,-0.914672,0.071665
-0.814125,-0.576871,0.162215,0.161155,-0.140054,0.976941
0.159965,0.532782,0.735533,0.462494,0.769323,0.440729
0.190875,-0.156772,0.708887,0.970971,-0.003722,0.239170
-0.364850,0.130608,-0.992841,0.259218,0.150176,-0.954072
-0.024505,-0.186097,0.788280,0.969125,-0.233588,-0.078958
0.355841,-0.200331,0.345710,0.282333,0.803823,0.523600
-0.912724,0.079208,0.424239,0.059980,0.615596,0.785776
-0.497996,-0.562043,0.384589,-0.731478,0.200732,-0.651649
0.738502,0.297858,0.464358,0.911758,0.139570,0.386286
-0.310302,-0.449095,0.973617,-0.480529,-0.816122,-0.320992
-0.175586,0.138781,0.699680,0.151479,-0.472671,0.868122
0.201620,0.111170,0.580205,-0.720835,0.565906,-0.400184
-0.202694,0.117561,0.257993,-0.484953,-0.716938,-0.500819
0.144345,-0.059638,0.844935,-0.341890,0.801111,-0.491257
0.289393,0.243888,0.277743,0.881556,-0.338495,-0.329059
-0.199141,-0.950116,0.222008,-0.053398,0.562134,0.825321
-0.184017,-0.360659,0.484051,0.536329,-0.205771,-0.818541
-0.494608,-0.522504,0.329306,0.163762,0.719020,0.675420
0.765197,0.329291,0.456447,-0.322227,0.868706,-0.376190
-0.670152,-0.498585,0.331504,0.810758,0.570927,-0.129282
0.064837,0.661481,0.687315,-0.573866,0.671905,-0.468211
-0.043101,0.006392,0.701202,0.524672,0.803669,-0.280775
-0.149634,-0.454169,-0.179860,0.178406,-0.049412,-0.982715
-0.768254,0.458056,0.398232,0.674737,-0.097919,0.731534
0.012769,0.127380,0.686582,-0.906982,-0.112450,-0.405880
-0.274848,0.123491,-0.781609,0.911100,0.407343,-0.062999
0.224348,0.298979,0.659448,0.685030,0.333557,0.647668
-0.376008,0.098715,0.690885,0.424733,0.591712,0.685185
0.641885,-0.391434,0.516898,0.597440,-0.736013,-0.318356
-0.280136,-0.040198,0.674443,0.905239,-0.143239,-0.400031
0.257406,-0.571071,0.347195,0.584570,0.440351,0.681446
0.184678,-0.473344,0.388178,0.783952,0.439483,-0.438490
-0.256084,-0.405866,0.893266,0.302327,0.854782,0.421836
-0.063102,0.007116,0.584884,0.816874,0.548449,-0.178663
0.255920,0.644810,0.600425,0.748887,0.554746,-0.362528
-0.186247,0.057923,0.401426,0.968367,-0.247034,-0.035210
-0.209141,-0.026623,-0.195513,0.985762,0.066324,0.154515
0.552460,0.467478,0.390339,0.505198,-0.441164,0.741721
0.363692,-0.208962,0.591029,-0.104068,-0.355717,0.928782
0.330551,0.175551,0.555232,0.760088,0.645973,0.070606
-0.407910,-0.050874,0.687973,0.678104,0.719013,0.152298
-0.496921,-0.260759,0.802993,-0.487790,0.831396,-0.266162
-0.209885,-0.698649,-0.188241,0.398389,0.550739,0.733466
0.262945,0.174101,0.588793,0.869609,-0.400146,0.289247
0.219225,-0.650545,0.348604,0.121120,-0.012276,0.992562
0.568411,0.425304,0.376716,0.789986,-0.369875,0.488994
0.451796,-0.564810,0.513553,-0.198461,0.882109,0.427198
-0.142857,0.121251,-0.028666,0.766756,0.583671,-0.267234
0.502210,0.291466,0.356985,0.875183,0.123561,-0.467748
0.253852,-0.007315,0.559855,0.635168,0.290542,-0.715644
-0.490805,0.606853,0.441094,0.764795,0.434650,-0.475570
-0.437994,-0.147545,0.676491,-0.305994,0.635834,0.708577
-0.248482,0.158616,-0.755057,0.962020,-0.272264,0.019724
-0.718170,0.477428,0.390715,0.410885,-0.470779,0.780731
-0.772885,-0.569557,0.334624,-0.097827,0.605270,0.789986
0.005661,0.069851,0.721665,0.858418,0.469784,-0.205965
0.238399,-0.552356,0.344019,0.541121,0.266732,0.797522
-0.585438,0.057593,0.443349,0.611776,0.631480,0.476406
-0.122031,-0.254498,-0.190608,0.255534,0.477316,0.840757
-0.291128,-0.315980,0.913918,0.044286,0.921497,0.385852
-0.203852,0.104712,0.556641,0.498599,0.866817,0.005226
-0.217653,-0.065173,0.146900,0.752333,-0.387355,0.532871
-0.149965,-0.358815,0.511261,-0.578077,-0.670308,0.465312
-0.187735,0.138582,-0.044995,0.780294,0.596806,-0.186988
0.497418,0.147875,0.579604,0.407278,-0.211155,-0.888560
-0.072936,-0.148008,0.233452,0.730276,-0.220581,-0.646561
0.231125,0.548400,0.626469,0.874149,0.024763,-0.485026
-0.034258,-0.123033,0.659147,0.812828,-0.568228,0.128169
-0.172859,0.079868,-0.980363,0.374277,-0.549449,0.747009
0.321377,0.758021,0.406819,-0.479305,-0.016779,0.877488
-0.018638,-0.076377,0.668580,-0.909122,0.293821,-0.295241
-0.633787,-0.278420,0.892045,-0.168286,-0.581382,0.796037
-0.037234,0.525139,0.534674,0.338120,0.028367,0.940675
0.020124,0.342009,0.718471,-0.721192,-0.564668,0.401288
-0.170627,0.923492,0.526162,0.670362,0.682762,-0.290604
-0.193851,-0.113675,0.543581,0.969869,-0.120941,0.211488
-0.266168,-0.464976,0.830823,0.993869,-0.103378,-0.039201
0.360636,0.512948,0.545216,-0.473726,-0.861052,0.184860
-0.736436,-0.574431,0.325980,0.181297,0.653908,0.734531
-0.236994,-0.177067,0.797901,0.800290,-0.459816,-0.384844
-0.000205,-0.121383,0.770541,-0.446319,0.894853,-0.006148
0.055003,0.162964,0.853373,-0.420635,0.905586,-0.054587
0.056902,0.274794,0.601984,-0.230223,-0.440522,0.867720
-0.154263,-0.001978,0.482548,0.900617,-0.432709,0.040644
-0.063846,-0.465370,0.539560,-0.098777,-0.538529,0.836797
-0.156245,-0.627744,-0.164075,0.840285,0.175759,0.512865
0.167734,0.230511,0.721008,0.952580,0.303928,-0.014829
-0.239968,0.123360,0.139496,0.867100,-0.290606,0.404581
-0.139551,-0.349721,0.484540,0.425636,-0.574276,-0.699315
0.180214,-0.197628,0.822781,0.761121,0.603601,-0.237405
0.466919,0.323097,0.519717,0.818015,-0.473761,0.326194
-0.843630,-0.627151,0.142014,-0.773285,0.594430,-0.220643
-0.321294,-0.344318,0.983483,0.723410,0.664938,0.185837
0.246664,0.602240,0.647252,0.794375,-0.135529,0.592115
-0.330634,-0.394861,-0.153345,-0.439269,0.694420,0.569933
0.108971,0.564217,0.584095,-0.709132,0.618846,0.337878
-0.671226,-0.359869,0.333665,0.516648,0.820352,-0.245146
0.110046,-0.521187,0.547809,0.666468,0.026663,0.745057
0.449564,0.565731,0.512820,-0.644234,0.391984,0.656743
0.099384,0.188928,0.660105,0.907433,-0.295736,-0.298506
-0.200132,-0.743526,-0.177736,0.851048,0.506009,0.140254
-0.761560,-0.426161,0.158964,0.632055,0.455583,0.626858
0.562130,0.042174,0.392275,0.186888,-0.607594,-0.771947
-0.102277,0.099703,0.679160,0.550505,0.815551,0.178383
-0.250051,-0.414696,-0.009367,-0.890780,0.435558,-0.129618
0.147649,-0.239934,0.724446,0.753772,0.646083,0.120019
-0.343030,0.119407,0.621001,-0.440410,-0.440456,-0.782328
-0.198066,0.118813,-0.269907,0.756635,-0.571760,-0.317165
0.009462,0.572585,0.644302,0.143743,0.978290,-0.149288
-0.129056,0.892586,0.525373,-0.475615,0.363690,-0.800949
-0.054753,0.131728,0.870416,-0.648775,0.747104,0.144658
0.092607,-0.154332,0.856492,0.999180,-0.029662,-0.027564
-0.208894,0.155519,0.555852,0.601281,-0.668273,0.438033
-0.197819,-0.360199,0.844729,0.929741,0.339051,0.143615
-0.253772,0.099835,-0.227420,0.580435,-0.811146,-0.071675
0.477250,0.464184,0.389964,0.886709,0.336138,0.317423
0.053596,0.128961,0.817820,0.331488,-0.927755,-0.171423
-0.369148,0.164547,-0.989515,-0.295571,-0.038705,0.954536
0.144096,0.471235,0.729031,-0.745648,0.665660,0.030095
-0.209224,0.159209,-0.348398,0.789945,0.611309,-0.047824
0.208067,0.780099,0.591010,0.843464,0.316755,-0.433860
0.004173,0.509784,0.515658,-0.066151,-0.767482,0.637649
-0.189637,0.183722,0.255494,0.823145,0.466528,-0.323704
-0.149057,0.140889,-0.464489,0.702077,0.682890,0.201865
-0.229059,0.079735,0.314310,0.849827,-0.527062,-0.000253
-0.450225,-0.436641,0.322259,0.227287,-0.632470,0.740488
-0.037895,-0.120593,0.862374,-0.246046,-0.969170,0.013087
-0.193851,-0.005471,0.135400,0.893950,-0.197260,0.402419
0.232199,0.816804,0.633328,0.332367,0.822221,-0.462044
-0.475846,-0.592619,0.364201,0.790462,-0.608357,-0.071216
0.243441,-0.313213,0.603431,0.183402,-0.149476,0.971607
-0.339393,0.179505,0.459792,-0.431193,0.875163,-0.219457
-0.028472,0.152619,0.835239,0.489588,0.857884,-0.156009
-0.157239,0.169160,0.663995,-0.474920,-0.876217,0.081822
-0.281128,0.268007,0.316133,-0.385725,-0.922275,0.025016
-0.248646,-0.225437,0.674349,-0.730709,-0.488104,-0.477303
-0.234018,-0.057265,0.859442,0.738174,-0.253310,-0.625246
0.380056,0.270510,0.696805,0.540366,-0.774459,0.328965
-0.327410,-0.347809,0.753554,0.936173,0.036452,0.349644
0.242530,0.006062,0.524020,0.762029,0.555087,-0.333453
-0.190545,0.072883,0.260943,0.222105,0.514663,0.828126
-0.197075,-0.002965,0.169017,-0.393963,-0.557006,-0.731121
0.197322,0.209620,0.507578,-0.011474,-0.990995,0.133406
-0.282286,-0.215092,0.738164,0.912761,-0.156484,0.377333
-0.286086,0.475452,0.494236,0.996109,-0.032173,0.082042
0.068391,0.685469,0.651349,0.987706,0.156278,-0.003776
-0.022936,0.065239,0.688311,0.903171,0.371673,-0.214805
0.028969,-0.104382,0.651950,0.773735,-0.615925,-0.148223
-0.359561,-0.258056,0.208685,-0.482873,0.508594,0.712857
0.351543,0.184118,0.573760,-0.436988,-0.899131,0.024595
0.273853,0.773376,0.521464,-0.117045,-0.400247,0.908902
0.009876,-0.564877,0.536084,0.715325,0.695234,0.070422
0.428241,-0.048698,0.388517,0.835049,-0.435682,-0.335969
-0.431465,0.101679,0.735364,0.744916,-0.634443,-0.206357
-0.184595,0.145765,-0.345372,0.692227,0.490022,0.529812
-0.610645,-0.458716,0.137072,0.289277,-0.932297,-0.217120
0.683623,-0.224120,0.532683,-0.253138,-0.413427,0.874642
-0.223273,-0.402636,0.783338,-0.396366,0.729615,0.557275
0.707012,0.037825,0.426625,0.201657,-0.455255,-0.867224
0.416339,0.605797,0.510377,-0.657588,0.081658,0.748939
-0.149468,-0.037760,0.500418,0.928603,-0.275740,-0.248321
-0.073930,0.106886,-0.987034,-0.019502,0.017868,0.999650
-0.284268,0.087315,0.766426,-0.578171,0.783570,-0.227457
0.147649,0.842767,0.517574,-0.150748,-0.557312,0.816504
-0.038639,0.087051,0.759849,0.232523,0.972350,-0.021647
-0.031612,0.112290,0.656836,-0.004511,-0.987276,0.158955
0.213603,-0.180957,0.661421,-0.764828,-0.540599,-0.350415
-0.029713,0.018649,0.731136,-0.358972,0.172925,0.917189
-0.186000,-0.173180,0.132036,0.574782,-0.294697,-0.763400
0.401793,0.732982,0.422905,0.623667,0.055571,-0.779713
0.681805,0.132585,0.396296,0.646732,-0.665618,-0.372411
-0.024091,0.824315,0.506995,0.845317,-0.509770,0.159919
0.448406,0.330345,0.408135,0.470451,0.641365,0.606075
-0.242530,0.925073,0.530559,0.407545,-0.454757,-0.791899
0.544031,0.257463,0.505623,-0.293219,-0.890728,0.347311
-0.322949,0.026951,-0.994814,0.274335,0.214768,-0.937345
-0.433117,-0.177134,0.345429,-0.182679,0.868851,0.460138
-0.184842,-0.693312,0.201375,-0.600508,0.070097,-0.796541
-0.461797,-0.019506,0.355801,0.833606,0.523659,0.175736
0.427167,0.054366,0.527759,0.832944,0.488686,0.259597
0.129386,0.263196,0.683125,0.869214,0.479145,0.122016
0.179800,0.829059,0.615683,0.894149,0.279380,-0.349921
-0.273854,-0.232027,0.172437,0.439567,-0.727080,0.527385
