-0.195129,0.657837,0.735046,-0.284925,0.017639,0.958388
-0.014392,0.556551,0.837666,-0.399723,0.350002,-0.847183
-0.059440,0.232612,0.600463,0.702308,0.703278,-0.110288
0.026087,-0.780758,-0.935834,-0.222421,0.635189,0.739637
0.406369,-0.076736,0.411130,-0.480357,-0.462705,0.745091
0.018063,-0.047891,0.175106,0.800761,0.064291,0.595523
-0.641815,0.055289,0.193990,-0.170333,-0.978394,0.117183
-0.045038,-0.154207,-0.302949,0.129965,0.954142,-0.269669
-0.526890,0.370447,0.639990,-0.630530,-0.765431,-0.128637
0.306976,-0.815076,-0.925502,-0.678384,-0.371985,-0.633579
-0.139726,-0.683477,-0.969936,-0.593787,0.562082,0.575744
0.298714,-0.446846,-0.928790,-0.016780,0.425846,0.904640
0.303166,-0.745385,-0.924975,-0.345252,0.421479,-0.838544
-0.053181,-0.194937,-0.547203,-0.423102,-0.380687,0.822230
-0.132850,-0.060169,0.257878,-0.243111,0.922758,0.299024
-0.139964,0.262675,0.683246,-0.629166,0.455389,-0.629898
0.333954,-0.576503,-0.931550,0.010989,0.246814,0.969001
-0.681926,0.348554,0.679574,-0.547358,0.310873,-0.777018
-0.132986,-0.266172,-0.322053,0.410916,0.017078,0.911513
-0.056138,0.455459,0.835209,0.316646,-0.073315,0.945706
-0.119140,0.107822,0.506865,0.707148,-0.652845,0.271543
-0.125929,-0.287333,-0.152269,0.881183,0.440697,-0.171179
0.457960,0.841963,0.905243,-0.306722,-0.951254,-0.032202
-0.017524,-0.438383,0.325253,0.983459,0.174088,0.050010
0.210559,-0.087371,0.614935,0.063120,0.989244,0.131955
0.319587,0.090813,0.395615,0.587447,0.211497,-0.781137
0.533392,0.194595,0.913380,0.599018,0.800238,-0.028230
0.367659,-0.684841,-0.950158,-0.743825,0.226985,-0.628651
-0.043472,-0.563316,-0.951206,0.951224,0.286356,0.114774
0.246809,0.087099,0.578864,-0.149008,0.669195,0.727993
-0.102273,0.140508,0.662987,0.819752,0.570503,0.050322
-0.241552,0.491125,0.643967,-0.580782,0.245453,0.776173
0.252595,-0.187999,-0.929886,0.067699,0.849033,0.523984
-0.026337,-0.598891,-0.959428,0.152425,-0.985173,-0.078743
-0.138214,-0.036243,0.130861,0.330988,0.906673,0.261516
0.135603,-0.357659,0.413671,-0.437118,0.837630,0.327572
0.102043,0.023359,0.275086,0.762568,0.289237,-0.578647
-0.120969,-0.263763,-0.668651,-0.688510,0.710806,-0.143903
0.077135,-0.781954,-0.931585,0.096268,0.330694,0.938815
0.409229,-0.715755,-0.929386,0.694239,0.218351,0.685824
-0.295118,0.790681,0.768018,-0.596452,0.405892,0.692457
-0.071829,0.519685,0.338677,0.944692,0.327883,0.007079
0.139505,-0.527640,-0.938895,-0.759915,-0.006183,0.649993
0.596879,-0.244542,0.510232,0.043635,0.349779,0.935815
-0.029445,0.059891,0.581314,-0.148383,-0.988682,0.022133
0.173241,-0.282330,-0.973838,0.722898,0.107483,0.682544
0.789732,-0.727663,0.486203,0.275659,0.358284,0.891989
-0.022727,-0.806230,-0.944141,0.413915,0.261199,0.872038
-0.108854,0.671673,0.803789,0.770858,0.129685,-0.623666
0.239879,-0.217679,0.796648,0.618342,-0.491092,0.613581
0.516732,0.292330,0.945366,0.742908,0.438660,0.505633
0.275306,-0.858168,-0.931878,0.163610,0.744088,0.647738
-0.352015,-0.074328,0.222662,0.979604,-0.133441,-0.150232
-0.025577,-0.149590,0.353617,0.948610,0.011353,0.316244
-0.050017,-0.244425,-0.354318,-0.203863,0.815832,0.541164
-0.144905,-0.361182,-0.529148,-0.161108,0.964374,0.209825
0.359746,-0.775764,-0.930355,-0.073557,-0.428340,0.900619
0.007059,-0.209238,-0.698666,0.214833,0.976368,-0.023482
0.296973,-0.846123,-0.943587,0.556487,-0.782333,0.279782
0.056166,-0.812443,-0.932218,-0.039143,0.432768,0.900655
-0.207169,0.137905,0.710946,0.595269,-0.573348,0.562962
0.259401,0.591448,0.584343,-0.562953,0.822831,0.077675
0.124917,-0.642997,-0.940069,0.514021,-0.705821,0.487442
-0.149197,0.163221,0.444592,-0.770255,-0.446683,0.455172
-0.260173,0.046564,0.132248,-0.581097,-0.733361,-0.352857
0.888550,-0.367847,0.491690,0.374736,0.687797,-0.621698
-0.387181,0.792970,0.754162,0.071278,0.583786,0.808773
-0.363845,0.375557,0.582219,-0.143700,0.833823,-0.533000
0.232870,0.182729,0.581589,0.171849,0.882033,0.438731
-0.657535,0.510475,0.624210,-0.304635,0.699646,-0.646292
0.220417,-0.571042,0.036092,-0.315073,0.765533,0.560971
-0.068896,-0.287697,-0.357646,-0.471653,0.529012,0.705471
0.160496,-0.512772,-0.371188,0.880896,-0.118585,0.458213
0.293733,0.490857,0.863504,0.778358,-0.323722,0.537925
0.052555,-0.403627,-0.301345,0.240347,0.854436,0.460622
0.073850,0.248455,0.684448,0.538747,0.841827,0.032856
-0.022465,0.341605,0.360828,0.947435,0.294903,-0.124090
-0.028299,-0.598007,0.353579,0.974896,-0.222409,-0.010614
-0.324762,0.421409,0.086150,0.774144,-0.548495,-0.315999
0.046210,-0.004638,0.153384,0.858681,0.062686,-0.508663
0.419044,-0.185524,0.395873,0.821157,0.249652,-0.513201
-0.039823,-0.079537,0.238422,0.471228,0.812919,-0.342208
0.049561,-0.493432,-0.050499,0.702292,0.471870,-0.533034
0.255897,-0.682990,-0.927512,0.630039,0.745470,-0.217544
-0.160438,0.281993,0.761614,-0.654800,0.337134,-0.676444
-0.721943,0.748171,0.315889,0.881893,-0.384378,-0.272982
-0.114457,-0.286858,-0.968862,-0.325776,0.463633,0.823962
-0.106527,-0.220399,-0.200201,-0.501465,0.710450,0.493754
0.905320,-0.759086,0.473025,0.575156,0.601222,-0.554732
0.054612,-0.403067,-0.945618,-0.742267,-0.599720,-0.298959
0.249447,-0.843006,-0.944258,-0.314510,0.188240,-0.930402
0.289070,-0.035545,0.342092,-0.249727,0.873316,0.418277
0.468737,-0.900339,-0.925209,0.900493,0.416840,0.123921
-0.100595,-0.773064,-0.969916,-0.385621,0.593333,-0.706578
-0.040079,-0.118338,0.186613,-0.395527,-0.882440,0.254674
-0.223228,0.332396,0.756914,0.220230,0.792503,0.568716
-0.117618,-0.665704,-0.950507,0.715024,0.293344,-0.634579
-0.000079,-0.467169,-0.936746,0.872796,-0.384585,-0.300534
-0.127542,0.314559,0.072061,-0.657766,0.616579,-0.432636
0.170178,-0.745738,-0.960793,0.425681,-0.516737,0.742818
0.754167,-0.526877,0.439510,0.875084,0.152782,-0.459223
-0.226264,0.358021,0.751001,-0.176222,0.557769,0.811073
0.748124,-0.424021,0.450623,-0.744770,0.020265,0.667013
0.589936,-0.211206,0.648880,0.773162,0.106565,-0.625191
-0.103839,0.147641,0.400155,0.176870,-0.971809,0.155900
0.023967,-0.473105,-0.915576,0.794019,0.604929,-0.059958
0.108820,0.374944,0.807783,-0.234348,0.897452,-0.373711
-0.128808,-0.161957,-0.965753,-0.571270,0.223176,0.789837
0.039134,-0.101188,0.106598,-0.739430,0.229399,-0.632945
-0.016208,-0.632950,-0.960024,-0.242604,0.163416,0.956263
-0.190844,0.022405,-0.162252,-0.253168,-0.550037,0.795842
0.418893,0.134696,0.440139,-0.091347,0.983968,-0.153177
-0.669977,0.298174,0.232838,-0.529449,0.161462,-0.832835
-0.100676,-0.112137,-0.150410,0.901716,-0.129713,0.412411
0.525015,0.224916,0.631454,-0.479453,0.721448,-0.499636
-0.058495,0.574279,0.814404,0.834194,0.541741,-0.103134
0.388438,-0.635664,-0.939902,0.383884,0.723954,-0.573170
0.498116,-0.148979,0.457958,0.914454,-0.032408,-0.403391
0.330968,-0.411296,-0.958109,0.463026,0.067008,-0.883808
0.143511,0.686139,0.797990,0.873677,0.038775,0.484960
0.014668,-0.241860,-0.961953,0.154383,0.982306,0.106020
0.421923,0.147399,0.451458,0.109356,-0.882135,0.458125
0.674622,0.513778,0.686678,0.777330,-0.264838,-0.570630
-0.113350,0.095780,-0.008627,0.401164,0.886878,-0.229162
-0.068548,-0.754115,-0.951429,-0.340792,-0.248674,0.906654
0.297098,-0.809357,-0.955421,0.047844,0.048960,0.997654
-0.348145,0.240505,0.207727,0.362466,0.639025,-0.678429
0.067099,0.281977,0.952056,0.945414,-0.031646,0.324332
0.040187,0.397801,0.831072,-0.059213,-0.468893,0.881268
0.406461,-0.117284,0.448893,0.819859,-0.305477,-0.484268
0.076856,0.332075,0.804903,0.858723,-0.500472,-0.110105
0.223445,0.071804,0.764994,0.991679,-0.044086,0.120955
0.052467,-0.380653,-0.922978,0.722368,-0.555718,0.411537
-0.077865,0.013430,0.228807,0.847013,-0.514995,0.131716
-0.070943,-0.208105,-0.329966,0.977682,-0.150292,-0.146801
0.116708,0.106201,0.633248,0.106028,0.648984,0.753378
-0.100314,0.511724,0.840870,0.532056,0.524711,0.664526
0.257161,0.092002,0.715725,-0.397583,0.905665,-0.147307
-0.113857,-0.527672,-0.046248,0.173438,0.984781,-0.011165
0.854316,-0.369420,0.490626,-0.373851,0.033841,0.926871
0.109827,-0.120968,0.806040,0.161944,-0.907217,-0.388242
-0.113943,0.250631,0.612246,0.862473,0.210903,-0.460065
-0.726767,0.871347,0.361143,-0.716293,0.672171,-0.187375
-0.087811,-0.236045,-0.963222,0.910189,0.333693,-0.245369
0.027356,-0.308526,-0.969850,0.706481,-0.073537,-0.703901
-0.141059,0.409975,0.777564,0.134916,0.989847,0.044726
-0.153896,0.763709,0.735138,-0.392533,-0.637004,0.663433
0.174230,-0.444269,-0.958771,-0.101005,0.009244,0.994843
-0.030692,0.503004,0.809122,0.968306,0.100896,-0.228483
0.752944,-0.412611,0.470214,0.055829,0.968979,0.240754
0.177881,-0.338804,-0.969899,0.821863,0.542551,-0.173721
-0.271728,0.509178,0.760730,0.327454,-0.189146,-0.925742
0.201210,-0.719305,-0.933127,-0.568021,-0.097757,-0.817188
0.195118,-0.336681,-0.961935,-0.007618,0.835379,0.549622
0.011135,-0.323158,-0.970165,0.002742,0.994091,0.108513
-0.441882,0.266955,0.201735,-0.245532,-0.646992,0.721883
-0.137430,0.543529,0.779969,-0.163469,-0.483776,0.859790
-0.162520,0.026328,0.527709,-0.195587,0.952802,0.232195
-0.432407,0.234514,0.200961,0.060555,-0.888459,0.454944
0.006768,-0.275703,-0.395616,-0.774550,0.518938,-0.361629
-0.190429,-0.030899,0.154846,-0.404440,-0.878358,-0.254786
0.130261,-0.871767,-0.956037,0.079827,0.679336,0.729472
0.493669,0.004100,0.460859,-0.557604,0.038704,-0.829204
-0.137242,-0.290616,-0.324657,0.288230,-0.381697,0.878197
0.264123,-0.894090,-0.932748,-0.244570,0.755226,0.608127
-0.087454,-0.141303,-0.155584,0.828041,-0.530262,0.182128
0.156437,-0.594969,-0.967413,-0.287375,0.110963,0.951369
-0.199441,0.030799,0.253527,-0.027788,0.970911,0.237822
0.636564,-0.116281,0.462939,0.696872,-0.218918,0.682968
0.381362,0.094864,0.566260,-0.410183,-0.735635,0.539066
0.094505,-0.446285,-0.341792,0.875529,-0.091158,0.474489
-0.447476,0.441123,0.659024,0.764108,0.461404,-0.450828
0.092433,-0.456042,-0.003038,0.480910,-0.808218,0.339866
0.231142,-0.504385,-0.945780,-0.546278,-0.138931,0.826001
0.138054,0.203169,0.579019,0.460897,0.684371,-0.564988
-0.179352,0.382787,0.714916,-0.685289,0.366389,-0.629395
0.225689,-0.469983,-0.951567,0.272946,-0.191143,-0.942849
0.716657,-0.151406,0.680730,-0.361696,0.153420,0.919586
-0.106665,0.429911,0.083254,0.296066,0.472044,-0.830373
0.327706,-0.176754,-0.967046,-0.162562,0.779022,0.605556
0.016045,-0.223659,-0.956007,0.112996,0.002033,0.993593
0.188257,-0.570197,-0.953659,-0.690645,0.345940,-0.635086
-0.056611,-0.388458,-0.946078,0.902069,-0.179209,-0.392627
0.144794,-0.478604,-0.934016,-0.120525,0.487690,0.864657
0.514184,-0.212007,0.636788,0.671125,0.739644,0.050178
-0.235776,-0.370131,-0.960955,0.226025,0.434500,0.871850
-0.048474,-0.246186,-0.294128,0.870489,-0.366647,0.328357
-0.178336,0.001693,-0.080050,-0.573221,0.464254,0.675193
0.321841,0.080865,0.644759,0.875368,-0.475311,-0.088377
0.075941,-0.714827,-0.947164,-0.493183,0.140751,-0.858463
-0.153525,-0.403018,-0.948498,-0.085373,-0.328751,0.940550
0.637287,0.498795,0.671916,-0.762092,0.302148,0.572646
0.307594,-0.334689,-0.943613,-0.173835,-0.081579,0.981390
0.507743,0.266168,0.608667,-0.093433,0.931375,-0.351867
-0.106601,-0.155156,0.044245,0.063796,-0.996205,0.059201
0.244401,-0.364773,-0.926545,-0.419713,0.480357,-0.770128
0.707621,-0.875138,0.450311,0.752793,0.062940,-0.655241
-0.119637,-0.162625,-0.280801,-0.796841,0.469925,0.379757
-0.149351,-0.218437,-0.720895,-0.510861,0.859598,-0.010596
-0.009200,-0.476394,-0.881743,0.803805,-0.442340,0.397784
-0.008945,-0.592958,-0.960579,0.388874,-0.232881,-0.891372
0.149720,0.021229,0.340322,-0.641209,0.617475,0.455605
0.659532,0.150591,0.553895,-0.820408,0.453068,0.348796
-0.008961,0.177301,0.562101,0.770482,0.633905,-0.067247
-0.010424,-0.403144,-0.323700,0.695159,0.708293,0.122781
-0.124091,-0.268892,-0.532187,0.874606,0.482939,-0.042827
-0.007599,-0.553219,0.337858,0.991161,0.097454,-0.090010
0.317568,0.444472,0.802040,0.396194,-0.649042,-0.649442
0.181240,-0.392461,-0.971214,-0.517707,-0.368479,-0.772142
0.493557,-0.084328,0.553057,0.686674,-0.380075,-0.619694
-0.035239,0.336318,0.811011,0.879350,0.411513,-0.239584
0.181874,0.439179,0.793623,0.471926,0.157457,-0.867464
-0.269811,0.398624,0.742659,0.332495,0.889514,0.313388
0.319907,-0.792762,-0.952329,-0.224241,0.917605,-0.328201
-0.019923,-0.388082,-0.972992,-0.498002,0.729350,-0.469087
-0.069969,0.740560,0.824324,-0.805072,-0.473725,0.356993
-0.029016,-0.346321,0.463347,-0.066070,0.621074,0.780962
0.471052,0.382767,0.849054,0.063420,-0.176634,0.982231
0.153226,-0.482447,0.017467,-0.083372,0.811203,0.578791
-0.244446,0.340547,0.726185,0.473336,0.083060,-0.876958
-0.136150,-0.267702,-0.571148,0.746620,-0.094320,0.658530
-0.684186,0.340978,0.684773,0.603729,-0.181515,0.776250
0.079545,0.279815,0.605476,0.719886,0.340978,0.604564
-0.303436,0.484407,0.023956,0.937678,0.204999,0.280597
-0.287113,0.243083,0.684469,-0.560380,0.651289,0.511662
0.102494,-0.463676,0.004530,0.235257,0.844536,0.481055
-0.030174,-0.153715,0.773733,-0.321814,0.427598,-0.844746
0.150254,0.042127,0.590064,-0.489428,0.623923,0.609246
-0.460306,0.727596,0.699196,-0.196454,-0.898875,0.391701
-0.302872,0.201790,0.724524,0.901634,-0.118278,-0.416013
-0.101264,0.051670,0.648528,0.454324,0.871299,-0.185546
0.230766,-0.008971,0.361213,0.822683,0.375155,-0.427144
0.100250,-0.589684,-0.003530,-0.220207,0.916084,-0.335110
-0.045343,-0.249768,-0.437791,0.803497,0.517651,-0.293990
0.073910,-0.468197,-0.815708,-0.834829,0.359024,-0.417328
0.169798,-0.799398,-0.927173,-0.136305,-0.012290,0.990591
0.396801,-0.768389,-0.938757,-0.331252,-0.154466,0.930813
0.704185,0.524632,0.790000,0.946457,0.114322,0.301911
-0.000889,-0.129764,-0.016849,0.506520,-0.045759,-0.861013
0.528129,-0.178219,0.585686,0.949890,-0.261571,0.171141
0.377097,-0.552882,-0.947179,-0.616453,0.474438,-0.628406
0.996912,-0.774290,0.451370,-0.408492,0.490878,-0.769528
0.080276,0.548069,0.820604,0.701192,0.032970,0.712210
0.015580,-0.295907,-0.931125,0.148882,-0.520064,0.841052
-0.699615,0.749949,0.766859,-0.061938,-0.569959,0.819335
0.502485,0.253989,0.454172,0.686012,-0.694685,-0.216334
-0.914804,0.253118,0.280279,0.232373,-0.169244,0.957789
-0.422606,0.375035,0.714145,-0.707748,0.588795,0.390403
0.109403,-0.369690,-0.332461,0.892040,0.354447,-0.280413
-0.068971,-0.554647,-0.967133,0.305789,0.359980,-0.881423
0.510080,-0.140913,0.696503,-0.003590,-0.527273,0.849688
0.133398,-0.455171,-0.940613,-0.664428,0.692415,-0.281241
0.311922,0.519063,0.801087,0.053984,0.979585,-0.193648
-0.306553,0.337383,0.127545,0.021173,0.908924,0.416424
0.058401,0.405118,0.761621,0.632243,0.633496,-0.446041
0.328547,-0.193235,0.375379,0.474708,0.872923,-0.112509
0.152204,0.030075,0.631751,0.829161,0.349598,0.436204
0.084467,-0.795966,-0.964820,-0.211873,-0.960439,0.180740
0.345168,0.002220,0.378588,-0.642976,-0.375459,0.667542
0.013279,0.467277,0.742086,0.904214,0.351538,0.242526
-0.298146,0.238856,0.916143,-0.659182,0.735580,0.156212
-0.025100,-0.256103,-0.016085,0.937881,0.307117,-0.161423
0.756407,-0.688652,0.453985,0.900908,0.232836,-0.366266
-0.057997,-0.425308,-0.946055,0.318016,-0.884481,0.341407
-0.562784,0.188151,0.712085,-0.141573,0.769567,0.622675
-0.029355,-0.019428,0.186941,-0.612280,0.355112,-0.706405
0.189428,-0.594277,-0.904436,0.594719,0.489025,-0.638094
-0.018474,-0.620015,-0.959442,0.400191,0.016546,-0.916282
-0.906907,0.268329,0.276905,0.201597,-0.093848,0.974962
0.320966,0.284456,0.644751,-0.672141,0.675250,-0.303749
-0.515840,0.133433,0.747920,0.217046,0.944499,-0.246602
-0.558545,0.384071,0.663142,0.013417,0.559321,0.828842
0.284392,-0.291464,-0.946340,-0.117909,0.453045,0.883656
-0.036204,-0.361108,0.385444,0.584353,0.632649,-0.508220
-0.298255,0.331807,0.675645,0.304837,0.092970,-0.947856
-0.140252,-0.710086,-0.955319,-0.768091,-0.170811,0.617138
-0.299035,0.794689,0.134071,0.465706,0.833821,-0.296413
0.141470,-0.132420,0.365641,0.594138,0.775827,-0.212350
0.193097,-0.861288,-0.941947,0.108232,0.529049,0.841661
-0.141741,-0.459563,-0.961382,-0.093240,-0.104987,0.990093
0.096092,-0.698113,-0.944863,0.345227,0.276099,0.896988
0.261605,-0.531423,-0.934989,0.407022,0.698993,0.587998
-0.031223,-0.614298,-0.969915,0.159327,-0.961941,0.222002
-0.168491,0.657575,0.786011,0.868101,0.194625,-0.456642
-0.041071,-0.288067,-0.964238,0.481407,0.689894,-0.540643
0.219403,-0.490663,-0.935174,0.138849,0.895411,0.423037
-0.155148,0.065393,0.007680,0.944771,0.313553,-0.095348
-0.606871,0.524665,0.685258,-0.018660,-0.929306,0.368840
0.397727,-0.310201,-0.957768,-0.669628,-0.377998,-0.639309
-0.009659,-0.256036,-0.979871,-0.149049,-0.074671,0.986006
0.248843,-0.461508,-0.941616,0.282196,0.818513,0.500401
0.262169,0.234524,0.750865,-0.790500,-0.612376,0.010271
-0.055918,-0.141443,-0.180899,-0.292961,-0.920692,-0.257878
0.792085,-0.527356,0.492236,-0.552444,0.152718,-0.819440
-0.163660,0.771724,0.799115,0.063326,0.973668,0.219001
-0.121051,-0.371904,-0.103806,0.490209,0.830253,0.265284
0.149749,0.280219,0.665269,-0.469395,0.760068,0.449406
0.367648,-0.392052,-0.934544,-0.196679,0.945759,-0.258567
-0.472933,0.249248,0.813455,0.781600,-0.618326,-0.082309
-0.021971,0.109432,0.204991,-0.097807,0.975708,0.196030
-0.018117,0.248280,0.360918,0.972500,0.014507,-0.232451
0.027282,-0.386053,-0.642564,0.939621,-0.113530,0.322837
-0.261601,0.358536,0.812900,-0.743282,0.576412,0.339530
-0.524669,0.445732,0.654620,-0.386598,0.671851,-0.631789
-0.083498,0.009267,-0.028256,-0.209939,0.059671,0.975892
0.200554,-0.755608,-0.937793,0.991095,-0.059526,0.119110
0.121893,-0.184011,-0.972185,0.511497,-0.559811,0.651907
-0.097589,-0.179307,-0.184434,0.962260,0.248796,-0.110259
-0.428833,0.239410,0.891930,0.157887,0.813787,0.559305
0.014843,-0.565483,0.320336,0.997168,0.069073,0.029735
-0.488984,-0.034946,0.304692,-0.086288,-0.994348,-0.061851
-0.215678,0.463533,0.864962,-0.007767,0.901100,0.433541
-0.075507,-0.478672,0.004853,-0.715930,0.621176,0.318723
0.056907,-0.515903,-0.933005,0.797953,0.421609,0.430717
-0.389552,0.276586,0.661584,0.631178,0.746758,0.209683
-0.087008,0.102064,0.594214,0.571524,-0.723370,-0.387423
0.764401,-0.402814,0.482319,-0.134435,0.738960,0.660201
0.085614,-0.534372,-0.952501,0.594574,0.424123,-0.683083
0.003588,-0.813883,-0.961752,0.562085,0.275495,0.779848
-0.023145,-0.298759,-0.325894,-0.592609,-0.785441,-0.178600
-0.100932,0.349966,0.729009,0.797814,0.589434,-0.126733
0.325503,-0.765351,-0.956573,-0.145240,-0.268379,0.952302
-0.180299,0.425896,0.086029,0.011839,-0.650314,0.759574
0.528125,-0.191308,0.674720,0.876780,0.446856,-0.177696
0.482118,-0.403966,0.459747,-0.761601,-0.569521,0.309207
-0.010619,-0.251657,-0.407834,0.185243,0.965611,0.182428
-0.044995,-0.269955,-0.404229,0.056020,0.813286,0.579161
0.126806,0.343950,0.795129,-0.066999,0.881098,-0.468164
-0.090312,0.469947,0.788318,-0.691022,0.157578,0.705448
0.218217,-0.148235,-0.972872,0.460324,0.847163,-0.265362
-0.088722,-0.207634,-0.490236,-0.276446,0.937215,-0.212617
0.158589,-0.523328,-0.948735,-0.097000,0.463522,0.880760
-0.199192,0.359850,0.866971,0.314219,0.552980,0.771673
-0.015100,-0.062782,0.263719,0.835911,0.455336,0.306466
0.728887,0.466482,0.720130,0.950394,0.307634,0.045959
0.043655,-0.186672,0.803669,0.275082,0.944728,0.178377
0.432952,0.124713,0.454732,0.471539,0.792617,-0.386535
0.165996,0.020513,0.636650,0.323676,0.515150,0.793634
-0.040276,-0.612314,-0.965284,0.158276,-0.908554,0.386624
-0.159286,-0.164114,0.250161,0.113103,0.099628,0.988576
0.080213,0.246128,0.615386,0.011935,-0.758205,0.651907
-0.037474,-0.167042,-0.109473,0.977522,0.210373,-0.013939
0.796708,-0.527087,0.452201,0.967427,-0.252282,0.020943
-0.580845,0.707755,0.767431,0.134349,-0.333282,0.933206
0.532757,0.099077,0.519660,0.880783,-0.472812,0.025900
0.569993,0.177718,0.448508,0.842680,0.421961,0.334424
0.267007,-0.446128,0.131202,0.590167,0.554452,-0.586759
0.232225,-0.219462,0.657806,0.098939,0.692089,0.715000
0.631075,0.198596,0.884023,0.417112,0.867205,-0.271980
-0.082051,0.076729,-0.012535,0.473396,0.822455,-0.315379
0.056849,0.271810,0.708878,0.875171,-0.477957,0.075051
-0.594461,0.649082,0.659507,0.858786,-0.235176,0.455170
-0.596102,0.757949,0.668600,0.995160,-0.092133,-0.034180
-0.098996,-0.425972,-0.116329,0.791393,0.484610,0.372626
0.202563,0.600257,0.557852,-0.510833,0.842825,-0.169401
-0.268530,0.653606,0.740284,-0.569611,0.821199,0.034270
-0.415537,0.746832,0.803174,0.906002,-0.423240,0.005328
-0.088869,-0.350896,-0.523380,0.549473,-0.833149,0.062786
0.174903,-0.400102,-0.950366,-0.375227,0.810662,-0.449479
0.300648,-0.568530,0.061623,0.895341,-0.112137,-0.431033
0.228916,-0.657856,-0.933328,0.905372,0.270004,-0.327717
-0.272666,0.389891,0.628159,0.218804,0.971226,0.094048
-0.017945,-0.159531,0.336456,0.975165,-0.088547,-0.203009
0.015224,-0.743945,-0.963461,0.325940,-0.290126,-0.899772
0.405148,-0.237637,-0.967415,0.802457,0.067896,-0.592834
0.301328,-0.508009,-0.967957,-0.032975,0.046565,0.998371
-0.149951,-0.239594,0.714737,0.293732,0.525337,-0.798587
-0.240860,0.437714,0.742654,-0.075815,-0.895863,0.437814
0.561753,0.011937,0.475031,0.974455,0.223992,-0.016311
0.046193,-0.447641,-0.943190,-0.485687,0.314207,-0.815710
0.299357,0.215232,0.742960,0.567447,0.781614,-0.259004
-0.424151,0.469214,0.705680,0.893195,-0.324757,-0.311023
0.114901,0.047515,0.638149,-0.096355,0.428131,0.898565
0.322192,-0.521911,-0.946455,-0.004799,0.125121,0.992130
-0.139488,0.085245,-0.082767,-0.176118,0.117155,0.977373
0.716605,-0.295950,0.409091,0.923475,-0.367380,-0.110569
0.395092,-0.730286,-0.922530,-0.635776,0.127443,0.761280
0.440312,-0.833473,-0.932183,-0.066515,0.424623,0.902923
0.407292,0.124502,0.415064,-0.431315,0.166479,0.886709
-0.315072,0.325076,0.781920,0.402284,-0.316643,-0.859014
0.347624,-0.670619,-0.957183,-0.299016,-0.188922,0.935360
-0.424237,0.212125,0.146117,0.755118,-0.027748,0.655002
0.185198,-0.621697,-0.946583,0.936323,0.317881,-0.149166
0.433157,-0.194167,0.501095,0.921992,0.196651,-0.333555
0.311565,-0.279191,-0.954523,0.734527,0.670806,-0.102419
-0.118799,-0.131354,0.763686,0.110276,-0.993899,0.001943
-0.616231,0.211806,0.228079,0.593305,-0.090608,0.799862
-0.599334,0.804719,0.371717,0.446140,0.370250,0.814785
-0.084580,-0.231636,-0.968786,0.805976,-0.552981,-0.211223
-0.005450,-0.054341,0.292955,-0.234057,0.597996,-0.766563
-0.524803,0.483976,0.664865,-0.108078,-0.914440,0.390024
-0.117086,-0.395508,-0.971792,-0.607505,-0.370752,0.702482
0.007395,0.589750,0.806857,0.213655,-0.449978,0.867105
0.277118,-0.612880,-0.948113,0.349658,0.040887,-0.935985
-0.080816,-0.044337,0.101657,0.811487,0.405608,-0.420680
0.247998,-0.827997,-0.944642,-0.201111,-0.335514,0.920318
0.136488,0.095586,0.593108,0.359888,-0.673178,-0.645997
0.076942,-0.328653,-0.763157,0.950627,-0.291568,0.106282
-0.059365,-0.230488,-0.440769,-0.583709,0.684139,0.437307
-0.021586,0.004215,0.730425,0.640584,-0.450526,-0.621834
-0.043119,0.135843,0.526288,-0.646329,0.758525,-0.083056
-0.120684,-0.497204,-0.901875,-0.564015,0.790349,0.239240
0.192518,-0.282644,-0.956693,0.241429,0.049383,-0.969161
0.626375,0.499444,0.705243,0.617081,0.480785,0.622942
-0.038324,0.033427,0.035484,-0.361735,0.782242,0.507194
-0.337337,0.588742,0.698750,-0.665195,0.593962,-0.452465
0.634853,0.601959,0.700594,0.124613,0.938629,-0.321633
-0.080001,-0.314800,-0.563246,-0.795990,0.519682,0.310373
0.107160,-0.438184,-0.848682,-0.225066,-0.970514,0.086300
0.056663,-0.029931,0.278404,0.319004,-0.676504,-0.663762
0.082435,-0.253489,-0.975710,0.033317,-0.239595,0.970301
0.409707,0.508784,0.889535,0.535397,0.215157,-0.816736
-0.143179,0.577747,0.839471,-0.695085,-0.071632,0.715350
0.098484,-0.294206,-0.974030,-0.080547,0.396218,0.914616
0.665109,0.441879,0.696890,0.330955,0.795527,0.507548
0.046248,-0.485176,-0.941989,0.831490,-0.165118,-0.530433
0.030297,-0.879349,-0.953829,-0.176657,0.657463,0.732485
-0.554438,0.273741,0.722827,-0.060588,0.578132,0.813691
0.093756,0.242856,0.794476,-0.402940,0.543389,-0.736456
-0.104044,0.688849,0.808237,0.884267,0.225146,-0.409122
-0.105047,0.199328,0.623483,-0.009571,0.309651,0.950802
-0.227132,0.688215,0.764827,-0.615116,-0.510644,0.600729
0.173951,-0.485892,0.015067,-0.410728,0.762869,0.499333
0.084008,-0.823375,-0.950041,0.550162,0.402718,-0.731533
0.092408,-0.448663,-0.943152,0.168313,0.965232,0.199997
0.441413,0.133558,0.425242,-0.405657,0.832502,0.377337
-0.236343,-0.276134,-0.976018,-0.230066,0.703255,0.672683
0.207973,0.364101,0.746584,0.303478,0.952632,0.019821
-0.620060,-0.069816,-0.559932,0.532650,-0.574748,0.621248
0.107463,-0.456082,-0.951979,0.261488,-0.779626,0.569041
-0.575780,0.222512,0.745111,0.327368,-0.868319,-0.372629
0.186462,-0.400136,-0.383078,0.898563,0.027358,0.437991
0.089598,-0.000997,0.088452,0.871978,-0.480483,0.093763
0.446187,-0.317847,0.404176,0.743349,0.557883,-0.369051
-0.135008,0.199648,0.584894,0.792351,0.562396,-0.236410
-0.265427,0.340022,0.781310,0.047108,0.259552,0.964579
0.443240,-0.082425,0.637546,-0.246290,-0.879138,0.407992
0.394878,-0.624517,-0.923181,0.106041,0.617832,0.779127
-0.136572,0.078395,0.624820,-0.618805,0.784798,0.034248
0.262200,-0.788473,-0.962286,0.083304,0.260314,-0.961924
0.585200,-0.250352,0.452936,-0.460757,-0.288409,-0.839359
-0.205709,0.170136,0.074465,0.923900,0.369872,0.097997
0.223838,-0.146420,0.806865,-0.336042,-0.794947,-0.505109
-0.580309,0.704054,0.758986,0.338110,-0.852053,-0.399610
0.720474,-0.414886,0.478848,-0.096715,-0.637555,0.764310
-0.086271,0.300919,0.621042,0.920285,0.054850,-0.387385
-0.106323,-0.289844,-0.985042,0.361281,0.219372,0.906285
-0.016567,-0.422668,0.441283,0.035021,-0.851103,0.523829
-0.135902,-0.041627,0.320955,0.784042,-0.605026,-0.138640
-0.339507,0.345045,0.768013,0.835857,0.547314,0.042315
-0.007342,-0.506469,-0.020440,0.808762,0.586853,-0.038818
0.060085,-0.431072,-0.923503,-0.479172,0.570063,-0.667399
0.108125,-0.396669,-0.958720,0.208538,-0.908205,-0.362872
0.011423,-0.347333,-0.354312,-0.577421,-0.035589,0.815671
-0.443603,0.676054,0.779796,0.184559,-0.982164,-0.035935
0.071229,-0.704475,-0.962011,-0.498465,0.508795,0.701898
-0.617120,0.425291,0.695999,0.571804,-0.539515,-0.618032
0.097868,-0.775032,-0.944817,0.957479,-0.269762,0.102288
0.040692,-0.100747,-0.254626,0.261746,0.732676,0.628232
-0.172210,0.225817,0.734140,-0.034466,-0.886875,0.460723
0.581280,0.188228,0.846557,0.224120,-0.057674,-0.972854
0.470329,0.051626,0.413527,-0.402451,-0.136960,0.905138
0.087615,-0.413026,-0.931562,-0.319202,0.932860,-0.166979
-0.235461,0.508624,0.749566,-0.677182,0.492995,0.546242
0.315287,-0.349187,-0.979166,0.085362,-0.308935,0.947245
-0.004638,-0.633567,-0.946589,-0.009513,0.163849,0.986440
0.131307,0.048675,0.620531,0.441522,0.896073,-0.045950
0.025795,-0.167102,-0.390567,-0.670710,0.526388,-0.522555
0.177361,-0.734369,-0.956306,0.627720,-0.454703,0.631833
-0.626097,0.396492,0.228907,0.966819,-0.227681,-0.115854
0.545554,0.415839,0.899595,0.794847,-0.295243,-0.530141
-0.641491,0.134062,-0.563953,-0.766419,0.572665,-0.290958
0.058602,0.324458,0.870689,-0.581248,0.813724,0.001870
-0.284104,0.345404,0.647164,0.903559,0.164792,0.395505
0.499608,0.218787,0.447046,-0.729195,0.682919,0.043547
0.689856,0.032677,0.467414,0.088856,0.673451,0.733872
-0.053125,-0.055180,0.114929,0.807432,0.538585,-0.240789
-0.060371,0.092798,0.323421,-0.547464,0.836325,0.029048
-0.075744,-0.148830,-0.046231,0.340553,0.859445,0.381285
-0.628017,0.513820,0.642403,-0.432919,-0.899013,-0.066006
-0.084495,0.107379,0.619294,-0.330433,0.243091,-0.911987
-0.246298,0.663673,0.756438,0.855613,0.287017,-0.430753
0.055925,-0.286125,-0.964287,0.780205,0.227287,0.582770
0.016352,0.043126,0.312315,0.460745,-0.646403,0.608176
-0.541400,0.877493,0.802647,-0.353849,-0.816982,0.455337
-0.221524,0.281286,0.565213,0.897080,0.439834,0.042342
0.239529,-0.705101,-0.936784,0.355088,0.933011,-0.058340
0.191167,0.227276,0.734037,-0.355928,-0.375244,0.855866
0.104044,-0.593464,-0.949105,-0.091802,-0.450477,0.888055
0.296849,-0.281738,-0.961340,-0.133024,-0.511113,0.849158
0.074515,0.485158,0.699909,0.215423,0.930510,0.296217
0.097161,-0.039750,0.774778,0.625335,0.106536,-0.773050
0.097991,0.436493,0.862494,0.529441,0.750530,0.395471
-0.129834,0.489520,0.703161,0.998760,0.048569,-0.010941
0.010382,-0.282685,-0.944432,-0.175206,-0.885408,-0.430529
-0.501150,0.387547,0.699742,-0.369434,0.600910,0.708819
0.171069,-0.642446,-0.955602,0.588008,-0.715862,-0.376548
-0.296841,0.734115,0.764039,0.465383,-0.243133,-0.851061
-0.083638,-0.356578,-0.516337,0.709886,-0.695667,0.110041
-0.294145,0.318676,0.769884,0.557010,0.791207,-0.252451
0.336395,-0.644990,-0.932545,0.897782,-0.104243,-0.427926
-0.208877,0.407337,0.744528,-0.393536,-0.869556,-0.298331
-0.078374,0.446319,0.872812,0.365206,0.905470,-0.216213
0.046889,0.144261,0.506593,-0.373726,-0.565415,0.735279
0.368784,0.404300,0.858013,-0.375021,-0.172660,0.910795
-0.144171,-0.308544,-0.503498,-0.806475,0.590913,0.020504
0.287376,0.484864,0.841401,0.848221,0.522116,0.088966
0.212460,-0.182046,0.790703,0.098680,-0.924713,0.367652
-0.517186,-0.032401,0.198392,-0.296117,0.942743,-0.153463
0.111300,-0.556493,-0.940148,0.804630,0.575272,0.147080
0.130812,-0.103553,0.262725,-0.506382,-0.444324,0.739022
0.054881,-0.372086,-0.970363,0.694489,0.701329,0.160692
0.427524,-0.809955,-0.944375,0.891885,-0.126724,-0.434146
-0.174702,0.680568,0.752187,-0.475438,0.871038,0.123497
0.802509,-0.638413,0.465699,-0.691438,-0.090026,0.716804
-0.006441,0.145674,0.671636,0.810790,-0.023946,0.584847
0.028980,0.017878,0.305983,-0.194506,-0.799401,0.568442
-0.252621,0.757713,0.802869,0.205894,-0.972153,-0.111921
-0.088550,0.272254,0.100307,0.973956,0.011115,0.226464
-0.151893,-0.096434,0.768393,0.744270,-0.663189,-0.079012
0.224346,-0.741330,-0.943532,-0.181240,0.019635,0.983243
0.408705,-0.787362,-0.949276,0.975000,-0.222009,-0.009344
0.087506,0.187040,0.626787,0.490679,0.226460,0.841397
-0.068163,-0.351212,-0.640198,0.973950,0.148382,0.171478
0.044142,-0.232824,0.321224,0.597023,0.777371,0.198134
0.334816,-0.740078,-0.941037,-0.465155,0.448275,-0.763335
-0.200731,0.227807,0.717802,0.959190,0.129928,-0.251144
0.057006,-0.555098,-0.953782,-0.770834,0.314502,-0.553988
0.389444,-0.828146,-0.944292,-0.140298,0.970818,0.194497
-0.016029,-0.692954,-0.973739,0.434653,-0.538755,-0.721679
-0.141807,-0.597587,-0.962677,0.849523,-0.042840,0.525809
-0.122040,0.355440,0.105504,0.989035,-0.034200,-0.143670
0.650113,0.591041,0.725847,0.624253,0.780367,-0.036542
-0.128847,-0.450760,-0.100557,0.797900,0.309831,0.517069
0.427114,-0.344236,0.386714,0.857328,0.195281,-0.476292
-0.194832,-0.258693,-0.541781,0.991334,-0.122671,0.046996
0.750344,-0.460013,0.456703,-0.407034,0.592021,0.695583
0.526240,-0.343684,0.464056,-0.423331,0.697306,-0.578408
-0.144185,0.169067,0.578264,0.739017,0.116398,-0.663555
-0.048029,-0.450784,-0.851147,0.857130,-0.495779,0.139755
-0.098144,0.108188,0.099256,0.823176,0.316389,0.471465
0.445295,0.757476,0.898288,-0.680099,-0.722979,0.121521
-0.109491,-0.417823,-0.745956,0.776316,0.576627,0.254627
0.490841,0.159625,0.428276,0.950907,-0.102887,0.291873
-0.686939,0.548796,0.727124,0.578137,0.764270,-0.285744
0.682452,0.211090,0.963958,-0.713017,0.246954,0.656217
0.358499,-0.745901,-0.940159,-0.484468,0.823887,-0.294110
-0.303225,0.601076,0.627906,-0.346200,0.750269,-0.563242
0.681579,-0.313736,0.456913,0.107623,-0.241670,0.964372
0.245038,0.073032,0.456041,-0.231178,-0.950401,-0.208071
-0.034554,-0.346749,-0.815377,0.978741,0.196491,-0.058794
-0.290384,0.413941,0.662213,-0.726917,-0.105330,-0.678599
0.136713,-0.236194,-0.971206,0.085863,0.485579,0.869966
-0.044120,-0.331961,-0.637412,0.872676,0.154014,0.463375
0.196686,0.420482,0.796635,0.860025,-0.399343,0.317620
0.110068,-0.486520,-0.320985,0.036712,-0.892593,0.449365
-0.216907,0.360929,0.729745,0.766516,-0.578456,0.279002
0.144091,0.535428,0.572417,-0.706620,0.607313,-0.363124
0.781738,-0.491508,0.441138,0.691760,0.504010,-0.517148
-0.172615,0.156336,0.069157,0.854345,0.457991,0.245638
0.326685,-0.463926,-0.955692,0.418378,0.214510,-0.882579
0.121930,-0.621361,-0.960979,0.070599,-0.966873,0.245299
-0.200221,0.054682,0.694305,-0.414953,0.573711,-0.706165
0.374519,-0.737168,-0.950647,0.312496,0.612583,0.726008
0.092195,-0.233757,-0.948918,-0.586841,0.495002,0.640774
0.575242,-0.321377,0.433312,-0.524884,-0.511559,0.680298
0.657626,0.516980,0.700877,0.998050,0.060226,-0.016403
-0.038933,-0.611733,-0.978267,-0.056618,-0.553379,0.831003
0.444630,-0.379931,-0.956587,0.695273,0.161533,0.700359
-0.462934,0.601047,0.791374,-0.607299,-0.771164,-0.191037
0.390328,0.414160,0.662436,0.888544,-0.397585,0.228946
0.257345,-0.640826,-0.953223,0.525005,-0.206001,0.825792
-0.217461,0.699704,0.763574,0.936417,0.317749,-0.148855
-0.140784,0.500957,0.701097,-0.323204,-0.215180,0.921540
-0.304241,0.544978,0.673082,0.929901,-0.302319,0.209495
0.495187,0.005980,0.539008,0.957886,-0.235335,-0.164538
0.363953,-0.298248,0.446834,0.767393,0.641125,-0.008163
-0.060333,-0.279332,-0.569838,-0.097596,-0.987418,-0.124421
-0.186069,0.170817,0.579720,0.925547,0.293638,-0.239037
-0.059031,-0.290858,-0.595194,-0.559107,0.750813,0.351679
0.445598,-0.103887,0.684972,-0.002306,0.955744,0.294190
0.471299,-0.789204,-0.939349,0.219411,0.515105,0.828569
0.230932,0.193425,0.596945,0.227223,0.708673,-0.667946
0.495766,0.312145,0.649447,0.431432,-0.460100,0.775999
-0.122662,-0.272385,-0.410107,-0.543894,0.707514,0.451225
-0.100036,-0.282192,-0.483973,0.096439,0.961941,0.255674
0.142543,-0.157235,-0.961490,0.062574,0.987873,0.142097
0.694373,0.453906,0.723341,-0.585619,0.238399,0.774736
0.170085,-0.582249,-0.944895,-0.397690,0.853644,0.336355
0.432529,0.291835,0.866315,0.695406,0.446048,-0.563429
-0.049270,0.167878,0.587715,-0.556630,0.131768,-0.820244
0.322654,-0.564501,-0.963375,0.088081,0.449495,0.888929
0.000969,0.125215,0.610522,0.909778,0.379324,-0.168573
0.419923,0.052716,0.417432,-0.591946,-0.399552,0.699970
-0.102762,0.026984,0.463165,-0.111002,-0.967037,0.229170
0.290144,-0.386497,-0.952777,0.082293,0.723724,0.685165
-0.490205,0.020633,0.307340,-0.086288,-0.994348,-0.061851
0.428465,0.275768,0.602617,-0.184881,-0.799214,0.571906
0.253874,0.465019,0.861606,0.822154,-0.531216,0.204625
0.639866,-0.189792,0.432121,0.035752,-0.748449,0.662228
-0.052725,-0.326815,-0.162366,0.903367,-0.392689,-0.172404
0.213902,-0.385948,-0.951632,-0.321001,0.533926,0.782229
-0.706094,0.813990,0.354683,-0.169121,0.485452,0.857750
-0.690795,0.427399,0.679380,0.401388,-0.393668,-0.826990
-0.010510,0.010180,-0.097209,-0.283032,0.959040,0.011605
0.158387,-0.719927,-0.927357,0.269394,-0.317377,-0.909230
0.382395,-0.763172,-0.933436,-0.352619,-0.790471,-0.500816
-0.073244,-0.181275,-0.346002,0.980134,-0.159976,0.117236
0.291979,-0.713589,-0.947611,-0.554429,0.582599,-0.594295
-0.164480,-0.121687,0.768024,0.892614,-0.357827,0.274226
0.434454,-0.185537,0.475203,-0.493948,0.608158,-0.621417
0.209732,-0.724619,-0.963086,0.714555,-0.344593,-0.608824
0.235957,-0.776290,-0.925677,0.405312,-0.166012,-0.898978
-0.769391,0.554199,0.276091,-0.152629,-0.536656,0.829883
-0.010525,-0.127083,0.121055,0.789900,0.609948,-0.063422
0.320680,0.243835,0.998112,-0.022824,0.176843,0.983974
-0.093520,-0.247389,-0.562128,0.733792,0.534982,-0.418739
0.877949,-0.354113,0.482795,-0.141454,0.955370,-0.259344
0.255714,0.263674,0.768063,-0.317434,0.744668,-0.587116
-0.097248,-0.363666,-0.964697,-0.608417,0.567625,-0.554645
0.056660,0.334057,0.825426,0.899775,-0.186620,-0.394434
0.312852,-0.784287,-0.940032,-0.246059,0.619276,0.745622
0.139282,-0.399463,-0.947389,-0.300461,0.854481,0.423775
-0.088376,-0.081237,-0.066823,0.377879,-0.754190,-0.537033
0.746593,-0.133434,0.652343,0.365043,0.928897,0.062395
0.159061,-0.327382,-0.930517,-0.066574,-0.234247,0.969895
0.115592,0.045187,0.337919,-0.626293,0.265980,0.732811
-0.133979,-0.222464,-0.551847,0.218489,0.975395,-0.029462
-0.411254,-0.009273,-0.679778,0.672143,0.355251,0.649631
-0.086564,0.141436,0.561598,0.608702,0.764295,0.212921
-0.713667,0.477144,0.627053,-0.161616,0.960810,-0.225223
-0.254293,0.084200,0.167522,0.862942,0.300060,0.406564
0.098104,-0.383809,-0.967767,0.464228,-0.437306,-0.770231
-0.374278,0.114046,0.882782,-0.456185,0.752430,-0.475126
0.281028,0.289479,0.723720,0.858955,0.511973,0.008986
0.811579,-0.363141,0.467403,0.801495,0.183845,-0.569041
0.170468,-0.205886,-0.973882,-0.467682,-0.141255,0.872537
-0.406247,0.676075,0.766914,-0.407449,-0.532744,-0.741734
0.262169,-0.692524,-0.922696,-0.670012,-0.608711,-0.424918
-0.444882,0.692927,0.802467,0.166897,0.211176,0.963094
0.020150,0.366543,0.718969,0.413304,0.883767,0.219399
-0.031188,0.604788,0.109880,-0.782325,0.282013,-0.555371
0.957305,-0.302760,0.465434,0.871576,-0.488091,-0.046070
0.218658,-0.384719,0.110141,0.920575,0.300407,-0.249594
-0.738694,0.854765,0.407259,0.770011,-0.568639,-0.289367
0.322190,-0.511371,-0.931083,-0.126962,-0.488586,0.863229
0.691594,0.533759,0.717703,0.723556,0.679232,0.122927
0.620384,-0.131416,0.471448,-0.329741,-0.943304,0.038067
0.301275,-0.192831,0.813967,-0.671914,-0.326266,-0.664892
0.457438,0.016821,0.464231,0.961016,0.118390,0.249864
0.095648,-0.833613,-0.950418,0.454047,0.495366,-0.740577
-0.123296,0.288147,0.092269,-0.430295,0.901774,-0.040615
-0.688091,0.080125,-0.551446,0.889824,-0.410964,0.198295
0.014192,-0.384527,-0.978495,0.061056,-0.128569,-0.989819
0.204054,0.212617,0.905497,-0.784514,-0.425409,-0.451182
-0.555674,0.498183,0.634043,-0.233027,0.762518,0.603543
0.657912,0.296554,0.623526,-0.284512,0.933337,-0.218941
0.244709,-0.368675,-0.951350,-0.224136,0.557753,0.799171
0.214766,0.635204,0.566053,-0.485883,0.864349,0.129688
0.876469,-0.285016,0.705508,0.971867,-0.065205,0.226324
-0.145815,0.705526,0.796999,0.661185,0.368044,-0.653742
-0.030798,0.257354,0.813626,-0.551244,-0.765756,-0.331282
0.324939,0.362091,0.821265,0.302567,-0.523977,0.796179
0.187751,0.257299,0.967052,0.280127,0.931226,0.233123
-0.120636,-0.023742,-0.226069,0.926260,-0.324548,-0.191602
-0.058341,0.582373,0.118591,0.726132,-0.608203,0.320657
-0.427344,0.678367,0.087922,-0.689292,0.312596,-0.653575
0.563093,0.590693,0.697091,0.042785,-0.762445,0.645636
0.632210,0.276423,0.622589,-0.389563,-0.919169,-0.058046
0.458326,0.164847,0.459683,0.907599,-0.275503,0.316799
-0.053471,-0.293212,-0.357103,0.401727,-0.161487,-0.901409
-0.008691,0.649877,0.806008,-0.106687,-0.954841,0.277302
0.585561,-0.064083,0.492996,-0.327507,-0.828870,-0.453557
-0.157560,-0.260107,-0.961463,0.368572,0.151753,0.917129
0.322206,-0.247864,-0.951250,-0.587142,0.103904,0.802788
0.229893,0.284546,0.905164,0.217680,0.602037,0.768223
0.210527,-0.215580,0.810216,0.410075,0.884510,0.222442
-0.280399,0.371623,0.599531,0.104396,-0.909065,0.403365
0.161450,-0.125540,0.681628,-0.301149,0.314949,0.900065
-0.557964,0.155433,0.850858,-0.777227,0.629186,0.006557
0.276904,0.439006,0.848237,0.783181,0.147857,0.603958
0.317135,0.046869,0.425828,0.954126,-0.038858,-0.296874
0.432392,-0.816420,-0.950360,0.496928,-0.584107,-0.641780
0.010247,-0.682443,-0.963247,0.554299,-0.159732,-0.816847
0.056220,-0.581574,-0.974710,0.731976,0.110057,-0.672383
-0.001601,-0.593662,-0.969833,0.772269,-0.634972,0.020278
0.531504,0.477711,0.881382,0.909254,-0.064980,-0.411139
0.119889,-0.396381,-0.958952,0.072806,0.328071,0.941843
0.813369,-0.490549,0.436440,0.920077,-0.233482,-0.314553
-0.121250,-0.138892,-0.969327,-0.103064,0.553809,0.826241
-0.001649,-0.429083,0.426544,0.832135,-0.207431,0.514318
-0.559625,0.735077,0.733625,-0.014308,0.806898,0.590517
-0.301057,0.385505,0.625395,-0.741950,0.635720,0.213003
-0.084491,-0.030135,-0.023538,0.112847,0.218633,0.969260
-0.290139,0.406251,0.774432,0.792735,-0.212475,-0.571337
0.236062,-0.180953,0.348628,0.423840,0.904151,0.053580
-0.798918,0.841120,0.366598,-0.287686,-0.879470,-0.379169
0.797951,-0.305074,0.474912,0.359502,0.932821,0.024563
0.306013,-0.914286,-0.934800,0.728937,0.517407,0.448264
0.531030,-0.069089,0.681566,0.928932,-0.335624,0.156337
0.468842,0.803469,0.887618,0.822274,-0.392671,0.411917
0.930214,-0.333274,0.499053,0.766863,0.050046,0.639856
0.211391,-0.547193,-0.917980,0.497396,0.619915,0.606879
0.854501,-0.801887,0.460797,-0.622280,0.089304,0.777684
-0.383095,0.840632,0.018352,0.933553,0.201095,0.296715
-0.077251,0.123475,0.066135,0.473383,0.847447,0.240296
0.422453,0.363217,0.846447,0.563749,-0.165054,-0.809286
0.552587,-0.424588,0.447584,0.052333,-0.958854,0.279035
0.793089,-0.700239,0.449914,0.408474,0.889862,-0.203210
0.037325,-0.610232,0.357338,0.834605,-0.550654,-0.014637
0.363293,0.198462,0.409783,-0.299001,0.718191,0.628331
0.274524,-0.519966,-0.948566,0.136991,-0.297216,0.944932
-0.117071,-0.328052,-0.950193,0.400632,0.142904,-0.905026
-0.072122,0.178976,0.458780,0.681200,0.731217,0.035885
-0.061820,0.266644,0.106353,0.967059,-0.186237,0.173532
0.295656,-0.928931,-0.947291,0.606554,0.747545,0.270681
0.197972,0.243679,0.763918,-0.527220,-0.077964,-0.846145
0.059046,-0.544714,0.393516,0.980938,-0.088904,0.172791
0.531702,-0.230572,0.489587,0.914436,-0.343960,0.213304
0.369162,0.047160,0.449132,-0.653210,0.751436,0.093058
-0.027100,0.115849,0.437495,-0.441964,0.890406,-0.108830
-0.115184,-0.387947,-0.059043,0.453200,0.846798,0.278464
-0.014034,0.677971,0.596752,-0.470177,0.461320,-0.752408
-0.014055,-0.429735,-0.916388,-0.420546,0.219667,0.880277
-0.181060,0.327314,0.888844,-0.258669,-0.155159,-0.953423
-0.084145,0.008380,0.122104,0.354432,0.933134,-0.060326
0.381486,0.367581,0.925318,-0.519267,0.653264,0.551007
0.510095,-0.179132,0.600858,0.611811,0.785988,-0.088941
-0.421084,0.128562,0.192464,-0.204714,-0.437614,0.875549
0.108306,-0.272479,-0.943676,0.346402,-0.001502,0.938085
0.134507,0.475375,0.625520,0.248991,-0.754222,-0.607580
0.250358,-0.675102,-0.928040,0.937821,0.051013,-0.343349
-0.554199,0.453930,0.653023,0.907989,-0.320776,-0.269555
0.167509,-0.010414,0.316723,0.379539,0.864765,-0.328833
-0.147482,0.336863,0.820252,0.919095,0.102500,-0.380472
0.003914,-0.644954,-0.966001,0.632372,0.772789,0.053885
0.123216,-0.483608,-0.941931,0.710564,-0.272043,-0.648916
0.024511,-0.359680,-0.946243,0.828769,-0.344837,-0.440714
0.127547,-0.368932,-0.958902,-0.502203,0.202698,0.840658
0.435274,-0.397908,-0.949712,0.797418,0.376808,0.471317
-0.027010,0.218692,0.658727,0.972225,0.023724,-0.232843
-0.061583,0.065685,0.317905,0.631160,-0.338423,0.697930
0.305786,0.333531,0.781797,0.722009,0.591768,0.358487
0.359466,-0.744806,-0.926002,-0.755672,-0.111409,0.645405
-0.195180,-0.036095,-0.092074,0.655275,0.170611,0.735871
-0.002022,-0.355613,0.402393,0.854868,0.305212,0.419578
-0.254278,0.619411,0.716105,0.380164,-0.605227,0.699411
0.128327,-0.555205,-0.945021,0.340115,-0.252904,0.905738
0.129774,0.721919,0.787719,0.881670,-0.273179,-0.384750
0.264113,-0.461609,-0.959279,0.260572,0.861650,-0.435502
0.384623,0.348890,0.857508,0.762026,0.564624,0.317044
0.001736,-0.484062,-0.964287,-0.558002,-0.536670,0.632945
0.226158,-0.723610,-0.952715,0.504713,-0.641593,-0.577601
-0.067202,-0.051678,0.099049,0.811487,0.405608,-0.420680
-0.648116,0.332613,0.266246,-0.052851,-0.893952,0.445035
0.144437,0.040165,0.066276,-0.003648,0.998129,0.061032
-0.118250,0.577620,0.114444,-0.688467,0.577303,-0.439015
0.161882,-0.553188,-0.954820,-0.131717,0.163805,0.977660
0.452922,0.010161,0.467894,0.917849,0.029810,0.395809
0.128837,-0.463174,-0.968831,0.574842,-0.818239,0.006440
0.878254,-0.870396,0.436515,-0.584106,0.143350,0.798918
-0.128071,0.363994,0.480497,0.983231,0.104919,0.149162
0.007423,-0.355429,0.452552,0.042040,0.812817,-0.581000
0.349264,0.245001,0.828254,0.164464,0.979139,-0.119324
0.101391,-0.622734,-0.980940,-0.162389,0.214763,0.963071
0.207318,-0.063231,0.345993,-0.160206,-0.809735,-0.564502
0.339928,-0.826031,-0.956380,-0.146804,0.379334,0.913540
0.041658,-0.506745,-0.976912,-0.089800,0.188842,0.977893
0.121451,-0.648959,-0.939269,-0.266715,-0.350965,0.897600
0.042020,-0.302846,-0.941600,0.251429,0.256291,-0.933326
-0.196206,0.017496,0.630270,-0.052398,0.998186,-0.029648
-0.051070,-0.646305,-0.959813,-0.106386,0.082921,0.990861
0.019682,-0.419188,-0.904841,0.969715,-0.101602,0.222102
-0.048874,0.436492,0.789718,0.397292,0.464360,-0.791536
0.084483,0.109374,0.595923,0.057089,0.228753,0.971809
0.348081,-0.226058,0.463677,0.806120,0.526168,-0.270774
0.500742,0.487718,0.937775,-0.415603,0.858094,0.301578
0.151136,-0.701978,-0.937821,0.904931,-0.087578,-0.416449
0.275895,0.311402,0.575432,-0.004820,-0.260661,0.965418
0.022094,0.480069,0.699690,-0.517982,0.832948,0.194660
-0.637508,0.550197,0.637386,0.552503,-0.774933,0.306953
0.042932,-0.365120,-0.962073,0.077983,0.092249,0.992678
0.137726,-0.490969,-0.957730,0.263474,-0.149206,-0.953058
-0.122676,0.370243,0.698823,-0.418019,0.747175,-0.516711
-0.026734,-0.382695,-0.972975,-0.237012,-0.971414,0.013405
-0.086174,0.229264,0.570978,0.687716,0.708595,0.157924
0.093050,-0.863740,-0.947306,0.822247,0.497034,-0.277249
-0.713265,0.538121,0.699334,-0.675014,-0.514948,0.528379
-0.072175,0.494732,0.823453,0.820287,0.390143,0.418233
0.323912,-0.551058,0.081261,0.813842,-0.565166,-0.135089
-0.086503,0.543200,0.703425,-0.703402,-0.564016,-0.432563
-0.105237,0.327520,0.594783,0.856668,0.131660,-0.498785
0.810496,-0.495556,0.499641,0.847658,-0.421650,0.322004
-0.208025,-0.061940,-0.296641,0.912530,-0.207354,-0.352551
-0.059991,-0.040087,0.146306,-0.738060,-0.569909,-0.361209
0.151364,-0.753220,-0.937748,0.169671,-0.097844,0.980632
0.209985,-0.346955,0.343576,-0.441950,0.360487,-0.821419
-0.114303,-0.202500,-0.182243,0.517303,0.390616,-0.761457
0.298128,-0.483455,0.101999,-0.391130,-0.914905,0.099830
-0.128294,-0.234914,-0.099752,0.940730,0.307917,-0.142174
0.409626,0.093096,0.513123,-0.422215,-0.906470,0.006915
-0.353841,0.138958,0.153861,0.398156,0.916254,0.044167
-0.129489,-0.309398,-0.965655,0.808822,0.231699,-0.540483
-0.478072,0.041944,0.312587,-0.086288,-0.994348,-0.061851
0.261063,-0.601168,-0.945222,-0.119793,0.487638,0.864788
-0.064154,-0.218002,-0.961788,0.124136,-0.964547,0.232895
0.008321,-0.438916,-0.724983,-0.498469,0.853543,-0.151634
-0.004265,-0.256386,0.411111,-0.605934,0.752081,0.259265
0.080558,-0.392917,-0.890529,-0.352809,0.830476,0.431086
-0.056835,0.508240,0.754169,0.860548,-0.356533,0.363788
0.109537,-0.741077,-0.945039,-0.712213,0.254394,0.654245
-0.161416,0.363305,0.080812,0.787979,0.084831,0.609830
-0.119549,0.113088,0.466850,0.785226,-0.112506,0.608902
0.305324,-0.602408,-0.959596,-0.430549,0.501985,0.750092
0.470596,-0.106112,0.527212,0.695474,-0.703460,0.146490
-0.061506,0.173779,0.355572,0.856332,-0.136841,-0.497965
-0.033176,-0.336791,-0.982935,0.218308,-0.342780,0.913698
0.306851,-0.143680,0.768215,-0.226251,-0.832677,0.505430
0.006906,0.281614,0.827856,0.625587,-0.777825,0.060248
0.046074,0.648781,0.825726,-0.598906,0.799217,0.050633
0.751158,-0.524250,0.489645,-0.787295,0.254646,0.561535
-0.089231,0.414710,0.092089,0.974076,0.047542,0.221171
0.393948,-0.728200,-0.915671,-0.046039,-0.226778,0.972858
0.096733,-0.428057,-0.905459,0.910825,-0.403952,-0.084981
-0.679626,0.897140,0.360303,-0.657308,0.482865,0.578607
-0.043743,-0.537106,-0.945336,-0.648004,0.760327,-0.044651
-0.044432,-0.395491,-0.947724,0.908693,-0.390903,-0.146531
-0.115909,-0.314091,-0.583809,0.093578,0.928596,0.359101
-0.206179,0.552356,0.750730,-0.736251,0.212086,0.642615
0.190883,-0.750857,-0.962678,0.459647,-0.390559,-0.797614
-0.093884,0.232811,0.640067,0.320479,-0.831492,0.453777
0.255960,-0.332421,0.777206,0.777774,0.372866,0.506002
0.040023,-0.548074,-0.964934,-0.065218,0.577029,0.814115
0.232316,0.586176,0.837585,0.263863,0.941809,-0.208262
-0.370008,0.635149,0.719720,0.927719,-0.297690,-0.225208
-0.002428,-0.128684,-0.268052,-0.178272,0.895823,0.407087
0.068750,0.095960,0.284445,0.983770,-0.076616,0.162253
0.715096,-0.196103,0.691358,0.240933,-0.507600,-0.827220
-0.260403,0.457209,0.615128,-0.775894,-0.626423,0.074715
-0.181671,0.288934,0.721555,-0.608813,-0.491340,0.622842
-0.026848,-0.799306,-0.978164,0.097373,0.438269,0.893554
-0.666642,0.789956,0.373655,-0.228085,-0.263600,0.937279
0.214499,0.305164,0.787027,0.434060,-0.522904,0.733596
-0.516732,0.425023,0.687191,-0.544685,-0.824829,-0.151580
-0.457360,0.357100,0.634170,-0.495889,-0.469479,0.730536
0.067515,-0.840139,-0.947379,-0.530213,-0.836141,-0.140510
0.219571,-0.521494,-0.929800,-0.345775,-0.877740,-0.331681
