0.472379,-0.692510,0.500721,-0.343485,0.934812,-0.090252
0.523048,-0.559452,0.392311,-0.488055,0.249593,0.836364
0.556865,-0.562668,0.593578,0.090379,0.661192,0.744753
0.517430,-0.722716,0.511844,-0.101525,0.591455,0.799921
0.573057,-0.575629,0.398527,0.352143,-0.258967,-0.899406
0.630115,-0.553392,0.405649,-0.329520,0.928174,0.172944
0.683980,-0.505471,0.404689,-0.141617,0.314326,0.938693
0.684310,-0.551252,0.407943,-0.501595,0.695416,0.514587
0.734538,-0.469562,0.428990,0.892850,0.040796,-0.448503
0.713390,-0.543638,0.414639,-0.154398,0.283886,0.946346
0.568650,-0.093227,0.806102,0.810247,0.291902,-0.508225
-0.006775,-0.870034,0.608170,0.017073,-0.245603,0.969220
0.236989,-0.029609,0.920754,-0.533639,0.170901,0.828264
0.319713,-0.128658,0.734932,0.191629,0.820385,0.538745
0.006224,0.107724,0.885569,-0.457683,0.888948,-0.017244
-0.034972,0.048511,0.865375,-0.628679,0.763119,0.149705
-0.024178,0.035077,0.838460,-0.695947,0.717209,0.035616
-0.006002,0.028414,0.810477,-0.305850,-0.492984,0.814507
0.027482,0.036260,0.781374,-0.434123,0.711553,0.552476
0.105029,0.081212,0.746616,0.159975,0.951497,-0.262795
0.314203,-0.267783,0.125689,0.834950,0.541904,0.095908
0.371372,-0.383953,-0.067308,0.200639,-0.977215,0.069250
0.965965,-0.591320,-0.959445,-0.654628,0.404232,0.638795
-0.170128,-0.295006,0.631778,0.459929,-0.853011,0.246653
-0.177066,-0.322831,0.607930,-0.414130,0.792244,-0.448159
-0.131464,-0.306545,0.575866,0.861368,0.496574,0.107052
-0.062731,-0.292393,0.515712,0.826628,-0.256221,-0.501035
0.272789,-0.048637,0.416132,0.850959,-0.523242,0.045672
-0.274880,0.072170,0.670777,0.965761,-0.225158,0.128880
0.022635,0.271459,0.554232,-0.626604,-0.659823,0.414730
-0.020984,0.148155,0.456546,-0.096106,0.886857,0.451939
0.526574,-0.487045,-0.982013,-0.305940,0.030957,0.951547
0.379084,-0.634487,-0.983080,-0.331522,-0.074329,0.940515
-0.145895,0.584777,0.627456,-0.381168,0.306308,-0.872288
-0.678911,-0.003097,0.546629,0.030605,0.840674,0.540677
-0.689153,-0.030204,0.523048,-0.672651,0.733847,0.094918
0.845902,-0.700123,0.403595,-0.310247,-0.648238,0.695366
0.641131,-0.844713,0.353392,-0.554352,-0.408987,-0.724861
0.783996,-0.594891,0.408557,-0.274220,-0.839532,0.469030
0.601808,-0.405355,-0.635417,0.748939,0.662475,-0.014777
0.486921,-0.902497,0.381801,0.029347,0.836819,0.546693
0.536709,-0.852798,0.528917,-0.555987,-0.090424,-0.826258
0.610400,-0.716053,0.527663,0.976786,-0.150949,0.152000
0.440657,-0.753509,0.259787,-0.260762,0.027832,-0.965002
0.390869,-0.876341,0.365022,0.394191,0.831678,0.391056
0.533404,-0.604282,0.335412,0.342239,-0.412355,0.844296
0.367957,-0.938051,0.430671,0.262872,0.485045,0.834044
0.526463,-0.636033,0.394952,0.037127,-0.058751,0.997582
0.503662,-0.688823,0.432778,0.788159,-0.187512,0.586212
0.501131,-0.709630,0.489517,-0.365653,0.911351,-0.189041
0.538141,-0.645540,0.501894,0.478257,-0.877380,-0.038389
0.436801,-0.853038,0.570397,0.746213,-0.659720,0.089086
0.495291,-0.746259,0.574158,0.967473,-0.247094,-0.054220
0.589912,-0.576819,0.592938,-0.147719,-0.723379,-0.674464
0.731563,-0.356483,0.729437,0.399356,0.839917,-0.367496
0.762845,-0.302974,0.744962,0.219629,0.749554,-0.624445
0.485708,-0.337099,-0.090676,-0.546235,-0.693514,0.469750
0.410807,-0.585615,0.263922,0.738083,0.655594,0.159465
0.420498,-0.575273,0.289104,0.311434,0.946255,-0.087241
0.404527,-0.616293,0.324849,0.190188,-0.796482,-0.573974
0.400013,-0.633892,0.355926,0.644356,0.287052,-0.708806
0.419177,-0.604282,0.375746,-0.663339,0.683174,-0.305376
0.448697,-0.555533,0.391591,0.007883,0.818309,0.574724
0.438895,-0.583235,0.424322,-0.597190,0.673267,-0.435977
0.416094,-0.663379,0.545402,0.963146,-0.100267,-0.249594
0.586274,-0.371586,0.615692,-0.742619,0.637611,0.204865
0.383158,-0.516292,0.486636,0.641432,0.441091,0.627697
0.494629,-0.324260,0.526436,-0.689161,0.641868,0.336247
0.376331,-0.256962,0.127050,0.952993,0.152443,0.261852
0.097540,-0.863851,0.415572,0.423448,0.579580,-0.696260
0.446936,-0.248043,0.499760,-0.467069,0.750256,0.467933
0.553449,-0.154466,0.814505,-0.476811,0.875032,-0.083485
0.007878,-0.874672,0.303935,0.632289,-0.142657,0.761486
0.346037,-0.235197,0.249970,0.776154,-0.625170,-0.082145
0.333041,-0.270040,0.284569,0.899485,0.417671,-0.128369
0.340641,-0.264096,0.310391,0.801270,0.518694,0.298198
0.376438,-0.257674,0.494025,-0.507660,0.276261,0.816065
0.240623,-0.542811,0.601848,0.662032,0.702087,0.262273
0.422373,-0.193699,0.558580,-0.039766,-0.363524,0.930736
0.508290,-0.060169,0.636366,0.788453,0.353323,-0.503492
0.314754,-0.214630,0.273312,0.908304,0.409072,0.087426
0.315087,-0.222598,0.301241,-0.696967,-0.707541,0.116716
0.332490,-0.197865,0.323248,-0.702408,0.534565,-0.469961
0.325108,-0.221168,0.355232,0.979605,-0.014746,0.200389
0.311779,-0.291442,0.500214,-0.374450,-0.574385,-0.727921
0.364875,-0.213440,0.564022,-0.147426,-0.971500,0.185618
0.469404,-0.017365,0.550337,0.221409,0.497216,0.838901
0.469848,-0.024499,0.577066,0.597291,-0.800638,-0.047139
0.481193,-0.018672,0.627563,-0.288345,-0.571145,-0.768538
0.487802,-0.040553,0.734905,0.945702,-0.321777,0.045906
0.491658,-0.041025,0.759820,-0.848128,0.522357,-0.088435
0.496942,-0.039718,0.785322,-0.445818,0.580758,0.681151
0.537149,0.021992,0.823841,0.495799,0.768985,-0.403541
0.557638,0.053859,0.843501,0.512358,0.851372,0.112492
0.242388,-0.228658,0.341814,-0.350780,0.916431,-0.192635
0.266399,-0.190012,0.360914,0.403742,0.309429,0.860956
0.275983,-0.180505,0.384762,0.631833,-0.750979,0.191882
0.199316,-0.339835,0.444115,0.522377,0.852386,-0.023648
0.275542,-0.198576,0.442088,0.946202,0.221774,-0.235622
0.270033,-0.218672,0.472845,0.817908,0.449334,-0.359339
0.308257,-0.169561,0.540494,0.652014,0.757761,-0.025989
0.341852,-0.111654,0.554365,0.959135,-0.189705,-0.209933
0.320704,-0.162311,0.590644,-0.412010,-0.289624,0.863925
0.375117,-0.063973,0.597499,0.744997,0.646858,-0.162954
0.395824,-0.032105,0.617479,0.800818,0.239019,-0.549145
0.414111,-0.003809,0.636873,0.923142,0.316819,-0.217795
0.450900,0.059331,0.649597,0.501210,0.863480,-0.056491
0.442529,0.033647,0.680567,-0.178691,0.983602,0.024437
0.450792,0.041972,0.703935,-0.414752,-0.909798,-0.015761
0.408934,-0.056839,0.774758,0.191582,0.624618,0.757066
0.141710,-0.252920,0.374199,0.553838,-0.748210,0.365302
0.168475,-0.217961,0.418480,0.723174,0.364945,0.586374
0.207579,-0.149465,0.431391,0.084555,-0.975803,0.201638
0.256486,-0.071106,0.467830,0.823607,0.343708,-0.451149
-0.008647,-0.602859,0.600941,0.939656,0.036181,-0.340203
0.233574,-0.142694,0.560634,0.223112,0.334153,-0.915731
0.231812,-0.155532,0.588323,0.318146,-0.305386,0.897509
0.215509,-0.195964,0.622601,0.748436,-0.135022,-0.649317
0.245581,-0.145067,0.637593,-0.046186,0.059586,0.997154
0.257696,-0.130799,0.660827,0.152892,0.711748,-0.685593
0.407942,0.130439,0.712017,-0.118249,-0.709842,0.694364
0.439776,0.157786,0.808956,0.003291,0.763294,0.646042
-0.011730,-0.284424,0.355099,-0.079696,0.800285,0.594300
0.100182,-0.100122,0.423495,-0.224018,-0.916497,0.331435
0.072644,-0.173371,0.490477,0.578784,-0.803044,0.141877
0.049184,-0.228303,0.526969,0.053476,0.996566,-0.063225
0.196345,0.052793,0.497146,0.776561,0.620748,0.107818
-0.107342,-0.566115,0.672591,0.808167,0.389131,0.442089
0.410255,0.447437,0.497493,0.981039,0.167343,0.097771
0.176186,-0.031989,0.643355,0.807649,-0.394232,0.438502
0.106350,-0.179075,0.696893,0.998034,0.036022,-0.051280
0.163409,-0.085259,0.730370,0.521073,-0.836715,0.168497
0.266181,0.108674,0.718873,-0.306434,0.492724,0.814445
0.289311,0.146014,0.736319,0.943615,0.129763,-0.304553
0.299665,0.156951,0.758833,0.900242,-0.290903,-0.323943
0.310899,0.169557,0.782094,0.849976,-0.174476,-0.497091
0.231701,0.005467,0.837739,0.075724,-0.995349,0.059547
0.279506,0.090843,0.847076,-0.572483,0.817796,0.058929
0.257037,0.037806,0.883061,0.964496,-0.248029,0.090715
0.253070,0.020686,0.911497,0.933799,-0.347271,-0.086156
0.272897,0.051247,0.930170,-0.572174,0.595386,-0.564032
-0.014705,-0.019862,0.324955,0.755566,-0.611446,-0.235061
0.027153,0.054338,0.335679,0.059567,0.997127,0.046797
0.003142,-0.003213,0.374545,0.800177,0.475994,-0.364891
-0.097647,-0.233180,0.499947,-0.498061,0.080046,0.863440
-0.112407,-0.280738,0.561194,0.784617,-0.600467,0.154325
-0.085421,-0.237099,0.577546,0.702339,-0.675037,0.225933
0.119238,0.159687,0.525102,0.885011,-0.231640,0.403855
-0.016577,-0.120101,0.606676,-0.503090,0.816250,-0.283966
-0.038165,-0.172058,0.642928,-0.262546,-0.225004,-0.938319
-0.072644,-0.249349,0.683075,-0.512790,-0.770153,-0.379354
-0.092141,-0.297510,0.717193,0.677158,0.732070,0.074366
-0.068567,-0.259691,0.735599,-0.274250,0.750357,-0.601457
0.045769,-0.052201,0.746055,0.240729,-0.322868,0.915317
0.007767,-0.136627,0.787963,0.752431,-0.027902,0.658080
0.097099,0.029961,0.781721,-0.087024,-0.972600,0.215585
0.139287,0.104872,0.792071,0.714937,0.213957,0.665648
0.230269,0.275857,0.784388,-0.144616,0.709408,0.689801
-0.071871,0.117123,0.306976,0.757152,0.161210,0.633034
-0.150631,-0.060053,0.395806,-0.341411,-0.494596,0.799258
-0.051493,0.118189,0.413198,-0.296949,-0.814008,0.499211
-0.309796,-0.407017,0.545669,-0.715090,0.617288,0.328027
-0.162417,-0.122830,0.513792,-0.293068,-0.832060,-0.470943
-0.280937,-0.378365,0.616119,-0.461970,0.016142,-0.886749
0.028914,0.209270,0.577226,-0.714888,0.600574,0.358115
-0.150299,-0.157557,0.675205,-0.111709,0.936923,0.331205
-0.070439,-0.046257,0.779107,0.902014,-0.420838,0.096259
-0.123534,-0.160881,0.826482,0.005700,-0.671184,0.741269
0.003800,0.073716,0.831871,-0.175146,0.873290,-0.454630
0.011730,0.079783,0.855105,-0.166832,0.881148,0.442431
0.026050,0.098209,0.876872,0.512272,-0.843543,-0.161284
-0.403535,0.020091,0.490371,0.533875,0.694022,0.483023
-0.136862,0.470030,0.608063,0.706042,-0.395843,0.587207
-0.096104,0.540187,0.620414,-0.064455,0.213152,0.974891
-0.004130,0.714620,0.612998,0.337169,0.880274,-0.333819
-0.243927,0.045658,0.396393,-0.291934,-0.145681,-0.945279
-0.276863,-0.039958,0.466069,-0.373402,-0.860689,0.346099
-0.219253,0.054099,0.500027,0.650362,0.756182,0.072236
-0.095664,0.291076,0.478100,0.092092,-0.961072,0.260501
-0.449578,-0.446374,0.700280,-0.660041,-0.746352,0.085470
-0.230158,-0.017837,0.642048,0.189513,-0.916642,0.351926
0.037506,0.486439,0.620974,0.783232,-0.369014,0.500376
-0.030786,0.320570,0.728556,0.856404,0.257770,0.447356
-0.021092,0.329250,0.752671,-0.208198,-0.637721,0.741596
0.038280,0.437930,0.757739,-0.426801,-0.857928,0.286008
-0.816928,0.113907,0.543908,0.452256,-0.450800,-0.769574
-0.741697,0.079304,0.543855,0.459993,0.454200,0.762960
-0.776502,0.026513,0.536386,-0.683307,0.645183,0.341805
-0.814726,-0.030922,0.530517,-0.494726,0.380435,-0.781355
-0.306602,0.608792,0.682781,0.624292,0.705352,-0.335764
-0.592553,0.139831,0.539667,0.035933,0.464947,0.884609
-0.611828,0.106773,0.526356,-0.656335,0.732663,-0.180082
-0.653135,0.045774,0.522541,0.141319,0.602349,-0.785624
-0.687503,-0.007379,0.515045,-0.199458,-0.960818,-0.192472
-0.670097,0.006062,0.485195,0.101828,0.973878,0.202959
-0.493197,0.082874,0.486503,0.806650,0.491619,0.328064
-0.548601,-0.005470,0.465962,-0.628871,-0.747628,-0.213480
0.032770,0.877165,0.573705,0.720881,0.554124,0.416267
-0.080244,0.724374,0.598486,0.746502,0.649400,-0.144961
-0.256152,0.482752,0.628550,-0.412537,-0.783012,0.465516
-0.260449,0.468128,0.607930,-0.217929,0.911943,-0.347660
-0.293385,0.408436,0.577839,0.169314,-0.794920,0.582611
-0.211764,0.494168,0.498267,0.936919,0.266259,0.226469
-0.502670,0.079783,0.512805,-0.508689,-0.681132,-0.526587
-0.243376,0.426870,0.719994,0.208801,-0.956242,0.204945
-0.279727,0.371815,0.712951,0.789193,-0.154107,0.594496
-0.096215,0.596193,0.614465,-0.730761,0.527434,-0.433361
-0.200637,0.454927,0.637086,0.923838,0.382783,-0.000811
-0.196893,0.450529,0.613185,0.018191,-0.532128,0.846469
-0.209558,0.425795,0.596939,0.373680,0.900892,-0.220811
-0.282040,0.315570,0.583015,0.622439,0.678022,-0.390969
-0.139616,0.477287,0.477006,0.658056,0.401990,0.636684
-0.324996,0.215569,0.491011,0.295783,0.065857,0.952982
-0.434155,0.058976,0.493225,0.901850,0.423159,-0.087196
-0.374676,0.114981,0.421361,0.922077,-0.356865,0.149737
-0.285895,0.217710,0.359313,-0.765516,-0.616528,-0.184059
-0.486037,-0.044000,0.425576,-0.123243,0.990481,0.061304
-0.165170,0.385016,0.749016,0.957387,-0.069059,-0.280430
-0.162968,0.378709,0.726182,0.338392,0.433832,-0.835033
-0.021643,0.539353,0.623615,0.154020,0.314924,0.936537
-0.086631,0.447677,0.628683,-0.829384,0.558484,0.014750
-0.166050,0.337691,0.639994,0.972077,0.155385,-0.175848
-0.118357,0.389291,0.598273,0.750884,-0.163863,0.639783
-0.230710,0.238285,0.624682,-0.694300,-0.580310,0.425662
-0.177507,0.296308,0.579387,0.372601,0.877733,0.301254
-0.267831,0.173121,0.596539,0.880450,0.443806,0.166864
-0.062949,0.422472,0.485489,-0.519511,-0.366422,-0.771909
-0.066146,0.398689,0.441047,0.669870,-0.369122,0.644223
-0.386681,-0.023549,0.537106,0.619875,0.753652,0.218547
-0.408490,-0.069445,0.501841,0.968468,0.149219,-0.199506
-0.205706,0.155884,0.342054,0.615479,0.606138,0.503767
-0.370492,-0.161955,0.538200,0.216525,0.625060,0.749945
-0.019660,0.249222,0.314285,0.996055,0.088062,0.010911
-0.269263,-0.073132,0.402875,0.709099,0.195611,0.677432
-0.096437,0.132813,0.302015,0.697612,-0.038264,0.715453
-0.047970,0.384777,0.728957,-0.273480,-0.905455,0.324592
-0.067686,0.350529,0.715299,-0.316656,0.432744,-0.844074
0.201410,0.662301,0.536599,0.958636,0.282584,0.034113
-0.083327,0.283942,0.612785,0.202157,-0.134968,0.970008
-0.105469,0.237567,0.578160,0.693183,0.650871,0.309620
-0.316515,-0.037817,0.646422,-0.294065,-0.746388,0.597018
-0.027811,0.307129,0.477726,0.590525,0.803147,-0.078965
0.109984,0.470625,0.395886,-0.395967,0.710671,0.581512
-0.054139,0.254455,0.444275,-0.393712,0.246173,-0.885658
-0.271024,-0.027351,0.517206,0.267875,0.377466,0.886433
0.004681,0.335310,0.706362,0.931263,-0.282406,0.230207
-0.129370,0.156356,0.740480,0.912320,0.336062,0.233956
0.237759,0.592267,0.520754,0.640375,0.574054,0.510276
0.008977,0.294291,0.596219,0.043764,-0.729754,0.682308
-0.065595,0.190843,0.605475,0.671921,0.035511,0.739771
-0.264526,-0.069561,0.668296,0.739216,-0.012216,0.673358
-0.432945,-0.308918,0.676246,-0.385387,0.920635,0.062522
-0.521948,-0.430205,0.692731,0.922657,0.359266,-0.140115
-0.487139,-0.395369,0.656266,0.923442,0.362315,0.126425
-0.467202,-0.379911,0.625189,-0.481657,-0.799550,-0.358786
-0.268600,-0.140429,0.515392,0.321794,0.795150,0.513989
-0.285563,-0.171346,0.499947,0.846111,0.526742,0.081478
-0.086524,0.068846,0.389590,0.181249,-0.859119,0.478605
-0.139175,-0.006660,0.390604,0.819999,-0.448616,0.355451
-0.186539,-0.075628,0.388337,0.723568,-0.130232,0.677856
-0.070661,0.059687,0.313912,0.984064,-0.065517,0.165302
-0.007545,0.151247,0.600247,-0.267181,-0.963334,-0.024553
-0.196452,-0.096196,0.659867,0.433673,0.272100,0.859005
-0.149969,-0.046613,0.618333,-0.251159,-0.538858,0.804084
0.017791,0.154810,0.523155,-0.486632,-0.848002,-0.209957
-0.411798,-0.413324,0.643275,-0.636463,-0.570502,-0.519078
-0.401881,-0.410232,0.616439,0.892802,0.369772,0.257240
-0.258576,-0.239595,0.531638,-0.665400,-0.736802,0.119853
-0.410033,-0.448276,0.553938,0.388846,-0.859133,0.332699
-0.435480,-0.489774,0.543642,0.626300,-0.544625,0.557792
-0.115053,-0.098220,0.377213,0.359501,0.893916,0.267718
-0.076059,-0.059219,0.336506,-0.460102,0.752501,0.471220
-0.273888,-0.316531,0.402128,0.827920,0.522007,0.205077
-0.119127,0.119140,0.904988,0.528216,-0.809686,-0.255728
-0.100400,0.134243,0.876259,0.659734,0.359742,0.659800
-0.123534,0.096308,0.865215,0.503039,-0.625237,0.596682
-0.182132,0.012600,0.868123,0.926041,-0.265338,-0.268412
-0.158561,0.033292,0.837019,0.461230,-0.739180,-0.490794
-0.151401,0.033292,0.812264,-0.406599,0.862180,-0.302198
0.004352,0.221397,0.726422,0.804060,0.490236,0.336388
0.025392,0.229845,0.674352,-0.030990,-0.828965,0.558442
0.316849,0.588820,0.529904,-0.674323,0.731444,0.101379
0.296579,0.553744,0.515846,-0.608963,-0.743249,-0.277027
0.146225,0.354571,0.557113,0.032995,-0.787421,0.615532
0.268160,0.018189,-0.145388,0.615186,0.768785,-0.174690
0.160215,0.266705,0.782414,0.299388,-0.752115,-0.587102
0.146006,0.239475,0.766542,-0.512990,0.665961,0.541606
0.035194,0.090843,0.791511,-0.411899,-0.468525,0.781552
0.010850,0.050651,0.780867,-0.597457,0.628909,0.497513
-0.068567,-0.058740,0.792231,0.956089,-0.034760,0.291009
-0.018561,-0.004875,0.750457,-0.870536,0.279003,-0.405369
0.013936,0.026513,0.715005,-0.589622,0.776588,-0.221940
-0.029906,-0.038172,0.711431,-0.474351,0.123757,-0.871593
-0.129151,-0.172297,0.731464,0.079368,0.373684,0.924154
-0.162968,-0.223782,0.724662,0.368612,-0.887077,0.277884
-0.167371,-0.238173,0.705695,0.947875,-0.188277,0.257069
-0.059867,-0.113084,0.637646,0.135552,0.765212,-0.629346
-0.154043,-0.240430,0.656666,-0.356750,0.900142,0.249949
-0.105910,-0.190252,0.613852,0.316602,-0.931002,0.181654
-0.091149,-0.181572,0.584962,-0.686402,-0.726069,-0.040939
-0.062509,-0.155772,0.549430,0.952439,-0.223215,0.207447
-0.073854,-0.179315,0.532545,0.041057,0.939133,0.341091
-0.236656,-0.392154,0.581921,0.885345,-0.020430,0.464485
-0.061958,-0.184068,0.482421,0.363073,0.580806,0.728589
0.019663,-0.091797,0.424242,0.386522,0.912875,0.131379
0.160656,0.074195,0.338933,0.251725,0.256372,-0.933225
-0.219583,-0.420218,0.461828,-0.131936,-0.977695,0.163419
-0.200859,-0.406662,0.431284,-0.272950,-0.486155,-0.830152
-0.082668,-0.269089,0.355712,0.011730,0.880913,0.473133
0.461585,0.300235,-0.135998,0.985855,0.167258,-0.010719
0.169577,0.069078,0.858173,-0.763960,0.612912,0.201751
0.148648,0.032936,0.845315,-0.049706,-0.943320,0.328141
0.128600,-0.001551,0.832991,0.445094,-0.840382,0.309274
0.257477,0.149817,0.758513,-0.383412,0.764803,0.517757
0.199209,0.066821,0.760860,0.679246,0.483812,-0.551861
0.202953,0.061588,0.737546,0.913779,0.065880,0.400834
0.191827,0.037574,0.721381,0.987646,0.032021,-0.153393
0.175305,0.007368,0.707163,0.423309,-0.868903,-0.256547
0.164511,-0.016175,0.689690,-0.153037,0.924664,-0.348677
0.053810,-0.163973,0.715139,0.277890,-0.307929,0.909921
0.131353,-0.077413,0.660507,0.951799,-0.289937,0.100073
0.145673,-0.069800,0.632311,0.920243,-0.376440,-0.106984
0.152282,-0.071825,0.607156,0.846255,-0.528077,0.070620
0.168256,-0.061832,0.578747,0.729972,-0.663428,0.164331
0.153274,-0.090252,0.563622,0.938449,-0.340407,-0.058625
0.124304,-0.136743,0.553512,0.990286,-0.037800,-0.133812
0.110535,-0.174678,0.515179,0.066021,0.988687,-0.134683
0.212645,-0.058740,0.447636,-0.778007,-0.581951,-0.236723
0.232253,-0.044951,0.416026,0.765612,-0.639057,0.073786
0.182684,-0.116531,0.415466,0.598389,-0.791767,-0.122619
0.148648,-0.168966,0.408130,0.849365,0.210839,0.483866
0.186321,-0.133056,0.368170,0.851170,-0.160344,0.499800
0.160215,-0.175512,0.357473,0.973469,-0.226760,0.030621
0.131024,-0.222359,0.347123,0.443121,-0.852969,-0.275840
0.186210,-0.197510,0.229564,0.030883,-0.962630,0.269053
0.203505,-0.197865,0.174452,0.756603,-0.635665,0.153236
0.222558,-0.219383,0.068977,0.492718,-0.864573,-0.098707
0.594977,-0.344001,-0.977131,0.348746,-0.461870,-0.815507
0.483395,-0.504760,-0.977238,-0.406867,0.125505,0.904825
0.437793,-0.573365,-0.982413,-0.114244,0.094854,0.988914
0.340749,-0.715458,-0.987535,-0.096070,0.246210,0.964443
0.163738,0.080494,0.901227,0.873324,-0.477268,0.097577
0.172993,0.082758,0.877086,0.935312,0.353420,0.016891
-0.097318,-0.589542,0.616786,0.858269,-0.043311,0.511370
-0.145562,-0.659221,0.616359,0.767052,0.265432,0.584103
-0.036404,-0.534959,0.546176,-0.742520,0.601268,0.295197
-0.082887,-0.602859,0.544015,-0.140991,-0.846839,-0.512821
-0.025939,-0.543406,0.496186,-0.224181,0.121627,-0.966928
0.250869,-0.223194,0.328984,-0.407443,0.899820,-0.155931
0.262103,-0.220457,0.300387,-0.288596,-0.927733,-0.236693
0.267279,-0.225327,0.275526,0.806949,0.572081,0.146819
0.279287,-0.221647,0.246263,0.857109,0.498819,-0.128624
0.294266,-0.214630,0.215666,0.999010,0.041584,0.015829
0.294928,-0.225095,0.191364,-0.619227,0.785200,-0.004339
0.324009,-0.222598,0.107096,0.930447,0.356113,-0.086318
0.307705,-0.254342,0.091171,0.883485,0.452825,0.120012
0.328964,-0.239835,0.056786,0.486455,-0.117929,0.865710
0.330618,-0.249465,0.031364,-0.538289,-0.800310,-0.264100
0.336564,-0.253870,0.003675,0.263046,0.880543,0.394273
0.343835,-0.267544,-0.047835,0.898525,0.279622,0.338326
0.336564,-0.288351,-0.069602,0.982817,-0.180128,-0.040305
0.246021,0.039235,0.899760,0.868268,-0.456761,-0.193597
0.268271,0.057190,0.869563,-0.027675,-0.999289,-0.025623
0.339209,0.135788,0.819547,-0.056085,-0.949589,0.308440
0.345818,0.134003,0.795299,0.794581,0.551652,0.253615
0.333370,0.108674,0.779720,0.377999,0.797273,-0.470610
0.528776,0.342684,0.678700,0.300534,0.898119,-0.321032
0.278184,0.019974,0.760220,-0.401972,-0.899450,0.171487
0.316516,0.057902,0.723542,-0.643044,-0.723407,-0.251349
0.360027,0.101425,0.683795,-0.658306,-0.627499,0.415786
0.368508,0.101664,0.658293,-0.476497,-0.805103,-0.353214
0.374237,0.098333,0.633752,0.202171,-0.974505,0.097295
0.046539,-0.319144,0.749924,0.986266,-0.159123,-0.044266
0.364542,0.076212,0.616252,0.924725,0.238732,-0.296464
0.343506,0.039947,0.603662,0.914216,0.313822,-0.256368
0.324338,0.005583,0.589470,0.958933,-0.282472,0.025636
0.140719,-0.232345,0.646022,0.629064,-0.749779,0.205209
0.266070,-0.087399,0.570317,0.614590,0.278437,-0.738073
0.228837,-0.144000,0.563755,-0.005310,-0.535434,0.844560
0.192708,-0.199411,0.556793,-0.186932,-0.371945,0.909238
0.371043,-0.270040,-0.036551,0.115135,-0.900920,0.418434
0.358373,-0.297030,-0.055544,-0.191963,0.968741,-0.157133
0.386244,-0.274678,-0.094011,0.839378,0.447235,-0.308911
0.642230,-0.313795,-0.977985,-0.415061,0.257376,0.872629
0.527125,-0.477647,-0.973743,0.434787,-0.246084,-0.866258
0.328523,-0.769207,-0.985214,0.061926,0.457935,0.886826
0.303850,0.065275,0.898400,-0.461162,0.887315,0.000937
0.240515,-0.023665,0.903655,0.930470,0.166104,-0.326551
0.357933,0.114147,0.835685,0.407100,0.053027,-0.911843
0.511484,0.287033,0.730370,-0.614500,0.788912,0.002820
0.507299,0.271699,0.710230,-0.657885,0.747130,-0.094783
0.338988,0.051007,0.757686,0.729750,-0.030751,0.683022
0.367406,0.066821,0.703135,0.894895,0.445416,0.027684
0.360357,0.048394,0.684862,0.779234,0.559081,-0.283237
0.378092,0.059803,0.655572,0.783839,0.606635,0.132628
0.382718,0.055644,0.632311,-0.416109,-0.852294,0.316934
0.363883,0.021992,0.618120,0.822177,0.020122,-0.568876
0.360686,0.007724,0.597206,-0.154519,-0.860438,0.485561
0.313433,-0.061236,0.594912,-0.533766,0.801775,0.268796
0.324116,-0.057789,0.568877,-0.780775,0.609964,0.135404
0.290081,-0.110108,0.561861,-0.420390,0.498359,-0.758228
0.185659,-0.250540,0.584002,0.383525,0.021002,0.923291
0.075397,-0.407728,0.587523,-0.399185,-0.589366,0.702353
0.262543,-0.186326,0.483648,0.763105,0.539498,-0.355828
-0.081455,-0.623310,0.611024,-0.290770,-0.780629,0.553237
0.017240,-0.510944,0.546149,-0.734540,0.583253,0.346795
-0.053698,-0.608919,0.555592,0.753117,-0.281353,-0.594689
0.045658,-0.496436,0.489037,-0.550492,-0.610896,-0.569003
0.079253,-0.464924,0.452091,-0.647641,-0.538887,-0.538667
0.335465,-0.213200,0.197526,0.509427,-0.855747,-0.090447
0.711626,-0.223194,-0.940079,0.934954,-0.138823,0.326479
0.666356,-0.304165,-0.974223,-0.320203,0.447149,0.835181
0.316738,0.038996,0.910830,0.443810,-0.893234,0.071877
0.320593,0.024612,0.867696,-0.151327,-0.988281,-0.020029
0.578785,0.329838,0.718900,-0.418658,0.907688,0.028780
0.376331,0.056711,0.760274,-0.692363,0.678611,-0.245195
0.317508,-0.026756,0.762728,0.790115,0.603855,0.105246
0.342514,-0.004875,0.731357,-0.637233,-0.758006,-0.139148
0.378422,0.030316,0.694492,0.977586,-0.204737,0.049081
0.392631,0.038285,0.666322,0.149341,0.985059,0.085768
0.444072,0.092265,0.622628,0.039418,0.081942,0.995857
0.383709,0.007128,0.626576,0.884367,0.458288,-0.088693
0.351987,-0.042099,0.618760,-0.708147,0.472272,-0.524868
0.305944,-0.109636,0.616066,-0.523847,-0.799097,-0.295006
0.376990,-0.030560,0.564155,0.201901,-0.975833,0.083576
0.314754,-0.118316,0.568343,0.821216,-0.420084,0.386178
0.163520,-0.317003,0.610864,-0.637186,-0.141247,-0.757656
0.146006,-0.348871,0.595659,0.827795,-0.530917,0.181334
-0.095116,-0.679193,0.635219,0.992450,-0.118924,0.029995
-0.085532,-0.676812,0.609424,0.686090,0.463024,0.561150
-0.036074,-0.625451,0.565115,0.305872,0.327633,0.893923
0.016137,-0.570752,0.519287,-0.419357,-0.907671,-0.016504
0.021754,-0.574083,0.493918,-0.650262,-0.165223,-0.741526
-0.047641,-0.721286,0.388790,-0.399230,0.691369,0.602183
0.395495,-0.282284,-0.055518,0.660797,-0.744922,0.091856
0.398470,-0.290013,-0.082300,-0.529020,0.838127,0.132973
0.679463,-0.424377,-0.886408,0.989384,-0.141133,0.034637
0.705239,-0.407612,-0.929195,-0.665787,-0.675157,-0.317632
0.672525,-0.472893,-0.968862,-0.195495,-0.249672,0.948391
0.565567,-0.627469,-0.970222,0.216792,-0.060864,-0.974319
0.396816,-0.014629,0.883888,-0.177967,0.984004,-0.008011
0.461475,0.056356,0.836406,0.969184,0.239362,0.058211
0.463458,0.049222,0.814905,-0.493830,-0.869477,0.011920
0.443850,0.014618,0.801301,0.134537,0.858996,-0.493990
0.435151,-0.006065,0.783268,0.949387,0.051680,-0.309828
0.424246,-0.029732,0.766009,-0.365792,-0.834276,-0.412529
0.488353,0.011410,0.654425,-0.609942,-0.750436,0.254593
0.454755,-0.061955,0.601607,0.940444,-0.267210,-0.210151
0.495843,-0.020813,0.562634,0.949317,0.229028,0.215275
0.329404,-0.279076,0.522541,0.301331,-0.925231,0.230538
0.330728,-0.287872,0.499227,0.347925,0.773990,0.529045
-0.010298,-0.721765,0.626443,0.047512,-0.919064,0.391234
-0.078923,-0.826991,0.612785,0.492693,0.379593,-0.783047
0.045436,-0.746019,0.399807,0.631638,-0.614779,-0.472313
-0.009968,-0.824494,0.402501,0.408631,-0.060841,-0.910669
0.947567,-0.291682,-0.959445,-0.138639,0.132097,0.981494
0.881258,-0.384781,-0.952830,-0.013522,-0.088149,0.996016
0.832022,-0.457434,-0.956618,0.448093,0.298776,-0.842582
0.786860,-0.525089,-0.962059,-0.090690,-0.144666,0.985316
0.744561,-0.589542,-0.969288,-0.107941,-0.139895,0.984265
0.382607,-0.417366,0.483648,-0.271340,0.324184,-0.906245
0.330618,-0.492633,0.483355,-0.522239,-0.705462,-0.479155
0.273448,-0.595007,0.441448,0.689170,0.719778,0.083452
0.355509,-0.504637,0.382601,-0.447114,0.861182,0.241776
0.290192,-0.596081,0.388523,0.874621,0.436174,0.211639
0.460594,-0.142926,0.820480,0.733057,0.640534,0.228789
0.447154,-0.190375,0.762114,0.766057,0.635904,-0.093711
0.477889,-0.214274,0.620147,-0.303006,0.321737,-0.897035
0.467092,-0.259219,0.558313,0.782537,0.410699,-0.467933
0.452224,-0.287872,0.543215,0.874227,-0.275483,-0.399795
0.454315,-0.296080,0.519767,-0.036587,0.723776,0.689065
0.228068,-0.597271,0.573785,0.413313,0.556112,0.721049
0.956159,-0.423905,-0.954884,-0.107841,0.359003,0.927085
0.825632,-0.621286,-0.973690,-0.157993,0.289301,0.944110
0.766371,-0.706067,-0.971716,-0.011005,-0.139359,0.990181
0.332490,-0.589302,0.558100,-0.350860,0.836037,-0.421828
0.314314,-0.622237,0.544282,-0.445929,0.672953,-0.590154
0.443632,-0.473960,0.464869,0.515933,-0.826624,-0.224735
0.443961,-0.484664,0.441768,0.762604,-0.642614,0.074048
0.433826,-0.529849,0.378520,0.259658,-0.963911,-0.058760
0.266399,-0.746854,0.430084,-0.614342,-0.389746,-0.686063
0.396927,-0.597503,0.349230,0.868114,0.304302,-0.392147
0.357052,-0.657791,0.343655,-0.013499,0.547238,0.836868
0.511484,-0.250416,0.721461,0.849703,0.286296,0.442763
0.552790,-0.241620,0.617720,-0.404435,-0.268908,0.874140
0.508839,-0.306422,0.614865,-0.269806,0.757864,-0.594010
0.462026,-0.375150,0.612625,0.991527,-0.113388,-0.063382
0.505094,-0.343761,0.549270,0.642120,0.717081,0.271065
0.968278,-0.436743,-0.954457,0.902769,-0.366014,-0.225923
0.922893,-0.505116,-0.960219,-0.250064,0.042973,0.967275
0.870904,-0.580622,-0.961072,-0.167252,-0.510480,0.843467
0.824973,-0.648632,-0.965234,0.065290,0.038032,0.997141
0.783774,-0.711772,-0.972943,-0.041184,-0.202937,0.978325
0.404309,-0.608324,0.400714,0.900247,-0.413569,-0.136074
0.345267,-0.692271,0.403568,0.348772,0.931751,0.100990
0.461364,-0.559931,0.328930,-0.017820,0.988594,0.149546
0.341193,-0.719145,0.360674,0.905018,-0.367153,0.214806
0.246132,-0.847087,0.380174,-0.643830,-0.638229,-0.422075
0.473371,-0.635082,0.135346,0.912876,0.272537,0.303943
0.609408,-0.103569,0.839687,-0.819783,-0.551348,0.154826
0.579888,-0.221524,0.681714,0.966413,-0.255318,0.029289
0.573608,-0.250184,0.640020,0.974924,-0.176191,-0.135944
0.575262,-0.258740,0.617079,-0.206760,-0.479673,0.852739
0.469515,-0.410464,0.619373,0.944323,-0.205296,-0.257114
0.509171,-0.382051,0.558020,0.338186,0.753886,0.563281
0.359036,-0.578837,0.600354,-0.278736,0.935236,-0.218265
0.360138,-0.599405,0.554979,-0.164185,0.986377,-0.010177
0.379853,-0.585260,0.524408,-0.668612,0.694980,0.264501
0.245910,-0.782169,0.517206,0.295179,0.744622,-0.598671
0.924436,-0.549822,-0.971262,-0.140444,-0.086985,0.986260
0.867818,-0.631512,-0.971316,-0.120633,-0.011938,0.992625
0.437131,-0.617127,0.403035,0.251607,-0.201795,0.946558
0.346147,-0.740315,0.421174,-0.709949,0.419692,0.565536
0.488572,-0.574555,0.334612,0.014740,0.065707,0.997730
0.314203,-0.811655,0.367370,-0.073205,0.648893,0.757350
0.487251,-0.619979,0.241087,-0.419246,-0.769613,-0.481590
0.408494,-0.728181,0.253252,0.296670,0.040388,0.954126
0.497604,-0.650896,0.141214,0.012967,0.254103,0.967090
0.603788,-0.244117,0.688223,-0.177503,-0.898490,0.401507
0.618989,-0.235792,0.659787,-0.849996,0.161573,0.501398
0.591122,-0.280861,0.649383,0.895338,-0.320597,-0.309173
0.624058,-0.249705,0.613692,0.823069,0.393188,-0.409830
0.332930,-0.673365,0.606276,-0.000457,0.962496,0.271296
0.367406,-0.641026,0.569784,0.355956,0.703909,0.614661
0.363002,-0.656600,0.549937,0.059247,0.485679,0.872127
0.347469,-0.686450,0.534065,-0.403132,-0.763743,-0.504164
0.380405,-0.655650,0.497546,0.942055,-0.038108,-0.333288
0.341522,-0.714268,0.491838,-0.662438,0.135452,-0.736769
0.363550,-0.697627,0.459080,0.853105,0.485996,-0.189786
0.919589,-0.688228,-0.961659,0.303442,0.041906,-0.951928
0.655451,-0.275984,0.739867,0.999739,-0.008229,-0.021323
0.656991,-0.284308,0.717273,0.843078,-0.507009,-0.179337
0.501571,-0.569801,0.586563,-0.798456,0.277938,0.534058
0.439776,-0.667065,0.569197,-0.705108,0.609867,0.361780
0.419509,-0.702381,0.556312,0.821126,-0.320890,-0.471998
0.332819,-0.820807,0.571811,0.872936,-0.478868,0.093104
0.390869,-0.759453,0.523475,0.912071,0.246128,-0.327944
0.385803,-0.776341,0.502694,0.892282,0.451473,-0.002341
0.562374,-0.568132,0.402048,0.263873,0.245292,-0.932847
0.399791,-0.779549,0.452251,-0.323041,0.945741,-0.034901
0.461475,-0.714152,0.401461,0.049496,0.717187,0.695120
0.299776,-0.934959,0.428483,-0.160209,0.488704,0.857613
0.644876,-0.462667,0.699213,0.820332,0.126331,0.557760
0.543869,-0.640670,0.633111,-0.318601,0.752365,0.576576
0.633309,-0.572059,0.505682,-0.595984,0.788787,-0.150394
0.622293,-0.596197,0.488236,0.672975,-0.735042,-0.082574
0.671751,-0.546019,0.443395,-0.435692,0.849128,0.298587
0.422373,-0.865636,0.530544,0.951019,0.240624,0.194069
0.388775,-0.960288,0.433258,0.509351,-0.754680,-0.413545
0.473811,-0.866827,0.371531,-0.002504,0.654782,0.755814
0.620753,-0.708919,0.257039,0.381588,0.361335,-0.850781
0.638485,-0.732223,0.155219,0.892982,-0.124863,0.432427
0.692461,-0.645184,0.431391,-0.309094,-0.728686,-0.611128
0.594866,-0.820691,0.360301,-0.526102,-0.545630,-0.652307
0.512254,-0.932942,0.375052,-0.115880,0.714240,0.690241
0.700391,-0.713317,0.266109,0.030904,-0.998725,0.039923
0.746985,-0.528775,0.457986,-0.356229,0.667000,0.654379
0.719777,-0.573365,0.447876,-0.647248,0.751113,-0.129995
0.703366,-0.604042,0.432831,-0.490914,-0.749988,0.443308
0.669879,-0.699767,0.331091,-0.075235,0.501135,0.862093
0.498374,-0.922593,0.386203,-0.113671,-0.815704,-0.567192
0.638596,-0.441141,0.692384,0.877597,0.201713,0.434896
0.548165,-0.602496,0.620654,0.765816,-0.618878,-0.174688
0.412457,-0.801901,0.614145,0.023396,0.857878,-0.513321
0.576694,-0.613796,0.496506,0.641493,-0.765022,-0.056822
0.620861,-0.567900,0.453532,-0.252195,0.941719,0.222628
0.422263,-0.828304,0.518913,0.863691,-0.055921,-0.500909
0.550585,-0.685732,0.415332,0.858999,-0.399520,0.320163
0.506418,-0.750896,0.412718,-0.705374,0.708710,-0.013312
0.374126,-0.936745,0.426723,-0.509717,-0.365064,-0.779049
0.441427,-0.862073,0.372145,0.123339,0.541414,0.831660
0.598944,-0.685021,0.251544,-0.178061,-0.319115,0.930838
0.949440,-0.560410,-0.961953,0.508163,0.145214,-0.848930
0.691137,-0.271230,0.745522,-0.096757,-0.723500,0.683510
0.667347,-0.310464,0.733305,0.867615,0.475990,-0.143798
0.515229,-0.583119,0.599207,0.768582,0.627477,0.124715
0.429201,-0.710704,0.591284,0.993858,0.011161,0.110102
0.426447,-0.722832,0.570450,0.408226,-0.233471,-0.882521
0.373574,-0.799405,0.572051,0.107762,-0.993727,-0.029887
0.388997,-0.788708,0.541908,0.892284,0.450773,0.025162
0.583632,-0.549466,0.431631,0.338923,0.939436,0.050908
0.591451,-0.548639,0.404342,0.523397,0.494184,-0.694145
0.427217,-0.775862,0.431684,0.543998,-0.729655,0.414330
0.342074,-0.901786,0.425175,0.442842,0.414029,0.795280
0.920581,-0.579316,-0.955337,0.120654,-0.048559,0.991506
0.682767,-0.287756,0.748616,-0.096757,-0.723500,0.683510
0.525911,-0.573488,0.593391,0.517725,0.723019,0.457389
0.425127,-0.719980,0.592111,0.996391,0.032942,0.078224
0.417086,-0.739001,0.573598,-0.587474,0.185331,0.787735
0.364542,-0.814747,0.574905,0.853154,-0.132058,-0.504667
0.466544,-0.692634,0.505496,-0.423132,0.905620,0.028491
0.454866,-0.716053,0.488263,-0.381637,0.923751,0.032208
0.589471,-0.552202,0.403275,-0.602544,-0.042769,0.796939
0.424246,-0.772654,0.454999,0.523774,-0.845981,-0.099886
0.438015,-0.764090,0.424909,-0.133639,-0.836788,0.530967
0.300216,-0.957196,0.442701,0.252929,-0.321068,-0.912657
0.408272,-0.828304,0.368703,-0.238514,-0.127380,0.962749
0.534396,-0.685137,0.262081,-0.082430,-0.750711,0.655468
0.958583,-0.429138,-0.962753,-0.209148,0.239115,0.948199
0.882579,-0.535677,-0.952136,-0.584327,-0.013046,0.811413
0.846231,-0.592038,-0.962833,-0.005410,-0.244992,0.969510
0.801180,-0.658981,-0.967501,-0.172780,-0.109665,0.978836
0.750068,-0.733653,-0.968862,0.007764,-0.116808,0.993124
0.616676,-0.346142,0.704655,-0.589900,0.744020,0.313770
0.514019,-0.533892,0.592111,0.775303,0.543813,0.321206
0.481301,-0.584665,0.584642,0.930946,-0.281321,-0.232805
0.396046,-0.711176,0.576292,-0.213680,0.094104,-0.972361
0.347361,-0.782401,0.574959,0.906141,0.376743,0.192285
0.358706,-0.775390,0.547429,0.979869,0.194064,-0.046855
0.398581,-0.731628,0.506776,0.659636,-0.269316,0.701676
0.498925,-0.610109,0.437019,0.436102,0.077604,0.896545
0.434599,-0.701074,0.443662,0.290643,0.925330,0.243496
0.373574,-0.788113,0.447850,0.705263,-0.704462,-0.079608
0.571625,-0.540786,0.331971,0.029028,-0.480276,0.876637
0.346147,-0.848632,0.389617,0.158906,0.836304,0.524733
0.657764,-0.269205,0.752778,0.333080,0.623048,-0.707721
0.645978,-0.292509,0.736346,0.992761,-0.054361,-0.107101
0.629124,-0.322120,0.721888,0.825762,-0.475064,-0.304026
0.971582,-0.309281,-0.963286,-0.241083,0.042070,0.969592
0.900314,-0.410232,-0.955390,0.069558,-0.041186,0.996727
0.804924,-0.551135,-0.963206,0.335363,0.095020,-0.937285
0.762405,-0.615226,-0.970596,-0.021818,0.079826,0.996570
0.708432,-0.693940,-0.971529,-0.155186,-0.200383,0.967349
0.553120,-0.426518,0.563728,0.207989,0.730888,0.650033
0.440657,-0.581573,0.591951,0.278424,-0.587727,0.759643
0.385360,-0.661238,0.593472,0.744626,-0.283438,0.604313
0.381175,-0.674084,0.572878,0.360757,0.518886,0.774991
0.339209,-0.736505,0.568610,0.966289,0.247821,-0.069789
0.324889,-0.762545,0.551591,-0.722709,-0.324141,0.610429
0.359254,-0.725328,0.512218,0.305946,-0.203781,0.929984
0.356723,-0.735910,0.490557,-0.755340,-0.198833,-0.624441
0.490004,-0.569090,0.405916,0.286691,0.525335,-0.801144
0.349674,-0.759932,0.446889,-0.661312,0.716126,0.223225
0.459824,-0.623666,0.372278,0.688191,0.557453,-0.464369
0.370710,-0.755890,0.365556,0.499837,-0.405646,-0.765255
0.326432,-0.821286,0.362008,0.050775,0.256778,0.965136
0.587377,-0.330916,0.707590,-0.633129,0.466720,0.617511
0.927190,-0.247092,-0.962860,0.355923,-0.015110,0.934393
0.855922,-0.348276,-0.954590,-0.445935,0.292357,0.845973
0.330947,-0.660287,0.609743,-0.311843,0.917858,0.245542
0.399239,-0.576340,0.555939,0.814243,-0.243447,0.527012
0.379084,-0.609514,0.542468,-0.265973,-0.688162,0.675049
0.374899,-0.621997,0.520621,0.094188,0.645357,-0.758052
0.349452,-0.661949,0.509363,0.970676,0.236056,-0.045440
0.419398,-0.583591,0.428510,0.890903,-0.388278,0.235651
0.439006,-0.564685,0.394926,-0.078421,0.816241,0.572365
0.304952,-0.748755,0.434565,-0.514340,0.613607,0.599117
0.365093,-0.675985,0.382708,0.854145,0.502981,-0.132088
0.435151,-0.611771,0.251998,-0.523312,-0.242373,-0.816946
0.354740,-0.724733,0.265469,-0.601638,0.189872,-0.775874
0.575040,-0.290608,0.660454,0.118033,-0.988992,0.089239
0.621853,-0.234842,0.617373,-0.554636,-0.699402,0.450794
0.649172,-0.556484,-0.965420,0.211664,-0.078683,0.974170
0.568650,-0.256600,0.621694,-0.349160,0.863896,-0.363003
0.536158,-0.305950,0.613692,-0.174216,-0.569863,0.803060
0.460923,-0.412489,0.625002,0.834913,-0.455863,0.308398
0.343946,-0.599768,0.561087,-0.075276,0.917969,0.389445
0.312001,-0.648276,0.552978,0.843959,0.468497,0.261236
0.477667,-0.433413,0.453132,0.755122,-0.630247,-0.180497
0.447265,-0.480383,0.442968,0.719881,-0.688438,-0.088452
0.275542,-0.715219,0.499840,0.339653,0.627172,0.700922
0.420720,-0.528303,0.407516,0.860433,0.179944,-0.476734
0.422152,-0.532701,0.382335,0.076096,-0.995479,-0.056834
0.291842,-0.712846,0.419520,0.378685,0.449207,0.809204
0.351765,-0.639364,0.367396,-0.813734,-0.243209,-0.527908
0.359587,-0.635082,0.339894,-0.324793,0.367448,0.871488
0.574270,-0.231039,0.689210,0.927412,0.371993,0.039081
0.585945,-0.227468,0.637379,0.974813,-0.129003,-0.181929
0.666796,-0.387995,-0.781413,0.793239,-0.608642,0.018078
0.680343,-0.391559,-0.879018,0.996624,-0.078852,0.022891
0.680125,-0.399048,-0.910229,0.611910,-0.780827,0.125998
0.410477,-0.444473,0.570984,0.607575,-0.414919,-0.677271
0.471058,-0.373727,0.495866,0.963418,0.238500,-0.122245
0.278295,-0.639001,0.561248,0.834198,0.515396,0.196165
0.344497,-0.555410,0.506322,0.847457,-0.302776,-0.436054
0.433826,-0.440909,0.440194,0.753940,-0.626922,-0.196324
0.406951,-0.482524,0.429550,0.971088,-0.182733,-0.153614
0.432945,-0.452913,0.393672,0.790879,-0.414019,0.450665
0.383269,-0.525328,0.392391,0.919958,0.370744,0.127385
0.388997,-0.523782,0.366116,-0.529448,0.649772,0.545418
0.310569,-0.634842,0.378733,0.786790,0.530201,0.315989
0.335132,-0.607613,0.341868,0.737603,0.495397,0.458829
0.491765,-0.285970,0.740934,-0.149674,-0.978726,0.140331
0.516220,-0.279555,0.615986,0.270096,-0.536745,0.799346
0.499698,-0.307372,0.599687,-0.685911,0.578869,0.440950
0.621194,-0.386210,-0.769755,0.796437,-0.602378,0.053195
0.621523,-0.392277,-0.800779,0.992019,-0.102846,0.072944
0.640250,-0.373960,-0.841006,0.888254,0.458640,0.025569
0.657542,-0.357318,-0.882139,0.989384,-0.141133,0.034637
0.657102,-0.377530,-0.976037,-0.537355,0.538096,0.649386
0.397700,-0.756485,-0.983613,-0.015192,0.290253,0.956829
0.452442,-0.356244,0.545615,-0.429732,0.634622,0.642328
0.502122,-0.298932,0.474232,0.886392,0.186961,0.423502
0.271797,-0.616177,0.558393,0.778501,-0.302500,0.549936
0.329296,-0.543043,0.508270,0.962254,-0.083414,-0.259056
0.445833,-0.400006,0.380441,0.560966,0.630810,-0.536093
0.338877,-0.571108,0.308363,-0.798676,0.297124,-0.523291
0.599714,-0.082762,0.825735,0.834299,0.276803,-0.476787
0.500798,-0.270512,0.617506,0.158785,-0.292291,0.943055
0.481301,-0.301784,0.603288,-0.681386,0.681455,0.267080
0.489342,-0.295724,0.575679,0.779416,-0.591427,-0.206697
0.587047,-0.374794,-0.727688,0.987638,-0.032691,0.153306
0.594977,-0.369685,-0.762900,0.949275,-0.113676,0.293180
0.600484,-0.367900,-0.796218,0.991035,0.035704,0.128744
0.526903,-0.508092,-0.971556,-0.306386,0.072782,0.949121
0.429752,-0.650773,-0.979959,-0.133215,-0.017610,0.990931
0.370932,-0.736628,-0.977611,0.199098,-0.398403,-0.895341
0.490333,-0.264568,0.599020,-0.508253,0.853419,0.115563
0.435369,-0.343877,0.601207,-0.660918,0.554208,0.506004
0.475354,-0.293823,0.558527,0.864000,0.261723,-0.430122
0.442529,-0.343166,0.549457,0.568389,-0.448547,-0.689739
0.364982,-0.454583,0.561541,0.890351,-0.400020,-0.217393
0.255494,-0.612961,0.566476,0.760076,0.472105,0.446544
0.288871,-0.571819,0.526516,0.747807,-0.663886,0.006330
0.341411,-0.504405,0.478260,0.304837,0.856180,0.417169
0.326651,-0.547449,0.362861,-0.685580,0.123496,0.717446
0.332819,-0.548871,0.310471,0.995884,-0.005290,0.090480
0.486700,-0.247687,0.716766,0.950129,-0.021560,0.311112
0.582419,-0.362783,-0.726648,0.994983,0.057891,0.081599
0.589471,-0.358501,-0.761673,0.935306,0.023607,0.353051
0.581538,-0.374439,-0.788375,0.933480,0.205022,0.294245
0.751059,-0.154103,-0.945707,0.277483,-0.899295,0.338040
0.535606,-0.473960,-0.981426,0.444781,-0.003892,-0.895631
0.378751,-0.702141,-0.984387,0.154477,-0.137219,-0.978421
0.321803,-0.784781,-0.981933,-0.261273,0.422761,0.867761
0.504764,-0.230915,0.715165,0.515313,-0.840211,-0.168814
0.467643,-0.302263,0.615265,-0.280846,0.615489,-0.736409
0.441538,-0.342216,0.603155,0.723517,-0.595913,-0.348441
0.477338,-0.296791,0.563488,0.951462,0.292953,-0.094332
0.430082,-0.373727,0.514272,0.924153,0.382015,-0.002217
0.277966,-0.587045,0.561354,0.477218,-0.400118,0.782412
0.344604,-0.499999,0.505602,0.205372,-0.965170,-0.162077
0.331498,-0.522236,0.487143,0.480282,0.833982,0.271668
0.618330,-0.374439,-0.754177,0.915927,-0.299226,0.267472
0.604232,-0.398577,-0.777518,0.745344,-0.660537,0.090295
0.626371,-0.378365,-0.853250,0.944962,0.296350,0.138648
0.636506,-0.369206,-0.889742,0.990924,0.104123,-0.085019
0.471828,-0.623666,-0.985507,0.243826,-0.086887,-0.965919
0.560280,-0.225095,0.712551,0.143809,-0.965669,0.216339
0.556535,-0.245423,0.620840,0.548681,0.292310,-0.783265
0.524372,-0.293584,0.612571,0.251608,-0.778799,0.574601
0.484605,-0.352325,0.606782,-0.742420,0.555457,0.374540
0.402655,-0.476580,0.573171,-0.579835,0.263611,0.770909
0.407502,-0.477530,0.522968,0.945067,-0.034609,0.325040
0.296579,-0.634008,0.551831,-0.667408,-0.657767,0.349155
0.410255,-0.481813,0.473432,-0.013139,0.932604,0.360662
0.393733,-0.508324,0.456386,0.006465,0.983066,0.183135
0.361238,-0.557196,0.446756,0.841970,-0.471188,0.262810
0.376109,-0.544233,0.391324,-0.625225,0.721838,0.296722
0.369829,-0.556840,0.368997,0.716845,-0.068938,-0.693816
0.312553,-0.639364,0.372518,0.880575,0.473868,0.006156
0.332601,-0.615698,0.337520,0.393270,0.407842,0.824017
0.781902,-0.714268,0.389057,0.776385,0.597551,-0.200398
0.497826,-0.930561,0.381294,0.039546,0.804631,0.592457
0.666685,-0.717599,0.170984,0.850571,-0.144585,0.505593
0.946686,-0.481457,-0.959952,-0.640174,0.605249,0.473129
0.893376,-0.559097,-0.960085,0.095416,-0.025863,0.995101
0.850086,-0.622955,-0.967555,-0.154012,-0.155163,0.975810
0.667455,-0.674795,0.447610,-0.646035,-0.450383,-0.616274
0.664261,-0.465999,0.694945,0.904173,0.180883,0.386979
0.535495,-0.660766,0.636579,-0.436335,0.718952,0.541035
0.568432,-0.628180,0.523928,0.808252,0.547790,-0.215999
0.547943,-0.659816,0.510030,0.507969,0.565904,-0.649400
0.575481,-0.624972,0.472951,-0.169871,0.980828,0.095497
0.630778,-0.551963,0.421281,-0.178956,-0.983706,0.017258
0.603788,-0.592510,0.410050,-0.592939,-0.039140,0.804295
0.464228,-0.792627,0.427176,-0.633548,0.559810,-0.534070
0.345156,-0.963619,0.435659,0.637830,0.440665,0.631654
0.407062,-0.881450,0.380921,0.384400,0.706769,0.593897
0.968936,-0.251846,-0.965741,0.149135,-0.426782,-0.891973
0.902627,-0.347325,-0.959499,0.283590,0.226464,0.931821
0.764610,-0.548994,-0.975877,-0.018208,-0.102446,0.994572
0.654238,-0.708564,-0.976064,0.197074,0.095814,-0.975695
0.597620,-0.358625,0.713885,0.797427,-0.178988,-0.576259
0.385582,-0.704993,0.403808,-0.041075,0.989467,0.138807
0.480202,-0.576819,0.331891,-0.041572,0.783174,0.620411
0.386351,-0.710225,0.352351,0.724339,-0.641523,-0.252550
0.310899,-0.817955,0.363982,-0.149780,-0.326944,-0.933099
0.437793,-0.648160,0.251198,0.286418,0.291760,0.912601
0.359806,-0.759453,0.264002,-0.387891,0.083261,-0.917937
0.576032,-0.600950,-0.977585,-0.058604,0.043895,0.997316
0.397038,-0.664453,0.593791,-0.510429,0.731357,-0.452303
0.413341,-0.644713,0.562555,0.761291,0.646615,0.048222
0.368949,-0.709514,0.559007,-0.694832,0.666243,0.270794
0.291842,-0.819624,0.571171,-0.151604,0.824197,0.545634
0.368287,-0.716409,0.509737,0.305946,-0.203781,0.929984
0.345596,-0.750773,0.496692,0.975272,0.030460,-0.218897
0.362229,-0.731395,0.464842,0.940191,0.329958,-0.084671
0.364982,-0.730561,0.438247,-0.348838,0.891338,0.289531
0.599052,-0.267188,0.687423,-0.569751,-0.750350,0.335199
0.609516,-0.255772,0.658800,-0.849996,0.161573,0.501398
0.587928,-0.288946,0.645675,0.906870,-0.278934,-0.315884
0.529438,-0.386566,0.553111,0.155383,0.349845,0.923831
0.316738,-0.685021,0.628683,-0.150384,0.078176,0.985532
0.351435,-0.639952,0.588910,0.392668,-0.914276,-0.099561
0.386022,-0.595007,0.549270,-0.557324,0.549233,-0.622682
0.357163,-0.638290,0.538307,-0.069409,-0.685643,0.724621
0.443410,-0.521880,0.473378,-0.322101,-0.804788,-0.498565
0.385803,-0.605356,0.476152,0.949842,-0.289189,0.119038
0.256264,-0.788468,0.513658,-0.083269,0.995512,0.044961
0.431735,-0.551723,0.379133,0.313957,0.904831,-0.287597
0.338436,-0.684186,0.400261,0.544062,0.817819,0.187535
0.404967,-0.595486,0.342214,0.507038,0.700571,0.502109
0.359476,-0.661833,0.339920,-0.035258,0.414890,0.909188
0.421711,-0.582284,0.257733,0.747193,0.468676,0.471216
0.573497,-0.253631,0.692865,0.329471,-0.631203,0.702162
0.564135,-0.269917,0.673205,0.669632,-0.723809,0.166410
0.573386,-0.261361,0.645222,0.868971,-0.387664,-0.307580
0.568210,-0.271826,0.623508,-0.811932,-0.076416,0.578729
0.558737,-0.288351,0.604835,0.475172,-0.763398,-0.437534
0.483395,-0.395957,0.616519,0.986225,-0.164078,-0.020931
0.361678,-0.581929,0.552791,-0.386905,0.905572,-0.173910
0.326873,-0.633652,0.545696,0.093896,0.550343,0.829642
0.498707,-0.399767,0.440194,0.837511,-0.522492,0.159931
0.439995,-0.484548,0.443128,0.762604,-0.642614,0.074048
0.251639,-0.748632,0.509630,0.921404,-0.290425,0.258200
0.424246,-0.513440,0.401461,0.496983,0.528202,-0.688484
0.628132,-0.391319,-0.784374,0.711038,-0.701711,0.045014
0.642674,-0.384781,-0.886594,0.989384,-0.141133,0.034637
0.611499,-0.441860,-0.963767,-0.112134,-0.341835,-0.933046
0.363772,-0.803215,-0.979052,0.002016,0.484001,0.875065
0.405408,-0.543167,0.385242,0.344463,-0.908074,-0.238215
0.277855,-0.723188,0.422108,-0.736429,-0.286400,-0.612901
0.336786,-0.645068,0.368943,0.999187,-0.037317,-0.015289
0.345929,-0.636149,0.340054,-0.192078,0.485803,0.852702
-0.860658,-0.024855,0.556926,-0.249008,-0.944742,-0.213209
-0.807345,-0.026285,0.539800,-0.487489,-0.841340,-0.233456
-0.763285,0.073483,0.507870,-0.530456,-0.816844,0.226676
-0.745442,0.083941,0.539507,-0.785402,0.328196,0.524816
-0.442529,0.516760,0.693691,-0.148242,-0.288559,0.945917
-0.723411,-0.013439,0.519394,-0.269321,0.270349,0.924325
-0.697634,0.022231,0.534012,0.546128,-0.642427,-0.537617
-0.667895,0.075145,0.534492,-0.484393,0.525887,0.699147
-0.634078,0.138641,0.529157,-0.505687,0.795062,-0.334898
-0.304508,0.614743,0.691184,-0.488180,-0.104399,0.866476
-0.652036,-0.026640,0.488637,-0.031280,-0.997271,0.066876
-0.619651,0.032457,0.486796,-0.486807,0.569673,-0.662187
-0.567880,0.105227,0.515205,0.456578,0.836444,0.303147
-0.539569,0.151123,0.520941,0.667351,0.687592,0.286112
-0.305611,0.497144,0.624255,-0.011611,-0.735386,0.677549
-0.285015,0.520092,0.644875,-0.256742,0.964465,-0.062383
-0.562703,-0.054465,0.468123,-0.477582,-0.848102,-0.229430
-0.535606,-0.013679,0.479540,0.522145,0.734504,0.433437
-0.482181,0.067060,0.500907,-0.763034,-0.645588,-0.031546
-0.454865,0.109981,0.508910,0.180265,-0.913201,0.365469
-0.260230,0.419852,0.563595,-0.069489,-0.902037,0.426028
-0.249214,0.409154,0.609050,0.373648,0.366790,0.851969
-0.216500,0.470385,0.604168,0.197596,0.828770,-0.523543
-0.225973,0.395242,0.692118,-0.882621,-0.220188,-0.415329
-0.200637,0.431384,0.705029,-0.116750,-0.975813,0.184819
-0.096215,0.677643,0.614759,0.852638,0.428712,0.298688
