0.571827,0.144993,-0.229205,-0.236880,-0.952685,0.190469
-0.637875,0.093110,0.596769,-0.379440,-0.252083,0.890213
-0.307499,0.270682,0.899697,0.822269,0.515258,-0.241626
-0.294179,0.366671,0.503961,0.422279,0.863038,-0.277212
0.029434,-0.092183,-0.984312,-0.054885,0.304346,0.950979
-0.041306,-0.499646,0.640319,-0.386316,0.330992,0.860932
-0.754305,0.263717,0.554132,0.825502,-0.525714,0.205358
0.236895,-0.533637,0.204606,-0.710209,-0.320283,0.626915
-0.123226,0.464894,0.885426,0.032128,0.110801,0.993323
-0.169883,0.212976,0.905231,0.790019,-0.288918,-0.540737
0.374305,-0.270463,-0.186898,0.857692,-0.069734,0.509413
-0.327029,-0.260783,0.921928,-0.602367,0.393789,0.694323
-0.251803,0.196770,0.897989,0.530397,0.600691,-0.598205
-0.250699,-0.118291,0.972371,-0.344560,-0.842954,0.413168
0.472032,-0.802740,0.085896,-0.766058,-0.300482,-0.568213
-0.419786,0.382389,0.741146,0.429038,0.648783,-0.628496
0.341385,-0.299833,-0.968507,-0.187412,-0.054513,0.980768
-0.242969,-0.157504,0.673986,0.931494,-0.335107,0.141498
-0.219572,-0.142327,0.677967,0.850430,-0.520952,0.073330
0.029297,-0.300049,-0.172356,-0.008633,-0.985962,0.166745
-0.224612,-0.461741,0.470002,-0.441156,-0.237597,-0.865407
0.268436,-0.431391,0.357118,0.995987,-0.047703,-0.075727
-0.367060,-0.092837,0.876223,0.548396,0.713211,-0.436568
0.019634,-0.263448,-0.667599,0.664768,-0.746960,-0.011572
0.750786,0.180183,-0.239826,-0.130798,0.970796,-0.201115
-0.115912,0.123131,0.875097,0.909323,0.276224,0.311179
0.672453,-0.531463,0.084246,-0.350065,0.875503,-0.333089
-0.187480,0.170828,0.434685,0.833791,0.507853,0.216514
0.179750,0.641324,0.746835,-0.542276,0.483422,0.687197
0.094033,-0.036493,0.573082,0.908759,0.365875,-0.200732
-0.620000,-0.611466,0.442179,0.574750,-0.805253,0.145708
-0.448843,-0.057976,0.737011,-0.510731,-0.247064,0.823476
-0.480107,0.005548,0.861487,0.787742,0.593730,-0.164158
-0.749612,-0.637842,0.494583,0.175174,0.448305,0.876548
-0.042341,-0.262197,-0.777105,-0.053432,0.997667,-0.042485
0.023499,0.078916,0.857409,-0.401573,0.856231,0.324974
-0.077676,0.372546,0.895329,-0.593220,0.002775,-0.805036
-0.388867,-0.663133,0.569315,-0.002150,0.944393,0.328813
-0.604680,0.155980,0.015416,0.191097,0.026372,0.981217
-0.257877,0.404091,-0.066189,0.676873,0.326038,0.659956
-0.018669,-0.673629,0.339702,-0.366008,-0.194772,0.910001
-0.735878,-0.369718,0.533648,-0.237688,0.544406,0.804441
0.150557,-0.041442,-0.053627,0.953364,0.299053,-0.040798
-0.652094,-0.262904,0.638378,0.294106,0.666716,-0.684829
0.182236,-0.117475,-0.241496,-0.088829,0.370664,0.924509
-0.149453,-0.283136,0.455324,0.980831,-0.144049,0.131230
-0.075054,0.534779,0.754485,-0.704126,-0.607722,0.367261
0.340212,-0.635993,-0.221886,0.718429,0.399168,0.569671
-0.068497,-0.680208,-0.977264,-0.035177,-0.093389,0.995008
-0.040546,0.130201,0.572752,0.063949,-0.583325,0.809718
-0.229235,-0.473432,0.442237,0.406640,0.328000,0.852678
0.076021,-0.134716,-0.406881,-0.767356,0.299290,-0.567090
-0.551951,-0.297221,0.592012,-0.506147,0.862306,0.015604
-0.680045,-0.220375,0.640339,-0.081472,-0.332341,0.939634
0.518893,0.690217,0.773008,-0.534812,0.114743,0.837144
-0.394735,-0.007341,0.617059,-0.521334,0.311051,0.794643
-0.079540,0.536737,0.702528,0.956764,0.179349,-0.228991
-0.412677,-0.079294,0.613195,-0.042389,0.333921,0.941648
-0.154008,-0.164030,0.491049,0.975622,-0.143083,-0.166399
-0.382586,-0.136074,0.879679,0.881517,-0.116182,0.457635
-0.341661,0.221952,0.786133,0.297704,0.813034,0.500347
-0.707721,-0.233045,0.626398,-0.547541,-0.072222,-0.833656
-0.417785,-0.137707,0.831198,0.678397,0.606113,-0.415217
-0.284655,-0.749605,0.305801,0.987207,0.146343,-0.063291
0.286932,-0.682057,0.218430,-0.490106,0.130086,0.861901
0.257117,-0.592920,0.048695,0.360721,0.564577,0.742384
-0.215707,-0.152283,0.488273,-0.497961,0.042373,-0.866163
0.242003,-0.838418,0.065063,-0.620775,0.181585,0.762670
0.173124,0.114427,-0.093798,0.528400,-0.646906,-0.549824
-0.121295,0.115679,0.422822,-0.450547,-0.875193,0.176197
-0.398048,0.344264,0.741748,-0.324005,-0.433379,0.840954
-0.587356,0.015716,0.729672,0.219704,0.827646,0.516461
-0.105215,0.141514,0.584964,0.832374,0.208746,0.513399
-0.432486,-0.110079,0.798132,0.867836,0.167108,0.467906
-0.697851,-0.265513,0.323858,0.782150,0.364337,0.505469
-0.061804,-0.508894,0.541570,0.958226,-0.061242,-0.279377
-0.032541,-0.214012,-0.061510,0.775352,-0.621936,-0.109662
-0.243382,-0.221680,-0.995321,0.276819,-0.155199,-0.948306
-0.472445,-0.022733,0.898008,0.968223,-0.002265,-0.250079
-0.140137,-0.720454,0.090110,0.679768,-0.010795,0.733347
-0.305498,-0.216076,0.811393,0.397400,0.910533,0.114034
-0.184651,0.187416,0.780173,0.794764,0.167469,-0.583356
-0.045793,-0.314515,-0.560888,0.914677,0.402752,0.034014
-0.439319,-0.130908,0.827625,0.481641,0.646483,0.591677
0.354153,-0.642084,-0.212508,0.122340,0.819294,0.560170
-0.497637,-0.396749,0.748660,-0.668618,0.687470,0.283434
-0.170296,-0.012509,0.730021,0.907658,0.048517,-0.416898
0.590945,0.131831,-0.200703,0.184032,0.910395,-0.370558
-0.609166,-0.140917,0.555782,0.785122,0.175985,-0.593812
-0.169674,0.195572,0.813917,0.860678,0.170550,0.479736
-0.123296,0.118344,0.411172,0.536676,-0.311949,0.784007
0.186100,-0.375155,-0.967847,0.072140,-0.155304,0.985229
-0.068361,-0.475065,0.549492,-0.691043,-0.434888,0.577349
-0.177819,-0.304783,0.527008,-0.452019,-0.382399,-0.805884
0.046827,-0.334366,0.022076,0.737915,0.589331,-0.328894
-0.121777,0.525262,0.878709,0.394942,0.745823,0.536441
-0.182994,0.317071,-0.411949,0.172266,0.145816,0.974198
0.315987,-0.599393,-0.226215,0.115676,0.041381,0.992425
-0.142896,0.219937,0.911988,0.577970,0.226681,0.783943
0.056557,-0.783979,0.299860,0.311966,0.078916,0.946810
-0.060285,-0.144887,0.347060,-0.788185,0.615431,0.003041
-0.350979,0.227442,0.806229,-0.638193,0.752649,-0.161954
-0.886194,0.075759,-0.403813,0.030495,-0.866764,0.497785
-0.297629,-0.093110,0.298074,-0.641217,-0.721025,0.262611
-0.064496,-0.252408,-0.342905,-0.618507,-0.538619,-0.572136
-0.443044,-0.093979,0.744603,-0.104510,-0.078018,0.991459
0.468580,-0.792735,0.081567,-0.759123,0.431769,-0.487142
-0.200663,-0.199054,0.615874,-0.715379,-0.516370,0.470739
-0.326063,-0.656006,0.652765,0.906202,-0.092178,0.412676
0.138617,0.078424,0.877951,0.789014,-0.310671,-0.530038
-0.095897,0.058139,-0.381504,-0.444636,0.052240,-0.894187
0.650161,-0.542122,0.066985,0.823377,0.546481,-0.153001
0.075814,-0.282157,-0.157696,0.249349,0.822929,-0.510502
-0.761896,-0.388101,0.554676,0.769866,0.577151,-0.272401
-0.402256,-0.276936,0.913094,0.677759,0.049906,0.733589
-0.441941,0.448579,0.899988,0.766696,0.512479,0.386708
-0.405363,0.043835,0.800695,-0.335113,0.227893,-0.914201
-0.522551,-0.110351,0.835877,-0.295666,-0.677090,0.673892
-0.291555,-0.263176,0.934898,-0.891007,0.453650,0.017533
-0.811380,0.072768,0.600711,-0.656716,0.393047,0.643613
0.169123,-0.326482,0.306132,0.685787,0.645678,-0.335850
0.319439,-0.616033,0.202761,0.376547,0.457098,-0.805775
0.128195,-0.713383,-0.231128,0.074419,-0.236602,0.968752
-0.314055,0.083483,0.613486,0.117950,0.605665,-0.786929
0.370303,-0.654592,-0.228312,0.778769,0.617023,-0.113141
0.459471,0.815739,0.785434,-0.448004,0.847371,0.285052
0.225370,-0.859085,0.075916,-0.691669,0.083447,0.717378
-0.490252,-0.059988,0.732060,-0.289533,0.094158,0.952526
-0.776115,0.334801,0.502155,0.650527,0.602062,-0.462965
-0.424826,0.519224,0.835100,0.366810,0.384195,0.847257
-0.301564,-0.321313,0.833819,-0.541552,0.730175,-0.416613
-0.263536,-0.465113,0.600303,0.881956,-0.467546,-0.059622
-0.755960,-0.111818,0.827703,-0.705001,-0.379629,-0.599045
0.165810,-0.590852,-0.970429,0.258382,-0.133222,-0.956813
-0.399151,-0.021157,0.753670,-0.715549,-0.153258,0.681544
-0.897650,0.060423,0.591838,0.388822,0.437950,-0.810566
-0.077539,0.146842,0.415657,-0.463616,0.343259,-0.816844
-0.763138,0.153096,0.454741,-0.319918,0.802419,-0.503762
-0.207564,-0.132322,-0.993263,-0.123331,0.170754,0.977565
0.645398,-0.572090,0.065704,0.932581,-0.241087,-0.268643
-0.268644,-0.701583,-0.977769,-0.119360,0.145015,0.982204
-0.228062,-0.390385,-0.989554,-0.187329,0.091915,0.977988
-0.462577,-0.078481,0.815801,0.898682,0.409244,0.157766
0.039097,-0.298635,-0.631854,-0.837903,0.507383,0.201200
-0.046275,-0.264862,-0.372476,0.336182,0.891214,-0.304498
-0.393905,0.745254,0.819276,0.869509,0.369309,-0.327972
-0.598605,0.213248,0.378747,0.714883,0.139526,0.685183
0.012458,-0.023875,0.744195,0.342360,0.857213,-0.384677
-0.005902,-0.235220,-0.405871,-0.366829,0.926934,-0.078936
-0.288311,-0.486215,0.642999,0.994029,0.069518,-0.084107
-0.519101,0.161202,0.018853,0.329964,0.050192,0.942658
-0.056351,0.037797,0.405386,-0.098415,-0.521819,0.847360
-0.334483,0.714147,0.847779,0.210048,-0.723690,0.657383
0.505918,-0.743514,0.068907,0.272161,-0.639645,0.718876
-0.247456,0.263989,0.461751,0.757191,-0.649250,-0.071666
0.158425,-0.049057,0.860652,-0.437014,0.775074,-0.456376
-0.311916,0.386793,0.872010,0.879263,-0.343968,0.329517
-0.653128,0.136293,0.438024,-0.237574,-0.837172,0.492647
-0.371959,0.566868,0.740952,0.164811,-0.735246,0.657458
0.357811,0.103171,0.110865,0.187518,-0.941069,0.281472
0.000034,-0.286290,-0.326732,-0.750703,0.648812,-0.124452
-0.696402,-0.061621,0.800035,0.978209,0.162942,-0.128672
-0.578384,-0.244683,0.576654,0.276319,-0.796665,0.537562
-0.438213,-0.112362,0.799880,0.844748,0.427296,0.322209
-0.526070,-0.252624,0.603507,0.984477,-0.017804,0.174607
0.273404,0.840323,0.799608,0.763324,0.554298,0.331800
0.042547,-0.332082,0.139329,0.582295,0.721144,0.375345
-0.451602,-0.385326,0.627582,-0.550455,0.716511,-0.428498
-0.175127,-0.137435,0.443461,0.962777,0.255296,-0.088793
0.519653,-0.654539,-0.238370,-0.466903,-0.014493,-0.884190
-0.035578,-0.258934,-0.718391,-0.358300,0.933267,0.025162
-0.140550,-0.059716,0.502078,0.410084,-0.672048,0.616589
-0.273061,-0.500519,0.602788,0.747281,-0.573252,-0.336085
0.232272,0.103061,0.848361,-0.608036,0.752603,-0.252749
0.318196,0.064990,-0.971886,0.149660,0.235787,0.960212
-0.338003,0.471095,0.909036,-0.149532,0.229980,0.961639
0.064150,-0.351335,-0.010931,0.993709,0.100525,0.049369
-0.066635,-0.310492,-0.784211,0.523113,-0.838570,-0.152165
-0.192933,-0.163595,0.319024,0.345341,0.754853,-0.557616
0.135306,0.129222,0.454936,0.710726,0.534300,-0.457594
-0.730909,0.065047,0.617894,-0.355075,0.904069,0.237867
-0.169192,0.199542,0.463867,0.984964,0.103678,0.138191
-0.072017,0.686462,0.836731,0.315797,0.948820,0.003746
0.065875,0.090663,0.623738,-0.114821,-0.967331,0.226022
-0.664240,-0.108990,0.782386,-0.827667,0.461704,-0.319056
-0.092171,0.096047,0.881446,0.759756,0.413650,0.501662
-0.115429,-0.124708,0.701402,0.073206,-0.996374,-0.043365
-0.374513,-0.188176,0.359759,0.793371,-0.143853,0.591498
0.538632,-0.794259,0.070577,0.417285,0.084116,-0.904875
0.257877,0.032469,-0.264659,0.208865,0.616521,0.759129
0.419786,-0.667648,-0.215808,0.821301,0.445907,0.355852
-0.430483,0.377223,0.879971,-0.633057,-0.753979,0.175372
-0.416751,-0.549083,0.538696,-0.649097,0.665714,0.368100
-0.468925,0.801436,0.782231,0.826576,-0.475875,0.300525
-0.192381,-0.308314,0.286269,-0.034232,-0.926757,-0.374098
-0.931467,0.378800,0.467187,0.584343,-0.105903,0.804567
0.038061,0.901179,0.791356,0.070046,0.471849,0.878893
-0.123987,-0.584000,0.310539,0.285437,-0.241273,0.927531
0.255185,-0.140100,-0.968061,-0.001954,-0.059301,0.998238
-0.020876,0.228584,0.428549,0.158460,-0.469883,0.868389
-0.246007,-0.246589,0.839547,0.767009,0.514927,-0.382814
-0.277684,-0.397236,0.589236,0.875369,0.291288,0.385851
-0.178301,-0.160983,-0.023396,0.515640,-0.174015,0.838948
-0.094102,0.775441,0.889815,0.670787,0.668928,-0.320280
0.512060,-0.783653,0.134630,0.076212,-0.970570,-0.228442
-0.037787,0.779790,0.832887,-0.511088,0.192645,-0.837662
0.035026,-0.642576,-0.971420,-0.087181,0.093643,0.991781
-0.629800,-0.284822,0.314442,-0.581921,0.464017,-0.667874
0.187274,-0.075596,-0.054986,0.610888,0.776279,-0.155583
-0.176161,0.238320,0.853312,0.970486,-0.222980,0.091854
-0.112323,0.215369,0.649852,0.769956,-0.519358,-0.370722
-0.135306,-0.408606,0.359817,0.155446,0.987010,0.040585
-0.027433,-0.119051,-0.718779,0.986098,0.026604,-0.164023
-0.152008,0.289715,0.532580,0.818425,0.493498,-0.294347
-0.088995,0.116386,0.423171,0.765692,0.403047,0.501267
0.905380,-0.648830,-0.234506,-0.122799,-0.283904,0.950957
0.893094,0.210964,-0.262426,0.065475,0.800996,0.595079
-0.027503,0.966118,0.817587,0.947428,-0.318354,-0.032108
-0.525242,-0.069126,0.734021,0.347420,-0.406775,-0.844887
0.133993,-0.367706,0.161386,0.720284,-0.397227,-0.568684
0.234619,-0.014631,0.230079,0.144818,-0.973987,-0.174290
-0.169883,-0.198509,0.487108,0.957832,0.177308,-0.226098
0.151593,0.465545,0.866166,0.978827,0.172822,-0.109682
-0.376584,0.287322,0.871622,0.943185,-0.001482,-0.332266
0.018669,0.074291,0.604691,0.075408,-0.956304,0.282483
-0.708961,-0.581444,0.467983,0.779150,0.519333,0.351024
-0.275683,-0.086965,0.209518,-0.526487,-0.827130,0.196642
-0.329584,-0.305161,0.699363,-0.830079,-0.133869,-0.541339
-0.233170,-0.140425,0.143018,0.135752,0.960350,0.243513
-0.330273,0.715342,0.816131,-0.137509,-0.787244,0.601114
-0.186928,0.298688,0.818131,0.670992,0.541330,0.506686
-0.415715,-0.323162,0.329606,0.751541,-0.553915,0.358281
-0.152284,-0.168870,-0.024115,0.522703,-0.097572,0.846913
-0.215570,-0.099310,0.739069,0.529868,-0.771189,0.352856
-0.057663,-0.299505,-0.338983,0.564285,0.487257,0.666456
0.362228,0.752434,0.779784,0.432236,-0.553457,-0.711939
-0.503848,-0.541036,0.617214,0.840075,0.272518,-0.469051
-0.708340,0.090335,0.581411,-0.206413,-0.871045,0.445729
-0.340212,-0.190297,0.830363,-0.481475,-0.869663,-0.108939
-0.528692,0.105508,0.911580,0.331220,0.888961,-0.316294
0.420062,0.218958,-0.229011,-0.027863,0.601512,0.798378
-0.168088,0.293686,-0.050248,-0.433671,0.549114,0.714425
-0.678594,-0.338283,0.534444,-0.038320,-0.840916,0.539807
-0.461472,-0.220319,0.870010,0.406780,-0.860147,-0.307696
-0.828704,-0.254419,0.361448,0.042368,0.884407,0.464789
0.799510,0.136183,-0.243030,-0.519709,0.344926,-0.781619
-0.334138,-0.694894,0.442432,0.344557,0.469625,-0.812855
-0.276095,0.332517,0.915871,0.743928,0.547203,-0.383588
-0.026881,0.326100,0.739399,0.854717,0.504888,-0.120613
0.272507,0.770817,0.786793,-0.785533,-0.592585,0.178269
-0.593982,-0.015719,0.415909,-0.618179,-0.735252,-0.277956
0.075330,0.019958,0.893775,-0.320187,0.026069,-0.946996
-0.235240,0.609398,0.739496,0.225031,-0.080565,0.971015
0.036751,-0.306847,-0.845701,0.062021,-0.985547,0.157640
-0.220747,0.221245,0.483963,0.732895,0.677066,-0.066675
-0.720212,0.057920,0.731244,0.342774,-0.514844,-0.785775
0.020946,-0.780716,0.311219,0.702726,0.650693,0.287706
-0.302046,-0.176591,0.835586,-0.536376,-0.764663,0.357199
-0.040546,0.050199,0.848167,0.494193,-0.052114,0.867789
-0.282239,-0.446567,0.651930,0.423390,0.669208,-0.610656
-0.167467,-0.390332,0.856341,0.698303,-0.468483,0.541200
0.016114,-0.367544,0.167463,0.645096,0.538808,0.541791
0.066290,-0.071789,0.747127,-0.180764,-0.769426,0.612624
-0.232893,0.755644,0.841022,0.374650,0.844148,0.383473
0.596053,0.131453,-0.247282,-0.327323,-0.938746,0.107775
-0.626832,-0.091968,0.772736,0.693437,-0.486636,0.531348
-0.672798,-0.167074,0.564403,0.771561,0.325858,-0.546360
-0.290382,-0.289553,0.930491,0.965581,-0.253886,0.056533
-0.148764,-0.460599,0.456605,0.279027,0.097518,0.955319
-0.387557,-0.177680,0.944373,0.782423,0.078514,0.617779
-0.775424,-0.031872,0.489302,0.792430,0.565531,-0.228538
-0.134200,-0.398813,0.837935,0.884659,-0.447026,0.132464
-0.156631,0.558331,0.741962,-0.385835,-0.393718,0.834336
0.244901,-0.238974,0.343216,-0.196194,-0.543143,0.816397
0.684392,0.057322,-0.264601,0.430402,0.696789,0.573794
-0.115360,-0.248219,0.355798,-0.705824,-0.674025,-0.217949
0.544152,-0.511665,0.112846,-0.149635,-0.739318,0.656520
0.010179,-0.799696,0.320150,-0.278418,-0.687457,0.670736
-0.333449,0.769184,0.771513,0.893989,0.430812,0.123228
0.437867,-0.789144,0.067179,0.865204,0.437748,0.244537
-0.300736,0.223366,-0.040735,-0.506051,-0.387489,-0.770562
0.338554,0.599662,0.761572,-0.413316,0.563443,-0.715333
-0.641534,-0.005004,0.807821,-0.196513,0.979269,-0.049134
-0.365817,-0.374993,0.897833,0.821382,0.566876,0.063120
-0.026536,-0.191330,0.305122,0.968606,-0.183362,0.167869
-0.806273,-0.124927,0.492680,0.841971,0.271050,-0.466494
0.015769,-0.443138,-0.970294,0.309407,0.085639,-0.947066
-0.130819,0.533202,0.836401,0.530904,0.776456,0.339494
-0.094378,0.544897,0.759902,0.476407,0.795314,-0.374850
-0.169538,-0.156090,0.592692,0.879119,-0.256967,0.401394
-0.169883,0.132973,-0.038055,-0.670771,-0.205837,-0.712529
-0.082716,-0.539675,0.293997,0.932417,-0.114825,0.342658
0.374029,0.262904,-0.279959,0.689737,-0.582643,-0.429872
-0.272646,-0.020885,0.525338,0.288831,0.788511,0.542979
-0.525242,0.237015,0.750408,-0.268082,0.723181,0.636507
-0.450707,-0.003318,0.906182,0.771585,0.359850,-0.524562
-0.450774,-0.476858,0.615913,0.058218,-0.802560,0.593723
0.103144,0.211399,0.478196,-0.238766,-0.880814,0.408850
0.008248,-0.240116,-0.210624,-0.535723,0.807226,0.247764
-0.043446,-0.333061,0.274969,-0.645159,0.613884,-0.454880
-0.300251,0.332138,0.846866,-0.125986,-0.599387,0.790482
-0.065462,0.360689,-0.420880,-0.102562,-0.005119,-0.994713
-0.179337,-0.208571,0.913055,-0.358333,0.900511,0.246326
-0.272991,-0.003427,0.623699,-0.237764,0.437357,-0.867287
0.889920,0.196007,-0.263611,0.066034,0.597967,0.798796
0.419925,-0.589275,0.232293,0.754428,0.241869,-0.610195
0.555746,-0.587970,-0.129485,0.843130,0.321987,-0.430647
0.213567,-0.697775,-0.239360,-0.049531,-0.116716,0.991930
-0.070361,-0.589112,-0.972313,-0.103686,-0.061936,0.992680
-0.496670,-0.268126,0.525435,0.159254,-0.897129,0.412064
0.353393,-0.535758,0.041706,-0.215879,0.157529,0.963629
0.226267,0.721868,0.775493,0.946866,-0.318772,-0.042776
-0.411989,-0.050252,0.523843,0.695824,0.385393,-0.606054
-0.716899,0.073966,0.729885,-0.314489,0.467218,0.826319
-0.517030,0.028934,0.853643,-0.639823,-0.570076,0.515403
0.128956,-0.006800,-0.975614,0.331268,-0.349427,-0.876449
-0.614686,-0.668408,0.546249,0.823569,-0.169104,-0.541421
-0.219296,-0.515310,0.644649,0.250298,-0.718154,-0.649312
0.113014,0.834013,0.808403,0.058378,-0.264526,0.962610
0.244488,-0.372437,-0.123097,0.325964,0.937033,0.125365
-0.887435,0.123566,0.467731,-0.387385,0.896965,-0.213041
-0.426964,-0.116930,0.862438,0.029028,0.124836,0.991753
0.009006,-0.657749,0.301569,0.598872,0.227521,0.767846
-0.216674,0.048459,0.627893,0.900892,-0.346217,-0.261777
0.419165,-0.771959,0.083353,0.909961,-0.046589,0.412068
-0.185342,0.245228,0.426219,0.297738,0.179372,-0.937645
0.137652,-0.031437,0.863098,-0.692465,-0.661323,0.288346
-0.072847,-0.299289,-0.674608,0.695148,-0.716851,0.053794
-0.087615,0.109587,0.561160,0.738276,-0.558139,0.378720
-0.361331,-0.058249,0.921540,0.981760,-0.188425,-0.025347
-0.413229,0.174526,0.633310,0.164220,-0.793627,0.585822
-0.925671,0.232176,0.464449,0.842348,0.113970,0.526745
-0.028539,0.176266,0.936782,0.977860,0.008271,0.209094
0.426482,0.723119,0.756524,0.031513,0.989744,0.139333
0.309224,-0.046773,0.034114,-0.076535,0.937572,0.339267
0.305911,0.072605,0.821004,-0.320459,0.140287,0.936817
-0.211705,0.583944,0.750194,-0.178847,-0.611452,0.770805
0.163809,0.277045,0.610302,-0.684541,0.635708,-0.356761
-0.371822,-0.359112,0.892766,-0.506309,-0.597677,0.621638
-0.177956,-0.182194,0.558345,-0.385015,0.921261,0.055155
-0.040201,-0.218360,0.123660,0.912444,0.063465,0.404249
-0.343871,-0.284059,0.880009,0.872078,-0.130941,0.471523
-0.600124,0.063414,0.456275,0.915863,-0.276055,0.291528
-0.206046,0.399032,-0.055996,0.678725,0.388382,0.623291
-0.687429,-0.022733,0.777610,0.650515,0.677189,0.343868
-0.274164,0.078750,0.600322,0.188640,0.564048,-0.803906
-0.504193,0.457877,0.836926,0.319903,0.804421,0.500569
-0.121708,0.197314,0.817024,0.883215,0.466288,0.050065
-0.155940,0.642954,0.750854,0.799462,0.504075,-0.326754
0.170987,0.389622,-0.428588,0.207568,-0.510208,0.834628
-0.735602,0.159353,0.442568,0.276618,0.894197,-0.351985
0.319094,-0.034156,-0.254737,0.190246,0.104345,0.976176
-0.202181,-0.405778,0.326518,-0.610265,-0.004289,-0.792186
0.248284,-0.379019,0.346672,0.945830,0.187044,-0.265369
-0.048276,-0.262685,-0.731963,-0.635017,0.772497,-0.001087
-0.495912,0.053409,0.610710,0.222155,-0.655205,0.722048
0.070498,0.064502,0.651891,0.170356,0.977759,0.122336
-0.098795,-0.198729,0.184879,0.942790,0.213921,-0.255706
0.637117,0.142055,-0.226604,0.272876,0.941152,-0.199429
-0.099555,0.352477,0.691111,0.777249,0.260241,-0.572851
0.036957,-0.817970,-0.003631,0.793121,0.119968,-0.597133
-0.554230,0.143961,-0.376301,-0.120807,-0.722657,0.680567
-0.101556,-0.068526,-0.991224,-0.142265,0.215705,0.966039
0.033093,-0.308371,-0.797938,-0.191753,-0.917842,-0.347558
-0.456848,-0.108555,0.820499,0.392782,0.919552,-0.012099
-0.349806,-0.535380,0.613739,-0.578820,-0.585142,-0.567958
-0.428897,-0.248873,0.916880,-0.403639,-0.471905,-0.783825
-0.428413,-0.093979,0.734953,-0.316975,-0.244534,0.916368
-0.131510,-0.305217,0.855662,0.472157,0.213925,-0.855163
0.090031,0.408496,0.760815,0.837079,0.396512,0.376930
-0.379897,-0.341708,0.915269,0.830079,-0.502029,0.242766
-0.211636,-0.338990,0.935345,0.390182,0.866743,0.310668
0.184651,-0.833415,0.214411,-0.343234,-0.662857,0.665441
-0.190793,-0.106869,0.963886,0.900216,0.349936,-0.259145
0.309154,0.750694,0.792774,0.430929,-0.581704,0.689871
-0.053729,-0.267691,-0.720662,-0.358300,0.933267,0.025162
-0.064081,-0.282320,-0.499223,-0.678975,-0.727048,-0.101957
-0.832017,0.284112,0.458955,0.117874,0.236164,-0.964537
-0.852860,-0.560452,0.514465,-0.131355,-0.762054,0.634050
-0.152008,0.258227,0.818461,0.961951,-0.014306,0.272848
-0.208462,0.791265,0.816306,0.920592,-0.045060,0.387916
-0.305428,0.881003,0.847856,-0.759795,-0.124465,-0.638138
-0.191414,-0.266818,0.854633,-0.615220,-0.485155,0.621392
0.066427,-0.466796,0.002136,0.622542,-0.142102,-0.769577
-0.136824,-0.220156,0.274134,-0.112557,-0.800239,0.589024
0.218192,-0.881930,0.187267,-0.587970,0.460030,0.665330
-0.220263,0.141786,0.286153,-0.105980,-0.864502,-0.491329
-0.366714,-0.156688,0.819315,0.441823,0.888485,0.124046
-0.060216,0.081252,-0.036191,0.035609,0.612672,0.789534
0.058421,-0.322728,0.132669,0.762506,0.646210,0.031578
-0.316541,0.749824,0.832285,0.341528,0.488241,-0.803106
-0.041789,0.004513,0.132805,-0.742577,0.662620,-0.097535
-0.122399,0.203784,0.618535,0.990103,0.027000,-0.137718
-0.562579,-0.036602,0.763708,0.584946,-0.786510,0.198092
-0.603300,-0.373307,0.520620,0.649403,0.605148,0.460512
-0.390040,-0.206778,0.875524,0.778429,0.588696,0.217912
-0.175473,-0.644478,0.489923,0.983124,0.053460,0.174953
-0.899238,-0.075706,0.453111,-0.549273,-0.721538,-0.421523
0.081473,0.061784,-0.050540,0.619200,0.293162,0.728455
0.013562,-0.021429,-0.007494,-0.164506,-0.116209,0.979507
-0.146072,-0.156903,0.558578,-0.376159,0.926541,-0.005138
-0.260775,-0.545113,0.657813,-0.276758,0.956504,-0.092227
-0.063668,-0.665580,0.039686,0.296402,-0.706093,0.643101
0.915180,0.158809,-0.256757,-0.598111,0.121867,-0.792093
0.000310,-0.143035,-0.977439,-0.195152,0.259520,0.945815
0.357190,0.584817,0.751320,0.046880,0.214315,0.975639
0.054074,0.121063,0.495593,-0.812333,-0.402087,-0.422423
-0.994204,0.052592,-0.410434,0.084447,-0.954182,0.287062
0.014941,-0.291890,0.272193,0.808691,0.532071,0.250836
-0.067739,0.927015,0.803879,0.274916,0.877396,-0.393189
-0.204942,0.263067,0.934685,0.776007,0.623848,0.092880
-0.080092,0.463208,0.778736,0.991483,0.115804,0.059582
-0.205631,-0.162181,0.664453,0.797936,-0.027006,0.602137
-0.221023,-0.623757,-0.979691,-0.165906,0.026647,0.985781
-0.658236,0.517976,0.840245,-0.042015,0.201178,0.978653
-0.714414,0.201500,0.483050,-0.536291,-0.676108,-0.505243
-0.197901,-0.660740,0.084091,-0.722203,0.079463,-0.687101
-0.785224,-0.118182,0.459770,0.986765,-0.158536,0.034091
-0.728148,-0.233806,0.639678,0.396386,-0.477968,0.783852
0.169744,0.583403,0.758155,-0.122161,0.640448,0.758224
0.544498,0.763365,0.776716,-0.628234,-0.369163,0.684866
-0.281549,-0.408768,0.590129,0.875369,0.291288,0.385851
-0.071880,-0.235276,-0.257553,0.983013,-0.000518,-0.183537
0.535180,-0.547888,-0.227109,0.084716,-0.710415,0.698666
-0.320060,0.751401,0.848070,-0.690258,0.081340,-0.718977
-0.234619,0.198835,-0.036444,0.212418,0.150865,0.965463
-0.520550,-0.008592,0.396319,0.729385,0.338179,0.594670
0.595914,0.155111,-0.229264,-0.278048,-0.930073,0.240111
-0.621106,-0.395879,0.535900,-0.716571,-0.412171,-0.562708
-0.445806,0.415835,0.849332,0.633550,0.687013,-0.355848
-0.651748,-0.596617,0.521416,-0.891304,-0.215260,0.399050
-0.123020,0.302824,0.665055,-0.109477,0.624403,-0.773392
-0.315504,0.341546,-0.035162,-0.465745,-0.216167,-0.858110
0.533179,-0.404144,0.107895,0.055732,0.352571,0.934124
0.112184,0.124163,0.433267,0.976524,0.079745,-0.200104
-0.313158,-0.178440,0.309860,-0.128844,0.829764,0.543038
-0.076918,0.692447,0.865195,-0.722001,-0.685329,0.095070
-0.656578,-0.733453,0.522134,0.918051,0.369675,0.143257
-0.159322,0.040519,0.563160,-0.543216,0.786410,-0.294067
0.409297,-0.647143,0.233535,0.842639,0.282451,-0.458456
-0.451259,0.436775,0.842012,-0.369826,-0.754001,0.542873
-0.436143,0.373579,0.841022,0.611421,0.754504,-0.238513
-0.656717,-0.610649,0.536172,-0.532011,0.823849,0.195545
-0.020325,0.324032,0.768154,0.965677,-0.114600,-0.233100
0.138755,-0.611356,0.208644,-0.690467,0.228631,-0.686282
-0.565479,-0.582533,0.492292,0.903238,-0.410525,0.125022
-0.159116,-0.579104,-0.976293,0.050725,-0.336732,0.940233
-0.068291,-0.019361,0.870068,0.306341,0.791614,-0.528680
-0.920769,0.115788,0.489554,-0.558014,0.723818,0.405841
0.179337,-0.542394,-0.970624,-0.257459,0.148506,0.954809
0.313710,-0.503998,-0.967032,0.237506,-0.203667,-0.949795
-0.046414,-0.248003,-0.148668,-0.860991,0.024314,-0.508039
0.088788,-0.340404,-0.026522,0.957445,-0.030150,-0.287036
0.143932,-0.356882,0.169754,-0.425685,0.693335,0.581445
0.432347,-0.191711,-0.215789,-0.142621,0.419030,0.896701
-0.768661,-0.666941,0.503883,-0.109525,0.988744,0.101933
-0.590945,-0.022518,0.776736,0.444634,-0.669257,0.595312
0.213913,-0.457933,-0.973322,0.153358,0.046739,-0.987065
-0.533318,-0.226735,0.590517,0.719757,0.425580,-0.548481
0.189205,-0.103008,-0.970682,-0.238535,0.135605,0.961620
0.068015,0.025289,0.134533,-0.566721,0.365703,0.738301
-0.317714,0.047533,0.796365,0.182639,-0.418976,0.889439
-0.684944,-0.023766,0.622127,-0.050370,0.567119,0.822094
-0.033577,0.918802,0.840071,-0.700045,0.050981,0.712277
-0.703371,-0.047151,0.800598,0.967018,0.232675,0.103628
-0.031989,-0.291402,-0.239011,0.938122,0.293083,-0.184472
-0.236343,-0.639638,0.313315,0.063391,-0.129325,0.989574
0.122053,0.443902,0.744777,-0.129315,-0.812346,0.568658
0.306602,-0.005114,-0.239962,0.216889,0.432867,0.874977
-0.681425,-0.024257,0.762679,0.633037,0.062371,-0.771605
0.303564,-0.062926,-0.974623,-0.085909,0.083030,0.992837
-0.730701,0.328331,0.525474,0.981141,0.064488,0.182217
0.339728,0.171317,0.014038,-0.447014,-0.892295,0.063145
-0.028606,-0.277858,-0.063568,-0.545850,-0.830538,0.110705
-0.216261,-0.606732,0.506252,0.855242,-0.436640,0.279119
0.179199,0.437319,0.758194,0.161358,0.558224,-0.813848
0.148556,0.112907,0.845663,0.156438,0.958758,-0.237299
0.125712,0.777124,0.802734,0.231501,0.138214,-0.962966
-0.474724,-0.096047,0.736389,0.014799,0.236051,0.971628
0.091686,0.573667,0.784891,-0.302979,0.772927,0.557483
-0.827668,0.109315,0.746525,-0.440864,-0.136560,-0.887125
-0.005211,-0.264969,-0.463614,0.317831,0.948136,0.004765
-0.061183,0.168326,0.422297,-0.568694,0.239502,-0.786909
-0.493564,-0.536684,0.390707,-0.252163,-0.831391,-0.495180
-0.837676,-0.088705,0.490098,0.746627,0.481359,-0.459175
0.281203,0.760102,0.802695,0.687176,0.625702,-0.369170
0.069601,-0.320826,0.139251,0.762918,0.643650,0.060587
-0.137652,0.141893,0.624748,-0.733769,0.671526,-0.103129
0.217019,0.772341,0.814383,0.162087,0.986739,0.008581
-0.019912,0.514766,0.843080,0.861087,0.408915,-0.302188
-0.066911,0.234297,0.652726,0.760151,-0.451814,0.466941
0.358087,0.659651,0.805355,-0.932987,0.359196,0.022679
-0.083681,0.048403,0.444936,0.834990,0.549480,0.029397
-0.129716,-0.277261,0.590420,-0.504459,0.062775,-0.861151
-0.280375,0.530049,0.891970,0.664340,0.480138,0.572818
-0.466924,-0.019145,0.897678,0.937321,0.244003,-0.248781
0.342489,-0.035895,-0.960023,-0.584510,-0.012001,-0.811297
-0.275198,0.348888,0.768174,0.973420,-0.228598,0.013983
0.350564,0.062219,0.082712,-0.197787,0.889212,-0.412531
0.618827,-0.537826,0.055277,0.806309,-0.041536,-0.590034
-0.057387,-0.429977,0.634883,-0.405554,0.637459,0.655112
-0.716208,-0.630393,0.491224,0.840031,-0.400146,-0.366375
-0.051934,0.086311,0.532755,-0.890324,0.449332,-0.073644
-0.541669,0.132811,0.456877,0.844810,-0.535029,0.006350
-0.275613,-0.185457,0.917249,0.926152,0.180798,0.330989
-0.169398,-0.311797,-0.984623,0.259601,-0.055162,-0.964139
0.175403,-0.112090,-0.029842,-0.377269,0.921500,0.092221
-0.183478,0.189753,0.423579,0.675884,0.392770,0.623629
-0.055108,-0.279272,-0.775124,0.829687,-0.556216,0.047356
-0.270023,0.747322,0.752971,-0.210894,0.285434,0.934907
0.041926,-0.591452,0.017358,0.886753,-0.125234,0.444955
0.360570,-0.017840,-0.242816,0.168665,-0.267965,-0.948550
0.466440,0.083320,0.011455,0.745321,-0.651812,0.140134
-0.674592,-0.336653,0.351759,-0.010380,0.961799,0.273561
-0.023568,-0.239681,-0.396357,-0.331222,0.858584,0.391312
-0.194312,-0.204276,-0.987787,-0.269953,0.093504,0.958323
-0.536768,-0.526404,0.358069,-0.266567,0.903865,0.334618
-0.449188,-0.032035,0.745826,-0.476312,-0.368048,0.798541
0.236343,0.021864,-0.232661,-0.796966,-0.086075,0.597860
-0.131786,0.997769,0.786541,0.248615,0.850043,-0.464347
0.083681,0.167834,0.880223,-0.425143,0.738148,-0.523823
-0.126403,-0.094470,0.693597,-0.144123,0.028476,0.989150
-0.438558,0.338990,0.814519,0.818551,0.524457,-0.234348
0.187411,-0.737752,0.227905,0.877693,0.207951,0.431753
-0.388178,-0.117800,0.763028,0.913350,0.406281,-0.026994
0.657130,-0.657639,0.039842,-0.244781,-0.389572,0.887872
0.112529,0.375375,0.740350,0.197139,-0.897621,0.394224
-0.768385,-0.063795,0.816461,0.999092,0.034764,-0.024626
-0.716967,-0.082829,0.498505,-0.647439,-0.347845,-0.678106
-0.900893,0.314734,0.466372,-0.540480,0.012515,-0.841264
0.135582,-0.180999,-0.968197,-0.118449,-0.079411,0.989780
0.397909,0.719040,0.791220,-0.199813,0.482311,0.852907
-0.135857,0.237450,0.846556,0.931930,0.303294,0.198795
-0.100452,-0.313699,-0.979555,0.429660,-0.198757,-0.880845
-0.053798,-0.250230,0.189655,0.933278,-0.340814,-0.113303
-0.449947,0.405884,0.824188,0.698372,0.597405,-0.394187
-0.892612,0.170284,0.498039,-0.635630,0.298695,0.711867
-0.049725,-0.227389,0.304714,0.913778,-0.004302,0.406191
-0.147521,-0.220481,0.319529,0.862044,0.247222,-0.442448
-0.312952,0.852015,0.848361,0.727320,-0.135336,0.672822
-0.199283,0.815195,0.817626,0.889495,0.115421,0.442128
0.426482,-0.859085,0.196004,-0.557913,0.823999,-0.098784
-0.098519,0.055364,0.893523,0.649854,0.639468,-0.410816
-0.363953,-0.500844,0.682335,0.933178,-0.319222,-0.165153
-0.015356,-0.036114,0.872107,0.150741,0.817383,-0.556023
-0.208531,-0.540817,0.325625,0.681717,-0.233929,0.693210
0.012389,-0.028171,0.874185,0.244022,0.787627,-0.565771
-0.097622,0.437376,0.879116,-0.467655,0.583197,-0.664213
-0.092792,-0.033392,0.504776,-0.782812,-0.315171,0.536537
-0.237586,0.316690,0.842459,-0.465847,-0.652226,0.597986
-0.388246,-0.670964,0.669249,0.311124,0.568956,-0.761243
-0.368302,0.382551,0.903386,-0.400986,-0.912996,0.075154
-0.255185,-0.120412,0.947305,-0.154897,0.974526,-0.162190
0.355050,-0.598085,0.207266,-0.515260,-0.609891,0.602113
-0.707030,0.093926,0.418686,0.209346,-0.613142,0.761729
-0.747266,0.185238,0.465110,0.118320,0.957683,-0.262382
0.356845,-0.607877,0.198820,0.419977,0.583266,-0.695284
-0.145933,0.389243,-0.408687,0.012469,0.179640,0.983653
-0.405639,-0.304344,0.709595,-0.562895,0.669890,-0.484144
0.207426,-0.569696,-0.967304,-0.326448,0.077787,0.942009
-0.069603,-0.030621,0.864049,0.395409,0.855350,-0.334707
0.118189,0.436340,0.879155,-0.441437,0.728546,-0.523788
0.070568,-0.545657,0.008990,0.812554,-0.060402,0.579748
0.010042,0.053624,0.879563,-0.720104,-0.635670,-0.278161
-0.124539,0.504379,0.736467,0.262685,0.379257,-0.887221
-0.429310,-0.246317,0.909308,-0.524428,-0.435051,-0.731919
-0.161599,-0.222821,0.514077,0.924171,-0.291566,0.246773
-0.380585,-0.123403,0.744136,-0.630820,-0.775920,0.003914
-0.287899,0.776526,0.760970,0.329175,0.900429,-0.284380
-0.138410,-0.161146,0.139154,0.435276,0.836050,0.333998
-0.127921,0.561810,0.839663,0.998422,0.018124,-0.053158
-0.445875,-0.265569,0.921210,-0.658256,-0.016595,-0.752612
-0.133235,-0.192365,0.291317,0.515321,0.812709,-0.271936
0.190102,-0.325556,-0.081877,-0.584590,-0.745749,-0.319550
-0.039649,-0.246589,0.282134,0.924913,0.301975,0.230970
-0.343110,0.714635,0.827567,0.613057,0.552578,-0.564640
-0.097070,-0.243160,0.159890,0.420529,0.847780,0.323148
-0.605992,0.252733,0.390707,0.873231,0.166156,0.458105
-0.139653,-0.407245,-0.977303,0.175005,0.092895,-0.980175
-0.208599,-0.203894,0.309432,-0.115148,-0.972115,0.204286
0.020325,-0.113070,0.513727,0.383707,0.922946,0.030661
0.354084,-0.584272,-0.215498,-0.635295,-0.088779,0.767150
-0.604680,-0.085060,0.720993,0.211435,0.123775,-0.969523
0.214464,-0.397456,-0.065374,-0.689576,-0.594875,-0.413048
-0.704408,0.078697,0.605448,-0.490054,-0.702500,-0.516081
0.440353,-0.352098,0.342692,0.395338,-0.855113,-0.335394
0.154285,-0.397183,0.014679,0.818029,-0.010968,-0.575072
-0.344422,0.846415,0.858069,0.627925,0.220901,-0.746266
-0.173609,-0.098656,0.659619,0.903901,-0.118776,-0.410920
-0.824839,0.470331,0.435015,0.079828,-0.318140,0.944677
-0.123366,0.018219,0.596420,0.282865,-0.637216,-0.716898
-0.191208,-0.721055,0.477342,-0.250259,0.936526,0.245539
-0.105008,0.412194,0.715983,0.951426,0.307571,0.013758
0.143657,0.001904,0.325450,0.744908,-0.509710,-0.430473
-0.041374,-0.713168,0.341042,-0.003365,-0.824408,0.565986
-0.221851,-0.073150,-0.999068,-0.163781,0.081614,0.983115
0.137237,-0.366073,-0.963712,0.178711,-0.117306,0.976884
-0.242209,-0.194921,0.593818,-0.103703,-0.333817,0.936916
0.459264,0.701148,0.801705,-0.635411,0.174887,-0.752109
-0.079334,-0.421548,0.519707,0.817979,0.483795,0.311211
0.451050,-0.552784,0.084071,0.579180,-0.132982,0.804280
-0.175679,-0.235386,0.519144,-0.548898,-0.087221,-0.831326
-0.907589,0.117418,0.459887,-0.219092,0.974334,-0.051697
-0.383898,-0.248926,0.926200,-0.138406,0.589493,-0.795828
-0.497982,-0.049329,0.632456,0.277591,0.430973,0.858607
0.439662,0.239246,-0.278406,0.323415,0.042863,-0.945286
0.118119,-0.052539,0.853759,0.998084,-0.008453,0.061288
-0.159046,-0.170609,0.162046,-0.284688,-0.611707,-0.738083
-0.114393,-0.436994,0.597623,0.308611,0.611319,0.728731
-0.132268,-0.364988,0.579140,0.658778,0.659815,-0.361464
-0.349530,0.308587,0.856167,-0.815839,0.518017,-0.257032
0.009213,0.048675,-0.015474,0.461177,-0.698541,-0.547135
-0.878601,0.328656,0.457149,0.150665,-0.449597,0.880433
-0.745539,0.384945,0.418880,0.636716,-0.099147,0.764698
0.333241,-0.424649,-0.962527,0.277963,-0.016724,-0.960446
0.521791,0.311524,-0.301394,-0.330476,0.933193,0.141199
0.146831,0.602383,0.752116,0.310796,-0.656232,-0.687579
0.083957,-0.171479,-0.971090,-0.220776,0.175165,0.959466
-0.006590,-0.359982,0.207829,0.867431,0.428403,0.253049
-0.227716,0.257683,-0.040793,0.867989,0.324911,0.375538
0.051728,-0.254310,-0.960780,0.043962,0.362413,0.930980
-0.437385,-0.389894,0.943247,0.065855,0.561663,-0.824741
0.297699,-0.069452,-0.230895,0.100509,0.255427,0.961590
0.196591,-0.570294,-0.968701,0.272013,-0.095622,-0.957531
-0.271955,-0.125577,0.893620,-0.531734,-0.645188,0.548627
-0.170020,0.338336,0.695364,-0.839484,-0.054765,0.540618
-0.119362,0.683146,0.813917,-0.380134,-0.899885,0.213790
-0.056835,0.015935,-0.023532,0.780130,-0.397312,-0.483259
-0.049382,0.834667,0.833896,-0.414968,0.737403,-0.532953
0.273613,0.663946,0.749806,0.145055,0.282695,0.948179
-0.231857,-0.668896,0.535667,0.916717,0.304184,-0.259039
0.068428,0.095719,0.858108,-0.527139,0.028922,-0.849287
-0.087961,0.683472,0.847934,0.584929,0.774569,-0.240626
-0.430553,-0.436449,0.589255,0.391016,0.896393,0.208775
-0.387212,-0.197749,0.938665,0.918063,-0.005490,0.396396
-0.176646,-0.058029,-0.031357,-0.324627,0.281795,0.902889
-0.578038,0.468917,0.428161,0.258101,-0.131017,0.957193
-0.900687,0.097296,0.654609,0.449266,0.877391,-0.168361
-0.010249,0.447490,0.835916,0.909176,0.236719,-0.342584
0.590185,0.133574,-0.227031,-0.260906,-0.934707,0.241352
-0.868595,0.316149,0.460974,-0.160192,0.386331,-0.908343
-0.172572,0.368739,0.615428,-0.562866,-0.464136,-0.683929
-0.109907,-0.496545,0.537376,0.926017,0.282530,-0.250340
-0.280651,-0.263936,0.536502,0.266904,0.647530,0.713769
-0.639257,-0.130254,0.740972,0.222049,-0.962697,-0.154623
-0.140413,0.173328,0.798229,0.998903,-0.044514,-0.014504
0.095966,-0.433459,-0.968022,0.155165,-0.263600,0.952071
-0.379343,-0.318542,0.718216,0.565827,-0.427465,0.705063
0.103902,-0.010169,-0.023920,0.772344,0.588350,0.239434
-0.493772,-0.317888,0.501029,-0.423942,0.137895,-0.895130
-0.368578,-0.213467,0.732001,-0.700452,0.615444,-0.361379
0.439456,-0.549029,0.245884,0.894748,-0.076909,-0.439898
-0.090237,-0.273238,-0.327528,0.849613,-0.527352,-0.007627
0.168086,0.141567,0.888417,-0.271180,-0.575797,0.771310
-0.233445,0.059009,0.745340,0.661182,-0.567019,0.491251
0.072362,-0.220700,-0.969167,-0.026959,0.392380,0.919408
-0.147728,0.519662,0.893076,-0.074367,-0.396477,0.915028
0.028054,0.088433,0.816267,-0.056032,0.312592,0.948233
-0.215088,-0.141949,0.722332,0.758562,-0.558656,0.335391
-0.648090,-0.085116,0.724953,0.208248,0.104812,-0.972444
-0.461335,-0.364115,0.314946,-0.024484,-0.113806,0.993201
0.108664,-0.033664,0.893038,0.631131,0.750717,-0.195186
-0.168225,0.318485,0.854477,0.795009,0.297180,-0.528814
-0.286586,0.300972,0.903813,0.778140,0.122693,0.615990
-0.479898,-0.116548,0.842440,-0.413209,0.554098,-0.722657
0.324683,-0.224126,-0.965071,0.268118,-0.275281,-0.923219
0.226129,-0.540382,-0.969769,-0.232200,0.134801,0.963282
-0.089410,0.083593,0.406066,0.880917,0.456402,-0.125231
-0.224679,0.284929,-0.037453,-0.744961,0.075747,-0.662793
-0.033368,-0.251807,-0.116146,0.894086,-0.447741,0.011786
-0.347596,-0.613152,0.370729,0.782910,0.175610,0.596835
-0.142414,-0.054766,0.754912,-0.534220,-0.648054,-0.542802
-0.239174,-0.150161,0.640300,0.943965,-0.087298,-0.318290
-0.236826,-0.009137,0.512349,0.343278,0.766661,0.542578
-0.547189,-0.220538,0.572946,-0.406706,0.873677,-0.266982
0.100177,0.164193,0.453188,0.943750,-0.187521,0.272347
-0.124332,-0.384347,0.519998,0.840403,0.478093,-0.255243
-0.363125,0.126231,-0.006601,-0.014516,0.640048,0.768197
-0.116327,0.249251,0.654920,-0.322392,-0.890353,0.321457
-0.269884,-0.172296,-0.997340,-0.196638,0.028459,0.980063
-0.032680,0.491380,0.858264,0.912722,0.395539,-0.102409
-0.082716,0.662154,0.820597,0.856383,0.463848,-0.226834
0.262915,-0.131181,-0.965828,0.010735,0.035728,0.999304
-0.047379,-0.210855,0.109661,-0.124197,-0.986741,-0.104483
-0.353671,-0.165172,0.740797,0.727967,0.620877,0.290818
0.267332,-0.032197,0.020251,-0.361792,0.908594,0.208720
-0.485903,-0.002611,0.370729,0.760403,0.352239,0.545632
-0.097830,0.098331,0.604672,0.000255,-0.315190,0.949029
0.427309,0.801708,0.798268,-0.498419,0.854154,0.148324
-0.424617,-0.193942,0.897775,0.927105,-0.156831,-0.340413
-0.531799,0.017186,0.861370,0.705318,0.700349,0.109713
0.066082,-0.404905,-0.240486,0.762063,0.551770,-0.338835
0.154973,0.165879,0.448179,0.894256,0.193594,-0.403518
-0.086994,-0.615761,0.290599,0.405331,0.457737,0.791318
-0.177473,-0.828629,0.297686,-0.043774,-0.689243,0.723207
-0.398667,-0.533694,0.361273,-0.242501,0.899230,0.364114
-0.026193,0.948170,0.789783,-0.678145,0.279395,0.679749
-0.344283,-0.184697,0.762640,0.943335,-0.308434,-0.122426
-0.018739,0.283515,0.629912,0.323930,0.560547,0.762140
-0.178992,-0.035895,0.692801,0.978823,-0.201868,0.033994
-0.060285,0.089140,0.843973,0.603815,0.788880,0.114351
-0.070431,0.300431,0.545394,0.940216,0.275964,-0.199592
-0.336347,-0.258824,0.887912,0.820553,-0.551142,0.151441
-0.600539,-0.605484,0.505456,0.689794,0.452571,0.565123
-0.699645,0.077336,0.616943,0.275974,0.960878,-0.023495
0.096863,0.054441,0.405949,0.932033,-0.298899,-0.204876
-0.321025,0.412085,-0.035822,0.659683,0.089652,0.746178
-0.260914,0.715996,0.753068,-0.234911,-0.403110,0.884488
0.111011,0.765758,0.808403,-0.044423,-0.004806,0.999001
-0.147658,-0.294177,0.855953,0.330977,0.174147,-0.927430
-0.017978,0.904008,0.834770,-0.316344,0.829886,-0.459583
-0.188310,0.726001,0.848206,0.244469,0.930325,0.273367
0.252907,-0.534344,-0.970779,0.254905,-0.148093,-0.955558
-0.511302,-0.149235,0.824402,-0.407506,0.792266,-0.454151
0.032610,0.111274,0.591216,0.986495,0.112917,-0.118645
-0.314192,-0.540163,0.359856,0.219431,0.451314,0.864966
0.332895,0.706642,0.749165,-0.678928,0.472407,0.562039
-0.420270,-0.661825,0.416570,0.532832,0.544278,0.647959
-0.092653,0.158264,0.792016,-0.685299,-0.527554,0.502048
-0.027987,-0.256322,-0.526930,0.907807,0.396497,0.136662
-0.623246,-0.069017,0.736564,0.826030,0.021986,-0.563197
-0.695848,-0.188505,0.547395,0.876461,-0.199681,-0.438113
-0.310121,0.213195,0.780813,-0.401648,-0.698627,-0.592114
0.177956,-0.545604,0.175113,-0.614920,-0.175888,0.768724
-0.272922,0.361234,0.894086,0.908427,-0.389640,-0.151460
0.142896,0.411431,0.742350,-0.169277,-0.635117,0.753639
-0.354153,0.704358,0.831295,0.603665,0.772815,-0.195823
-0.128058,0.688368,0.824286,-0.608546,-0.675327,0.416659
-0.637047,0.181431,0.436898,0.777682,0.033308,0.627775
0.161254,-0.773755,0.241049,0.775599,0.619221,0.122521
-0.420616,0.787242,0.748427,-0.183542,-0.783152,0.594126
0.021774,-0.485943,0.326130,0.190489,0.845808,-0.498320
-0.351807,-0.252245,0.910162,0.756397,-0.286764,-0.587902
-0.252563,-0.070375,0.953402,0.946040,-0.163351,-0.279864
-0.434763,0.380324,0.886553,0.678711,0.709332,-0.190262
-0.072295,-0.212269,0.406454,0.619648,0.482248,0.619253
-0.718072,0.055311,0.505806,0.916821,-0.198765,0.346312
-0.036475,-0.726492,0.330965,0.078045,-0.716611,0.693093
-0.393216,-0.662370,0.655541,0.652927,0.529091,0.541986
-0.885228,0.041767,0.579858,-0.067784,0.212113,0.974892
-0.299424,-0.209387,0.721323,0.699124,-0.375490,0.608467
-0.409849,0.372384,0.879873,0.453971,0.849976,-0.267304
-0.245453,-0.093272,0.661230,-0.443949,0.815198,-0.371970
-0.041237,-0.275140,-0.085605,-0.303896,0.873897,0.379410
-0.798267,0.021864,0.505495,0.892475,0.428581,-0.140736
-0.391698,-0.114756,0.732332,-0.417122,-0.612209,-0.671721
0.248214,0.594878,0.793084,0.615833,-0.706770,0.348174
-0.622209,-0.807636,0.517222,0.629427,0.671656,0.390768
-0.266504,0.729483,0.756718,-0.205504,-0.154128,0.966443
-0.029779,0.500572,0.717226,0.851754,0.331162,-0.406012
-0.679906,-0.071248,0.784425,-0.696161,-0.066707,-0.714780
-0.045102,-0.316258,-0.869544,-0.398045,0.883980,-0.245231
0.289624,-0.208899,0.332770,0.219786,-0.632224,0.742958
-0.674316,0.038504,0.768445,-0.452854,0.750016,0.482078
-0.393768,-0.199871,0.953285,0.755518,0.101725,0.647183
0.000655,0.460054,0.841566,0.735333,0.312933,-0.601131
-0.169053,-0.541850,0.654959,0.197459,-0.766633,-0.610969
0.076227,-0.310329,0.120806,0.865447,0.500937,-0.007961
-0.314814,-0.004025,-0.349837,0.149849,0.392455,0.907483
0.566237,-0.491055,0.090051,-0.045468,0.998948,-0.005979
0.127576,0.014846,-0.980468,-0.391454,0.293002,0.872303
-0.834500,-0.555556,0.503126,0.205249,-0.714856,0.668472
-0.153939,-0.550553,0.439927,-0.090311,0.012923,0.995830
-0.853964,-0.596564,0.485030,0.730294,-0.028186,0.682551
-0.515028,-0.013107,0.729419,-0.211952,-0.192456,0.958143
0.387349,-0.699571,0.077547,0.888961,0.417915,-0.187337
-0.237241,-0.216730,-0.993127,0.260553,-0.176267,-0.949232
-0.477828,0.572687,0.822888,0.154766,0.138537,0.978190
-0.215501,-0.321695,0.625020,0.389448,-0.013474,0.920950
0.310191,-0.384729,0.359506,-0.002393,0.296630,0.954990
-0.493081,0.242453,-0.358186,-0.121339,-0.550545,0.825940
0.092723,0.450428,0.898610,0.467205,-0.100412,0.878429
0.271473,0.583675,0.797239,-0.444070,0.677746,-0.586056
-0.808137,-0.034863,0.454217,-0.595796,0.496663,0.631152
0.506953,0.027191,0.011397,-0.649981,0.626267,0.430483
0.570999,-0.759016,0.139581,-0.494500,0.769467,0.404215
0.086027,-0.136565,-0.976701,0.198552,-0.365371,-0.909440
-0.658373,0.251482,0.392610,0.881665,0.139083,0.450913
-0.340073,0.137325,0.625388,-0.315527,-0.733753,0.601705
-0.363953,-0.714200,0.645076,-0.578511,-0.714364,-0.393711
-0.809449,0.004569,0.599604,0.314414,-0.883581,-0.347029
-0.244143,-0.131941,0.642086,0.931502,0.267661,-0.246295
0.192381,-0.254692,-0.965459,-0.042504,0.105803,0.993478
-0.111495,-0.100615,0.498816,0.660589,0.615011,-0.430563
-0.074502,0.704574,0.794929,-0.730896,0.503779,-0.460433
-0.237517,-0.720889,-0.977749,-0.064728,0.169641,0.983378
-0.121571,-0.502693,-0.977167,-0.123175,0.096096,0.987721
-0.125366,-0.246154,-0.982487,0.426463,-0.002041,-0.904502
0.400738,0.780988,0.782930,0.283936,-0.840735,0.461027
-0.623313,0.073531,0.890203,-0.352672,0.934616,0.045986
-0.378722,-0.094577,0.882145,0.868699,0.284429,-0.405540
-0.508195,-0.501388,0.601895,-0.588965,-0.075979,-0.804579
-0.058352,-0.532279,-0.981652,-0.073608,0.116388,0.990472
-0.733117,0.175940,0.489244,-0.610466,-0.240882,0.754525
0.422202,-0.909123,0.075315,0.215715,0.273427,0.937392
-0.077124,0.256866,0.642688,-0.274739,0.926061,-0.258707
0.381413,-0.553381,-0.220332,-0.382514,-0.190913,0.904011
-0.283825,-0.518464,0.648260,0.298244,-0.434338,-0.849942
-0.625316,-0.020124,0.798715,0.313376,-0.905416,0.286386
0.114048,0.111928,0.860127,0.735044,-0.624006,0.265193
-0.535458,-0.113830,0.836265,0.678757,0.275466,-0.680740
-0.270023,0.224073,0.898901,-0.521607,-0.569407,0.635376
-0.281203,-0.139393,0.714216,-0.671766,-0.623331,-0.400237
-0.469201,-0.190135,0.851487,0.502848,0.857671,-0.107446
-0.400049,-0.260511,0.926278,-0.035914,-0.212032,0.976603
-0.196039,0.351770,-0.060384,-0.353919,-0.423536,-0.833881
-0.802960,0.194158,0.528969,-0.420392,0.874652,-0.241361
-0.165740,0.015610,0.730157,-0.575242,0.699579,-0.423893
-0.360295,-0.139990,0.936335,0.878613,-0.345714,0.329425
0.164015,-0.057216,-0.976623,-0.170769,0.049223,0.984081
-0.569550,-0.567303,0.475614,0.846718,-0.517324,-0.124276
0.382726,-0.750747,0.100283,0.385916,0.502193,0.773868
-0.184445,-0.214337,0.655192,-0.368585,0.896551,-0.245646
0.074572,-0.175668,-0.211459,-0.549593,0.734134,0.398742
0.443114,0.780606,0.797938,-0.540982,0.838429,0.066138
-0.952931,0.090607,0.592439,0.388822,0.437950,-0.810566
-0.162084,0.392669,-0.415929,0.012469,0.179640,0.983653
0.253252,0.029532,0.834576,0.584745,-0.671623,-0.454968
-0.803927,0.390495,0.492350,0.394531,0.898434,-0.192772
-0.719176,-0.069399,0.435170,0.744233,-0.557685,0.367566
-0.089064,-0.225650,0.155056,0.950951,0.308765,0.018900
-0.320749,-0.212541,0.606982,-0.481447,0.812329,-0.329136
-0.586665,0.094796,0.631543,-0.046107,0.985443,0.163632
0.628766,-0.459782,0.025163,-0.249726,0.434946,0.865135
-0.551123,-0.033120,0.777940,0.284678,0.900575,-0.328515
-0.235998,-0.579921,0.475555,0.913711,0.401753,0.061041
0.430138,-0.797847,0.246505,-0.792722,0.143492,0.592455
-0.705442,0.339478,0.416958,-0.663810,0.012960,-0.747789
0.482660,0.051938,0.043764,0.862337,-0.403221,0.306248
-0.453466,-0.091749,0.732157,-0.279110,-0.303740,0.910955
-0.070016,-0.672431,0.055452,0.358168,-0.898076,0.255296
0.389076,-0.666502,-0.205848,0.875460,0.472715,-0.100553
0.099210,0.044705,0.839702,0.976297,-0.209719,-0.053498
0.230408,0.627890,0.759689,-0.361097,0.350503,0.864151
-0.782395,-0.297168,0.564927,-0.304828,-0.951921,-0.030416
-0.402947,-0.089140,0.373292,0.667587,0.178822,0.722738
-0.635459,0.097624,0.477050,0.739734,-0.209286,0.639526
0.134269,-0.193288,-0.969692,0.179392,-0.011874,-0.983706
0.179059,-0.455593,0.012174,0.734853,0.073343,-0.674249
0.218814,0.030674,0.243166,0.144818,-0.973987,-0.174290
0.281549,-0.344918,0.299045,-0.232205,0.817447,0.527126
-0.042892,-0.099908,-0.983341,-0.173164,0.477719,0.861278
-0.386660,-0.062600,0.360652,0.697673,0.424575,0.577052
0.272852,-0.612116,0.086362,0.473107,0.859004,0.195655
-0.691846,-0.560505,0.537182,0.815757,-0.485024,-0.315105
-0.131026,-0.094470,0.341682,0.409446,0.307312,-0.859019
