-0.130526,0.516940,0.553022,-0.525207,-0.698864,-0.485538
0.695388,0.210027,0.535054,0.343406,-0.926201,-0.155641
0.380289,-0.285415,0.162690,0.143618,-0.988706,0.042837
-0.108949,-0.341026,0.312625,0.956083,0.076261,0.283000
0.627528,-0.373941,-0.981972,0.013387,0.055808,0.998352
0.196371,0.415426,0.533787,-0.518437,-0.775104,-0.361161
0.021325,-0.607228,0.705314,0.931670,-0.050840,0.359732
-0.493419,0.151134,0.721663,0.847390,0.292095,-0.443408
0.456919,0.340187,0.589519,0.978495,-0.069814,-0.194095
0.491001,0.386473,0.681395,0.873740,0.465427,-0.141266
0.200303,-0.518926,0.857871,0.077011,0.943257,0.323009
0.164910,-0.051904,0.243991,0.932440,0.336317,-0.132085
0.026165,0.436732,0.615353,-0.614729,0.094456,-0.783062
0.201513,-0.431463,0.912749,0.520078,-0.819478,0.240782
0.383412,0.417943,0.515465,0.473738,0.525690,-0.706557
-0.355785,0.311001,0.596942,-0.356325,0.452843,0.817292
0.092010,-0.042123,0.703606,-0.411516,0.605782,0.680942
-0.176003,-0.176487,0.652027,0.731004,-0.484567,-0.480446
0.306680,-0.587059,0.835602,0.585790,0.759092,-0.283954
0.109654,0.449413,0.725875,-0.558306,-0.793621,-0.241787
0.098259,0.248295,0.731943,0.482443,0.844556,-0.232323
-0.557649,0.162744,0.640921,0.909855,-0.148515,-0.387437
0.214923,-0.004546,0.808266,0.931424,0.235991,0.277052
0.223391,-0.743346,0.513462,-0.354488,0.692843,-0.627939
0.431307,-0.553911,0.806056,0.514600,0.617229,0.595160
0.647794,0.179695,0.625280,0.981901,-0.188732,0.015857
-0.133652,0.181989,0.709055,0.897609,0.390854,-0.203791
0.165212,0.006765,0.808973,-0.474267,-0.010422,0.880319
0.319687,0.272128,0.351331,0.156867,-0.746079,0.647116
-0.033224,0.318340,0.554053,0.910700,-0.372643,0.178219
0.071943,0.610669,0.636680,-0.626104,0.758206,-0.181982
0.447139,0.086199,0.589431,0.472285,0.414459,-0.777927
-0.065792,-0.152804,0.689879,-0.480456,0.658011,-0.579813
-0.962893,-0.564224,0.573966,0.308445,0.927381,0.211722
0.118224,0.312074,0.716537,0.796216,-0.320818,0.512948
0.008419,0.338658,0.417462,0.972311,0.233640,0.004793
0.439979,-0.289770,-0.074261,0.167711,0.981538,0.091952
-0.182960,-0.178091,0.664074,-0.613329,0.756139,0.228215
0.146558,0.434065,0.662896,0.921883,-0.335914,0.193117
0.004588,0.108354,0.663161,0.970916,-0.157517,-0.180304
0.412048,-0.146696,0.587693,0.668785,0.711709,-0.214935
0.096748,-0.119049,0.738954,0.975752,-0.217982,0.019812
0.000554,0.257610,0.521474,0.962194,-0.001600,0.272361
0.403478,-0.223846,-0.533021,0.864434,-0.502722,0.004942
0.023343,-0.308633,0.169495,0.798771,-0.597155,0.073287
-0.578321,-0.095897,0.670673,-0.493868,0.757452,0.427038
-0.122156,0.449189,0.610021,0.677045,-0.126760,0.724943
0.208267,-0.295271,0.829298,0.814315,0.554661,0.171005
-0.653138,-0.790014,0.373689,0.207527,0.418862,0.884017
0.394302,-0.235912,-0.222399,0.956585,0.286048,0.055873
-0.176908,0.335292,0.644574,-0.336653,-0.762174,0.552951
-0.324124,-0.517704,0.583864,0.927692,0.000660,0.373345
-0.103503,0.364094,0.627636,0.823665,-0.516730,-0.233593
0.201411,-0.623415,0.527778,0.993143,0.107546,0.045841
-0.367583,-0.375321,0.583333,0.990211,-0.102834,0.094374
0.112479,0.895809,0.487599,-0.773812,0.150626,-0.615246
0.095942,-0.749836,0.560593,-0.094859,0.957791,0.271363
0.089489,-0.386697,0.857400,-0.543672,-0.641706,-0.540957
-0.042098,0.401905,0.594439,0.352492,-0.532504,0.769538
0.694077,0.390753,0.571668,-0.656666,-0.434899,-0.616160
0.880312,0.160524,0.129109,0.801548,-0.578946,0.149470
0.244768,-0.397243,0.819665,-0.553132,0.814870,-0.173299
-0.020217,-0.647174,0.557853,0.622807,0.743861,-0.242450
0.382101,0.420004,0.563656,0.665735,0.634078,0.393372
0.211695,-0.360961,0.843525,-0.458664,-0.215681,-0.862038
0.378673,-0.241796,-0.197272,0.976122,0.211606,0.049090
0.510461,0.254710,0.647549,0.967179,0.197959,0.159303
-0.274918,-0.340410,0.693325,-0.707488,-0.706722,0.002103
-0.154423,-0.121035,0.743667,0.908858,0.376402,0.179718
0.142829,-0.117595,0.703988,0.899719,-0.286435,0.329332
-0.438769,0.091477,0.736126,0.827687,0.050483,-0.558915
0.418199,-0.301379,-0.693914,0.982878,0.138834,-0.121146
-0.421223,-0.254551,0.579209,-0.118643,-0.859171,0.497744
0.350843,0.157242,0.555938,0.300722,0.730620,-0.612993
0.040483,-0.125008,0.737216,-0.382014,-0.703158,-0.599696
0.138493,0.119506,0.330712,-0.625350,-0.745554,0.230403
0.447542,-0.237366,-0.765524,0.953288,0.300535,0.030330
0.342778,-0.295877,-0.043302,0.196888,0.979965,-0.030076
0.250516,-0.360272,0.774567,0.547186,-0.820881,-0.163526
0.362136,0.557119,0.434753,0.265517,-0.880496,0.392718
-0.169547,-0.441468,0.615088,0.327914,0.235963,0.914764
-0.500882,0.195817,0.719866,0.939895,0.119033,-0.320045
-0.051878,-0.402054,0.257364,0.932930,0.236760,0.271268
0.172474,0.082153,0.787410,-0.752121,-0.218577,-0.621722
0.048246,0.210634,0.724962,0.919858,-0.371279,0.126547
0.301437,-0.592253,0.777984,0.166582,-0.964762,0.203678
0.216335,0.204675,0.245935,0.986690,0.161046,0.022517
-0.404084,0.212396,0.736862,-0.252862,-0.045507,0.966431
-0.311419,-0.017068,0.658743,0.903538,-0.285636,-0.319422
0.364656,0.054963,0.190320,0.917380,0.323407,-0.231995
0.405293,-0.232173,-0.528190,0.976343,-0.155755,-0.149985
0.045526,0.267848,0.678449,0.836282,0.352501,0.419972
0.463574,0.314517,0.562890,-0.649234,0.741089,-0.171122
0.346711,-0.321165,0.330947,0.813881,-0.570568,-0.109773
0.297606,0.216741,0.265082,0.849629,0.485365,0.206280
-0.289236,-0.350416,0.499087,0.221776,0.914358,0.338769
-0.084345,-0.253479,0.776658,-0.036389,-0.851024,0.523864
-0.800857,-0.192451,0.474284,0.352729,-0.918157,0.180471
0.872345,0.231791,0.150407,0.763546,-0.555396,0.329442
0.922358,0.571171,0.538323,0.892012,-0.311032,0.327984
0.258988,-0.210857,-0.401879,-0.031457,0.999504,0.001589
-0.149484,-0.461711,0.599211,-0.398398,0.390163,-0.830091
0.205141,-0.441851,0.849623,-0.648505,0.400870,-0.647105
0.533348,0.185737,0.672087,0.954780,0.084082,-0.285177
0.384624,-0.321314,0.001296,-0.817864,-0.571842,-0.063997
0.458432,-0.217655,-0.495906,0.803256,-0.593535,-0.049965
0.470935,-0.285033,-0.633439,0.927653,0.078793,0.365037
-0.384624,-0.467139,0.667403,0.717726,-0.651091,0.246879
-0.011949,-0.018597,0.671203,0.359961,0.932906,0.010701
-0.146460,-0.364626,0.301373,0.874578,-0.316396,0.367433
0.545349,0.126686,0.648345,0.524981,0.161416,0.835667
0.169951,-0.117138,0.828502,0.324564,0.769357,-0.550225
-0.192638,0.006150,0.651084,-0.707909,-0.102129,0.698881
0.285605,0.067262,0.721780,-0.607377,-0.765768,-0.211406
-0.061355,-0.015390,0.652351,0.546887,-0.654160,0.522484
0.169852,0.888331,0.477200,-0.740721,0.464075,-0.485764
0.354674,-0.295495,0.152115,0.833229,-0.544917,-0.093781
0.612200,0.292670,0.558796,-0.174922,0.070271,0.982071
0.143333,-0.691176,0.561800,0.896820,-0.202021,-0.393575
0.232770,-0.588514,0.614940,0.809407,0.579950,0.092292
0.174489,0.011418,0.430482,0.890541,-0.453401,-0.036931
-0.352052,-0.406940,0.568664,-0.092344,0.744605,0.661087
0.290750,-0.148449,0.729881,0.877328,0.479422,0.021218
0.332694,-0.300465,0.121480,0.995261,0.026209,0.093646
0.273404,-0.333688,0.913957,0.988218,-0.131399,-0.078486
0.169246,-0.057023,0.612967,0.677880,-0.694677,0.240630
0.444616,-0.567581,0.651850,-0.376229,-0.307862,0.873884
0.288630,0.200554,0.210852,0.849187,-0.434198,0.300587
0.033929,-0.542834,0.593025,-0.280810,0.083932,-0.956086
0.383110,-0.328186,0.058236,0.988469,0.151163,-0.008916
0.224502,0.068408,0.660363,-0.135793,-0.500518,0.855010
0.137687,0.050226,0.739454,0.906893,-0.104494,0.408198
0.336021,-0.483941,0.850183,0.839011,-0.082558,0.537814
0.649609,0.305043,0.571285,0.992096,0.075464,0.100253
-0.114796,-0.310694,0.276393,0.844338,-0.140830,0.516972
0.143533,0.335375,0.661718,-0.248079,-0.921122,0.299985
0.251424,-0.393494,0.728644,0.991726,0.066088,-0.110056
0.613007,0.088270,0.620655,-0.489670,0.598816,0.633753
-0.037559,0.564681,0.634853,0.537853,0.775199,-0.331331
0.745804,0.360430,0.477848,0.752101,0.398933,-0.524592
0.320090,0.923922,0.538765,-0.672881,0.737399,-0.058934
0.500780,-0.322461,-0.045805,-0.103003,0.969615,0.221893
0.365364,-0.153652,-0.232503,0.998727,0.039712,0.031098
-0.250618,-0.285872,0.625015,0.539915,0.717301,-0.440422
0.509854,-0.310694,0.696006,0.503479,0.853103,0.136834
-0.002671,-0.404040,0.626959,-0.252536,0.967231,-0.026251
-0.185582,0.339805,0.701544,0.292073,0.005269,0.956382
-0.427476,-0.571702,0.499057,-0.098511,0.838895,0.535304
0.231561,-0.488678,0.843113,-0.227928,-0.742325,-0.630081
0.694277,0.422605,0.522358,-0.085641,0.162637,0.982962
-0.020620,0.370202,0.638977,0.454037,-0.077384,-0.887616
0.209378,-0.477218,0.371627,-0.376924,0.125922,-0.917645
0.469323,-0.519914,0.812213,0.869167,-0.482845,-0.106814
0.252030,0.053667,0.754536,0.361597,0.407628,0.838503
0.164809,0.039764,0.273300,0.884692,-0.387124,0.259722
-0.013259,0.490207,0.620950,-0.687004,0.180153,-0.703967
0.180034,-0.448797,0.677625,0.061262,-0.176078,0.982468
0.327552,-0.362481,0.316602,0.997618,-0.005789,-0.068733
-0.711420,-0.183816,0.508719,0.273585,0.500401,0.821432
0.408823,-0.250122,-0.392335,0.691119,0.638547,-0.338545
0.064783,0.560252,0.604719,0.310844,-0.732385,0.605795
0.272398,-0.116756,-0.056881,0.914772,0.403287,0.023501
0.177213,0.155107,0.557559,0.722993,-0.625318,0.293699
-0.042098,-0.503643,0.535996,-0.598109,0.801213,0.017962
-0.104109,-0.498991,0.348150,-0.038093,0.307537,0.950773
0.287420,-0.366304,0.442648,0.903969,-0.329188,0.272901
-0.043006,-0.007212,0.680983,0.702931,0.188076,0.685941
-0.286614,-0.177178,0.625191,-0.104068,-0.905039,0.412401
0.570354,-0.270440,-0.963032,-0.260243,0.837519,0.480453
0.301034,0.005385,0.200807,-0.557581,0.810406,0.179848
0.382907,0.541995,0.411306,-0.184386,-0.856968,0.481256
0.280463,-0.546498,0.812684,0.476284,0.846965,0.236229
0.207563,-0.367526,0.820549,-0.306883,0.942770,0.130415
0.006000,-0.398688,0.630140,-0.211006,-0.892648,0.398317
0.235897,0.601037,0.420761,-0.019721,-0.815708,0.578127
0.245171,-0.520530,0.817132,0.977124,0.211850,0.018672
0.002370,0.342014,0.790739,-0.371229,0.634127,0.678286
-0.415678,-0.418931,0.563332,0.127670,-0.360494,0.923983
-0.001160,-0.273806,0.713974,0.671579,0.302983,0.676153
0.199294,-0.716147,0.515494,-0.258180,-0.305010,-0.916685
0.305772,0.898942,0.515877,0.288450,0.834234,0.469946
0.841795,0.165569,0.133439,0.841194,-0.470997,0.265619
0.135468,-0.762666,0.609226,-0.722164,0.267156,0.638049
-0.310006,-0.387695,0.652910,0.876507,-0.453907,0.160324
0.374842,0.623192,0.563774,0.558070,0.108255,-0.822702
0.303151,0.932939,0.533875,0.877313,-0.454030,-0.155493
-0.392185,-0.459492,0.677418,0.671413,-0.719594,0.177171
0.164710,-0.532670,0.618534,0.738797,0.530378,0.415786
0.015176,-0.265480,0.770384,0.191401,0.907194,-0.374653
-0.697603,-0.190539,0.514611,0.242287,0.368025,0.897694
0.653037,0.415192,0.462501,-0.519554,0.824957,-0.222507
-0.141921,-0.317193,0.325792,0.910790,0.386396,0.145466
-0.611191,-0.299159,0.592671,0.413000,-0.215787,0.884798
0.456414,-0.578966,0.812390,0.175034,0.762355,0.623039
0.661505,-0.062599,0.681395,0.398288,-0.826403,0.398026
0.582958,0.084447,0.749352,0.847930,-0.206265,0.488333
0.543432,-0.423743,0.711618,0.777019,-0.569082,0.269050
0.419310,-0.480043,0.747614,0.735754,0.618426,-0.276072
-0.075371,0.293360,0.554318,0.952162,-0.206636,0.225143
-0.129215,0.286413,0.579651,-0.085696,-0.951744,-0.294687
0.120947,0.435893,0.771739,0.684377,-0.507901,0.523130
0.246181,-0.375778,0.823318,0.825827,-0.533058,-0.184007
0.213714,-0.355003,0.872481,-0.632803,0.551605,0.543408
0.471440,0.255857,0.672293,0.972276,-0.058091,0.226507
0.336224,0.040827,0.104748,0.973256,-0.144674,-0.178443
-0.294781,-0.386548,0.498822,0.336338,0.889618,0.308959
0.003883,0.568122,0.628226,-0.013771,-0.901394,0.432781
-0.175699,-0.105529,0.617533,-0.900095,0.135156,-0.414200
-0.310108,-0.569641,0.520090,0.679868,-0.585953,0.440953
0.198688,-0.044724,0.325351,0.982018,-0.034198,0.185666
0.387951,-0.348886,0.414310,0.946810,0.203035,0.249654
-0.052484,-0.060156,0.626046,-0.268700,0.947293,-0.174458
0.712327,0.457134,0.499882,0.742918,0.062188,0.666488
0.186389,-0.030822,0.786173,0.839161,-0.542705,-0.035767
0.232065,-0.355535,0.760811,0.777910,-0.627571,-0.031788
0.308594,0.177411,0.147520,0.993627,0.073515,0.085451
-0.058130,0.064203,0.714917,-0.227168,0.698381,0.678718
-0.147063,-0.117669,0.736774,0.932517,0.110842,0.343694
-0.283085,0.197645,0.803464,-0.307852,0.066223,0.949127
0.395816,-0.227287,-0.290916,0.526989,0.830822,0.178933
-0.595261,0.002103,0.604307,0.941413,0.282637,0.184005
-0.544845,-0.057098,0.696801,0.077294,-0.996066,-0.043327
0.034535,0.216443,0.405208,0.965949,0.174358,0.191157
0.372020,-0.282431,-0.224196,0.967666,0.182546,0.174065
0.536275,0.157391,0.315306,-0.106953,-0.966331,0.234020
0.128006,0.012639,0.463091,0.823156,-0.567790,0.005366
0.293168,0.658326,0.483062,0.835032,0.462420,-0.298142
0.032922,-0.183434,0.790150,-0.011538,-0.967112,0.254090
0.397933,0.440480,0.558354,-0.167277,-0.900834,-0.400644
0.180539,-0.012257,0.772505,0.731009,-0.681211,-0.039714
0.536878,-0.095897,-0.093555,0.270615,0.860720,-0.431194
0.300427,0.031204,0.763609,0.843417,-0.467078,0.265492
0.393699,-0.158156,0.583068,0.678980,0.633788,-0.370539
-0.299519,-0.425431,0.633999,0.647967,0.552267,0.524538
0.324426,-0.311458,0.182073,0.989531,-0.138207,-0.041559
-0.593746,-0.114919,0.697037,-0.531249,0.626991,0.569787
0.060952,0.521220,0.590815,0.002251,0.373358,0.927685
-0.038870,0.350416,0.638388,-0.201583,0.125534,0.971394
0.470633,0.242103,0.658507,0.939158,-0.341021,-0.041073
-0.178219,-0.535113,0.620007,-0.590012,0.801686,-0.095841
0.253138,-0.077649,0.729174,0.699915,0.699511,0.144233
0.122258,0.201617,0.728025,-0.718639,-0.268331,-0.641527
0.391176,0.111413,0.180541,0.501941,0.195305,0.842562
0.363549,-0.100941,-0.133292,0.787752,-0.593573,0.164674
-0.247593,-0.556196,0.551108,-0.027512,-0.999376,0.022144
0.386034,0.270823,0.544745,0.494791,0.732973,-0.466833
-0.368894,0.070852,0.691234,-0.571470,-0.544636,-0.613835
0.204538,-0.747775,0.544362,-0.597546,-0.642709,-0.479441
0.569246,-0.033722,0.724756,-0.684401,0.633082,-0.361666
0.422233,-0.317267,0.730588,0.057820,0.583957,0.809723
0.119636,0.290767,0.708967,0.881960,0.075803,0.465189
0.385431,-0.251269,-0.270502,0.948360,0.245423,0.200950
-0.329063,-0.162436,0.635943,-0.322688,0.843014,-0.430349
0.228939,-0.411369,0.904324,0.795889,-0.584417,0.158169
0.556842,-0.066031,-0.065895,-0.239409,-0.854658,0.460699
0.170658,-0.281825,0.798780,0.878789,0.114725,0.463215
0.274413,-0.356532,0.656946,0.935476,-0.337745,0.103987
-0.080916,-0.294889,0.667815,0.734678,0.669308,-0.110797
0.117218,-0.064585,0.386444,0.215983,0.962394,-0.164770
0.307486,0.943093,0.550018,-0.128305,0.990367,-0.052068
0.075371,-0.251651,0.101803,-0.686090,-0.613970,-0.390284
-0.039274,-0.363861,0.250972,0.885261,0.292332,0.361740
-0.313838,-0.380058,0.531460,0.958796,0.261944,0.109976
0.362340,-0.151358,0.740662,0.228111,0.740479,0.632184
0.453694,-0.058469,0.658507,0.867502,0.454602,-0.201934
0.550894,0.544363,0.533993,0.404728,0.680502,-0.610829
0.304160,-0.292744,0.590727,0.983629,-0.145949,0.105706
-0.457524,0.134099,0.666873,0.751611,-0.087133,-0.653826
0.166021,-0.558723,0.591405,0.235967,0.971761,-0.000248
0.722408,0.345222,0.462914,0.788336,0.311498,-0.530562
0.249910,-0.435510,0.805261,0.916230,-0.399088,-0.035384
0.338845,0.600431,0.551903,-0.725893,0.646755,-0.234065
0.685605,0.247148,0.627047,0.965980,-0.189209,0.176302
0.499974,-0.062217,0.662661,0.428529,0.722211,-0.542931
0.678445,0.873207,0.544509,0.728672,-0.680898,-0.073582
0.448349,-0.621429,0.808766,0.591070,-0.806208,0.025784
0.375143,-0.134397,-0.181807,0.758893,0.646353,0.079428
0.284195,-0.306954,0.629345,0.977142,-0.174077,-0.122023
0.228231,0.235231,0.699246,0.881217,0.379615,0.281690
0.415174,-0.293966,0.702840,0.861574,-0.507279,0.018930
0.540306,0.397168,0.467833,0.058618,-0.996386,0.061467
0.129923,0.961658,0.507246,0.100562,-0.850758,0.515847
-0.577515,0.038692,0.581360,0.775986,-0.554790,-0.300088
0.345904,0.269983,0.348150,0.826437,-0.549213,-0.123964
0.336224,0.542983,0.512784,0.807553,0.475340,0.349156
0.371011,-0.482263,0.743225,-0.272479,0.648674,0.710618
0.237611,0.342322,0.446182,0.948086,0.262943,0.178867
0.328257,-0.345296,0.308236,0.883073,0.002489,-0.469228
0.367885,0.367377,0.472075,0.816749,0.437621,-0.376044
0.090699,0.225375,0.756834,0.104709,0.994391,0.014901
0.136173,0.198335,0.607252,0.495603,-0.766757,0.407996
0.855507,0.236686,0.161954,-0.705756,0.660564,-0.256053
-0.297301,-0.416488,0.596707,0.876022,-0.147740,0.459085
0.497251,-0.275709,-0.828738,0.886243,0.421814,0.191431
0.365666,-0.147004,-0.230087,0.970792,0.235508,0.045818
-0.494327,-0.420237,0.595322,0.727156,0.010498,-0.686392
0.283691,-0.326433,0.663368,0.808633,-0.571245,0.140685
-0.173683,-0.382958,0.375339,0.826560,0.443714,0.346290
0.190420,-0.292977,0.772299,0.259538,-0.959347,0.110879
0.041391,-0.049993,0.784553,0.530269,0.804222,-0.268404
-0.012755,-0.320699,0.168346,-0.240989,0.956944,0.161812
0.092714,-0.275028,0.093172,0.846011,0.482157,0.227573
0.822234,0.100941,0.099564,0.843461,-0.500018,-0.196355
0.065088,-0.780009,0.588753,0.786605,-0.612313,0.079526
-0.079707,0.198875,0.719424,-0.413410,0.909906,-0.034107
0.374540,-0.270440,0.274655,0.814636,-0.444695,-0.372310
0.139197,-0.479353,0.587074,0.687214,-0.244948,0.683914
0.374236,-0.290227,0.043773,0.617893,0.759247,-0.204335
0.656062,0.435893,0.475315,0.801153,-0.595736,0.057026
-0.596873,-0.111021,0.548074,0.989090,0.010098,0.146967
0.203833,-0.249814,0.765907,-0.517603,0.239033,0.821554
0.304360,0.412143,0.334040,0.789667,0.266619,-0.552576
0.184170,-0.024789,0.450719,0.754376,0.484922,-0.442457
0.154020,-0.005916,0.792329,0.931265,0.049523,0.360962
0.229847,-0.094144,-0.013256,0.741820,-0.649566,0.166634
0.299621,0.103310,0.046453,0.998409,0.049804,-0.026443
0.338239,-0.362024,0.299811,0.368812,0.621766,0.690930
0.244971,0.626707,0.443266,0.630214,0.772398,-0.078940
0.252836,-0.067868,0.017321,0.821118,-0.308178,0.480407
0.016989,0.227893,0.507040,0.814290,0.531068,0.234304
0.354474,-0.718291,0.447508,0.805658,-0.297464,-0.512279
-0.040483,0.151974,0.752739,0.986314,-0.164016,0.016824
0.251221,-0.507541,0.742164,0.304616,0.918289,0.252891
0.043206,0.102928,0.693885,0.914001,0.398106,-0.078194
-0.110260,-0.083066,0.644869,-0.564599,0.824936,0.026630
0.484548,0.382119,0.613379,0.995665,-0.066422,0.065118
-0.534964,0.117753,0.566867,0.907693,-0.416619,0.050224
-0.216535,-0.331552,0.440527,0.958165,-0.014490,0.285850
-0.166119,-0.396245,0.311359,0.812869,-0.521687,0.259011
-0.284294,-0.505173,0.468511,0.115012,0.207247,0.971504
0.040080,-0.594473,0.585071,-0.816388,0.100685,-0.568659
0.244365,0.621206,0.515347,-0.410250,0.848487,0.334311
0.540611,-0.305957,0.693031,0.336109,0.693470,0.637283
0.428486,0.640153,0.569695,0.067695,-0.147206,-0.986787
0.200303,0.159377,0.522181,-0.596831,0.778355,-0.194825
0.515098,0.295038,0.576912,0.074287,0.903371,0.422377
-0.239928,0.355003,0.637799,0.567157,0.786564,-0.244232
0.176606,-0.001263,0.716537,0.181143,0.197842,0.963351
-0.316964,-0.380058,0.761105,0.365859,0.900662,-0.234425
0.125889,-0.096969,0.696536,0.856858,0.002541,0.515546
0.333802,-0.552074,0.644368,-0.524325,-0.831372,-0.184131
-0.297101,-0.406716,0.570755,-0.597809,0.131372,0.790801
-0.565111,0.215137,0.609108,0.206041,0.672411,0.710922
0.409931,-0.638698,0.676800,0.886962,0.127225,-0.443974
0.447339,-0.267690,-0.438818,0.468149,0.868639,-0.162184
-0.285103,-0.187332,0.626311,-0.451273,-0.892089,0.023010
0.217142,0.425123,0.346147,0.117460,-0.705401,0.699008
0.114193,0.237525,0.764051,0.848873,-0.458513,0.263021
0.248399,-0.524344,0.863556,0.824196,0.501370,0.263305
0.167329,-0.437263,0.864175,0.897184,0.399410,0.188501
-0.298815,-0.647938,0.436697,-0.520434,0.697102,-0.493151
0.103503,-0.376309,0.611082,0.699905,0.632893,-0.331028
0.464482,0.272585,0.699010,-0.852460,0.369197,0.370141
0.293168,-0.336131,0.626782,0.981302,-0.008330,-0.192293
0.504008,0.495475,0.502798,-0.161585,0.202566,0.965845
0.393194,0.383881,0.517527,-0.721084,-0.340542,0.603382
-0.144542,-0.434214,0.346412,-0.432656,0.512901,-0.741445
0.709705,0.367302,0.481589,0.582245,0.797704,-0.157029
0.282983,0.369820,0.693855,0.488478,0.847784,-0.206520
0.173883,-0.761985,0.609491,0.912340,-0.242603,-0.329818
-0.054096,-0.165942,0.689879,-0.664543,0.480936,-0.571912
-0.363447,0.055494,0.772210,0.761684,-0.404285,-0.506350
0.677036,0.429711,0.507158,0.809518,-0.389976,0.438862
0.417897,-0.280753,-0.266201,0.952026,-0.287795,0.104022
0.500478,0.566360,0.542241,0.236613,0.960217,-0.148315
0.319284,-0.090479,-0.094851,-0.580272,0.790638,-0.195387
0.109552,-0.040827,0.447832,-0.606032,0.513825,-0.607214
0.124073,0.253330,0.698627,0.964842,-0.087323,-0.247901
0.535872,-0.263717,-0.972694,-0.311696,0.770018,0.556702
0.163599,-0.029824,0.376782,-0.607326,-0.794440,-0.004522
0.689033,0.758395,0.477495,0.937449,-0.170361,0.303589
-0.445524,-0.499373,0.595352,0.273497,0.951943,-0.137853
-0.162692,-0.178548,0.577678,-0.318039,0.919760,0.229985
0.521351,0.733341,0.546188,0.924857,-0.380306,-0.002756
-0.154525,0.299849,0.661777,0.274726,0.743456,-0.609753
0.288027,0.182446,0.216331,0.444500,-0.741929,0.501957
-0.010032,0.307337,0.775893,0.970671,-0.230910,0.066929
-0.277540,-0.408012,0.530370,0.877060,0.235632,0.418621
-0.353668,-0.485312,0.490721,0.297262,-0.907657,0.296301
0.189715,-0.138146,0.780046,0.973838,-0.145304,0.174719
0.381498,-0.055335,0.637622,-0.504954,0.851009,-0.144242
-0.351148,-0.432759,0.604454,-0.708784,0.407638,-0.575722
-0.292664,-0.854483,0.465889,0.079095,0.992673,0.091350
0.387243,0.289462,0.414870,-0.439212,0.886577,-0.145169
0.431307,-0.485237,0.757040,-0.616409,-0.750096,0.239574
-0.585881,-0.055112,0.618151,0.294189,0.931439,-0.214180
0.557550,-0.254169,-0.979940,-0.374366,0.697491,0.611029
0.288934,0.204368,0.134853,0.990498,0.133748,-0.032005
-0.083741,0.009515,0.680187,0.528169,-0.326269,0.783956
-0.055509,0.297565,0.697478,-0.161416,-0.549633,-0.819663
0.376254,-0.098498,0.613379,0.779740,0.624381,-0.046411
0.233878,0.174045,0.256569,-0.697950,-0.702900,0.137108
0.276127,0.054347,0.706345,0.838615,-0.213173,0.501281
0.841592,-0.268379,0.443089,-0.243306,-0.565147,0.788297
0.461962,0.580038,0.532049,0.012700,-0.762565,0.646786
0.459642,0.716613,0.489778,-0.336591,-0.823369,0.456913
-0.498663,0.017078,0.711736,-0.602904,0.183475,0.776430
0.176505,-0.069238,0.163927,0.887697,-0.407269,0.214771
0.369900,-0.280520,0.834953,0.710054,0.702529,0.047706
-0.037763,0.412293,0.646194,0.003297,0.519510,0.854458
0.038769,0.266701,0.848032,-0.235285,0.470704,0.850341
0.048246,-0.636330,0.656592,0.977206,0.182955,-0.107681
0.197983,-0.430391,0.826971,0.845641,0.388812,-0.365673
-0.265339,0.378221,0.716773,0.800151,0.429096,0.419088
0.568539,0.006914,0.761253,-0.675047,0.434705,-0.596107
0.204436,-0.464005,0.889036,-0.196121,0.831623,-0.519557
-0.339147,0.408320,0.721545,-0.331092,0.930589,0.156148
-0.549482,0.101482,0.649788,-0.270331,-0.802807,0.531434
0.029494,-0.181066,0.783640,-0.004946,-0.977647,0.210197
0.263523,-0.502114,0.766908,0.000424,0.990234,0.139417
0.267859,0.216210,0.225904,0.455093,0.890151,-0.022851
0.417596,-0.270366,-0.125221,0.786128,-0.615151,0.059928
0.048348,0.058860,0.785142,0.200630,-0.899711,-0.387644
0.858331,0.248519,0.166549,0.686494,-0.689651,0.230452
-0.263222,-0.463539,0.325409,0.932985,-0.334145,0.133739
0.185379,-0.579264,0.586308,-0.666976,0.622850,0.408901
0.270077,-0.485162,0.216773,-0.238583,-0.528835,-0.814501
-0.080513,0.311692,0.700748,0.166649,0.044169,0.985027
0.133652,0.257302,0.745994,0.924047,0.356311,-0.138489
0.239525,-0.529920,0.859756,0.405308,0.745566,0.529015
0.328562,-0.254244,0.857105,-0.742684,-0.631244,-0.223498
0.162492,-0.050990,0.776541,0.683159,-0.709284,0.173811
0.322207,0.624721,0.484447,-0.068890,0.894618,0.441489
0.163701,-0.705461,0.556469,0.931412,0.062943,0.358483
0.256366,0.175574,0.477200,-0.708047,-0.141491,-0.691845
0.159870,0.054655,0.482355,0.945767,-0.310780,-0.094550
0.349935,-0.423370,0.530930,0.402986,0.899932,0.166507
0.390572,-0.421384,0.709909,0.084221,0.973078,-0.214539
-0.271893,-0.578658,0.500147,-0.131056,0.191904,0.972624
0.613914,0.094759,0.718363,-0.727367,-0.682930,0.067407
0.336224,0.236910,0.467097,0.342485,-0.797759,-0.496271
0.450669,0.312764,0.636179,0.935490,0.334718,0.113237
0.158054,-0.034029,0.354660,0.899905,0.434345,-0.038923
0.235290,-0.447958,0.801962,0.880825,0.386196,0.273862
0.505017,-0.265246,-0.835425,0.865596,0.452626,0.214178
-0.403681,-0.408777,0.616502,0.454376,0.818240,-0.352174
-0.358810,-0.316810,0.547278,0.296352,0.902604,-0.312220
0.637307,-0.366994,-0.981207,0.070819,-0.024506,-0.997188
0.178825,-0.484547,0.726081,0.465260,0.662299,0.587277
0.217040,0.643202,0.429863,0.823272,0.521005,0.225340
-0.526794,0.078488,0.674384,0.924828,0.081006,-0.371661
0.312025,0.263344,0.381201,-0.558064,0.828237,-0.050878
-0.454195,-0.561856,0.503505,0.725496,0.514590,-0.457004
0.246885,0.352019,0.449010,0.993706,0.098375,-0.053587
0.387548,-0.316428,-0.026452,-0.190122,-0.980729,0.044986
0.422839,-0.209943,-0.307971,0.777989,0.628008,0.018397
-0.497555,0.023334,0.673000,0.951835,-0.253955,-0.171806
0.370808,-0.288464,0.020502,0.783029,0.621755,-0.016901
0.165716,-0.354621,0.918552,-0.752330,0.580353,-0.311752
0.195968,-0.517546,0.663574,0.161681,0.016737,0.986701
0.300529,0.548335,0.591198,0.857196,-0.309383,-0.411700
0.198285,0.264184,0.717833,0.168264,-0.795293,0.582406
-0.076984,-0.490739,0.570755,0.472914,-0.779693,0.410403
0.347517,0.954628,0.521975,-0.740920,0.646813,0.180750
0.202925,-0.077649,0.045334,0.899275,-0.436149,-0.032850
0.222385,-0.108960,-0.066219,-0.038777,0.997233,0.063426
0.019915,-0.312074,0.713356,-0.663300,0.498957,-0.557741
0.124375,0.386781,0.741192,-0.665913,0.129299,-0.734739
0.172877,-0.700183,0.547632,0.990697,0.022849,0.134152
-0.377464,-0.378753,0.732591,-0.377774,0.058738,0.924033
0.303151,0.680714,0.431425,-0.158903,0.960805,-0.227166
0.162492,0.075206,0.329092,0.850061,-0.432266,0.300904
0.380289,-0.307794,0.109520,-0.759145,-0.627897,-0.171593
-0.063879,0.218653,0.748674,-0.319556,0.860771,0.396178
0.311619,-0.187565,-0.193649,-0.207122,-0.961046,0.183005
0.178625,-0.053200,0.351655,0.914223,0.390566,-0.107956
0.865489,0.257535,0.167079,-0.540950,0.800654,-0.257539
0.286211,0.575982,0.436638,0.639361,0.752953,-0.155822
-0.049459,0.282590,0.700218,0.633568,0.653840,-0.413623
0.313031,-0.585838,0.734712,-0.372209,0.883537,-0.284294
0.256163,0.297481,0.458790,0.986127,-0.015784,-0.165238
0.154322,-0.028528,0.709291,-0.657356,0.752137,-0.046619
0.404487,-0.303747,0.279251,0.870547,-0.077343,-0.485970
-0.291959,-0.499214,0.549222,-0.576082,-0.462591,-0.673898
0.427578,-0.374557,0.799075,-0.727941,-0.680258,0.085735
0.285202,-0.353623,0.578031,-0.435173,0.891661,0.124762
0.015275,0.403509,0.753829,0.958810,0.051083,0.279417
0.210889,-0.171676,0.790886,0.733234,0.173630,-0.657435
0.236300,-0.591032,0.468864,-0.525485,-0.462404,-0.714177
-0.258080,0.040752,0.710646,0.033055,-0.999280,-0.018608
0.260600,-0.353474,0.773683,0.841281,-0.540583,0.004023
-0.264834,-0.461255,0.443502,0.960030,-0.090526,0.264853
0.743585,0.332550,0.484417,0.596988,-0.083716,-0.797871
0.648196,0.747467,0.514316,0.857274,0.514002,0.029722
-0.541617,-0.339114,0.540356,0.294754,-0.925177,0.239097
0.225108,-0.427640,0.671498,-0.758044,-0.391300,-0.521780
0.202621,-0.294655,-0.009839,0.952901,-0.224247,0.204190
0.351047,-0.504408,0.834571,0.746841,0.326176,0.579515
0.395311,-0.211398,0.422175,-0.711901,0.697161,-0.084636
0.011745,0.134481,0.367209,-0.431661,0.355890,0.828862
0.484345,0.292744,0.571845,-0.519822,-0.808887,-0.274749
0.473960,-0.309705,-0.990485,0.804189,-0.029501,-0.593641
-0.215326,-0.595312,0.590315,-0.339643,-0.141207,0.929894
0.283288,0.157009,0.163809,0.966387,-0.230897,0.113060
0.466799,-0.244472,-0.785289,0.737429,0.651466,-0.178296
0.165716,-0.497536,0.510752,0.884296,-0.081303,0.459794
-0.578724,0.134397,0.627165,0.933400,0.090239,-0.347306
0.535970,-0.412367,-0.984329,-0.286416,0.222514,0.931908
0.407210,-0.282664,-0.076470,-0.040290,-0.995700,-0.083414
0.156442,-0.007520,0.743667,0.072321,-0.658932,0.748717
0.378978,-0.309323,0.100477,0.754049,0.652579,0.074505
0.116107,-0.804756,0.623277,-0.696842,0.597180,0.397224
0.202621,-0.032118,0.650966,-0.568637,0.796583,-0.205203
-0.707284,-0.665888,0.493078,0.731796,0.680089,-0.044196
0.162088,0.067187,0.321875,-0.655297,0.636659,-0.406510
0.101992,0.610128,0.616708,0.783325,-0.560852,0.268042
0.482228,0.234318,0.615441,0.999802,-0.008527,-0.017988
0.181243,0.003707,0.807706,0.990043,0.124229,0.066198
0.038769,0.280604,0.612378,0.453699,0.759107,-0.466813
0.116008,-0.495858,0.786291,0.951424,0.287560,0.110003
0.367783,0.671390,0.490485,-0.329765,0.940748,0.079044
0.153112,-0.798192,0.614234,-0.676344,0.552000,0.487704
-0.823341,-0.182903,0.510928,0.507854,-0.805340,0.305798
0.142426,0.304819,0.633557,0.460192,-0.694327,0.553292
0.258886,0.177029,0.298162,0.860246,-0.444960,0.248971
0.264028,-0.423901,0.874485,0.793884,-0.508882,0.332847
0.211797,0.389224,0.484565,0.891304,0.448734,-0.064926
-0.114091,0.069705,0.726935,0.755527,0.379554,-0.533964
0.371414,-0.093379,-0.137121,0.936532,-0.338735,0.090365
-0.311317,0.265097,0.616325,0.354293,0.906347,0.230243
-0.211797,-0.634800,0.599682,0.472779,0.809023,0.349231
0.256969,-0.525416,0.708643,0.776853,0.626535,0.062877
0.606049,0.202615,0.596913,0.729246,-0.654161,-0.200683
0.031005,0.475232,0.676682,0.737535,0.669011,-0.092014
0.191632,0.015008,0.800460,0.922568,0.126481,0.364514
0.328762,-0.352560,0.728143,-0.058506,0.854063,0.516869
0.180539,0.078414,0.505656,0.748914,-0.424869,0.508541
0.465085,0.339115,0.661571,0.945560,0.128906,-0.298831
0.337030,0.070693,0.659067,-0.010400,-0.914931,0.403476
-0.117014,-0.154641,0.607635,0.932857,-0.004169,0.360222
0.515301,0.673068,0.453694,0.950099,-0.277689,-0.142128
0.224299,0.218727,0.325174,0.537029,-0.789438,0.297302
0.434634,-0.254551,-0.251591,0.977198,-0.211435,0.019492
0.440886,-0.238662,-0.667550,0.987221,0.157449,-0.024576
0.340861,0.536568,0.401997,0.502547,0.605791,-0.616817
0.317672,-0.340103,0.360817,0.904448,-0.413560,-0.104607
-0.112377,-0.142649,0.689731,-0.158773,0.577314,0.800937
0.238417,-0.097043,0.082862,0.984126,-0.136050,0.113955
0.386840,-0.233702,-0.316042,0.920356,0.217335,0.325131
0.146054,0.540242,0.553287,0.840604,-0.062935,0.537981
0.375950,0.423594,0.519176,0.521245,0.544078,-0.657482
-0.016487,0.309398,0.401585,0.928587,0.328024,0.173569
0.192842,-0.374631,0.809238,0.276637,-0.509910,0.814533
0.494026,0.020817,0.648168,-0.143493,0.885703,0.441521
0.643861,0.015548,0.709850,0.571226,-0.682715,-0.455633
0.281269,-0.746861,0.529545,0.027830,0.976355,0.214377
0.048551,0.524353,0.562920,0.938103,0.198234,-0.284019
0.493823,0.075663,0.606987,0.790042,-0.222232,-0.571354
0.294479,0.370202,0.498026,0.011838,-0.642903,0.765856
0.283691,-0.375778,0.655797,-0.656945,-0.077363,-0.749958
0.057020,0.034487,0.808000,0.702803,0.282305,-0.652972
-0.147063,0.359889,0.712295,-0.167511,-0.636631,0.752756
0.368389,-0.176031,-0.196330,0.482329,-0.819219,0.310224
0.205141,-0.163657,0.787233,0.756938,-0.185086,-0.626728
0.470430,0.327580,0.377136,0.254899,-0.950589,0.177222
0.066903,-0.471717,0.864381,-0.694727,-0.569789,0.438971
-0.335418,-0.357372,0.697449,0.829752,-0.548506,-0.103213
0.085252,0.325827,0.723725,-0.627351,0.740314,0.241590
0.444518,-0.333613,-0.993932,-0.099327,0.164045,0.981440
0.240534,-0.108653,0.057117,0.998486,-0.044355,0.032543
0.309000,0.507774,0.570225,-0.591582,0.280217,-0.755982
-0.535164,0.171452,0.607606,0.885208,-0.255740,0.388593
-0.026670,-0.040827,0.568104,0.664978,-0.623984,0.410425
0.382707,-0.208797,0.728614,0.859848,0.452215,0.236987
-0.649809,-0.189393,0.512254,-0.110682,0.617446,0.778787
0.229241,0.696677,0.477642,0.557768,0.520937,-0.646158
-0.141216,0.481573,0.622246,0.713039,0.295448,0.635834
0.039981,0.902224,0.383056,-0.300585,0.949664,-0.088249
0.595057,0.549865,0.546807,-0.415648,0.225592,-0.881104
0.778572,0.576672,0.522210,-0.547161,0.186875,0.815900
0.045628,0.256006,0.716979,-0.357892,-0.309422,0.881006
0.316158,-0.270440,-0.097325,-0.268604,-0.945524,-0.183947
0.209882,0.740213,0.465771,-0.494993,0.840071,-0.221954
0.284497,-0.136309,0.733858,-0.379003,0.371827,0.847409
0.318780,-0.244239,-0.125751,0.897958,0.400451,0.182512
0.315453,0.113091,0.562242,0.399810,0.797961,-0.451010
-0.494327,0.118816,0.719689,0.970887,0.126688,-0.203295
0.443711,-0.483783,0.798810,-0.772636,0.233141,0.590490
-0.101386,-0.203910,0.786409,0.761369,0.351248,0.544924
0.557852,0.452238,0.554672,-0.443469,0.698914,0.561119
0.109755,-0.027689,0.723548,-0.444805,0.792030,0.418136
-0.126292,-0.309248,0.648757,0.925314,0.376061,0.048695
0.261609,-0.420843,0.723371,0.820858,0.177711,0.542781
-0.154122,-0.331702,0.376458,0.873888,0.324681,0.361805
0.047945,-0.684453,0.649464,0.974092,0.118972,-0.192331
0.216637,-0.078712,0.848592,0.709169,-0.052717,0.703065
-0.740157,-0.694682,0.511812,0.731264,0.587999,0.345702
0.451072,-0.509452,0.820196,-0.345517,-0.852079,-0.393167
-0.179028,-0.609056,0.546394,0.239958,-0.825143,0.511428
0.467910,-0.033572,0.704018,-0.850998,0.157671,0.500941
0.423442,-0.283812,-0.179333,0.919042,0.377561,-0.113180
0.662917,0.051065,0.533345,-0.652870,-0.337929,-0.677912
0.365968,-0.186567,-0.254507,0.961136,0.245583,0.126123
-0.598891,0.038692,0.567957,0.962524,-0.266876,-0.048220
-0.016687,-0.015082,0.656357,0.009070,-0.423857,0.905684
-0.289639,-0.567124,0.505862,0.761670,-0.645127,0.060575
0.552608,0.332317,0.691322,0.944935,0.324546,0.042054
0.444213,-0.106667,0.606575,0.538516,0.800149,-0.264124
-0.124778,-0.503802,0.590845,0.589530,-0.737035,0.330504
0.398133,0.038160,0.676004,0.043281,-0.360458,0.931771
0.140207,0.555282,0.555232,0.721869,0.682937,-0.111814
0.029494,-0.656340,0.692382,0.342002,-0.181045,0.922094
0.016989,-0.601037,0.683958,0.730205,0.682843,-0.022956
-0.290245,-0.383797,0.524920,0.894773,0.378476,0.236933
0.915098,0.402213,0.516113,0.441211,-0.152170,-0.884408
-0.533348,-0.378370,0.746377,-0.758349,0.553363,-0.344523
-0.103404,-0.239884,0.622040,0.216296,-0.841748,0.494648
-0.199193,-0.604477,0.530458,0.459549,0.380377,0.802576
0.719989,0.527020,0.495670,0.488072,-0.405197,0.773046
0.340560,-0.308558,-0.075675,0.959458,0.228805,0.164584
-0.009025,-0.088186,0.530282,-0.847413,-0.301917,-0.436735
-0.611594,-0.165643,0.623630,0.949641,-0.307590,0.059752
-0.125686,-0.307412,0.236185,0.797577,0.509141,0.323490
0.321805,-0.718216,0.477259,0.930701,0.365773,0.002391
0.364656,-0.185504,0.692648,-0.172917,-0.764539,0.620951
-0.164710,0.140663,0.684959,0.290481,-0.404406,0.867223
0.315958,-0.127907,0.738335,0.812087,0.465280,0.352178
-0.495035,0.417412,0.613320,0.846207,-0.457757,0.272752
0.150995,-0.088335,0.757070,0.966419,-0.029790,-0.255238
0.587697,-0.403732,-0.980706,-0.158420,0.100423,0.982252
0.213510,-0.364850,0.872864,0.111650,-0.993715,0.008102
0.682984,0.755953,0.474608,0.937449,-0.170361,0.303589
0.085154,-0.046170,0.829033,0.828018,-0.547366,-0.121559
0.339550,-0.316960,0.201602,0.909270,0.387728,0.151312
0.344492,0.305351,0.587339,-0.104263,0.334250,0.936699
0.199900,-0.499904,0.870243,0.287815,0.660776,-0.693208
0.729670,0.087803,0.034435,-0.872502,-0.164965,0.459921
0.342575,-0.316810,0.355603,0.685958,-0.727641,-0.000034
0.171766,-0.317034,0.695181,0.380361,0.849647,0.365274
0.231358,0.270291,0.227171,0.799793,0.493502,-0.341740
0.183865,0.147386,0.550842,0.720792,-0.669401,0.179893
0.050970,-0.566126,0.620714,0.370956,0.632860,-0.679617
-0.464079,-0.901767,0.476287,0.301112,0.825727,-0.476976
0.366875,-0.537332,0.800194,-0.007287,0.999582,0.027990
0.166119,-0.628991,0.519824,0.971825,0.048482,0.230665
0.162894,0.124010,0.516142,0.269814,-0.893124,0.359902
-0.001563,-0.265936,0.586603,-0.721640,-0.613213,-0.321257
0.279152,-0.367377,0.945534,0.977264,0.190608,-0.092864
0.116208,0.089566,0.797897,-0.588341,0.047511,-0.807216
0.364558,-0.391284,0.703370,-0.438120,-0.072858,0.895959
0.177514,0.083449,0.310475,0.674052,-0.521721,0.522935
0.950895,0.199864,0.117326,-0.761138,0.574470,-0.301086
0.180034,-0.024248,0.739602,-0.761537,0.640911,-0.096411
0.118729,0.000424,0.909862,-0.047176,0.925026,0.376963
0.144743,-0.843257,0.572316,0.913553,0.029485,-0.405649
0.321805,0.623043,0.424149,0.980684,0.138853,-0.137762
-0.083741,0.104690,0.706463,0.811919,-0.008439,0.583709
-0.362238,-0.417411,0.686020,0.899551,0.378027,-0.218871
0.309705,-0.182520,0.695917,-0.046962,-0.832063,0.552689
-0.191832,-0.317267,0.407417,0.963941,0.174686,0.200756
0.311924,-0.428946,0.782579,0.398258,0.890211,-0.221166
0.257877,0.706757,0.485625,0.764252,0.440683,-0.470869
0.143736,-0.048007,0.640627,0.236407,-0.927172,0.290626
-0.433827,-0.430316,0.738689,-0.290577,-0.471221,0.832776
-0.017494,0.293667,0.757276,0.950437,0.140160,0.277534
0.298714,0.158771,0.162690,0.970845,-0.213524,0.108938
0.638014,0.177103,0.606928,0.733238,-0.494122,-0.467125
0.564104,0.075281,0.630199,-0.368609,0.512132,0.775789
0.096545,0.258524,0.668081,0.919634,0.392764,0.003267
-0.011041,0.546200,0.607488,0.818954,-0.210277,0.533945
0.233173,0.501667,0.584335,0.172613,0.197725,0.964940
-0.051474,0.415192,0.591876,-0.243346,0.640824,-0.728099
0.765162,0.897721,0.493284,-0.000482,-0.996405,0.084710
0.290750,-0.353316,0.906916,0.926455,0.362716,-0.100592
0.404084,0.924454,0.564599,0.607752,0.746244,0.271583
0.225308,0.179313,0.535407,0.933285,-0.359110,0.004478
0.489385,0.270907,0.655267,0.995695,0.055074,-0.074560
-0.579933,0.289005,0.580947,-0.773213,0.058275,-0.631463
0.109352,-0.113930,0.828473,0.937673,0.340623,-0.068888
-0.242752,-0.686588,0.516584,0.154320,-0.986157,0.060658
-0.251221,-0.473703,0.579857,0.689037,0.074759,0.720860
-0.455912,0.120420,0.725963,0.859183,0.271096,-0.433948
0.059441,-0.716072,0.683752,0.849349,0.191177,0.491993
-0.511067,0.181075,0.710911,0.902208,0.121020,-0.413975
-0.035544,-0.059849,0.517173,-0.127688,0.957325,0.259278
-0.228939,-0.434820,0.456433,0.974938,-0.149011,0.165199
0.763749,-0.074590,0.508955,0.806445,-0.127609,0.577375
-0.179028,-0.360961,0.406534,0.953890,0.219302,0.204940
0.455811,-0.302069,-0.602952,0.993575,-0.030314,0.109043
0.274413,-0.170762,0.795010,0.823734,0.552064,0.129181
0.691757,-0.297863,-0.989219,-0.116907,0.188660,0.975059
0.375143,0.435818,0.563067,-0.688465,-0.670494,-0.276502
0.380590,-0.185653,-0.380317,0.941870,0.303212,-0.144719
0.142727,-0.357372,0.510280,0.801389,0.448509,0.395747
0.145349,-0.283504,0.430305,0.443470,0.895626,0.034469
-0.460953,0.040062,0.658478,0.880943,0.013934,-0.473017
-0.009933,0.250812,0.807294,-0.543575,-0.831018,-0.118050
0.176305,-0.296791,0.734535,0.556021,0.757437,-0.342241
0.393194,-0.229879,-0.567073,0.892616,-0.400167,0.207614
0.180942,-0.503802,0.658802,0.007312,-0.082633,0.996553
0.644566,-0.294124,-0.991310,-0.194782,-0.279423,-0.940204
-0.159365,-0.342471,0.348739,0.789490,0.519415,0.326977
0.650012,0.385709,0.459850,0.897317,0.257868,-0.358226
0.071337,0.277247,0.721073,-0.141639,0.018874,0.989738
0.054198,0.317193,0.683869,0.081359,0.110469,0.990544
0.140508,-0.468891,0.812360,-0.734888,0.669474,-0.108373
0.401967,-0.315281,-0.181012,0.870643,0.488707,0.056090
-0.208368,-0.025702,0.726641,0.234836,0.346883,-0.908033
0.237912,0.024332,0.632291,0.444925,-0.894539,-0.042914
-0.674918,-0.207501,0.514169,0.044705,0.604367,0.795451
-0.388455,-0.534582,0.556263,0.002403,-0.786383,0.617735
-0.234687,-0.263494,0.378137,0.889018,0.401547,0.220015
0.278749,-0.558266,0.802286,-0.104350,-0.696598,0.709833
0.261003,-0.794751,0.511959,0.180100,0.206912,0.961640
0.220268,-0.518926,0.718599,-0.077845,0.901606,-0.425495
-0.007613,-0.432992,0.573996,0.983311,0.179624,0.028883
0.073254,0.292520,0.739219,-0.639878,0.447625,0.624651
0.268160,-0.235231,-0.086043,0.866556,0.276117,0.415739
-0.015881,0.273956,0.529221,0.799700,-0.385672,0.460148
0.127705,-0.069928,0.777100,0.627250,-0.744236,0.229501
0.315552,-0.373027,0.429245,0.900079,0.241414,0.362736
0.350139,-0.336746,0.146430,0.961623,0.272822,0.029155
-0.596974,-0.055718,0.599093,0.951747,0.171698,0.254355
0.175902,-0.029675,0.786379,0.839161,-0.542705,-0.035767
0.047037,0.262655,0.422440,0.971916,0.209464,0.107260
-0.181951,-0.139824,0.687934,0.890420,-0.414075,0.188926
-0.165615,-0.358509,0.326558,0.905381,-0.420856,0.056264
0.408521,-0.423444,0.714917,0.446727,0.880176,-0.160390
0.328965,-0.390594,0.424708,0.837325,-0.209351,0.505034
0.346812,-0.331170,-0.041416,0.274907,0.958570,-0.074632
-0.160876,-0.571022,0.502975,0.502840,0.798668,-0.330576
-0.217948,0.392814,0.713415,0.028544,-0.695706,0.717759
0.252433,-0.368822,0.864175,0.294204,0.929557,-0.222189
0.843509,0.596608,0.545658,-0.200756,0.464292,0.862630
0.509956,-0.389298,-0.991192,-0.312092,-0.067030,0.947684
0.132545,0.597829,0.584541,-0.011336,-0.998555,0.052528
0.486967,-0.303132,-0.990809,0.786286,-0.340099,-0.515836
0.234081,0.910635,0.552492,0.902113,-0.422799,0.086222
0.461054,0.393271,0.588930,-0.392972,0.374781,0.839710
0.311619,-0.330247,0.469335,-0.371403,-0.927588,-0.040507
0.286513,-0.368906,0.804937,0.412115,-0.852363,0.321929
0.198386,-0.020658,0.744079,0.648090,-0.748451,-0.140716
0.484345,-0.404273,0.823907,0.912588,0.400784,-0.080963
0.121655,-0.404879,0.704224,-0.119416,0.976586,0.178937
0.068919,-0.309015,0.487363,0.403283,0.856270,0.322746
-0.588808,0.028836,0.591758,0.909515,-0.371227,0.187012
-0.288027,-0.436125,0.462413,0.941600,-0.242616,0.233510
0.132240,-0.793912,0.519795,-0.301421,0.953398,-0.013295
-0.031510,-0.401140,0.588812,0.865920,0.408346,0.288853
0.765667,0.402744,0.522829,-0.079771,-0.972702,-0.217917
0.334811,0.286329,0.409391,-0.348015,0.934624,-0.073236
0.856011,0.756559,0.504566,0.913197,0.162596,0.373677
0.586488,-0.319328,-0.979321,0.085871,-0.122059,0.988801
0.490598,0.395490,0.610551,-0.293882,-0.946498,-0.133325
0.141013,-0.238737,0.692324,-0.529940,0.785140,-0.320497
-0.037055,0.092008,0.655061,0.812418,-0.491672,0.313426
0.333199,-0.424209,0.790503,-0.360909,-0.924406,0.123361
0.075270,-0.632814,0.679952,0.778232,0.075944,0.623368
0.253341,0.476454,0.545010,-0.025112,-0.946870,0.320634
-0.298815,-0.454299,0.534936,-0.454996,-0.508729,-0.730871
0.459842,-0.461096,0.788235,0.777257,0.609512,-0.156099
0.268665,-0.017376,-0.022093,0.907171,-0.419111,-0.037237
-0.464987,0.174884,0.728526,0.661570,0.272912,-0.698458
-0.483136,0.158697,0.710263,-0.098424,-0.408567,0.907406
0.153820,0.360887,0.683487,-0.585272,0.776838,0.232335
0.158457,-0.025395,0.332126,0.950778,0.302786,-0.065885
0.000757,0.039531,0.737893,0.130925,0.917987,-0.374377
0.364053,0.571712,0.413515,0.008312,-0.986317,0.164650
-0.582657,0.024332,0.544774,0.822998,0.131141,0.552700
-0.882229,-0.216592,0.506274,-0.700965,0.701719,0.127433
0.155937,-0.750143,0.546984,0.555765,-0.817789,-0.149486
0.044114,0.382277,0.639979,0.261659,0.868922,0.420131
0.276530,-0.338573,0.442088,-0.401141,0.895270,-0.193849
-0.437056,0.141204,0.701544,0.971831,0.160806,0.172295
0.397631,0.402129,0.556763,-0.586635,-0.807974,-0.055110
0.499974,-0.306880,-0.790591,0.893290,0.448159,-0.034443
0.267053,-0.526945,0.435990,-0.552936,-0.614057,-0.563202
0.251122,0.329949,0.471928,-0.350272,-0.920667,-0.172281
0.410537,0.265480,0.509485,0.159462,-0.973605,-0.163294
-0.006404,-0.323449,0.193325,0.560358,-0.766777,0.313132
0.174086,-0.277238,0.025657,-0.928256,-0.107011,-0.356216
0.836751,0.791469,0.503358,0.792212,0.093831,0.602989
0.269271,-0.355302,0.539973,0.661171,-0.749860,-0.023731
0.202017,-0.242709,0.693767,-0.105474,-0.905649,0.410700
-0.195361,-0.111562,0.638624,0.871033,-0.456086,0.182449
0.215627,-0.373410,0.359550,0.515333,0.550684,0.656642
0.371211,-0.521295,0.806528,-0.107374,-0.986752,0.121623
0.055407,0.465917,0.795599,0.723779,-0.682733,-0.100100
0.113888,0.863425,0.476140,-0.714226,-0.097590,-0.693078
-0.481723,0.237823,0.710587,0.878210,-0.445610,-0.173723
0.122058,-0.263260,0.705432,-0.607904,0.722602,-0.329089
0.360626,-0.052286,0.662395,0.255456,0.878676,0.403323
0.259289,-0.495624,0.731207,0.978752,-0.205041,0.001615
0.515501,0.315207,0.685696,0.850843,-0.467600,-0.239620
-0.280564,0.041442,0.648698,-0.739750,0.667639,0.083832
-0.059441,-0.145624,0.585042,0.820756,0.097085,0.562969
-0.051979,-0.059233,0.563803,0.992964,-0.037265,0.112402
0.193647,0.244397,0.714887,-0.330491,-0.624046,-0.708056
0.266145,0.027157,0.680511,0.959377,0.169256,-0.225719
0.210486,-0.519989,0.656946,-0.225346,0.057808,-0.972562
0.466599,0.054198,0.619271,0.325277,-0.759258,-0.563668
0.084747,0.389989,0.538618,-0.346899,0.858174,0.378417
0.406706,-0.715391,0.669053,0.793705,0.000701,-0.608302
-0.069119,-0.611881,0.723931,0.358059,0.931213,0.068085
0.499469,0.428107,0.526246,0.400807,-0.914648,-0.052666
0.366875,0.550089,0.575969,-0.225592,0.908008,-0.353030
0.261105,-0.060156,0.712914,0.655761,0.230689,0.718860
-0.472347,-0.521677,0.549487,0.889952,0.144712,-0.432486
0.059844,0.193673,0.842200,-0.502508,0.146410,-0.852086
-0.291051,-0.418325,0.537587,0.988145,0.119278,0.096659
0.416485,0.551925,0.560593,0.774290,-0.441551,0.453329
0.001665,0.455148,0.367592,-0.847699,0.435106,-0.303461
0.204538,-0.277088,0.663986,-0.590365,0.016808,-0.806962
0.268262,-0.319710,0.703664,0.884579,0.460752,0.072296
-0.071337,0.427491,0.593231,0.905863,-0.277249,0.320226
0.367583,-0.176637,-0.187669,-0.546716,0.746677,-0.378913
0.586589,0.670783,0.483858,0.862027,-0.343158,-0.373032
0.010336,0.010812,0.765907,-0.612361,-0.385744,0.690084
0.439173,-0.214913,0.644221,0.016833,0.595988,0.802817
0.013158,-0.827983,0.577795,0.954188,-0.226173,0.195886
0.152709,0.167396,0.600477,0.886030,0.452163,0.102465
-0.007210,-0.518851,0.586780,0.498596,0.204796,-0.842295
0.221880,0.951728,0.459379,-0.438586,0.557024,0.705242
0.134259,-0.562919,0.635177,-0.536345,0.799834,-0.269444
0.754574,0.329259,0.487216,0.381647,-0.144505,-0.912942
0.685808,0.270981,0.515848,-0.012578,0.900937,0.433768
0.306277,-0.008443,0.048692,0.960241,-0.174508,0.217909
0.089893,-0.287933,0.099328,0.813588,0.507057,0.284548
0.404589,-0.433599,0.148374,0.936276,0.306989,0.170719
0.211898,0.282739,0.278986,0.533232,0.763327,-0.364686
-0.439173,-0.486459,0.543950,-0.048284,0.971097,0.233751
0.390068,-0.343851,0.103364,0.788901,0.606922,0.096334
0.297504,0.251428,0.294303,0.981697,0.156094,-0.109115
0.437357,0.067793,0.483269,-0.530225,-0.615931,-0.582658
0.371715,-0.560252,0.615647,-0.514593,0.373849,0.771641
0.364961,-0.303672,0.230058,0.861236,0.500680,-0.087134
0.325435,-0.265862,-0.120390,0.433069,0.889494,0.145775
0.251322,0.356458,0.561359,-0.453013,-0.889941,-0.052765
0.284599,-0.204824,0.685696,-0.336197,-0.338593,0.878821
0.417999,-0.226746,0.642365,-0.056918,0.877775,0.475679
-0.311721,0.581409,0.453635,0.840662,-0.521993,0.144259
0.182253,-0.017908,0.837015,0.805872,0.492650,0.328431
0.373430,-0.223464,-0.456551,0.846379,-0.489138,0.210682
0.592839,-0.217580,-0.984064,-0.172552,0.596233,0.784048
0.420719,-0.273723,0.347266,0.775380,-0.630497,0.035504
-0.458937,-0.478822,0.563774,0.446163,-0.880991,0.157457
0.230348,-0.312223,0.915577,-0.452016,0.858554,-0.242004
-0.257775,-0.375088,0.493608,0.971680,0.206182,0.115444
0.087674,-0.387238,0.843879,0.807274,0.408136,0.426303
0.336728,-0.421001,0.382349,0.990927,-0.081325,-0.107000
0.378473,-0.239427,-0.452692,0.960731,-0.126693,0.246871
0.182456,-0.021964,0.760840,0.979195,-0.202356,0.015136
0.148577,-0.503877,0.221987,0.267561,0.458999,0.847190
-0.475975,-0.069779,0.721221,0.930760,-0.262292,-0.254735
0.035642,-0.222932,0.569724,0.899825,0.267050,-0.344963
0.219662,-0.362258,0.910451,0.716705,-0.606967,0.343403
0.474766,-0.299542,-0.989189,0.860903,-0.255063,-0.440214
-0.472043,-0.435202,0.702604,0.630271,0.088905,0.771268
0.365968,-0.348280,0.378726,0.992459,0.104749,-0.063666
0.421627,-0.255316,-0.381318,0.771035,0.635730,-0.036767
0.306982,0.049769,0.671733,0.062527,0.495340,0.866446
0.075575,-0.037843,0.752091,-0.565079,-0.293834,-0.770939
-0.118931,-0.505480,0.557411,0.492873,-0.835584,0.242643
0.369598,-0.313062,0.154472,0.882696,-0.413794,0.222761
0.472144,-0.436657,0.702840,0.195056,0.951586,0.237566
