0.014210,-0.163230,0.862507,0.966162,-0.248109,-0.070520
0.199049,-0.327642,0.445669,0.750201,0.658958,-0.054532
0.292524,0.613452,0.713796,0.530877,0.677444,0.509156
-0.457613,-0.277768,0.847937,-0.540586,0.687966,-0.484221
-0.272849,0.438063,0.663612,0.954850,-0.018908,-0.296486
0.512620,-0.779941,-0.993343,0.330924,0.037185,-0.942924
-0.487158,0.195483,0.574610,-0.627177,0.128807,-0.768152
-0.040274,-0.231188,0.617777,-0.007084,0.419015,0.907952
0.831177,-0.531879,-0.972204,-0.213832,0.023736,0.976582
-0.058262,-0.313784,0.819593,0.064568,0.299271,0.951981
0.262682,-0.746780,0.756342,-0.035641,-0.939110,0.341764
0.525414,-0.491781,-0.991229,0.264813,-0.028824,-0.963869
0.377831,-0.565782,-0.989323,0.115504,-0.159310,-0.980448
-0.809156,-0.026345,0.625500,0.807338,0.129762,0.575645
0.054316,-0.513348,0.623805,0.747775,0.332704,-0.574579
-0.430086,0.074192,0.629294,0.709394,-0.216328,0.670792
-0.110438,-0.305029,0.634741,0.226536,-0.920831,0.317413
0.088214,-0.157674,0.849807,-0.191094,-0.365638,0.910929
-0.313051,-0.443361,0.825494,0.083258,-0.916517,0.391234
0.266913,-0.790442,0.746291,-0.839219,-0.276668,0.468151
0.383957,0.360318,0.564452,0.449914,-0.766665,0.458041
-0.005218,-0.314868,0.315154,0.838033,-0.543504,-0.048004
0.116418,-0.306887,0.092567,0.753822,-0.599178,-0.269700
-0.103591,-0.183937,0.305110,0.338325,-0.436028,0.833916
-0.038981,-0.541687,0.555982,0.790162,0.612200,0.029234
0.139772,-0.830248,0.734858,-0.058008,0.823148,-0.564856
0.271456,0.049187,0.494762,0.239727,-0.907634,0.344575
-0.025112,0.328547,0.708207,-0.493620,-0.738177,-0.459820
-0.037480,-0.063358,0.878794,0.579425,0.330760,-0.744892
-0.015438,-0.279463,0.847865,0.147878,0.839228,0.523286
0.845310,-0.636950,-0.969285,-0.665630,-0.393810,0.633917
0.001819,-0.097694,0.916217,0.588059,-0.113689,-0.800788
0.089396,-0.186894,0.889297,0.913842,-0.371445,-0.164078
-0.440855,0.143930,0.575730,-0.315730,-0.769539,-0.555090
-0.222608,0.564841,0.710997,-0.572676,-0.812867,0.106253
-0.238442,0.089059,0.740199,-0.482899,0.872608,-0.073243
-0.088192,0.022040,0.684129,0.924525,0.124162,0.360330
-0.433765,-0.262389,0.621641,-0.516275,-0.489530,-0.702724
-0.800821,0.359162,0.624652,0.030624,0.906263,0.421603
-0.235771,-0.472775,0.515528,-0.461064,0.884546,0.070695
-0.196746,-0.300095,0.701773,0.986790,-0.015763,-0.161236
0.003720,-0.248128,0.219380,0.711962,-0.504475,0.488482
0.564117,-0.688943,-0.976728,-0.245991,0.274958,0.929455
-0.002191,-0.337309,0.579546,0.559511,0.770324,-0.305856
-0.551692,-0.178960,0.543206,0.815462,-0.510001,0.273716
-0.046768,-0.187048,0.942419,-0.670229,0.522479,-0.527076
0.359814,-0.408069,-0.218773,-0.091718,0.994592,-0.048724
-0.592473,-0.112194,0.354488,-0.235134,-0.962949,0.132065
-0.213636,0.324006,0.852688,-0.040908,-0.859283,0.509863
-0.078304,-0.253699,0.697852,-0.657396,0.621506,0.426100
-0.125315,-0.785518,0.615951,0.401213,0.597950,0.693890
-0.068573,-0.152286,0.919834,-0.257410,0.727796,0.635652
-0.310159,0.448745,0.652147,0.545570,0.772352,-0.325309
-0.297938,-0.393525,0.753413,-0.590281,-0.760690,-0.270035
-0.199696,-0.569365,0.663675,0.708688,-0.590200,0.386556
-0.040406,0.429748,0.668236,-0.263042,-0.955825,0.131177
-0.844911,0.626322,0.675378,-0.002510,-0.902712,0.430238
-0.273843,0.286626,0.548547,0.218986,0.663587,0.715330
-0.653298,-0.272340,0.608886,-0.777805,0.371162,-0.507207
-0.137197,-0.032815,0.584430,0.986661,-0.161857,0.017389
-0.772598,-0.604441,0.623469,0.964198,0.265105,-0.006432
-0.119951,-0.437054,0.556619,0.660438,0.750400,-0.026868
-0.098328,-0.002592,0.717185,0.986651,0.162829,0.002690
-0.226261,-0.046255,0.623800,-0.596000,-0.374560,0.710273
-0.011998,0.176282,0.710113,0.042376,-0.479308,0.876623
-0.084092,0.091289,0.437607,-0.071850,-0.412583,0.908082
0.406939,-0.499656,-0.998056,0.332543,-0.054211,-0.941529
0.154303,-0.031583,0.694572,0.417279,-0.775898,0.473140
0.332096,-0.305324,0.199447,-0.185716,0.778065,0.600103
-0.108839,-0.238201,0.967794,-0.224866,0.363651,0.903988
0.150025,0.310463,0.604816,-0.387991,-0.916238,0.099853
0.557391,-0.568164,-0.983506,-0.127712,-0.151300,0.980203
-0.064217,-0.369389,0.313332,-0.676431,0.196871,0.709706
0.106095,-0.085300,0.803436,-0.766528,-0.414065,-0.490902
-0.004951,-0.078451,0.393347,0.984388,-0.054281,-0.167435
0.137799,-0.305765,0.008991,-0.733457,0.631930,-0.250412
0.068138,-0.323963,0.638257,0.887840,0.238357,-0.393606
0.090428,-0.314200,0.048010,-0.631115,0.771874,0.076845
0.103416,-0.216931,0.407102,-0.078720,0.758835,0.646508
-0.107792,-0.412203,0.747470,-0.443830,0.694265,0.566579
-0.137510,0.218794,0.846888,0.821076,-0.515802,0.244505
-0.020401,-0.280849,0.735063,-0.568271,0.348053,0.745605
0.197756,-0.344133,-0.053380,-0.657018,0.671353,0.342946
-0.303642,-0.401708,0.536355,0.429877,0.595706,-0.678484
-0.481962,-0.081727,0.590477,0.138610,-0.464545,0.874634
0.279107,0.199828,0.583819,0.793092,0.608139,0.034230
-0.028244,-0.095806,0.686211,0.436125,0.294848,0.850211
-0.342638,-0.365734,0.762794,-0.290037,0.688771,-0.664434
0.198094,-0.350799,-0.002463,0.453046,0.719017,-0.527033
-0.014484,0.188475,0.652132,-0.026638,0.620286,0.783923
0.027416,-0.165684,0.550379,0.538970,0.832837,-0.126069
-0.438136,0.776743,0.669148,0.872271,0.487641,0.036735
0.527048,-0.390539,-0.715389,-0.218988,0.957290,0.188785
-0.098891,0.043003,0.750116,0.745760,-0.554672,-0.369027
-0.039210,-0.480203,0.724005,0.397251,0.845165,-0.357615
0.082658,-0.332996,0.563757,-0.193629,-0.847970,-0.493411
-0.493549,0.315326,0.673391,-0.595150,0.366791,-0.715025
-0.198342,-0.261220,0.679200,-0.681629,-0.025224,-0.731263
0.001992,-0.621766,0.572454,-0.602954,-0.144670,-0.784549
0.656371,-0.896907,-0.965948,-0.554112,0.196449,0.808930
0.354885,-0.471439,-0.537957,0.989318,-0.051946,0.136207
-0.031517,-0.209945,0.587282,-0.508069,-0.182117,-0.841843
0.269506,0.361244,0.660329,0.547921,0.479845,-0.685223
-0.601936,0.499572,0.721637,-0.457391,-0.865149,0.205695
-0.466782,0.281067,0.678044,0.889318,0.245107,0.386052
0.266590,-0.465159,-0.141978,0.310411,0.943162,-0.118706
-0.129404,0.517975,0.697339,0.009833,0.170138,0.985371
-0.235075,-0.345242,0.746353,0.204492,-0.209309,0.956229
-0.201153,0.103599,0.730417,0.424172,0.195565,0.884213
-0.175714,-0.206872,0.825390,-0.543731,-0.083458,0.835099
0.353332,0.052368,0.540103,-0.673890,0.075216,-0.734993
-0.084010,0.057271,0.850093,0.322193,-0.568385,0.757054
0.034466,-0.329130,0.171971,-0.830320,0.364914,-0.421197
-0.312321,-0.232001,0.716499,0.808177,-0.440437,-0.390980
0.221102,-0.904880,0.674641,0.475418,0.636733,0.607082
-0.079155,0.001722,0.739198,0.765860,-0.122934,-0.631146
-0.263824,0.173565,0.817511,0.319067,0.791915,-0.520642
-0.286631,-0.173999,0.833744,0.981595,-0.189512,-0.023590
0.106250,-0.483738,0.480228,-0.095162,0.944812,0.313488
-0.310862,0.546927,0.671822,0.894050,0.098919,-0.436909
-0.161350,0.060213,0.780985,-0.596705,-0.625100,-0.503183
0.027920,-0.145546,0.728030,0.841433,0.538515,0.044628
-0.037922,-0.265354,0.456524,0.782142,0.498756,-0.373493
0.256471,-0.291530,-0.044359,-0.602617,0.779306,0.171856
0.053500,-0.292229,0.203598,0.758252,-0.645623,-0.090683
-0.200492,0.313872,0.659044,0.760920,-0.634932,0.133646
0.151071,-0.136210,0.767990,-0.319917,0.782605,-0.534025
-0.823098,0.498473,0.648333,0.340862,0.687944,-0.640739
-0.185691,-0.495357,0.880406,0.867256,0.470665,-0.162301
-0.145752,-0.190684,0.758923,0.090135,0.972907,-0.212904
0.145663,0.306913,0.595460,0.380086,0.703744,0.600232
0.326816,0.220938,0.631495,0.904610,-0.045149,-0.423842
0.076045,-0.157743,0.777738,0.521095,0.197408,-0.830356
0.319289,0.388571,0.568454,-0.346812,-0.779609,0.521471
0.227989,-0.315479,0.400054,0.352508,0.744063,0.567546
0.003830,-0.062748,0.754738,0.802913,0.149996,0.576916
0.813854,-0.420057,-0.959802,0.065614,0.184813,-0.980581
0.091267,-0.218159,0.843922,0.320925,0.528005,-0.786268
0.088905,-0.288439,0.869244,0.428280,0.898307,-0.098087
-0.771924,0.290392,0.607690,0.204408,-0.321323,0.924645
-0.260346,0.626173,0.741772,-0.165892,0.984526,-0.056458
-0.714823,-0.535058,0.644219,0.941098,-0.008568,-0.338024
-0.324375,-0.263125,0.595933,-0.684848,0.349101,-0.639618
-0.130616,-0.504028,0.921160,0.099942,-0.933986,0.343047
0.077087,0.003953,0.449754,0.915488,-0.397061,0.064992
0.438846,0.048873,0.515847,-0.070261,-0.314370,0.946697
0.713820,-0.327578,-0.977910,0.246555,-0.605091,0.757017
0.068015,-0.306743,0.778409,0.189231,0.893594,0.407041
-0.243398,0.171860,0.843891,-0.504595,-0.382736,0.773884
0.145855,0.020860,0.357846,0.866934,-0.111789,-0.485725
0.026902,-0.262456,0.467161,0.661435,0.639153,0.392412
-0.518254,-0.028168,0.611887,0.074781,-0.531998,0.843437
0.205634,-0.234839,0.130836,0.972191,0.170922,0.160095
-0.383356,-0.372234,0.749119,-0.593547,0.694015,-0.407487
0.029801,-0.798045,0.547683,0.802319,-0.550702,-0.230241
0.654334,-0.533064,-0.975896,-0.008105,0.140544,-0.990041
-0.141219,-0.140856,0.564536,0.020722,0.826234,0.562946
-0.225343,-0.208304,0.824427,-0.058118,0.512570,0.856676
-0.294784,-0.197368,0.846241,0.793655,0.388713,0.467989
-0.166749,0.456589,0.605077,-0.531893,0.641469,0.552817
-0.676358,-0.300896,0.613335,-0.271542,-0.197150,-0.942018
0.403390,-0.425283,-0.474497,-0.220118,0.975034,-0.029263
0.306808,0.273304,0.594477,-0.597141,-0.631584,-0.494495
0.038318,0.057691,0.492887,0.993379,0.050108,0.103384
-0.547250,0.276222,0.617285,0.168497,-0.985475,-0.021153
-0.089669,0.480095,0.597232,0.274562,-0.522726,0.807077
-0.561569,-0.333363,0.636870,0.078985,0.935023,0.345677
0.451867,0.229455,0.565233,-0.207009,0.587163,0.782551
-0.026804,-0.277286,0.899705,0.925421,0.290224,-0.243652
-0.114874,-0.561561,0.609908,-0.252330,-0.009531,-0.967594
-0.042738,-0.220762,0.866147,-0.024296,-0.876648,0.480519
-0.029970,-0.070461,0.811538,0.988705,0.102632,-0.109222
-0.006910,-0.436170,0.772130,-0.348937,-0.569256,0.744440
0.210013,-0.750521,0.698233,0.940869,-0.289242,0.176365
0.130453,-0.818691,0.739302,-0.114104,0.818254,-0.563419
-0.009930,-0.206721,0.643913,0.515166,0.244247,0.821552
0.008368,0.315630,0.573563,-0.617056,-0.583546,0.527936
0.272270,-0.447655,0.429751,-0.177904,0.940711,0.288814
-0.037624,-0.264301,0.804163,0.821503,-0.215344,0.527977
-0.704046,0.181975,0.604183,-0.563415,0.451956,-0.691592
0.083461,-0.034857,0.405754,0.910234,-0.072034,-0.407782
0.068658,-0.254206,0.777490,0.522426,0.809001,0.269422
-0.844745,0.423609,0.595053,-0.282801,0.433342,0.855709
0.252576,-0.522732,0.648755,0.124394,-0.354351,0.926802
-0.154204,0.211300,0.806999,0.137927,-0.817731,0.558831
0.072148,-0.136364,0.943427,0.935269,-0.082041,-0.344298
-0.370979,0.163912,0.630424,0.824734,-0.335185,0.455482
0.164347,-0.335915,0.344632,0.760826,0.250489,-0.598664
0.035003,-0.122700,0.602553,0.946113,-0.231111,-0.226843
-0.044026,-0.011652,0.935721,0.620592,0.781996,-0.057859
-0.466502,0.457438,0.609500,-0.351290,-0.934999,-0.048709
-0.151622,0.449447,0.600739,-0.592655,0.803682,0.053443
-0.320948,-0.384615,0.761126,0.251738,-0.294786,0.921808
-0.352834,0.549958,0.667341,-0.185340,0.205887,0.960864
-0.102473,-0.136585,0.514159,-0.572509,-0.819635,-0.020769
-0.075884,-0.007626,0.878313,-0.249888,0.466667,0.848397
0.111886,-0.358477,0.316672,0.097480,0.966276,-0.238344
0.096270,0.325682,0.606553,-0.527702,0.615560,-0.585335
0.201908,-0.499219,0.687316,0.237025,-0.854920,0.461444
-0.421867,-0.079599,0.585894,0.789360,-0.526148,0.316352
0.099481,-0.350171,0.163577,-0.155449,-0.983988,-0.087193
-0.094532,-0.661586,0.595514,-0.014461,0.999056,-0.040968
-0.073431,-0.163067,0.906670,0.757890,-0.541709,-0.363529
-0.013585,-0.334012,0.822582,-0.110789,0.896657,0.428640
-0.083661,-0.258789,0.834676,0.482360,-0.865021,-0.138085
0.872659,-0.688044,-0.975207,0.287845,0.150468,-0.945783
0.372213,-0.549349,-0.512877,-0.020706,0.974829,0.221992
-0.300629,-0.045581,0.697051,0.143446,0.829422,0.539892
-0.302483,-0.030328,0.880217,-0.621848,0.347749,0.701695
0.132408,-0.750261,0.648969,0.856170,0.193461,-0.479109
0.090287,0.234667,0.557882,0.047500,-0.902804,0.427421
0.208143,-0.360415,-0.046486,0.989988,-0.140882,0.008689
0.520315,-0.764484,-0.983059,0.418814,-0.245842,-0.874160
-0.167455,0.053809,0.569906,-0.005773,-0.610545,0.791960
-0.155196,-0.231427,0.818371,0.113740,-0.891667,0.438171
-0.471610,-0.220263,0.884068,-0.333342,-0.920336,-0.204606
-0.052612,-0.124603,0.707021,0.637072,0.697026,-0.329079
-0.064212,-0.377628,0.854790,0.868186,-0.122160,-0.480968
0.040976,-0.629810,0.614150,0.118659,0.982006,0.146918
-0.275757,-0.052487,0.725783,-0.353415,0.605740,-0.712865
-0.017810,-0.255764,0.845018,0.837336,0.319316,-0.443740
0.003083,-0.190657,0.633116,0.650570,0.446967,0.613986
-0.692465,-0.529843,0.660536,0.983706,0.079896,0.161056
-0.081705,-0.157054,0.647019,0.714740,0.607653,0.346272
-0.034625,0.524093,0.667299,-0.760514,0.615739,0.206115
0.666291,-0.392279,-0.630110,-0.509495,0.860458,-0.005142
-0.648734,0.045401,0.568085,0.091032,-0.068385,-0.993497
0.816569,-0.364264,-0.976700,0.201606,0.201735,-0.958467
-0.493442,0.386096,0.687927,-0.380434,-0.884675,0.269481
0.667315,-0.800438,-0.975266,0.157240,0.342708,0.926189
-0.364370,0.151426,0.685350,0.821139,0.475740,0.315281
0.109101,-0.632889,0.546595,0.935993,-0.351647,-0.016195
-0.192944,-0.348845,0.869474,0.441570,0.457567,-0.771783
0.044409,-0.227114,0.853757,0.107132,-0.978096,0.178471
0.199138,0.267183,0.596860,0.469738,0.675653,0.568189
0.016588,-0.310245,0.487304,0.592660,-0.687727,0.419268
-0.111276,-0.124454,0.656068,-0.355529,-0.740002,0.570961
0.435764,0.235462,0.559063,0.091546,0.366490,0.925907
-0.063007,0.924220,0.542079,-0.705448,-0.661079,0.255571
0.078667,0.151146,0.440394,0.848039,-0.527452,-0.051227
-0.616026,0.222737,0.598632,0.224955,-0.552117,0.802846
-0.392619,0.085765,0.702266,-0.574704,-0.196865,-0.794330
0.064835,0.262179,0.696401,0.339473,0.218130,0.914974
0.048512,-0.202311,0.815539,-0.427846,-0.381960,0.819179
0.162109,0.365878,0.587428,0.067057,-0.744468,0.664282
0.035769,-0.230214,0.396637,0.943720,-0.318517,-0.089106
0.006897,-0.165819,0.776384,-0.429945,0.146801,0.890840
0.045835,-0.082635,0.924807,0.822973,0.039504,-0.566705
-0.228363,-0.340853,0.571688,-0.026116,-0.925703,0.377348
-0.656003,-0.256895,0.635744,0.235543,0.881518,0.409200
0.884397,-0.610463,-0.954189,-0.205017,0.677492,0.706380
-0.013682,-0.251814,0.864641,-0.311930,0.906125,-0.285722
0.009537,0.026252,0.854863,0.671793,0.740407,-0.022188
-0.122773,-0.366264,0.310145,-0.675800,0.607845,-0.416917
-0.287936,-0.288210,0.611866,-0.158312,0.434735,0.886534
0.136437,-0.338764,0.827915,-0.672811,0.586109,-0.451443
0.158339,-0.719902,0.566670,0.773428,-0.041941,-0.632495
0.162324,-0.242515,0.843877,0.102006,0.880900,0.462179
0.309162,-0.488362,-0.227944,-0.380694,0.920067,-0.092457
0.051449,-0.286076,0.837871,0.273425,0.927966,-0.253214
0.573989,-0.560163,-0.859568,-0.253313,-0.939410,0.230956
-0.478600,-0.171883,0.906239,0.271991,-0.883815,0.380647
-0.565746,-0.044272,0.494452,-0.868921,0.058653,-0.491463
-0.850869,0.345602,0.611394,0.414546,0.654164,0.632631
-0.051031,-0.155645,0.810201,0.153686,0.121282,-0.980648
0.747548,-0.404535,-0.977082,0.443456,-0.216533,-0.869747
-0.428889,-0.367962,0.381891,-0.800552,0.045269,0.597551
0.099241,-0.577193,0.632770,-0.586304,-0.157693,-0.794595
0.044647,-0.518816,0.654082,0.922427,0.381940,0.057008
-0.008520,-0.138197,0.677164,-0.798367,0.533198,-0.279838
-0.139909,0.585049,0.616061,0.726080,0.687499,-0.012401
0.454364,-0.437139,-0.989267,-0.257361,0.562164,0.785962
-0.347669,-0.062914,0.553678,0.905564,0.174132,0.386823
0.658024,-0.554159,-0.979218,-0.279031,-0.024839,0.959961
-0.026290,-0.477401,0.494103,0.105249,0.862241,0.495442
0.325573,-0.090118,0.545498,-0.790654,0.612209,-0.008145
0.035820,-0.027066,0.578399,-0.686988,0.311794,0.656378
-0.169899,-0.592225,0.396807,0.138437,0.311407,0.940139
0.183452,-0.361705,0.497577,0.897418,0.319965,0.303750
-0.132376,-0.116330,0.816917,-0.307733,-0.841242,-0.444537
-0.003624,-0.264613,0.932031,-0.023844,0.972027,0.233657
-0.560986,-0.115886,0.753871,0.598812,0.490574,0.633056
0.015338,-0.111195,0.634078,0.708166,0.478031,0.519603
0.002559,-0.453090,0.770431,-0.139336,-0.717560,0.682417
-0.130388,0.118593,0.707043,-0.642040,0.747870,-0.168745
-0.700236,-0.390616,0.622058,-0.549612,0.432775,-0.714585
0.287707,-0.188978,0.640845,-0.070952,-0.678274,0.731376
-0.354237,-0.227021,0.615052,-0.627865,0.163532,-0.760949
0.075916,-0.288608,0.202628,0.696918,-0.717001,0.014640
-0.523772,-0.188616,0.569551,0.999022,-0.042133,-0.013410
-0.106416,0.562161,0.646889,0.450863,0.860357,0.237716
-0.468750,0.180676,0.619673,0.029104,-0.880168,0.473770
0.012380,-0.219521,0.565318,0.987760,-0.150037,0.042654
-0.985096,0.180220,0.638240,0.501730,-0.720641,-0.478481
0.660610,-0.624882,-0.939076,0.455937,-0.695275,0.555621
0.160522,-0.204359,0.611516,-0.342990,-0.577720,0.740673
0.037119,0.229985,0.544948,0.555113,0.819177,-0.144217
-0.245142,0.424809,0.601417,0.239475,-0.775935,-0.583589
0.714179,-0.504254,-0.900721,-0.771207,-0.586220,-0.248167
-0.272186,-0.257836,0.855024,0.096549,-0.991803,-0.083697
0.687004,-0.574501,-0.882995,0.844001,-0.430148,0.320366
-0.085474,0.036164,0.848920,0.642794,0.558125,0.524701
-0.495014,0.416610,0.688053,0.574743,0.755895,-0.313516
-0.865200,0.072194,0.637004,0.754506,0.621528,0.210770
-0.291575,-0.140582,0.830031,0.855092,0.257238,-0.450163
-0.145395,-0.023756,0.596171,0.518700,0.536271,0.665855
0.830872,-0.506633,-0.964212,-0.618637,0.117904,0.776780
0.056757,0.262594,0.748772,0.829624,0.540128,0.141370
-0.138163,-0.175810,0.341621,-0.230431,0.645627,-0.728057
-0.034489,-0.448250,0.722489,0.587857,0.722742,-0.363410
0.463551,-0.467698,-0.599113,-0.420024,0.852258,-0.311828
0.195340,-0.060446,0.594084,-0.500199,-0.844728,0.190356
-0.115480,0.168432,0.809495,0.503673,0.234266,0.831524
-0.055165,-0.226277,0.780920,-0.082829,-0.779717,0.620630
-0.124460,0.208369,0.900569,0.706532,0.271287,0.653618
-0.397726,0.520255,0.668871,0.558139,0.302462,0.772656
0.144409,-0.232691,0.639549,0.132180,-0.464454,0.875677
-0.043696,-0.360754,0.842170,0.624417,0.508623,0.592796
0.251659,-0.438780,0.650692,-0.061392,-0.786824,0.614116
-0.140357,-0.158364,0.655348,0.260588,0.500035,-0.825868
0.625841,-0.597235,-0.935471,-0.145722,-0.988951,-0.027234
0.054939,-0.187328,0.610781,-0.458794,0.355766,-0.814210
-0.721984,-0.335874,0.613719,0.853496,-0.490004,-0.177313
-0.380281,-0.167339,0.798753,-0.537821,0.834398,-0.120534
0.075396,-0.141113,0.608571,-0.164607,-0.175930,0.970543
-0.842505,-0.039693,0.641761,0.736387,0.381284,0.558890
-0.134050,0.695489,0.619117,-0.559331,0.338105,-0.756858
-0.166827,-0.516547,0.358017,0.945679,0.024711,0.324160
0.228568,0.594636,0.748529,0.833892,-0.335451,0.438288
0.724968,-0.361606,0.587819,0.930243,-0.349832,-0.110753
0.116230,-0.283859,0.599128,0.851676,0.310880,0.421902
-0.499915,0.334013,0.681742,0.545504,-0.069317,0.835237
-0.328938,-0.390361,0.370630,-0.059830,-0.143535,0.987835
0.552374,-0.326346,0.667676,0.863891,0.498255,-0.073717
-0.414748,-0.401624,0.742415,-0.589343,0.630612,-0.504978
0.384751,0.239246,0.455302,0.935085,0.222681,-0.275735
-0.643261,-0.223328,0.574314,0.260222,0.896463,0.358663
-0.042851,-0.184791,0.812880,-0.390089,-0.060463,0.918790
-0.089552,-0.109217,0.794913,0.835416,-0.320661,-0.446382
0.164287,0.502122,0.648403,0.797782,-0.158386,-0.581771
0.201347,-0.548073,0.670390,0.752176,-0.570581,-0.329650
0.033730,-0.200822,0.921269,-0.188974,-0.902576,0.386841
-0.895978,0.263858,0.657892,0.860345,-0.498618,0.105764
0.635946,-0.646507,-0.924733,0.221523,0.973158,0.062373
0.486908,0.229700,0.572017,0.612849,-0.531932,-0.584350
0.198121,0.497812,0.730426,0.432693,-0.843007,0.319554
0.063236,-0.641365,0.631120,0.965441,0.244211,-0.091023
0.139146,-0.820322,0.617975,0.973623,0.154780,-0.167633
-0.735285,0.233519,0.608086,-0.459516,-0.016430,0.888018
0.269253,-0.516319,-0.170609,-0.239380,-0.968245,0.072106
-0.114509,-0.192522,0.710442,0.106595,-0.963719,-0.244709
-0.058049,0.453496,0.687677,0.641896,-0.733763,-0.222626
0.045249,0.428375,0.608474,0.904194,0.422474,-0.062842
0.286542,-0.699303,0.662186,0.947981,0.137532,0.287083
0.540894,-0.483238,-0.560727,0.470153,0.792145,0.389182
0.279320,0.519408,0.677316,0.807028,-0.554859,0.202082
-0.352720,-0.185805,0.611783,-0.612838,0.650183,-0.449101
-0.824740,-0.300358,0.704219,0.963058,0.262766,-0.058934
-0.680117,-0.274481,0.606681,-0.853802,0.363564,-0.372618
0.011787,-0.070990,0.682128,-0.120760,-0.082946,0.989210
-0.215924,0.387185,0.645804,-0.498291,0.290796,0.816788
-0.075472,0.074257,0.740125,0.240823,0.951067,0.193586
0.048317,-0.273836,0.683343,0.966491,-0.067076,-0.247784
-0.017398,0.000304,0.737663,0.490932,0.055400,-0.869435
-0.071596,-0.022711,0.738545,-0.575880,0.694333,0.431583
0.044267,-0.208645,0.976559,-0.768390,0.639974,-0.003248
-0.238089,0.555691,0.626953,0.880845,-0.172973,0.440674
0.096035,-0.276838,0.451957,0.932793,-0.025139,0.359534
-0.098961,0.302114,0.855873,-0.658943,0.725464,-0.198737
-0.811622,-0.308005,0.639612,0.852974,0.014630,-0.521749
-0.024968,-0.188121,0.826245,0.802731,-0.515601,0.299632
0.018165,-0.029572,0.751488,0.875015,0.218286,0.432087
0.227418,-0.873113,0.717247,0.528987,0.353980,-0.771279
0.004523,-0.200230,0.522756,-0.085306,-0.967510,-0.238009
-0.248471,0.225366,0.832703,0.026478,-0.982016,0.186934
0.002278,-0.317593,0.707654,0.789805,0.612726,0.027852
-0.166628,-0.377826,0.818324,0.492149,0.863945,-0.106720
0.264461,-0.842983,0.732158,0.950694,0.023867,-0.309212
-0.548376,-0.252848,0.597092,0.253475,0.953052,0.165657
-0.053919,0.059099,0.869834,0.762707,-0.098726,-0.639164
-0.020435,-0.154476,0.583930,0.396753,-0.908585,-0.130616
-0.352295,-0.214501,0.489021,0.819535,0.298654,0.489048
-0.411754,0.347129,0.545981,-0.612147,-0.129402,-0.780084
-0.213398,-0.377818,0.865615,0.354787,0.714645,0.602834
0.733813,-0.735186,-0.948714,-0.674669,0.543466,-0.499466
-0.014637,0.429600,0.659530,0.810781,0.584781,0.025807
-0.050990,-0.297972,0.558228,0.257948,0.754263,0.603779
-0.185820,-0.518179,0.651161,0.872998,-0.041109,0.485988
-0.067264,0.024359,0.802806,-0.695552,-0.190602,-0.692732
0.185520,-0.359805,-0.002332,0.569814,0.743701,-0.349601
-0.060662,-0.377051,0.867098,-0.201060,0.974927,0.095352
-0.118133,-0.437623,0.749168,0.117594,0.875184,0.469280
0.509810,0.253130,0.558993,0.000035,0.991362,0.131157
-0.159889,0.051955,0.848377,0.940611,0.196152,-0.277084
0.225385,0.154407,0.602296,0.044462,-0.138509,0.989363
0.397011,-0.256057,0.622709,0.617608,0.773068,-0.144659
-0.010926,-0.793357,0.489324,-0.062608,-0.237609,0.969341
-0.011192,-0.215824,0.750930,0.729102,-0.139336,0.670072
0.070793,0.513970,0.562344,-0.111652,0.909097,0.401343
0.878312,-0.537083,-0.960581,0.313376,0.123873,0.941515
-0.553673,-0.266033,0.600562,0.018701,0.972069,0.233950
0.159139,0.206031,0.588908,-0.034581,0.888587,0.457402
0.093495,-0.125683,0.389921,0.825504,0.244847,-0.508520
0.420059,-0.759876,-0.971662,-0.310628,0.675981,0.668252
-0.095199,-0.404036,0.689436,0.966488,-0.241451,-0.087195
-0.525347,0.046516,0.553623,0.853884,-0.127232,0.504673
0.488888,-0.156654,0.199010,-0.664604,-0.590657,0.457632
-0.313205,0.547230,0.665218,0.922380,0.247688,0.296421
-0.354563,-0.410791,0.823605,0.609368,0.735037,-0.297308
0.603723,-0.484409,-0.981584,0.236623,-0.157516,-0.958748
0.969553,-0.488141,-0.964873,0.447241,-0.161987,-0.879623
-0.302417,-0.054749,0.835577,0.819386,-0.561153,0.117105
0.214618,-0.189998,0.552319,-0.570589,0.811902,0.123467
-0.239841,-0.090378,0.843490,0.347777,0.311705,-0.884246
-0.131322,0.070824,0.730188,0.872134,0.476376,-0.111570
-0.011690,-0.189031,0.752966,-0.576989,-0.191347,-0.794021
-0.244360,-0.431909,0.677798,0.877135,0.408379,0.252707
-0.007119,-0.283160,0.314105,-0.164853,0.970388,0.176554
-0.877787,0.494424,0.595804,0.528303,0.222007,-0.819517
-0.077379,-0.237497,0.686161,0.753785,-0.604828,0.256886
-0.023735,0.441408,0.701265,0.401096,-0.623484,-0.671111
-0.730404,0.088730,0.648951,-0.177210,0.951627,0.251005
0.145613,-0.326435,0.614142,-0.388160,0.897654,0.208683
-0.087637,-0.303292,0.882460,0.407429,0.192224,-0.892777
0.267733,0.303713,0.676053,-0.495677,0.611697,-0.616547
-0.015863,-0.892842,0.640505,0.289132,0.298484,-0.909566
-0.191247,-0.311398,0.840133,-0.574557,0.567094,-0.590160
-0.150060,-0.302299,0.386066,0.830402,-0.435106,0.348017
-0.336742,0.238034,0.859487,-0.062078,-0.816758,0.573631
-0.395378,-0.011619,0.723460,-0.013505,0.971329,0.237354
-0.143945,-0.489130,0.907108,-0.467541,-0.839669,0.276335
-0.007463,-0.290366,0.828102,0.319909,0.896789,-0.305660
-0.329323,-0.194305,0.821406,0.937024,0.325716,0.126079
-0.134847,-0.185635,0.866973,-0.230122,0.073803,0.970359
0.213266,-0.039790,0.725699,0.336551,0.651135,0.680262
-0.310089,-0.766795,0.585867,-0.714035,0.672757,-0.193785
0.842792,-0.670557,-0.964284,0.822493,-0.147696,0.549265
-0.259410,-0.067482,0.702046,-0.354326,-0.899488,-0.255685
0.017288,-0.266191,0.258500,0.875899,-0.248666,0.413481
-0.073963,-0.299001,0.771897,0.343293,-0.781431,-0.521072
-0.266140,-0.309472,0.795678,0.940612,0.159554,-0.299654
0.287954,-0.537808,-0.299169,0.580732,-0.797444,0.163810
-0.095533,-0.391727,0.866446,-0.045223,-0.975632,0.214704
-0.044490,-0.201016,0.734080,0.535205,0.844704,-0.005593
-0.724313,-0.397691,0.614558,-0.539707,-0.125578,-0.832434
0.010108,-0.074002,0.909376,-0.625006,-0.431543,-0.650491
-0.227679,-0.253445,0.805884,-0.177306,0.903246,0.390780
-0.421184,-0.291575,0.778257,0.192971,-0.971629,0.136748
0.206630,0.612594,0.732605,0.001645,-0.978643,0.205562
-0.184530,-0.674296,0.595149,-0.300477,0.948544,0.099891
-0.121660,0.846125,0.587617,0.842178,0.464708,0.273463
0.004535,-0.320724,0.743137,-0.653444,-0.118667,0.747616
0.071291,0.604061,0.551289,0.555649,-0.320339,0.767227
0.608866,-0.796255,-0.953804,0.184970,0.604437,0.774882
0.451790,-0.803305,-0.960748,0.202173,0.934511,0.292944
-0.242640,-0.102175,0.359515,0.234594,-0.876192,0.421014
-0.104665,0.412884,0.695736,-0.057210,0.737802,0.672589
0.048144,-0.347014,0.840321,0.587000,-0.773467,-0.239125
0.630914,0.398072,0.612539,-0.259015,-0.563076,0.784765
0.043482,-0.235433,0.774704,0.463353,0.884810,-0.049157
0.146537,-0.100689,0.620440,0.772114,-0.035525,-0.634490
0.532660,-0.448701,-0.654947,0.311058,-0.945326,0.097991
-0.377978,-0.190198,0.916094,-0.406186,0.135104,0.903748
-0.113593,-0.523973,0.685973,0.173920,-0.940511,0.291875
-0.277515,0.588015,0.721591,-0.015913,-0.999827,0.009602
0.762234,-0.718987,-0.952976,0.025279,-0.611649,0.790726
-0.107742,0.833358,0.556522,0.175392,0.882893,0.435589
0.059540,-0.253676,0.490143,-0.903163,0.366549,0.223471
-0.073585,-0.241443,0.605426,0.792453,0.480819,0.375276
0.330115,-0.552598,-0.311285,0.770654,-0.636779,0.024596
0.016298,0.498984,0.705470,0.135919,0.295754,0.945545
0.055968,-0.125505,0.293482,0.115551,0.985801,-0.121835
-0.057586,-0.227299,0.512394,0.837329,0.542199,-0.070004
0.487135,-0.539482,-0.610233,0.634090,-0.758672,0.149490
0.261693,-0.183654,0.599385,-0.243492,0.020516,-0.969686
-0.329826,-0.169505,0.820018,0.968175,0.248863,0.026534
-0.613754,0.095179,0.574059,-0.001167,-0.291774,0.956486
-0.093709,-0.171895,0.668592,0.391793,0.654049,-0.647084
-0.192653,-0.485382,0.726678,-0.336357,-0.933898,-0.121236
-0.402219,0.405732,0.681760,-0.325783,0.935722,-0.135238
-0.003799,-0.305782,0.178235,0.847754,-0.506150,0.158509
-0.120007,0.768253,0.576019,0.743630,0.500143,0.443702
0.439703,0.194452,0.533382,-0.058986,0.238399,0.969374
-0.504730,0.290019,0.725567,0.948791,-0.102033,0.298973
-0.035274,-0.196514,0.943985,-0.743379,0.379239,-0.550967
-0.182903,-0.518585,0.683704,0.223171,0.403658,-0.887274
0.599210,-0.525992,-0.980037,-0.263096,-0.198173,0.944197
0.337520,-0.040712,0.448660,0.641093,0.671881,-0.370912
-0.079738,-0.361274,0.366829,-0.585137,0.806562,0.084101
0.007590,0.005905,0.913087,0.660098,0.745615,-0.091260
-0.443596,0.157000,0.595833,0.981931,-0.185893,-0.035441
-0.195872,-0.064773,0.810509,0.039970,0.562758,0.825655
0.014962,0.472125,0.691671,0.403144,-0.863507,-0.303035
0.265962,0.257375,0.598825,-0.226614,0.639918,-0.734269
0.028308,-0.485605,0.494375,0.344135,0.769514,0.537977
0.479103,-0.503603,-0.628176,0.774048,-0.633095,0.006364
-0.334615,-0.188267,0.850237,0.615228,-0.069975,0.785238
0.076252,-0.656836,0.644789,-0.633142,-0.373354,0.678040
-0.047900,-0.196338,0.533194,0.806632,-0.590953,0.010936
-0.684546,-0.337444,0.596398,0.063660,0.459303,0.885996
-0.214405,-0.155845,0.819713,0.934119,0.024040,-0.356150
-0.319915,0.387666,0.599102,0.537735,-0.837332,-0.098571
-0.420379,0.151519,0.630329,-0.214202,0.037679,0.976062
0.415490,0.061098,0.490137,-0.583850,0.791051,0.182637
-0.163518,0.121617,0.852476,0.692206,0.467462,-0.549846
-0.123261,0.026318,0.909877,0.714034,0.662245,-0.227130
0.520104,-0.714555,-0.980692,-0.291351,0.054506,0.955062
-0.358913,-0.057425,0.734659,0.190918,0.473051,0.860101
0.225832,-0.511520,-0.210876,-0.103494,0.993509,0.047217
0.496324,-0.372227,0.515848,0.455390,0.873681,0.171176
-0.318124,0.033934,0.758298,0.811476,0.127907,0.570216
0.081813,-0.272699,0.088601,-0.114638,-0.727170,0.676817
-0.370882,-0.293253,0.863573,0.356825,0.933677,0.030382
-0.054720,-0.445704,0.757939,0.335498,0.911631,-0.237423
-0.659266,0.179333,0.604002,-0.245936,0.932028,-0.266157
-0.003836,-0.294962,0.414858,0.168092,-0.921067,0.351256
-0.276785,-0.140284,0.703427,0.956696,-0.093578,0.275636
-0.799437,-0.295292,0.667090,0.763792,0.184886,0.618416
-0.141146,-0.651488,0.644671,0.698840,0.496478,0.514910
0.059057,-0.473516,0.520120,0.328114,-0.655884,0.679822
-0.184129,-0.305537,0.856848,-0.326527,0.722028,0.609963
-0.303995,-0.094946,0.373367,-0.435667,0.831060,-0.345736
-0.033826,-0.293725,0.820461,0.510951,-0.110579,-0.852468
-0.257856,-0.237307,0.841676,-0.155144,-0.973832,-0.166077
-0.252217,0.796766,0.608358,0.733437,0.587320,-0.342237
0.155937,0.291952,0.563065,0.980707,-0.192757,0.032542
-0.120959,-0.362493,0.713811,-0.564516,0.227265,-0.793519
-0.958585,0.231712,0.613462,0.503633,-0.674060,-0.540367
-0.025773,-0.503922,0.500149,0.199535,0.937068,0.286514
0.185028,-0.359315,-0.054510,0.648565,-0.647319,-0.400428
-0.149301,-0.162327,0.597149,0.737711,-0.387280,-0.552988
-0.027264,-0.260976,0.734208,0.870634,-0.082939,-0.484890
-0.310531,-0.020623,0.396772,0.986681,0.006539,0.162533
-0.579322,0.145226,0.580399,0.214523,0.756593,-0.617695
0.023082,-0.225609,0.601072,-0.617550,-0.044458,-0.785274
-0.030164,-0.098295,0.898632,0.877708,-0.286673,-0.383988
0.276121,-0.097640,0.636561,-0.132511,-0.612066,0.779625
0.115087,-0.308774,0.321217,0.391934,0.876052,0.280927
0.187192,-0.106010,0.774152,-0.475500,0.562349,-0.676508
-0.251732,-0.060451,0.829116,-0.150796,0.925654,-0.347023
-0.567861,0.322655,0.613245,0.079757,0.979141,-0.186874
-0.360932,-0.278028,0.374418,0.485715,0.001937,-0.874115
0.114462,-0.168272,0.832400,0.267603,0.956756,0.114047
-0.886379,0.068206,0.644735,0.700057,0.681149,-0.214376
-0.036268,-0.394949,0.861520,-0.178075,-0.179523,0.967502
0.157451,0.278588,0.628079,0.084189,0.844396,-0.529063
-0.180835,0.266384,0.883392,0.207277,-0.802656,0.559266
0.540553,-0.484417,-0.559600,-0.378897,-0.798309,-0.468124
0.045532,-0.072212,0.945638,0.827361,0.301494,-0.473894
-0.101604,-0.226786,0.604441,-0.191090,0.931888,-0.308335
0.248282,-0.444760,-0.095462,-0.055593,-0.994550,0.088204
-0.079711,-0.238444,0.560951,0.474455,0.783703,-0.400877
-0.180196,0.658881,0.615943,0.512080,-0.450398,0.731379
-0.101192,-0.151982,0.604326,0.381902,0.537331,-0.751948
-0.015037,-0.519162,0.503043,0.434635,0.844851,0.311960
-0.139706,-0.510268,0.339533,0.992306,-0.098856,-0.074544
-0.241302,-0.365953,0.899506,0.067706,-0.967134,0.245089
0.063035,-0.490299,0.700181,0.054645,0.998341,-0.018154
-0.062945,-0.230479,0.596198,-0.417017,-0.900284,0.124839
-0.059089,0.074164,0.493311,0.043557,0.857738,0.512238
-0.388050,-0.363455,0.788055,0.725520,0.573140,-0.380961
-0.438747,0.210364,0.556947,-0.536291,0.342125,-0.771584
-0.006475,0.578761,0.702156,-0.321720,-0.037886,0.946077
0.113044,-0.349036,0.148903,0.329444,-0.924513,-0.191682
0.069922,-0.163111,0.899240,-0.778229,0.410203,-0.475492
0.005703,-0.157834,0.926354,0.373786,-0.589235,-0.716300
0.368952,0.017183,0.569145,0.894957,-0.054944,-0.442757
0.044811,-0.012637,0.632527,0.742909,-0.659871,0.112496
-0.256753,-0.001818,0.581060,-0.526494,0.494534,-0.691549
0.050711,-0.312815,0.469767,0.934401,-0.005262,0.356185
0.251946,-0.451967,0.439121,-0.201340,0.969091,0.142566
0.568092,-0.370075,0.637057,-0.604234,-0.796682,0.014129
-0.114423,0.568512,0.572505,0.705548,-0.171650,0.687560
0.465520,-0.465445,-0.545828,-0.147835,0.987793,0.049083
-0.002410,-0.226202,0.411356,0.618105,-0.597809,-0.510461
-0.000305,-0.346298,0.727274,0.967729,0.163444,0.191799
0.813224,-0.456614,-0.959893,-0.116444,0.334981,0.935002
0.454820,-0.493028,-0.480864,-0.189738,0.965059,-0.180722
0.073208,-0.310811,0.831576,-0.021166,0.999732,0.009421
-0.022725,-0.170328,0.884153,0.592654,-0.805219,-0.019559
-0.292828,0.908556,0.710391,0.999575,-0.009894,0.027415
-0.259020,-0.004077,0.679864,-0.563919,-0.752988,0.339124
-0.028339,0.049514,0.863153,-0.107392,-0.939534,0.325181
-0.069916,0.823824,0.555388,0.572567,0.761194,0.304549
0.662430,-0.573625,-0.958775,-0.686436,-0.036074,0.726295
0.054312,-0.026394,0.410754,0.944563,0.066272,-0.321571
-0.588354,-0.251770,0.616833,0.403648,0.747757,0.527189
-0.344079,-0.031676,0.735744,0.009316,-0.105249,0.994402
-0.180278,-0.460654,0.905653,0.163210,-0.833873,0.527275
0.731282,-0.454496,-0.979504,0.197047,-0.006946,-0.980369
-0.006384,0.427010,0.674032,-0.685642,0.537698,-0.490689
-0.546555,-0.070032,0.606052,-0.797680,0.074395,-0.598475
0.175929,-0.242515,0.547550,-0.666579,0.600264,0.441990
0.012438,-0.257732,0.272959,0.973342,0.229152,0.009712
-0.019046,-0.354383,0.332322,0.943208,-0.313917,-0.108692
0.035535,-0.109546,0.619859,0.896273,0.350188,0.272145
-0.460311,0.838720,0.660592,0.951632,-0.174822,0.252655
-0.439490,-0.519998,0.716648,0.609225,-0.681814,0.404938
0.054368,-0.219914,0.517128,0.984244,-0.098138,-0.147080
0.006547,-0.284383,0.235260,0.936573,-0.167536,-0.307835
0.225352,-0.963144,0.719942,0.949689,-0.304805,-0.072002
-0.010108,-0.299636,0.816074,0.999151,0.041036,0.003561
-0.097604,-0.202392,0.951383,0.790933,-0.600301,0.118588
-0.268292,0.313873,0.611622,0.382626,0.428016,-0.818779
-0.059963,-0.223040,0.783716,-0.641239,-0.239359,0.729054
-0.140813,-0.235024,0.949527,0.974064,-0.122054,0.190532
0.124768,-0.238508,0.202600,0.819521,-0.522491,0.235347
0.088717,0.142855,0.364151,-0.740737,-0.429910,0.516223
-0.094083,-0.238848,0.596349,-0.307978,-0.806248,0.505088
0.097929,-0.183924,0.723143,0.731874,-0.653310,-0.193770
-0.124176,0.058614,0.687644,0.961159,-0.204238,0.185637
0.161572,-0.915462,0.586822,0.281921,-0.954972,-0.092456
-0.493851,0.412939,0.708977,-0.444615,-0.532202,0.720471
0.073884,-0.233961,0.532519,0.881452,0.042102,0.470392
0.112416,-0.145933,0.851235,0.436840,-0.476373,0.763047
0.519654,-0.432686,0.514022,0.311953,0.880419,0.357139
0.018729,0.277259,0.629751,0.722557,-0.528530,0.445609
-0.067833,0.338296,0.872340,-0.491016,-0.769426,0.408518
0.388271,0.273757,0.579791,-0.881864,-0.019459,-0.471102
-0.023908,-0.051304,0.455602,0.490665,-0.460000,-0.740032
-0.388583,-0.176799,0.890269,0.757633,0.567091,0.323109
0.846128,-0.705495,-0.939587,0.070482,-0.460740,0.884732
-0.176536,0.376020,0.605347,-0.844315,0.456595,-0.280450
-0.094476,-0.227629,0.627065,0.850720,-0.517064,0.094449
-0.030063,0.235058,0.558018,-0.551523,0.573635,-0.605612
0.078808,0.396211,0.595151,0.757483,0.645759,0.095988
0.186818,-0.368755,0.751034,0.942466,0.334279,0.004029
-0.475044,0.232211,0.625555,0.414876,0.296478,0.860220
0.770413,-0.355635,-0.963971,0.000094,0.100085,0.994979
0.068431,-0.263764,0.747290,0.120009,0.187616,-0.974884
0.892922,-0.821914,-0.940351,-0.938191,0.346034,0.007655
-0.151604,-0.371327,0.376487,0.252960,-0.525962,0.812019
-0.740894,0.509428,0.670128,0.913018,0.377930,-0.153515
0.613776,0.039333,0.540664,-0.379715,-0.884722,0.270341
-0.013205,-0.213036,0.661351,-0.647901,-0.669429,0.363441
0.147919,-0.360583,0.028166,-0.504240,-0.857357,-0.103349
0.113553,-0.641828,0.644991,0.274278,-0.237314,0.931909
0.916783,-0.672732,-0.941400,-0.789703,0.464623,-0.400618
-0.372735,-0.115024,0.741257,-0.345337,-0.379105,-0.858500
-0.131173,-0.254177,0.577416,-0.735013,-0.565119,-0.374695
-0.037113,-0.198470,0.923706,0.679120,0.016291,-0.733846
0.080685,0.272516,0.486580,-0.755660,0.494696,-0.429249
0.512770,-0.423622,0.675572,0.766843,0.636862,-0.079747
0.072638,-0.469236,0.667517,0.934379,-0.038265,-0.354220
0.727519,-0.557719,-0.978537,-0.503452,-0.051412,0.862492
-0.102670,-0.215287,0.915482,0.092705,0.852254,0.514848
-0.240310,-0.399498,0.649840,0.593476,0.615870,0.518161
0.113291,0.414378,0.494419,0.275772,-0.147215,0.949883
0.624966,-0.660284,-0.961626,-0.611286,-0.533614,0.584453
-0.094454,-0.311025,0.549178,0.052205,-0.871682,0.487284
-0.039845,-0.224741,0.807412,-0.405489,-0.643938,0.648785
0.278662,-0.570971,-0.348516,-0.313915,0.928991,0.196045
0.332948,-0.059254,0.392540,-0.087241,-0.887569,0.452338
0.014585,-0.193284,0.925785,0.252529,-0.885120,0.390885
0.161346,-0.165132,0.683425,-0.172151,0.888971,-0.424376
-0.254600,-0.405093,0.680929,0.916156,-0.261750,-0.303554
-0.165393,-0.328647,0.566078,-0.475685,0.871255,0.120988
-0.890409,0.101989,0.662912,0.412401,0.656648,0.631457
-0.758899,-0.306761,0.649448,-0.347548,0.539280,0.767064
0.163919,0.087752,0.231048,0.906424,-0.421103,-0.032687
-0.046702,-0.172170,0.834654,0.681536,0.704664,0.197377
0.295759,0.484044,0.675904,0.895580,-0.442477,0.046368
0.160853,-0.346256,0.040390,-0.663914,-0.747117,0.032175
0.131551,0.105670,0.830226,-0.694912,0.694272,-0.187309
-0.264683,0.278808,0.555928,-0.260098,0.713964,0.650080
-0.932507,0.184571,0.647701,-0.009756,0.396520,0.917974
-0.602672,-0.021007,0.523871,0.737896,-0.671138,-0.071291
-0.401703,0.436333,0.679849,0.372634,-0.676295,-0.635429
0.241254,0.120701,0.220417,0.907746,-0.415440,-0.058364
0.456197,-0.276030,0.645940,-0.683137,0.206764,0.700409
-0.096047,0.000446,0.727775,0.344229,0.630469,-0.695712
-0.118836,-0.327980,0.860057,-0.072410,0.509595,0.857362
0.505204,-0.572031,-0.740795,-0.366693,0.892519,-0.262574
-0.157720,-0.490808,0.911173,0.464263,0.884074,-0.053604
0.512812,-0.399473,-0.589856,-0.601736,-0.774584,0.194767
0.007274,0.376534,0.578753,0.739632,0.402706,-0.539233
-0.173286,0.079545,0.916311,0.858584,0.369109,-0.355798
-0.631273,0.510072,0.661207,-0.230557,-0.816185,0.529798
-0.362997,-0.084138,0.391279,0.765742,0.612161,-0.197225
-0.082389,-0.137029,0.497731,0.645008,0.688800,0.330938
-0.035813,-0.248246,0.773810,-0.376386,0.898760,-0.224864
-0.157272,0.009477,0.496131,0.895084,0.442731,-0.053051
-0.322935,0.218810,0.825583,0.003525,-0.929468,0.368886
-0.067698,0.600997,0.592561,0.930295,-0.061555,0.361610
-0.281449,0.776271,0.639204,0.231298,0.473463,-0.849902
0.131507,0.374008,0.550584,-0.421644,-0.156258,0.893196
-0.127140,-0.036783,0.482400,0.728497,-0.030048,0.684390
-0.217792,0.262296,0.526762,-0.266157,-0.739037,0.618858
0.133654,-0.129249,0.782581,-0.451051,0.453265,-0.768833
-0.036386,0.364590,0.710675,0.926754,0.124598,0.354404
-0.153770,-0.299256,0.573744,-0.197921,0.871119,0.449420
0.018882,-0.192152,0.680280,0.954035,0.034412,0.297712
0.028429,-0.450979,0.847564,0.885480,-0.351797,0.303586
-0.096059,0.819346,0.633936,-0.107355,0.972183,-0.208171
0.018563,-0.351500,0.231200,-0.713857,-0.693576,-0.096752
0.090061,0.044407,0.484031,0.799126,0.158999,0.579756
0.137646,-0.132569,0.607619,0.695634,-0.118875,-0.708493
-0.309089,-0.173536,0.786152,0.095481,-0.641297,0.761329
0.454551,0.199366,0.571743,0.525463,-0.711263,-0.466898
-0.176857,-0.413484,0.865464,0.410992,0.872423,0.264506
0.364972,0.437201,0.594355,-0.616246,0.784695,0.067044
-0.323481,-0.417993,0.704389,0.956240,-0.291826,-0.021035
0.008457,-0.047347,0.517834,0.872702,-0.072347,0.482863
0.248369,-0.420499,-0.145228,-0.142913,-0.964439,0.222336
-0.139421,-0.130832,0.650687,0.315734,0.370294,-0.873610
-0.609506,-0.379726,0.741057,0.239838,-0.969609,0.048338
0.517742,-0.534473,-0.746557,-0.404209,0.882572,-0.240172
-0.018610,-0.303451,0.491277,0.902747,-0.260482,0.342339
-0.243478,0.678566,0.649489,0.911269,0.125275,0.392293
0.528889,-0.648337,-0.788387,-0.507950,0.861376,0.004143
-0.376883,-0.078941,0.400329,0.779201,0.572741,-0.254584
-0.362757,0.389036,0.619472,0.471273,0.813412,-0.340974
0.006362,-0.141155,0.393537,0.995280,0.089858,0.036649
0.116314,0.199156,0.605980,0.202273,0.955086,-0.216558
0.234642,-0.293720,0.604365,0.224615,0.151980,0.962523
-0.018303,-0.081688,0.628581,-0.505983,-0.024415,-0.862198
0.030442,-0.360268,0.241664,0.641329,0.767172,0.012042
0.018809,-0.296162,0.622311,0.183583,-0.914081,-0.361598
0.211429,-0.603392,0.650805,0.960517,0.090435,0.263114
-0.006407,-0.172384,0.816689,-0.488273,0.485996,0.724843
0.014348,-0.782796,0.555116,0.968245,0.152024,0.198468
-0.259323,0.092266,0.446152,0.106602,-0.674116,0.730892
0.362690,0.019511,0.473885,-0.278150,0.920025,-0.276018
0.511486,-0.622158,-0.817550,-0.364190,0.904231,0.223006
0.053360,-0.237822,0.467500,0.874889,0.251392,0.413969
-0.000364,-0.140973,0.658821,-0.366175,0.640336,0.675193
0.107038,-0.292495,0.816956,0.135914,0.730489,0.669263
-0.100919,0.872676,0.527687,0.342970,0.765353,-0.544615
0.182134,-0.325371,0.119100,-0.614807,0.785600,-0.069604
-0.261114,0.411423,0.684983,-0.584608,0.790162,-0.184056
-0.759800,-0.452349,0.640286,0.998805,-0.024870,-0.042065
-0.427622,-0.150906,0.748727,0.287356,0.430602,0.855575
0.071353,-0.610395,0.613424,0.390960,0.917971,-0.066932
0.170464,-0.320686,0.145215,0.883199,-0.420780,0.207131
-0.105482,-0.342724,0.783307,-0.315678,0.928935,0.193461
0.513235,0.277114,0.606254,0.759383,-0.173872,0.626982
0.576841,-0.814810,-0.961948,-0.688589,-0.371608,0.622697
-0.769012,-0.501290,0.680382,0.789020,-0.272970,0.550396
-0.065240,-0.533502,0.513602,-0.764160,-0.641706,-0.065363
0.057346,-0.275389,0.458326,0.840792,-0.096601,0.532669
0.055971,0.139502,0.576622,-0.731668,0.655709,0.186299
-0.115314,0.389381,0.876768,0.105319,0.973779,-0.201650
-0.057132,0.253538,0.820189,0.987532,-0.143737,-0.064185
-0.460455,0.308345,0.651069,0.025936,-0.797382,0.602918
0.153561,0.258143,0.601568,-0.183465,-0.036867,0.982335
-0.396211,0.280220,0.643197,0.040553,0.854103,-0.518520
0.406587,0.394409,0.560519,0.005116,-0.878878,0.477020
0.040795,-0.402865,0.431739,0.238424,0.606525,0.758473
-0.511973,0.044730,0.655250,0.090514,-0.957748,0.272994
-0.048839,-0.517087,0.688017,-0.184497,0.972234,0.143951
-0.522266,-0.021888,0.527257,0.407317,-0.607146,-0.682251
0.762644,-0.350883,-0.966410,-0.189542,-0.432471,0.881500
-0.116722,0.334107,0.880893,0.212144,0.906225,0.365719
-0.196202,-0.328700,0.807266,-0.317878,0.051772,0.946717
0.184540,0.254812,0.592136,-0.513614,-0.799930,0.310345
-0.134332,0.049739,0.721846,0.713906,0.620860,0.323838
-0.244304,-0.248239,0.831763,0.817616,0.558835,-0.138589
0.828764,-0.599805,-0.965887,0.693818,0.345036,-0.632113
-0.320623,0.928042,0.700377,0.999243,-0.031622,0.022648
-0.250828,-0.340224,0.776368,0.915679,0.065911,-0.396469
-0.004855,-0.300275,0.871318,0.887708,-0.391811,0.241783
0.163748,-0.362228,0.051388,-0.366422,-0.532813,0.762788
-0.243011,0.184111,0.517364,0.854810,0.452692,-0.253713
-0.152320,0.063819,0.861828,0.062366,0.879387,0.472006
0.071857,-0.220812,0.236549,0.938753,0.076522,0.335986
-0.265559,-0.082994,0.583622,0.507766,-0.107935,0.854707
0.064638,-0.204650,0.836178,0.327570,-0.776141,-0.538798
-0.053012,-0.225839,0.877163,0.451855,0.810825,0.372007
-0.414812,-0.597666,0.713447,0.726033,-0.577550,0.373244
0.679589,-0.913064,-0.962685,-0.245506,0.106726,0.963502
-0.266591,-0.079249,0.587304,0.672577,-0.154390,0.723743
-0.042853,-0.424181,0.841521,0.931655,-0.091773,-0.351564
0.227191,-0.813449,0.759349,-0.011229,-0.933070,0.359520
0.164907,0.379435,0.505452,0.938874,-0.111132,-0.325831
0.055325,-0.557262,0.665456,0.569556,0.787627,-0.235053
0.030476,-0.194676,0.669818,0.861091,0.113275,0.495672
-0.005300,-0.158765,0.662681,0.257290,-0.817683,-0.514972
-0.075991,-0.244257,0.532658,0.258231,0.478127,0.839471
0.375313,0.190527,0.586297,-0.411454,0.467455,0.782427
-0.085446,-0.527905,0.620079,0.776479,-0.129035,0.616791
-0.185959,-0.385698,0.633715,-0.737645,-0.087184,-0.669536
-0.092117,-0.280740,0.814375,0.264011,0.962507,-0.062280
-0.003887,-0.313846,0.512350,0.897342,-0.373432,-0.235217
0.546822,-0.381928,0.631378,0.518112,0.854760,0.030742
-0.392190,-0.817897,0.575440,0.199731,-0.928315,0.313591
-0.010433,-0.230902,0.695752,-0.024668,0.980313,0.195901
0.429278,-0.471985,-0.640859,0.659442,-0.745602,0.095989
0.037452,0.105463,0.355661,0.884994,0.101310,0.454447
-0.052875,-0.271444,0.605288,-0.166760,-0.935720,-0.310835
-0.336094,0.502925,0.665853,-0.722222,-0.606015,0.333379
-0.106827,-0.294328,0.905852,0.814623,0.550801,-0.181679
-0.027301,0.294233,0.579373,0.831728,-0.541990,0.120313
0.175818,0.188635,0.226060,0.887898,-0.459851,0.013206
0.889014,-0.621913,-0.949053,-0.439139,0.562609,0.700448
-0.312022,-0.081818,0.730297,-0.584373,0.196283,-0.787389
0.132556,-0.184425,0.604255,0.799993,0.244850,-0.547776
-0.113716,-0.387877,0.865311,0.283674,0.336448,0.897960
-0.250275,0.690970,0.638922,0.935082,0.354020,-0.017071
0.136746,-0.248864,0.742264,-0.408363,0.394305,0.823263
0.309534,-0.464692,0.438882,0.276229,-0.952500,-0.128223
0.050801,-0.107522,0.922044,0.918267,0.145151,-0.368399
0.084389,0.358532,0.613037,-0.391539,0.348735,0.851517
0.095372,-0.094097,0.938072,0.152283,-0.471447,0.868647
-0.156298,-0.461714,0.908532,0.651540,0.653823,-0.384724
-0.080342,-0.111744,0.881259,0.600701,0.559795,-0.570778
0.030783,0.007004,0.487794,0.969168,-0.061732,0.238543
-0.030294,-0.176019,0.471435,0.904117,-0.005340,0.427253
-0.431029,0.793906,0.662848,-0.632969,0.555523,0.539207
0.031053,-0.112268,0.890013,0.296946,-0.004383,0.954884
-0.148384,-0.227286,0.960894,0.915869,-0.109320,0.386306
0.145544,-0.388835,-0.065672,0.994828,-0.089066,0.048837
-0.138637,-0.180788,0.691718,0.750602,0.289434,0.593990
-0.310865,-0.310959,0.781580,-0.411192,0.897753,0.157988
0.019972,0.295190,0.764684,0.424624,0.818553,0.386867
0.255539,-0.717492,0.647541,0.907177,-0.382635,0.174988
0.509995,-0.180894,0.431384,-0.135157,-0.742758,0.655777
-0.536557,0.113772,0.567975,-0.023894,0.998810,0.042507
-0.045852,0.045257,0.834370,0.817312,0.575490,0.028488
0.042677,-0.351166,0.844984,0.839057,-0.428635,-0.335045
-0.777441,-0.184656,0.607984,0.977010,0.212125,0.021307
-0.019518,-0.125221,0.584082,0.474133,-0.846269,0.242957
0.045596,-0.191702,0.936285,0.273612,0.664261,-0.695624
0.912226,-0.455280,-0.971721,-0.003495,0.489043,0.872252
-0.135758,-0.300453,0.856953,-0.139805,0.317944,0.937745
-0.160852,0.315764,0.599182,0.935034,-0.204389,0.289718
0.150595,0.342722,0.489012,0.980011,-0.083851,0.180411
-0.189068,0.155206,0.785690,0.154518,-0.945294,0.287304
-0.062873,-0.402317,0.889925,0.456876,-0.887130,0.065297
-0.090230,-0.160882,0.855671,0.787756,0.451447,0.419090
0.534176,-0.486210,0.558531,0.079748,-0.977751,0.194021
-0.403833,0.261582,0.629764,0.452557,0.815469,-0.360836
-0.734882,-0.217357,0.667373,-0.161851,0.486495,0.858561
0.746579,-0.361289,-0.978694,0.280692,0.334616,-0.899580
0.217196,-0.387411,0.049816,0.910490,0.325438,0.255142
0.016464,-0.252713,0.097651,-0.501510,0.798386,-0.333267
-0.269125,-0.445542,0.511868,0.096911,-0.992401,-0.075819
0.474083,-0.525682,-0.754205,0.466735,-0.805415,0.365330
0.401076,-0.238384,0.584944,0.430338,0.902387,-0.022538
-0.079359,-0.659735,0.613430,-0.473058,0.851040,-0.227920
-0.317987,-0.020813,0.683000,-0.165407,0.948592,-0.269841
-0.000283,-0.236093,0.581224,-0.553337,-0.625468,-0.550099
-0.294664,-0.001544,0.635688,-0.111458,0.886319,0.449461
-0.036073,-0.383253,0.737894,0.872178,-0.378496,-0.309913
-0.022229,-0.260208,0.560268,0.533746,-0.729774,0.427252
-0.305336,0.060617,0.694414,-0.419186,-0.311021,-0.852965
0.157168,-0.597110,0.677049,0.495833,0.215978,0.841132
0.014143,-0.251079,0.305383,0.956407,-0.067981,0.284013
