0.737010,0.273141,0.823153,-0.330999,-0.519363,0.787846
0.366344,-0.628849,0.912779,-0.756029,0.644021,-0.116860
-0.595858,-0.057316,0.676257,-0.418963,-0.620523,0.662889
0.478465,-0.124838,0.478911,0.890399,-0.454545,-0.024043
0.323784,-0.003542,0.792802,0.829063,-0.336906,0.446261
-0.632004,-0.243589,0.566515,-0.651651,-0.470832,0.594700
0.669546,-0.240863,0.487230,-0.113028,-0.866676,0.485899
-0.046501,-0.254912,0.123439,0.994249,-0.102298,-0.031672
0.264325,-0.590092,0.862450,0.034720,0.605379,0.795180
-0.014166,-0.488177,0.761732,0.901750,-0.277792,0.331178
-0.157604,0.030490,0.597310,0.054921,-0.906479,0.418664
0.553298,0.637206,0.956428,0.908421,-0.137117,-0.394931
0.027124,-0.393648,-0.187740,0.302655,-0.950043,-0.076281
0.403951,-0.273625,0.530389,0.816356,-0.546015,0.188229
0.075721,0.134344,0.589818,0.297138,-0.651276,0.698247
0.015308,0.202834,0.615633,0.259049,-0.877843,0.402846
0.018358,0.224634,0.662316,-0.494902,0.846363,0.196832
0.183204,0.481455,0.804829,0.257007,0.816236,-0.517404
0.349575,-0.326551,0.506657,-0.544573,0.827888,-0.134319
0.247428,-0.353257,0.401373,-0.767769,0.069448,0.636951
0.764007,-0.596935,0.872715,-0.100490,-0.980771,-0.167304
-0.043705,0.520575,0.921068,-0.000857,0.166609,0.986023
0.651316,-0.448270,0.793247,-0.474518,-0.773357,-0.420419
-0.057998,0.269325,0.696818,-0.658045,0.343372,-0.670128
0.065175,0.051927,0.757120,0.731134,0.680427,-0.049626
0.157096,0.759833,0.914388,-0.511046,0.693657,0.507614
0.064223,0.455234,0.801321,-0.077987,-0.811384,0.579288
0.113582,0.416356,0.821054,0.889629,0.178193,0.420484
0.029094,-0.342113,0.086930,-0.297070,0.950313,-0.093028
-0.332550,-0.142459,0.630096,0.263816,-0.581026,0.769942
0.808919,-0.339509,0.874447,0.467908,-0.760859,0.449617
0.355164,-0.262361,0.642828,0.865175,-0.309388,-0.394652
-0.162559,0.367245,0.732423,-0.666444,0.567273,0.483791
0.023885,-0.371543,0.238774,0.953812,-0.210953,-0.213874
0.454454,-0.399885,0.758407,-0.694498,0.696087,0.182028
0.686571,0.434100,0.876239,0.144075,0.982823,0.115329
-0.410876,-0.382445,0.548620,0.084636,0.611151,0.786976
0.672406,-0.413449,0.898914,-0.020965,0.640259,0.767873
0.438319,0.556061,0.882092,0.612111,0.491595,-0.619398
0.552026,-0.669059,0.885202,0.090675,0.262456,0.960674
0.515247,0.765828,0.910588,-0.460110,0.285347,-0.840759
0.423833,-0.301238,0.393130,0.172159,-0.007053,0.985044
-0.378098,-0.187211,0.728379,-0.262032,0.955169,-0.137811
0.013849,-0.579677,0.701429,0.773750,0.554327,-0.306646
0.290814,-0.373362,0.473993,0.573725,0.737306,-0.356679
0.468111,-0.022739,0.854055,0.421224,0.125936,-0.898171
0.124508,-0.130772,0.815538,0.907750,0.196201,0.370802
0.175517,-0.073061,0.793553,-0.240080,0.878363,0.413328
-0.406557,-0.076694,0.674986,-0.034279,-0.850556,0.524766
0.211154,-0.022013,0.728608,-0.484548,-0.867455,0.112849
0.289100,-0.353316,0.650534,-0.241607,0.963527,-0.115071
-0.320162,-0.085232,0.560494,-0.206653,-0.234263,-0.949955
0.125842,0.060587,0.616445,-0.476812,0.760939,0.440026
-0.109071,-0.430344,-0.988663,-0.036548,0.239930,0.970102
0.012069,-0.327157,0.280216,0.610371,0.734080,-0.297614
-0.033161,-0.391589,0.032158,-0.099548,0.991365,-0.085361
-0.739298,-0.310625,0.709258,-0.062888,-0.530017,0.845652
-0.044975,-0.397643,-0.025157,0.811816,0.532924,0.238634
0.618664,0.206891,0.837570,0.340551,0.799813,0.494292
-0.036654,-0.165047,0.321843,0.661640,0.719626,-0.210643
0.421928,0.438339,0.833648,-0.657032,-0.341748,0.671951
-0.563334,-0.287310,0.793890,0.941281,-0.008944,0.337504
0.426439,-0.316620,0.688054,0.963458,-0.131500,-0.233359
-0.018486,-0.730039,0.754378,-0.046123,0.605910,0.794195
0.858532,-0.002695,0.731902,0.573175,0.112021,0.811740
0.583980,0.923153,0.630923,-0.583461,-0.500744,0.639398
0.440986,-0.103642,0.712583,-0.745791,-0.650565,0.143392
0.403253,-0.604928,0.748066,0.006427,0.807653,0.589624
0.385213,-0.182849,0.431187,-0.856233,-0.421006,0.299366
0.794753,0.249161,0.826814,0.228189,0.706963,-0.669428
0.051710,-0.452085,-0.872562,-0.138165,0.989799,0.034748
0.013849,0.397887,0.752432,0.491896,-0.751718,0.439270
0.599161,-0.185695,0.793308,-0.809533,0.198538,0.552485
0.338457,0.318679,0.876408,0.708816,-0.197369,-0.677219
0.422374,-0.107396,0.732776,0.814544,0.460194,-0.353185
-0.414369,-0.503436,0.375711,-0.499324,0.712819,-0.492508
-0.044785,-0.447361,0.155689,0.929710,0.151779,-0.335564
0.097445,-0.687225,0.411929,0.713937,-0.658545,-0.237933
0.060030,-0.089352,0.745216,0.961924,-0.032479,-0.271380
0.296849,-0.146334,0.749154,0.752506,0.503491,0.424537
0.289862,0.539044,0.851757,0.954000,-0.204164,-0.219546
0.294625,0.029583,0.820579,-0.783021,-0.023172,-0.621564
-0.390548,-0.499258,0.396363,-0.605109,0.783340,0.142203
0.226464,-0.289914,-0.992125,-0.010971,0.136586,0.990567
0.868632,-0.566051,0.842120,-0.525514,0.076858,-0.847306
0.067591,-0.527841,0.516202,0.714930,-0.547859,0.434425
0.006480,-0.661064,0.568721,0.919592,-0.147428,0.364163
0.227035,-0.299845,0.431279,0.968675,-0.161977,-0.188235
0.215348,0.109093,0.830399,0.998835,-0.005889,0.047905
-0.713188,0.093469,0.673990,-0.009121,-0.360559,0.932692
0.778427,-0.605231,0.784514,-0.645477,-0.354669,0.676439
-0.423263,0.059194,0.720243,-0.131188,-0.233923,0.963364
0.146804,-0.288339,0.357494,0.035019,-0.891865,0.450945
0.012197,-0.705332,0.487751,-0.038639,0.967316,0.250613
0.304853,-0.547946,0.854790,-0.133327,0.498276,0.856706
0.345128,0.402369,0.718635,0.964587,0.217783,0.148801
0.106276,-0.469343,-0.978367,0.075218,-0.703491,0.706713
0.540592,0.942896,0.628717,0.819818,0.331142,-0.467165
0.137340,-0.546855,0.385868,-0.089957,0.850806,0.517723
-0.477832,0.002816,0.722802,0.143792,-0.636733,0.757559
0.407191,-0.028128,0.438556,0.886882,0.344779,-0.307519
0.555329,-0.446452,0.815875,0.241288,0.540872,0.805753
0.328485,-0.266418,0.566209,0.763790,-0.624484,0.163232
-0.094778,0.294214,0.750839,0.032683,-0.864793,0.501064
0.158748,0.622975,0.849275,0.983090,-0.024084,0.181531
0.113644,0.066460,0.631352,-0.621337,0.339355,0.706243
-0.006098,0.278046,0.707588,-0.161840,0.961018,0.224171
0.497840,-0.407151,0.952077,0.244473,-0.438579,0.864801
0.423771,-0.374027,0.752141,-0.608252,0.729035,0.313907
0.342268,-0.409452,0.588715,-0.518511,0.854010,0.042569
0.326705,-0.349138,0.252976,-0.267071,0.710124,0.651458
0.404651,0.379174,0.914740,0.810394,0.261386,-0.524347
0.699085,0.451843,0.621256,-0.201294,-0.914324,-0.351414
-0.093318,-0.593121,0.693861,-0.790861,0.611724,-0.018255
0.596176,-0.057257,0.554825,0.068927,-0.989589,0.126345
0.020263,-0.289187,0.397251,0.684987,-0.637536,0.352620
0.152459,-0.184727,-0.356851,-0.442031,0.091946,0.892275
-0.021153,-0.295243,0.219807,-0.113659,-0.921092,0.372385
0.050058,0.337634,0.721224,0.173005,0.865362,-0.470339
0.905857,0.814394,0.563849,-0.503250,0.293089,0.812919
0.694894,-0.569745,0.855955,-0.562679,-0.703258,-0.434534
0.357515,-0.271867,-0.992662,0.042015,-0.010685,0.999060
0.314700,0.734520,0.936220,0.341735,-0.284273,0.895771
0.235676,-0.349321,0.832054,0.300925,0.897207,0.323209
0.411892,0.102129,0.563037,-0.182368,-0.590790,0.785945
-0.317813,-0.249281,0.515497,-0.219563,0.763847,0.606901
-0.382861,-0.495927,0.374270,-0.499324,0.712819,-0.492508
-0.636071,-0.450207,0.546613,0.798647,0.411290,-0.439322
0.063079,-0.352771,0.815937,0.926769,-0.354905,-0.123052
0.803838,-0.315226,0.869100,0.098397,0.991725,0.082460
0.729513,0.003119,0.745814,-0.415500,-0.777219,-0.472536
0.646805,0.015473,0.600588,0.892769,-0.252241,0.373279
0.015308,-0.238440,0.425227,-0.530594,0.825854,-0.190879
0.821433,-0.060345,0.725177,0.457580,-0.113445,0.881902
-0.730277,-0.055318,0.736376,-0.069835,-0.513851,0.855032
0.029793,-0.369183,0.251000,-0.546379,-0.790726,0.276084
0.952993,0.905955,0.541435,0.814049,0.480586,0.326131
-0.476306,-0.562357,0.588179,0.545608,-0.608128,0.576621
0.364820,0.145911,0.793002,0.843657,0.453867,-0.286788
-0.132259,0.559694,0.884558,-0.278345,0.960183,-0.023921
-0.009529,0.532140,0.783135,0.743320,0.468565,0.477412
0.836172,0.886760,0.527478,0.580175,-0.772765,-0.257355
0.233770,0.466316,0.622773,0.630535,0.576275,0.519936
0.766929,-0.528991,0.842396,0.108509,0.233870,0.966194
0.543768,-0.439004,0.779718,0.101682,0.586466,0.803566
0.145216,0.575378,0.856966,0.968467,0.139579,0.206371
0.597828,-0.576770,0.896432,-0.074480,0.979553,-0.186892
-0.114154,-0.215732,0.472400,0.319817,-0.766420,0.557062
-0.042435,-0.356587,0.093579,0.079211,0.981069,-0.176719
-0.314319,-0.194174,0.628564,0.077369,-0.666304,0.741656
-0.040720,-0.367487,-0.131253,0.651277,0.758596,0.019262
0.041735,-0.341145,-0.271269,0.135722,0.939372,0.314896
-0.446831,-0.418596,0.534341,0.386283,0.494785,-0.778443
0.679583,-0.490053,0.787149,0.662561,0.688727,0.294394
0.366028,0.440640,0.589236,-0.748113,0.004098,-0.663558
-0.468365,-0.376934,0.549233,-0.488880,0.755325,0.436441
-0.411066,-0.128168,0.710990,-0.415087,0.897179,-0.150905
0.756067,0.819057,0.593510,-0.129094,-0.991627,0.003156
0.422500,-0.653192,0.862251,0.082911,0.710336,0.698963
0.774869,0.424591,0.617365,-0.130719,-0.918431,-0.373359
0.699911,-0.538922,0.834000,-0.370708,0.925385,0.078976
-0.174311,-0.780725,0.723062,0.905555,0.060599,0.419878
0.194639,-0.154691,-0.995726,-0.081637,0.115181,0.989984
-0.602847,-0.044964,0.673484,0.192317,0.590042,-0.784133
0.659700,-0.530868,0.872792,0.574797,-0.753628,0.318830
-0.625842,-0.210039,0.579522,0.644159,0.591008,-0.485560
-0.488948,-0.272716,0.749858,0.177356,0.695245,0.696548
0.479163,0.665426,0.904552,0.885372,0.370096,-0.281328
0.069876,-0.827413,0.745032,-0.770583,-0.247877,-0.587161
0.653476,0.785449,0.620015,0.692895,0.285352,0.662171
-0.485390,-0.111999,0.765761,0.925852,-0.168545,0.338218
0.141659,0.431618,0.753643,0.130978,0.909067,-0.395527
0.176725,0.528628,0.859110,0.484810,0.859570,-0.161555
-0.215730,-0.684560,0.716413,-0.163265,-0.985041,0.055130
0.300152,0.590759,0.662990,-0.464159,0.731305,0.499749
0.066129,0.366942,0.733511,0.251771,0.861932,-0.440096
0.562254,0.004087,0.836696,0.396464,0.891312,0.219952
-0.611995,0.041876,0.748541,-0.009684,0.185112,0.982670
0.250031,-0.315710,0.867506,0.083924,-0.311603,0.946499
0.634927,-0.133072,0.602963,0.879035,-0.469464,-0.083077
0.058252,-0.287068,0.360727,0.884104,-0.160209,0.438968
-0.400586,-0.493747,0.372080,-0.499324,0.712819,-0.492508
0.862153,0.821903,0.543993,0.836958,-0.220933,0.500690
-0.212744,-0.481453,0.736652,-0.384234,-0.901015,-0.201334
0.708867,0.126290,0.501831,0.557431,-0.140297,-0.818283
0.302630,0.569080,0.856062,0.863273,-0.075249,-0.499096
-0.258482,-0.756319,0.415483,-0.659074,-0.008237,-0.752033
0.011117,-0.381597,-0.546859,0.034597,0.992868,-0.114093
-0.015754,-0.520453,0.701062,0.908471,0.381689,-0.170279
-0.507686,-0.435371,0.529194,0.084690,0.976251,0.199405
0.663004,-0.682320,0.872332,0.720297,0.335729,0.607008
0.168466,0.525418,0.838673,-0.597152,-0.742777,0.302807
-0.327531,-0.148334,0.742489,0.561866,-0.815115,0.141048
0.432728,-0.253579,-0.991114,-0.163104,0.176146,0.970757
0.372761,0.326551,0.600190,-0.294342,-0.823425,0.485112
0.085567,-0.600992,0.522361,0.910941,-0.179716,0.371334
0.623999,-0.121386,0.836620,0.728089,-0.551954,0.406488
0.185047,0.668514,0.777451,-0.702630,0.692671,-0.162842
0.192732,-0.566476,0.317201,0.832417,0.544533,0.102791
-0.057236,0.457292,0.719140,0.787638,-0.606093,0.110801
-0.033223,-0.509673,0.728455,-0.394636,0.914910,0.084866
-0.968366,-0.115329,0.653644,-0.601188,-0.548972,0.580692
0.269852,-0.469404,-0.984005,-0.122984,-0.146420,-0.981548
-0.261213,-0.213673,0.661029,-0.334454,0.896008,0.292078
0.536083,0.812759,0.605813,-0.182539,0.497613,0.847975
0.485262,-0.515487,0.713640,-0.524758,-0.762572,-0.378302
0.001843,0.042844,0.847497,0.812722,0.435676,-0.386871
0.450833,0.744330,0.915062,-0.443931,0.608170,-0.658069
0.067971,-0.566535,0.463161,0.946843,0.019839,0.321083
0.115296,-0.073000,0.808246,0.615571,0.549085,0.565313
-0.453692,-0.279498,0.543917,0.829184,0.505717,-0.238128
-0.084870,-0.174857,0.676349,-0.122132,-0.907036,0.402950
0.355038,-0.333030,0.829480,0.930913,0.338636,0.136843
-0.553996,-0.209374,0.756814,0.139237,-0.805183,0.576449
-0.136514,-0.038120,0.575524,-0.657856,0.750084,0.067819
0.053233,-0.397584,-0.365921,0.651888,-0.632809,-0.417846
0.580677,-0.128410,0.832498,0.309894,-0.938526,0.152100
-0.056791,-0.365851,-0.279190,0.572782,0.819611,-0.012569
-0.653221,0.021043,0.669823,-0.520387,-0.367000,0.771044
0.728562,-0.382142,0.857563,-0.178807,0.906930,0.381453
0.069876,0.572410,0.772410,0.379641,0.296878,-0.876206
-0.098653,-0.722105,0.751099,0.086465,0.473084,0.876764
0.266674,-0.358766,0.811049,-0.552041,-0.833248,0.030797
0.156206,0.674448,0.608708,0.673661,0.392843,-0.625984
0.584042,-0.563144,0.885110,0.424065,-0.893885,-0.145391
0.324356,-0.339509,0.258308,-0.286179,0.684980,0.670003
0.335536,0.194842,0.758055,-0.232996,0.827530,0.510790
0.081310,-0.817240,0.516248,0.990718,-0.103807,-0.087766
0.556855,-0.089049,0.529944,-0.638524,-0.617230,0.459689
-0.004828,0.400369,0.758009,-0.661590,0.734311,-0.151942
0.264833,-0.195325,0.385102,-0.579882,-0.125399,0.804992
0.317431,0.100313,0.439858,-0.687467,-0.670406,0.279187
-0.113518,-0.598933,0.620429,0.126988,0.027026,0.991536
0.535001,-0.245647,0.555239,-0.244090,0.938434,0.244462
0.421484,0.612559,0.888710,0.208120,0.336437,-0.918421
-0.312476,-0.435371,0.715371,-0.377925,-0.790171,-0.482496
0.593316,-0.650346,0.906007,0.946902,-0.287916,0.143115
-0.601703,-0.314622,0.663143,-0.126613,0.143432,0.981528
0.296849,0.627639,0.880759,0.015848,-0.803990,0.594431
-0.199149,-0.572168,0.402997,-0.343046,0.452226,0.823293
0.087155,-0.450087,0.789125,0.645720,-0.182737,-0.741386
0.632321,0.519242,0.563803,0.806560,-0.566887,-0.167631
0.223986,-0.372998,0.404789,0.965936,-0.175677,-0.190012
0.220621,-0.014745,0.684332,0.287868,-0.746857,0.599447
0.595414,-0.536743,0.933968,0.183655,0.611418,-0.769701
0.577309,-0.233051,0.723307,-0.273455,-0.866451,0.417714
-0.143375,-0.671966,0.735396,-0.668066,0.742681,0.045965
0.375174,0.217489,0.715816,0.071910,-0.668465,0.740259
0.273981,-0.430527,0.552665,0.637647,0.726918,-0.254943
0.366600,-0.254185,0.593939,0.439399,0.601884,-0.666832
0.035447,0.133740,0.738536,0.880748,0.199090,0.429704
0.467919,0.340177,0.821621,0.432312,0.659919,-0.614502
-0.021153,-0.529597,0.724380,0.849766,0.503901,0.154858
0.550438,0.389530,0.582755,-0.796774,0.505278,-0.331431
-0.076991,-0.305659,0.079009,0.913569,0.401060,-0.067406
-0.056157,-0.238562,0.458933,0.417798,-0.884345,0.208276
0.362787,0.076149,0.782859,-0.484459,0.433493,-0.759857
-0.058824,0.561086,0.770572,-0.128385,0.933161,-0.335751
-0.041927,-0.485874,0.620490,0.990082,0.129236,-0.055094
0.249079,-0.216399,0.610792,-0.184248,-0.893410,-0.409722
0.369139,0.580403,0.691134,0.911418,-0.229392,0.341608
0.019058,0.244134,0.638936,0.548213,-0.725523,0.416027
0.336551,-0.409090,0.613228,0.747616,-0.629940,-0.210347
-0.652460,-0.027766,0.693417,-0.918318,0.363516,-0.156680
0.239677,-0.612740,0.867997,0.008697,0.598945,0.800743
0.204676,0.524631,0.618376,0.864558,0.156377,0.477584
0.664909,0.530990,0.555607,0.408580,-0.860474,-0.304381
0.157350,-0.260787,0.322548,-0.170954,-0.946160,0.274876
0.260513,-0.192236,-0.995159,0.017922,0.086817,0.996063
0.451340,-0.627395,0.903510,0.721457,-0.586577,0.368006
0.330644,-0.159839,0.653920,-0.492954,-0.858708,0.140058
0.201944,0.672389,0.776348,-0.552996,0.373082,-0.744987
-0.026680,-0.388863,-0.054756,-0.492091,-0.867670,0.070677
-0.521472,-0.092440,0.668735,-0.383308,-0.869218,0.312306
-0.098145,-0.302388,0.578557,0.608388,0.790158,-0.074257
-0.008385,0.291429,0.697844,-0.075350,-0.985835,0.149841
0.487868,0.391709,0.836528,0.380629,0.890364,-0.249746
0.114216,-0.776365,0.507821,-0.075722,-0.008829,0.997090
-0.013912,-0.309292,-0.994025,-0.060983,0.214276,0.974868
-0.606594,-0.325825,0.563053,0.514658,0.598664,-0.613783
0.591539,-0.052895,0.616292,0.843885,-0.082550,0.530136
0.454770,-0.151119,0.709013,0.977301,0.197774,0.075953
-0.447593,-0.074514,0.791807,-0.071847,-0.991533,0.108168
0.522805,0.326067,0.784315,-0.719783,-0.420634,0.552250
0.530174,-0.360886,0.776945,0.838923,-0.251669,-0.482566
-0.025346,-0.374692,0.016929,-0.248465,0.968249,0.027566
-0.897727,-0.111999,0.678985,0.750755,0.637830,-0.171870
0.678377,0.914131,0.641709,-0.431605,-0.516737,0.739391
0.223478,-0.374692,0.525747,0.346400,0.802688,0.485489
0.137086,0.424591,0.966892,-0.365792,0.635756,0.679714
0.503749,-0.047507,0.480566,0.684056,-0.055646,-0.727304
0.348367,0.620554,0.887561,-0.367541,-0.725203,0.582233
0.239551,-0.495140,-0.975656,-0.278570,-0.141552,-0.949927
-0.369965,-0.210585,0.741769,0.931710,-0.241097,-0.271640
0.729070,0.222213,0.807832,0.298085,-0.925989,0.231710
0.329691,-0.346353,0.537635,0.840728,-0.522059,0.143632
-0.366980,-0.175766,0.728930,-0.358484,0.932914,-0.034077
0.719795,0.101462,0.569916,0.968297,-0.074490,-0.238437
0.069432,-0.697521,0.486587,0.497761,-0.817436,-0.289884
0.230403,-0.155116,0.387523,-0.746874,0.105509,0.656542
-0.390167,-0.482847,0.551547,0.845896,0.138221,-0.515127
0.014800,-0.232445,0.429655,0.554024,-0.797998,0.237185
0.732245,-0.580041,0.801551,0.696320,0.653939,0.295807
0.721637,-0.518939,0.789033,0.486699,0.870032,-0.078539
0.041925,-0.539105,0.685358,0.575243,-0.814086,-0.079748
-0.405223,-0.769945,0.621731,0.962381,-0.160653,0.219122
-0.314509,-0.184243,0.554810,-0.250251,-0.191890,0.948975
0.192478,0.543526,0.842488,0.965754,0.258267,-0.024829
-0.612565,-0.324250,0.678678,0.382130,0.680910,0.624771
-0.496570,-0.068761,0.757151,0.857532,0.425780,-0.288704
0.084868,-0.816272,0.507637,0.692531,-0.137845,-0.708096
0.130923,-0.064098,0.804339,0.720195,0.617441,0.316363
0.122919,-0.835648,0.517642,0.997909,0.010808,-0.063730
0.529602,0.396917,0.794779,0.870353,0.394009,-0.295369
0.634799,0.150877,0.796096,0.779180,-0.622999,-0.068929
0.660844,-0.274774,0.865974,0.995789,-0.091489,0.005740
0.508576,0.768009,0.910910,-0.460110,0.285347,-0.840759
0.809809,0.738456,0.527799,0.869010,-0.476624,-0.132861
0.475860,0.660944,0.916533,0.799821,0.598424,-0.046635
0.159764,-0.637326,0.869636,0.104695,0.569704,0.815154
-0.070830,-0.384079,-0.987161,0.425667,-0.450606,-0.784705
0.014864,-0.328004,0.174718,-0.655306,-0.558930,0.508106
0.059268,-0.390438,-0.738138,-0.150555,0.988467,-0.016301
0.457247,-0.514942,0.840603,0.112231,0.784677,0.609661
0.207915,-0.382203,-0.982366,0.404607,0.372136,0.835349
-0.040338,-0.437611,0.661979,-0.266978,0.774770,0.573109
0.543642,0.429860,0.584502,0.856926,-0.490604,0.158068
-0.397028,-0.229176,0.544361,0.357718,0.815475,-0.455015
0.108817,0.620311,0.961101,-0.544420,0.789839,-0.282419
0.244950,0.102249,0.776777,0.218206,-0.535308,0.815985
0.081438,0.473764,0.769745,-0.602060,-0.590150,0.537817
0.091030,0.288945,0.659068,-0.647014,0.614367,0.451581
0.355672,0.045267,0.803190,0.240758,0.477730,0.844873
0.267564,0.466618,0.792358,0.231719,0.880829,0.412851
0.309744,-0.556787,0.852431,0.014932,0.634883,0.772464
0.004192,-0.343871,0.101622,0.013960,0.990102,-0.139653
0.063715,0.499986,0.941015,-0.776158,0.488137,0.399126
-0.041989,0.292459,0.702870,0.383061,-0.645134,0.661110
0.757908,0.260726,0.828607,0.318926,0.374223,-0.870772
0.105386,-0.233778,0.873757,0.882495,-0.084465,-0.462675
0.314573,-0.593241,0.863125,-0.124836,0.620342,0.774333
0.855736,-0.530081,0.809732,0.720241,-0.272275,-0.638058
-0.163003,-0.504587,0.398385,-0.391248,0.575023,0.718522
-0.077247,-0.383897,-0.734308,0.892305,0.437484,-0.111354
0.426629,-0.507311,0.854621,0.723689,0.684987,-0.084065
-0.237138,0.011233,0.771507,0.100676,-0.536569,0.837830
0.199085,-0.577012,0.409202,-0.221420,-0.956825,0.188305
-0.004256,0.346959,0.717455,0.095985,-0.685967,0.721274
-0.142549,-0.294395,-0.106847,-0.397231,-0.915797,0.059363
0.221065,0.562601,0.616369,-0.507744,0.262750,-0.820462
0.426185,-0.089533,0.655406,0.912657,-0.110739,-0.393440
0.094842,-0.468314,0.567695,0.756351,0.537372,-0.373048
0.483928,-0.606928,0.938227,-0.572638,0.770162,-0.280955
-0.351163,-0.191267,0.778156,0.952832,0.296216,-0.066086
0.466524,-0.266237,0.775827,0.858546,0.096449,-0.503583
-0.088363,0.258244,0.748924,0.101763,0.697156,0.709660
-0.013213,0.368274,0.744328,-0.134248,0.948230,-0.287816
0.200356,-0.313894,-0.992937,-0.001479,0.075249,0.997164
-0.189049,-0.244496,0.504711,-0.683154,-0.267613,-0.679473
0.161987,0.415992,0.750762,-0.175166,-0.851039,0.495025
0.392961,0.190238,0.705980,0.122744,-0.709505,0.693928
-0.187905,-0.427498,-0.987958,0.022110,0.221493,0.974911
-0.035128,-0.360462,0.132570,-0.029155,0.990398,-0.135136
0.088363,0.325280,0.700878,0.744064,0.516422,-0.423883
0.021281,0.024434,0.491627,-0.656434,0.237677,0.715964
-0.623175,-0.347746,0.545189,-0.540561,-0.642935,0.542613
0.082454,-0.215005,0.838182,-0.548852,0.618244,0.562615
0.053297,-0.331092,0.219990,0.891029,-0.392589,0.227904
0.015182,0.388379,0.756630,0.491896,-0.751718,0.439270
0.306061,-0.679898,0.876592,0.950724,0.297635,0.086821
0.086647,0.611530,0.782277,-0.552627,-0.164905,0.816952
0.035128,0.536985,0.761027,-0.642213,-0.082342,0.762091
0.106530,-0.659309,0.459347,0.013225,0.910885,0.412448
0.446829,-0.396797,0.784315,-0.669981,0.742377,0.001548
0.064033,-0.273987,0.218504,0.368030,-0.927467,-0.066026
-0.075467,-0.366396,-0.515053,0.241119,0.969233,0.049481
0.408080,-0.495443,0.778661,0.901061,0.293923,0.318903
0.763499,0.001969,0.595931,0.085640,0.549111,0.831350
0.516834,0.627698,0.946791,0.866034,-0.234003,-0.441847
0.140769,0.540134,0.829771,0.396360,0.893751,-0.210021
0.538558,-0.686074,0.888312,0.038559,0.244601,0.968857
0.448609,-0.671238,0.867583,-0.425085,0.722049,0.545846
0.802058,-0.410542,0.759694,-0.384726,0.858393,0.339334
0.156332,0.532988,0.879073,-0.171381,0.985195,0.004367
0.005844,-0.280892,0.384566,0.488744,-0.814246,0.313263
0.382607,0.746933,0.942746,0.814935,0.204061,-0.542438
-0.081566,0.500045,0.743853,0.693579,0.538002,-0.479065
0.550756,0.627820,0.685465,-0.555921,-0.212075,-0.803726
0.614091,0.674690,0.665349,0.856706,0.069747,0.511067
0.532144,0.683773,0.945535,0.970472,0.077287,-0.228498
0.832931,0.773882,0.514532,0.746374,-0.265975,-0.610068
0.539004,0.838739,0.608953,-0.195694,0.381735,0.903317
-0.117584,-0.559088,0.787701,-0.122921,0.977854,0.169389
0.512197,-0.381294,0.862021,-0.538307,0.772886,0.335966
0.366282,-0.701758,0.929693,0.893192,-0.365257,0.262289
0.123618,-0.639930,0.729957,-0.578144,0.587648,0.566056
-0.388578,-0.747904,0.674741,0.638546,0.140236,0.756699
0.060602,-0.458806,-0.915996,-0.075490,-0.991494,0.106019
0.031571,0.268356,0.692988,0.232834,-0.947379,0.219686
0.646741,-0.326126,0.861255,0.928191,-0.371773,-0.015683
-0.139881,-0.253459,0.716168,0.494954,0.868809,-0.013807
0.890992,0.043692,0.604403,0.301138,0.418533,-0.856823
-0.024965,0.263997,0.744082,0.441841,0.211740,0.871747
-0.153919,-0.773216,0.710959,0.040780,0.196983,0.979558
-0.047262,-0.488600,0.670558,0.093701,0.681059,0.726208
0.965570,0.759894,0.570008,0.310816,0.341683,-0.886931
0.000509,0.361976,0.661396,0.990986,-0.127097,-0.042353
-0.901412,-0.237714,0.663541,-0.122971,-0.970076,-0.209360
0.055139,-0.292760,0.357969,0.557614,-0.765467,0.321134
0.693432,-0.404971,0.888986,0.006762,0.999827,-0.017307
0.406492,0.079724,0.783778,0.825607,0.424816,-0.371355
0.351735,0.065917,0.807572,0.783324,-0.073885,0.617207
0.656587,0.242621,0.832498,-0.213621,-0.904504,-0.369105
0.616440,-0.336966,0.878644,0.864840,-0.495303,-0.082015
0.097255,0.092863,0.728976,-0.585613,-0.336560,0.737417
0.443972,-0.405032,0.406076,0.143778,0.480876,0.864920
0.363994,-0.090562,0.748786,-0.237455,0.509239,-0.827219
0.775061,0.836196,0.587045,-0.118719,-0.990810,-0.064812
0.465570,-0.597662,0.745890,-0.174613,0.643303,0.745434
0.311650,-0.333091,0.985445,0.336478,-0.727060,0.598470
0.104180,0.507313,0.767477,-0.277349,-0.092022,0.956352
0.290180,0.510340,0.840052,0.378718,0.743875,-0.550656
0.000635,-0.332485,0.356927,0.340470,-0.914434,0.218840
0.099289,0.587488,0.791791,0.893749,-0.247642,-0.374013
0.218777,0.502104,0.824041,0.178249,0.974630,0.135366
0.434443,-0.331395,0.672320,-0.579206,0.618742,-0.530734
0.362089,-0.343871,0.509430,0.990243,-0.127129,0.057075
0.548597,-0.795925,0.902116,0.626770,0.242706,-0.740441
0.138674,0.516516,0.793997,0.620906,0.528542,-0.578895
-0.048850,-0.133133,0.525057,0.268661,0.769090,-0.579933
0.130923,0.026312,0.779351,0.607769,0.586853,0.534996
0.137530,-0.159960,0.804936,0.988646,0.032828,0.146635
-0.410940,-0.548611,0.583674,-0.602371,0.454548,-0.656152
0.519756,-0.697883,0.421627,-0.220652,-0.257886,0.940642
0.549548,0.123021,0.807418,-0.389945,0.911047,0.133931
-0.114980,-0.540436,0.736790,-0.613045,-0.682281,0.398333
0.175327,0.017713,0.746810,0.023380,0.951143,0.307865
0.471733,0.419809,0.850470,0.427001,0.862551,0.271433
-0.367426,-0.170194,0.650442,-0.322820,0.642395,-0.695065
-0.125398,-0.416840,-0.986962,-0.000182,0.219046,0.975714
0.518740,-0.411997,0.917820,-0.424157,0.053411,0.904012
0.065811,-0.349260,0.641418,-0.443681,0.736686,0.510334
0.152903,0.494233,0.672243,0.712963,-0.199304,0.672281
0.603291,0.880281,0.603040,-0.103244,0.396613,0.912162
0.028458,-0.251401,0.693417,0.593370,0.424981,-0.683596
0.358975,-0.691707,0.887975,0.102010,-0.994653,0.016129
0.020391,-0.400491,-0.142207,-0.327518,-0.899362,-0.289621
0.130415,-0.358888,0.833954,-0.136159,0.951114,0.277204
0.092174,-0.361614,-0.164391,-0.280131,0.958587,0.051358
0.128891,-0.542677,0.377748,-0.009665,0.853927,0.520302
0.535827,0.371726,0.584471,-0.665055,0.596293,-0.449595
0.118599,-0.197989,0.477517,-0.067964,-0.959592,-0.273064
0.661606,-0.366821,0.731734,0.725705,0.383842,-0.570979
-0.066065,-0.277317,0.643502,-0.106618,-0.295132,0.949489
0.397916,-0.459473,0.791745,0.498946,0.849434,0.171800
0.116694,-0.255457,0.214889,0.225118,-0.948409,-0.223255
-0.089886,-0.488539,0.373719,-0.739982,0.672454,-0.015249
0.167132,-0.632119,0.429073,-0.552238,0.815929,0.171153
0.702325,-0.082811,0.808996,0.867479,-0.389640,0.309292
0.446259,0.708056,0.673730,-0.225261,0.425609,0.876421
-0.004384,0.336906,0.784728,-0.355609,0.927671,0.113879
-0.081884,-0.361795,0.636362,0.731480,0.465254,-0.498474
-0.041545,-0.377479,0.638553,0.509277,0.788649,0.344485
0.556537,-0.410119,0.793415,0.475912,0.448364,0.756622
-0.057934,-0.678262,0.331280,0.576225,-0.762444,0.294355
0.314573,0.715203,0.934856,0.225139,-0.863353,0.451590
0.533159,-0.264359,0.552313,-0.226577,0.801951,0.552755
0.414623,0.551457,0.882934,0.681347,0.468933,-0.562022
0.035002,-0.341932,0.635213,0.102015,0.716300,0.690295
0.039194,-0.325583,0.284276,0.414490,0.870294,-0.266057
-0.356500,-0.480908,0.557997,-0.198138,-0.249577,0.947867
-0.424279,-0.452205,0.539581,0.784037,0.033855,-0.619790
0.022297,0.487752,0.785893,0.432001,0.885667,0.170206
0.096557,0.401763,0.939024,0.048402,0.815724,0.576413
0.523123,-0.356829,0.791362,0.869907,0.236025,-0.433074
0.045801,-0.297483,0.373091,-0.688773,0.563656,-0.455943
-0.021091,-0.524509,-0.985553,0.014896,-0.035916,0.999244
0.182949,0.049081,0.693708,-0.182942,-0.752265,0.632953
0.055837,-0.686196,0.717225,0.570599,0.512062,0.642035
0.721573,-0.390135,0.886259,-0.134905,0.974111,-0.181408
0.123046,-0.084325,0.846578,-0.675583,0.692937,0.251846
-0.477576,-0.130104,0.653629,0.405269,-0.143691,0.902834
0.207089,-0.601356,0.410167,0.314482,0.945801,-0.081002
0.897091,-0.495382,0.807955,-0.054227,0.588601,0.806603
0.159382,0.551700,0.625362,0.881389,0.132670,0.453379
0.108753,-0.769583,0.723920,0.875220,-0.159544,-0.456658
-0.569433,-0.421200,0.538539,0.056661,0.961764,0.267955
0.473129,-0.351257,0.966892,0.261360,-0.829913,0.492885
-0.092364,0.328610,0.721913,0.918381,-0.176345,0.354231
-0.637976,0.005116,0.671569,-0.543183,-0.458308,0.703496
0.436221,0.229115,0.577883,0.208601,0.165348,-0.963922
-0.052281,-0.361189,-0.417705,0.626517,0.775855,-0.074332
0.048088,0.142278,0.745369,0.913998,0.158909,0.373305
-0.217699,-0.881127,0.753826,0.963569,0.106713,-0.245250
0.720429,-0.288823,0.896462,-0.701208,-0.563410,0.436893
0.147186,-0.182123,-0.994209,-0.034801,-0.107786,-0.993565
0.116504,0.028856,0.750486,0.704963,0.709189,0.008864
0.028522,-0.511612,0.552221,0.708214,-0.240947,0.663610
0.305297,-0.217731,0.394815,-0.687279,-0.130537,0.714568
0.407126,-0.142884,0.437131,0.895468,-0.052710,-0.441993
-0.539194,0.033700,0.720320,0.546277,0.719818,0.428303
0.469889,0.402428,0.764290,0.951234,-0.305753,-0.040858
0.205501,-0.258061,-0.991206,0.093430,0.244373,0.965170
0.270614,0.748508,0.921834,0.232423,0.956095,0.178499
0.666053,-0.252369,0.920501,0.284596,-0.947194,0.147747
0.166815,0.680927,0.928360,0.667583,-0.268765,-0.694333
-0.071402,-0.790050,0.534127,0.737995,-0.667773,-0.097173
0.263817,-0.649135,0.410029,-0.442276,-0.876821,-0.188620
0.348367,0.348957,0.762866,0.809923,0.433992,0.394556
0.047706,-0.405941,-0.104089,0.154999,-0.987812,-0.014275
0.001271,-0.282163,0.701384,-0.010293,0.469067,0.883103
0.502413,-0.578647,0.907172,-0.257346,-0.077600,0.963199
-0.052281,-0.131740,0.490984,-0.520195,0.818852,0.242650
-0.482595,0.150393,0.713870,0.835453,-0.429623,0.342699
-0.164275,-0.384503,-0.992860,0.047655,0.258400,0.964862
0.541482,0.629940,0.960442,0.866034,-0.234003,-0.441847
0.403315,0.368699,0.870816,0.741302,-0.669751,-0.043643
-0.255812,-0.012020,0.759893,0.088943,-0.719838,0.688420
0.830263,-0.197081,0.486862,-0.540221,-0.701946,0.464148
0.070766,0.072335,0.862696,0.541452,0.205135,-0.815321
0.536019,0.754141,0.619816,-0.059316,0.298093,0.952692
0.373397,0.715022,0.952092,-0.510149,0.229937,0.828780
0.292783,0.060829,0.814068,0.413111,0.831496,0.371421
0.610659,0.828988,0.621333,-0.321579,0.326649,0.888756
0.160146,-0.195083,0.849535,0.614692,-0.341652,0.710934
-0.426375,-0.168377,0.774448,0.008657,-0.232586,0.972537
0.129843,-0.194961,-0.993535,0.064186,0.126837,0.989845
0.307903,-0.373543,0.850393,-0.042261,-0.856649,0.514165
0.408842,-0.088503,0.657107,0.909135,-0.010179,-0.416378
0.053995,-0.404669,0.266995,0.839911,0.465607,-0.278854
0.667069,-0.557877,0.764919,-0.634699,0.770518,0.058815
-0.064667,-0.205861,0.405862,0.352029,0.935314,0.035538
-0.562890,-0.054773,0.670267,0.579655,0.540831,-0.609510
0.026998,0.563750,0.926644,0.403158,0.847490,-0.345289
-0.066065,-0.088806,0.576366,-0.531666,0.784453,-0.319319
0.099225,0.617222,0.904077,-0.368998,0.590372,0.717845
0.377334,0.430224,0.774356,0.955361,0.053886,-0.290485
0.490407,-0.368577,0.346479,-0.526373,0.850070,0.017698
0.640580,-0.544071,0.882138,-0.384212,0.341325,-0.857834
0.762801,0.613468,0.647163,0.093004,0.196656,0.976052
0.819337,-0.480062,0.818802,-0.178248,-0.915853,0.359779
0.300724,-0.577799,0.930980,0.245475,0.572518,0.782282
-0.239105,-0.119327,0.696236,-0.083652,0.987488,-0.133676
0.169482,0.622128,0.950575,0.733465,-0.538363,0.414963
0.532144,-0.663910,0.881938,-0.010370,0.322122,0.946641
0.135688,-0.503074,0.580181,-0.044314,-0.672215,0.739028
-0.141341,-0.435552,0.386098,-0.029843,0.472388,0.880885
0.286177,0.457111,0.799161,-0.143208,-0.855142,0.498221
-0.357516,-0.178067,0.633329,-0.229257,0.616961,-0.752861
0.494410,0.143004,0.479079,-0.142641,-0.299528,0.943365
-0.147060,-0.475701,0.400362,-0.683236,0.597835,0.419264
0.445688,-0.464256,0.730784,0.891179,0.210724,-0.401741
0.033795,-0.394738,-0.056947,-0.179041,0.982747,0.046393
-0.751176,0.067066,0.737311,0.970588,0.148236,-0.189697
-0.088807,-0.753292,0.627859,0.157184,-0.803375,-0.574354
0.146360,-0.336785,0.816795,-0.196587,0.770029,0.606967
-0.140771,-0.010930,0.566331,0.861404,-0.499300,-0.093182
-0.384894,-0.343930,0.540608,0.695603,0.675632,0.244251
-0.880702,-0.166378,0.702517,0.489652,-0.530867,-0.691681
-0.047134,-0.177218,0.661029,0.239652,-0.770212,0.591050
-0.363868,-0.377296,0.574467,0.800523,0.054104,0.596855
0.339411,0.033639,0.807066,-0.494283,0.779525,-0.384740
0.243362,0.742755,0.775781,0.738352,-0.561563,0.373474
0.643629,-0.558785,0.815937,0.352540,0.818353,0.453888
-0.121777,0.318739,0.732347,0.383543,0.617212,-0.686982
0.134162,0.450632,0.780607,0.112311,0.864566,-0.489808
-0.219095,-0.709631,0.674036,-0.702425,0.559108,0.440451
0.140135,-0.638235,0.501877,0.086857,-0.525978,0.846051
-0.182949,-0.062465,0.549432,-0.035680,0.992588,0.116174
0.407826,-0.400430,0.738123,0.123237,0.982237,-0.141504
0.675835,0.439852,0.621716,-0.326479,-0.945164,-0.008734
0.096621,-0.304508,0.290297,-0.385238,-0.922788,0.007308
0.137404,-0.728344,0.750900,0.841966,-0.439467,0.312989
0.450071,-0.386440,0.294664,-0.585250,0.724307,0.364502
0.476560,-0.121386,0.482128,0.862774,-0.503746,-0.043127
0.731355,-0.202047,0.569411,-0.377175,0.452752,0.807932
0.044277,0.399159,0.737862,0.241475,0.933361,-0.265569
0.369585,0.384927,0.693922,0.943882,0.242320,0.224426
0.494283,-0.671783,0.412787,0.246898,0.321517,-0.914149
0.342396,0.709147,0.945428,-0.235975,0.708737,0.664836
-0.090458,-0.353800,0.637496,-0.686605,-0.357224,0.633218
0.045737,0.275562,0.642552,0.366529,0.778561,-0.509410
0.051963,0.333030,0.715540,0.364573,-0.090455,-0.926771
0.105896,0.746207,0.618238,0.267525,0.789662,-0.552146
0.388388,-0.650830,0.960044,0.636856,-0.764504,0.099744
0.643947,-0.332485,0.844311,0.516662,0.853726,-0.064893
0.018550,-0.219184,0.450935,-0.358851,0.903856,-0.232958
0.888514,-0.426772,0.872286,0.765811,-0.033140,-0.642212
-0.305743,-0.712780,0.597800,-0.225339,0.973966,0.024757
0.272901,-0.218335,-0.996599,-0.111512,0.316614,0.941977
0.054695,-0.323341,0.197791,0.773641,-0.627412,-0.088516
0.704104,0.097224,0.486587,-0.283369,0.045604,0.957926
0.139626,0.573865,0.911063,-0.139234,0.805949,0.575378
0.407762,-0.344839,-0.987069,-0.300272,0.231643,0.925299
-0.010609,-0.400430,-0.176204,0.322400,0.943656,0.074640
0.393533,-0.735730,0.426805,0.876312,-0.027587,0.480954
0.714712,0.036001,0.732423,0.404604,0.866609,0.292034
0.709249,-0.048355,0.597111,0.738510,-0.672713,-0.045388
0.427329,0.397523,0.910558,-0.432542,0.227665,0.872397
0.080994,0.338360,0.701797,0.879902,0.376692,-0.289612
-0.080486,-0.370030,0.592468,0.297584,-0.266344,0.916791
0.127938,-0.644231,-0.975701,0.094780,0.026928,0.995134
0.479481,0.325280,0.768274,0.707089,0.079246,-0.702670
0.165037,0.039392,0.699239,-0.083882,-0.761780,0.642382
0.776459,-0.571200,0.829909,0.682408,-0.634715,0.362568
0.004764,-0.563931,-0.982642,-0.076160,0.121039,0.989722
0.484754,-0.704303,0.900354,-0.553773,-0.467938,-0.688744
-0.055839,-0.271566,0.431922,0.285464,-0.886537,0.364091
-0.521408,-0.135737,0.660554,0.640078,-0.164007,0.750601
0.228369,-0.465104,0.394004,-0.934715,0.213000,0.284499
0.721447,0.508766,0.649630,-0.232249,0.017750,0.972494
0.230911,0.020862,0.484687,0.486686,0.164825,0.857887
0.372443,-0.297363,0.575968,0.988865,-0.142483,0.042945
0.379494,-0.397946,0.950958,0.101485,-0.912762,0.395686
0.427011,0.021952,0.795974,-0.454161,0.360233,-0.814844
0.136640,0.331214,0.964088,0.144173,0.879852,0.452851
-0.390612,-0.265933,0.746503,-0.294940,0.443351,0.846434
0.391691,0.431496,0.803803,0.788368,0.611429,-0.068040
0.879176,0.841645,0.551056,0.674038,-0.316064,-0.667665
-0.016008,-0.531836,0.734982,0.981758,0.119610,-0.147799
0.506924,0.008327,0.729313,-0.283926,0.843951,0.455118
0.434761,-0.383958,0.636653,0.013331,-0.999018,-0.042253
0.408270,0.307840,0.784238,0.006300,0.977326,0.211647
0.394041,-0.385472,0.653613,-0.127729,-0.974007,-0.187071
0.632321,-0.385533,0.333226,0.100660,-0.994909,0.004799
0.094970,-0.470009,-0.959477,0.439519,-0.873468,0.209467
0.862597,-0.435491,0.834597,0.531964,-0.596306,-0.601194
0.451658,-0.216157,0.700970,0.845778,-0.246329,0.473267
0.341063,-0.300693,-0.995327,-0.135036,-0.140865,-0.980776
0.278998,0.483272,0.827504,0.561666,0.786571,-0.256588
0.397916,-0.422170,0.756630,0.863127,-0.460505,-0.207236
0.074641,0.090078,0.604602,0.735074,-0.160019,-0.658832
-0.142295,-0.514519,-0.985399,-0.026852,0.011724,0.999571
0.110659,0.289188,0.768305,-0.475668,0.610733,-0.633044
0.771376,-0.347443,0.889737,0.608124,0.469701,0.639973
0.325943,-0.456869,-0.985292,-0.017797,0.013179,0.999755
-0.405031,-0.286583,0.744527,-0.215415,-0.479092,-0.850922
0.173167,0.700729,0.940111,0.868085,-0.495191,0.034853
0.273789,-0.360340,0.862941,0.873387,-0.309841,0.375757
0.676851,-0.051382,0.591733,0.855605,-0.517598,0.005675
-0.046945,0.569564,0.889905,-0.000718,-0.991004,0.133830
-0.244124,-0.474612,0.753351,-0.241857,-0.918135,-0.313901
0.140897,0.414963,0.753106,0.075583,-0.886236,0.457027
0.515881,0.639629,0.920945,0.944903,0.303964,-0.121508
-0.171834,-0.170013,0.689694,0.839801,-0.113601,0.530876
-0.649982,-0.291488,0.559759,-0.309543,-0.584453,0.750065
0.347415,0.442275,0.888955,-0.319984,0.916947,0.238365
0.003176,-0.691161,0.530358,0.901909,-0.398257,-0.167189
0.389214,-0.227056,0.611558,0.789471,0.592285,-0.161040
0.405031,-0.408181,0.704693,0.044154,-0.996520,-0.070705
0.385528,-0.677416,0.866771,0.174271,0.090542,0.980526
-0.612503,-0.046296,0.744297,0.180396,-0.247790,0.951870
0.336933,0.462864,0.771552,-0.211938,-0.822393,0.527970
0.484436,-0.348169,0.975763,0.297752,-0.731551,0.613332
-0.273727,-0.300087,0.529960,0.950199,-0.141261,0.277790
0.537733,-0.273383,0.910588,0.503882,0.541694,-0.672808
0.754543,-0.194840,0.740942,0.834962,-0.493012,0.244496
-0.005082,-0.267931,-0.996614,-0.010777,0.124954,0.992104
-0.032461,-0.416537,-0.144260,-0.580903,-0.813546,-0.026347
0.614153,-0.354588,0.843330,0.501417,-0.816185,-0.287094
0.830963,0.768190,0.508894,0.693604,-0.088676,-0.714878
0.016072,-0.364702,0.050267,0.005384,-0.985601,0.169002
0.616186,0.408303,0.882306,-0.023053,0.947676,0.318400
0.331914,0.445786,0.777405,-0.331020,-0.900879,0.280790
-0.080676,0.226452,0.765317,0.526722,-0.426904,0.735063
0.360881,0.186786,0.708063,-0.126405,0.526885,-0.840484
-0.082074,0.192903,0.623631,-0.502105,-0.864391,-0.026794
0.731039,-0.321463,0.861393,-0.135776,-0.904744,0.403738
0.323530,0.394071,0.783978,-0.411990,0.751399,0.515426
0.312222,0.230024,0.748571,0.354542,-0.769354,-0.531408
0.146424,-0.478608,-0.952184,-0.346055,0.910530,-0.226233
-0.161098,-0.694614,0.735855,-0.697183,0.446792,0.560636
0.323530,0.052896,0.436074,0.813822,0.429608,-0.391319
0.182570,-0.277803,-0.996645,0.010370,0.105135,0.994404
0.744061,-0.010507,0.579737,-0.310916,0.772531,-0.553649
-0.465888,-0.184546,0.761824,-0.211759,0.870696,0.443899
0.419324,-0.005299,0.669853,0.232213,-0.510806,0.827741
-0.747428,-0.215793,0.543963,-0.333757,-0.681082,0.651716
-0.805808,-0.190661,0.668919,-0.253047,0.944091,-0.211328
0.399186,0.119569,0.558809,0.031200,-0.565268,0.824317
0.268580,0.686741,0.891437,-0.194720,-0.847588,0.493637
-0.155000,-0.449299,0.387155,0.113326,0.530236,0.840242
0.005336,0.165532,0.647730,-0.377858,0.872334,-0.310252
0.035383,-0.925273,0.511973,0.732543,0.088679,-0.674920
0.648203,0.539164,0.612600,0.986433,0.113497,-0.118611
-0.458583,-0.459774,0.535690,-0.047296,0.902766,0.427524
0.043959,-0.531655,0.560050,0.045198,-0.886141,0.461207
0.017152,0.253036,0.687702,-0.064423,-0.809429,0.583673
0.373715,0.606383,0.711403,-0.634602,0.767625,-0.089623
-0.084677,-0.113149,0.522529,0.378408,0.625704,-0.682130
0.017786,-0.500226,0.565994,0.602917,-0.002015,0.797801
-0.712999,0.143913,0.687181,0.963373,0.226859,0.142992
0.220367,0.156145,0.813118,-0.645590,0.195733,-0.738175
0.395757,-0.134828,0.692360,-0.097501,-0.948221,0.302277
0.359103,0.615043,0.735105,-0.663530,0.726794,-0.177477
-0.044849,-0.132527,0.526957,-0.489168,-0.691947,0.530965
-0.036018,-0.362218,0.076496,0.100298,0.967614,-0.231655
0.064477,0.115209,0.609628,0.632198,0.773235,0.049323
0.025346,-0.540254,0.640652,0.972665,-0.196364,-0.123951
0.533159,0.019590,0.715417,0.055560,0.958194,0.280673
0.388896,0.703758,0.680210,-0.789494,0.450919,0.416378
0.391245,-0.392557,0.735166,0.525301,0.849725,0.045011
0.067019,-0.619463,0.712629,0.788041,0.440426,0.430136
-0.378478,-0.209979,0.765271,-0.725455,0.074971,0.684174
0.356244,-0.654162,0.906881,0.734779,-0.373822,0.566001
0.158810,-0.639204,0.422607,0.531188,-0.808678,-0.252745
-0.674630,-0.119144,0.691440,0.092896,-0.700495,0.707586
0.546055,-0.600388,0.886320,-0.071679,0.599331,-0.797285
0.702198,-0.509370,0.795162,0.446400,0.695003,-0.563646
0.476242,-0.371242,0.777083,0.329037,-0.924504,-0.192423
0.277602,-0.348108,0.466777,0.655239,0.708252,-0.262756
-0.053361,-0.405880,0.037076,0.235512,0.958671,-0.159636
0.053359,-0.555939,0.567925,0.737448,0.651542,-0.177945
0.057616,-0.388137,-0.246342,-0.412745,0.900457,-0.137183
-0.356308,-0.171223,0.736483,-0.501089,0.862002,0.076572
0.044911,0.441427,0.945045,0.820400,0.130338,-0.556737
0.465062,0.755593,0.675308,-0.126017,0.753392,0.645384
0.330898,-0.390196,0.927885,-0.545075,-0.814796,0.197486
-0.461187,-0.155962,0.638921,0.680214,-0.183520,0.709668
0.041989,0.124716,0.584578,-0.007745,-0.883461,0.468440
0.684030,0.122838,0.489636,0.234646,0.148957,-0.960600
0.109515,0.573743,0.897704,-0.724395,-0.588160,0.359611
0.524839,0.745542,0.623171,0.155747,0.337919,0.928199
0.114978,0.535714,0.890978,-0.650892,0.573339,-0.497616
-0.174247,-0.523360,0.732607,0.579446,0.806204,0.119490
0.006162,-0.709450,0.515911,0.312779,0.948758,-0.045032
0.421802,-0.368152,0.644743,0.316280,0.947184,0.052999
0.656587,0.846912,0.639825,-0.555527,-0.345726,0.756216
-0.467794,-0.351864,0.760154,-0.195500,0.534975,0.821938
0.404651,0.124899,0.570927,0.996876,0.049909,0.061215
0.063015,-0.465104,0.231405,0.885770,-0.422862,-0.191309
0.516898,0.622128,0.913514,0.852463,-0.322004,-0.411849
0.147758,0.384443,0.943252,0.689060,0.564951,0.453902
0.248000,0.784480,0.949595,0.600565,0.697861,-0.390270
-0.247936,-0.661005,0.406260,-0.659074,-0.008237,-0.752033
0.622919,-0.358585,0.842365,0.620121,0.754563,0.214675
-0.032969,-0.373482,-0.027486,0.774122,0.359214,0.521249
-0.313620,-0.323160,0.531032,0.413454,-0.892564,-0.179957
0.036590,-0.410178,0.639717,0.428995,-0.614577,-0.662011
0.972875,0.843521,0.512862,0.501053,0.180751,-0.846330
0.455851,-0.659066,0.861286,-0.387135,0.754448,0.530034
0.132639,-0.006933,0.771706,-0.642186,-0.436658,-0.630021
0.676153,-0.157720,0.477364,0.289553,0.747726,-0.597550
0.151061,-0.082628,0.768289,0.945326,-0.099656,-0.310529
0.670308,-0.243770,0.930245,0.414665,-0.901701,-0.122427
0.036970,0.066824,0.571188,0.084576,0.850842,-0.518570
0.373205,-0.146395,0.646872,-0.362499,0.273169,-0.891052
0.002097,-0.292760,0.839408,0.985054,0.172009,0.009067
-0.111803,-0.217367,0.659956,0.777635,-0.243864,0.579494
0.365836,0.115148,0.710070,0.899927,0.397552,0.179120
0.628892,0.610016,0.640545,0.696261,-0.073580,0.714008
0.788845,0.670815,0.526497,0.944821,-0.251317,-0.210128
0.496188,-0.458564,0.547410,0.460802,0.199269,-0.864843
0.402363,-0.692433,0.897535,-0.513416,0.857170,-0.040780
0.371935,-0.338541,0.500314,0.959243,-0.115515,0.257893
-0.184411,-0.480001,0.726142,0.136556,0.734858,0.664331
-0.027824,-0.393164,-0.501157,0.005749,-0.998176,0.060095
0.397154,0.288097,0.585620,0.259593,-0.686539,0.679173
0.637784,0.418960,0.871153,0.082266,0.994823,0.059660
-0.046501,-0.149666,0.511299,-0.426746,0.871072,-0.243150
0.478212,-0.498653,0.729313,0.675666,-0.354641,-0.646301
0.065049,0.030854,0.719554,-0.694157,0.513992,0.503942
0.491107,-0.328186,0.628656,0.415004,-0.853659,-0.314703
-0.582582,0.146759,0.704708,0.257027,-0.417035,0.871791
0.402427,0.028431,0.691410,0.800421,0.371281,-0.470614
0.034431,-0.416114,-0.244933,-0.152466,0.973158,-0.172390
0.348939,-0.415630,0.613059,0.616054,-0.762683,-0.196958
0.460171,-0.101584,0.475586,0.854314,-0.475839,-0.209106
0.002540,-0.167045,0.486587,0.076687,-0.821893,0.564457
0.372825,-0.350047,0.531783,0.568277,-0.476300,0.670970
-0.075277,-0.337573,0.641862,0.868170,0.321419,-0.378114
-0.189748,-0.249039,0.625929,0.681012,0.714231,0.161543
-0.490471,-0.552728,0.389897,-0.580951,0.811121,0.067668
-0.069876,-0.333999,0.653629,0.991059,-0.075658,0.109900
0.506098,0.755958,0.909975,-0.551708,0.175458,-0.815373
-0.227799,0.013656,0.769423,0.189975,-0.514879,0.835948
0.415577,-0.667120,0.936526,-0.680726,0.158206,-0.715250
0.177297,-0.173766,-0.996109,0.088178,-0.114644,-0.989485
0.586012,-0.629636,0.865898,0.486894,0.721559,0.492227
0.111866,0.472796,0.777650,0.799029,0.583266,-0.146129
0.855800,0.834741,0.551271,0.681180,-0.404199,-0.610424
0.498920,0.436642,0.886382,0.166824,-0.899847,-0.403044
-0.518676,-0.262178,0.811923,0.212084,-0.181227,0.960301
0.463918,-0.322857,0.608387,0.806353,-0.024495,-0.590928
0.474018,-0.419263,0.948231,-0.126667,0.922128,0.365561
0.569369,-0.453053,0.844418,0.921428,-0.068393,-0.382481
0.040020,-0.029157,0.743179,0.721723,0.037988,-0.691139
-0.755687,-0.423442,0.715356,-0.260085,0.300125,0.917759
0.016706,0.009356,0.849336,-0.764402,-0.547730,0.340120
0.238407,0.761165,0.935255,0.666301,0.400253,-0.629158
0.469127,-0.518575,0.723307,-0.565635,0.460664,0.683993
-0.360437,-0.359494,0.743776,0.775290,-0.019898,0.631292
0.050502,0.583552,0.765639,-0.456531,-0.373492,0.807517
0.260767,0.498956,0.823030,0.035277,-0.997097,-0.067481
0.370537,-0.429437,0.826079,0.851895,0.517585,0.079876
-0.128002,-0.445180,0.399044,-0.695186,0.681390,0.228963
0.001905,-0.475642,0.569411,0.569941,-0.678258,0.463824
-0.603673,-0.259454,0.739900,0.036465,-0.999334,-0.001528
0.156968,-0.903412,0.516477,0.844549,0.280372,-0.456212
0.269724,0.708481,0.635428,0.179196,0.325063,0.928560
0.445688,0.231902,0.757136,-0.670349,0.389508,0.631598
0.193750,-0.226027,0.605905,-0.328867,0.519950,-0.788352
0.171959,0.751053,0.633405,-0.348118,-0.675707,0.649795
0.088553,0.304752,0.712460,0.999256,-0.035267,0.015627
-0.078389,-0.064704,0.563865,0.042917,-0.702406,0.710482
-0.126414,-0.191631,0.400591,-0.464836,-0.875883,0.129450
0.417927,0.198292,0.577148,-0.086523,-0.331777,0.939382
0.297231,-0.312138,0.248028,-0.329194,0.444362,0.833171
0.320036,0.611713,0.943467,0.361053,-0.931338,0.047436
0.552916,-0.434887,0.568645,0.673184,0.474308,-0.567323
0.381209,-0.139735,0.417077,0.958690,-0.047971,-0.280380
-0.084806,-0.316135,0.021801,0.603247,0.796471,0.041545
0.203596,-0.407332,0.277045,0.941911,0.230967,0.243840
0.047834,-0.390196,-0.333962,-0.016337,-0.999818,-0.009854
0.463474,-0.436097,0.546629,-0.116630,0.680835,0.723092
0.815462,0.781693,0.507576,0.455585,0.135674,-0.879792
0.104752,0.498047,0.946040,0.363173,-0.884427,-0.293076
0.190446,0.042602,0.702119,-0.249378,-0.848727,0.466339
0.060348,-0.283495,0.368540,0.794533,-0.102614,0.598488
-0.600623,-0.453962,0.530833,0.035294,0.965689,0.257291
-0.065303,-0.281437,0.063596,0.667081,0.640192,-0.380997
0.520964,0.215854,0.623462,-0.081261,-0.611599,0.786984
-0.601385,-0.047810,0.678004,-0.459846,-0.630371,0.625439
-0.062762,-0.421322,0.616522,0.912082,0.368386,0.179995
0.359929,0.601659,0.891759,-0.388451,-0.632067,0.670520
0.146932,0.087838,0.714973,0.758193,0.629003,0.171753
-0.050058,-0.335998,0.448162,0.997246,-0.016922,0.072211
-0.612821,-0.418173,0.534479,0.711323,0.174327,0.680904
-0.066701,-0.076634,0.562164,-0.195078,0.935308,-0.295201
-0.348305,-0.269931,0.551577,-0.326743,-0.388597,-0.861528
0.522361,0.628546,0.943467,0.853498,-0.302004,-0.424659
-0.349701,-0.340661,0.654180,-0.573654,0.544329,-0.612068
-0.063461,0.361734,0.740865,-0.708820,0.699497,0.090988
0.066955,0.527235,0.929571,-0.599495,0.400437,0.693005
-0.028206,-0.408303,-0.573394,0.167695,0.984311,0.054866
0.630734,-0.317285,0.840557,0.936579,0.339891,-0.085406
0.147884,-0.059193,0.833984,0.434495,-0.900672,-0.002115
0.680662,-0.499137,0.790995,0.526471,0.828834,0.189375
0.539576,-0.533352,0.848907,-0.135827,0.664495,0.734845
-0.237707,-0.054228,0.730233,-0.765238,-0.505076,-0.399136
0.680662,-0.007781,0.823015,-0.749506,0.453149,-0.482594
-0.657795,-0.434826,0.730324,-0.021041,0.827933,0.560433
0.075911,0.395767,0.794580,-0.371430,-0.791379,0.485550
-0.027696,-0.585066,0.783120,-0.599078,-0.653921,-0.462052
0.048660,-0.460380,0.581790,-0.534944,0.544280,-0.646215
-0.042497,-0.408303,0.019319,0.083680,-0.996241,-0.022374
0.397090,-0.167287,0.644881,-0.643805,0.514364,-0.566520
0.680918,-0.395222,0.892831,0.129951,0.958473,-0.253855
0.354784,0.417083,0.802608,0.845176,-0.386877,-0.368787
0.519756,0.463288,0.921864,-0.531998,-0.046101,-0.845490
0.776585,0.619826,0.635658,0.910392,-0.324230,-0.257023
0.500317,-0.492172,0.413645,-0.417626,0.247663,0.874215
0.141913,-0.474248,-0.980267,-0.352686,0.139170,-0.925335
