0.382633,-0.014121,0.953718,0.916089,0.034266,-0.399507
0.252971,0.003253,0.855067,0.786152,-0.252699,0.564011
0.230272,-0.749206,0.744484,-0.557027,0.107441,0.823515
0.214923,-0.652939,0.854139,0.929767,-0.212871,-0.300366
0.043577,-0.100924,0.888582,0.445953,0.715582,0.537651
0.194865,-0.420480,0.510754,0.348138,0.911120,0.220590
0.279794,-0.706691,0.820884,-0.776119,0.630169,-0.022933
0.256271,-0.645766,0.863566,0.569856,0.770754,-0.284962
-0.452955,0.199185,0.641583,-0.568891,0.546066,-0.614960
0.413750,0.160074,-0.986973,0.098056,-0.079757,0.991980
0.188014,-0.406655,0.702247,-0.758020,-0.605085,-0.243470
0.227632,-0.433271,0.879043,-0.553189,-0.554714,-0.621509
0.326263,-0.777302,0.722196,0.150414,0.789757,0.594693
0.621243,-0.382329,0.563754,-0.319889,-0.508041,-0.799729
0.006768,-0.485694,0.829495,-0.137003,0.350442,0.926510
0.097225,0.226616,0.343070,-0.044224,-0.180457,0.982588
-0.005448,-0.327837,0.771819,0.988128,-0.086015,0.127296
0.382303,-0.135601,0.493997,0.448876,0.713215,0.538363
0.303813,-0.349352,0.764322,-0.155129,0.483918,0.861254
-0.346897,0.335008,0.713400,0.670822,0.727129,-0.145880
0.129745,-0.514086,0.827881,0.651042,0.076024,0.755225
0.434054,-0.310389,0.940449,-0.481498,-0.648643,0.589425
-0.428196,-0.531609,0.700280,-0.460503,0.461800,-0.758075
-0.124876,-0.551127,0.877559,0.799026,0.339487,0.496292
-0.070652,-0.236524,0.832371,0.306942,-0.949286,-0.068136
0.676543,-0.155491,0.745208,-0.139700,0.897880,0.417488
-0.059013,0.030684,0.858686,0.793107,0.482269,-0.372018
0.065450,-0.668761,0.789485,-0.029278,0.877962,0.477834
0.381147,0.034158,0.837697,0.456037,0.889870,0.012685
0.281116,0.133383,0.317368,0.996688,-0.070202,-0.041056
0.768569,-0.291018,0.669716,-0.570981,0.046128,0.819666
0.162512,-0.106913,0.532986,0.992902,0.104141,-0.057444
0.836415,-0.002440,0.736226,0.563113,0.159352,-0.810870
0.305133,-0.223512,0.907584,0.768398,0.449808,-0.455234
-0.014775,-0.515047,0.914989,-0.157662,-0.603652,0.781503
0.310498,0.386765,0.741886,0.856550,0.343181,0.385421
0.497110,-0.137302,0.807950,0.687462,-0.081483,-0.721634
0.125783,-0.168724,0.554735,-0.278027,0.960572,-0.001368
-0.251735,0.505137,0.849370,0.882599,0.441096,0.162646
-0.038792,-0.106839,0.767198,0.934869,0.046941,-0.351876
0.234317,0.102624,-0.181862,-0.235758,0.971766,0.009415
0.101270,-0.581441,0.796500,0.950219,0.230829,0.209288
-0.477468,-0.586839,0.693600,0.963242,0.024539,0.267513
-0.120254,-0.516895,0.768070,0.224140,0.541166,0.810494
0.017662,0.362439,0.798541,0.940867,0.188584,0.281434
0.061322,-0.221442,0.502867,-0.397618,0.812728,0.425880
-0.232338,-0.621664,0.539258,0.517228,0.704603,0.485808
0.235227,0.147873,-0.680554,0.220918,0.975226,0.011345
0.238113,0.199926,0.375731,0.911473,0.344205,-0.225257
0.106635,-0.832976,0.702025,0.840620,0.417584,0.344938
0.032024,-0.316968,0.745894,0.970299,-0.233480,0.063300
-0.409129,-0.616783,0.687643,0.510304,0.253066,0.821917
0.442306,-0.079927,0.823928,0.642815,0.144127,-0.752341
0.372646,-0.107062,0.767959,0.097053,0.303801,0.947779
0.245047,0.058559,0.678104,0.342855,0.903141,-0.258432
0.449157,-0.613604,0.699891,-0.211793,0.300962,0.929820
-0.280953,0.472309,0.636944,0.929950,0.367643,-0.005611
-0.251569,0.424621,0.439976,0.979042,0.128316,-0.158152
-0.287225,-0.577005,0.564830,0.338814,0.897539,0.282186
0.715501,-0.221813,0.669883,0.202879,0.944944,-0.256750
-0.257924,-0.711718,0.541225,-0.495072,-0.199888,-0.845546
0.066110,0.120887,0.668547,0.877997,-0.437902,0.193293
0.152442,-0.130278,0.604747,0.935128,-0.265148,-0.235014
0.374875,0.061145,0.690389,0.281935,-0.685815,0.670947
0.329399,0.234085,0.736894,0.953867,-0.160216,-0.253905
0.250742,0.106543,-0.861321,-0.557073,-0.827075,0.074942
0.256601,0.085766,0.027298,0.684220,-0.723585,0.090932
-0.156983,-0.017596,0.817767,-0.329700,0.870889,0.364487
0.392290,0.503881,0.710784,0.961321,-0.273753,0.030364
0.635109,-0.744916,0.554642,-0.736098,0.094755,-0.670210
-0.189337,-0.610499,0.796778,0.499784,0.836917,0.223129
0.245211,0.203917,0.810752,0.910078,0.385346,-0.152533
0.280290,0.047099,0.125800,0.915429,0.374697,-0.146939
-0.208238,0.759481,0.662590,-0.747330,0.664399,0.008552
0.510069,-0.415378,0.736875,0.741476,-0.214410,-0.635800
0.291597,-0.833122,0.742034,-0.100355,-0.946025,0.308166
0.792092,-0.678818,0.543192,0.888491,0.201923,-0.412081
0.340046,0.171755,-0.510420,0.996284,-0.007662,0.085789
0.170600,0.178853,0.795554,-0.542724,-0.602140,0.585558
0.186941,-0.389500,0.687661,0.926770,0.374731,-0.025978
0.220205,-0.632384,0.781469,0.745481,-0.593325,0.303682
0.478128,-0.404879,0.715182,0.796272,-0.135697,-0.589522
0.078077,-0.344548,0.714124,0.968970,0.227323,-0.097066
-0.454358,0.563548,0.653015,0.732173,0.056387,0.678781
0.308186,-0.530203,0.870414,0.870376,-0.490402,0.044178
-0.087984,0.202735,0.868076,-0.681597,-0.481075,0.551355
0.097638,0.115564,0.953273,0.973627,0.223436,0.046127
-0.029301,0.332865,0.352386,0.649794,0.703140,0.288726
-0.024183,-0.420925,0.814130,0.913756,0.351197,0.204233
0.345658,-0.183438,0.777256,0.870953,0.101572,0.480753
-0.421841,0.004658,0.809898,0.221188,0.870771,0.439128
-0.003798,0.332865,0.693099,-0.717043,-0.681162,0.147878
0.611009,0.495008,0.603763,0.695864,0.253817,-0.671826
0.200724,-0.422107,0.706664,-0.634062,-0.633280,-0.443759
0.437437,-0.853974,0.727949,0.516825,0.828484,-0.215654
0.272283,0.171534,-0.076308,0.963263,-0.153513,-0.220361
0.392290,-0.132570,0.767421,0.083491,0.251858,0.964156
-0.204359,-0.469723,0.522074,0.852590,0.104832,0.511957
-0.029301,0.175304,0.974428,-0.636908,0.718647,0.279096
0.204440,0.087468,-0.970141,-0.105909,0.994282,0.013673
0.487289,-0.742033,0.780021,-0.750727,-0.530199,-0.394079
0.215253,0.090721,0.476497,0.943796,-0.328618,0.035482
0.018818,0.058114,0.716703,-0.273470,-0.960901,-0.043394
0.028638,-0.393049,0.510847,-0.373561,0.304704,0.876132
0.225650,0.094638,-0.366304,0.481233,-0.870221,0.105497
0.228292,0.017080,0.638503,0.761421,0.160545,-0.628063
0.114063,0.049538,0.622618,-0.794318,0.272486,-0.542964
-0.238033,0.512161,0.394288,0.682000,-0.346913,0.643838
-0.029218,0.442069,0.693061,-0.684207,-0.178427,-0.707124
0.258913,-0.006136,0.424110,0.342537,-0.850902,-0.398290
0.305710,0.109871,-0.285004,-0.409591,-0.894294,-0.180204
0.168703,-0.344325,0.807783,0.672518,-0.722994,0.158111
0.613402,-0.490277,0.558075,0.127930,-0.808102,0.574982
0.426047,0.148169,-0.345705,-0.378302,0.895756,0.233470
0.118768,-0.186617,0.811884,0.781294,-0.378345,-0.496423
0.078820,0.034528,0.645777,0.830795,0.469467,0.298966
0.032931,-0.568724,0.720081,0.564833,-0.038780,-0.824294
0.221771,-0.065583,0.788558,-0.029932,0.912982,0.406901
0.441233,0.040000,0.901479,0.566217,0.492190,-0.661171
0.502641,-0.045767,0.666543,0.605641,0.762898,-0.226244
-0.006191,0.187725,0.993356,0.859560,-0.184101,0.476722
-0.218802,-0.456117,0.514614,-0.674465,-0.162930,-0.720105
-0.109278,-0.466174,0.838811,0.619786,-0.658857,0.426349
0.313304,-0.074306,0.964463,0.810824,0.461276,-0.360261
0.204522,0.012348,0.962458,-0.475114,-0.874707,0.095674
0.467398,-0.518669,0.711340,0.633508,-0.691970,-0.346186
0.029548,0.653530,0.678271,0.973578,-0.226930,0.025488
0.707494,0.074455,0.759775,-0.455900,0.683694,-0.569840
0.701139,-0.440445,0.567391,0.596776,0.553487,0.580956
0.299438,0.043920,0.852822,0.961613,-0.245411,0.122773
0.047869,-0.422847,0.507506,0.065463,0.252072,0.965492
-0.273772,0.126729,0.892367,-0.137134,-0.859689,0.492067
0.405580,-0.847394,0.714310,0.485730,0.865915,0.119402
0.222431,0.096044,-0.347858,0.146315,-0.953990,0.261716
0.252888,0.009685,0.662275,0.816096,0.573299,-0.072906
-0.073375,-0.101811,0.839906,-0.370495,-0.627148,-0.685141
-0.638743,0.354824,0.701338,0.843651,0.084072,0.530268
-0.228706,0.736118,0.681222,-0.368948,0.759588,-0.535634
0.097804,0.033863,0.622636,-0.871131,0.155987,-0.465617
0.536561,-0.765988,0.688830,-0.047936,0.574026,0.817433
-0.280787,0.472605,0.399094,0.976360,-0.078978,0.201205
-0.373722,0.382995,0.784326,0.890902,-0.452452,0.039752
0.077171,-0.152903,0.846122,0.873215,-0.370723,-0.316322
0.249833,0.087689,0.599254,0.787401,0.462516,-0.407527
-0.447837,0.308909,0.644924,0.577430,0.813908,-0.064261
0.526907,-0.323844,0.701672,-0.278744,0.610628,0.741239
0.414164,-0.228392,0.911370,0.815839,0.561221,0.139418
0.361587,0.155046,-0.613636,0.986025,-0.158303,0.051909
0.149306,-0.158446,0.631284,0.277993,0.813990,0.510040
0.252062,0.080148,-0.494294,0.193568,0.977060,-0.088798
-0.645265,0.328650,0.711118,-0.657351,-0.647026,0.386325
-0.157890,-0.036674,0.781339,0.132588,0.987146,-0.089239
-0.075687,0.001256,0.863993,0.786110,0.153069,-0.598833
0.226972,-0.221072,0.653831,-0.224066,0.969883,-0.095504
0.854160,0.422549,0.676230,-0.034001,-0.925414,0.377428
-0.469297,0.313419,0.640247,0.703972,0.632662,-0.322743
-0.058023,-0.590462,0.830312,0.342143,-0.758098,-0.555181
0.205182,-0.207098,0.603188,0.962355,0.132234,-0.237460
0.152855,0.031275,0.682836,-0.195835,0.980029,0.034516
0.300841,-0.077855,0.921001,0.821441,-0.079967,0.564660
-0.223673,-0.189057,0.531761,0.188774,0.940934,0.281082
0.514361,0.292568,0.597732,0.989305,0.072929,-0.126319
0.831793,-0.246655,0.703379,-0.344724,0.525033,0.778143
0.071062,-0.716228,0.804628,-0.212608,-0.739049,0.639222
-0.291020,-0.580776,0.833782,0.884433,0.066056,-0.461969
0.398232,-0.252939,0.819901,0.996365,0.079384,0.030914
0.493231,0.395488,0.664075,0.628831,-0.475131,-0.615485
0.154011,-0.471276,0.735316,0.811333,-0.411608,0.415111
0.667382,-0.688060,0.532522,-0.482529,-0.200877,-0.852534
0.828655,-0.251903,0.777757,0.922140,0.381222,0.065786
0.637751,-0.411166,0.562548,-0.538472,0.211638,-0.815633
0.015103,0.089981,0.649340,0.865557,0.438362,0.242179
0.203203,-0.068613,0.479392,0.972373,-0.169665,0.160324
0.783014,-0.114158,0.782805,0.376365,-0.879738,-0.290535
-0.198828,-0.099298,0.869393,-0.022692,0.983757,0.178068
0.140558,-0.703956,0.785254,0.100601,0.980843,0.166815
0.234814,-0.043770,0.851448,-0.524653,0.505751,-0.684803
-0.019727,-0.007172,0.782601,-0.333825,-0.816100,0.471744
0.408136,-0.820999,0.727745,-0.392204,-0.893896,0.217085
0.272366,0.117857,-0.493236,0.655556,0.716359,0.238909
0.069493,0.131386,0.490118,0.343336,0.789517,-0.508708
0.365465,-0.740110,0.710932,0.757652,-0.138349,-0.637827
-0.601518,0.677854,0.699946,-0.702832,-0.579125,-0.413089
0.010397,-0.602958,0.551042,0.751151,0.649360,0.118758
0.802822,0.519409,0.691298,0.123666,-0.672840,0.729378
-0.037555,-0.532200,0.749030,0.897598,-0.014815,0.440566
0.004786,0.067282,-1.000000,-0.025514,-0.084130,0.996128
0.240589,0.107653,0.268655,-0.618113,0.742652,0.257690
0.075518,0.250498,0.346095,0.242740,-0.007754,0.970060
-0.198994,-0.389798,0.516210,-0.394634,0.819051,-0.416438
0.609359,0.612126,0.693637,0.601335,0.295751,-0.742245
0.008501,-0.519925,0.946239,0.575569,0.806921,-0.132661
-0.015848,-0.606209,0.746414,0.916081,0.076982,0.393535
-0.512547,0.472237,0.639895,-0.410342,0.746684,-0.523529
-0.355728,-0.092718,0.410229,-0.506005,0.855370,-0.110913
0.413501,0.311718,0.669809,0.164346,0.790747,-0.589670
0.207162,0.015749,-0.991315,-0.255627,-0.088507,0.962716
0.155331,0.248650,0.868298,0.369608,-0.920223,0.128761
-0.510648,0.394159,0.727188,0.920447,0.094726,-0.379215
0.682238,-0.159335,0.749995,0.324071,-0.750499,-0.575959
0.124133,0.298559,-0.991538,0.133427,-0.175284,-0.975435
0.434631,-0.592827,0.723236,-0.368204,0.565489,0.738003
0.373143,0.214861,0.478557,0.099294,-0.959916,0.262113
0.542999,-0.333975,0.888693,0.290276,-0.934555,-0.205784
-0.133957,0.453899,0.778240,0.820789,-0.568923,-0.051304
0.677532,-0.349426,0.510958,0.843152,0.530874,-0.085250
0.268074,0.002070,0.898881,0.754684,0.626443,-0.194990
0.644436,0.572199,0.621653,0.711525,0.401268,-0.576816
0.293577,0.032161,0.481433,-0.585145,-0.276352,0.762387
0.611422,-0.307282,0.685583,-0.134420,0.791069,0.596776
0.765186,0.441552,0.673131,0.009776,-0.937873,0.346842
0.311571,0.124732,-0.407946,-0.439751,0.895188,0.072503
0.029794,0.401330,0.687309,0.927023,-0.007347,0.374932
0.029218,-0.735453,0.893629,-0.469539,0.714916,-0.518100
0.592934,0.288947,0.551153,-0.329204,0.749018,0.574976
0.290441,-0.035047,0.162136,0.917262,-0.342358,0.203523
-0.102757,0.483697,0.375230,0.405222,0.238798,-0.882480
-0.067350,0.177745,0.906155,0.574090,0.815216,0.076442
-0.158140,-0.576265,0.727801,-0.694862,-0.159307,-0.701277
-0.044817,0.327172,0.356709,0.635531,0.695887,0.334427
0.342605,-0.143735,0.664186,-0.723086,0.250294,0.643816
0.344501,0.246581,0.632806,-0.797799,-0.279077,0.534447
0.265434,0.074676,0.270566,0.013087,-0.998202,0.058497
-0.143117,0.641847,0.627535,0.819167,-0.164182,0.549554
0.274182,0.090942,0.172045,0.835350,-0.538755,-0.109242
0.520056,0.507725,0.830256,0.959606,0.251204,0.126698
-0.143117,0.439111,0.725388,0.481667,-0.514832,0.709186
-0.038628,0.497226,0.390447,-0.832075,0.554012,0.026874
0.235967,0.241775,-0.990777,0.133443,0.162170,0.977698
0.850361,0.068613,0.769258,0.847539,-0.156473,-0.507142
0.055547,-0.624843,0.887301,-0.520315,0.025785,-0.853585
0.071392,-0.066986,0.493922,0.390111,-0.408852,-0.825018
0.393116,0.096710,0.960306,-0.615773,0.497662,0.610866
-0.576595,0.260331,0.706534,0.380439,-0.899280,0.215783
0.325933,-0.176710,0.956576,-0.703332,0.565677,-0.430504
-0.211374,-0.666026,0.821534,0.720962,0.632332,0.283496
-0.130655,0.217449,0.834004,-0.746681,-0.455081,0.485147
0.514691,0.408650,0.666283,0.568166,-0.413528,-0.711465
0.505117,-0.631941,0.726428,0.589221,0.559645,0.582766
-0.064214,0.664767,0.486444,0.766843,0.568955,0.297056
0.008995,-0.360812,0.521183,0.329372,-0.033621,0.943601
0.309755,0.002883,0.708056,0.503836,0.854092,0.129139
0.367448,-0.624768,0.703286,0.566425,0.297648,0.768485
-0.337900,0.420406,0.766808,0.865177,0.400859,0.301298
0.526577,0.450055,0.837011,0.981507,-0.012735,-0.191004
-0.043663,0.449759,0.389704,-0.832075,0.554012,0.026874
-0.334517,0.444583,0.616085,0.007365,-0.512187,0.858842
-0.039288,0.286950,0.589047,0.355794,-0.772935,0.525340
0.682238,0.121404,0.770705,0.582005,0.515326,-0.629055
0.217728,0.094713,0.310335,0.821599,-0.570013,-0.007750
-0.669448,0.494564,0.665838,0.218298,-0.963511,-0.154896
0.032684,0.458189,0.680016,-0.902617,0.192093,0.385204
-0.077007,0.135305,0.943307,0.640970,0.767115,0.026301
-0.190493,-0.526284,0.814556,0.240941,0.753978,-0.611118
0.363569,-0.533604,0.665262,0.425011,0.784242,0.452030
-0.532685,0.580997,0.688496,0.762286,0.309525,0.568431
-0.078987,-0.474602,0.921595,0.752521,0.457422,-0.473790
0.293000,-0.007912,-0.394771,-0.629324,0.059684,-0.774848
-0.273936,-0.584769,0.809750,0.835489,-0.099575,-0.540411
0.371326,-0.223290,0.956112,-0.139360,-0.881291,0.451557
0.630900,-0.335674,0.749123,-0.243715,0.419465,0.874444
0.568504,0.287171,0.563698,0.936438,0.314555,-0.155370
-0.057033,-0.499223,0.894297,0.953751,-0.134340,-0.268910
0.156321,0.143586,-0.192069,0.407627,-0.901826,-0.143352
0.449074,-0.264399,0.920983,0.431572,0.892431,-0.131580
0.807361,-0.294565,0.816598,0.493413,0.760807,-0.421564
0.178441,-0.570202,0.808414,0.786406,-0.431856,-0.441663
0.304390,0.006653,0.782322,-0.690813,0.343754,0.636090
0.378011,-0.102698,0.922579,0.921303,0.362036,0.141886
0.663833,-0.366212,0.539592,-0.391232,0.883666,-0.257043
0.925799,-0.317855,0.728135,-0.760042,0.480103,0.437991
0.076511,-0.574936,0.854733,0.960309,-0.268615,-0.075185
0.057196,-0.330572,0.658693,-0.033348,-0.271489,0.961864
0.042011,-0.037337,0.169280,0.749187,0.351194,0.561588
0.835752,-0.712828,0.600572,0.646193,-0.760266,-0.066557
0.065697,-0.001258,0.662572,0.515549,-0.848674,0.118161
0.249833,0.072679,-0.044575,0.724282,-0.678432,-0.123069
-0.344751,0.333456,0.731067,0.092394,-0.901669,0.422441
0.040358,-0.823734,0.726260,0.242456,-0.491385,0.836514
0.257674,0.115341,-0.755247,-0.557164,-0.823683,-0.105421
-0.136516,0.695156,0.633400,0.764843,0.627896,-0.144086
0.604820,0.046137,0.730232,-0.587527,0.795990,-0.145644
0.412841,-0.398374,0.683876,0.838344,0.535195,0.103661
0.401534,-0.360221,0.792566,0.620352,0.571805,0.536844
0.146087,-0.043475,0.525080,0.998901,-0.035345,0.030793
0.364805,0.296192,0.670440,0.082207,-0.663588,0.743568
0.081296,0.119779,0.682465,0.873302,-0.483105,0.062883
-0.475735,0.296266,0.656912,-0.762806,0.100077,-0.638837
-0.299521,-0.579519,0.791787,-0.291899,0.863219,-0.411884
0.420848,0.075193,0.907065,-0.662803,-0.682879,0.307194
-0.051834,-0.248133,0.851448,-0.429670,0.781528,0.452325
0.898810,0.111645,0.599885,-0.502636,-0.311110,0.806578
0.390721,0.021662,0.674671,-0.056048,-0.963521,0.261696
-0.048779,0.625951,0.516228,-0.480058,-0.826513,0.293972
0.211867,-0.661960,0.861785,0.927608,-0.188744,-0.322367
-0.076428,0.099889,0.851300,0.907745,-0.173660,0.381892
0.231345,-0.633789,0.891328,0.196364,0.979240,-0.050300
0.237289,0.106618,-0.260137,-0.111857,0.993190,0.032588
0.208898,-0.143956,0.886262,-0.626846,0.746360,-0.223631
0.605067,0.434379,0.756787,0.829028,0.503847,-0.242592
-0.124383,-0.175749,0.734556,0.902805,0.017997,-0.429674
0.153351,-0.136192,0.575872,-0.711959,0.668988,0.213471
0.397078,-0.680961,0.826711,-0.167392,-0.773481,0.611316
0.163668,-0.735599,0.725221,0.141143,-0.811555,-0.566971
-0.598549,0.132051,0.678345,0.663325,-0.358546,0.656844
0.372153,-0.268391,0.901683,-0.746434,0.509502,0.428071
0.313881,-0.601922,0.778796,-0.587078,-0.807365,0.059165
0.409622,-0.366358,0.674114,-0.385191,-0.387900,0.837354
0.462693,-0.126359,0.783714,0.946028,0.293444,-0.137553
0.608533,0.738483,0.682205,0.664333,-0.667002,0.337299
0.189667,0.222920,0.816375,0.949997,0.294446,-0.103962
-0.267168,-0.530129,0.827287,-0.604197,-0.796826,-0.003776
0.721443,0.042588,0.753169,-0.373733,0.912773,-0.164829
0.502311,-0.003401,0.650417,0.595112,0.689896,-0.412171
0.449404,0.489685,0.744280,0.268580,0.962567,-0.036467
-0.518572,0.598299,0.680572,0.932723,0.113515,0.342259
-0.234401,-0.023217,0.775827,0.059495,0.530516,0.845585
0.037882,-0.343587,0.622877,-0.094501,0.959571,0.265129
0.141878,-0.243918,0.693859,0.956443,-0.263621,-0.125384
-0.040938,-0.680887,0.876222,0.572528,0.801904,0.170767
-0.115303,0.301145,0.862082,0.821521,-0.387097,0.418640
-0.415813,0.268982,0.645833,0.778910,0.236201,0.580954
0.573950,0.470315,0.816895,-0.623987,0.769687,0.134991
0.872398,-0.300481,0.803459,0.843624,-0.515018,-0.151841
0.073455,0.525619,0.695363,-0.671965,-0.322041,0.666897
0.373719,0.089315,-0.991111,0.180799,-0.062786,0.981514
0.101930,-0.222774,0.690816,0.872527,-0.487739,-0.028426
0.015516,-0.622995,0.881307,0.973795,-0.209018,-0.089642
0.038212,-0.508095,0.909440,0.573892,0.646586,-0.502568
0.611588,-0.994528,0.707499,0.636363,0.535459,0.555271
-0.255944,0.748612,0.690556,-0.232327,-0.971249,-0.051953
0.046796,0.184621,0.899215,0.589819,-0.445236,-0.673705
0.279381,-0.039039,0.200716,0.966433,0.249610,0.060844
0.281446,0.150461,-0.095570,0.999401,-0.030234,-0.016820
-0.034996,-0.551571,0.812998,-0.735856,0.665622,-0.124352
0.081956,-0.202884,0.389166,0.136180,-0.259792,-0.956014
0.308765,-0.176488,0.671795,0.811007,-0.409481,-0.417842
0.292093,0.060628,0.852914,0.955239,-0.285170,0.078721
-0.041847,-0.111202,0.925103,0.957965,0.054507,0.281661
0.799273,-0.136415,0.798430,0.360920,-0.900668,-0.241938
0.279794,0.058855,0.868243,0.884601,0.462289,-0.061401
0.121327,-0.345435,0.763858,0.178044,0.840157,0.512286
0.232998,0.192015,0.158201,0.724627,-0.688608,-0.027119
0.156817,-0.396524,0.507915,0.339854,0.940140,0.025207
0.556288,-0.273492,0.807152,0.965689,0.089859,0.243661
0.234154,0.019444,0.366174,0.844906,-0.533612,-0.037305
-0.294819,0.378410,0.610426,0.350565,0.208604,0.913010
0.139319,-0.520075,0.697311,0.991837,-0.107881,0.067985
0.327583,-0.209759,0.948262,-0.426223,-0.890724,-0.157940
-0.459890,-0.544992,0.684655,-0.655419,0.638395,-0.403582
0.267991,0.033788,0.931115,0.884273,0.361333,0.295803
0.115302,0.213753,0.793253,0.512504,0.347708,-0.785136
-0.165484,0.709354,0.643903,0.729684,0.657231,0.188701
-0.162761,-0.548171,0.904931,0.447407,0.731245,0.514886
-0.155663,0.529168,0.839572,-0.202112,-0.977126,-0.066150
0.293247,0.096635,0.194425,0.756225,-0.653656,0.029300
0.845739,-0.298929,0.818806,0.747054,0.456908,0.482851
0.305876,0.078742,-0.250784,-0.673600,0.736822,0.057939
0.712116,-0.187800,0.797799,0.518716,-0.805839,-0.285582
0.369757,-0.268540,0.924045,0.697027,0.716339,-0.031796
0.277648,-0.005768,0.782786,0.511718,-0.232891,-0.826987
-0.395593,0.345361,0.723106,0.283090,0.951382,0.121380
0.082699,0.212421,-0.992243,-0.119238,-0.002211,0.992863
0.485969,-0.662107,0.694750,0.982434,-0.132215,0.131689
0.347640,-0.797560,0.743092,0.167771,-0.930778,0.324814
-0.112333,0.283326,0.917828,-0.434571,0.747579,0.502268
0.713765,0.686135,0.668065,-0.125613,-0.974284,0.187059
-0.166804,-0.616932,0.827602,-0.196405,0.970964,-0.136580
-0.277814,0.677338,0.698907,0.047659,0.073820,0.996132
0.313634,0.151348,-0.474883,0.971388,-0.210053,-0.110827
-0.083692,-0.402661,0.597751,-0.648751,0.757668,0.071150
0.382386,-0.697598,0.824856,-0.425697,0.901534,-0.077574
0.191070,-0.173384,0.612838,0.931924,0.350433,0.093347
-0.087241,-0.048725,0.781209,-0.335352,0.612682,-0.715653
0.384203,0.082070,0.957429,0.943917,0.084757,-0.319120
0.312067,0.143216,-0.210904,0.915000,-0.403432,-0.004167
-0.129748,-0.705434,0.743018,0.325730,0.780760,0.533211
-0.031117,-0.580629,0.863511,0.062583,-0.683359,0.727395
0.200064,-0.436008,0.895244,0.899537,0.433894,0.050689
0.380241,0.116821,0.931523,0.991811,0.127367,-0.009378
0.025006,0.198520,-0.985785,-0.157752,-0.174248,0.971983
-0.238116,0.278373,0.841761,-0.661288,0.702771,-0.262318
-0.163834,0.708243,0.644590,0.729684,0.657231,0.188701
-0.347063,0.744399,0.705365,0.819233,0.151849,0.552991
0.391794,0.261367,0.659361,-0.560568,-0.356356,0.747512
0.834763,-0.394825,0.587600,-0.374718,0.923975,0.076530
0.408468,0.305508,0.671386,0.164346,0.790747,-0.589670
0.860102,0.267653,0.602743,0.868380,-0.411047,-0.277411
0.309259,0.022698,0.693228,0.670681,0.735028,0.099603
0.254704,0.107874,-0.427654,0.934294,0.209074,-0.288762
0.835176,-0.310461,0.787351,0.412590,0.885305,0.214485
0.089137,0.585952,0.466124,0.777734,0.278880,0.563344
0.330306,-0.563623,0.862045,0.956067,-0.290777,-0.037202
0.366538,0.241109,0.649674,-0.750573,-0.396136,0.528883
0.363899,-0.137818,0.949450,0.994042,-0.038891,-0.101819
-0.073788,0.099074,0.914933,-0.698095,-0.447273,-0.559116
0.384532,-0.740629,0.809212,0.860825,0.508590,0.017781
0.818917,0.179964,0.613933,0.996671,-0.074427,-0.033274
0.037469,0.030758,0.838904,0.464340,0.478442,0.745306
-0.163668,0.400886,0.779650,0.856173,-0.516688,-0.001204
0.242324,-0.436376,0.716963,0.295318,0.822172,0.486643
0.487949,-0.679926,0.702934,-0.439888,-0.897941,-0.014147
0.965994,-0.318300,0.761241,0.833085,0.452391,-0.318294
-0.359939,-0.710906,0.695047,0.707144,0.524943,0.473690
-0.057446,-0.365842,0.890066,0.938760,0.293981,-0.179736
0.005529,0.393566,0.694231,0.863481,0.124994,0.488648
0.293660,0.104104,-0.033292,0.789839,-0.612811,0.024836
0.274265,0.115415,0.378106,0.930174,-0.261091,-0.258087
0.043414,-0.210943,0.860319,0.712722,-0.701194,-0.018791
-0.006025,-0.370795,0.506319,0.175322,0.736835,0.652945
0.117859,-0.705434,0.803570,0.474861,0.807656,0.349571
0.096071,-0.647688,0.832705,-0.610990,0.786848,0.086954
0.251815,0.094566,0.369625,0.961186,-0.225292,-0.159265
0.024759,0.295822,0.918199,0.132432,-0.991139,0.010279
0.065367,0.240739,0.877540,-0.308220,-0.950904,-0.027975
0.885274,-0.683328,0.603262,0.376184,-0.113681,-0.919545
0.340872,0.139816,-0.544399,0.969780,-0.141110,-0.199036
0.025586,-0.610278,0.541244,0.767857,0.596027,0.234837
-0.319578,-0.044510,0.849537,-0.638070,0.291497,-0.712669
0.523275,0.569537,0.594745,0.410360,0.816316,-0.406489
0.391384,-0.465213,0.690055,-0.308453,0.623363,0.718523
0.287471,0.116081,-0.781784,-0.676007,0.736860,0.007225
0.047126,-0.116451,0.888693,0.165676,-0.178857,0.969826
0.243891,0.037412,0.376232,0.907014,-0.410108,0.095586
0.355561,-0.300777,0.824670,0.998370,-0.054450,-0.017102
-0.237703,0.338632,0.616253,-0.279791,-0.656544,-0.700476
-0.007347,0.276746,0.902296,-0.671464,-0.699062,0.245863
0.072795,0.306765,-0.993672,-0.077873,0.083415,0.993468
0.032104,0.061959,0.676211,-0.431618,-0.278468,-0.857998
0.629746,-0.786840,0.553213,0.731816,-0.069132,0.677986
0.248183,0.122884,0.177501,0.881276,-0.409715,-0.235555
0.582700,0.657080,0.670236,-0.815363,0.370675,-0.444729
0.389485,-0.319556,0.912576,0.293966,-0.883820,0.363931
0.256107,-0.350313,0.847681,0.305457,0.874875,0.375884
0.615384,-0.415157,0.802401,0.155100,0.981237,-0.114537
-0.336910,0.313419,0.619444,0.073273,0.637674,0.766813
0.309259,-0.020112,0.970549,-0.472431,-0.668071,0.574882
0.693794,-0.233715,0.674059,0.407842,-0.900705,-0.149654
0.240012,-0.078225,0.942751,0.978455,0.156145,0.135073
0.027896,-0.688281,0.898584,-0.540355,0.267505,-0.797783
0.846483,0.095379,0.763060,-0.696951,-0.444228,0.562957
0.290937,0.023068,0.762243,-0.487368,0.151578,0.859940
0.084432,0.155121,0.737061,0.970989,0.072120,0.227988
0.395676,-0.509352,0.699074,-0.410685,0.559695,0.719778
0.290937,-0.305508,0.664613,0.704637,-0.220559,-0.674418
0.766176,-0.143144,0.714421,0.154376,0.979163,0.131938
0.254125,-0.002440,0.618034,0.175797,0.969657,0.169884
0.761884,-0.341665,0.686585,0.782913,0.528329,-0.328506
-0.060665,0.596597,0.614879,-0.320286,-0.592765,0.738949
0.301337,0.125544,-0.155158,0.547303,-0.836913,-0.005921
-0.419033,0.449759,0.775586,0.442090,0.896548,-0.027536
0.330472,-0.205251,0.923284,0.818467,0.390834,-0.421141
0.253052,-0.618040,0.773192,0.253267,0.534997,-0.805999
-0.064791,-0.102477,0.481415,-0.138019,0.734729,0.664172
0.002969,0.646283,0.678642,0.873266,-0.283806,-0.396056
-0.068753,-0.478225,0.723440,0.730749,-0.630524,-0.261621
0.275668,0.015304,0.963238,-0.627756,-0.723239,0.287834
-0.053567,-0.660259,0.849667,0.457048,0.851057,-0.258476
0.263865,0.070240,0.557686,0.961681,0.255135,0.100379
0.084515,-0.546544,0.856756,0.711856,0.683218,0.162710
0.667382,-0.150536,0.724850,0.434665,-0.779851,-0.450442
0.348050,0.177080,0.820402,-0.415527,0.772141,-0.480765
0.204193,-0.230240,0.530276,0.878397,0.356459,0.318363
-0.095578,-0.200370,0.932915,0.892000,0.130885,0.432672
-0.002229,-0.538263,0.526119,-0.696134,-0.440053,-0.567231
-0.010153,-0.581367,0.539759,0.965411,0.235004,-0.112934
-0.183065,0.023955,0.740123,0.255651,-0.096522,0.961939
0.464675,-0.287320,0.926049,0.500198,0.864430,0.050635
0.460877,-0.540037,0.686808,0.385651,0.832662,0.397427
0.859195,0.050129,0.777534,0.555796,0.731164,-0.395588
0.581297,-0.582994,0.719357,0.376065,0.753874,-0.538749
0.809673,0.249537,0.593130,-0.864435,0.082192,0.495981
0.023853,-0.172790,0.501884,-0.427847,-0.518175,-0.740569
-0.012299,0.361848,0.681890,0.823375,-0.161891,0.543917
-0.070073,-0.052866,0.957374,-0.436171,0.231002,-0.869709
-0.325356,0.426469,0.792881,0.737766,0.670814,0.075569
-0.231265,0.404435,0.375322,0.664164,0.222703,0.713645
0.191150,0.156007,0.874701,0.371291,-0.434860,0.820390
0.223010,-0.561849,0.537087,0.344775,0.496134,0.796857
0.286149,0.059962,0.080075,0.980849,-0.170957,0.093325
0.717067,-0.177005,0.688403,0.485393,0.018641,0.874098
-0.422995,0.388169,0.702470,0.802240,0.595850,0.037062
0.231675,0.220923,-0.982092,0.581016,0.518154,0.627644
0.332701,0.147061,-0.756546,0.327342,0.942765,0.063574
0.139485,-0.130648,0.599235,0.465060,-0.880771,0.089232
0.335837,0.106099,-0.668696,-0.043813,-0.998645,0.028065
0.164905,-0.029501,0.500529,-0.603819,0.794438,-0.065351
0.026905,0.279851,0.731252,0.905460,0.402093,0.135882
0.206419,0.143807,-0.278750,0.058819,-0.992543,-0.106765
-0.034419,0.185507,0.896097,0.898328,0.339062,0.279364
0.497440,-0.564363,0.672815,0.794975,0.527607,-0.299410
-0.312480,-0.051164,0.782118,0.467683,0.664062,0.583347
0.298035,0.084805,-0.755210,0.432062,0.901818,-0.006817
0.223094,-0.417450,0.515913,0.837381,0.016699,-0.546364
0.505777,0.308392,0.642288,-0.457225,-0.778240,-0.430450
0.893115,-0.198299,0.715980,0.773991,0.325384,-0.543197
0.808353,0.248059,0.641825,-0.059133,0.997504,0.038596
-0.151288,-0.460702,0.510810,0.607612,-0.253768,-0.752602
0.146830,-0.112829,0.657673,0.799016,-0.601133,-0.014582
-0.020140,-0.749352,0.878895,-0.340556,-0.940221,0.002689
0.296136,-0.007172,0.769351,0.743235,-0.612198,-0.269842
-0.100364,-0.588170,0.774120,0.498806,0.496370,0.710500
-0.391384,-0.568429,0.662590,0.397314,0.861580,0.315946
-0.040444,0.080739,-0.990239,-0.261512,-0.263530,0.928528
0.665896,-0.321258,0.505706,0.876407,0.473128,-0.089778
0.391794,0.182994,0.806966,0.930594,0.047291,0.362986
-0.228129,-0.083106,0.858537,0.234826,-0.953702,-0.187905
-0.299934,0.417596,0.772802,0.095851,0.937035,0.335823
0.408136,0.035341,0.907028,0.680034,0.190204,-0.708080
0.168784,-0.017450,0.472396,-0.689668,-0.396854,-0.605694
-0.210631,-0.535454,0.873123,0.230878,0.480980,0.845786
0.179514,0.037263,0.976469,0.177511,0.939133,-0.294141
0.252062,-0.617893,0.882254,0.979932,0.016950,-0.198609
-0.079070,0.274233,0.846419,0.676348,-0.419704,0.605312
-0.011143,-0.372717,0.800842,0.937011,-0.003994,0.349276
0.791019,0.076820,0.749847,0.144154,-0.948816,0.281011
-0.045809,-0.554010,0.907362,-0.170230,-0.016785,0.985261
-0.237209,0.564880,0.409468,0.967227,0.194848,0.162807
-0.081216,0.310315,0.897452,0.827220,0.047456,-0.559870
0.045310,0.008059,0.959081,-0.246730,-0.699398,0.670795
0.450726,-0.336267,0.694787,-0.340295,0.457591,0.821468
0.259243,-0.045988,0.780467,-0.041589,0.956660,0.288223
0.116869,-0.779001,0.722939,-0.067576,-0.991078,0.114883
-0.286895,0.308539,0.626923,-0.703535,-0.030095,-0.710023
0.054308,-0.437856,0.790376,0.209349,0.559306,0.802091
0.576015,0.587283,0.650250,-0.787851,0.607695,0.099988
0.330966,-0.046654,0.481044,-0.210896,-0.805129,-0.554338
0.694124,-0.244954,0.708464,0.942752,0.332780,0.021817
0.189997,0.171903,-0.845306,0.785138,0.616690,-0.057033
0.236629,-0.020333,0.633010,0.778333,0.570447,-0.262276
0.471690,-0.570721,0.700225,-0.538144,-0.599364,-0.592590
0.234894,0.059520,0.307829,0.999508,-0.025385,0.018437
-0.151948,0.375452,0.362889,0.585881,0.273375,0.762896
0.275255,0.111866,-0.712677,0.777557,-0.624871,0.070296
0.115713,-0.179223,0.578024,-0.591187,0.729199,0.344625
0.050512,-0.377597,0.727058,0.335612,0.599571,0.726553
0.225487,-0.296932,0.832186,-0.673772,0.207380,0.709243
-0.086994,-0.102626,0.935142,0.528209,-0.382820,-0.757921
-0.504293,0.243474,0.662831,-0.292183,0.595961,-0.747970
-0.116129,0.626616,0.624399,0.582481,-0.458160,0.671420
0.286645,-0.824621,0.737970,0.332278,0.914532,0.230699
0.349867,-0.083106,0.957077,0.880731,0.287835,0.376117
0.265021,0.198078,0.929296,0.631533,0.769279,0.096827
0.295229,-0.055010,-0.401563,-0.811154,-0.237156,-0.534590
0.684054,-0.359260,0.513927,0.782232,0.622908,-0.009991
-0.261142,-0.540037,0.807820,0.010045,-0.902679,0.430197
0.247523,-0.768725,0.725054,0.047500,-0.976097,-0.212081
0.194206,0.149500,-0.148236,-0.228251,-0.973527,-0.012123
-0.259906,0.157043,0.427097,0.591960,-0.342874,0.729397
-0.190987,0.038669,0.746581,-0.420756,-0.905024,-0.062417
0.179350,0.040591,0.947149,0.144290,0.961920,-0.232144
-0.135690,-0.605397,0.875424,0.986151,-0.143081,0.083867
0.034993,-0.571534,0.522723,-0.612449,-0.480047,-0.628061
0.226230,0.008724,0.371295,0.895031,-0.427622,0.126726
0.724331,-0.148022,0.696272,0.776198,-0.218819,-0.591299
0.283343,0.450646,0.739659,-0.358904,0.159202,-0.919697
-0.187438,0.775231,0.696829,0.282477,0.913463,0.292903
-0.023029,-0.389944,0.686436,0.783480,-0.616979,0.074129
0.519066,0.540702,0.826470,-0.157665,0.980276,0.119167
-0.439750,-0.041627,0.816134,0.354649,0.844494,0.401315
0.035160,0.129463,0.903669,0.763644,-0.611955,-0.205813
0.343348,-0.626321,0.704864,-0.287461,-0.253741,-0.923570
0.324777,0.324363,0.728302,0.978497,-0.032499,-0.203684
-0.108121,-0.511202,0.711155,-0.626342,0.540216,-0.562017
-0.044404,-0.104474,0.800286,-0.416441,0.852735,-0.315310
0.143115,-0.609463,0.819121,0.558298,0.720626,0.411097
-0.083938,-0.360370,0.907751,0.931006,0.055906,0.360698
-0.133544,-0.454269,0.855178,0.634004,-0.771046,-0.059378
0.370584,-0.655527,0.805667,-0.453298,-0.098407,0.885910
0.297869,0.083548,-0.441517,0.945444,-0.320528,0.058291
0.293166,-0.047764,0.751276,0.884214,0.463625,0.056728
-0.773690,0.238595,0.723904,-0.606894,0.243360,-0.756608
0.747441,-0.670537,0.534823,-0.387416,-0.222579,0.894632
0.787883,-0.542255,0.576261,-0.046092,-0.707047,0.705663
0.076511,-0.772273,0.717297,0.693857,0.632237,0.344730
-0.109524,-0.095897,0.928369,0.549424,-0.829586,-0.099599
0.049686,-0.600517,0.727671,0.745870,-0.575666,-0.335092
0.540359,0.526729,0.781543,0.658471,0.751459,0.041546
-0.720619,0.185582,0.718893,0.510062,-0.770376,-0.382568
0.342439,-0.636524,0.772728,0.532352,0.814679,0.229999
-0.277485,0.182477,0.436840,0.780492,-0.309111,0.543400
0.184796,-0.414713,0.684358,0.934614,0.334425,-0.121065
-0.241005,-0.689833,0.835990,-0.448637,-0.514908,-0.730476
-0.423324,0.457744,0.664075,0.837127,-0.546919,0.009892
-0.040114,-0.434749,0.887580,0.425827,0.827825,-0.365209
0.039865,-0.438964,0.675246,-0.228622,0.913576,-0.336319
0.761307,-0.166064,0.750422,0.877012,0.460011,0.138709
0.528640,0.198669,0.557426,-0.702110,0.674617,0.227890
-0.446271,0.302550,0.633678,0.148307,0.977827,0.147848
0.445774,-0.300481,0.897693,-0.097887,-0.990244,0.099167
0.234234,-0.337892,0.748548,0.969533,-0.164360,-0.181634
0.579398,0.306616,0.591311,0.751254,0.597125,-0.281173
0.030041,-0.380332,0.784642,0.956644,0.194907,-0.216432
0.518240,-0.328429,0.768237,0.889525,0.293249,0.350357
0.083029,-0.385583,0.528049,0.827246,0.065963,-0.557955
0.386265,0.151201,-0.986787,-0.201522,0.090404,-0.975303
0.813386,-0.743364,0.592926,-0.462615,0.882493,0.084817
0.398811,0.095749,0.962403,-0.615773,0.497662,0.610866
0.070156,0.537670,0.480301,0.847531,0.189039,0.495939
0.392374,-0.340259,0.831388,0.801114,0.539933,-0.258242
0.758912,0.705730,0.696847,0.753357,-0.656071,0.044989
-0.042094,-0.302108,0.825598,-0.564785,0.002130,-0.825236
0.895674,0.451311,0.665764,0.173711,0.966131,-0.190831
0.975981,-0.665582,0.650083,0.964973,0.192141,-0.178633
-0.135113,0.571238,0.811327,-0.788945,0.614147,0.019735
-0.105812,-0.585435,0.872177,0.466764,-0.247665,-0.848995
0.276162,-0.236377,0.893073,-0.197745,-0.906365,0.373362
0.416390,0.215231,0.787964,0.490105,-0.214474,-0.844866
0.297705,0.136117,0.118099,0.930604,-0.343819,-0.125556
-0.510072,0.609463,0.682836,0.828911,0.415655,0.374349
-0.508749,0.356451,0.720508,-0.246105,0.969162,-0.012567
-0.444701,0.287762,0.661829,0.682387,0.061713,0.728381
-0.357627,0.264546,0.639950,0.120878,0.840789,0.527696
0.360183,0.018262,0.814928,0.373390,0.356997,-0.856232
0.626361,-0.667874,0.717520,0.706599,-0.478946,-0.520893
-0.109444,0.171978,0.908067,0.026173,0.744082,0.667575
0.559507,0.318004,0.706144,-0.596835,0.800387,0.056291
-0.017251,0.187355,0.995379,0.859560,-0.184101,0.476722
0.120914,0.334492,0.824188,0.762246,0.071440,-0.643333
-0.243974,-0.721626,0.847533,0.258228,-0.190893,0.947037
0.162099,0.057302,0.948373,0.517528,0.785960,-0.338278
0.666639,-0.143735,0.722679,0.434665,-0.779851,-0.450442
0.313221,-0.080297,0.961364,-0.273307,0.027563,0.961532
0.957989,0.202514,0.613599,-0.294755,-0.397963,0.868760
0.167217,-0.455230,0.840314,0.889899,0.279553,-0.360459
0.731842,0.433346,0.633659,-0.820643,-0.076717,0.566268
0.368354,-0.723178,0.714198,-0.547010,0.449133,0.706441
0.616374,-0.368651,0.766790,0.264038,0.777084,0.571336
0.153515,-0.568208,0.818769,0.994632,-0.058891,-0.085077
0.099041,-0.288725,0.522055,0.967594,0.150668,-0.202636
0.274099,0.198815,0.452113,-0.726399,0.571951,-0.381072
0.121574,-0.625138,0.779947,0.984529,0.174890,-0.010756
-0.058436,-0.181071,0.927552,0.871799,-0.083918,0.482622
0.298199,0.282884,0.734927,0.922683,-0.083438,-0.376422
0.318586,-0.136192,0.975708,-0.673980,0.454874,0.582101
0.270467,-0.716673,0.869505,0.466287,-0.261306,-0.845160
0.059176,0.310757,0.778685,0.849360,0.322886,-0.417530
0.193793,-0.034011,0.936831,0.881784,0.389144,-0.266505
0.267661,0.093381,0.248594,0.686656,-0.640473,0.343943
0.785654,-0.135601,0.729026,-0.811113,0.581343,0.064305
0.609029,0.538484,0.687123,0.466061,0.883548,0.046155
-0.076841,-0.443475,0.512981,-0.391669,0.421086,0.818097
-0.032684,0.010498,0.757270,-0.823463,-0.524914,-0.215344
0.230768,0.147431,0.859614,-0.664069,-0.723627,-0.188088
0.342852,0.099445,-0.695140,0.899464,0.291177,-0.325853
0.286562,0.081775,0.254755,0.193169,0.979172,-0.062515
-0.125126,0.725617,0.687606,0.807105,0.576517,0.127317
0.296796,-0.174196,0.967135,0.371109,-0.460719,0.806236
-0.015518,-0.213752,0.813647,-0.071153,0.641195,-0.764072
0.011470,-0.068688,0.484699,0.277318,-0.659768,-0.698428
-0.014279,-0.624103,0.544343,0.916431,0.386035,0.105505
0.408879,0.029797,0.897805,0.496478,0.260192,-0.828137
-0.053237,0.068688,0.926717,-0.181789,0.290913,0.939320
-0.709063,0.261737,0.728302,-0.549685,0.266139,-0.791844
0.926212,0.210203,0.624789,-0.218868,-0.290609,0.931474
-0.265435,-0.704622,0.762132,0.759375,0.351779,0.547358
0.297128,0.073198,0.197599,0.908746,-0.411360,0.070455
0.541846,-0.689908,0.724980,0.087686,-0.990519,-0.105754
-0.267168,0.280442,0.894706,0.418937,0.378842,0.825210
0.291020,0.122144,0.258912,0.957531,-0.285325,0.041511
0.619097,-0.285916,0.493310,0.862973,0.480716,-0.155532
-0.178773,0.574564,0.677399,0.415920,0.589250,0.692672
0.050925,-0.514012,0.880287,0.879056,0.358134,0.314644
-0.110763,0.491312,0.743630,0.917283,-0.050017,0.395082
-0.092522,-0.291756,0.880157,0.949279,0.106439,-0.295873
-0.102016,0.402440,0.369495,0.552712,0.819726,-0.150196
0.139155,-0.766138,0.802828,-0.381696,0.906371,0.181108
-0.334021,-0.518078,0.827973,-0.666365,0.581153,-0.467139
0.026329,-0.414196,0.509344,-0.307630,0.422182,0.852717
0.461703,-0.282143,0.919591,-0.420124,-0.902556,0.094278
0.413501,0.348317,0.697831,-0.476340,-0.878181,0.043575
0.084102,-0.677633,0.822629,-0.289428,-0.081188,-0.953750
0.204686,-0.334417,0.844415,-0.551166,0.669393,0.498125
-0.525257,0.616339,0.667823,0.858043,0.129389,0.497012
-0.191070,-0.695156,0.532206,0.103579,0.294818,0.949923
-0.110267,-0.054863,0.832316,0.437034,0.750104,0.496332
-0.354491,0.694712,0.721510,0.851561,0.238505,0.466860
0.811819,-0.345139,0.694713,0.846757,0.250835,-0.469131
-0.153105,-0.066174,0.861191,-0.293169,-0.846144,-0.445076
0.365385,0.394011,0.685397,0.975324,0.202748,0.087381
0.214510,0.028096,0.193034,0.988757,0.139649,0.053465
-0.048615,-0.030462,0.773322,0.552312,0.764948,-0.331370
0.316440,0.083993,0.890400,0.878943,0.170924,-0.445246
0.331545,-0.480813,0.702581,0.695229,0.613334,-0.374805
-0.007758,0.401109,0.707388,0.783986,0.440987,0.436917
-0.500331,0.419002,0.693099,0.733203,0.065340,-0.676863
0.252228,0.138040,0.538070,0.789902,0.587546,0.175624
0.171013,-0.522514,0.871954,0.135845,-0.584686,0.799806
0.269560,-0.113790,0.806614,-0.354466,0.781701,-0.513124
0.015352,-0.675785,0.858110,0.240115,0.953157,-0.183947
-0.148069,-0.752385,0.550318,-0.257890,0.697860,0.668195
0.047869,0.327097,0.913745,0.064198,0.996694,-0.049797
0.030951,0.177967,0.941656,-0.636356,0.354736,0.684991
0.434714,-0.001774,0.897749,-0.668903,-0.416187,0.615919
-0.169529,0.707873,0.706850,0.236692,0.961748,0.137905
0.083938,0.256265,0.774287,0.922091,0.085716,-0.377361
-0.235144,-0.430907,0.874070,0.687829,0.270724,0.673499
0.321722,0.152384,-0.644812,-0.064044,-0.961182,0.268379
0.037059,-0.605618,0.903762,-0.040832,0.216351,0.975461
0.848382,-0.037191,0.754802,0.413515,-0.614776,-0.671607
-0.253385,0.017596,0.809620,-0.094285,0.969892,-0.224545
0.230685,-0.145064,0.820977,-0.156694,0.756740,0.634659
0.279877,-0.027728,0.737413,0.803592,-0.595180,0.000701
-0.062068,0.471052,0.740086,-0.042854,0.247081,0.968047
0.031198,-0.427800,0.658693,0.809331,-0.303715,-0.502732
-0.054061,-0.037412,0.763561,0.963330,-0.124086,-0.237902
0.247606,-0.099668,0.821942,0.363655,-0.715622,-0.596356
0.421672,-0.048946,0.902036,0.145798,0.169851,0.974625
-0.083115,-0.397190,0.521888,0.632943,-0.290886,-0.717474
0.151865,-0.148909,0.386049,-0.127092,0.479959,0.868036
0.221028,0.570423,0.752890,-0.093964,-0.265523,0.959515
0.476725,-0.293012,0.892442,0.699681,0.692471,0.175872
0.310661,-0.058189,0.766085,0.052543,0.424755,0.903782
0.229695,-0.186988,0.926865,0.049462,-0.993612,-0.101436
-0.008997,0.317339,0.680925,-0.193724,0.785183,-0.588183
0.806537,-0.199925,0.762707,0.933533,0.223181,-0.280545
0.862908,-0.313494,0.746655,0.446112,0.894854,0.014807
0.225650,-0.402366,0.767643,0.966905,-0.217437,0.133477
-0.328905,-0.634085,0.805760,-0.129017,-0.982168,-0.136752
0.321805,0.184546,-0.503071,0.964474,0.073751,0.253676
0.515681,-0.367099,0.782898,0.845877,0.529653,0.062929
-0.162431,0.550682,0.682539,0.515442,0.571764,0.638283
0.522615,-0.458929,0.693767,-0.410902,0.891465,0.190917
0.259077,-0.759039,0.789226,-0.586381,0.326788,0.741193
0.151618,-0.742772,0.703435,-0.574304,0.063009,0.816214
-0.174151,-0.403180,0.569785,0.892190,0.318813,-0.319930
0.537388,0.356006,0.744447,0.942846,-0.004666,-0.333197
-0.561820,0.578483,0.694175,0.779606,0.254432,0.572258
0.333855,-0.073643,0.808265,0.987574,-0.082091,0.134007
-0.004458,-0.401924,0.827751,-0.671847,-0.721392,0.167971
-0.134946,-0.033346,0.410155,-0.422099,0.366660,-0.829092
0.628920,-0.046949,0.716221,0.617341,0.780609,-0.097677
0.335507,0.097005,0.744874,0.830373,0.347028,0.435950
0.268321,0.096044,0.395049,0.432559,-0.900905,0.035524
0.108615,0.163402,0.678902,0.950789,-0.284092,0.123664
-0.042341,0.292198,0.896487,0.763200,0.500038,-0.409252
-0.318422,-0.088578,0.432943,-0.527634,0.845463,0.082429
-0.185292,0.206210,0.857331,-0.614558,-0.678881,0.401794
0.079976,0.079778,0.639449,0.526791,-0.554149,0.644523
0.020384,-0.281036,0.580492,0.846902,-0.519442,0.113745
0.358204,0.132051,0.903001,0.696988,0.596539,-0.397931
0.579235,-0.595859,0.717780,0.376065,0.753874,-0.538749
0.302574,0.148834,-0.003860,0.959189,-0.251830,-0.128602
0.267414,0.179964,0.250803,0.790663,-0.598584,0.128645
0.113486,-0.130129,0.844378,0.815251,0.362327,0.451758
0.265268,-0.013679,0.755767,0.986639,-0.144613,0.075031
0.252558,0.066986,0.762021,0.789071,0.606538,-0.097356
0.685044,-0.194233,0.693785,0.884587,0.070423,0.461029
-0.038628,-0.578781,0.823037,-0.772193,0.633236,0.052245
0.279630,-0.229870,0.828660,-0.686018,-0.479350,-0.547360
0.857792,-0.662403,0.580622,-0.128547,-0.245348,0.960875
0.711043,-0.527024,0.582200,0.254256,0.720239,0.645453
0.130984,0.331829,-0.990090,-0.088022,0.087565,0.992262
0.032931,-0.524953,0.721306,-0.517157,-0.001526,0.855889
0.465912,-0.603770,0.666153,0.927602,0.370604,0.046973
0.247853,0.136858,0.518474,0.900375,0.428131,0.077646
-0.320155,0.409981,0.754245,-0.118759,0.985242,-0.123267
0.532519,-0.588319,0.697645,0.939045,0.158889,-0.304875
-0.307859,0.410351,0.791916,0.767372,0.637080,0.072591
0.628177,-0.399852,0.716796,0.135371,-0.990666,-0.016003
-0.072549,-0.122737,0.940282,0.855510,-0.089821,0.509935
-0.182405,-0.581367,0.786498,-0.095155,0.881586,0.462332
0.365055,-0.738262,0.798319,0.797649,0.601725,0.041023
0.038212,-0.309279,0.755600,0.699718,0.663312,0.265351
0.428689,0.007614,0.683152,-0.112049,0.970917,-0.211576
0.244634,0.044732,0.772988,0.934584,0.236289,0.265932
0.233080,-0.171238,0.930113,-0.787623,-0.412728,0.457499
0.261885,0.064694,0.652551,0.337784,0.905604,0.256483
0.259739,0.008208,0.746507,0.663637,-0.613969,0.427350
-0.123803,0.091978,0.849184,0.098189,0.689048,0.718033
-0.003468,0.227356,-0.990851,-0.079482,-0.133465,0.987861
0.586332,-0.204585,0.797279,0.170787,-0.894783,0.412548
0.100774,-0.694861,0.823520,0.827578,-0.090359,-0.554030
0.230192,-0.127320,0.829588,-0.016958,0.938458,0.344978
0.484070,-0.249611,0.862509,0.069230,0.738705,0.670464
0.022120,-0.683328,0.557296,0.921683,0.361925,0.139678
0.514691,-0.603992,0.675673,0.774114,0.264052,-0.575347
-0.287308,-0.655749,0.838551,0.885376,0.285838,0.366615
0.207162,-0.057819,0.774769,0.091537,0.989253,0.114013
0.285406,0.096340,-0.126951,0.195957,0.979894,-0.037536
0.221691,-0.738483,0.870767,0.161954,-0.539285,-0.826404
-0.255944,-0.606803,0.749476,-0.802427,0.072893,-0.592281
-0.654342,0.445618,0.662794,-0.468187,-0.847048,-0.251614
0.038542,-0.087321,0.178781,0.776298,0.351097,0.523538
0.769395,0.092865,0.755878,-0.032049,-0.959960,0.278299
0.281776,-0.234085,0.516377,0.866830,0.041440,0.496879
0.301254,0.392237,0.735112,0.951025,0.211556,0.225377
0.297622,0.188317,-0.494331,0.986956,0.001130,0.160983
0.406653,-0.814122,0.748344,0.986063,-0.033081,0.163048
0.831627,0.106247,0.765918,0.478905,0.689341,-0.543561
0.908880,0.121331,0.600033,-0.436337,-0.382748,0.814318
-0.646667,0.206875,0.682576,-0.531264,0.416089,-0.737990
-0.061902,-0.035785,0.823612,0.793755,-0.267018,0.546492
-0.106968,-0.229279,0.829588,-0.154369,0.979328,0.130719
-0.210218,-0.697598,0.834617,0.592423,-0.770314,-0.235904
0.383213,-0.667504,0.699538,-0.069537,0.441342,0.894640
0.099371,-0.809169,0.719506,0.594037,0.800121,0.083229
-0.014526,-0.701147,0.746785,-0.483065,0.625201,-0.613002
-0.209228,0.591349,0.680981,-0.522845,-0.524081,-0.672289
-0.059426,-0.028244,0.397870,-0.346103,0.834065,-0.429591
-0.013536,0.166728,0.958914,0.229356,-0.750080,0.620303
0.431165,0.068022,0.737469,0.245630,-0.267687,0.931670
0.038709,-0.568799,0.774064,0.352261,0.043997,0.934867
0.064128,0.462921,0.800267,0.994149,-0.006715,-0.107812
0.087321,0.258779,0.649433,0.908828,-0.031851,0.415953
0.300924,0.059962,0.613487,-0.676509,0.602102,0.424039
0.536811,-0.137448,0.816356,0.232027,0.189290,0.954114
0.036646,0.203992,0.863826,-0.531804,-0.145433,0.834286
0.185539,-0.015378,0.371073,0.868749,-0.464697,0.171264
0.309589,0.129538,-0.276208,-0.329757,-0.914523,-0.234324
-0.394356,-0.577226,0.671516,-0.444150,-0.859182,-0.254040
0.007675,0.054270,0.955444,-0.530139,-0.384424,0.755759
-0.091533,0.087023,0.861562,-0.005481,-0.974706,0.223425
0.038296,0.072754,0.900885,0.224241,0.964524,0.139316
0.189337,-0.405250,0.687253,0.911618,0.399116,-0.098286
0.292174,-0.256267,0.521870,0.866830,0.041440,0.496879
0.279630,-0.115417,0.947390,0.671935,0.729834,0.125877
-0.199407,0.684583,0.660530,-0.679479,0.148220,-0.718568
-0.175968,0.612421,0.724665,-0.614361,0.533285,0.581522
0.352922,0.072163,-0.687216,0.792042,0.610323,0.013233
-0.144024,0.393419,0.370720,0.609807,0.284436,0.739751
0.442059,-0.280961,0.919888,-0.485050,-0.864394,-0.132473
0.732583,-0.099077,0.697200,-0.393157,0.626150,0.673323
0.588395,-0.302329,0.783974,-0.334529,0.348647,0.875520
-0.367697,0.011682,0.783658,0.525040,0.567477,0.634273
-0.558437,0.569611,0.714866,0.627583,0.666564,0.402282
0.917547,-0.630314,0.588249,0.458339,0.659794,-0.595480
0.281776,-0.005324,0.738156,0.818409,-0.574021,-0.026583
-0.580804,0.458780,0.646946,-0.420062,0.843547,-0.334628
0.084681,0.142329,0.959471,0.858109,0.159532,-0.488056
0.449240,0.374416,0.655446,-0.377000,0.359309,0.853679
0.406653,-0.123033,0.905803,0.671283,0.061952,0.738607
0.220121,0.079999,0.507915,-0.133618,0.961736,0.239185
-0.030787,-0.359926,0.807690,0.921241,0.191987,0.338315
0.790195,-0.331091,0.684135,0.920230,-0.049505,-0.388235
0.120667,-0.506987,0.881975,-0.608035,0.635164,-0.476299
0.171839,-0.121406,0.582738,0.968650,-0.241009,-0.060258
-0.038049,-0.466249,0.760610,0.410138,-0.736579,-0.537808
0.159706,0.427060,0.450201,0.850027,0.504324,-0.152026
0.820403,-0.665877,0.576076,-0.478537,-0.018560,0.877871
-0.122484,0.622625,0.631247,0.863682,-0.047256,0.501818
0.214013,0.167172,0.817359,0.820591,0.536153,-0.197914
0.159210,-0.130869,0.827509,-0.012055,-0.995013,0.099014
0.224660,-0.568503,0.684766,-0.372537,0.150465,0.915738
0.057526,0.674307,0.688069,0.973578,-0.226930,0.025488
0.298365,-0.463216,0.865107,0.958529,-0.218961,-0.182424
-0.355564,0.485915,0.795405,0.438929,0.898477,0.008926
0.199571,-0.223586,0.616809,0.920798,0.380146,0.087292
0.460300,-0.852272,0.732885,-0.487594,-0.868878,0.085463
0.262875,0.185656,-0.093511,0.985047,-0.150534,-0.083802
-0.730110,0.230831,0.711396,-0.569573,0.605901,-0.555401
0.205182,-0.139741,0.515690,0.670263,0.740256,-0.052623
0.662181,0.582698,0.621504,0.711525,0.401268,-0.576816
-0.190657,0.483327,0.826507,-0.003041,0.498682,0.866780
0.149059,-0.167542,0.904114,0.082576,-0.993809,-0.074336
