-0.161704,0.583002,0.699336,0.858383,0.512541,-0.021917
0.280351,0.327024,0.269902,0.333465,-0.942160,-0.033703
0.286015,-0.753985,0.554856,-0.759079,-0.449703,-0.470709
0.651975,0.460159,-0.567780,0.984478,-0.055692,0.166437
0.646458,0.494025,-0.525445,0.990158,-0.106355,0.090971
0.401758,0.047809,0.358941,0.990587,-0.028855,0.133808
0.335826,-0.655877,0.568489,0.858489,0.010684,-0.512720
0.274760,-0.390605,0.743913,-0.599591,-0.694044,0.398490
0.312519,-0.460990,0.626090,0.969828,0.059296,0.236471
0.297489,0.012200,0.877265,-0.403428,-0.594352,0.695695
0.689298,0.227093,0.931239,0.574781,-0.803684,-0.154011
0.448955,0.510791,0.969320,-0.652436,0.605545,0.455679
-0.195614,0.213728,0.700358,0.908608,0.218234,0.356097
0.076243,0.195303,0.288646,0.336659,-0.857041,-0.390054
0.079946,0.593709,0.732274,-0.241356,0.970363,0.011972
-0.048721,0.453021,0.491386,0.906805,-0.231811,-0.352092
0.413738,-0.059927,0.624771,0.444612,0.534045,0.719108
0.617485,0.500500,-0.312419,0.941417,0.324249,-0.092718
0.564770,0.102755,0.153844,-0.630173,0.231002,0.741296
0.127869,-0.033781,0.779703,-0.793917,0.597588,-0.112180
0.903355,0.515191,0.768559,0.734220,-0.057861,-0.676442
-0.074353,-0.252240,0.531133,0.552222,-0.485368,0.677841
0.620607,0.377989,-0.180896,0.401260,-0.912002,0.085109
0.263142,0.598689,0.755337,0.360550,0.049743,-0.931413
0.619372,0.439328,-0.052869,0.526408,0.821837,0.217896
0.412213,-0.498091,0.345588,0.699824,0.211105,0.682409
0.453166,-0.650316,0.359188,0.571548,0.650328,0.500406
0.924267,0.508385,0.919699,-0.696095,0.466810,-0.545472
0.106811,-0.504150,0.598988,0.476585,-0.816339,-0.326277
0.614726,0.426128,-0.347731,0.941720,-0.057792,0.331395
-0.309178,-0.085490,0.372954,-0.313393,-0.400587,0.860996
0.547561,0.289924,0.718690,0.981932,-0.145954,-0.120442
0.580018,0.357487,-0.126412,-0.719121,0.171838,-0.673303
0.454690,0.245186,0.518373,0.444154,-0.671206,0.593473
0.290517,0.150981,0.547849,0.769428,-0.638641,0.010876
0.127650,0.808599,0.771130,0.941745,-0.291435,-0.167874
0.116105,-0.651476,0.386241,0.965582,-0.254882,0.051829
0.072321,-0.369771,0.604857,0.635321,-0.285892,0.717379
0.574354,0.399985,-0.428246,-0.695148,-0.716276,-0.060978
0.678841,0.461570,-0.958077,0.909184,-0.414333,0.041383
0.563826,0.379731,-0.117872,0.721792,-0.241171,0.648731
0.254139,0.038181,0.741770,0.256491,0.897381,0.359053
0.663884,0.445883,-0.711354,0.949969,-0.026630,-0.311206
0.549884,0.397328,0.820455,0.890924,0.450035,-0.061013
-0.245933,0.235558,0.704974,-0.047051,-0.993874,0.100003
0.583867,0.394838,-0.376020,0.793567,0.604615,0.068501
0.699609,0.392016,-0.134110,0.166135,0.909586,0.380857
0.111895,-0.124420,0.620996,0.901366,-0.431804,0.032946
0.906550,0.540174,0.906889,-0.559425,-0.775330,-0.293099
-0.142825,0.110559,0.310770,-0.492748,-0.468065,-0.733563
-0.108917,0.001909,0.722580,-0.740408,0.660068,0.126905
0.193072,0.208085,0.725927,0.784699,-0.190103,0.590008
0.522001,0.412766,0.639707,0.477794,-0.844491,-0.241967
-0.318908,0.220119,0.697127,-0.570457,-0.647904,0.504776
0.693508,0.173474,0.538964,0.824958,0.202068,-0.527837
0.110080,0.646996,0.775433,-0.696693,-0.436131,0.569569
0.559977,0.444971,-0.696401,0.998738,0.014575,0.048067
0.578857,0.149155,0.837271,-0.552504,-0.804363,0.218492
0.369954,0.561505,0.134473,-0.501401,-0.865209,-0.003188
0.483153,0.815489,0.903081,0.987301,-0.133991,0.085336
0.337714,-0.266931,0.699072,0.032864,0.911074,0.410930
0.222119,0.023905,0.826753,0.968795,0.240988,0.057973
-0.047777,0.017431,0.796320,0.565948,-0.063951,-0.821957
0.169546,0.428785,0.524852,-0.606278,0.746135,-0.275153
0.272147,0.187251,0.822912,0.885284,0.450007,0.117326
-0.005664,-0.471117,0.533820,0.839880,0.353740,0.411666
0.515756,-0.289260,0.404656,0.992954,-0.112089,-0.038442
0.252760,0.146581,0.829935,0.873717,-0.100086,0.476027
0.053661,-0.404299,0.657281,0.427793,0.589577,0.685122
0.597517,-0.790257,0.419245,-0.675967,-0.612730,0.409428
-0.035142,-0.195052,0.487661,-0.408575,0.628318,0.662030
0.509875,0.059595,0.931370,0.235166,-0.509164,0.827919
0.261837,0.310922,0.262138,-0.576902,0.210777,-0.789150
0.328638,0.829681,0.753326,-0.725935,0.358265,-0.587082
0.132007,-0.070135,0.795496,-0.274697,0.756915,0.592977
0.690822,0.286603,0.925073,0.949515,-0.313686,-0.004701
-0.163519,-0.260624,0.658056,0.090998,-0.766084,0.636266
0.279699,0.061670,0.677344,-0.723033,-0.600681,-0.341182
-0.149215,0.167580,0.597587,0.124644,0.877214,0.463638
0.562592,0.479250,-0.885821,0.812631,0.056350,-0.580047
0.689515,-0.163762,0.822054,0.914396,-0.173452,0.365779
0.462679,0.777141,0.900345,0.973123,-0.125225,0.193263
0.505228,0.339725,0.718327,0.857763,-0.016657,-0.513775
0.291898,-0.117694,0.786413,0.948263,-0.236487,0.211828
0.101074,-0.697129,0.398490,0.965444,-0.260303,-0.012689
0.081907,-0.152723,0.782736,0.835610,0.275257,0.475384
0.548649,-0.674469,0.618556,0.420292,-0.456595,0.784140
0.538556,0.381059,0.566610,-0.754794,-0.229065,-0.614667
0.576242,0.314326,0.045748,0.976286,-0.096910,-0.193580
0.531731,0.431523,0.966765,0.402420,0.897789,0.178977
0.723569,0.160774,0.838293,0.260331,-0.548500,0.794592
0.041825,0.375250,0.765163,0.255806,0.828435,0.498255
0.391738,-0.809014,0.580194,-0.869105,0.438956,0.227979
0.626417,-0.034445,0.799172,0.243738,0.968374,0.053334
0.117485,-0.055694,0.786973,-0.314708,0.948498,-0.036187
0.317310,0.285276,0.918742,0.809085,-0.559386,0.180194
0.300392,0.155046,0.567682,-0.431498,0.771397,-0.467713
0.509658,0.129980,0.596235,-0.459544,0.657641,-0.596932
0.275270,-0.356075,0.371750,-0.510172,0.799852,-0.316165
0.650524,0.320469,0.181754,0.235542,0.923613,0.302421
0.240052,0.026395,0.546003,0.793779,-0.550844,0.257848
0.621551,0.030960,0.417498,0.966038,0.216914,-0.140422
0.319417,-0.888945,0.589558,0.579197,0.809189,-0.098715
0.556201,0.399902,0.123593,-0.611404,0.762377,-0.212053
0.195761,0.378652,0.818263,-0.325695,0.012056,0.945398
0.494627,0.345452,0.241662,0.757248,-0.308563,-0.575643
0.555040,0.304531,0.068217,0.998854,-0.022166,-0.042426
0.073482,-0.107071,0.506602,0.668090,0.550226,-0.500906
0.783618,0.145999,0.297598,0.527304,0.438465,0.727804
0.157784,-0.176711,0.841920,-0.158711,0.792908,0.588309
0.532385,0.431027,0.755420,-0.281146,-0.958069,0.055315
0.150886,-0.851097,0.599845,0.234954,-0.856796,-0.459017
0.571595,0.467963,0.874248,-0.854996,0.381249,0.351613
0.563463,0.469539,0.147414,0.809038,0.566948,0.155009
-0.250363,0.213895,0.700473,0.246744,-0.782459,0.571731
-0.012923,0.475017,0.764388,-0.062990,0.699017,-0.712325
0.527374,0.250497,0.727955,0.968531,0.220380,-0.115674
0.470374,0.610558,0.803821,0.020804,-0.833256,0.552495
0.340693,-0.513114,0.664419,0.521362,0.834329,0.179098
0.559614,-0.860725,0.428246,-0.597103,-0.772696,-0.215428
0.557653,-0.546896,0.571193,0.257477,0.963297,0.075927
-0.090474,0.427623,0.478907,-0.446852,0.044717,0.893490
0.305331,0.067397,0.753656,0.300661,0.714836,0.631358
0.140502,0.048972,0.762739,0.533099,0.150365,0.832584
0.670128,0.003487,0.887700,0.579353,0.802005,0.145391
0.406623,0.421731,0.903872,0.040971,-0.751071,0.658949
0.608191,0.206590,0.917127,0.422328,-0.902758,-0.081658
-0.050173,0.281707,0.746072,0.786546,0.261068,0.559633
0.108482,-0.215055,0.490710,-0.506372,-0.092913,-0.857295
-0.763577,0.313746,0.433588,0.094496,0.445847,-0.890107
-0.151320,0.114460,0.795068,0.649354,0.758413,-0.056115
0.600495,0.244023,-0.115185,-0.013378,-0.576594,0.816921
0.941693,0.620354,0.909280,0.974372,-0.165309,-0.152554
0.358336,-0.345285,0.358331,-0.709733,0.695279,0.113431
0.577839,-0.542745,0.551081,0.436290,0.833796,0.338283
0.128740,0.291086,0.772795,-0.259243,-0.327090,0.908738
-0.248619,-0.770335,0.545624,-0.705639,0.673567,-0.219957
0.159889,-0.487467,0.410673,0.929170,-0.197453,0.312499
-0.478580,0.250913,0.382977,-0.687193,0.556863,-0.466550
0.380264,-0.925051,0.585123,-0.027188,-0.859650,0.510160
-0.328565,0.190987,0.345851,0.723189,-0.165566,0.670511
0.161197,0.209080,0.881452,0.960165,-0.270288,0.070908
0.425719,0.153387,0.558631,-0.510206,0.817456,0.267314
0.432835,-0.951445,0.575776,-0.112837,0.968373,0.222533
0.624309,0.403220,-0.832951,-0.388037,0.919965,0.055608
0.525633,0.415505,0.700556,-0.756271,-0.633594,-0.163134
0.154662,0.218876,0.794128,-0.505036,0.826812,-0.247631
0.346647,0.267347,0.443990,0.905175,-0.273172,-0.325630
0.467689,-0.454515,0.550636,0.394586,0.857466,0.330234
0.523091,-0.309015,0.439918,0.967504,-0.019672,0.252089
-0.021929,-0.264525,0.704644,-0.552798,-0.545918,-0.629594
0.471538,0.422726,0.192173,0.876588,0.313076,0.365482
0.612184,0.297893,0.256219,0.194415,0.915390,0.352510
0.520767,0.696298,0.865329,0.937689,-0.154939,0.311021
0.544149,0.473690,0.856625,0.180309,0.672830,0.717487
0.349042,-0.715222,0.410689,-0.687215,0.683008,0.247459
0.746661,-0.269257,0.793419,-0.643509,0.570403,0.510427
0.436974,-0.404382,0.758008,-0.394656,-0.703211,0.591390
0.574790,-0.327523,0.801184,0.889794,0.412831,-0.194519
0.622204,0.437917,-0.275722,0.711343,0.671960,-0.206061
0.577042,0.297229,0.106101,0.992223,-0.087641,-0.088384
0.612184,0.386122,-0.421899,-0.138898,0.987756,-0.071027
0.216526,-0.013279,0.819648,0.921498,0.261011,-0.287600
0.577767,0.147908,-0.323860,-0.510043,0.539856,-0.669635
0.102528,-0.554531,0.712475,0.879039,0.476750,-0.000511
0.556057,0.426875,0.339092,0.984634,0.158945,-0.072334
0.495281,0.360475,0.790649,0.950396,-0.034876,0.309081
-0.178186,-0.004981,0.672959,0.839414,0.508856,-0.190920
0.184796,-0.357654,0.635602,-0.547133,-0.162404,-0.821139
-0.061283,0.325864,0.551180,0.571644,-0.797622,-0.192410
0.317893,0.813414,0.751776,0.681791,-0.418442,0.600055
0.119010,-0.075366,0.517648,0.175053,-0.967627,0.181806
0.542332,0.383136,0.279365,-0.661019,0.628661,0.409682
0.425719,-0.829184,0.383109,-0.390215,0.779847,-0.489460
0.197358,-0.120020,0.551196,0.884715,0.141917,0.444003
-0.115015,-0.444804,0.504921,-0.025431,0.807383,0.589479
0.748620,0.529467,0.829028,0.972469,0.032635,-0.230736
0.087424,0.421148,0.768839,0.617090,0.553585,-0.559235
0.197648,-0.097859,0.733955,-0.133470,-0.702684,0.698872
0.067093,0.137700,0.888805,0.888403,-0.457774,0.034401
0.561575,0.127490,0.889101,-0.151147,0.740274,0.655094
0.043713,-0.682106,0.555004,-0.499402,-0.152348,-0.852870
0.030061,0.223108,0.838326,0.889160,-0.272139,-0.367879
0.539429,-0.571796,0.577804,0.028077,-0.997149,0.070039
0.898055,0.236969,0.852256,-0.391706,0.824858,-0.407646
0.255736,-0.823622,0.573765,0.789249,0.566027,0.238115
0.745644,0.025732,0.547569,-0.236236,0.312273,0.920151
-0.256607,0.430776,0.676833,0.638091,-0.686889,0.347884
0.533111,0.208916,0.743616,0.976787,-0.094222,-0.192376
0.192929,0.500664,0.538535,0.325121,-0.653862,0.683199
0.091418,0.180860,0.823340,0.758028,-0.310393,0.573629
0.657566,0.241452,0.924496,0.509227,-0.841502,-0.180450
0.285290,0.616785,0.930859,0.672709,0.622298,-0.400259
-0.069706,0.038597,0.735835,-0.657916,0.750559,-0.061706
0.505665,0.324203,0.661567,0.996420,-0.049463,-0.068565
0.085029,-0.458832,0.692577,0.741948,0.371859,0.557884
0.590329,0.411936,0.228045,0.433243,0.745472,0.506530
0.201859,0.279716,0.778351,-0.186466,-0.852024,0.489168
0.811720,0.651395,0.835836,-0.470680,-0.059104,0.880322
0.519025,0.439741,0.419872,0.927110,-0.373386,-0.032391
0.584811,0.295154,-0.068201,0.317807,-0.703145,0.636071
0.616977,0.421647,-0.187029,0.910512,-0.297943,-0.286702
0.560485,0.324866,0.433258,-0.227265,-0.958903,0.169870
0.727418,0.256807,0.910582,-0.720486,0.688686,0.081307
0.927825,0.252324,0.812872,0.957825,-0.186779,-0.218370
0.335029,-0.705845,0.606950,-0.191312,0.825483,0.531016
0.669257,0.229334,0.928782,0.714617,-0.694717,-0.081801
0.694018,0.391185,0.749221,-0.131821,-0.925214,0.355812
0.559904,0.220451,0.933810,-0.053651,0.838139,-0.542812
0.538629,0.345452,0.806179,0.976060,-0.056860,-0.209939
0.606810,0.432438,0.081818,0.017305,-0.999768,0.012856
0.474950,-0.966716,0.470779,0.750438,-0.141078,0.645709
0.535507,0.638199,0.912940,0.416489,0.472118,0.776943
0.377432,0.077688,0.628695,0.958033,-0.038143,0.284110
0.598607,0.300798,0.885936,0.995200,-0.074108,-0.063910
0.532021,0.571631,0.849256,0.975602,0.172063,-0.136361
0.676155,0.486636,0.847607,-0.660509,0.373714,0.651204
0.589892,-0.089806,0.762888,0.311470,0.218886,-0.924703
0.469067,0.250913,0.550289,0.664743,-0.488330,-0.565376
0.134404,-0.525067,0.640251,-0.707671,0.687768,-0.161791
0.245282,0.080429,0.694209,0.162986,0.865108,0.474367
0.598024,0.451526,0.046687,0.874834,0.473623,-0.101715
0.597300,-0.285111,0.783709,0.919568,0.104330,-0.378828
-0.616394,0.265936,0.440644,0.415516,0.829266,0.373716
0.111966,0.185093,0.859229,0.879354,0.214880,-0.424927
0.426009,0.256891,0.475197,0.197749,-0.980013,-0.021688
0.435013,-0.451030,0.762228,0.829326,0.022755,0.558301
0.934724,0.396829,0.885260,0.988152,-0.132511,-0.077439
-0.063098,0.355328,0.744209,0.748351,0.661878,0.043451
-0.035579,0.353753,0.455777,-0.253789,0.784713,-0.565524
-0.216889,0.256224,0.614534,0.052949,-0.971977,0.229034
0.632152,-0.683101,0.572660,0.888039,-0.193015,-0.417292
0.659744,-0.081840,0.833512,0.279971,-0.959235,0.038541
0.495062,0.290339,0.492540,0.784227,-0.615259,-0.080281
0.003776,-0.437334,0.679025,0.945117,0.311339,-0.099106
-0.092796,0.430776,0.485419,0.688725,0.078072,0.720807
0.529552,0.437750,0.631563,-0.182009,0.982343,0.043295
0.718051,-0.717216,0.487957,0.868804,0.095872,-0.485785
0.637889,0.468543,-0.428708,0.977977,-0.049193,-0.202832
0.685812,0.464642,0.917160,0.783216,-0.441127,-0.438155
0.776359,0.158451,0.903807,-0.443588,0.876582,-0.186637
0.603544,0.261372,0.751315,0.998406,0.013311,-0.054853
0.678478,-0.251080,0.810432,-0.183514,-0.453221,0.872303
0.588658,0.449867,0.164526,0.827879,0.515746,0.220507
0.443145,-0.764859,0.627937,-0.459727,0.824336,0.330335
0.569417,0.442314,0.996324,0.839644,-0.135684,0.525917
0.590982,0.170401,0.415322,0.821818,0.173033,0.542840
0.533546,0.415089,0.644768,-0.558144,0.813022,0.165739
0.637381,0.439161,0.287608,-0.283784,0.501864,0.817068
0.559904,0.322460,0.594454,0.157274,0.879921,0.448334
-0.047924,0.296481,0.575727,0.062372,-0.943702,0.324864
-0.037323,0.344621,0.715261,0.377949,0.925633,0.018945
0.483446,-0.381142,0.684004,0.875012,0.234973,0.423250
0.621480,-0.251245,0.816383,-0.409425,0.876715,0.252471
0.605213,0.447877,0.912346,0.200782,0.275425,-0.940121
0.287539,-0.511455,0.363079,-0.160036,0.478308,0.863487
0.665118,0.359313,-0.101897,0.251767,-0.890272,0.379511
0.065640,0.095202,0.738472,0.050556,0.913543,0.403587
0.204110,0.210327,0.683114,-0.299959,-0.238512,0.923654
-0.141954,0.166501,0.742561,0.934075,0.351045,-0.065355
0.608481,0.405378,-0.402677,-0.022268,0.998144,0.056674
0.098533,0.212897,0.281805,-0.127042,0.872191,0.472381
0.530860,-0.050631,0.850146,-0.385464,0.144143,0.911395
0.599332,0.162268,0.895135,0.164261,0.861461,-0.480525
0.570795,0.495353,-0.397550,0.955200,0.294784,0.026355
0.402846,-0.638031,0.488073,0.940701,0.057280,0.334366
0.691040,0.133133,0.297499,0.543113,0.461042,0.701761
0.235188,-0.761039,0.576666,0.911259,0.279503,-0.302467
0.808815,0.492032,0.927760,0.659554,-0.750710,-0.037729
-0.049448,0.271914,0.858290,0.970639,0.132200,0.200957
0.620099,0.472112,-0.226825,0.828919,0.556235,0.059122
0.535507,0.477591,0.827824,0.875327,-0.445538,0.187881
0.355142,-0.110891,0.745446,-0.444250,-0.388749,-0.807165
0.617050,-0.757969,0.585503,-0.659116,0.737924,0.145027
0.509295,0.378569,0.550141,0.957109,-0.199826,-0.209791
0.078565,0.350515,0.815922,-0.058972,0.747869,0.661221
0.517354,0.418577,0.624969,0.995179,-0.016331,0.096711
-0.102889,0.117198,0.801579,0.162576,-0.972856,0.164680
0.419185,-0.838645,0.563362,-0.150404,0.452142,0.879174
0.722916,0.298141,0.930612,-0.551998,0.380316,-0.742063
0.619736,0.176128,0.932343,-0.205113,0.850714,-0.483957
0.398054,0.071133,0.351259,0.981465,0.040868,0.187232
0.590836,0.504732,-0.284113,-0.636612,-0.714529,-0.290126
0.249638,-0.060175,0.821774,0.408777,0.912200,0.028160
0.603979,0.276395,0.289339,-0.647047,0.740534,0.181491
-0.137307,0.027307,0.806888,0.999819,0.017556,0.007362
-0.229742,0.418742,0.479896,-0.612193,0.095096,-0.784969
0.386145,0.295071,0.903823,0.392740,-0.677176,0.622244
-0.094540,0.143840,0.802437,0.597698,0.759872,-0.255641
-0.250363,-0.095700,0.465652,0.183494,-0.127895,0.974665
-0.046470,0.011868,0.692873,0.143341,-0.524699,0.839133
-0.515756,0.261952,0.383472,-0.642416,0.328570,-0.692346
0.604632,-0.053868,0.386126,-0.798791,0.440967,0.409243
0.596863,0.504150,-0.238036,-0.655163,-0.755395,0.011793
0.377652,0.213895,0.391286,0.999683,0.013136,0.021483
0.397183,0.280048,0.713052,0.808878,0.073624,0.583349
0.304458,-0.908449,0.397649,-0.666315,-0.642741,-0.378033
-0.088005,0.335160,0.623090,-0.699113,-0.225895,-0.678390
0.657349,0.084994,0.821560,0.459320,0.569128,0.681996
-0.142825,0.391434,0.655105,-0.003744,-0.729027,0.684475
-0.120462,0.196215,0.785654,-0.579367,0.113627,-0.807108
0.597080,0.396416,0.899388,0.557523,0.782206,-0.278066
0.482283,0.059762,0.803112,0.894354,0.155990,0.419282
0.512344,0.452856,0.084571,0.160536,0.936707,-0.311139
0.655097,0.382138,-0.124400,0.170504,0.948490,0.267010
0.542986,0.328686,0.794491,0.878149,0.021381,-0.477910
0.113710,-0.656791,0.394550,0.978947,-0.041070,0.199938
0.372132,0.071961,0.860004,0.313276,-0.910507,-0.269880
0.494118,0.487716,0.924974,0.660944,-0.749358,0.040193
0.538412,-0.832255,0.421735,-0.519968,-0.852671,-0.050848
0.259222,0.353337,0.473516,0.559136,0.629755,0.539237
-0.161921,0.201362,0.808223,0.956337,0.286700,0.056770
0.023453,-0.395669,0.350237,0.134604,-0.233968,-0.962881
0.549593,0.376078,0.572116,0.999662,0.021026,0.015311
-0.123947,0.272909,0.768328,0.872093,-0.026472,0.488623
0.442565,-0.264361,0.611632,-0.337601,0.197357,0.920367
0.612620,0.414261,-0.003989,-0.753558,0.592829,-0.284085
0.547198,0.441650,0.427884,0.972560,0.121653,0.198314
0.603254,-0.338646,0.369772,-0.322558,-0.077696,0.943356
0.617194,0.411604,-0.673519,0.724155,-0.666962,0.175392
0.767646,0.476261,0.887667,0.218461,0.916320,-0.335608
0.718922,0.363464,0.716118,0.264995,-0.955611,-0.128784
0.426300,0.179698,0.919979,0.210548,-0.900419,-0.380677
0.475821,0.296646,0.297466,-0.358909,0.932037,-0.049911
0.424121,-0.736472,0.604478,-0.479878,-0.627600,-0.613055
0.571739,0.392928,0.049457,-0.547429,0.741599,0.387753
0.491505,0.816403,0.853196,0.821242,0.423410,-0.382473
-0.114652,-0.220286,0.695940,0.803620,0.224039,-0.551362
0.206869,0.666583,0.845118,0.833511,-0.140452,-0.534352
0.044004,-0.127490,0.767009,-0.646927,-0.642578,-0.410583
0.542188,0.468128,0.914077,-0.066165,-0.129385,0.989384
0.182835,0.269340,0.844887,-0.560214,0.191078,0.806009
0.217399,0.347278,0.461267,0.264858,0.846156,0.462461
0.623221,0.045816,0.372739,-0.560350,-0.525549,-0.640161
0.630047,0.406457,-0.748430,-0.103195,0.994185,-0.030774
-0.140502,0.075946,0.317331,-0.531190,-0.195560,-0.824375
0.647038,0.401892,-0.616215,0.595433,-0.770081,0.228987
0.424775,-0.020668,0.348522,0.850409,0.070376,0.521394
0.248838,0.281458,0.465487,0.458276,0.777706,0.430298
0.276285,0.355660,0.664683,0.821017,0.324463,0.469739
0.580454,0.401396,0.117493,0.967186,-0.250585,0.041941
-0.050173,-0.071298,0.475807,0.203433,-0.976923,-0.065092
0.935739,0.618776,0.925568,0.880349,-0.455912,0.130879
0.455997,0.362798,-0.294037,0.483352,-0.837184,0.255917
0.453966,-0.017180,0.665639,-0.092561,-0.910383,0.403282
0.530570,-0.190655,0.419179,0.578426,0.646338,0.497665
0.654590,0.308599,0.263176,0.961360,0.274472,-0.021271
-0.208176,0.458333,0.485946,0.604614,-0.132741,-0.785380
0.547488,0.306193,0.772614,0.985884,0.102618,0.132294
0.585101,0.671979,0.883941,0.875108,0.303704,-0.376763
0.703021,-0.284860,0.839315,0.436619,0.732128,-0.522830
0.366178,0.344206,0.246542,0.188884,0.805933,0.561065
0.836335,0.438165,0.895860,-0.503386,-0.554442,0.662719
0.412723,0.053952,0.345851,0.981465,0.040868,0.187232
-0.153355,0.312417,0.514466,0.833121,-0.412988,0.367900
0.269969,0.159198,0.605219,0.075909,0.383448,-0.920438
0.004286,-0.265440,0.677294,-0.283351,0.375164,0.882590
0.494191,-0.432438,0.549515,0.832932,0.549401,0.066207
0.593668,0.373340,-0.976689,-0.017118,-0.939524,0.342056
0.165916,0.501080,0.833495,0.905757,-0.411292,-0.102188
0.272291,0.206010,0.679454,0.811207,0.000481,0.584759
0.125545,0.141269,0.763300,-0.400246,0.089294,0.912047
0.594251,0.418658,0.233189,0.896791,0.361247,0.255472
0.609135,0.304283,0.630789,-0.741709,-0.662241,0.106328
-0.029044,0.445387,0.741753,0.840631,0.490703,-0.229237
-0.231847,-0.129068,0.503701,0.740483,0.437265,0.510377
-0.182181,0.318559,0.808240,-0.846367,-0.125110,-0.517697
-0.367195,0.380230,0.570682,0.771939,-0.366972,0.519078
0.382152,-0.275564,0.699352,0.193154,-0.807556,-0.557266
0.574427,0.306026,0.125291,-0.677015,0.233097,-0.698081
0.536087,0.085825,0.767108,0.812134,-0.119253,0.571155
-0.584445,0.139691,0.406057,-0.528795,0.576763,-0.622671
0.637744,0.490289,-0.554130,0.970531,0.201634,0.131958
0.133241,-0.532121,0.422295,-0.622408,0.494915,-0.606355
0.753703,0.263198,0.926243,0.519451,-0.816855,0.250837
0.623512,0.399651,-0.781747,-0.035592,-0.999287,-0.012606
-0.110005,0.274900,0.774873,-0.111635,0.815003,-0.568601
0.530570,-0.351095,0.412915,0.980922,0.074509,0.179556
-0.315349,0.300051,0.524902,-0.527745,-0.031330,-0.848825
0.489254,0.382885,0.454178,0.590259,-0.807091,0.014078
0.373585,0.468460,0.724245,0.149400,-0.874948,0.460592
0.103762,-0.183183,0.785638,0.792497,0.525564,-0.309404
0.553659,0.403387,0.696121,-0.351281,-0.935585,-0.035813
0.112766,0.367198,0.862395,0.801791,-0.254639,-0.540639
0.354343,-0.292497,0.746946,-0.706260,0.648718,-0.283482
0.426954,0.034944,0.862576,-0.440222,0.457269,0.772729
0.677824,0.458168,-0.941921,0.909713,-0.410943,0.059569
0.526430,0.408534,-0.992103,-0.293580,-0.343831,0.891959
0.060049,0.429284,0.806888,-0.725793,0.673053,0.142210
0.577984,0.159031,0.137144,0.249934,0.425632,0.869696
0.666425,0.786936,0.847871,-0.196026,0.072503,0.977915
-0.179203,0.569889,0.498030,-0.243559,-0.636713,0.731626
0.672089,0.406044,-0.991048,0.420697,-0.351554,0.836316
0.538048,0.428453,0.463278,0.580266,-0.794758,-0.177906
0.392173,-0.926877,0.558005,-0.369501,0.802893,0.467794
0.682473,0.491700,-0.575067,0.997055,0.072136,0.026018
-0.124091,-0.205759,0.433555,-0.306120,0.938166,-0.161666
0.418241,-0.221530,0.348654,0.952826,-0.025847,-0.302416
0.741941,0.396913,-0.725795,0.665247,-0.741633,0.086179
0.552789,0.339973,0.554988,0.850472,0.524516,-0.039755
0.281004,0.060923,0.526023,-0.806783,0.531772,-0.257527
-0.381572,-0.177955,0.335564,-0.416791,0.585252,-0.695532
0.537612,0.424553,0.695593,0.165676,0.983005,-0.079079
-0.032093,0.432354,0.753573,0.403116,-0.334976,0.851639
0.543276,0.440655,0.348258,0.968038,0.242782,0.062926
0.237149,0.302373,0.265154,-0.352895,-0.166362,-0.920755
0.502397,0.346116,0.878831,-0.611657,0.735403,0.291646
-0.147764,0.562915,0.701429,0.902853,0.399668,-0.158497
0.502106,0.968378,0.905125,0.940944,-0.313468,0.127916
0.336626,-0.797643,0.365964,0.949222,0.309936,0.054015
0.101294,0.208832,0.804201,-0.600256,0.794306,0.093656
0.392463,0.494937,0.128901,0.619465,0.782634,0.061215
0.520622,0.368112,0.537793,0.858576,-0.507846,-0.070286
0.442347,0.277722,0.392588,0.407103,0.902619,0.139804
0.107102,0.689991,0.839430,0.937456,0.071042,0.340778
0.287032,-0.371430,0.640334,0.261872,0.838482,0.477882
0.288556,0.265356,0.612077,0.170205,-0.983771,0.056781
0.623439,0.446298,-0.639971,0.841773,0.440972,-0.311386
0.789572,0.322460,0.864274,-0.185869,-0.702996,0.686476
0.678043,0.297893,0.950213,-0.599805,-0.362650,-0.713245
0.158365,-0.503570,0.363672,-0.364344,-0.608477,-0.704989
0.579801,-0.491867,0.431065,0.920774,-0.020221,0.389572
0.524979,-0.509297,0.412140,0.043969,0.178115,0.983027
0.230178,-0.301626,0.779324,0.901472,0.431274,0.036757
0.572176,0.403802,0.496233,0.439750,0.896195,-0.058780
0.555984,0.343542,-0.343494,0.857890,-0.512749,0.033355
0.032966,-0.396664,0.351424,-0.147733,0.050280,0.987748
0.335392,0.321713,0.259945,-0.070780,0.816906,0.572411
-0.140212,-0.021828,0.664798,0.135280,-0.977505,-0.161812
0.223788,-0.766682,0.569330,0.730097,0.314744,-0.606543
0.483953,0.052541,0.920935,-0.109897,-0.986501,-0.121404
0.626707,0.510044,-0.686971,-0.418819,0.892771,-0.165986
0.321886,-0.751910,0.357688,0.946058,0.022555,-0.323212
0.937626,0.501080,0.841903,0.915602,0.330644,0.228797
0.413884,-0.275316,0.695742,0.457473,0.829582,0.320175
0.605213,0.374503,0.865478,-0.645938,-0.585773,0.489525
0.374964,0.185260,0.918347,0.695985,0.693606,0.185782
0.737292,0.352922,0.877149,-0.447303,-0.660655,-0.602872
0.230832,-0.188829,0.820966,0.959193,-0.222544,0.174424
0.122205,0.205679,0.819466,0.784334,-0.619935,-0.022380
0.182835,-0.052125,0.623288,0.597091,0.431976,0.675928
0.876997,0.502407,0.881023,0.887289,0.300631,-0.349771
0.224804,-0.003651,0.868939,-0.757615,-0.445359,-0.477153
0.570868,0.376993,0.682471,-0.410486,0.890862,0.194592
0.604488,0.510956,-0.735653,0.885213,0.095044,-0.455373
0.770695,0.510791,0.824544,0.817815,0.557688,-0.141992
0.241433,-0.491535,0.363887,0.013088,0.272529,0.962059
0.646311,0.182107,0.336471,0.944128,0.317330,0.089012
-0.092215,0.401229,0.734219,-0.500893,0.563576,-0.656878
0.099187,0.416584,0.854811,-0.735664,0.625054,0.260973
0.635710,0.883798,0.838359,0.312128,-0.787008,0.532161
0.176010,-0.007636,0.612110,0.432462,0.536462,0.724696
0.623004,-0.004981,0.385829,-0.711628,0.525838,0.465919
0.653646,-0.271248,0.829110,0.761816,0.502900,-0.408324
0.149725,0.215139,0.902751,0.882092,0.200322,0.426363
0.165336,0.169905,0.870638,-0.489105,0.592826,-0.639791
0.201495,0.267347,0.729059,0.862166,0.225708,0.453570
0.311646,0.250416,0.652451,0.703225,-0.425779,-0.569373
0.279190,-0.396913,0.733230,0.473266,0.774903,-0.418981
0.025197,0.398906,0.535782,0.849372,0.323604,0.416951
0.597227,0.362385,0.521044,-0.647107,-0.745520,0.159539
0.606449,0.107071,0.764487,-0.723984,0.120550,0.679201
0.525923,0.502323,0.888310,0.911662,-0.338757,0.232629
0.316149,0.806775,0.759376,-0.600454,0.462076,-0.652641
0.521203,-0.841386,0.364826,-0.219614,0.301833,0.927721
0.157277,-0.001660,0.773999,-0.241220,0.970399,-0.011815
0.108409,-0.513281,0.676338,-0.119496,0.902126,0.414594
0.531077,0.087983,0.844656,-0.507681,0.575188,0.641419
0.261037,-0.804201,0.565258,-0.728375,-0.518423,-0.448004
0.438789,-0.180612,0.349676,0.728729,0.052428,-0.682792
0.541534,0.017927,0.730444,0.646871,0.644863,0.407075
0.106158,-0.044572,0.762014,0.850111,-0.175570,0.496474
0.723789,-0.062085,0.835935,0.573365,-0.007249,-0.819268
-0.139122,0.411687,0.698643,0.274412,-0.915570,0.293990
0.650958,0.449784,-0.886101,0.924521,0.353098,-0.143470
0.272582,-0.469123,0.748941,-0.322294,0.432966,0.841824
0.457595,0.314078,0.280618,0.277943,0.915758,0.290060
0.518734,0.423638,0.813482,-0.786352,0.551462,-0.278459
0.884985,0.597610,0.848563,0.776566,0.600360,0.191083
0.598824,0.446547,-0.748941,0.661457,0.662034,0.352398
0.587643,0.016516,0.380587,-0.317806,0.712946,0.625066
-0.219648,0.266187,0.676454,0.837454,-0.534191,-0.115377
0.578927,0.029301,0.796073,0.316273,0.941167,-0.119060
0.548576,0.345617,0.571770,0.997065,-0.059554,0.048122
0.155606,-0.367697,0.652945,-0.741408,0.657546,-0.133964
-0.016699,0.272659,0.866005,-0.537475,-0.326880,0.777348
0.501816,0.224519,0.683345,0.986429,-0.155695,0.052119
0.572249,0.415753,-0.962973,0.732154,0.659750,-0.169353
0.510092,0.376494,0.988674,-0.076042,0.989086,0.126198
-0.435740,0.241617,0.371173,0.699288,0.592575,0.399813
0.549230,0.358401,0.478626,-0.504609,0.855120,-0.118912
0.714349,-0.018343,0.841244,0.630387,0.668775,0.394147
0.744047,0.395170,0.921281,0.929157,0.200473,-0.310610
0.172234,0.573126,0.857795,-0.624174,0.283223,-0.728142
0.462751,0.088894,0.711123,0.229127,-0.794745,-0.562032
0.396602,-0.882223,0.537183,-0.662544,0.454378,0.595463
0.676736,0.483068,0.859196,0.344117,0.919464,0.190184
0.150452,-0.632636,0.565440,0.765126,0.248186,-0.594126
0.808018,0.430612,0.751628,0.840317,-0.150213,-0.520869
0.663740,-0.088064,0.443364,0.884378,-0.145545,-0.443499
0.446704,0.210907,0.712689,0.392043,-0.575527,0.717685
0.552498,0.473275,-0.574639,0.962934,0.137684,-0.231951
0.603688,0.494522,-0.294202,0.962078,-0.014906,0.272366
0.117703,-0.208249,0.667304,0.219485,0.668340,0.710737
0.619519,0.225183,0.887618,-0.403337,0.076670,0.911834
0.124237,-0.173390,0.834138,0.451588,-0.742933,-0.494084
0.567602,-0.273656,0.814751,-0.761071,0.583801,0.282750
-0.259803,-0.072792,0.468306,0.224832,0.446597,0.866027
0.591489,0.397412,0.028619,-0.483385,0.875304,-0.013493
0.449029,-0.868942,0.580986,-0.003559,0.118131,0.992992
-0.002832,0.559762,0.479764,0.474831,-0.400082,0.783881
0.700987,0.392513,-0.133781,-0.358880,0.804736,0.472868
-0.122423,0.083251,0.776587,0.651813,-0.443248,0.615362
0.353325,0.275316,0.587942,0.304633,-0.946018,-0.110676
0.211081,-0.050879,0.873786,0.968052,0.157145,0.195400
0.598097,0.409529,-0.063700,-0.259271,0.953324,-0.154766
0.593887,0.421316,-0.534034,0.971499,0.184825,0.148425
0.545164,0.220783,0.931535,0.070828,-0.461150,-0.884491
0.505809,0.335325,0.541074,0.885658,-0.429846,-0.175619
0.246370,-0.219207,0.800574,-0.664692,-0.045477,-0.745732
0.570361,0.468128,0.274007,-0.225568,0.965214,0.132217
0.999419,0.343793,0.801365,0.987738,0.067871,-0.140599
0.140648,0.045403,0.838837,-0.653709,-0.517802,0.551856
0.017789,-0.656376,0.399578,-0.749045,0.651408,-0.120823
-0.143044,0.530711,0.696500,0.858383,0.512541,-0.021917
0.584521,0.463396,-0.754397,0.978805,0.194158,-0.065144
0.537685,-0.888115,0.402710,0.846396,0.435965,-0.305856
0.674557,-0.504233,0.592212,0.513431,-0.610740,0.602814
0.231703,0.266020,0.804596,-0.030209,0.974856,0.220778
0.553079,0.467049,-0.199492,0.891951,-0.277726,-0.356780
-0.140139,0.217796,0.587580,-0.404204,-0.220073,-0.887799
0.591709,0.394671,-0.396380,0.274148,0.942773,0.189795
0.634983,0.494772,-0.426384,0.897513,0.331840,-0.290434
0.526940,0.423306,0.630887,-0.182009,0.982343,0.043295
0.362765,-0.043078,0.630129,0.575303,0.639522,0.509939
0.003922,-0.589061,0.638735,0.205337,0.927831,0.311395
0.589458,0.460906,0.204867,0.133792,-0.990951,0.010766
0.752179,0.509297,-0.995038,0.426092,0.053187,0.903115
0.220085,0.277973,0.849289,0.951385,-0.305385,0.040086
0.648345,-0.308599,0.820802,0.983634,0.119058,0.135242
0.660034,-0.273406,0.836529,0.436619,0.732128,-0.522830
0.731194,0.326528,0.899125,0.749222,0.651151,0.121118
0.560848,-0.501163,0.614946,-0.822855,0.237028,-0.516456
0.403210,0.153471,0.577639,0.968679,-0.013293,-0.247962
0.438281,0.387117,0.690285,0.378793,-0.708687,0.595213
0.590982,0.277058,0.554015,0.062555,-0.986876,0.148870
0.569780,0.409778,0.034900,-0.794063,0.380803,-0.473765
0.447140,-0.007387,0.625167,-0.833664,-0.040077,-0.550817
0.678116,0.343793,0.438105,-0.160806,-0.779450,0.605474
0.268662,0.088563,0.472181,-0.665532,0.463422,0.585071
-0.019531,0.247179,0.757217,0.872160,0.454715,0.180475
0.476329,0.168494,0.686576,0.801453,-0.557979,-0.215247
0.607393,0.405297,-0.447947,-0.365989,0.928823,0.057788
0.207015,-0.135127,0.547075,0.936807,-0.238787,-0.255683
0.425356,0.372428,0.298999,-0.120493,-0.992711,-0.002450
0.103616,0.336488,0.509817,-0.114279,-0.989639,-0.086921
0.632081,-0.032454,0.855421,0.655172,0.740706,-0.148678
0.275704,0.117031,0.674426,0.985823,-0.107329,0.128973
0.103253,-0.082420,0.477868,-0.527010,-0.841485,0.119007
0.539209,0.421067,-0.021926,0.246341,-0.937149,0.247118
0.009076,0.332670,0.722086,0.620250,0.760284,0.193023
0.031659,0.190156,0.801233,-0.549307,-0.490925,0.676206
0.147981,-0.473108,0.657363,0.346978,0.302846,0.887632
0.186828,-0.231905,0.553916,-0.893267,0.377078,0.244718
0.393626,0.778471,0.847805,-0.856239,0.508748,-0.089613
-0.112402,0.397908,0.755535,0.832714,0.058286,-0.550627
0.447358,-0.249917,0.783692,0.006054,-0.146710,0.989161
0.325516,0.010873,0.587959,-0.485381,0.259520,0.834898
0.094830,0.107487,0.613330,0.687099,0.268070,0.675302
0.444162,0.760624,0.858075,-0.339494,0.868626,0.360877
0.317093,0.213812,0.899520,-0.622504,0.667377,0.408775
0.616033,0.347858,-0.097727,-0.531557,0.101206,-0.840954
-0.105868,-0.570301,0.546745,0.327565,-0.890703,-0.315199
0.522220,0.365787,0.545492,0.875170,-0.437644,-0.206264
0.387816,-0.548639,0.669315,-0.017164,-0.988003,0.153480
0.396456,-0.298888,0.697489,0.110011,0.891674,0.439108
-0.016989,0.456342,0.758140,0.264174,-0.682868,0.681104
0.686539,-0.472943,0.600537,0.395788,-0.639052,0.659518
-0.739397,0.452606,0.450650,-0.277317,0.715623,-0.641077
0.472843,-0.024817,0.651577,-0.759194,-0.444313,0.475616
0.538195,0.194804,0.136831,0.162036,0.248302,0.955034
0.513651,0.432602,0.180155,0.809514,-0.535054,0.241670
-0.051409,-0.050383,0.766795,0.066890,0.969929,-0.234017
0.699609,0.344457,-0.117773,0.541383,0.821371,-0.179593
0.416426,-0.034197,0.609951,0.092710,0.941026,0.325384
0.565641,-0.463064,0.364760,0.574286,-0.185192,-0.797433
0.550754,0.384962,0.151519,0.946168,0.281345,-0.160038
0.603544,0.496596,-0.349610,-0.708364,0.699359,0.095483
0.314117,0.300466,0.920539,0.653649,-0.590388,-0.473481
0.563172,0.400233,0.408118,0.898018,0.206943,0.388251
0.488237,-0.335740,0.668936,0.636180,0.569695,0.520309
0.379320,-0.027639,0.746930,0.987367,0.023447,0.156705
-0.103326,0.106408,0.813218,-0.784484,0.495357,-0.373104
0.423178,0.355911,0.891854,0.885142,-0.243438,0.396563
0.103543,-0.269257,0.726768,-0.100099,-0.479488,0.871821
-0.325225,0.376826,0.696434,-0.582785,0.721004,-0.374853
0.528899,0.336320,-0.102376,0.925999,-0.290641,-0.240943
0.412577,0.160609,0.338746,0.997414,-0.064023,0.032646
-0.097735,-0.215387,0.662045,0.323647,-0.583113,0.745139
0.820433,0.297809,0.807399,0.658456,0.742846,0.120889
0.256898,0.465471,0.870390,-0.422771,0.815058,-0.396163
0.093669,-0.632471,0.564681,-0.298654,-0.821527,0.485694
0.045165,-0.343626,0.732571,-0.171145,-0.893017,-0.416210
0.545963,0.282370,0.913714,0.906215,0.340652,-0.250461
0.401976,0.070469,0.602615,0.892844,0.112457,0.436099
0.152411,0.813166,0.765690,0.944358,-0.078876,0.319323
-0.140285,0.001081,0.746287,-0.138447,0.988571,0.059663
0.351220,0.280544,0.919864,-0.597109,0.716605,-0.360468
0.928987,0.596615,0.777922,-0.654371,-0.164358,0.738095
0.163594,0.355163,0.493876,-0.723777,-0.610826,-0.320995
-0.270621,0.440903,0.542854,0.388434,-0.701479,0.597534
0.689225,0.519839,0.906329,0.960809,-0.081424,-0.264983
0.751671,0.182188,0.837848,0.094361,-0.169969,0.980921
0.187772,-0.371514,0.424026,0.033366,-0.362371,0.931437
0.615016,0.513197,-0.453403,0.033436,0.979617,0.198073
0.449029,0.178619,0.449167,0.364926,-0.629779,0.685717
0.569054,0.602010,-0.994708,-0.129666,0.187569,0.973655
0.577186,0.097195,0.137869,0.282981,0.475308,0.833069
-0.247531,0.088231,0.636493,0.839116,-0.521711,0.153954
0.185813,-0.637532,0.532221,0.012136,0.874415,0.485027
0.928623,0.505064,0.900097,0.892881,0.160706,0.420640
0.256827,-0.361638,0.749749,0.799663,0.563815,0.206523
0.587860,0.521083,-0.897971,0.936478,-0.267944,-0.226309
0.208976,0.752989,0.798315,0.975074,-0.210383,0.070500
0.028537,0.373424,0.464136,0.292252,-0.311422,0.904215
0.936902,0.419656,0.890107,0.999893,0.014207,0.003407
0.304387,0.440407,0.917028,0.825147,0.442462,-0.351228
0.556201,0.403387,0.194448,0.511963,0.209900,-0.832968
0.729887,0.236388,0.947856,0.919618,-0.252722,0.300725
0.143844,0.193561,0.768460,0.881413,0.268645,0.388512
0.624239,0.263363,-0.095682,0.011978,-0.832265,0.554248
0.266411,0.295071,0.263242,-0.457138,-0.069972,-0.886639
-0.016772,-0.030212,0.467515,-0.178476,0.980974,-0.076398
0.506826,0.374587,0.178045,0.654944,0.755404,0.020327
0.065059,-0.092879,0.744341,0.050058,-0.992788,0.108931
0.594758,-0.071465,0.391879,0.901425,-0.231465,-0.365864
0.490778,0.479167,0.085626,-0.593665,-0.776434,0.211452
0.439008,0.366286,0.713101,-0.233552,0.210397,0.949308
0.429639,0.381142,0.490381,0.130327,0.061944,0.989534
0.280280,-0.152308,0.781022,0.966631,-0.198345,0.162120
0.656985,0.210243,0.308429,0.875787,0.353198,0.329011
0.278029,0.307769,0.264264,-0.525648,-0.178990,-0.831659
0.477346,0.785609,0.872781,0.605355,-0.092165,0.790602
0.054605,0.605163,0.716827,-0.348182,0.933769,0.082734
0.489037,0.322295,0.479649,0.930479,-0.355185,0.089736
0.349623,0.015853,0.843486,0.077439,-0.996873,0.015739
0.328711,0.222609,0.584662,0.653807,0.379198,-0.654786
-0.027810,-0.035856,0.489194,-0.670471,0.610624,0.421435
-0.016845,-0.151644,0.685570,0.910466,0.413489,0.008835
0.808742,0.456010,0.857251,-0.240089,-0.300454,0.923084
-0.185521,-0.029300,0.749353,0.813913,0.577730,0.061426
0.844975,0.388115,0.873193,0.286494,0.957483,-0.033892
0.574427,0.202358,0.139963,-0.015218,0.422622,0.906178
0.469650,-0.682769,0.624722,-0.008693,0.180056,0.983618
0.154298,0.804781,0.769976,0.918626,-0.320667,-0.230864
0.426446,0.303951,0.336339,0.936091,0.339918,-0.090502
0.722264,0.529715,0.918067,-0.227143,-0.751478,0.619424
0.630047,0.503737,-0.460674,-0.718988,0.549309,0.425812
-0.056781,-0.309762,0.735060,0.968688,0.243067,-0.050607
0.625546,0.501080,-0.574573,0.833333,0.492892,-0.250227
-0.176371,-0.208168,0.463526,-0.026644,-0.831108,0.555472
0.596646,0.418410,-0.831088,-0.151993,-0.982735,-0.105499
0.589458,0.395337,-0.038873,-0.177027,0.933235,0.312625
0.645367,0.423722,-0.641141,-0.748655,0.550580,0.369293
0.805547,0.212897,0.844491,-0.622191,0.718804,-0.310159
0.696920,0.458832,-0.614402,0.997968,-0.016662,-0.061495
0.341200,-0.244937,0.698825,-0.012463,0.950088,0.311732
0.246443,-0.089143,0.789677,-0.720089,-0.606660,0.336803
0.047706,0.301213,0.536145,-0.714644,-0.036816,-0.698519
0.436610,0.295567,0.887964,0.983929,0.088513,0.155078
-0.233227,0.080262,0.325162,0.606408,0.218832,0.764449
0.491359,0.370187,0.677641,-0.685799,0.629085,0.365966
-0.083502,-0.221862,0.524143,0.289161,-0.502319,0.814900
0.671508,0.437998,-0.679240,0.926752,-0.363286,0.095680
0.598317,0.418410,0.134984,0.700198,0.615762,-0.361331
0.567312,-0.531458,0.419377,0.080648,0.325973,0.941933
0.518808,0.367862,0.850344,0.319353,0.938332,-0.132461
0.634186,0.274736,0.874413,0.439178,0.774535,0.455212
0.375327,0.306274,0.307654,0.944618,0.304279,0.122930
0.575515,-0.882887,0.579881,-0.718574,0.692345,0.065643
-0.277011,0.141933,0.700242,0.960823,-0.153621,0.230693
-0.089020,0.236969,0.778203,0.797982,-0.306397,0.518985
0.532385,0.411852,0.665754,-0.293384,0.954365,0.055788
0.388977,0.480578,0.729537,0.206735,-0.851193,0.482422
0.507624,0.577774,-0.991444,-0.137975,0.182953,0.973392
-0.016989,-0.066981,0.464894,-0.484938,0.397549,-0.778967
-0.112983,-0.453684,0.514087,-0.053687,0.770840,0.634762
0.656478,0.481325,-0.882491,0.935066,0.325117,-0.141250
-0.007406,0.454931,0.757744,0.172798,-0.761159,0.625122
0.520476,0.458584,0.891294,-0.721369,-0.660062,0.209629
0.519025,-0.359644,0.465768,0.990594,-0.136820,0.002195
0.478436,0.442149,0.965743,0.416411,0.878377,0.234641
0.527011,0.409694,0.528281,0.736500,-0.669159,0.098965
-0.269460,0.466550,0.718096,-0.462724,0.802970,-0.375667
0.169329,-0.507055,0.686642,0.087097,0.983723,-0.157172
0.539792,0.435343,-0.314364,0.844751,-0.517972,0.134538
0.958250,0.607570,0.780181,0.341407,-0.774316,0.532800
0.166424,0.828602,0.765756,-0.847302,0.469696,0.247923
0.030424,-0.597693,0.609225,0.188928,0.981106,0.041671
-0.399142,0.130147,0.426746,-0.606478,-0.761218,-0.229633
0.543859,0.477092,-0.161641,0.976782,-0.190696,0.097633
0.699101,0.393592,-0.134786,0.360058,0.792924,0.491559
0.607610,0.502407,-0.224385,0.827740,0.550864,0.106745
0.527157,0.241201,0.573023,-0.719655,0.123024,-0.683346
0.187118,-0.037766,0.862032,0.758445,-0.648954,-0.060156
0.439008,0.273821,0.321601,0.921121,0.302627,0.244851
0.328565,0.221449,0.665210,0.799600,-0.180359,0.572810
-0.754284,0.354996,0.438352,0.322832,-0.246993,0.913660
-0.201932,0.235558,0.724460,0.461433,0.117667,-0.879337
0.695977,0.453188,0.846569,0.741520,0.559360,-0.370493
0.508858,0.401312,0.854432,-0.091350,0.915991,0.390661
0.109353,-0.361387,0.711518,0.362541,-0.916875,-0.167045
0.544803,0.509629,-0.550668,0.822299,0.563197,0.081443
0.479960,0.696881,0.845662,0.695803,0.716669,-0.047359
-0.016989,-0.043078,0.483523,-0.566178,0.765091,0.306721
0.526721,0.394838,0.411299,0.783132,-0.255982,0.566726
-0.163592,-0.607569,0.551147,0.839228,0.539842,-0.065318
0.465220,0.841801,0.861043,0.697716,0.019362,-0.716113
0.209484,-0.123921,0.831270,0.723769,-0.689350,-0.030893
0.321449,0.578106,0.741868,0.705091,0.115863,0.699587
0.408947,-0.172476,0.361826,0.851423,0.092251,-0.516302
0.451497,-0.376410,0.724542,0.430750,0.901921,-0.031518
-0.690169,0.279052,0.434527,-0.002419,-0.961367,0.275259
0.168022,-0.177623,0.812163,0.441181,0.007755,-0.897385
0.489617,-0.466137,0.519181,-0.048316,0.978526,0.200382
-0.217033,0.238630,0.715096,0.150895,0.980894,-0.122788
0.518517,-0.321297,0.780511,0.141806,-0.755249,0.639914
0.455273,-0.023406,0.833430,0.646462,0.522212,0.556221
0.508787,-0.422975,0.357309,0.542529,0.043613,-0.838904
0.623365,0.472611,-0.136748,0.896483,0.405618,0.178302
0.708178,0.142513,0.538947,0.938419,0.275644,0.208301
0.435957,-0.851926,0.374503,-0.044032,-0.289907,0.956041
0.129030,-0.442066,0.654396,-0.112692,0.169574,0.979053
0.487439,0.371514,0.273232,-0.524821,0.793619,0.307785
-0.181962,0.506227,0.476203,-0.266339,0.286255,-0.920392
0.403647,0.366534,0.380653,0.841402,0.517974,0.154098
0.529045,-0.385542,0.456503,0.995457,-0.015059,0.094014
0.855068,0.728586,0.882392,0.873783,0.478817,0.085070
0.414248,-0.482320,0.722333,-0.041932,0.706745,0.706225
0.224297,-0.028302,0.829473,0.933132,0.323217,0.157465
0.048577,-0.148488,0.786858,0.860440,0.364718,0.355844
0.120971,0.726512,0.838903,0.775424,-0.144817,0.614610
0.233591,-0.489458,0.681103,0.443481,0.777470,-0.445943
0.699028,0.512450,0.793798,0.787957,0.242823,-0.565828
0.573266,0.132637,0.148766,0.051889,0.696321,0.715853
0.512924,0.447129,0.999456,0.434890,0.212841,0.874968
0.665918,0.301046,0.544800,0.905473,0.361327,0.222625
0.520042,0.433185,0.956791,0.883086,0.450949,0.129626
0.559250,0.558766,-0.975733,0.399122,-0.838781,-0.370336
-0.132080,0.261704,0.634613,-0.662325,-0.727365,-0.179626
-0.038774,0.331591,0.811734,-0.439805,0.889750,-0.122131
-0.179059,0.240870,0.656935,0.134123,0.830447,0.540711
0.260964,-0.297725,0.749287,0.945818,0.247773,-0.209849
0.317383,-0.168491,0.799914,-0.056594,-0.192534,0.979657
0.567965,0.160774,-0.136995,-0.719393,-0.391366,0.573852
0.637091,0.690822,0.798480,0.379106,-0.717705,0.584104
0.366541,0.622512,0.739841,-0.366416,0.111470,-0.923750
-0.193726,0.518178,0.472082,-0.345668,0.406591,-0.845694
-0.652483,0.270916,0.401622,0.508593,-0.563800,-0.650740
-0.104851,0.445303,0.707727,0.867214,0.355108,0.349052
0.602963,0.577027,0.840156,0.073274,0.116686,0.990462
0.760311,0.593210,0.908521,0.157718,0.937130,-0.311308
-0.244045,0.149651,0.691439,0.883678,0.000378,0.468094
0.129104,-0.508301,0.401045,0.695954,-0.689285,0.201332
-0.083212,0.049884,0.770290,0.827907,-0.224748,0.513866
-0.034925,0.296565,0.561219,0.799372,-0.532838,-0.277648
0.634113,0.507055,-0.785044,-0.525273,-0.841072,-0.129179
0.571522,0.488131,-0.144925,0.955726,0.239885,-0.170419
-0.052934,-0.065902,0.467944,-0.339806,0.818273,-0.463639
0.168675,0.337400,0.731697,0.635219,0.693377,0.340184
0.175793,0.731408,0.889711,-0.347327,0.861181,0.371122
0.082197,0.543991,0.820126,0.826395,-0.054492,-0.560447
-0.151901,0.166916,0.790056,0.959810,0.147927,0.238499
0.437555,0.015769,0.603933,0.535588,0.705167,0.464634
0.040518,-0.081341,0.791952,-0.361395,0.842945,-0.398544
0.597227,0.435343,0.155162,0.750067,0.654766,0.093174
0.519969,0.429284,0.609901,-0.589286,0.802380,0.094488
0.355359,-0.721613,0.372723,-0.539401,0.711796,-0.449880
0.556564,0.468211,0.216885,-0.000255,0.984576,0.174957
0.569344,-0.583498,0.587102,0.048250,-0.951787,0.302941
0.597517,0.500249,-0.179149,0.803520,0.581604,0.126855
0.451277,0.413015,0.936959,-0.709639,0.680867,-0.181198
0.201569,-0.467049,0.683163,0.050893,0.998195,0.031887
0.464640,-0.173887,0.650720,0.097959,0.475436,0.874279
0.423905,0.226677,0.329498,0.986970,0.097121,0.128287
0.573047,0.385375,-0.330454,0.962115,-0.237903,0.133179
0.686973,-0.021580,0.813894,0.871451,-0.468359,0.145649
0.776793,0.014774,0.822186,-0.477895,-0.857384,-0.191073
0.644714,-0.196299,0.807201,0.977211,0.062593,0.202833
0.190677,-0.669405,0.566132,0.951223,0.262010,-0.162865
0.660834,0.394921,-0.983613,-0.448908,0.798239,-0.401617
0.709919,0.382885,-0.975651,0.672233,-0.350088,0.652335
0.646311,-0.269672,0.798727,0.812848,-0.444406,-0.376539
-0.634767,0.085657,0.401342,-0.566856,0.457974,-0.684787
0.202729,0.232984,0.274007,0.265837,0.488767,0.830925
-0.005010,0.322876,0.730774,0.651707,0.663240,0.367955
-0.226619,0.365207,0.527935,-0.571732,0.321154,-0.754972
0.456361,0.148240,0.698956,0.124706,0.596418,0.792927
0.174993,-0.089474,0.485666,-0.557299,0.035036,0.829572
0.832195,0.492614,0.854762,0.686520,0.328544,-0.648651
0.658510,-0.255892,0.827594,0.918364,0.334731,-0.211099
0.702077,0.269672,0.882606,0.841254,-0.525598,0.126645
-0.157275,0.156541,0.307440,-0.421052,-0.517815,-0.744703
0.572176,0.404382,-0.371915,0.928553,0.369623,0.034178
0.087715,-0.479083,0.657759,0.350953,0.674770,0.649243
0.341707,0.107819,0.519774,-0.707285,0.688917,0.158562
0.874382,0.485393,0.907631,0.484561,-0.133747,0.864472
-0.242521,0.135623,0.327701,0.578408,0.602569,0.549868
-0.152047,-0.339725,0.341730,0.755902,0.634545,0.161133
0.542986,0.407371,0.021497,0.256697,0.947426,0.191028
0.492957,0.408367,0.184144,0.921874,0.287289,0.260027
-0.162431,0.315986,0.797540,-0.758150,0.251573,-0.601598
-0.137887,-0.025149,0.758865,0.525547,0.836681,-0.154162
-0.036086,-0.557768,0.584530,0.000282,-0.993608,0.112888
0.388906,0.087983,0.609555,-0.824736,0.128389,-0.550751
0.551047,0.449703,0.317628,-0.405443,-0.907125,-0.112876
0.220231,-0.363381,0.736741,-0.312151,0.763562,-0.565275
0.024470,-0.476345,0.598691,-0.477861,0.005527,-0.878418
0.296325,0.147493,0.465998,-0.816410,0.535751,-0.215514
0.367195,0.250913,0.459536,0.812880,-0.562164,0.152309
0.568473,0.217464,0.069668,-0.807577,0.239979,0.538729
0.125618,0.106575,0.606802,0.637465,0.263953,0.723856
0.496879,0.380230,0.243344,-0.537243,0.636823,0.553016
0.215148,-0.304448,0.786808,-0.160707,0.981679,-0.102368
0.107029,0.300631,0.851761,0.955644,-0.202265,0.214086
-0.048504,-0.268426,0.701907,-0.662394,-0.747730,0.046192
0.665698,0.414010,0.774708,0.846995,0.032264,-0.530620
0.298142,-0.621098,0.514384,-0.736613,0.542973,-0.403215
-0.127360,0.310922,0.468686,0.788248,-0.432730,0.437504
-0.229886,0.101180,0.649615,-0.933946,0.334218,0.126661
0.593958,0.636456,-0.992697,-0.154307,0.144714,0.977367
0.283183,-0.059428,0.592905,-0.608752,-0.416801,-0.675054
0.446777,0.440488,0.935096,0.542261,0.053763,-0.838488
0.655024,0.472692,-0.863153,0.889869,0.429220,0.154607
0.587714,0.281127,0.864126,0.799031,-0.419700,-0.430582
0.434649,0.446797,0.934503,0.611849,0.259849,-0.747073
0.546761,0.488630,-0.801513,0.950856,0.291848,-0.103432
0.508931,-0.384795,0.485089,0.980773,-0.190080,0.044205
0.394134,0.316568,0.443677,-0.466986,0.884258,-0.003468
0.256971,0.332255,0.461036,0.646765,0.473998,0.597512
0.391665,0.006808,0.609440,0.911458,0.014407,0.411141
-0.467906,0.184346,0.425609,0.337698,0.248868,0.907758
0.429422,0.700366,0.750359,0.554800,-0.541950,0.631259
0.536087,0.296646,-0.996258,-0.034230,-0.427645,0.903298
-0.075877,0.490373,0.750688,0.957408,-0.067057,0.280842
0.062664,0.696630,0.784797,0.881399,-0.452011,-0.137195
0.396748,-0.046066,0.626024,0.039043,0.612208,0.789732
0.389777,-0.873591,0.564533,0.980837,-0.185588,0.059294
0.540880,0.164925,0.572149,0.946703,0.297502,0.123476
0.378666,0.292996,0.516560,0.704232,0.698930,0.124721
0.458395,0.867032,0.914225,0.337467,0.610196,-0.716782
-0.083212,0.063081,0.768229,0.796699,-0.231211,0.558401
0.582413,0.453188,0.124054,0.843710,-0.531928,0.072151
0.111675,-0.388944,0.679470,0.945195,0.137763,0.296019
0.855285,0.527973,0.902504,0.313316,-0.860253,-0.402240
0.550103,0.236553,-0.150167,0.870638,0.005166,-0.491897
0.507553,-0.714310,0.587382,-0.506632,-0.447764,-0.736771
0.378303,0.289508,0.460575,-0.637357,0.769120,-0.047216
0.402193,0.668493,0.864505,0.330671,-0.776321,-0.536640
0.170490,-0.165173,0.720025,0.839061,-0.415554,-0.351130
0.199100,0.411439,0.869121,-0.592015,0.792430,-0.146876
