0.481104,-0.026333,0.268749,0.835021,0.494533,-0.241197
0.540954,-0.059699,0.337524,0.316426,0.874003,0.368773
0.672429,-0.153601,0.341710,0.875338,-0.222299,0.429379
-0.530919,0.818664,0.497322,-0.051641,-0.695546,0.716623
-0.508632,0.779566,0.337883,0.865171,0.316319,0.389130
-0.443851,0.741069,0.395734,-0.325097,0.896487,-0.301035
-0.351849,0.693602,0.524154,0.927453,-0.325868,0.183418
-0.327177,0.668470,0.475234,0.066113,-0.331452,0.941153
-0.288020,0.638494,0.463991,0.922100,0.064609,-0.381519
-0.129003,0.555024,0.679008,0.800666,-0.243382,0.547448
-0.089691,0.525631,0.670038,0.638440,-0.098414,0.763354
-0.118020,0.516661,0.467978,-0.536642,0.822188,0.189794
-0.065971,0.483161,0.493813,0.006621,-0.146081,0.989250
0.085877,0.421881,0.827802,0.020320,-0.903282,0.428566
0.117393,0.376908,0.674304,-0.325340,0.168289,-0.930501
0.161961,0.346788,0.688737,0.093605,0.247407,0.964380
0.195867,0.318714,0.662861,-0.673417,-0.137173,0.726424
0.217994,0.272422,0.455020,0.549761,-0.803250,-0.229244
0.236773,0.223341,0.208226,0.899333,-0.353903,0.256813
0.317637,0.185724,0.349086,0.747197,-0.344571,0.568302
0.260808,0.171758,-0.029637,0.184016,-0.933501,0.307756
0.471714,0.089616,0.451950,-0.369050,-0.863763,0.343097
0.484130,0.061837,0.323370,0.541019,0.504311,-0.673030
0.516603,0.031565,0.273932,-0.515424,0.012871,0.856839
0.583293,-0.002528,0.371892,0.823675,0.439803,0.357956
0.623567,-0.032217,0.365911,-0.396891,-0.509704,0.763334
0.665905,-0.062489,0.369260,0.577988,0.602052,-0.550875
0.700924,-0.093936,0.327317,0.997967,0.058231,0.025901
0.735782,-0.124208,0.291115,0.228058,0.970442,-0.078936
0.094790,0.484775,0.782710,0.939359,-0.293617,-0.177182
0.131081,0.438187,0.644920,0.984160,0.087800,-0.154016
0.157983,0.411593,0.595920,0.876964,0.412907,0.245850
0.231998,0.373383,0.700618,-0.189282,0.981220,-0.037136
0.237890,0.352520,0.585673,0.314365,0.126755,0.940802
0.252215,0.328859,0.496445,0.131231,-0.686329,0.715354
0.282458,0.300344,0.449877,-0.531044,0.660341,-0.530982
0.300125,0.274772,0.363997,0.246800,0.953363,-0.173751
0.346127,0.242742,0.372569,0.328400,0.934825,0.135113
0.381621,0.212614,0.340394,0.314414,-0.862140,0.397313
0.435263,0.179553,0.377553,0.083753,0.289857,0.953398
0.476810,0.149863,0.377394,0.719839,-0.639525,-0.269888
0.532677,0.117825,0.434647,-0.167049,0.931976,0.321739
0.507529,0.093876,0.147624,0.160842,0.769072,-0.618594
0.547959,0.062868,0.135145,0.285958,0.706399,-0.647479
-0.331471,0.752379,0.517655,0.843238,-0.523826,0.120651
-0.303778,0.726817,0.478424,0.320344,0.864497,-0.387330
-0.320809,0.715640,0.320699,0.284251,-0.520269,-0.805308
-0.223074,0.666999,0.467420,0.964523,0.138775,-0.224583
-0.202863,0.624241,0.277480,-0.712048,0.677912,-0.182820
-0.074569,0.568684,0.525550,0.011422,0.960844,0.276854
-0.196018,0.700069,0.280311,0.046636,-0.767630,0.639194
-0.148108,0.667295,0.290956,0.896947,-0.337806,0.285260
0.104822,0.557813,0.776889,0.907584,-0.418168,0.037770
0.118029,0.536502,0.696950,0.871389,0.375744,-0.315432
0.171035,0.504176,0.737577,-0.645143,-0.638419,0.419775
0.204144,0.457005,0.581726,0.991090,-0.119250,-0.059331
0.249670,0.425702,0.591534,0.553440,0.817404,0.159855
0.280228,0.397780,0.551864,0.668273,-0.706749,0.232198
0.306173,0.370297,0.495408,-0.437002,0.814260,-0.382113
0.341031,0.342232,0.474516,0.805608,0.558156,0.198639
0.364911,0.315485,0.411801,0.217145,-0.969916,0.110047
0.401998,0.285357,0.387999,0.984161,-0.175838,0.022530
0.363638,0.267723,0.086863,0.923889,-0.124735,-0.361760
0.412024,0.234508,0.096431,0.921306,0.247129,-0.300205
0.522170,0.193805,0.353233,0.781746,-0.623550,0.007634
0.578678,0.160735,0.404226,-0.429976,0.649623,0.626985
0.621337,0.130615,0.407455,0.105471,0.768119,0.631561
0.643464,0.101957,0.324646,0.679222,0.411937,0.607425
0.758384,0.007760,0.249571,-0.710852,-0.563882,-0.420388
0.853729,-0.088940,0.063937,0.950857,0.307760,0.033990
0.134905,0.603809,0.687859,-0.685177,0.586972,-0.431272
0.253488,0.496238,0.544129,0.702325,0.363388,0.612118
0.304104,0.464055,0.570204,0.144720,0.900641,0.409759
0.345014,0.434519,0.571400,-0.530596,-0.538226,-0.654813
0.368729,0.407628,0.506651,0.567041,0.486482,-0.664681
0.402154,0.378523,0.473599,0.419291,0.896612,-0.142415
0.447999,0.346932,0.483447,0.015643,-0.949456,0.313509
0.329732,0.367068,0.057160,0.850787,-0.095970,-0.516673
0.474420,0.319602,0.428148,-0.457069,0.802781,0.382925
0.526945,0.288298,0.469493,0.157016,-0.924502,0.347335
0.582341,0.230687,0.354469,0.383624,-0.910192,-0.156151
0.584090,0.203061,0.182789,-0.496919,-0.631620,-0.595087
0.617514,0.171910,0.133311,0.168413,0.936007,-0.309077
0.665109,0.138840,0.144076,-0.577777,-0.769907,0.270954
0.697422,0.108272,0.093999,-0.614958,0.788559,-0.001055
0.740717,0.076825,0.092963,0.359889,0.871235,-0.333811
0.784489,0.043907,0.084869,0.822843,0.547152,0.153477
0.832083,0.012460,0.103967,0.875158,0.477768,-0.076399
0.877604,-0.020458,0.103767,0.934170,0.317166,-0.163500
0.155117,0.671260,0.709947,0.720204,-0.623641,-0.303937
0.230564,0.594256,0.563067,0.726296,0.663068,0.181204
0.224678,0.552674,0.270264,0.856751,0.513637,-0.046407
0.268288,0.521810,0.272935,0.463283,0.882204,-0.084170
0.408682,0.448915,0.454422,0.923894,-0.360630,-0.127926
0.518352,0.359427,0.386723,-0.674816,0.680416,0.285758
0.506257,0.335325,0.174935,0.947297,0.197740,-0.252045
0.548274,0.304757,0.171426,0.891151,0.391172,-0.229857
0.589982,0.273454,0.164888,0.225698,0.838371,0.496179
0.635823,0.241119,0.167718,-0.317618,0.798537,-0.511330
0.676888,0.209968,0.158947,0.900913,0.231070,-0.367373
0.757272,0.145307,0.115569,-0.251880,0.789277,-0.559998
0.845451,0.081381,0.112499,0.779695,0.254611,-0.572056
0.894955,0.050078,0.141165,-0.747029,0.663683,0.038388
0.241072,0.626295,0.275008,0.928762,0.360334,-0.086946
0.345490,0.559284,0.326679,0.898951,0.102371,-0.425920
0.446085,0.516661,0.516220,0.441356,0.565273,-0.696901
0.492723,0.485950,0.534799,0.216517,0.266264,-0.939268
0.538569,0.455535,0.551664,0.203802,0.342388,-0.917189
0.568492,0.376908,0.187574,-0.476190,0.230354,-0.848634
0.816962,0.186746,0.117961,0.414237,0.783034,-0.463967
0.957987,0.089024,0.142959,-0.548010,-0.041344,0.835449
0.359179,0.638790,0.386723,0.970084,0.206779,0.127195
0.379711,0.611891,0.310811,0.945264,0.126308,-0.300868
0.473623,0.548404,0.337364,0.127085,-0.892275,-0.433237
0.689781,0.365884,0.168636,0.332924,0.427927,0.840262
0.396266,0.699773,0.373606,0.984075,-0.028726,0.175418
0.494317,0.657446,0.550668,0.064655,0.272125,0.960087
0.515962,0.609244,0.347491,-0.688411,0.168633,-0.705445
0.508005,0.703890,0.329351,-0.284138,-0.302927,0.909671
0.317316,0.037736,-0.969846,-0.167284,0.309559,0.936050
0.288030,-0.235600,-0.944409,0.585318,-0.403061,0.703523
0.440514,0.114299,-0.968889,0.151076,0.403517,0.902414
-0.037481,-0.359782,-0.974550,-0.485011,-0.412258,-0.771238
0.061686,-0.402988,-0.952263,-0.277612,0.639302,0.717095
0.133632,-0.434435,-0.927026,0.979956,-0.183176,0.078310
0.238366,-0.480431,-0.905536,-0.765784,-0.449237,-0.460175
0.053088,-0.390494,-0.835046,0.851858,-0.501475,0.151197
0.031122,-0.376824,-0.791987,0.624169,-0.686468,0.373062
-0.008510,-0.355961,-0.748170,0.999059,0.012558,0.041514
-0.035728,-0.340973,-0.706466,0.980616,-0.023626,0.194512
-0.045598,-0.333179,-0.666198,0.952639,-0.301892,-0.036602
-0.095898,-0.299382,-0.506240,0.987183,-0.129246,0.093621
-0.072975,-0.307320,-0.473348,0.936888,-0.263277,0.230055
-0.120410,-0.282044,-0.429252,0.831631,-0.289167,0.474103
-0.014398,-0.180052,-0.159971,-0.746769,0.653133,0.125512
-0.282925,-0.360662,-0.984119,0.874878,-0.482566,0.041454
-0.171823,-0.410478,-0.965580,0.886187,0.452766,-0.098362
0.005974,-0.490567,-0.956649,0.437984,-0.030097,-0.898479
0.107367,-0.535539,-0.934760,0.590207,0.341567,0.731429
0.308242,-0.626651,-0.929577,0.238540,0.782262,0.575469
0.486515,-0.707036,-0.921843,-0.073820,0.079292,0.994114
-0.286106,-0.559784,-0.926149,0.551037,0.310355,0.774621
0.000403,-0.692048,-0.937551,0.442413,0.134763,-0.886628
0.182975,-0.774486,-0.929179,-0.013100,0.142171,0.989755
0.366820,-0.857517,-0.920926,-0.410341,0.783850,-0.466046
-0.110860,-0.561990,-0.960197,0.363476,-0.113799,-0.924627
0.031283,-0.626355,-0.946961,0.233510,0.204974,-0.950505
0.166736,-0.686612,-0.932129,0.169215,-0.214320,0.961994
0.370162,-0.779482,-0.927345,0.054858,-0.967977,0.244972
0.107843,-0.840914,-0.937232,-0.038499,0.062562,0.997298
0.259696,-0.909835,-0.925271,-0.267239,0.430971,0.861886
0.085877,-0.709242,0.716287,0.353735,0.863946,0.358426
-0.323675,-0.366097,0.331304,0.132219,0.983962,0.119733
-0.164657,-0.335242,0.078610,0.958060,-0.156994,-0.239736
-0.214482,-0.428112,0.171546,-0.180927,0.976595,0.116309
-0.246955,-0.396082,0.390870,0.989541,-0.142307,-0.023618
-0.211455,-0.391373,0.665493,0.850325,-0.082803,0.519702
-0.146038,-0.456922,0.197940,-0.263782,0.956420,-0.125216
-0.180420,-0.287479,0.613822,-0.436196,0.626348,0.646081
0.321455,-0.537450,0.331663,-0.342606,-0.936294,-0.077296
-0.163866,-0.292323,0.647073,0.719074,-0.490477,0.492306
-0.178507,-0.278071,0.752210,0.305345,0.142600,0.941504
-0.358849,-0.191658,0.811695,-0.535710,0.507478,-0.674894
-0.232785,-0.405482,0.354150,0.841561,-0.372124,-0.391533
-0.153038,-0.343171,0.041571,0.883221,-0.455320,-0.112266
-0.077590,-0.145367,-0.077401,0.927285,0.369028,0.062929
-0.200157,-0.288502,0.476909,0.839275,-0.075907,0.538382
-0.132986,-0.317751,0.501628,0.861887,0.310887,0.400626
-0.198884,-0.281891,0.580729,-0.427971,0.782082,0.452977
-0.221166,-0.149340,0.770191,0.181144,-0.197921,0.963335
0.049270,-0.273514,0.767280,-0.055455,0.160659,0.985451
-0.055469,-0.221939,0.815243,-0.631781,0.379059,0.676141
-0.124548,-0.248534,0.014060,-0.669820,-0.256170,-0.696934
-0.077751,-0.231931,0.540660,-0.039285,-0.926491,0.374260
-0.368404,-0.093496,0.615576,-0.239479,-0.927990,0.285454
-0.306163,0.027744,0.908220,-0.657510,0.610625,0.441382
-0.240426,-0.000035,0.932859,-0.143424,-0.291441,0.945776
-0.161315,-0.195192,0.518293,0.922410,0.237980,-0.304180
-0.142216,-0.068220,0.609117,-0.175277,-0.972726,0.151925
-0.130757,-0.070714,0.642966,0.129096,-0.930350,-0.343197
-0.146354,-0.060874,0.679168,0.985437,-0.135686,0.102481
-0.203178,-0.032360,0.720832,-0.188607,-0.955569,0.226529
-0.188537,-0.036334,0.754004,0.913712,0.196585,-0.355646
-0.233421,-0.013552,0.793634,0.823589,-0.097577,0.558730
-0.077274,-0.138317,0.030407,-0.474912,0.837531,0.270185
-0.084435,-0.132146,0.068204,-0.482379,-0.807482,0.339535
-0.073772,-0.134352,0.103289,0.453717,-0.805578,0.381031
-0.102582,-0.118180,0.144235,0.934984,0.084296,0.344527
-0.093193,-0.120387,0.177806,-0.164274,0.977423,-0.132886
-0.120570,-0.105399,0.216718,0.408220,-0.737503,0.538001
-0.164021,-0.064983,0.506891,0.513498,0.857557,-0.030247
0.026984,-0.001649,0.844069,0.108348,0.484734,0.867925
0.105618,-0.035885,0.867194,-0.331617,-0.732553,-0.594472
-0.104652,0.066241,0.964675,-0.576175,0.745826,-0.334314
-0.023312,-0.168446,-0.050130,0.087711,0.805246,0.586417
-0.004532,-0.174617,-0.016041,-0.289361,0.951751,-0.102177
-0.090963,-0.116566,0.248734,0.901681,0.191953,-0.387461
-0.154471,-0.084680,0.292750,-0.186882,0.960869,0.204466
-0.281016,-0.022960,0.347412,0.222776,-0.902401,0.368840
-0.192355,-0.061314,0.370496,0.708439,0.573823,0.410903
-0.190607,-0.060139,0.406020,0.869548,0.406836,-0.279947
-0.168796,-0.067629,0.437477,0.799981,0.599916,-0.011454
-0.138237,-0.079827,0.467499,0.867042,0.385383,0.315783
-0.235651,-0.010322,0.828999,0.718819,-0.562418,-0.408639
-0.198564,-0.024871,0.858941,0.777697,-0.505388,0.373858
-0.260162,0.233773,0.420014,0.246059,0.085215,0.965502
-0.136804,0.187042,0.577580,0.218078,-0.403500,0.888611
-0.063746,0.162062,0.706160,-0.448687,-0.893632,-0.010129
-0.000710,0.138544,0.801489,0.864141,0.453014,-0.219178
-0.328129,0.132229,0.406339,0.075715,-0.043633,0.996174
-0.492558,0.213933,0.499794,0.433240,0.786877,-0.439463
0.127900,-0.054847,0.727769,-0.041199,0.851652,0.522486
-0.031749,0.021277,0.783148,-0.303704,0.634738,0.710543
0.187910,-0.079092,0.787255,-0.007510,-0.988953,0.148041
-0.139349,-0.074535,0.537630,-0.768700,-0.359670,-0.528903
-0.207001,-0.040155,0.582683,0.179351,-0.852531,-0.490943
0.190135,-0.127446,0.043963,-0.177366,0.932920,-0.313370
0.010114,-0.038388,0.142760,-0.653578,-0.313114,0.689053
0.341191,0.094459,0.251166,0.542757,0.652767,-0.528497
-0.388776,0.171758,0.589939,-0.382240,-0.374446,-0.844797
-0.094941,0.039503,0.618287,0.403791,-0.913968,-0.040189
-0.283401,0.129727,0.678450,0.896142,0.241482,0.372312
-0.114998,0.053603,0.690451,-0.658707,0.697855,0.281252
0.047997,-0.020315,0.703369,-0.581857,0.612458,-0.535106
-0.613687,0.821014,0.505854,-0.069819,-0.794170,0.603672
0.339918,0.383671,0.438075,-0.524463,0.780429,0.340396
0.244258,0.429371,0.487394,-0.136452,0.856900,0.497094
-0.157813,0.343694,0.638860,0.861280,-0.245690,0.444785
-0.300436,0.411450,0.693720,0.057417,-0.976565,0.207421
0.016000,0.270665,0.754283,-0.074778,-0.960878,0.266686
-0.714603,0.451561,0.588703,0.314613,-0.535109,0.784014
-0.066768,0.171175,0.845266,0.810584,0.585462,-0.013714
-0.060244,0.415710,0.470250,0.225988,0.936610,-0.267752
0.361248,0.510051,0.531809,-0.760436,0.647744,0.046531
0.113735,0.499027,0.714014,0.924290,0.301989,0.233431
0.104982,0.504911,0.750335,0.985213,-0.152475,-0.078146
-0.012334,0.402776,0.638182,0.259563,0.535392,-0.803730
0.047997,0.384989,0.837929,0.451645,-0.885016,-0.112974
0.405817,0.054930,-0.971281,-0.450779,-0.136633,0.882117
0.206850,0.042875,-0.975228,-0.018942,0.422025,0.906386
0.359179,-0.106718,-0.964144,-0.330675,-0.840839,-0.428538
0.186954,-0.118333,-0.972916,0.494355,0.078835,0.865678
0.006772,-0.129357,-0.980132,0.493081,-0.283481,-0.822502
0.443700,-0.255584,-0.952582,-0.402578,-0.226299,0.886972
0.219581,-0.267935,-0.952144,-0.215062,0.243512,0.945754
-0.130917,-0.289829,-0.966696,-0.187847,0.169906,0.967391
-0.073452,-0.245153,-0.133378,0.746280,0.461419,-0.479749
-0.059763,-0.253969,-0.171533,0.957968,0.117072,-0.261899
-0.078708,-0.263674,-0.205821,0.502973,-0.539798,0.675009
-0.084915,-0.273074,-0.242382,0.995572,-0.088128,0.032721
-0.062469,-0.282187,-0.283767,0.550223,0.788082,-0.276008
-0.100989,-0.291300,-0.313709,0.928487,0.365608,-0.065136
-0.090167,-0.300118,-0.351904,-0.477128,0.878808,0.006784
-0.068521,-0.308934,-0.393528,0.183956,0.929784,-0.318843
-0.067564,-0.318487,-0.430328,0.953741,0.094502,0.285390
-0.081253,-0.328183,-0.466171,0.963656,-0.175835,-0.201118
-0.089691,-0.337888,-0.503130,0.899745,0.381713,0.211550
-0.050849,-0.346992,-0.548183,0.988098,0.153585,0.008638
-0.055148,-0.355809,-0.584544,0.818057,0.565468,-0.105016
-0.028883,-0.364778,-0.626168,0.913806,-0.389112,0.116402
-0.129323,-0.611663,-0.948795,-0.372772,0.271774,0.887232
-0.056742,-0.374179,-0.660058,0.939311,-0.341781,-0.029683
-0.062313,-0.384170,-0.696499,0.973839,0.224690,-0.033950
-0.033503,-0.393723,-0.740993,0.996614,0.080108,0.018529
0.044651,-0.402540,-0.794100,0.682998,-0.679036,0.269117
0.123445,-0.411510,-0.847605,0.575757,-0.811206,0.102214
0.194594,-0.420183,-0.898399,0.131794,-0.961407,-0.241511
0.126627,-0.429879,-0.924275,0.997819,0.051364,-0.041455
0.034149,-0.440167,-0.946961,-0.682167,0.223881,0.696079
-0.080937,-0.451477,-0.964264,0.021002,0.086926,0.995993
-0.262552,-0.463380,-0.971042,-0.385199,0.296847,0.873787
0.431760,-0.575803,-0.933604,0.184186,0.607942,-0.772323
0.271315,-0.587419,-0.944967,-0.345467,0.105516,0.932480
0.037330,-0.600200,-0.940900,0.773472,0.331685,-0.540117
0.114532,-0.694541,-0.941618,0.314045,0.621544,0.717676
-0.041620,-0.706300,-0.952981,-0.093926,0.267180,0.959058
0.528062,-0.794623,-0.923079,0.354249,-0.188263,-0.916005
0.338486,-0.806086,-0.927783,-0.454435,0.464885,0.759849
0.145727,-0.819020,-0.932887,-0.189464,-0.189436,0.963440
0.149706,-0.971994,-0.931770,0.003645,0.129211,0.991610
0.478238,-0.670736,-0.929458,-0.451917,0.360667,0.815898
0.315723,-0.681616,-0.938070,0.148029,0.210347,0.966355
-0.042733,0.527246,0.707037,-0.013403,0.966121,0.257741
0.247119,0.519164,0.596279,0.820430,0.266805,0.505677
0.296783,0.513136,0.553219,0.387235,-0.921531,0.028813
0.095747,0.447740,0.869905,0.935682,-0.219374,-0.276360
0.183927,0.419235,0.719596,-0.599194,-0.625279,0.499993
0.075375,0.409091,0.701734,-0.827271,0.076133,0.556620
-0.094781,0.397340,0.691647,0.068136,-0.992179,0.104587
-0.191082,0.387053,0.670795,-0.493002,0.735907,-0.464101
0.221175,0.381760,0.540022,0.430458,-0.895507,0.113018
0.268133,0.374711,0.498677,0.308204,0.946957,-0.091007
-0.443210,0.335325,0.501070,0.277070,0.773606,0.569883
-0.267964,0.237450,0.681042,0.940574,-0.107052,0.322274
0.013931,0.087552,-0.036215,0.973179,0.225818,0.043919
-0.153519,0.288003,0.870104,0.307412,0.135670,0.941855
-0.085071,0.280800,0.825371,0.102351,-0.143263,0.984378
-0.028883,0.273750,0.781912,-0.284636,0.932115,-0.223927
-0.355351,0.138105,0.888883,0.780154,-0.414182,-0.468843
-0.288336,0.131198,0.844508,-0.703275,-0.095360,-0.704493
-0.335454,0.121942,0.816639,-0.001908,-0.307731,0.951472
-0.160840,0.117089,0.756276,-0.143676,-0.717021,0.682084
0.590934,0.057280,0.329949,0.700966,0.356734,0.617566
0.483654,0.047145,0.310093,-0.754959,-0.646355,0.110732
-0.172143,0.026865,0.376636,0.464010,-0.535053,0.705984
-0.264622,0.015841,0.354987,-0.145118,-0.785580,0.601502
0.099250,-0.003264,0.190285,-0.853209,-0.265241,0.449091
-0.260483,0.014371,0.952715,-0.022799,-0.935105,0.353636
-0.294229,0.005993,0.924447,-0.702324,0.711537,0.021329
-0.228170,-0.001945,0.880351,-0.679758,0.394321,0.618418
-0.227534,-0.010466,0.846501,0.907158,0.082528,-0.412617
-0.124864,-0.017076,0.796744,-0.393056,0.103201,-0.913705
-0.182169,-0.026925,0.770231,0.815250,0.430888,0.386915
-0.196178,-0.035446,0.737218,-0.611593,0.732329,-0.299414
-0.169593,-0.043528,0.699422,0.540628,-0.779916,0.315360
-0.153358,-0.051026,0.663619,-0.733198,-0.644003,-0.218360
-0.201429,-0.061314,0.635670,-0.235479,0.937344,0.256780
-0.223235,-0.070131,0.605090,-0.383177,0.905541,-0.182126
-0.147787,-0.086590,0.522719,0.168907,-0.975784,0.138982
-0.168004,-0.095846,0.490305,0.548819,0.771042,-0.322942
-0.144285,-0.111570,0.418021,0.566395,-0.766287,-0.303317
-0.142691,-0.120979,0.381899,0.837441,0.542039,0.069896
-0.161476,-0.130235,0.349923,0.652851,0.745621,-0.133543
-0.164657,-0.139348,0.314200,-0.685526,0.726678,-0.044647
-0.185671,-0.148748,0.281268,0.850160,-0.512010,0.122778
-0.181056,-0.165943,0.209382,0.593578,-0.729875,0.339040
-0.139510,-0.173289,0.168237,0.655476,0.675117,-0.338480
-0.100353,-0.182402,0.125337,0.770646,-0.157681,-0.617447
-0.110223,-0.191371,0.091687,0.700654,-0.283088,0.654939
-0.065019,-0.199892,0.047750,0.583108,-0.135056,-0.801090
-0.125024,-0.210181,0.020559,0.771373,-0.340264,0.537777
-0.041620,-0.217966,-0.029876,-0.527938,-0.844732,0.087804
-0.068521,-0.226783,-0.061134,0.802732,0.452432,-0.388494
-0.068676,-0.235161,-0.096857,0.816576,0.571495,0.081220
0.130606,-0.127293,0.865320,-0.078951,0.980134,0.181943
-0.077274,-0.157718,0.793913,-0.091215,0.574270,0.813569
0.205101,-0.160947,0.718838,-0.370723,0.164465,-0.914065
-0.238196,-0.241035,0.506572,0.411090,0.788937,0.456709
-0.211936,-0.271317,0.758429,0.874958,-0.111157,0.471267
-0.245837,-0.280573,0.728567,-0.171004,0.951643,-0.255212
-0.302982,-0.418416,0.212413,0.802340,-0.475552,0.360694
0.123285,-0.466178,0.407336,0.811968,0.190952,0.551584
-0.052603,-0.544796,0.148860,0.707985,0.425881,-0.563368
-0.139194,-0.619601,-0.955453,-0.276515,0.230463,0.932966
0.317316,-0.881770,-0.926348,0.283262,0.052458,0.957607
0.154801,-0.787420,-0.934601,0.249537,-0.092475,-0.963940
0.036378,-0.722912,-0.949951,0.481223,-0.266300,-0.835170
-0.027450,-0.163450,-0.138282,-0.484943,0.867272,0.112557
-0.032546,-0.176087,-0.173766,0.950204,0.255722,-0.178098
-0.056105,-0.176670,-0.205742,0.854715,-0.305687,0.419544
-0.042417,-0.220172,-0.282969,0.191883,0.976891,-0.094149
-0.242816,-0.414739,-0.977700,-0.513736,0.073828,-0.854766
-0.061196,-0.276160,-0.431763,-0.325897,0.470526,-0.819998
-0.040348,-0.307607,-0.472949,0.932283,-0.100846,0.347389
0.507369,-0.644285,-0.927066,-0.487589,0.115744,0.865367
0.507208,-0.844879,-0.927943,-0.556163,0.339440,0.758593
0.336101,-0.744806,-0.934760,-0.198120,-0.185979,0.962372
0.181858,-0.656188,-0.944608,0.261815,-0.363039,-0.894235
0.018546,-0.561551,-0.952622,0.209919,-0.181977,-0.960634
-0.108470,-0.490862,-0.966018,-0.019542,0.202196,0.979150
0.298377,-0.517170,-0.924514,-0.615768,-0.310755,-0.724058
0.129809,-0.418120,-0.929976,0.789806,0.283700,0.543803
0.077123,-0.399454,-0.959639,-0.054994,-0.533898,-0.843759
-0.068997,-0.315105,-0.969088,-0.261123,0.148863,0.953758
0.444813,-0.311428,-0.950270,-0.009533,0.155789,0.987744
0.448791,-0.441189,-0.953140,0.345630,-0.302324,0.888336
0.251739,-0.322891,-0.954097,0.048925,0.114202,0.992252
0.088903,-0.228110,-0.961832,0.279796,-0.254033,-0.925841
-0.033343,-0.160068,-0.975986,-0.139892,0.028909,0.989745
0.293121,-0.223993,-0.959081,0.202633,-0.182169,-0.962161
0.137926,-0.134496,-0.968371,0.118500,-0.002969,-0.992950
0.009953,-0.062345,-0.981328,0.201181,0.220880,0.954326
0.461688,-0.280716,-0.945366,0.775571,-0.489634,-0.398431
0.311268,-0.194600,-0.955772,-0.235510,0.331432,0.913612
0.197460,-0.133025,-0.971879,-0.236844,-0.355912,-0.904009
0.041790,-0.043240,-0.981129,0.507666,-0.240524,-0.827299
0.311584,-0.102170,-0.964703,0.095693,-0.278619,-0.955623
0.182178,-0.030746,-0.979215,-0.644454,0.132278,-0.753114
0.450545,-0.179316,-0.951825,0.431173,-0.360296,-0.827210
0.336737,-0.187990,-0.956609,-0.128984,0.377986,0.916782
0.214807,-0.121562,-0.972597,-0.339900,0.288589,0.895089
0.047356,-0.023696,-0.979375,0.484955,-0.115923,-0.866822
0.424756,-0.115831,-0.963028,0.788983,-0.264688,-0.554478
0.298216,-0.046765,-0.976664,-0.156199,-0.739418,-0.654877
0.145091,0.041118,-0.986192,-0.304600,0.906956,0.290946
0.426349,0.019806,-0.970723,0.296752,-0.114211,-0.948100
0.282458,0.100487,-0.982405,-0.093362,0.026666,0.995275
-0.231988,-0.399311,0.659313,0.616543,0.786298,-0.040124
-0.193949,-0.472932,0.546880,0.840627,0.214361,-0.497390
0.075851,-0.684110,0.676377,0.345378,0.938454,0.004192
-0.198884,-0.514524,0.685388,0.840642,-0.316935,-0.439173
-0.254114,-0.147277,0.933697,0.250328,-0.793445,0.554780
-0.028092,-0.316137,0.863845,-0.207751,0.970144,0.125144
-0.055624,-0.457209,0.517336,0.051283,0.729225,0.682350
-0.345641,-0.276896,0.529935,-0.386176,0.219069,-0.896034
-0.198403,-0.393436,0.469612,0.346531,0.937400,0.034611
-0.251569,-0.212970,0.794710,0.535513,-0.235042,0.811160
-0.164021,-0.287184,0.746947,-0.224232,-0.333555,0.915675
-0.175640,-0.295122,0.713097,-0.117792,-0.890181,0.440117
-0.127415,-0.361397,0.633995,0.819855,-0.572561,0.003320
-0.153358,-0.373004,0.820506,0.531039,-0.845097,0.061722
-0.241223,-0.031329,0.922692,-0.136887,-0.747678,0.649800
-0.300436,-0.344795,0.154282,-0.174151,-0.139385,0.974804
-0.119297,0.003939,0.949924,0.984827,-0.094341,-0.145653
-0.252682,-0.017076,0.728248,0.316205,0.943848,-0.095740
-0.070746,-0.220469,0.523397,0.292786,0.865847,0.405690
-0.226416,-0.056757,0.886730,-0.572054,0.705739,0.417954
-0.125505,-0.141107,0.835776,0.203072,0.680968,0.703594
-0.177870,-0.231931,0.564702,0.604520,-0.445756,-0.660195
-0.357737,-0.125679,0.558163,0.426890,0.674179,-0.602700
-0.125981,-0.300118,0.484125,0.796536,0.353344,0.490589
-0.200633,0.026417,0.893707,0.446661,-0.273079,-0.852010
-0.279107,0.063308,0.870742,0.774906,0.523370,0.354408
-0.240746,0.021133,0.829557,-0.210210,0.950821,0.227489
-0.142536,-0.060283,0.780317,0.898112,0.232791,-0.373098
-0.107197,-0.099667,0.740647,0.422254,0.688208,0.589975
-0.108314,-0.168149,0.799136,0.072433,0.753513,0.653431
-0.424591,0.029502,0.813370,0.817343,0.006189,0.576118
-0.197130,-0.171827,0.672430,-0.078503,0.388679,0.918023
-0.119934,-0.011785,0.916393,0.935792,-0.230514,0.266752
0.038287,-0.018987,0.842993,-0.473575,-0.385810,-0.791756
0.075054,-0.060139,0.801847,0.439361,0.458101,0.772726
-0.136804,0.207914,0.854755,0.486871,0.254461,0.835587
0.056430,0.061398,0.789328,-0.361473,0.850000,-0.383193
-0.042733,0.003787,0.786178,0.014554,0.841662,0.539809
-0.212728,-0.026486,0.495807,-0.588491,-0.794309,-0.150835
-0.135847,-0.095263,0.447086,0.489188,0.357990,0.795323
-0.082526,-0.163737,0.368383,0.804948,-0.338952,0.487002
-0.110384,-0.293794,0.046754,0.978191,0.064603,0.197407
-0.203338,0.109303,0.549711,-0.072375,0.987055,0.143121
0.049746,-0.112009,0.402392,0.185950,0.950477,-0.249029
-0.678628,0.367212,0.488670,0.334369,-0.654947,0.677673
-0.251093,0.059783,0.381062,0.227313,-0.667821,0.708762
-0.154792,-0.021929,0.328513,-0.543130,-0.723094,0.426784
-0.110063,-0.068516,0.284377,-0.019386,-0.999812,-0.000004
-0.065655,0.003347,0.754322,0.008172,-0.189751,0.981798
0.078396,-0.109660,0.696073,0.109437,-0.112027,0.987661
-0.247270,0.077857,0.677972,0.822484,0.447440,0.351165
-0.153995,-0.001210,0.628773,0.953093,0.302211,0.016818
-0.101150,-0.052936,0.584357,0.887531,0.353807,0.295145
-0.184078,-0.011937,0.563426,0.454206,0.221373,-0.862955
-0.190446,-0.024719,0.528420,0.897361,0.440671,0.023491
0.167377,-0.029418,0.736381,-0.029208,0.998257,0.051276
0.069322,0.021277,0.717642,-0.583298,-0.291147,0.758286
-0.368083,0.428931,0.711821,0.560536,0.686229,0.463562
-0.468042,0.480219,0.692365,0.225805,-0.823464,0.520500
-0.147627,0.248618,0.606485,-0.465927,0.883307,0.051788
-0.544447,0.501969,0.636667,-0.395346,0.306418,0.865915
0.181066,-0.171091,0.121350,-0.771397,0.636282,-0.009624
-0.005965,-0.060578,0.116486,-0.374775,0.799282,-0.469778
0.053088,0.017016,0.686065,0.446750,0.818177,-0.361939
-0.100193,0.103572,0.674743,0.929278,-0.368150,0.030151
-0.116907,0.098872,0.643086,0.153026,-0.750682,0.642696
-0.571824,0.374998,0.645398,-0.545962,-0.115363,0.829829
-0.145402,-0.061458,0.255113,-0.164239,0.945982,-0.279541
-0.100513,-0.108341,0.212133,0.603250,-0.749798,0.271832
-0.081413,-0.204888,0.024586,0.836937,-0.477309,0.267793
-0.064858,-0.233546,-0.014367,0.844680,-0.533719,-0.040735
0.036534,0.075650,0.471486,0.770824,0.588829,-0.243128
-0.054352,0.087552,0.377792,0.152222,-0.882318,0.445358
0.195867,-0.097900,0.300644,-0.251108,0.636576,0.729189
-0.139034,-0.099084,0.181713,-0.333705,0.936746,0.105584
-0.101946,-0.140667,0.139770,0.994774,-0.014725,0.101035
-0.096214,-0.161826,0.101694,0.577228,-0.635655,0.512592
-0.077751,-0.190932,0.061226,0.994758,-0.037831,-0.094999
0.090336,0.413943,0.883381,-0.595277,0.666436,0.448897
0.139519,0.134436,0.736580,0.917775,0.183763,0.352024
-0.032230,0.235388,0.729763,0.251851,-0.687374,0.681240
0.004381,0.347667,0.617928,0.765722,0.470113,-0.438936
-0.020130,0.316507,0.515303,0.677173,0.493928,-0.545410
-0.152246,0.373975,0.466303,0.987103,0.024196,-0.158248
-0.066928,0.300784,0.417423,0.984661,-0.172194,0.028129
0.194434,0.447892,0.725377,0.801298,0.499775,-0.328856
0.152256,0.460531,0.697867,0.971433,-0.016398,-0.236745
-0.590764,0.838352,0.538348,-0.172660,-0.958591,0.226477
0.370638,0.390282,0.558482,-0.584063,-0.784700,0.207647
0.478719,0.223781,0.327277,-0.523723,-0.726610,0.444693
0.488429,0.201886,0.289002,0.510291,0.672011,-0.536661
-0.538399,0.787064,0.493933,0.436441,-0.834958,0.335208
-0.661757,0.855250,0.478862,-0.160142,-0.831406,0.532088
0.369526,0.143253,0.270822,-0.411050,-0.740279,0.532001
0.404704,0.306955,0.311369,-0.250999,-0.214804,0.943853
0.424756,0.340609,0.414752,0.543505,0.599991,-0.587038
0.314771,0.397044,0.496963,-0.153760,0.042782,0.987182
0.310948,0.383527,0.461240,-0.649427,-0.758551,-0.053334
0.473783,0.257874,0.398166,-0.387442,-0.525530,0.757435
0.451978,0.257291,0.366868,0.283375,0.709031,0.645735
0.597142,0.048607,0.088298,-0.224698,0.927890,0.297541
0.398496,0.459795,0.564423,0.955656,-0.242228,0.167471
0.364430,0.466702,0.534361,-0.022559,-0.478106,0.878012
0.705223,0.138993,0.263526,-0.401148,-0.915339,-0.035145
0.822052,0.092405,0.316194,-0.717901,0.688546,0.102579
0.355837,0.449946,0.569127,0.862151,0.130637,0.489520
0.335940,0.448036,0.536394,-0.590348,0.625789,-0.509781
0.333234,0.433783,0.500711,0.918912,0.155882,-0.362356
0.465667,0.329002,0.442900,0.145777,0.184985,0.971869
0.391015,0.543265,0.554415,-0.747512,-0.291616,-0.596813
0.484766,0.353695,0.443777,-0.403043,-0.838430,0.366867
0.756635,0.115331,0.098505,0.592255,0.440320,-0.674798
0.715409,0.175435,0.178125,0.970404,0.033020,0.239217
0.732761,0.147218,0.137976,0.363864,-0.115090,0.924315
0.517555,0.533417,0.556608,0.960405,-0.081254,-0.266497
0.534906,0.354134,0.194152,0.873315,-0.255986,0.414477
0.772709,0.174700,0.116247,0.057383,-0.844890,0.531853
0.833356,0.116353,0.068403,0.808759,0.490398,0.324681
0.193322,-0.893673,-0.929737,0.099294,0.320221,0.942125
0.320498,-0.883089,-0.927584,0.196176,0.101546,0.975297
0.443700,-0.873240,-0.922241,0.114705,-0.855341,0.505208
0.523603,-0.684262,-0.924952,0.029098,0.035622,0.998942
0.112142,-0.796829,-0.935438,-0.075743,-0.054734,0.995624
0.245371,-0.786389,-0.933524,0.151765,0.230953,0.961056
0.373343,-0.776110,-0.929856,0.224568,0.887837,-0.401640
0.490654,-0.767140,-0.924275,-0.085112,0.021263,0.996145
0.038287,-0.721880,-0.946243,-0.457970,0.079215,0.885431
0.154165,-0.713207,-0.938867,-0.217082,0.159518,0.963031
0.285164,-0.702040,-0.937870,0.068432,0.176168,0.981979
0.394036,-0.694398,-0.928222,0.178910,-0.023999,-0.983573
-0.126142,-0.583598,-0.956450,-0.421799,0.211630,0.881645
-0.058330,-0.649281,-0.952901,0.098525,0.291685,-0.951427
0.062162,-0.639881,-0.947160,-0.469900,0.066578,0.880205
0.185997,-0.630472,-0.943931,-0.326768,0.278011,0.903290
0.302195,-0.621359,-0.938428,0.000559,0.654434,0.756119
0.422211,-0.612103,-0.932089,0.149281,0.058849,0.987042
0.489065,-0.535396,-0.934123,0.435378,-0.187491,-0.880507
-0.029044,-0.577274,-0.945246,-0.017153,0.065513,0.997704
0.095908,-0.567282,-0.940821,0.274735,-0.300208,0.913453
0.250782,-0.553613,-0.945446,-0.180903,0.002251,0.983498
0.371755,-0.544213,-0.939345,-0.331163,-0.056551,0.941878
-0.209547,-0.465882,-0.970165,-0.215576,0.128388,0.968010
-0.092236,-0.457065,-0.965141,0.057030,-0.098128,0.993538
0.015049,-0.449280,-0.957088,0.744420,-0.296747,-0.598147
0.102592,-0.444284,-0.941100,0.495049,0.136640,0.858054
0.010589,-0.463236,-0.872285,0.981396,0.027690,0.189987
0.023482,-0.468089,-0.833810,-0.777113,0.629348,-0.004110
0.403747,-0.424730,-0.907131,0.874963,-0.263920,-0.405939
0.286597,-0.319070,-0.948436,0.165392,0.465426,0.869497
-0.021883,-0.400342,-0.606393,0.203042,0.978970,0.019776
-0.029044,-0.407096,-0.564609,-0.505895,-0.854262,-0.119606
-0.030952,-0.414299,-0.524819,0.920609,0.378804,0.094800
-0.037005,-0.421797,-0.482358,0.518342,0.853883,0.046958
-0.037005,-0.348023,-0.448549,0.833828,-0.477836,-0.276411
-0.054191,-0.356105,-0.404891,-0.099165,-0.981058,0.166407
-0.069794,-0.370949,-0.321842,0.997484,0.057546,0.041405
-0.007874,-0.369335,-0.300034,0.970532,-0.238970,-0.031005
0.426189,-0.307464,-0.949911,-0.068883,0.350482,0.934033
0.002788,-0.384170,-0.696698,0.855545,-0.508612,-0.096728
-0.023472,-0.394171,-0.647020,0.946858,-0.298914,0.118789
-0.003896,-0.324066,-0.579002,0.796172,0.321660,0.512489
-0.037321,-0.335242,-0.528089,0.802610,0.218033,0.555229
-0.175324,-0.353611,-0.976345,-0.426979,-0.249388,-0.869192
-0.051010,-0.344203,-0.971760,-0.399975,-0.029211,0.916060
-0.068676,-0.346113,-0.478252,0.856041,-0.207847,0.473279
0.059136,-0.336265,-0.962789,-0.052357,0.532908,0.844552
0.151935,-0.330686,-0.948476,0.242050,-0.266434,0.932966
-0.174528,-0.274106,-0.981528,-0.039623,0.262892,0.964011
-0.068997,-0.266903,-0.972996,0.174613,0.088635,0.980640
-0.070270,-0.207238,-0.987987,0.053937,-0.258884,0.964401
0.041790,-0.199014,-0.979494,-0.065014,0.022084,0.997640
0.028737,-0.260732,-0.960038,0.463158,-0.580681,-0.669548
0.135862,-0.252651,-0.951825,0.966353,0.150358,-0.208696
0.288506,-0.239125,-0.956131,0.029499,0.686911,0.726143
0.426825,-0.227815,-0.955652,0.292006,0.520230,0.802554
-0.020290,-0.252059,-0.340143,0.875426,0.310893,0.370101
-0.014398,-0.257208,-0.301947,-0.588298,-0.787261,0.184730
-0.049261,-0.267935,-0.253944,0.942931,-0.298277,0.148025
-0.064062,-0.275864,-0.211882,-0.272684,-0.959613,-0.069177
-0.066768,-0.281891,-0.172052,0.936672,0.284532,-0.204176
0.372552,-0.174760,-0.956290,-0.162987,0.032259,0.986101
-0.021247,-0.297328,-0.388943,0.092886,-0.945655,0.311622
-0.071703,-0.309813,-0.335757,0.904682,0.134005,0.404467
-0.052443,-0.313491,-0.303303,0.861777,0.359159,-0.358254
-0.048464,-0.319070,-0.264231,0.884077,-0.408163,0.227621
-0.088573,-0.330389,-0.214832,0.765857,0.633945,0.107595
-0.079344,-0.289238,-0.131066,0.743282,0.279189,-0.607935
-0.085712,-0.336121,-0.176398,0.975604,-0.042742,-0.215337
-0.041144,-0.155072,-0.987508,0.645549,-0.573986,-0.503792
0.060569,-0.148166,-0.975747,-0.152216,0.217881,0.964032
0.047997,-0.179173,-0.337910,-0.776918,0.316380,-0.544336
0.192204,-0.137142,-0.973354,-0.236844,-0.355912,-0.904009
0.323845,-0.126414,-0.970524,-0.295835,0.342385,-0.891771
0.018391,-0.085415,-0.980531,0.139723,-0.208576,-0.967974
0.123922,-0.077773,-0.970085,0.257711,0.333777,0.906740
0.257466,-0.066310,-0.969647,-0.112287,0.307502,0.944899
0.387032,-0.056165,-0.966417,-0.022381,0.288472,0.957227
-0.044962,-0.219580,-0.117988,0.278042,-0.458072,0.844312
0.045132,-0.006941,-0.979973,0.470825,-0.074559,-0.879070
0.273860,0.010693,-0.968171,0.319689,-0.362855,-0.875291
0.406613,0.021277,-0.965779,-0.193831,-0.153956,0.968879
0.200802,0.092549,-0.982963,0.378126,-0.911388,-0.162457
0.324481,0.102101,-0.977900,0.118718,-0.139981,-0.983011
0.019503,-0.716149,0.718041,0.220209,0.828699,0.514554
-0.153995,-0.627683,0.735384,0.618160,0.764687,0.182023
-0.164182,-0.444427,0.088577,0.606034,0.795135,0.021987
0.239799,-0.538768,0.386923,0.239724,0.336951,0.910492
-0.168481,-0.450598,0.126055,0.356813,0.880783,0.311297
-0.281016,-0.471022,0.193076,0.502998,-0.864245,-0.008601
-0.149857,-0.512030,0.518134,0.211529,0.392155,-0.895248
0.522170,-0.438992,0.413595,0.257354,-0.939723,0.225146
0.481265,-0.386673,0.444774,0.254175,-0.712421,0.654103
-0.097171,-0.367425,0.016532,-0.578923,0.811900,0.075277
-0.139034,-0.378887,0.064775,0.888158,0.256965,0.380979
-0.194264,-0.391669,0.118001,0.858297,-0.316531,0.403898
0.428895,-0.338614,0.467340,-0.485845,0.726230,-0.486358
-0.176918,-0.418712,0.659233,0.853370,-0.216625,0.474165
-0.125661,-0.328622,0.562668,0.759339,-0.492742,0.424983
-0.187740,-0.341996,0.614579,-0.712690,0.569586,0.409444
-0.123276,-0.338910,0.631763,0.911723,-0.410796,-0.002810
-0.136328,-0.345378,0.668921,0.872598,-0.400752,0.279231
0.083652,-0.418273,0.799216,-0.332546,0.900882,0.278970
-0.052127,-0.237950,-0.002047,-0.594590,-0.527011,-0.607225
-0.101470,-0.249565,0.049863,0.882606,-0.424642,-0.201708
-0.082365,-0.301588,-0.052841,0.728431,0.664642,0.166248
-0.107994,-0.310845,-0.007310,0.635952,-0.638261,-0.433807
-0.081573,-0.230164,-0.068948,0.901499,0.432778,-0.001360
-0.121843,-0.257790,0.093521,0.705023,-0.482647,0.519611
0.243462,-0.217383,0.028852,-0.177830,0.963810,-0.198615
-0.176437,-0.355522,0.714373,0.166885,-0.774570,0.610074
-0.062469,-0.346705,0.718599,0.124925,0.956780,0.262612
0.073145,-0.335681,0.718838,-0.315471,-0.919806,0.233312
0.002312,-0.349342,0.771746,0.371720,0.534549,-0.759001
0.146524,-0.336704,0.769952,-0.447867,0.758135,0.473969
-0.077435,-0.153009,-0.064603,0.745993,0.596225,0.296666
-0.132505,-0.170795,0.025981,0.992693,-0.107718,0.054385
-0.067088,-0.168149,0.044322,-0.401788,0.906977,0.126326
-0.087937,-0.236775,-0.030315,0.879788,-0.073987,0.469573
-0.162272,-0.185640,0.108512,0.761898,-0.608447,0.222044
-0.085712,-0.181819,0.125018,0.674923,-0.080527,-0.733481
-0.086028,-0.187254,0.162695,-0.085680,-0.996041,-0.023699
-0.112133,-0.195632,0.205635,0.704534,-0.693780,-0.149337
-0.212728,-0.250884,0.519051,0.819311,-0.531801,-0.214282
-0.108950,-0.243242,0.527623,-0.046347,0.747250,0.662925
-0.139670,-0.236488,0.465306,0.989617,-0.140322,-0.031113
-0.142376,-0.151547,0.469134,0.854847,0.120015,0.504810
-0.260323,-0.207238,0.778523,0.991870,-0.041816,0.120186
-0.086188,-0.190779,0.767280,0.829227,0.528542,-0.181730
0.130129,-0.169468,0.745551,0.962004,-0.262639,-0.074629
-0.199200,-0.269845,0.656203,0.983548,0.173057,0.051806
0.091288,-0.239125,0.616293,0.337114,0.912630,0.231214
-0.093033,-0.150659,0.492059,-0.687314,-0.420256,0.592439
-0.139670,-0.161683,0.538667,0.816142,0.356999,-0.454384
-0.260798,-0.187111,0.640096,0.806095,-0.141864,-0.574531
-0.112929,-0.178733,0.670676,-0.060710,0.363351,0.929672
-0.051806,-0.176670,0.689893,0.919587,-0.386259,-0.071860
0.029529,-0.191954,0.838886,0.976422,0.152644,-0.152646
-0.004211,-0.200924,0.882065,0.601770,-0.399651,0.691486
0.179472,-0.183577,0.870343,0.687826,0.412953,0.596963
-0.208113,-0.281156,0.727331,-0.112145,-0.990182,0.083439
0.059457,-0.253530,0.692086,-0.361795,0.791042,0.493312
0.016957,-0.263674,0.737936,0.913826,-0.381122,-0.140247
0.173741,-0.254266,0.766323,0.140543,-0.516008,0.844975
-0.047668,-0.286591,0.856748,-0.014114,0.983990,0.177666
-0.184554,-0.135375,0.336766,0.599274,0.794761,-0.096051
-0.129644,-0.134352,0.358615,0.922806,0.355165,-0.149290
-0.110223,-0.137142,0.388079,0.887652,0.406624,-0.216173
-0.126142,-0.144344,0.428626,0.949907,-0.311490,-0.025506
-0.815519,-0.187550,0.327437,-0.536818,0.714314,-0.448979
-0.169753,-0.111866,0.187135,-0.035071,-0.995032,-0.093172
0.592051,-0.027804,0.054927,0.764762,-0.427987,-0.481628
-0.265097,-0.106135,0.572397,-0.596615,0.406550,-0.691930
-0.154315,-0.097461,0.578935,-0.021289,0.997839,0.062154
-0.141579,-0.100842,0.609675,0.910452,0.373240,-0.178239
-0.009783,-0.119947,0.816320,0.701408,-0.708293,-0.079670
-0.131553,-0.074248,-0.046063,0.815331,0.578401,-0.026207
0.018546,-0.121714,0.842315,0.900861,-0.057919,0.430225
-0.000073,-0.128765,0.881268,-0.044914,-0.993765,-0.102046
0.164672,-0.113481,0.872855,0.633501,0.417291,0.651571
0.042426,-0.185048,0.802565,0.810284,0.304885,0.500485
-0.010740,-0.032360,0.217954,-0.344107,0.582536,0.736371
-0.120731,-0.062345,0.356582,0.988674,0.060878,0.137176
0.561171,0.017160,0.209661,0.379848,-0.888311,0.258107
-0.171186,-0.109220,0.651299,-0.127923,0.991667,0.015239
-0.138874,-0.110691,0.678092,0.381041,0.374895,0.845140
-0.306003,-0.058372,0.225530,0.798274,0.394159,0.455410
-0.182329,-0.085415,0.478982,-0.330231,0.537999,0.775567
-0.101310,-0.080562,0.493534,0.853263,-0.000014,-0.521480
-0.086188,-0.032952,0.711821,0.303330,0.951607,0.049348
-0.164502,-0.047501,0.766802,0.833212,0.515328,0.200485
-0.126933,-0.047501,0.790485,0.775785,-0.488266,0.399691
-0.164657,-0.057340,0.834580,0.898859,-0.276494,-0.340006
-0.175165,-0.120243,0.720991,-0.323473,0.446588,0.834221
-0.006762,-0.104663,0.712778,0.904903,-0.260393,0.336670
-0.024589,-0.111866,0.752210,-0.752218,-0.653550,0.083911
-0.034936,-0.117893,0.789527,0.071595,0.106829,0.991696
-0.099717,-0.054847,0.852522,0.293051,0.172867,0.940339
-0.229283,-0.075270,0.919343,0.382121,0.206396,-0.900769
-0.340866,0.052141,0.750136,-0.349959,0.382366,-0.855175
-0.322402,0.024659,0.947292,-0.619793,-0.764540,0.177016
-0.252842,0.028184,0.963759,-0.070067,0.943696,-0.323308
-0.061041,-0.004734,0.531610,0.803846,-0.593639,0.037732
0.594275,0.065954,0.432374,-0.844823,0.530919,-0.066330
-0.050694,-0.018843,0.635271,0.781409,-0.530921,-0.327907
-0.204295,-0.042792,0.708672,0.848798,-0.501111,0.168613
-0.048940,0.022309,0.352076,-0.104679,-0.599530,0.793477
0.504663,0.085498,0.240999,0.000853,-0.935468,0.353411
0.935544,0.133109,0.162097,0.288391,-0.337183,-0.896180
-0.278310,-0.021193,0.518573,-0.372088,-0.784987,0.495324
-0.570391,0.085795,0.391268,0.406603,0.349941,0.843929
0.546686,0.182046,0.378949,-0.357241,0.834811,-0.418891
-0.055945,0.102541,0.572197,0.266505,0.119868,0.956351
-0.261596,0.072268,0.659711,0.888351,0.458065,-0.031763
-0.281176,0.165291,0.019243,0.678475,0.733860,0.033487
-0.451488,0.033475,0.813210,0.377076,-0.440264,0.814851
-0.329883,0.043324,0.815164,0.320855,-0.060408,-0.945200
-0.153674,0.060070,0.803362,-0.063530,0.980650,0.185174
0.027780,0.076977,0.791880,0.419722,-0.669388,0.612987
0.037014,0.073300,0.822779,-0.466744,-0.697210,-0.544104
-0.412331,0.095051,0.419695,-0.652821,0.353912,-0.669755
0.204144,0.301233,0.072310,0.852508,-0.099624,-0.513133
-0.539833,0.175140,0.490145,0.248909,0.906717,-0.340453
-0.360918,0.191742,0.478464,-0.006445,0.940946,0.338495
-0.552885,0.121645,0.839365,0.272440,-0.524326,0.806758
-0.127575,0.168825,0.765167,0.914747,0.189500,-0.356831
-0.364421,0.134436,0.859898,0.009433,-0.977437,0.211016
-0.018857,0.171462,0.805715,0.688796,-0.589278,-0.422270
-0.161476,0.200711,0.531849,-0.555412,-0.326541,-0.764780
0.303307,0.253174,0.445890,0.186644,0.900153,0.393558
-0.306324,0.167354,0.672908,0.578132,0.474493,0.663792
-0.483324,0.277131,0.628215,0.187817,-0.853387,0.486267
0.420462,0.384702,0.427669,0.852853,0.515177,0.085051
0.267176,0.359713,0.503462,0.168098,-0.766843,0.619431
-0.240902,0.290792,0.670596,-0.805174,0.202154,-0.557521
-0.051806,0.277571,0.861054,0.040512,-0.103715,0.993782
-0.324151,0.275364,0.725776,0.149070,0.529544,0.835081
0.098293,0.322831,0.650781,0.972203,-0.038642,0.230929
0.168805,0.326356,0.667885,-0.161402,-0.320543,0.933382
0.211465,0.326212,0.690610,0.188557,-0.925798,0.327634
0.103549,0.307107,0.752847,0.948915,-0.304804,-0.081583
-0.136804,0.272127,0.848256,0.366199,0.225265,0.902859
-0.416470,0.443040,0.345936,0.690853,-0.001215,0.722994
-0.764267,0.376908,0.579494,0.183595,-0.613788,0.767826
-0.113090,0.414974,0.687142,-0.624400,0.779281,0.053340
0.153689,0.431873,0.720832,-0.217370,-0.606663,0.764664
-0.004693,0.401745,0.828959,-0.416287,0.727139,-0.545869
0.112778,0.411001,0.833942,-0.564664,-0.738934,-0.367603
-0.653641,0.385142,0.585554,0.816393,-0.370494,0.442986
-0.084119,0.446125,0.506014,0.877056,0.468645,-0.105564
0.009793,0.452296,0.515782,0.846717,-0.258686,-0.464921
-0.040187,0.429523,0.633397,-0.137498,-0.863154,0.485860
0.054045,0.398076,0.882783,-0.654105,0.728256,0.204425
-0.345005,0.558253,0.275008,0.971631,0.156700,0.177140
-0.510541,0.525191,0.392943,0.659680,-0.661823,0.356107
-0.085712,0.517110,0.666649,0.761105,0.042217,0.647253
-0.150016,0.503880,0.716765,0.423794,-0.101247,0.900082
0.079829,0.526806,0.692883,0.942877,0.229209,-0.241757
-0.721763,0.464791,0.659353,0.977058,0.195747,0.083906
0.010114,0.551786,0.502864,0.538915,0.453370,-0.709948
-0.538715,0.632762,0.422247,0.249677,-0.692574,0.676759
-0.647432,0.584265,0.662064,-0.529890,0.504780,-0.681478
-0.318900,0.746648,0.522320,0.803834,-0.592677,0.050840
-0.706326,0.799406,0.523357,-0.666246,0.742976,-0.064051
-0.658095,0.811605,0.476111,0.297956,0.256754,-0.919402
-0.745799,0.880230,0.484883,0.406248,0.835207,0.370663
0.424601,0.080646,-0.967334,0.583827,-0.071488,-0.808724
0.337052,0.075793,-0.972756,-0.115591,0.304805,0.945374
0.246964,0.071094,-0.979295,-0.279381,0.418408,0.864223
0.151138,0.067129,-0.978418,0.132324,-0.689299,0.712290
0.365863,-0.011345,-0.971042,0.142568,0.255714,0.956182
0.269086,-0.015022,-0.970643,0.087835,-0.136323,0.986763
0.170719,-0.018987,-0.969926,0.001257,0.120355,0.992730
0.081422,-0.023400,-0.973992,-0.146122,-0.033340,0.988705
0.393561,-0.125536,-0.957646,-0.104015,-0.014076,0.994476
0.304584,-0.129796,-0.962430,-0.328576,-0.368739,0.869523
0.220699,-0.134792,-0.970404,-0.340603,0.305065,0.889340
0.123285,-0.138756,-0.971720,-0.088963,0.110613,0.989874
0.032876,-0.143017,-0.975388,-0.143722,0.182389,0.972665
-0.058811,-0.147869,-0.979933,-0.572873,0.639334,0.512903
0.052612,-0.082626,-0.114280,0.896240,-0.159972,-0.413718
0.399769,-0.250740,-0.953659,-0.216152,-0.156235,0.963778
0.297259,-0.254409,-0.951984,-0.304107,-0.316194,-0.898633
0.211465,-0.258965,-0.958523,-0.118047,-0.078926,0.989866
0.115484,-0.262643,-0.958124,0.798937,-0.072920,-0.596978
0.034785,-0.268670,-0.970245,0.684139,-0.109484,-0.721088
-0.052918,-0.272931,-0.975149,0.016686,0.031259,0.999372
-0.142691,-0.278223,-0.981488,-0.189510,0.151640,0.970099
-0.081093,-0.220908,-0.137206,-0.738722,0.549816,0.389862
-0.078227,-0.233689,-0.196013,-0.227137,-0.856923,0.462701
-0.058330,-0.248830,-0.268935,0.998809,-0.043703,-0.021695
-0.076638,-0.260589,-0.317816,-0.619589,-0.784792,0.014518
-0.069794,-0.274841,-0.383800,0.819841,0.448090,-0.356477
-0.049737,-0.289686,-0.456044,0.941724,-0.255624,-0.218660
-0.053239,-0.302907,-0.513935,0.853322,0.323732,0.408704
-0.022996,-0.320101,-0.597422,0.890141,-0.259929,-0.374281
0.483334,-0.374331,-0.933405,0.003045,0.048484,0.998819
0.400405,-0.379470,-0.941778,0.071575,0.199862,0.977206
0.278635,-0.380798,-0.926906,-0.453865,-0.039325,-0.890202
0.192525,-0.386673,-0.936594,0.289491,-0.665266,-0.688198
0.127739,-0.394171,-0.959998,-0.164757,-0.340590,0.925664
0.037491,-0.398279,-0.963467,0.302008,-0.041299,-0.952411
-0.052918,-0.402988,-0.966736,-0.136336,0.647051,0.750158
-0.157337,-0.406074,-0.963227,0.792088,0.404283,-0.457332
-0.239153,-0.411510,-0.971560,-0.590821,0.114691,0.798609
-0.035728,-0.363891,-0.190990,0.999481,0.022395,-0.023156
-0.095102,-0.425322,-0.452775,0.501613,0.864462,-0.033018
0.444813,-0.512909,-0.936156,-0.084779,0.177411,0.980478
0.348992,-0.516434,-0.936236,0.768090,0.638236,0.051893
0.252215,-0.521287,-0.938947,0.590622,0.145904,-0.793648
0.173586,-0.526722,-0.950070,0.210549,-0.241617,-0.947254
0.056591,-0.528489,-0.937990,-0.568930,-0.069640,-0.819432
-0.016948,-0.535683,-0.955572,0.067156,0.420916,0.904611
-0.111496,-0.539800,-0.958722,-0.263515,0.433483,0.861773
0.498616,-0.594029,-0.929458,-0.575191,-0.109970,0.810593
0.401362,-0.597994,-0.931292,-0.098838,0.109318,0.989081
0.317156,-0.603878,-0.940980,0.066199,0.527472,0.846990
0.231362,-0.608578,-0.947319,-0.193850,0.193685,0.961721
0.133151,-0.611807,-0.945446,0.166276,0.138228,0.976343
0.038287,-0.616515,-0.948197,-0.076335,-0.112235,0.990745
-0.049417,-0.620920,-0.953220,0.000986,-0.334236,0.942489
-0.148423,-0.625180,-0.954097,-0.276515,0.230463,0.932966
0.522015,-0.687491,-0.919132,-0.538455,-0.027135,-0.842217
0.447203,-0.693519,-0.933325,-0.128104,0.300338,0.945191
0.347559,-0.697779,-0.933325,0.218810,-0.104409,-0.970165
0.253648,-0.702183,-0.937153,-0.306977,0.162874,0.937676
0.161961,-0.706892,-0.942415,0.272473,-0.203878,-0.940315
0.059296,-0.709978,-0.937392,-0.281883,0.119612,0.951964
-0.023312,-0.715117,-0.946044,0.081746,-0.192220,0.977941
0.512464,-0.770226,-0.920248,-0.163079,0.116970,0.979655
0.425553,-0.775374,-0.926308,-0.102859,0.120225,0.987404
0.339122,-0.780514,-0.935079,0.137902,-0.987040,-0.082068
0.237890,-0.783456,-0.931092,0.211428,0.107661,0.971446
0.140316,-0.787860,-0.932328,-0.208210,-0.027112,0.977708
0.052773,-0.792856,-0.940262,0.449166,0.891023,-0.065792
0.483809,-0.831066,-0.921683,0.287884,-0.224428,-0.930997
0.385599,-0.835479,-0.923358,0.344090,0.156818,-0.925748
0.296307,-0.839739,-0.927504,-0.318680,0.264188,0.910301
0.211465,-0.845031,-0.934760,-0.001794,-0.192646,0.981267
0.116917,-0.849292,-0.938110,0.041616,-0.041370,0.998277
0.195391,-0.958181,-0.929139,-0.027779,0.199831,0.979437
-0.869798,1.000000,0.498957,-0.388598,-0.902511,0.185650
-0.684520,0.900959,0.530693,0.212530,0.961764,0.172747
-0.778111,0.887289,0.482849,0.818662,0.099701,0.565555
0.182018,0.780158,0.275646,0.697615,0.415966,-0.583357
-0.489532,0.793971,0.466742,0.211151,0.856237,0.471458
-0.591882,0.792357,0.477706,0.761095,0.622665,0.181721
-0.639791,0.785593,0.455459,0.653429,-0.299847,0.695070
-0.446713,0.723283,0.576184,-0.503686,-0.352920,-0.788510
-0.384161,0.684929,0.380623,0.053737,-0.869506,0.490991
-0.510541,0.684785,0.403628,-0.812334,0.365102,-0.454768
0.184724,0.710501,0.696272,-0.648404,0.620999,-0.440377
0.381305,0.653921,0.384929,0.960646,0.264136,0.085974
-0.393551,0.654513,0.532926,0.918210,-0.296517,0.262617
-0.188377,0.603665,0.249611,0.327268,-0.863408,0.383955
-0.482528,0.618061,0.375121,0.833508,-0.368323,0.411828
-0.613050,0.618653,0.401435,0.300775,-0.477076,0.825792
-0.911976,0.634673,0.534879,0.441363,0.134656,-0.887168
0.169762,0.611603,0.677812,0.872439,-0.409246,0.267148
-0.096214,0.601755,0.682517,0.184969,-0.974281,0.128695
