-0.372918,-0.379470,0.801900,-0.788495,0.585055,-0.189699
-0.375941,-0.010998,0.633370,-0.492673,0.331765,-0.804491
0.114335,-0.038735,-0.957704,0.212853,-0.621439,-0.753994
0.117205,-0.201040,0.640079,0.248413,-0.901981,-0.353158
0.146741,-0.211498,0.270423,0.551181,-0.237603,-0.799840
0.320113,-0.236467,0.707936,0.287887,0.633600,-0.718103
-0.725099,0.352342,0.513919,-0.602557,-0.639415,-0.477571
-0.009557,0.606492,0.752821,0.152822,0.721400,-0.675446
0.410462,-0.350048,0.384332,0.887694,0.458036,-0.046929
-0.566912,-0.169319,0.713843,0.883421,-0.194085,-0.426496
0.026024,-0.255365,0.699805,-0.527119,-0.367620,0.766160
-0.110406,-0.034756,0.920658,-0.232158,0.924919,0.301046
-0.344288,0.906264,-0.055259,0.453095,0.393384,0.799972
-0.659303,0.161559,-0.089716,0.357864,0.929868,-0.085313
-0.331445,-0.345052,0.786476,0.155780,-0.986882,-0.042381
-0.427764,-0.096570,0.461632,-0.341613,0.460124,-0.819504
-0.248725,0.266840,0.520592,-0.534534,0.839315,-0.099117
-0.673050,-0.278242,0.782830,0.232683,0.799345,0.553992
0.511689,-0.480834,0.465315,0.399676,0.731130,-0.552908
-0.549463,-0.149211,0.779329,-0.568989,0.820385,0.056742
-0.430558,-0.105076,0.629870,0.501647,-0.346838,0.792498
-0.017414,-0.143543,-0.087674,-0.388136,0.913165,-0.124424
-0.524684,-0.139156,0.421159,0.275089,-0.510253,0.814842
-0.509349,0.160550,0.750779,0.503562,0.384194,-0.773835
0.254920,-0.116007,0.740278,0.515567,-0.234502,-0.824136
-0.085628,-0.228571,0.758947,-0.383221,0.664205,-0.641851
-0.597433,-0.165406,0.701118,0.980836,-0.180388,-0.073624
-0.481020,-0.052974,0.437895,-0.297404,0.072612,-0.951986
0.355769,-0.325549,0.419044,-0.616642,-0.426258,-0.661858
0.047856,0.416656,0.411606,-0.637295,0.662546,0.393559
-0.022776,-0.087594,-0.239102,0.990837,-0.083232,0.106369
-0.718906,-0.201983,0.452407,0.874751,-0.055516,0.481381
0.145381,-0.082198,0.567556,0.953662,-0.128524,-0.272049
-0.437207,0.429207,0.474795,0.310295,0.145590,0.939426
0.513879,-0.610138,0.189039,0.331734,0.120385,-0.935660
0.127554,-0.199487,0.837086,-0.515056,0.554654,-0.653511
-0.781606,0.385480,0.542470,0.067828,-0.599932,0.797171
-0.585044,0.062423,0.538349,-0.381035,0.900975,0.207502
-0.421267,0.022205,0.551403,0.111281,-0.292511,0.949765
-0.733937,-0.049061,0.425134,-0.049518,-0.469065,0.881775
0.042870,-0.151773,0.557383,0.910575,-0.391890,-0.131434
-0.602872,-0.459506,0.358590,0.665391,0.557866,-0.496024
-0.088500,-0.091174,0.094565,-0.690442,-0.712900,0.122731
0.242000,-0.291670,-0.963647,-0.191743,0.052372,0.980047
-0.436298,0.647863,0.293686,0.089533,-0.853221,0.513807
-0.449745,-0.107571,0.697982,-0.247281,-0.901668,-0.354748
-0.176128,0.558242,0.341051,0.551031,0.229180,-0.802397
0.114259,-0.285800,-0.968314,-0.126366,-0.151901,0.980284
0.591386,-0.232014,0.329055,0.541456,0.838883,-0.055674
0.273881,0.075382,0.617509,0.499202,0.317078,-0.806386
-0.555053,0.353492,0.720552,0.960114,0.074456,0.269515
-0.414164,0.504589,0.777798,0.942026,-0.210666,-0.261165
-0.627650,-0.072478,0.571020,0.266230,0.961657,-0.065853
-0.234222,0.406532,0.283295,0.255363,0.171932,0.951435
-0.200681,-0.216898,0.658019,0.479119,-0.360924,0.800112
-0.704779,-0.365297,0.822538,-0.386041,-0.705467,-0.594381
-0.458810,-0.359089,0.262876,-0.200618,-0.259170,0.944766
-0.765441,-0.124241,0.732986,-0.126878,0.845924,0.517991
0.061530,-0.257997,0.127928,0.913616,0.368706,-0.171352
0.180131,-0.177417,0.699331,0.362755,-0.916674,0.167685
-0.628556,0.148403,-0.067255,-0.544156,-0.834323,-0.088310
0.588894,-0.260357,0.315783,-0.218195,-0.396006,0.891947
0.436750,-0.309756,0.401251,0.862046,-0.334751,-0.380550
0.240868,-0.020719,0.558002,-0.147426,-0.885844,0.439938
-0.708177,-0.377176,0.394104,-0.445175,0.876510,-0.183164
-0.521964,0.509853,0.444313,0.792763,0.348366,-0.500167
0.366874,-0.572140,0.166396,-0.203705,-0.089958,0.974891
-0.551805,0.348359,0.732585,0.965115,0.137197,0.223005
-0.360001,0.883655,-0.076808,0.176028,0.872890,-0.455057
0.138357,-0.105277,-0.972216,0.158042,-0.113832,0.980849
-0.340814,0.667771,0.305902,-0.498422,0.475346,0.724998
-0.530049,-0.404439,0.409382,0.947020,-0.239723,-0.213741
0.066440,-0.115871,0.264006,0.252812,-0.718806,0.647614
0.076789,-0.303483,-0.975862,-0.331136,-0.104456,0.937783
0.852312,-0.176948,0.343786,-0.675345,0.711953,-0.192437
0.505647,-0.121877,0.550601,-0.218988,-0.794631,0.566220
0.008499,-0.127680,-0.461304,0.971498,-0.032555,0.234801
-0.849518,0.117494,0.458497,0.154542,0.944990,-0.288290
0.421793,-0.806383,0.166214,-0.714252,0.011258,0.699798
-0.517054,-0.104264,0.691273,0.102035,-0.992357,-0.069405
0.132540,-0.424009,0.151191,0.836814,0.518623,0.175422
0.121057,-0.311511,0.696231,0.897244,0.429500,0.102385
-0.466365,0.064178,0.693460,0.882446,0.345544,0.319201
-0.830709,0.027535,0.450001,0.762928,0.419621,-0.491793
-0.066440,-0.370021,0.655394,-0.800666,0.120232,-0.586923
-0.359471,0.342152,0.280123,-0.699728,-0.628094,-0.340409
-0.555807,0.081589,0.516472,-0.553866,-0.545152,-0.629319
-0.013183,0.147995,0.798254,-0.510579,0.771124,0.380363
0.096959,-0.209475,0.736012,-0.490664,-0.742091,0.456673
-0.022022,-0.542582,0.541595,-0.008503,0.247685,0.968803
-0.269425,-0.023214,0.585495,0.319426,-0.905448,0.279519
-0.340360,-0.089959,0.535068,0.549103,0.233517,0.802469
-0.761814,-0.166621,0.425753,-0.338497,0.498986,0.797768
0.210651,-0.121407,0.727990,0.105162,0.028241,0.994054
0.115692,0.029356,-0.988879,-0.158603,0.165019,0.973455
-0.423079,-0.072614,0.636689,-0.353845,-0.226740,-0.907404
-0.216772,-0.027737,0.822100,0.307650,0.943016,0.126777
-0.680077,-0.224592,0.745857,0.950323,-0.096549,0.295911
-0.709613,-0.041907,0.440667,0.411423,0.622425,-0.665821
-0.659907,-0.194223,0.751071,0.052486,-0.600253,0.798086
-0.414694,0.406738,0.789612,0.176711,-0.129207,0.975745
-0.083664,-0.422188,0.533172,0.596526,-0.656839,-0.461214
-0.126272,0.002430,0.765401,0.240370,0.794775,-0.557275
-0.042192,0.001079,0.801790,0.236052,0.841194,0.486490
-0.667462,-0.402347,0.474066,-0.047992,-0.996673,0.065874
0.012653,-0.020245,0.790159,0.879782,0.322350,-0.349391
0.121207,-0.144824,-0.974185,-0.060693,0.063035,0.996164
-0.180056,0.059726,0.658931,-0.692686,0.717343,0.074870
0.227649,-0.142393,0.876429,0.859576,0.219323,-0.461549
-0.302664,-0.131800,0.954458,-0.690671,-0.715900,-0.102281
-0.833277,0.141722,0.498350,0.836902,0.172821,-0.519353
-0.692844,0.295451,0.484677,-0.561051,0.657487,0.502924
-0.044080,0.339046,0.438953,0.862587,-0.475477,0.172815
-0.518716,0.505062,0.334634,-0.653789,0.752191,-0.082273
0.014163,0.161629,0.651419,-0.542146,0.467888,-0.697967
0.285212,0.047780,0.684746,0.875402,0.374386,-0.305787
-0.605968,0.424013,0.629214,0.990495,-0.055585,-0.125816
-0.048688,0.311041,0.451970,0.725057,-0.434337,0.534457
-0.151654,-0.323188,0.446610,0.520088,0.262448,0.812791
-0.147272,-0.026184,0.462726,0.661792,0.667641,-0.341009
-0.003817,-0.415981,0.603945,0.578745,0.812493,0.070072
-0.212314,-0.378729,0.708483,0.118335,-0.896933,0.426039
-0.707423,-0.046092,0.610545,0.975473,-0.196370,-0.099456
0.161851,-0.062489,-0.953875,0.559644,0.115407,0.820658
-0.553843,-0.141178,0.289092,0.901592,-0.374798,-0.216008
-0.093787,0.376636,0.481541,-0.518502,0.776975,0.357024
-0.757810,0.143069,0.595996,0.748710,-0.385974,0.538942
-0.094467,0.106291,0.665202,-0.866825,0.361230,-0.343697
-0.179303,0.444122,0.658384,0.925189,-0.304478,0.226534
0.305910,-0.721148,0.132304,-0.045627,-0.406163,0.912661
-0.784098,0.268389,0.530072,-0.531078,0.639650,0.555701
-0.115695,0.344109,0.664692,0.542487,0.051394,-0.838491
0.396184,0.010124,0.648648,-0.525594,0.424394,-0.737320
-0.607178,0.167029,0.813750,-0.758629,0.283108,-0.586798
-0.643059,0.237213,0.857651,0.780637,0.384611,0.492625
-0.400567,0.280067,0.676979,-0.763158,0.611888,-0.207804
-0.423835,0.537726,0.804306,0.990925,-0.042889,-0.127391
0.230443,-0.189634,0.817688,-0.687125,-0.624434,0.371404
-0.004043,-0.269942,0.570400,-0.707745,0.705660,0.033797
0.635730,-0.505264,0.518623,-0.492825,0.536172,0.685305
0.140699,-0.038735,0.276513,0.283522,0.325239,0.902128
-0.656808,-0.305909,0.788153,-0.680914,0.693088,0.236613
-0.558829,0.185655,0.643361,0.261315,0.439644,0.859318
0.332576,-0.310906,0.353303,0.205155,0.386066,0.899369
-0.430256,-0.169657,0.550090,0.883894,0.044453,-0.465570
0.004192,-0.084357,-0.385426,-0.232438,0.914792,-0.330346
-0.605968,-0.309489,0.403329,-0.436556,0.857899,0.270978
-0.661493,-0.143675,0.459372,0.099066,0.451902,0.886550
-0.550671,0.202053,0.608649,0.766421,0.639804,0.057008
0.144777,-0.032795,-0.973893,0.008643,0.304040,0.952620
0.474521,-0.292078,0.242129,0.652879,-0.458794,-0.602708
-0.079433,0.538130,0.346119,-0.617387,-0.014835,-0.786520
-0.063118,-0.291266,0.681756,-0.002037,-0.417324,0.908755
-0.335903,-0.569780,0.357131,0.926939,-0.356248,-0.117775
-0.377375,0.198609,0.791435,0.338858,0.873435,0.349695
-0.416054,0.089621,0.025979,-0.297988,0.594905,0.746519
-0.629916,-0.231475,0.455762,-0.108015,0.340901,-0.933873
-0.717998,-0.120324,0.735392,0.060523,0.866687,0.495167
0.257564,-0.207383,0.267288,0.693468,0.695521,-0.188023
-0.207253,-0.336077,0.603435,0.735456,0.111836,0.668279
-0.536015,0.087125,0.722630,0.135389,-0.973707,-0.183204
-0.361209,0.234581,0.076407,0.902497,0.377917,0.206588
-0.622059,0.416183,0.302438,0.361966,0.754767,-0.547091
-0.490463,0.582536,-0.024266,0.894566,0.090909,-0.437593
-0.494392,-0.188147,0.855353,0.680139,-0.729861,-0.068660
-0.205817,0.302540,0.615467,-0.073068,-0.997106,-0.020975
-0.410086,-0.112024,0.704107,0.465752,0.618879,0.632506
-0.312559,-0.105343,0.856411,-0.618364,0.785287,0.030823
-0.315959,0.279457,0.931013,0.028269,-0.983283,0.179877
-0.392710,0.057229,0.047383,-0.323728,0.485054,0.812356
-0.186781,0.045082,0.689523,0.766229,-0.615508,-0.184507
0.264438,-0.125860,0.902682,-0.872071,0.223874,-0.435170
0.307194,-0.083006,0.736121,0.108591,0.670473,0.733945
0.296165,-0.096438,0.762338,0.345402,-0.935252,0.077471
0.459792,-0.444595,0.483036,0.546289,0.634948,-0.546269
0.677659,-0.189432,0.324607,-0.044528,-0.153326,0.987172
-0.481474,-0.092117,0.707535,0.144711,0.988566,-0.042384
-0.493333,-0.183493,0.836284,-0.281102,0.955110,-0.093523
-0.142437,0.082400,0.818454,0.210392,-0.668127,0.713682
-0.394296,0.413349,0.052415,0.711974,-0.074267,-0.698268
-0.515318,0.162708,0.733970,0.866738,0.386851,-0.314820
-0.548405,0.367056,0.448469,0.799459,-0.426731,-0.422808
0.107836,-0.385340,-0.978451,-0.292654,0.142136,0.945595
-0.570993,0.355650,0.765255,-0.117356,-0.530157,0.839738
-0.751011,0.283036,0.619661,0.610185,0.252031,-0.751102
0.077771,0.252733,0.735101,0.892572,-0.156323,0.422940
0.091670,-0.657782,0.123808,-0.316777,0.937884,0.141516
-0.795429,0.257795,0.487120,-0.130830,0.850863,0.508838
-0.088802,-0.523820,0.567775,0.705230,0.699147,-0.117658
-0.108744,-0.377650,0.686678,0.900640,0.337045,0.274314
-0.267461,-0.160006,0.491677,0.591119,-0.286757,-0.753889
-0.448159,0.908155,-0.095769,0.787691,0.391472,0.475702
-0.037962,-0.128018,0.000747,-0.773539,0.633687,-0.008866
0.617979,-0.493455,0.511659,0.799765,-0.094569,-0.592818
0.099981,-0.043122,0.813568,0.000755,0.458046,0.888928
-0.083212,0.319073,0.374013,0.555955,-0.048724,0.829783
0.199696,-0.585774,0.159906,0.898979,-0.076882,0.431192
-0.121361,0.063235,0.377988,-0.586659,-0.086523,-0.805199
-0.631578,0.326833,0.624911,-0.845017,0.046964,0.532674
-0.265271,0.212445,0.311152,0.341272,0.420580,0.840623
0.187609,-0.477325,0.207416,-0.732021,0.597631,0.327083
-0.068935,-0.393775,0.542834,0.448974,-0.649477,-0.613679
-0.535939,0.333580,0.424550,0.875944,0.417572,0.241567
0.109272,-0.165472,-0.863776,-0.141790,-0.954369,0.262822
-0.285666,-0.004588,0.479791,0.599713,0.794883,0.092219
-0.701909,0.081119,0.004977,0.012642,0.155598,0.987740
-0.011219,0.130992,0.788263,0.698770,-0.631557,-0.335941
0.101189,-0.201307,0.633699,0.783856,0.605659,-0.136920
-0.161323,-0.030233,0.779621,0.143362,0.986814,0.075136
-0.542740,-0.176474,0.557930,-0.404030,0.260202,-0.876957
-0.470821,0.089485,0.674099,-0.404285,-0.909521,-0.096565
-0.134882,-0.028005,0.469727,0.859692,0.495249,-0.125136
-0.793239,0.389191,0.418096,-0.185310,0.447370,0.874940
0.815977,-0.167095,0.288181,0.443499,-0.523380,-0.727586
-0.422475,0.454584,0.768938,0.259221,-0.785671,-0.561716
-0.633012,-0.354435,0.365919,-0.769868,-0.132367,0.624326
0.087364,0.307598,0.668630,0.898477,0.121893,-0.421759
0.018091,-0.077202,-0.348125,0.782688,-0.621939,0.024336
0.600527,-0.229922,0.354068,0.516076,-0.093217,0.851456
-0.066516,-0.122416,0.410220,0.744914,0.666941,-0.017098
-0.158151,0.198478,0.249713,0.593976,0.069113,0.801509
-0.436600,0.379338,0.484385,0.503056,0.862193,0.059647
-0.760680,0.203738,0.507867,0.032317,0.988986,0.144441
0.210047,-0.426777,0.308490,-0.611346,0.010001,0.791300
-0.714524,-0.246456,0.574338,-0.146666,0.905638,0.397881
-0.456016,-0.183831,0.732803,0.805951,-0.120619,0.579564
0.272521,-0.044675,0.642595,-0.732315,0.217045,0.645450
-0.158301,-0.104668,0.554356,-0.636969,-0.411357,-0.651964
-0.447555,-0.102575,0.274653,-0.084433,-0.901443,0.424584
0.412880,-0.498175,0.418534,0.388660,-0.191370,-0.901289
-0.293145,-0.021662,0.722995,-0.569456,0.819244,-0.067519
-0.068632,-0.219666,0.636798,-0.100558,-0.857242,0.504999
-0.256054,-0.133822,0.918944,0.903858,-0.220071,-0.366892
-0.423607,0.380216,0.478332,0.567648,0.783217,0.253668
0.219036,-0.214805,0.877742,0.875620,-0.260946,0.406443
0.245855,-0.648671,0.143826,-0.339110,-0.380193,0.860498
-0.660285,0.103387,-0.026198,0.219977,0.519533,0.825649
-0.261720,-0.267038,0.577401,0.695825,0.660801,-0.281372
0.034711,0.319073,0.629432,0.847796,0.123902,-0.515646
-0.335525,-0.022136,0.538094,-0.591088,-0.803138,-0.074725
-0.706441,-0.249491,0.632860,0.086947,-0.992251,0.088764
0.287024,-0.202119,0.266267,-0.524629,0.435304,0.731625
-0.803892,-0.303953,0.510966,-0.366090,0.930159,-0.027964
-0.184363,0.531585,0.271918,0.703159,-0.267917,-0.658626
-0.503456,-0.146780,0.760442,0.878123,0.243577,0.411790
0.014465,-0.104400,-0.269804,0.780132,0.621735,0.069567
-0.223418,-0.230598,0.540646,-0.618056,0.775798,-0.127062
-0.570011,0.357133,0.693388,0.939220,0.052207,-0.339323
-0.091898,0.080918,0.798071,-0.182958,0.508248,-0.841552
-0.597433,-0.259076,0.450912,-0.710378,-0.274231,-0.648198
0.983454,-0.127549,0.353522,0.949424,-0.313316,0.020695
-0.473240,0.051356,0.721573,0.478865,0.175112,0.860247
-0.401399,-0.174245,0.412846,0.816154,-0.563229,-0.129097
-0.560266,-0.000877,0.553117,0.261329,-0.001851,0.965248
0.183153,0.041503,0.644127,0.445077,0.383857,-0.809049
0.108668,-0.617222,0.110062,0.097894,-0.903384,-0.417509
-0.442419,0.907747,-0.086726,0.973215,0.059949,0.221942
-0.066818,0.097583,0.576453,-0.158266,-0.902683,0.400144
0.456694,-0.324605,0.396547,0.947355,0.074216,-0.311465
-0.147122,-0.010528,0.902974,0.479252,0.811733,-0.333778
-0.269501,-0.078352,0.316877,-0.450281,0.890856,0.060191
-0.193958,-0.243688,0.603982,-0.402487,0.677611,0.615507
-0.304326,0.202593,0.316804,-0.606688,-0.568664,-0.555473
0.139867,-0.099675,0.548960,-0.309222,0.947030,-0.086698
-0.199473,0.034958,0.722193,0.603051,-0.784354,0.145322
-0.441059,0.234647,-0.049680,-0.575700,0.805395,-0.141097
0.604834,-0.299228,0.292520,-0.528976,-0.161812,-0.833068
0.128762,-0.070455,-0.955662,-0.060848,0.050031,0.996892
0.587686,-0.129303,0.416018,-0.425418,-0.574384,0.699358
0.092576,-0.150224,0.818198,0.387646,-0.811864,0.436585
-0.599773,-0.346943,0.203333,0.820711,-0.113183,-0.560020
0.316637,-0.449789,0.215985,-0.039047,-0.722599,0.690163
-0.453146,0.494872,-0.019671,0.924145,0.289602,-0.249174
-0.039322,-0.437305,0.624619,-0.690854,0.414928,-0.592078
-0.356149,0.574776,0.270497,-0.625951,-0.779843,-0.005424
-0.374959,-0.129435,0.435051,0.921717,0.198053,-0.333486
-0.010313,-0.449114,0.618530,-0.030220,0.943262,0.330673
-0.577867,-0.297811,0.469472,0.945201,-0.195015,-0.261847
-0.297829,-0.448982,0.675302,0.760782,0.309717,0.570339
-0.313089,0.478338,0.797123,0.043786,-0.955294,-0.292397
-0.863872,0.179308,0.612441,0.347228,-0.860650,0.372443
-0.608008,0.049399,0.544475,0.893058,0.441522,-0.086641
0.114710,-0.339046,-0.975351,0.329487,0.003443,-0.944154
0.010537,-0.150561,0.488943,0.847595,0.288492,-0.445370
-0.556789,0.427119,0.283805,0.002653,-0.981937,0.189190
-0.275921,0.460726,0.733934,0.361245,-0.811234,0.459784
-0.381303,0.439533,0.785492,-0.764195,0.636335,0.105277
-0.637999,-0.322039,0.821298,0.989954,0.079766,0.116742
-0.585118,0.143003,0.571275,0.856263,0.474086,0.205075
0.243512,-0.278847,-0.962006,-0.154595,-0.058800,0.986227
0.053069,-0.218047,0.825491,0.920218,0.141415,0.364966
0.148404,0.178838,0.836649,0.064587,-0.753983,0.653711
-0.154600,-0.321837,0.380868,0.440627,0.895449,-0.063400
-0.652126,0.099338,0.550710,0.381480,-0.232876,0.894562
-0.796865,-0.129369,0.727990,-0.126878,0.845924,0.517991
-0.456318,-0.450263,0.433848,-0.493380,-0.651322,0.576503
-0.017490,0.314551,0.798983,-0.513976,0.838892,-0.179133
0.142133,-0.385883,-0.968351,-0.292979,0.040954,0.955241
0.746553,-0.318600,0.328617,0.450567,-0.892701,-0.008599
0.595315,-0.462950,0.237826,-0.391260,-0.831936,-0.393444
-0.524760,0.082940,0.757124,0.854742,-0.231723,0.464458
-0.222211,0.135243,0.808244,0.361976,-0.658895,0.659417
-0.006385,0.101298,0.811891,-0.598589,0.752228,0.275399
-0.778507,-0.125456,0.425170,0.013688,0.107935,0.994064
-0.716488,0.106225,0.484239,0.790263,-0.047375,0.610934
-0.628404,-0.173706,0.581703,0.805261,-0.473979,-0.356229
0.521284,-0.180251,0.396547,-0.190604,0.790202,-0.582453
-0.288461,-0.338775,0.514649,0.915116,0.111749,-0.387395
-0.279926,-0.316100,0.483291,-0.468811,0.856124,0.217411
-0.404117,-0.140503,0.446646,0.944843,0.309645,0.106733
-0.618357,0.459778,0.620973,0.795576,-0.452410,-0.402969
-0.203249,-0.032594,0.359063,0.795555,0.503344,0.337250
0.084872,-0.022337,-0.985014,-0.079891,0.110043,0.990711
-0.276751,0.027198,0.813750,0.773169,0.197302,0.602728
0.189424,0.158795,0.678657,0.291431,0.946064,0.141528
-0.684835,-0.053852,0.545860,-0.269546,0.496096,0.825368
-0.741114,0.289718,0.576234,0.774487,0.400368,-0.489770
-0.043400,-0.336818,0.656342,-0.523818,0.727167,-0.443670
0.147497,-0.024698,-0.975680,0.089312,0.385605,0.918331
0.051178,-0.094345,0.809703,-0.427607,0.048857,0.902643
-0.277432,-0.127479,0.458861,0.757216,-0.212308,-0.617697
0.203246,0.077610,0.601685,-0.226191,-0.244485,0.942902
-0.276602,0.636590,0.280888,0.300681,-0.213721,0.929470
-0.868178,0.116617,0.639715,-0.536011,-0.823622,-0.185304
0.014013,0.448916,0.467357,-0.544014,-0.396824,-0.739310
-0.475354,0.041709,0.913402,0.175822,-0.905303,-0.386670
0.358941,-0.012958,0.293614,0.322349,-0.905202,-0.276949
0.617299,-0.038937,0.430093,-0.204662,-0.098049,0.973910
-0.240569,-0.057769,0.494412,0.189813,-0.978473,0.080998
-0.574845,0.738832,-0.056061,-0.658975,-0.306283,0.686981
0.049064,0.281282,0.735137,-0.489616,-0.062126,-0.869722
0.653030,-0.110879,0.437968,0.002416,-0.801513,0.597973
0.062057,-0.448372,0.672823,0.439701,-0.798940,0.410314
0.748895,-0.291200,0.325445,0.731412,-0.157956,0.663390
0.078299,-0.187810,0.655321,0.011048,-0.995708,0.091894
-0.539114,-0.208124,0.823777,-0.576246,0.759418,-0.302035
-0.408500,0.402689,0.298718,0.928133,-0.356379,0.107532
-0.558982,0.225741,0.713004,-0.569335,-0.690203,0.446629
0.631424,-0.390538,0.322164,-0.803963,0.146711,-0.576298
-0.031843,0.353895,0.675521,-0.081510,0.281289,0.956155
-0.116601,-0.430690,0.589871,0.976824,0.131606,0.168805
-0.160795,0.059050,0.647846,-0.583250,0.770695,0.256611
-0.714146,0.187340,0.549215,-0.112727,0.525406,0.843351
0.061908,-0.143744,-0.978050,-0.419197,-0.227183,0.879012
-0.207027,-0.000675,0.615139,0.990527,-0.081229,-0.110718
-0.114334,0.068227,0.553007,0.992375,0.094023,-0.079698
-0.747159,0.347754,0.514466,-0.512041,0.661766,-0.547613
-0.419377,0.085370,0.509909,-0.704114,0.706769,-0.068567
-0.711730,-0.245982,0.425863,-0.067982,-0.432965,0.898844
-0.457300,0.514647,0.014530,-0.693214,-0.058586,0.718347
-0.564570,0.375829,0.758692,-0.445213,-0.806252,0.389542
0.148932,-0.031650,-0.968934,-0.560384,-0.666506,-0.491670
-0.378811,-0.029286,0.438333,0.459244,-0.685951,0.564417
0.660734,-0.224254,0.199978,-0.319356,-0.640252,0.698634
-0.623042,-0.333243,0.193561,0.532262,-0.323197,-0.782458
-0.661493,-0.060467,0.563982,-0.500095,0.000556,-0.865970
0.084192,-0.161086,-0.571640,-0.244787,-0.967403,-0.064894
-0.241852,-0.002360,0.779658,0.935252,-0.352727,-0.029795
-0.052995,-0.109326,0.047201,0.990442,-0.137781,-0.006419
-0.730387,-0.092657,0.588704,0.718515,-0.580997,0.382334
-0.744665,0.250171,0.574046,-0.414806,0.759820,0.500609
-0.418394,0.393915,0.532880,0.921573,-0.224218,-0.316907
-0.527405,0.112028,0.491422,0.499754,0.865897,0.021628
-0.468253,0.454382,0.762010,-0.009271,-0.921947,0.387205
-0.152710,0.396477,0.556945,0.211717,-0.027081,-0.976956
-0.299190,0.154001,0.876283,-0.679969,0.142400,0.719280
-0.458130,-0.235186,0.771636,0.830829,0.364802,0.420289
-0.553165,0.532058,0.443474,0.821995,-0.199606,-0.533368
0.556487,-0.558103,0.508815,0.523675,-0.565013,-0.637593
-0.531483,-0.384870,0.398188,0.833946,-0.320990,0.448887
-0.272597,0.360510,0.696487,0.362922,0.692753,0.623202
-0.192674,-0.035090,0.375654,-0.356022,-0.928171,0.108389
-0.066516,0.541235,0.280706,0.286980,-0.808232,0.514201
-0.031163,-0.105141,-0.100582,-0.497417,0.811668,0.306222
-0.271465,0.631532,0.327086,0.695976,-0.166856,-0.698410
0.015371,-0.134094,0.172558,0.638083,0.685512,0.350603
0.385003,-0.513024,0.386374,0.935174,-0.354183,-0.001989
-0.099529,-0.025645,0.285993,0.922124,0.231015,0.310355
-0.103004,-0.300105,0.523509,-0.621434,-0.364870,0.693318
-0.399811,0.339792,0.297150,0.630179,0.685755,0.364162
0.071275,-0.088674,0.720844,0.744250,0.393563,-0.539630
-0.053977,-0.118775,-0.045706,-0.061112,0.953949,0.293678
0.157770,-0.249829,0.657071,-0.295875,0.299586,0.907031
-0.854203,0.337901,0.537839,0.320794,-0.751292,0.576760
-0.623947,0.080308,0.538641,-0.339440,-0.757961,0.557023
-0.623420,0.067486,0.726386,-0.030164,-0.951586,0.305899
-0.505799,0.020784,0.826840,0.855721,-0.241152,-0.457806
-0.061154,0.015792,0.636761,0.736632,0.674181,0.053415
0.061679,-0.172899,-0.981732,-0.546613,-0.012608,0.837290
-0.440983,0.246460,0.485698,0.260471,0.959820,0.104404
-0.009935,0.547039,0.295692,-0.096237,0.994340,-0.045010
-0.261794,0.948105,-0.102769,-0.368385,0.382884,0.847167
0.204155,-0.655216,0.135111,0.337856,0.469580,-0.815689
-0.647140,0.319209,0.475816,-0.369020,-0.646175,-0.668044
-0.195392,-0.059857,0.566754,0.294197,-0.479139,0.826966
-0.013863,-0.283304,-0.986874,0.359651,-0.130818,-0.923871
-0.257564,-0.466797,0.657071,-0.680351,-0.406216,-0.610009
-0.422927,0.447495,0.041549,0.619380,-0.181465,-0.763832
-0.547044,0.024026,0.553992,-0.123029,-0.079569,0.989208
0.054957,0.220881,0.728282,-0.663712,0.742585,-0.089741
-0.108442,0.378527,0.850905,0.265384,0.845755,-0.462892
-0.636187,0.056826,0.540610,0.115137,0.782624,-0.611754
-0.207177,0.750575,0.220543,-0.507384,0.854275,0.113029
0.112672,0.041503,0.294015,-0.051170,0.711827,0.700489
-0.778812,0.180997,0.509726,-0.657838,0.604184,-0.449678
-0.430860,0.219937,-0.041804,-0.605797,0.784328,-0.133564
-0.158301,0.453637,0.690653,0.337861,-0.130399,0.932119
-0.283248,-0.281549,0.755848,0.576565,0.733130,0.360685
-0.076791,-0.080914,0.105322,0.814147,0.562405,-0.144449
-0.586026,-0.295789,0.365080,-0.394933,0.631457,0.667300
-0.491747,-0.241665,0.564930,0.380840,0.490355,-0.783909
0.166383,-0.078821,0.762921,-0.016508,-0.980393,0.196359
-0.498698,-0.237616,0.412773,-0.619464,0.728792,0.291763
-0.083816,-0.059655,0.159942,0.994478,0.102519,0.022455
-0.368234,0.312730,0.293833,-0.101036,-0.089177,0.990878
0.000642,-0.117358,0.523363,0.747366,0.406925,-0.525220
-0.390672,0.355448,0.278445,0.480028,0.657362,0.580903
-0.781228,-0.421715,0.435197,0.857824,-0.449080,0.249932
-0.331823,0.557159,0.261964,0.121798,-0.029781,0.992108
-0.517810,0.310436,0.463930,0.716769,0.380731,-0.584197
-0.144175,0.259954,0.702029,0.856504,0.367244,-0.362675
-0.273731,0.273587,0.924085,-0.479678,0.823676,0.302437
0.271689,-0.775544,0.116224,0.459278,0.558699,-0.690593
0.129972,-0.278378,-0.973273,0.101926,0.057975,0.993101
-0.937224,0.110945,0.452006,0.467739,0.233877,-0.852363
0.366648,-0.099811,0.753587,-0.372794,0.904538,-0.206966
-0.409482,0.460791,0.470821,-0.334739,0.764767,0.550528
-0.095525,0.517411,0.411460,-0.749095,-0.655018,-0.099038
-0.094391,0.211704,0.624656,-0.437966,0.560720,-0.702693
0.012729,0.582466,0.268309,-0.100853,-0.983689,-0.148942
-0.147726,-0.524026,0.566061,0.742141,0.533659,0.405505
-0.113731,0.091512,0.584620,0.342337,-0.611781,0.713113
-0.885252,-0.380751,0.431186,0.995038,0.092824,-0.035832
-0.111388,0.092253,0.792091,-0.540627,0.790380,-0.288134
0.108290,0.008975,-0.984941,-0.253602,0.166943,0.952794
0.079055,-0.379066,-0.980566,-0.183552,-0.091876,0.978707
-0.869538,0.078553,0.542871,-0.351647,-0.897372,0.266586
-0.410236,0.061818,0.946838,0.211544,0.975980,0.052087
0.173786,-0.060735,0.519462,0.534153,-0.818974,0.209672
0.048235,-0.026184,-0.984540,-0.100223,0.089348,0.990945
-0.476942,0.543056,0.278956,0.144919,-0.378922,0.914011
0.322453,-0.732892,0.138940,0.341781,0.522171,-0.781360
-0.136697,-0.027062,0.544803,0.964914,-0.257370,-0.051979
0.026402,0.377650,0.690799,0.072399,0.406285,0.910874
0.322453,-0.201917,0.286394,-0.360456,0.553322,0.750937
0.098923,-0.644284,0.107874,-0.394051,0.910340,0.126511
-0.185799,0.027466,0.322237,0.681618,0.482092,0.550440
-0.170842,-0.347886,0.593043,-0.275867,-0.518222,-0.809533
0.215184,-0.925496,0.102077,-0.807407,0.281626,0.518441
-0.169406,0.352408,0.268965,0.279474,-0.082431,0.956608
-0.394750,0.239709,0.743451,-0.191412,-0.751516,0.631336
-0.124231,0.073359,0.521285,0.950294,-0.306191,0.056467
-0.456242,0.029018,0.897905,0.580372,-0.786882,0.209727
-0.295185,0.021192,0.899619,0.687124,-0.363794,0.628899
-0.497036,-0.389862,0.514248,0.411194,0.389867,0.823968
-0.011369,0.418749,0.375071,-0.198806,0.115380,0.973223
0.238678,-0.267310,-0.965470,-0.156239,-0.002086,0.987717
0.752897,-0.327373,0.273486,-0.540249,0.629994,-0.557888
-0.609066,0.074237,0.555997,-0.201234,-0.810457,0.550149
-0.820284,0.157176,0.505023,-0.607250,0.738094,0.294050
-0.413484,0.383116,0.501814,-0.089356,-0.942378,0.322396
-0.679775,0.007221,-0.034585,0.449178,0.402844,-0.797468
-0.468103,0.375219,0.386629,0.986102,0.101879,0.131239
-0.444005,0.491498,0.277278,-0.291758,0.293420,0.910375
-0.344742,0.160212,0.079288,0.831649,0.475047,-0.287558
-0.493486,-0.167902,0.854624,0.674188,-0.724246,-0.144702
-0.085478,0.419223,0.386484,0.585965,0.614206,0.528579
-0.607554,-0.194087,0.730470,-0.601119,0.736097,-0.311155
0.229309,-0.405992,0.224845,0.146508,0.705390,-0.693513
-0.267309,-0.084962,0.894697,0.163620,0.944363,0.285320
-0.101265,-0.010392,0.549543,0.925185,-0.310405,-0.218361
-0.097035,-0.074368,0.309803,0.830441,0.530542,0.169979
-0.435694,0.641314,-0.037647,-0.454583,0.331766,0.826611
0.048839,-0.116007,0.167891,0.498087,0.582039,-0.642759
-0.107762,0.026522,0.563764,-0.790071,0.318162,-0.523985
-0.438640,0.258537,0.054311,0.782430,-0.537804,-0.313960
-0.404571,0.054663,0.905344,0.400601,0.870138,-0.287017
-0.509651,-0.243486,0.406355,-0.557912,0.741694,0.372322
0.096431,-0.162708,-0.761827,0.852007,-0.503237,0.144345
-0.328650,-0.120999,0.515670,0.749356,-0.604871,0.269438
-0.180285,0.580580,0.734262,0.695185,-0.003579,-0.718822
-0.268291,0.357269,0.726678,-0.490779,-0.871240,-0.008719
-0.727895,0.393376,0.440995,-0.024809,0.938674,0.343912
-0.519246,0.210085,0.800770,-0.567327,0.150602,-0.809604
0.304174,0.103794,0.646789,0.329491,-0.585403,0.740769
0.457676,-0.022605,0.631292,-0.638629,-0.046824,-0.768089
-0.212389,0.518087,0.700060,-0.597561,0.344854,-0.723876
-0.302814,0.836213,-0.058285,0.096963,-0.457753,0.883776
0.539490,-0.312796,0.335728,0.182279,0.945981,0.268132
-0.426855,0.445337,0.031850,0.767395,-0.548351,-0.332290
-0.550292,0.047307,0.769703,0.947142,-0.117297,0.298602
-0.649330,-0.133958,0.497548,-0.517682,0.814247,0.262692
-0.667612,-0.323592,0.364788,0.719492,0.014070,-0.694358
-0.093183,0.775746,0.263350,0.726139,-0.055588,-0.685298
-0.630368,-0.057497,-0.032543,-0.269912,-0.094736,0.958213
0.176354,0.118302,0.615722,-0.222074,-0.445035,0.867541
0.232862,-0.067416,0.599789,0.358139,-0.930161,0.080852
0.152936,-0.265016,-0.976227,-0.063117,-0.142768,0.987742
-0.292013,-0.022403,0.538459,0.224463,0.956182,-0.187970
0.793541,-0.267310,0.328836,0.408530,-0.336429,0.848480
0.579527,-0.446214,0.507612,-0.479286,-0.511914,0.712902
-0.474524,-0.159739,0.215839,-0.004655,-0.752153,0.658972
0.161699,-0.157444,-0.975060,0.016096,0.258051,0.965997
-0.196072,0.569442,0.263714,-0.615553,0.300927,0.728380
0.466289,-0.621407,0.201072,0.386761,0.176506,-0.905131
-0.374202,0.514309,0.791581,0.588812,0.800570,0.111301
0.090084,0.189165,0.616890,0.360151,-0.185884,-0.914187
0.131860,-0.269942,-0.970903,-0.025299,-0.011984,0.999608
-0.519170,-0.080308,0.785601,0.997495,0.070741,0.000443
0.968119,-0.117020,0.353631,0.801504,-0.492862,0.338643
-0.094769,0.548118,0.336274,-0.286912,-0.857138,-0.427781
0.241850,-0.353150,0.663489,-0.231553,0.547803,0.803925
-0.164495,0.342086,0.392609,0.482926,0.162433,0.860464
-0.592447,-0.217573,0.206213,-0.370348,-0.054916,0.927268
-0.358263,0.296464,0.069807,-0.671524,0.451655,-0.587421
-0.045818,-0.489876,0.626151,0.186734,-0.936697,0.296191
0.024438,-0.106896,-0.215620,0.807242,0.589406,-0.030997
0.587534,-0.396206,0.217444,-0.459957,0.306755,-0.833271
-0.632484,-0.228979,0.740935,0.368437,-0.571872,-0.732951
-0.271389,0.076935,0.912016,-0.583167,-0.133262,-0.801347
0.502926,-0.065055,0.625713,0.895693,-0.313972,0.314891
-0.802154,0.471254,0.528030,0.970697,0.195658,0.139519
0.251217,-0.371508,0.299995,0.812507,-0.582258,0.028430
-0.589500,-0.294034,0.747717,-0.030165,0.968938,0.245458
-0.481777,-0.113037,0.736668,-0.659232,-0.685021,-0.310096
0.639659,-0.503847,0.286868,-0.788764,-0.614696,-0.000557
-0.255902,-0.093468,0.688137,-0.613725,0.607740,-0.503978
-0.731369,0.378053,0.567519,0.451575,0.888125,-0.085523
-0.432220,0.120596,0.595267,0.797815,0.542340,0.263360
-0.592069,0.125053,0.500829,-0.296768,-0.588041,0.752421
-0.357659,0.159401,0.485588,0.866224,-0.032919,-0.498570
-0.519094,0.004457,0.519790,0.942700,0.032416,0.332062
0.527479,-0.241262,0.436583,-0.092522,0.896659,0.432947
-0.051483,-0.115871,0.011978,0.878622,-0.473828,-0.059249
-0.508971,0.090634,0.001914,0.439307,-0.396512,-0.806094
-0.240870,-0.518354,0.231153,0.977710,-0.045886,-0.204883
-0.038868,0.333651,0.807187,0.236242,-0.800972,0.550122
-0.057753,-0.009515,0.815281,-0.686143,0.190441,-0.702097
-0.122493,-0.028816,0.293614,0.838186,0.364361,0.405815
-0.414618,0.594481,0.268418,0.297210,0.278746,-0.913218
-0.317621,0.291064,0.716869,-0.305888,0.221233,0.926007
0.217072,-0.915371,0.069734,0.686705,-0.392831,-0.611653
-0.414694,0.539209,0.324424,0.252299,-0.917065,0.308766
0.126571,-0.606089,0.140471,-0.173270,0.950851,-0.256633
-0.513201,0.660414,-0.046654,-0.424026,0.236760,0.874155
-0.205289,0.411125,0.671656,-0.732990,0.643681,-0.220001
0.619565,-0.337090,0.560664,0.362724,0.810006,-0.460784
-0.011747,0.257593,0.412080,0.829315,-0.168492,0.532773
0.608686,-0.197596,0.247270,-0.332546,-0.857601,-0.392345
-0.633164,-0.187406,0.542251,0.443750,-0.826696,-0.345919
-0.405099,0.360103,0.069880,-0.084673,0.422206,0.902537
-0.317999,-0.042244,0.605258,0.849375,0.138681,0.509245
-0.374959,0.205764,-0.067838,-0.180852,0.974793,0.130657
-0.176960,0.561077,0.720479,0.868166,-0.216718,-0.446455
0.072635,0.067622,-0.997010,0.254060,-0.115872,-0.960223
-0.701757,-0.337897,0.806129,0.360948,0.602548,0.711795
-0.501190,0.045284,0.739367,-0.467878,-0.745176,-0.475187
-0.383495,0.167972,0.552716,0.455268,-0.886117,0.086759
-0.207403,0.004457,0.444094,-0.024823,0.999408,0.023817
0.100131,-0.161221,-0.674099,0.153140,0.966060,0.208029
-0.269727,-0.089621,0.307105,-0.346979,0.908036,0.234681
-0.506933,0.899382,-0.034658,0.766756,0.565003,0.304724
0.082078,0.413958,0.367377,-0.260392,0.482488,0.836302
-0.427157,0.369688,0.061859,-0.788276,0.137024,0.599871
-0.281134,0.210826,-0.060181,0.495518,0.857976,-0.135420
-0.202871,0.023688,0.753150,0.734374,-0.591428,0.333028
-0.223040,0.285734,0.596398,0.867727,0.407777,0.284197
-0.652502,0.369753,0.463820,-0.342626,0.288688,0.894017
-0.321550,-0.227694,0.722193,0.928463,0.209515,-0.306692
-0.086158,-0.118030,-0.057082,-0.055615,-0.998437,-0.005586
-0.681511,0.040762,-0.026235,-0.363064,-0.493376,0.790421
0.679925,-0.090362,0.452335,-0.056714,-0.866923,0.495205
-0.566006,-0.359024,0.515998,-0.107028,0.323895,0.940020
0.056619,-0.343297,-0.976409,-0.243892,-0.052043,0.968405
-0.323664,0.565529,0.261928,-0.472350,-0.804218,0.360720
-0.535713,0.047578,0.744544,0.685989,0.433128,0.584653
0.244342,-0.174245,0.256458,0.592334,0.402235,-0.698103
-0.142135,0.443718,0.661884,0.974415,-0.222789,0.029658
-0.022852,0.280944,0.553736,0.492571,-0.466125,-0.734916
-0.334089,0.589757,0.320705,-0.095933,0.855681,0.508534
0.097411,-0.212647,0.541667,0.941692,0.302720,0.146890
0.024966,-0.284585,0.777543,0.126110,0.992001,-0.005476
-0.115241,0.203470,0.787789,0.991819,-0.008358,-0.127381
0.062134,-0.144890,0.181820,-0.539470,0.097004,0.836398
0.034485,-0.375895,0.425243,0.119624,0.989861,-0.076581
-0.345572,-0.308072,0.690799,-0.378945,-0.871144,-0.312265
0.299566,-0.599338,0.172887,0.284960,0.134126,-0.949109
-0.001398,0.107102,0.813385,-0.561476,0.773517,0.293967
-0.103986,0.034080,0.249203,0.988195,0.146085,-0.046155
0.165853,-0.023754,0.565878,-0.761993,0.255917,0.594872
-0.017338,-0.388849,-0.988551,-0.112239,-0.021041,0.993458
-0.415146,0.592591,-0.009426,0.752413,-0.475712,-0.455602
-0.433730,0.872521,-0.048513,-0.705563,-0.550872,-0.445782
-0.423155,0.038669,0.735137,0.934215,-0.349664,0.070554
-0.126272,0.134094,0.744763,-0.183252,-0.568909,0.801724
0.092729,0.599544,0.195384,0.293833,0.809973,0.507548
-0.194486,-0.306115,0.452006,-0.477029,0.238672,-0.845860
0.085702,-0.310230,0.454304,-0.334262,-0.420998,-0.843225
-0.030029,0.537388,0.252593,0.376242,-0.918724,-0.119951
-0.018170,0.378461,0.672568,-0.233399,0.458625,0.857431
-0.495221,0.523215,0.002753,0.939038,0.226288,-0.258846
0.028215,-0.100281,-0.970247,0.555766,-0.207912,-0.804920
-0.507235,0.567622,0.384295,0.981147,-0.132530,-0.140667
-0.480944,0.064112,0.753150,0.471212,0.725312,-0.501878
-0.342852,0.202996,0.033053,0.974499,0.220563,0.041280
-0.682871,0.092929,0.575687,0.091491,-0.678753,0.728645
0.358867,0.231137,0.695794,-0.623583,0.767043,-0.150963
-0.035467,-0.128088,-0.173324,0.815210,-0.561031,-0.143793
-0.355393,-0.181602,0.594137,0.457319,0.296502,-0.838419
-0.649784,-0.252329,0.771089,-0.072244,0.611006,0.788323
0.597279,-0.439599,0.326284,-0.502441,0.161865,-0.849325
-0.098169,-0.035024,0.915480,0.194748,0.976071,-0.096737
0.818243,-0.199754,0.322164,-0.696250,0.717765,0.007002
0.002152,-0.231611,-0.992270,-0.514870,0.179684,0.838226
0.256656,-0.168174,0.744872,-0.681700,0.501589,-0.532629
-0.542286,0.579229,-0.038923,-0.420015,-0.099293,0.902069
-0.001926,-0.384331,0.595158,0.841689,0.513578,0.166722
0.174240,-0.202926,0.756322,0.521897,0.666883,-0.531876
-0.570993,0.354975,0.766531,-0.117356,-0.530157,0.839738
0.215938,-0.152382,0.238446,0.684728,0.630483,-0.365566
-0.028141,0.387572,0.807296,0.488392,0.856902,0.164903
-0.556715,0.485291,0.308855,0.911668,-0.176132,0.371266
-0.441135,0.395670,0.048841,0.733898,-0.461680,-0.498242
-0.109576,0.152246,0.408726,0.564148,-0.511997,0.647762
-0.463269,0.505672,-0.001768,0.907653,0.376901,-0.184692
-0.705383,-0.208260,0.227945,-0.577933,0.096384,0.810373
0.674106,-0.338573,0.511732,0.948874,-0.260335,0.178504
-0.201587,0.366516,0.678365,0.060595,0.225399,0.972380
-0.824212,0.113577,0.475269,-0.648536,-0.748920,0.136084
-0.056619,-0.112836,-0.054894,0.179573,-0.978777,-0.098741
-0.492427,-0.039950,0.514795,0.741147,0.511220,0.435150
-0.041512,-0.074434,-0.244462,0.982012,0.179012,0.060061
-0.219038,0.837090,-0.053910,0.711137,-0.443136,-0.545815
0.133672,-0.199960,-0.902755,0.243640,0.969054,-0.039675
0.816429,-0.127343,0.382618,0.155218,-0.965190,0.210512
-0.006535,-0.101698,-0.172267,0.808228,-0.530987,-0.254599
0.049442,-0.415371,0.589944,0.250670,0.967937,-0.016191
-0.311577,0.273653,0.900239,-0.699621,-0.628524,-0.339835
-0.603854,-0.097583,0.368362,0.894312,0.153465,0.420303
0.050574,0.527062,0.342984,-0.080282,0.880399,0.467389
-0.600380,0.026386,0.470675,-0.030995,-0.414125,0.909692
0.028062,0.478066,0.353376,-0.805534,0.588495,0.069199
0.077921,-0.118030,-0.613353,0.865731,0.493158,-0.085469
0.052539,0.473478,0.667098,-0.282361,0.000456,0.959308
-0.280606,-0.099609,0.626771,0.237101,0.334997,0.911899
-0.336583,0.013160,0.823084,-0.810094,0.480832,-0.335483
-0.422249,0.027198,0.718219,0.844024,0.536035,0.017045
-0.102626,0.322175,0.805108,-0.200796,0.564609,-0.800561
0.089630,-0.070723,0.287889,0.168874,-0.241802,0.955517
-0.456544,0.483870,0.045961,-0.729160,0.082512,0.679350
-0.038944,-0.350114,-0.992999,-0.226845,0.079751,0.970660
-0.372994,-0.601026,0.291134,0.874725,-0.469592,-0.119745
0.081547,-0.058848,0.548158,-0.133991,-0.787557,0.601498
-0.594637,-0.506611,0.371971,0.614513,0.410282,-0.673826
-0.680757,-0.423943,0.185430,-0.539253,0.312736,-0.781922
0.259904,-0.084357,0.344989,-0.589429,0.792491,0.156624
0.160262,-0.678834,0.130590,-0.073516,-0.574660,0.815084
-0.769745,-0.421850,0.390348,-0.334581,0.523801,0.783382
-0.375789,-0.040897,0.685804,0.964222,-0.134918,0.228195
0.210725,0.152382,0.234180,0.327860,0.495435,0.804395
-0.655448,0.180729,-0.068276,0.925781,0.369874,-0.078252
0.124760,-0.053922,-0.976299,-0.120624,0.273567,0.954259
-0.262928,-0.206843,0.598330,0.407578,0.791552,0.455330
-0.695184,-0.256848,0.644564,-0.081753,-0.937685,0.337733
0.012653,0.279729,0.631037,0.573039,0.629958,-0.524194
-0.009859,-0.087866,0.144482,0.641663,0.728745,-0.239164
-0.585874,0.379470,0.437130,0.384421,0.722627,0.574483
-0.108518,0.048860,0.631219,-0.089487,-0.596107,0.797902
-0.076337,-0.364082,0.664363,-0.523380,-0.099298,-0.846294
-0.022022,-0.197394,0.753769,-0.483219,0.415826,-0.770447
0.932540,-0.098193,0.327196,0.360183,0.930702,0.063739
-0.681437,-0.378391,0.390385,-0.707211,0.380436,-0.595920
-0.180889,0.494736,0.336348,0.481902,0.726927,-0.489232
-0.055033,-0.133146,-0.129715,0.966439,-0.183862,0.179417
-0.104892,0.085976,0.732803,0.169979,0.984454,-0.044253
-0.005175,-0.109866,-0.326794,0.581229,0.807505,0.100540
0.750255,-0.253137,0.320268,0.242583,-0.331317,0.911802
0.540017,-0.357471,0.342473,0.138407,0.172064,0.975314
-0.371482,0.148535,0.479754,0.867227,0.339287,-0.364420
-0.926043,0.100421,0.562050,0.203497,0.972054,-0.117049
-0.047405,0.430694,0.707972,0.987729,0.034364,0.152348
0.506629,-0.149750,0.251098,-0.572915,-0.806247,0.147426
-0.452164,-0.474153,0.245739,-0.422272,0.774175,0.471529
-0.051031,-0.093872,-0.308928,-0.575870,-0.817534,0.003392
-0.782512,0.280606,0.493756,0.952331,0.282457,-0.115259
-0.344364,0.199487,0.079470,0.929787,0.338580,-0.144430
-0.420737,0.980905,-0.175621,-0.726596,-0.409333,-0.551819
0.559132,-0.561278,0.516545,0.606695,-0.469747,-0.641295
-0.556715,0.623228,0.277461,-0.005110,0.135810,0.990722
0.004720,-0.185989,0.242056,-0.702102,0.118671,-0.702118
-0.135864,0.359024,0.835628,0.183852,0.511065,-0.839649
-0.751011,0.220069,0.516982,-0.366332,0.926040,0.090831
-0.154372,0.013972,0.485843,0.900810,-0.411394,0.138908
-0.703117,0.083751,0.724308,0.006219,-0.999120,0.041484
0.247441,-0.800241,0.089278,-0.675050,-0.494067,0.547910
-0.339301,0.602917,0.272830,0.230053,-0.417747,0.878956
-0.198716,-0.015183,0.030756,0.758984,-0.063720,0.647983
-0.670256,-0.457282,0.367888,0.240845,-0.127486,0.962154
0.576807,-0.234581,0.433301,-0.553325,-0.729587,-0.401914
-0.507159,0.161629,0.599096,-0.311993,0.721164,0.618533
-0.062664,0.273452,0.391588,-0.785781,-0.159969,-0.597459
0.061982,-0.174855,-0.651273,0.331988,-0.938600,-0.093884
-0.677206,-0.392696,0.257552,0.720108,-0.692961,-0.035348
0.214504,-0.210419,0.872236,0.952713,-0.218201,0.211487
-0.717168,0.013901,-0.025615,-0.483802,-0.478343,0.732887
-0.243137,0.477395,0.273268,0.154543,0.146365,0.977084
0.280378,-0.316845,-0.959235,-0.066704,0.057487,0.996115
-0.405630,-0.270078,0.784835,-0.506173,-0.862424,-0.003716
-0.367178,-0.348022,0.277351,0.419050,0.582030,-0.696877
-0.096431,-0.052299,0.366575,0.980818,0.136759,-0.138899
-0.654920,0.184032,-0.032980,0.654233,0.723255,0.221091
-0.683325,0.207791,0.507575,0.471829,0.734870,-0.487180
-0.539188,-0.056620,0.547647,-0.256983,0.532518,0.806464
0.573635,-0.112564,0.428780,0.481376,0.588013,-0.650014
0.034409,-0.207045,0.660207,0.057774,-0.986187,0.155234
0.109876,0.106492,0.758108,-0.548516,0.816081,-0.182051
0.488801,-0.249158,0.461596,0.461257,-0.872519,0.161098
-0.515467,0.723311,-0.052269,-0.125326,0.023648,0.991834
0.358639,-0.207857,0.736596,-0.402593,0.487790,-0.774583
-0.460396,0.445811,0.456017,0.586899,-0.146255,-0.796341
-0.456696,0.083414,0.716286,0.793426,0.474805,0.380835
-0.546214,0.764410,-0.035861,-0.079047,-0.392956,0.916153
0.565854,-0.240248,0.394359,-0.580883,-0.811917,0.058021
-0.512823,0.231677,0.717890,0.742937,0.253154,0.619643
0.010915,0.545688,0.300104,-0.163185,-0.964111,-0.209429
0.109046,-0.146306,0.806968,0.105183,-0.838226,0.535083
-0.469085,0.394587,0.737872,0.956538,-0.163032,0.241775
0.142359,-0.094477,-0.962845,0.180453,-0.042396,0.982670
-0.288461,0.601702,0.718437,-0.684026,-0.654158,-0.322777
-0.163665,0.544745,0.649961,0.966131,0.049318,-0.253295
-0.388708,-0.129233,0.796467,0.726606,-0.681340,0.088426
-0.208235,0.411458,0.777689,0.599021,0.800329,0.025459
-0.271767,-0.083953,0.906948,0.585275,0.720833,0.371285
-0.742398,-0.415441,0.391916,-0.299507,0.533923,0.790710
0.740056,-0.235796,0.337369,-0.109511,-0.324704,0.939455
0.477468,-0.367999,0.337405,0.320433,0.410412,0.853748
-0.070597,0.354435,0.693862,0.091159,0.745553,-0.660183
-0.471956,0.269674,0.472936,-0.284629,0.362044,0.887643
-0.087820,-0.079900,0.306266,0.957801,0.286651,-0.021165
-0.086308,0.429751,0.379920,0.404224,0.668407,0.624367
-0.076111,0.368402,0.470894,-0.089198,-0.653296,0.751830
-0.394070,-0.241192,0.752712,0.350037,0.875433,-0.333304
-0.783042,-0.003237,-0.093508,0.735058,0.665860,-0.127747
0.553767,-0.415779,0.348672,-0.342466,0.868793,0.357654
-0.764306,0.171956,0.486354,-0.267041,0.288997,-0.919331
0.438488,-0.337428,0.392755,0.821905,0.553137,0.136057
-0.260208,0.180861,0.333759,0.371742,0.359404,0.855942
0.269045,-0.018828,0.635194,0.788581,-0.108369,-0.605307
-0.388028,0.780672,-0.046544,-0.454105,-0.522139,-0.721914
0.568724,-0.093600,0.362929,-0.350063,-0.886641,0.302198
-0.484421,0.026860,0.713588,0.497499,0.830832,0.249425
-0.433580,0.528681,0.043883,0.990975,-0.132242,-0.021922
-0.846724,-0.129303,0.450183,0.277155,-0.389072,0.878526
-0.081096,0.520921,0.461013,0.611143,0.791485,0.007472
-0.755318,-0.370157,0.385863,0.410124,-0.605090,-0.682396
-0.665345,-0.297543,0.758291,0.171153,0.710410,0.682660
-0.106856,0.026386,0.742721,-0.166829,-0.267781,0.948927
-0.160417,0.524702,0.299630,0.852738,0.243135,0.462302
-0.039774,-0.291130,0.237790,0.090012,0.397088,0.913356
-0.576733,-0.019302,0.732694,-0.670463,0.558088,-0.488893
-0.520000,-0.469025,0.388817,0.751817,0.303795,-0.585219
-0.595771,-0.384396,0.427613,0.276983,-0.904181,0.325171
0.147950,-0.389323,0.684454,0.829320,-0.103311,-0.549140
-0.668518,-0.046495,0.570291,0.482773,-0.028106,0.875294
-0.049820,-0.139086,-0.032032,0.362795,0.925644,0.107534
0.461906,-0.747403,0.163552,0.855542,-0.183360,-0.484177
0.132766,-0.135984,-0.971851,0.285597,0.014981,-0.958233
-0.184363,0.537322,0.416237,0.111853,0.981084,0.157996
0.550745,-0.404036,0.344296,0.977245,0.144274,-0.155489
-0.486913,0.552439,-0.020000,0.859220,-0.258462,-0.441518
-0.170540,-0.222096,0.760551,0.155766,-0.485260,0.860384
-0.668140,0.085844,0.433338,-0.470014,0.031836,0.882084
-0.573033,0.389393,0.436619,0.503443,0.632445,0.588692
-0.036449,-0.089889,0.008076,0.820567,-0.538975,0.190199
0.019452,-0.355312,0.510310,0.416670,-0.698060,0.582321
0.253257,-0.012011,0.651784,0.851569,-0.034450,-0.523109
-0.499906,0.782295,-0.089242,-0.252179,0.897785,-0.361092
-0.568122,0.754896,-0.101785,-0.415730,0.861156,-0.292540
-0.221304,-0.001685,0.048440,-0.454203,-0.776430,0.436870
-0.174770,-0.014577,0.435853,-0.084971,0.806602,0.584955
-0.700549,0.340060,0.565806,-0.451007,-0.885605,-0.110887
-0.444081,0.263735,0.524275,-0.550454,0.199532,-0.810671
-0.560946,-0.092521,0.224372,0.565905,0.748484,-0.345721
-0.166535,0.058444,0.676542,0.738525,-0.671901,-0.055948
-0.265118,-0.018828,0.845254,0.217055,0.202440,-0.954937
-0.407667,0.836283,-0.114000,-0.334646,0.300970,0.892989
-0.080342,0.192740,0.657217,-0.143494,0.829991,0.539003
-0.263380,0.570591,0.316913,0.247356,0.227929,-0.941734
-0.128386,-0.091845,0.277534,0.824932,0.499863,0.263862
-0.246611,-0.118302,0.982498,0.244063,0.944623,-0.219364
-0.155129,-0.487853,0.275783,-0.446135,0.359654,-0.819520
-0.518868,0.771631,-0.053910,-0.029027,0.112760,0.993198
-0.674184,0.060875,-0.003446,-0.057543,-0.289936,0.955315
-0.281738,-0.072210,0.851015,-0.560324,0.095906,-0.822703
-0.425345,0.090025,0.018213,0.418691,-0.348358,-0.838656
0.116525,0.147929,0.819730,0.351520,0.830275,-0.432525
0.086156,-0.133554,0.824178,0.368816,0.811784,-0.452750
-0.408122,-0.400053,0.486062,0.345205,-0.398110,0.849907
-0.904287,-0.066538,0.485771,-0.347543,-0.795036,0.497124
-0.771181,-0.359967,0.431551,0.945933,0.101648,-0.308023
0.038338,-0.148873,-0.682777,-0.387920,0.915042,-0.110527
-0.272447,-0.401606,0.639423,0.727300,0.211621,0.652880
0.546438,-0.222701,0.357642,-0.713908,-0.519350,-0.469693
-0.210651,-0.303887,0.525515,-0.584904,0.353638,-0.729950
-0.808273,0.365639,0.532880,0.857667,-0.459814,0.230171
-0.520606,-0.221083,0.423602,0.653929,0.251788,0.713428
-0.825270,0.356865,0.551804,-0.411962,0.497742,-0.763243
-0.199018,-0.463893,0.281836,0.344007,-0.419423,0.840085
0.155958,-0.198609,0.717890,-0.426971,0.902580,0.055187
-0.133296,0.065933,0.497439,0.989864,-0.139559,-0.026307
-0.616545,-0.453571,0.363476,0.524276,0.519603,-0.674646
-0.687556,-0.047372,0.613243,0.806140,0.488978,-0.333225
-0.352672,0.207993,0.849046,0.432570,-0.275758,0.858394
-0.879509,0.080040,0.466701,0.080103,-0.985369,-0.150439
-0.738320,0.078689,0.446501,0.244586,0.968836,-0.039164
0.011067,-0.145499,0.764890,-0.176674,-0.485480,0.856210
-0.160719,0.007558,0.595851,0.431706,-0.829630,0.354040
-0.370124,0.200298,0.536927,0.850321,0.525042,0.035845
-0.456696,0.850386,-0.068713,0.769949,0.138483,-0.622897
-0.267235,0.347482,0.604018,0.409360,0.397245,0.821353
-0.482304,-0.490753,0.407157,-0.509171,-0.189723,0.839494
0.595845,-0.419288,0.361361,-0.424399,0.616423,0.663255
-0.448083,0.822785,-0.076225,0.776237,0.140208,0.614653
0.201132,-0.450601,0.222184,0.395772,0.112087,-0.911483
0.252879,-0.768455,0.111192,0.449315,0.664266,-0.597383
-0.429121,0.929952,-0.081803,0.060461,0.951811,0.300666
-0.061908,-0.041503,0.169860,0.873605,0.464374,0.145505
-0.433806,-0.081453,0.551622,-0.186121,0.010997,0.982465
-0.745195,-0.146644,0.778782,-0.415728,0.514279,0.750125
-0.825950,0.197666,0.487813,-0.617569,0.325912,0.715814
-0.629614,-0.279119,0.765218,0.110795,0.673887,0.730480
-0.509349,-0.303347,0.483109,-0.070037,0.601660,0.795676
-0.216922,0.398232,0.545350,0.831984,0.337217,0.440554
0.168649,0.516196,0.660352,-0.587387,0.182585,0.788441
0.073011,-0.164393,0.679751,0.263631,0.939843,-0.217242
-0.573107,0.967473,-0.014311,0.690684,0.717269,-0.092091
-0.571747,-0.483331,0.383858,-0.393981,-0.055192,0.917460
-0.397169,-0.322109,0.255219,-0.523042,-0.392126,0.756746
-0.386592,-0.057361,0.458679,-0.191218,-0.092494,0.977180
-0.476790,-0.042380,0.640809,-0.318228,0.548721,-0.773070
0.127554,-0.602781,0.091466,-0.071477,0.902756,0.424172
-0.540322,-0.028952,0.730397,0.036944,0.865661,0.499265
0.066590,-0.117020,-0.606024,0.905921,0.412834,-0.094213
-0.357507,0.341884,0.319174,-0.092954,-0.388587,0.916711
0.190707,0.002768,0.603034,0.525272,-0.062204,-0.848657
-0.349122,-0.259348,0.659149,0.055080,0.997402,0.046426
