-0.200286,0.192369,0.681440,0.949654,-0.312980,-0.014181
0.467849,-0.840433,-0.918044,-0.518194,0.259295,0.815010
-0.045492,0.077344,0.479583,0.377430,0.923612,-0.066986
0.530105,-0.905950,-0.932758,0.614904,0.650908,-0.445211
0.358070,-0.426674,-0.973601,0.057348,0.149029,0.987168
0.496527,-0.207123,0.461606,0.332988,0.939758,0.077286
-0.189636,0.477866,0.700497,0.874019,0.347364,-0.339748
-0.196755,0.462003,0.567656,0.950128,0.311714,-0.009527
-0.035573,0.028158,0.251898,-0.583370,-0.812181,0.006428
0.352003,-0.083822,-0.346327,0.399643,0.579661,-0.710126
-0.099214,0.214074,0.685694,0.426880,0.863888,0.267340
0.534368,-0.043479,-0.850423,0.937376,0.116884,0.328123
0.551471,-0.428891,-0.942594,-0.459542,0.251865,-0.851696
0.180025,0.166543,0.852216,0.868305,0.450610,0.207355
0.323148,0.485704,0.718042,-0.700924,-0.695443,0.158321
0.184195,-0.575860,-0.965638,-0.123885,0.937224,-0.325980
0.407269,-0.684689,-0.950543,0.945008,0.177319,0.274806
0.228751,-0.669664,-0.954727,-0.595233,0.782833,0.181301
0.653920,-0.229414,-0.950498,0.551939,0.155891,-0.819184
0.460712,-0.765186,-0.945676,-0.474084,-0.029213,0.879995
0.606525,-0.089419,-0.901135,0.434506,0.363157,-0.824210
0.388475,-0.635219,-0.951338,0.262501,0.266997,-0.927257
-0.519157,0.259451,0.313015,-0.071516,-0.122314,0.989911
-0.156530,-0.414757,-0.981655,0.749164,0.555635,-0.360587
0.168996,-0.536892,-0.963550,0.351970,0.752057,0.557250
0.810041,-0.139386,-0.926988,0.254929,-0.667571,0.699543
0.016031,0.098858,0.517990,-0.292246,0.434862,0.851756
0.907373,-0.013116,-0.943856,-0.417922,0.363609,0.832544
-0.296933,0.191264,0.351635,0.764482,0.609782,-0.209123
0.280566,0.064250,0.879372,0.608475,0.622934,0.491642
0.417612,0.514952,0.757856,0.522630,-0.808461,-0.270645
0.290179,0.362642,0.925120,0.196219,0.867862,0.456414
-0.035665,0.057872,0.452261,0.636524,0.684973,-0.354471
-0.261360,0.610177,0.930345,-0.479668,-0.609985,0.630743
0.094878,-0.408152,-0.960235,-0.277347,0.903034,-0.328036
0.191340,-0.478102,-0.974893,0.974907,0.212480,-0.066393
0.065148,0.194834,0.607231,-0.010999,-0.938402,0.345370
0.245657,-0.565947,-0.952822,0.938777,-0.157600,-0.306365
0.714986,-0.308127,-0.879314,-0.421178,0.498411,0.757757
-0.200945,0.215079,0.687711,0.183731,-0.888374,-0.420755
0.055110,-0.425908,-0.963755,-0.492232,-0.313560,-0.812027
-0.149370,0.164231,0.570661,0.748863,0.662177,0.026944
0.731090,-0.318130,-0.902496,0.964129,-0.209708,0.162719
-0.310797,0.618538,0.880293,0.910014,-0.260254,0.322711
0.104296,0.639581,0.679320,0.164897,-0.342502,0.924933
0.000862,-0.361853,-0.976074,0.554468,-0.062294,-0.829870
0.123801,0.010250,0.001786,-0.591657,-0.805840,0.023759
0.012275,0.470774,0.791273,0.889873,0.255032,-0.378266
0.532505,-0.733470,-0.933567,0.288242,0.486122,0.824986
0.362887,0.018733,0.034683,-0.423927,0.836662,-0.346819
0.340201,0.398976,0.922103,0.126709,0.091344,-0.987725
0.648851,-0.373163,-0.939451,0.413825,0.430954,-0.801890
0.576819,-0.803763,-0.946768,-0.301396,-0.873321,0.382715
0.631608,-0.644775,-0.932180,-0.108219,-0.030188,0.993669
-0.176407,0.278105,0.398926,0.897034,-0.281153,0.341004
0.474971,-0.237274,0.441512,-0.453530,0.891179,0.010491
0.408696,-0.234295,-0.770615,-0.221373,0.973212,-0.062069
0.187717,0.166055,0.828180,0.105585,0.993763,0.035861
0.806052,-0.096887,-0.932224,-0.603804,-0.011462,0.797051
0.542224,-0.359084,-0.934137,0.448506,-0.893688,0.012819
0.449977,-0.963551,-0.961274,-0.122960,0.144264,-0.981870
0.655649,-0.240848,-0.895094,0.269671,0.808315,0.523358
0.389794,-0.439535,-0.924782,-0.552052,0.771640,0.315926
0.343897,-0.687470,-0.956210,0.839052,0.356104,-0.411318
0.078599,-0.325266,-0.954002,-0.611408,0.393422,0.686586
0.215402,0.444847,0.706932,0.394264,0.732202,-0.555371
0.640573,-0.578751,-0.960147,-0.107448,-0.615159,0.781047
0.666810,-0.551350,-0.889977,-0.740989,0.656281,-0.142230
0.784652,-0.051258,-0.964729,-0.106487,0.436326,0.893465
0.267200,0.019305,0.886601,0.949180,-0.131381,0.286002
0.558046,-0.711057,-0.929073,-0.023827,0.715964,0.697731
0.001501,0.027852,0.147461,-0.059630,0.879028,0.473027
-0.292707,0.317227,0.347618,0.255071,0.962065,0.096799
0.230329,-0.234384,-0.955164,-0.054418,0.234352,0.970628
0.359198,-0.163995,0.415256,0.942291,0.243998,-0.229243
0.225852,-0.108780,-0.332643,0.611749,0.320574,-0.723184
0.374920,-0.382844,-0.956559,0.533886,0.833336,-0.143238
-0.032484,0.178548,0.483314,-0.267368,0.545657,0.794212
0.781838,-0.019885,-0.945195,-0.289919,0.404645,0.867300
0.284430,-0.165836,-0.363626,-0.196069,0.955036,0.222402
0.154593,-0.078210,-0.107737,-0.408324,0.912739,-0.013402
0.003977,0.013684,0.224548,-0.708201,0.624031,-0.330208
0.344332,0.031399,0.179486,0.726499,0.664625,-0.174567
0.356707,0.059359,0.833395,-0.234728,0.828345,0.508673
0.172946,0.353873,0.938534,0.841300,-0.533102,0.089532
-0.139864,-0.544375,-0.964023,0.324417,0.410271,0.852310
0.176033,-0.457839,-0.975608,0.447490,0.612843,0.651288
0.478769,-0.521868,-0.956373,-0.507384,0.711870,0.485595
0.669706,-0.211056,-0.869342,0.881733,-0.388728,-0.267280
-0.010981,0.057058,0.302167,0.503745,0.840993,-0.197414
0.241499,-0.171148,-0.464084,0.880206,-0.048683,-0.472087
0.296614,-0.140238,-0.097371,0.523282,-0.822072,0.224439
0.825856,-0.401621,-0.875757,0.357059,0.376796,0.854713
0.194855,-0.335463,-0.973574,0.102121,-0.462832,0.880544
0.180998,0.393526,0.894083,0.888418,-0.277772,-0.365453
0.652029,-0.633574,-0.916287,0.658546,0.605139,-0.447352
-0.298922,0.646948,0.949421,0.213019,-0.449149,-0.867691
0.359117,-0.835103,-0.964378,-0.202490,0.118632,0.972072
-0.343718,0.425497,0.892051,0.279256,0.937724,0.206617
-0.125504,0.102254,0.504905,-0.222167,-0.841683,0.492150
-0.199401,0.376584,0.452251,0.247687,-0.539143,0.804969
0.408183,-0.283717,-0.930206,0.914160,-0.385213,-0.126188
0.687850,-0.434212,-0.877758,-0.007446,-0.397562,0.917545
0.504769,-0.615518,-0.944169,0.319163,0.731137,-0.602971
-0.358979,0.563882,0.884082,0.945588,0.097323,0.310471
-0.113853,-0.484759,-0.951915,0.873919,-0.178114,-0.452262
0.441878,0.172984,0.873576,0.054353,-0.982334,-0.179070
0.522904,-0.140924,-0.962584,0.066572,-0.851109,0.520751
0.143567,0.192351,0.845322,0.827950,0.550070,-0.109191
0.688017,-0.451595,-0.927352,-0.543492,0.342547,0.766340
-0.028756,0.623477,0.702752,-0.101390,0.303551,0.947405
0.342595,-0.631217,-0.963638,-0.560432,0.358309,0.746680
0.343926,-0.583564,-0.958308,0.828133,0.500376,0.252626
0.619415,-0.293597,-0.885210,0.564028,-0.738652,-0.369142
0.465657,-0.635359,-0.962864,0.187655,-0.007375,0.982207
-0.931604,0.645766,0.669347,-0.016299,0.297688,0.954524
0.411194,-0.355583,-0.959148,0.002351,0.865508,0.500889
0.537941,-0.807915,-0.946503,0.415224,0.407641,-0.813276
-0.010416,0.050515,0.438701,0.986917,-0.109372,-0.118462
0.149855,0.278246,0.808284,0.205089,-0.824056,0.528081
0.443639,-0.726976,-0.939361,-0.255403,0.709590,-0.656697
0.003535,-0.415970,-0.959935,-0.777029,0.347054,0.525147
-0.073324,0.113615,0.520339,0.142669,0.954083,0.263382
0.550384,-0.724383,-0.953823,-0.224655,0.914627,0.336138
0.001451,-0.517418,-0.960966,0.757858,-0.646253,-0.089486
-0.310328,0.390625,0.729839,-0.623069,0.781345,-0.035846
0.272631,-0.747222,-0.934375,-0.509001,-0.283182,0.812850
0.209243,0.351610,0.932854,-0.266380,0.029612,-0.963413
0.268867,-0.215007,-0.968853,0.473356,0.278637,-0.835641
0.452869,-0.668342,-0.948871,0.058285,0.561512,0.825413
0.110277,0.328510,0.808534,-0.148679,0.867616,0.474486
0.230796,-0.649870,-0.952621,0.618050,-0.159873,0.769711
0.681285,-0.372395,-0.923815,0.572698,-0.810921,-0.120099
0.603923,-0.470017,-0.935251,-0.160704,0.287720,0.944135
0.429082,-0.214677,-0.969289,0.756008,-0.005317,-0.654541
0.527651,-0.217371,0.454857,-0.077412,-0.996465,-0.032623
0.759056,-0.119884,-0.951646,-0.517082,-0.234227,-0.823264
0.142105,-0.403657,-0.959929,0.586906,-0.757435,0.286066
0.238351,-0.070062,-0.282191,0.910758,0.327725,0.251230
0.433317,-0.848440,-0.953978,-0.506280,0.089064,-0.857758
0.004187,-0.633435,-0.967282,0.798486,0.348617,-0.490801
0.326514,0.452716,0.852185,-0.736795,-0.096864,-0.669142
0.669800,-0.171602,-0.861335,-0.313243,-0.940203,0.133781
0.355254,0.074877,0.831374,-0.214791,-0.775714,0.593408
-0.090762,0.043196,0.503740,-0.233344,-0.814792,0.530721
-0.083084,-0.503490,-0.978230,-0.117733,-0.949695,-0.290203
0.460392,0.462744,0.909326,0.226077,-0.038611,0.973344
0.088318,0.116744,0.165182,0.520329,-0.780016,-0.347610
0.283681,-0.373245,-0.604199,-0.736717,-0.660452,-0.145090
0.630398,-0.198492,-0.888020,-0.234552,0.900289,-0.366694
-0.104577,0.244005,0.589488,0.731088,0.621668,0.281139
0.309113,0.349926,0.941002,0.384814,-0.909247,-0.158706
0.010382,0.188927,0.291322,0.236628,-0.906884,-0.348667
-0.139717,-0.471134,-0.964764,-0.214708,-0.828705,0.516864
0.005255,0.152750,0.275141,-0.393871,0.504885,-0.768087
0.243941,-0.529168,-0.948871,0.730828,0.089801,0.676629
-0.333782,0.527426,0.725442,0.957631,-0.118140,0.262652
0.293447,0.167831,0.833570,-0.272151,0.164163,0.948148
0.527308,-0.805574,-0.944313,-0.794989,0.597096,0.107094
-0.188097,0.248288,0.442426,0.780641,0.373736,-0.500919
-0.031042,0.184129,0.640539,0.496039,-0.859305,0.124664
-0.024009,0.135839,0.327241,0.602680,0.195447,0.773678
-0.119763,0.198666,0.569897,-0.394882,-0.513615,-0.761753
0.082297,0.604371,0.712591,-0.007411,0.480982,0.876699
-0.069522,-0.390892,-0.972384,0.960387,-0.229158,0.158569
0.539371,-0.674936,-0.934786,-0.412349,-0.003035,0.911021
-0.847771,0.233334,0.505666,-0.758073,-0.643183,0.107895
0.701355,-0.347709,-0.905765,0.442882,-0.896338,-0.020839
0.754712,-0.337828,-0.908668,-0.328113,0.944315,0.024735
0.774375,-0.413783,-0.891074,0.831994,0.013052,-0.554632
0.153239,0.291923,0.862732,0.970547,-0.083179,-0.226095
0.616047,0.155657,0.856157,0.782251,0.555821,-0.281332
0.531407,0.135572,0.883620,-0.005282,0.984785,0.173695
0.029605,0.152286,0.599214,0.989740,0.101125,0.100937
-0.029898,0.737768,0.918258,0.924378,-0.176443,0.338222
-0.103164,0.322586,0.377994,0.884701,0.443643,-0.143127
0.694709,0.009270,-0.964780,0.292460,0.198755,-0.935395
-0.366505,0.499768,0.813146,-0.400043,-0.914368,0.062419
-0.082085,-0.452552,-0.959963,0.334177,-0.583830,-0.739911
0.758746,-0.241373,-0.954209,0.634255,0.465654,-0.617161
0.370801,-0.765767,-0.956131,-0.689563,0.091711,-0.718395
0.415889,0.100598,0.259517,0.689309,-0.693973,-0.207976
0.915967,0.082198,-0.945247,-0.403074,0.899568,0.168253
0.064748,-0.388417,-0.972795,0.872791,0.372735,-0.315127
-0.110310,-0.352793,-0.959997,0.631533,0.402568,-0.662650
0.573396,-0.602318,-0.943342,0.903140,0.182600,0.388582
-0.410738,0.923367,0.892189,-0.062874,-0.565721,0.822197
0.478314,-0.502591,-0.944973,-0.189930,0.973557,-0.126938
-0.096009,0.191412,0.561627,0.489689,0.513263,0.704816
-0.271052,0.134039,0.696740,0.409758,0.877413,0.249491
0.828374,0.062255,-0.970322,0.068738,0.603826,0.794147
0.255877,0.166063,0.855765,-0.667967,0.295808,0.682874
0.662866,0.004216,-0.934838,0.756337,0.634399,0.159664
0.301235,-0.458641,-0.956383,0.812253,-0.555043,0.179367
-0.031463,0.052685,0.511653,0.856642,0.384937,-0.343494
0.501770,-0.601688,-0.935251,-0.059124,0.099031,0.993326
-0.438255,0.343921,0.444352,-0.629211,-0.709963,0.316302
0.147277,0.224520,0.851253,0.764759,0.628797,-0.140566
0.140338,-0.549111,-0.970467,0.897904,0.101046,0.428436
-0.306845,0.668756,0.882714,0.958884,0.188743,0.211938
-0.130486,0.165695,0.315715,-0.589129,0.264894,0.763386
0.141344,0.378484,0.950604,-0.678604,-0.401836,0.614838
0.506126,-0.208477,-0.956254,0.506258,0.648302,-0.568689
0.070738,0.034079,0.124319,-0.173968,-0.153959,0.972642
-0.059863,-0.366901,-0.972798,-0.487373,0.831154,-0.267677
0.303106,-0.630545,-0.948985,0.448564,0.077146,-0.890415
0.275116,-0.528083,-0.972036,0.834004,0.373145,-0.406448
0.289250,-0.009234,-0.081792,0.084624,-0.820336,0.565587
0.143813,-0.063654,-0.079191,-0.456121,-0.638179,0.620227
0.314005,0.019328,0.849024,-0.432403,-0.895145,-0.108366
0.495383,0.093064,0.909205,-0.656194,0.524369,-0.542630
0.270780,-0.286843,-0.955880,0.797586,-0.529058,0.289749
0.039760,0.169802,0.591375,0.311334,0.828106,-0.466166
0.545725,-0.587371,-0.935560,0.103511,0.536394,-0.837596
0.387146,0.366318,0.853998,0.431019,0.808451,0.400786
0.613282,-0.027313,-0.810022,0.802765,0.130175,-0.581914
0.343403,0.575679,0.716540,0.042755,0.931484,0.361262
0.621920,-0.244495,-0.875812,-0.564305,0.410029,0.716544
-0.219213,0.465819,0.603289,0.666028,0.738211,0.107008
-0.185313,0.522509,0.724564,0.598527,0.356881,0.717218
-0.090772,0.128354,0.576605,0.643336,0.610045,0.462563
0.126526,0.270101,0.858610,0.966711,0.003009,-0.255853
-0.943864,0.700331,0.679143,-0.052431,0.346713,0.936505
-0.234246,0.196521,0.372247,0.357339,0.845110,-0.397616
0.254224,-0.047933,-0.233300,0.293466,-0.690223,0.661415
-0.217279,0.301765,0.433655,-0.629471,-0.708474,0.319111
0.542605,-0.529538,-0.953702,-0.293916,0.664965,0.686611
0.560792,-0.697036,-0.937468,-0.745948,-0.655700,-0.116700
0.552884,-0.340186,-0.970962,0.791935,0.164469,0.588038
-0.007003,0.052658,0.577935,-0.126307,0.949634,0.286779
0.155327,0.325079,0.927158,-0.206836,0.940059,0.271123
0.390535,0.312804,0.853630,-0.077447,0.165908,0.983095
0.133552,-0.235770,-0.976784,0.396587,0.103101,0.912189
-0.129891,0.233058,0.366297,0.039982,-0.603392,0.796442
0.694785,-0.609381,-0.929554,0.973967,0.115624,-0.194986
-0.098544,0.002203,0.749019,0.333239,0.639451,-0.692859
0.271581,-0.488333,-0.920736,-0.642590,-0.573562,0.508041
0.440982,-0.654525,-0.961112,-0.531831,0.398847,-0.747046
0.321637,0.519250,0.675088,0.925526,-0.299348,-0.231934
0.336755,-0.655665,-0.948010,-0.088432,-0.020714,0.995867
0.240390,-0.025199,-0.146061,-0.361645,-0.884646,-0.294303
0.109309,0.182196,0.603012,0.438129,-0.126906,0.889909
0.178369,-0.411663,-0.980289,-0.113494,-0.224226,0.967906
0.005655,0.003758,0.166076,-0.072824,0.951747,0.298118
0.761045,-0.394806,-0.938889,0.902448,0.297285,0.311784
0.127079,-0.117341,-0.030478,0.876959,0.394301,-0.274716
0.306359,0.101617,0.841091,0.312369,-0.681678,0.661620
-0.843204,0.261046,0.507918,0.739906,0.667385,-0.084484
0.399042,0.090196,0.285342,0.712217,0.698022,0.074241
0.092654,0.345354,0.814900,-0.070695,0.997266,-0.021501
0.459571,-0.199652,-0.928848,-0.742557,-0.196028,0.640454
0.217957,-0.035144,-0.290565,0.893254,-0.437882,0.101770
0.615710,-0.019128,-0.942712,-0.276857,0.486599,0.828596
-0.147081,-0.476545,-0.987762,0.705465,0.708625,-0.013036
0.387978,-0.132600,-0.967321,0.487915,0.625042,0.609312
0.158536,0.411621,0.816418,-0.654084,0.744921,0.131404
-0.284444,0.811798,0.908076,-0.047400,-0.685045,0.726957
-0.264347,0.456841,0.929137,-0.490326,0.838015,-0.239400
0.827402,-0.191613,-0.955265,0.062899,-0.351628,-0.934024
0.263940,-0.436653,-0.946088,-0.503070,0.716997,0.482531
-0.778128,0.967435,0.654732,-0.273161,0.258009,0.926722
0.421001,-0.285164,0.443989,-0.644123,0.716056,0.269016
0.676662,-0.279740,-0.882222,0.783874,0.587394,-0.201272
0.233990,0.138180,0.333342,0.826242,-0.505417,0.248755
0.207135,-0.296268,-0.984931,-0.449562,0.115373,-0.885767
0.304292,-0.337975,-0.947697,-0.121603,0.181391,-0.975864
0.580787,-0.629738,-0.940936,0.827636,-0.155256,0.539365
0.384837,-0.701793,-0.941294,0.329287,0.717027,-0.614363
0.254629,-0.297561,-0.447570,-0.738689,0.647723,0.186532
0.362123,0.022120,0.875923,-0.557476,0.715881,-0.420398
-0.152231,0.185831,0.272595,0.401329,0.826244,-0.395292
0.010094,0.145651,0.633909,0.291032,0.836413,0.464450
-0.313235,0.446541,0.759938,0.659883,0.603615,0.447441
0.328437,0.101730,0.856760,0.755925,-0.066330,0.651289
0.102782,0.056795,0.078550,0.750931,0.607467,-0.259010
0.547261,-0.817715,-0.924499,0.413398,0.172946,0.893975
0.262455,-0.129695,-0.979255,0.185260,-0.362111,0.913539
0.132046,0.306105,0.815390,0.382033,0.854890,-0.351017
0.695734,-0.722023,-0.929666,-0.338710,-0.172162,0.925006
-0.262743,0.191896,0.350071,0.524020,-0.836416,0.160660
0.369484,-0.332680,0.554982,0.369221,-0.926354,0.074465
0.703139,-0.313498,-0.965556,-0.228062,-0.148143,0.962310
0.359821,-0.635836,-0.936254,0.321873,0.558766,-0.764315
-0.423604,0.596830,0.893804,-0.374066,-0.518400,-0.768984
-0.195426,0.219542,0.387168,0.355296,0.877907,-0.321004
0.308094,-0.398242,-0.974853,-0.435766,0.232904,0.869404
0.469956,-0.132180,-0.940704,-0.432949,-0.298390,0.850599
0.095862,-0.520569,-0.960051,0.331433,0.943453,-0.006991
-0.035614,0.154269,0.423600,0.954624,-0.265699,-0.134525
0.483241,-0.908843,-0.946442,-0.520832,-0.254175,0.814941
0.312058,0.026631,0.867797,0.914172,0.298982,-0.273677
0.310975,-0.586648,-0.942376,-0.259809,0.217065,-0.940947
0.541528,-0.782832,-0.935096,-0.623092,0.641248,-0.447837
0.080383,0.340534,0.826133,-0.453435,0.668203,0.589832
-0.126879,0.119006,0.653318,0.957383,-0.288096,-0.020449
0.581036,-0.432892,-0.968027,0.551063,0.030209,0.833917
0.197327,0.185245,0.357797,0.712455,0.032932,0.700945
0.385560,-0.157940,0.359563,0.431726,0.896229,-0.101910
-0.079715,-0.423602,-0.975686,-0.499516,0.232072,0.834641
-0.021143,0.212978,0.600041,0.430289,0.718668,-0.546230
0.179881,0.450336,0.720805,0.022452,-0.146586,0.988943
0.154117,-0.642438,-0.949053,0.453053,0.873046,0.180373
-0.244902,0.446773,0.869935,-0.747759,-0.513942,-0.420381
0.227399,-0.268494,-0.453221,-0.624239,0.777818,0.072974
0.455300,-0.415524,0.550038,-0.745248,0.421287,-0.516839
0.392508,-0.066967,0.353555,0.055111,0.703806,0.708251
0.669423,-0.561156,-0.916892,-0.040695,0.998281,0.042181
0.224673,0.288957,0.906996,0.729781,0.601828,0.324380
0.420178,-0.586257,-0.949410,0.082446,0.061146,0.994718
0.444672,-0.737181,-0.946606,-0.085600,-0.429276,0.899108
0.200372,-0.543536,-0.956707,0.613270,0.475259,0.630896
0.380218,-0.779288,-0.945672,0.415758,-0.907432,-0.060931
0.332161,-0.688763,-0.949737,0.833202,-0.366960,0.413661
0.815930,-0.385251,-0.932487,0.721793,0.038766,0.691022
0.946646,0.124349,-0.969551,0.753565,-0.569141,0.328965
0.531389,-0.053393,-0.861536,-0.771480,0.373716,0.514933
0.650211,-0.195312,-0.922548,-0.243729,0.741289,0.625369
-0.158058,0.096116,0.353982,0.782403,0.606770,-0.140270
0.171911,0.148509,0.865041,0.847392,0.467454,-0.251822
0.399065,-0.747076,-0.946860,0.228678,0.198091,0.953135
-0.128713,0.348044,0.457184,0.914420,0.110500,0.389391
-0.483791,0.365755,0.398074,0.355533,-0.855807,0.375753
0.341468,0.653047,0.728069,0.117026,0.836562,0.535228
-0.621221,0.606638,0.661092,-0.739893,-0.671178,0.045592
-0.125362,0.215474,0.272805,0.344895,0.164929,-0.924038
-0.020970,0.280755,0.398123,0.560871,0.685468,-0.464282
0.709446,-0.604625,-0.949983,-0.446232,0.819829,-0.358829
0.344044,-0.446924,-0.943209,0.090216,0.988272,0.123206
0.649604,-0.058137,-0.959946,0.786524,-0.257577,-0.561279
-0.129639,0.520414,0.661128,-0.741637,-0.648517,-0.171465
-0.059461,0.083879,0.317409,0.986787,-0.136956,0.086568
0.396803,-0.277163,-0.970157,-0.603330,-0.125314,-0.787584
0.028849,-0.388316,-0.961685,0.587331,0.360004,-0.724872
0.152536,0.461789,0.701485,0.566947,0.758887,-0.320408
0.198737,-0.481725,-0.976976,0.850497,0.306561,0.427406
-0.098621,0.427317,0.600273,0.981705,-0.055339,-0.182191
-0.543776,0.177402,0.329025,0.038789,-0.991159,0.126881
0.010732,-0.621066,-0.943543,-0.167234,-0.444230,0.880166
0.387926,-0.709167,-0.934366,-0.078739,0.162728,0.983524
-0.138589,0.360308,0.534101,0.553405,-0.682114,-0.477979
0.070176,0.091570,0.312051,0.924475,0.367072,-0.102982
0.402346,-0.168822,-0.853337,0.381786,0.362028,0.850397
0.264244,-0.278972,-0.952145,0.903579,-0.321063,-0.283659
0.515972,0.194849,0.943614,-0.642927,-0.396930,0.655051
0.175036,-0.408389,-0.755780,0.843489,-0.030748,-0.536266
0.440327,0.152460,0.213589,0.857496,0.194970,0.476117
0.354573,-0.140652,0.364381,0.011867,-0.996051,0.087984
0.427693,-0.312733,-0.943432,0.388392,0.612223,0.688719
0.264793,-0.701508,-0.949948,-0.016049,-0.743013,0.669085
0.282938,0.295764,0.935922,-0.149431,0.960757,-0.233702
-0.284402,0.509589,0.814003,0.890783,0.434229,-0.133980
0.457173,-0.706534,-0.935242,0.850198,0.475782,-0.225376
0.242418,-0.337502,-0.759448,-0.601166,0.613344,0.512258
-0.159032,-0.370839,-0.970817,-0.861673,0.475588,0.177017
0.770874,-0.415858,-0.950639,0.601186,0.748140,0.280823
0.043201,0.015273,0.119011,-0.438720,-0.897039,0.053352
0.532498,0.054765,-0.840853,-0.500354,-0.795677,-0.341386
0.468944,-0.412236,-0.958095,-0.470016,0.570411,0.673584
0.531871,-0.314579,-0.961253,0.862910,-0.021194,0.504914
0.185316,-0.013573,-0.221060,0.691125,-0.721644,-0.039707
-0.065829,0.104266,0.301117,-0.477561,0.135932,0.868019
0.316610,0.190189,0.208425,-0.383210,0.907756,-0.170676
0.043369,0.062738,0.542975,0.880926,0.123654,-0.456814
0.171542,0.305636,0.820983,-0.324747,-0.522632,0.788286
-0.365763,0.954016,0.925488,0.412177,0.538511,-0.734926
0.081694,-0.278416,-0.960913,0.808013,0.025826,0.588599
0.648877,-0.099239,-0.858605,-0.539265,-0.703785,0.462471
0.423536,-0.116935,-0.947397,-0.434623,-0.055025,0.898930
0.577899,-0.661856,-0.935292,0.345816,-0.719400,-0.602391
0.000505,0.064202,0.556927,0.061889,-0.841628,0.536499
0.642768,-0.400137,-0.934608,-0.517103,0.006989,-0.855895
0.227552,0.184347,0.867823,0.331513,0.779826,0.531009
0.618996,-0.273577,-0.930372,0.465110,0.733081,-0.496250
0.171473,-0.322070,-0.655386,0.463393,0.886018,0.015475
0.333509,0.555517,0.731659,-0.685301,-0.672202,0.280191
-0.233072,0.843713,0.789906,0.967365,-0.060184,0.246135
-0.012463,0.095456,0.324913,0.477257,0.017192,-0.878595
0.020187,-0.351264,-0.950370,0.099356,0.348763,0.931930
-0.142227,0.398102,0.561530,0.903463,-0.158490,-0.398291
0.485409,-0.822257,-0.932439,-0.656077,0.238022,-0.716176
0.179615,-0.489231,-0.800738,-0.603424,-0.745253,0.283686
0.620220,-0.174348,-0.862173,-0.493858,0.693209,0.524943
-0.116668,0.287204,0.594843,0.849029,0.394683,0.351247
0.455534,-0.223134,-0.962917,-0.491005,-0.868359,0.069766
-0.328805,0.127213,0.721766,0.811952,-0.375156,0.447205
0.093985,0.079873,0.128748,0.439905,-0.832925,0.335739
-0.016472,-0.451444,-0.978079,0.467837,0.217741,0.856573
0.946697,0.084600,-0.956716,0.101306,-0.637374,0.763866
0.730193,-0.448494,-0.884130,0.886683,-0.386130,-0.254356
0.195215,-0.503664,-0.950929,0.937034,0.104921,-0.333106
-0.370718,0.456785,0.936295,0.443156,-0.338755,0.829974
0.040240,-0.015954,0.488332,-0.158832,-0.963514,-0.215435
-0.343509,0.541951,0.896682,0.987763,0.154773,-0.019238
0.173887,-0.532881,-0.959054,-0.138635,-0.832477,0.536435
0.294521,-0.461002,-0.912529,0.747691,0.662398,0.046769
0.480112,-0.330116,0.502654,-0.052502,0.936130,0.347712
-0.254051,0.203469,0.319073,0.998225,-0.049382,-0.033294
0.707078,-0.457072,-0.903218,0.493591,0.636544,0.592604
-0.346601,0.934968,0.917132,0.649289,0.439708,-0.620548
0.326206,-0.286104,-0.962775,-0.012758,0.047708,0.998780
0.742288,-0.487894,-0.896010,0.432957,0.813662,0.387947
0.033762,-0.595909,-0.950209,0.274174,-0.903207,-0.330219
0.213742,0.166012,0.867116,-0.226305,-0.932449,-0.281646
0.059108,0.088716,0.260591,0.945780,-0.157918,-0.283835
0.363643,-0.109244,-0.156998,0.934747,-0.337014,-0.112559
0.057674,-0.538626,-0.963026,0.667887,-0.735140,-0.116174
0.325220,0.016549,-0.150850,-0.539339,0.775403,0.328427
0.610080,0.166586,0.936554,0.667697,0.673750,-0.316609
0.154093,0.343643,0.810553,0.211094,-0.973393,-0.089134
0.196411,-0.025411,0.122479,0.726925,0.568083,0.385826
-0.243213,0.182581,0.329512,-0.379130,-0.704302,0.600183
0.511606,-0.330843,-0.964202,0.311207,-0.101570,-0.944899
-0.840846,0.954816,0.633782,-0.070211,0.384591,0.920413
0.513492,-0.879527,-0.938651,0.578076,0.333809,-0.744580
0.332679,0.193585,0.851093,0.788617,0.314559,0.528334
-0.162253,0.186164,0.626969,0.879493,0.451280,-0.151126
0.382420,-0.081261,0.333581,-0.677980,0.732388,-0.062850
0.180570,0.124765,0.359509,0.314266,-0.636509,0.704339
-0.245311,0.413427,0.697756,0.843024,-0.473959,0.254310
0.664608,-0.581715,-0.898124,-0.550228,-0.809554,0.204627
0.244992,0.114530,0.851846,0.543746,-0.038025,-0.838388
0.207537,-0.226083,-0.359067,0.822776,0.498876,-0.272328
0.418259,-0.187339,-0.948535,0.790314,-0.327679,-0.517716
0.208480,-0.357733,-0.956930,-0.096296,0.990931,-0.093721
0.598057,-0.559058,-0.953040,0.426866,-0.044348,-0.903227
0.145470,-0.285229,-0.974326,0.433162,0.873155,-0.223543
0.408875,-0.406207,-0.946402,0.883074,0.305404,0.356242
-0.128372,0.136436,0.484076,0.055516,0.978882,0.196744
-0.026609,0.183835,0.298568,0.575411,0.325814,0.750165
-0.259628,0.260571,0.368008,0.741886,0.670209,0.020629
0.557708,-0.473761,-0.954782,0.776812,-0.091110,-0.623107
-0.014421,0.264035,0.330685,-0.720754,0.505893,0.473905
-0.553049,0.183153,0.307160,-0.025253,0.320389,0.946950
-0.247096,0.858403,0.767240,0.914363,-0.297748,0.274383
0.019235,0.180212,0.548494,-0.045668,0.728420,0.683607
0.144260,0.249232,0.819127,-0.487354,0.448581,0.749174
0.511088,-0.822372,-0.947498,-0.218763,-0.469023,0.855664
0.337361,-0.593661,-0.911657,-0.104768,-0.511955,0.852599
0.602812,-0.776863,-0.927639,-0.748324,0.388825,0.537425
0.054577,0.040309,0.176456,0.765561,-0.070599,0.639478
0.512459,-0.816205,-0.939420,-0.068086,0.315764,0.946392
-0.065291,-0.398213,-0.973405,0.773978,-0.278147,-0.568852
-0.243386,0.097928,0.622317,0.779254,0.618649,-0.100185
0.432600,-0.949617,-0.946309,-0.791491,-0.187268,0.581784
0.547833,-0.258368,-0.881605,0.988926,0.048313,-0.140328
-0.176844,0.371210,0.459543,0.231495,-0.283538,0.930600
0.404736,-0.294397,0.552170,-0.366071,0.628138,0.686611
0.386483,0.595114,0.735129,0.282022,0.610638,-0.739990
-0.009742,0.125062,0.224289,0.893161,0.442131,-0.082362
0.079423,0.584974,0.716425,0.049250,0.963778,-0.262118
0.459124,-0.287895,0.514870,0.962625,0.075501,0.260103
0.395794,-0.413361,-0.879834,-0.345116,0.877826,-0.332140
0.455505,-0.060900,0.370662,0.589641,-0.658969,0.466994
0.520325,-0.607315,-0.945109,-0.691229,-0.577572,0.434297
0.417996,-0.228166,-0.970211,-0.019290,0.622009,0.782773
0.513623,-0.110199,-0.861641,0.553590,0.631583,-0.542809
0.747318,-0.601808,-0.958202,0.846374,-0.341970,0.408298
-0.330231,0.547245,0.947168,0.466968,-0.707765,0.530104
0.455250,-0.186486,-0.989652,-0.277677,0.559337,0.781049
0.292630,-0.142756,-0.405565,-0.018600,-0.940160,0.340226
0.074687,0.051649,0.529121,0.975772,-0.125319,0.179346
0.577601,0.148738,0.937022,0.622533,0.675299,-0.395505
0.511872,0.124114,0.869424,-0.246124,0.889298,0.385451
0.218940,0.430240,0.708801,0.489577,0.815000,-0.309983
0.580148,-0.405666,-0.940570,-0.147406,0.556508,0.817661
0.048914,0.550786,0.699507,0.409230,0.397668,0.821213
-0.275065,0.542100,0.726027,-0.171792,0.744161,-0.645533
0.268662,0.628790,0.724478,-0.736622,-0.096855,0.669333
0.441337,-0.710041,-0.958640,0.777909,0.158271,-0.608118
0.335979,-0.716219,-0.954733,0.986735,-0.128326,0.099433
0.865551,-0.121348,-0.950559,0.750481,0.231265,0.619108
0.641642,-0.112912,-0.947668,-0.118031,-0.429238,0.895446
0.881644,-0.189601,-0.935014,-0.154190,-0.314275,0.936727
-0.150681,0.475030,0.620220,0.885684,0.140219,0.442608
0.427985,-0.167178,0.350554,0.559187,-0.822784,-0.101664
0.201332,0.121907,0.846165,-0.728038,-0.127275,0.673619
0.390787,0.361520,0.908386,0.003992,0.811360,0.584533
0.620760,-0.302817,-0.949725,-0.514058,0.826804,0.228339
0.222239,-0.165740,-0.960383,0.807004,0.008192,0.590489
0.405890,-0.681623,-0.960873,0.492398,-0.787867,0.369877
0.113121,-0.024701,0.114238,0.547441,0.836674,-0.016881
0.526328,-0.899725,-0.937477,0.759582,-0.176589,-0.625981
0.655707,-0.590024,-0.936554,0.087363,-0.933845,0.346844
0.011341,0.076553,0.226881,0.991378,-0.054109,0.119336
0.113745,-0.585955,-0.959440,-0.304277,0.053709,-0.951068
0.413604,-0.159442,0.399604,0.341662,0.831058,0.438873
0.001647,-0.443670,-0.972079,0.833773,-0.466856,0.294735
-0.246549,0.173223,0.323404,0.932187,0.299410,0.203421
-0.100423,0.504710,0.764715,-0.637425,-0.494225,0.591127
-0.059003,0.140438,0.665645,0.534913,-0.842486,-0.063911
-0.127144,0.344489,0.448137,0.857615,0.218793,0.465432
0.642636,-0.601304,-0.938099,-0.086074,-0.777282,0.623237
0.474930,-0.260358,-0.954074,-0.689657,0.456865,0.561826
0.283414,-0.379187,-0.958563,-0.098383,0.844089,0.527101
0.271475,-0.234593,-0.960127,-0.700348,-0.306326,-0.644730
-0.145655,0.481937,0.661638,0.881676,0.456045,-0.121121
0.467617,-0.327443,0.530246,-0.349309,0.932071,-0.096055
-0.050015,0.119773,0.296222,-0.001043,-0.999824,0.018745
0.063514,-0.414494,-0.972244,0.709595,0.518738,0.476849
0.592521,-0.922588,-0.938531,-0.302574,0.231597,0.924560
0.331913,0.121085,0.227016,0.926464,-0.360186,-0.109229
0.702075,-0.187827,-0.962994,0.754154,0.321559,-0.572583
0.556121,0.511661,0.877153,-0.553358,-0.142832,-0.820606
0.654516,-0.156631,-0.841704,0.024204,-0.220644,0.975054
0.292590,-0.532667,-0.947469,0.068450,0.337528,0.938824
0.300044,0.137826,0.847203,0.058764,-0.765830,0.640352
-0.132188,0.300425,0.444125,0.247730,-0.035163,0.968191
-0.111933,-0.462857,-0.958537,0.923780,-0.308463,-0.226895
0.520815,-0.772079,-0.932088,-0.497220,0.453282,-0.739803
0.965023,0.035655,-0.934834,-0.271576,0.009905,-0.962366
0.129301,0.482190,0.693385,0.965892,0.200044,0.164425
0.138343,-0.548739,-0.970874,0.897904,0.101046,0.428436
0.141472,0.284654,0.870906,0.935390,0.029683,-0.352370
0.416841,0.429931,0.884028,0.643671,-0.732825,0.220581
-0.065452,-0.370408,-0.976517,-0.647174,0.676285,0.351859
0.503041,0.441251,0.952753,-0.498496,0.776529,0.385362
0.349940,-0.024641,-0.088952,0.037576,0.990772,-0.130230
-0.139278,0.445568,0.727150,0.856340,-0.475789,-0.200767
0.388574,0.169944,0.841324,0.834437,0.159405,0.527546
-0.335785,0.279441,0.345084,-0.608806,-0.415264,-0.675952
-0.240329,0.395153,0.664198,0.145663,0.944765,0.293602
0.667567,-0.292601,-0.953434,0.288113,0.808956,0.512427
-0.145177,0.165134,0.262996,0.420408,0.907006,-0.024429
0.636951,-0.096180,-0.942382,0.353014,-0.877819,0.323752
0.466704,-0.159431,-0.955516,-0.688749,-0.476985,-0.545996
0.700975,-0.247013,-0.917238,-0.324800,0.834375,-0.445335
0.565065,-0.632655,-0.954473,-0.495005,0.047532,0.867589
0.159496,-0.314545,-0.679515,0.336649,0.888845,-0.310842
0.130189,-0.513390,-0.954178,-0.684305,-0.706465,-0.180647
0.009105,-0.440592,-0.963393,0.289198,0.511429,-0.809200
0.233291,-0.119516,-0.970170,0.871457,-0.417158,0.257959
-0.350604,0.572097,0.823055,0.838699,-0.372459,0.397314
0.174941,-0.634836,-0.940969,-0.071040,0.460847,0.884632
-0.348500,0.572025,0.885282,0.778841,-0.109534,0.617583
0.743021,-0.329604,-0.877638,0.096160,-0.615576,0.782189
0.445517,0.126736,0.914516,0.640496,-0.548856,0.537142
-0.535036,0.925348,0.897345,0.976923,-0.129193,0.170092
0.344758,-0.128827,0.420717,0.746925,-0.513267,-0.422682
-0.192733,0.609233,0.751336,0.768302,0.526744,-0.363665
0.305275,-0.022767,-0.046722,-0.015117,-0.999690,0.019801
-0.275454,0.507536,0.827226,0.889312,0.446916,-0.096902
-0.765711,0.875317,0.641224,-0.273161,0.258009,0.926722
0.406799,-0.689237,-0.939959,-0.593244,0.749274,-0.294362
0.436256,0.077357,0.847498,-0.488500,-0.652510,0.579308
0.454978,0.053652,0.920400,0.528720,-0.759598,0.378769
0.618869,-0.720340,-0.949445,0.684479,0.709584,0.167270
0.046971,0.121143,0.543810,0.980507,0.181439,-0.075403
0.406876,-0.657416,-0.934796,-0.261246,-0.314336,0.912657
0.223874,-0.637273,-0.938444,-0.042767,0.165936,0.985209
0.151245,-0.291033,-0.962433,0.311863,0.104298,-0.944385
0.276720,-0.389664,-0.862901,-0.485283,0.820222,0.302879
0.167442,-0.527743,-0.957475,0.243016,0.592105,-0.768345
0.309139,-0.696641,-0.965552,0.346991,0.396314,-0.850019
0.325599,0.541205,0.831059,0.164684,0.441211,0.882163
0.490120,-0.096343,-0.859626,0.812434,-0.152954,-0.562634
0.128034,-0.336283,-0.968572,-0.045767,0.578574,0.814345
0.293157,0.208545,0.853403,0.264227,-0.654541,-0.708350
0.535393,-0.418134,-0.963978,-0.144022,-0.441590,0.885582
0.765845,-0.188911,-0.952609,-0.515516,0.151610,-0.843361
-0.973428,0.446100,0.508090,0.968454,0.240053,-0.066872
0.471340,-0.636755,-0.949636,0.129008,0.024828,0.991333
0.064929,-0.345044,-0.981825,-0.735242,0.074345,-0.673715
0.729978,-0.363479,-0.954969,0.569498,0.445756,-0.690633
0.455209,-0.519453,-0.938762,-0.578388,0.113013,-0.807895
-0.103052,-0.448202,-0.975596,-0.485055,-0.733470,-0.476176
0.750818,-0.192545,-0.936401,0.951610,0.052053,0.302868
0.156663,0.471058,0.702322,0.589196,0.672376,-0.448060
-0.031476,0.570175,0.703521,-0.483019,-0.831408,0.274688
-0.289666,0.610042,0.783218,0.828364,-0.373823,0.417216
-0.315340,0.546309,0.769218,0.462888,0.644558,-0.608506
0.145296,0.375917,0.809968,0.959681,0.280624,-0.016213
-0.149762,0.155969,0.346462,0.717338,0.693804,0.063737
0.566174,-0.126358,-0.897812,-0.636148,0.718826,-0.280366
0.138325,-0.477423,-0.971448,-0.215328,-0.613286,-0.759944
0.075572,0.320306,0.817186,0.709730,-0.285013,0.644245
0.174634,-0.038984,0.027898,0.910278,-0.411398,-0.046329
-0.032464,-0.450202,-0.968937,0.108987,0.901208,-0.419458
0.168676,0.017063,0.083124,0.877854,-0.138801,0.458375
0.398472,-0.143468,-0.993964,-0.542115,-0.577059,0.610830
-0.154565,0.118637,0.640692,0.798153,-0.304145,-0.520046
0.670166,-0.537688,-0.922086,-0.686472,-0.089017,0.721687
0.264614,-0.334495,-0.979627,0.936374,-0.300748,-0.180982
0.618014,-0.728450,-0.960223,-0.445913,0.356173,0.821159
0.288508,-0.574805,-0.970684,0.363450,-0.310479,-0.878355
-0.443846,0.334522,0.382753,0.536168,0.827650,0.165892
-0.313010,0.577134,0.824816,0.958070,0.002645,-0.286521
0.546164,-0.512208,-0.960540,0.815627,0.562774,0.134309
-0.095884,-0.461372,-0.960803,0.837382,-0.538006,-0.096645
-0.102530,-0.375653,-0.973768,0.245749,0.951068,-0.187287
0.451299,-0.485657,-0.953865,0.635457,0.770810,0.045242
-0.310161,0.622877,0.893832,0.935739,-0.333354,0.115186
0.546265,-0.482733,-0.941853,-0.530242,-0.820960,-0.211823
0.565871,-0.396740,-0.954137,0.983012,-0.029674,0.181126
0.313451,0.584290,0.732008,0.856761,0.392305,-0.334749
0.469751,0.192091,0.984948,0.489443,0.457687,0.742272
0.726659,-0.352171,-0.939027,0.456027,-0.633369,0.625207
0.613801,-0.422796,-0.940961,0.267392,0.445890,-0.854215
-0.008660,-0.402896,-0.969993,-0.016856,0.664103,0.747451
0.407566,0.348038,0.913219,0.081769,0.656458,0.749917
0.149221,0.286143,0.875421,-0.105517,-0.490167,0.865218
-0.002236,0.084830,0.539525,-0.716130,-0.401921,0.570629
0.257831,-0.344148,-0.651801,-0.298894,0.945981,-0.125628
-0.155975,0.824068,0.960225,0.874808,-0.377185,0.304042
-0.169625,0.560009,0.703703,0.317706,-0.942061,0.107632
0.236379,-0.604122,-0.949947,-0.309959,0.050212,0.949423
0.395409,0.071915,0.915097,-0.259417,0.953412,-0.153974
0.644526,-0.840336,-0.939497,0.786323,-0.045564,0.616133
0.572090,-0.434938,-0.937878,-0.449895,0.346016,0.823327
0.411270,-0.157583,0.449033,0.189633,0.969858,0.153021
0.162443,0.204534,0.347544,0.225162,0.971060,-0.079647
0.273987,-0.639930,-0.946910,-0.352369,0.905961,-0.234673
-0.276557,0.727748,0.776989,0.995514,-0.093345,-0.015437
0.190148,-0.288792,-0.487061,0.972455,0.233040,0.004926
0.205686,-0.130316,-0.266558,0.852959,0.521166,-0.029106
0.108551,-0.606450,-0.954074,-0.387015,-0.916299,-0.103029
-0.489815,0.837344,0.903832,0.864249,0.412353,-0.288165
0.386070,-0.036833,0.085507,0.170979,-0.980885,0.092908
0.445226,-0.207045,0.479537,0.579137,0.704759,0.409774
0.306464,-0.682793,-0.962627,0.377627,0.398537,-0.835803
0.274301,-0.262270,-0.975183,0.654061,-0.213144,-0.725792
0.156428,-0.370350,-0.775113,-0.192825,-0.943652,0.268959
0.555307,0.085460,-0.828365,0.995535,-0.090506,0.026804
-0.133264,0.076971,0.584209,0.791861,0.505062,0.343321
0.386120,-0.849978,-0.944749,-0.246505,-0.595295,-0.764761
-0.376738,0.473776,0.551428,0.455560,0.762239,0.459844
-0.025116,0.153418,0.301694,-0.638062,0.268693,0.721582
-0.544495,0.571247,0.701899,0.930834,-0.138141,-0.338328
-0.637005,0.164032,0.499347,0.789566,-0.394919,-0.469706
-0.007798,0.022836,0.171865,0.525937,-0.795582,-0.300732
0.721125,-0.364097,-0.960696,0.473323,0.538889,-0.696824
-0.108932,-0.312264,-0.953259,-0.410150,-0.097435,0.906799
-0.040303,0.185921,0.314945,0.142294,0.698738,0.701083
0.313969,0.168849,0.227374,0.955434,-0.234423,-0.179422
0.063043,0.156628,0.583709,0.586972,0.759158,-0.281325
-0.139263,0.444103,0.696434,0.927719,-0.268620,0.259194
0.407454,-0.148236,-0.959924,0.969574,0.233871,0.072324
0.322643,-0.301855,-0.544894,0.267806,-0.814756,0.514250
0.172286,-0.355200,-0.764694,0.075061,-0.972151,0.222008
0.532044,-0.245086,-0.966911,-0.481213,-0.181648,-0.857577
0.116128,0.083584,0.140294,0.644390,-0.732374,0.219977
0.085581,0.174889,0.843657,0.360227,0.342949,0.867538
-0.082579,0.171160,0.520665,0.878718,0.002455,-0.477336
0.359348,-0.220055,-0.350036,-0.173142,-0.156808,0.972334
-0.299854,0.503231,0.884791,0.809647,0.243225,0.534147
0.368760,0.233276,0.330194,-0.257384,0.306204,-0.916511
0.250025,0.084218,0.824322,0.323983,-0.055102,0.944457
0.480448,-0.744622,-0.934219,0.878918,0.142966,-0.455042
0.533186,-0.188252,-0.861947,0.996746,-0.065814,-0.046544
0.493331,-0.295420,-0.947193,0.691454,0.248854,-0.678206
0.680766,-0.059460,-0.940869,0.028733,0.418617,0.907708
0.065735,0.090727,0.120961,0.175551,0.562442,-0.807986
-0.079209,0.257475,0.654779,-0.170043,-0.906359,-0.386779
0.174766,0.371444,0.832814,0.861495,0.279570,-0.423871
0.084115,-0.454782,-0.974223,-0.154788,-0.093426,0.983520
0.120713,-0.404842,-0.968926,-0.580589,0.813266,0.038922
0.409739,0.155095,0.200784,0.832957,0.552979,-0.019936
0.211318,0.546982,0.746076,0.390925,0.757061,-0.523486
0.250165,-0.340656,-0.641487,-0.213683,0.923082,-0.319779
0.132912,-0.072568,-0.048182,-0.798791,-0.574742,-0.177776
0.316432,0.524474,0.742780,0.732738,-0.299291,0.611163
-0.139415,0.145349,0.333185,-0.057176,-0.996496,-0.061048
-0.012253,0.156578,0.545455,-0.287386,0.698480,0.655389
0.628807,-0.411553,-0.893954,-0.659265,-0.427561,0.618515
0.074779,0.641562,0.702502,-0.213544,0.910140,0.355027
-0.072224,0.530883,0.616399,0.912905,0.391099,-0.116814
0.044122,0.020036,0.123098,0.531951,0.775697,-0.339592
0.876490,0.024877,-0.949292,-0.657784,0.339096,-0.672558
0.753189,-0.580629,-0.927618,-0.834342,0.377247,0.401944
0.003344,0.492602,0.751176,-0.101344,-0.954315,-0.281090
0.163271,-0.656696,-0.953898,0.169142,0.983435,0.065159
-0.090910,0.093029,0.233178,0.566087,0.821246,-0.071419
0.575057,-0.724107,-0.941715,-0.129382,0.557348,0.820136
-0.127983,-0.361999,-0.966978,0.259454,0.790983,-0.554102
0.892790,0.098323,-0.944715,0.393341,-0.917000,0.066280
0.468747,-0.608328,-0.948946,-0.012890,-0.067139,0.997660
0.499592,-0.922677,-0.940124,-0.550795,0.650433,0.523030
0.248958,-0.345611,-0.734916,-0.657205,-0.334843,0.675249
0.524139,-0.666320,-0.952473,0.076527,0.204046,0.975966
-0.283292,0.481794,0.699006,0.986865,0.085326,0.137173
-0.009623,0.472876,0.777053,0.021484,0.974614,0.222859
0.150979,0.146909,0.168196,0.335763,-0.783189,-0.523334
0.075401,-0.584656,-0.946648,-0.206737,0.950338,0.232630
0.632380,-0.785964,-0.945080,-0.320557,-0.066385,-0.944900
0.527140,-0.203656,-0.969232,0.268052,0.241903,0.932540
0.198734,-0.586415,-0.946019,-0.192040,0.964700,0.180204
0.720037,-0.319737,-0.918214,0.766838,0.640983,-0.033174
-0.018776,0.308801,0.397147,-0.512787,-0.707304,0.486591
0.447877,-0.123342,0.340394,0.663275,0.433921,-0.609737
0.457901,-0.332972,-0.947708,0.282012,-0.758652,-0.587296
0.145643,0.338048,0.880407,0.594346,0.783962,-0.179322
0.421048,-0.794311,-0.933493,0.054889,0.980905,-0.186583
0.366463,-0.096894,0.404840,0.912083,-0.123286,-0.391032
-0.152431,0.219717,0.286523,0.387103,0.885526,-0.256894
0.473298,-0.843490,-0.929196,-0.088957,0.992310,-0.086062
0.332016,-0.759478,-0.948950,-0.614983,-0.155295,0.773097
0.419280,-0.125062,-0.944826,0.427975,-0.344953,-0.835371
-0.122459,0.351594,0.412235,-0.327302,0.943544,0.050977
0.108861,-0.289691,-0.984366,0.967012,-0.240148,-0.084948
0.477321,-0.690683,-0.941678,-0.303629,0.740658,-0.599363
0.681081,-0.621953,-0.923518,0.785833,0.136025,-0.603294
-0.008385,0.077316,0.189671,0.835858,0.515031,-0.189957
0.927264,0.055402,-0.959913,0.741058,0.128592,-0.659012
-0.254035,0.285969,0.345054,0.484662,0.045761,0.873503
0.615538,0.126373,0.873991,-0.701229,-0.701014,-0.129835
-0.201069,0.574547,0.797554,0.746319,0.005498,0.665566
0.588227,-0.630882,-0.948559,0.986263,0.159312,-0.043641
0.129473,-0.616872,-0.961680,-0.167454,0.719218,0.674303
0.336515,-0.013827,-0.166659,0.891436,-0.444497,-0.088115
0.466855,-0.407174,0.543117,0.465981,0.576027,0.671606
-0.247049,0.575037,0.617605,0.404609,0.903622,-0.140568
0.360756,0.017668,0.159382,0.301116,0.412617,-0.859696
0.003098,0.177633,0.336419,-0.326293,-0.742130,0.585470
0.497901,-0.238106,0.490649,-0.055340,0.950377,0.306140
0.056946,-0.531989,-0.956770,-0.884882,0.281558,0.371093
0.429577,-0.098252,-0.375923,-0.262316,0.957177,-0.122484
0.346103,-0.094803,0.343153,-0.080540,0.982296,0.169142
0.126865,0.067246,0.134839,-0.624127,-0.768682,0.139977
0.727382,-0.069204,-0.958155,0.868437,0.493444,0.048275
-0.027473,-0.260087,-0.982706,-0.617464,0.786484,0.013456
0.423006,0.371176,0.941632,-0.362739,0.929405,-0.068016
0.329870,-0.562669,-0.920682,0.698709,0.483173,-0.527588
0.143267,-0.646899,-0.939946,0.374969,0.784414,0.494058
0.167677,0.463695,0.709448,0.121216,0.916273,-0.381772
0.468747,0.099771,-0.831365,0.439308,0.856140,-0.272090
-0.013721,-0.000249,0.219807,-0.094210,0.981439,0.167041
0.417186,0.547236,0.746655,0.878955,-0.414832,0.235272
0.667363,-0.461752,-0.951869,0.954406,-0.051508,0.294035
0.711455,-0.266695,-0.930955,0.840730,-0.460598,0.284646
-0.012416,0.068678,0.233794,-0.436456,-0.582526,0.685690
0.618750,-0.219214,-0.876531,-0.241532,0.507870,0.826880
0.747979,-0.520214,-0.964068,0.092762,0.023488,0.995411
0.422412,-0.454945,-0.949406,0.211710,-0.692154,0.690002
0.076882,-0.055793,-0.034109,0.518346,-0.801943,0.296994
0.039961,0.102237,0.606163,0.783336,0.472963,0.403349
0.754497,-0.250206,-0.938949,0.047377,-0.911564,0.408418
0.230617,-0.322024,-0.472702,0.254809,0.911809,-0.321989
-0.239893,0.243631,0.322002,-0.337096,-0.897780,-0.283475
0.311721,0.497570,0.831670,0.164684,0.441211,0.882163
0.478040,0.537304,0.887363,-0.703648,0.568828,-0.425811
0.288630,-0.562177,-0.954135,-0.119851,0.716048,-0.687685
0.382269,-0.310061,-0.914763,0.861026,-0.297795,0.412253
0.262092,-0.214594,-0.952606,0.103390,0.133484,0.985643
0.304928,0.585281,0.743748,0.936080,0.057432,0.347067
0.361157,-0.669160,-0.952446,-0.702565,-0.147199,0.696229
-0.180630,0.191279,0.638202,0.900298,0.075375,-0.428698
0.411754,0.335708,0.919387,-0.152167,0.979384,0.132858
-0.136065,0.431147,0.641653,0.971888,0.235300,0.008166
0.151666,-0.533819,-0.976418,0.769421,-0.365581,0.523777
0.809867,-0.164495,-0.946979,-0.188144,-0.900779,0.391407
0.559765,-0.246642,-0.873348,0.566943,0.803913,0.179720
0.135631,-0.501678,-0.951698,0.890557,0.134830,-0.434429
0.205149,-0.241594,-0.477797,0.758879,0.392588,0.519593
0.025141,0.118341,0.195792,-0.558155,-0.228662,0.797607
0.246257,-0.397957,-0.922271,-0.596593,-0.708269,0.377402
-0.042206,-0.624222,-0.948701,0.488056,0.866273,-0.106643
0.549272,-0.135925,-0.844213,0.803103,0.007846,0.595788
-0.162720,0.928406,0.950327,0.180298,0.220284,0.958628
0.108970,-0.297449,-0.980100,-0.070074,-0.760431,0.645627
0.176062,-0.313851,-0.438888,0.176599,0.983906,-0.027229
0.218006,0.315230,0.880655,-0.083474,-0.830125,0.551294
0.145588,-0.073226,-0.080531,0.553046,0.528353,-0.644192
0.758932,-0.309585,-0.953570,0.873584,-0.454492,0.174032
0.159942,0.468721,0.699693,0.426614,0.904411,0.006487
0.633238,-0.518726,-0.947772,-0.625041,0.590612,0.510392
0.231083,-0.371290,-0.963383,-0.347287,0.103244,0.932058
-0.032010,0.687906,0.725597,0.527249,0.481023,-0.700446
0.189030,-0.593624,-0.963908,-0.240242,0.956498,-0.165517
0.477380,-0.318514,0.504182,-0.481223,-0.409635,-0.774999
0.564970,-0.238694,-0.856302,-0.138820,-0.667839,0.731245
0.364026,0.167183,0.839483,0.574527,0.307893,-0.758367
0.194674,0.378698,0.958565,-0.012754,0.733115,-0.679986
0.767976,-0.351032,-0.901103,0.049645,0.849282,0.525600
0.196226,-0.333980,-0.634847,0.874720,-0.427191,-0.228851
0.552622,-0.320177,0.495072,0.783314,-0.621214,-0.022650
0.233611,-0.304006,-0.968981,0.255958,-0.034236,0.966082
-0.434455,0.542963,0.941660,-0.711274,0.495421,-0.498646
0.462663,-0.136645,-0.911713,-0.780754,-0.623457,0.041533
-0.025099,0.018602,0.731407,0.170764,0.866613,-0.468851
0.545300,0.211350,0.920946,0.107369,-0.943823,0.312523
0.447877,-0.290156,0.490549,0.849613,-0.475919,-0.227285
-0.158216,0.344231,0.526151,0.203119,-0.979153,-0.001611
-0.332322,0.683219,0.892885,-0.699649,-0.100520,-0.707381
0.737480,-0.024999,-0.937436,0.067257,0.180733,0.981230
0.284225,-0.370279,-0.897150,0.150074,0.078045,0.985590
0.228494,0.321084,0.937906,0.465715,0.383081,-0.797721
0.440541,-0.320082,-0.964511,-0.168745,0.651618,0.739540
-0.888001,0.268406,0.515213,0.785606,0.617026,-0.045837
-0.300926,0.536220,0.532466,0.452435,-0.812072,-0.368565
0.684893,-0.345026,-0.906744,0.035965,0.925739,0.376448
0.039966,0.096539,0.266422,-0.046489,0.269719,0.961816
-0.081615,0.154535,0.303359,0.012857,-0.182716,0.983082
-0.222365,0.220810,0.337316,-0.136621,0.895434,-0.423712
0.029096,0.044007,0.209339,-0.220537,-0.793014,-0.567883
0.167199,-0.385544,-0.965180,-0.257859,0.714723,-0.650138
0.291100,0.007843,-0.238918,0.391773,-0.627426,0.672942
0.034362,0.356848,0.811731,0.700810,-0.569722,-0.429281
0.135960,-0.030086,-0.063122,0.851505,0.523277,-0.033481
0.795768,-0.043732,-0.941764,0.309109,-0.608511,-0.730866
0.281713,-0.252233,-0.380428,-0.592427,0.428114,0.682457
0.418565,-0.191703,0.406681,0.204167,-0.905233,-0.372651
0.883312,0.109836,-0.951260,0.310196,-0.940539,0.138435
0.728252,-0.389027,-0.884797,0.952938,0.068869,0.295240
0.305714,-0.665469,-0.942496,-0.218670,-0.754801,0.618433
0.497034,0.146878,0.852535,0.048161,-0.948317,0.313650
-0.026453,-0.326107,-0.965990,0.469844,-0.538396,-0.699554
0.522927,-0.806432,-0.945445,-0.150658,0.988567,0.006192
0.330959,-0.024661,0.343507,-0.229146,0.694362,0.682168
0.399170,-0.069986,0.348378,0.819805,0.567921,-0.073390
-0.104457,0.297443,0.500682,-0.667989,0.641621,-0.376979
0.292084,-0.405109,-0.899963,-0.101078,-0.143441,-0.984484
0.516222,0.140383,0.856579,-0.200721,0.841403,-0.501749
0.345905,0.031746,0.317596,-0.066000,0.943281,0.325369
-0.020650,0.175577,0.310472,0.734215,0.676254,0.060074
0.384404,-0.532465,-0.925118,0.699389,0.268281,0.662481
0.160649,-0.665360,-0.944106,0.671909,0.706941,-0.220845
0.254479,-0.668226,-0.940810,0.149417,-0.023876,0.988486
0.402165,-0.263156,0.441336,0.979911,0.184607,-0.075464
-0.128824,0.111874,0.279478,0.967573,-0.041588,-0.249145
0.004685,-0.465427,-0.977871,0.501615,0.341611,0.794786
0.459258,-0.062481,-0.833734,0.998874,0.007606,0.046820
0.048044,0.051856,0.184504,0.370192,0.908532,-0.193719
0.721454,0.008672,-0.946602,0.497553,-0.850094,-0.172572
-0.247257,0.165811,0.714891,0.229926,-0.621727,0.748725
0.542068,-0.536312,-0.948292,-0.564374,0.707718,0.424990
0.239839,-0.654708,-0.962401,0.876074,-0.187749,0.444123
-0.293583,0.225015,0.369347,-0.477621,0.323121,0.816989
0.491325,-0.748586,-0.934581,-0.640207,0.431754,0.635393
0.480225,-0.411593,-0.942727,0.708098,-0.445917,-0.547499
0.173808,-0.463006,-0.960778,-0.565793,0.609276,-0.555573
0.225913,0.348130,0.815542,0.550806,-0.589347,-0.591002
0.590046,-0.646913,-0.955107,-0.596859,0.400073,0.695486
0.666395,-0.648105,-0.953827,0.882834,0.176179,0.435392
0.192948,-0.558664,-0.952667,0.034196,0.708476,0.704905
0.554081,-0.645438,-0.939978,0.987549,-0.022212,0.155733
-0.268065,0.177367,0.714205,0.022026,0.827049,-0.561698
0.301789,0.145285,0.853524,-0.341670,0.939373,0.028983
0.347936,0.463974,0.734144,-0.469580,0.779288,-0.414976
0.246845,0.270193,0.924953,-0.475500,0.859487,0.187569
0.297905,-0.245666,-0.966657,0.252259,-0.404252,0.879173
0.376867,0.128704,0.241861,0.914655,0.326670,-0.238103
-0.034316,0.043635,0.224502,-0.399085,0.271252,-0.875873
-0.151917,0.141288,0.539501,0.403681,0.881622,-0.244510
0.453725,-0.440114,-0.954107,0.589534,-0.272763,-0.760296
0.439459,-0.780004,-0.946159,0.469482,0.450463,-0.759388
0.157478,0.349974,0.813708,-0.305291,-0.938799,-0.159542
-0.050424,0.184748,0.339457,-0.493962,0.810386,0.315080
0.236525,-0.350667,-0.635098,0.737014,-0.583193,0.341609
0.266434,-0.162104,-0.336378,-0.390803,-0.816691,0.424604
