0.073526,0.254975,0.887467,-0.178256,0.980975,-0.076895
0.149759,0.484315,0.960461,0.720461,-0.678311,0.144326
0.266333,-0.028739,0.633446,-0.140510,0.184170,0.972799
0.205302,0.596607,0.374806,0.142809,-0.972329,0.184884
0.169188,0.503305,0.953346,-0.700149,0.713833,-0.015289
-0.035298,-0.190077,0.800108,-0.309769,-0.720898,-0.619959
-0.114646,0.249376,0.852682,0.934647,-0.304030,0.184393
-0.259251,-0.148013,0.821484,0.944998,0.326689,-0.015919
0.510382,0.496729,0.844699,0.710134,-0.650550,-0.269248
0.081832,0.210889,0.383850,0.954017,0.204164,0.219474
0.201705,0.384740,0.402550,-0.498768,-0.843593,-0.198952
-0.134521,0.830433,0.844879,0.368184,-0.901994,0.225493
0.156321,0.863894,0.912880,0.816863,0.290162,0.498539
-0.393919,0.369291,0.436020,-0.833495,-0.410137,-0.370236
-0.019726,-0.406463,0.472390,-0.123963,0.835131,0.535901
0.102967,0.241921,0.743707,-0.656763,-0.670048,-0.345973
0.112940,0.672503,0.881966,-0.300733,-0.953385,-0.024854
-0.166445,0.027660,0.561558,-0.569267,0.820335,0.054643
0.880459,-0.140221,0.564354,0.884427,0.449699,0.124740
-0.525065,0.303313,0.572246,-0.450241,-0.871500,-0.194347
0.182351,0.573737,0.364626,0.228398,-0.973166,0.027974
0.104634,0.559468,-0.179637,0.368438,0.836315,-0.405993
0.083426,-0.304325,0.780884,0.668875,-0.636334,-0.384298
0.088209,-0.071375,0.235993,0.741032,0.598271,0.304866
0.400148,0.427444,0.806416,0.794325,-0.084310,-0.601615
0.362106,-0.237806,0.667155,-0.373926,-0.430658,-0.821410
0.322543,-0.724448,0.739671,0.863187,0.499884,-0.070878
-0.276864,0.339540,0.660338,-0.229964,-0.665730,-0.709874
0.164034,0.155367,0.746024,-0.828607,0.556357,-0.062265
0.439711,0.096034,0.425302,-0.671755,0.325028,0.665659
0.123433,0.502766,-0.284546,-0.355835,0.876513,0.324201
0.941898,-0.195911,0.657438,-0.654246,0.266902,0.707620
0.114423,0.445389,0.018491,0.851364,0.265442,0.452459
0.123878,-0.094954,0.452464,0.561184,0.323323,0.761929
-0.292473,-0.159482,0.759373,0.819599,-0.512600,0.255929
0.130107,0.664744,0.896362,0.438622,0.861795,-0.254795
0.360437,0.592694,0.913373,0.787889,0.475399,0.391441
0.490619,-0.092693,0.722719,0.987578,0.155482,0.022687
-0.306267,-0.082473,0.778477,0.816793,0.559769,0.139668
-0.725250,0.424138,0.738579,-0.398924,0.908318,-0.125773
-0.007304,0.475848,0.147393,-0.473360,-0.431514,-0.767936
0.178383,0.108277,0.935901,0.969762,0.139312,0.200384
0.077493,0.487047,0.383027,0.489868,0.862655,-0.125921
0.036040,-0.345612,0.515905,0.839990,0.176456,-0.513108
0.635558,-0.001551,0.798329,-0.564999,0.574031,-0.592676
0.078013,0.498449,-0.149725,0.154723,0.889391,0.430168
0.552762,0.491062,0.878259,0.496759,-0.812093,-0.306162
-0.027327,-0.441847,0.496891,-0.014950,0.776014,0.630539
0.231850,0.672738,0.620097,-0.714732,-0.699288,0.012451
-0.146311,-0.507825,0.622190,0.805779,0.459256,0.373904
0.582128,-0.399852,0.736307,-0.146311,0.951007,0.272357
-0.240305,0.417224,0.889724,0.863884,-0.061780,-0.499887
0.108527,0.511064,0.369723,0.765619,-0.589902,-0.256598
-0.023026,-0.414592,0.772901,-0.073729,0.665188,0.743026
-0.358176,0.287020,0.829571,0.815806,0.571901,0.085964
0.031701,0.347973,0.071529,0.389068,0.419566,0.820116
-0.662736,0.224448,0.852712,0.711509,-0.623213,-0.324594
0.173229,0.663766,0.572560,-0.004222,-0.934069,0.357067
0.207675,0.698409,0.890233,0.857475,0.057764,0.511273
-0.100371,0.659077,0.791243,0.771227,-0.490185,-0.406112
0.155209,0.815861,0.904763,-0.641772,0.176005,-0.746425
-0.185539,-0.006071,0.712569,-0.808524,0.097828,-0.580274
-0.103004,0.462322,0.574833,0.789929,-0.013575,0.613048
0.158027,0.644303,0.542843,-0.012072,-0.926220,0.376791
0.622840,0.183330,0.853205,0.347263,0.846046,-0.404494
-0.194512,-0.305944,0.719281,0.857246,-0.098496,0.505399
0.439933,-0.411320,0.697994,-0.673556,0.402136,-0.620168
-0.326437,0.341463,0.484887,-0.393169,0.221779,0.892318
0.735743,0.146867,0.874731,0.972140,-0.131053,-0.194341
0.367964,-0.784963,0.719101,0.186721,-0.866082,0.463721
0.129737,-0.633070,0.440206,0.569483,0.571552,0.590776
0.344012,-0.249612,0.677365,0.432303,0.618120,0.656537
0.412755,0.122816,0.409696,0.892090,-0.009258,-0.451762
0.745569,0.235007,0.763334,0.954604,-0.238689,-0.178209
0.014756,-0.761418,0.727263,0.989327,0.002185,-0.145693
0.163774,0.485226,0.945288,-0.781797,0.474575,-0.404440
0.593993,0.434190,0.718384,-0.517909,-0.846174,0.125540
0.045569,0.828679,0.803740,0.519989,-0.599487,0.608463
0.007675,0.795419,0.832755,-0.748373,-0.663162,0.012403
0.159585,-0.087229,0.658021,-0.183990,-0.231383,-0.955306
0.248461,0.327599,0.293336,0.510332,0.859970,-0.003486
-0.069002,0.338595,0.819137,0.963326,-0.267942,0.014488
0.111717,0.441611,0.142953,0.064828,0.908655,0.412485
0.097850,0.478851,0.268327,0.961519,0.273530,0.025749
0.090841,0.546314,-0.081963,-0.623671,0.167401,-0.763552
0.036114,-0.131349,0.815101,0.912010,-0.409774,0.017992
0.041824,0.351178,0.518491,0.881489,0.470836,-0.035928
0.578680,0.310767,0.741061,0.858444,-0.484368,-0.168702
0.097700,0.002293,0.898095,-0.107339,-0.692576,0.713314
0.605265,-0.112629,0.719101,-0.741295,-0.644413,-0.187654
0.773452,-0.096067,0.520629,0.606477,0.787065,0.112762
0.192361,-0.634690,0.591859,-0.462689,-0.804924,-0.371506
0.305450,0.187681,0.968055,-0.637458,-0.698620,-0.324926
-0.181683,0.484315,0.739237,-0.528633,0.005387,-0.848833
0.343752,-0.750894,0.735575,-0.026624,-0.932642,0.359820
0.648906,0.324698,0.636436,0.887092,0.148746,-0.436969
-0.846681,0.073029,0.728803,0.617202,0.470124,0.630908
0.198406,0.585475,0.395076,0.979089,-0.194538,0.059502
-0.097145,-0.351245,0.761974,-0.764897,0.128923,-0.631119
0.690285,0.355495,0.847525,-0.518993,0.842950,-0.141711
0.113051,0.598226,-0.513394,0.856112,-0.486105,0.175425
0.148832,0.343958,0.277057,-0.016584,-0.999380,0.031068
0.062106,0.563584,-0.867301,0.443424,0.896297,-0.005142
0.518168,0.416649,0.419711,0.939567,0.227511,-0.255838
0.009047,-0.166464,0.825251,-0.647358,0.302670,-0.699513
0.157397,0.474769,0.433030,0.990223,0.039073,-0.133908
-0.434446,0.353539,0.478519,-0.620304,-0.684788,-0.382476
0.463700,0.096101,0.627840,0.865779,0.334446,-0.372253
-0.189285,-0.021149,0.735709,0.737896,-0.090320,0.668844
-0.087839,-0.275282,0.829257,-0.275974,-0.638198,0.718708
-0.162551,0.476793,0.237025,-0.240301,-0.909596,-0.338955
0.161475,0.702354,0.600335,-0.553648,0.764004,-0.331317
0.265665,-0.329185,0.554129,-0.365929,0.230787,0.901572
0.046830,0.532585,-0.238295,0.189340,0.950619,0.245915
-0.089989,-0.556331,0.746861,-0.179288,0.983791,0.003294
0.639748,-0.309418,0.712539,-0.553281,-0.460057,-0.694426
0.014053,0.217568,0.119200,-0.716848,0.336069,0.610890
-0.254950,-0.234399,0.819900,0.998242,0.059143,0.003795
0.171005,-0.159212,0.451492,0.315189,0.674218,0.667897
-0.699332,0.207178,0.841665,-0.539752,0.832985,-0.121668
0.085169,0.541895,-0.587240,-0.332471,0.898041,0.288072
0.046200,-0.063044,0.710117,0.386585,-0.884536,-0.261052
0.246867,0.108987,0.733273,0.281296,-0.160880,0.946039
0.229291,0.623254,0.586238,0.955897,0.194635,-0.219949
0.747052,-0.002901,0.565325,0.882364,0.470115,-0.020656
0.094512,0.070802,0.942926,0.420018,0.758363,-0.498468
0.185799,0.295554,0.651489,-0.585411,-0.798669,-0.139365
0.049314,0.069318,0.547820,0.798983,0.210276,0.563391
0.156544,0.285334,0.891369,-0.340397,0.937599,0.070980
0.331368,0.201376,0.567971,-0.365573,0.635621,0.679957
0.111086,0.513560,0.180370,0.650372,0.345682,-0.676402
-0.133000,0.419349,0.867884,-0.474661,0.412311,-0.777622
0.099518,0.439115,0.158335,-0.455385,0.889530,0.036893
-0.434409,-0.228226,0.761929,0.395760,0.917502,-0.039542
0.513607,-0.073737,0.516668,0.823866,-0.034592,0.565728
0.705265,0.299366,0.906377,0.038627,-0.987690,0.151583
0.115795,0.418842,0.242720,0.984079,0.038365,0.173544
-0.042232,-0.494806,0.693913,0.915503,-0.181053,-0.359270
0.581832,0.162350,0.337838,-0.515410,0.450491,0.728979
0.137449,0.579775,-0.708099,0.425101,-0.893215,-0.146479
0.366110,0.325204,0.830423,0.493101,-0.627193,-0.602893
0.429737,0.442252,0.329586,-0.882854,0.263878,0.388507
-0.101335,0.197228,0.644867,0.245006,-0.253596,0.935768
0.368520,0.159651,0.949459,-0.201754,-0.979380,0.010525
0.339228,0.244047,0.363101,0.483701,0.777602,0.401707
0.299925,0.437429,0.213555,-0.476271,-0.735744,0.481504
0.748906,0.307293,0.766593,0.970060,0.203231,0.132970
0.408231,0.431964,0.857989,-0.422810,0.821974,0.381564
0.080571,0.350637,0.327777,0.905635,-0.408686,0.113142
-0.575269,-0.126965,0.685990,0.237116,-0.963500,0.124272
0.157323,0.439520,0.971568,0.042188,-0.785891,0.616924
0.007008,0.008737,0.670952,-0.561767,-0.798017,-0.218143
-0.033370,0.161506,0.855866,0.700919,0.687268,-0.190722
-0.318725,-0.164811,0.776623,-0.657281,-0.750788,-0.065573
0.062106,0.359611,0.482839,-0.651660,0.748680,0.121729
-0.907379,0.276598,0.665361,-0.276420,-0.904983,-0.323415
0.428031,0.561796,0.859782,-0.493326,-0.793312,0.356771
0.320430,-0.152634,0.645016,-0.277388,-0.290869,-0.915670
-0.013311,0.592896,-0.973137,-0.584561,-0.719942,0.374128
0.089507,-0.005532,0.833054,0.137185,0.781628,0.608472
0.583537,0.383526,0.508446,-0.515682,0.833682,0.197602
0.008083,-0.424610,0.779239,0.461522,0.587866,0.664388
-0.248091,-0.005937,0.850843,0.938034,-0.334509,0.090535
0.102447,-0.114147,0.256951,0.066941,0.806801,0.587019
0.094586,-0.033495,0.893267,0.087012,0.838725,-0.537559
-0.710790,0.185456,0.854117,0.989610,0.126441,0.068449
0.663774,-0.373878,0.695722,0.681850,-0.236527,0.692197
0.252577,-0.208190,0.728698,0.734330,0.150734,0.661844
0.670115,-0.018215,0.548314,-0.229595,-0.608221,0.759838
0.105191,0.435472,0.184540,0.836329,-0.547862,-0.020033
-0.230516,0.027187,0.850499,-0.438955,0.887536,0.139994
0.367112,0.882345,0.847375,-0.146451,-0.987790,0.053130
-0.626511,0.154625,0.829362,-0.442745,-0.726714,0.525227
-0.125881,-0.192032,0.766055,-0.645969,0.043299,0.762134
0.234557,0.314815,0.875897,0.906702,0.419901,0.039686
0.353652,0.576503,0.910772,-0.824752,0.066651,-0.561553
-0.340267,-0.044829,0.583368,0.435962,-0.837254,-0.330066
0.145865,0.727383,0.983572,-0.555340,0.828419,0.072934
0.064257,0.479761,0.324339,0.190764,0.978933,-0.072791
0.154060,0.732679,0.618034,0.006524,-0.881492,0.472154
0.140860,0.873710,0.918979,0.994304,0.078719,-0.071858
0.215461,-0.789382,0.694496,0.529728,0.678883,-0.508435
0.174935,0.095292,0.939727,0.827074,0.478238,-0.295358
0.587875,-0.296769,0.679099,0.359853,-0.707860,0.607816
0.580904,-0.047763,0.708293,0.382088,0.804463,0.454805
0.212681,0.048068,0.834131,-0.398484,0.675342,-0.620583
-0.028773,0.776260,0.940146,-0.501226,-0.796969,-0.337065
0.217463,-0.279936,0.510898,-0.807143,-0.508782,-0.299434
-0.321357,-0.028233,0.574175,-0.473676,0.816588,0.329873
0.164330,0.667307,0.577299,0.288160,-0.862567,0.415863
0.151538,0.704851,0.717666,0.436924,0.894244,0.097086
0.125102,0.450078,-0.054039,0.674847,0.737535,-0.024983
-0.656471,0.251197,0.769448,0.788628,-0.575721,0.215898
0.642788,0.297781,0.868124,-0.461507,-0.378017,-0.802567
0.103299,-0.115091,0.235201,0.865839,0.483204,0.129756
-0.343234,0.507050,0.833742,0.936919,-0.217734,-0.273450
0.147719,0.101599,0.948577,0.037640,-0.650285,0.758757
0.055284,0.544357,-0.489656,-0.036199,0.999291,-0.010378
-0.709714,0.218411,0.856195,0.741100,-0.575826,-0.345247
-0.213126,0.407914,0.879410,0.769146,-0.319732,0.553341
0.293919,0.747690,0.956320,0.263059,0.964569,-0.020169
0.652762,0.348209,0.624865,0.962227,0.146385,-0.229542
-0.330442,-0.005295,0.776982,-0.592686,0.593066,-0.544973
0.155580,-0.557242,0.762587,-0.665342,0.737672,-0.114716
0.205821,0.260507,0.606897,0.514744,0.800792,0.306219
0.672228,-0.406159,0.671326,0.272933,0.944037,0.185209
0.224026,-0.354820,0.439742,0.890315,-0.166692,-0.423737
0.037708,0.118060,0.271242,-0.231221,0.874464,0.426438
-0.358954,-0.089354,0.831395,0.637904,-0.363937,0.678697
0.018243,0.543615,0.557178,-0.426535,0.780654,-0.456779
0.140230,-0.368414,0.754828,-0.689157,0.667419,0.282161
0.207972,0.492613,0.565325,-0.644128,0.764630,-0.021000
0.638190,0.155198,0.698816,-0.673853,-0.245994,-0.696713
0.085651,0.391723,0.159845,-0.481045,-0.355728,-0.801282
-0.099148,-0.162282,0.664195,-0.257754,0.659574,0.706063
0.264182,-0.030527,0.634418,-0.140510,0.184170,0.972799
0.718576,0.271673,0.858407,0.979296,-0.182233,0.088153
0.304968,-0.341462,0.629918,-0.762412,0.621584,0.179890
0.076863,0.534845,-0.420384,-0.567894,0.805337,0.170084
0.609269,0.403090,0.718802,-0.252719,-0.858252,0.446695
0.547608,-0.179282,0.568345,0.615701,0.744634,0.257745
0.131442,0.172536,0.882504,-0.134377,-0.967957,0.212139
-0.150168,-0.214666,0.679592,-0.665844,0.128508,-0.734941
0.090100,0.372294,0.378468,0.950914,0.305769,-0.047632
0.210270,0.786447,0.893342,-0.455090,-0.049051,-0.889094
-0.219504,-0.428793,0.633267,0.342962,-0.128681,0.930494
-0.642826,0.250185,0.862981,0.806684,-0.573277,-0.143578
-0.623249,0.268063,0.698338,-0.680760,-0.715735,0.155849
0.146941,0.694057,0.955035,0.869781,0.478146,0.121892
-0.892881,0.369763,0.741614,0.928274,0.367814,0.054957
-0.288877,-0.053868,0.605193,-0.216601,0.920778,0.324427
0.552095,0.497504,0.798717,0.605351,-0.775277,0.180267
0.160363,0.261790,0.669083,0.518543,0.825287,0.223640
-0.318243,-0.000640,0.836343,0.810847,0.218502,-0.542940
0.074378,-0.285940,0.761167,0.863265,-0.152095,0.481291
-0.024213,0.075964,0.626839,0.851775,0.076031,0.518361
0.264664,-0.238952,0.680728,0.844498,0.427834,0.322150
0.676974,0.327026,0.781123,-0.741561,-0.668866,0.052012
-0.826585,0.078291,0.769687,0.648913,0.679934,-0.341469
0.343900,0.354652,0.192747,0.024003,0.497032,0.867400
-0.183871,-0.283276,0.703570,0.966183,-0.055829,0.251740
0.305339,-0.693887,0.575759,-0.589248,0.252147,0.767599
-0.248907,-0.199588,0.852428,0.985434,0.168375,-0.023881
-0.103856,-0.643089,0.738131,-0.610234,-0.791899,0.022605
-0.861958,0.276766,0.655914,0.143915,0.967927,0.205926
-0.353430,-0.037543,0.609723,-0.143397,0.980431,-0.134881
0.039303,0.881604,0.809301,0.710096,-0.405925,0.575316
0.277345,0.065372,0.882713,-0.183779,0.981564,-0.052515
0.473378,-0.048708,0.814099,0.986368,-0.073956,-0.146999
0.208491,0.780645,0.907887,0.695881,-0.478852,-0.535211
0.262143,0.399818,0.862697,0.956502,-0.185653,-0.225027
0.093474,0.513931,0.002033,-0.074771,-0.981128,0.178319
0.327994,0.379882,0.197874,0.089953,0.472903,0.876511
0.383649,0.174999,0.581290,0.538627,0.772488,0.336368
0.255580,0.162551,0.736621,0.127027,-0.236837,0.963209
0.432035,0.733354,0.862488,0.822019,-0.565989,-0.062785
-0.341899,0.265669,0.688696,0.183894,0.156695,0.970376
0.583500,-0.290225,0.674749,0.233784,-0.646426,0.726278
0.153763,0.080585,0.863340,-0.797481,0.603292,-0.007947
-0.817649,0.330162,0.759941,-0.666386,0.068519,0.742452
0.322247,-0.052082,0.839617,-0.511287,0.816786,0.267293
0.236077,-0.027254,0.926722,0.933404,0.347374,-0.089934
0.075640,0.480706,0.312635,0.178536,0.983798,-0.016333
0.213978,0.336268,0.469744,0.350521,0.920476,0.172795
0.129588,0.099170,0.876241,-0.157717,0.984568,-0.075840
0.011457,0.791945,0.796460,0.802768,-0.408839,0.434067
0.752762,0.038487,0.560856,0.690566,-0.120849,0.713102
-0.260920,0.214397,0.859842,0.765747,0.633029,0.113609
0.203225,-0.063044,0.839706,0.427958,0.801207,0.418233
0.035187,-0.244518,0.364491,-0.280382,0.752469,0.595967
0.157545,0.280410,0.673508,0.456660,0.854193,0.248630
0.004226,0.783343,0.853818,0.905268,0.156323,0.395035
0.237671,-0.640323,0.561992,0.368843,0.670313,0.643922
-0.052095,0.230857,0.834953,0.448793,0.254001,0.856778
0.443827,0.926162,0.882953,-0.724710,0.491918,-0.482506
-0.470560,-0.129967,0.718683,0.955007,-0.225879,0.192200
0.076788,-0.151858,0.617840,0.985945,0.161134,0.044145
-0.328884,-0.018552,0.808150,0.480673,0.665950,-0.570495
0.432555,0.089490,0.829362,0.849011,0.103565,0.518126
0.639266,0.346489,0.856090,0.154815,0.900314,0.406775
-0.242083,-0.100823,0.904060,0.862719,0.389371,0.322654
0.041008,0.362308,0.486561,-0.732569,0.679493,0.040389
-0.102447,-0.640997,0.790989,0.831269,-0.545554,-0.106597
0.230145,-0.486676,0.452464,0.496249,0.786056,0.368582
-0.754876,0.324530,0.687485,-0.721383,0.084886,-0.687314
-0.060957,-0.410983,0.476860,0.182603,0.692057,0.698365
0.398554,0.120353,0.783799,0.796076,-0.122733,-0.592620
0.373118,0.127639,0.843847,-0.517627,0.832017,-0.199522
-0.432443,-0.068509,0.669532,0.686592,0.386433,0.615842
-0.558843,-0.125143,0.684286,0.382470,0.910068,-0.159665
0.025806,0.142414,0.541707,-0.440394,-0.870959,-0.217905
0.494660,-0.000573,0.461567,0.936594,0.303407,0.175318
-0.708084,0.197295,0.824863,0.403833,0.722509,-0.561159
0.426919,-0.724448,0.707576,-0.816161,0.565376,0.119294
0.147052,0.449167,0.976845,-0.503198,0.590246,0.631191
0.606711,-0.250286,0.696813,-0.062016,-0.787427,0.613281
0.028291,-0.242225,0.371278,-0.090888,0.808265,0.581762
0.270152,0.746711,0.927993,-0.689847,0.132129,-0.711795
0.909825,-0.081462,0.611905,-0.133151,-0.335134,-0.932714
-0.128402,0.256966,0.727891,0.444568,-0.873245,-0.199504
0.334483,0.650375,0.538672,-0.242377,-0.958187,-0.152085
-0.231591,-0.124266,0.788029,-0.631698,-0.250261,0.733708
-0.459993,-0.205559,0.725753,0.708472,0.240437,-0.663519
0.961809,-0.180024,0.654105,0.575393,-0.361152,-0.733820
-0.103856,0.483134,0.187515,-0.273192,-0.956407,0.103209
-0.305562,-0.013122,0.820961,0.772913,0.459843,-0.437206
0.033445,0.607266,0.766324,-0.657986,-0.567192,-0.495325
0.270560,0.314073,0.330677,0.153692,0.886864,0.435720
0.496700,0.481482,0.874372,-0.545853,0.834039,-0.080146
0.666333,0.121804,0.789494,0.922123,0.262620,-0.284111
0.642714,-0.401437,0.717472,-0.246387,0.961331,0.123030
-0.042232,-0.437327,0.796714,-0.470105,-0.701509,-0.535618
0.164182,0.422452,0.371248,0.757334,0.584010,-0.292192
-0.000112,0.333300,0.073532,0.404220,0.509085,0.759894
0.038450,0.305236,0.217427,0.284756,0.501771,0.816786
0.050278,-0.083216,0.351366,0.766187,0.315254,-0.559976
0.417835,0.074648,0.835865,0.808880,-0.124851,0.574566
0.530107,-0.182419,0.566073,0.566667,0.772569,0.286401
0.438264,0.122377,0.414300,0.892090,-0.009258,-0.451762
0.665517,0.262464,0.884104,0.164965,-0.217488,0.962022
-0.022988,-0.003238,0.240254,-0.495116,-0.828237,-0.262456
-0.124471,-0.553869,0.761002,-0.318968,-0.946842,-0.041838
0.421505,0.432065,0.857779,0.492519,-0.808205,-0.322847
-0.075454,0.277205,0.893835,0.668546,0.425254,0.610086
0.409900,0.169635,0.815415,0.937528,0.142757,0.317272
-0.761995,0.404406,0.760883,-0.656862,0.458743,-0.598404
-0.017983,-0.123355,0.841306,-0.439420,0.898205,0.011768
0.163366,0.630574,0.641174,-0.541265,0.549534,0.636431
0.579162,0.381468,0.773469,0.004900,0.557869,0.829915
-0.203634,-0.017810,0.829242,0.981484,0.167224,0.093414
0.271450,0.492377,0.706320,-0.017718,0.992545,0.120583
0.309195,0.457701,0.895360,0.091959,0.940260,0.327803
0.078754,0.480099,-0.070019,0.390940,0.910642,0.133780
0.201668,0.399009,0.377915,0.902505,0.425827,-0.064476
0.092324,0.734365,0.702987,0.810783,0.583121,-0.051001
0.248980,-0.049382,0.636137,0.276914,0.618890,0.735047
0.225102,-0.067732,0.440026,0.912061,0.281961,-0.297729
0.462069,0.725629,0.833548,-0.723512,0.513738,0.461090
-0.877530,0.450988,0.765427,0.377149,-0.203005,0.903630
0.771190,0.316131,0.690505,-0.691752,0.706871,0.147688
0.225658,-0.087330,0.848063,0.484012,0.812297,0.325432
-0.306563,0.593976,0.805160,0.782001,-0.448015,0.433309
0.191953,0.602105,0.450281,0.235832,0.953959,-0.185322
-0.278013,0.410511,0.345133,-0.740025,0.641578,-0.201843
0.657323,-0.382345,0.689294,0.956161,0.291860,-0.023942
-0.001521,0.175235,0.506562,0.026184,0.854823,0.518258
0.215906,0.350031,0.450371,0.401151,0.911005,0.095639
0.035929,0.251197,0.402177,0.845442,0.406265,0.346666
-0.099221,0.319943,0.630023,-0.709823,-0.339134,-0.617365
0.234964,-0.363085,0.580513,-0.316502,0.881236,0.351068
-0.127142,0.469135,0.217621,0.398057,0.869840,0.291427
-0.102595,0.464886,0.591007,0.802136,0.059250,0.594195
-0.247868,-0.196587,0.766488,0.927919,0.137725,0.346407
-0.651206,0.242124,0.875523,0.720313,-0.363447,0.590810
0.044864,0.776294,0.763812,0.778393,-0.509387,0.366919
-0.386393,0.579235,0.090813,0.462934,-0.264458,0.846022
-0.110865,0.753963,0.874880,0.606937,0.596589,-0.525079
-0.236782,0.153342,0.821484,0.442654,-0.870293,0.215980
-0.167000,-0.451662,0.634313,0.086093,-0.320677,0.943268
-0.111902,-0.584093,0.648290,0.867058,0.421807,0.265120
-0.125955,0.375768,0.812425,0.972638,-0.222032,0.068384
-0.216871,-0.307866,0.738475,0.991829,0.065160,0.109679
0.102781,0.479694,0.127780,-0.617210,-0.742454,-0.260411
-0.017168,-0.443668,0.785817,0.352983,0.555078,0.753187
0.172043,0.710248,0.881278,-0.581080,0.780158,-0.231731
0.362996,-0.287425,0.661714,0.878093,0.193862,0.437460
0.727252,0.146664,0.877272,0.293651,0.937861,-0.184893
0.054912,0.424746,0.153567,-0.229062,0.617101,0.752806
0.667964,0.241820,0.644642,0.882493,-0.220634,-0.415363
0.085836,0.099744,0.910862,0.712412,0.540471,-0.447616
-0.167186,0.416953,0.898828,0.919859,0.210853,-0.330758
0.082573,0.494637,-0.119992,0.971252,-0.132904,-0.197498
0.237449,-0.331985,0.603668,-0.663398,0.358662,0.656708
-0.058769,-0.357788,0.745740,-0.873265,0.466151,-0.141815
-0.271190,0.418337,0.335581,-0.875270,0.406189,-0.262513
-0.658954,0.160966,0.785174,0.264297,0.614669,0.743189
-0.549018,0.298016,0.597719,-0.169291,-0.979868,-0.105823
-0.052540,0.733287,0.772378,-0.266068,0.013753,-0.963856
-0.240601,0.447919,0.307133,0.910902,-0.289473,0.294047
0.429551,0.427107,0.312186,0.970110,-0.015480,-0.242170
0.841082,-0.076469,0.525951,0.919238,0.147572,-0.364999
-0.265257,0.534743,0.770390,-0.739741,-0.331106,-0.585792
0.662328,0.402955,0.671281,0.942926,0.294528,0.155386
-0.136337,-0.610470,0.755516,-0.640049,-0.713451,-0.285176
-0.272933,-0.148991,0.840020,0.956884,0.288630,-0.032633
0.055024,0.543210,-0.414748,-0.516715,0.840560,0.162680
0.240712,-0.070026,0.783246,0.852554,-0.450882,0.264307
-0.082203,0.307259,0.653447,-0.320916,-0.703203,0.634443
-0.149018,-0.567159,0.760165,-0.506938,0.610496,-0.608530
0.031405,-0.839540,0.734319,0.994497,-0.019847,-0.102872
0.219466,0.804696,0.939339,0.528616,-0.673254,0.517005
-0.158473,0.435979,0.919143,0.851255,-0.264548,-0.453188
0.186837,0.970654,0.840708,0.911033,-0.213135,0.352976
-0.475454,-0.087803,0.704078,0.962840,-0.172305,0.207968
-0.020246,0.472678,0.366868,-0.538640,0.365583,-0.759089
-0.000112,-0.016494,0.663448,-0.494869,-0.648500,-0.578405
0.330182,-0.320380,0.669337,-0.699813,0.690252,-0.183883
0.093178,0.372495,0.382549,-0.545513,0.834071,0.082106
-0.649981,0.162113,0.806954,0.795833,0.602617,-0.059176
0.231145,-0.503339,0.710117,0.659493,-0.087666,0.746582
0.198813,-0.444984,0.623610,0.603203,0.517574,0.606847
0.216574,0.636613,0.522079,-0.182115,0.978431,0.097501
0.132629,-0.688727,0.454063,0.419673,0.519231,0.744496
-0.275417,0.151286,0.803202,-0.768972,-0.533200,0.352674
-0.676456,0.097855,0.745844,-0.070736,0.959244,0.273581
0.423099,0.426702,0.968100,0.956875,-0.290360,0.008990
0.112606,0.565642,-0.637049,0.377743,0.875543,0.301222
0.365851,0.601059,0.914943,0.787889,0.475399,0.391441
0.536744,0.293632,0.744095,0.885925,-0.382815,0.261896
0.198183,0.526310,0.780510,0.962429,0.254205,-0.095446
-0.304190,-0.225663,0.741270,0.836777,0.543100,0.069612
0.133667,0.717399,0.655630,0.857763,0.374443,0.352188
-0.187282,0.493186,0.730343,-0.528633,0.005387,-0.848833
-0.334816,0.472239,0.829332,0.858217,-0.154692,-0.489422
0.196885,0.304729,0.523021,0.738293,0.670503,0.073143
-0.898665,0.383998,0.765711,0.979459,-0.020396,0.200609
-0.218799,-0.073534,0.830229,0.018147,0.749878,0.661328
0.046385,-0.002361,0.640367,0.376201,0.734957,0.564190
0.074824,0.886460,0.870755,-0.398642,0.698350,0.594468
0.358695,-0.818154,0.611173,0.933004,-0.062737,-0.354356
0.077790,0.411455,0.150816,-0.176522,0.936036,0.304428
0.140897,0.751939,0.986053,0.868104,-0.466899,-0.168525
-0.276492,-0.190413,0.815310,0.976883,0.184982,0.107148
0.364998,-0.829285,0.671415,0.955413,0.180711,-0.233516
0.355951,0.183971,0.903925,0.060537,-0.990465,0.123750
0.234482,0.379579,0.893133,0.927616,0.371260,-0.041173
-0.307193,0.511806,0.845536,0.922905,0.301578,0.239367
0.040489,0.019261,0.181730,0.274464,0.831303,0.483327
-0.538709,-0.178001,0.728713,0.779286,0.570589,0.259117
-0.231665,0.376847,0.882325,0.929023,0.307757,-0.205432
0.405487,0.334244,0.256577,0.905433,0.011822,-0.424324
0.248721,-0.018181,0.886869,0.980364,-0.136459,0.142356
0.036188,0.383391,0.175407,0.956476,-0.006039,0.291749
0.155951,-0.578020,0.562425,0.394389,0.829965,0.394480
0.532777,0.234265,0.739192,0.106405,0.516852,0.849436
-0.017835,-0.230520,0.834011,0.518428,-0.601534,0.607774
0.289247,0.735850,0.937455,-0.143806,-0.809758,0.568869
0.349907,0.009883,0.829870,-0.392838,0.884978,-0.249987
-0.750352,0.297680,0.781930,0.892359,0.436113,0.116189
-0.490212,-0.129764,0.753483,-0.739001,-0.244187,-0.627893
-0.105302,-0.296228,0.803277,0.907415,-0.318901,0.273680
-0.121061,-0.421035,0.643177,-0.542347,-0.838332,0.055306
0.346496,0.034709,0.663687,-0.404035,0.874312,0.268950
-0.478532,-0.082473,0.705035,0.948417,-0.309459,0.068848
-0.016314,0.821494,0.838002,0.932066,-0.043355,0.359686
-0.140268,0.469912,0.032887,0.168939,0.805367,0.568193
-0.356471,0.299062,0.826298,0.825188,0.560734,-0.068141
-0.554654,-0.134656,0.659053,-0.241165,0.964334,0.109085
0.148906,0.639446,0.640143,0.840345,-0.171873,-0.514082
0.422951,0.121872,0.606225,0.879559,0.350102,-0.322186
-0.172340,-0.165553,0.698637,0.799204,-0.223009,0.558158
0.473897,-0.095696,0.765382,0.909912,0.181524,0.372974
0.427697,0.481752,0.913403,0.740701,0.154888,-0.653737
0.458361,0.121602,0.319077,-0.228583,0.151034,0.961737
-0.376752,0.306956,0.818883,-0.450065,0.793362,-0.409899
0.134037,0.549147,-0.203495,-0.076976,0.983891,0.161350
-0.116203,0.289651,0.905854,0.521235,-0.198196,0.830080
-0.040490,-0.155231,0.722181,0.989280,0.072574,0.126723
0.851056,-0.136881,0.642759,0.430277,0.855699,-0.287472
-0.451391,0.396040,0.508296,0.799477,0.013753,0.600540
0.423136,-0.439216,0.579422,0.540063,0.804903,0.245892
0.185168,-0.017810,0.830139,0.396880,0.269916,0.877286
0.180200,-0.414861,0.610096,0.454547,0.732947,0.506139
0.042232,0.880659,0.833353,0.895912,-0.443124,0.031360
-0.748017,0.141200,0.673732,-0.700507,-0.317339,-0.639207
0.650166,0.321697,0.880247,0.102973,-0.895175,0.433657
0.201854,0.510457,0.567104,0.776207,-0.571599,-0.266040
-0.124471,0.806753,0.909531,0.905914,-0.290397,0.308202
-0.013683,-0.208797,0.386824,0.945916,0.318318,0.062587
0.066185,-0.188221,0.627825,0.821146,0.356421,0.445739
-0.317538,0.275755,0.788224,0.286313,0.549574,0.784852
0.342084,0.247960,0.850365,-0.706299,-0.706382,-0.046552
-0.119206,0.827093,0.829586,-0.522666,-0.055560,0.850725
-0.139786,0.393409,0.958144,0.953477,0.048233,0.297583
0.054653,-0.178776,0.726321,0.066257,0.919357,0.387804
-0.199963,-0.306584,0.763768,-0.253591,0.959724,-0.120920
-0.183352,0.792080,0.831858,-0.407279,-0.129047,0.904141
0.457211,0.478884,0.835610,-0.432308,0.795475,0.424652
-0.642084,0.261621,0.752900,-0.600404,-0.798890,-0.035920
0.435150,0.395838,0.333563,0.890386,-0.148591,-0.430271
0.638042,0.330264,0.621681,0.897995,0.031803,-0.438855
-0.310382,-0.230284,0.738998,0.941170,0.273406,0.198614
0.436818,0.097754,0.427873,-0.671755,0.325028,0.665659
0.274267,0.326519,0.798224,-0.039194,0.640432,0.767014
0.223396,-0.451696,0.609738,0.270798,0.362712,0.891689
0.487912,-0.031808,0.755426,0.370199,0.813199,0.449066
-0.143567,0.416852,0.746592,0.684856,0.713983,0.145606
-0.074787,0.493828,0.196335,0.238593,-0.935116,0.261976
0.079681,0.469439,0.224617,0.868906,-0.493388,-0.039632
0.207230,-0.507556,0.702613,-0.558194,0.736424,0.382230
-0.705413,0.324192,0.665197,-0.574264,0.447993,-0.685217
-0.143938,-0.022330,0.725918,-0.370905,-0.710410,-0.598120
-0.242196,0.593908,0.763558,0.232979,-0.315276,-0.919958
0.294698,0.218748,0.751345,0.168840,-0.984549,-0.046446
-0.025918,0.738717,0.898798,0.687298,0.080887,-0.721858
-0.068076,0.363827,0.708174,0.906101,0.392570,0.157703
-0.068336,0.475444,0.165421,0.467215,-0.656618,0.592083
0.045828,0.508231,-0.065878,0.912896,0.368552,0.175469
0.065814,-0.055757,0.713496,0.134587,0.694553,0.706741
0.083314,-0.205762,0.625478,0.999163,0.040107,0.008005
-0.075047,-0.665587,0.796356,0.681116,0.362642,0.636059
0.320689,0.893038,0.912640,-0.944827,0.290424,0.151510
0.450389,0.306686,0.854804,0.494516,-0.847390,-0.193349
0.037448,-0.006071,0.552230,0.939555,0.240057,0.244149
0.280460,-0.784963,0.738131,-0.136975,0.916140,-0.376731
0.021580,0.660326,0.790481,0.937445,0.078442,-0.339180
0.044791,0.555724,-0.431565,-0.726500,0.585230,0.360144
0.270374,0.381570,0.609633,-0.810503,0.189428,-0.554258
0.571746,0.342475,0.709699,-0.821544,0.548665,0.155027
-0.024546,0.651049,-0.981464,-0.273147,0.459942,0.844893
-0.058584,0.332558,0.793680,-0.715573,-0.604673,-0.349750
0.047979,0.503576,0.434690,-0.280077,-0.959600,0.026928
0.750203,0.160224,0.874477,0.865446,0.495968,-0.070849
0.196514,0.535992,0.502018,0.978387,0.203852,-0.034698
0.128884,0.424509,0.948891,0.510880,0.633672,-0.580914
0.426733,0.680834,0.864387,0.968407,-0.195470,-0.154852
0.506526,0.477872,0.876988,-0.545853,0.834039,-0.080146
0.080868,0.472913,0.245755,0.988124,-0.153127,0.012783
0.374342,0.821393,0.865044,-0.808318,-0.224044,-0.544451
-0.290768,0.227990,0.800676,0.781424,0.455764,0.426210
-0.059177,-0.653174,0.732211,-0.104539,0.977151,0.185061
0.225510,0.592425,0.545503,0.588499,-0.131513,-0.797730
0.247015,0.620185,0.530077,-0.397501,0.853714,0.336401
-0.041825,-0.620050,0.735485,0.338052,0.748948,-0.569910
0.106600,0.548338,-0.339303,-0.561003,0.822593,-0.092826
-0.161624,0.793025,0.836627,-0.456279,0.228238,0.860068
0.670337,0.269042,0.880994,0.147757,-0.300660,0.942216
0.438710,0.572624,0.878423,0.277636,0.944848,-0.173727
-0.269781,0.499393,0.749641,-0.156785,0.314060,-0.936368
-0.109715,0.373744,0.837120,0.109375,-0.970446,-0.215107
0.121691,0.634656,0.594729,0.834370,-0.520934,0.180152
-0.511680,-0.124739,0.617735,-0.269759,0.948940,0.163533
-0.451205,0.395601,0.515173,0.871533,0.150506,0.466668
-0.291880,0.333165,0.487548,-0.488996,0.138894,0.861157
0.107268,0.442286,0.169053,0.451417,-0.875174,0.174046
0.033890,0.782298,0.789898,0.631962,-0.618228,0.467353
0.363922,0.480233,0.777311,0.795960,0.484504,-0.362910
0.165702,-0.684376,0.448353,0.419673,0.519231,0.744496
0.220578,0.523106,-0.235425,0.205212,0.963510,0.171860
0.685947,0.171761,0.816880,0.684066,0.553761,0.474766
-0.228328,0.503138,0.292738,-0.849155,0.096466,-0.519260
0.273118,0.000674,0.848392,-0.582092,-0.773643,-0.250292
0.277419,0.651353,0.765083,0.847442,0.306755,-0.433293
-0.343456,0.494502,0.814413,0.974820,-0.187803,-0.120232
0.469373,-0.108649,0.793710,0.935851,0.283937,-0.208715
-0.071746,0.313904,0.625613,0.100638,0.964549,0.243961
0.111197,-0.046482,0.441118,-0.673228,0.244082,0.697988
-0.295440,0.191054,0.690041,-0.690293,-0.349551,-0.633491
0.238153,0.485428,0.651220,0.491032,0.863175,-0.117542
0.167631,0.823787,0.940191,0.139673,0.981733,0.129193
0.182833,-0.705593,0.454033,0.419673,0.519231,0.744496
0.134037,0.652803,0.599602,0.796399,-0.559032,0.230720
0.361142,-0.778081,0.704123,0.908742,0.128290,0.397152
-0.387097,0.212137,0.781048,0.134632,-0.874494,0.465977
0.667593,0.105613,0.823682,0.413580,0.852524,-0.319618
-0.215351,-0.086419,0.729476,0.926229,-0.352607,0.133295
0.341194,0.310261,0.850021,0.642508,0.391558,0.658685
0.224434,-0.567227,0.755785,0.543184,-0.785694,0.296035
0.330441,-0.750455,0.721284,0.785888,0.611112,0.094451
0.489433,0.038555,0.665675,0.579801,0.784102,0.221393
-0.067816,-0.557782,0.727188,0.734746,0.548019,0.399779
0.673489,0.092660,0.754828,-0.599463,-0.795527,-0.088209
0.063700,0.006781,0.877736,-0.651640,-0.292757,0.699756
0.030107,0.190684,0.492436,-0.437135,-0.831408,-0.343036
0.537560,0.203096,0.314309,-0.334208,0.329093,0.883178
0.188691,0.977636,0.905301,-0.170148,0.758966,0.628506
0.274193,0.725461,0.850978,-0.523668,0.263808,0.810048
0.848757,-0.032955,0.553262,0.884975,0.367547,-0.285882
0.758398,0.154422,0.892311,0.693634,0.325166,0.642759
0.123470,0.921069,0.858870,-0.283096,-0.934385,0.216288
0.160808,0.353944,0.847435,-0.344558,-0.389912,-0.853960
-0.525436,0.142954,0.759582,-0.807506,0.529865,-0.259186
-0.657175,0.050867,0.777819,0.058940,0.985599,0.158493
-0.482426,0.403090,0.510374,0.959907,-0.036414,0.277942
-0.205155,-0.356372,0.744484,0.664317,0.700796,-0.259936
-0.435744,-0.201342,0.699892,-0.140417,0.933589,0.329688
0.355654,0.156345,0.830767,0.317064,-0.878406,0.357592
0.190656,0.573636,0.366958,0.160170,-0.980288,0.115674
0.104152,0.555590,-0.481553,-0.717866,0.682277,0.138442
0.061402,0.772246,0.762153,0.778393,-0.509387,0.366919
0.220133,0.378702,0.787252,0.940133,0.340721,0.007726
0.135817,0.781657,0.692284,-0.895798,0.421063,-0.142306
-0.156174,-0.611415,0.782199,-0.575314,-0.398046,0.714544
0.075380,0.387776,0.050735,-0.746389,0.653192,0.127450
0.187134,0.512919,0.496293,0.983999,-0.144145,-0.104732
-0.039860,0.370472,0.726635,0.801913,-0.597064,0.021219
0.020615,-0.311812,0.412461,-0.758677,-0.419450,-0.498469
0.597330,-0.265701,0.737264,0.730983,0.677549,-0.081187
-0.230664,0.191628,0.789943,-0.734214,0.640741,-0.224454
0.400778,0.116408,0.784322,-0.287184,0.425416,0.858223
0.241342,0.342508,0.901309,0.871306,-0.102850,0.479841
0.113978,-0.591378,0.437007,0.580290,-0.102689,-0.807910
-0.257064,0.405148,0.888872,0.902485,0.298098,-0.310900
0.199740,0.173750,0.742541,-0.737867,0.606206,-0.296760
0.476344,0.745363,0.887093,0.815306,-0.560595,-0.144947
-0.602225,0.377792,0.610216,0.607858,0.691987,0.389440
0.214015,0.834042,0.991240,0.743976,-0.447117,0.496575
0.174750,0.383493,0.501614,0.994650,0.031522,-0.098379
0.315165,-0.709337,0.722240,0.927824,0.360839,0.094544
0.744271,-0.006240,0.756772,0.934797,0.319128,0.155920
0.336225,0.663463,0.929473,-0.711221,0.702927,0.007575
-0.434668,-0.195676,0.690804,0.853631,0.167428,0.493236
0.901149,-0.192437,0.567583,0.727285,0.671999,0.139547
0.857693,-0.122343,0.573158,0.377921,0.894086,0.240389
0.582128,0.205424,0.753857,-0.408249,-0.078565,-0.909484
0.095068,0.388957,0.414853,-0.134966,0.990009,-0.040831
-0.644902,0.107468,0.688442,-0.303528,0.685203,0.662094
-0.024324,-0.634656,0.628752,0.715671,0.635714,0.289278
0.736411,0.047292,0.564070,0.217419,-0.321751,0.921523
-0.013571,-0.141570,0.792603,0.637937,0.437969,-0.633419
0.126918,-0.201916,0.293306,-0.289954,0.714041,0.637238
0.132999,0.786109,0.659322,0.869986,-0.323095,0.372469
0.645235,0.252716,0.883775,0.177535,-0.246650,0.952704
-0.013534,0.066282,0.617346,0.810509,0.446950,0.378564
0.731145,-0.013728,0.753558,0.912526,0.368130,0.178261
0.052429,0.363557,0.482884,-0.651660,0.748680,0.121729
0.594957,-0.228125,0.716171,0.309034,0.876410,0.369329
0.065221,0.001585,0.187515,0.403129,0.803951,0.437207
0.051909,0.263037,0.397423,0.883785,0.314566,0.346371
0.138784,0.495210,0.206231,-0.680131,0.732982,-0.012580
0.296107,0.876746,0.914135,0.195660,0.839755,-0.506486
0.016203,0.565068,-0.989013,-0.297878,-0.893086,0.337144
-0.628402,0.170580,0.677739,-0.515065,0.559278,0.649551
0.548980,0.272347,0.729416,-0.810665,0.540914,-0.224133
-0.779830,0.137118,0.715319,0.879296,0.128717,0.458553
0.098443,-0.236086,0.658933,-0.417205,0.762482,0.494531
-0.847645,0.427713,0.754126,0.482787,-0.349198,0.803105
-0.756062,0.335662,0.698383,0.749428,-0.015434,0.661906
0.373823,0.133880,0.780555,-0.449203,-0.334612,0.828403
0.243344,0.502126,0.649546,0.190392,-0.980263,0.053256
0.463033,0.728699,0.874133,0.844624,-0.525766,0.100902
0.277753,0.456385,0.665032,0.348287,0.923764,-0.159233
0.038821,0.223235,0.424719,0.844062,0.432230,0.317389
-0.740861,0.198105,0.816521,0.873551,0.256192,-0.413852
0.233036,0.720569,0.609214,0.972503,-0.119680,0.199787
-0.782351,0.314646,0.788986,0.857736,0.459142,-0.231250
0.180830,0.352122,0.267968,0.181455,0.952037,0.246374
0.630181,0.218512,0.859050,0.016953,0.917317,-0.397796
-0.204301,0.351178,0.842532,0.067562,0.990976,0.115769
0.023767,0.782028,0.903761,0.985879,0.066219,-0.153808
0.167593,0.468731,0.433808,0.990223,0.039073,-0.133908
0.027623,0.232106,0.110291,0.997141,0.031234,-0.068802
0.057212,-0.649699,0.666527,0.257598,0.926559,0.274103
-0.213423,0.215240,0.805654,0.153176,-0.986683,-0.054724
-0.671487,0.221581,0.825027,-0.207036,-0.112655,0.971826
0.156877,0.636072,0.639694,-0.702262,0.371302,0.607423
0.706081,0.257067,0.748221,0.942383,-0.038339,-0.332331
0.088950,0.431593,0.852188,-0.551291,0.725479,-0.412017
-0.431627,-0.079235,0.692194,0.830067,0.485624,0.274152
-0.188728,0.352763,0.892340,0.219961,0.682680,-0.696826
-0.643418,0.196249,0.832217,0.034112,-0.130472,0.990865
-0.065740,-0.208528,0.833428,-0.205094,-0.770366,0.603715
0.538932,0.221986,0.330349,-0.296710,0.657417,0.692651
0.580942,-0.202557,0.587808,0.403821,0.813984,0.417562
0.136930,0.408554,0.942343,-0.570994,0.113443,-0.813079
-0.186096,0.291372,0.861636,0.807640,-0.038911,0.588390
0.100815,-0.392431,0.799076,0.840508,-0.540315,0.040066
-0.101261,-0.549652,0.643835,0.990599,-0.130085,-0.042321
-0.228995,-0.032180,0.771391,-0.144433,0.989097,-0.028747
-0.010160,0.175269,0.845432,0.781572,0.598909,0.174509
0.151205,-0.659920,0.438247,0.376491,0.507115,0.775299
0.417537,-0.658369,0.661325,0.768422,-0.553365,-0.321426
0.301483,0.384504,0.194018,0.449459,0.502548,-0.738533
0.238783,0.811273,0.944272,0.711188,-0.150318,0.686743
-0.498183,-0.131890,0.612383,-0.116714,0.953402,0.278212
-0.209307,0.172469,0.897602,0.480206,0.867340,0.130859
0.134260,0.459320,0.871009,-0.144685,0.833944,-0.532545
0.074935,0.741213,0.693988,0.784721,0.616106,-0.068016
0.000593,0.520610,0.500149,-0.291507,0.939904,-0.177777
0.106229,-0.023882,0.892580,-0.104146,-0.770139,0.629317
-0.156804,0.283749,0.645734,-0.398049,-0.171169,-0.901254
-0.516982,-0.126358,0.707591,-0.330288,-0.098483,-0.938728
0.031369,-0.219085,0.471971,-0.273969,0.896044,0.349351
-0.480274,-0.089658,0.729864,0.778857,0.276421,0.563004
0.003411,-0.196957,0.819406,-0.700739,0.455139,-0.549375
0.179533,0.482223,0.427081,0.991160,-0.088170,-0.099132
0.299184,0.244249,0.912371,0.772145,0.625356,0.112794
0.077938,0.353944,0.439279,0.788533,-0.576786,0.213387
0.213904,0.625818,0.523992,-0.169280,0.945479,0.278235
0.077567,0.488363,-0.108691,0.091874,-0.992447,-0.081296
0.678457,0.038285,0.785996,0.942746,-0.144334,0.300662
0.528439,-0.111820,0.503184,0.992656,0.024268,-0.118515
0.065555,0.541760,-0.251599,0.106784,0.992609,-0.057656
-0.311421,0.542974,0.063621,0.274837,-0.411959,0.868766
-0.004747,0.718276,0.903851,0.831758,-0.002245,-0.555134
-0.492213,0.488296,0.691297,0.235339,0.227441,0.944927
-0.487394,-0.038994,0.664494,0.877855,0.161042,0.451039
-0.081535,0.280949,0.896317,-0.361947,-0.873231,-0.326285
0.181016,0.390778,-0.041258,0.726573,0.686869,0.017395
0.320207,0.014707,0.678845,0.784284,-0.612112,0.101077
-0.033890,0.053970,0.632728,-0.638629,-0.399363,-0.657771
0.698331,0.295083,0.883894,0.842993,-0.245862,0.478451
0.508936,-0.052418,0.844131,0.304681,0.946312,0.107999
-0.257694,-0.133306,0.853668,0.789776,-0.055173,-0.610909
-0.487282,-0.172704,0.734169,-0.728064,0.606081,0.320293
0.246941,0.068778,0.775203,0.823518,0.453189,-0.341230
-0.176234,-0.278216,0.677305,-0.880824,0.048495,-0.470954
0.102521,-0.066687,0.874806,-0.054761,-0.966211,0.251867
0.560659,-0.168826,0.548329,0.477996,0.780931,0.402078
0.060252,0.052959,0.416751,-0.157001,0.370889,0.915310
0.358769,0.788606,0.828644,0.938383,0.263061,0.224136
0.397479,0.159009,0.593010,0.715654,0.698202,0.018789
0.569744,0.323552,0.797581,-0.378895,0.798695,0.467467
-0.601780,0.230925,0.768850,0.879419,0.416503,0.230538
0.362810,0.899009,0.857032,-0.366779,-0.855372,0.365804
0.088950,0.371888,0.875792,0.555888,0.785825,0.271049
0.121097,0.238009,0.787416,0.217373,-0.841415,0.494742
-0.020133,0.802739,0.823173,0.912388,0.398356,0.094129
0.807898,-0.118127,0.569660,0.436684,0.819173,0.371835
0.310456,0.157762,0.894672,0.309708,-0.910650,0.273491
-0.043419,0.357249,0.679129,0.808634,-0.452402,-0.376090
0.529885,0.203738,0.748057,-0.109729,0.614876,0.780953
0.082981,0.400560,0.250553,0.997546,0.065527,0.024662
0.333815,0.476793,0.898574,0.273079,0.960453,0.054390
0.261735,0.756359,0.852203,0.501560,-0.153321,-0.851428
0.003744,0.716994,0.797402,-0.513753,-0.655945,0.552986
0.296885,0.737300,0.853549,0.157829,0.926288,-0.342169
0.088468,0.514775,-0.001256,0.142817,-0.913186,0.381699
-0.564739,0.367301,0.600843,0.682406,0.624344,-0.380153
-0.454431,0.584936,0.099827,0.462934,-0.264458,0.846022
0.576344,-0.162484,0.773215,0.801668,-0.563869,0.198446
-0.193400,0.487924,0.242421,0.451893,0.826939,0.334612
0.013496,0.395028,0.542708,0.729458,0.626977,0.273480
0.239785,-0.039533,0.874537,0.866739,-0.436599,-0.241134
0.372043,0.860892,0.810542,0.253702,0.690728,-0.677149
-0.278754,-0.260744,0.721269,0.809072,0.566001,-0.158258
-0.022470,-0.710079,0.756009,-0.654893,-0.704912,-0.272421
0.209751,0.552317,-0.133685,0.541556,-0.830390,0.131031
-0.589915,0.149700,0.779150,0.756383,0.519825,0.397072
0.224657,-0.457870,0.718459,-0.661369,0.412634,-0.626357
0.247831,0.216623,0.702090,0.782818,-0.604053,-0.149385
0.052540,0.404372,0.161624,-0.831848,0.532106,0.157772
0.696996,0.250658,0.872115,0.860059,0.104816,0.499312
-0.585985,-0.148351,0.627452,0.460161,-0.880007,0.117641
-0.014349,-0.166869,0.832935,0.979424,0.023075,0.200490
-0.072155,-0.037644,0.649994,0.746364,-0.303889,-0.592109
0.159622,0.609965,0.420175,0.938516,-0.340018,-0.059799
0.336225,0.199791,0.899650,-0.383440,-0.882656,-0.271832
-0.055247,0.821966,0.859259,0.323794,0.821673,0.469053
0.113867,-0.291372,0.469849,0.250378,-0.053537,-0.966667
0.083760,0.344600,0.305878,0.545546,-0.819161,0.177072
0.596774,-0.292957,0.727712,-0.160274,-0.845293,0.509697
-0.024843,0.796972,0.853534,0.876678,-0.224504,0.425480
-0.456729,0.333974,0.501271,0.801855,-0.596867,0.027906
0.045013,0.314208,0.342920,0.902114,-0.427529,-0.058393
0.025806,0.519969,0.478923,0.187193,-0.974872,0.120760
0.106452,0.393982,0.215857,0.885482,0.426007,0.185580
-0.235818,-0.021352,0.596942,0.422705,-0.809182,-0.408099
0.628328,-0.325407,0.662939,-0.708832,-0.671405,0.216268
0.129143,0.121602,0.306655,-0.563142,-0.622834,-0.543091
0.264739,-0.117183,0.636854,0.175144,0.403999,0.897836
0.296403,0.776598,0.904822,0.887011,0.250471,0.387913
-0.049574,0.381165,0.849976,-0.497034,-0.597087,0.629639
-0.056210,-0.400459,0.777924,0.104820,0.776318,0.621565
-0.277567,0.274709,0.673942,0.587296,0.055508,0.807466
-0.214201,0.536835,0.754843,-0.720087,0.126268,-0.682298
-0.002337,-0.388112,0.779807,-0.592348,0.452040,0.666921
-0.371264,0.505431,0.810452,0.946051,-0.171831,0.274704
0.186837,0.885617,0.831993,-0.256929,-0.903488,0.343069
-0.034261,-0.244080,0.760972,-0.075966,0.850810,0.519953
-0.065110,-0.110673,0.732136,0.534870,0.638331,0.553577
-0.649351,0.283108,0.616614,0.830030,-0.442732,-0.339173
0.064368,-0.069520,0.584983,0.992993,0.116251,0.021227
0.051798,-0.299636,0.821813,0.711341,0.618386,-0.334055
0.724249,0.198138,0.729266,0.891941,-0.287775,-0.348752
-0.692621,0.233016,0.838152,-0.753650,0.365577,-0.546228
0.228327,0.597619,0.432223,0.970568,0.174525,-0.165951
0.199036,0.335425,0.509761,0.652827,0.669201,0.354947
0.142566,0.464683,0.957307,0.484179,-0.515424,-0.707043
0.064330,0.504318,0.451910,-0.238525,-0.970170,0.043318
0.095179,0.656176,-0.855268,0.105947,-0.994336,-0.008387
0.158880,0.703164,0.620097,0.055973,-0.882442,0.467080
0.031405,0.147170,0.521780,0.397841,0.912472,0.095483
0.318354,0.167206,0.939249,0.985132,0.171070,0.015832
0.160586,0.123119,0.864670,-0.127762,0.990117,-0.057839
0.230812,0.375396,0.617227,0.847102,-0.210983,0.487754
0.207675,0.430210,0.895599,0.107872,0.709987,0.695904
-0.153244,-0.463402,0.659128,0.569086,0.785588,-0.242884
0.501965,-0.037340,0.850439,0.356086,0.900908,0.248129
0.307934,-0.694056,0.636645,0.778957,-0.618421,-0.103832
0.614682,0.279633,0.881443,0.876703,0.478055,0.053435
0.255283,0.742360,0.979685,0.875209,-0.140544,0.462880
-0.084353,-0.686332,0.805878,-0.570404,0.121889,-0.812270
0.523433,-0.293126,0.700042,0.941239,-0.255930,0.220382
0.095588,-0.273899,0.462359,0.342289,0.138006,-0.929404
0.710901,0.098732,0.824339,0.932870,-0.329916,-0.144599
-0.310753,-0.013627,0.582083,-0.441084,0.860856,0.253717
-0.908454,0.367267,0.773006,0.273567,0.838992,0.470376
-0.060215,0.755482,0.822276,-0.375804,0.113935,-0.919668
0.425621,0.426904,0.860724,0.492519,-0.808205,-0.322847
0.483463,0.432875,0.395913,0.955790,-0.081339,-0.282577
0.035298,0.459793,0.923822,0.392259,0.913789,0.105468
0.175268,0.557714,0.306864,-0.020380,0.988931,-0.146967
0.279013,0.090973,0.806251,-0.696280,-0.194208,0.690998
0.134186,-0.379512,0.719639,0.409407,0.602503,0.685111
0.511716,0.431964,0.415720,0.958340,-0.090264,-0.270994
0.697626,0.077211,0.766668,0.860265,0.484652,0.158293
-0.137042,0.379478,0.933389,0.104846,-0.878849,0.465436
-0.805896,0.377488,0.758147,-0.429512,0.601468,0.673614
0.049574,0.312184,0.219146,0.928364,-0.092648,-0.359941
0.832925,-0.127437,0.645719,0.864412,0.316786,-0.390435
0.635780,0.017169,0.806565,-0.706109,0.467820,-0.531559
0.306822,0.296533,0.853848,0.477422,0.517764,0.709921
0.031442,0.715814,0.781736,0.977415,-0.144584,-0.154129
0.181869,0.480133,0.562440,0.924563,0.221555,-0.309994
-0.012940,-0.340114,0.432537,-0.760719,-0.331207,-0.558219
-0.275825,0.414289,0.332098,0.917538,-0.222827,0.329350
0.348683,-0.822978,0.649247,0.992138,-0.023432,-0.122933
-0.004635,0.335728,0.655645,0.924704,-0.244485,0.291805
-0.654987,0.028604,0.797835,0.040583,0.946203,0.321017
0.626770,-0.368178,0.728788,0.090278,0.685720,0.722246
-0.267037,0.446333,0.330005,-0.878086,0.437353,-0.194133
0.733333,0.008501,0.779763,-0.689138,0.240594,-0.683523
0.033852,0.460872,0.027730,0.913869,0.386247,-0.125129
0.393585,0.916076,0.879500,-0.457575,0.886495,-0.068927
0.224842,0.708393,0.701507,0.050603,0.996457,0.067180
-0.015165,-0.766546,0.685527,0.962994,-0.174879,-0.205085
-0.054394,-0.503609,0.538956,-0.065131,0.899218,0.432626
-0.181461,0.457938,0.824220,0.535798,0.824251,0.183116
0.193177,0.522836,0.475798,0.832607,-0.546131,0.092229
0.034409,0.569891,-0.309436,0.940974,0.329625,-0.076909
-0.378829,-0.103150,0.805579,0.810246,0.567942,0.144719
0.960104,-0.206470,0.594624,0.953976,0.234454,-0.186978
0.008268,0.299872,0.210610,0.272427,0.516053,0.812079
0.196551,0.626426,0.521945,-0.147237,0.971105,0.187822
0.296774,-0.569857,0.678142,0.899599,-0.382288,-0.211134
0.062550,-0.287897,0.713361,-0.593714,0.778652,0.202992
0.008045,0.560177,0.553650,-0.426535,0.780654,-0.456779
-0.162551,0.388248,0.907065,-0.658353,-0.086848,-0.747682
0.007341,0.209573,0.803038,-0.845059,-0.132114,-0.518093
-0.057879,0.728598,0.835670,-0.137979,0.969785,-0.201193
0.491991,-0.044930,0.821484,0.933522,-0.222352,-0.281241
0.725547,-0.005127,0.595252,0.746188,0.628695,0.218966
0.509752,0.178608,0.327478,-0.181174,0.910756,-0.371080
0.126844,0.360319,0.257713,0.074508,0.994419,-0.074695
0.995402,-0.116947,0.642609,-0.612791,0.380622,0.692542
-0.105229,-0.208966,0.806894,-0.365971,-0.825558,0.429558
0.218724,0.862343,0.812096,-0.082103,-0.813858,0.575235
0.847831,0.057107,0.563726,0.231893,-0.142895,0.962188
-0.091731,0.390373,0.662297,0.822615,-0.229494,-0.520228
0.117909,0.477568,0.952807,-0.596762,0.782736,0.176635
-0.093622,-0.376374,0.772901,-0.671499,-0.697278,-0.250783
-0.555840,0.074175,0.780899,0.963795,-0.033455,0.264536
0.211828,-0.112325,0.417035,0.873548,-0.225080,-0.431570
-0.234928,0.469372,0.308075,0.946379,-0.142114,0.290123
0.049128,0.337955,0.322635,0.930130,-0.357896,0.082276
0.336596,0.401067,0.192433,0.139426,0.482158,0.864919
0.171672,-0.694630,0.450251,0.419673,0.519231,0.744496
0.588320,0.299366,0.745441,0.469282,0.263178,-0.842918
0.246125,-0.364568,0.592756,-0.625062,0.463344,0.628180
0.199147,0.492242,0.594221,-0.540977,0.809462,0.228287
-0.144939,0.069959,0.555265,-0.497062,0.866281,0.049858
0.316426,0.492275,0.903118,-0.029932,0.997644,-0.061723
-0.038524,-0.484720,0.518521,-0.018971,0.855006,0.518271
-0.388506,0.361938,0.430938,-0.821752,-0.395002,-0.410727
0.123025,0.589220,-0.713391,0.810195,0.421051,-0.407800
0.105895,-0.106085,0.254141,0.802576,0.503378,0.320129
0.279978,-0.352898,0.714557,-0.401545,0.148454,-0.903727
-0.332406,0.183195,0.685407,0.353309,0.708797,0.610557
