0.560060,0.111240,0.520903,-0.404481,0.096260,0.909466
0.431242,-0.160242,0.529763,0.630721,0.679023,-0.375659
0.674393,0.300280,0.443313,-0.654952,0.045206,-0.754317
-0.460313,0.354691,0.461865,-0.084716,0.992709,0.085745
-0.395363,0.691408,0.124383,0.261116,-0.836752,-0.481316
0.339711,-0.782645,-0.966854,0.184019,0.084543,-0.979280
-0.383260,0.029187,0.690503,-0.445338,0.403050,-0.799515
-0.489167,0.021454,0.740423,-0.467186,-0.757429,0.456113
0.111364,-0.334299,0.751405,-0.664513,-0.643307,0.380235
-0.063382,-0.783607,-0.101130,0.528499,0.733944,-0.426633
0.019506,-0.591865,-0.114434,-0.543505,-0.728492,-0.417015
0.266440,-0.216487,0.286243,0.012506,-0.957730,0.287397
0.873455,0.544026,0.294587,0.797130,-0.603769,-0.006824
0.065219,-0.363775,0.713299,-0.650082,-0.522457,0.551753
0.312908,-0.027253,0.435428,0.956211,-0.071809,-0.283733
0.107258,-0.137626,0.321138,0.938854,0.297867,-0.172709
-0.510241,0.028320,0.500832,-0.108903,0.939340,-0.325239
-0.422707,-0.429306,0.757283,0.335931,-0.571963,0.748337
0.091803,-0.607421,0.727606,0.433503,0.530904,-0.728159
-0.252391,-0.229052,0.514767,0.087090,0.935794,-0.341620
0.147565,-0.302504,-0.120828,-0.559362,0.757235,0.337208
-0.529475,0.451438,0.244495,-0.018639,-0.913851,0.405623
-0.086183,0.524017,0.547712,0.957460,-0.269980,-0.101885
0.391043,-0.617761,-0.957793,0.181909,-0.002827,-0.983311
0.049873,0.202572,0.330141,0.890816,-0.240628,0.385416
0.530339,0.515995,0.334614,-0.668346,-0.261530,-0.696359
0.318528,-0.618245,-0.968603,-0.034158,0.122478,0.991883
-0.182256,-0.249444,0.882727,0.901689,-0.405439,0.150253
-0.489276,0.504108,0.454783,0.932286,-0.095279,0.348948
-0.339602,-0.532234,-0.206245,-0.161411,0.839600,0.518669
0.290538,0.582197,0.512473,0.658555,0.498267,-0.563945
0.144432,0.026963,0.884792,0.943611,0.331031,-0.004077
0.890960,0.068715,0.392132,-0.520093,0.848998,-0.093300
-0.450261,-0.440319,0.779132,0.627993,0.521665,-0.577486
0.136435,-0.575142,-0.978667,-0.314703,0.179212,0.932119
-0.087803,-0.446023,0.502380,0.834325,0.523581,0.172527
0.590319,0.378180,0.208195,0.976613,-0.214168,-0.018971
-0.124222,-0.509134,0.777039,0.887642,0.457284,0.054608
0.557682,0.150190,0.389552,0.562453,0.435618,-0.702769
-0.457935,0.530688,0.234402,0.792224,-0.609447,-0.030911
-0.147242,-0.236785,0.792837,0.994986,-0.057484,-0.081844
-0.744204,0.015077,0.553188,0.118071,-0.963607,0.239835
-0.298968,0.280566,0.708539,0.238843,-0.833509,0.498213
0.085861,0.259785,0.753469,-0.330171,-0.935968,0.122271
-0.719783,0.401374,0.212152,-0.286022,0.222941,-0.931928
0.617876,0.619212,0.327388,0.115235,-0.369357,0.922115
0.033338,-0.579684,0.609302,0.545404,0.434848,0.716549
0.624251,0.506232,0.209542,0.823985,-0.004447,-0.566594
-0.135138,0.835222,0.173501,-0.653392,0.526130,-0.544304
-0.352355,0.589158,0.180439,-0.004790,0.793035,0.609157
0.118712,-0.546922,0.651394,0.298648,0.953853,-0.031206
-0.076349,-0.338841,0.500688,-0.677783,0.593753,-0.433668
0.540500,0.916791,0.297654,0.320328,-0.683266,0.656154
-0.493490,-0.058570,0.788651,0.586091,0.505960,0.632852
-0.007620,-0.348214,0.318729,0.818123,0.507922,0.269611
-0.559842,0.071323,0.524515,0.860966,-0.490733,0.133862
0.602746,0.672662,0.288623,-0.599560,0.544934,0.586152
-0.402711,-0.072390,0.723563,-0.424017,-0.863355,0.273545
0.009348,-0.079923,0.984259,0.900023,-0.320526,-0.295332
-0.069542,-0.259590,0.478352,0.555285,0.819151,-0.143703
0.265467,-0.389005,-0.966481,-0.220564,0.144381,0.964627
0.317232,-0.840920,-0.970754,-0.164774,0.165079,0.972419
-0.107040,0.505459,0.541805,0.537852,0.795959,0.277784
-0.297994,0.146226,0.704266,-0.681151,0.459502,0.569993
-0.066300,-0.581908,-0.137631,0.230337,0.551691,0.801612
-0.116551,0.326087,0.651824,0.882339,0.466766,-0.060059
0.093209,-0.265683,0.831718,0.859894,0.506043,0.067109
-0.630412,0.174252,0.505132,-0.718791,-0.644010,0.261898
-0.082942,0.223737,0.698159,0.760729,0.502104,0.411319
-0.352460,-0.066975,0.436891,0.862827,0.396267,0.313849
-0.058844,0.892240,0.420060,0.229841,0.795417,0.560790
-0.532284,0.558425,0.157616,0.940280,0.319399,-0.117719
0.129737,-0.612930,-0.977176,-0.351958,0.207143,0.912807
-0.111686,0.732004,0.171321,0.555082,-0.397122,0.730875
0.347167,-0.749394,-0.967169,-0.279506,0.374255,0.884200
-0.023721,0.130665,0.610534,0.246403,-0.280047,0.927825
0.024911,-0.625978,-0.982624,0.272864,-0.023229,-0.961772
0.193710,0.567415,0.509462,-0.331004,0.854098,-0.401189
-0.001782,0.383011,0.451027,-0.707980,0.639619,-0.299420
-0.643270,-0.077316,0.488559,0.667327,0.281448,0.689537
-0.301131,-0.579006,0.622233,0.177642,0.054807,0.982568
-0.593128,0.680973,0.350958,0.243442,-0.813834,0.527646
0.037015,0.505076,0.437177,0.702937,0.618011,-0.352054
0.065001,-0.496570,-0.145860,-0.424913,0.006651,-0.905210
-0.082187,-0.124772,0.183049,-0.130182,-0.988642,0.075101
0.590210,-0.062722,0.408390,0.810495,-0.373394,-0.451304
-0.404766,-0.014015,0.521619,-0.087484,0.731260,0.676465
0.108122,-0.331208,-0.106377,0.534555,-0.845037,-0.012799
-0.818448,0.253697,0.525691,0.096975,-0.760507,0.642048
0.332577,-0.837540,-0.966195,0.223321,-0.016498,-0.974605
-0.061436,-0.154732,0.815862,0.742163,0.026781,0.669684
-0.443563,-0.195033,0.398411,0.786023,-0.595715,0.165201
0.020587,-0.139171,0.554536,0.785022,0.245126,0.568905
0.210029,0.540351,0.225800,0.153754,0.223481,0.962505
-0.182147,-0.050641,0.591581,-0.100090,-0.394391,0.913476
-0.270978,-0.047161,0.526809,0.767417,0.040510,-0.639867
0.475009,0.178605,0.101990,0.844931,-0.498491,0.193902
-0.102934,0.851072,0.372520,-0.700812,0.599891,-0.385997
0.340575,-0.726972,-0.962811,0.117149,0.005262,0.993100
0.067379,-0.033729,0.399300,-0.431584,-0.849236,0.304192
0.202031,-0.078767,-0.151996,0.919307,-0.393532,-0.002621
0.231103,0.045132,0.640412,0.983892,0.065446,0.166350
0.148215,-0.916496,-0.972675,-0.208542,0.229596,0.950682
0.002109,0.719534,0.433163,-0.115770,0.645324,-0.755085
0.149188,-0.150863,0.425049,0.315411,0.499298,0.806980
0.002000,-0.346285,-0.982538,0.176590,-0.219249,-0.959555
0.573460,0.094523,0.384907,-0.302550,-0.518920,0.799490
-0.275193,-0.504203,0.778042,0.774178,0.435551,0.459286
0.220081,-0.517251,-0.930898,0.878241,0.476869,-0.035907
-0.656024,0.360879,0.337682,0.452139,0.870563,0.194140
0.260065,-0.840826,-0.969205,-0.201499,0.301533,0.931921
-0.179120,0.055089,0.099209,-0.714565,0.025021,-0.699122
-0.346735,-0.027642,0.632355,-0.028103,-0.992573,0.118360
0.086834,-0.370057,-0.498108,0.766743,0.624859,-0.147159
0.188090,-0.511647,-0.954095,-0.661777,-0.252179,0.706015
-0.605664,0.367067,0.335216,-0.246314,-0.323112,0.913744
0.412978,-0.310621,0.542608,0.553469,0.766480,-0.325853
0.311289,-0.098286,-0.000029,-0.398403,-0.647518,0.649612
0.071593,0.189718,0.257197,-0.311976,0.239445,0.919422
-0.579834,0.677009,0.348750,-0.070985,-0.789055,0.610207
-0.281567,-0.123805,0.743118,0.834607,-0.259325,0.485986
0.016587,0.299313,0.342614,-0.267638,-0.562670,0.782159
0.367806,0.600850,0.167680,0.053456,0.893594,0.445681
0.023071,-0.309653,0.370427,-0.530016,-0.839294,-0.121117
0.020479,0.053738,0.573661,-0.677904,0.643355,-0.355725
0.152753,-0.447958,-0.550465,0.715460,0.698484,0.015392
0.277894,-0.002707,0.516917,-0.099121,0.935819,-0.338258
-0.373752,0.154538,0.132670,0.429988,-0.333966,0.838795
0.041876,-0.126318,0.165357,-0.742269,0.616199,-0.263316
0.141946,0.006377,0.845567,-0.747882,-0.357201,0.559536
0.069542,0.428049,0.437550,-0.630607,-0.018585,0.775880
-0.061004,-0.272544,0.263161,-0.076365,-0.996929,0.017378
-0.169394,0.312556,0.279074,0.795789,0.291764,0.530653
-0.228833,0.026096,0.663895,0.957222,-0.260880,0.125171
-0.055061,0.794626,0.134763,0.001720,-0.259800,0.965661
-0.101311,-0.505265,0.744065,-0.727132,-0.682691,-0.072187
0.366510,-0.443704,-0.968202,-0.162081,0.317478,0.934311
0.162587,-0.316903,-0.350929,0.977179,0.179144,0.114140
-0.028690,-0.088429,0.740653,-0.525545,-0.690939,0.496393
-0.550440,0.057024,0.695235,-0.326616,-0.787049,-0.523331
-0.052897,-0.233983,0.835618,-0.087882,-0.962854,0.255321
0.155672,0.095968,0.221069,0.942362,-0.334453,-0.009782
-0.136976,0.298351,0.621172,0.323324,-0.735495,0.595406
0.192846,-0.246837,0.535354,-0.722413,0.599421,-0.344693
-0.054520,0.128347,0.676626,-0.216978,-0.963617,0.156088
0.764738,0.757517,0.353166,-0.440318,0.884371,0.154945
0.146160,-0.645209,-0.972646,0.437494,-0.152902,-0.886126
-0.186039,0.495992,0.310070,-0.217736,-0.294076,0.930650
-0.186253,0.656039,0.339230,0.690855,0.068169,-0.719772
-0.231211,0.378853,0.407644,-0.100963,-0.231890,-0.967488
0.118929,-0.154538,0.707507,0.733289,-0.488729,0.472685
-0.145082,0.115588,0.726345,-0.191086,0.919039,0.344752
0.588805,0.597180,0.307346,-0.080072,-0.304373,0.949182
-0.142595,-0.244224,0.632899,0.898304,-0.354104,0.260118
-0.299508,0.255242,0.710632,0.238843,-0.833509,0.498213
-0.093854,-0.210594,0.900533,0.058487,-0.995011,-0.080820
0.713299,0.500050,0.161802,-0.377308,0.924933,0.046239
-0.203868,0.703489,0.394139,-0.763743,0.445555,-0.467095
0.355597,0.402920,0.224825,-0.298890,-0.353291,-0.886482
-0.171663,-0.238814,0.772566,-0.389676,0.683096,-0.617683
-0.283513,0.059726,0.732567,-0.007609,0.996757,0.080115
-0.168530,-0.331402,0.606291,0.696484,-0.032345,-0.716843
0.374507,0.214747,0.610047,0.824930,0.015750,-0.565016
-0.173500,-0.398183,0.579883,0.989651,0.069344,0.125627
0.069866,-0.040785,0.194633,-0.816358,0.565355,-0.118039
-0.809800,0.549341,0.344162,0.294168,0.043164,0.954779
0.291620,0.160726,0.657472,0.340927,-0.177434,-0.923193
-0.147565,0.692570,0.366642,-0.717396,0.638769,-0.278060
0.008375,-0.826232,-0.309955,-0.723812,-0.672772,-0.153212
-0.497379,0.527497,0.622032,-0.556474,0.541960,-0.629775
-0.501270,0.537744,0.238645,0.785685,-0.405560,-0.467141
0.279625,0.085338,0.619509,0.814126,-0.578548,-0.049809
-0.105312,-0.514254,-0.164411,-0.061259,0.998107,-0.005439
0.246557,-0.258528,-0.989649,-0.040667,0.323615,0.945315
-0.568921,0.244418,0.448130,-0.705504,0.560970,-0.433102
-0.126277,-0.548084,0.667393,0.875170,-0.386505,0.291019
-0.159454,0.769113,0.356778,0.211051,-0.463991,0.860331
0.312367,0.321256,0.654691,-0.006355,-0.961152,0.275945
0.000163,-0.166713,0.162060,0.975875,0.007151,0.218212
0.330417,-0.592927,-0.973908,-0.035504,-0.001298,0.999369
-0.682391,0.118584,0.403659,0.379742,-0.921428,-0.082257
0.076026,0.265395,0.715105,0.294602,-0.929783,0.220712
-0.369643,-0.397021,0.745699,0.809192,-0.292426,0.509604
-0.201276,0.120613,0.595481,-0.458346,0.860707,-0.221593
-0.025881,-0.307530,0.819675,-0.532902,0.511028,-0.674437
0.105635,-0.358366,0.390469,-0.680010,0.456564,0.573704
-0.399146,-0.544020,0.548056,0.663770,-0.747788,-0.014943
-0.037120,0.847008,0.397981,-0.792910,0.584468,-0.172313
-0.517912,0.376151,0.500057,0.891913,0.325846,0.313554
-0.394176,-0.417803,0.714675,-0.374794,-0.889194,-0.262419
-0.069110,-0.086400,0.871746,0.955188,0.272664,-0.115199
0.395255,-0.913600,-0.956274,0.319165,-0.089986,-0.943417
0.001568,-0.470090,-0.982567,-0.139154,0.117493,0.983276
-0.431674,0.246447,0.388663,-0.460642,-0.880658,0.110681
-0.047927,-0.093361,0.889007,0.883951,0.459688,-0.085544
-0.199762,0.370931,0.315260,0.888742,-0.002125,-0.458403
0.117415,0.111724,0.590549,0.210101,0.834822,-0.508851
-0.156644,-0.179667,0.655895,0.358914,-0.550152,0.753998
0.009457,0.217360,0.609732,0.787503,0.616137,0.014636
-0.480196,0.081085,0.775576,0.930081,0.330629,-0.160104
0.153403,-0.257756,0.530279,0.741090,-0.546822,0.389578
0.187335,0.226828,0.237671,0.802530,-0.512856,0.304834
-0.154481,0.170294,0.716596,0.887051,-0.419373,-0.193046
0.301454,-0.421088,-0.975313,-0.109560,0.306452,0.945560
0.360349,-0.461678,-0.966395,-0.073338,0.110722,0.991142
-0.157400,-0.699431,-0.131236,-0.334646,0.612948,0.715756
-0.725835,-0.002607,0.520960,-0.671912,0.736684,-0.076359
-0.493814,0.068138,0.787648,0.973133,0.052813,-0.224104
0.512942,-0.107182,0.360391,0.816269,0.476059,-0.327220
0.071162,-0.039528,0.264193,0.796732,0.552930,-0.243899
-0.040579,-0.180923,0.848434,0.664398,0.139615,-0.734222
-0.714377,0.688123,0.173242,-0.222749,-0.490924,0.842245
0.173395,-0.568282,-0.977377,-0.513248,0.224559,0.828342
-0.006320,0.227506,0.658820,0.964051,0.126548,0.233650
-0.876587,0.149612,0.457822,0.069759,0.992939,-0.095952
-0.058194,-0.026096,0.570077,0.929857,-0.277770,0.241265
0.812614,0.501018,0.337166,-0.495502,0.633191,0.594598
0.441294,-0.108244,0.335130,0.715198,0.279314,-0.640684
-0.276056,-0.037983,0.593273,0.069640,-0.824218,0.561974
-0.442590,0.474243,0.607524,0.825624,0.224872,-0.517472
0.499648,0.027253,0.465449,0.808368,0.494963,0.318674
-0.151889,0.054122,0.103510,-0.730671,0.300078,-0.613249
0.076240,-0.297962,0.560271,0.685777,-0.594994,0.419156
-0.159777,0.625884,0.140957,-0.779528,0.543317,-0.311678
0.100016,-0.276408,-0.990481,-0.046241,0.159578,0.986102
-0.028799,-0.086790,0.922526,0.125543,-0.953682,0.273366
-0.388015,-0.625495,0.455901,0.794414,0.566215,0.219786
-0.509809,0.413939,0.582349,0.236679,-0.865459,0.441548
-0.466906,-0.039044,0.723076,0.566484,0.738510,-0.365649
0.609338,0.429306,0.202575,-0.686372,0.655584,-0.314807
-0.029772,-0.322318,0.529418,0.741158,0.597392,0.306280
-0.419356,-0.136464,0.825697,-0.655422,0.746581,0.114189
-0.402279,0.543637,0.333668,-0.574873,-0.814411,-0.079097
-0.108122,0.118295,0.674447,0.394194,-0.204733,-0.895933
0.897876,0.543831,0.337338,-0.671237,0.626762,-0.395739
-0.408658,0.570506,0.216682,0.382454,-0.838064,0.389073
0.102825,-0.012948,0.841324,-0.717296,-0.224511,0.659607
-0.662075,0.391807,0.556400,0.905230,0.424684,-0.014221
0.337115,-0.419059,-0.973334,-0.179171,0.033980,0.983231
0.172422,-0.669854,-0.138347,0.614886,0.659489,0.432423
-0.027612,0.247220,0.084843,0.975721,0.129367,-0.176728
0.015291,0.270898,0.389810,0.755063,-0.643040,0.127982
-0.003511,0.541318,0.428203,0.997497,0.035681,-0.061045
0.315395,-0.811638,-0.376161,0.849670,-0.434005,0.299500
-0.265790,-0.585288,0.752380,0.711537,-0.579623,0.397182
-0.357539,0.089592,0.677142,0.080962,-0.190697,0.978305
0.173395,0.620764,0.430325,0.814282,0.555040,0.169929
-0.093963,0.068621,-0.113086,0.441915,0.774012,-0.453449
0.349004,-0.377885,-0.968374,0.009213,0.352743,0.935675
0.019723,0.348798,0.438038,-0.674988,0.721321,-0.155203
-0.718487,0.129798,0.384620,0.548987,-0.669886,-0.499867
-0.112336,-0.128830,0.743348,-0.114536,-0.798016,0.591651
0.075703,-0.542763,-0.988473,-0.176576,0.024896,0.983972
-0.128114,0.435588,0.312995,-0.593347,0.225125,-0.772825
0.033555,-0.107565,0.764422,0.886949,0.415961,-0.200745
-0.303073,0.063790,0.672239,0.646723,0.358106,0.673431
-0.704870,0.021165,0.553188,0.808385,-0.515318,-0.284538
-0.012158,0.132211,0.713987,-0.225291,0.941375,-0.251112
0.031932,-0.454429,-0.986237,-0.357368,0.194864,0.913409
-0.046413,-0.297962,0.241885,0.916710,-0.344750,0.201966
-0.206463,-0.668114,-0.130118,-0.659274,0.266865,0.702952
-0.013345,0.051709,0.638978,0.096128,-0.901986,0.420928
0.691038,0.497343,0.155465,-0.267544,0.910292,0.315894
0.155563,0.038466,0.855230,0.883477,0.213233,-0.417133
-0.101746,-0.253019,0.759204,-0.123454,0.811034,-0.571824
0.224296,0.055956,0.635882,0.988370,-0.145349,0.044714
0.775113,0.045905,0.422010,-0.483493,0.853318,-0.195147
-0.526559,0.337685,0.497678,0.886488,-0.439714,-0.144189
-0.073107,-0.308981,0.412346,0.806379,0.400036,-0.435574
-0.223969,0.194066,0.117846,-0.516636,0.284412,-0.807587
-0.771547,0.143330,0.379889,-0.721010,-0.154071,-0.675579
0.599935,0.893691,0.309181,-0.443781,-0.549140,0.708169
0.447887,-0.116461,0.615495,-0.650065,0.055860,-0.757823
-0.323715,0.217844,0.675250,0.460741,-0.835343,0.299865
-0.440535,-0.011986,0.689557,0.599288,0.693939,0.399127
0.240073,-0.279115,-0.992545,0.228048,-0.172689,-0.958213
-0.112013,0.243451,0.479298,0.766943,0.075776,-0.637225
-0.072675,-0.161882,0.530680,0.923525,-0.359812,0.132805
-0.196952,0.340292,0.633100,-0.311843,0.723096,-0.616349
0.136111,0.254470,0.251979,-0.625734,0.113791,-0.771692
0.134815,-0.180823,0.288020,0.829518,0.547337,-0.111005
-0.041661,-0.018169,0.888806,0.895191,-0.009841,-0.445574
-0.570217,0.314974,0.184712,0.403724,-0.311742,0.860130
-0.297886,0.075965,0.669199,-0.152717,-0.851386,0.501815
-0.287405,0.736351,0.141759,0.069020,-0.948118,0.310335
0.283731,0.019714,0.453550,0.961279,-0.217693,0.168977
0.346841,0.462935,0.256595,-0.014775,-0.329247,0.944128
-0.337006,0.671789,0.128426,0.041591,0.608744,0.792276
-0.691793,0.057602,0.566751,0.821800,-0.403024,0.402761
0.153508,-0.363775,-0.328851,0.981891,-0.157442,0.105363
-0.286755,-0.177926,0.364004,0.390693,-0.773306,0.499356
-0.892905,-0.032279,0.563625,0.050285,-0.982631,0.178625
0.041661,-0.163044,0.700195,-0.626397,0.774472,-0.088433
0.023721,-0.228279,-0.996531,-0.196924,0.366176,0.909470
-0.869131,0.135691,0.424504,-0.077115,0.992226,-0.097682
0.072352,-0.578334,-0.157071,0.143319,0.302506,0.942311
-0.326957,0.073936,0.272365,0.862059,0.165843,0.478906
-0.295403,-0.640572,0.667393,-0.772351,0.575886,-0.268010
-0.184093,-0.152025,0.691478,-0.321778,-0.925431,0.200092
0.376667,-0.167680,0.403372,0.059051,-0.923632,0.378704
0.650186,-0.497437,0.539884,0.741736,-0.555397,-0.375982
-0.637436,0.379625,0.537074,-0.039190,-0.991926,0.120607
0.033878,-0.102929,0.200654,0.360360,-0.831950,0.421900
0.086293,-0.245096,0.283633,-0.591040,0.656882,-0.468165
-0.256064,-0.430562,0.603653,0.590399,0.443860,0.674105
0.247744,0.034603,0.562335,0.976291,-0.129204,0.173672
0.090831,-0.370736,0.374785,0.916638,0.399651,-0.007281
-0.329985,-0.291969,0.814944,-0.599743,0.573590,0.557945
-0.137084,-0.203439,0.828879,0.619472,-0.743830,0.250942
-0.130383,0.795305,0.133587,0.254734,-0.537519,0.803856
0.108554,-0.155405,0.333152,0.867600,0.417842,-0.269588
0.505809,-0.459938,-0.965306,-0.148863,-0.040953,0.988009
0.096668,0.571762,0.477750,-0.213818,0.969712,0.118071
0.554222,0.322802,0.144828,0.732342,-0.631224,0.255404
-0.073107,-0.111818,0.173214,0.045788,-0.763730,0.643910
-0.612903,0.085728,0.486638,-0.693613,-0.673394,-0.255816
-0.687578,0.360684,0.566378,-0.219803,-0.852685,0.473936
-0.166152,-0.108438,0.782802,0.838520,0.541839,0.057407
-0.123790,0.139560,0.496817,-0.750122,0.238634,-0.616742
0.188955,-0.675753,-0.973822,-0.186755,-0.251136,0.949765
-0.534121,0.409007,0.535841,0.187289,0.982139,0.018050
-0.202895,-0.032184,0.225542,0.790051,0.409408,0.456295
0.287946,-0.072579,0.425077,0.949366,-0.246919,-0.194257
-0.318095,-0.042330,0.783719,0.842205,-0.442805,-0.307593
-0.053870,0.192036,0.076414,0.899497,-0.233985,0.368994
-0.149511,-0.702138,-0.106664,-0.850783,-0.110287,0.513814
-0.142272,0.126512,0.746158,0.572782,0.790932,0.215287
0.420329,0.756744,0.283633,-0.554721,0.795749,-0.243040
-0.011076,-0.200059,0.680755,0.878458,-0.328363,-0.347115
0.052251,0.158696,0.508889,-0.348269,0.846435,0.402810
-0.065433,-0.317676,0.847574,0.559977,-0.795003,0.233230
-0.241042,0.387648,0.407386,-0.169630,-0.010919,-0.985447
-0.386502,0.207020,0.393250,0.579515,0.814886,-0.011122
-0.739452,0.151158,0.387774,-0.006179,0.869099,0.494600
0.153294,-0.321351,-0.213442,-0.563262,0.804551,0.188239
0.573783,0.489515,0.344162,-0.582006,0.359559,-0.729374
-0.048145,-0.083309,0.072600,0.775474,-0.010168,0.631297
0.125736,-0.323864,-0.134648,0.859561,-0.501315,-0.099192
0.554222,-0.009662,0.441421,-0.664437,0.385880,-0.640016
0.344789,-0.015850,0.506308,0.269276,0.819270,-0.506249
0.001460,-0.308202,0.091438,0.996976,-0.014774,0.076290
0.045768,-0.350055,-0.307575,0.567554,0.816213,0.108070
0.319719,0.091816,0.663178,0.023209,0.163020,0.986350
-0.083914,0.437711,0.119050,0.807420,0.020080,0.589636
-0.692766,0.214653,0.495154,-0.466218,-0.883661,0.042249
-0.050737,0.511069,0.301439,-0.132850,-0.978350,-0.158687
-0.389420,0.094133,0.496989,0.533483,0.131379,-0.835545
0.087157,0.159564,0.456560,0.966067,0.241415,0.091830
-0.571081,0.515322,0.186547,-0.189059,0.911874,0.364339
0.021669,0.501596,0.496101,-0.178303,0.726516,-0.663614
-0.558005,-0.236496,0.437808,0.994367,-0.081156,-0.068169
-0.513265,0.344545,0.440676,-0.179617,-0.962796,0.201896
-0.581889,0.294965,0.496588,-0.817007,0.524947,0.238601
0.379263,-0.833576,-0.964044,-0.420987,-0.028223,0.906627
-0.020370,0.689863,0.421723,-0.158963,-0.721643,0.673768
0.303183,-0.396248,0.434769,0.767278,0.478185,-0.427345
-0.133084,0.808547,0.371803,-0.561465,0.503621,-0.656600
-0.269573,-0.307430,0.779189,-0.206617,0.710199,-0.672998
0.060354,-0.448825,-0.980474,-0.245989,0.026062,0.968922
-0.088670,0.567026,0.528788,0.972202,-0.002781,-0.234127
0.071053,-0.696239,-0.100040,-0.680493,-0.280439,-0.676966
-0.710163,0.525079,0.357495,-0.220320,0.057633,0.973724
-0.088452,-0.244902,0.713872,0.402973,-0.871942,0.278084
-0.148538,-0.691697,-0.104284,-0.755733,0.298055,0.583122
-0.009562,0.500433,0.375616,-0.585051,0.496402,-0.641327
-0.341871,0.358755,0.155866,0.681101,0.732070,0.013221
0.019938,-0.201121,0.769584,0.713673,0.106045,0.692406
0.330308,-0.554945,-0.969263,-0.187831,0.177555,-0.966019
0.087157,-0.346863,-0.411085,-0.039074,0.998302,0.043190
0.230779,-0.085244,0.473736,-0.257190,-0.770222,0.583619
0.271196,-0.099543,0.380892,0.887450,-0.460809,-0.009362
-0.259092,-0.519569,0.656211,0.854191,0.138470,0.501183
0.094722,-0.337490,-0.472445,0.553100,0.832888,0.019453
-0.518130,-0.250606,0.462094,0.972211,-0.232673,0.025860
0.132111,-0.779165,-0.292780,0.852609,0.414048,0.318781
-0.100879,0.013243,0.070048,0.729111,-0.126165,0.672666
0.134166,-0.303277,-0.988301,-0.187667,0.224099,0.956327
-0.431892,-0.245869,0.532315,0.140684,0.682861,0.716875
0.204409,-0.123321,-0.149272,0.935163,-0.349798,-0.055790
0.098396,-0.338168,-0.036013,0.648128,0.739609,-0.181407
0.019292,-0.724271,-0.995183,-0.253758,-0.040834,0.966405
0.109959,-0.392479,-0.985377,0.112268,-0.289990,-0.950422
-0.008158,-0.114815,0.191736,0.008602,-0.897337,0.441262
0.149079,-0.177154,-0.157300,0.937308,-0.344854,0.050285
-0.065868,-0.308786,0.429063,0.970371,0.005164,-0.241566
0.525046,0.757805,0.307346,-0.373308,0.799728,-0.470188
0.286218,-0.675464,0.558952,-0.122713,0.976023,0.179779
-0.736315,0.408235,0.224567,-0.481047,-0.208833,-0.851459
-0.442590,-0.645692,0.628197,0.966815,0.230821,-0.109502
-0.282758,0.090169,0.258143,-0.057672,-0.898167,0.435855
-0.008916,0.200154,0.587252,0.828005,0.558583,0.048911
0.323392,0.619696,0.160569,0.188334,0.953407,-0.235682
-0.464742,-0.027058,0.475284,0.884146,-0.142284,0.445018
0.848707,0.152508,0.514967,-0.088652,0.935080,0.343170
0.318637,0.348120,0.659107,0.156929,-0.980714,0.116502
0.020479,-0.220162,-0.216137,0.798272,0.595623,-0.089417
-0.326957,0.008117,0.766172,0.657806,0.492259,-0.570064
0.187118,-0.896877,-0.972732,-0.283278,0.180659,0.941868
-0.317881,-0.433653,0.852621,-0.847643,-0.206625,0.488680
0.023721,-0.307430,0.027354,0.871121,0.464237,0.160102
-0.331713,-0.489898,0.753670,0.726540,0.585918,-0.358943
-0.372779,-0.022032,0.711550,-0.599735,0.059724,-0.797967
-0.241692,-0.500144,-0.215048,-0.111599,-0.976705,-0.183283
0.583185,0.587996,0.210890,0.953683,0.292272,-0.071180
-0.199438,-0.443604,0.326471,-0.777291,0.610157,-0.153390
0.386934,-0.977195,-0.948446,-0.120750,-0.104114,0.987208
-0.614093,0.104763,0.714732,-0.167499,-0.929068,0.329812
0.085429,-0.525757,0.460173,-0.503142,-0.824672,-0.258387
-0.012481,0.745819,0.427084,0.180118,-0.611351,0.770589
0.405089,-0.082248,0.534006,0.981861,0.099916,-0.161137
0.605446,0.087757,0.539540,0.772706,0.461233,-0.436107
-0.084779,-0.332270,0.421321,0.902240,-0.271516,-0.335024
-0.121844,0.685126,0.392906,-0.443875,0.851628,0.278758
-0.069756,-0.081280,0.737843,-0.669188,-0.007493,-0.743055
-0.068029,-0.460422,-0.193485,-0.525329,0.833509,0.171151
-0.296375,-0.228763,0.849725,0.996948,-0.036945,0.068769
-0.493814,0.049486,0.703492,0.669830,-0.626515,-0.398506
0.121630,-0.383979,0.403171,-0.687784,0.243722,0.683778
-0.441726,0.591765,0.390584,0.353600,-0.671099,0.651608
0.148970,-0.666863,-0.963700,0.234344,-0.035640,-0.971500
-0.353001,0.041846,0.617989,-0.151195,0.911433,-0.382661
-0.205814,-0.284235,0.892562,-0.724238,-0.137027,0.675798
-0.317231,-0.637770,-0.148211,-0.021074,0.507091,0.861635
0.557573,0.531945,0.272422,0.461016,0.797219,-0.389753
-0.476414,0.487391,0.163436,-0.556891,-0.596892,0.577574
-0.514020,0.136369,0.501778,-0.659997,-0.227808,-0.715896
-0.139353,0.867211,0.421092,-0.622625,0.310053,0.718474
0.067273,-0.029960,0.455356,0.945423,0.221689,-0.238808
0.054629,0.288972,0.536415,-0.047802,0.990142,0.131656
-0.266549,0.030444,0.712868,0.430755,0.882445,-0.189051
0.023398,-0.049291,0.382240,0.756173,0.576750,0.309130
0.636137,0.799752,0.291404,-0.445964,-0.757817,0.476266
-0.523208,-0.231564,0.569131,0.067966,0.986843,0.146701
0.569894,0.118389,0.537676,-0.779782,0.198781,0.593655
-0.520939,0.508940,0.255276,-0.267538,-0.735553,0.622403
-0.155022,-0.660675,0.678518,0.057056,0.896665,-0.439017
0.110499,-0.675847,-0.979011,0.358729,0.160567,-0.919528
0.424435,0.084182,0.489649,0.959547,0.018322,-0.280953
-0.484302,-0.370641,0.764250,0.966569,-0.082557,0.242754
-0.765278,0.004931,0.528386,-0.012235,0.999419,0.031812
-0.297348,0.051226,0.710259,0.231100,0.918870,-0.319797
-0.106499,-0.230308,0.631867,0.981009,-0.186272,0.054076
0.389638,-0.382911,-0.972388,-0.114251,0.277750,0.953835
0.483871,0.372381,0.533519,-0.573860,-0.713461,0.402067
0.454370,-0.150285,0.332062,-0.658751,0.015205,0.752207
-0.492300,-0.285592,0.377079,-0.633835,0.764721,-0.115996
-0.503863,0.066975,0.795131,0.961571,0.115482,-0.249087
0.702060,-0.575337,0.556601,0.770898,0.124149,-0.624743
-0.405739,-0.032857,0.685715,-0.570220,-0.818597,-0.068904
-0.740748,0.194644,0.498595,-0.279869,0.672773,-0.684872
-0.111795,-0.147288,0.864147,0.733958,-0.677820,-0.043186
-0.320691,-0.181018,0.573231,-0.283891,0.452644,0.845292
-0.348787,-0.479463,0.702632,0.960678,-0.276751,-0.022532
-0.089749,0.243646,0.487671,0.766943,0.075776,-0.637225
0.721403,0.503241,0.306973,0.039299,0.992107,-0.119073
-0.668991,0.162171,0.570106,0.638439,-0.167256,0.751280
0.005998,0.022905,0.468316,-0.118582,-0.386282,0.914726
-0.026530,0.011698,0.548973,0.834269,-0.344351,0.430602
-0.502784,0.538900,0.183679,0.863768,-0.163819,-0.476516
-0.108986,0.325698,0.466309,-0.773306,0.586816,0.240094
-0.674393,0.583165,0.169114,0.039792,0.147984,0.988189
-0.299617,0.347058,0.455012,-0.078563,-0.911586,0.403533
0.129737,-0.338747,-0.291060,0.925718,-0.305137,0.223465
-0.371265,0.652942,0.343130,-0.820454,0.127028,0.557422
0.658939,-0.095195,0.263620,0.422723,-0.887952,0.181235
-0.342952,-0.289361,0.631208,0.724265,0.488661,0.486468
-0.013563,-0.150574,0.037046,0.938955,0.093521,0.331085
0.140000,-0.314390,-0.437407,0.525695,0.849047,-0.052577
-0.123790,-0.224026,0.795791,-0.513021,0.311952,-0.799685
-0.031932,-0.313329,-0.993262,-0.145132,0.094211,0.984917
0.399905,-0.332270,-0.977664,-0.208975,0.057472,0.976231
-0.021560,-0.745919,-0.094162,0.644097,0.280332,-0.711725
-0.189927,-0.226734,0.482337,0.266698,0.953484,-0.140500
-0.562975,0.327828,0.376649,0.252133,0.964759,0.075293
-0.001782,0.880354,0.468603,0.386262,-0.549536,0.740818
-0.545252,0.160820,0.570822,-0.730197,0.295908,0.615833
-0.294538,-0.589252,0.665157,-0.425033,0.784811,0.451019
-0.246448,0.401085,0.310701,0.300899,0.335872,-0.892552
-0.246880,-0.609745,0.677343,0.858125,0.400980,0.320683
0.036042,0.238330,0.371143,0.978178,-0.101799,0.181123
0.291297,0.071618,0.556084,0.425167,-0.722547,0.545123
-0.056789,-0.125155,0.851216,0.634569,0.337077,-0.695487
-0.240073,0.827583,0.406583,-0.645253,0.042586,0.762781
0.299726,0.113659,0.666963,-0.428499,0.737286,-0.522301
-0.791645,0.672562,0.147293,-0.394305,-0.404851,0.824996
0.668233,0.504014,0.310701,0.782632,0.620559,-0.048917
0.188090,-0.336812,-0.984832,0.270434,0.067006,-0.960404
0.160859,-0.890594,-0.977664,-0.101476,0.310021,0.945299
0.305560,-0.119357,-0.001462,0.566945,0.461482,-0.682354
0.409090,0.359528,0.661687,-0.163897,0.972918,-0.162995
0.506132,0.511647,0.339259,-0.668346,-0.261530,-0.696359
0.123144,-0.299313,-0.989706,-0.151922,0.224726,0.962506
0.092559,-0.648500,-0.978409,0.357467,-0.101455,-0.928399
0.242233,-0.373733,-0.588772,0.464519,0.846571,0.259884
0.106717,0.046005,0.299604,0.970528,0.240594,-0.013800
0.078836,-0.344061,0.074779,-0.274001,-0.948674,0.157925
-0.293889,-0.042425,0.540028,-0.145763,0.355699,0.923164
-0.058411,-0.134723,0.174131,-0.151584,-0.799238,0.581585
0.530016,-0.011208,0.453951,0.586022,0.805795,-0.085276
-0.047927,0.084082,0.852391,0.675057,-0.614026,0.408987
0.082078,-0.344639,-0.082062,0.704445,0.694518,-0.146293
-0.115578,0.620374,0.176712,0.285747,0.804505,0.520692
-0.047172,-0.317676,0.855144,0.627450,-0.777456,0.043231
-0.320041,0.146904,0.281712,-0.604776,-0.776716,-0.175952
0.283408,-0.674302,-0.970754,0.182540,0.109372,-0.977096
0.649754,0.922590,0.316665,-0.029395,-0.704363,0.709231
-0.088561,-0.408040,0.262215,0.873025,-0.466165,0.143238
0.085211,-0.237652,-0.993749,0.012149,0.013080,0.999841
-0.083483,0.010535,0.865093,0.933987,-0.355085,0.039776
-0.216621,0.611096,0.399014,0.776610,0.534357,0.333677
-0.049550,-0.188173,0.797483,0.540690,0.745484,0.389753
0.040471,0.383106,0.424877,0.932140,-0.139140,-0.334297
0.101961,-0.054800,0.440303,0.733489,0.654562,-0.183146
0.009131,-0.555039,-0.987154,-0.095058,-0.053118,0.994054
0.085429,-0.830674,-0.978036,0.103394,0.219642,-0.970086
-0.550871,0.395959,0.490481,0.822739,-0.517496,0.235154
0.048037,0.251573,0.362599,0.918865,0.304061,-0.251464
-0.087803,0.496281,0.518380,-0.612084,-0.682420,-0.399570
0.471121,-0.100315,0.619624,0.627484,-0.260600,0.733725
0.028908,-0.316130,-0.016716,0.968846,0.238285,0.067509
-0.010753,-0.011019,0.550809,0.806451,-0.451645,0.381645
-0.551521,0.277953,0.186203,0.632260,0.211014,0.745466
0.140435,-0.321734,-0.986925,-0.212164,0.119194,0.969938
0.585563,0.558519,0.123638,-0.714863,0.242111,-0.656013
-0.373966,-0.196579,0.359932,-0.642061,0.622993,-0.446808
0.102070,-0.809125,-0.283748,0.850772,0.408773,0.330290
-0.508510,0.429400,0.495011,0.891601,-0.103408,0.440857
-0.278975,-0.715187,0.665071,-0.631043,0.768283,0.107353
0.300914,-0.808642,-0.969463,0.310025,0.121620,-0.942917
0.245907,-0.612836,0.591524,-0.730060,-0.082567,0.678377
0.075376,-0.290807,0.083037,-0.825941,-0.535645,0.175803
-0.354838,-0.479463,0.668855,-0.610763,0.758596,-0.226937
-0.500406,0.478885,0.157788,-0.087618,0.118946,0.989027
-0.542228,0.552143,0.168655,-0.146538,-0.902169,0.405731
-0.374830,0.258145,0.386770,-0.131350,-0.962950,0.235530
0.359485,-0.308202,0.107495,0.123029,-0.980931,0.150463
0.873022,0.121776,0.416160,0.819804,-0.373975,0.433663
-0.047495,-0.103796,0.907128,-0.239017,-0.950306,0.199473
-0.081319,-0.078573,0.852105,0.910915,0.139861,-0.388167
-0.096559,-0.527497,-0.165558,-0.226411,0.955482,0.189187
-0.433296,0.134146,0.492316,-0.287785,-0.171963,0.942130
-0.273032,-0.144681,0.345452,-0.022844,-0.907445,0.419549
0.019506,-0.350727,-0.991111,-0.131380,0.172538,0.976202
0.526883,-0.142652,0.390010,0.963024,0.036946,-0.266870
0.260388,0.071618,0.577417,0.895592,0.432743,0.103189
-0.240719,-0.267902,0.691622,0.786611,0.558082,0.264173
0.251203,-0.000095,0.500774,-0.094250,-0.902487,0.420280
-0.156536,0.123805,0.744982,-0.582724,0.762341,0.281547
-0.541255,0.379437,0.502093,0.968145,0.235042,0.086316
-0.324039,0.362330,0.135480,-0.571706,-0.775612,0.267541
-0.307506,-0.304049,0.614405,0.750971,0.488643,0.444151
-0.972337,0.128347,0.443744,0.739760,0.662298,0.118810
0.884803,0.539673,0.279820,0.810331,-0.575810,-0.108653
-0.135029,0.052093,0.673099,-0.524364,0.640994,0.560508
-0.487439,-0.345123,0.719406,0.302929,0.647480,0.699288
-0.055816,-0.213007,0.898469,0.910113,-0.325969,-0.255808
0.077104,-0.479463,0.441564,0.946506,0.302970,0.111068
0.322096,0.307140,0.631810,0.640033,0.456290,-0.618188
-0.236072,-0.592638,-0.141301,-0.437258,0.440918,0.783835
0.550226,0.036048,0.504186,-0.694649,0.698509,0.171895
-0.226996,0.120324,0.653372,-0.261620,-0.422571,0.867749
-0.097205,0.265583,0.605517,0.945628,0.016176,0.324847
0.393095,0.028125,0.515885,0.629250,0.749963,-0.203963
-0.600585,0.505270,0.490366,0.720260,-0.081343,0.688919
-0.062085,0.270804,0.495125,0.781264,0.072602,-0.619964
-0.343707,0.085244,0.534522,0.447933,-0.319474,0.835041
0.117739,0.285976,0.768236,0.941114,0.332756,-0.059813
-0.520181,0.547890,0.153716,0.970061,0.039073,-0.239700
-0.086616,0.035564,-0.120886,-0.456179,-0.781169,0.426233
-0.545361,-0.228568,0.476173,-0.820729,0.560697,-0.109649
-0.479009,0.046872,0.682561,-0.576341,-0.817081,-0.014481
0.545687,-0.061371,0.565489,0.116073,0.903675,-0.412189
-0.556600,0.247321,0.438496,0.881435,-0.440277,0.170965
-0.151134,0.074225,0.099037,-0.540706,0.366585,-0.757134
0.643920,0.817242,0.297769,0.626338,0.625065,-0.465826
-0.054197,-0.364064,0.440475,0.965818,-0.258844,0.013967
0.191659,-0.402241,-0.648584,-0.825431,-0.563829,0.027566
0.245798,0.090848,0.658533,-0.403008,0.007729,0.915164
-0.668018,0.073836,0.564830,0.048512,-0.659529,0.750112
-0.027826,0.761769,0.438783,-0.506723,0.484963,-0.712771
0.022316,0.484106,0.482337,0.284527,0.941211,-0.182116
0.181930,-0.398277,-0.575668,0.904510,0.375067,0.202943
-0.544929,0.591765,0.159307,0.755115,0.655564,-0.006019
0.268600,0.197452,0.256251,-0.598934,0.641624,0.479162
-0.340142,0.158401,0.677056,-0.490946,0.799615,-0.345816
-0.345112,-0.120808,0.810787,0.258583,-0.587363,0.766902
-0.422166,-0.416257,0.815604,0.928080,0.059762,-0.367555
-0.059276,-0.321062,0.384591,-0.438949,-0.880749,-0.177776
0.685418,0.366099,0.466940,-0.238342,-0.396961,0.886349
-0.027071,0.251762,0.234230,-0.788593,0.303849,0.534600
0.296590,0.352373,0.559554,-0.708322,0.699522,-0.094601
-0.550334,0.314974,0.465306,0.953059,0.206352,0.221579
-0.406711,-0.117234,0.810557,-0.489457,-0.211311,-0.846037
-0.116875,0.951871,0.415988,0.831977,0.317964,0.454657
0.533149,0.472314,0.191020,0.887833,0.431269,-0.160496
0.564707,-0.229441,0.504932,0.532640,0.187613,-0.825286
0.277894,-0.094039,0.449363,0.894070,-0.425703,-0.139341
-0.114064,-0.512709,0.645171,0.240162,0.585051,0.774621
0.403361,-0.252824,0.541174,0.978354,-0.053141,-0.199997
-0.189818,0.531072,0.157788,-0.752579,-0.079117,0.653732
-0.024370,0.161593,0.620943,-0.418363,0.905658,-0.068961
-0.584158,0.460717,0.492430,0.963907,0.259100,0.061248
-0.058949,-0.221224,0.636569,0.177282,0.974754,0.135741
0.380127,0.233883,0.265827,-0.393192,-0.213224,-0.894391
-0.047172,-0.091910,0.954783,0.923952,-0.346248,0.162558
0.337979,-0.073647,0.012358,0.473421,0.580464,-0.662521
0.179770,-0.155116,0.353280,-0.592774,-0.666467,0.452152
0.261038,-0.533101,0.528616,0.687441,0.694730,0.211603
0.287946,0.361652,0.637889,-0.278541,-0.818521,0.502432
0.000163,-0.255337,0.112828,0.991947,0.124556,0.022965
-0.051819,0.817531,0.454152,-0.637310,0.674343,-0.372959
0.152644,-0.374311,-0.290744,0.845702,-0.473098,0.246914
0.442481,-0.478785,-0.963929,-0.093050,-0.075994,0.992757
0.566217,0.228763,0.421981,-0.601453,0.004220,0.798897
-0.173177,0.066397,0.107266,-0.599628,0.167892,-0.782469
-0.360781,-0.453951,0.793583,-0.352538,-0.908867,0.222887
0.113201,-0.324247,-0.434568,0.532367,-0.846416,0.012871
0.339061,0.150479,0.660655,0.597982,0.512967,-0.615859
0.467770,-0.718472,-0.958051,0.163660,-0.180804,-0.969807
-0.701951,0.400118,0.563339,0.704975,0.279844,0.651688
0.122280,0.521988,0.229814,0.407222,-0.852101,-0.328776
0.530016,-0.406784,-0.959972,0.188476,-0.125099,-0.974078
-0.109635,-0.350055,0.573001,-0.550002,0.292357,-0.782320
-0.085428,-0.501885,0.592728,-0.314193,-0.949356,-0.002332
-0.346409,0.582681,0.249341,-0.657881,0.721871,-0.214696
0.010321,0.593505,0.401996,-0.002933,-0.058203,0.998300
0.522559,-0.129025,0.605746,-0.563866,-0.342865,-0.751332
0.597666,0.701365,0.257885,-0.591871,-0.226475,0.773562
0.046414,-0.187011,-0.208138,-0.517474,-0.613247,0.596782
-0.010103,-0.489125,-0.145630,-0.324974,0.881260,0.343180
-0.363917,-0.019041,0.646232,-0.211906,-0.927598,0.307666
-0.639164,0.614187,0.310959,0.160987,0.950194,-0.266861
-0.552603,0.623466,0.340693,0.092328,0.942484,0.321246
-0.147351,0.484005,0.158160,-0.016503,0.398148,0.917173
0.674502,0.461973,0.170805,-0.114883,0.985514,0.124755
0.322310,-0.033635,0.444833,0.933530,-0.057589,-0.353844
-0.390608,-0.356915,0.751634,0.487975,0.471840,0.734335
-0.221050,0.452889,0.314944,-0.032687,-0.071365,0.996915
-0.287082,-0.423023,0.771734,-0.697325,0.629645,0.342471
-0.187335,-0.202666,0.665759,-0.724159,-0.653682,0.219756
-0.345868,-0.472603,0.715076,0.965865,-0.146853,0.213399
-0.510887,0.101477,0.781483,0.930081,0.330629,-0.160104
-0.127791,-0.230503,0.443227,0.310768,0.942333,-0.124222
0.615390,-0.170582,0.503871,-0.450288,-0.384855,0.805684
-0.008158,0.269742,0.596628,0.687010,0.713965,-0.135171
-0.200626,-0.598048,0.509835,-0.581416,0.117474,0.805081
-0.078186,-0.279793,0.510007,0.851878,-0.295698,0.432280
0.017019,0.688701,0.178346,-0.115249,-0.071395,0.990768
0.024694,0.639799,0.195091,-0.137147,-0.273807,0.951956
0.024370,-0.331497,-0.244007,-0.030252,-0.911887,0.409326
0.019615,0.176381,0.356836,0.966249,-0.222030,0.130631
-0.224727,0.471346,0.163178,-0.093588,0.019126,0.995427
-0.102611,0.175030,0.125932,-0.031583,-0.607196,0.793924
-0.413195,0.060310,0.631179,0.939043,0.284679,0.192757
-0.100988,-0.529238,-0.140010,0.940913,-0.152009,-0.302614
0.333009,-0.831742,-0.967112,-0.286137,-0.047959,0.956988
-0.186039,-0.269931,0.722015,0.959068,0.036406,0.280827
0.109095,-0.291391,-0.001434,-0.396516,-0.902964,-0.165623
-0.186471,-0.661159,0.670633,-0.267273,-0.880737,0.390983
0.056680,-0.385329,-0.988789,0.201278,-0.263860,-0.943326
-0.141731,0.261814,0.627079,0.671635,0.219069,0.707754
-0.714704,0.029866,0.376018,0.886511,0.209024,0.412804
-0.120980,-0.446217,0.532171,0.947743,0.124632,0.293682
0.039066,-0.013143,0.497649,-0.553352,0.817537,-0.159485
-0.087048,-0.217454,0.703808,-0.099597,0.807995,0.580711
-0.678285,0.685415,0.160053,0.217142,-0.001903,0.976138
-0.022101,0.042235,0.736352,0.045817,0.292677,0.955113
-0.094072,0.144681,0.717284,-0.192485,0.616380,0.763561
0.290215,-0.662026,0.567898,-0.338622,0.938872,0.062080
-0.380882,0.343289,0.149329,0.724844,0.684831,-0.074885
0.074189,-0.240938,-0.229126,-0.282633,-0.735267,0.616037
0.147456,-0.761575,-0.976603,0.259975,0.189636,-0.946811
-0.737506,0.456363,0.344191,0.409356,0.471933,0.780837
0.488518,0.280466,0.245212,-0.292084,-0.481232,-0.826500
0.700764,0.471730,0.316866,0.570976,0.779493,-0.257638
0.012267,0.010246,0.818098,0.517088,0.769251,-0.375330
-0.718269,0.640283,0.319475,0.328420,0.939134,-0.100837
0.067379,0.719628,0.419343,-0.442002,0.474297,-0.761365
0.086834,0.609939,0.401565,-0.003838,-0.509481,0.860474
0.645972,0.444672,0.229614,0.026873,-0.988880,0.146268
-0.328362,-0.532328,0.811762,0.935202,0.345399,0.078075
-0.871940,0.495602,0.207736,0.904822,0.192864,0.379607
-0.335064,-0.606459,0.754559,0.763087,-0.109512,0.636950
0.444859,-0.076254,0.488875,0.560962,-0.604352,0.565756
-0.300049,-0.169420,0.735836,0.497638,-0.016397,0.867230
-0.169826,0.713446,0.392505,0.864024,-0.432660,-0.257427
0.137949,-0.370830,-0.213671,0.963878,-0.195959,0.180387
-0.397850,-0.030827,0.698905,0.919250,0.214482,0.330115
0.107472,-0.733160,-0.976230,0.260026,0.102550,-0.960141
0.083806,0.554656,0.181586,0.309509,0.641854,-0.701590
-0.311394,-0.764760,0.584270,0.893738,-0.287790,0.344107
0.434701,-0.361846,0.477549,-0.419587,-0.277579,0.864232
0.293566,-0.843050,-0.974137,0.219541,-0.212633,-0.952150
0.332254,-0.429978,0.423529,0.784301,0.307222,-0.538968
0.098828,-0.354886,-0.509491,0.834386,0.535790,-0.129340
-0.491327,0.242489,0.595968,0.919394,-0.179155,0.350167
0.118497,0.825654,0.143164,0.031454,-0.304647,0.951946
-0.238450,-0.280950,0.596313,0.421308,0.720349,0.550996
0.113524,-0.205952,0.311188,0.997966,-0.061739,-0.015897
-0.580157,0.432685,0.338772,0.713170,0.466978,-0.522801
-0.049333,0.203539,0.248337,0.354599,-0.132407,-0.925596
-0.335819,0.019136,0.689385,0.887763,-0.311005,0.339341
-0.374075,0.367067,0.151222,0.635078,0.748101,0.192411
0.059599,-0.330630,0.378140,0.287004,0.950100,0.122224
-0.426054,-0.019714,0.633329,0.857685,0.268482,0.438513
-0.132438,0.804389,0.366843,-0.522454,0.559594,-0.643348
-0.516616,-0.357109,0.448130,0.948983,0.038593,0.312956
0.671692,0.540156,0.313081,-0.558038,0.039598,0.828870
0.231967,-0.611385,-0.974051,-0.036538,0.003333,0.999327
0.004269,-0.835316,-0.986122,-0.436386,0.087613,0.895484
-0.140217,-0.451438,0.571711,-0.602636,-0.683374,-0.412104
-0.760090,0.130282,0.491943,0.868713,-0.220399,0.443578
-0.096559,0.085144,-0.124814,0.356863,0.767619,-0.532362
-0.087371,0.403982,0.182848,0.726449,-0.244079,-0.642415
-0.501053,0.475694,0.595625,0.197206,-0.758541,0.621068
-0.737506,0.124578,0.373409,-0.775441,-0.263400,-0.573857
0.589237,0.156762,0.397007,0.590147,0.453475,-0.667898
0.303723,-0.106214,-0.001864,0.399733,0.662449,-0.633541
0.023721,-0.479269,-0.995183,-0.081514,0.193985,0.977612
-0.260820,-0.242678,0.555654,-0.687067,-0.227658,-0.690007
0.483330,0.226444,0.377222,-0.586917,-0.411886,0.697049
0.077431,-0.712573,-0.983570,0.469189,0.109324,-0.876305
0.531421,0.846819,0.291146,-0.506175,0.671511,-0.541166
-0.495974,-0.250411,0.572199,0.005925,0.951889,0.306387
-0.156859,-0.334104,0.918540,0.142348,-0.988096,0.058335
-0.014750,0.129992,0.656641,0.595711,0.802881,-0.022607
0.306642,-0.943271,-0.963098,-0.198774,-0.007481,0.980017
0.523317,0.277281,0.137487,0.826737,-0.562343,0.016613
-0.496838,-0.229824,0.566980,-0.048895,0.971181,0.233274
-0.118711,0.329179,0.628197,0.009544,-0.775028,0.631855
0.267090,0.169710,0.585675,0.924788,-0.316022,0.211890
-0.518562,0.455496,0.597345,0.612773,-0.692106,0.381443
-0.379372,0.495314,0.206532,0.175302,-0.983160,0.051623
0.568272,0.301053,0.522050,0.787253,0.564672,0.247747
-0.651914,0.064563,0.545303,0.092876,-0.902694,0.420140
-0.273247,-0.349181,0.632297,0.678959,0.723086,0.127126
0.317123,0.028609,0.492975,0.898455,-0.362856,-0.247213
0.625007,0.510680,0.289683,0.265833,0.960711,-0.079799
-0.251526,0.300280,0.136598,0.174935,-0.588379,0.789435
0.045226,-0.846429,-0.982137,-0.197869,0.126557,0.972024
-0.436430,-0.088429,0.707679,-0.285674,-0.957811,-0.031448
0.316368,-0.598920,-0.965936,-0.068710,0.045829,0.996583
-0.196843,0.390645,0.297110,0.071097,-0.733175,0.676313
-0.249040,0.127863,0.117244,-0.688645,0.143008,-0.710856
-0.372670,0.067365,0.660081,-0.577429,0.685670,-0.443207
0.236399,-0.578717,0.506509,0.189112,0.967003,-0.170709
-0.306747,0.164300,0.684941,-0.578035,0.816002,-0.004035
-0.022101,0.593606,0.403458,0.293708,0.169526,0.940743
-0.053329,-0.419832,0.460058,0.823011,0.329169,0.462926
-0.212515,0.649367,0.380261,0.909913,-0.414287,0.020590
0.307183,-0.214069,-0.012616,0.953436,-0.237514,-0.185867
-0.468093,-0.513966,0.501606,0.924537,0.325482,-0.198224
0.274329,-0.348603,0.215277,0.169235,0.879189,-0.445405
-0.704978,0.184014,0.364147,0.452793,-0.553888,0.698703
-0.549684,0.070550,0.580829,0.842750,-0.265476,-0.468289
0.049873,0.846141,0.469549,0.480641,-0.600709,0.638853
-0.091154,-0.491349,0.730129,-0.634332,-0.772783,0.020718
-0.851948,0.001257,0.556830,-0.005449,-0.979821,0.199803
-0.525909,0.114142,0.755534,0.780880,0.616780,-0.099040
0.343599,0.145742,0.478553,0.366495,0.206442,-0.907229
-0.101097,-0.255821,0.787906,-0.328323,0.909575,0.254710
0.383046,-0.119068,0.352993,0.440691,0.879080,-0.181686
0.011403,-0.740121,-0.300407,0.778368,0.627424,0.021947
-0.200844,-0.345701,0.514250,0.976695,0.099765,-0.190035
-0.588264,0.609745,0.507713,-0.507426,0.581353,-0.636040
-0.075162,-0.129603,0.518867,0.822262,-0.507877,-0.256798
-0.016914,0.481009,0.285239,-0.702385,-0.711771,0.006115
0.225697,-0.195322,0.324722,-0.028226,-0.994567,0.100197
0.342303,-0.630231,-0.968259,-0.125290,0.084170,0.988543
-0.020370,-0.195900,0.709858,-0.594936,0.692070,-0.408766
-0.654619,0.163911,0.571769,-0.398376,0.153783,-0.904239
-0.169394,0.471346,0.156268,0.392711,0.151594,-0.907082
-0.246230,-0.086111,0.752609,0.142596,0.896989,-0.418423
-0.456207,0.460905,0.665071,-0.258734,-0.875795,-0.407481
-0.168316,-0.475983,0.742918,0.469368,0.880898,0.060927
0.019292,0.568476,0.169343,0.165824,0.618592,-0.768014
-0.219108,-0.463613,0.633846,0.964167,-0.020624,0.264494
-0.180742,-0.395381,0.607524,0.310375,-0.531762,0.787970
0.631167,0.665701,0.155350,-0.384646,-0.804752,-0.452130
0.247530,0.096452,0.617789,-0.508655,0.852308,-0.121823
-0.226670,0.064368,0.117359,0.722773,-0.056042,0.688809
-0.042740,-0.073163,0.586822,0.910831,0.128701,0.392202
-0.362618,-0.460133,0.719377,0.980363,0.088231,0.176362
-0.140326,0.721180,0.361395,0.142680,-0.624147,0.768168
-0.336251,-0.187689,0.801296,0.660267,0.240543,0.711468
-0.175340,-0.211556,0.819045,0.747741,-0.652586,0.122534
0.395472,-0.924619,-0.958195,-0.384316,0.103832,0.917344
-0.157291,-0.396832,0.544701,0.929698,0.113164,0.350508
0.037120,-0.327439,-0.064113,-0.632057,-0.774824,0.012307
0.489813,-0.075381,0.360793,0.947329,-0.163443,-0.275417
0.042634,0.253892,0.673558,0.212092,0.976932,-0.024901
0.442590,-0.064368,0.534178,-0.466739,0.269436,0.842353
-0.258766,0.179278,0.679206,0.111771,-0.565180,0.817361
0.491218,-0.185465,0.349094,0.353604,-0.901290,-0.250280
0.610634,0.441191,0.204324,-0.196400,-0.348191,0.916619
0.226996,-0.187978,0.376964,-0.723727,0.681591,0.107948
0.356784,-0.533780,-0.966539,-0.205450,-0.082248,0.975206
-0.165179,0.254759,0.141587,0.895821,0.378826,-0.232369
-0.016155,-0.689379,-0.083725,-0.012562,0.322075,0.946631
-0.600691,0.387648,0.523741,-0.186148,0.982432,0.013246
0.765064,0.084566,0.463901,0.892403,0.240445,-0.381842
-0.427459,-0.470863,0.750057,0.414114,0.764959,-0.493302
-0.304264,-0.337779,0.775117,0.833503,-0.097842,0.543782
0.207542,0.488258,0.477119,0.057277,-0.963976,0.259749
0.179120,-0.448730,-0.529447,-0.635474,-0.753656,0.167856
0.461610,-0.147483,0.345051,0.894754,0.396145,-0.206120
-0.046631,-0.151152,0.049174,0.936073,0.059954,0.346659
-0.624898,0.711317,0.362054,0.199750,-0.887842,0.414532
-0.262334,0.623277,0.354542,-0.108195,0.978641,-0.174801
0.726481,0.461678,0.331604,-0.557867,-0.499407,0.662855
-0.426918,-0.510001,0.474567,0.968619,0.248523,0.003697
0.557682,0.527592,0.242373,0.837133,0.496062,0.230503
0.605123,-0.131538,0.420490,-0.132497,-0.716310,0.685087
-0.014318,0.242489,0.596542,-0.736145,-0.642218,0.213649
0.123358,0.023483,0.200424,0.963546,-0.266930,0.018076
-0.633868,0.379625,0.565547,0.374313,0.895126,-0.242156
0.335496,-0.479847,0.445349,0.890767,0.241345,-0.385079
-0.027285,-0.368417,0.261584,-0.703295,0.708546,-0.057780
0.475118,-0.041268,0.602506,0.929750,-0.303858,0.207930
0.134275,0.110857,0.214073,-0.893182,-0.056775,0.446098
0.506132,-0.615154,-0.960976,-0.051643,0.095699,0.994070
-0.086616,-0.055956,0.752638,0.428959,-0.893609,-0.132124
0.014213,-0.049096,0.765799,0.511778,0.732664,-0.448651
-0.289459,-0.430751,0.692281,-0.647525,-0.761113,-0.037654
-0.387475,0.597180,0.345424,0.961945,-0.025162,-0.272084
-0.001027,0.452211,0.260322,0.603223,0.755902,-0.254429
-0.128005,-0.222191,0.671665,-0.448050,-0.362323,0.817297
0.791108,0.303855,0.192625,0.545943,0.768206,0.334375
0.448101,-0.290134,0.498136,0.122100,0.322395,-0.938697
-0.089425,-0.517345,-0.173185,0.308037,-0.945683,-0.103911
0.038202,0.329273,0.251835,0.468345,-0.073133,-0.880514
-0.640678,0.420894,0.211836,-0.831572,0.407604,-0.377289
-0.113524,-0.174836,0.523397,0.675255,-0.706341,-0.212398
0.110608,-0.544504,0.516803,-0.022951,-0.867946,0.496128
0.171017,0.256599,0.544099,0.833531,-0.422136,-0.356410
-0.570217,0.360201,0.624298,0.903760,-0.181917,0.387458
-0.510673,0.403403,0.488187,0.859726,-0.398001,0.320103
0.573674,0.950715,0.328105,0.028468,-0.662623,0.748412
0.150807,-0.712190,-0.978897,0.395144,0.110013,-0.912008
0.291402,-0.807096,-0.971442,-0.347332,-0.078125,0.934482
0.012267,0.260558,0.503642,0.322048,0.642939,-0.694921
0.027286,0.527497,0.171522,-0.265276,0.962530,-0.056247
0.025125,-0.496475,-0.985262,0.013738,0.098317,0.995060
0.403470,-0.697885,-0.415701,0.837316,-0.545656,-0.034091
0.040471,-0.581519,0.745240,0.248019,-0.743277,0.621310
0.174691,0.085338,0.569217,0.213976,0.893807,-0.394111
0.127464,0.031795,0.206818,-0.775563,0.510975,-0.370684
0.564921,0.178605,0.513562,0.047877,0.901150,0.430855
-0.607392,0.377985,0.545504,0.036582,0.950661,0.308066
