-0.251079,0.016541,0.669603,-0.285011,0.900635,-0.328061
0.656549,-0.006497,0.703947,0.619061,0.666461,0.415443
-0.218561,-0.420925,0.173334,-0.661956,0.700008,-0.267961
-0.308772,-0.407462,0.745452,0.541098,0.511165,0.667775
0.645527,0.112657,0.680751,0.686950,-0.713612,-0.137323
-0.007888,0.862169,0.492223,0.438942,0.753995,0.488694
-0.136991,-0.018913,0.656028,0.451823,0.878361,-0.156006
0.218237,-0.289448,0.414786,0.207542,0.846424,-0.490400
0.144014,-0.201859,0.480716,0.995138,0.090312,0.039305
-0.190905,-0.680745,0.562468,-0.316907,0.948019,0.028806
-0.518365,-0.636005,0.453625,-0.048799,0.733431,0.678010
0.069899,-0.229636,-0.129072,0.470633,0.863431,0.181637
0.021499,-0.237314,0.255626,-0.044248,-0.993893,0.101092
0.252052,0.440446,0.584375,0.549081,0.834806,-0.040100
0.299480,-0.335802,-0.345500,0.777317,0.351756,0.521581
0.024202,0.229347,0.754173,0.390696,-0.660300,0.641374
-0.854257,-0.588418,0.597051,0.159228,0.977078,0.141300
0.209593,0.557610,0.564446,0.442430,0.880897,-0.168154
0.273984,-0.425282,0.609997,0.974061,0.208640,-0.087604
0.246866,-0.245842,-0.103839,-0.762891,0.504237,-0.404650
0.414868,-0.393056,-0.994516,-0.050892,0.259225,0.964475
0.188310,-0.271154,0.475112,0.927118,0.374471,-0.014945
0.061907,-0.490596,0.093170,-0.848920,0.444971,-0.285193
0.234119,-0.567752,0.673349,-0.492911,0.869234,-0.038341
0.375649,0.171711,-0.249633,-0.206066,-0.706513,0.677035
0.551857,-0.060240,0.715784,0.253807,-0.893274,0.371004
-0.103391,0.120618,0.748869,-0.160601,0.972106,-0.170930
-0.073467,0.945395,0.544038,-0.518498,0.724917,-0.453493
0.737037,0.538552,0.490006,0.779986,-0.511686,0.360275
0.463591,-0.330682,0.643591,-0.375072,0.581380,0.722024
-0.290730,0.019098,0.689832,0.215732,-0.804657,0.553160
0.651362,0.198729,0.677875,0.064310,-0.888061,0.455205
0.375540,-0.427747,-0.722827,-0.636447,0.765731,-0.092692
0.382781,-0.401017,-0.703977,0.619574,-0.774722,0.126230
0.449764,-0.361490,-0.976595,0.078590,0.687305,0.722105
0.192201,0.102891,0.258294,0.834002,-0.522431,0.177502
0.123272,-0.053609,0.557553,-0.278641,0.940114,-0.196327
0.128673,0.124315,0.819893,0.090889,-0.995860,0.001402
0.089349,0.029905,0.659055,0.084328,-0.909884,0.406201
-0.264802,0.008574,0.513291,0.938097,-0.203872,0.280019
0.230661,0.171236,0.298271,0.830641,-0.406452,0.380569
-0.334703,-0.341206,0.741257,0.497815,-0.537896,0.680329
0.656872,-0.180250,0.726243,0.416831,0.768862,-0.484874
-0.132995,0.406698,0.656058,0.946973,-0.255372,0.195004
0.291271,-0.349832,-0.479397,0.948854,-0.137805,0.284052
0.405036,-0.673258,0.665408,-0.439449,-0.813157,0.381655
-0.437555,-0.448129,0.575264,0.422325,-0.900623,-0.102568
0.374353,-0.400734,-0.739399,-0.375064,0.884295,0.278118
0.210459,0.037300,0.190446,0.681076,-0.675927,0.281529
-0.075844,-0.445566,0.587761,-0.011951,0.315800,0.948750
-0.840320,-0.545859,0.553777,-0.116631,-0.978777,-0.168499
-0.319361,-0.493818,0.625850,0.633379,-0.735099,0.241785
0.449869,0.513622,0.560910,0.019239,-0.877622,0.478967
0.340644,-0.315419,-0.574965,0.559039,0.056584,-0.827209
0.381482,0.411726,-0.158081,0.996091,0.052015,0.071396
0.391854,-0.508415,-0.249064,0.546019,0.832618,-0.092791
0.229906,-0.146786,0.464083,0.452853,0.266890,-0.850702
0.215319,0.458173,0.566214,0.998553,0.037150,0.038888
-0.034898,-0.302529,0.752345,0.654241,0.703564,0.277428
0.141963,0.699698,0.553208,-0.274315,0.691341,-0.668430
-0.254429,-0.065742,0.525877,0.984718,0.048371,0.167306
-0.267179,-0.111431,0.711828,0.849763,-0.440332,0.289845
0.763505,0.215126,0.606551,-0.430849,0.864672,-0.258285
0.587294,0.060425,0.702748,0.121546,0.039432,0.991802
0.609766,0.147920,0.636848,-0.272635,0.247249,0.929805
-0.143582,0.423951,0.503911,-0.575876,0.590251,-0.565659
0.437337,-0.757433,0.602206,0.748055,0.659845,0.070831
0.146932,-0.223758,0.322125,0.990092,-0.087051,0.110186
-0.375540,-0.472301,0.672211,0.345941,0.931925,-0.108816
-0.159787,-0.268782,0.273337,-0.275126,0.916515,0.290355
-0.157087,0.895535,0.557703,-0.528347,0.033448,-0.848370
0.078758,-0.298167,0.830501,0.946518,-0.300488,-0.117518
0.426641,0.071614,0.775480,-0.089261,0.993956,-0.063913
0.436582,0.156356,0.627978,0.029700,0.998840,-0.037912
0.314930,-0.352765,-0.396955,0.992725,0.110791,-0.047143
0.296566,0.128585,0.661093,0.246844,-0.798781,0.548650
0.451059,0.735436,0.554287,0.632673,0.725467,0.270964
0.390667,-0.331249,-0.847433,0.999247,-0.014184,-0.036116
0.131268,-0.234091,0.284276,-0.181786,-0.948530,-0.259316
-0.052507,0.971274,0.573526,0.111959,0.989679,-0.089443
0.405359,0.222144,0.711139,0.626827,0.770629,0.114974
0.211647,-0.210578,0.902814,0.679635,-0.666559,0.306260
0.483364,-0.225557,0.632743,0.671438,0.735282,0.092366
0.321521,-0.062803,-0.346729,0.998100,-0.061396,-0.005146
0.147041,-0.245367,0.936018,0.402822,-0.771471,0.492511
-0.200519,-0.052377,0.666037,0.822195,-0.442739,-0.357741
-0.253456,0.259206,0.648326,0.007089,-0.619499,0.784966
0.017070,-0.066025,0.867182,0.165310,-0.923177,0.347012
0.469859,0.702070,0.509994,-0.553303,0.437904,-0.708587
0.395313,-0.171908,0.723815,-0.432737,0.581019,-0.689315
0.177506,0.187066,0.534478,0.899740,0.415552,0.133361
0.542784,-0.061946,0.382121,0.331677,-0.926637,-0.177017
-0.050344,0.550685,0.516467,-0.155338,-0.496139,0.854234
-0.336971,-0.357128,0.670832,-0.068258,0.905020,0.419856
-0.113872,0.857813,0.546675,0.035730,-0.852248,0.521917
-0.222451,-0.304137,0.745033,-0.617508,0.759919,0.202997
0.382022,0.372008,-0.154754,0.977272,0.142612,0.156848
0.128781,-0.243001,0.404177,0.863440,0.503665,-0.028163
0.203651,-0.217972,0.388474,0.921094,0.388045,-0.031731
0.127809,-0.223093,0.555965,-0.386549,0.634418,0.669398
-0.039975,0.309159,0.587821,0.803577,0.499846,-0.323137
0.053048,0.090000,0.588091,0.860354,0.448505,0.242144
0.230338,-0.223093,0.886362,-0.144560,0.980299,-0.134597
0.182583,-0.267740,0.286733,0.378550,0.906202,-0.188408
0.217914,-0.149818,0.445863,-0.004786,-0.773972,0.633201
-0.911085,-0.016165,0.601966,0.115529,0.979590,0.164486
-0.242761,-0.364903,0.697953,-0.465288,0.861880,-0.201670
0.167459,0.246599,0.532980,0.904323,0.426024,-0.026502
0.476341,-0.089440,0.315203,-0.664910,0.733830,0.139242
0.415622,0.419496,0.548053,0.370792,-0.570814,-0.732588
-0.290189,-0.488414,0.664809,0.186570,0.726175,0.661711
0.509938,-0.372107,-0.977194,0.059480,0.587646,0.806929
0.398227,0.235410,0.654829,0.870310,0.431571,-0.237290
0.257888,0.112183,0.792802,0.654627,-0.369742,0.659359
0.012425,-0.165648,0.800773,-0.100251,0.211897,0.972136
-0.027443,0.186881,0.726782,-0.809059,0.361488,-0.463412
-0.117868,0.953929,0.557703,0.181809,0.915451,-0.359020
-0.129863,0.841318,0.527765,0.601408,-0.794790,-0.081344
0.136236,0.380634,0.585064,0.112883,-0.790915,0.601424
0.287921,-0.330016,-0.601726,0.860583,0.430489,0.272169
-0.046457,0.036067,0.310737,-0.252043,-0.935335,0.248239
0.490169,0.548793,0.514130,-0.815859,0.491802,0.304146
-0.522473,-0.197214,0.584584,0.981459,0.103885,-0.161080
-0.400281,0.020423,0.707063,0.681059,0.428339,0.593873
0.252810,0.178063,0.102400,0.976353,-0.185542,0.110948
0.339780,-0.453816,-0.622404,0.505947,0.826033,0.248369
-0.106850,-0.000810,0.607959,0.929048,0.167039,0.330104
-0.143691,0.564431,0.605082,-0.382568,-0.493813,-0.780891
-0.358039,-0.472487,0.673469,-0.624977,0.678621,0.385845
-0.030358,0.440730,0.651023,-0.331036,-0.889341,0.315416
0.601125,-0.033609,0.576913,-0.123663,-0.946862,0.296918
-0.368303,-0.002326,0.513261,-0.200859,0.950420,-0.237395
-0.020743,-0.315986,0.624951,-0.422197,0.674532,0.605605
0.259833,0.544905,0.549941,0.973172,0.227753,0.032616
0.129214,0.362525,0.571998,0.625808,-0.567816,0.534742
0.126405,-0.165746,0.393749,0.980225,0.077823,0.181943
0.264479,-0.209445,0.681471,0.359702,-0.877958,0.315918
0.349503,0.426323,0.456561,-0.477537,0.878458,0.016449
-0.225260,-0.699039,0.579370,-0.565590,0.783840,0.256325
-0.137532,-0.475050,0.615302,-0.449115,-0.782788,-0.430742
0.319253,-0.688139,0.667506,0.182530,0.982883,0.024970
-0.357498,0.141851,0.726632,-0.328917,0.388690,0.860659
-0.024202,0.259582,0.554287,0.624251,-0.519997,0.583022
0.255293,0.028291,0.103030,0.999922,0.009186,0.008413
0.117437,-0.189820,0.647667,0.994835,0.042066,0.092374
0.065254,-0.207645,0.843717,-0.498923,0.865761,-0.039168
0.520097,0.069242,0.709371,0.982118,-0.058999,-0.178782
0.548511,0.178347,0.661782,0.556069,-0.052261,-0.829492
-0.024957,-0.560457,0.436992,-0.532421,-0.796309,-0.287090
-0.135586,-0.447655,0.160988,0.580953,0.482980,0.655152
0.144772,-0.302621,0.354610,0.379842,0.909697,-0.167845
0.082431,-0.087351,0.811562,0.820617,0.526751,0.221632
0.616358,-0.003558,0.550451,0.954802,0.268643,0.127212
-0.035544,-0.093894,0.571998,-0.033941,-0.930683,0.364248
0.104690,-0.426422,0.705955,0.208105,0.464636,-0.860701
-0.066658,-0.140249,0.362342,0.607574,-0.576768,0.546070
0.027875,0.663018,0.621235,0.827770,0.312228,-0.466165
0.430314,0.351909,0.683598,-0.150386,0.921193,-0.358869
0.080058,0.096162,0.488237,0.777215,-0.128624,0.615948
0.265775,-0.338359,-0.274506,0.228690,-0.884035,0.407656
-0.462187,-0.197688,0.578621,0.647314,0.501675,0.573853
-0.100585,-0.068206,0.617519,0.842430,-0.136487,0.521232
0.046457,0.624908,0.525697,-0.170589,0.178435,-0.969051
0.499783,-0.018821,0.569930,0.726371,0.350434,-0.591255
0.302830,-0.304803,-0.584555,-0.554166,0.782261,0.284549
0.206029,-0.217787,0.777818,-0.372430,0.921779,0.107792
0.207865,0.460638,0.586832,0.703343,0.710451,0.023828
-0.504537,0.043554,0.743175,-0.223910,-0.968534,0.108659
-0.423077,-0.568134,0.646468,0.771654,-0.611178,0.176104
0.189714,-0.284802,0.134466,0.974431,-0.224393,0.011505
-0.032952,0.901604,0.534238,-0.187000,0.435670,-0.880467
0.257024,-0.339215,-0.195960,0.688158,-0.724965,-0.029392
0.122946,0.701122,0.563337,0.263353,-0.734417,0.625521
0.650930,0.090099,0.639695,-0.048235,-0.593459,0.803418
0.072171,0.671928,0.570559,0.954794,-0.281767,0.094743
0.142178,-0.299116,-0.082472,0.972760,-0.091526,0.212983
-0.211323,0.854301,0.554257,0.446921,-0.893123,0.050915
-0.075949,0.360819,0.615122,0.924185,-0.339011,-0.175937
0.054885,-0.306134,0.807036,-0.126153,0.326315,0.936805
-0.215428,0.843210,0.555665,-0.577170,0.764877,0.286072
0.157845,0.140434,0.540771,0.503497,0.394055,0.768902
0.340967,-0.429737,-0.306842,0.909211,0.355874,-0.216078
0.127160,-0.091904,0.581947,0.641812,0.766011,0.036124
-0.333944,-0.467372,0.637658,0.611539,-0.771372,0.176083
-0.160760,-0.899336,0.236507,-0.039448,0.752560,0.657341
0.111386,0.769467,0.588720,-0.777236,0.557903,0.290944
0.100582,0.153133,0.678234,0.131834,-0.597914,0.790644
-0.156009,-0.195889,0.616890,0.393003,0.078188,0.916207
0.053371,-0.171908,0.578831,-0.724015,-0.361423,0.587516
0.500433,0.049334,0.589859,0.033941,-0.991612,0.124714
0.485091,-0.462443,-0.951542,-0.756426,0.554490,-0.346931
0.176750,0.115689,0.871437,-0.506536,-0.839187,0.197955
0.577788,-0.172758,0.583056,-0.178656,0.708896,0.682311
-0.454083,-0.734210,0.519434,-0.179356,0.872273,0.454941
0.542998,-0.297507,0.665977,-0.649782,0.371508,0.663148
0.173186,-0.598185,0.678144,0.510757,-0.820022,-0.258246
-0.048726,-0.441586,0.647397,-0.163361,0.849055,0.502414
-0.087726,-0.340916,0.805268,0.879390,0.158233,-0.449038
0.429559,-0.470213,-0.250892,-0.015980,0.973516,0.228058
0.501514,-0.050196,0.332794,0.155325,-0.983141,0.096481
-0.368840,0.170762,0.647337,0.730888,-0.663031,-0.161843
0.481524,-0.714967,0.769187,0.768489,0.135783,-0.625290
0.345830,-0.192857,-0.430849,0.187225,-0.847870,0.496048
0.058558,-0.112663,0.848602,-0.015058,-0.980734,0.194769
0.566552,-0.440544,-0.975366,0.151989,0.241370,0.958457
0.412596,-0.551165,-0.973628,-0.056442,0.084963,0.994784
0.076381,-0.541115,0.728071,0.577976,0.442213,0.685851
0.656763,-0.070856,0.770056,0.394345,-0.371943,0.840328
0.163137,-0.212002,0.819083,-0.794976,0.606207,0.022945
-0.204733,-0.450686,0.564536,-0.363220,0.930448,0.048357
-0.235306,-0.417037,0.564895,-0.475866,0.865046,0.158893
0.088917,0.564240,0.540741,0.055144,-0.650527,0.757479
-0.353826,-0.738190,0.485630,0.106622,0.884304,0.454574
-0.094317,0.380160,0.649075,-0.592409,-0.804829,0.036096
0.275389,-0.208588,0.699481,0.105408,0.926496,0.361239
0.335676,0.357504,0.559711,-0.348887,0.754061,-0.556480
0.214996,0.101948,0.079984,0.801512,-0.435756,0.409505
-0.168646,-0.151999,0.706134,0.277384,0.516307,0.810238
-0.434422,0.041564,0.743085,0.018317,0.738388,0.674127
0.168106,0.134174,0.710809,0.735165,-0.640761,-0.221264
0.303480,0.166307,0.805538,0.114152,-0.790792,0.601347
0.254215,0.075687,0.152417,0.991863,-0.114645,0.055349
0.348531,-0.082896,0.687434,0.156123,-0.987734,-0.002817
0.098963,-0.234276,0.577452,-0.318844,0.940869,0.114471
0.026144,-0.480546,0.370913,-0.024469,0.901369,0.432359
0.219856,-0.236649,0.745452,-0.413720,-0.725722,-0.549694
0.599721,-0.043085,0.386766,-0.474125,0.846397,0.242525
0.199655,-0.408313,0.655638,0.056765,0.626406,0.777428
-0.110845,0.459781,0.607720,0.952899,0.302562,0.020983
-0.238438,0.083747,0.729180,-0.315021,0.926261,0.206887
-0.155682,0.030473,0.357368,0.802728,0.458893,0.380847
0.030252,0.202328,0.476520,-0.769341,0.003426,-0.638829
0.484551,-0.510787,-0.975636,0.121777,-0.332167,0.935326
-0.234765,-0.416939,0.707393,-0.498303,-0.595866,0.629792
-0.295161,0.178538,0.632473,0.080790,0.996106,-0.035303
0.107605,-0.037115,0.466271,0.794956,0.186612,0.577253
0.302830,0.320817,0.544038,-0.712001,0.700601,-0.047053
-0.047103,0.353425,0.612724,0.830105,-0.537878,0.147016
0.233470,0.200720,0.697983,0.244317,0.742291,0.623950
0.384617,-0.501970,-0.966915,0.531443,0.459356,-0.711730
0.289326,-0.470022,0.719140,-0.311583,-0.377344,0.872082
0.167674,-0.255799,0.626270,0.944165,0.169267,0.282667
0.193173,-0.233900,0.770446,-0.075018,-0.995352,0.060394
0.278415,-0.146405,0.610357,0.165389,-0.921376,0.351727
0.529387,-0.142615,0.758099,0.433559,0.899251,0.058091
-0.158814,0.871461,0.578531,-0.529135,0.718230,0.451843
0.371435,0.040239,0.756480,-0.282200,-0.706695,0.648803
0.090753,-0.282621,0.641583,-0.266537,0.744762,0.611791
-0.068280,0.342808,0.707783,0.415955,0.899265,0.135292
0.327680,-0.309639,-0.536156,0.980863,0.149283,-0.124987
-0.133427,-0.492777,0.740747,-0.128051,-0.986526,0.101829
0.107931,-0.268024,0.227187,0.905580,0.392082,-0.161852
0.169187,-0.198354,0.967005,-0.294107,0.934238,-0.201742
0.084163,0.319399,0.723426,0.980480,0.101388,-0.168460
0.640017,0.111141,0.648746,-0.579706,0.727689,-0.366620
0.228933,0.029148,0.133058,0.788436,-0.435377,0.434528
0.215211,-0.338267,0.498307,0.975389,0.212775,0.057815
0.163460,0.041656,0.747460,0.038548,0.999215,0.009120
0.131699,-0.292763,0.106176,0.983649,0.166814,0.067873
0.705490,-0.083938,0.617789,0.448857,0.886703,-0.110843
0.330921,-0.094745,-0.367527,0.125482,-0.824492,0.551786
-0.264802,-0.527276,0.504121,-0.292922,0.878899,-0.376474
0.381808,0.421203,-0.133717,0.876539,-0.390951,0.280780
0.636885,-0.010194,0.656058,0.281684,0.644056,0.711228
0.492760,-0.320256,0.685397,0.244346,0.969685,-0.002571
0.721478,0.151235,0.661662,0.999422,0.015986,0.029997
0.706245,-0.336560,0.723156,0.853894,0.426690,-0.297994
0.535006,0.093414,0.647907,0.559824,0.795566,-0.231671
0.182909,0.598271,0.588270,-0.454015,0.876023,0.162647
0.054990,-0.282621,0.878360,-0.546006,0.122083,-0.828838
0.226338,0.065169,0.193683,-0.674320,0.705659,-0.217572
0.005943,-0.196554,0.353022,0.429483,0.896708,-0.107047
-0.451923,0.091331,0.616950,-0.393432,0.382527,0.835993
0.324221,-0.309639,-0.485840,0.801352,-0.527917,0.281315
0.134291,-0.459695,0.691840,-0.676019,0.283016,0.680368
-0.332866,0.141284,0.708262,0.245768,-0.666676,0.703663
-0.399309,0.055877,0.729359,-0.188674,-0.982036,0.002749
0.297103,0.136355,0.599688,0.795190,-0.557017,-0.239594
-0.209487,-0.653159,0.510743,-0.220288,0.883305,0.413818
0.033493,0.086304,0.786179,0.101897,0.739504,0.665395
0.342589,0.145832,0.736132,0.093914,0.486170,0.868803
-0.354149,-0.239304,0.527226,0.939027,-0.251358,-0.234623
-0.200196,-0.939621,0.249333,-0.039448,0.752560,0.657341
-0.180315,-0.819044,0.650604,0.742372,-0.632940,0.219703
0.368735,0.120427,-0.270700,0.742325,0.488946,-0.458132
-0.080595,-0.370776,0.604393,-0.486461,0.670309,-0.560394
0.088481,-0.270587,0.605532,0.536334,-0.818530,-0.205803
0.372299,-0.464433,0.737121,-0.553781,-0.200348,0.808200
0.006157,0.871079,0.523660,-0.768019,0.596328,0.233537
-0.190905,-0.398743,0.545986,0.352419,0.695440,0.626230
0.153305,-0.139485,0.367137,0.975368,-0.089823,0.201465
-0.104581,0.911463,0.527795,0.969675,-0.242131,0.033209
0.180746,-0.305277,-0.095748,0.941012,-0.202103,0.271386
0.277225,0.297692,0.601037,0.800677,0.308835,0.513358
0.036085,-0.475524,0.384249,0.205007,0.862490,0.462692
0.131482,-0.132473,0.544248,0.772865,0.522362,-0.360301
-0.222883,-0.709279,0.580179,-0.576715,0.725040,0.376453
0.391313,-0.333054,-0.876442,0.935677,-0.142724,0.322706
-0.056395,0.082323,0.834307,0.796324,-0.568761,0.205861
0.116032,-0.319591,0.240073,0.999570,0.029319,0.001082
0.590429,-0.542163,-0.976835,-0.087369,0.332662,0.938990
0.236819,-0.413149,0.598879,0.929655,0.188848,-0.316351
-0.049698,0.409354,0.608289,-0.603440,-0.564093,-0.563613
-0.117545,0.601968,0.580509,0.143174,-0.852786,0.502253
0.279711,-0.594297,0.736432,-0.507609,-0.835349,-0.211012
0.167027,-0.306700,-0.106266,0.795963,0.106131,0.595969
0.737251,0.105645,0.664299,0.976185,-0.191213,0.102472
0.133318,-0.322148,0.254308,0.812046,-0.546155,0.205659
-0.008643,0.973265,0.591147,-0.302688,-0.949086,-0.087272
0.367113,-0.294753,-0.727352,0.795368,0.605547,0.026516
-0.867870,0.154840,0.518985,0.950681,0.103871,0.292261
0.107605,-0.468506,0.233270,0.966407,-0.248036,-0.067354
0.144878,-0.051712,0.869639,-0.348036,0.925250,0.150943
-0.018366,0.853543,0.523330,-0.468582,0.808267,0.356562
0.770960,0.224510,0.604783,-0.430849,0.864672,-0.258285
0.022471,-0.238164,0.796787,-0.079485,-0.069133,0.994436
0.321307,0.539026,0.575174,0.704271,0.619910,0.345997
0.002808,-0.231343,-0.104948,-0.521411,-0.850380,0.070603
0.220074,0.183369,0.337259,0.916336,-0.343645,0.205514
0.341508,-0.393056,-0.991819,-0.249877,0.288057,0.924437
-0.087403,0.341292,0.720729,0.660856,0.726410,0.188676
0.068712,-0.216648,0.722227,0.368784,-0.920639,0.128151
0.469101,0.462720,0.547934,0.758217,-0.200236,-0.620494
-0.157519,-0.346893,0.317870,0.809018,0.320175,0.492928
0.324871,-0.260346,-0.442447,0.862110,-0.429665,0.268617
-0.124136,0.821694,0.574275,0.645923,0.308442,0.698317
-0.271825,-0.421110,0.700440,0.543642,0.827499,-0.140354
0.109768,-0.001568,0.652192,-0.333923,0.904141,-0.266504
-0.053480,0.585948,0.605442,-0.510395,-0.484095,-0.710738
0.309744,-0.004218,-0.326531,0.675349,0.737498,-0.000645
-0.432477,-0.380258,0.694327,-0.522134,0.728546,0.443392
0.650822,0.692686,0.511103,-0.325754,-0.887836,-0.325012
-0.258211,-0.062803,0.496059,0.534242,-0.266913,0.802087
-0.375540,0.133983,0.594773,-0.344736,0.936467,-0.064698
0.515774,0.061374,0.628907,0.958798,0.037347,-0.281623
-0.242652,0.886342,0.493152,0.045821,0.949346,0.310873
0.122408,-0.096359,0.807875,0.936257,0.350713,0.020567
0.738441,-0.531355,0.715904,0.700379,-0.493088,0.516076
0.229042,0.379587,0.447271,-0.503392,0.834621,-0.223617
0.348208,-0.315518,-0.580719,0.108934,0.935115,0.337185
0.077895,-0.455332,0.069975,0.996002,-0.030236,-0.084056
0.004538,0.895159,0.563157,0.976085,-0.217361,0.003419
0.231419,-0.271530,-0.226947,0.017280,-0.999497,0.026583
0.203869,0.064978,0.714495,0.202370,-0.162068,0.965806
0.296025,0.516943,0.524679,0.356009,0.929921,0.092215
0.151146,0.254653,0.533519,0.931907,0.216996,-0.290624
0.060826,-0.111147,0.821511,0.136156,-0.964832,0.224856
0.399740,0.055877,0.761665,0.055473,-0.845669,0.530817
0.120463,0.185833,0.376607,0.832264,-0.104908,0.544362
0.283925,-0.358834,-0.627499,0.877219,-0.267823,-0.398444
0.121218,-0.419120,0.640415,0.630334,0.727016,-0.272262
0.097235,0.646425,0.526836,0.125679,0.926697,-0.354173
-0.175346,-0.685958,0.602745,0.174566,-0.954010,-0.243704
0.118841,-0.236556,0.913662,0.448333,-0.877301,0.171288
0.093994,-0.509457,0.089185,0.927844,-0.335664,0.162589
0.306398,-0.318549,0.781204,-0.626605,-0.455296,0.632512
0.137100,-0.058440,0.584375,0.170911,0.920844,-0.350479
0.908817,-0.364522,0.678953,0.783337,-0.052995,0.619334
0.270093,-0.030571,0.032185,0.977068,-0.173471,0.123474
-0.460133,-0.127735,0.602895,-0.852359,0.509403,0.118290
0.232606,-0.288025,-0.071144,0.825669,-0.445801,-0.345734
0.574980,-0.403008,-0.981779,-0.202391,-0.393011,-0.896984
-0.486710,-0.476658,0.374779,0.840574,-0.518309,-0.157451
0.268257,0.030380,0.390362,0.416509,-0.908319,-0.038440
0.382781,-0.664632,0.692978,0.670181,0.739640,0.061572
0.239411,-0.096926,0.046540,0.958412,-0.205057,0.198488
0.380727,-0.260346,-0.467230,0.980226,0.104804,-0.167849
0.254320,-0.350966,-0.337799,0.994355,0.053069,0.091875
0.177614,0.226026,0.746321,0.335011,0.893618,-0.298688
0.338376,-0.251055,-0.467290,0.921831,-0.295053,-0.251339
0.253889,-0.114179,0.454044,0.908094,-0.240445,0.342857
-0.268798,-0.732694,0.644011,-0.703556,-0.649691,0.287943
0.341940,-0.401868,0.738709,0.297124,0.567953,-0.767559
-0.071630,-0.119484,0.384039,0.601511,-0.759779,0.246820
-0.197060,0.118628,0.724355,0.157423,0.982134,-0.103105
-0.014802,0.954213,0.521052,0.070702,-0.929293,0.362514
-0.274416,-0.518083,0.530073,0.437355,-0.856191,0.275060
0.653740,-0.059198,0.701399,-0.776597,0.440297,0.450594
0.100800,-0.383198,0.032965,0.836212,0.083746,0.541974
0.044726,0.815156,0.505259,-0.529709,-0.847663,0.029597
-0.285543,-0.804447,0.552159,-0.329619,0.617011,0.714597
0.015666,-0.092471,0.450867,0.861189,-0.255023,0.439678
0.061258,-0.157877,0.839192,0.242269,0.339005,0.909055
-0.119705,-0.841133,0.205340,0.492627,-0.704081,-0.511457
0.266530,0.273612,0.566184,0.385472,-0.651279,-0.653641
0.132777,-0.243094,0.025892,-0.696486,-0.621657,0.358399
-0.178046,0.019856,0.670233,-0.345097,-0.835595,0.427421
-0.163460,-0.096076,0.625940,-0.481930,-0.162719,-0.860968
0.071953,-0.403384,0.669543,-0.244591,-0.267633,0.931959
0.515019,-0.504718,-0.974887,0.180064,0.055775,0.982072
-0.351017,-0.321963,0.750187,-0.431532,0.077129,-0.898794
0.242870,0.004217,0.450418,-0.433225,0.521949,-0.734769
-0.073035,0.547179,0.616290,-0.082710,0.005648,0.996558
0.315148,-0.233709,-0.610776,0.990479,0.137235,-0.010854
0.225475,0.184508,0.789056,-0.892611,0.219530,0.393766
0.349612,-0.341865,-0.635530,-0.757953,-0.623223,-0.192613
0.218128,0.219679,0.712068,-0.355599,-0.885131,-0.300153
0.214888,-0.300440,-0.250442,0.930018,0.154601,0.333415
0.254752,-0.340159,-0.190626,-0.728195,0.685039,-0.021315
0.208297,-0.402440,0.533010,0.173791,-0.927049,-0.332229
0.194578,0.154458,0.767958,-0.309563,0.950290,-0.033469
0.289434,-0.176362,-0.612635,0.986512,0.146971,0.072061
0.386777,0.373240,0.549102,0.699802,-0.513832,0.496239
-0.407086,0.054361,0.749678,0.031829,0.792764,0.608698
0.285221,-0.516093,-0.572957,0.968045,-0.036822,0.248057
0.284248,0.495901,0.489346,-0.155152,-0.684925,0.711903
-0.383318,-0.443102,0.626540,0.195076,0.845133,-0.497690
-0.380186,-0.298641,0.753723,0.324371,0.004568,0.945919
0.471264,-0.713451,0.773053,0.644934,0.388975,-0.657844
0.433882,-0.061761,0.652432,0.023969,-0.708608,0.705195
0.820225,0.583298,0.477779,0.927840,-0.266433,0.261010
0.176750,-0.308025,-0.018340,0.925907,-0.002066,-0.377745
0.204301,-0.305468,0.588960,0.657830,0.752555,-0.030334
0.396717,-0.361392,-0.785520,0.906349,0.422499,-0.005206
0.604798,0.269250,0.610417,-0.521444,-0.851164,-0.060141
-0.066658,0.963504,0.550990,-0.644277,0.690023,-0.329813
0.467050,0.535804,0.510624,0.893821,-0.430646,-0.125010
0.575411,0.037959,0.740238,-0.565163,0.779274,-0.270782
0.343453,-0.262429,-0.435434,0.888170,-0.368881,0.274008
0.434422,0.693919,0.545266,0.765540,0.583202,0.271706
-0.199437,-0.419595,0.559591,-0.217667,-0.959458,-0.179056
0.396391,0.119386,0.266325,0.054606,-0.998477,0.007830
0.015557,0.122041,0.497198,0.346799,-0.343710,0.872694
-0.307693,0.069907,0.534898,0.633560,-0.637456,0.438465
0.309098,-0.457323,-0.988522,-0.393993,0.195690,0.898039
0.197710,-0.124888,0.908927,0.611474,0.391504,-0.687622
-0.085240,0.083937,0.800743,-0.231045,-0.616812,-0.752436
-0.243087,-0.385755,0.723006,-0.639146,0.503695,0.581191
-0.290189,-0.007730,0.670443,0.654680,0.460508,0.599439
0.121327,-0.268689,-0.125386,0.456540,0.872191,0.175655
0.465210,0.468506,0.519524,0.947648,-0.307695,-0.085361
0.313311,-0.289257,-0.633462,0.990907,0.084504,0.104703
-0.363008,-0.459787,0.767569,0.634843,0.769251,-0.072298
0.421673,0.119386,0.735982,-0.455579,0.080437,-0.886554
0.616898,0.243944,0.687764,0.185963,-0.402102,0.896511
0.673295,-0.333054,0.704007,-0.467983,0.870129,0.154493
0.232606,0.051041,0.188288,0.741423,-0.615348,0.267654
0.715751,-0.187546,0.730109,-0.422571,-0.624921,0.656436
0.373704,0.492580,0.539483,0.017769,0.484103,0.874831
0.149091,0.681312,0.571099,-0.635445,-0.695325,0.335758
0.243411,-0.508699,0.710959,0.869665,-0.493303,0.018327
-0.306721,0.038815,0.707333,0.974743,-0.188555,0.119681
-0.192092,-0.441586,0.606011,-0.234406,-0.967442,-0.095449
0.371867,-0.393623,-0.852917,0.931787,0.358564,-0.056609
-0.109441,-0.121573,0.406485,0.241391,-0.912544,0.330142
0.485091,0.431253,0.553807,0.003264,-0.626793,0.779179
-0.011775,-0.338550,0.619917,-0.630179,-0.738064,-0.241113
0.371650,-0.585103,0.725643,-0.257450,0.300945,0.918233
-0.012639,0.959426,0.572657,0.089467,0.972087,0.216893
0.615602,-0.326701,0.700890,-0.194004,0.964208,0.180733
-0.035761,-0.229063,0.290090,0.222002,-0.959233,0.174890
0.575843,-0.014834,0.584435,-0.219329,-0.756592,0.616006
-0.185501,0.078250,0.716174,-0.450660,-0.675754,0.583320
-0.171887,-0.432011,0.586263,0.250440,-0.908412,0.334764
0.746974,-0.342056,0.737121,0.906683,-0.088383,-0.412449
0.253134,-0.073136,0.016932,0.912861,-0.313860,0.261107
0.061799,-0.106403,0.539453,0.531215,-0.625979,0.570929
0.187014,0.178063,0.693398,0.430744,0.042557,-0.901470
0.144123,-0.294285,-0.034673,0.910868,-0.398927,-0.105715
0.230661,-0.181385,0.763163,0.433300,-0.895111,0.105014
-0.331676,-0.434475,0.691630,-0.047314,-0.118051,0.991880
-0.104690,-0.756861,0.675987,0.348943,0.852644,-0.388892
0.269338,-0.117968,0.461896,0.816068,0.329659,-0.474719
-0.170592,0.831460,0.582696,0.773998,0.617203,0.141379
0.688418,-0.032087,0.623153,0.513878,0.728402,-0.453165
-0.113223,0.300058,0.693967,-0.301027,-0.317816,-0.899097
0.115926,0.065736,0.428571,0.967246,0.003342,0.253817
0.498811,-0.106501,0.823459,-0.670744,0.199380,-0.714388
-0.004647,0.012936,0.800653,-0.049988,-0.181194,-0.982176
0.145204,-0.168870,0.488477,0.891844,0.322053,0.317643
-0.015125,-0.486141,0.741766,-0.503594,0.798404,0.330067
0.190364,0.236266,0.687015,0.207759,0.135863,-0.968699
-0.068821,0.916201,0.498756,-0.536143,-0.723216,-0.435327
0.454950,0.080524,0.785340,0.164502,-0.986364,-0.004961
-0.071089,0.869847,0.524469,0.854089,0.520120,-0.002853
0.278739,0.541590,0.513111,0.163578,-0.699145,0.696017
0.323034,0.551066,-0.046840,0.996788,0.027640,0.075171
0.266206,0.563297,0.536965,-0.159319,0.979061,-0.126713
0.086431,0.060332,0.728251,-0.598257,-0.688727,-0.409565
0.365385,0.168112,-0.250981,-0.658766,-0.432269,0.615768
0.357713,-0.437889,0.689982,-0.524840,-0.658444,0.539439
0.413568,0.096162,0.668075,-0.062080,0.984632,0.163234
0.306398,-0.352580,-0.597920,0.568711,0.663343,-0.486358
-0.219642,-0.529458,0.444155,-0.595881,-0.031252,-0.802465
0.334162,-0.525385,-0.977045,-0.282430,0.219278,0.933890
0.338590,0.195692,0.512841,0.269605,0.023126,-0.962693
-0.008320,0.853260,0.543229,0.953846,0.294577,0.058327
0.381699,-0.419786,-0.810812,0.397286,0.916559,0.045643
0.150605,-0.172666,0.767419,-0.685906,-0.440640,-0.579110
-0.052831,0.709841,0.614972,-0.575262,0.162370,0.801692
-0.372949,-0.692594,0.663010,0.438297,-0.061094,0.896751
0.153305,0.600834,0.512571,0.827293,0.561260,0.023953
0.164327,-0.227357,0.498427,-0.119642,0.988756,0.089702
0.367977,-0.819518,0.677935,-0.628953,0.158164,-0.761185
0.266421,-0.326134,-0.195151,0.780578,0.605667,0.154483
0.166055,-0.276176,0.411849,0.880048,0.472546,0.047069
0.326816,0.563673,-0.037190,0.996788,0.027640,0.075171
0.335781,-0.308974,-0.537655,0.761882,0.635716,0.124099
-0.186259,-0.490688,0.439450,-0.775025,-0.149872,-0.613902
0.250324,0.504712,0.573766,0.791065,-0.436823,0.428254
0.147581,-0.179961,0.563697,0.953947,-0.125930,-0.272264
0.114304,0.048674,0.602685,0.750654,0.660690,0.002547
0.177506,-0.278640,-0.092931,0.631106,-0.740879,0.229791
0.129431,-0.468605,0.678384,-0.350364,0.572294,0.741434
0.241465,-0.275227,-0.408613,0.734203,-0.670729,-0.105206
0.351231,-0.284519,-0.494351,0.859976,-0.277227,0.428470
0.131373,0.646806,0.540562,0.650125,-0.573286,0.498679
0.243302,-0.378928,-0.344392,0.818642,0.501371,-0.280093
-0.261020,0.290298,0.640115,-0.464633,0.551216,0.693020
0.046131,0.650405,0.617070,-0.616039,0.431212,-0.659206
0.064390,0.355889,0.633702,0.676713,-0.736247,0.000776
0.450410,-0.303669,0.665108,-0.516718,0.838099,-0.174908
-0.061581,-0.705768,0.182774,-0.903365,0.422174,-0.075502
0.372081,-0.358268,-0.693218,0.325022,0.769676,0.549508
-0.162491,-0.178162,0.764362,0.990138,0.134301,-0.039880
-0.478933,-0.340349,0.629446,0.367318,0.807096,0.462248
0.465319,-0.307267,-0.992628,0.023113,0.134993,0.990577
0.225260,-0.390968,0.510624,0.784757,0.568728,0.246382
-0.246866,-0.436280,0.202913,0.490341,-0.866209,0.096164
0.129645,0.238916,0.696964,0.971484,-0.220119,-0.088127
-0.098208,-0.050954,0.816087,-0.750126,-0.612013,-0.250502
0.579084,0.248306,0.708772,-0.172484,-0.969379,-0.174794
0.141314,0.097678,0.710510,0.758180,0.440875,0.480409
0.083730,-0.245367,0.221403,0.956073,-0.284614,0.070140
0.702355,0.201761,0.667925,0.944886,-0.272060,0.182136
0.476664,0.394473,0.553987,-0.733007,0.613824,-0.293121
0.137423,-0.071331,0.767149,-0.460583,0.822442,-0.333844
0.416272,-0.430211,0.729270,0.778953,0.382831,-0.496661
-0.025066,0.669839,0.617219,0.388600,0.059433,-0.919488
0.041162,0.297310,0.427642,0.839867,0.512281,-0.179422
-0.258211,-0.915166,0.624112,-0.717022,0.531339,-0.451174
-0.115600,0.105356,0.828494,0.903851,-0.427040,0.026277
0.187555,0.062988,0.229974,0.751569,-0.658921,0.031112
-0.346045,-0.386987,0.622254,0.829377,0.236069,0.506364
-0.049266,-0.389076,0.630795,0.212977,0.671026,0.710187
-0.128459,-0.027540,0.771015,0.629093,-0.041930,-0.776199
0.278630,0.199389,0.092721,0.945308,-0.282649,0.162794
0.310717,-0.343763,-0.315472,0.791441,0.155597,0.591110
0.490710,0.520067,0.517846,0.913246,-0.370889,-0.168593
-0.308880,-0.066783,0.737451,0.700073,0.689761,0.184736
0.219965,-0.236649,0.885972,0.112448,-0.993657,0.001351
0.341399,0.018815,-0.314214,0.803959,0.478204,-0.353513
-0.241897,0.023935,0.733465,0.723277,0.235078,-0.649314
0.110199,0.128203,0.801013,0.041806,-0.989575,0.137816
0.109768,-0.403482,0.678174,0.961912,0.262043,-0.077836
0.157845,-0.214941,0.607270,0.946159,-0.314782,0.075462
0.307153,-0.170102,0.796128,0.516181,0.849544,-0.108772
0.724827,0.197399,0.594744,0.380128,-0.911634,0.156291
-0.900607,0.091331,0.714465,0.952917,-0.233966,-0.192896
0.092158,-0.334570,0.037100,0.854719,-0.404306,0.325564
0.359876,-0.257881,-0.471426,0.957554,-0.236908,-0.164209
0.177182,-0.312862,-0.133267,0.034482,-0.581791,0.812607
0.177074,-0.060998,0.437322,-0.532141,0.574901,-0.621542
0.383750,0.453053,-0.099344,0.246097,-0.894372,0.373543
0.401794,0.137495,0.710659,0.587004,0.565318,0.579518
0.121327,0.543389,0.574305,-0.701861,0.658720,-0.271071
0.478610,0.673160,0.551200,0.644507,0.764320,0.020631
0.451923,-0.342247,-0.985855,0.095006,0.478902,0.872712
0.347667,0.356080,0.557493,-0.487138,0.872179,0.044724
0.367004,-0.415233,-0.809973,0.663587,0.740055,0.109407
0.593453,0.098436,0.666337,-0.079968,-0.884541,0.459557
0.144878,-0.261011,0.257844,0.248854,0.367145,0.896257
-0.024739,-0.322622,0.700560,-0.020857,-0.748058,0.663305
-0.382131,-0.335327,0.627948,0.100145,0.953171,0.285372
0.255619,0.214842,0.521981,0.578880,0.162188,0.799120
-0.045917,0.895726,0.600467,0.109138,-0.925121,0.363648
-0.085135,-0.259964,0.307471,-0.122439,0.958082,0.259013
-0.325085,0.217214,0.610207,0.991511,0.085179,-0.098237
0.553693,0.227166,0.701819,-0.236339,0.882812,0.405939
0.232283,-0.028014,0.875993,-0.372525,0.851533,0.368940
0.102636,-0.274093,0.646648,0.504927,-0.806249,-0.308240
0.403305,0.233044,-0.217268,0.950489,0.284622,-0.124746
0.401577,0.288591,-0.193503,0.996925,-0.074977,-0.022770
0.604580,-0.063370,0.367557,0.468026,-0.863392,-0.188431
0.454192,0.197214,0.675058,-0.576056,0.067433,-0.814624
0.339995,0.104598,0.758578,0.723339,0.638642,0.262520
0.221587,-0.591167,0.672750,-0.433915,-0.598336,-0.673581
0.525606,0.017866,0.745542,-0.470036,0.515420,-0.716526
0.337617,-0.351157,-0.557673,0.556830,-0.822591,-0.115255
0.112900,0.110476,0.712757,-0.117148,-0.637257,-0.761695
0.394986,-0.420544,-0.851119,0.634945,0.772520,0.007588
0.204841,-0.199493,0.809044,-0.337815,-0.757174,0.559078
0.289111,-0.340448,-0.378615,-0.657271,0.685253,0.313725
0.461537,-0.628611,0.763223,-0.514163,0.243559,0.822384
0.654277,-0.057966,0.505020,-0.229743,0.970264,0.076200
-0.439500,-0.309639,0.588570,-0.428408,-0.772194,-0.469236
0.191010,0.151143,0.297342,0.928748,-0.315754,0.194233
0.238224,0.362051,0.428422,-0.544012,0.773590,-0.324977
0.009184,0.087536,0.507147,0.220767,-0.664879,0.713581
-0.074331,-0.761790,0.681171,0.395512,0.876340,-0.274950
0.104690,-0.054934,0.775930,0.629941,-0.724505,0.279764
0.299049,-0.348976,-0.351074,0.851764,0.229807,0.470837
0.089240,0.510215,0.551919,0.063133,-0.881859,0.467268
-0.018043,-0.449547,0.366448,-0.107980,0.894501,0.433829
0.125109,-0.207547,0.280889,0.651362,-0.758215,-0.028950
0.384399,0.137587,-0.254098,0.721597,0.614325,-0.319221
0.348639,0.495802,-0.087267,0.458355,-0.761132,0.458899
-0.293647,0.014169,0.520813,0.871509,-0.489633,-0.027057
0.359549,-0.341015,-0.675717,0.827530,0.552090,0.101940
0.354904,0.154175,0.734424,-0.103724,0.201751,0.973929
0.330812,0.461488,-0.086248,0.421507,-0.783520,0.456540
0.259939,-0.181668,0.827864,0.351808,0.935860,0.019912
0.113332,0.509925,0.593485,0.812859,-0.256203,-0.523087
0.565039,0.124413,0.594114,-0.615889,0.495005,-0.612904
0.400713,-0.472776,-0.266235,0.580954,0.813933,-0.002212
0.772687,0.233044,0.598430,-0.452702,0.876768,-0.162291
0.455487,0.047916,0.730588,-0.353016,-0.739529,0.573130
-0.899525,-0.007446,0.618089,0.115529,0.979590,0.164486
0.143582,0.498932,0.534058,-0.088044,-0.957329,0.275264
0.251620,-0.488033,0.699811,0.959610,-0.271239,-0.074681
0.412705,0.264037,0.658815,0.909509,0.182549,-0.373456
0.942849,-0.269354,0.635830,0.849621,0.295268,0.436990
0.250539,-0.456565,0.768048,0.767079,0.008187,0.641500
-0.181937,-0.116360,0.419641,0.564279,-0.599771,0.567330
0.227960,-0.316750,0.271240,-0.645914,-0.674003,0.358491
0.361712,-0.313238,-0.989361,-0.281795,0.369083,0.885646
0.498488,0.677800,0.546525,0.697414,0.482915,0.529534
0.118518,0.120144,0.824657,0.965539,-0.248452,-0.077506
0.052290,-0.534485,0.683269,-0.005363,-0.017842,0.999826
-0.119599,-0.033794,0.619707,-0.813171,0.053879,-0.579525
0.314716,-0.261295,-0.465072,0.778295,-0.627531,-0.021491
0.233793,-0.349068,-0.384698,0.089140,0.824063,0.559442
-0.276147,0.040424,0.697953,0.947693,0.137313,0.288136
0.264370,-0.312764,-0.288531,0.683210,0.484578,0.546267
0.150822,-0.165080,0.800533,0.865135,0.129172,-0.484620
0.292026,0.517036,0.559232,0.878669,0.385859,-0.281166
0.362791,-0.405281,-0.795858,0.608881,0.773958,-0.173931
0.114413,-0.241960,0.225299,0.974389,-0.195200,-0.111636
0.309421,-0.540074,0.789925,0.759249,0.559533,-0.332359
0.340427,-0.332290,-0.612724,0.802008,0.597276,-0.006691
-0.225801,-0.005167,0.733435,0.978209,0.190980,-0.081444
-0.131805,-0.014076,0.664029,-0.152668,-0.987170,0.046775
0.694468,-0.167262,0.723426,0.383219,0.432264,-0.816267
0.452032,0.045735,0.682280,0.851240,0.229703,-0.471834
-0.245461,-0.087068,0.442896,0.868478,0.070256,0.490724
0.082431,-0.676672,0.727232,-0.529297,0.837204,-0.137602
-0.206351,0.007816,0.647937,-0.149683,-0.964786,0.216292
0.616466,0.601401,0.507747,0.398840,0.836571,0.375601
0.062771,-0.274186,0.252480,-0.088264,-0.995018,-0.046360
0.273338,0.186215,0.102430,0.981862,-0.163175,0.096545
0.163246,0.587279,0.527915,0.919739,0.357727,0.161589
0.269338,-0.463103,0.565914,0.838670,0.543466,0.035745
0.271498,-0.279971,-0.170877,0.948849,-0.143380,-0.281297
0.160005,-0.185556,0.263418,0.755474,-0.545202,0.363337
-0.229797,-0.566994,0.652372,-0.758755,0.361843,0.541628
0.223097,-0.365089,0.757200,0.276170,-0.745925,-0.606074
-0.488656,-0.151809,0.548863,0.650766,0.443266,0.616457
-0.062662,0.967392,0.570050,-0.067970,-0.984775,0.159997
0.683773,0.211903,0.670592,0.815711,-0.452012,0.360972
0.485738,-0.516376,-0.221913,0.625071,0.768557,0.136407
-0.157736,0.004310,0.704606,-0.665105,0.671387,-0.326918
0.232824,0.481871,0.568252,-0.688923,0.204316,-0.695442
0.084809,0.225650,0.399592,0.856894,-0.249053,0.451337
0.174373,-0.493251,0.635470,0.602807,0.514567,0.609790
-0.074545,0.644058,0.612005,0.777727,-0.288196,-0.558645
-0.060394,0.481489,0.611855,0.345139,-0.227310,0.910609
0.310393,-0.941988,0.746711,-0.734053,0.676589,-0.058257
0.194360,0.508693,0.506908,0.064240,-0.101006,0.992810
-0.236819,-0.468888,0.585154,-0.342193,0.927646,-0.149591
0.579407,-0.001094,0.774251,0.629053,0.680875,-0.375100
0.514910,-0.325370,-0.989122,-0.072235,0.279642,0.957383
0.188201,-0.243852,0.517456,0.684639,0.713279,-0.150008
0.216724,0.473811,0.572238,0.786344,-0.204167,0.583077
-0.097018,-0.256175,0.315323,-0.524767,0.747393,-0.407460
0.635912,-0.046401,0.402110,-0.530475,0.801777,0.275228
0.695981,-0.261769,0.732446,-0.464658,-0.130429,0.875831
0.115277,-0.245749,0.124966,0.974921,0.190661,0.114793
0.310934,-0.521305,0.766310,0.894105,0.416275,-0.165200
0.533924,-0.325087,0.712847,0.815813,0.376131,0.439289
0.333730,-0.026683,-0.353112,0.939852,0.291621,-0.177865
-0.344103,0.094739,0.657856,0.231498,-0.952153,-0.199533
0.277011,-0.202241,0.815457,0.145526,0.486785,0.861314
0.351989,0.117494,0.662591,0.609316,0.792797,0.014364
0.794729,-0.125363,0.619707,0.509738,0.858391,0.057722
-0.269988,0.022321,0.450628,0.937035,0.322636,0.133685
0.154601,-0.204608,0.687584,0.815997,-0.228268,-0.531077
-0.364521,-0.218638,0.455812,0.832003,-0.467995,0.297911
0.000325,0.089526,0.616380,0.772231,0.581642,0.255641
-0.070331,0.194749,0.536845,0.707199,0.512383,-0.487168
0.138937,-0.243950,0.866613,0.470121,0.843581,0.259532
0.251511,-0.003460,0.708891,0.428730,0.782586,-0.451387
0.649308,0.169530,0.647038,-0.926328,0.368324,-0.079084
-0.286193,-0.149535,0.685876,0.823513,-0.562597,0.072882
0.266747,-0.050954,-0.023825,0.995654,0.000510,-0.093133
-0.249784,-0.383290,0.549342,-0.655091,-0.304226,-0.691594
0.345181,0.023553,0.751506,-0.521470,0.594879,-0.611709
0.187229,0.317027,0.708262,-0.494200,-0.246117,-0.833782
0.599503,-0.528798,-0.970991,0.299978,0.176155,0.937541
0.467696,0.683204,0.556175,0.627339,0.777415,0.045519
-0.099827,-0.148968,0.399383,0.241391,-0.912544,0.330142
0.702355,0.603675,0.509125,-0.745287,-0.224734,-0.627727
0.708296,0.511632,0.458929,0.885244,-0.335501,0.322152
-0.021175,-0.561591,0.456112,0.659307,0.647626,0.381962
-0.142936,-0.382249,0.329497,0.694007,0.690701,0.203192
0.137855,-0.177404,0.743654,0.064873,0.324379,0.943700
-0.239737,-0.827769,0.625371,-0.734394,0.633686,-0.243121
0.295484,-0.390968,-0.550211,0.999861,0.016680,-0.000796
0.019662,-0.282812,0.882436,0.931533,0.049031,0.360335
-0.102421,0.956110,0.570110,-0.692147,-0.061417,-0.719139
0.439173,-0.693161,0.765980,-0.341461,0.015723,0.939764
0.408386,-0.627853,0.754832,0.091626,0.973821,0.208033
0.074977,-0.246507,0.679733,-0.444056,-0.385473,0.808842
-0.480123,-0.524812,0.558902,0.782566,-0.075337,-0.617993
0.152873,-0.287267,0.246007,0.922892,0.032852,-0.383655
-0.181719,0.382526,0.487818,0.572879,0.116320,0.811344
0.443173,-0.219679,-0.418982,0.291464,0.696986,-0.655179
0.046131,-0.042993,0.788127,0.909419,0.398195,0.119988
0.266206,-0.168303,0.866553,-0.533850,-0.845576,-0.002373
0.382345,0.249064,0.672870,-0.574955,-0.618088,-0.536091
-0.279061,0.160243,0.788936,0.259466,0.947385,-0.187452
-0.425995,-0.362815,0.677545,0.463124,-0.824796,-0.324388
0.376081,0.195507,0.642153,0.882847,-0.467788,0.041889
0.132777,-0.179585,0.714166,0.563713,-0.789938,-0.241299
0.501406,-0.128967,0.635800,-0.754727,0.610205,-0.240909
0.332972,0.143367,0.557793,0.951004,0.279227,-0.132754
0.337080,-0.188871,0.581857,0.028309,0.916687,0.398601
0.626945,-0.259964,0.679463,0.506770,0.205023,-0.837347
0.261884,-0.291820,-0.419641,0.990282,-0.077823,0.115263
-0.050885,0.174557,0.537894,0.126961,-0.535394,0.835005
0.296457,0.554197,0.521052,0.560077,-0.761186,0.326969
0.242220,-0.154939,-0.047170,0.966102,-0.089079,0.242305
-0.300239,-0.442251,0.759867,0.569856,-0.815487,0.101219
-0.070008,0.856766,0.537475,0.298780,0.839633,0.453592
0.105986,0.725861,0.583026,0.979018,0.203134,0.016125
0.062985,-0.159301,0.495490,0.895447,0.434734,0.095822
0.590861,-0.065268,0.506398,-0.486970,0.857762,0.164631
-0.301316,-0.007348,0.704966,-0.301894,0.563372,0.769073
0.186582,-0.283477,0.257694,0.787932,-0.275900,-0.550493
0.109226,0.749651,0.591177,-0.777236,0.557903,0.290944
0.237143,-0.289257,-0.203662,-0.625220,-0.741960,-0.242063
-0.160328,-0.496375,0.671431,0.171631,-0.985160,-0.001791
0.307584,-0.342056,-0.379784,-0.657271,0.685253,0.313725
0.484660,0.402625,0.546166,-0.729163,0.683102,-0.041147
0.291702,0.451728,0.554856,0.879704,0.370912,-0.297565
0.249461,-0.308025,-0.265396,0.905458,0.421930,-0.046051
0.767069,-0.049913,0.686146,0.357982,0.903031,-0.237454
0.201274,-0.179301,0.755881,0.278142,0.591009,0.757196
0.170592,-0.616953,0.713656,-0.538641,0.798744,-0.268095
0.107499,-0.147735,0.511163,0.977966,0.124668,-0.167452
0.358577,-0.188211,-0.404447,0.885863,-0.441910,0.141289
0.682368,0.642068,0.626719,-0.664565,0.631573,0.399336
0.154819,0.372859,0.586532,0.296761,-0.711307,0.637162
0.901794,-0.126693,0.471066,-0.162949,-0.943941,0.287094
0.097235,-0.221195,0.025922,0.933723,-0.261084,0.244941
-0.042999,0.178728,0.825676,0.271212,0.821924,0.500884
0.425023,-0.396753,-0.920615,0.976149,0.185606,0.112619
-0.357176,-0.198921,0.511253,0.944961,-0.315794,-0.085578
0.482715,0.476183,0.531361,0.995859,-0.081543,-0.040202
-0.394663,0.093223,0.708652,-0.062392,0.933045,0.354308
0.471910,-0.010761,0.749828,-0.199081,0.183350,-0.962678
-0.059421,-0.390401,0.749798,-0.386586,0.366396,-0.846348
0.566011,-0.120340,0.695436,-0.609465,-0.064260,0.790205
-0.420485,-0.655815,0.477389,0.181376,0.797572,0.575309
0.292352,0.467650,0.568342,-0.359372,0.415257,0.835711
0.397581,0.186406,0.628128,-0.440075,0.746323,0.499335
-0.256157,-0.405090,0.662981,0.894880,-0.375600,0.241070
0.257238,0.315413,0.646738,-0.199206,-0.979445,-0.031700
0.220938,0.201570,0.330007,0.895168,-0.345113,0.282083
-0.009398,-0.514669,0.609847,0.924315,-0.354445,-0.141460
-0.273875,-0.026973,0.534568,0.995037,0.005061,0.099376
0.543756,-0.335802,0.732206,0.768157,0.537469,0.347939
-0.130400,-0.429361,0.122479,-0.001987,0.999481,0.032168
-0.104690,-0.267266,0.748479,-0.408850,-0.677843,-0.611041
-0.341294,-0.417986,0.783362,0.597129,0.785696,-0.161613
-0.051317,0.923028,0.576163,-0.613408,-0.392843,0.685131
0.244924,-0.228497,0.850849,0.441945,-0.581172,0.683318
-0.124785,-0.042802,0.618089,0.918067,-0.253351,0.304904
0.253889,0.251054,0.673140,0.060790,0.823041,0.564719
-0.198251,-0.432011,0.158021,-0.551686,0.783431,-0.286144
0.242978,0.334182,0.625041,0.379037,0.852665,0.359574
0.191983,-0.216648,0.241751,-0.417445,0.842823,0.339690
0.091077,-0.179394,0.745123,0.384955,-0.546211,0.743951
0.163569,-0.282812,0.063412,-0.577536,-0.816106,-0.020585
0.409141,0.133323,-0.230513,0.950467,0.310103,-0.021170
0.132023,-0.043085,0.576014,0.021125,-0.945283,0.325568
0.238874,0.032272,0.149030,0.858856,-0.486546,0.160124
0.380294,0.285178,-0.182505,0.869701,0.366542,-0.330558
0.412381,-0.366795,-0.719230,0.879658,-0.440175,-0.180133
-0.274743,0.005352,0.678204,-0.288311,0.916780,-0.276389
0.215537,-0.209537,0.877791,0.245693,0.294618,-0.923491
0.192415,-0.469171,0.572927,0.585301,0.748837,-0.310910
0.146177,-0.249348,0.806976,-0.791873,0.548578,0.268327
0.593885,-0.512396,-0.974018,0.206139,0.186519,0.960582
0.031439,0.378928,0.449189,-0.585049,-0.721803,0.369754
0.269988,-0.184989,0.897180,0.677122,0.453015,0.579899
0.179774,-0.144414,0.904102,0.380660,-0.095566,0.919763
0.198897,-0.628513,0.687105,-0.367342,-0.719818,-0.589001
0.273984,0.094270,0.623213,0.805889,-0.352272,-0.475865
0.057476,0.233802,0.759807,0.868884,-0.263910,0.418799
-0.215860,0.342999,0.696904,0.902797,0.260554,0.342154
0.518260,0.006682,0.744493,-0.585700,-0.062780,-0.808093
0.126081,-0.229162,0.435134,-0.534439,0.588702,-0.606469
-0.071413,0.337595,0.562468,-0.430903,-0.680369,0.592807
0.358471,0.225459,0.677605,-0.339206,-0.334182,-0.879353
0.086754,-0.051804,0.881597,0.009419,0.934097,0.356895
0.022148,-0.315518,0.630825,-0.701209,0.684621,0.198999
-0.299480,-0.501872,0.520153,-0.406148,0.890249,-0.206157
0.250865,-0.057017,-0.026582,0.969422,0.022666,-0.244352
-0.273770,-0.387178,0.693458,-0.545226,0.820718,-0.170733
0.304020,-0.491353,-0.985076,0.259778,-0.178108,-0.949101
0.353608,0.160053,-0.264167,-0.548879,-0.580281,0.601669
-0.211106,-0.111431,0.487518,0.743639,-0.527607,0.410648
0.541270,-0.210011,0.662171,0.698499,0.497140,-0.514733
-0.348099,-0.451161,0.235218,0.568483,-0.769015,0.292307
0.036840,-0.445092,0.800443,-0.591689,0.627889,-0.505629
0.289975,-0.537893,0.698882,0.833748,0.448837,0.321574
-0.073681,-0.050479,0.589559,-0.360542,-0.922467,0.138072
0.506051,0.479881,0.575474,-0.321554,-0.742148,0.588064
0.715968,-0.066974,0.738979,0.832632,-0.024335,-0.553292
0.673400,0.681688,0.499146,-0.555917,-0.831237,0.001225
0.300885,-0.332863,-0.207438,0.983270,0.013138,0.181680
0.238874,-0.059389,0.071563,0.994883,-0.086509,0.052194
-0.111281,-0.357035,0.517456,-0.076131,0.826170,0.558253
0.113549,-0.243950,0.151038,0.962173,0.010642,-0.272231
0.540838,0.171711,0.631274,-0.464356,-0.858107,0.219148
0.083081,0.351434,0.699092,0.798915,0.594921,-0.088337
0.222342,-0.277599,-0.187719,-0.320954,0.941048,0.106852
-0.022039,-0.634674,0.471216,-0.534056,-0.717011,-0.447972
0.455487,0.451155,0.484671,0.110280,0.989324,-0.095270
-0.220074,-0.454858,0.160628,0.551256,-0.780662,0.294419
-0.220288,-0.300440,0.660583,0.306560,-0.866274,-0.394449
0.165732,-0.203948,0.434955,0.704049,-0.443045,-0.555001
-0.152332,0.031231,0.727651,0.780512,-0.558339,-0.281174
0.649094,-0.290772,0.681501,0.868811,0.492122,0.054619
0.258643,0.059765,0.148851,0.999079,-0.005265,0.042584
0.682800,0.556661,0.513770,-0.351312,-0.551849,-0.756335
-0.151795,0.872601,0.611286,0.201234,0.367026,-0.908183
0.192415,-0.299972,0.885612,0.800833,-0.577375,-0.159070
0.007562,0.155505,0.542000,0.022713,-0.593229,0.804713
-0.306397,-0.451068,0.212922,-0.411590,0.899993,-0.143552
0.077895,-0.326603,0.672870,0.944392,-0.289246,-0.156400
0.300562,-0.181575,0.286673,-0.461614,0.813039,0.354796
0.431181,-0.492679,0.721118,-0.203784,-0.830346,0.518649
-0.240601,-0.665106,0.590698,-0.524085,0.816706,0.241506
0.435501,-0.336560,-0.986484,-0.115129,0.480502,0.869404
0.495355,-0.550881,-0.982169,0.096402,0.399461,0.911667
-0.269338,-0.596379,0.489706,0.974795,0.189778,0.117298
0.617544,-0.362815,-0.988792,-0.010094,0.203287,0.979067
0.562121,0.095312,0.566873,-0.240680,0.970579,-0.007008
0.158815,0.099385,0.472295,0.180648,-0.505021,0.843991
0.345830,0.215033,0.736402,0.261958,0.765712,0.587421
-0.134614,0.056728,0.351164,-0.686147,-0.697977,-0.205013
0.087295,0.422244,0.667805,0.106998,0.927927,0.357076
0.339995,0.281672,0.737421,0.115214,0.881057,0.458764
0.419945,-0.432485,-0.923792,0.983619,0.118402,0.135924
0.469859,0.730316,0.545506,0.547004,0.735649,0.399509
0.204301,0.520449,0.547694,0.045514,-0.843517,0.535170
-0.125972,0.326695,0.673200,-0.636716,-0.736999,0.226770
0.444145,-0.106501,0.717762,0.329719,0.886755,0.323960
0.204192,-0.359876,-0.208037,-0.081405,-0.969998,0.229078
0.041271,0.062322,0.708172,0.945875,0.148774,-0.288422
0.065039,0.560451,0.573436,0.494436,0.861252,-0.117382
-0.100691,0.121000,0.784800,0.281585,-0.949286,-0.139875
