0.002235,-0.185236,0.296355,0.972336,-0.147725,-0.180940
0.007943,-0.178353,0.313868,0.203614,-0.947651,0.245966
0.013280,-0.170779,0.332280,0.932229,-0.357014,-0.059074
0.003849,-0.151217,0.356752,0.965824,0.054801,0.253339
0.017003,-0.150232,0.371626,0.940113,0.329404,-0.087636
-0.173515,0.016124,0.470063,0.883842,-0.164872,0.437768
0.026559,-0.135386,0.406448,-0.540603,-0.839308,-0.057529
0.064539,-0.154853,0.410798,0.080605,0.994698,-0.063865
0.035499,-0.119952,0.442025,0.713456,0.671712,-0.199457
0.029911,-0.104218,0.463916,0.348926,0.932102,-0.097142
0.028794,-0.092126,0.484010,-0.275940,0.907129,-0.317764
0.057467,-0.103924,0.491983,0.134789,-0.836580,-0.531004
0.095197,-0.123391,0.495491,-0.096093,-0.916857,0.387479
0.133426,-0.121422,0.536838,0.820932,0.054916,-0.568380
0.152664,-0.125947,0.548320,-0.566269,-0.607335,0.557210
0.174011,-0.131942,0.559048,-0.361213,0.895686,0.259369
0.194862,-0.137451,0.569921,-0.646117,0.540971,0.538408
0.220429,-0.147478,0.578097,0.782350,-0.407015,-0.471452
-0.139259,-0.266938,0.057671,-0.228393,0.973509,0.010801
-0.018245,-0.292303,0.135116,-0.457545,-0.822578,-0.337665
0.000746,-0.283944,0.168952,0.782382,0.093662,-0.615716
0.016011,-0.284142,0.183943,0.917646,-0.373739,0.135072
0.004841,-0.215612,0.292789,0.948309,-0.223848,-0.224949
0.004841,-0.204108,0.312737,0.800914,-0.300943,0.517658
-0.008314,-0.181791,0.338717,0.957768,-0.283647,-0.047165
-0.000496,-0.176780,0.355447,0.975538,0.019437,-0.218970
-0.003598,-0.162522,0.377135,0.929441,0.339287,-0.144994
-0.003102,-0.151313,0.397141,0.966439,0.126869,0.223385
0.005087,-0.146596,0.413842,-0.575373,-0.815438,0.063310
-0.001614,-0.130567,0.435530,0.592636,0.743901,-0.308858
-0.000371,-0.120444,0.454087,0.353912,0.924094,0.144213
0.003102,-0.112283,0.472266,0.577360,-0.809980,0.102891
0.007447,-0.104907,0.489316,-0.077913,-0.589235,0.804196
0.043066,-0.122310,0.494535,0.869748,0.164089,-0.465417
0.047164,-0.114641,0.512250,-0.595628,-0.801176,-0.057837
0.057588,-0.111983,0.527386,0.562875,0.734021,-0.379980
0.077076,-0.117095,0.538056,0.302527,0.944114,-0.130869
0.099416,-0.124471,0.547624,-0.042591,-0.904438,0.424473
0.125854,-0.134600,0.556322,-0.085513,0.900559,0.426240
0.161228,-0.152297,0.560759,0.061134,0.294421,0.953718
0.059698,-0.060861,0.619067,0.851789,0.424630,0.306830
0.125358,-0.091832,0.630926,-0.035196,-0.995149,0.091869
0.039343,-0.013862,0.681435,0.625085,-0.641802,0.444252
-0.165322,0.158490,0.777175,0.166148,0.893211,0.417813
0.471266,-0.313637,0.590507,0.108679,0.585534,-0.803330
0.124366,-0.029986,0.738728,-0.670031,-0.170987,0.722372
-0.053990,0.130171,0.839514,0.846616,-0.412567,-0.336199
-0.067395,0.150424,0.861115,0.802468,-0.353864,0.480443
0.565842,-0.346377,0.627794,0.760859,0.501371,0.411971
0.282858,-0.114443,0.749833,0.198386,-0.973325,-0.115247
0.601836,-0.364470,0.632897,0.741501,0.458644,0.489716
0.263124,-0.089569,0.773986,-0.445891,-0.600093,0.664131
0.280378,-0.092816,0.785381,-0.321643,-0.484283,0.813644
0.219933,-0.035885,0.824698,0.408097,-0.233648,0.882534
0.317986,-0.102447,0.806692,0.784013,0.530086,0.323007
0.280624,-0.063909,0.836759,0.888456,-0.377742,0.260687
0.264863,-0.032153,0.876047,-0.417160,-0.817593,0.396886
0.288691,-0.041592,0.883934,-0.769453,0.605801,0.202356
-0.007200,-0.221121,0.321958,0.952482,-0.227728,0.202283
-0.011791,-0.206473,0.343559,0.962868,-0.265628,0.048246
-0.168053,-0.057717,0.447911,0.794434,0.415164,0.443298
-0.112199,-0.092222,0.443881,0.591544,0.613646,0.522986
-0.047411,-0.122112,0.456928,0.210756,0.933100,0.291387
-0.257541,0.057518,0.561802,0.607968,0.364004,-0.705603
-0.098920,-0.059289,0.516049,-0.644218,-0.763516,-0.045023
-0.076705,-0.066658,0.525675,-0.490477,-0.871397,0.009992
-0.020726,-0.100383,0.522572,0.284604,0.953835,-0.095915
-0.011420,-0.097532,0.537302,0.290044,0.939378,0.182874
0.035745,-0.124572,0.537592,0.199809,0.964756,0.171237
0.039593,-0.116705,0.555279,0.182313,-0.977762,0.103654
0.057838,-0.120540,0.567050,-0.069230,0.971785,0.225478
0.056225,-0.108838,0.586100,0.284683,-0.888623,0.359589
0.072981,-0.111983,0.597611,-0.215450,-0.933147,0.287780
0.125108,-0.142761,0.596190,0.448799,0.882122,-0.142966
-0.351124,0.244026,0.797385,0.474015,0.682691,0.556096
0.138388,-0.143253,0.608919,-0.005334,-0.967890,0.251319
0.032642,-0.049255,0.668097,0.875734,-0.432911,0.213726
-0.157504,0.110902,0.758677,0.924876,-0.073404,0.373116
-0.164576,0.126733,0.779205,-0.691310,-0.684244,0.232168
-0.127217,0.116309,0.799037,-0.466807,0.883832,-0.030527
0.123248,-0.070595,0.722868,0.888855,0.364221,-0.277991
-0.008068,0.042372,0.789034,0.690427,0.360126,0.627391
-0.056596,0.090253,0.824553,0.824451,-0.556955,-0.100404
0.164205,-0.072659,0.760503,0.721831,0.690052,-0.052810
0.176863,-0.072755,0.773493,0.847621,-0.463289,-0.258653
0.214721,-0.092516,0.776653,0.049021,-0.918516,0.392332
0.188779,-0.062925,0.802923,0.835265,0.237750,0.495789
0.621942,-0.390424,0.663545,-0.653600,-0.657585,0.374685
0.228497,-0.074819,0.822581,0.152460,-0.758711,0.633335
0.228001,-0.064594,0.839978,0.463189,-0.728081,-0.505326
0.248852,-0.070888,0.849807,-0.672650,0.649245,-0.354997
0.253072,-0.064792,0.865319,-0.299483,0.441778,0.845660
0.308926,-0.098811,0.861985,-0.786442,-0.249661,0.564959
0.305448,-0.086815,0.879614,0.984270,0.022778,-0.175197
0.299365,-0.072461,0.898663,0.935999,-0.210054,0.282460
0.353730,-0.105400,0.895677,0.666039,0.673666,-0.320259
0.321459,-0.071183,0.923599,-0.312340,0.814769,0.488462
0.029165,-0.016322,0.778277,-0.069152,-0.997588,0.005952
0.120267,-0.077574,0.762272,0.586185,-0.495345,-0.641109
0.150179,-0.091238,0.768361,-0.225605,0.922963,0.311836
0.129578,-0.065578,0.793383,-0.386456,-0.862778,-0.325983
-0.023828,0.063117,0.866508,0.356975,-0.898538,-0.255339
0.179223,-0.084949,0.810026,0.899736,-0.054057,-0.433074
0.206528,-0.097143,0.816753,-0.126617,0.876968,-0.463568
0.161845,-0.053288,0.849459,0.895595,0.008103,-0.444797
0.704354,-0.472912,0.654933,0.398512,0.835357,0.378638
0.206653,-0.078162,0.850648,-0.468502,-0.594813,0.653225
0.228497,-0.085933,0.859259,0.887952,0.216830,-0.405619
0.271688,-0.109822,0.860999,-0.758172,-0.382481,0.528095
0.274915,-0.102741,0.876946,-0.676196,-0.733328,-0.070634
0.337345,-0.141579,0.871872,0.860081,0.468930,-0.200911
0.290801,-0.096843,0.904375,0.480568,-0.855118,0.194492
0.297877,-0.093206,0.918032,-0.718911,0.685741,0.113698
0.014522,-0.320424,0.167793,0.941006,-0.227016,-0.250941
-0.003102,-0.294464,0.196063,0.984691,-0.018633,0.173310
0.010424,-0.294266,0.210531,0.942128,-0.314956,-0.114884
0.074966,-0.334874,0.204152,0.957179,-0.257412,-0.132468
-0.012909,-0.228298,0.303691,0.534715,-0.781080,-0.322481
-0.013530,-0.309412,0.205370,0.004222,0.698698,0.715405
0.002481,-0.310198,0.220128,0.997292,-0.000602,0.073546
0.012413,-0.307245,0.236046,0.938492,-0.345169,0.009543
0.033760,-0.313246,0.247209,0.987615,-0.145119,0.059633
0.007697,-0.280308,0.279248,0.999768,-0.007155,-0.020327
-0.033263,-0.236459,0.316333,0.571214,-0.763148,0.302192
-0.034131,-0.224361,0.337064,0.911102,-0.396738,-0.111764
-0.009682,-0.232720,0.347241,0.935049,-0.354389,-0.009602
0.017378,-0.243240,0.356375,0.712264,-0.658553,-0.242874
-0.131316,-0.113069,0.436922,0.612950,0.717571,0.330734
-0.172022,-0.070006,0.472527,0.951685,0.139958,0.273328
-0.096685,-0.098319,0.499695,-0.783769,-0.603538,0.146451
-0.153531,-0.042276,0.541883,-0.131659,-0.904331,0.406018
-0.213975,0.016514,0.585172,-0.578527,-0.777042,0.248016
-0.246867,0.052994,0.616602,-0.498143,-0.843669,-0.200188
-0.275041,0.085140,0.645742,-0.013319,0.999689,0.021082
-0.458111,0.240779,0.736525,-0.008345,-0.748652,0.662911
0.002731,-0.124765,0.554873,-0.113639,0.963040,-0.244214
0.024946,-0.132536,0.564296,0.040159,0.999193,-0.001160
-0.374332,0.193883,0.738902,-0.245792,-0.637502,0.730190
0.036116,-0.120246,0.597524,-0.347056,-0.937120,0.036864
-0.453146,0.275981,0.805242,0.815150,0.528458,-0.237197
0.030283,-0.105598,0.618371,-0.295691,0.915001,-0.274482
0.035499,-0.099597,0.634173,0.228924,0.969765,-0.084556
0.019734,-0.077670,0.657862,0.842978,0.227481,0.487484
-0.027677,-0.030281,0.694221,0.792525,-0.609395,-0.023271
-0.055728,0.001476,0.722288,-0.549677,0.548610,-0.629986
0.042695,-0.065776,0.703094,0.581484,0.737364,-0.343760
0.089609,-0.092420,0.703413,0.755564,0.652359,-0.059587
0.089985,-0.082885,0.721216,0.140116,-0.966822,0.213596
0.061312,-0.050732,0.749311,-0.514926,-0.577853,-0.633196
-0.267344,-0.221907,0.123431,-0.251149,-0.964627,0.080122
-0.007446,-0.317375,0.222158,0.998730,0.045112,0.022451
-0.007572,-0.305577,0.243353,0.954679,-0.294278,0.044595
0.024699,-0.320321,0.250660,0.983160,-0.182654,-0.005863
0.043316,-0.324156,0.262925,0.985288,-0.070176,-0.155832
-0.039096,-0.247369,0.317406,0.771324,-0.621810,0.135689
-0.044805,-0.231736,0.339992,0.889541,-0.456512,0.017708
-0.024450,-0.237245,0.351097,-0.120851,0.941539,0.314482
-0.008689,-0.238715,0.364812,-0.720703,0.684109,-0.112167
-0.060444,-0.186808,0.406043,-0.607618,0.463086,-0.645254
-0.067270,-0.139515,0.485981,0.026592,-0.921209,0.388157
-0.090727,-0.110608,0.514019,0.582638,0.733872,-0.349234
-0.303959,0.068530,0.618226,0.957444,0.162160,0.238756
-0.267223,0.049651,0.622314,-0.404291,-0.914570,0.010527
-0.310910,0.094190,0.658094,-0.141438,-0.988783,-0.047985
0.020726,-0.147574,0.563745,0.136122,0.963912,-0.228787
-0.470399,0.248941,0.773783,0.328954,0.943968,-0.026702
-0.435272,0.230554,0.777233,0.807035,0.588744,-0.045557
0.023708,-0.120048,0.617936,0.055027,-0.972585,0.225944
0.025071,-0.111004,0.635826,0.505359,0.838131,-0.205304
-0.424973,0.251107,0.826089,0.486472,0.856486,0.172558
-0.018741,-0.066760,0.670968,0.920551,-0.263624,0.288250
0.002856,-0.073937,0.680449,0.768516,-0.461172,0.443514
-0.135039,0.042966,0.750036,0.876119,-0.082435,0.474995
0.022961,-0.070301,0.708400,0.615195,0.758348,-0.215507
0.076455,-0.102549,0.705558,0.750997,0.647766,-0.128075
0.065410,-0.084259,0.727710,0.825854,-0.535755,0.175875
-0.087625,0.044245,0.802169,0.191123,0.238032,-0.952267
0.098673,-0.090650,0.750819,0.953609,0.185322,-0.237244
0.218816,-0.174614,0.723535,-0.376216,0.086688,-0.922468
0.082163,-0.059583,0.790600,0.156792,-0.024759,0.987321
-0.039593,0.043849,0.852388,0.912397,0.303247,0.274905
0.610525,-0.448921,0.633216,0.102042,0.773636,0.625359
0.132058,-0.070199,0.823915,0.205920,0.961332,0.182858
0.171030,-0.090848,0.827220,-0.521918,-0.784057,-0.335940
0.194241,-0.099501,0.836006,-0.304226,0.945308,0.117637
0.205782,-0.099303,0.848415,-0.607077,0.672551,0.423241
0.260147,-0.132044,0.845545,0.780841,0.278978,-0.558981
0.293036,-0.148168,0.850967,0.667983,0.405034,-0.624297
0.230732,-0.091435,0.889211,-0.343250,-0.896722,0.279410
0.248106,-0.095468,0.899910,0.098468,0.983140,0.154077
0.264242,-0.098811,0.911102,0.977755,-0.185607,0.097701
0.268090,-0.092516,0.926469,-0.580450,0.812622,0.052190
0.293036,-0.103137,0.933747,0.499348,-0.827473,-0.256787
0.293907,-0.094976,0.949433,0.628600,-0.635750,-0.447978
0.323694,-0.108838,0.955667,0.939863,-0.083875,0.331094
-0.385255,0.130273,0.719012,0.038556,-0.968272,-0.246908
-0.413303,0.161436,0.747195,-0.153691,0.010653,-0.988062
-0.363162,0.131449,0.745078,-0.448735,-0.549422,0.704821
-0.370733,0.156227,0.782858,0.234082,0.854151,-0.464361
-0.335981,0.138530,0.787149,-0.291715,-0.293076,0.910499
-0.342310,0.153281,0.807272,0.350115,-0.936212,0.030449
-0.258659,0.097334,0.793093,-0.559336,0.636465,0.531089
-0.233959,0.087307,0.800690,-0.595037,0.189864,0.780949
-0.171030,0.047485,0.793905,0.380312,-0.033240,0.924261
-0.138763,0.032051,0.799443,-0.534690,0.790069,0.299831
0.201438,-0.222201,0.690278,-0.731198,0.408086,0.546640
0.129702,-0.157211,0.734553,0.326287,0.767910,-0.551226
-0.035373,-0.020055,0.812868,0.560635,0.808963,0.176823
-0.116544,0.051812,0.859839,0.186517,0.949160,0.253589
-0.077944,0.031066,0.862275,0.292710,-0.914379,0.279699
0.522900,-0.431914,0.643916,-0.454742,-0.418805,0.786011
-0.089860,0.048961,0.882832,-0.253270,-0.916527,-0.309568
0.558270,-0.449905,0.648439,0.142414,-0.302929,0.942312
-0.062679,0.037361,0.890110,-0.620696,0.654421,-0.431822
0.227751,-0.177074,0.802198,-0.090022,0.634659,-0.767531
0.237803,-0.175304,0.815941,0.848014,0.338874,0.407477
0.476107,-0.348640,0.748557,0.958225,-0.058656,0.279936
0.166565,-0.102351,0.875409,0.391860,0.882689,-0.259434
0.199824,-0.118968,0.879962,-0.059697,0.994759,0.083009
0.182821,-0.097040,0.902143,0.281714,-0.141989,-0.948934
0.088246,-0.016029,0.951811,0.361311,0.909261,-0.206635
0.220180,-0.107854,0.921917,-0.338071,0.937005,-0.087921
0.236069,-0.102057,0.949578,0.954203,0.159136,-0.253324
0.282237,-0.128407,0.950158,0.971133,0.204319,-0.123105
-0.309046,-0.227512,0.138769,0.498656,-0.746879,0.439902
-0.443961,-0.061353,0.302734,-0.691538,0.675227,-0.256600
0.012037,-0.373117,0.209922,-0.103966,0.959594,0.261476
-0.034627,-0.324846,0.249935,0.773751,-0.631680,-0.047849
-0.016261,-0.328189,0.263098,0.967744,0.125773,-0.218294
0.017253,-0.343917,0.269825,0.973093,-0.103733,-0.205742
0.040339,-0.351196,0.280698,0.876015,0.454284,0.161941
-0.047536,-0.270280,0.336977,0.741451,-0.669632,-0.042937
-0.051134,-0.256712,0.358027,-0.316024,0.854387,0.412495
-0.019363,-0.271360,0.364986,0.448012,-0.842841,-0.298167
-0.054240,-0.233309,0.398533,-0.441673,0.543742,-0.713631
-0.214721,-0.094880,0.483893,0.254299,0.950752,0.177205
-0.265980,-0.043849,0.524080,0.130987,-0.913722,0.384648
-0.079682,-0.160950,0.505320,0.741976,-0.510313,0.434801
-0.303710,0.026446,0.613703,0.896401,0.411384,-0.165014
-0.328781,0.055748,0.641480,-0.738024,-0.674353,0.023836
-0.390342,0.114149,0.684276,0.859190,0.497103,0.121165
-0.463199,0.181497,0.731103,0.466202,0.199939,-0.861789
-0.415663,-0.210007,0.179506,-0.703133,0.547335,-0.453903
-0.495595,-0.099693,0.298240,0.779604,-0.613786,0.124437
0.008314,-0.383937,0.308040,0.983360,-0.181093,0.014427
-0.069754,-0.311176,0.359825,0.857476,0.435213,0.274454
-0.100783,-0.275885,0.391951,0.048200,-0.995732,0.078705
0.012537,-0.355421,0.365508,0.954191,0.289466,-0.075692
-0.439991,0.014354,0.568732,-0.095164,0.962854,-0.252698
0.047907,-0.373219,0.370408,0.994504,-0.079271,-0.068394
0.035248,-0.352372,0.395460,0.950082,0.297756,-0.093202
-0.031154,-0.288859,0.442054,0.462233,0.874338,-0.147896
-0.047536,-0.265168,0.468439,0.616705,0.779475,-0.109969
-0.033635,-0.266151,0.481574,-0.807802,0.520859,0.275973
-0.021347,-0.265954,0.495201,0.776988,0.612998,-0.143258
-0.529851,0.145509,0.715359,0.075338,-0.961758,0.263337
0.009060,-0.279323,0.502537,0.987180,-0.060583,-0.147666
-0.529230,0.154457,0.732553,-0.417265,0.820374,0.390994
0.001739,-0.263493,0.523877,0.781684,-0.623490,0.015196
-0.028919,-0.229084,0.554814,0.621142,-0.007948,0.783658
-0.177609,-0.102351,0.631506,0.586144,0.749232,0.308360
-0.456248,0.126438,0.757952,0.655677,0.753044,0.054885
0.055107,-0.265168,0.577778,0.826507,0.473128,0.305017
-0.342681,0.055550,0.748384,-0.587462,-0.090362,0.804191
-0.321830,0.049063,0.758358,0.957463,0.145880,-0.248964
-0.093212,-0.110218,0.706573,0.823172,-0.381808,0.420251
0.390221,-0.476945,0.542405,0.590801,0.166220,-0.789509
-0.191264,-0.014750,0.779089,-0.576542,0.776687,-0.253687
0.153656,-0.273329,0.667343,0.932995,-0.323383,0.157934
-0.148690,-0.029494,0.796950,-0.436403,0.020649,-0.899514
0.012537,-0.144724,0.754907,-0.131910,0.379622,-0.915689
0.105745,-0.198504,0.755139,-0.794143,0.108359,-0.597992
0.062183,-0.146002,0.806025,-0.695010,0.647219,0.313158
0.612264,-0.570150,0.606541,0.455419,0.334744,-0.824948
0.051259,-0.128503,0.826669,0.975336,0.220725,0.000356
0.046915,-0.116015,0.844791,-0.228445,0.360459,0.904368
0.079932,-0.132044,0.850097,0.162775,0.972121,0.168778
0.253939,-0.256910,0.804575,0.156768,0.502350,0.850334
0.268090,-0.258579,0.816695,0.772618,0.431208,0.465962
0.083159,-0.107662,0.899127,0.447849,0.629804,-0.634648
0.800422,-0.656767,0.646206,0.971087,-0.100194,-0.216683
0.117415,-0.107464,0.935806,0.286640,0.751813,-0.593814
0.283605,-0.172550,0.992055,0.846503,-0.508199,-0.158642
0.308179,-0.182577,1.000000,0.846503,-0.508199,-0.158642
0.185802,-0.291319,0.769115,0.127575,0.345523,-0.929698
0.040836,-0.170389,0.838615,0.862447,-0.479378,0.162422
0.311902,-0.360240,0.775668,0.522694,0.487234,-0.699567
0.350874,-0.381080,0.778654,0.977879,0.160714,0.133878
-0.477721,-0.207355,0.216997,-0.936114,0.093786,-0.338962
-0.133922,-0.372823,0.276668,-0.168065,0.901010,0.399919
-0.575277,0.053192,0.596219,-0.698048,0.253457,-0.669693
0.050517,-0.444204,0.340949,0.991699,-0.080081,-0.100597
0.038726,-0.414314,0.384152,0.970342,0.014098,-0.241325
0.043688,-0.407335,0.402186,0.928882,0.274684,-0.248450
-0.408713,-0.039036,0.602395,0.190976,-0.964041,-0.184807
0.032146,-0.387772,0.425904,0.846807,0.526324,-0.076812
0.092340,-0.424935,0.421497,0.921569,0.355572,-0.155817
-0.625668,0.152297,0.725913,-0.112065,0.924396,-0.364599
0.086508,-0.409597,0.443533,0.924786,-0.114196,-0.362947
0.130074,-0.433288,0.445823,0.933998,0.048017,-0.354036
-0.621820,0.168127,0.759576,0.020136,-0.272199,0.962030
0.138267,-0.429850,0.461162,0.926184,-0.051814,-0.373496
0.144596,-0.424737,0.477196,0.958472,0.230979,-0.167275
0.155516,-0.423165,0.492157,0.975984,0.217238,0.016236
0.124366,-0.378626,0.541506,0.927231,0.338788,0.159579
0.059327,-0.317471,0.585346,0.484319,0.850301,-0.205970
-0.459847,0.097826,0.802024,0.353088,0.243570,-0.903329
0.066774,-0.313438,0.601032,0.717986,0.695657,-0.023619
0.108105,-0.336056,0.603149,0.986846,-0.140418,-0.080107
0.180587,-0.382755,0.593552,-0.434238,-0.168097,0.884975
-0.267344,-0.024484,0.780481,0.184481,-0.801051,0.569460
0.089363,-0.292303,0.664038,0.833143,0.327311,-0.445803
0.112325,-0.300266,0.673693,0.988003,-0.150310,-0.035448
0.082413,-0.267526,0.702717,0.934150,0.027272,-0.355837
0.175746,-0.330055,0.686277,0.511634,0.798030,-0.318402
-0.186298,-0.040800,0.836615,0.934129,0.204801,0.292335
0.237307,-0.359057,0.698049,0.304111,0.936659,0.173742
0.035995,-0.194375,0.789179,0.985066,0.142325,-0.096892
-0.406853,0.020547,0.782365,-0.566436,-0.264317,0.780568
0.068387,-0.339104,0.620198,0.930177,0.272312,0.246204
-0.292540,-0.049357,0.774392,0.008699,-0.973657,0.227851
-0.315626,-0.022515,0.800110,-0.180872,-0.981828,-0.057432
0.098549,-0.333889,0.662530,0.911402,-0.362993,0.193861
0.064914,-0.298202,0.693120,0.855758,0.331041,-0.397606
-0.241281,-0.043357,0.840819,-0.529942,-0.847995,0.008097
0.172769,-0.362598,0.688625,0.259625,0.767029,0.586738
0.053122,-0.251600,0.767723,0.811011,0.246368,0.530626
0.192256,-0.349720,0.733973,0.918806,0.317435,0.234585
0.029787,-0.215714,0.809736,0.884488,0.167447,0.435480
0.029415,-0.206173,0.827104,0.347522,-0.936792,0.040613
0.246743,-0.363684,0.765954,0.266284,-0.049581,0.962619
0.305198,-0.399173,0.762504,-0.689749,-0.312288,0.653240
0.333125,-0.411463,0.770014,0.886398,0.418717,-0.197419
0.675560,-0.654013,0.683841,-0.370848,0.580244,0.725113
0.675810,-0.590007,0.804053,0.329257,0.941759,0.068415
-0.210873,-0.280800,0.429151,-0.400788,0.886778,-0.230203
-0.555168,0.002160,0.588768,-0.611116,0.468109,-0.638287
-0.633858,0.074525,0.639421,0.217658,-0.969143,0.115699
0.034381,-0.443124,0.389168,0.939228,-0.002297,-0.343285
-0.462081,-0.041100,0.607353,0.076913,-0.925914,0.369820
0.051013,-0.445680,0.401809,0.948845,0.123608,-0.290541
0.053122,-0.437423,0.419873,0.990660,0.034391,-0.131947
0.072981,-0.442434,0.431732,0.964682,-0.257378,-0.056074
0.014026,-0.386295,0.473716,-0.339329,-0.410719,0.846266
-0.653095,0.147478,0.755139,0.790239,0.488159,-0.370437
0.117911,-0.457376,0.452173,0.874118,-0.183248,-0.449821
0.143849,-0.467307,0.461307,0.916431,-0.242034,-0.318706
0.131812,-0.447744,0.485227,0.875641,-0.482147,0.028046
-0.290430,-0.107758,0.667169,0.207067,-0.897980,0.388273
0.141243,-0.435550,0.518194,0.829036,0.544548,-0.127149
-0.533078,0.100287,0.795964,0.905228,0.170773,-0.389099
0.133547,-0.419528,0.540172,0.646533,0.749876,0.140292
-0.442843,0.039030,0.778393,0.564876,-0.660715,-0.494339
-0.468660,0.008653,0.816521,0.803004,0.029350,-0.595251
0.127714,-0.454922,0.591261,0.677259,0.679438,-0.282284
0.119150,-0.438503,0.612949,0.815491,0.309781,0.488887
0.260268,-0.537998,0.578561,0.543389,-0.216746,-0.811017
0.351495,-0.598661,0.563165,0.422911,0.794149,-0.436434
-0.170659,-0.185133,0.774508,0.875394,-0.173662,0.451139
0.414917,-0.638087,0.557511,-0.295655,0.554569,0.777844
0.428446,-0.639071,0.570298,-0.631375,-0.478526,0.610228
0.094329,-0.371449,0.711444,-0.602322,0.607666,-0.517639
0.080303,-0.351586,0.733509,-0.568173,0.604883,0.557939
0.077447,-0.340082,0.752153,0.962269,-0.258504,0.084940
0.085886,-0.337034,0.766708,0.879296,-0.472098,-0.062944
0.130445,-0.361811,0.768071,-0.255326,0.266713,0.929340
-0.116669,-0.163507,0.873496,0.849390,0.525219,-0.051786
-0.030408,-0.220527,0.859115,0.902524,0.294171,0.314507
-0.043070,-0.202044,0.880455,0.693305,0.532001,0.486111
-0.061561,-0.179037,0.903245,0.896992,0.384578,-0.217955
0.315501,-0.457970,0.787295,0.874389,0.449406,0.182968
-0.018492,-0.193985,0.921482,0.899707,0.099436,0.425016
0.372843,-0.492379,0.784424,0.295982,0.943598,0.148384
0.201067,-0.352474,0.861550,0.879639,-0.474992,-0.024859
0.402754,-0.497492,0.807678,0.413744,0.879406,0.235502
0.440362,-0.517157,0.811128,0.776333,0.524291,-0.349895
0.355094,-0.443322,0.857578,0.774261,0.231061,0.589178
0.522154,-0.561299,0.816724,0.294688,0.949377,0.108820
-0.609779,-0.213056,0.250950,-0.319373,-0.925919,-0.201681
-0.569565,-0.234197,0.254342,-0.256876,-0.868611,-0.423710
-0.583962,-0.211580,0.281017,-0.177459,0.983847,-0.023508
-0.604442,-0.184443,0.309983,0.650070,-0.701963,0.290957
-0.312027,-0.259461,0.483835,0.796189,-0.174020,0.579483
-0.257541,-0.292598,0.480385,-0.094129,-0.995326,-0.021609
-0.524514,-0.071087,0.607092,0.095616,0.393264,0.914440
-0.287078,-0.248749,0.530836,0.216671,0.975212,-0.044896
-0.012909,-0.454627,0.440836,0.938459,-0.264736,0.221834
0.060816,-0.502508,0.430398,0.367683,0.354896,0.859568
-0.204294,-0.283944,0.553626,0.354450,0.934497,-0.032886
-0.123494,-0.337232,0.540926,0.597739,0.721654,-0.349174
-0.569069,0.031265,0.750877,0.922245,0.071262,0.379981
0.147698,-0.530035,0.472440,0.826890,-0.144604,-0.543454
0.179348,-0.544491,0.479428,0.839347,-0.144488,-0.524042
-0.422242,-0.064402,0.730001,0.580975,-0.020233,0.813670
0.024699,-0.403698,0.576097,0.981862,0.173186,0.077157
0.051134,-0.414806,0.583867,0.861507,-0.106091,-0.496539
-0.065410,-0.314327,0.646641,-0.514505,-0.126852,-0.848052
0.062925,-0.375974,0.713213,-0.516841,0.750524,-0.411812
0.516321,-0.714778,0.564789,0.843448,0.511622,-0.163825
-0.101651,-0.232031,0.807011,-0.137469,0.246258,-0.959406
0.107855,-0.383151,0.748557,0.962321,0.066724,0.263602
0.060940,-0.338414,0.782278,0.910210,0.319959,-0.262954
0.150054,-0.397505,0.767636,0.702703,-0.360577,-0.613345
0.058706,-0.318455,0.817710,0.875726,0.406637,0.260288
-0.064167,-0.215906,0.878454,0.816109,0.411091,0.406166
-0.012041,-0.247075,0.876192,0.899828,0.183194,0.395917
-0.082909,-0.184546,0.917365,0.947430,0.258188,-0.188985
0.358321,-0.510670,0.779669,-0.695568,0.249434,-0.673771
0.231103,-0.396911,0.857433,0.133940,0.661654,0.737750
0.208267,-0.362010,0.898953,0.894366,-0.154071,-0.419967
0.192752,-0.341661,0.920293,0.764957,0.626871,0.147900
0.149558,-0.283848,0.982951,-0.697863,0.040206,0.715102
-0.577136,-0.242946,0.266085,0.533435,0.845701,0.015399
-0.606056,-0.208729,0.299603,0.804821,-0.564599,0.183006
-0.436389,-0.188380,0.523732,0.671975,0.304400,0.675123
-0.326921,-0.264675,0.498043,0.947252,0.095543,0.305916
-0.220926,-0.318551,0.512047,0.059924,-0.997629,0.033846
-0.002856,-0.479207,0.444924,0.935200,-0.166153,0.312722
-0.007818,-0.464949,0.466352,0.683659,-0.171751,-0.709304
-0.186048,-0.315503,0.555337,0.261916,0.963270,0.059252
-0.174632,-0.315011,0.568935,0.105132,0.905994,0.410027
0.154027,-0.551668,0.478558,0.395871,-0.360875,-0.844426
-0.420132,-0.095864,0.717620,0.952968,-0.212641,0.215954
0.168674,-0.553630,0.491229,0.895968,-0.193967,-0.399523
-0.372968,-0.122898,0.717620,-0.867332,0.210092,-0.451216
0.166439,-0.531709,0.530111,0.776682,0.383592,-0.499622
0.078069,-0.453547,0.582302,0.812234,0.535592,0.231121
0.085886,-0.450007,0.597234,0.990775,0.087640,0.103368
0.218195,-0.543111,0.565195,0.201737,-0.920078,-0.335795
0.245750,-0.554518,0.573516,-0.210547,0.629191,0.748191
0.329777,-0.609774,0.560063,0.628344,0.626269,-0.461487
0.378801,-0.637697,0.560439,-0.470544,-0.610899,0.636703
0.149807,-0.333200,0.949897,0.541552,0.823631,0.168388
-0.626782,-0.198408,0.348343,0.922465,0.347357,0.168527
-0.200199,-0.413329,0.407028,-0.657908,0.550200,-0.514235
-0.394937,-0.240192,0.524602,-0.638323,-0.702089,-0.315617
-0.331636,-0.270574,0.536577,-0.042239,0.956573,0.288415
-0.244012,-0.329467,0.520108,0.261574,0.953132,-0.152046
0.023582,-0.528168,0.433587,-0.561577,-0.335135,-0.756515
0.006204,-0.504771,0.459132,0.984757,0.036038,-0.170161
-0.229614,-0.311572,0.570501,-0.002482,0.997502,0.070599
-0.400519,-0.169207,0.655600,0.767401,-0.641160,0.003188
-0.424723,-0.140889,0.683232,-0.515538,0.856791,-0.011412
-0.411568,-0.133124,0.712952,-0.773355,0.633124,0.032802
-0.419757,-0.117491,0.733973,-0.585558,-0.002726,-0.810626
-0.376195,-0.142365,0.734524,-0.098736,-0.498798,0.861076
0.144100,-0.534163,0.555743,0.839820,0.510203,0.185459
0.061312,-0.451285,0.623851,0.893726,-0.436770,0.102400
0.148565,-0.509092,0.608919,-0.505959,-0.616467,-0.603303
0.234455,-0.565920,0.594653,0.861992,0.404464,0.305578
0.252947,-0.570642,0.606077,0.906380,0.421842,0.022922
0.248231,-0.558059,0.625388,-0.711115,-0.543252,0.446310
0.011791,-0.367812,0.730001,0.482730,-0.059333,0.873757
-0.011295,-0.331921,0.773638,0.628050,0.761669,0.159414
0.056846,-0.375086,0.765809,0.995624,-0.082196,-0.044466
0.056721,-0.366534,0.782568,0.953185,0.231858,0.194114
0.060194,-0.360041,0.798631,0.955231,0.294370,-0.029655
0.086386,-0.371449,0.805851,0.795741,0.605128,0.024817
0.052252,-0.336644,0.835107,-0.669352,0.425679,0.608904
0.084648,-0.352180,0.840761,-0.119348,-0.957734,0.261728
0.079061,-0.339200,0.859607,0.987550,0.083999,0.133001
0.037483,-0.299378,0.890284,-0.451796,-0.734903,0.505766
0.045301,-0.297122,0.903563,0.625682,0.749827,-0.215130
0.046668,-0.289549,0.919713,0.576744,0.812302,-0.086781
0.105745,-0.325728,0.915306,0.709301,0.664979,-0.233872
0.123866,-0.330745,0.925832,0.447167,0.869715,-0.208894
0.158993,-0.348538,0.930297,0.312674,0.944467,-0.101078
-0.629513,-0.217580,0.308359,-0.830943,0.267072,-0.488065
-0.627528,-0.208537,0.328104,-0.300623,0.948517,-0.099705
-0.535188,-0.078264,0.746644,0.312489,-0.042638,0.948964
-0.444832,-0.139023,0.729247,-0.358757,0.323261,-0.875669
-0.414299,-0.153965,0.734698,-0.510649,0.182957,-0.840098
-0.401887,-0.154265,0.747804,0.986637,-0.162603,0.010386
-0.181583,-0.314819,0.681899,0.513482,0.816493,0.263962
-0.081171,-0.382461,0.662501,-0.336766,-0.287101,-0.896751
0.027677,-0.456590,0.639972,-0.107801,-0.814518,0.570034
-0.010303,-0.418052,0.672330,-0.046107,-0.310358,0.949501
0.194737,-0.566022,0.613877,-0.473037,-0.800171,0.368730
0.010303,-0.416378,0.699150,0.244899,-0.969392,0.017435
0.068262,-0.433684,0.730436,0.800796,0.596439,-0.054644
-0.051755,-0.333397,0.791180,-0.063306,-0.997529,-0.030479
0.089609,-0.431914,0.757749,0.949875,-0.001494,0.312626
0.054982,-0.397013,0.786918,0.978271,0.198208,0.060821
0.057092,-0.390328,0.802691,0.932526,0.327579,-0.151943
0.046418,-0.373219,0.823683,0.838966,0.005513,0.544156
0.089735,-0.397505,0.824843,-0.588628,-0.785676,-0.190342
0.070251,-0.373904,0.848763,0.066533,0.980580,0.184487
0.040339,-0.342837,0.876047,-0.353482,0.735577,0.577907
0.089609,-0.371545,0.875699,-0.509329,-0.253234,0.822470
0.124862,-0.389734,0.879672,0.296564,0.639038,-0.709704
0.116048,-0.374990,0.898721,-0.681460,-0.625531,-0.379899
0.124116,-0.372331,0.912842,0.620354,0.481244,-0.619327
0.201563,-0.422181,0.902317,-0.689222,-0.057291,-0.722282
0.089985,-0.330157,0.956827,-0.518623,-0.815862,-0.255733
0.142982,-0.361422,0.955232,0.522098,0.798077,0.300810
0.188408,-0.387081,0.956334,0.552508,0.800881,0.230922
0.200199,-0.387772,0.967903,0.751657,0.659546,-0.003263
0.218320,-0.393370,0.977384,0.751657,0.659546,-0.003263
-0.646891,-0.211580,0.360956,0.886533,0.181526,0.425568
-0.441230,-0.225148,0.565282,0.457536,0.883776,-0.097979
-0.408466,-0.241080,0.571139,0.534727,0.839634,0.095301
-0.619832,-0.058203,0.690336,-0.328693,0.037333,-0.943699
0.003973,-0.542523,0.445389,-0.928821,0.349953,-0.121752
0.022961,-0.547539,0.457305,0.891221,-0.328229,-0.313035
0.040585,-0.551764,0.468932,0.870233,-0.265377,-0.415054
-0.204665,-0.352078,0.583085,0.727084,-0.628832,-0.275535
-0.086508,-0.434074,0.556148,0.399459,0.363566,-0.841577
0.016507,-0.349816,0.882223,0.008670,-0.986925,0.160950
0.131066,-0.427293,0.859288,-0.765053,0.529958,0.365839
0.125479,-0.414710,0.878019,0.724411,0.277612,-0.630999
0.118654,-0.401531,0.896431,0.775253,0.469471,0.422587
0.171526,-0.432796,0.894314,-0.709913,-0.510414,0.485286
0.093337,-0.350116,0.969642,0.754959,0.646436,-0.110263
-0.753629,-0.176972,0.345879,0.273804,-0.949445,0.153574
-0.672708,-0.210895,0.370582,0.021315,-0.996852,0.076372
-0.822266,-0.015735,0.587608,-0.367912,-0.928454,0.051129
-0.366142,-0.295448,0.552872,0.020943,0.992960,0.116585
-0.436764,-0.231346,0.599438,-0.642954,-0.757093,-0.115845
-0.602207,-0.094778,0.681986,0.015450,-0.214985,0.976495
0.001488,-0.560807,0.445794,0.962760,-0.227806,-0.145595
0.023708,-0.568476,0.455624,0.962934,-0.017394,-0.269177
0.033760,-0.566706,0.470904,0.972366,0.201116,-0.118564
-0.108851,-0.447942,0.544174,-0.366403,-0.613241,0.699775
-0.588060,-0.070199,0.747021,0.098193,0.984160,-0.147608
-0.553308,-0.087895,0.751428,-0.373167,-0.778724,-0.504317
-0.481569,-0.133814,0.741889,0.364676,0.576345,-0.731326
-0.442968,-0.155051,0.744208,0.295608,0.008923,-0.955268
-0.344173,-0.222105,0.723999,0.059532,-0.618900,0.783210
-0.365025,-0.197129,0.749630,-0.663399,0.740382,-0.108338
-0.382774,-0.166159,0.790629,0.043601,0.038408,0.998310
-0.127093,-0.352276,0.713445,0.903852,0.408154,0.128307
-0.054115,-0.398585,0.704370,-0.276259,-0.863805,0.421333
-0.133301,-0.330055,0.750355,0.732734,-0.545763,0.406502
-0.088496,-0.338312,0.785091,0.422097,0.899410,-0.113558
0.076084,-0.445188,0.760764,-0.783140,-0.044194,-0.620273
-0.005091,-0.367122,0.823451,-0.616064,0.063937,0.785097
0.012413,-0.371839,0.833599,-0.409440,0.783197,-0.467933
-0.001118,-0.352966,0.855461,0.072999,-0.960535,0.268408
-0.015264,-0.334285,0.876540,-0.155185,0.903350,0.399846
-0.762193,-0.047095,0.671026,0.910624,0.328656,-0.250497
-0.504034,-0.219248,0.623387,0.454637,0.881176,-0.129743
-0.474493,-0.232720,0.630288,-0.185476,-0.981480,0.047911
-0.473501,-0.224757,0.647453,0.740241,-0.670912,0.043816
0.031279,-0.603773,0.469860,0.996523,0.083318,0.000111
-0.017624,-0.556487,0.508046,0.960057,-0.005771,0.279744
-0.530843,-0.154265,0.722723,0.623880,0.697416,-0.352681
-0.521287,-0.152495,0.736960,0.213724,0.368705,-0.904643
-0.468411,-0.184054,0.734669,-0.260804,-0.345804,0.901333
-0.446942,-0.191921,0.744034,0.336650,0.288706,-0.896279
-0.453642,-0.178154,0.763635,0.811049,-0.561052,-0.165594
-0.426211,-0.190642,0.770159,-0.061164,0.984244,-0.165902
0.019238,-0.511948,0.639363,-0.384769,-0.857167,0.342370
0.065906,-0.477239,0.762620,0.882955,-0.128390,0.451561
-0.041331,-0.379118,0.835281,-0.259798,0.856544,0.445912
0.038726,-0.431224,0.823045,0.222315,0.533991,0.815738
-0.004470,-0.390820,0.854446,-0.670623,0.041175,-0.740655
0.029787,-0.408319,0.859288,0.107470,-0.432088,0.895405
0.032021,-0.401730,0.874685,-0.268633,0.457412,0.847709
0.147573,-0.462591,0.885413,0.908047,-0.014188,-0.418627
0.207771,-0.499358,0.881005,0.936100,0.329698,-0.122539
0.232467,-0.509980,0.888573,0.995094,0.049466,-0.085675
0.116794,-0.399761,0.976021,0.754959,0.646436,-0.110263
-0.739356,-0.226623,0.338253,-0.160547,0.979661,-0.120367
-0.716520,-0.214928,0.387863,0.011954,0.994224,0.106657
-0.886187,-0.014942,0.592856,-0.066653,-0.997422,-0.026570
-0.738735,-0.101955,0.588391,0.274151,0.703529,-0.655659
-0.254435,-0.478319,0.392096,0.226974,-0.179670,0.957184
0.041828,-0.498182,0.762185,0.921444,-0.012714,0.388303
-0.099045,-0.375776,0.845719,-0.524920,-0.829071,-0.192617
0.011045,-0.441744,0.840848,0.244900,0.849168,0.467907
0.039593,-0.455017,0.847053,-0.304520,-0.000567,-0.952506
0.053369,-0.457376,0.858419,-0.545731,0.494378,0.676585
-0.757727,-0.250123,0.335991,-0.198063,0.967878,-0.154867
-0.713539,-0.245503,0.396561,0.414161,0.884712,0.213904
-0.707831,-0.239994,0.414074,0.096825,0.993107,0.066056
-0.692813,-0.242256,0.426832,0.903802,0.417974,-0.091871
-0.695173,-0.230854,0.447505,0.894023,0.392234,-0.216507
-0.278017,-0.497492,0.392212,-0.292163,0.537419,-0.791089
-0.758965,-0.088681,0.660443,0.878377,0.312050,-0.362049
-0.679533,-0.123391,0.682478,0.047340,-0.628430,0.776425
-0.496587,-0.254744,0.629273,0.359840,-0.917160,0.171266
-0.443464,-0.286698,0.626924,0.660670,-0.511140,0.549773
-0.489015,-0.242748,0.662646,0.987361,-0.039270,0.153542
-0.484050,-0.237833,0.678187,0.999556,0.003453,0.029604
-0.533078,-0.191626,0.714286,0.921568,-0.031164,-0.386963
-0.465433,-0.234587,0.706312,-0.028947,-0.582989,0.811964
-0.489512,-0.207847,0.732697,0.376296,0.614283,-0.693583
-0.443961,-0.233603,0.733219,0.272828,0.790048,-0.548990
-0.475115,-0.201060,0.762620,0.122682,-0.991847,-0.034476
-0.401141,-0.231934,0.786193,0.621505,0.753824,0.213260
-0.446692,-0.188968,0.820291,-0.093345,-0.940067,0.327965
-0.437010,-0.188278,0.833193,0.295133,0.949497,-0.106548
-0.679905,-0.228886,0.618690,0.942106,-0.310130,0.127500
-0.463570,-0.386391,0.551915,-0.733093,0.636689,-0.239169
-0.625047,-0.253171,0.633332,0.583955,0.357976,-0.728595
-0.559387,-0.294758,0.625359,-0.245780,0.712033,-0.657724
-0.557774,-0.286897,0.643133,0.868033,0.464435,0.175555
-0.498326,-0.324060,0.637421,0.903651,0.425139,-0.051690
-0.478963,-0.329761,0.648265,0.325309,0.930880,0.166240
-0.554671,-0.262413,0.695584,-0.184321,0.883309,-0.431035
-0.385005,-0.383247,0.648787,-0.588606,-0.747539,0.307780
-0.395308,-0.366726,0.670156,0.238003,-0.526535,0.816159
0.056100,-0.648114,0.626171,0.854503,0.453171,0.253890
-0.484300,-0.221907,0.858505,0.850554,-0.435009,-0.295508
-0.448926,-0.240390,0.861985,0.881232,-0.397017,-0.256529
-0.055357,-0.494839,0.804923,-0.108785,0.930375,0.350096
-0.047661,-0.492085,0.819363,0.358107,-0.878661,0.315776
-0.010799,-0.511750,0.822726,0.196869,-0.940215,0.277919
-0.042074,-0.471436,0.867552,0.051173,0.812960,0.580067
0.068141,-0.545475,0.846270,0.868434,-0.250729,-0.427735
0.027431,-0.506931,0.876540,-0.643160,-0.650966,-0.403222
0.073974,-0.525120,0.893444,-0.303834,0.767403,0.564604
-0.703241,-0.304791,0.439560,0.933384,0.281134,-0.223066
-0.761325,-0.230560,0.521587,0.956889,-0.261533,0.126346
-0.836292,-0.162720,0.571255,0.475353,-0.871495,-0.120565
-0.665011,-0.277655,0.538085,0.970047,0.217428,0.108326
-0.559387,-0.350116,0.514512,-0.245836,0.822419,0.513021
-0.787263,-0.256220,0.533706,-0.660696,0.267835,-0.701246
-0.840015,-0.205584,0.574444,-0.367075,-0.802554,-0.470280
-0.635225,-0.346083,0.528835,0.591491,0.788556,0.168280
-0.771006,-0.222495,0.620285,0.684361,-0.566295,0.459303
-0.761450,-0.221121,0.634115,0.433411,-0.413931,0.800510
-0.670098,-0.282372,0.616428,0.869203,-0.177350,-0.461556
-0.605931,-0.313541,0.628084,0.366242,0.074212,-0.927555
-0.574160,-0.320520,0.651019,-0.374728,0.537189,0.755650
-0.475115,-0.387177,0.630984,0.352978,0.923240,0.151769
-0.608787,-0.276377,0.699846,0.049836,-0.958809,0.279644
-0.580985,-0.288469,0.707211,-0.211768,0.920168,-0.329312
-0.097060,-0.501428,0.838441,0.876279,-0.442833,0.189827
-0.081917,-0.496316,0.866247,0.621703,0.699449,0.352499
-0.048653,-0.512734,0.871553,0.646383,0.247660,0.721702
-0.787388,-0.314915,0.524022,0.308237,0.664163,0.681086
-0.950105,-0.179433,0.608542,0.674882,0.153914,0.721695
-0.734270,-0.327991,0.558903,-0.328598,-0.921506,-0.207002
-0.746803,-0.299973,0.600800,0.975899,-0.197291,0.093265
-0.747299,-0.290731,0.618864,0.675162,-0.701233,0.228974
-0.536055,-0.444204,0.553974,-0.062809,-0.804267,0.590939
-0.817425,-0.218859,0.682478,-0.916181,0.243457,0.318341
-0.642175,-0.344511,0.632114,0.056705,-0.878191,0.474937
-0.652849,-0.327499,0.654354,0.078628,-0.874618,0.478394
-0.965123,-0.278441,0.543564,-0.035287,-0.847842,0.529074
-0.812709,-0.349816,0.575314,-0.064941,0.961598,0.266669
-0.759215,-0.372529,0.590797,-0.269242,-0.742746,0.613056
-0.718876,-0.394259,0.593349,-0.398703,-0.116251,0.909682
-0.682885,-0.412843,0.597727,0.923020,0.321131,-0.211919
-0.737371,-0.361614,0.637595,0.183934,0.892905,-0.410961
0.172397,-0.226726,-0.990084,0.405710,0.067542,-0.911503
0.211741,-0.248551,-0.978573,-0.444059,0.092594,0.891200
0.254064,-0.276473,-0.984662,-0.259893,-0.115058,0.958758
0.294278,-0.300465,-0.979530,-0.363552,-0.057844,0.929776
0.249970,-0.205194,-0.981037,0.287600,0.139675,-0.947511
0.288691,-0.228790,-0.978689,-0.334576,-0.004725,0.942357
0.326796,-0.248155,-0.960741,0.207900,0.097268,0.973302
0.085886,-0.222591,-0.990055,-0.037045,-0.139295,0.989558
0.127218,-0.248551,-0.990461,-0.004942,-0.077872,0.996951
0.167682,-0.271948,-0.983734,-0.367193,0.196683,0.909112
0.207771,-0.297806,-0.986662,-0.165684,0.180624,0.969497
0.246492,-0.321702,-0.984314,-0.119216,0.174571,0.977401
0.287203,-0.346281,-0.981269,0.265920,-0.315709,-0.910832
0.325928,-0.368893,-0.975992,-0.178686,0.250893,0.951380
0.010924,-0.226234,-0.991070,-0.087554,-0.131817,0.987400
0.052501,-0.252482,-0.992287,-0.236321,0.084960,0.967954
0.091723,-0.276179,-0.989301,0.056246,0.126500,0.990371
0.130570,-0.299480,-0.984894,-0.095359,0.373235,0.922823
0.171651,-0.324552,-0.983560,-0.076413,0.293070,0.953033
0.210873,-0.348736,-0.981675,0.049314,0.177083,0.982960
0.252451,-0.374395,-0.980661,-0.272574,0.210827,0.938752
0.292415,-0.397601,-0.973267,0.358585,-0.171734,-0.917564
0.333250,-0.422277,-0.970512,-0.274184,0.030656,0.961188
-0.071614,-0.220041,-0.993070,-0.206384,0.288822,-0.934873
-0.030283,-0.245599,-0.992461,-0.103533,0.011561,0.994559
0.008935,-0.269590,-0.989881,-0.002067,0.236766,0.971565
0.048282,-0.293582,-0.987764,-0.042449,0.213260,0.976073
0.088992,-0.318551,-0.986430,-0.221100,0.113078,0.968673
0.128089,-0.342249,-0.983212,-0.147422,0.040106,0.988260
0.169296,-0.367519,-0.982400,-0.052057,0.077476,0.995634
0.209631,-0.391606,-0.977558,-0.128988,0.103370,0.986244
0.250962,-0.417266,-0.976601,-0.345143,0.122798,0.930482
0.290184,-0.440765,-0.973238,0.262293,0.005304,-0.964974
-0.136899,-0.248647,-0.990287,0.766929,0.587940,0.257190
-0.099416,-0.267622,-0.973673,0.841322,0.510039,0.178993
-0.056225,-0.298202,-0.988170,0.183864,-0.367918,0.911499
-0.014397,-0.324648,-0.990142,-0.064703,-0.111154,0.991695
0.026559,-0.349624,-0.987967,0.240169,-0.043012,-0.969778
0.065531,-0.372823,-0.984604,-0.321433,0.348834,0.880339
0.104628,-0.396521,-0.981530,-0.163513,0.358023,0.919284
0.145588,-0.421593,-0.979907,-0.258845,-0.235490,-0.936773
0.184435,-0.444792,-0.976427,0.110377,0.180150,0.977427
0.225395,-0.470062,-0.975238,-0.069175,0.103077,0.992265
0.307558,-0.520007,-0.971469,-0.191857,0.052176,0.980035
0.346530,-0.543507,-0.968309,-0.140075,0.221292,0.965095
-0.132554,-0.220527,-0.981153,0.120110,0.970886,0.207252
-0.093833,-0.243042,-0.974514,0.861298,0.497242,0.104477
-0.052005,-0.273821,-0.992316,-0.091375,-0.322280,-0.942224
-0.011295,-0.298298,-0.989446,-0.118553,-0.144756,-0.982340
0.028173,-0.322488,-0.987793,-0.107449,-0.043615,0.993253
0.069380,-0.347260,-0.984256,-0.330580,-0.022556,0.943508
0.110711,-0.373021,-0.984256,0.204096,-0.139855,-0.968910
0.151171,-0.396911,-0.978863,0.109910,0.290315,0.950598
0.190889,-0.421689,-0.979124,0.028793,0.346581,0.937578
0.229861,-0.445284,-0.975644,-0.040118,0.030474,0.998730
0.309668,-0.493459,-0.971063,-0.117583,-0.056617,0.991448
0.350503,-0.518435,-0.969092,-0.105778,-0.077672,0.991352
-0.094204,-0.288859,-0.971527,0.895528,0.174090,0.409538
-0.052997,-0.317375,-0.983096,0.884992,0.216558,0.412180
-0.012412,-0.344511,-0.991041,-0.054804,0.007511,0.998469
0.028298,-0.368791,-0.986981,-0.230858,0.211743,0.949668
0.068141,-0.392584,-0.983705,0.287517,-0.340614,-0.895163
0.107238,-0.413725,-0.970425,0.440502,0.416408,0.795338
0.070747,-0.280998,-0.523877,0.659689,0.750960,-0.029482
0.149437,-0.441450,-0.976166,0.299368,0.366504,0.880939
0.190764,-0.466917,-0.975818,0.179821,0.013868,0.983602
0.268957,-0.514306,-0.971150,-0.110944,0.114770,0.987177
0.310289,-0.539768,-0.970918,-0.087216,-0.010956,0.996129
0.349386,-0.562974,-0.967555,-0.241636,0.321725,0.915481
-0.078440,-0.311080,-0.971469,0.932150,0.108108,0.345557
-0.036241,-0.341955,-0.990693,-0.004668,-0.069974,0.997538
0.004841,-0.366828,-0.988692,-0.053901,0.219680,0.974082
0.045551,-0.391606,-0.985793,-0.276570,0.433060,0.857886
0.085019,-0.412939,-0.973615,0.183296,0.497265,0.848015
0.124862,-0.438011,-0.975094,0.232904,0.405929,0.883729
0.164701,-0.462687,-0.975586,0.195570,0.087127,0.976812
0.244633,-0.511552,-0.971440,-0.316439,0.020898,0.948383
0.286336,-0.537019,-0.970396,-0.113147,-0.001165,0.993578
0.327667,-0.562187,-0.969324,0.021102,0.082324,0.996382
0.367877,-0.585585,-0.963438,0.342761,-0.175480,-0.922888
-0.070125,-0.336842,-0.970802,0.941284,0.239055,0.238406
-0.025942,-0.368791,-0.990606,0.091292,0.284354,0.954363
0.013405,-0.392782,-0.988779,0.034220,0.464916,0.884693
-0.006454,-0.239802,-0.398417,0.896794,-0.442415,0.005526
0.131562,-0.462393,-0.973412,0.236209,0.085178,0.967962
0.255432,-0.538688,-0.971353,0.215837,-0.067550,-0.974090
0.295146,-0.562877,-0.970425,-0.126613,0.064177,0.989874
0.333004,-0.584109,-0.961640,-0.174418,0.241632,0.954564
0.375324,-0.611053,-0.965235,-0.294656,-0.050579,0.954264
-0.074345,-0.357881,-0.971817,0.903546,0.325960,0.278129
-0.032767,-0.386685,-0.984604,-0.668824,-0.503600,-0.546865
0.008564,-0.412351,-0.985503,0.102101,0.433939,0.895138
0.012037,-0.363684,-0.768709,0.298030,0.952510,-0.062477
-0.012162,-0.261231,-0.397460,0.852192,-0.523229,-0.000004
0.210623,-0.535051,-0.974630,-0.204609,-0.074241,0.976024
0.250216,-0.559337,-0.973673,0.290888,-0.164345,-0.942536
0.289684,-0.581654,-0.965409,-0.104293,0.212503,0.971579
0.328659,-0.604956,-0.962510,-0.158584,0.057286,0.985682
0.370983,-0.631798,-0.966308,-0.312331,0.011456,0.949904
-0.032642,-0.424443,-0.975847,0.692697,0.229974,0.683581
-0.013404,-0.404088,-0.839775,-0.761591,-0.647812,0.017857
-0.045426,-0.284928,-0.416278,0.816575,-0.567927,0.103269
0.009556,-0.394552,-0.738438,0.259030,0.962594,-0.079477
-0.016878,-0.292399,-0.373916,0.921277,-0.361303,-0.143907
0.089860,-0.499952,-0.975876,-0.032277,-0.652383,0.757202
0.131066,-0.527382,-0.984430,0.399830,-0.126636,-0.907799
0.210502,-0.574375,-0.975644,-0.094081,0.103478,0.990172
0.251333,-0.599153,-0.973267,0.386252,-0.025912,-0.922029
0.291422,-0.622256,-0.966772,-0.203035,0.008220,0.979137
0.333250,-0.648216,-0.968106,-0.236338,-0.002161,0.971669
0.372718,-0.672208,-0.967033,-0.098834,0.062229,0.993156
-0.040585,-0.461510,-0.974804,0.675876,0.288431,0.678233
-0.000496,-0.486582,-0.976195,-0.667331,-0.038764,-0.743752
0.040339,-0.513322,-0.982748,0.393796,0.264257,0.880394
0.081545,-0.538298,-0.981153,0.097319,-0.242421,-0.965278
0.120392,-0.561107,-0.976253,-0.002777,0.059725,0.998211
0.202930,-0.611641,-0.974311,-0.175479,-0.001514,0.984482
-0.038972,-0.524628,-0.966482,0.852884,0.319176,0.413179
0.001864,-0.551074,-0.972774,0.772770,0.178830,0.608972
0.044558,-0.579590,-0.980921,0.259117,0.131687,0.956826
0.085390,-0.603773,-0.977471,-0.125514,0.120199,0.984783
0.164951,-0.650772,-0.969353,0.102703,-0.011652,-0.994644
0.204790,-0.676036,-0.970976,-0.106517,0.215080,0.970770
-0.015764,-0.611244,-0.968744,0.861905,0.049240,0.504673
0.026559,-0.638777,-0.974688,-0.655539,0.237308,-0.716905
0.017253,-0.705339,-0.959813,0.998488,0.049621,-0.023673
0.009556,-0.778387,-0.963583,0.998488,0.049621,-0.023673
0.486534,-0.973944,-0.879295,0.236639,-0.575849,-0.782560
0.434530,0.622748,0.659979,-0.006411,0.650575,0.759415
0.472880,0.589617,0.616834,-0.647298,0.704062,0.292065
-0.132429,0.896467,0.548784,0.959725,-0.121048,0.253525
-0.110836,0.897847,0.620488,0.290849,-0.956720,0.009656
0.383888,0.587061,0.619734,0.886097,-0.199823,0.418214
0.411072,0.572113,0.630288,-0.645247,0.423792,-0.635654
0.457120,0.554710,0.684160,-0.165764,0.948781,0.268957
0.483307,0.539864,0.691612,-0.160659,-0.981755,-0.101713
0.525131,0.502406,0.638291,0.235620,-0.463466,0.854214
-0.194612,0.940615,0.574531,0.881713,-0.446792,0.151522
-0.162962,0.916624,0.554409,0.882588,-0.323913,0.340762
-0.263746,0.872673,0.618632,0.955039,-0.052239,-0.291841
-0.234080,0.850650,0.603062,0.935810,-0.279748,0.214479
-0.203051,0.827252,0.584940,0.952295,0.049793,0.301090
-0.170038,0.799528,0.552611,-0.766028,-0.642505,0.019701
-0.138142,0.775339,0.534025,0.928992,0.358440,0.092161
-0.108601,0.755968,0.529647,-0.136570,-0.990456,-0.018592
-0.233584,0.909837,0.595262,0.911223,-0.278459,0.303535
-0.205165,0.891648,0.594044,0.782501,-0.504631,0.364747
-0.178602,0.879952,0.616718,-0.338611,0.930883,-0.137110
0.169417,0.664826,0.632434,-0.035041,-0.995678,0.086010
0.201192,0.641135,0.614602,0.241446,-0.502545,0.830152
0.260768,0.602003,0.606454,0.698723,0.225548,0.678907
0.291797,0.579884,0.594189,0.824396,0.004879,0.565992
0.354598,0.537307,0.580011,-0.544807,0.586442,-0.599393
0.368869,0.543206,0.649453,0.675761,0.677124,0.291290
0.398410,0.523643,0.644640,0.616024,0.582226,-0.530591
0.426708,0.506043,0.644930,0.475948,0.843669,-0.248389
0.455877,0.487956,0.646438,0.009230,0.931910,0.362573
0.548092,0.426507,0.629737,0.830618,0.286818,-0.477293
-0.078936,0.735817,0.523210,-0.058773,-0.997254,0.045049
0.081171,0.660998,0.641857,-0.215468,-0.971192,-0.101778
0.111332,0.639659,0.630549,-0.056658,0.998344,-0.009987
0.141615,0.619898,0.626895,0.329961,-0.744118,0.580874
0.150800,0.637498,0.733277,0.838666,-0.523906,0.148871
0.202184,0.578900,0.613384,0.728966,0.564739,0.386883
0.230853,0.562085,0.619560,0.789147,0.521329,0.324750
0.256174,0.551271,0.641654,0.743286,0.558078,-0.368882
0.293161,0.518825,0.600568,0.978416,0.056841,-0.198672
0.315997,0.510663,0.627910,0.072934,-0.748491,0.659122
0.348019,0.488250,0.617646,0.275849,-0.486633,0.828912
0.405981,0.451771,0.617675,0.195289,0.476443,-0.857242
0.440113,0.426603,0.600278,0.566063,0.818446,0.098582
0.466676,0.412741,0.613123,-0.309132,-0.878290,0.364753
0.535805,0.359453,0.567920,0.423681,0.895418,-0.136823
0.562990,0.344703,0.579112,0.441205,0.892766,-0.091143
0.586943,0.333397,0.596625,0.860156,0.413690,0.298315
-0.303588,0.822530,0.554757,0.245011,0.939965,0.237562
-0.273302,0.802769,0.551683,0.361100,0.926268,0.107861
-0.241530,0.777991,0.529792,0.600731,-0.502094,0.622113
-0.212858,0.760691,0.532691,0.475164,-0.046742,-0.878655
-0.154152,0.725789,0.540781,-0.782580,0.572626,0.244272
-0.114559,0.680069,0.446751,0.926421,-0.359432,0.112034
0.139755,0.581456,0.720897,-0.937649,0.277112,0.209818
0.255678,0.474484,0.568065,-0.391944,0.681043,-0.618515
0.286461,0.453247,0.559628,0.825455,-0.562256,0.049922
0.305573,0.452557,0.610224,0.114676,0.968528,-0.220915
0.335610,0.433288,0.609006,0.822739,0.421331,-0.381550
0.363037,0.418544,0.618864,-0.140884,-0.973408,0.180632
0.461460,0.346671,0.573545,-0.212388,-0.918735,0.332893
0.468164,0.361320,0.658529,0.835153,-0.475339,0.276716
0.530964,0.294265,0.534576,0.910982,0.177574,-0.372261
-0.371229,0.808571,0.573951,0.222095,0.974925,0.013989
-0.221547,0.705728,0.534576,0.589769,-0.064319,-0.805007
-0.142607,0.617047,0.362376,0.903767,0.016043,-0.427724
0.077076,0.556384,0.702775,-0.180794,0.089455,-0.979444
0.104753,0.539672,0.705065,0.888833,0.097871,-0.447657
0.130695,0.527184,0.721853,0.831403,-0.505014,0.231796
0.160731,0.505551,0.710168,0.952355,-0.304986,0.001698
0.285093,0.387375,0.534547,-0.456121,0.784727,-0.419711
0.324440,0.381674,0.617646,0.860923,-0.505572,0.056642
0.401016,0.344409,0.664270,0.053958,-0.597048,0.800389
0.423977,0.335660,0.689437,-0.587022,-0.560811,-0.583863
