-0.211213,-0.530700,0.255117,0.371523,0.889907,-0.264644
-0.060724,-0.464768,0.250815,0.859034,-0.483548,0.168056
-0.070788,-0.186797,0.739414,-0.690891,0.684335,0.233143
-0.065607,0.354928,0.467898,0.572917,0.796516,0.193206
-0.138304,0.072997,0.655693,-0.403218,-0.780225,0.478188
0.317101,0.324155,0.464881,0.995378,0.093023,0.023846
-0.162567,-0.395196,0.572215,0.777967,0.607230,-0.161364
-0.386737,-0.373076,0.424416,0.967061,0.233056,0.102365
-0.015253,-0.459837,-0.958941,0.327307,-0.000845,0.944918
0.529000,-0.742258,0.312593,0.665252,0.746578,-0.007806
-0.201490,-0.508954,0.266772,0.765507,0.275517,-0.581454
-0.469080,0.455582,0.612215,-0.710891,-0.618021,0.335685
0.264041,0.540199,0.189467,0.993651,-0.109485,0.025915
0.611936,-0.256043,0.348627,-0.513888,0.731286,-0.448486
0.036739,-0.382786,0.267069,0.527399,0.520437,-0.671562
-0.036263,-0.038190,0.819213,0.417805,0.901373,-0.113864
0.283176,-0.243913,0.301240,0.619552,-0.744856,-0.247680
-0.045272,-0.434732,0.247665,-0.442930,0.848575,-0.289367
0.044884,-0.641990,0.261393,-0.693013,0.720387,0.027848
-0.038504,-0.037947,0.277551,0.767922,-0.640280,0.018374
0.082905,0.402168,0.477556,0.644935,-0.725444,0.240396
0.121859,-0.449281,-0.957188,0.039029,0.048612,-0.998055
0.354919,0.188852,0.751491,-0.260014,-0.928916,-0.263643
-0.253440,0.312841,0.817523,0.431690,-0.900664,0.049473
0.682505,-0.216056,0.375776,0.043254,0.838958,0.542475
-0.299306,-0.093095,-0.973185,0.075123,0.287773,0.954748
0.398069,-0.026460,0.458526,-0.424540,0.614961,0.664522
-0.313157,0.545826,0.649153,-0.467667,0.783167,0.409802
-0.364767,-0.162352,0.410657,0.763526,-0.048422,0.643960
-0.156042,-0.446000,-0.972615,-0.442519,-0.209608,0.871918
-0.246645,0.074394,0.818269,0.801477,0.425707,-0.420009
0.047241,0.141020,0.600104,0.886699,0.164476,-0.432103
0.042128,-0.254082,0.578705,-0.608047,-0.668945,-0.427541
-0.387465,-0.011354,0.927099,0.936354,-0.290955,-0.196435
-0.677116,0.244954,0.527996,0.272468,-0.284965,-0.918998
-0.286359,-0.277676,0.615840,0.392941,0.912774,0.111544
0.161012,0.655444,0.722401,0.227524,-0.750314,0.620694
-0.118835,0.321000,0.671458,-0.666899,0.682618,0.298794
0.293408,-0.444502,0.257327,-0.624708,-0.677706,-0.387885
-0.128117,-0.125572,0.665373,0.252694,0.811156,-0.527419
0.464550,-0.344790,0.473972,-0.395752,0.872984,0.285095
-0.293561,0.244003,0.872052,0.927350,0.059369,-0.369456
-0.165787,0.096329,0.613032,0.718476,0.647659,-0.253634
-0.099153,0.070465,0.375555,0.697563,0.673942,-0.243326
-0.275822,-0.485896,-0.965407,0.559988,0.075371,-0.825065
0.316723,0.078353,0.624717,-0.258025,0.377728,0.889238
-0.056503,-0.463929,-0.603347,0.766395,-0.622159,0.159869
-0.106067,-0.495092,0.280224,-0.806860,0.042837,0.589188
-0.218776,0.317996,0.881440,0.981001,-0.003624,0.193968
0.045852,0.112353,0.427407,-0.027251,0.961742,-0.272597
0.271974,0.683214,0.723803,-0.612391,0.647810,-0.453122
0.034462,0.089541,0.327061,0.084191,-0.779241,0.621043
-0.182446,0.414249,0.480186,0.745420,-0.035351,0.665657
-0.758495,0.585353,0.675392,0.007205,-0.759843,0.650066
-0.062795,-0.035960,0.229587,0.073448,-0.001814,0.997297
-0.048453,-0.193461,0.539306,0.485377,0.666097,-0.566325
-0.210768,0.006140,0.177031,-0.698900,-0.715108,0.012614
-0.171396,0.111943,0.696570,0.971222,-0.178272,0.157943
-0.385595,0.083802,0.721858,-0.368692,0.540310,-0.756393
-0.156623,0.008939,0.272362,-0.584247,-0.631180,-0.510164
-0.457926,0.559602,0.656521,-0.248463,0.946257,-0.207038
-0.651963,0.624573,0.700836,-0.079587,-0.126021,0.988830
-0.049874,-0.675115,0.151339,0.129562,0.563874,0.815635
-0.072406,-0.429290,0.276323,0.981999,-0.064319,0.177596
-0.714316,0.338695,0.528422,0.277252,0.803667,-0.526547
-0.023378,-0.365208,0.105783,-0.246446,0.948977,0.196739
-0.534008,0.521540,0.834581,0.424188,0.659688,-0.620384
0.098465,0.139016,0.523292,-0.354573,0.771805,0.527822
0.889534,-0.022355,0.493116,0.965995,0.028732,-0.256960
-0.324306,0.416934,0.757927,0.992266,0.123363,0.013738
-0.291980,-0.240509,0.211675,0.959688,-0.278594,-0.037203
-0.168405,0.247682,0.170498,0.994940,0.068770,-0.073242
-0.013184,0.501863,0.675073,-0.060392,-0.881747,0.467840
-0.128979,-0.364115,-0.389485,0.486651,0.851637,0.194643
-0.260588,0.296831,0.699803,0.168106,0.433712,-0.885231
-0.263336,-0.349120,0.112354,-0.872186,0.485733,0.057921
0.030570,-0.335072,0.473027,0.131422,0.396165,0.908725
-0.102078,-0.604131,0.281695,-0.522138,-0.420185,0.742170
0.105146,-0.225023,0.656337,0.927275,-0.312274,-0.206507
0.025263,0.290532,0.531978,-0.713645,0.471985,-0.517630
-0.218728,0.312103,0.718496,-0.722232,0.632760,-0.279278
-0.101690,-0.710865,0.112958,0.313502,0.947686,0.060063
0.238422,0.758141,0.704867,-0.654768,0.733940,0.180586
-0.203752,0.014205,0.601769,0.918482,0.389897,0.066114
-0.453135,-0.026829,-0.983848,-0.359782,0.923527,-0.132871
-0.284838,-0.068598,0.608063,-0.628642,0.522967,-0.575600
0.300351,-0.556439,0.508448,-0.245149,-0.825129,0.508984
-0.569083,0.448018,0.704505,-0.653309,-0.683973,0.324604
0.200454,-0.471939,0.278093,0.033040,0.273206,0.961388
0.118767,0.255728,0.722207,0.794264,0.017392,-0.607324
-0.639029,0.298767,0.462958,0.422417,-0.825682,0.373917
0.196932,0.485230,0.464009,0.842059,0.493993,-0.216579
-0.309230,0.013911,0.951495,0.881418,-0.436528,0.180403
0.201246,-0.479222,0.149393,-0.470426,-0.093132,0.877511
-0.040761,-0.385850,0.126078,-0.173861,0.967642,0.182870
-0.055597,0.087525,0.356424,0.934447,-0.338724,0.109884
-0.366044,-0.025775,0.766715,-0.462044,-0.481386,-0.744838
0.853368,-0.091038,0.493358,0.516254,0.170229,-0.839348
-0.342997,0.375577,0.865574,-0.406107,-0.465659,0.786282
0.063295,-0.751225,0.154131,-0.065177,0.985209,-0.158480
-0.210499,0.153266,0.627943,0.326384,-0.529887,-0.782747
0.443269,-0.716402,0.529310,0.896060,0.249505,-0.367182
-0.395259,-0.263561,-0.969936,0.771272,-0.209117,0.601173
0.549782,-0.323501,0.472751,-0.369761,0.857532,0.357654
-0.238574,0.562910,0.484461,-0.069975,0.237434,0.968880
-0.201136,0.272818,0.961092,0.688381,-0.284178,-0.667364
0.168296,-0.239752,-0.003714,0.350875,0.860175,-0.370116
-0.340598,0.557946,0.567205,0.407553,-0.749068,0.522301
-0.082046,-0.585093,-0.650366,0.996724,0.080782,0.004046
0.880380,-0.189945,0.348220,0.151629,0.988270,0.018212
0.075118,-0.295682,0.709736,0.970103,-0.026212,0.241275
-0.557773,0.422463,0.657936,-0.506524,-0.785077,-0.356494
0.367354,-0.526844,0.488415,-0.680949,0.093210,0.726375
-0.488878,0.465544,0.593772,-0.734333,0.661455,-0.152421
-0.066389,0.236849,0.700221,0.961268,-0.132153,-0.241865
-0.055191,0.078277,0.164642,-0.664466,0.371501,0.648438
0.168357,0.286982,0.641855,0.541961,0.674315,-0.501575
0.310200,0.449070,0.470441,-0.706896,0.427296,0.563663
-0.252370,-0.386256,0.065377,0.660095,0.582023,-0.474894
-0.070681,-0.062460,0.249994,0.606130,0.718639,-0.340828
0.331085,-0.654203,0.305564,0.764960,-0.084748,0.638477
-0.088929,-0.324806,0.664896,-0.259671,-0.936775,-0.234570
0.239200,-0.500232,0.569861,-0.312418,-0.925804,-0.212794
-0.183569,0.881558,0.518465,-0.222338,-0.115515,0.968102
-0.241857,-0.497850,-0.969329,-0.034454,-0.198940,0.979406
-0.110210,-0.373501,-0.962820,-0.465620,0.326196,0.822675
0.364319,-0.275077,0.733638,-0.634073,0.640687,0.432980
-0.143177,0.254030,0.177109,-0.503313,-0.857911,0.103267
-0.376959,-0.787977,0.147252,-0.197363,-0.220908,0.955116
0.122373,-0.233368,0.635547,0.916167,0.057105,-0.396707
0.054044,-0.607978,-0.951548,0.531626,0.147331,-0.834067
0.063759,0.088885,0.657972,-0.085389,-0.358467,0.929629
-0.466913,-0.193172,-0.979563,-0.486775,0.530044,0.694337
0.477510,-0.568695,0.281197,0.428606,0.902695,0.037927
-0.362852,0.166466,0.844865,0.110204,0.987010,0.116900
-0.309177,-0.305754,-0.978696,-0.116391,0.812228,0.571611
-0.050362,-0.195924,-0.166626,-0.389345,-0.847894,-0.359843
-0.160522,-0.007132,0.233730,-0.609180,-0.743749,-0.275203
0.409292,-0.545440,0.342946,0.978952,-0.039963,-0.200141
-0.140905,0.615054,0.505972,0.003981,-0.927114,0.374758
-0.319082,-0.059940,-0.985553,-0.155993,0.288097,0.944810
-0.095492,-0.769539,0.312130,-0.489129,0.871160,-0.042807
0.053930,-0.163861,0.613922,-0.658472,0.609223,0.441885
-0.071032,0.915225,0.577131,0.408375,0.098163,0.907521
-0.041856,-0.564516,0.269070,-0.150649,-0.742368,0.652836
0.405143,-0.577008,0.599298,0.121893,0.988350,-0.091136
-0.422229,0.492316,0.706199,0.659896,-0.746008,0.089492
-0.407477,0.103945,-0.982555,0.581493,0.488331,0.650691
0.006150,-0.452167,0.279198,0.474587,0.571150,0.669743
-0.721069,0.231468,0.531018,-0.325677,-0.064145,-0.943303
-0.314415,0.632456,0.640039,0.465571,-0.859389,-0.211408
-0.271561,0.095611,0.890450,0.899524,0.055325,-0.433355
0.092702,0.081290,0.598646,-0.321664,-0.699256,0.638414
0.000645,-0.562718,-0.960494,0.722151,0.294506,0.625910
-0.333522,0.304363,0.668159,0.987166,-0.109199,0.116531
-0.068125,-0.475905,0.546440,-0.317133,-0.552500,0.770824
-0.328932,0.215637,0.892848,0.041709,0.120546,0.991831
-0.250596,-0.240420,0.405616,0.580874,0.813400,0.031067
0.024194,-0.064815,0.552655,-0.550728,0.725348,0.413000
-0.775063,0.280587,0.499836,0.516586,0.823647,-0.233974
-0.223378,-0.385383,0.084821,0.940254,-0.273446,-0.202855
-0.658871,0.091070,-0.995667,0.642797,-0.042749,-0.764843
0.091674,-0.246292,-0.005443,0.366315,0.925046,-0.100514
-0.286817,-0.080073,-0.973873,0.075123,0.287773,0.954748
0.569858,-0.197746,0.317675,0.142681,0.902418,-0.406551
-0.112449,-0.202217,0.570312,0.879993,-0.259863,-0.397598
-0.029889,-0.484345,-0.494303,0.886875,0.447981,0.112985
0.186812,0.139247,0.763491,-0.076081,-0.973834,0.214148
-0.724789,0.138602,0.523819,-0.294018,0.433388,0.851897
0.044952,-0.530701,-0.703005,0.301115,0.953380,-0.019896
0.750803,-0.239317,0.353801,-0.070241,-0.973205,-0.218947
0.378343,-0.577669,0.296239,-0.418203,0.014724,0.908234
-0.047701,-0.288079,0.686308,-0.396244,-0.763266,0.510310
-0.021035,-0.525301,-0.601956,0.996674,0.027368,0.076762
-0.204636,-0.057024,0.008216,0.965509,0.244702,0.088952
-0.459108,0.018643,-0.976015,-0.058442,-0.071851,0.995702
-0.302733,-0.078462,0.155327,0.597742,-0.799770,-0.055429
-0.309007,0.181678,0.869878,0.900918,-0.433361,0.023357
0.368918,0.176921,0.401242,-0.003694,0.947744,0.319011
-0.166693,0.115609,0.675980,0.822391,0.534056,0.196103
-0.194423,0.426700,0.779129,0.926851,0.365522,0.085675
0.124626,0.245849,0.191323,-0.146311,-0.655225,0.741130
0.262955,-0.652490,0.113197,0.320063,-0.799685,0.508000
-0.146308,0.242172,0.161746,-0.294673,0.341461,0.892509
-0.319678,0.039543,0.982000,-0.720450,0.652591,0.234684
-0.184175,-0.530173,0.061639,0.543330,0.833254,0.102374
0.251899,-0.719504,0.148444,0.820714,0.551389,-0.149662
-0.098511,-0.072967,0.368119,-0.716329,0.310393,-0.624922
0.421033,0.087234,0.449723,0.788884,0.527442,-0.315385
-0.257346,0.570103,0.762067,-0.221326,0.962721,0.155508
0.245766,-0.444331,0.148005,0.461038,0.489568,-0.740113
0.151946,0.277105,0.741273,0.096740,0.372481,0.922984
0.583269,-0.359861,0.541707,0.194346,-0.937189,0.289665
-0.323563,-0.127586,-0.978947,0.232806,0.037651,-0.971794
0.086662,-0.322577,0.640847,0.875819,-0.249002,0.413448
0.416179,-0.121013,0.683648,-0.246448,0.127074,-0.960789
-0.282266,0.029060,0.714423,-0.391560,0.774495,-0.496829
-0.216855,0.081050,0.281066,0.654777,-0.684716,0.320047
-0.429025,0.007895,-0.972457,0.200276,0.181445,0.962792
-0.333324,0.377195,0.532752,0.019759,-0.741646,0.670501
-0.813396,0.495188,0.693311,0.839400,-0.469954,-0.273039
0.673004,-0.271307,0.373260,0.091399,-0.944837,-0.314532
0.449526,-0.778481,0.264633,-0.298755,0.926720,0.227896
-0.191995,-0.368616,-0.979956,-0.035854,0.567865,0.822341
0.417779,-0.366324,0.310454,0.792853,0.086462,0.603249
-0.145601,0.087517,0.146074,-0.333074,-0.528100,0.781135
-0.261243,0.033261,0.930776,0.579728,0.793160,-0.186581
0.400554,0.149788,0.663198,-0.149973,0.930896,0.333079
0.641353,0.147192,0.475398,-0.772693,-0.389197,0.501469
-0.128014,0.338018,0.894408,-0.681346,0.607815,-0.407834
-0.063277,-0.005451,0.629484,0.629836,-0.113866,-0.768337
-0.361374,0.230018,0.840143,0.948050,0.316043,0.036302
0.661576,0.123896,0.477587,0.879943,0.343407,-0.328285
-0.072387,0.749765,0.538206,0.593521,0.711027,-0.377060
-0.006363,-0.341149,0.489610,0.498636,0.297994,0.813979
-0.525051,0.585965,0.600115,0.448379,0.650196,-0.613352
-0.531824,0.452722,0.717150,0.547795,0.687993,-0.476010
-0.400052,-0.012174,-0.977606,0.274108,0.370823,0.887330
-0.284669,-0.224085,0.522954,0.477831,0.007186,0.878422
-0.167428,-0.185621,0.005734,0.875537,0.448914,-0.178637
0.018381,-0.540359,0.259091,0.980680,-0.060144,0.186143
-0.057747,0.353700,0.883545,0.959490,-0.154112,0.235855
-0.125773,0.680975,0.522931,-0.594373,0.784322,-0.177652
-0.222097,-0.043969,0.334420,-0.107667,0.517569,-0.848841
-0.411477,-0.518173,0.381999,0.951434,-0.017959,0.307329
0.363952,0.117542,0.611640,-0.439299,0.847082,-0.299113
-0.268281,0.295296,0.748047,0.863374,-0.081487,0.497942
-0.143095,0.173361,0.843571,0.616006,0.470762,-0.631600
-0.160129,0.189722,0.935562,0.777619,0.531550,0.335802
-0.071403,-0.453301,0.287873,0.960339,0.272276,0.060119
-0.328357,-0.429278,-0.970443,-0.105849,-0.014364,0.994278
0.187738,-0.604954,0.276529,0.094605,-0.257947,0.961516
-0.327502,0.026007,0.704918,-0.351914,0.914331,-0.200390
-0.033959,-0.578262,0.155563,0.435210,-0.555115,-0.708830
0.544056,-0.416605,0.520406,-0.016688,-0.834626,0.550564
0.126517,-0.174142,0.531088,0.625829,0.451616,-0.635910
0.301335,-0.022090,0.601986,0.924820,-0.322121,-0.202351
-0.374275,-0.014565,0.565958,-0.914549,0.136405,0.380781
-0.520791,0.386421,0.812572,0.645821,0.511602,-0.566727
-0.020646,0.090962,0.501458,0.797148,-0.469496,-0.379643
0.409883,0.066958,0.769188,-0.235848,0.876326,0.420034
-0.188711,-0.394565,-0.946443,-0.046112,-0.569867,0.820442
0.158188,0.574725,0.666641,-0.008434,0.788761,0.614642
0.047158,-0.797746,0.172746,0.499163,-0.806042,0.318013
-0.324412,0.044072,0.803148,0.314234,-0.642382,-0.699001
-0.782323,0.544098,0.681618,0.816403,0.307024,0.489104
-0.614585,0.483036,0.784355,0.427204,-0.186561,0.884699
0.597107,-0.089025,0.451766,-0.319583,-0.400222,0.858888
-0.135773,-0.259093,0.596262,-0.698998,-0.673305,-0.240960
-0.285643,0.147293,0.769196,0.806735,0.480992,0.343257
-0.336707,0.370159,0.940532,0.549883,0.820600,-0.155705
-0.448951,-0.144467,-0.969776,0.633872,-0.333349,-0.697914
0.193545,0.626570,0.716472,0.892926,-0.121778,0.433420
-0.279120,-0.342465,-0.964971,0.306194,0.308106,0.900731
-0.142540,-0.227570,-0.102814,0.843098,-0.459824,0.278832
-0.149993,-0.282330,0.586254,-0.509375,0.715083,0.478741
-0.356403,0.193158,0.796586,0.699184,0.426722,-0.573629
-0.156076,-0.239524,-0.112249,-0.844143,0.308271,-0.438624
-0.081208,0.098774,0.512534,0.506247,-0.776914,0.374324
-0.096563,-0.444590,0.296389,0.785876,0.516843,-0.339517
0.461773,0.043348,0.422227,-0.297492,0.586629,0.753236
-0.018143,-0.491169,-0.495028,0.886875,0.447981,0.112985
-0.321699,0.021559,0.978790,-0.702000,0.712012,-0.015337
-0.393405,-0.537377,0.139404,-0.301965,0.641016,0.705632
0.312748,0.598376,0.185341,-0.533648,0.781834,0.322421
-0.227913,-0.609699,-0.946179,-0.046462,0.489795,0.870599
0.223302,0.570062,0.711555,0.346280,0.514559,0.784423
0.202562,-0.508357,0.460451,0.768263,0.597052,-0.230871
0.329790,-0.250374,0.431687,0.859934,-0.494627,0.125925
-0.365908,-1.000000,0.099823,-0.276535,0.514188,-0.811873
-0.080808,-0.529324,-0.949413,-0.208968,-0.394533,0.894805
0.056276,0.276120,0.189764,0.055267,-0.753601,0.655005
-0.170388,0.625611,0.518780,0.402932,0.802449,-0.440138
-0.360973,-0.113520,0.404446,-0.706876,0.164764,-0.687880
-0.342260,-0.613643,-0.961206,0.395553,0.820660,-0.412377
-0.087478,0.099798,0.494643,-0.198457,0.492433,0.847422
-0.306615,-0.269467,0.623724,0.134198,0.768733,0.625333
0.214528,0.049628,0.091970,-0.384978,0.792385,-0.473200
0.074596,-0.456448,0.303491,0.395150,-0.809872,0.433548
-0.217973,0.032296,0.642530,-0.642466,-0.167876,0.747700
0.356870,0.429701,0.478853,0.298561,-0.922141,-0.246001
0.527163,-0.400561,0.503285,0.816326,-0.479141,-0.322546
-0.138058,-0.574988,0.264717,0.586186,0.438848,-0.681028
-0.032227,0.419324,0.723617,0.566524,0.341699,0.749862
-0.477902,0.041852,-0.986833,0.126855,0.990039,0.061086
-0.488390,0.487943,0.717402,-0.438868,0.827983,-0.349053
0.371750,0.391468,0.540737,-0.341739,-0.935815,0.086398
0.143170,-0.711967,0.158835,0.034533,0.976418,0.213108
-0.222819,0.063017,0.297612,0.956709,-0.186037,0.223826
-0.180139,0.082737,0.488252,0.721143,0.606034,0.335672
-0.131047,0.117170,0.908244,0.980505,0.193748,-0.032738
-0.071391,-0.169820,-0.060718,0.188467,-0.982072,0.003789
-0.282561,0.026740,0.329193,0.298616,0.050286,0.953047
-0.079498,-0.066509,0.284624,-0.314601,0.877439,0.362115
-0.199413,0.262355,0.492509,0.750347,0.649294,-0.124088
0.001703,0.010852,0.199705,0.099179,0.891334,0.442365
-0.212928,-0.057413,0.659741,0.532729,0.102074,0.840107
-0.087169,-0.448423,0.243582,-0.008502,0.914694,-0.404058
0.158899,-0.420054,0.298021,-0.822457,0.018698,-0.568520
-0.600327,0.385039,0.560226,-0.254957,-0.715038,0.650937
0.039279,-0.296059,0.663236,-0.678913,0.733342,-0.035877
-0.362167,0.376324,0.655738,-0.692676,-0.325691,-0.643526
-0.007342,-0.120307,0.239485,0.701262,0.712552,-0.022372
-0.430702,0.339150,0.419847,0.755139,0.402509,0.517446
-0.112889,-0.484605,0.146136,0.364914,0.895419,-0.255074
0.146002,0.633797,0.726136,-0.429504,-0.892685,0.136531
-0.494882,0.507854,0.605010,-0.615557,0.730440,0.295884
-0.129467,-0.316679,-0.487869,0.961804,0.058490,0.267419
-0.390680,-0.326898,-0.972356,0.504001,0.516005,0.692620
-0.178594,0.067352,0.738088,0.946659,-0.007993,0.322139
-0.121674,0.354572,0.169351,-0.305227,-0.366790,0.878807
0.185259,0.154720,0.769548,-0.154809,-0.981763,0.110346
-0.568579,0.066111,0.799466,0.789510,-0.476668,0.386603
-0.117941,0.004355,0.689452,0.566914,0.501787,0.653313
-0.224269,0.260231,0.922067,0.936812,0.056075,-0.345311
-0.216297,-0.676352,0.145016,0.104058,0.177949,0.978522
0.011188,-0.767946,0.140677,-0.107531,0.413581,-0.904095
-0.065015,-0.662294,-0.652773,-0.417959,0.908415,0.009668
-0.134188,-0.222611,0.633955,-0.252697,0.804261,-0.537874
-0.137826,-0.346894,0.145076,0.290876,-0.946160,0.142028
0.525917,-0.760995,0.535779,-0.559706,-0.472155,0.681027
0.225283,0.198295,0.344682,-0.516193,-0.582179,0.628182
0.224861,0.409556,0.179788,-0.670954,0.652011,-0.353133
0.246560,-0.752760,0.139477,-0.286264,-0.462034,0.839391
0.199306,-0.485054,0.276543,-0.008428,-0.376184,0.926507
-0.488432,0.515357,0.818299,-0.193009,-0.979301,0.060964
-0.008421,-0.540668,-0.016192,-0.620325,0.683856,0.384108
-0.096837,0.417576,0.855225,0.124220,0.975177,0.183299
-0.054751,-0.765469,0.116428,0.538656,0.714087,0.447135
-0.611437,0.350814,0.568625,0.183718,-0.779256,0.599173
-0.346552,0.123356,0.851502,0.376606,0.318128,0.870036
0.248772,0.408804,0.475152,-0.814218,0.490994,0.309797
-0.076708,-0.118612,0.125636,0.525310,0.691628,0.495681
0.543618,-0.561051,0.298765,-0.380999,-0.692762,0.612308
-0.111019,-0.493459,0.256073,0.266985,-0.776937,-0.570164
-0.104637,-0.597794,-0.960224,-0.067923,-0.622979,0.779284
-0.030564,0.296742,0.672318,-0.042211,-0.997001,0.064868
0.301299,-0.583468,0.489282,0.395438,0.158204,0.904765
0.096547,-0.465903,0.022271,0.817524,-0.573118,0.056477
0.396700,-0.155056,0.536684,-0.174403,0.955321,-0.238631
-0.241923,0.553367,0.628815,0.864170,0.495888,0.085468
-0.212455,0.093314,0.947810,0.732556,-0.636064,-0.242454
-0.385992,-0.583584,-0.963706,0.424996,0.517873,-0.742419
0.177393,-0.314399,0.346863,-0.681505,0.729925,0.052546
-0.443866,0.392324,0.816349,-0.232377,-0.797063,0.557397
-0.260201,0.417113,0.866568,-0.350258,0.936204,-0.029027
-0.214682,0.196524,0.390375,0.196382,0.425427,0.883428
-0.226090,-0.616177,0.148545,-0.394666,0.744726,-0.538165
-0.175308,-0.172238,0.387998,0.987629,-0.139756,-0.071108
0.216752,-0.532849,0.275909,-0.387669,-0.015961,-0.921660
0.140012,-0.709964,0.143300,0.341346,-0.046251,0.938799
0.335639,-0.010097,0.432676,0.546526,0.718904,0.429519
0.521582,-0.242556,0.350195,0.145130,0.968753,-0.201133
0.051693,-0.251925,0.293027,0.557518,-0.035695,-0.829397
-0.234331,0.103098,0.570165,0.851004,-0.525082,-0.008979
-0.660444,0.536344,0.690835,0.991422,-0.043655,-0.123193
0.660697,-0.220721,0.356911,0.911175,0.367566,0.186157
-0.247806,0.275541,0.607175,-0.624121,-0.412376,0.663640
-0.254422,0.505094,0.632085,-0.230581,-0.817584,0.527625
-0.070828,-0.160530,-0.490713,0.983413,0.048542,0.174767
-0.174432,0.324901,0.615751,-0.439116,0.278768,-0.854087
0.412299,0.448595,0.513961,0.078623,0.569884,-0.817955
-0.169032,0.163505,0.915732,-0.677120,-0.693966,-0.244786
0.045964,-0.542062,0.471451,0.139484,-0.387363,0.911314
0.665655,0.174330,0.479686,-0.700993,-0.693156,0.167761
-0.168531,-0.025163,-0.001447,-0.730256,-0.677018,-0.091500
-0.197314,0.100048,0.673217,0.918270,-0.389081,-0.073454
-0.656474,0.401799,0.892235,-0.747274,-0.073833,-0.660402
-0.101836,-0.262597,0.455561,0.854552,-0.335123,-0.396779
-0.388586,-0.219515,-0.965643,0.269954,-0.263262,-0.926185
-0.055328,-0.632932,0.139174,-0.330804,0.145896,0.932354
-0.545250,0.547694,0.624078,0.715471,-0.497696,0.490306
-0.529747,-0.430558,-0.975903,0.948968,0.158379,0.272718
0.308167,0.437500,0.474960,-0.033714,-0.998261,-0.048362
-0.460849,0.264334,0.548997,0.562010,-0.636688,0.527990
0.193435,0.139558,0.722226,0.272089,0.950278,-0.151457
-0.156378,-0.105025,0.056746,0.843879,0.534395,-0.047852
0.272941,-0.645976,0.118714,-0.129724,0.945651,-0.298187
-0.124479,-0.707808,0.125895,-0.130733,-0.832287,0.538710
-0.142119,0.064433,0.240486,0.220686,-0.911009,0.348367
-0.326827,0.304829,0.695598,0.246026,0.536676,-0.807124
-0.325547,-0.527661,-0.961078,-0.666224,-0.607460,-0.432595
0.211505,0.511978,0.476923,0.728607,0.529488,-0.434481
-0.344540,-0.336929,-0.973538,0.273499,-0.672811,-0.687404
-0.059960,0.283032,0.493142,0.118344,0.327857,0.937286
0.067987,-0.057855,0.678336,0.783136,0.540469,-0.307557
-0.313697,0.113040,0.687030,0.915478,0.287971,0.281021
-0.269774,0.094807,0.710122,0.945718,0.318846,-0.062880
-0.118457,-0.530065,0.279510,-0.668698,0.241870,0.703095
-0.041055,-0.052118,0.297399,0.976800,0.213829,0.011780
0.658953,-0.127114,0.340656,0.452035,0.724230,-0.520726
0.198773,-0.702186,0.129654,0.787437,0.363888,0.497523
0.383582,0.113804,0.411177,-0.122293,-0.571044,-0.811759
0.376846,-0.540585,0.289754,-0.640800,0.534106,-0.551458
0.039246,0.233475,0.281691,-0.626194,0.591041,-0.508479
-0.504154,0.346990,0.750382,0.365748,0.380157,-0.849535
-0.073865,-0.636880,-0.062494,0.872578,0.377660,-0.309808
-0.056205,0.882898,0.572639,-0.033906,-0.759801,0.649271
0.141864,0.271793,0.443513,-0.527486,0.584217,-0.616805
-0.273691,0.345419,0.893519,-0.630078,0.716297,-0.299866
-0.542879,0.544726,0.814760,-0.315908,-0.926189,0.205853
0.655921,0.212461,0.507339,0.520455,0.052260,-0.852289
-0.112398,-0.538778,0.033767,-0.573170,0.356728,0.737713
0.127477,0.110606,0.557339,-0.743963,0.304002,-0.595065
-0.012078,0.248355,0.614630,0.756687,0.637765,-0.143808
-0.055065,-0.620660,-0.966728,0.049263,-0.447743,0.892804
0.514217,-0.541568,0.645029,0.515470,0.837502,0.181333
-0.157467,0.103107,0.872824,-0.805748,0.556287,0.203260
-0.083862,0.538191,0.493188,0.840928,-0.343487,-0.418158
-0.133478,-0.330426,0.595612,0.353255,-0.222746,-0.908623
0.121134,-0.064983,0.560055,0.437660,0.873797,-0.211973
-0.522099,0.493286,0.579778,0.945546,-0.286277,0.154881
0.087959,0.314798,0.642174,-0.098427,-0.741006,0.664245
-0.321957,-0.189026,0.623508,0.833326,0.335510,-0.439318
-0.375429,0.136915,0.400567,0.468335,0.292042,0.833891
-0.330802,0.083277,0.476487,0.351448,-0.916877,0.189264
-0.084157,-0.381255,-0.301100,0.835329,0.542966,0.086102
-0.040111,-0.685111,0.257626,0.584551,0.764315,-0.272254
-0.331117,-0.312361,-0.965810,0.851826,-0.362952,-0.377702
0.970639,-0.071985,0.513126,0.997321,-0.058396,0.044054
-0.584850,0.514900,0.626543,-0.365333,-0.870613,0.329493
-0.061381,0.193139,0.301130,-0.249061,0.685893,0.683754
-0.515758,0.122633,0.501373,0.772636,-0.399918,0.493050
0.006066,-0.696655,0.187952,0.669277,-0.158766,0.725853
-0.411452,0.508510,0.725717,-0.516956,0.214064,-0.828814
-0.226205,0.274255,0.699476,-0.182382,-0.397208,0.899424
0.164632,0.146085,0.727775,0.869862,0.490558,-0.051894
-0.226482,-0.034841,0.702241,0.926688,-0.079904,-0.367238
-0.208157,0.024861,0.702672,0.831615,-0.537216,0.140766
0.062169,0.329818,0.450473,-0.435037,0.725113,-0.533811
-0.297201,-0.259274,0.372360,-0.041501,0.802034,0.595834
-0.169746,-0.320007,-0.487907,0.933978,0.072929,0.349810
-0.133210,-0.004324,0.560538,0.688405,0.682041,0.246818
-0.243816,0.455735,0.864488,-0.555182,0.788568,-0.264448
-0.111447,0.056503,0.427728,0.266971,0.733526,-0.625032
0.205058,-0.381924,0.518433,0.585972,0.790410,0.178575
-0.175984,-0.351303,0.527407,0.107445,-0.285261,0.952408
-0.355541,0.171641,0.831793,-0.010711,-0.975165,0.221218
-0.010768,-0.578815,0.037363,0.208695,-0.976052,0.061389
-0.106005,0.154769,0.431750,0.692924,-0.306435,-0.652652
-0.931058,0.268662,0.490782,0.249629,0.774100,0.581769
-0.261317,0.117096,0.465582,-0.023751,0.534626,0.844755
0.461350,-0.474992,0.613584,0.307073,-0.878034,-0.367100
0.649136,-0.194743,0.349540,0.651092,0.381784,-0.655988
-0.075283,-0.005099,0.653572,-0.118988,-0.787887,0.604215
-0.222710,0.693327,0.539952,-0.150228,0.984165,0.094083
0.183572,0.051818,0.488296,0.577337,-0.816413,-0.012365
-0.270000,0.272624,0.913876,0.904049,-0.060699,-0.423097
-0.220633,-0.014577,0.845160,0.110440,0.993877,0.003499
-0.290131,0.056328,0.978804,0.686613,-0.703981,-0.181587
-0.243497,0.088280,0.678127,0.981027,-0.193425,0.013140
-0.092581,-0.205289,0.668621,0.792875,0.029847,0.608653
-0.641074,0.492028,0.811876,0.273427,-0.927182,0.256069
0.784147,-0.296106,0.476760,0.820221,0.505494,-0.267793
0.447972,-0.018966,0.455954,-0.247039,-0.069633,0.966500
0.142101,-0.287264,0.514740,0.735773,0.649260,0.192611
0.051112,-0.464382,0.659013,0.807664,0.545914,0.222837
-0.274894,0.661251,0.702434,-0.617371,0.782976,0.076167
0.358811,0.441535,0.490086,-0.359772,-0.745714,0.560781
-0.685568,0.543378,0.667309,-0.121783,-0.986963,0.105230
-0.075026,-0.322938,-0.944115,-0.003754,0.388118,0.921602
-0.027114,-0.443070,0.518020,0.813842,0.463084,-0.351020
-0.042033,-0.170711,-0.038352,0.232292,0.941455,-0.244343
-0.092857,-0.028043,0.264355,0.803967,0.544011,-0.240185
0.094331,-0.450177,0.340380,-0.757125,0.613499,-0.224458
-0.741505,0.274642,0.520008,0.067390,0.743624,0.665193
-0.012965,0.005024,0.836512,0.275510,0.961296,-0.002002
-0.176898,-0.009758,0.678081,-0.579085,0.080385,0.811295
-0.884810,0.415144,0.792783,-0.479300,0.867668,0.132001
-0.041947,0.050608,0.408433,0.870152,0.020388,0.492362
0.386200,-0.090780,0.738111,-0.849347,0.141125,0.508620
-0.020031,-0.169939,0.627780,-0.702080,-0.706008,-0.092932
0.119745,0.195371,0.464162,0.829189,0.529631,0.178706
-0.242979,-0.177666,-0.196504,-0.252018,0.957947,-0.137205
-0.331918,-0.260144,-0.981464,0.615204,0.093582,-0.782794
0.548746,-0.395246,0.314835,0.137367,-0.610921,0.779683
-0.828595,0.366582,0.523344,-0.414860,0.227460,0.880996
-0.160697,-0.090544,-0.022123,0.907703,-0.081822,0.411558
0.333764,0.441081,0.475736,0.079565,-0.988258,-0.130441
-0.032855,-0.772733,0.162388,-0.499474,0.848005,-0.177240
0.271860,-0.296290,0.501478,0.548089,0.832484,-0.081051
-0.108716,-0.000217,0.800571,-0.695121,-0.714120,-0.082702
-0.468689,0.478241,0.702636,-0.031827,0.737042,0.675097
-0.214118,0.355075,0.908470,-0.016638,-0.999335,0.032433
-0.567931,0.322832,0.743557,-0.691461,-0.680873,-0.241442
-0.642567,0.486194,0.701158,0.583466,0.739210,-0.336357
0.407867,-0.401722,0.318055,-0.375140,0.913404,-0.157998
-0.171172,0.308995,0.400701,0.863538,0.482816,-0.145570
-0.485869,-0.489934,-0.980002,-0.370138,-0.132327,0.919504
0.094660,0.543423,0.609241,0.936337,-0.154872,-0.315101
-0.129204,0.867535,0.538517,0.727092,0.499950,-0.470519
-0.439412,0.545755,0.699464,0.940209,0.121550,0.318171
-0.404302,-0.135132,-0.966310,-0.158554,0.123578,0.979586
0.315648,0.243682,0.356613,0.292634,0.953994,0.065277
-0.290284,0.155248,0.850411,-0.770422,0.580996,0.262475
-0.069740,-0.543502,0.268389,-0.770681,-0.375798,0.514614
-0.741947,0.393965,0.536395,-0.008222,-0.988570,0.150536
0.597291,-0.663152,0.534088,0.610634,0.076800,-0.788180
-0.615255,0.482078,0.696921,-0.685330,-0.657701,0.312654
0.207095,0.509215,0.718516,0.298764,0.452894,0.840016
-0.090215,-0.520415,-0.540067,0.992391,-0.122252,0.014662
-0.269060,0.742897,0.656506,-0.556189,0.786542,-0.268336
0.293550,-0.649405,0.483486,0.627333,0.718362,-0.300680
-0.452489,-0.100847,-0.975189,-0.277463,-0.047370,0.959568
-0.539698,0.407346,0.577969,0.532983,-0.780473,0.326790
-0.059230,-0.306101,0.486822,0.597738,0.418701,0.683665
0.455089,0.416598,0.491848,-0.414651,0.909958,-0.006413
-0.506145,-0.079372,-0.973508,0.063018,-0.973536,-0.219672
0.143396,0.014508,0.411940,-0.671981,-0.617189,0.409291
-0.312760,0.311361,0.411149,0.182718,0.974612,0.129403
-0.490033,0.347699,0.709640,-0.693134,-0.535082,0.482962
0.782838,-0.627866,0.293819,-0.268214,0.650964,0.710146
0.242295,0.176346,0.506113,-0.587861,0.807424,-0.049858
-0.255677,0.276405,0.735278,0.985567,-0.154987,0.068099
-0.176924,-0.062539,0.112575,-0.284014,0.958296,-0.031717
-0.255872,0.078376,0.720690,-0.845658,0.533723,-0.001757
0.433469,0.009452,0.205593,-0.272999,0.192418,0.942575
-0.562286,0.067875,0.813766,-0.360341,0.907637,-0.215289
-0.140903,-0.030866,0.435653,-0.332715,0.031217,0.942511
0.003473,0.968704,0.586026,0.036771,-0.497959,0.866421
-0.362478,-0.026952,0.980921,0.851547,-0.523206,0.033514
-0.100932,-0.615822,0.159127,-0.212717,0.854566,-0.473781
-0.087392,-0.375947,-0.387974,0.475295,0.501489,0.722913
-0.613007,0.516260,0.666550,0.183457,-0.431273,0.883373
0.883160,-0.189339,0.488631,-0.657904,-0.368558,0.656755
-0.156576,-0.130133,-0.103122,0.960151,-0.238462,0.145757
-0.134519,0.927306,0.573356,0.859920,-0.191850,0.473002
-0.366799,0.326850,0.390931,0.833467,0.156367,0.529982
-0.212233,-0.658375,-0.954610,-0.394483,0.889991,0.228692
-0.469147,0.571970,0.645606,0.311650,0.663915,-0.679773
-0.347669,-0.138082,-0.972739,0.236065,0.420900,0.875852
-0.164966,0.126976,0.668710,0.526552,-0.381510,0.759732
0.168003,-0.701900,0.161889,0.799156,0.436410,-0.413397
0.312635,-0.136812,0.460317,0.465043,0.306402,0.830574
-0.097779,0.241755,0.870827,-0.440734,-0.283157,0.851807
-0.390237,-0.694744,-0.978626,-0.098334,0.919662,0.380201
-0.388239,0.033851,-0.982502,0.807735,0.036568,0.588410
-0.107117,-0.455168,0.255690,-0.180880,0.815739,0.549411
-0.090164,-0.031812,0.636054,0.848501,-0.031980,-0.528227
0.789422,0.006290,0.464148,-0.194357,-0.351320,0.915860
0.351747,-0.391941,0.512867,-0.681936,-0.708019,0.183500
0.170410,0.492704,0.532267,0.808887,-0.570050,0.144031
-0.488091,0.562936,0.717642,0.799632,-0.600382,0.011366
-0.028903,-0.752085,0.114540,0.441228,0.727424,0.525521
-0.429495,0.434093,0.619345,0.651231,-0.004809,-0.758864
-0.050731,-0.586524,0.251258,0.141547,-0.893527,0.426115
-0.200479,0.060700,0.318256,0.943039,-0.008328,0.332579
0.206479,-0.200515,0.378703,-0.734005,-0.598119,0.321700
0.175467,0.393628,0.473446,0.514319,-0.736943,0.438624
-0.224749,0.072410,0.784421,-0.815953,-0.490281,0.306341
0.149717,-0.818974,0.139623,0.040776,0.786677,0.616017
-0.370080,0.648037,0.737744,-0.023110,-0.975296,-0.219690
-0.107040,-0.000984,0.286650,0.967009,0.006055,-0.254668
0.066321,-0.326864,0.596085,0.573412,0.635691,0.516813
-0.200946,-0.582561,0.135520,0.512150,-0.615508,-0.599043
-0.167788,-0.505273,0.638840,0.980887,0.192093,-0.030993
-0.035348,-0.548777,0.273766,-0.169890,-0.590138,0.789224
0.181142,0.336639,0.443638,-0.125655,-0.592660,0.795591
-0.471844,0.323193,0.755151,-0.445605,-0.137585,0.884594
0.383179,0.092258,0.426147,-0.092563,0.781433,0.617086
-0.398901,0.463379,0.564354,0.555716,-0.569393,0.605782
0.104380,-0.557019,-0.928787,-0.335591,0.941879,0.015541
-0.381012,-0.061291,-0.971516,-0.304045,-0.078808,0.949392
0.030373,-0.453260,0.483439,0.793021,0.183539,0.580888
0.003613,-0.616669,-0.956805,0.668868,0.527213,-0.524083
-0.232133,0.390866,0.967395,-0.308195,-0.849319,-0.428570
0.267707,0.435429,0.479930,0.004326,0.773909,0.633282
-0.364441,-0.193213,0.908352,0.932686,-0.047106,0.357601
-0.263781,0.566767,0.749562,0.459356,-0.660488,-0.593926
-0.215375,0.082490,0.871888,0.159754,-0.940558,-0.299715
-0.047311,-0.275916,0.452569,0.784098,0.084943,-0.614797
0.244081,-0.036319,0.406523,0.125928,-0.184641,0.974705
0.111478,0.606941,0.611262,0.834143,0.084407,-0.545051
0.169249,-0.544492,-0.945086,-0.503600,0.820252,0.271244
-0.468238,0.041912,0.766912,0.343882,0.933772,0.099069
-0.100611,-0.082571,0.193044,0.905717,-0.212463,0.366792
-0.062186,-0.660631,0.154634,0.610948,0.614028,-0.499713
0.130576,0.302191,0.339443,-0.418741,0.745559,0.518457
-0.503595,-0.248490,-0.969616,-0.048764,0.589763,0.806103
-0.293766,0.157625,0.674210,0.154022,0.871166,-0.466205
-0.147257,0.253166,0.165242,-0.294673,0.341461,0.892509
-0.034986,0.172561,0.419087,-0.551823,-0.253288,0.794567
0.923752,0.064459,0.514755,0.818607,0.540169,-0.195193
0.180668,0.035170,0.791865,-0.227945,-0.609909,-0.758981
0.151362,-0.537613,0.486050,0.310802,-0.377276,-0.872390
0.123187,-0.541466,-0.955868,-0.166599,0.079086,0.982848
-0.397050,0.406605,0.864669,0.254174,0.787487,-0.561479
-0.181426,0.334486,0.725195,0.992266,-0.060115,0.108598
-0.297688,0.387154,0.848467,0.830502,-0.459676,-0.314587
0.706528,-0.171701,0.462192,-0.663219,-0.445762,0.601196
-0.247277,0.136244,0.943031,0.503239,0.864001,-0.015914
-0.167081,0.121229,0.918133,0.930125,0.170121,0.325463
0.445814,0.125402,0.763005,0.269562,0.814836,0.513204
0.099447,-0.207823,0.671433,0.838656,-0.524342,-0.147380
-0.069582,-0.786899,0.143791,0.425387,-0.584014,0.691356
0.016995,-0.142704,0.162108,-0.277711,-0.918367,-0.281920
0.156297,-0.566677,0.268449,-0.153794,0.653945,0.740745
-0.103655,-0.503526,0.022218,0.493313,-0.471828,-0.730767
0.733135,-0.901006,0.316024,0.896986,0.358975,-0.257979
0.060486,-0.287920,0.660153,-0.711783,0.687823,-0.142356
-0.279028,0.127303,0.721574,0.870114,0.481349,0.105855
0.612022,-0.413217,0.582223,-0.231006,-0.913806,-0.334060
-0.706633,0.562653,0.678557,0.472784,0.723661,0.502782
0.161504,0.479777,0.437026,0.916276,-0.243693,0.317887
0.033532,-0.116092,0.745392,0.389389,0.283824,-0.876254
0.589901,0.284512,0.490195,0.819792,0.431957,-0.375971
0.334158,-0.233546,0.460606,-0.670495,-0.526548,-0.522670
-0.145865,0.809999,0.569397,-0.594980,0.497962,-0.630898
-0.506106,0.554143,0.624015,0.611327,-0.791366,-0.004391
-0.543032,-0.149498,-0.992590,0.087749,0.556349,0.826303
-0.017631,-0.618915,0.247303,-0.645826,0.751778,0.133186
-0.104690,-0.501014,0.125172,0.877293,-0.070838,0.474699
-0.046319,0.066811,0.307392,0.990542,-0.135593,0.020980
0.156453,-0.121139,0.654328,0.990806,0.097025,0.094288
0.150463,-0.306789,0.528017,0.866667,0.440042,-0.235057
-0.149961,-0.082379,0.750092,0.778206,0.505946,-0.372039
-0.201927,-0.190078,0.600303,0.468753,0.519372,0.714509
-0.525140,0.445017,0.582800,0.836708,-0.522545,0.163907
-0.014242,-0.411687,-0.953511,0.306151,0.059760,0.950105
0.147873,-0.284314,-0.168042,0.918482,0.324384,0.226198
-0.111054,-0.019640,0.227118,-0.115532,0.641981,0.757966
-0.165594,-0.580428,0.137038,0.212377,-0.626819,-0.749663
-0.090259,0.558421,0.499966,0.885113,-0.296221,-0.358927
-0.787628,0.420093,0.707393,0.776668,-0.528371,-0.342945
-0.408150,-0.227366,-0.975150,0.059034,0.398660,0.915197
0.119283,-0.356853,0.419440,0.785620,-0.181600,0.591457
-0.202510,0.325047,0.841354,0.795247,0.484987,-0.363826
-0.158694,0.102380,0.639575,0.987232,-0.095626,0.127395
-0.242778,0.138534,0.315113,0.963219,0.253786,-0.088332
-0.058818,0.033234,0.412648,-0.519839,-0.771629,0.366545
0.505575,-0.764538,0.520559,0.650331,0.121564,-0.749861
0.790820,0.022939,0.483711,0.406236,0.760569,-0.506465
-0.680499,0.244115,0.686057,0.459144,0.811004,-0.362573
0.012691,-0.043408,0.142274,0.810989,0.499547,-0.304550
-0.573695,-0.013627,0.573081,0.795138,0.279054,-0.538409
-0.263463,0.006430,0.884913,-0.199176,0.440313,0.875473
-0.274291,0.145354,0.973382,-0.589064,0.025119,0.807696
-0.121121,-0.111021,-0.015194,0.953795,0.204223,0.220379
-0.291218,-0.336551,0.526872,0.790843,0.598973,0.125692
-0.421934,0.238733,0.762777,0.648688,0.056748,-0.758936
-0.410503,0.422422,0.837851,0.023877,0.474747,0.879799
-0.070527,0.738433,0.527099,-0.029110,-0.927674,0.372254
0.095005,-0.630763,0.138375,0.133208,0.638350,0.758133
0.589042,0.110202,0.448945,-0.414270,0.791580,0.449201
-0.368142,-0.008660,0.983331,0.851547,-0.523206,0.033514
0.200611,-0.237376,0.513020,-0.273575,-0.945969,-0.174069
0.274367,-0.285028,0.385550,-0.527354,-0.835680,0.153417
-0.218183,-0.206600,0.238694,0.420142,-0.824431,-0.379202
0.312702,0.710470,0.246796,0.922374,0.114584,0.368914
0.303672,-0.665030,0.107333,-0.249572,0.786787,-0.564518
-0.284517,0.174133,0.777018,0.975893,0.035425,0.215357
0.085900,0.385346,0.618014,0.038617,0.999171,-0.012859
-0.563517,0.607412,0.641966,-0.254694,0.788180,-0.560271
0.072039,0.235588,0.290798,-0.690829,0.698091,0.188214
-0.292668,-0.645704,-0.964821,-0.174080,-0.785701,0.593608
0.794162,0.116596,0.474050,0.072964,-0.913358,0.400566
-0.409862,0.232523,0.878761,-0.211284,0.374834,0.902695
-0.006633,-0.214125,0.544716,0.761244,0.645474,0.062223
0.252636,-0.753974,0.243296,-0.407272,-0.818571,0.405057
-0.525603,-0.043016,0.804310,-0.563418,-0.805635,-0.183066
0.254797,-0.541781,0.485917,-0.073772,0.994628,-0.072617
0.419105,0.172303,0.463021,0.632622,0.762094,-0.137849
-0.155756,0.101869,0.905152,-0.566992,0.464152,0.680502
0.050158,-0.537319,0.270750,-0.148179,-0.079159,0.985787
-0.343335,-0.491986,0.039618,0.949777,0.289750,-0.118189
-0.283070,0.366364,0.899261,-0.383415,0.670077,0.635602
-0.110129,-0.251268,-0.158338,-0.059780,-0.994947,-0.080663
-0.618140,0.376338,0.788005,0.471797,-0.252817,0.844684
0.770836,-0.108033,0.478011,0.849836,-0.355966,-0.388674
-0.409870,-0.067413,0.915413,-0.558089,-0.179944,-0.810035
0.023086,-0.347469,0.596400,-0.519019,-0.714296,-0.469468
-0.261147,0.179072,0.596200,0.928810,-0.218675,0.299154
-0.508069,0.540416,0.588398,0.010538,-0.970047,0.242687
0.313661,0.465291,0.193316,-0.781773,0.499001,0.373937
-0.050598,-0.053057,0.173028,0.531719,0.835264,0.140030
-0.075496,-0.532548,0.135544,0.155029,-0.790408,-0.592639
0.058395,-0.028529,0.678485,0.994374,-0.067869,-0.081329
-0.110444,0.137450,0.461754,-0.480616,0.586878,-0.651600
0.012150,-0.547824,0.004557,-0.383689,0.907416,0.171400
-0.025624,-0.169250,0.268908,0.959757,0.238384,-0.148460
0.177924,-0.496070,-0.940600,-0.618243,-0.305089,-0.724359
0.234626,0.072141,0.730454,-0.558421,0.485233,0.672841
-0.031425,-0.397905,-0.327878,0.986398,0.163969,-0.011575
0.054644,0.725265,0.719977,0.438254,0.897446,-0.050241
0.248918,0.739665,0.715639,0.538327,-0.780446,-0.317975
0.155856,-0.373887,0.293988,0.976757,0.038667,-0.210831
-0.069748,-0.484535,0.109334,-0.751780,0.318928,-0.577159
0.616293,-0.844075,0.320457,-0.162651,-0.000606,0.986683
-0.192920,-0.030220,0.434176,0.026771,-0.124097,0.991909
0.373772,-0.585955,0.342796,0.922169,0.088873,-0.376440
0.226223,-0.623095,0.133118,0.167580,-0.958709,-0.229768
-0.485552,0.427423,0.720255,0.861287,0.302816,-0.408028
0.481652,-0.638959,0.501271,0.963860,-0.090186,-0.250681
-0.370801,0.035500,0.850559,0.163287,-0.555655,0.815221
-0.150555,0.102799,0.461506,0.964765,0.071102,-0.253324
-0.304661,-0.580490,0.165357,0.509936,0.860187,0.006627
0.332697,0.477460,0.203245,0.815997,-0.484751,-0.314906
0.361554,0.224587,0.371011,-0.180981,0.932973,0.311138
-0.148259,0.030064,0.466138,0.124393,-0.904017,0.408998
0.061344,-0.541103,0.014676,-0.643960,0.733340,0.218010
-0.506460,0.306088,0.557466,0.154026,-0.592668,0.790582
-0.187257,-0.051471,0.301454,-0.080570,-0.963253,0.256228
-0.029772,-0.406577,-0.382510,0.880501,-0.307574,-0.360717
-0.274496,0.090149,0.912449,0.452171,-0.883191,-0.124563
0.182980,-0.252230,0.571182,-0.073364,0.785805,0.614107
0.104862,-0.617435,0.287015,0.441289,-0.879261,0.179343
-0.210205,0.039129,0.778918,0.522987,0.525259,-0.671258
-0.338924,0.104934,0.634152,-0.257144,0.894639,-0.365374
0.450592,-0.230284,0.324728,0.278012,-0.950738,-0.137135
-0.259133,-0.306284,-0.285257,-0.097597,-0.976352,0.192902
-0.040907,0.178100,0.493687,0.024316,0.631570,0.774937
0.105953,-0.096396,0.650557,0.927467,0.373154,0.023679
-0.561421,0.448213,0.712315,0.603050,0.672337,-0.429295
0.774352,-0.121897,0.484426,0.464689,0.552655,-0.691836
0.233029,-0.446269,0.461455,0.093164,-0.303501,0.948266
0.127482,-0.175872,0.648528,0.866389,-0.458456,-0.197961
0.280793,0.234652,0.640814,-0.481525,-0.709486,0.514552
0.140495,-0.374937,-0.948758,0.784551,0.256551,0.564501
-0.135486,0.145592,0.422476,0.911514,0.211846,0.352510
-0.064661,0.640184,0.541676,-0.580165,0.564606,0.587050
-0.199220,0.323175,0.888721,-0.178884,-0.601040,0.778943
-0.155499,0.192753,0.188554,0.432977,0.610221,-0.663447
-0.287812,-0.226047,0.605744,-0.650352,-0.639576,-0.409860
-0.405723,0.210173,0.796578,0.720310,0.504889,-0.475648
-0.278144,0.362358,0.798860,-0.418044,-0.760321,0.497143
-0.194307,-0.465005,0.133464,0.858522,0.199887,-0.472214
-0.351738,-0.447846,0.219205,0.839387,0.456264,0.295385
-0.124054,-0.154133,-0.038976,0.239361,-0.859544,0.451542
-0.251127,-0.158822,-0.987231,-0.070525,0.086922,0.993716
-0.018397,-0.338350,-0.394373,0.805402,-0.128591,-0.578612
0.405893,-0.300092,0.462923,-0.144679,0.768352,0.623460
-0.365704,0.029032,0.809769,-0.084914,-0.656333,0.749677
0.492924,-0.452001,0.532747,-0.443154,0.627226,-0.640471
-0.142031,-0.625835,0.152690,-0.641511,0.245972,0.726610
-0.131180,-0.001091,0.605860,0.795509,0.397710,-0.457158
-0.176100,0.604526,0.670941,-0.127181,-0.964854,0.229960
-0.268365,-0.103081,0.912308,0.254572,0.966545,0.031349
-0.116804,0.108503,0.389927,0.729750,0.671418,-0.129084
0.264366,-0.400009,0.478371,-0.450703,-0.462373,0.763595
-0.279178,-0.085897,0.457184,0.060597,-0.991593,0.114332
0.149655,-0.493632,0.477812,-0.500563,0.856021,0.129092
0.384117,-0.220750,0.736490,0.872464,-0.146284,-0.466269
0.737954,-0.012994,0.483446,-0.438503,-0.074837,0.895609
0.210744,0.519114,0.667943,0.786143,-0.340019,0.516107
0.035050,-0.354440,0.474929,0.061577,0.169895,0.983537
-0.918975,0.473351,0.799726,-0.387176,0.880241,0.274354
-0.357613,0.374395,0.389243,0.787778,0.509213,0.346566
-0.237983,-0.013979,0.128838,0.725705,-0.630820,0.274623
-0.175997,-0.376146,0.605611,0.878446,0.336426,-0.339338
-0.200837,0.006454,0.937269,0.030042,0.936383,0.349693
0.039777,-0.464117,-0.962118,-0.064634,-0.186477,0.980331
-0.040010,0.084049,-0.284808,0.910229,-0.259470,0.322735
0.785619,0.000835,0.488314,0.986952,0.007562,0.160837
0.491113,-0.744198,0.518085,0.888636,0.174757,-0.424013
-0.188882,-0.621202,-0.967734,0.155025,0.668999,0.726916
-0.499542,0.401343,0.659279,0.570740,0.630435,0.526124
-0.005760,0.565204,0.582361,-0.216013,0.895164,0.389896
0.017789,0.841435,0.557561,-0.071619,-0.502248,0.861753
-0.364217,0.000867,0.768942,-0.531176,0.530013,-0.661013
0.033625,-0.149633,0.674138,0.721817,0.471509,-0.506615
0.137335,-0.735506,0.127175,-0.852874,0.520650,-0.039101
0.232515,0.191987,0.322740,-0.243258,-0.434599,0.867150
-0.147080,-0.099094,0.500543,0.647125,0.698304,0.305942
0.103724,-0.178265,0.479035,0.554217,0.821650,0.133172
0.150382,-0.630010,0.130489,0.614463,0.771359,0.165653
-0.304923,-0.042462,0.948136,0.774528,-0.171788,0.608765
0.134494,0.362842,0.613474,0.411647,0.584622,-0.699116
-0.125479,0.157971,0.864216,0.891713,-0.278426,-0.356828
0.589154,-0.691614,0.315683,0.108898,0.458229,0.882138
-0.243347,0.007329,0.360030,0.089160,-0.995991,0.007273
-0.371415,0.172929,0.801171,0.913203,0.172837,-0.369035
-0.448247,0.177977,0.748642,-0.194799,-0.712065,0.674549
0.020443,-0.679365,0.334218,0.401930,0.900234,0.167423
-0.120945,-0.583687,-0.105092,0.932199,0.077368,-0.353581
-0.303735,0.318897,0.947501,0.420995,0.719826,0.551919
0.271626,0.571890,0.709001,0.950345,-0.049222,-0.307282
-0.477583,0.400193,0.708626,0.879492,0.281172,-0.383975
0.311145,0.092801,0.424428,0.291392,0.660239,0.692224
-0.425003,0.470368,0.612515,-0.559443,0.250104,0.790235
-0.320455,0.169042,0.913857,-0.529180,-0.719933,0.449071
-0.026512,-0.536345,-0.577813,0.986511,0.163586,0.006002
-0.566381,0.436339,0.595522,0.945606,-0.324514,0.022805
0.063482,0.136497,0.600624,-0.659743,-0.345204,0.667513
-0.417394,0.006522,0.802377,0.082078,-0.902407,0.422996
-0.199606,0.666524,0.765661,-0.560169,0.735163,0.381767
-0.062535,-0.539287,-0.580533,0.677006,0.713040,0.182312
0.180186,-0.224187,0.312114,0.125595,0.988684,0.082035
-0.216068,-0.640766,-0.944314,-0.019872,0.201576,0.979271
-0.235768,0.688024,0.535045,0.422858,0.837264,0.346670
-0.604337,0.695396,0.702439,0.347340,-0.876233,-0.334021
0.167674,0.587023,0.708784,0.352545,-0.556073,-0.752658
-0.334717,0.549100,0.572958,0.407553,-0.749068,0.522301
-0.032045,-0.570799,0.271932,-0.048852,-0.614685,0.787258
-0.030263,-0.545391,0.014817,-0.148412,-0.901154,-0.407303
-0.252872,0.322382,0.193949,-0.373295,-0.486091,0.790168
-0.474712,0.425379,0.758868,0.734234,0.461920,-0.497524
-0.118836,-0.041250,0.471614,-0.384906,-0.638585,-0.666376
0.114642,-0.286810,0.520551,0.591094,0.805314,0.045571
-0.418886,0.510210,0.567025,0.985786,0.147068,-0.081220
-0.158113,0.100200,0.569043,0.021484,0.815296,0.578645
0.127137,0.077234,0.680196,0.339417,0.935224,-0.100758
-0.467957,0.604442,0.702982,0.144034,0.937974,0.315370
0.352160,-0.216816,0.713358,-0.756217,-0.264186,-0.598616
0.083278,-0.327317,-0.177597,-0.681946,0.267939,0.680558
-0.236687,0.331774,0.371026,-0.132705,-0.841087,0.524369
-0.241984,0.643449,0.511539,0.849520,0.411060,-0.330674
-0.616588,0.568934,0.818073,-0.736171,0.665018,0.125714
-0.604150,0.579121,0.681243,0.388705,-0.775699,0.497192
-0.118390,-0.462422,-0.579364,0.973919,0.199678,0.107751
0.123399,-0.447598,0.278863,0.748750,-0.615425,-0.246223
-0.252204,-0.003630,0.521162,0.872093,-0.370640,0.319500
-0.244317,-0.779927,0.132674,0.707791,0.702099,0.078028
0.331974,-0.318412,0.526119,0.886885,0.049582,0.459322
0.317481,-0.286930,0.524135,0.501350,0.555971,0.662981
0.185318,-0.071413,0.561504,0.565160,0.776932,-0.277437
-0.191800,0.402296,0.703077,0.652170,-0.668598,0.357282
-0.364160,0.334864,0.675564,0.290509,0.929040,0.229104
0.477593,-0.275512,0.411515,0.247935,-0.950290,0.188356
-0.255014,-0.117783,0.001895,-0.009214,0.201271,0.979492
-0.323916,0.400247,0.883376,0.864151,-0.462570,-0.198171
-0.284198,-0.395413,-0.285570,-0.440428,-0.896872,0.040542
-0.579815,0.036090,0.575287,-0.688148,-0.383090,0.616194
-0.531482,0.377252,0.771319,0.972943,0.096618,0.209874
-0.015439,-0.119550,0.664460,-0.064275,0.555982,0.828706
-0.039384,0.137314,0.718407,0.412099,0.635464,0.652962
-0.036505,-0.168325,0.601960,0.656352,0.559916,-0.505663
-0.146646,0.376692,0.752572,0.953570,-0.283784,0.100850
-0.115208,-0.638792,-0.688688,-0.709792,0.667379,0.225391
-0.010759,-0.689937,0.143021,-0.469036,0.465983,-0.750244
-0.072097,-0.334499,-0.427017,0.986762,0.067021,0.147681
0.097797,-0.178430,0.339847,0.684908,0.691744,-0.228890
-0.170749,0.095226,0.153292,-0.449213,0.194559,0.871983
-0.076432,-0.587889,0.280281,0.315966,-0.122872,0.940781
0.812528,-0.172009,0.335502,-0.134491,-0.504770,0.852713
-0.157692,0.262144,0.710051,-0.033197,0.645626,0.762932
-0.263579,-0.212780,0.345533,0.944023,0.286586,-0.163369
0.074676,-0.014697,0.548837,-0.597625,0.154127,0.786822
-0.219143,-0.482380,0.243473,0.165759,-0.971311,-0.170522
-0.066094,0.052102,0.356949,0.352676,0.894660,-0.274230
-0.274104,0.050606,0.755455,0.704415,-0.709419,0.022875
0.109928,0.029936,0.386343,0.026755,0.950657,0.309088
-0.052915,0.022671,0.324559,0.903482,-0.336512,-0.265481
-0.031870,0.133742,0.721386,0.269415,0.908183,0.320343
0.007560,0.290993,0.658879,0.505300,-0.650262,-0.567302
-0.162271,0.123370,0.639355,0.989367,0.145428,0.001993
0.237365,0.077200,0.627366,0.046976,0.054499,0.997408
-0.528518,0.034963,0.798859,-0.580877,0.283257,-0.763117
0.096873,0.379528,0.693124,0.655092,0.578123,0.486444
-0.103953,-0.211429,0.520112,0.535233,0.431577,-0.726132
