-0.176157,0.134338,0.688663,0.208244,-0.953416,0.218248
-0.214856,0.435120,0.702633,0.510988,-0.719280,0.470667
-0.295734,0.133410,0.517262,-0.576017,0.316039,-0.753873
-0.103378,0.192176,0.874605,0.947602,-0.316329,0.044579
-0.155516,0.326572,0.636279,0.824647,-0.508990,0.246752
-0.803984,0.465199,0.681378,0.822146,-0.475790,0.312568
-0.345893,-0.532426,0.660445,-0.305754,-0.833345,0.460489
-0.659627,-0.003594,0.758836,0.137779,0.879945,0.454659
0.709965,-0.596407,-0.977896,-0.052650,-0.003424,0.998607
0.659986,0.292321,0.907695,0.243617,0.839041,-0.486478
-0.186536,0.468676,0.703452,-0.235760,0.851988,-0.467476
-0.083638,0.525877,0.825571,-0.160570,-0.962608,-0.218184
-0.125158,0.312141,0.904213,-0.787139,0.600128,-0.142333
0.479209,-0.283686,-0.537478,0.051606,-0.486899,-0.871933
0.399232,-0.282643,-0.091062,-0.253599,-0.889944,0.379060
0.053159,-0.492263,0.619105,0.545184,0.822979,0.159624
-0.256135,-0.059403,0.847264,-0.796713,0.287279,0.531713
0.179576,0.471342,0.780061,0.533445,0.332380,0.777792
0.110338,-0.315039,0.713897,0.593142,-0.800499,-0.085922
0.029279,0.470820,0.516428,-0.201289,0.870647,0.448840
-0.725326,0.058186,0.754813,-0.643449,-0.665285,0.378641
0.037019,0.571255,0.752472,0.851629,-0.220457,-0.475529
-0.032040,0.621965,0.816633,0.751612,-0.286371,-0.594198
-0.241375,-0.615184,0.461513,-0.394411,0.812916,-0.428494
-0.272154,-0.217966,0.802487,0.587704,-0.786297,-0.190636
-0.223197,0.155086,0.891179,-0.672172,-0.601178,0.432169
0.143697,-0.213793,0.605617,-0.247048,-0.146663,0.957840
0.450711,-0.362562,-0.784611,-0.305062,-0.668092,0.678667
0.166916,-0.076384,0.735152,-0.566794,0.244088,0.786871
0.403731,-0.230195,-0.006012,-0.048661,-0.987769,0.148140
-0.144358,0.302521,0.627370,0.850426,-0.497953,0.169760
0.899562,-0.385048,-0.984523,0.157590,0.024243,0.987207
-0.517791,0.065141,0.818505,-0.619116,0.780746,-0.084448
0.402711,-0.124776,0.071592,0.279503,0.936754,-0.210642
-0.627588,-0.109418,0.765492,0.828502,-0.389246,-0.402582
0.055618,0.736308,0.791106,0.322517,-0.908405,0.266051
-0.189477,-0.347493,0.697381,-0.126090,-0.961654,0.243562
0.753705,-0.678644,-0.979783,0.124724,0.063717,-0.990143
-0.085079,0.199073,0.758645,-0.249325,0.885564,-0.391936
-0.425452,0.155491,0.655398,0.186499,-0.873374,0.449928
0.710866,-0.406723,-0.950380,0.763055,-0.544372,0.348434
0.028138,-0.360707,0.459216,0.875420,-0.367952,-0.313451
-0.425271,0.539090,0.819046,0.761681,0.381119,0.524014
-0.067979,-0.066879,0.375395,-0.125863,-0.957336,0.260128
-0.168837,0.200753,0.757972,0.233556,-0.971665,0.036310
0.143637,0.507505,0.538297,0.721183,0.678216,0.141128
-0.047100,-0.133700,0.847776,0.021829,0.192900,0.980976
-0.538130,-0.080673,0.862303,0.747151,-0.598408,-0.289265
-0.047759,-0.567082,0.596679,0.261483,-0.707362,0.656708
-0.648588,-0.499276,0.666925,0.361508,-0.812269,0.457746
-0.513169,-0.055752,0.833382,0.967483,0.125213,-0.219771
0.633947,0.011185,0.911118,0.998126,0.039807,-0.046466
0.179036,-0.058475,0.304067,0.916370,-0.384347,0.111994
0.398092,-0.195190,0.296884,0.835600,0.059823,-0.546071
0.506089,0.063228,0.451156,-0.672890,0.739689,0.008926
-0.200637,-0.174268,0.734260,0.082124,-0.669269,0.738467
0.428811,-0.624573,-0.989497,0.180648,-0.026846,-0.983181
0.127017,-0.096146,0.206276,-0.104272,0.992925,0.056808
-0.099299,-0.316662,0.807929,-0.211096,0.830083,-0.516140
0.160497,-0.188757,0.751843,-0.253602,0.636226,0.728630
-0.209936,0.371602,0.662888,0.792320,-0.526105,0.308938
-0.423471,-0.730571,0.620948,-0.578358,-0.807464,0.116206
0.809384,0.526456,0.875819,-0.651764,0.732535,-0.196459
0.480769,0.030484,0.482183,0.756605,0.653814,0.008694
-0.854802,0.373689,0.749532,-0.747496,-0.119031,0.653515
0.116818,-0.070009,0.506612,0.540079,0.793272,-0.281132
-0.157677,0.010258,0.842510,0.266445,0.663611,0.699019
0.585648,0.271167,0.982724,0.265067,-0.963468,-0.038316
0.632507,0.366328,0.945143,-0.307522,-0.047577,0.950351
0.535669,-0.625732,-0.985035,0.159429,-0.028882,-0.986787
0.676906,0.169227,0.495699,0.710199,-0.615466,-0.341786
-0.249056,0.366676,0.739204,0.779599,-0.415291,-0.468784
-0.552589,0.096204,0.849664,0.102305,-0.587542,0.802700
-0.626568,0.339148,0.780895,0.832555,0.548890,-0.074644
-0.046560,-0.569516,0.471445,0.825813,0.334701,0.453882
-0.099299,-0.845147,0.357402,0.637457,0.696565,0.329312
0.610667,-0.040105,0.719002,-0.460756,-0.303754,0.833929
-0.377873,-0.246885,0.523230,0.706137,0.353390,0.613584
0.595067,0.278702,0.775965,0.869939,-0.397443,-0.291967
-0.128158,-0.048160,0.542013,-0.200427,0.959338,-0.198744
-0.043079,-0.091742,0.353087,-0.748845,-0.661794,0.035495
0.041459,0.325065,0.730061,-0.677300,0.732691,0.066550
0.143697,0.126282,0.703248,0.828935,0.031397,0.558462
0.515628,-0.357404,-0.992378,-0.038758,0.142614,0.989019
0.208675,0.291104,0.863999,0.894011,0.394249,0.212864
0.003899,-0.238250,0.760255,-0.561353,0.822226,-0.093953
-0.617147,0.081252,0.739921,0.433004,-0.591168,-0.680462
0.621227,0.035410,0.878321,-0.089409,-0.506210,0.857763
0.173995,-0.126688,0.333411,0.917701,0.342891,0.200625
0.426112,-0.122167,0.255120,0.249894,0.940646,-0.229647
0.254034,0.501072,0.917730,-0.150785,0.120950,0.981140
0.626568,0.408751,0.796811,0.176924,-0.839399,0.513914
-0.167037,-0.624863,0.339438,0.102059,0.031715,0.994273
0.384172,0.666473,0.630076,-0.346446,0.293472,-0.890982
-0.281994,-0.221559,0.705661,0.581920,0.543992,-0.604518
0.471169,-0.283454,-0.190886,-0.398630,0.836433,-0.376130
0.155696,0.574964,0.857782,-0.042315,0.949409,0.311179
-0.231535,-0.396291,0.356129,0.331035,0.566665,0.754524
-0.353453,0.305825,0.780881,0.781659,0.160248,0.602769
-0.020039,-0.072732,0.411103,-0.351137,0.915698,-0.195449
0.257215,0.361924,0.790272,0.820611,-0.283061,0.496462
-0.575508,-0.091104,0.839511,-0.602958,0.797459,0.022385
-0.183537,0.721530,0.805178,0.362049,-0.903306,-0.230128
0.104457,-0.911446,0.351317,0.882757,0.467125,-0.050341
0.184375,-0.116141,0.171489,0.089876,0.995347,-0.034734
0.668086,0.609446,0.524795,0.035143,-0.775194,0.630745
0.858821,0.228166,0.733207,-0.326443,0.592809,0.736215
0.379732,-0.150855,0.059245,0.300926,0.928403,-0.217972
0.444471,0.194726,0.900614,-0.279234,-0.913373,0.296274
-0.031980,0.272385,0.736088,-0.232156,0.872699,-0.429534
0.526429,-0.282932,-0.617320,-0.516664,-0.856188,-0.000065
-0.182277,-0.813967,0.531875,-0.699658,0.266594,-0.662877
-0.275635,-0.528890,0.657577,-0.308132,0.935881,-0.170823
-0.681766,-0.597566,0.665696,0.857788,0.512839,0.034583
-0.511250,0.179310,0.869236,-0.693415,0.695915,-0.186754
-0.006300,-0.085598,0.307592,0.841243,0.443836,-0.308740
0.431572,-0.087395,0.401960,0.848886,-0.243553,0.469121
-0.048779,-0.229441,0.378920,-0.877179,0.073381,-0.474524
-0.663767,0.159779,0.804520,-0.755559,0.075203,0.650749
-0.038879,0.022718,0.612478,0.999515,0.022842,-0.021161
0.170996,-0.211475,0.751536,-0.350761,0.600646,0.718465
-0.266035,0.040510,0.498449,0.405148,-0.424091,0.809939
0.184496,-0.305767,0.608382,0.611350,-0.222583,-0.759413
0.249594,0.299218,0.902004,-0.185773,0.738799,0.647815
-0.429711,0.718806,0.830486,-0.705964,-0.155290,-0.691013
-0.000059,-0.108085,0.255456,-0.140417,0.893328,0.426905
0.468291,-0.174558,0.288912,0.977380,-0.085202,-0.193570
0.468350,-0.109418,0.534743,-0.385301,0.327236,-0.862821
-0.520070,0.187134,0.730778,0.209497,0.784951,0.583063
-0.130618,-0.077369,0.841691,0.106084,-0.993020,0.051554
0.558648,0.682353,0.751609,-0.686651,-0.169353,-0.706987
0.190496,0.148130,0.888019,-0.477311,-0.581634,-0.658692
0.197575,0.481657,0.532855,-0.732335,-0.296337,0.613082
0.417951,0.258939,0.705968,0.916037,0.397555,-0.053169
0.459890,-0.064503,0.378189,0.934758,-0.352329,0.045745
-0.577608,0.075746,0.852019,0.561355,0.245223,-0.790409
0.049438,0.042364,0.295699,0.790535,0.566275,0.233211
0.610306,0.364648,0.479535,0.322184,0.367206,0.872558
0.769004,0.375717,0.717993,-0.191255,0.944695,0.266408
-0.799665,-0.573631,0.760591,0.982964,0.134309,-0.125468
0.359933,0.521182,0.797060,-0.226355,0.861684,-0.454164
0.072839,-0.126572,0.860737,0.675523,-0.654709,-0.339154
0.116578,0.131034,0.685576,-0.594512,-0.717084,-0.363793
0.018300,-0.023994,0.837185,-0.673228,0.624029,0.396676
-0.000900,0.907215,0.760781,0.973521,0.203376,-0.104381
0.788924,-0.546740,-0.977458,0.094359,0.149232,0.984290
0.564767,0.307563,0.899283,0.616798,0.782825,0.082136
0.501769,0.129991,0.857651,0.574841,-0.524577,-0.627995
-0.079619,-0.119386,0.852779,0.470038,0.505375,0.723644
0.555288,-0.215648,0.499927,0.974525,0.052650,0.218010
-0.106377,0.236337,0.861644,-0.365111,0.930963,0.001137
0.663527,0.333990,0.819236,0.842381,-0.511766,-0.168789
0.562548,0.504781,0.817832,0.730812,0.681577,0.036964
0.794503,-0.427123,-0.981393,0.130774,0.157155,0.978877
-0.632687,-0.573457,0.654915,0.903009,-0.423612,-0.071603
0.174477,0.085192,0.663400,0.961844,0.052948,-0.268427
0.008940,0.322167,0.758485,-0.634330,0.770858,-0.058343
0.300773,-0.125645,0.220451,-0.063102,-0.997683,-0.025445
0.176817,-0.725818,0.393593,-0.720506,0.469938,0.509931
0.152217,-0.095683,0.329959,0.944720,0.247395,0.215175
-0.667306,-0.136888,0.764804,0.929363,-0.156928,0.334152
-0.083938,-0.049088,0.519529,0.887724,0.327115,-0.323946
-0.349613,0.675456,0.806597,0.808892,-0.281474,-0.516204
0.653927,-0.638714,-0.979388,0.037504,-0.057865,0.997620
0.195956,0.056505,0.839336,-0.250731,0.966210,-0.059765
-0.132057,-0.455521,0.600059,-0.500529,-0.221232,-0.836975
-0.229015,0.076152,0.868198,0.169172,0.593133,0.787130
-0.172076,-0.656795,0.446606,-0.437124,0.892408,-0.111943
0.494209,-0.210722,-0.279740,-0.793650,-0.494437,-0.354473
-0.406013,-0.565286,0.565828,0.857631,-0.001699,-0.514263
-0.764324,0.297305,0.647001,0.885430,-0.296711,0.357738
0.258594,0.559953,0.889365,0.966368,0.033061,-0.255029
-0.039419,0.077832,0.880383,0.361574,-0.886232,0.289580
0.325073,-0.279049,-0.780149,-0.016359,-0.066134,0.997677
0.306473,0.197334,0.772089,-0.452536,0.208904,0.866932
-0.168237,-0.062765,0.249459,-0.381910,-0.747292,0.543782
0.447170,-0.209215,-0.006948,-0.501792,0.846196,-0.179323
0.643607,-0.332310,-0.536088,-0.104366,-0.218154,0.970318
-0.369834,0.053086,0.527472,-0.556348,0.076239,-0.827445
0.117537,0.585743,0.842686,-0.736638,0.605708,0.300802
-0.782924,-0.029557,0.746796,-0.286181,0.521134,0.804065
0.458870,-0.600638,-0.984743,-0.218593,0.116449,0.968843
-0.001021,0.772819,0.829593,-0.535304,-0.338575,-0.773832
-0.582828,0.205390,0.719485,-0.766505,-0.458978,-0.449232
-0.226375,0.842017,0.827531,0.734805,0.429540,0.524936
0.653985,0.277079,0.885225,-0.317514,0.941707,0.111232
0.738644,0.261663,0.579637,0.133288,-0.953004,0.272063
0.130617,0.502695,0.914760,0.969422,-0.192271,-0.152490
0.108357,0.470008,0.843139,-0.300733,0.896357,0.325735
0.015539,0.095625,0.737537,0.895267,-0.143840,-0.421672
-0.111959,-0.358911,0.664467,0.966374,0.217062,-0.137859
0.471050,-0.054651,0.397894,0.909601,-0.377293,0.174001
0.812802,0.399594,0.710050,0.311522,-0.681799,-0.661894
0.241735,0.145987,0.767861,-0.381193,0.490102,0.783895
0.470690,-0.290814,-0.218856,0.784852,-0.569545,0.244186
-0.656987,0.433149,0.792700,-0.244794,-0.328043,0.912394
0.415971,-0.112373,0.231729,-0.084283,0.973058,0.214602
0.124437,0.569342,0.859348,-0.210725,-0.963837,-0.163133
-0.239275,-0.020111,0.808909,-0.671241,0.631862,0.387539
-0.166497,0.068443,0.651346,0.673265,0.725338,-0.143526
0.668447,0.326920,0.607343,-0.021587,-0.808633,0.587918
0.057898,0.033729,0.673625,0.954725,-0.196143,-0.223672
-0.223856,0.273196,0.888370,0.858841,0.441265,-0.260150
-0.131277,-0.446654,0.665930,-0.628964,0.264710,0.730981
0.737385,0.556302,0.837259,0.896788,-0.437763,-0.064304
0.409371,-0.659925,-0.991413,-0.132242,0.007781,0.991187
-0.160017,-0.371023,0.674912,0.847111,0.194880,0.494393
-0.544309,0.235410,0.717115,0.956258,0.197937,0.215389
0.360173,-0.233324,-0.082563,-0.606356,-0.751018,0.261351
0.405412,0.414025,0.937917,-0.046067,-0.885999,0.461394
0.520548,0.404810,0.484845,0.510899,0.404943,-0.758290
-0.238496,0.574269,0.758411,-0.173195,0.681853,-0.710690
0.449331,-0.183599,0.047791,0.446140,0.894899,0.010715
0.052079,-0.002782,0.443958,-0.290864,-0.907934,0.301752
-0.287095,0.315502,0.760255,0.883354,-0.449875,-0.131523
-0.143097,0.322109,0.620012,0.700042,-0.596717,0.392264
0.413811,-0.147146,0.064585,0.125021,0.984701,-0.121380
-0.030059,0.112373,0.327311,-0.542686,-0.836502,-0.075863
0.600047,0.361808,0.788824,0.111580,-0.891578,0.438907
-0.003841,-0.380759,0.713356,-0.394416,0.916916,0.060832
0.488569,-0.283917,-0.372352,-0.551788,0.800013,-0.235603
0.217136,0.570327,0.881583,0.951159,-0.246039,-0.186443
0.202916,-0.175949,-0.792891,-0.021892,-0.543461,0.839149
-0.436371,-0.771603,0.643563,0.852051,0.386773,0.352727
0.500270,-0.268908,-0.395494,0.960395,-0.258033,0.105166
0.445850,-0.114286,0.531524,-0.385301,0.327236,-0.862821
-0.168597,0.025094,0.489848,0.553968,0.822075,0.131575
-0.495049,-0.337468,0.761951,0.283566,-0.948440,-0.141607
0.053578,0.169632,0.731407,-0.265734,0.927518,0.262860
0.511670,0.083106,0.587610,0.657931,0.753065,0.004345
-0.622968,-0.034599,0.756012,-0.286312,0.589048,0.755677
-0.185816,0.780180,0.820568,0.373396,0.585427,0.719619
-0.048959,-0.206955,0.364292,0.971424,-0.028066,0.235687
-0.221036,-0.000927,0.850190,0.002189,0.146552,0.989200
0.313074,-0.008346,0.906919,-0.423201,-0.143747,0.894560
0.425092,-0.282412,-0.267964,-0.513035,-0.838829,-0.182102
0.261055,0.203709,0.862010,0.310754,0.802161,-0.509872
-0.155998,0.283338,0.910927,-0.680227,0.654096,0.330831
-0.409552,-0.187482,0.805764,-0.137928,0.246501,0.959277
0.244076,-0.189221,0.882153,-0.000289,-0.999976,0.006973
0.026699,-0.105245,0.283060,-0.297144,0.942517,-0.152861
-0.374632,0.310750,0.790652,0.519744,-0.790395,0.324257
0.166856,-0.063634,0.645012,0.816878,-0.478278,-0.322428
-0.330294,-0.706868,0.618432,-0.150818,0.247626,0.957045
0.018839,-0.128659,0.315506,0.323881,0.896452,-0.302448
0.040800,-0.105767,0.701053,-0.218576,0.716511,0.662448
0.016680,-0.116082,0.396167,0.141099,-0.938604,0.314821
0.378591,0.335555,0.912405,-0.560731,0.400093,-0.724918
-0.597348,-0.452391,0.681671,-0.462412,-0.871074,0.165544
0.344333,0.277658,0.722835,0.529543,-0.477439,0.701168
0.439731,0.537641,0.777955,-0.583625,0.747354,-0.317560
0.452090,-0.324718,-0.786659,0.017228,-0.062439,0.997900
-0.088739,0.079049,0.927545,-0.351957,-0.498733,-0.792080
-0.669047,-0.177978,0.768037,0.806938,-0.578631,-0.118479
-0.067260,0.242770,0.848171,0.808013,0.494459,-0.320351
-0.361673,-0.008752,0.662683,0.703705,-0.190070,0.684596
0.598007,0.442944,0.933104,0.315568,0.943587,-0.100305
-0.551688,-0.292553,0.704140,-0.619254,0.733502,0.280176
-0.173396,0.080324,0.877092,0.979179,0.091802,-0.181056
-0.303474,-0.505766,0.605968,-0.161007,0.578259,0.799808
0.491329,0.541350,0.514336,-0.462154,0.885945,0.038935
-0.070978,-0.462417,0.535401,-0.323784,-0.172405,-0.930291
-0.341513,-0.155317,0.880456,0.597742,-0.687387,0.412556
0.128756,0.043871,0.843037,0.045705,-0.958615,0.281012
0.582948,-0.256274,-0.781305,-0.168549,0.112604,0.979240
-0.233935,-0.142973,0.783528,0.920876,-0.192788,-0.338851
0.514608,0.454303,0.886820,0.279992,0.958043,-0.061306
-0.102419,0.212286,0.847718,0.178371,0.973134,-0.145583
0.059038,0.919444,0.818227,-0.688262,0.502596,-0.523156
0.366893,0.131383,0.873523,0.924961,-0.249850,0.286394
0.317633,0.358447,0.911820,-0.309652,0.424827,-0.850669
0.517968,0.500957,0.851697,-0.051818,0.979752,0.193393
0.823962,-0.620400,-0.977311,0.043031,0.069189,0.996675
0.410032,0.191364,0.813692,0.958086,0.146308,-0.246302
0.444891,-0.212112,-0.191837,0.660018,0.726283,0.192066
0.155216,-0.082933,0.162537,0.869297,-0.451604,0.200940
0.588047,-0.294697,-0.586059,0.995335,0.078357,-0.056297
0.483349,0.114112,0.759728,0.859887,0.079646,-0.504233
0.387712,0.468792,0.637639,-0.145960,-0.258123,0.955023
0.041699,0.045204,0.496796,-0.168378,-0.963928,-0.206133
-0.354773,-0.163258,0.904447,0.945389,-0.324946,0.025486
-0.325673,-0.680209,0.614789,-0.335163,0.764815,0.550203
-0.016619,0.780586,0.847308,-0.625993,0.706724,0.329658
0.628426,-0.347320,-0.780807,-0.671981,-0.726338,0.144479
-0.155998,0.119734,0.688093,0.208244,-0.953416,0.218248
-0.002041,0.343784,0.866047,0.389597,0.225992,0.892828
0.279414,0.418893,0.806495,0.881353,0.131946,0.453661
0.189237,-0.063634,0.652633,-0.860034,0.508701,-0.039547
-0.052139,-0.100261,0.417379,0.698600,-0.712848,0.061700
-0.658786,0.374674,0.747016,0.962196,0.196921,-0.188149
-0.769665,0.593045,0.753833,-0.829642,0.130533,-0.542822
0.771764,-0.107099,0.715652,0.751832,0.504193,-0.424898
-0.536688,0.129817,0.678613,-0.586944,0.441278,-0.678801
-0.110638,-0.123732,0.516516,0.940246,-0.011531,-0.340301
-0.488450,0.137931,0.671080,0.755245,0.036836,0.654406
0.663287,-0.335092,-0.994265,-0.186843,0.213189,0.958979
0.170155,-0.097537,0.318315,0.862642,0.292586,0.412606
0.666766,0.287453,0.934611,0.257404,-0.943500,0.208689
-0.762166,-0.475225,0.780588,-0.604153,0.708531,-0.364667
0.244614,0.115619,0.628277,-0.713086,-0.252477,-0.654037
0.940001,0.359896,0.748025,0.496650,-0.493273,-0.714157
0.643966,0.331962,0.611264,-0.021587,-0.808633,0.587918
-0.619008,-0.071747,0.742466,0.685491,0.430123,0.587449
-0.713865,-0.356650,0.770494,0.859448,-0.389016,0.331685
0.740204,0.394900,0.693095,-0.655920,0.747177,0.107212
0.236094,0.436163,0.808938,0.771439,-0.546019,0.326717
-0.024960,0.768589,0.842305,-0.617055,-0.775143,0.135633
0.324353,0.167546,0.879593,0.809761,0.261941,0.525047
-0.160197,-0.040510,0.552560,-0.149698,0.980689,-0.125855
-0.076739,-0.063170,0.392832,0.429806,0.898925,-0.084855
-0.059879,-0.825790,0.354491,0.550184,0.301043,0.778890
0.359333,-0.645320,0.427619,0.660725,-0.280441,-0.696273
0.451489,-0.238656,-0.304535,0.231286,0.968565,0.091595
0.230455,-0.041611,0.646050,-0.017039,0.552038,0.833645
0.781543,0.391017,0.967364,0.876465,0.450727,0.169273
-0.166616,-0.475225,0.679930,0.819865,0.276301,0.501477
-0.000180,-0.414314,0.715301,-0.488034,0.872405,0.027063
-0.531950,-0.515271,0.682036,-0.775801,0.581227,0.245576
0.785143,0.492901,0.728964,-0.410536,0.686005,-0.600714
0.184496,0.264967,0.799415,0.879703,-0.439151,-0.182400
-0.347453,-0.111794,0.646182,-0.644747,0.676520,-0.355840
0.456409,-0.245146,-0.187244,-0.461390,-0.774442,-0.432849
0.497629,0.061083,0.790535,-0.794799,0.482877,0.367593
0.007620,0.114981,0.707212,0.935715,0.252287,0.246554
-0.527810,-0.412228,0.758455,0.724509,0.664322,-0.183747
0.133436,-0.542684,0.202472,0.471697,-0.322967,-0.820484
0.315893,0.107331,0.899225,0.939466,0.271759,0.208689
-0.213175,0.250826,0.754389,0.705041,0.696776,0.131990
0.493429,-0.441786,-0.784962,0.526926,0.381075,0.759691
0.347933,0.093190,0.843798,0.774933,-0.306325,-0.552850
-0.418311,0.561403,0.845407,-0.380564,0.839703,-0.387388
0.562727,-0.689249,-0.983250,-0.134318,-0.015273,0.990821
-0.131098,-0.315677,0.541281,-0.601428,-0.223273,0.767095
0.674626,0.297827,0.820772,0.933518,-0.139191,-0.330408
0.326034,0.440974,0.498947,-0.300914,0.952852,-0.039022
0.292193,-0.240336,0.215331,0.942892,-0.244725,0.225976
0.656747,-0.430368,-0.868797,0.909193,0.412614,0.055832
0.640066,-0.309823,-0.992964,-0.185012,0.231420,0.955100
0.645826,0.454013,0.919368,0.698256,0.061042,-0.713240
-0.229916,0.423240,0.814482,0.942230,-0.300842,-0.147297
-0.539149,-0.265430,0.575790,0.815117,0.553514,0.170899
-0.557628,-0.270182,0.573625,0.815117,0.553514,0.170899
-0.297955,0.332367,0.805983,-0.338362,0.088401,0.936854
-0.365214,0.051811,0.241267,-0.471301,-0.067273,0.879403
0.458631,0.092727,0.582095,-0.469921,0.854171,0.222633
0.506689,-0.299681,0.300790,-0.029234,-0.062371,0.997625
0.544309,-0.381338,-0.616442,-0.693995,0.648658,0.312431
0.518988,-0.361112,-0.571445,-0.171683,-0.898529,0.403943
-0.354054,-0.083165,0.811966,0.171720,0.970252,-0.170656
-0.701087,0.467111,0.788019,0.507548,0.417672,-0.753621
-0.032880,0.719502,0.856217,0.762740,-0.623816,-0.170531
0.763784,0.534453,0.857446,-0.580662,0.791486,0.190738
-0.153717,-0.090756,0.897045,-0.034958,-0.929615,0.366871
0.767084,0.359664,0.922133,-0.678346,0.266692,-0.684632
0.616127,-0.347377,-0.864833,0.834135,0.548522,0.057819
-0.111898,0.008519,0.825146,-0.288382,-0.663083,0.690765
0.075959,0.150797,0.751170,-0.238935,0.793459,0.559762
0.706005,0.444625,0.800863,0.064800,-0.628533,0.775079
0.845682,-0.472095,-0.980954,-0.022738,0.114940,0.993112
0.060598,0.382614,0.748698,-0.685341,0.713340,-0.146473
0.329633,0.288670,0.940462,0.852175,0.350963,-0.388101
0.620267,0.511040,0.494544,0.442413,-0.594019,0.671872
0.676066,0.367893,0.916121,0.997846,-0.012296,0.064433
0.575147,-0.425384,-0.821357,-0.011985,0.991677,0.128191
0.728925,0.373167,0.701668,-0.503875,0.844855,0.179806
0.334793,-0.102521,0.814263,0.806725,-0.548482,-0.219914
0.807584,0.442770,0.706217,-0.165695,-0.173813,0.970739
0.009420,0.025442,0.540272,0.636129,-0.770825,0.034190
-0.231956,0.180469,0.752970,0.228451,0.941486,-0.247818
0.084537,0.095740,0.702779,0.310219,-0.950473,-0.019124
-0.648527,0.645726,0.788707,-0.789079,0.222654,0.572520
0.378891,0.373341,0.463136,-0.348361,0.880413,0.321741
-0.504470,-0.478876,0.705296,0.916629,-0.389221,-0.091090
0.044458,0.243871,0.877867,-0.093470,-0.994340,0.050503
-0.187257,-0.034657,0.251141,-0.398019,-0.747806,0.531382
-0.365454,0.711041,0.796694,-0.656409,0.722280,-0.217805
0.328253,0.139844,0.803379,0.865328,-0.398564,0.303899
-0.526369,-0.040800,0.831027,-0.029583,-0.977145,-0.210503
-0.223616,-0.088090,0.842115,0.446515,0.894776,-0.000239
-0.645288,-0.620052,0.662025,-0.483060,0.636048,0.601744
-0.201596,0.064155,0.486396,0.433588,-0.494535,0.753284
-0.168297,0.079223,0.859304,0.997334,0.064091,0.034893
0.480830,-0.304086,-0.429652,0.975086,0.181946,-0.126899
0.054659,0.418197,0.545758,0.134957,0.007163,0.990826
-0.344694,0.576761,0.780983,0.796108,0.453303,0.400909
0.137276,0.608403,0.822396,0.819704,-0.571212,-0.042450
0.489170,0.342452,0.962624,0.264882,0.257648,0.929223
0.410511,-0.290003,-0.454096,0.378629,0.885596,-0.268998
-0.386752,-0.840800,0.628716,0.877204,0.362715,0.314565
0.304373,0.195769,0.894939,0.357822,0.899785,-0.249698
0.436250,0.210548,0.778394,0.640687,-0.752869,0.150693
-0.175196,-0.247175,0.438385,-0.393364,0.918219,0.046246
0.237356,0.513880,0.831846,0.836757,0.149171,-0.526864
0.305094,0.531092,0.819266,0.915213,-0.015477,0.402674
-0.286674,0.084323,0.502853,0.446261,-0.476129,0.757729
0.009480,0.205100,0.726829,0.833489,0.132953,-0.536302
-0.222177,-0.093133,0.756817,0.939581,0.080073,0.332829
0.055439,0.723153,0.775161,0.382101,-0.884969,0.266138
-0.659326,0.240336,0.807768,-0.548579,0.749915,0.369715
-0.255415,0.611591,0.769719,-0.000276,-0.508855,0.860852
-0.433851,0.023588,0.871240,-0.643321,0.646247,0.410491
-0.216176,-0.024920,0.779666,0.901577,-0.429286,0.053595
0.207115,0.190495,0.853277,0.311775,0.918800,0.242080
-0.126837,0.290873,0.603262,0.257360,0.760257,-0.596468
-0.743806,0.497653,0.740331,-0.571199,0.604552,-0.555201
0.777345,0.605389,0.520860,0.001003,-0.725615,0.688100
-0.089038,-0.084091,0.395099,0.982004,-0.188465,-0.012250
-0.047340,0.381281,0.891940,-0.451991,-0.677012,0.580826
0.479449,-0.290409,-0.604666,0.067739,0.972418,0.223193
0.110818,0.045552,0.692744,-0.731513,0.610862,-0.302882
-0.276715,0.457085,0.844587,-0.345945,-0.583564,0.734694
-0.114359,0.658881,0.757592,0.820228,-0.343644,0.457313
0.497269,-0.256911,-0.215989,0.840350,-0.525357,0.133461
0.237356,0.497478,0.835591,0.953360,-0.070585,-0.293467
0.104457,-0.120313,0.358163,0.749602,0.069844,0.658194
0.402171,0.199710,0.867993,0.452613,0.882402,0.128482
-0.126537,0.437902,0.668637,0.788337,-0.614327,-0.033564
0.128037,-0.312084,0.346065,0.186675,-0.167825,0.967981
-0.915041,0.352304,0.724005,0.280370,-0.719390,0.635509
0.089399,-0.102637,0.705924,0.866248,-0.345437,-0.360954
-0.022140,-0.033266,0.454637,0.743857,-0.471641,0.473531
-0.183057,-0.175253,0.727545,0.239171,-0.633883,0.735520
0.479570,0.181455,0.741281,-0.620933,0.603336,-0.500428
0.068459,0.783773,0.834084,-0.144424,-0.349702,-0.925662
0.441770,-0.245900,-0.063297,0.844013,0.467023,-0.263688
-0.465651,-0.588989,0.763809,0.749170,-0.368534,-0.550388
-0.076199,0.508664,0.695597,-0.283423,0.903771,-0.320732
-0.002881,-0.013620,0.724868,-0.373759,-0.476373,-0.795847
-0.547069,-0.052681,0.234406,0.535242,0.629219,0.563560
0.410812,-0.013967,0.409494,0.926412,-0.360785,0.107678
-0.414532,0.586902,0.867657,-0.629266,0.541761,-0.557242
-0.487731,0.058765,0.852253,-0.569562,0.618336,0.541535
0.439610,0.218371,0.836030,0.906569,-0.390328,0.160549
-0.720885,0.005158,0.737376,0.108042,0.684431,0.721027
-0.026520,-0.661548,0.483953,0.844256,0.463613,0.268876
0.408171,0.039815,0.590930,0.260871,-0.956312,-0.131963
0.372293,0.526746,0.801916,-0.366997,0.758506,-0.538499
-0.185697,0.398609,0.866720,0.997530,0.047279,0.051942
0.472250,-0.013967,0.456524,-0.613984,0.708116,-0.348705
0.296274,0.236917,0.872762,-0.407709,0.691841,-0.595927
0.094018,-0.017213,0.422148,0.035241,0.997109,0.067314
0.464151,-0.504608,-0.991852,-0.147598,0.181852,0.972185
-0.598908,-0.524080,0.633528,-0.450643,0.889789,0.072083
0.609047,-0.422718,-0.507578,0.743167,0.334477,-0.579507
0.633826,-0.384874,-0.721387,0.993443,0.000281,0.114328
-0.129117,0.689655,0.762317,-0.255049,-0.901784,0.348906
0.476690,-0.029847,0.356568,0.405927,-0.890418,0.205861
0.245335,0.317068,0.950000,0.037794,0.997193,-0.064634
-0.520129,-0.011649,0.875629,0.425330,-0.472912,-0.771653
0.433011,0.019472,0.495217,-0.817398,-0.573082,0.058631
-0.183476,-0.136135,0.634348,0.381603,0.653102,0.654093
0.700966,-0.319154,-0.990521,-0.175757,0.082233,0.980993
0.571428,-0.293655,-0.998318,-0.073518,0.279034,0.957463
0.541008,-0.371545,-0.995041,-0.082087,0.093393,0.992240
0.091557,0.285656,0.778072,0.680361,0.514075,0.522337
-0.132477,0.465778,0.673596,-0.400178,0.843633,-0.357967
-0.724846,0.159838,0.767554,-0.595212,0.763102,-0.251789
-0.343253,-0.060736,0.642466,-0.569629,0.685106,-0.454040
0.476329,-0.178789,0.010737,0.121004,0.926222,-0.357031
0.014340,0.786323,0.849678,0.051608,-0.993961,0.096845
-0.750465,-0.440568,0.755295,-0.654759,0.754742,0.040689
-0.024480,-0.216401,0.847645,0.555753,-0.431050,0.710869
0.802183,0.437265,0.479155,0.166875,-0.723429,0.669928
0.027179,0.116488,0.581188,0.359477,-0.754347,0.549306
0.170337,-0.730629,0.384231,0.834651,-0.252250,-0.489619
-0.124318,-0.514170,0.553145,0.683085,-0.608915,-0.403258
0.419392,-0.563779,-0.988648,-0.170317,0.173628,0.969972
0.468890,0.431122,0.930866,0.313217,0.750307,0.582180
-0.169857,0.257143,0.897703,0.816620,0.376610,-0.437374
-0.277554,0.505303,0.728350,0.858889,-0.449883,0.244776
-0.407813,0.512836,0.796475,0.161169,0.973915,0.159731
-0.048299,0.345233,0.859611,-0.648538,0.142098,0.747801
0.045359,-0.383310,0.710986,-0.577195,0.816591,0.005029
-0.209936,0.864966,0.837361,0.114738,0.241451,0.963606
-0.059038,0.058418,0.342028,0.999862,-0.016637,0.000225
-0.386752,-0.226022,0.860503,-0.457811,0.886419,-0.068336
0.389211,-0.032049,0.845904,-0.559401,0.650048,-0.514303
-0.272215,0.178905,0.887858,0.115382,-0.986128,0.119322
-0.164697,0.322631,0.623537,0.732661,-0.581694,0.353327
0.461390,0.161345,0.775702,-0.041630,-0.779960,0.624444
0.596387,-0.132309,-0.623698,0.863369,-0.461058,0.204986
-0.593569,-0.080325,0.803584,0.859305,-0.496575,0.122512
0.377392,0.214141,0.855091,-0.195652,0.968376,-0.154818
0.283133,0.519444,0.805120,-0.245632,0.924754,-0.290680
0.561109,-0.340481,-0.799473,0.081188,0.964376,-0.251768
-0.498169,-0.237033,0.702501,0.902221,-0.356280,-0.243028
0.342412,0.310287,0.774400,-0.826754,-0.017346,-0.562296
-0.356573,-0.583367,0.665784,-0.355369,-0.216642,0.909274
0.072599,0.088206,0.386396,-0.531412,-0.834491,-0.145694
0.123538,0.381918,0.543139,0.292258,-0.212135,0.932515
0.398212,0.491162,0.912829,-0.137192,-0.988348,-0.065931
0.508009,-0.282006,-0.530837,-0.173827,0.499101,0.848930
0.680866,-0.373921,-0.895875,0.448268,0.890639,-0.076278
-0.388552,0.792176,0.834582,0.351216,-0.803586,0.480517
0.539389,0.555433,0.518564,0.185449,-0.796944,0.574882
0.616968,0.422950,0.502516,-0.371627,-0.406795,0.834512
-0.171836,0.141698,0.860679,0.942430,-0.183985,0.279242
0.446451,-0.104666,0.192788,0.113940,-0.993249,-0.021778
0.366113,0.126166,0.677150,-0.173167,0.960115,0.219526
-0.067318,-0.040974,0.437975,0.793389,-0.124042,0.595943
-0.039240,-0.201333,0.856305,-0.674659,0.236988,-0.699050
-0.187257,0.406085,0.822396,0.980834,0.163508,0.105966
-0.305874,0.412518,0.687785,0.381194,-0.647822,0.659559
0.205736,0.460504,0.833455,0.717868,-0.594118,0.362891
0.328614,0.308838,0.734523,0.988664,-0.104900,-0.107427
-0.106678,0.200637,0.845260,0.287363,-0.957020,0.039172
0.860022,0.523443,0.727165,-0.100014,-0.925363,0.365652
0.717405,-0.747378,-0.979769,-0.111660,-0.003828,0.993739
0.548508,0.193046,0.842627,0.803399,-0.519480,-0.291016
0.822223,-0.309186,-0.986834,-0.190960,0.128147,0.973197
-0.482450,-0.648507,0.625673,0.738257,0.450445,-0.502072
0.451550,0.390959,0.863253,0.975478,-0.219859,-0.010240
-0.386992,0.128948,0.742496,0.744354,-0.666767,0.036863
-0.383993,0.165633,0.753876,-0.362975,0.921780,-0.136276
0.006600,0.201332,0.755515,0.447849,-0.099411,0.888566
-0.105718,-0.341698,0.804564,-0.023422,-0.907404,0.419606
-0.330653,0.633671,0.773405,0.544607,-0.498290,0.674619
-0.097259,-0.454130,0.708558,-0.627747,-0.736537,0.251887
-0.180717,-0.485367,0.607709,0.606350,0.093524,0.789679
0.399771,-0.602666,-0.988590,-0.142926,0.057345,0.988071
0.628007,-0.048392,0.892978,0.757136,-0.560464,-0.335595
0.055078,0.254651,0.731963,0.800486,0.121629,-0.586880
0.142077,0.347493,0.884669,0.717966,0.601792,-0.349816
0.375173,0.432918,0.933236,-0.451620,0.775379,-0.441393
0.183297,0.426949,0.535650,-0.206751,0.128688,-0.969894
0.472250,-0.338569,-0.795670,-0.305062,-0.668092,0.678667
-0.021539,-0.125761,0.249386,0.054568,0.950263,0.306630
0.626326,0.304086,0.955968,-0.241975,-0.492709,-0.835874
-0.827923,-0.471399,0.539863,-0.347421,0.873216,0.341748
-0.413272,0.578268,0.778716,0.421501,-0.892799,0.158891
-0.179576,0.089075,0.882724,0.909779,0.134928,-0.392551
-0.052740,0.013271,0.921065,0.555295,-0.001657,0.831652
0.183416,0.080962,0.688151,0.873211,-0.351555,0.337506
0.559428,0.206317,0.811513,-0.665786,0.742821,-0.070326
-0.555588,0.305361,0.761147,0.711208,0.621417,-0.328669
-0.131038,0.262069,0.602004,-0.126221,-0.855218,0.502663
0.538069,-0.358969,-0.752457,-0.163400,0.977009,0.136942
0.061679,-0.041959,0.702765,0.963001,0.109153,-0.246404
-0.101399,0.262011,0.858572,0.550501,0.552221,-0.626100
-0.192657,0.701478,0.775790,0.406562,-0.741496,0.533752
-0.540649,-0.422602,0.610606,-0.736538,0.455752,0.499803
-0.042479,-0.644104,0.566647,0.132345,-0.247550,0.959794
0.265614,-0.263518,0.778555,-0.803984,-0.379506,0.457804
-0.342053,-0.354158,0.518198,-0.610420,-0.234465,-0.756580
0.023639,-0.150449,0.321065,0.924180,-0.221765,0.310985
-0.541909,-0.324602,0.788385,0.131291,0.464487,0.875794
0.185216,-0.344538,0.753569,0.917858,-0.178368,-0.354571
-0.667187,0.418545,0.785591,0.523416,0.375884,-0.764688
-0.154317,0.174211,0.554081,-0.020665,-0.820327,0.571521
0.247974,0.043118,0.872937,-0.232938,0.405157,0.884074
0.424552,0.204346,0.868183,0.145342,-0.987242,-0.065032
-0.163256,0.426427,0.674839,-0.766279,0.496111,-0.408277
0.601428,0.234541,0.859070,-0.515041,0.817518,0.257677
0.661187,0.203593,0.944427,0.518078,-0.156969,-0.840807
0.535608,0.235178,0.668768,-0.653757,0.711637,0.257245
0.133676,-0.149174,0.737771,-0.380306,0.573216,0.725804
0.141956,-0.603825,0.360386,0.865902,-0.142414,-0.479512
0.397372,-0.006143,0.782212,-0.012629,0.776419,0.630090
0.574188,0.340713,0.857651,0.992727,-0.049311,-0.109829
0.190256,0.588525,0.917993,-0.819097,0.558588,-0.130612
0.096237,0.001971,0.399078,0.967187,0.184352,0.174827
0.597947,0.066705,0.892876,0.496299,0.865609,-0.066397
0.656507,0.220053,0.491062,-0.297424,0.237499,0.924734
0.225956,-0.322632,-0.284362,0.428180,-0.777283,-0.460969
0.431390,-0.246711,-0.203291,-0.615200,-0.084383,-0.783843
-0.761744,0.105940,0.755910,0.456723,-0.529703,0.714715
-0.169077,-0.236221,0.835211,0.352713,0.932818,-0.073785
-0.073980,-0.023588,0.728511,-0.656818,0.696467,0.289003
0.512869,-0.119386,0.182227,0.102543,-0.993539,0.048640
-0.100678,-0.465373,0.793052,0.393743,0.822889,-0.409658
0.620926,-0.476673,-0.983704,0.615702,-0.073471,-0.784546
-0.440452,0.193103,0.547235,0.617359,-0.150297,0.772191
0.470990,-0.026601,0.463210,0.898301,0.438629,-0.025687
0.208795,0.232165,0.830690,-0.266661,-0.954454,-0.133827
0.375532,0.060794,0.590579,-0.034606,0.996521,-0.075823
0.514129,0.083628,0.431056,-0.728753,0.684186,0.028433
0.845382,-0.398609,-0.984303,-0.020991,0.012942,0.999696
-0.521390,0.007708,0.857958,-0.536113,-0.132029,0.833757
0.266934,-0.251695,-0.789628,0.041438,-0.045102,0.998123
0.076618,0.492263,0.890872,0.711024,-0.416747,-0.566362
0.328912,0.326804,0.931188,-0.647521,0.738992,-0.186031
-0.322434,-0.204173,0.495260,0.341035,0.742509,0.576520
-0.403852,0.677311,0.809216,0.680036,-0.499691,0.536525
0.600227,0.257259,0.842013,0.401700,-0.913209,-0.068451
0.334912,0.238307,0.951755,-0.102526,-0.678954,0.726987
-0.413573,0.671052,0.868432,0.463041,-0.326770,-0.823902
-0.505550,0.069140,0.833689,-0.683322,0.713153,0.156472
-0.330234,-0.844509,0.619529,0.967099,0.253474,-0.021674
0.716145,-0.436975,-0.953204,0.765756,-0.516847,0.382736
-0.098398,0.007418,0.849649,0.375209,0.771708,0.513502
-0.102719,0.444451,0.676214,0.815797,-0.568341,0.107070
0.024720,0.451289,0.872104,-0.358557,0.902533,-0.238475
0.233274,-0.095277,0.069778,-0.003425,-0.999860,0.016355
0.437451,-0.094176,0.228335,-0.371296,0.913942,0.163856
-0.964540,0.256795,0.734201,0.224554,-0.874372,0.430174
-0.163677,0.080440,0.770436,0.801273,-0.475144,-0.363593
-0.309835,0.526861,0.767393,-0.261877,-0.860610,0.436773
0.077098,-0.083106,0.399517,-0.606523,0.649026,-0.459233
0.125457,0.172877,0.676960,0.311730,0.533305,0.786391
0.110278,0.504607,0.845099,-0.232261,0.968530,-0.089467
0.516110,-0.207187,-0.555047,0.927789,0.307932,-0.210680
-0.480951,0.686120,0.832738,-0.451634,0.599940,0.660378
-0.353153,-0.228456,0.506700,-0.488442,-0.813027,-0.316879
-0.067679,0.385337,0.902648,0.112583,0.482619,0.868564
-0.384712,-0.508201,0.601668,0.062971,-0.996685,0.051518
-0.164997,0.030136,0.577326,0.885535,0.430101,-0.175614
0.087298,0.444914,0.559040,-0.059007,-0.375716,0.924854
0.192236,0.438829,0.876770,0.099007,0.686121,0.720719
-0.543350,-0.003884,0.821577,0.779137,0.134984,-0.612148
0.601128,0.222718,0.815828,0.858954,-0.389898,0.331929
0.004980,-0.301188,0.568490,0.929845,-0.303694,-0.207744
0.152937,-0.260910,0.343607,0.237121,0.039231,0.970688
0.393111,-0.054593,0.904784,0.621899,0.764424,0.169993
-0.649668,-0.355027,0.519822,-0.494632,0.866753,-0.063864
-0.084118,0.507332,0.700278,0.412257,-0.869141,0.273199
0.227155,0.608983,0.867042,0.737602,0.640016,-0.215227
0.651047,0.334164,0.610518,-0.021587,-0.808633,0.587918
-0.582768,0.208461,0.774561,0.777577,-0.603990,0.174843
0.015479,-0.389453,0.576126,0.869657,-0.241050,-0.430803
-0.328674,0.598609,0.787654,0.930490,0.230104,0.285027
-0.559430,-0.396986,0.732066,-0.708556,-0.318646,0.629614
-0.348654,-0.072675,0.646694,0.603552,-0.484246,0.633428
-0.224396,0.824051,0.818827,0.899606,0.411107,0.147310
-0.077219,0.763199,0.809084,0.251481,0.922339,-0.293341
-0.144657,-0.349290,0.715404,0.909783,0.321906,-0.262051
0.473030,-0.088090,-0.546709,-0.127404,-0.184164,0.974604
0.096417,0.494987,0.544792,0.759840,-0.129787,-0.637023
0.332153,0.344016,0.774927,0.860159,0.093959,0.501296
0.698505,0.501014,0.743315,-0.696043,0.717691,0.021068
0.396052,0.079281,0.596489,-0.319053,0.711600,-0.625964
-0.495471,-0.315908,0.779403,0.280440,0.691763,0.665445
0.000060,0.037090,0.727853,0.800916,-0.598637,-0.012968
-0.599868,0.276384,0.785269,0.587985,0.668756,0.455016
-0.156057,0.367603,0.642422,0.748473,-0.598430,0.285777
0.417231,-0.246885,-0.321518,-0.312072,-0.935844,0.163727
-0.169196,0.100550,0.852414,0.878675,-0.360164,0.313388
0.862602,0.332947,0.708324,0.930835,0.238259,0.277089
-0.407692,-0.191017,0.674371,-0.766545,0.641552,0.028629
-0.265075,-0.216285,0.820041,0.717436,-0.664613,-0.208746
-0.205077,0.529818,0.847264,0.796803,-0.595322,-0.103426
0.456770,-0.164532,0.307812,0.993571,0.110901,-0.022752
-0.197037,-0.562794,0.340667,0.047095,-0.132628,0.990046
-0.049620,-0.528774,0.439804,0.799050,-0.163164,-0.578702
-0.501650,-0.058534,0.701200,0.702992,0.081613,0.706500
0.150417,0.326282,0.872703,-0.288771,0.925458,-0.245232
-0.439971,0.770907,0.834348,-0.585993,0.767185,-0.260844
-0.147777,0.276732,0.922001,0.825309,0.341211,0.449934
-0.083519,-0.007592,0.454871,-0.737557,0.547591,-0.395163
0.480171,-0.316952,-0.227370,-0.041884,0.981144,0.188688
0.054838,-0.478412,0.605617,0.549884,0.833374,-0.055816
0.160616,0.479455,0.629710,0.513499,-0.674639,0.530265
-0.437451,0.668444,0.793988,-0.534071,0.763357,-0.363393
0.259555,-0.157694,0.813941,-0.512881,0.783447,-0.350949
0.459231,0.531324,0.826112,0.001882,0.890444,0.455090
-0.494570,-0.522399,0.633119,0.604701,0.719691,0.341149
-0.166916,0.065025,0.488795,-0.527413,-0.849418,-0.017998
-0.109558,-0.702811,0.593447,-0.094908,0.774244,0.625730
-0.070799,-0.060447,0.500512,0.988382,-0.054632,0.141832
-0.420533,0.725587,0.839453,0.990590,-0.037612,-0.131597
0.377513,-0.165807,-0.054037,-0.131246,-0.987180,0.090833
-0.209336,0.157462,0.878964,0.337401,-0.941241,0.015064
0.015779,-0.145697,0.118988,-0.125471,0.991557,0.032728
0.817664,0.486931,0.714541,-0.120849,-0.625401,0.770888
-0.432952,0.162156,0.882870,-0.381477,0.905394,0.186379
0.084118,-0.017097,0.393534,0.916962,0.288347,0.275749
-0.124257,0.432280,0.677867,-0.736203,0.627344,-0.253858
0.404572,-0.352651,-0.547089,0.111326,0.968907,0.220964
0.921341,0.366792,0.926858,0.258876,0.304180,0.916765
0.463851,0.310229,0.849707,-0.302946,-0.394659,0.867449
-0.744884,-0.447001,0.730252,0.779115,-0.592406,0.205023
0.447170,0.023588,0.486864,0.872491,0.486074,0.049921
0.213355,-0.395595,0.203628,-0.413862,0.129387,0.901098
0.402832,0.254245,0.830632,0.926601,-0.356524,0.119590
0.364793,0.107505,0.719924,0.790453,-0.575944,-0.208502
-0.012300,-0.304260,0.428950,0.917835,0.047285,-0.394136
0.637067,-0.474819,-0.927238,0.899241,0.432743,0.064029
0.502850,-0.284613,-0.394851,0.960395,-0.258033,0.105166
0.395332,0.437322,0.890696,0.151406,-0.168776,0.973956
-0.102838,-0.014315,0.514204,0.915876,-0.393360,0.080237
0.035759,-0.097189,0.368915,-0.265030,0.329362,-0.906245
0.094318,0.395016,0.754447,0.778968,-0.596216,-0.194257
-0.003419,-0.459751,0.454769,0.887144,-0.355896,-0.293791
0.507050,-0.397218,-0.665506,0.315615,-0.889345,0.330836
0.835784,0.391133,0.709274,-0.245500,0.087418,0.965447
-0.047459,-0.249377,0.381788,-0.929486,0.070996,-0.361961
0.452991,0.439524,0.483441,-0.691785,-0.653387,0.307438
0.025079,-0.641785,-0.182914,-0.688224,0.717007,-0.110676
-0.677267,0.503796,0.717408,0.776530,0.193526,-0.599624
0.457550,0.158041,0.635474,-0.333618,-0.909227,0.249010
0.235314,0.230774,0.754228,0.834823,-0.403710,-0.374284
0.449571,-0.096320,0.321782,0.142169,-0.976849,0.159854
0.480529,-0.299218,-0.411410,0.989509,0.104456,-0.099808
0.869741,0.442191,0.715097,0.318469,0.379108,-0.868824
-0.604369,-0.156650,0.830881,0.720199,0.582656,-0.376598
-0.039419,-0.067285,0.872689,0.380628,0.078705,0.921373
0.740444,-0.635005,-0.978233,-0.203681,-0.067923,0.976678
-0.082078,-0.778963,0.523157,0.796116,-0.387762,0.464586
0.637726,-0.723907,-0.981305,0.005416,-0.046795,0.998890
0.037859,0.072501,0.712083,0.189648,0.725520,0.661554
0.128037,-0.296552,0.348318,0.260349,-0.032231,0.964977
-0.257576,-0.109244,0.838049,0.955666,-0.292607,-0.032928
0.393772,-0.263634,-0.193051,-0.753861,-0.302176,-0.583424
-0.280315,0.136482,0.798932,-0.395348,-0.048793,0.917235
-0.800324,0.392640,0.696606,0.979958,-0.198098,0.020971
-0.272515,0.124021,0.713224,0.020980,-0.986490,0.162474
0.456651,0.534802,0.783733,0.433844,-0.818805,0.375949
0.815503,-0.338801,-0.984611,-0.160064,0.164266,0.973343
-0.630647,-0.352304,0.510518,-0.405449,0.263422,-0.875340
-0.710447,-0.345987,0.791779,0.894316,-0.442538,-0.066023
-0.044039,0.601390,0.730690,-0.544964,0.581966,-0.603597
-0.587208,-0.136135,0.784114,-0.533348,0.845877,0.005649
0.959081,-0.347436,-0.986820,0.031484,-0.058084,0.997815
0.408472,-0.072443,0.879535,-0.101113,-0.989330,-0.104894
-0.030540,0.297131,0.783002,0.435752,-0.898418,0.054456
0.406071,0.162214,0.937229,-0.191098,-0.583222,0.789515
-0.471770,0.145697,0.863517,0.120744,-0.233799,0.964759
0.322674,-0.147262,-0.026887,0.476809,-0.647355,0.594630
-0.715786,-0.114286,0.835971,0.900992,0.433628,-0.013420
-0.397432,-0.768937,0.622030,0.917994,0.387807,-0.083019
-0.101038,-0.347552,0.821635,-0.382914,0.781446,-0.492666
0.561708,0.199942,0.789702,-0.619354,0.783266,0.053797
0.624286,-0.429499,-0.966442,0.886590,-0.300735,-0.351448
0.436431,0.180121,0.638648,0.303339,-0.916872,0.259481
0.546649,0.167604,0.854418,0.977640,-0.190552,0.088940
0.104517,0.472153,0.556729,0.665396,-0.099593,0.739817
0.550128,-0.364706,-0.823361,-0.240356,-0.969415,-0.049628
0.677747,0.242539,0.933104,0.905677,-0.313105,0.285857
0.550429,0.050130,0.799532,0.260480,0.935445,0.238941
0.168716,-0.440568,0.203101,0.497524,-0.215369,-0.840289
-0.113039,0.177108,0.703174,-0.534915,0.832006,-0.147078
0.227274,0.023471,0.851887,-0.148388,0.894351,0.422040
-0.097259,-0.020574,0.532358,-0.448833,0.893411,-0.019095
0.434392,-0.158853,-0.040872,0.263911,0.960671,-0.086387
-0.230156,0.388003,0.854696,0.964986,-0.214661,-0.150739
0.428270,-0.297421,-0.152882,-0.219530,0.962782,-0.157659
0.641386,0.352361,0.780866,-0.000830,-0.626318,0.779567
0.029339,-0.456795,0.588707,-0.617338,0.109879,0.778987
0.537648,0.063055,0.450995,-0.721398,0.690105,0.057790
0.551989,0.492843,0.819324,0.718446,0.455448,0.525740
0.612588,-0.554680,-0.982651,0.262652,-0.088539,-0.960820
-0.398992,-0.556766,0.629257,0.389082,0.674335,0.627605
0.593448,0.352767,0.952794,-0.321626,-0.177736,-0.930036
0.386631,0.347204,0.758367,0.429939,0.356818,0.829357
0.678527,0.347262,0.899342,0.929613,0.045955,0.365662
-0.098398,-0.557230,0.476097,-0.604137,0.086364,-0.792186
0.717945,0.362678,0.701097,-0.441536,0.885150,0.146819
-0.182577,-0.157288,0.830764,-0.192295,-0.202048,0.960312
-0.070259,-0.611997,0.440755,0.413845,-0.054344,-0.908724
-0.039419,-0.463982,0.525322,-0.199240,0.663950,0.720746
0.411892,0.122979,0.634377,0.303339,-0.916872,0.259481
-0.127617,-0.385048,0.727180,0.751057,0.660055,-0.015551
0.496610,0.372124,0.970904,-0.709590,0.250160,-0.658712
0.604308,0.471747,0.469485,0.181235,-0.980705,0.073295
0.683086,0.340365,0.852063,0.979716,-0.098274,-0.174637
0.017639,0.102926,0.638868,0.983672,0.116820,-0.136907
-0.399652,-0.271168,0.557563,0.374901,-0.908763,-0.183302
0.654106,-0.207534,-0.519368,0.557762,-0.247607,-0.792207
-0.700786,0.586265,0.744807,-0.738591,0.456193,-0.496358
0.128337,0.160011,0.690360,-0.626750,-0.697495,-0.347399
0.011699,0.761286,0.820099,0.754450,0.602738,0.259829
-0.405293,-0.789453,0.682343,0.576878,0.512065,-0.636397
0.373972,-0.289250,-0.166940,0.251807,0.967609,-0.018080
-0.421552,-0.718169,0.609216,0.518987,-0.557152,-0.648255
-0.344454,0.149464,0.648493,-0.173340,-0.815470,0.552233
0.090419,0.497769,0.850980,0.744540,-0.579823,-0.330855
0.684166,0.084497,0.878628,-0.463173,0.349255,-0.814550
-0.490909,-0.875920,0.634538,0.353001,0.903515,-0.243005
-0.268976,0.286120,0.873727,0.964983,0.053990,-0.256695
0.907841,-0.415880,-0.983645,0.110943,0.079272,0.990660
-0.490611,0.752130,0.826068,-0.498631,0.514540,-0.697579
-0.473572,-0.559432,0.581071,-0.083161,-0.996526,-0.004551
-0.160858,0.258476,0.911147,0.448652,0.400606,-0.798891
0.141416,0.134976,0.798698,0.826860,0.375594,-0.418607
0.364732,-0.185280,-0.046416,0.156542,-0.951819,0.263695
0.644387,-0.337236,-0.994236,-0.181736,0.200410,0.962709
0.456591,-0.237787,-0.135094,-0.499843,0.861214,-0.092017
-0.289734,0.886236,0.816647,-0.673247,0.560595,-0.482153
0.468829,-0.291858,-0.348186,-0.107899,0.993892,-0.023176
0.492290,0.466010,0.452633,0.798371,-0.574190,-0.181408
-0.250795,0.071863,0.866910,-0.423430,-0.896209,-0.132349
0.064259,-0.120487,0.305881,-0.392395,0.906725,-0.154516
-0.566809,-0.296030,0.794631,0.387390,0.537085,-0.749312
0.530749,-0.311446,-0.492481,-0.276402,-0.926336,-0.255937
-0.576889,-0.047813,0.810020,0.996838,-0.004224,0.079348
0.463071,-0.546393,-0.991106,-0.122168,0.153815,0.980518
0.902982,-0.497073,-0.983031,0.052517,-0.037576,0.997913
-0.069299,-0.669604,0.470553,-0.601297,-0.587805,0.541228
0.679006,-0.679340,-0.982738,-0.042570,-0.079942,0.995890
0.655666,0.186555,0.573186,-0.466196,0.868979,-0.165939
0.144957,-0.393219,0.632738,0.462312,-0.171728,-0.869929
0.486830,-0.369806,0.291208,-0.402132,-0.133709,0.905766
0.421432,-0.185395,0.021431,0.359455,0.913100,-0.192457
-0.163198,0.126050,0.686571,0.208244,-0.953416,0.218248
-0.281575,0.281600,0.862639,0.755535,-0.654898,-0.016608
0.463129,-0.287163,-0.177062,0.474249,-0.865549,0.160976
0.480951,-0.728543,-0.985869,0.166853,-0.014761,-0.985871
0.487009,-0.471399,-0.601404,0.954608,-0.258877,-0.147333
-0.171957,0.257548,0.866589,-0.187896,-0.203820,-0.960808
-0.490490,-0.897131,0.611103,0.524399,0.489821,-0.696478
-0.028140,-0.107099,0.320919,-0.222779,-0.974868,-0.001571
-0.417173,-0.534975,0.579652,-0.733301,-0.629497,-0.256911
-0.045899,0.093712,0.740126,-0.108316,0.095512,0.989518
0.321053,0.414083,0.485386,-0.136660,0.918244,-0.371687
0.563209,-0.397276,-0.700834,0.944579,0.323581,0.055370
0.808483,-0.706810,-0.978189,-0.020159,-0.128612,0.991490
-0.161398,-0.627934,0.340243,0.102059,0.031715,0.994273
0.740025,-0.378151,-0.983616,-0.190112,0.305636,0.932976
-0.206397,0.029151,0.766852,0.932933,-0.353919,0.066163
0.373671,0.038076,0.749824,-0.551767,0.751166,0.362358
0.288893,0.295682,0.905881,-0.853967,0.213394,0.474556
-0.612408,-0.335555,0.520743,-0.408616,0.912655,-0.009651
0.641146,0.318690,0.847221,-0.420644,-0.899369,0.119138
-0.518150,-0.512837,0.761615,0.856482,0.136347,0.497844
-0.538910,-0.281658,0.579944,0.846719,0.464684,0.259106
0.089757,0.086931,0.682738,0.940928,-0.290699,0.173636
-0.112499,-0.464213,0.666135,-0.529531,0.433796,0.728984
-0.011580,0.293944,0.751536,-0.563953,0.796432,-0.218294
0.640366,0.200696,0.940360,-0.545982,0.510849,0.664031
0.176156,0.248276,0.914585,0.594692,-0.677222,-0.433257
-0.187797,0.043871,0.869500,-0.699977,-0.007891,0.714121
-0.009361,0.629904,0.816867,-0.327750,0.345803,0.879205
-0.188697,0.199710,0.764833,0.589546,-0.722918,0.360313
-0.888103,0.335787,0.687215,-0.676814,0.209603,-0.705684
0.554629,-0.607418,-0.985752,-0.183055,0.073032,0.980386
0.432110,0.017849,0.484011,-0.808930,-0.587766,0.012780
0.074697,0.460156,0.552165,0.316864,0.468013,-0.824961
-0.009601,-0.070299,0.417686,-0.400654,0.862245,-0.309855
-0.113698,0.176587,0.552867,0.165049,-0.778584,0.605446
-0.097557,-0.625326,0.435006,-0.167195,0.201943,0.965021
0.588289,0.514459,0.577121,-0.776060,-0.600042,-0.194116
-0.397852,0.035352,0.744470,0.822968,-0.564053,0.067593
-0.483410,-0.174095,0.813941,-0.081139,-0.857236,0.508491
-0.152517,-0.619125,0.443256,-0.452233,0.891825,-0.011545
0.869622,-0.590264,-0.976331,0.002021,0.097598,0.995224
0.348652,-0.234483,-0.544134,0.011527,-0.695925,0.718022
0.119098,-0.330049,0.723713,0.532207,-0.846569,-0.008717
0.536388,-0.109476,0.864219,-0.404203,0.742013,0.534824
0.437810,0.149753,0.756027,0.935491,-0.349411,0.052624
0.233216,0.119965,0.633880,-0.714443,-0.375280,-0.590539
-0.437032,0.419878,0.889804,0.803948,-0.550059,-0.226059
0.717465,0.435062,0.926243,0.321383,0.913513,-0.249413
0.022499,-0.337990,0.456949,0.817245,-0.381635,-0.431817
0.216596,0.524370,0.633060,-0.481510,0.672255,-0.562336
-0.090539,0.074761,0.888487,-0.427818,-0.888534,0.165769
0.032760,-0.645842,0.550936,0.431906,0.332850,0.838253
0.732644,-0.329934,-0.989409,-0.221734,0.249353,0.942686
0.483650,-0.224746,-0.369851,-0.421270,0.906423,-0.030490
0.517489,0.177804,0.692671,0.681620,-0.676307,-0.279288
-0.222896,0.779020,0.796401,-0.092567,-0.557347,0.825103
-0.177776,-0.179832,0.112800,-0.153194,0.951644,0.266282
0.647566,-0.691741,-0.980061,-0.097947,0.066200,-0.992987
