-0.203125,0.127408,-0.447277,0.227902,0.972720,-0.043330
0.140696,0.814848,0.672992,0.436746,-0.237808,0.867583
-0.353040,-0.199724,0.737186,-0.205607,0.591511,-0.779641
-0.312023,0.244240,0.908101,0.462873,0.822391,-0.330789
0.825865,-0.349807,0.271527,-0.448764,-0.040055,0.892752
-0.180267,0.305037,0.931362,-0.669163,0.613995,0.418605
0.566107,-0.806672,0.499197,0.862440,0.448570,0.234481
-0.005603,0.240933,0.573118,0.877482,-0.450924,0.163379
-0.163972,0.137873,-0.582555,0.882613,-0.446984,0.145602
-0.784096,-0.096810,0.811875,-0.468247,0.820432,-0.328080
-0.010358,-0.014391,0.859641,-0.392350,0.909220,-0.139217
-0.579010,0.377571,0.578285,0.201002,-0.901779,0.382612
0.705205,-0.210880,0.312606,-0.322652,-0.077962,0.943301
-0.333296,0.185042,-0.991909,-0.135099,0.120765,0.983445
-0.070646,0.261065,0.457090,-0.756028,-0.134939,0.640478
-0.204016,0.183334,-0.528811,0.978948,-0.180241,0.095785
-0.150207,-0.175412,-0.951047,-0.168564,0.167120,0.971420
-0.103738,0.106948,-0.044278,0.697156,0.612795,-0.372097
-0.174372,-0.456756,0.695616,-0.226848,-0.400588,0.887733
-0.314609,0.726579,0.816449,-0.561362,0.800105,-0.211436
-0.002210,0.123919,0.846368,0.886087,0.396888,0.239435
-0.240667,-0.382513,0.521010,0.519543,0.846283,0.117813
-0.597224,0.391671,0.879673,0.228792,0.905214,0.358108
-0.315665,0.120030,0.143790,0.975372,-0.220544,-0.003011
-0.504484,0.407733,0.908984,0.832500,0.349789,-0.429642
-0.140613,-0.397267,0.713709,-0.488991,-0.734268,0.470891
-0.200512,0.175994,0.058419,-0.419583,0.730524,-0.538782
-0.432961,-0.293481,0.680519,0.872038,-0.286907,-0.396529
-0.399341,-0.307799,0.706833,0.235102,0.707370,0.666599
-0.738241,-0.190421,0.849827,-0.649511,0.606544,0.458518
0.045536,0.227451,-0.968344,-0.062406,0.160607,0.985044
-0.870385,-0.030162,0.977579,0.806748,0.145435,0.572718
-0.211802,-0.426521,0.520706,0.491873,0.291216,-0.820521
-0.305821,-0.269787,0.515365,0.245421,0.158720,0.956335
-0.344419,0.161313,0.572192,-0.671883,-0.641279,-0.370587
0.821304,-0.253180,0.268719,0.796712,0.207257,-0.567709
-0.368585,0.264409,0.878313,0.855917,0.517041,0.008671
-0.201513,-0.030417,0.862376,-0.773344,-0.196719,-0.602695
-0.831482,0.481539,0.819185,0.887688,0.298299,0.350754
0.627591,-0.373065,0.217031,0.371757,0.670006,-0.642564
-0.170673,0.073116,0.741080,0.908356,-0.267850,0.321163
-0.510212,0.240388,0.906046,0.953062,0.301341,0.029450
-0.415275,-0.390108,0.589850,0.266216,-0.155167,0.951342
-0.241723,-0.046551,0.725534,0.228729,-0.602986,-0.764258
-0.214026,0.291518,0.511819,-0.254201,0.842272,-0.475352
-0.283074,0.684606,0.898881,-0.389031,0.917058,-0.087524
-0.193949,-0.104695,0.507114,0.996899,-0.077070,-0.015893
-0.164499,-0.269351,0.640352,0.948366,-0.156633,-0.275804
-0.389052,-0.177302,0.442963,0.922076,0.357828,-0.147429
-0.290388,0.174286,0.115593,0.499627,-0.772476,0.391988
-0.201874,0.092085,0.898071,-0.289030,0.601048,-0.745119
-0.534740,-0.369249,0.772548,0.802958,-0.481183,-0.351740
-0.577147,-0.112690,0.606192,-0.642731,0.122441,0.756244
-0.511047,-0.347990,0.658489,0.107541,0.489780,0.865188
0.409992,-0.046660,0.273872,0.891981,0.359177,-0.274519
-0.511686,-0.326150,0.684514,0.879600,0.475363,-0.018308
-0.173927,0.230504,-0.029007,-0.697296,0.256089,-0.669475
0.034023,0.434770,0.614660,-0.710668,0.686800,-0.152499
0.736072,-0.152954,0.327355,0.440832,0.892982,0.090826
-0.119478,0.160040,-0.967707,0.049149,0.422479,0.905039
-0.463773,0.025147,0.662368,-0.038037,-0.262580,0.964160
-0.310660,0.304927,0.358331,-0.472078,0.503794,-0.723418
-0.690215,-0.092630,0.922301,0.956382,-0.067828,0.284137
-0.395142,0.205066,0.886954,-0.232029,0.641466,0.731221
0.053490,0.154480,0.849595,0.571706,0.224250,0.789217
-0.751533,-0.091831,0.792884,-0.532768,0.396771,-0.747483
-0.114306,0.176466,0.597276,0.746764,-0.369555,-0.552967
-0.198787,0.144051,0.098079,0.448597,-0.852874,-0.267145
-0.475536,0.446689,0.944765,-0.136196,0.931200,-0.338107
-0.504512,0.345810,0.900343,-0.764460,-0.116371,0.634081
-0.072149,0.085072,0.704894,-0.084153,0.771768,0.630311
-0.503622,0.664947,0.678029,-0.216295,0.575419,-0.788739
-0.291584,0.234501,0.301895,0.767559,-0.625455,0.140209
-0.418361,0.834799,0.812772,-0.714583,-0.176588,-0.676895
0.569834,-0.480267,0.425406,-0.060489,0.924475,0.376413
0.566942,-0.212516,0.256676,0.708789,0.705235,-0.016184
-0.871581,-0.129951,0.851969,-0.221815,-0.964609,-0.142576
-0.371421,-0.179265,0.377437,-0.369206,0.373451,0.851012
-0.555651,-0.012574,0.450490,0.595502,0.685877,0.418270
0.763714,-0.891707,0.490584,-0.695537,-0.376505,-0.611941
-0.617803,0.222436,0.938411,0.800925,0.572613,0.175022
0.757039,-0.183989,0.262350,-0.328661,-0.847125,0.417567
0.594861,-0.676212,0.436016,0.978058,-0.171379,0.118454
-0.703091,-0.105640,0.881787,0.832177,0.549649,-0.073261
-0.154822,0.720728,0.943072,0.533518,-0.842796,0.071093
-0.085608,-0.020569,-0.960166,-0.075285,0.013058,-0.997077
-0.701673,0.455047,0.748607,0.240547,-0.960826,0.137658
-0.124734,-0.024675,0.804261,0.839485,0.513310,0.178263
-0.156575,0.513664,0.743599,0.904705,0.230779,-0.358119
-0.602786,0.190530,0.804855,-0.389410,-0.297021,-0.871859
0.045370,0.210735,0.883017,0.932719,0.345126,0.104515
-0.629149,-0.016389,0.912473,-0.355360,0.900538,0.250502
-0.213525,-0.005633,0.869136,-0.745782,0.015698,-0.666005
-0.100985,0.697725,0.940018,-0.765288,-0.643036,0.028960
0.612075,-0.741369,0.506405,0.099892,-0.374526,0.921820
-0.020370,0.726288,0.867833,0.337527,0.684535,0.646133
-0.699086,-0.066756,0.752558,0.322146,0.740029,0.590406
-0.244587,0.114834,0.897434,0.589295,-0.558295,0.583985
-0.338024,-0.281416,0.404881,0.456122,-0.543621,-0.704578
-0.220450,-0.018606,0.897115,0.945739,-0.054196,-0.320377
-0.608042,0.047351,0.913993,0.524598,-0.403591,-0.749607
-0.242642,0.662403,0.778077,0.115728,-0.341998,0.932547
-0.152514,-0.223999,0.703635,0.067533,-0.931786,0.356672
-0.165028,0.536667,0.871351,-0.027219,0.797579,0.602600
-0.428623,-0.329457,0.692981,-0.722382,0.572344,0.388055
-0.370643,0.244131,0.841519,0.901859,-0.431686,-0.017254
-0.643136,0.379170,0.636314,-0.662518,-0.575877,-0.478994
-0.361021,-0.083800,-0.973584,0.157392,-0.154493,-0.975377
0.046343,0.169525,0.705820,-0.068875,-0.673488,0.735983
-0.010804,0.196344,0.817057,-0.266739,0.963754,-0.005274
0.084913,0.021186,0.835787,0.672077,0.734418,0.094568
-0.346116,-0.229523,0.388684,-0.002010,0.559628,0.828742
-0.039362,0.456574,0.707774,0.843585,0.307245,-0.440415
-0.294559,-0.121230,-0.964219,-0.177734,0.144072,0.973475
0.013807,0.280035,0.540709,0.923301,-0.354752,-0.147194
0.011304,0.059961,0.834889,-0.739349,0.456942,0.494538
0.906843,-0.461989,0.297002,-0.748454,0.018227,0.662936
0.502399,-0.206047,0.356102,0.689759,0.699836,0.185640
-0.387550,0.185442,0.964060,0.602583,-0.395961,-0.692898
-0.413857,0.289301,0.421092,0.845252,0.394937,0.359964
-0.648003,0.326114,0.840896,0.469103,-0.866348,0.171416
0.584016,-0.290755,0.323303,0.485620,0.729638,0.481458
-0.169645,0.180791,0.416316,-0.565608,0.806937,-0.170116
-0.161635,0.191947,-0.557239,0.958382,-0.284921,0.017976
-0.182408,0.020786,0.914137,0.628935,0.776516,-0.038258
-0.229043,-0.106512,0.904266,0.917333,0.013928,0.397878
0.931953,-0.537721,0.341569,0.932228,-0.157735,-0.325685
-0.670972,-0.185079,0.720613,0.473366,-0.546690,-0.690691
0.573560,-0.197289,0.227771,-0.500950,-0.683957,0.530332
-0.197953,-0.175667,-0.956374,-0.106852,0.168632,0.979870
0.032856,0.329857,0.913660,0.831803,-0.341057,0.437932
-0.141669,0.697616,0.781782,-0.587851,0.760051,-0.277045
-0.128210,-0.091613,-0.957995,-0.050322,0.100279,0.993686
-0.524923,-0.151937,0.765354,-0.071944,0.900014,0.429881
-0.222369,0.059452,0.882120,-0.281102,0.784988,-0.552065
-0.483155,0.013991,0.312041,-0.565142,-0.655760,-0.500592
-0.409658,-0.119849,0.793188,-0.512986,-0.370970,-0.774097
-0.715521,-0.103205,0.788846,0.357725,0.694799,0.623929
-0.373674,-0.272767,0.795345,0.695323,0.611184,0.378127
0.043840,0.077731,0.869831,-0.645420,-0.763420,-0.024955
-0.191724,0.177774,0.301214,0.259766,-0.965206,-0.030000
-0.769497,0.012828,0.895407,0.842855,0.211400,-0.494880
-0.736795,0.343157,0.880788,0.717408,-0.680903,0.147298
-0.124790,0.673632,0.883191,0.809411,-0.222719,-0.543370
-0.160189,0.129006,-0.062038,0.010147,-0.975465,0.219921
-0.439552,-0.119086,0.564564,0.139879,0.985281,0.098262
-0.156240,0.170615,-0.653205,0.939366,0.106805,-0.325858
-0.214583,0.169562,0.479482,-0.063570,-0.968780,0.239632
-0.329903,0.882876,0.899084,0.589504,-0.749660,0.300824
-0.259437,0.200124,0.822354,0.637470,0.041682,-0.769347
0.732373,-0.829384,0.474662,-0.636369,-0.629353,-0.446037
0.680761,-0.813286,0.510371,0.132287,0.528101,0.838815
-0.710321,-0.106876,0.861132,0.881209,0.428378,-0.199909
-0.494640,-0.431936,0.688422,-0.333832,-0.881347,-0.334340
-0.248259,-0.532960,0.621188,-0.208192,0.282121,0.936517
-0.709849,0.317683,0.853590,0.182872,-0.444540,0.876893
-0.482766,-0.095828,0.512166,0.188373,0.957070,0.220300
-0.187136,0.605167,0.742050,0.538711,0.580226,-0.610842
-0.002238,0.629406,0.798095,-0.569934,0.176315,-0.802551
-0.896220,0.444654,0.906205,0.444891,0.556942,0.701347
-0.292418,0.127262,0.552144,0.593658,0.649803,0.474685
0.649004,-0.540955,0.455035,-0.279502,0.484112,0.829165
-0.413273,-0.318374,0.744337,0.954927,-0.265108,-0.133536
-0.592692,0.108838,0.932433,0.584865,0.581097,-0.565915
-0.174400,-0.255578,0.687380,-0.657771,0.680503,-0.322881
-0.330293,0.106585,0.165038,-0.954832,-0.086865,-0.284167
0.937154,-0.531943,0.329469,0.904535,0.419154,0.078265
-0.317390,-0.098917,0.398150,0.504591,-0.124898,-0.854277
-0.830314,-0.071408,0.974756,0.950780,0.201504,-0.235402
0.016115,0.161894,0.864359,-0.655756,0.726299,0.206090
-0.277485,-0.142925,-0.962873,0.168436,-0.122602,-0.978058
-0.323063,0.788357,0.786226,0.633754,0.550504,-0.543416
0.530902,-0.052293,0.347099,-0.285367,0.254897,0.923901
-0.160245,0.688313,0.942942,-0.663247,0.735341,-0.139198
-0.406515,0.709172,0.930493,0.044524,0.937706,0.344566
0.549617,-0.829021,0.510183,-0.376632,0.101310,0.920806
-0.108299,0.123701,-0.955939,0.205765,0.360997,0.909584
0.588131,-0.831129,0.477224,0.155727,-0.889661,-0.429247
-0.747000,-0.192129,0.893091,0.052463,-0.757481,0.650746
-0.226290,0.224362,0.197360,0.832713,0.547380,0.083453
-0.198342,-0.112799,0.513946,0.993513,-0.107567,-0.036899
-0.969188,0.271895,0.882554,-0.727263,-0.292432,0.620944
0.077627,-0.011156,0.726606,0.631246,0.773464,-0.057288
-0.249760,0.194309,0.821515,-0.589430,-0.035565,0.807036
-0.043173,-0.083909,0.789541,-0.451797,-0.836625,0.309739
-0.296784,0.732793,0.791697,-0.298176,0.826618,0.477277
-0.155073,-0.073189,0.924689,0.203961,0.974631,-0.092160
-0.304876,-0.120176,0.392056,-0.474445,0.034654,0.879603
-0.211023,0.180209,-0.186330,0.760217,0.567645,-0.315988
-0.547309,0.697216,0.825481,-0.678861,0.311849,0.664754
-0.238692,0.454212,0.932838,0.923562,0.362937,0.123737
-0.712768,-0.170361,0.841721,-0.372043,0.857109,0.356299
-0.608348,0.684897,0.791886,-0.612206,0.307141,0.728607
-0.163860,0.109637,-0.639310,-0.661534,0.734678,-0.150402
-0.203932,0.093866,0.133918,0.963989,-0.247279,0.097869
-0.215250,-0.070427,0.944374,-0.547809,0.810643,-0.206792
-0.601368,0.621993,0.817187,-0.390868,0.629143,0.671864
-0.210049,0.795152,0.859597,-0.725857,0.502000,0.470242
-0.431988,-0.399084,0.594627,0.266216,-0.155167,0.951342
-0.632708,0.607493,0.754078,0.799041,0.597045,0.071206
0.264554,-0.005233,0.145440,0.385265,0.528625,-0.756390
-0.418417,-0.308998,0.702448,0.808681,-0.320389,-0.493342
0.600395,-0.481685,0.191541,-0.340266,-0.249981,0.906492
-0.402094,0.490006,0.532358,-0.410954,-0.903742,0.119865
0.039196,0.123374,0.784373,0.627808,0.633838,-0.451782
-0.296756,0.239516,-0.991880,-0.145574,0.085320,0.985662
-0.428345,-0.112654,0.598260,0.223081,0.953191,0.204112
-0.150512,0.003852,0.801280,0.690129,0.711001,0.134905
-0.328430,-0.370667,0.430674,-0.666835,0.322393,0.671858
-0.395281,-0.123301,-0.973338,-0.047755,0.176830,0.983082
-0.088750,-0.122393,0.838855,-0.570941,-0.332439,-0.750673
-0.565273,-0.146886,0.625125,0.894752,-0.102084,-0.434738
-0.615828,0.389818,0.886505,0.433961,0.849667,0.299572
-0.292195,0.288538,0.440401,0.296372,-0.549717,0.781009
-0.330070,0.460644,0.883842,0.456253,0.865758,0.205660
-0.431793,0.303002,0.431948,-0.694397,-0.638993,-0.330909
0.088000,0.474816,0.636907,0.781398,-0.554153,-0.286933
0.581819,-0.318991,0.216553,0.664503,0.431099,-0.610401
-0.168782,-0.367214,0.717400,-0.277754,-0.860085,0.427909
-0.772111,-0.042627,0.654827,-0.679903,-0.438661,-0.587630
-0.369781,0.271241,0.852071,0.917633,-0.394466,0.048446
-0.182186,0.428556,0.107922,0.951751,-0.191667,0.239653
-0.368751,0.253616,0.806693,-0.332056,0.943207,0.009957
-0.189694,0.171306,0.430124,0.725651,-0.683997,0.074685
-0.142726,0.189149,-0.239886,0.857693,-0.301215,0.416693
-0.115279,0.473544,0.733727,0.633723,0.766322,0.105572
-0.095174,-0.122974,0.633448,-0.916974,0.369913,-0.149406
-0.225317,0.205720,0.258992,-0.594061,-0.801881,0.063867
0.776394,-0.646086,0.397195,0.856413,0.099960,-0.506522
-0.113611,-0.406207,0.649124,0.976908,-0.141104,0.160440
-0.265444,0.033033,-0.973642,-0.195185,0.168588,0.966168
-0.364720,-0.063304,-0.974510,0.122741,-0.189584,-0.974162
-0.606485,0.381932,0.608146,-0.157563,-0.982675,-0.097589
-0.171063,0.137692,0.899981,-0.690046,0.586331,0.424326
-0.354319,0.019660,-0.978331,-0.125837,0.187789,0.974115
-0.241307,0.178574,0.492321,0.265821,0.799386,0.538815
0.059718,-0.053492,0.686005,0.353818,0.792579,0.496621
-0.329570,0.638673,0.719585,0.997332,-0.020862,0.069948
-0.232297,0.090304,-0.968098,0.751653,-0.270020,-0.601753
-0.807677,-0.171379,0.890023,-0.358853,-0.855162,0.374063
0.517053,-0.530417,0.449346,-0.871728,0.240950,-0.426653
-0.065502,0.779562,0.815725,-0.304543,-0.180706,0.935200
0.650227,-0.634894,0.177646,0.062311,0.756275,0.651280
-0.713602,0.311214,0.912125,-0.372951,0.902597,-0.215002
-0.450314,-0.013846,0.303776,0.736829,0.547609,0.396495
-0.685294,0.309288,0.867660,0.098088,0.938396,0.331349
-0.432127,-0.129006,0.417257,0.904217,0.376777,-0.201074
-0.853839,-0.020169,0.939106,0.873169,0.370507,0.316703
-0.111886,0.284359,0.608320,0.048068,-0.584300,0.810113
-0.043561,0.265353,0.470016,-0.830285,-0.087941,0.550357
0.051488,0.205175,0.855371,-0.042192,-0.597468,0.800782
-0.137721,0.619885,0.870960,0.057090,-0.917788,0.392945
-0.529400,0.498764,0.779698,-0.675555,0.705433,0.214452
-0.600506,-0.193037,0.738344,-0.380358,-0.047366,0.923626
-0.698475,0.290682,0.930030,-0.286184,-0.830031,0.478693
-0.349925,-0.301330,0.568240,-0.032139,0.835595,0.548405
-0.412160,0.091068,0.707369,0.200971,0.963694,-0.175795
-0.129406,0.137510,-0.744395,-0.529976,0.760195,0.375804
-0.901948,0.472636,0.825162,-0.420742,-0.897033,-0.135309
0.885625,-0.851079,0.337560,0.048529,0.157447,0.986334
-0.274064,0.725961,0.831227,0.424738,0.905316,-0.000648
-0.532904,0.308852,0.812685,0.995922,0.066433,-0.061047
-0.445002,0.524965,0.570295,0.594488,-0.551215,0.585445
0.029824,0.653100,0.773069,0.998017,-0.061572,-0.013058
-0.057521,0.278872,0.867558,-0.506827,0.322502,-0.799449
-0.266695,0.145468,0.516306,0.774225,0.467129,0.427044
-0.419585,-0.209972,0.821037,0.956279,0.259436,0.134994
-0.221729,0.029835,0.891789,-0.625793,-0.732919,-0.266857
-0.544222,0.484156,0.921621,0.541826,-0.393267,0.742809
-0.061999,-0.361436,0.705010,0.805979,-0.027517,0.591304
-0.173287,0.172178,0.180960,-0.140137,-0.981098,0.133445
-0.054185,0.459663,0.692098,0.517708,0.680517,-0.518532
-0.573560,-0.035540,0.483072,0.516392,0.842268,0.154672
-0.428290,0.283015,0.690825,0.369564,0.928761,0.028748
-0.238804,0.185406,-0.982645,-0.199993,0.129531,0.971197
0.341222,-0.016934,0.220968,0.755168,0.054957,-0.653223
-0.799864,-0.064140,0.912342,-0.253003,-0.951339,0.175907
-0.028768,0.053783,-0.957271,-0.060274,0.054779,0.996678
-0.260578,-0.323316,0.602878,0.286433,0.320289,0.902979
0.570251,-0.860019,0.507245,0.344534,-0.471701,0.811662
-0.509295,0.311868,0.678941,0.985026,-0.051327,0.164586
0.374425,-0.040083,0.250944,0.580810,0.279749,-0.764461
0.002878,0.140235,0.867877,0.204198,-0.976912,0.062820
-0.166141,0.275529,0.833427,0.227441,0.688882,0.688268
-0.249705,0.362127,0.607104,0.795975,0.208201,0.568398
-0.866270,0.361291,0.868282,0.421512,0.714708,-0.558139
-0.477732,-0.350462,0.654045,0.339376,-0.248652,-0.907192
-0.322284,0.642997,0.687597,0.823990,0.518134,-0.229299
-0.361132,0.743549,0.731223,0.955301,0.294101,-0.030078
-0.812350,0.327858,0.912386,0.856738,-0.462793,0.227645
-0.472309,0.314122,0.619234,-0.409419,-0.873238,-0.264255
-0.063945,0.136965,0.844775,0.196335,-0.578635,0.791602
-0.566162,-0.184061,0.729472,-0.318496,0.624994,-0.712700
0.015531,0.364016,0.558644,0.609464,0.681317,-0.405414
-0.357739,0.820517,0.779220,-0.346374,-0.876077,0.335430
-0.581958,0.445018,0.814162,0.934019,-0.272773,0.230657
-0.281656,0.741587,0.789353,-0.114075,0.761970,0.637487
-0.088361,-0.256160,0.617280,0.109592,0.982546,0.150312
-0.584906,0.011847,0.451199,0.633150,0.658798,0.406333
-0.187997,0.372847,0.598926,-0.807361,-0.355211,0.471162
-0.128099,0.568646,0.833051,0.803866,0.530899,-0.268226
-0.257491,-0.041718,0.896580,0.570439,0.821131,-0.018538
-0.215751,0.156479,-0.048895,-0.027242,0.615932,0.787328
-0.899724,-0.161676,0.929220,0.877437,-0.437318,-0.197122
-0.173899,-0.320736,0.653698,-0.090145,0.715771,0.692493
-0.207936,0.006141,0.847106,0.923488,-0.382317,0.031682
-0.423200,-0.358057,0.733713,0.767134,-0.558700,0.315213
-0.634988,-0.012574,0.909433,-0.249272,0.937763,0.241793
-0.737934,0.017879,0.956591,0.485749,0.861259,-0.149269
-0.127320,0.150411,0.650383,-0.348900,0.853787,0.386414
-0.444779,-0.007922,0.660037,-0.150377,-0.081769,0.985241
-0.220450,0.021113,0.947762,0.388501,0.692027,-0.608413
-0.078545,-0.256886,0.603297,0.521035,-0.146969,-0.840787
-0.823974,0.409477,0.754208,0.755107,0.268773,0.597976
-0.271200,0.075078,0.848915,0.756732,0.132070,0.640245
-0.056938,0.264227,0.464067,-0.762713,-0.153487,0.628260
-0.321255,0.435424,0.873290,-0.003307,0.541007,0.841012
-0.220339,0.228141,0.213499,-0.510614,-0.824708,-0.243166
0.836488,-0.639945,0.267836,0.238172,0.039834,0.970406
-0.530345,-0.027836,0.361370,-0.093784,-0.993369,0.066508
-0.704870,-0.089869,0.925529,0.692447,0.313348,0.649869
-0.282769,0.356893,0.669417,0.439154,0.742921,-0.505186
-0.258520,0.712951,0.855979,-0.588286,0.047021,0.807285
-0.826838,0.058798,0.970646,-0.577427,0.795464,0.183890
-0.569444,0.734210,0.684224,-0.753846,0.047867,-0.655306
-0.253347,-0.213642,0.628078,0.706794,-0.077221,0.703192
-0.186858,0.145069,-0.123004,0.469969,-0.862577,0.187324
-0.380320,0.232611,0.846049,0.899559,-0.436673,0.010497
-0.262079,-0.206883,0.606337,0.798093,-0.184008,0.573750
-0.667914,0.012719,0.538785,0.763111,0.479778,0.432983
-0.169394,-0.274402,0.551305,0.427655,-0.442598,-0.788174
-0.253236,0.816629,0.827421,-0.698288,0.691925,0.183392
-0.184188,-0.295806,0.579081,0.535774,-0.654405,-0.533572
-0.088611,0.599826,0.884725,0.875504,0.471618,0.105208
-0.356794,-0.155062,0.762705,-0.066148,-0.650613,0.756523
-0.236579,0.042009,0.871235,-0.231456,-0.893340,0.385190
0.795248,-0.429465,0.268690,0.731297,0.019744,-0.681773
-0.410186,-0.260593,0.735174,0.937125,0.190951,-0.292122
-0.340331,0.263427,0.370562,0.628140,-0.723952,0.285190
0.075541,0.014754,0.671168,0.483874,0.421704,0.766832
-0.555707,0.157242,0.913761,-0.173206,0.489451,0.854656
-0.207185,0.046588,0.809414,0.570242,0.761032,0.309281
-0.168615,0.008903,-0.941812,0.093010,0.800862,-0.591583
-0.387355,-0.153681,0.653205,0.277479,-0.925866,-0.256473
-0.322312,0.635039,0.688263,0.823990,0.518134,-0.229299
-0.795609,0.048550,0.788006,0.401277,-0.197347,0.894445
-0.323257,0.424704,0.829896,-0.391834,0.672792,-0.627548
0.103850,0.702122,0.670734,0.331601,0.198693,0.922259
0.848000,-0.650629,0.286465,0.991669,-0.121863,-0.041747
0.088167,0.682390,0.842995,0.546825,-0.837246,-0.001456
-0.249760,0.169235,-0.982370,-0.219699,0.145306,0.964686
-0.256684,0.087688,0.899735,-0.655637,0.634087,-0.409969
-0.378207,0.839523,0.799065,-0.587060,0.108576,-0.802229
-0.174205,0.110509,0.782593,-0.370070,0.882279,0.290915
-0.321700,0.869358,0.810630,-0.699184,0.714854,-0.011185
-0.171786,0.333164,0.825626,0.307407,0.812144,0.495905
-0.208520,0.280471,0.493219,0.934361,-0.270490,0.231958
-0.182408,0.192310,-0.974221,-0.224509,0.398337,0.889339
0.128322,0.657715,0.681908,0.873628,0.341595,-0.346536
-0.270450,-0.156916,-0.961107,-0.143152,0.109860,0.983584
-0.464162,0.098408,0.668751,-0.338930,-0.668356,-0.662138
0.432321,-0.214005,0.217856,-0.523040,-0.241023,0.817519
0.396700,-0.133476,0.319250,-0.165392,0.804205,0.570876
-0.274148,0.344756,0.888807,-0.607310,-0.782353,0.138198
-0.866381,-0.128716,0.891325,-0.344920,0.927088,0.146758
-0.352094,0.270005,0.376149,-0.701130,0.397809,-0.591747
-0.949417,0.361618,0.906220,-0.774834,0.582183,0.246362
-0.201235,0.193364,0.348864,0.985918,0.144681,-0.083867
-0.538772,0.279054,0.748795,-0.595793,-0.669432,-0.443725
-0.159661,0.176575,-0.601126,0.982212,-0.117160,-0.146740
-0.263163,0.215495,0.281399,0.818931,0.551906,0.157324
-0.694721,0.030962,0.916887,0.550346,0.502593,0.666723
-0.749614,-0.047242,0.852867,0.560194,-0.750959,0.349633
-0.395837,-0.204303,0.730702,0.428295,0.857654,0.284594
-0.356266,0.267207,0.924979,0.194519,-0.978479,0.068852
-0.048956,-0.123047,0.776818,0.971424,-0.088295,0.220318
-0.417416,-0.132168,0.413638,0.904217,0.376777,-0.201074
-0.007160,0.416891,0.728111,0.782028,0.366369,-0.504189
-0.316083,0.599826,0.690304,0.748930,0.499138,-0.435850
-0.447533,-0.088669,0.677045,0.897558,0.254763,0.359842
0.585657,-0.376335,0.198880,0.436287,0.799748,-0.412379
-0.503705,-0.267643,0.657548,0.580554,-0.268485,-0.768683
-0.317418,0.722218,0.707137,0.765632,0.518517,-0.380719
-0.171146,0.627698,0.914933,-0.291062,0.779482,-0.554699
0.102710,0.129588,0.865503,0.769632,-0.295190,-0.566154
-0.204822,-0.100880,0.552752,0.945689,0.116515,0.303473
-0.295255,0.261320,-0.991185,-0.094946,0.139773,0.985621
-0.690827,-0.329675,0.836916,0.511139,-0.857557,0.057729
-0.322813,0.596264,0.765166,-0.219622,-0.139496,-0.965560
-0.198843,0.168181,0.837625,0.694725,-0.147389,-0.704013
-0.846526,0.369067,0.803726,-0.652668,0.115272,-0.748823
-0.201457,0.303510,0.867124,0.899743,-0.156836,-0.407264
-0.873249,0.394942,0.784026,0.820426,-0.067273,0.567781
-0.333463,0.626281,0.716329,0.909223,0.296936,0.291792
-0.776282,0.266735,0.898317,0.840907,0.537590,-0.062229
0.543861,-0.805364,0.472853,0.725158,0.052591,0.686571
-0.638131,-0.231448,0.872899,0.791421,0.606356,0.077359
-0.731761,-0.009739,0.910345,-0.015958,-0.513636,0.857860
-0.173927,-0.195908,0.543214,0.890460,-0.096346,-0.444745
-0.873639,-0.098990,0.890139,-0.369149,0.918282,0.143135
-0.329848,0.070645,0.655377,-0.498147,0.588528,-0.636776
-0.021121,0.346937,0.810341,-0.689891,-0.654029,-0.310316
-0.137971,0.708518,0.801974,0.848651,-0.520667,-0.093258
-0.161803,0.327458,0.644955,0.867026,0.275182,-0.415379
-0.203097,-0.027655,0.479540,0.987090,-0.067340,-0.145325
-0.616384,-0.091976,0.701362,-0.798324,-0.127386,-0.588602
-0.220366,0.527255,0.902297,0.875476,-0.206974,0.436696
-0.016031,0.269278,0.501324,-0.768749,-0.371346,0.520698
-0.790103,0.344683,0.727662,-0.617418,0.018851,-0.786409
-0.131742,0.717421,0.804884,-0.775580,0.625409,0.085669
-0.361938,0.134421,0.637978,0.379253,0.306553,-0.873037
-0.416276,0.515117,0.541404,-0.612764,-0.790137,-0.014247
0.068506,0.732684,0.687988,-0.278938,0.307067,-0.909892
0.623198,-0.791809,0.497662,-0.279272,0.085913,-0.956361
-0.567581,-0.016644,0.854111,0.209140,-0.493569,0.844186
-0.127682,-0.019006,0.805550,0.876399,0.478208,0.056935
-0.386188,-0.455629,0.653813,-0.019578,0.735974,0.676726
-0.177959,-0.347918,0.781739,0.917161,-0.373838,-0.138059
-0.136580,0.150011,0.548772,-0.407356,-0.654696,0.636737
-0.575117,-0.131732,0.617468,0.867261,-0.069983,-0.492911
-0.177931,0.378152,0.629945,0.957809,-0.125245,-0.258681
-0.303708,-0.571698,0.496172,-0.177469,-0.268959,0.946660
-0.778368,-0.119013,0.802336,-0.531916,0.552500,-0.641723
-0.297423,0.043535,0.141720,0.928226,0.231543,0.291178
-0.099373,0.149320,0.544647,0.079011,0.204539,0.975664
-0.886681,-0.135911,0.896855,-0.403173,0.913874,0.047820
-0.230600,-0.351261,0.587954,0.312832,0.432857,0.845441
-0.396616,0.208990,0.903802,0.244026,0.753920,0.609964
-0.597836,0.396940,0.834860,0.877494,0.260396,0.402738
-0.516637,0.050040,0.833949,0.846879,-0.374933,-0.377123
-0.125151,-0.052002,0.822572,0.591306,0.651688,0.475037
-0.204460,0.601243,0.910171,0.923706,-0.351548,0.152250
0.437661,-0.229704,0.220374,-0.359220,-0.204169,0.910646
-0.548087,0.337379,0.771592,0.957907,0.218769,0.185888
0.039753,0.076713,0.887649,0.835415,-0.549284,0.019193
0.660683,-0.406061,0.206710,0.285273,0.260809,-0.922278
-0.324175,0.032778,0.652670,-0.196676,-0.323838,0.925444
-0.371005,0.280907,0.384153,-0.580252,-0.342624,-0.738862
-0.379680,-0.201505,0.732511,0.276195,0.655494,0.702883
-0.608598,-0.237735,0.832964,-0.148712,-0.957877,0.245676
-0.618915,-0.154917,0.747955,0.734134,0.098910,-0.671762
-0.505429,0.439821,0.934127,0.098266,0.743215,0.661797
-0.711016,-0.270877,0.804753,0.530573,0.471979,0.704080
-0.660655,-0.062795,0.667839,-0.117904,-0.988176,-0.098013
-0.660488,0.125154,0.962583,-0.739410,0.593107,-0.318586
0.713325,-0.529835,0.202961,-0.433922,-0.571795,0.696249
-0.171647,0.242641,0.559338,-0.741895,-0.572128,0.349658
-0.054100,0.553092,0.869006,0.084549,-0.865734,0.493311
-0.232658,0.426194,0.875172,0.887458,0.252439,-0.385607
-0.416443,-0.157461,0.762459,0.912693,-0.086293,-0.399432
-0.654509,0.130642,0.834904,-0.617979,0.785817,0.024378
-0.197092,0.594338,0.940756,0.582856,-0.015891,-0.812420
-0.361132,-0.183843,0.381476,-0.423265,0.358536,0.832045
-0.761933,0.020823,0.779365,-0.301753,-0.789893,0.533867
-0.669221,-0.280035,0.822195,-0.701104,0.438687,0.562144
-0.877838,-0.131369,0.876388,0.174934,-0.973061,0.150170
-0.540079,0.363362,0.936920,0.177670,0.001777,0.984089
-0.220728,0.009993,0.712406,-0.227570,-0.182999,-0.956412
-0.847610,0.051203,0.897998,-0.354595,-0.571400,0.740111
-0.004324,0.103023,0.013476,-0.456633,-0.596578,0.659985
-0.949778,0.478160,0.847555,-0.646716,-0.750370,-0.136761
-0.814352,0.030162,0.800918,0.540126,0.428902,0.724090
-0.187747,0.546806,0.720179,0.567164,0.473411,-0.673949
-0.090892,0.036703,0.743946,0.893091,0.449871,0.002318
-0.975779,0.265208,0.884378,-0.727263,-0.292432,0.620944
-0.044952,0.372411,0.823107,0.636739,0.715174,0.288252
0.033356,0.076895,0.842098,0.249391,0.785363,0.566576
-0.243642,0.198452,0.406155,0.721526,0.691464,-0.035750
-0.556625,0.177993,0.906553,-0.163181,0.120234,0.979242
-0.695666,0.271241,0.904034,0.948819,0.239141,0.206287
-0.455319,0.300240,0.457510,-0.696701,-0.710021,-0.102367
-0.655650,0.385929,0.654378,0.762940,0.561315,0.320701
-0.319559,0.032342,0.789743,0.547182,0.830961,0.100481
-0.397088,0.278109,0.750300,0.890937,0.363268,-0.272522
-0.353651,-0.248383,0.394995,0.076901,0.679130,0.729979
0.176263,0.008540,0.147351,-0.473474,0.602114,0.642870
-0.225900,0.516716,0.683529,0.305711,0.747186,-0.590130
-0.156908,0.174359,-0.047418,0.812603,-0.071125,0.578462
-0.694582,-0.033324,0.897347,-0.278494,-0.458164,0.844113
-0.294309,0.106403,0.107575,-0.682951,0.435679,-0.586313
-0.780648,0.227596,0.912009,-0.170291,0.916114,0.362955
-0.048901,0.477651,0.708686,-0.844908,-0.289220,0.449980
-0.506097,0.314303,0.698178,0.915397,-0.222350,0.335572
-0.065391,0.056908,-0.954579,0.055606,0.118845,0.991355
-0.344281,0.019660,0.642639,-0.480247,-0.110604,0.870132
-0.200011,-0.063050,0.873001,0.343754,0.472597,0.811471
0.529206,-0.723781,0.490859,0.132838,-0.604356,0.785562
0.601619,-0.695363,0.430530,0.983457,-0.110395,0.143613
-0.276845,0.242060,0.927309,0.422752,-0.906178,-0.011067
-0.097760,0.166291,0.635995,0.394977,-0.834398,-0.384413
-0.729786,0.071844,0.846353,-0.726735,0.648831,-0.225555
0.010998,0.024384,0.830576,-0.527876,-0.145679,-0.836735
-0.353736,0.158333,0.774386,0.911357,0.228405,-0.342432
-0.155573,0.624900,0.752399,0.367385,0.561992,-0.741076
-0.120396,0.623919,0.863100,0.442821,0.831361,-0.335781
-0.317028,-0.472382,0.494695,-0.561904,-0.707646,0.428370
-0.299036,0.562977,0.746190,0.352170,0.441525,0.825247
-0.552342,0.233810,0.765412,0.849273,0.173014,0.498800
0.548088,-0.913366,0.515379,-0.745205,0.423209,-0.515329
-0.789046,0.033760,0.892223,-0.547499,-0.672912,-0.497429
0.030408,0.091068,0.845137,0.340386,0.908240,-0.243386
-0.208492,0.281125,0.847019,0.796883,-0.594251,-0.108827
-0.350454,-0.111927,-0.970863,-0.094685,0.125449,0.987571
-0.197870,0.215459,-0.161535,-0.668949,0.592341,0.449043
-0.813684,-0.076968,0.686613,-0.725826,0.591995,-0.350313
-0.812044,0.010757,0.956794,-0.591585,0.591728,-0.547619
-0.176179,0.064648,0.601720,0.214889,-0.779238,0.588736
-0.159522,0.280761,-0.981863,-0.160418,0.174554,0.971492
0.529818,-0.229813,0.358389,0.700273,0.710970,0.064339
-0.766605,0.295915,0.881193,-0.526094,-0.265951,-0.807772
-0.176735,0.178683,0.428141,-0.633673,0.742413,-0.217441
0.089195,0.046370,0.801091,-0.618851,0.379980,0.687487
-0.199510,-0.009412,0.721380,-0.394962,0.586231,0.707346
-0.209494,0.199724,0.267402,0.479763,0.877369,0.007117
-0.132492,0.711898,0.971963,0.571075,-0.794982,-0.204639
-0.457266,0.132968,0.657953,-0.482641,-0.650522,-0.586412
-0.555651,0.314558,0.806707,-0.750547,-0.588901,-0.299793
0.047844,0.172905,0.840983,0.504993,0.547479,-0.667270
-0.330015,-0.477942,0.494927,0.957235,0.267633,-0.109880
-0.044007,0.171996,0.692677,0.242558,-0.958757,-0.148160
-0.169033,-0.278799,0.615514,0.945276,0.244506,0.216034
0.096537,-0.065594,0.788006,0.884180,-0.099055,-0.456524
-0.283353,0.096591,-0.980344,-0.179239,0.251740,0.951052
0.042867,0.396141,0.617830,-0.695631,0.686935,-0.210279
-0.423923,-0.166255,0.672775,-0.242853,0.947562,0.207722
-0.086469,0.020350,0.707572,0.969352,0.180240,-0.166941
-0.606568,-0.089614,0.706819,-0.715351,0.463562,-0.522861
-0.107743,0.406824,0.696354,-0.405151,0.649170,-0.643763
-0.877310,0.371829,0.789092,0.819160,-0.090883,0.566319
-0.254960,0.435933,0.833355,-0.610048,0.665011,0.430815
-0.241974,0.225416,0.864229,0.767527,-0.313135,0.559329
-0.184967,-0.099680,0.505088,0.996989,-0.077185,-0.007392
-0.622502,-0.100589,0.695326,0.424604,0.872195,0.242873
-0.207324,0.186278,-0.483941,-0.493241,0.779080,-0.386971
-0.316027,0.639036,0.686873,0.811566,0.179733,-0.555928
-0.153905,0.163638,-0.173795,0.990371,0.131567,-0.043082
-0.505708,0.382586,0.928467,0.561041,-0.000159,0.827788
-0.432905,0.064976,0.678709,0.285886,0.900077,-0.328832
-0.396282,0.794716,0.797444,0.788714,0.219113,0.574386
-0.253625,0.181517,0.493610,0.033888,0.929578,0.367064
-0.183299,-0.031180,0.893439,0.376908,0.656372,0.653541
-0.109523,0.178501,0.425261,0.430405,-0.008275,-0.902598
-0.137609,-0.324261,0.580804,0.875828,-0.006659,-0.482578
-0.205906,0.130569,0.015864,0.843841,0.535254,-0.037893
-0.839268,-0.121375,0.835049,0.410709,-0.893294,0.182605
-0.493583,0.312196,0.640656,-0.395042,-0.918401,-0.021943
-0.065836,-0.375282,0.651816,-0.645328,-0.531696,-0.548499
-0.748085,-0.138927,0.949831,-0.765141,0.497440,-0.408794
-0.333324,-0.207174,0.671834,-0.630028,0.122416,-0.766863
-0.842299,-0.128461,0.922257,0.235191,-0.965058,0.115531
-0.253569,0.045425,0.885319,-0.579491,0.798740,0.161878
-0.041309,0.472709,0.701724,-0.836392,-0.333964,0.434645
-0.572142,0.174758,0.796156,-0.592296,-0.400536,-0.699111
-0.333741,-0.269097,0.401479,-0.372926,0.519493,0.768800
0.053322,0.751217,0.843574,-0.769980,0.082092,-0.632765
-0.315638,-0.501345,0.479468,0.878499,0.453565,-0.150059
-0.725337,0.380405,0.704590,0.383881,-0.759028,0.525844
-0.534183,-0.016462,0.395270,0.987191,0.081030,0.137431
-0.718997,-0.030816,0.979244,0.997729,-0.046343,-0.048877
-0.401732,0.173268,0.913674,0.825249,0.504678,-0.253504
-0.016893,0.171233,0.791697,-0.539142,0.841383,-0.037428
-0.883622,0.204630,0.890515,0.053389,-0.906100,0.419682
-0.377845,0.340504,0.932882,-0.722369,0.519268,-0.456665
-0.323591,0.090014,0.596277,-0.439978,-0.664600,-0.603926
-0.655288,0.285050,0.926180,0.423326,0.905507,-0.029179
0.608153,-0.396613,0.395342,0.846844,-0.147518,-0.510974
-0.181824,0.016752,0.809371,0.332664,0.940867,0.064061
-0.273341,0.146886,0.636386,-0.268567,0.309844,0.912068
0.771165,-0.585326,0.405011,0.983453,0.092474,-0.155782
0.332990,-0.177811,0.181583,-0.710918,-0.654512,0.257313
-0.050375,0.394833,0.798833,0.618978,0.742063,0.257310
-0.163415,0.053674,-0.903831,0.949986,-0.163387,0.266142
-0.605623,0.194454,0.989303,0.967175,-0.065328,-0.245570
-0.267474,0.206883,0.268589,-0.437273,-0.898572,0.036891
-0.072343,0.095864,-0.962366,-0.178395,-0.207693,-0.961789
-0.572920,-0.187550,0.765064,-0.706473,0.221719,0.672113
-0.233409,0.149611,0.287073,0.596522,0.784068,-0.171464
-0.110663,0.169307,-0.970675,0.028323,0.411648,0.910903
-0.097454,0.119849,-0.957445,0.229729,0.250384,0.940496
0.017756,0.787775,0.885174,0.838567,-0.337740,-0.427476
-0.304570,0.396649,0.941668,-0.595605,-0.049084,0.801777
-0.527009,0.412784,0.932925,0.347401,-0.817005,0.460234
-0.267223,0.224362,0.916308,0.360898,-0.883025,0.300033
-0.424479,-0.287630,0.703403,0.854107,-0.270419,-0.444269
-0.041866,0.219929,0.891832,0.855534,0.297507,-0.423734
0.146091,0.254851,0.648660,-0.977469,0.090663,-0.190616
-0.676423,-0.200959,0.858613,0.682973,0.452431,0.573458
-0.744581,-0.058471,0.958748,0.933206,-0.186626,-0.307078
0.588104,-0.220692,0.251335,0.625943,0.779662,-0.017942
-0.629037,0.745439,0.744120,0.898640,0.294717,-0.324943
-0.004825,0.206919,-0.971065,-0.036117,0.075306,0.996506
-0.197731,0.004906,-0.963177,-0.542395,-0.400375,0.738585
-0.320282,-0.056763,0.622288,0.733145,0.679929,0.013957
-0.380042,-0.274366,0.793507,0.695323,0.611184,0.378127
-0.943521,0.494949,0.880614,0.270910,0.925896,0.263294
-0.298675,0.110255,0.830981,-0.608000,0.698202,0.377955
-0.276956,0.229159,0.309668,-0.266989,0.949083,-0.167205
-0.175846,0.178538,-0.747651,-0.359346,0.862254,0.356915
-0.379791,-0.283160,0.789888,0.811982,0.570091,0.125225
-0.605984,0.184352,0.969242,0.918221,-0.154998,-0.364479
-0.189304,0.079584,0.461795,0.880151,0.028639,-0.473829
-0.194644,0.215059,-0.109688,0.612302,-0.651673,0.447671
-0.703535,-0.221164,0.869020,-0.119725,0.539107,0.833684
-0.515134,0.329094,0.977840,0.965649,0.134589,0.222277
-0.426927,0.047169,0.696817,0.930653,-0.364993,-0.025781
-0.468973,-0.090704,0.547990,0.769250,0.604368,-0.207349
-0.783540,-0.139691,0.857035,0.116951,0.664470,0.738107
0.114640,-0.003234,0.827449,-0.396816,0.691136,0.604043
0.332212,-0.153500,0.235963,0.444072,0.589918,-0.674386
-0.455096,-0.108256,0.556472,0.419324,0.906886,-0.041537
-0.306906,0.173050,0.544705,-0.608496,-0.607799,-0.510209
-0.437076,-0.121157,0.794187,0.295388,0.452803,0.841258
-0.276873,0.244131,0.320798,0.926680,-0.235019,0.293307
-0.121564,0.595283,0.918668,-0.620786,0.163524,-0.766736
0.749448,-0.556254,0.292240,-0.515894,-0.274487,0.811487
-0.136664,0.143869,-0.076787,0.210167,-0.963981,-0.163004
-0.442166,0.002544,0.305919,0.372751,0.871204,0.319468
0.708681,-0.502108,0.198851,-0.440086,-0.599109,0.668874
-0.142809,0.580129,0.829244,0.894874,0.379145,-0.235478
-0.197759,0.108947,-0.663916,0.376177,0.917108,0.131922
0.045203,0.657824,0.845354,0.924851,-0.343908,0.162410
-0.452232,0.037212,0.173651,-0.275523,0.929921,0.243584
-0.377400,0.265681,0.844023,0.922263,-0.385887,-0.022860
-0.160384,0.148230,0.061908,-0.276266,0.957913,-0.077972
-0.706928,-0.108438,0.866010,0.562339,0.823175,0.078471
0.178738,0.905080,0.679867,-0.588622,0.556148,-0.586706
0.064919,0.012574,0.724333,0.628839,0.668192,-0.397595
-0.199177,0.143869,-0.872856,0.897289,-0.342205,0.278868
-0.292613,0.100988,-0.012926,0.078547,-0.990977,-0.108607
-0.508989,0.325242,0.699987,0.921696,-0.221885,0.318187
-0.024541,0.037721,0.700030,0.631212,0.616914,0.470094
0.144006,0.654844,0.663482,0.570508,0.043781,-0.820124
-0.204711,0.174722,-0.972802,-0.350233,0.370815,0.860136
0.564578,-0.453776,0.413566,0.820345,-0.105486,0.562056
-0.149372,0.122574,-0.193814,0.676381,0.736368,0.016444
-0.112999,0.170252,0.643681,0.433105,-0.853998,-0.288284
0.519390,-0.104840,0.262611,0.532479,0.824427,-0.191796
-0.330933,0.870884,0.862869,0.232370,-0.856434,0.461005
-0.584043,-0.049204,0.781869,-0.089155,-0.308716,0.946967
-0.534573,-0.242714,0.642596,0.259797,0.689620,0.675966
-0.716801,0.004688,0.939641,-0.348505,-0.930023,-0.116623
0.623838,-0.833527,0.495983,-0.504476,0.861373,-0.059506
-0.701200,-0.043281,0.741095,-0.150200,-0.988098,0.033213
-0.634960,-0.057744,0.576244,0.610981,-0.784325,0.107411
0.894969,-0.391744,0.288014,-0.268661,0.286100,0.919765
-0.143143,0.235482,-0.249367,0.488606,0.866267,0.104147
-0.339163,0.268624,0.900068,0.785352,0.434157,-0.441281
0.103016,-0.005669,0.860582,-0.706200,-0.023604,-0.707619
-0.354180,0.136202,0.759723,0.778049,0.273520,-0.565532
-0.655733,-0.162512,0.727995,0.700396,-0.394903,-0.594557
-0.419363,-0.191511,0.670633,0.938705,-0.134534,-0.317385
-0.149789,0.532342,0.906784,-0.517798,0.714593,0.470365
-0.085330,-0.100843,0.594222,-0.135734,0.923174,-0.359619
-0.444557,0.140454,0.649471,0.286856,0.820808,0.493952
-0.521085,0.297769,0.709149,0.974784,-0.061317,0.214559
-0.249398,-0.416891,0.732584,-0.689195,0.704373,0.169905
-0.611129,0.499419,0.915527,0.804127,0.491575,-0.334266
-0.233381,0.126317,0.069072,0.831134,-0.056238,0.553221
-0.821526,-0.117705,0.927570,0.993027,-0.108805,-0.045383
-0.324508,0.376626,0.850710,-0.700674,0.704300,0.114094
-0.164972,0.314667,-0.985627,0.151059,-0.189656,-0.970161
0.484685,-0.602515,0.500167,0.893249,-0.439831,-0.093038
0.983760,-0.620139,0.364222,0.982606,0.016444,-0.184975
-0.845748,0.127226,0.919710,-0.463265,-0.055750,-0.884465
0.735098,-0.782215,0.476689,0.378086,0.166805,0.910619
-0.072788,0.312232,-0.979576,-0.018303,0.243062,0.969838
-0.518055,-0.427829,0.687886,0.360915,0.850998,0.381501
-0.758707,-0.047678,0.942507,0.453486,0.863083,-0.222348
-0.195951,-0.024420,0.474851,0.987090,-0.067340,-0.145325
-0.156713,-0.100007,0.889574,0.258705,-0.729151,0.633570
-0.346839,0.263355,0.366842,0.778143,-0.464155,0.423148
-0.230433,0.135111,0.066901,-0.644301,0.276838,-0.712907
0.096119,0.710517,0.835772,-0.635859,-0.687764,0.350235
0.060775,0.702158,0.688263,0.350566,-0.053833,0.934990
-0.221062,-0.373683,0.679752,-0.578565,0.778737,0.242549
-0.527982,-0.000363,0.352223,0.887372,0.191923,0.419210
-0.249093,-0.078821,0.916120,0.950417,0.287825,-0.117747
-0.140140,0.190639,-0.966665,-0.119958,0.246123,0.961787
-1.000000,0.271204,0.893048,0.894246,0.184317,-0.407863
-0.141864,0.671415,0.794549,0.842079,-0.501741,-0.197886
-0.174844,0.194818,0.059809,-0.325982,0.830707,-0.451289
-0.663353,0.601788,0.916772,0.984774,0.156945,-0.074761
-0.828757,0.383640,0.888879,0.617724,0.594098,-0.515232
0.626813,-0.525874,0.372357,0.631417,0.376790,0.677748
-0.410075,0.762701,0.844833,0.988131,-0.153405,0.007959
-0.460936,0.319609,0.565316,0.733416,0.675290,-0.077997
-0.510602,-0.052402,0.480597,0.381937,0.919445,0.093515
-0.227958,0.679773,0.849045,-0.705819,-0.078701,-0.704007
-0.315138,0.278036,0.351730,-0.451676,0.627413,-0.634304
-0.089418,0.177520,0.638268,-0.568663,0.734257,0.370794
0.055380,0.273893,0.882554,0.940901,0.061005,0.333142
-0.169478,0.160840,-0.287478,0.709125,-0.664002,0.237157
-0.148343,0.022240,0.799789,0.644326,0.745930,0.168619
0.002600,0.687078,0.825872,0.884837,0.371341,0.281369
-0.617803,0.134930,0.946676,0.493130,-0.703802,0.511356
-0.566107,0.327676,0.802047,-0.663424,-0.672466,-0.328113
-0.158494,0.963878,0.761692,-0.559472,0.503037,0.658745
0.656985,-0.502253,0.179469,0.189757,0.533409,-0.824298
0.503399,-0.216367,0.383270,0.611335,0.754534,0.238639
-0.622892,0.007122,0.926441,0.750653,-0.652381,-0.104499
-0.116781,0.543063,0.849161,0.981178,0.147881,-0.124178
-0.171507,0.072716,-0.858772,0.672650,-0.673335,0.306858
-0.471031,0.304273,0.611302,-0.417096,-0.908540,0.024187
-0.097593,-0.105458,0.812063,0.792388,-0.535018,0.293047
-0.162497,0.286830,0.690086,-0.468954,0.656818,-0.590485
-0.775643,0.042590,0.942869,0.362930,0.726098,-0.584007
-0.849835,0.037466,0.911069,0.968264,0.249698,-0.010794
-0.037778,-0.095247,0.732714,-0.224467,-0.180246,0.957667
-0.167086,0.148157,-0.179585,-0.574898,-0.667493,0.473228
-0.429318,0.745439,0.881338,-0.783900,0.497522,0.371446
-0.305377,0.881532,0.857108,0.072206,-0.857214,0.509872
-0.677868,0.109892,0.830605,0.293703,-0.874777,-0.385363
-0.945468,0.490006,0.853996,-0.375021,0.872829,0.312295
-0.670694,0.302202,0.849393,-0.095212,0.970308,0.222346
-0.724781,0.008067,0.950541,0.933769,0.144140,0.327566
-0.345477,0.562541,0.726287,0.574112,-0.476371,-0.665932
0.497921,-0.136892,0.242144,-0.091196,-0.456348,0.885116
-0.501981,-0.020387,0.927121,0.206211,0.964500,-0.164975
-0.422867,-0.069046,-0.975596,-0.044921,0.198723,0.979026
-0.231073,0.333091,0.234400,0.752704,-0.202709,0.626376
-0.575423,-0.016062,0.838291,0.146614,0.185718,-0.971603
-0.166919,0.179337,-0.040702,0.329705,0.365719,0.870370
0.028462,0.443600,0.618409,-0.687912,0.690116,-0.224760
-0.105018,0.134530,0.671385,-0.580797,0.777939,0.239762
-0.627814,0.226470,0.961816,0.734217,0.630483,0.251824
-0.307824,0.431499,0.384631,0.816016,-0.091666,0.570715
0.484573,-0.204448,0.227076,-0.060722,-0.240195,0.968824
0.104406,0.132386,0.871510,0.880381,-0.397952,0.257999
-0.617218,0.134784,0.877386,-0.656568,-0.377792,0.652834
-0.345309,0.198052,0.904888,0.627978,-0.457504,-0.629550
-0.272007,0.735991,0.797285,0.515953,-0.754321,-0.405945
-0.323813,0.093612,0.675453,-0.631559,0.070996,-0.772071
-0.542387,-0.371720,0.724391,0.766128,0.580859,0.275046
0.032522,0.035831,0.689739,0.834298,0.530680,0.149419
-0.641189,0.298059,0.941378,0.625384,0.749014,0.218799
-0.036915,0.169380,0.547223,-0.599314,0.747393,-0.286752
-0.843968,0.370667,0.759535,-0.733225,-0.050872,-0.678080
-0.419558,-0.226143,0.794187,0.924663,0.306588,0.225835
-0.011220,0.166400,0.788643,0.297060,-0.923554,0.242493
-0.312607,-0.307908,0.428243,0.550491,-0.443335,-0.707400
-0.110607,-0.106476,-0.959138,-0.026997,0.106449,0.993952
-0.393668,0.278218,0.884190,0.955017,0.265659,0.131789
-0.218643,0.760157,0.862796,0.043174,0.659730,0.750262
-0.241974,0.660913,0.899431,0.547606,0.830489,0.102060
-0.361911,0.272694,0.767264,0.824595,0.414707,-0.384788
-0.157186,0.408569,0.098195,0.930061,-0.202175,0.306775
-0.762684,-0.048187,0.837900,0.804493,-0.462948,0.372115
0.035192,-0.152046,0.847497,-0.370202,-0.383792,0.845963
0.885430,-0.737554,0.337835,0.158761,0.328108,0.931204
-0.389246,-0.481394,0.658937,-0.316651,-0.756808,-0.571816
-0.821109,-0.047278,0.911894,0.581562,0.810425,0.070690
-0.244810,0.747910,0.777541,0.439818,-0.182557,0.879337
-0.219588,0.641653,0.878081,-0.505286,-0.822461,0.261235
-0.490552,0.292863,0.421556,-0.178461,0.971305,-0.157218
0.056576,0.129443,0.065092,0.297613,0.890911,-0.343082
-0.174317,0.246457,-0.010204,0.951843,-0.094536,0.291647
-0.369502,0.188095,0.777512,0.654525,-0.047247,0.754563
-0.117977,0.176902,0.608465,-0.541635,0.796642,0.268316
-0.863934,-0.127953,0.722176,-0.028169,0.774247,0.632257
-0.405515,0.185042,0.959327,0.961719,-0.144317,-0.232958
-0.340582,0.352787,0.958806,0.339909,-0.126175,-0.931956
0.266501,0.009848,0.160450,-0.240229,-0.854290,0.460954
-0.635572,-0.246893,0.839434,0.165631,-0.965282,0.201985
-0.065225,0.108801,-0.962395,0.182217,0.185213,0.965657
0.482627,-0.257795,0.234950,0.052339,-0.212704,0.975714
-0.454457,-0.101861,0.563029,0.139879,0.985281,0.098262
0.038973,0.796133,0.715764,-0.590376,-0.437083,-0.678538
-0.630734,-0.013046,0.956678,-0.346188,0.898714,0.269196
-0.135523,-0.123919,0.868412,0.781602,0.040164,0.622483
-0.327818,0.228250,0.915932,-0.390464,0.913483,0.114398
-0.336383,0.497638,0.744438,0.227140,-0.625563,-0.746377
-0.368335,0.108620,0.607061,-0.509832,-0.575008,-0.639873
-0.270533,0.496620,0.891847,-0.485259,0.862701,-0.142376
-0.347089,0.312922,0.826234,0.842961,-0.537489,-0.022852
-0.350843,0.339087,0.916120,0.710799,-0.661566,0.238945
-0.652174,0.252780,0.913110,0.153523,-0.916071,0.370464
-0.192364,-0.315975,0.759173,0.867491,-0.328174,-0.373846
-0.229182,0.359074,0.573248,0.852439,0.481258,-0.204301
0.600952,-0.651937,0.462547,0.902366,-0.413842,-0.120294
-0.319002,0.335598,0.818331,0.989718,-0.008671,-0.142772
-0.126764,-0.392361,0.714505,0.636583,0.737056,-0.226959
-0.378652,-0.216949,0.755801,0.889693,0.245605,0.384869
-0.669415,-0.046479,0.646475,-0.012966,0.989942,0.140878
-0.192475,0.174758,0.443586,0.653241,-0.754826,-0.059270
-0.168365,0.135729,-0.022016,-0.456306,0.889815,-0.003806
-0.130573,-0.285268,0.606742,-0.124700,-0.733524,0.668126
-0.334742,0.589141,0.735117,0.778945,-0.311303,-0.544367
-0.383685,0.034704,0.244764,0.505126,-0.840540,-0.195808
0.058662,0.070463,0.036649,-0.206523,-0.700370,0.683249
-0.870330,-0.007486,0.973946,-0.274979,-0.945195,-0.176049
-0.403150,-0.004143,0.268126,-0.404994,-0.710796,-0.575108
-0.320143,0.391998,0.372747,0.816016,-0.091666,0.570715
-0.191502,0.210044,-0.198272,-0.179778,0.798433,0.574617
-0.303152,0.645068,0.715880,-0.073348,-0.634670,0.769295
-0.304403,0.643397,0.698395,0.801082,0.518645,-0.298790
-0.681011,-0.056908,0.717588,-0.068899,0.992433,-0.101635
-0.693024,0.240170,0.873710,0.281205,0.914514,0.290840
-0.669693,0.684970,0.738952,0.951105,0.301500,-0.067056
0.561241,-0.193764,0.262191,0.641109,0.737202,-0.213335
-0.344614,-0.314013,0.564100,0.320089,0.810032,0.491315
-0.361049,0.304782,0.897144,-0.589696,-0.137816,0.795780
-0.143643,0.160659,-0.633361,0.923443,-0.300215,-0.239005
-0.052710,0.077658,-0.005399,-0.520151,-0.619235,0.588211
-0.017255,-0.031107,0.680562,-0.315031,0.609324,-0.727654
-0.780899,-0.019115,0.917220,0.000647,-0.040270,0.999189
-0.819913,-0.036304,0.895899,-0.694662,-0.702308,-0.155589
-0.008996,-0.141362,0.576708,-0.037036,0.396441,0.917313
-0.319781,0.747910,0.720193,0.770403,0.546220,-0.328820
-0.095980,0.748165,0.872161,0.785885,-0.541358,0.298858
-0.964322,0.308380,0.871495,0.926972,-0.374258,0.025592
-0.359965,0.250345,0.894987,-0.739282,0.227642,0.633752
-0.025375,-0.044444,0.843733,0.426018,0.357311,-0.831166
-0.162609,0.238971,0.921476,0.915617,0.309666,0.256422
-0.910902,0.496439,0.803914,-0.210645,-0.967387,0.140682
-0.231378,0.191329,-0.982746,0.297377,-0.188300,-0.936007
-0.258687,0.244821,-0.986423,-0.102872,0.109399,0.988660
-0.146424,0.210044,0.568356,0.857960,0.428378,-0.283543
-0.697390,-0.071263,0.757422,0.495526,0.843298,0.208093
-0.175874,-0.275274,0.600909,0.922662,0.347978,-0.166150
-0.216446,0.198270,-0.236238,0.977169,-0.098922,-0.188031
-0.076208,-0.158587,0.744076,0.720886,-0.307297,-0.621202
-0.195006,0.223781,-0.345724,-0.267091,0.963613,-0.010581
-0.482710,0.332146,0.617613,0.419113,0.907763,0.017607
-0.514078,0.280943,0.494463,-0.429351,0.903052,-0.012473
0.035887,0.658187,0.779756,-0.737896,-0.238449,0.631388
-0.612185,-0.114471,0.757885,0.251139,0.902992,-0.348619
-0.335076,-0.272549,0.402883,0.363100,-0.510879,-0.779205
0.604677,-0.230358,0.244069,-0.533354,-0.834429,0.138789
-0.681372,0.090886,0.838566,-0.303903,0.853732,0.422830
-0.209466,0.210844,0.168411,0.932026,0.347072,0.104256
-0.542664,0.258776,0.901979,-0.375216,-0.841798,-0.388058
0.791688,-0.824079,0.393649,0.038876,0.236320,0.970897
-0.495919,0.345846,0.925500,0.006376,0.410325,0.911917
-0.532959,0.217894,0.910287,-0.295743,-0.402168,-0.866485
-0.126625,-0.054764,0.853721,0.933354,0.351482,0.072876
-0.503232,-0.027546,0.350775,-0.211007,-0.968448,-0.132604
-0.160051,0.137474,-0.601141,0.782293,-0.516595,-0.348062
-0.739715,-0.045061,0.948905,0.895705,-0.312730,-0.316089
-0.744581,-0.031761,0.966853,0.989785,-0.071353,-0.123428
-0.382156,-0.114616,0.356261,0.823136,-0.091841,-0.560368
-0.529122,0.147213,0.720092,0.996692,-0.036598,-0.072564
-0.206462,0.309470,0.864475,0.910742,-0.173154,-0.374923
0.006132,0.194745,0.848293,-0.245421,0.315799,0.916537
-0.140724,0.131732,0.919710,0.981944,0.153980,-0.109889
-0.770248,-0.143942,0.866096,0.567344,0.373011,-0.734155
-0.388050,0.002144,0.260961,0.014780,0.903309,0.428737
-0.635739,0.011338,0.876938,-0.674513,0.729437,-0.113815
-0.012138,0.316920,0.513830,-0.109812,-0.818737,0.563570
