-0.398532,-0.258610,0.349444,0.232361,-0.967240,0.102253
0.126708,-0.142757,0.572436,-0.717336,0.545380,0.433578
0.130735,0.338103,0.837561,0.115228,0.755106,0.645397
0.185388,0.319469,0.896798,0.371440,-0.911579,0.176227
-0.117502,-0.105000,0.773115,0.787641,0.418455,0.452236
0.201686,0.104861,0.858800,-0.658498,0.684926,0.311861
0.113667,0.304394,0.686357,0.420733,-0.899634,-0.116797
-0.469964,0.239279,0.086465,-0.562739,0.709951,0.423431
-0.059589,0.145410,0.650392,-0.611019,-0.135290,-0.779969
-0.654921,0.358133,-0.671058,0.809551,-0.586983,0.008834
-0.621842,-0.135011,0.489112,0.312974,0.911555,-0.266675
-0.624142,-0.190494,0.665748,-0.582620,0.664290,-0.468265
-0.589722,-0.613219,0.506501,0.850861,-0.314360,0.420968
0.242724,0.003734,0.903682,0.844201,-0.292982,0.448872
-0.516755,0.389817,-0.151197,0.820291,0.393592,0.414980
-0.062466,0.565411,0.835543,-0.563571,-0.814026,-0.140532
-0.785895,-0.483127,0.557795,0.952481,-0.175030,-0.249288
-0.544178,0.272429,0.038377,0.743061,-0.652138,0.150255
0.403615,0.322818,0.804945,-0.229471,-0.730919,0.642729
-0.393836,-0.289528,0.718272,0.453491,0.885559,-0.100657
0.147322,0.173326,0.759390,0.061484,0.945928,0.318496
-0.099381,0.569669,0.849597,0.001272,0.928269,0.371908
-0.062849,0.063195,0.519682,0.931352,0.360418,-0.051796
-0.828467,-0.892941,0.510050,0.028769,0.090237,0.995505
-0.142623,0.156157,0.324241,0.918244,0.240402,-0.314697
0.225946,0.192658,0.751576,0.026670,0.952583,0.303108
-0.569108,0.329448,0.840567,0.642283,0.326221,0.693579
0.477253,0.478103,0.850699,0.945719,-0.306169,-0.108976
0.086053,-0.080714,0.777752,-0.502775,-0.521772,-0.689181
-0.038112,-0.051610,0.792350,0.385504,0.736981,0.555199
-0.938827,0.294553,-0.994218,-0.033733,0.057057,0.997801
0.594706,0.266008,0.655844,0.476620,0.651885,-0.589813
-0.394506,0.451931,0.510136,-0.174218,-0.014771,0.984596
0.173593,-0.001641,0.837289,0.001462,0.611762,0.791040
0.068892,0.109049,0.563018,0.885169,-0.125050,0.448149
-0.526150,0.379489,-0.166654,0.047206,-0.993037,0.107931
0.247040,0.228112,0.789059,0.729601,0.040856,0.682651
-0.101394,0.115051,0.557737,0.975884,0.218203,0.006230
-0.710532,0.565900,-0.992243,-0.072608,0.517399,0.852658
-0.213578,0.519489,0.822319,-0.747807,0.580335,-0.322483
0.135337,-0.039606,0.846921,-0.528707,0.816086,-0.233391
-0.378781,0.205360,0.821933,0.817761,-0.407919,0.406041
-0.712258,0.521025,-0.972278,0.850080,0.376827,0.367921
-0.504196,-0.022926,0.797803,0.849721,0.490885,-0.192369
0.500360,0.409569,0.899216,0.003312,0.683543,0.729903
0.106477,0.077991,0.824394,0.807026,0.472186,-0.354612
-0.716284,0.085040,0.888382,0.594958,0.785423,0.170688
-0.575244,0.032069,0.863723,-0.340306,-0.676505,0.653095
-0.138883,0.334682,0.372471,-0.053962,0.751882,-0.657086
0.503426,-0.063615,0.878851,0.291356,-0.727326,-0.621376
-0.576874,-0.388771,0.552986,0.726575,0.665236,-0.171897
-0.234575,0.336916,0.686629,0.909626,0.116848,0.398657
0.035909,0.181142,0.846907,-0.468340,-0.756630,0.456256
-0.252313,-0.555012,0.603893,0.953224,0.230270,0.195805
-0.093822,0.255680,0.742002,-0.768693,-0.639597,-0.005181
-0.014238,0.220853,0.771985,0.858048,0.025128,0.512955
0.223933,0.084272,0.850614,0.387017,-0.893449,0.227963
0.212138,0.058590,0.910995,0.578797,0.581354,-0.571858
-0.623279,-0.173744,0.710601,0.930893,-0.344618,0.121145
-0.492018,-0.387165,0.481327,0.436707,0.899190,0.027286
-0.015771,-0.098091,0.628967,0.819709,0.386422,0.422795
-0.080204,0.667446,0.822448,-0.468451,0.457345,-0.755903
-0.219427,0.277244,0.803456,-0.639943,0.516503,-0.568944
-0.798168,-0.157343,0.701184,0.955273,0.073564,0.286428
0.092669,-0.131452,0.779527,0.869027,0.453048,-0.198843
0.401889,0.061661,0.886550,-0.713473,0.358505,-0.602022
-0.161034,-0.400077,0.626949,0.994776,-0.021761,0.099735
-0.523564,0.589629,-0.988966,-0.089556,0.079703,0.992788
-0.534686,0.370416,-0.059587,-0.006512,0.989479,0.144529
0.053550,0.371742,0.639028,0.837672,0.017680,-0.545887
-0.087396,-0.111909,0.682536,-0.618222,-0.574892,-0.536005
-0.486455,0.273546,0.845633,0.904049,0.275980,-0.326389
0.473703,0.364972,0.889384,0.368805,0.923728,-0.103482
-0.732775,-0.317444,0.801896,0.462794,0.585868,-0.665267
-0.132941,0.234323,0.698336,-0.292174,0.733897,-0.613212
-0.165253,0.338172,0.832724,0.141035,-0.756776,0.638278
-0.612446,0.383606,-0.376464,-0.585634,0.799587,0.133012
-0.652332,-0.367484,0.542767,0.821778,-0.567886,-0.046764
0.198810,0.367904,0.725013,0.089787,-0.812708,0.575711
-0.173499,0.219598,0.823235,-0.096451,-0.829518,0.550088
0.074931,-0.036395,0.736305,0.974860,-0.130012,0.180955
-0.026990,0.538473,0.898458,-0.212893,-0.914196,0.344852
-0.500263,-0.467215,0.531718,0.886294,-0.097369,-0.452771
0.360084,0.622570,0.787613,0.329988,0.669061,-0.665932
-0.441777,0.199707,0.140821,0.779611,-0.211062,-0.589626
0.307733,0.455840,0.920985,-0.225139,-0.168471,0.959651
0.856944,0.758732,0.559226,-0.398411,0.838911,-0.370806
0.107724,0.395191,0.910008,0.059786,-0.731320,0.679409
0.025170,0.137244,0.724770,-0.231046,0.567441,0.790334
0.631814,0.186168,0.873097,0.484484,0.848112,0.214434
0.142146,0.333566,0.704905,0.013399,-0.728694,0.684709
-0.733639,0.467425,-0.912670,0.756003,-0.608965,0.240044
0.375425,-0.065428,0.819600,0.543097,0.104662,-0.833121
0.421160,0.347734,0.912612,-0.382019,-0.481732,-0.788667
-0.023347,0.371742,0.833368,0.150029,-0.812992,0.562615
-0.639580,-0.469938,0.572206,-0.512442,0.857858,0.038516
-0.387987,0.105070,0.817024,0.098795,-0.353563,0.930179
0.228533,0.564225,0.779999,-0.635035,0.744109,0.207444
0.587996,0.294762,0.867473,-0.049190,0.860787,0.506583
-0.232562,0.294064,0.844746,0.596350,-0.160461,0.786523
0.200056,0.648254,0.838062,0.771841,0.346529,-0.533084
-0.659331,-0.303626,0.460374,0.983045,0.169825,0.069152
0.524521,0.200963,0.857040,0.173525,-0.934384,-0.311152
-0.716574,0.464564,-0.851859,-0.434660,0.845970,0.308878
0.142720,0.345570,0.922530,-0.177899,-0.981458,0.071363
0.018074,0.418222,0.829332,-0.609988,0.451747,0.651030
0.078191,0.334823,0.901807,0.226948,0.962313,-0.149827
0.164870,0.117912,0.769165,-0.703106,0.495901,0.509631
-0.651372,0.415501,-0.443787,0.068493,0.996899,-0.038757
-0.233522,0.040095,0.644080,0.578620,0.261188,-0.772645
-0.065055,-0.049935,0.652768,0.012009,-0.999596,-0.025743
-0.881968,0.060055,-0.984944,-0.212842,0.136048,0.967569
0.075891,-0.495830,0.606927,0.543458,-0.096643,-0.833854
-0.991658,-0.017413,-0.986719,-0.170244,0.071183,0.982827
0.177332,0.141013,0.903152,0.272886,-0.103831,0.956427
-0.217124,-0.597376,0.595978,-0.453548,-0.738418,-0.499032
-0.964907,-0.141920,-0.983041,-0.076243,0.201566,0.976503
-0.672563,-0.572670,0.525192,0.425380,-0.378371,0.822124
0.344263,-0.039467,0.864525,0.645238,-0.691922,-0.323901
-0.405051,-0.307534,0.601202,0.003744,-0.767558,0.640969
0.257682,0.444883,0.647372,0.366528,-0.382090,0.848331
0.140803,0.014273,0.956621,-0.245644,0.587853,0.770771
-0.372358,-0.483058,0.775835,-0.286739,-0.217741,0.932936
-0.176472,-0.090763,0.660582,-0.002215,0.960652,0.277747
-0.000527,0.091741,0.943239,-0.238195,-0.622831,0.745214
0.299104,0.085250,0.917178,-0.683650,0.601441,0.413389
0.072821,0.382280,0.873913,-0.210483,-0.796022,0.567491
-0.493071,-0.104093,0.763956,0.101434,0.688613,0.718000
-0.004650,0.263636,0.656345,-0.231671,0.969142,0.084216
0.286352,0.056356,0.629082,0.421683,-0.631259,0.650919
-0.634497,-0.229647,0.756413,0.748212,0.419373,-0.514107
-0.048374,-0.235090,0.778368,0.371610,0.463970,0.804138
-0.639867,0.398611,-0.418326,-0.381329,0.853110,0.356079
-0.478596,0.570437,-0.988221,0.059966,0.088753,0.994247
-0.545904,0.241930,0.067960,0.956800,0.195047,-0.215617
0.527687,0.498552,0.792551,0.123339,0.653153,-0.747113
-0.922432,0.278012,-0.990640,-0.094680,0.032727,0.994970
-0.000816,0.075827,0.735948,0.280474,0.805214,0.522460
-0.165060,0.295041,0.505743,0.258190,0.176361,0.949860
0.009446,0.513068,0.859358,0.786253,-0.615479,0.054700
0.295938,0.078620,0.875616,-0.674436,0.737094,0.042772
0.235055,-0.006037,0.951369,-0.103462,0.369381,0.923500
-0.697110,-0.186237,0.752492,0.998240,0.051870,-0.028741
-0.057770,0.168162,0.428659,0.904185,0.427141,0.000034
0.425189,0.491014,0.876189,0.523974,0.733608,-0.432748
-0.090082,-0.104861,0.746553,0.825258,0.536825,0.175407
-0.498920,0.166695,0.145844,0.989893,0.109547,0.090061
-0.673809,-0.030254,0.712920,0.854300,-0.165267,0.492806
0.189701,0.084761,0.940635,-0.595193,-0.778322,0.199900
-0.783882,-0.885543,0.517092,0.080496,-0.105626,0.991143
0.170333,-0.138780,0.656374,0.451248,-0.228610,0.862619
-0.178675,0.297135,0.395699,-0.669874,0.046793,0.740999
-0.256629,0.109118,0.201803,0.984481,0.022074,-0.174095
-0.009925,0.104652,0.468160,0.708285,0.705646,-0.019896
-0.961648,-0.178700,-0.980765,0.050007,0.213227,0.975722
-0.548780,0.329866,0.068360,-0.694819,0.624278,0.357075
0.205905,0.334962,0.749673,0.574460,0.318004,-0.754234
-0.565079,-0.533797,0.551669,0.996083,-0.045112,-0.076048
0.601708,0.643926,0.524491,-0.042924,-0.996789,0.067602
0.262669,0.102977,0.829260,0.130042,-0.856457,0.499570
-0.038688,0.102348,0.391993,0.385135,0.921354,-0.052712
-0.308499,-0.003524,0.817725,-0.220310,0.881333,-0.417990
-0.611583,-0.567575,0.613052,-0.534569,-0.791243,0.296934
-0.631717,0.420177,-0.535583,0.426432,0.883402,-0.194312
-0.127858,-0.179049,0.663745,-0.050364,-0.348601,0.935917
0.356824,0.312838,0.886379,0.294410,0.897506,0.328337
0.180882,0.392469,0.752907,-0.254688,-0.885659,0.388256
-0.406684,-0.475870,0.559669,-0.291429,0.050626,0.955252
-0.015868,-0.164533,0.838635,0.740647,-0.038898,-0.670767
-0.415600,-0.249747,0.348599,0.232361,-0.967240,0.102253
-0.452802,0.387375,-0.227665,0.976452,0.129965,-0.172193
-0.387123,-0.167184,0.305607,0.264836,0.851271,0.452990
-0.823961,0.441114,-0.805159,0.984150,-0.066048,-0.164580
0.538902,0.923858,0.502580,-0.004900,0.328467,0.944503
0.185961,0.276128,0.737779,0.752259,0.362376,-0.550263
0.194593,-0.099277,0.867559,0.168347,0.942696,0.288070
0.017978,0.071919,0.470936,-0.122951,0.991505,-0.042445
-0.681864,-0.418013,0.539547,0.873604,-0.435095,0.217964
-0.440530,0.153576,0.185846,-0.719380,0.657660,0.223553
0.505633,0.534424,0.825911,-0.657432,0.179595,-0.731798
0.700083,0.599470,0.532563,-0.149346,-0.985886,-0.075658
-0.222877,0.336986,0.840137,0.830660,-0.202866,0.518507
-0.815235,0.516349,-0.936799,0.256780,-0.958028,-0.127461
-0.362673,-0.697037,0.599614,0.038481,-0.802265,0.595727
0.463828,0.191123,0.942266,-0.561906,0.790434,-0.243875
0.534973,0.320655,0.879681,0.957520,0.241834,-0.157072
-0.393356,-0.257284,0.353251,0.232361,-0.967240,0.102253
0.192867,0.459051,0.433168,0.268845,-0.932245,0.242160
0.384247,0.736818,0.834284,-0.644874,0.268131,-0.715712
0.095545,0.320655,0.733672,-0.420975,0.811556,-0.405163
0.237165,0.162858,0.793839,0.637569,0.770383,-0.003845
0.113190,0.521094,0.653054,0.077661,-0.292014,0.953256
0.093629,0.163834,0.906773,0.538133,0.276121,0.796348
-0.778320,0.288062,-0.989395,0.352623,-0.089995,-0.931428
-0.224890,0.395749,0.388772,0.763578,0.501349,-0.406938
-0.488948,0.380256,-0.178475,0.723583,0.610120,-0.322771
0.069179,0.008200,0.741415,0.846833,0.239340,0.474963
-0.420969,0.574484,0.652467,-0.186995,-0.981667,0.036926
0.367083,0.363785,0.752993,0.419740,0.419887,-0.804682
-0.005226,-0.064103,0.883044,0.693675,0.554392,0.459853
-0.224220,-0.730328,0.608229,-0.416229,0.229801,-0.879742
0.580997,0.272708,0.827343,0.266087,0.638624,-0.722050
0.010979,0.071082,0.450542,0.150718,-0.978721,-0.139248
-0.593269,-0.265590,0.603578,0.008198,-0.967408,0.253088
0.455679,0.641484,0.534853,-0.368493,0.918481,-0.143545
-0.414353,0.253027,0.781502,0.758284,0.647637,-0.074641
-0.184141,-0.630526,0.604680,-0.601701,-0.797917,-0.035836
-0.237451,-0.558223,0.592443,-0.488371,-0.201221,-0.849119
-0.586269,-0.312698,0.476947,0.510689,0.842521,-0.171332
-0.907281,0.630875,-0.996479,-0.004059,-0.016726,0.999852
-0.615706,0.391422,-0.343290,0.149192,-0.988780,0.007513
-0.563259,0.298810,-0.111797,-0.137752,0.990132,-0.025760
-0.570642,-0.510556,0.542309,0.978695,0.145582,-0.144781
0.430559,0.043654,0.884862,0.762962,-0.590560,0.262922
0.446666,0.486896,0.835486,-0.614192,0.734089,-0.289623
-0.141953,-0.300346,0.797732,0.561812,0.585747,-0.584182
-0.052207,0.221482,0.507746,0.398047,0.891844,0.214881
-0.358357,0.205290,0.833211,0.262648,0.918915,-0.294298
0.033223,0.228601,0.880353,0.975491,0.195947,0.100113
0.473993,0.699550,0.830348,-0.606207,-0.688304,0.398435
-0.596145,-0.703109,0.582368,0.257424,-0.803542,0.536706
0.001773,0.199497,0.595005,-0.498249,0.670749,-0.549403
-0.454719,-0.525980,0.591227,0.620601,0.278119,-0.733147
-0.604871,0.444045,-0.580765,0.901795,-0.405407,0.149703
-0.634690,0.386328,-0.571591,0.979638,0.187345,-0.072187
-0.161034,0.108071,0.852861,0.438957,0.122547,-0.890112
-0.003693,0.148132,0.512813,0.902478,-0.102911,-0.418261
-0.581860,-0.158111,0.713550,0.669204,0.571688,0.474699
-0.625965,0.431133,-0.614398,-0.617189,0.480246,0.623251
0.105997,0.140384,0.844774,0.184147,0.307932,0.933417
-0.558366,-0.314025,0.494909,0.838124,0.531695,0.121857
-0.188934,-0.578951,0.593660,0.023835,0.496164,0.867902
-0.646866,0.411592,-0.652596,-0.700852,0.683936,0.202577
-0.058056,0.175071,0.431421,0.845527,0.477889,-0.238130
-0.024403,0.090902,0.473112,0.408641,0.906142,-0.109173
0.622032,0.610636,0.798390,-0.120715,0.929531,-0.348426
0.005513,0.355830,0.636982,0.149380,0.906599,0.394669
-0.132654,0.005199,0.759619,0.804288,0.015071,0.594048
-0.653005,-0.224762,0.785939,0.591006,0.793299,0.146247
0.427969,0.307534,0.876003,-0.160872,0.647895,0.744548
0.040509,0.531144,0.854249,0.155413,-0.657657,0.737112
-0.048851,0.530865,0.853805,-0.179450,0.826665,0.533313
-0.228726,0.147154,0.844130,-0.832327,0.553847,0.022015
-0.656071,-0.183725,0.759891,0.838081,0.494465,-0.230485
-0.557409,-0.023415,0.848538,0.817214,-0.389438,0.424852
-0.035332,0.216456,0.621367,-0.123065,0.990848,-0.055458
-0.832877,0.646439,-0.995148,-0.068638,-0.025768,0.997309
0.258259,-0.108839,0.633189,0.943782,0.198211,-0.264553
0.020567,0.219388,0.580035,-0.097639,0.990912,-0.092521
-0.483389,0.362808,-0.977144,-0.133321,0.029516,0.990633
-0.300734,-0.599680,0.622126,-0.304109,-0.946036,0.111951
-0.253560,-0.169488,0.645769,-0.769207,-0.283625,0.572606
-0.404668,0.144153,0.885391,-0.122454,-0.844948,0.520642
-0.098518,0.211083,0.824523,0.930439,-0.173216,0.322923
-0.503236,-0.071640,0.816337,0.965775,-0.166858,-0.198590
-0.080494,0.299438,0.844903,0.956478,0.018735,-0.291204
-0.829137,0.507694,-0.900376,0.922332,-0.106790,0.371347
0.675536,0.567226,0.508963,0.158626,0.968173,-0.193595
-0.756269,0.167394,-0.986619,-0.144477,0.151686,0.977813
-0.483675,-0.386468,0.622856,0.378398,-0.885414,0.269920
-0.117406,-0.292249,0.636781,-0.204899,0.589378,0.781441
0.200250,0.151830,0.958052,0.807294,-0.524202,0.271087
0.332567,0.301113,0.625060,-0.531973,0.310178,-0.787905
-0.563259,-0.339150,0.433239,0.943048,-0.288806,0.165083
-0.529986,-0.418502,0.633876,0.818888,-0.315648,0.479363
-0.659621,-0.179746,0.634706,-0.653763,-0.716167,0.244332
-0.418093,-0.374114,0.619865,-0.128067,-0.583802,0.801732
0.319622,0.322749,0.870035,0.505409,-0.737618,0.447752
-0.187784,0.232439,0.829876,0.400588,-0.873636,-0.276205
0.449350,0.433576,0.885091,-0.492944,-0.077636,0.866591
0.555014,0.563876,0.825768,0.839279,0.400096,0.368150
0.464021,0.630806,0.535654,-0.368493,0.918481,-0.143545
-0.425285,0.299787,0.785967,-0.640231,-0.709712,0.293961
0.129201,0.505671,0.780028,-0.204645,0.923652,0.324018
-0.463637,-0.321911,0.402669,-0.646500,0.760021,-0.066367
0.327294,-0.185050,0.823808,-0.029103,0.999288,-0.024015
0.460665,0.275639,0.634391,0.766218,0.638671,-0.070771
-0.008389,0.005129,0.533951,0.907790,-0.080144,-0.411696
-0.143966,-0.016435,0.676897,0.314817,-0.048078,-0.947934
-0.677358,0.375650,-0.433697,0.869817,0.350237,0.347494
-0.684068,0.574066,-0.992114,-0.169959,0.245338,0.954423
-0.631910,-0.091252,0.786769,0.777133,-0.269755,-0.568591
-0.380411,-0.593258,0.578776,-0.177425,0.423156,0.888515
0.129871,-0.102348,0.902236,-0.516251,-0.241134,-0.821790
-0.061412,0.127892,0.843887,0.768442,0.112497,0.629953
0.385111,0.474195,0.827715,-0.728564,0.683853,-0.039247
-0.544944,-0.611823,0.562789,-0.653450,-0.474007,0.590186
-0.269668,-0.170325,0.644638,-0.769207,-0.283625,0.572606
-0.599308,-0.122308,0.547032,0.770505,0.306179,-0.559086
-0.541108,0.355899,-0.364128,-0.501015,0.863988,-0.050086
0.514742,0.613637,0.802526,-0.205425,0.843173,-0.496850
-0.172732,0.081062,0.281706,0.779493,0.625725,-0.029288
-0.896926,0.384095,-0.993360,-0.129146,0.212747,0.968535
-0.487608,0.487525,0.650635,0.164004,-0.390839,0.905730
-0.584830,-0.512859,0.602004,-0.570343,0.536922,0.621631
-0.258736,0.084272,0.773216,0.472952,-0.138863,0.870077
-0.362960,-0.712949,0.614984,0.429842,-0.190023,-0.882682
-0.763652,0.493597,-0.806906,0.122805,-0.990699,0.058609
0.264969,0.142199,0.945329,0.396190,0.917846,0.024343
-0.681481,-0.316677,0.764714,0.401740,-0.913582,0.063036
-0.134857,-0.312419,0.809038,0.012971,-0.625061,0.780468
-0.318088,0.512928,-0.984701,0.112932,0.237186,0.964878
-0.011172,0.135987,0.636051,0.078172,0.834189,0.545910
-0.611103,0.365530,-0.987019,-0.026787,0.034489,0.999046
-0.669590,-0.200754,0.735633,0.993564,-0.112072,-0.016454
-0.350688,0.011341,0.212151,-0.465133,0.812694,0.350969
-0.502853,0.343267,-0.277756,0.861879,0.429265,-0.269992
0.260559,0.377115,0.816738,-0.355330,0.716507,0.600299
0.211372,0.139408,0.933694,-0.346402,0.935498,0.069643
0.160457,0.496527,0.456109,0.024411,-0.941510,0.336101
-0.591542,0.383955,-0.304447,0.981622,0.073736,-0.176014
-0.125365,0.377186,0.632302,0.909261,0.153724,0.386799
-0.361810,-0.488153,0.562947,0.802280,0.058712,-0.594054
-0.061989,0.492619,0.855666,0.762088,-0.404045,0.505934
0.307733,0.353107,0.875888,0.202877,-0.263091,0.943199
-0.464788,-0.240605,0.637955,0.640273,0.763264,-0.086482
-0.523084,-0.358900,0.533235,-0.018621,0.917131,0.398152
0.018938,0.157902,0.572679,-0.226030,-0.879511,0.418772
-0.792511,0.405241,-0.788415,0.573774,0.812471,-0.103315
0.675439,0.191331,0.875058,0.891643,-0.305778,-0.333875
-0.124598,0.215898,0.784522,-0.456126,0.806557,0.376052
-0.045784,0.167952,0.567741,-0.194533,-0.974757,0.109574
-0.039265,-0.090484,0.738853,-0.349308,0.884674,-0.308765
-0.029387,-0.159786,0.732384,-0.357501,0.536009,-0.764780
0.031976,0.077712,0.497613,0.946125,-0.298450,-0.125601
-0.398629,0.159018,0.868103,0.831233,-0.484454,0.272682
0.242341,0.267892,0.734831,-0.704022,-0.428108,0.566636
-0.756843,-0.419409,0.585388,0.162692,0.058161,0.984961
-0.578024,-0.195729,0.475988,-0.098379,0.992389,-0.074069
0.078864,0.146177,0.985044,0.071691,0.938447,-0.337902
-0.446090,0.363297,-0.131103,-0.497174,-0.867240,0.026686
-0.602571,-0.385979,0.412129,0.711189,-0.702469,0.027338
-0.740928,0.065220,0.857397,0.825330,0.539224,-0.167534
0.170623,0.411802,0.834126,0.181093,-0.756505,-0.628415
-0.730189,0.397634,-0.524792,-0.679119,-0.708000,-0.193736
0.272831,0.166416,0.782676,0.912886,-0.047899,0.405395
-0.507742,0.349757,-0.041426,-0.085076,0.995809,-0.033567
-0.550121,0.035768,0.916720,-0.125123,-0.835287,-0.535388
-0.308020,0.194263,0.818298,-0.531330,0.600039,0.598032
-0.510425,-0.433158,0.539533,0.936872,0.180193,-0.299669
-0.419053,-0.155459,0.296247,-0.184708,0.857736,0.479762
-0.062563,-0.240465,0.787184,0.721099,0.675449,-0.154227
-0.328924,0.528842,-0.982454,0.201926,0.237230,0.950236
-0.619062,-0.214852,0.802769,-0.641902,0.267686,-0.718545
-0.727886,-0.543776,0.579148,-0.034117,0.568220,0.822169
-0.416366,-0.341801,0.540162,0.954441,-0.029193,-0.296969
-0.285679,0.175979,0.916319,0.496985,-0.801003,-0.333766
0.046935,-0.029207,0.551025,0.991061,0.060733,0.118787
-0.619636,0.083924,0.897313,0.191626,-0.980229,0.049301
0.181072,0.521722,0.802297,0.243476,-0.623929,0.742585
-0.261805,-0.603099,0.613009,-0.105166,-0.922021,0.372582
-0.272640,0.487316,0.630684,0.737737,-0.034058,0.674229
-0.473800,0.314025,-0.981223,0.237367,0.055770,-0.969818
-0.528836,0.320235,-0.124005,0.115749,0.988634,0.095946
0.301884,0.595840,0.820931,-0.133705,-0.868430,0.477443
-0.476293,0.304602,-0.055422,0.133869,0.972982,0.188111
-0.395946,0.469589,0.653698,-0.206171,0.362988,-0.908699
-0.693657,-0.451443,0.502966,-0.851936,0.178052,-0.492445
-0.525960,0.359598,-0.379871,0.919545,-0.253709,-0.300113
-0.088453,0.038630,0.505070,0.750042,-0.625289,0.215522
-0.038402,0.075061,0.448281,-0.051419,0.983884,0.171253
0.015772,-0.017134,0.827743,0.777314,0.250544,0.577071
-0.435254,-0.513347,0.620895,0.618410,0.694009,-0.368674
-0.122872,0.312210,0.795170,-0.619788,0.307530,-0.722003
-0.959251,0.221761,-0.988379,0.041528,0.122122,0.991646
-0.710628,-0.196706,0.556592,0.044875,0.026555,0.998640
0.568052,0.182678,0.908133,-0.203888,0.814333,0.543408
0.072725,-0.042189,0.825711,0.068123,0.408673,0.910135
-0.104174,0.097183,0.611092,0.815286,0.234493,0.529454
-0.627595,0.380744,-0.563748,0.894293,0.437315,0.094851
-0.252313,0.225321,0.760793,-0.521525,0.822229,-0.227928
-0.017018,0.088809,0.429146,0.836136,0.548496,0.005362
0.328541,0.389050,0.822505,-0.397891,0.345357,0.849948
-0.052880,0.259727,0.664403,-0.006887,-0.995067,0.098970
0.626252,0.614474,0.798762,-0.120715,0.929531,-0.348426
-0.218274,0.448652,0.643150,0.184774,-0.208595,0.960389
-0.008486,0.105559,0.516162,-0.701305,0.695106,0.158108
0.607554,0.265519,0.678987,0.131662,-0.889012,0.438546
-0.580324,-0.645392,0.501964,0.854622,0.334335,0.397293
0.246561,0.188959,0.788830,0.835515,-0.220351,0.503349
-0.099861,0.412011,0.843987,-0.589907,0.724912,-0.355686
-0.046838,0.230624,0.593846,0.771207,-0.604705,0.198925
-0.959155,0.288551,-0.992801,0.019108,0.010729,0.999760
0.102928,-0.032069,0.774919,-0.506819,0.795793,0.331432
-0.048084,-0.067243,0.628237,0.731518,-0.675927,-0.089460
-0.166594,0.628712,0.925421,0.022282,-0.854317,0.519274
-0.613979,-0.176327,0.645755,0.057160,0.966832,-0.248937
-0.379548,-0.554036,0.578890,0.598784,-0.781983,-0.173091
-0.753680,0.380466,-0.869935,0.806574,-0.590516,-0.027016
0.024497,-0.002128,0.739483,0.087270,-0.248411,0.964715
-0.116929,0.210385,0.801410,0.228534,-0.973390,-0.016866
-0.626251,0.327633,-0.414949,0.796434,0.385451,-0.465961
-0.305527,-0.015947,0.874214,-0.465616,-0.500606,0.729792
0.023444,0.201172,0.821031,-0.643576,-0.273534,0.714835
-0.545138,0.023764,0.747555,0.447123,0.688581,-0.570908
-0.433721,-0.122029,0.259938,0.795744,-0.542224,-0.269786
-0.432188,-0.727117,0.607642,-0.311646,0.641472,-0.700993
-0.861833,0.270614,-0.990998,-0.110168,0.084166,0.990343
-0.794524,0.404893,-0.810412,0.321952,-0.945220,0.053917
0.058633,0.272360,0.720262,0.416757,-0.034618,-0.908358
0.021334,0.127752,0.516476,0.952740,-0.212625,-0.216975
0.267175,0.041071,0.885033,0.305714,0.950714,0.051790
-0.070521,0.166067,0.559512,0.240930,0.730755,-0.638709
-0.088163,0.236486,0.506244,-0.436197,-0.776894,0.454058
-0.017401,0.379977,0.835729,-0.038035,-0.873528,0.485285
-0.728942,-0.061451,0.565194,-0.343605,0.549632,-0.761473
-0.234575,0.370137,0.892146,-0.058220,-0.791007,0.609031
0.007239,0.167603,0.669255,-0.336393,-0.135872,0.931868
-0.447433,0.192169,0.834627,0.823864,-0.554444,0.117641
0.180305,0.617406,0.833726,0.261685,0.915205,0.306465
-0.121052,0.141431,0.708455,-0.051317,0.881941,0.468557
-0.593172,-0.317723,0.718759,0.273453,-0.400259,0.874652
-0.641403,-0.364693,0.658349,0.817879,-0.349879,0.456791
0.162761,0.298671,0.891846,-0.579223,0.693429,-0.428551
0.007143,-0.093206,0.659666,0.259087,-0.067742,-0.963475
-0.206482,-0.048191,0.805002,-0.610306,-0.736833,-0.290869
-0.261135,0.011830,0.823063,0.419741,0.803282,-0.422558
0.165827,0.440346,0.778067,-0.423571,0.068091,-0.903300
0.348385,0.549151,0.503825,-0.325537,0.945528,-0.001129
-0.381754,-0.474614,0.560872,-0.767405,-0.044976,0.639583
-0.118749,0.074153,0.309041,0.690674,0.715715,-0.103543
-0.406298,-0.805353,0.598884,-0.245046,0.923003,-0.296679
-0.148472,0.156436,0.265090,0.963636,0.223415,0.146602
-0.121625,0.361203,0.850599,0.153098,-0.761279,0.630091
-0.210221,-0.173116,0.641332,-0.393041,-0.598494,-0.698086
0.446473,-0.014412,0.866385,-0.535541,0.464055,0.705585
0.157965,0.490456,0.792279,0.251107,0.934491,-0.252331
-0.029580,-0.275919,0.655945,-0.563446,0.678859,0.470828
0.025744,0.194053,0.913571,0.776004,0.028050,-0.630105
-0.632581,-0.330914,0.621153,0.820022,0.420098,0.388691
0.295171,0.015738,0.896597,-0.621977,-0.045420,-0.781717
-0.255766,-0.518582,0.587821,-0.387350,0.236790,0.891005
-0.844095,0.292250,-0.993431,-0.090976,0.029455,0.995417
-0.385590,-0.559828,0.616072,-0.624084,-0.682503,0.380406
-0.823194,0.029766,0.791105,-0.306685,0.674164,0.671898
0.195550,0.277804,0.860059,-0.575258,0.770765,0.273859
0.111080,0.355899,0.585846,0.721077,0.468386,-0.510551
0.160938,0.076595,0.931718,0.071871,0.984514,-0.159894
0.041182,0.335870,0.616315,-0.060736,-0.455964,0.887923
0.221917,0.426178,0.770167,0.952644,0.299859,0.050544
0.509949,0.310465,0.843672,-0.238320,0.603367,-0.761020
-0.126708,-0.678961,0.604480,0.945965,-0.085021,0.312926
-0.273310,-0.496528,0.587320,-0.675903,0.197061,0.710157
-0.079534,0.046376,0.756156,0.743360,0.666029,0.061820
-0.024017,-0.038071,0.845232,0.802972,0.417508,0.425351
-0.470637,-0.682103,0.572893,0.574758,0.004634,0.818310
-0.173979,0.081202,0.842885,0.710748,-0.696553,0.098242
0.021238,0.527027,0.809553,-0.000010,-0.970970,0.239199
-0.342249,0.099278,0.205224,-0.426480,0.659031,-0.619510
0.092189,0.400007,0.870994,0.381588,-0.863188,0.330601
-0.606501,0.377883,-0.353508,0.282647,0.959144,0.012378
-0.004842,0.085739,0.664074,-0.011587,-0.799238,0.600903
-0.404095,-0.564016,0.604794,0.713218,0.532759,-0.455508
0.425379,0.035768,0.856911,0.406541,0.576216,0.709013
-0.689534,-0.213107,0.638785,0.917780,0.381229,0.111106
-0.708422,0.057682,0.818183,-0.576928,0.808870,0.113506
0.636127,0.218062,0.880811,0.251503,-0.323497,0.912193
-0.013185,0.010225,0.530760,-0.747704,0.201500,0.632722
0.104464,0.195520,0.728448,-0.572513,0.809918,0.127518
-0.541398,-0.264333,0.669770,0.278703,-0.017807,0.960212
0.543602,0.608752,0.533035,0.039486,0.998390,0.040721
-0.072728,0.106257,0.655558,-0.225400,-0.041186,0.973395
-0.435928,0.008619,0.821189,-0.290350,-0.883011,0.368765
-0.860013,-0.026625,-0.983599,-0.107071,0.051601,0.992911
0.607364,0.272848,0.830792,-0.111856,0.758863,-0.641573
-0.101588,0.241930,0.716784,-0.763696,-0.556119,-0.327873
0.078958,0.681125,0.834298,-0.191427,0.618373,0.762215
-0.906611,0.153505,-0.989138,0.085381,0.185471,0.978933
-0.678412,0.350595,-0.606841,0.101845,0.987844,-0.117442
0.212138,0.137802,0.790347,0.705524,-0.708166,0.027140
-0.774294,0.551523,-0.994604,-0.242436,0.412557,0.878078
0.052494,0.181771,0.825754,0.891843,0.386291,-0.235361
-0.592406,0.080295,0.818584,0.864860,0.477158,0.156006
0.124982,0.123146,0.937644,-0.031505,0.724126,0.688947
-0.293734,-0.313047,0.630713,0.068904,0.975223,-0.210220
0.018745,0.272778,0.890543,-0.026094,0.782893,0.621609
0.303707,0.163904,0.892705,0.639180,0.706417,0.304011
0.259312,0.328541,0.836431,-0.212000,0.974205,0.077333
-0.494127,-0.323097,0.448982,-0.439380,0.864813,0.242989
-0.061126,0.214223,0.732026,-0.408084,-0.912073,0.039887
-0.553767,0.045329,0.847351,0.981185,-0.189557,0.036664
-0.360276,0.043864,0.783549,0.867401,-0.191167,-0.459425
-0.288365,0.131731,0.220595,0.851586,0.515636,-0.094447
-0.647442,0.446697,-0.993274,0.082661,0.061160,0.994699
-0.101298,0.347663,0.733715,0.994269,-0.040195,-0.099065
0.177526,0.335589,0.891874,0.532153,-0.808625,-0.250876
-0.444077,-0.216735,0.312276,-0.403971,0.823104,0.399132
0.484155,0.128869,0.609460,-0.322544,0.845970,0.424618
-0.282706,-0.296577,0.777237,0.330194,0.215763,0.918922
0.658564,0.209128,0.919439,0.018428,-0.882905,0.469190
0.527303,0.547126,0.877534,0.900255,0.087368,0.426506
-0.542835,-0.228181,0.634463,0.351184,0.934033,0.065215
0.202743,0.630596,0.831049,0.776882,0.533857,-0.333841
-0.448776,0.212200,0.048982,0.779393,-0.579930,-0.237124
0.785033,0.576857,0.525579,0.105883,0.804390,0.584590
0.605351,0.146806,0.897714,-0.676920,0.673221,0.297579
-0.634787,-0.563736,0.581194,-0.043715,-0.774792,0.630702
-0.917923,0.047982,-0.986332,0.079031,-0.261831,-0.961873
-0.766624,0.381302,-0.988422,-0.295528,-0.032017,0.954797
-0.479936,-0.337056,0.318058,0.546262,-0.417170,-0.726338
-0.392493,-0.017134,0.779384,-0.482213,0.442730,-0.755950
0.218851,0.291970,0.716670,0.693161,-0.303646,-0.653703
-0.619539,0.421084,-0.595134,0.748277,-0.660067,0.066287
0.256916,-0.153994,0.637769,0.184127,-0.953090,0.240241
0.812073,0.689221,0.570589,0.837263,-0.473532,0.273419
0.019128,0.158460,0.585130,-0.516289,0.856409,-0.002954
0.256533,-0.123286,0.794082,0.121981,0.010756,0.992474
-0.360660,0.525073,0.669541,-0.000558,-0.710739,0.703456
-0.368042,0.598213,-0.989624,0.108846,-0.147418,-0.983067
-0.791552,0.407963,-0.993617,0.287076,0.216427,-0.933138
-0.341389,-0.079109,0.652252,-0.148588,-0.911129,-0.384403
-0.407451,0.086645,0.176686,-0.153466,0.767619,0.622262
0.786376,0.663538,0.521786,-0.527290,0.643866,-0.554438
-0.136584,-0.104163,0.814934,-0.035511,0.711970,0.701312
-0.557123,0.024880,0.774160,-0.209993,0.044104,0.976708
0.300541,0.139617,0.889441,-0.079122,0.457001,0.885940
0.305430,0.019157,0.947290,0.197021,0.319288,0.926951
0.311856,0.628503,0.584128,0.985927,-0.166963,0.008406
-0.809003,0.500716,-0.842513,-0.398876,-0.904159,-0.152949
-0.386164,0.188330,0.854292,0.656493,0.739389,0.149403
0.198140,0.007293,0.662342,0.647553,-0.171531,0.742464
0.126515,0.093206,0.896783,-0.060089,-0.776561,0.627170
0.196030,0.312908,0.838835,-0.199019,0.913638,0.354482
-0.417710,-0.115678,0.279760,0.413353,-0.909597,-0.042094
-0.405438,0.278431,0.788400,0.801680,0.532421,-0.271728
0.186538,0.242000,0.728921,-0.615454,-0.126958,0.777881
0.263722,0.460865,0.882014,-0.518925,0.359354,-0.775617
-0.181072,0.458631,0.644968,-0.652813,-0.503590,0.565891
0.035909,-0.546079,0.611793,0.006841,0.628712,0.777608
-0.951579,0.112747,-0.986318,-0.112034,-0.059728,0.991908
-0.290378,-0.329937,0.794869,0.463788,0.877849,-0.119508
-0.098422,0.057054,0.354868,-0.420216,0.873360,-0.246294
-0.538136,0.129498,0.847207,0.354185,-0.234692,0.905248
-0.365453,-0.557595,0.335948,-0.177410,-0.049770,0.982878
-0.607940,-0.488502,0.615915,-0.553103,0.573483,0.604313
-0.105710,-0.056635,0.758159,-0.685116,-0.522164,-0.507899
0.488758,0.220993,0.755240,0.210931,-0.971842,-0.105030
-0.565079,-0.005549,0.556607,0.054306,-0.657607,0.751401
-0.337263,-0.177792,0.761580,-0.081387,0.776838,0.624419
0.001007,0.056425,0.511181,0.743482,-0.654647,-0.136646
-0.626828,-0.466448,0.573766,-0.501108,0.865045,-0.024230
-0.258449,0.574066,0.856596,-0.444459,0.868036,-0.221292
-0.083083,0.077294,0.350603,0.931111,-0.353695,-0.089060
0.128242,0.187144,0.912283,0.865688,0.015007,0.500359
-0.440241,-0.178909,0.290465,-0.565014,0.628031,0.535104
-0.292488,0.243745,0.770897,0.886268,-0.448894,-0.114121
-0.365069,0.465681,0.798361,-0.473743,0.830595,-0.292713
-0.829521,0.528283,-0.901506,0.922332,-0.106790,0.371347
-0.710341,0.666818,-0.995363,-0.015767,-0.155731,0.987674
0.224027,0.390376,0.829389,0.994220,0.106509,-0.013470
0.055850,0.129777,0.916362,0.772209,0.356358,0.526025
-0.334197,0.239697,0.735604,0.535150,-0.784212,0.314047
-0.528643,0.224413,0.129228,-0.777700,0.557010,0.291416
0.118559,0.212479,0.741486,0.254588,-0.950210,-0.179680
-0.150775,0.352829,0.379956,-0.600770,-0.663818,0.445445
-0.210125,0.260914,0.772486,-0.577691,-0.766429,-0.280820
-0.137254,0.280455,0.524391,0.647639,0.761293,0.031571
-0.177142,-0.505810,0.610419,0.138730,0.638427,-0.757077
0.762309,0.646021,0.516920,-0.374466,0.748397,-0.547428
0.206769,-0.180026,0.646628,-0.224365,0.736229,-0.638457
-0.021334,-0.051610,0.622627,0.609301,0.766467,-0.203175
-0.749844,-0.265659,0.810054,0.129416,-0.431869,0.892603
-0.634977,-0.240465,0.821403,0.961781,-0.053773,0.268489
-0.599694,-0.329588,0.516004,0.985499,0.105500,0.132900
-0.933361,0.276826,-0.990726,-0.069132,0.034900,0.996997
0.799511,0.585720,0.800852,-0.172882,-0.518614,0.837348
-0.521741,-0.590746,0.580278,0.092419,0.995720,0.000198
0.033510,0.122239,0.923775,0.309386,-0.946668,-0.090001
0.168513,0.364832,0.856381,0.936393,-0.065620,-0.344764
-0.115586,0.058590,0.658220,-0.552052,0.402363,0.730303
-0.488661,0.269149,0.821403,0.894012,0.443779,0.061670
0.656551,0.233625,0.836517,0.949423,0.313900,-0.007929
0.593173,0.272708,0.883617,0.148267,0.229030,0.962061
-0.309843,-0.050563,0.864510,-0.096650,0.974509,0.202462
-0.485785,0.317723,-0.002555,0.994159,-0.065803,-0.085543
-0.508892,-0.206198,0.722537,-0.040244,0.436206,0.898947
0.130351,0.264125,0.568357,0.809658,0.542590,0.223717
-0.935471,0.005897,-0.983513,-0.226268,0.110598,0.967766
-0.621172,0.033674,0.841383,0.752326,0.658526,0.018699
-0.514261,0.606518,-0.990139,0.056744,0.087013,0.994590
0.499114,0.547266,0.491889,-0.024652,-0.905073,0.424540
-0.026417,-0.347593,0.681076,0.511028,-0.626573,0.588436
-0.394602,0.012179,0.225962,-0.286907,0.884849,0.367052
-0.720790,-0.487735,0.713607,-0.677164,0.734756,0.039773
0.029196,0.529121,0.885406,-0.647037,-0.749187,0.141642
-0.887817,-0.168860,-0.980665,0.008670,0.234606,0.972052
0.756269,0.632969,0.523003,-0.083147,0.502328,0.860670
-0.372069,-0.018948,0.763712,-0.185975,-0.959226,-0.212834
-0.600651,-0.024113,0.704719,-0.004805,-0.670252,0.742118
-0.836520,0.473637,-0.961573,0.745326,0.651649,-0.140865
0.332854,0.065010,0.917965,0.685745,-0.548663,-0.478249
-0.054604,-0.142688,0.666993,-0.051256,0.190463,0.980355
1.000000,0.800677,0.564493,0.255979,-0.903887,0.342728
-0.124885,-0.279129,0.798304,0.860573,0.035177,-0.508110
-0.937004,0.107513,-0.985932,-0.116084,0.004530,0.993229
-0.233232,-0.739680,0.593803,0.194850,0.375830,0.905972
-0.736228,0.498481,-0.878164,0.720935,-0.686894,0.091812
-0.739298,0.517186,-0.904226,-0.790202,0.508551,-0.341990
0.009062,-0.508672,0.586304,-0.293529,0.407409,0.864788
-0.057096,0.152388,0.550825,-0.256639,0.941789,-0.217187
0.100915,0.333775,0.900047,-0.152323,0.988142,0.019326
-0.259982,0.224343,0.750245,-0.160390,0.380914,0.910593
-0.769594,0.691245,-0.993689,-0.079326,-0.091245,0.992664
-0.525290,-0.333356,0.426327,0.758556,-0.651338,0.018746
0.374849,0.358341,0.857111,-0.331226,0.827178,0.453944
-0.186251,0.374185,0.844860,-0.267829,-0.657988,0.703790
-0.303514,0.174164,0.800437,0.717798,-0.091812,0.690171
-0.161801,0.177793,0.419371,0.641484,-0.605054,0.471601
-0.461335,0.263147,0.028001,0.985226,-0.030122,-0.168587
-0.652811,0.367904,-0.356385,0.481319,0.855050,-0.192926
-0.705355,-0.232857,0.779913,0.473824,0.506133,-0.720639
0.624142,0.207942,0.862864,0.170430,0.974124,-0.148446
-0.286352,0.331821,0.513056,0.028770,-0.165708,0.985755
0.357207,0.113166,0.849283,0.365635,0.671542,-0.644470
0.019704,-0.373696,0.609203,-0.018958,-0.415592,0.909354
-0.700082,-0.288760,0.695588,0.660078,-0.424372,-0.619843
-0.609090,0.099557,0.577788,-0.306446,0.465006,0.830578
-0.740351,-0.578672,0.578833,-0.687361,0.654936,-0.313997
-0.028813,0.238719,0.831980,-0.714361,-0.039748,-0.698648
0.146843,0.346059,0.838334,-0.248196,0.743084,0.621470
-0.288749,0.604006,-0.988622,-0.137945,0.035402,0.989807
-0.117599,0.301741,0.522144,0.761256,0.647016,-0.043124
-0.772471,0.423666,-0.805589,0.645381,0.712881,-0.274378
-0.104944,-0.094811,0.650993,0.022655,-0.999739,0.002920
0.276187,0.619779,0.582125,0.994851,-0.024106,0.098439
0.506303,0.629270,0.804802,-0.079169,0.942144,-0.325726
-0.717437,0.495551,-0.872181,-0.371045,0.923246,-0.099715
-0.679372,-0.105699,0.815678,0.938417,-0.336319,0.079142
-0.976796,0.083435,-0.988136,-0.102722,0.010491,0.994655
-0.908528,0.458492,-0.991442,-0.252912,-0.087569,0.963518
0.341676,0.547894,0.865011,-0.517074,0.472359,0.713801
-0.761062,0.487874,-0.947605,0.062157,0.995107,-0.076798
0.042715,0.295391,0.523389,-0.625113,0.768621,0.135850
-0.198716,0.146038,0.810555,-0.486301,0.735396,-0.471915
-0.389903,0.255888,0.878178,0.934103,0.355762,0.029729
0.164294,0.290226,0.782819,0.850225,0.175121,-0.496438
-0.514838,-0.472589,0.607557,0.533648,-0.772916,-0.343250
0.149336,0.302439,0.622498,-0.050795,0.774458,0.630582
-0.197566,-0.423527,0.600830,0.211459,-0.800557,0.560709
-0.533343,0.306138,0.832280,-0.165564,0.922057,-0.349856
0.302938,0.586977,0.490085,-0.332634,0.942140,-0.041565
0.125558,0.133894,0.638656,0.657980,0.451041,0.603013
-0.272544,0.445301,0.863780,0.898091,0.368772,0.239668
-0.200729,0.355480,0.844989,0.163105,-0.689138,0.706035
0.000720,0.358830,0.402698,-0.730697,0.526895,0.434123
-0.378301,0.126497,0.820960,0.372747,-0.176816,0.910931
-0.594708,0.218690,-0.986690,-0.061394,0.102795,0.992806
0.345605,0.326726,0.852832,0.678374,0.642467,0.356433
0.426912,0.100534,0.827500,0.218792,-0.760365,-0.611535
0.558847,0.348502,0.899131,-0.629392,0.402413,-0.664778
-0.839013,-0.068639,-0.981323,0.206218,-0.209703,-0.955771
-0.031402,0.110096,0.416108,0.938917,0.282414,0.196663
-0.217507,0.417525,0.908891,-0.646466,0.714178,-0.268386
-0.838343,-0.134801,0.825625,0.072972,0.988502,-0.132432
-0.129488,0.317863,0.574539,-0.107498,0.533129,0.839177
0.066782,-0.109397,0.730008,0.906985,-0.320163,0.273632
-0.076754,0.268799,0.546560,-0.208953,0.977894,-0.007914
-0.407641,0.154901,0.175741,0.954450,-0.286872,-0.082034
-0.069658,-0.077363,0.615299,0.522424,-0.747199,0.410814
0.075698,0.158391,0.710573,-0.647947,0.754360,-0.105378
0.783019,0.270335,0.923718,-0.262677,-0.408947,-0.873935
0.384437,0.580765,0.881269,-0.811017,0.532095,0.243159
-0.376768,0.202289,0.839050,-0.174717,-0.979814,-0.097150
0.004650,0.118470,0.504040,0.999530,0.018724,-0.024291
0.053357,0.133406,0.527926,0.992391,-0.072254,-0.099695
-0.716667,0.470356,-0.764342,0.054401,0.834887,0.547727
-0.469870,-0.124891,0.283180,-0.565339,0.716936,0.407915
-0.667770,-0.091042,0.701442,0.792293,0.604534,-0.082519
-0.696820,0.438043,-0.987434,0.089838,-0.293143,0.951838
-0.729996,-0.446627,0.531676,0.816617,-0.576767,-0.021827
-0.008965,0.354573,0.623242,-0.281737,0.660401,-0.696057
0.285009,0.484803,0.846134,0.159043,0.641478,-0.750474
0.031976,0.220364,0.505299,0.724969,0.547013,-0.418565
0.196703,0.087552,0.973466,-0.321892,-0.246098,0.914233
0.142816,-0.177304,0.640073,-0.545784,-0.698492,0.462849
0.282036,0.265590,0.588293,-0.475169,0.661286,0.580444
-0.408121,-0.450885,0.600730,-0.595280,0.261443,-0.759796
-0.787525,0.211501,-0.987878,-0.169818,0.080574,0.982176
-0.745434,0.538961,-0.982597,-0.196950,0.943600,0.266139
-0.702286,0.080923,0.740442,0.042217,-0.710273,0.702659
-0.092095,-0.144921,0.711260,0.270482,0.925836,-0.263945
-0.049234,0.324772,0.553802,-0.404150,-0.885555,0.229032
-0.684834,-0.413896,0.546918,0.931286,-0.361628,0.043957
0.302364,0.461144,0.644696,0.049303,-0.841985,0.537243
-0.772760,0.623687,-0.999614,-0.002687,0.030764,0.999523
0.415313,0.812262,0.846921,0.392844,0.917657,-0.059827
-0.594898,0.461005,-0.987349,-0.111139,0.070713,0.991286
-0.384630,0.304184,0.513156,0.000012,-0.078452,0.996918
0.376482,0.039816,0.883330,0.867792,-0.067309,-0.492349
-0.450309,0.314722,0.819929,-0.157611,-0.912548,0.377379
-0.693083,0.369578,-0.595334,0.830992,-0.555950,0.019283
-0.532096,0.665003,-0.992930,0.154061,-0.301647,-0.940890
-0.472650,-0.205639,0.663473,0.510396,0.792552,0.333702
-0.629801,-0.422060,0.519868,0.804038,-0.558513,0.203926
-0.188071,0.481453,0.809081,-0.774923,-0.006639,0.632020
-0.612540,-0.298600,0.791993,-0.404987,-0.479295,0.778628
-0.036292,-0.136266,0.732813,0.188035,-0.419616,0.888012
-0.663744,-0.242838,0.825239,0.916267,0.400566,0.001287
-0.642360,0.204662,-0.983928,-0.020261,0.137165,0.990341
-0.593939,0.381512,-0.389159,0.966002,0.132569,-0.221957
0.280310,0.500576,0.806934,-0.833351,0.457327,0.310448
-0.517427,0.309278,0.891774,0.827716,0.505203,0.244247
-0.685411,0.419059,-0.464840,0.958555,-0.194651,-0.208046
-0.793181,0.442929,-0.837347,0.516739,-0.848405,0.114848
0.543411,-0.008619,0.818641,0.221039,0.032500,0.974723
-0.385397,0.492131,-0.982797,-0.077717,0.194519,0.977815
0.066972,0.216597,0.829346,0.809506,0.367349,-0.457990
-0.093052,0.197125,0.481341,0.285487,0.951913,-0.111168
-0.305143,0.221063,0.919239,-0.835831,0.490865,-0.245843
-0.599118,0.102698,0.892662,-0.598320,-0.082533,-0.796995
-0.828274,0.462331,-0.880010,0.713196,-0.602906,0.357571
-0.201496,0.294762,0.378310,0.676866,-0.606061,0.417783
0.022867,0.298810,0.678314,0.275065,-0.875657,-0.396943
-0.658948,-0.387165,0.583584,-0.393365,-0.488474,0.778882
-0.508892,-0.333985,0.448367,0.403402,-0.898939,-0.170809
0.275804,0.147085,0.832967,-0.380933,0.899002,0.216068
-0.408791,0.308791,0.851902,-0.172809,0.982649,0.067362
-0.016731,-0.061870,0.638957,0.618309,-0.784225,0.051808
-0.230642,-0.124612,0.644653,0.110396,-0.390605,0.913915
0.372356,0.026555,0.868203,0.892914,0.078441,0.443341
-0.265161,0.223854,0.879480,-0.018199,0.683575,0.729653
-0.831727,0.444604,-0.867673,0.927964,-0.367344,0.062784
0.254136,0.103187,0.630026,0.381927,0.747968,0.542841
-0.466897,0.218551,0.913872,-0.116467,-0.274974,0.954372
-0.220767,0.217503,0.819772,0.364311,0.609534,-0.704092
-0.283953,0.268799,0.278271,0.858185,0.492289,0.145504
-0.224603,0.421363,0.766160,-0.020636,0.808359,0.588328
-0.019607,0.236068,0.650649,0.911459,-0.289610,0.292178
-0.350591,0.218899,0.806075,0.444910,0.801257,-0.400054
-0.913994,0.620826,-0.996594,-0.005420,0.120756,0.992667
-0.467567,0.269498,0.843858,0.800588,0.398197,-0.447771
-0.488088,0.597865,-0.989051,0.056987,0.067138,0.996115
-0.394313,0.245141,0.043987,0.909123,0.393272,0.137235
-0.200919,-0.191262,0.799120,0.219842,-0.975460,-0.012107
0.300444,0.625152,0.841025,-0.153458,0.986135,0.063158
-0.512632,-0.279269,0.608487,0.787837,0.528088,-0.316916
-0.381851,-0.187075,0.302658,-0.241403,0.869504,0.430915
-0.123735,-0.436857,0.616029,0.990469,-0.066765,-0.120475
-0.706409,-0.742889,0.575455,0.677185,0.611576,0.409139
0.226616,-0.001570,0.849383,0.209002,0.945329,-0.250340
-0.107437,0.285899,0.674149,-0.001124,0.954020,0.299741
0.036579,0.013434,0.958396,0.224493,0.483846,0.845870
-0.387123,0.217015,0.782189,-0.375287,-0.921251,-0.102254
-0.005802,0.178909,0.495467,0.908710,0.129762,-0.396747
-0.485212,-0.244792,0.650478,0.814135,-0.213120,-0.540152
0.199290,-0.136266,0.650721,-0.015135,-0.415370,0.909526
-0.954072,-0.161880,-0.978361,-0.060576,0.243272,0.968065
-0.124502,0.298252,0.884017,0.773714,-0.632760,0.031335
-0.293351,0.097951,0.768736,0.394689,-0.117190,0.911311
-0.407258,0.572600,-0.988107,-0.057424,0.260440,0.963781
-0.179538,0.176745,0.452732,0.843083,-0.382602,-0.377925
-0.599215,0.465261,-0.986876,-0.111139,0.070713,0.991286
-0.699123,0.361692,-0.463967,0.947561,0.257313,-0.189522
-0.508989,0.404334,-0.158195,-0.741307,-0.633987,-0.220285
-0.027280,-0.004921,0.899188,0.389145,0.371078,-0.843129
-0.622802,0.352130,-0.076633,0.820383,-0.565529,-0.084555
-0.690974,0.469729,-0.984043,-0.627202,0.572468,-0.528108
-0.566229,0.526538,-0.988837,0.077638,0.280355,0.956752
-0.144349,0.543776,0.873341,0.540693,0.831003,-0.130714
-0.274174,0.237046,0.711517,-0.072587,0.996716,0.035894
0.512632,0.171860,0.606884,-0.419892,0.338700,0.842005
0.351455,-0.153296,0.894179,0.439201,-0.746895,0.499249
0.018745,0.244163,0.684683,0.005735,0.611560,0.791177
0.293445,0.365251,0.854578,0.074019,-0.703639,0.706692
0.371206,0.276826,0.615586,-0.360120,-0.747129,0.558670
0.131118,0.421712,0.623199,0.073571,-0.698017,0.712291
-0.027757,0.137593,0.556650,0.365231,-0.806156,0.465530
-0.117599,0.196915,0.480053,-0.602180,-0.784562,0.147790
-0.119899,-0.081063,0.765716,0.393860,-0.527607,0.752665
-0.413204,0.208431,0.830863,0.249156,0.885435,0.392335
-0.815139,0.434205,-0.874786,0.755958,-0.499661,0.422926
-0.205905,0.586000,0.641018,-0.416309,0.715190,-0.561417
-0.981782,-0.243117,-0.981924,-0.059735,0.060027,0.996408
0.617623,0.209059,0.810355,-0.741372,0.668156,-0.062724
-0.393642,0.272918,0.817740,0.369858,0.751667,0.546079
-0.041948,0.095090,0.383549,0.259723,-0.962495,0.078400
0.157774,0.300904,0.707653,-0.283386,0.904898,0.317574
-0.841219,0.024880,0.769437,-0.565870,0.289865,-0.771861
-0.743611,-0.181142,0.832438,-0.136504,-0.478327,0.867508
0.191427,-0.033883,0.815722,-0.422068,0.329053,0.844738
0.840166,0.801236,0.569129,0.338373,-0.859512,0.383071
0.015005,0.199218,0.869949,0.899619,-0.436044,0.023475
-0.317225,0.248561,0.749229,0.929026,-0.368189,0.036717
0.507263,0.350246,0.860532,0.424751,0.840762,0.335717
-0.734215,0.507765,-0.931289,-0.485737,0.865715,0.120819
-0.554053,0.213805,0.023006,0.808384,-0.581761,-0.089829
-0.147132,0.091252,0.290622,0.497042,0.858123,-0.128737
-0.008869,0.398192,0.908734,0.765691,0.627763,0.140107
0.488662,0.491014,0.882786,-0.347039,0.232011,0.908700
-0.594036,-0.343616,0.511811,0.982234,0.119478,-0.144713
0.138790,0.376557,0.841454,0.795834,0.407836,0.447569
-0.323171,-0.727048,0.610204,-0.024066,0.538196,0.842476
0.895106,0.692641,0.539433,0.937202,0.348348,0.017496
-0.077617,-0.054821,0.637411,-0.459269,0.836107,-0.299995
-0.704875,0.359946,-0.643150,-0.787861,0.575418,0.219472
-0.166500,-0.036745,0.770654,0.250598,0.941493,0.225368
-0.559999,0.061661,0.863967,0.741445,0.456844,-0.491481
-0.061316,0.187912,0.415707,0.952421,0.050354,0.300598
0.345989,0.629620,0.872740,0.919651,0.035028,-0.391171
-0.420393,-0.268939,0.379183,-0.111803,0.969819,0.216681
-0.139556,0.584255,0.885892,0.363805,0.930686,-0.038327
-0.452322,-0.067663,0.811356,0.546173,-0.532480,-0.646653
-0.499977,0.612660,-0.989080,0.032804,0.138523,0.989816
0.247040,0.137454,0.852675,-0.244814,-0.968311,-0.049392
-0.130161,0.171163,0.827243,0.763016,-0.516820,-0.388207
-0.200056,0.576578,0.868031,0.057339,0.997100,-0.050047
-0.001390,0.388072,0.670500,-0.349807,0.630447,0.692944
-0.419340,0.192867,0.089484,0.209876,0.948619,0.236802
-0.577927,-0.699899,0.496082,0.743123,0.201613,0.638060
-0.459514,0.323377,-0.269097,0.718456,0.607901,-0.338050
-0.066782,-0.254284,0.778955,0.124244,0.229204,0.965416
-0.580707,-0.435739,0.584686,-0.691316,0.686956,0.223994
0.030250,-0.166067,0.906945,0.847539,-0.131671,0.514141
-0.414930,-0.186097,0.301814,-0.148564,0.932796,0.328361
-0.463158,0.254074,0.033411,0.846124,-0.512649,0.145823
-0.369096,-0.349199,0.600730,-0.484981,0.872647,-0.057272
-0.343209,-0.243955,0.328448,0.922189,-0.252835,-0.292646
0.319718,0.575881,0.791620,0.846285,-0.525412,-0.087996
0.427682,0.713717,0.848309,-0.526667,0.841563,0.119973
-0.757609,0.414035,-0.759319,0.889357,-0.415752,-0.190247
0.549644,0.389678,0.869791,0.421712,0.742348,-0.520652
-0.176566,0.314234,0.809897,0.381836,-0.765272,0.518228
-0.678125,0.363855,-0.624115,0.962155,-0.266805,-0.055426
-0.621266,-0.578951,0.565208,0.900299,0.179397,0.396583
0.179635,-0.093974,0.775405,0.326878,0.409261,0.851855
0.412820,0.066196,0.839937,0.048146,-0.998752,-0.013272
-0.177525,0.124262,0.666936,-0.082088,-0.532224,0.842614
-0.837576,-0.205430,0.740484,0.970276,-0.105691,0.217703
0.521454,0.547126,0.833053,-0.629134,0.665921,-0.400923
-0.001583,-0.442579,0.585674,0.245430,0.524462,-0.815294
-0.491058,0.178979,0.132749,0.921962,-0.288185,-0.258719
-0.218467,0.131731,0.259609,0.516453,0.823225,-0.235748
-0.214534,0.225180,0.781745,0.030591,0.880131,0.473745
-0.767391,0.575322,-0.995549,-0.087669,0.394260,0.914808
-0.868066,0.475939,-0.993302,-0.202050,-0.089581,0.975270
-0.677069,0.419269,-0.474056,0.742312,-0.651602,0.156165
0.070905,0.110444,0.707481,0.975213,-0.213556,-0.057913
-0.242627,-0.524793,0.591456,-0.560144,0.032533,0.827756
-0.808333,-0.161252,0.661856,0.992346,-0.101245,-0.070706
0.677262,0.614824,0.805675,0.146009,0.801383,-0.580057
-0.598638,-0.391632,0.506229,0.927649,0.038173,-0.371496
0.343306,0.350735,0.846635,-0.414163,-0.734541,-0.537512
-0.737475,0.372928,-0.667280,0.958647,0.283514,0.024810
-0.457405,0.042049,0.793080,0.957858,0.174772,-0.227953
-0.048181,0.184143,0.715095,0.162621,-0.198436,0.966529
-0.565942,0.410406,-0.437390,0.916369,0.266537,0.298707
-0.759335,0.651883,-0.997295,-0.088342,-0.059336,0.994321
0.182032,0.088041,0.836273,-0.661936,0.440427,-0.606519
0.664221,0.141920,0.879509,0.965203,-0.229958,0.124512
-0.583107,0.380605,-0.281076,0.837452,0.464049,0.288674
0.180019,0.247164,0.720477,-0.241207,0.713580,0.657741
-0.134187,0.180026,0.790976,0.461434,-0.886027,0.045105
