-0.151113,0.090859,0.027791,-0.681950,0.725721,0.090958
0.151963,-0.062415,-0.958133,0.985027,-0.111715,-0.131305
0.748443,-0.211296,0.963623,0.186277,0.154850,0.970218
0.360635,-0.492186,-0.907219,-0.365465,-0.469012,-0.804029
0.932270,-0.236055,0.118118,-0.347628,-0.932973,0.093358
0.149388,-0.120927,0.868666,-0.295495,0.622583,-0.724619
0.110734,0.084552,-0.301462,-0.458338,0.853363,-0.248390
0.233358,0.726064,0.544077,-0.745411,0.489277,-0.452736
0.570911,-0.415169,-0.968092,0.904098,0.254284,-0.343434
-0.114217,0.107576,0.108434,-0.843009,0.353627,-0.405319
-0.054476,0.007656,0.294320,-0.754741,0.624761,-0.200100
-0.128553,0.081615,0.411507,-0.142830,-0.925397,-0.351055
0.111160,-0.347177,-0.984646,-0.457396,0.319736,0.829793
0.504829,-0.165384,0.845561,0.470593,0.472347,0.745272
-0.043487,0.222950,0.783644,0.938510,0.116616,0.324961
0.323776,-0.449843,0.871476,0.968711,0.243192,-0.049555
-0.138167,0.093170,-0.182433,0.056783,0.988519,-0.140021
0.396073,0.537964,0.657629,0.612116,0.266067,0.744662
0.195584,0.157736,0.553607,0.258390,-0.482286,0.837039
0.394810,-0.198397,0.847479,0.363676,-0.720224,-0.590776
0.036783,0.425573,0.591394,0.883537,0.039392,-0.466701
-0.060802,-0.009087,0.383694,0.934754,0.200986,0.292984
0.464690,-0.156569,-0.935884,0.226934,-0.316171,0.921161
-0.162340,0.093631,0.488842,-0.794453,-0.600846,-0.088482
0.079947,-0.044125,0.520443,-0.219970,-0.428434,0.876389
-0.099655,-0.904733,0.584183,0.238377,0.616961,0.750024
0.251565,-0.249489,0.553117,0.535222,0.842614,0.059487
-0.282162,0.179577,0.607602,0.804652,0.050129,-0.591627
0.745658,-0.678672,0.922449,0.703641,-0.567500,-0.427589
0.346502,0.421006,0.780036,-0.041410,-0.953421,-0.298788
0.299755,-0.497387,0.782007,0.397327,-0.332853,0.855184
0.383223,-0.230877,0.855134,-0.321664,-0.390402,0.862623
0.718056,-0.178835,1.000000,0.340256,0.624337,-0.703157
0.301152,-0.181472,0.793565,-0.630444,-0.697352,0.340942
0.111713,0.376127,0.696252,0.772083,-0.565827,-0.289357
-0.745079,-0.085939,0.652145,-0.700237,0.626508,0.342281
0.562498,-0.294944,0.877473,-0.380789,0.374370,0.845486
-0.029052,0.057874,0.633196,0.622104,0.734155,-0.272033
-0.037728,0.007300,-0.159522,-0.194655,0.845721,0.496856
-0.413166,-0.182668,0.428331,-0.554222,-0.831545,0.037020
0.042730,0.014962,0.841024,-0.139812,0.988368,-0.059837
-0.073324,0.209361,0.855695,-0.553265,-0.189386,0.811191
0.544906,-0.223229,0.925513,-0.635577,-0.767027,-0.087817
-0.654256,-0.520261,0.553543,-0.599972,-0.755267,-0.263827
-0.056825,-0.439864,0.486488,0.053376,-0.428370,0.902026
0.050618,-0.031555,-0.334046,0.468587,-0.883407,0.004291
0.209814,-0.054165,-0.952980,0.209380,-0.976475,-0.051550
-0.378109,0.272764,0.576158,0.976085,-0.117349,-0.182995
0.238098,-0.106184,0.790626,-0.384033,0.899020,-0.210432
0.010212,-0.449890,-0.971752,0.918005,-0.351064,-0.184448
-0.389097,-0.059767,0.327700,0.144438,0.677942,0.720786
0.115400,0.034894,0.637575,0.573610,-0.768726,-0.282899
0.453288,-0.549276,0.923136,0.822620,0.017765,-0.568314
-0.520660,0.369155,0.444647,0.042518,-0.989397,-0.138877
-0.714299,0.117740,0.674066,0.865795,-0.380559,0.324922
0.284585,0.012232,0.544018,0.586840,-0.084416,-0.805290
0.262994,-0.389506,-0.958564,0.816468,0.145408,-0.558782
-0.055674,0.133244,0.694919,0.969829,0.242110,-0.028555
-0.088745,0.087202,0.302903,0.865413,0.456825,0.205843
0.299094,-0.717850,0.450704,0.311307,0.862532,-0.398908
0.313843,0.378430,0.689130,0.812922,-0.532991,-0.234691
0.300422,-0.543244,-0.924800,0.425151,0.904495,-0.033695
0.431600,-0.109072,-0.931397,0.971993,0.117927,0.203282
0.644820,-0.368264,0.094916,-0.135154,0.604277,0.785228
0.604397,-0.376411,0.111142,-0.279108,-0.317870,-0.906122
0.399973,-0.187094,0.809693,0.055113,0.470507,0.880673
0.233597,0.439503,0.739672,0.696783,0.094719,-0.711000
-0.233243,-0.064983,0.594710,-0.135427,0.445951,0.884753
0.326938,0.084157,0.853022,0.071824,0.896524,0.437134
0.656210,-0.007620,0.512468,-0.291428,0.037226,0.955868
-0.461559,-0.247859,0.517889,-0.745329,-0.249142,0.618395
0.200925,-0.164858,0.776152,0.796451,-0.378628,0.471495
0.174892,0.020195,0.626485,-0.348761,0.862603,-0.366446
0.182745,-0.364956,-0.945008,-0.319577,0.057949,0.945787
-0.001621,-0.074446,-0.462297,0.890721,0.405289,-0.205806
-0.007384,0.096011,0.244918,-0.014401,-0.766114,0.642543
-0.193402,0.216435,0.630252,-0.273532,-0.771072,-0.575002
-0.423453,-0.213964,0.445208,0.995058,0.097380,-0.019394
-0.469001,0.155748,0.536782,-0.641624,0.618430,0.453722
0.429943,-0.528493,-0.925824,0.878931,-0.002976,0.476940
-0.640271,-0.076727,0.697838,-0.076319,0.961183,0.265147
-0.226307,0.016002,0.788921,-0.551459,-0.446337,-0.704753
-0.179672,0.088934,0.179964,0.971633,-0.210297,0.108187
0.021971,-0.625290,-0.888893,-0.054630,-0.987066,0.150719
-0.312921,-0.302605,0.520971,-0.021754,0.595599,0.802987
0.091996,0.140775,0.630584,0.414534,0.609952,0.675366
-0.308366,-0.664938,0.630977,-0.143093,0.102740,0.984362
0.089096,0.003345,-0.326384,0.146636,0.939824,-0.308592
-0.317970,0.125011,0.758152,-0.131137,0.074468,0.988563
-0.003558,0.150834,0.533902,0.911084,-0.305406,-0.276862
-0.092918,-0.016790,0.367921,0.698486,0.710877,-0.082286
0.189138,-0.445742,0.788387,0.916767,0.217750,0.334848
0.624839,-0.432542,0.527755,0.159915,-0.521059,0.838406
0.580501,-0.731881,-0.928908,-0.449873,0.322855,-0.832694
-0.507316,-0.386383,0.641899,-0.341043,-0.829660,-0.441987
0.190915,0.452464,0.524595,0.841716,-0.112113,-0.528153
-0.582227,-0.326613,0.706888,-0.369514,0.928047,0.046791
0.434271,-0.287400,0.858850,0.253627,0.931040,0.262369
0.240512,0.212026,0.718620,-0.699142,0.330482,0.634021
0.363872,-0.161824,0.052075,0.668294,0.404058,0.624596
0.335936,0.323870,0.724983,0.779987,0.347636,-0.520355
-0.602398,0.047878,0.661248,0.778692,0.478332,-0.406001
0.386624,-0.325675,0.826701,0.552906,0.810763,-0.192246
0.042743,-0.714815,0.442006,0.323158,0.693405,0.644017
-0.627018,-0.046159,0.669106,0.725125,-0.445732,0.524897
-0.121921,0.113430,-0.034828,0.571650,0.757390,0.315558
0.635413,-0.269235,0.477121,-0.057423,-0.797671,0.600353
0.296143,0.646903,0.776071,0.934813,0.000249,0.355141
0.172621,0.418388,0.528587,0.895090,-0.358448,-0.265195
-0.423416,0.330275,0.653691,-0.725205,0.342413,0.597353
0.415020,0.058957,-0.947818,-0.252558,0.638831,0.726712
-0.533771,-0.320207,0.632390,-0.745199,-0.040666,-0.665601
-0.382940,0.406713,0.588935,0.769357,-0.421104,-0.480376
-0.733846,0.031594,0.675527,0.883972,0.233714,0.404933
0.552244,-0.564607,-0.931962,0.476440,0.054343,0.877526
-0.137224,0.649978,0.663824,0.386413,0.892094,0.234210
-0.098658,0.083549,0.334371,-0.687376,-0.721894,-0.079900
0.096172,0.162202,0.689603,0.060574,0.807200,0.587162
0.060650,-0.292151,-0.964903,-0.093935,0.627351,0.773050
0.222723,-0.629659,-0.964869,0.099413,-0.239646,0.965757
-0.568584,-0.012463,0.598484,-0.272072,0.932629,0.237025
0.283933,-0.241393,0.737271,-0.324778,0.939616,-0.107889
-0.222648,0.343569,0.808162,0.832143,-0.021283,0.554152
-1.000000,0.004414,0.545772,-0.323744,0.080675,-0.942699
0.068424,0.692189,0.594478,-0.091091,-0.153932,0.983874
-0.293077,-0.345316,0.792564,0.923111,-0.327918,-0.200840
0.183841,-0.108962,0.809876,-0.137869,0.653246,-0.744488
-0.088104,0.235636,0.540681,-0.170555,0.490484,-0.854597
-0.566768,-0.736048,0.533921,0.503891,0.014755,-0.863641
0.663758,-0.319184,0.483130,0.728827,-0.596068,-0.336918
-0.094368,0.135203,0.295692,0.944397,0.131765,0.301252
0.154025,-0.524065,0.492286,0.820457,0.555092,-0.136833
-0.154709,-0.025110,0.406554,0.753514,0.110901,0.648010
0.209443,-0.102228,-0.971347,0.299883,0.108920,-0.947738
0.037152,-0.398443,0.457064,0.984269,0.153267,0.087891
-0.614342,-0.077143,0.693590,0.726675,0.643322,0.240997
-0.436846,-0.489959,0.672954,-0.643021,0.039603,-0.764824
0.847567,-0.191620,0.950682,0.938761,0.192912,0.285503
-0.609948,0.191607,0.537984,-0.450597,0.884153,0.123432
0.455864,-0.688725,-0.932173,0.075739,0.303986,-0.949661
0.018321,0.087260,0.557506,0.812874,0.311241,0.492306
0.405475,0.510352,0.652696,0.878468,-0.284122,0.384146
0.495923,-0.235497,0.903453,0.882069,0.132747,-0.452031
-0.174277,-0.116280,0.632114,0.794449,-0.052969,-0.605016
0.051063,0.511542,0.559238,-0.591888,0.753361,0.286558
0.065550,0.603736,0.654759,0.210807,-0.951234,-0.225198
0.477816,-0.162029,0.780939,0.306823,-0.756278,0.577844
-0.029297,0.243558,0.807245,-0.592028,-0.797842,0.113799
-0.507966,-0.132644,0.382788,0.944423,0.261868,-0.198723
-0.165766,-0.366209,0.608882,-0.685855,0.413397,-0.598921
0.342345,-0.027321,-0.899491,0.095328,0.889851,0.446181
-0.113477,-0.024677,0.039608,-0.073721,0.755543,0.650937
0.585641,-0.254616,0.877313,0.661124,-0.254683,-0.705727
0.418272,-0.244054,0.867913,0.877777,-0.461951,0.126919
0.300369,-0.203683,-0.594354,0.830543,0.041299,0.555422
-0.383989,-0.332531,0.521729,0.739149,0.635943,0.221892
-0.097008,-0.042545,0.601374,0.789085,0.517705,-0.330646
-0.537165,-0.236647,0.697638,0.175796,0.611938,0.771121
0.150629,0.567626,0.626187,0.751038,-0.657004,0.065476
0.104804,0.292076,0.854364,-0.281849,0.957812,-0.056186
0.068445,-0.057300,0.686834,0.998371,-0.037148,-0.043298
0.223603,-0.807441,0.424937,-0.345281,0.790237,-0.506268
0.808494,-0.341784,0.492685,-0.374689,-0.048767,0.925867
-0.066289,0.117671,0.050291,0.913285,0.339544,0.224992
0.548570,-0.686893,-0.922862,-0.101483,0.038102,0.994107
0.024248,-0.348937,0.815345,0.790028,0.404501,0.460690
0.409666,-0.278436,0.554299,-0.392847,-0.672724,-0.626988
0.569190,-0.484364,0.923744,-0.057344,-0.967680,-0.245574
0.332384,-0.214182,0.857501,0.828554,-0.100308,0.550851
-0.078974,0.157276,0.850611,-0.742117,-0.385511,0.548309
-0.175941,0.003452,0.299907,-0.457868,-0.794996,0.397918
-0.160015,0.072154,0.110998,-0.499062,0.664123,-0.556667
0.150159,-0.290257,0.791015,0.766115,-0.140502,0.627158
0.074037,-0.194236,-0.960813,0.307817,-0.177923,0.934662
0.216887,-0.034767,0.471098,0.538895,-0.771238,-0.338798
0.205574,-0.221984,0.449565,0.628463,0.492282,-0.602240
0.415646,-0.224509,0.840454,0.032341,0.957843,0.285468
0.046056,0.474965,0.732805,-0.047630,0.638312,0.768303
-0.033468,0.062995,0.645401,-0.669991,-0.230248,-0.705761
0.090052,0.380159,0.521669,0.910264,-0.390779,0.136789
-0.014813,-0.185943,0.522646,0.729471,-0.644191,0.229979
0.152227,0.894865,0.610340,0.830709,-0.005959,0.556676
0.165796,0.827722,0.600764,0.322616,0.056283,0.944855
0.108480,-0.001330,-0.423785,0.345159,0.594624,-0.726145
-0.085387,-0.001125,-0.172011,0.191387,0.979319,0.065614
0.262601,-0.067028,0.821142,0.904740,0.283956,0.317513
0.304935,-0.388098,-0.925510,0.736510,-0.044640,-0.674952
0.292985,-0.116803,-0.947090,-0.463574,0.390007,0.795609
-0.205337,0.049308,0.022754,-0.054161,-0.932502,0.357080
0.173464,-0.469682,-0.930158,-0.053307,-0.246164,0.967761
-0.080760,0.202260,0.524640,0.820305,-0.478751,-0.312886
-0.237903,-0.127459,0.490520,-0.224420,-0.675494,0.702384
0.113732,0.013160,0.319715,0.425433,-0.904124,0.039572
0.118963,0.822741,0.639354,0.298001,0.892076,0.339699
0.149842,0.077445,-0.959632,0.042091,-0.408443,0.911813
-0.108915,-0.418027,0.573988,-0.031757,0.959336,0.280473
0.544770,-0.158351,0.811366,0.099141,0.991395,-0.085483
-0.550834,0.244325,0.615507,0.897239,0.366297,-0.246552
0.158734,-0.192631,-0.931708,0.972888,0.209025,0.098984
-0.726632,0.310779,0.631273,-0.549883,-0.777908,0.304119
0.982144,-0.414564,0.487441,0.755930,0.576659,0.309896
0.527429,0.192632,0.516096,0.277859,-0.313050,0.908182
0.656306,-0.349341,0.109785,0.057828,-0.957901,0.281213
-0.964311,0.000060,0.592390,0.564862,-0.817331,-0.113579
0.131593,0.167759,0.601230,0.501377,0.309843,-0.807848
0.244571,0.443796,0.763867,0.780384,-0.434064,0.450099
0.317627,0.090621,0.670362,0.906974,-0.345841,0.240401
0.436890,-0.616432,0.929511,0.879145,0.151961,-0.451676
0.306786,0.679211,0.663037,0.718581,0.398352,-0.570050
0.384765,-0.237863,-0.924129,0.778387,-0.585586,0.226278
-0.464179,-0.455374,0.527487,-0.404762,-0.536872,-0.740227
0.023634,-0.594763,0.449329,-0.233187,-0.267531,0.934907
0.280882,0.527318,0.741967,0.980831,0.092249,-0.171638
-0.814590,-0.223216,0.540556,-0.699260,-0.631329,0.335349
-0.193746,-0.008563,0.572637,-0.787959,0.611433,-0.072596
0.010215,-0.071926,0.467430,0.843870,0.526301,-0.104358
-0.158359,0.050327,0.662612,-0.432065,-0.901778,0.010754
0.700234,-0.168729,0.415112,-0.599844,0.603597,0.525222
-0.387958,-0.505353,0.488895,-0.517426,0.746338,0.418629
0.591394,-0.448111,0.930434,0.096285,0.648409,0.755178
-0.061343,-0.109474,0.513670,-0.011522,0.664659,0.747058
0.207740,-0.095600,0.736698,0.695703,-0.270604,-0.665410
0.063951,0.165959,-0.255872,0.930630,-0.355233,0.087957
-0.434604,-0.313244,0.457013,0.860054,-0.205563,-0.466959
0.200575,0.310680,0.814445,-0.251114,0.960469,0.120167
-0.116492,0.122258,0.846285,-0.105908,-0.506596,0.855654
-0.146079,0.312070,0.810458,-0.094560,0.133086,0.986583
-0.250210,-0.121295,0.498321,0.245454,-0.960436,0.131583
0.446784,0.071839,0.337187,-0.441316,-0.845474,0.300689
0.114753,0.514419,0.525092,0.457599,0.634035,-0.623380
0.188379,-0.428131,-0.948454,0.097056,-0.930155,0.354106
0.202762,-0.486571,-0.957714,-0.263642,0.489381,0.831264
0.122433,-0.451009,-0.933085,0.553109,-0.831111,-0.057666
0.246887,-0.242423,0.104523,0.784498,0.590179,0.190399
0.159944,-0.313272,0.425739,-0.176731,-0.195628,0.964622
-0.669942,-0.153676,0.732862,0.968831,-0.021498,0.246789
0.359250,0.084445,0.450409,0.254073,0.828500,-0.499034
0.502981,-0.073238,-0.931245,-0.039778,0.223320,0.973933
-0.293385,0.070002,0.569820,0.547353,0.808793,0.215079
0.159860,-0.503675,0.088506,0.314487,0.191550,-0.929734
0.010738,0.227907,0.559919,-0.586955,0.719463,0.371292
0.491491,-0.476540,0.927214,-0.108779,-0.975501,-0.191219
-0.157829,0.067395,0.532957,0.155897,-0.020893,0.987552
-0.193963,0.077591,0.501793,0.019328,0.671018,0.741190
-0.401197,-0.561464,0.664196,0.791479,0.043654,0.609635
0.364011,0.442723,0.759605,0.740446,0.665374,0.094956
-0.164544,-0.083261,0.453466,0.506959,0.688233,0.518969
0.284616,-0.438663,0.903457,0.845102,0.075148,-0.529297
0.299077,0.352339,0.611100,0.236494,0.771781,0.590276
-0.869452,-0.589068,0.513446,-0.086722,-0.780027,0.619707
-0.466822,-0.222477,0.680153,0.841295,0.235990,0.486345
-0.477244,-0.683991,0.545666,-0.721556,0.668821,0.178986
-0.213646,-0.088075,0.607137,0.922919,-0.335009,-0.189712
0.200390,-0.461432,0.794733,-0.716649,-0.440426,0.540777
-0.038285,0.036614,-0.208913,-0.047339,-0.998715,-0.018076
0.351713,-0.310319,0.540513,0.524015,0.719415,0.455906
0.121496,0.071093,0.593529,0.546449,0.173646,-0.819293
0.917166,-0.307069,0.107965,-0.148948,0.311636,0.938455
-0.122583,0.114440,0.115762,-0.724488,0.563502,-0.396968
-0.020395,0.189212,0.682809,0.566599,-0.692386,-0.446728
0.422700,-0.234503,0.838802,0.000669,0.303149,0.952943
0.541062,-0.351951,0.118683,-0.084872,0.712220,0.696806
0.514472,-0.120103,0.468483,0.127351,-0.140199,0.981899
0.218905,-0.613865,-0.941763,0.022817,-0.844392,0.535240
0.204018,-0.448395,0.784837,-0.661166,-0.393398,-0.638825
0.068400,0.036176,0.575798,0.936916,-0.036739,-0.347619
-0.124734,-0.206756,0.542997,0.601690,-0.771167,-0.208016
-0.202883,-0.090668,0.520002,0.130096,-0.986477,0.099692
0.179237,0.527821,0.619684,0.863749,-0.061600,0.500144
0.162624,-0.207642,0.093282,0.282097,0.934915,0.215301
0.099553,0.085668,0.870927,0.124213,0.268032,0.955369
0.508379,0.066613,0.899548,0.847073,-0.519177,0.113674
0.279428,-0.420285,-0.924559,0.659469,0.209292,-0.722009
-0.453726,-0.253660,0.535062,0.805828,0.576725,0.134278
0.690909,-0.181330,0.912506,0.014937,0.921939,0.387047
0.550395,-0.333563,0.876207,0.513954,-0.082446,-0.853847
0.007663,0.336908,0.599475,0.676335,0.709027,-0.199628
0.384309,0.490168,0.665122,0.987928,0.140079,-0.066147
0.143372,-0.002083,-0.971282,0.913069,-0.124714,-0.388267
0.334656,-0.079215,-0.952836,0.859741,-0.335399,0.385167
-0.114662,0.702648,0.697126,0.935341,-0.331811,0.122627
-0.055850,0.077430,0.463964,0.370905,0.873786,-0.314528
0.186091,-0.110869,-0.926638,0.974527,-0.224169,0.006793
0.630754,-0.218502,0.935719,-0.220001,-0.124117,0.967571
0.481376,-0.058964,-0.955206,0.230140,-0.767030,0.598916
-0.226726,0.201591,0.550015,-0.354289,0.015532,-0.935007
-0.015521,0.057793,0.610847,0.392506,0.741353,0.544367
-0.061046,-0.254538,0.587926,0.900389,-0.020152,-0.434619
0.457571,0.067037,0.317497,-0.178265,0.917530,-0.355471
0.266573,-0.198954,-0.725012,0.707535,0.609662,-0.357361
-0.177718,0.075917,0.683953,-0.462205,-0.884858,-0.058243
-0.573941,-0.594000,0.522870,0.514312,0.631404,0.580355
0.117988,0.011585,0.654903,0.659241,-0.543750,-0.519362
0.345542,-0.171929,0.014480,0.678819,-0.251325,0.689957
0.203872,0.127382,0.287441,0.610046,-0.050320,-0.790766
-0.626491,0.138756,0.738965,-0.468093,0.694271,-0.546696
-0.748651,0.199695,0.540973,-0.081630,0.691924,0.717341
-0.063797,0.239768,0.518065,-0.462020,0.886868,-0.001652
-0.359144,0.477020,0.538605,0.206917,0.860586,-0.465379
0.102805,0.341658,0.893402,-0.428272,-0.400475,-0.810064
0.012376,-0.062786,0.510766,-0.519245,0.822963,-0.230470
-0.076088,-0.388681,0.550259,0.293665,0.947157,-0.129055
-0.359954,-0.444435,0.497217,0.613547,0.647828,-0.451530
0.197972,0.491837,0.700960,0.813281,-0.462894,0.352568
-0.085648,-0.037028,0.566836,0.923972,-0.305585,0.229986
-0.398166,0.315905,0.500344,-0.214531,0.548833,0.807935
-0.063768,0.076514,-0.131745,-0.272868,0.887603,-0.371086
0.333643,0.526502,0.739975,0.563588,-0.191842,-0.803471
0.402007,-0.465531,0.881866,0.930738,-0.324693,0.168228
0.391934,-0.424119,0.894197,0.892743,-0.145469,0.426437
-0.107720,0.009338,0.607996,0.863508,0.452758,0.222180
0.675199,-0.675108,0.933891,0.205363,0.595671,0.776532
0.465122,-0.299419,0.868388,0.827557,-0.525719,-0.196897
0.757917,-0.171284,0.920675,0.027577,0.984904,0.170890
-0.171444,0.288193,0.873989,-0.168809,-0.966920,0.191229
0.290411,0.682930,0.587742,-0.316489,0.841417,0.438009
0.007094,0.048054,-0.134833,0.963307,-0.180364,0.198768
0.203158,0.409047,0.876543,-0.443160,0.881497,0.163009
0.315201,-0.147669,-0.958130,-0.304226,0.568812,0.764133
-0.318285,0.198945,0.893655,0.712333,-0.578472,0.397432
-0.121939,-0.011727,0.339936,-0.121407,-0.982683,-0.139980
-0.341817,0.212632,0.448793,-0.878716,0.359007,0.314598
0.168289,-0.210983,-0.972655,-0.449848,-0.777405,0.439633
-0.484494,0.268257,0.448043,0.758098,-0.001707,0.652138
-0.107725,-0.002463,0.568065,0.752434,0.210411,-0.624155
0.532689,-0.195055,0.936470,0.313696,0.608800,-0.728669
0.280190,-0.657355,-0.967047,-0.158986,0.780118,0.605094
0.030292,-0.129104,0.726409,0.284809,0.863763,0.415688
0.569139,-0.162279,0.947670,-0.217088,-0.466292,0.857580
0.223250,-0.240069,-0.931687,0.210702,0.472377,-0.855841
-0.424931,0.408390,0.657854,0.470345,0.857099,-0.210136
-0.263691,0.340555,0.556983,0.579483,-0.407836,-0.705599
0.108238,-0.126077,0.721690,0.541178,-0.712502,0.446617
-0.715075,-0.208486,0.516162,-0.190519,-0.941913,0.276589
0.449830,-0.294568,0.829588,0.472445,0.737309,-0.482877
0.342830,-0.107345,0.737882,-0.041008,0.621315,0.782487
0.064497,-0.144224,0.853367,0.631131,0.466322,-0.619852
-0.035106,-0.402842,0.492424,0.782839,0.307147,-0.541132
0.246699,-0.159420,0.768742,-0.402057,0.805918,-0.434564
0.005895,-0.172741,0.492351,0.386967,0.520234,0.761323
-0.232000,-0.476955,0.669956,0.863024,0.264128,-0.430611
0.164336,-0.174173,-0.975928,-0.752681,0.095427,0.651433
0.414700,0.166108,0.652113,0.425606,-0.642763,0.636958
-0.146095,0.152590,0.233614,0.817309,0.541344,-0.197364
-0.225760,-0.531830,0.575005,-0.729370,-0.605426,-0.318557
0.358656,-0.161536,0.775665,-0.453664,-0.387112,0.802704
-0.003816,0.894143,0.684210,0.070721,0.871980,0.484406
-0.113937,0.032147,-0.213855,0.762831,-0.300788,0.572376
0.142302,-0.745129,0.473822,0.046161,-0.616305,0.786153
0.344636,-0.575858,-0.906195,0.647448,-0.158744,0.745394
-0.552005,0.085689,0.473057,0.917876,0.395862,-0.028248
0.438388,-0.159499,0.856696,0.940162,0.300299,0.160984
-0.005898,0.549164,0.620105,-0.322819,0.849196,0.417917
0.196537,0.349434,0.648923,0.951491,0.026936,-0.306495
0.162798,-0.637938,0.467451,-0.479815,-0.130550,0.867602
0.421634,0.460050,0.666025,0.850815,0.515708,0.100789
0.147574,-0.069295,0.715485,0.943160,-0.292327,-0.158092
-0.122534,0.449842,0.576174,-0.058979,-0.791153,0.608768
0.301996,-0.217520,0.094139,0.661858,0.703334,0.259358
0.281747,-0.289053,0.086369,0.925792,-0.072024,-0.371109
-0.069263,-0.007347,0.084989,0.889608,0.402275,-0.216271
0.110284,-0.097546,0.662197,0.813145,-0.151008,-0.562131
-0.227350,-0.105214,0.501276,0.955407,-0.012852,-0.295012
-0.079091,0.094924,0.458528,-0.038270,-0.915983,0.399387
0.252941,0.713768,0.561959,0.816131,-0.265812,-0.513103
0.122772,0.228110,0.615514,0.982773,0.030161,-0.182341
0.036906,-0.045075,0.646871,0.796114,-0.561187,-0.226434
-0.162154,-0.428685,0.572998,0.762679,-0.417884,-0.493654
0.033915,0.072077,0.780790,-0.374810,-0.463098,0.803155
0.065804,0.038014,0.053553,-0.444300,0.631312,0.635644
0.006447,-0.074580,0.473245,0.883879,0.462903,-0.066923
0.305132,-0.502305,0.775002,0.888686,-0.067025,-0.453590
-0.626100,0.019117,0.726586,-0.402576,-0.861807,0.308578
0.150372,-0.175250,-0.909406,0.822479,0.199203,0.532773
0.181977,-0.650721,0.459661,-0.449419,0.087254,0.889050
0.051537,-0.611864,0.467534,-0.467729,0.487657,-0.737170
-0.504292,0.303121,0.461760,0.956555,0.234448,-0.173314
-0.363805,0.292522,0.559446,0.101955,0.993803,-0.044274
0.145568,0.066565,0.689256,-0.702097,0.706813,-0.086463
-0.361567,0.145513,0.585406,-0.633023,0.140158,0.761340
-0.071644,0.054738,0.367196,-0.114322,0.909262,0.400216
0.399460,-0.047678,0.740221,0.464459,0.526751,0.711907
0.800020,-0.224203,0.963110,-0.158588,-0.840737,-0.517699
0.248838,-0.114720,-0.955515,-0.462508,-0.532787,-0.708678
-0.366111,0.385713,0.675197,0.837282,-0.388681,0.384560
0.322854,-0.757875,0.475247,0.126337,0.991631,-0.026576
0.306023,0.537291,0.686622,0.517949,-0.733001,-0.440951
0.293959,0.352575,0.556005,-0.336087,-0.857369,0.389825
0.058772,0.103112,0.711162,0.593427,0.316757,0.739938
0.596463,-0.341947,0.489106,0.313589,-0.537324,-0.782908
-0.181543,-0.007259,0.061809,0.841918,0.427209,0.329646
-0.113351,-0.016980,-0.087601,0.998407,-0.029565,-0.048064
0.103573,-0.386427,0.525866,0.849608,0.526694,0.027549
-0.401107,0.499856,0.512072,-0.797354,-0.003507,-0.603502
-0.559171,-0.457488,0.524815,-0.006827,0.672497,0.740069
0.122676,0.382689,0.631394,0.505030,0.011474,-0.863025
-0.792582,-0.266520,0.625978,0.755967,0.175868,-0.630542
-0.724397,-0.432784,0.594318,0.640094,0.588021,-0.494481
0.000150,0.008344,-0.153492,-0.487730,0.850679,0.196125
0.159788,0.392133,0.623900,-0.688472,0.186967,-0.700749
0.500212,-0.463318,0.949381,0.403687,0.578749,0.708580
-0.121040,-0.051817,0.451044,-0.284482,0.175104,0.942554
0.392954,-0.185633,0.843983,-0.192166,0.719923,0.666921
0.004756,0.528256,0.662143,-0.116089,0.505496,0.854984
0.055916,0.256331,0.739333,0.474996,-0.120097,0.871755
-0.639036,-0.022066,0.672155,0.901831,-0.132153,0.411383
0.038960,-0.110984,-0.478741,0.999373,0.034933,-0.005759
-0.511617,-0.321051,0.631650,-0.732227,0.070262,-0.677426
-0.068544,0.035884,0.644510,0.030556,0.863274,0.503810
0.551470,-0.160632,0.942079,0.007265,-0.784702,0.619831
-0.060056,0.326825,0.655657,-0.385770,0.618512,0.684562
-0.154469,0.448323,0.670674,0.204527,0.749993,-0.629030
-0.558225,0.019354,0.767485,0.859111,0.226704,-0.458840
-0.702250,0.129176,0.713405,0.909537,-0.402502,-0.103611
-0.381673,0.287162,0.610039,0.988130,-0.122254,-0.093018
0.469682,-0.434962,0.926305,0.165786,0.723959,0.669626
-0.015773,0.031956,0.633474,-0.605411,-0.444374,0.660310
0.100959,-0.128888,0.524230,0.017853,0.922329,0.385992
-0.295562,0.439819,0.495501,0.516482,0.011440,-0.856222
-0.007077,0.036557,-0.188005,-0.667070,-0.706112,0.237537
0.475338,-0.230273,-0.953770,-0.640830,-0.672214,0.370763
0.002592,0.296282,0.532172,0.834180,-0.538034,-0.121093
0.313671,-0.313438,0.123428,0.391426,0.152058,0.907559
-0.505262,-0.690758,0.529854,-0.756761,0.370002,-0.538898
0.081045,-0.153771,0.829480,0.545054,0.024667,0.838038
0.319854,-0.281120,-0.950781,0.713395,0.608008,-0.348416
0.498225,-0.452474,0.908143,0.350392,-0.902771,0.249458
0.271258,-0.130830,-0.853595,-0.506726,0.433386,0.745255
0.276766,-0.002656,-0.970045,0.123941,0.088702,-0.988317
0.040120,0.179625,-0.194985,-0.838611,0.344524,-0.421942
-0.017048,0.059193,0.467317,0.994955,-0.013310,-0.099431
-0.052004,0.311935,0.811107,0.112898,-0.041068,0.992758
0.132235,-0.026911,-0.974609,0.506890,0.221146,-0.833161
0.779192,-0.377055,0.536596,0.472406,0.734820,0.486695
0.512316,-0.380780,0.898445,0.789274,0.423823,0.444320
0.358457,-0.046528,-0.887767,0.097213,0.862655,0.496362
-0.215270,-0.081852,0.426374,-0.621079,-0.767248,-0.159972
0.099101,0.026875,-0.349520,-0.209130,0.974131,-0.085630
0.139487,0.295973,0.697666,0.998478,0.007902,0.054584
0.044318,-0.329029,-0.958094,0.464317,-0.644464,0.607517
0.346797,-0.079778,-0.896985,-0.756832,-0.231023,-0.611420
-0.198690,-0.522772,0.675621,-0.108916,-0.503133,0.857318
0.233256,0.403835,0.882522,0.335172,0.876848,-0.344670
-0.763125,-0.017866,0.559393,0.106413,0.914271,0.390876
0.347791,0.453755,0.642897,-0.681124,0.664367,0.307713
0.015804,0.354062,0.883610,-0.691244,0.442622,-0.571198
-0.351342,0.118171,0.636462,0.390106,-0.911087,-0.133181
0.102223,-0.619175,0.537114,0.938174,0.157406,0.308306
0.238698,0.663160,0.610693,-0.099607,0.980140,-0.171474
0.296958,-0.273692,-0.596233,0.384411,-0.706526,0.594179
0.227531,-0.478893,0.772094,0.853502,-0.070483,0.516300
-0.474237,0.139858,0.789247,-0.160452,0.657919,0.735797
-0.412741,0.402655,0.646489,-0.297582,-0.746758,0.594809
-0.086854,-0.022185,0.607740,-0.122577,-0.974620,0.187327
0.439917,-0.274987,0.898153,0.851302,0.294852,-0.433989
-0.017616,-0.525128,-0.935332,-0.457959,-0.186034,0.869290
0.539785,0.177264,0.612676,0.795280,-0.602653,-0.065873
-0.159050,0.130559,0.516005,-0.798189,0.253884,0.546294
0.015801,0.504923,0.632668,-0.588356,-0.461030,0.664296
-0.833180,-0.327078,0.574183,0.730521,0.225584,0.644555
0.157819,0.320068,0.574962,0.929344,-0.350969,0.114629
0.089257,-0.041118,-0.210691,0.839376,0.430145,0.332299
-0.081778,-0.002497,0.024852,-0.056188,0.937246,0.344111
-0.704313,0.103946,0.541795,0.908058,-0.298977,0.293332
-0.376480,0.303190,0.662547,0.660832,0.448128,0.602065
0.313212,-0.261518,0.544044,0.420244,0.739298,0.526149
0.057534,-0.492866,-0.957756,-0.364231,0.671808,0.644988
0.478222,-0.301028,0.872839,0.887781,-0.446105,-0.113296
0.215858,-0.158936,0.810156,0.857462,-0.450093,0.249352
0.343927,-0.182173,-0.638025,0.849686,0.505952,0.148481
-0.247332,-0.391880,0.809825,0.873098,-0.431797,-0.226387
0.377065,-0.205161,0.492022,0.484573,0.870211,0.089007
-0.799341,0.054226,0.571438,-0.162803,-0.033185,0.986100
-0.531777,-0.072971,0.343858,-0.567056,-0.339882,-0.750285
-0.070542,-0.034958,0.390846,0.660028,0.104256,0.743971
-0.283861,0.383750,0.532773,0.055886,-0.756475,0.651630
0.049252,0.058129,-0.171954,-0.700374,-0.702711,-0.125192
0.271957,0.345390,0.746412,-0.860061,0.210089,-0.464928
0.483329,-0.557638,0.950621,0.868808,-0.035804,-0.493852
0.367163,0.770967,0.611474,0.154090,-0.504440,0.849586
-0.357809,-0.812551,0.569673,0.685576,0.131174,0.716086
-0.030842,0.021203,0.686433,-0.239985,-0.838201,0.489721
0.528929,-0.224238,0.923750,0.055991,-0.931278,0.359982
-0.139631,0.217227,0.848079,-0.157011,0.984680,0.075847
-0.245420,-0.228258,0.802843,0.905748,-0.370080,-0.206547
0.225475,-0.427327,0.770527,0.962845,0.186636,0.195182
-0.522853,-0.326019,0.643335,-0.642449,-0.542997,-0.540753
0.623066,-0.304481,0.924398,-0.776192,-0.162918,0.609084
0.368396,-0.128284,-0.920099,-0.145973,-0.960200,0.238135
0.018949,-0.015910,0.698728,0.239647,0.599676,0.763517
-0.829906,-0.015768,0.526384,0.365235,-0.928300,-0.069728
0.016208,-0.074612,-0.337367,-0.199454,-0.928174,0.314183
-0.410745,0.418598,0.526455,0.775584,-0.094798,-0.624086
-0.242827,-0.528498,0.588323,0.503777,0.757487,-0.415237
-0.197334,-0.867542,0.575768,0.909883,0.289431,-0.297225
0.084865,-0.498531,-0.947963,-0.548144,0.690888,-0.471393
0.329515,0.296721,0.733296,0.714142,-0.668917,0.206280
0.339351,-0.206881,0.785341,-0.114548,-0.989830,0.084348
-0.197594,-0.643566,0.613757,0.598885,0.766579,0.231719
0.450701,0.165343,0.635829,0.890986,-0.312639,0.329242
0.742509,-0.564738,0.924485,0.529436,0.779730,-0.334243
0.214203,0.160071,0.740075,0.007325,0.665870,0.746032
0.452402,-0.130525,0.833551,0.693541,-0.670818,-0.262687
0.646651,-0.391751,0.887511,0.634522,0.770140,-0.065313
0.172239,-0.101926,-0.930976,0.996978,-0.042694,-0.064898
-0.708923,0.216102,0.534940,-0.574121,-0.044542,-0.817558
-0.677878,0.113303,0.492694,0.179636,0.672310,0.718144
0.380727,-0.301682,0.895285,0.600176,-0.655347,-0.458595
0.206974,0.750022,0.612238,-0.023250,0.242528,0.969866
0.253612,-0.208609,0.737565,0.960031,0.279035,-0.021920
0.569473,-0.526476,0.932467,-0.015938,0.318992,0.947623
0.022974,-0.225543,0.798034,0.999770,-0.013889,0.016332
-0.000280,-0.131776,0.782616,-0.619462,-0.488901,-0.614201
0.810304,-0.242019,0.527930,0.554582,0.776367,-0.299489
0.155199,0.452793,0.622621,0.992265,0.035013,-0.119096
0.200519,-0.508800,-0.935587,-0.300354,0.715318,0.630958
-0.603673,-0.657912,0.531310,0.890035,0.170281,0.422898
0.016593,0.681317,0.595772,0.240904,-0.090164,0.966352
-0.219843,0.475931,0.580375,0.000055,-0.817212,0.576337
0.123607,0.356713,0.613608,0.732130,-0.077519,-0.676740
0.114134,-0.545993,-0.947903,-0.734335,0.407943,0.542526
-0.279316,-0.643835,0.607797,0.894696,-0.173747,0.411499
0.155170,-0.099366,-0.999115,0.516184,-0.072660,0.853390
-0.647910,0.149683,0.523377,-0.836766,0.093474,-0.539523
-0.079793,0.062378,0.335690,-0.196832,-0.979780,-0.035895
0.154797,-0.509996,-0.948916,-0.062077,0.407392,0.911141
0.126245,-0.410817,0.525158,-0.621396,-0.516837,0.588852
0.203070,0.031682,0.175830,0.664427,-0.013748,0.747227
0.494765,-0.319061,-0.940907,0.650794,0.248273,-0.717516
0.099894,-0.320504,-0.960760,-0.367857,0.615917,-0.696654
0.551794,0.397159,0.785304,0.117702,-0.977452,-0.175312
-0.552925,0.191674,0.739183,0.310182,-0.933426,0.180285
0.228431,0.101179,0.683700,0.711209,0.562648,-0.421437
0.408086,0.394540,0.689297,-0.290058,0.755675,-0.587215
0.366657,-0.237452,-0.648953,0.929331,0.315221,-0.192301
0.348938,0.369876,0.896723,-0.137756,-0.321917,0.936692
0.186378,0.568775,0.538898,0.818713,0.137928,-0.557391
0.033454,0.367582,0.719923,0.830232,-0.040830,0.555921
0.192427,-0.350971,0.765107,0.062477,0.286593,0.956013
0.058381,-0.000141,0.638105,-0.695464,0.309875,0.648311
0.617141,-0.160140,0.877053,-0.456621,-0.203218,-0.866141
-0.472323,0.085113,0.542951,0.460246,0.878335,-0.129229
0.564339,-0.132081,0.886604,0.089034,0.521402,0.848653
0.221480,-0.505705,0.800002,-0.615120,-0.224251,-0.755869
-0.399890,0.279707,0.558732,-0.768708,-0.588899,-0.249571
-0.127561,-0.073032,0.450207,0.762571,0.600335,-0.241004
-0.009720,0.098715,0.353492,-0.265493,-0.664738,0.698310
-0.131077,0.140884,0.242371,0.814179,-0.215765,-0.539035
-0.414484,0.372805,0.481870,0.362710,0.928658,0.077691
0.832063,-0.102691,0.895529,0.141234,0.977136,0.158930
-0.289699,0.142254,0.603859,0.920170,0.013020,0.391304
0.213881,0.475632,0.563542,0.878777,0.259235,-0.400685
-0.095941,-0.052535,0.604263,0.927634,0.127051,-0.351217
-0.500416,-0.465164,0.725088,0.778709,0.421040,-0.465121
0.681975,-0.109691,0.882097,0.830463,0.503710,0.237922
-0.102400,0.182313,0.806766,0.180277,-0.294031,0.938641
-0.470405,0.063096,0.544545,0.612002,0.778735,-0.137928
0.373662,0.417755,0.751141,-0.635592,0.257850,-0.727693
0.041201,0.447029,0.528784,0.817964,-0.451861,0.356028
0.070349,-0.590320,-0.884553,0.195495,0.824320,0.531298
-0.053732,-0.013367,0.389612,0.648756,0.196896,0.735084
0.293718,-0.388024,0.878363,0.924750,0.240804,0.294705
-0.124745,0.018691,0.022707,0.797160,0.402649,0.449900
0.286334,0.321418,0.729192,0.639806,-0.184172,0.746143
-0.083778,-0.130116,0.437853,0.856652,0.515764,0.011645
-0.124945,0.235459,0.832781,-0.387464,-0.680787,-0.621612
-0.076274,-0.407786,0.445778,0.903347,0.414241,0.111215
-0.096536,0.082913,0.352336,0.534799,-0.816102,-0.219014
-0.505641,-0.633504,0.534977,-0.437046,0.843796,-0.311447
0.006434,-0.279374,-0.977661,-0.496837,0.479518,-0.723337
-0.427401,0.043065,0.465570,-0.131391,0.982267,0.133744
-0.391634,-0.489288,0.519766,0.641429,-0.297045,0.707343
-0.047329,0.001278,0.368371,0.926667,-0.035177,-0.374235
0.252444,-0.092154,0.739750,-0.207888,0.773529,0.598695
-0.710439,0.246870,0.594486,-0.491373,-0.721754,0.487466
-0.195161,0.056759,0.540316,-0.776832,-0.491647,0.393467
0.328469,-0.056920,-0.947785,-0.412031,0.400334,-0.818513
0.399238,-0.278577,0.889204,0.939900,-0.016197,-0.341066
-0.066386,-0.011762,-0.152412,-0.501228,-0.726328,-0.470339
-0.149898,0.136667,0.641786,-0.019195,0.993660,-0.110774
0.127101,0.289945,0.703119,0.900976,-0.134238,0.412580
0.295019,0.466788,0.904218,0.514987,-0.445631,0.732258
0.213699,0.065630,-0.960929,0.178841,-0.826916,0.533129
-0.604272,-0.255511,0.716860,-0.284855,-0.843659,0.455080
0.061427,0.210208,0.898476,-0.014183,0.792581,0.609602
-0.127862,0.195620,0.789017,0.784859,-0.429384,0.446794
0.306059,0.086490,0.295755,-0.249010,0.099873,0.963338
-0.265616,0.318112,0.563133,-0.627215,0.763248,0.155091
0.027972,0.209228,0.665507,-0.485370,0.553649,0.676675
0.827495,-0.206381,0.496374,-0.060944,0.681269,0.729492
0.516234,-0.302249,0.088947,-0.509285,-0.062700,0.858311
-0.587999,0.021327,0.621151,-0.286340,-0.958052,0.012050
-0.322334,-0.453721,0.493685,0.265203,0.897065,-0.353471
0.422484,0.757315,0.588884,-0.932956,0.269155,0.239060
-0.266976,-0.320291,0.639531,0.407730,-0.261739,0.874785
-0.493939,0.210022,0.465350,0.774216,-0.610382,-0.167403
0.478559,-0.085901,0.838843,-0.665730,0.746136,0.009198
-0.344134,-0.198429,0.670094,0.259965,-0.080001,-0.962298
0.233603,0.637137,0.644056,0.628733,-0.693509,0.351767
0.069948,-0.064583,-0.312429,0.865956,-0.499948,0.013102
-0.181173,0.049135,0.386753,0.726048,0.628606,-0.278764
0.434568,-0.025830,0.892599,0.936676,-0.347646,-0.042192
-0.217978,-0.129220,0.496578,0.625835,0.692022,-0.359772
-0.189216,0.158784,0.854091,0.855057,-0.414162,0.312006
0.431274,-0.561911,-0.943030,0.676627,0.462431,0.573004
0.237009,0.413824,0.622126,-0.048608,-0.524778,0.849850
0.039059,0.493178,0.642680,0.724746,0.457536,0.515174
0.492405,0.378875,0.684938,0.574647,0.245195,0.780807
0.479804,0.034994,0.343454,0.642489,-0.185140,-0.743593
-0.194591,0.101812,0.508891,-0.141508,-0.068656,0.987553
0.784623,-0.126187,0.480892,-0.336207,0.714423,0.613649
-0.301838,0.064376,0.804395,0.512393,0.433545,0.741277
-0.114035,-0.563724,0.564791,-0.124659,0.870165,0.476731
-0.352087,-0.364608,0.644834,0.836958,0.473164,0.274984
0.152087,-0.695984,0.495428,0.449567,-0.835383,0.316268
0.413597,0.049533,0.822583,-0.010306,-0.836842,0.547347
0.141453,0.357595,0.626466,0.896445,-0.433229,0.093272
-0.711305,-0.911867,0.563005,0.377384,0.792728,0.478710
0.231089,0.045501,-0.422216,0.796327,-0.561149,0.225777
0.123773,-0.747507,0.509801,-0.579350,0.809085,-0.098668
-0.078385,0.143765,0.625193,0.967427,0.191968,-0.165026
0.510034,-0.541805,0.149176,0.275981,-0.290548,0.916197
-0.258353,0.376248,0.540245,-0.665861,0.278622,0.692097
0.191978,0.379327,0.647227,0.811609,-0.581449,-0.056641
0.694796,-0.123261,0.936090,0.290178,0.954890,-0.063104
0.201365,-0.114981,0.521559,-0.220055,0.969327,0.109459
0.666938,-0.019690,0.529714,0.182735,0.302022,0.935623
0.040851,0.198954,0.856890,0.816745,-0.077756,0.571736
-0.509388,0.157402,0.556992,-0.448757,0.348025,-0.823101
0.300998,0.580757,0.680037,0.246616,0.776288,0.580135
0.114616,-0.578750,0.415469,0.995359,-0.091938,0.028431
0.552434,-0.021789,0.886184,0.375646,-0.197426,0.905491
0.809813,-0.247769,0.555512,-0.628527,-0.770797,-0.104043
-0.214196,0.294465,0.889981,0.158070,0.894110,0.419025
-0.282347,-0.513241,0.587237,0.949435,0.251055,-0.188533
-0.048258,-0.010453,-0.122478,0.680770,-0.253937,0.687073
-0.323498,-0.064477,0.713370,0.388147,0.279383,-0.878229
0.176418,0.119894,0.054337,0.609964,-0.063368,-0.789891
0.003636,-0.019064,0.544925,-0.108018,0.994141,-0.003870
-0.033836,0.505462,0.663620,-0.212395,-0.416776,0.883847
-0.289076,-0.235664,0.500322,-0.003979,0.503695,0.863872
0.052404,0.220312,0.711853,0.240553,0.084338,-0.966965
0.359929,0.047737,-0.966444,0.625231,-0.215696,-0.750041
0.221540,-0.169220,0.803916,0.394424,-0.728568,-0.560016
-0.193365,0.343303,0.817128,0.565534,-0.595921,-0.570131
-0.542202,0.012926,0.776451,0.979328,-0.112000,-0.168439
0.260419,0.913837,0.614491,-0.358046,-0.889628,0.283487
0.425916,0.001695,0.790774,0.943460,-0.060102,-0.325993
0.478910,0.393423,0.617901,0.775921,-0.203189,0.597211
0.039183,-0.136396,0.457533,0.953058,0.302312,0.016954
0.042616,-0.049674,0.705371,0.511005,0.642434,0.571098
-0.530188,-0.060274,0.388508,0.961609,-0.274184,-0.011449
-0.564037,-0.459932,0.680235,-0.588646,-0.642340,-0.490811
0.433732,-0.256609,0.843231,0.365257,0.693538,-0.620960
-0.451489,-0.407074,0.523555,-0.051501,-0.236064,0.970372
0.447759,-0.354150,0.889265,-0.160656,-0.624340,0.764453
0.470162,-0.218358,0.922979,-0.713512,-0.578883,0.394708
-0.009641,0.664088,0.656812,-0.170706,-0.871942,0.458887
0.024923,-0.247408,0.827264,-0.379163,-0.683920,0.623289
0.139618,0.117626,0.696070,-0.382944,0.046405,0.922605
0.255171,-0.584062,-0.925232,-0.234969,0.914612,-0.329052
-0.569754,-0.504592,0.596101,0.858515,0.088073,0.505169
-0.476264,-0.386189,0.662025,-0.038200,0.559810,0.827740
-0.278559,-0.519328,0.477025,0.699649,0.671176,-0.244978
0.055014,-0.156673,0.746725,0.566561,-0.813665,0.130221
-0.024826,0.035133,0.481089,0.805370,0.487100,-0.337806
-0.089029,0.094975,0.489994,-0.539401,0.830431,-0.139394
0.052168,-0.465873,-0.972989,-0.533009,0.254680,0.806870
-0.668459,0.007694,0.605212,0.544273,-0.835578,0.074677
0.185170,0.401329,0.624873,-0.276885,0.743241,-0.609039
-0.003423,0.019033,0.636088,0.941703,0.186889,0.279765
0.292248,0.158364,0.292391,-0.543167,0.120857,0.830881
-0.059053,0.238059,0.814762,-0.156282,-0.923458,0.350430
-0.022717,0.579833,0.689963,0.595171,0.676082,0.434379
0.827431,-0.334836,0.096943,-0.069996,-0.458502,0.885932
0.417483,-0.263775,0.898556,-0.490125,-0.279494,-0.825627
0.214695,0.065897,0.659358,0.070008,0.985196,-0.156485
0.134053,-0.574856,-0.936729,0.626164,0.210909,-0.750624
-0.231789,0.109763,0.777601,-0.499808,0.668383,0.550868
-0.687678,0.032765,0.568519,-0.465628,0.854656,0.229684
0.020365,-0.288912,-0.977867,0.285554,-0.471926,0.834113
0.420902,-0.728035,-0.944830,-0.063722,-0.413442,0.908298
-0.104273,-0.577239,0.494065,0.592736,-0.182505,0.784447
0.404232,-0.103747,0.851804,0.191187,-0.969640,-0.152467
0.137879,0.043776,0.651533,-0.587257,0.755466,-0.290516
-0.043446,-0.084033,0.728778,0.407325,0.503786,0.761765
0.057559,0.401405,0.620544,0.945166,-0.143415,-0.293418
-0.017259,0.187779,0.536327,0.827352,-0.313502,-0.466052
0.616390,-0.333612,0.104609,0.075864,0.738704,0.669746
0.278947,-0.047789,0.806057,-0.580085,0.132559,-0.803697
0.532313,-0.276832,0.515110,0.908605,0.392090,0.143882
0.570226,0.437367,0.597333,0.838468,-0.411701,0.357034
0.338868,-0.302092,0.089166,0.440984,-0.267314,-0.856783
-0.163469,-0.720592,0.609757,0.951218,0.302628,0.060013
-0.177296,-0.499291,0.523422,0.891161,-0.060977,-0.449570
-0.005650,-0.568905,-0.976948,0.683147,0.716224,-0.142593
-0.365962,0.339305,0.446793,-0.325792,-0.187038,0.926756
0.488447,-0.225297,0.906428,-0.473862,-0.386481,0.791257
-0.700185,0.063743,0.614164,-0.436174,0.883792,-0.169303
-0.193177,-0.073983,0.556128,-0.268842,0.858947,0.435815
0.402272,-0.060425,-0.906224,0.006997,-0.865838,0.500276
-0.326630,0.335284,0.599770,0.936842,-0.117854,-0.329300
0.215934,-0.463577,0.773397,0.862468,0.170225,0.476625
-0.099396,0.173666,0.781027,-0.667464,0.650801,-0.361869
-0.225834,0.285116,0.548309,0.267386,-0.040854,-0.962723
-0.101026,0.232831,0.843785,-0.339667,0.915607,0.215153
-0.073585,0.414249,0.741778,0.372290,0.834697,0.405809
-0.386299,-0.072159,0.839023,0.079256,-0.991527,-0.102918
-0.728447,-0.435578,0.561118,-0.755817,-0.155855,-0.635963
0.433377,-0.729085,-0.939448,-0.096934,-0.534124,0.839830
-0.108722,0.130526,0.832529,-0.723018,0.336437,0.603370
0.277212,0.448243,0.907798,0.165156,-0.595028,0.786553
0.466786,0.378540,0.635329,0.906626,0.089402,0.412355
-0.389900,0.275689,0.524524,0.990904,0.132285,-0.024690
0.586097,-0.031591,-0.943144,0.046465,0.900432,0.432509
0.133092,0.359892,0.636227,-0.697426,0.630984,-0.339788
-0.164884,-0.063611,0.557891,-0.229729,0.944684,-0.234086
0.147577,-0.697491,-0.967175,-0.263619,0.641317,-0.720567
0.547908,-0.129631,-0.964340,0.883289,0.316801,-0.345597
-0.038086,0.132787,0.374554,0.467551,0.820179,0.329701
-0.857235,0.024376,0.567038,-0.140485,-0.122831,0.982434
-0.410860,-0.099778,0.650526,0.894078,0.341068,0.290340
-0.186299,-0.112868,0.743933,0.896557,-0.391869,0.206455
-0.318129,0.248659,0.610338,0.991696,-0.015772,0.127630
0.771342,-0.161041,0.487051,-0.507876,-0.577135,-0.639513
-0.028152,-0.255216,0.428200,-0.660036,-0.079766,-0.746987
0.167742,-0.379747,0.100585,-0.595249,0.303617,0.743973
-0.002742,-0.038900,0.433694,0.969410,-0.025905,-0.244076
-0.706499,0.038088,0.660457,0.992015,-0.030838,0.122294
0.087910,-0.146554,0.760334,0.080870,0.996439,0.023856
0.022450,-0.591714,0.632906,-0.163413,0.834168,0.526744
-0.166951,0.089651,0.410083,0.711938,0.607474,0.352306
0.815377,-0.356475,0.097120,-0.447078,0.868876,-0.212546
0.067115,-0.027126,-0.331415,-0.014377,0.981581,0.190504
0.078028,-0.417608,0.562427,-0.123642,0.932652,0.338929
-0.015272,0.038607,-0.033870,-0.614624,-0.391849,-0.684610
-0.514609,0.114712,0.533517,0.772016,-0.635241,0.021477
-0.866260,-0.260041,0.595155,0.945792,-0.291191,-0.143822
-0.506012,-0.546495,0.701224,-0.054206,-0.983584,0.172119
-0.237374,0.193116,0.907804,0.176412,0.889790,0.420895
-0.060328,0.152628,0.840829,0.930328,-0.345442,-0.123123
-0.022122,0.128027,0.638819,0.175463,0.980881,-0.084175
-0.020146,0.364106,0.605475,-0.534424,0.797071,-0.281191
-0.470415,0.349553,0.685693,0.526409,-0.418958,0.739843
0.305665,-0.062204,-0.873779,-0.377609,-0.917752,-0.123054
0.489543,0.262081,0.669319,0.009102,-0.782317,0.622814
0.019842,-0.034294,-0.224528,-0.378112,-0.832007,-0.405951
0.214793,-0.600833,-0.924711,-0.413539,-0.178935,0.892731
-0.053223,-0.497879,-0.960241,0.854723,-0.497278,-0.148872
0.383694,-0.059248,0.517097,0.922910,0.342959,0.174972
-0.428229,0.312711,0.546756,0.724342,-0.310817,-0.615404
0.179204,-0.366634,-0.981339,-0.397737,0.913969,-0.080414
-0.192732,-0.185170,0.743557,0.818059,-0.574592,-0.024957
0.354089,0.431723,0.779143,0.218860,0.944115,0.246468
-0.076128,-0.011798,0.620912,0.546548,0.680785,-0.487665
-0.038757,0.007543,-0.040618,0.355008,-0.922059,-0.154196
-0.783047,-0.326475,0.559326,0.434328,0.382641,0.815442
0.331996,-0.424298,0.087804,0.470103,0.419490,0.776551
-0.465322,-0.742101,0.608217,0.727543,-0.650739,0.217302
0.003673,-0.197842,0.434129,0.494551,0.074578,-0.865943
-0.293580,-0.009295,0.806575,-0.085693,0.976406,0.198213
-0.116136,-0.128061,0.573480,0.364338,0.280035,0.888166
-0.627552,-0.744616,0.531036,0.789708,-0.425013,-0.442408
0.765077,-0.084979,0.417420,-0.539525,0.692235,0.479295
-0.149709,0.108306,0.699545,0.552430,-0.831890,0.052719
0.182302,-0.277355,0.837518,-0.202646,0.521895,0.828589
0.191361,0.119182,0.712163,-0.623140,0.144377,0.768669
0.143766,-0.214600,0.435645,0.399397,0.079655,-0.913311
0.201909,-0.200916,0.750703,-0.533762,-0.104738,-0.839123
0.150514,0.337915,0.634628,-0.550954,0.065591,0.831954
0.547758,-0.046820,-0.928014,0.261213,-0.536500,0.802456
-0.083385,-0.009953,0.739564,0.578241,-0.515024,0.632762
0.494753,0.222204,0.666929,-0.422619,0.780173,-0.461220
0.025636,0.466599,0.629642,0.453573,0.452254,-0.767944
0.802112,-0.385624,0.531348,0.399284,-0.025885,0.916462
-0.479523,-0.093413,0.325065,-0.280614,-0.442226,-0.851876
-0.110830,0.237633,0.846157,0.043354,0.996909,-0.065515
-0.077687,-0.203782,0.509226,0.457073,-0.823394,0.336312
0.019467,-0.405214,0.497248,0.866136,0.341106,-0.365315
-0.043330,0.360369,0.817333,0.175607,0.760601,0.625019
0.318742,-0.274471,-0.736293,-0.675255,-0.691670,0.256170
0.370432,-0.257002,0.836551,0.911258,0.402872,0.085462
-0.373176,-0.586962,0.496447,-0.136704,0.498421,0.856089
0.307658,0.298312,0.721188,-0.588166,0.361837,-0.723281
-0.193216,0.004478,0.514774,0.868038,-0.333759,0.367580
-0.093703,0.007483,0.637002,0.741851,0.670156,-0.023420
0.271527,-0.110269,0.817712,-0.152481,-0.428031,0.890808
-0.167228,0.083105,0.222305,0.951008,0.093531,-0.294678
0.037451,-0.167059,0.844946,0.473921,0.634427,-0.610656
0.185329,-0.298193,-0.950236,-0.586013,0.195222,0.786433
0.817862,-0.444334,0.513638,-0.526982,-0.691955,0.493445
0.288305,0.445236,0.911526,0.840945,0.435575,-0.321070
0.929845,-0.246248,0.109094,0.378090,0.711923,-0.591789
0.358453,-0.529224,-0.871896,0.082994,-0.462035,0.882970
0.261254,0.041283,-0.975369,-0.167599,0.985433,-0.028849
-0.153076,0.140220,0.428267,0.049223,-0.808683,-0.586182
0.120227,-0.396106,-0.978825,-0.802369,0.166835,-0.573036
0.192730,-0.259827,0.435848,0.627396,0.433450,-0.646912
0.358857,-0.289743,-0.761639,0.793083,0.472296,0.384650
0.046568,-0.155042,-0.979739,-0.804764,-0.091507,-0.586500
-0.039920,-0.146988,0.419146,0.934519,0.316521,0.162755
0.263209,-0.607629,-0.919129,0.266868,0.958862,0.096770
-0.061391,-0.131915,0.637858,-0.068870,0.856557,0.511436
-0.291300,0.426530,0.562804,-0.247125,-0.953488,0.172595
0.192870,-0.718866,0.481967,0.220199,0.841412,0.493497
0.338421,-0.143103,-0.926817,0.341873,-0.936673,-0.075936
-0.419773,0.112982,0.575804,0.773801,0.441290,-0.454416
0.360334,1.000000,0.662472,-0.666255,0.725515,-0.172433
0.242726,0.244260,0.693075,-0.451422,0.246986,-0.857448
-0.026762,0.171077,0.845004,-0.476443,0.874518,0.090663
0.800754,-0.334008,0.506586,-0.657165,-0.404621,0.635937
0.415862,-0.111242,0.785300,-0.474789,0.320368,-0.819719
-0.105683,0.037968,-0.140311,0.008986,-0.939146,0.343401
0.183528,-0.081281,0.486931,-0.926318,0.272766,-0.259873
-0.365098,-0.399196,0.563373,0.392654,0.917196,0.067635
-0.350906,0.254929,0.697958,0.664933,0.550412,-0.504886
-0.156139,0.037052,0.368306,-0.587508,-0.803430,0.096615
0.836678,-0.278108,0.538758,-0.615983,-0.578643,0.534544
-0.089805,0.004224,0.621683,-0.003624,-0.965638,0.259867
-0.137832,0.326009,0.810976,-0.321540,0.038796,0.946101
-0.404358,-0.346961,0.527409,-0.486379,0.848321,-0.209252
0.120868,0.023248,0.671933,-0.493009,0.796375,0.350328
0.242383,0.297851,0.876481,-0.216112,-0.559574,0.800108
0.244179,-0.718466,0.487939,0.302797,0.952317,0.037499
-0.123713,0.129348,0.522604,-0.680673,0.491362,0.543367
-0.570691,-0.365787,0.650358,0.841397,0.398124,0.365441
0.150934,-0.386854,0.804323,0.621115,0.097479,0.777634
0.059307,0.045534,-0.331223,0.802351,-0.514540,0.302459
-0.431334,0.206799,0.502113,0.207161,-0.753704,0.623711
0.119089,0.134335,0.698175,-0.158516,0.400141,0.902641
-0.621336,-0.223722,0.698778,0.521975,-0.564155,-0.639744
0.090751,-0.641641,0.417981,-0.647856,0.674639,0.353758
-0.208653,0.039883,0.474755,0.752974,-0.647291,0.118511
0.403245,-0.125298,0.801414,0.872466,-0.034739,-0.487439
0.110705,-0.156038,-0.572144,0.566622,0.816197,-0.112967
0.757009,-0.229025,0.571096,0.579206,-0.198530,0.790637
0.537203,-0.382285,0.889476,0.829574,0.310098,0.464377
0.091144,0.071337,0.627166,-0.285279,0.503385,0.815610
-0.318959,-0.148392,0.611383,0.231974,-0.921411,-0.311753
-0.169820,0.138448,0.799121,0.784429,-0.594876,0.175483
0.030073,0.544498,0.598997,0.191270,-0.491843,0.849415
0.195613,-0.439547,-0.951440,0.759963,0.581585,-0.290199
0.328437,0.394168,0.689724,0.523764,0.574128,-0.629323
0.553822,-0.065164,0.478173,0.061760,-0.751640,0.656676
-0.201789,0.130153,0.765711,0.180484,0.783937,0.594028
0.104460,0.116815,0.344452,-0.429258,0.870954,0.239116
0.501250,-0.381858,0.897129,-0.488560,-0.780285,0.390466
0.412736,-0.238948,0.542018,-0.430801,-0.583877,-0.688111
0.333107,0.166681,0.653810,-0.567423,0.246695,-0.785603
0.114652,0.270339,0.565687,-0.634399,0.770895,-0.057082
0.816139,-0.150763,0.446582,-0.553290,0.800810,0.229289
