-0.303882,-0.156940,0.793270,0.296701,0.914941,-0.273590
-0.245425,-0.145105,0.782719,-0.202822,0.963055,0.177170
-0.243306,-0.152798,0.842601,-0.117869,-0.991095,-0.061953
-0.165299,-0.134052,0.804657,-0.508444,-0.056210,-0.859258
-0.028738,-0.095584,0.694966,0.768946,0.534959,0.350060
-0.070052,-0.118075,0.809515,-0.128817,-0.529064,0.838747
-0.007839,-0.105060,0.794942,-0.656235,-0.253732,-0.710617
-0.207383,-0.256162,0.863544,0.249346,0.305075,-0.919106
-0.063119,-0.215322,0.743780,-0.511105,0.409425,-0.755740
-0.020262,-0.209013,0.753972,-0.669121,-0.741557,-0.048683
0.246215,-0.118268,0.417056,0.845135,-0.048382,0.532358
-0.133902,-0.255367,0.957946,0.908358,-0.207623,0.363014
-0.421375,-0.380233,0.832289,0.798791,0.553788,0.235057
-0.185523,-0.332699,0.784232,0.428191,-0.298556,-0.852946
-0.110981,-0.323621,0.813218,-0.598626,-0.569444,0.563365
-0.122442,-0.335854,0.891773,0.250660,0.554511,0.793528
0.282524,-0.196395,0.379988,-0.527466,0.697234,0.485432
0.017587,-0.295616,0.776349,-0.329596,-0.781487,0.529760
-0.301378,-0.471568,0.788691,-0.445454,-0.019133,-0.895100
0.145575,-0.324212,0.269301,0.356485,-0.869358,0.342250
0.219732,-0.306862,0.239360,0.700398,0.569570,0.430154
-0.181093,-0.463477,0.885641,0.622974,0.041595,-0.781136
-0.058301,-0.429549,0.793389,0.476707,-0.464326,-0.746426
0.310162,-0.302515,0.326595,-0.059027,-0.958083,0.280343
-0.086231,-0.447307,0.892370,-0.382501,-0.664916,-0.641545
-0.277878,-0.611039,0.814093,0.447010,0.610214,-0.654080
-0.230401,-0.602756,0.815169,0.013205,-0.517129,0.855806
0.329424,-0.419098,0.159730,0.975775,-0.166420,0.142011
0.351958,-0.420279,0.200580,0.300050,0.890779,-0.341296
-0.031336,-0.559941,0.755008,0.636218,0.206490,-0.743363
-0.102604,-0.592293,0.906465,0.067489,-0.317760,0.945766
0.046286,-0.549491,0.780410,0.718822,0.521246,-0.459997
0.121789,-0.548901,0.873936,0.959525,-0.213281,-0.183913
-0.196791,-0.705721,0.810032,0.880479,0.468727,0.071070
-0.158075,-0.700785,0.822614,-0.582375,0.710629,0.394773
-0.055797,-0.673563,0.754251,0.861661,-0.206166,-0.463721
0.007570,-0.660355,0.738484,0.087298,0.788880,0.608315
-0.117722,-0.808097,0.790364,0.958716,0.284008,0.014272
-0.028062,-0.794094,0.805493,0.557295,-0.703584,-0.440898
0.648678,-0.730572,-0.931925,0.021585,0.834725,0.550243
0.592048,-0.738470,-0.935867,0.313484,-0.109880,-0.943215
0.439887,-0.440409,0.061505,0.892191,-0.359576,0.273314
0.397606,-0.432113,0.105223,0.997567,0.005054,0.069536
0.710023,-0.598012,-0.941162,-0.157319,-0.985820,0.058398
0.655801,-0.601961,-0.931607,0.337489,-0.588712,-0.734520
0.596092,-0.611039,-0.938734,0.328443,-0.250146,-0.910798
0.565180,-0.576123,-0.815545,0.150731,0.980276,-0.127823
0.531570,-0.470389,-0.468635,0.843844,-0.507372,0.174646
0.516545,-0.420483,-0.303999,-0.669498,-0.657884,-0.344908
0.478503,-0.401941,-0.232172,0.927544,-0.257023,0.271296
0.444989,-0.381618,-0.153895,-0.709401,0.682170,0.177186
0.754226,-0.535091,-0.931885,-0.338958,0.495263,0.799889
0.694420,-0.544555,-0.938375,0.510237,-0.350081,-0.785558
0.636639,-0.551068,-0.937141,0.078333,-0.195381,0.977594
0.579241,-0.559749,-0.943910,0.674958,-0.540626,-0.502150
0.578662,-0.479069,-0.692038,0.176835,0.981183,0.077524
0.553912,-0.436063,-0.548265,0.986471,-0.159589,0.037494
0.522227,-0.409033,-0.451236,0.459885,0.886435,0.052335
0.499596,-0.366038,-0.310250,0.588709,0.723745,0.360021
0.469933,-0.334469,-0.201554,-0.196156,0.942568,0.270350
0.736989,-0.529758,-0.932403,0.137979,0.591411,0.794478
0.679784,-0.538643,-0.937261,0.788507,0.131112,-0.600888
0.620460,-0.547119,-0.941959,0.220631,0.003576,0.975351
0.563543,-0.554812,-0.945303,0.065465,0.629267,0.774427
0.571825,-0.455592,-0.647804,0.017229,-0.814655,0.579690
0.543608,-0.417328,-0.521430,0.937189,-0.321455,-0.135437
0.509321,-0.390696,-0.427108,0.813565,0.242504,0.528492
0.481586,-0.357153,-0.317456,-0.694430,-0.719560,-0.000847
0.458567,-0.318095,-0.191083,-0.120560,0.992688,-0.005902
0.751240,-0.454604,-0.931647,-0.632400,-0.734053,-0.247458
0.691049,-0.464670,-0.940963,0.398031,0.409596,0.820855
0.631919,-0.472953,-0.945064,0.982181,0.146293,0.117977
0.575290,-0.480646,-0.946936,-0.116670,-0.319750,0.940292
0.520010,-0.485968,-0.943910,-0.102598,-0.176434,0.978951
0.458089,-0.498995,-0.959597,0.009026,0.520215,0.853988
0.743055,-0.475518,-0.941919,0.706492,0.671355,0.223945
0.687584,-0.480839,-0.938973,-0.595282,0.029184,-0.802986
0.628260,-0.490109,-0.944149,0.686617,0.637648,-0.349230
0.569030,-0.498008,-0.948050,0.884718,-0.369179,0.284571
0.514232,-0.498394,-0.928700,0.082512,0.703498,0.705891
0.451634,-0.515165,-0.956690,0.987069,-0.084640,-0.136125
0.762414,-0.477492,-0.940008,-0.568762,0.547543,-0.613764
0.706458,-0.484198,-0.939928,-0.166847,-0.393767,0.903941
0.652046,-0.487545,-0.931726,-0.015567,0.829454,0.558358
0.589544,-0.501945,-0.951793,0.143270,-0.452255,0.880306
0.535229,-0.505894,-0.944109,0.516593,-0.136515,-0.845278
0.474074,-0.517332,-0.956531,-0.381994,0.800907,0.461116
0.757115,-0.453821,-0.937818,-0.589003,0.395812,0.704563
0.698273,-0.461708,-0.940764,-0.138392,-0.259780,-0.955700
0.638755,-0.469799,-0.943034,-0.203813,0.740478,0.640432
0.579722,-0.477492,-0.945622,0.028307,-0.220561,0.974962
0.523767,-0.483608,-0.945104,0.769413,-0.172701,0.614962
0.464637,-0.495636,-0.957566,-0.425951,-0.322386,-0.845359
0.759716,-0.491687,-0.935827,0.947771,0.164734,-0.273118
0.700777,-0.500175,-0.940724,0.093601,0.074423,0.992824
0.646558,-0.503919,-0.932722,-0.095505,-0.934748,0.342235
0.584824,-0.516742,-0.948449,0.080445,-0.051425,0.995432
0.530991,-0.515960,-0.928382,-0.495314,0.376616,-0.782831
0.554585,-0.378656,-0.564112,0.740704,-0.547566,0.389267
0.466371,-0.534104,-0.956969,0.884728,0.430478,0.178734
0.788128,-0.382798,-0.940366,-0.280492,0.359422,0.890023
0.729380,-0.389902,-0.942118,-0.407356,0.910245,-0.074262
0.671981,-0.394838,-0.936703,0.108636,-0.082844,0.990624
0.612948,-0.406865,-0.950758,0.519595,0.841699,0.146849
0.555934,-0.416534,-0.957606,-0.076034,0.292782,0.953151
0.497380,-0.423047,-0.957646,-0.662828,0.163638,0.730672
0.440272,-0.431331,-0.962225,-0.514196,0.197339,0.834662
0.837050,-0.274113,-0.941720,-0.005507,0.966834,0.255347
0.778593,-0.281602,-0.942397,0.112342,-0.455505,0.883116
0.721965,-0.289103,-0.945582,0.131150,-0.111474,-0.985075
0.665627,-0.296399,-0.948170,0.310009,0.352910,0.882807
0.605821,-0.306260,-0.955416,-0.208122,-0.024538,0.977795
0.547940,-0.315735,-0.963101,-0.616653,0.716565,0.325995
0.488231,-0.323826,-0.965330,-0.137775,0.311850,0.940089
0.429389,-0.330725,-0.966405,-0.631207,0.374978,-0.678948
0.371990,-0.335854,-0.961309,-0.216652,-0.613986,0.759002
0.947031,-0.090853,-0.934872,-0.161828,0.501228,0.850049
0.888283,-0.099931,-0.939450,-0.372136,0.767100,-0.522564
0.831560,-0.107228,-0.942835,-0.607138,-0.034123,0.793863
0.774740,-0.115319,-0.947015,0.247946,0.157409,0.955900
0.716957,-0.122025,-0.946737,0.915961,0.383195,-0.119068
0.659270,-0.131885,-0.955496,-0.556366,0.460037,0.691970
0.599367,-0.141746,-0.963061,0.335540,0.763441,0.551879
0.540813,-0.148657,-0.963738,0.050612,-0.188692,0.980731
0.481104,-0.157326,-0.969232,0.093193,-0.768675,0.632815
0.424863,-0.164236,-0.969630,0.015047,0.137844,0.990340
0.369774,-0.168571,-0.965012,0.072167,0.627414,0.775335
0.309198,-0.178829,-0.973254,0.797150,0.064133,-0.600366
0.952712,0.046246,-0.937699,-0.536838,0.827328,0.165327
0.895989,0.038347,-0.942078,-0.521278,0.832130,0.189284
0.837241,0.030064,-0.945184,0.023412,0.847294,0.530607
0.780710,0.023358,-0.946896,0.238672,0.284034,0.928634
0.722062,0.014484,-0.951315,0.619499,0.419351,0.663601
0.662447,0.005611,-0.957765,0.499914,0.118579,-0.857919
0.602641,-0.004647,-0.965290,0.387882,0.601158,0.698682
0.547073,-0.009980,-0.963578,-0.654429,0.233641,-0.719121
0.489195,-0.019444,-0.971502,0.804099,0.306255,0.509541
0.429004,-0.029112,-0.978230,-0.412715,-0.878057,-0.242242
0.375167,-0.031472,-0.968237,0.854125,-0.415095,0.313316
0.620266,0.205041,-0.962782,0.898438,0.130640,-0.419217
0.560363,0.195372,-0.969471,0.324679,0.494148,-0.806474
-0.242148,0.792097,0.905828,-0.419839,0.648087,-0.635388
-0.290592,0.784596,0.901249,0.321627,0.913433,-0.249390
-0.340767,0.776120,0.893206,-0.482660,-0.874773,0.042565
-0.393158,0.767234,0.885203,0.034602,0.997441,-0.062569
-0.425419,0.778877,0.927089,0.617147,0.318894,-0.719330
-0.488305,0.758360,0.890260,-0.011405,-0.998676,0.050152
-0.798988,0.480816,0.756561,-0.526817,-0.355965,0.771850
-0.221443,0.582409,0.851600,-0.671539,0.712119,0.204748
-0.317173,0.575100,0.861514,0.008883,-0.957962,0.286758
-0.370718,0.565047,0.850206,0.199054,-0.388116,-0.899857
-0.419738,0.557751,0.846742,0.055090,0.704372,0.707690
-0.470104,0.549661,0.839854,-0.325143,-0.284610,0.901820
-0.514407,0.551033,0.856178,-0.319040,0.486426,-0.813390
-0.579796,0.525592,0.809316,-0.408434,0.892298,-0.192316
-0.707788,0.483573,0.737449,-0.007567,0.306251,0.951921
-0.131977,0.459313,0.853391,-0.785749,0.340981,0.516073
-0.188797,0.442144,0.826237,0.345695,-0.043774,0.937325
-0.277975,0.441361,0.850047,0.413449,0.474035,0.777400
-0.320447,0.441554,0.864340,-0.512643,-0.643723,-0.568171
-0.527888,0.304659,0.564571,-0.630029,-0.441938,0.638557
-0.530680,0.404278,0.828148,-0.028866,0.175792,0.984004
-0.116470,0.252971,0.730720,-0.436492,-0.897723,0.059731
-0.153067,0.265204,0.772606,-0.209979,0.970696,-0.116865
-0.249182,0.201297,0.635164,-0.118158,-0.528197,0.840861
-0.312355,0.286515,0.877161,-0.529315,0.726161,-0.438766
-0.370909,0.270334,0.851799,0.188103,0.958402,0.214672
-0.416943,0.266589,0.856656,0.034497,-0.510504,0.859183
-0.480796,0.244881,0.818593,-0.432672,-0.773339,0.463402
-0.531838,0.237585,0.815407,0.745885,0.445019,-0.495594
-0.644801,0.209182,0.776548,0.899572,-0.353166,-0.256992
-0.763644,0.176241,0.724788,0.750670,0.072744,-0.656660
-0.152779,0.092997,0.598892,-0.250547,-0.924707,0.286606
-0.119457,0.194193,0.854864,0.373250,0.927177,0.032032
-0.302918,0.076815,0.602714,0.035647,-0.995620,0.086428
-0.314186,0.175061,0.862827,0.848878,0.349738,-0.396344
-0.380637,0.146851,0.809793,-0.329449,0.081393,0.940659
-0.485804,0.127118,0.789806,0.400807,-0.318597,-0.858982
-0.614177,0.029475,0.573171,0.236827,-0.961668,-0.138230
0.119767,0.153943,0.674859,-0.675881,-0.533388,-0.508609
0.149428,0.030462,0.539209,-0.311746,-0.706200,0.635686
0.102336,0.027115,0.545938,-0.576584,-0.751790,-0.319941
0.051967,0.022371,0.547889,0.576821,-0.814886,-0.056906
-0.039427,0.021384,0.575282,0.104392,0.962330,0.251044
-0.093840,0.011330,0.564969,0.198697,0.975147,0.098024
-0.202087,0.101281,0.838500,-0.091363,0.995174,0.035810
-0.247541,0.098716,0.845189,-0.024670,0.855949,0.516471
-0.292902,0.097922,0.857890,-0.213388,-0.976436,0.032212
-0.346448,0.087868,0.846941,0.149812,-0.553748,0.819097
-0.433219,0.039335,0.745253,0.841243,-0.368514,-0.395609
-0.552349,-0.047846,0.550516,0.065425,0.610109,0.789612
-0.606859,-0.059682,0.536939,-0.011004,-0.421840,0.906604
-0.795426,-0.017277,0.707030,0.842126,0.206923,-0.498003
-0.847911,-0.027137,0.698032,0.932110,0.355665,0.068364
0.190262,-0.030496,0.495293,-0.518335,-0.808776,0.277866
0.148946,-0.022406,0.529932,0.296514,0.951064,-0.086929
0.107053,-0.016097,0.561147,-0.588379,-0.800992,-0.110552
0.064294,-0.013725,0.581652,0.234336,-0.950299,0.204985
-0.036538,-0.027330,0.576794,0.007851,0.972199,0.234025
-0.057726,0.116860,0.973793,0.056549,0.998206,0.019671
-0.180611,0.074058,0.896710,-0.520545,0.848585,-0.094530
-0.227994,0.068339,0.897068,-0.128728,-0.072626,0.989017
-0.287027,0.051567,0.869915,0.431229,0.783601,-0.447226
-0.333640,0.047029,0.871945,-0.612914,-0.671889,-0.415813
-0.424070,-0.006032,0.758073,0.874474,-0.381693,-0.299343
-0.455659,0.009163,0.809674,0.135087,-0.641937,0.754764
0.194979,-0.032267,0.493023,-0.518335,-0.808776,0.277866
0.158865,-0.020624,0.538333,-0.547655,0.233652,-0.803418
0.113410,-0.019444,0.557086,0.946842,0.099766,0.305839
0.073540,-0.010763,0.593835,-0.535250,-0.696611,0.477745
0.016623,-0.024971,0.573928,0.033244,-0.997863,0.056254
-0.026040,-0.022406,0.594672,0.057041,-0.974419,0.217380
-0.056571,0.050978,0.810311,-0.680729,0.625822,-0.380731
-0.050310,0.110949,0.976221,-0.268705,-0.958665,-0.093586
-0.201220,0.037372,0.819150,0.120098,0.777281,0.617584
-0.225008,0.061633,0.895237,0.093225,-0.347410,0.933068
-0.278360,0.049593,0.878833,-0.446346,-0.883930,0.139436
-0.324491,0.045451,0.883053,0.636560,-0.764686,0.100234
-0.406157,0.004034,0.793628,0.640999,0.361434,0.677115
-0.459800,-0.008006,0.778658,-0.011563,0.785030,0.619350
-0.495529,0.001470,0.818035,-0.522128,0.547678,-0.653782
-0.709137,-0.083749,0.649617,-0.535914,0.687325,-0.490286
-0.838859,-0.080992,0.699346,0.972337,0.121757,0.199340
0.144999,-0.019444,0.536382,0.444694,-0.893650,0.060307
0.101275,-0.016290,0.561864,-0.588379,-0.800992,-0.110552
0.055435,-0.019046,0.570265,0.127790,0.526727,0.840374
0.027218,0.003636,0.644401,-0.304774,-0.949507,-0.074492
-0.034131,-0.015893,0.609881,-0.153711,0.964512,0.214685
-0.059169,0.111538,0.986693,0.237707,0.969402,0.061272
-0.176179,0.076032,0.924621,0.550010,0.568539,-0.611762
-0.233387,0.061633,0.901369,-0.253448,0.119788,0.959904
-0.298295,0.039142,0.859324,0.845285,-0.167601,-0.507349
-0.339130,0.043091,0.884049,0.005350,0.680918,0.732340
-0.426092,-0.005237,0.775234,-0.620468,0.733448,0.277620
-0.465193,-0.001300,0.800676,-0.119153,0.946768,-0.299052
0.097231,-0.045884,0.564292,0.693224,0.458396,0.556159
0.054568,-0.043512,0.585673,0.303691,0.909893,-0.282606
0.024135,-0.024971,0.652244,-0.144660,-0.924432,0.352845
-0.027195,-0.034037,0.643007,-0.671779,-0.739075,-0.049818
-0.051178,0.043874,0.883133,0.141152,-0.878549,0.456320
-0.184850,0.038949,0.915025,-0.030760,-0.830358,0.556381
-0.244461,0.022371,0.885721,0.767030,0.598084,0.232294
-0.358968,-0.008404,0.836549,-0.079099,-0.696115,0.713560
-0.432258,-0.038973,0.772128,0.686375,-0.644501,-0.336909
-0.558127,-0.123794,0.564890,0.525205,0.744828,0.411572
-0.600696,-0.122217,0.584996,0.420614,0.855876,0.300931
-0.667626,-0.145888,0.537776,-0.638120,0.717382,-0.279581
0.284161,-0.157723,0.355860,-0.150514,-0.593861,0.790364
0.251608,-0.140566,0.418847,0.815877,-0.352672,0.458222
0.054856,-0.099341,0.615256,0.483788,-0.861374,0.154869
0.021919,-0.086904,0.666020,0.756824,0.141827,0.638046
0.010460,-0.048834,0.783874,-0.698560,0.505006,-0.506935
-0.008321,-0.018457,0.883571,0.936295,-0.332179,-0.114052
-0.061575,-0.030292,0.866092,0.931683,-0.084884,-0.353215
-0.107130,-0.031279,0.878754,0.261853,0.416442,0.870637
-0.128509,-0.006224,0.963042,0.557552,-0.786497,-0.265628
-0.191300,-0.026741,0.923346,0.206189,0.579147,-0.788717
-0.259388,-0.055348,0.862509,0.391207,0.485233,0.781989
-0.320447,-0.075466,0.824207,0.511332,-0.579628,-0.634484
-0.382178,-0.094212,0.790842,0.907796,0.414947,-0.061029
-0.454889,-0.125179,0.723155,-0.617411,-0.558614,0.553854
-0.570263,-0.151221,0.686366,0.101722,0.974259,0.201178
0.263647,-0.160877,0.414189,-0.248080,-0.783883,0.569196
0.005836,-0.090661,0.728889,0.943118,-0.191840,0.271526
-0.020647,-0.069939,0.803861,0.749385,-0.139281,0.647320
-0.054160,-0.059489,0.848295,0.292842,-0.956008,0.017107
-0.097305,-0.059886,0.862548,0.446459,0.881646,-0.152888
-0.242824,-0.076056,0.866809,0.823925,0.550624,-0.134017
-0.388438,-0.182381,0.591845,0.785822,-0.212780,-0.580696
-0.371391,-0.118666,0.784312,0.675820,0.003298,0.737059
-0.455853,-0.160877,0.683738,-0.318716,0.926629,0.199447
-0.467312,-0.128923,0.786064,-0.025131,0.027880,0.999295
-0.539156,-0.155953,0.729685,0.386970,-0.492427,0.779596
0.352922,-0.167391,0.362031,0.917974,0.396173,-0.019231
0.300822,-0.173700,0.361195,0.839190,0.032234,-0.542882
0.129108,-0.793697,0.798884,0.933084,-0.134346,0.333625
-0.019395,-0.813816,0.791478,-0.024761,0.613922,0.788978
-0.030854,-0.645160,0.767947,-0.516637,-0.344198,0.783973
-0.083439,-0.603141,0.913950,0.887588,-0.430429,-0.164070
-0.169440,-0.649302,0.805135,-0.278548,-0.209732,0.937242
-0.214222,-0.651674,0.813894,0.780277,-0.020786,-0.625089
-0.240126,-0.633915,0.877917,0.671015,-0.484724,0.561054
-0.045687,-0.416931,0.768266,0.745352,0.581601,-0.325871
-0.080068,-0.405493,0.816841,0.913051,0.371493,0.168318
-0.105011,-0.386349,0.886318,0.100993,-0.832899,0.544132
-0.137946,-0.376092,0.930155,-0.476581,-0.183326,-0.859803
-0.419256,-0.441384,0.833046,0.480140,0.783929,0.393600
-0.477713,-0.458156,0.803343,0.850062,0.111213,0.514807
-0.679955,-0.528782,0.658057,-0.574199,0.588425,0.569256
0.364575,-0.413777,0.174342,-0.557094,0.613719,0.559460
0.328461,-0.398582,0.237409,-0.720770,-0.622708,-0.304507
0.270004,-0.411994,0.215949,-0.394952,0.876914,-0.273925
0.026542,-0.266022,0.768704,-0.675450,-0.723905,-0.140456
-0.158748,-0.424817,0.338739,0.954117,-0.129308,-0.270076
-0.051562,-0.256752,0.826954,0.836297,0.418539,-0.354164
-0.147771,-0.266613,0.832408,-0.190369,-0.301461,-0.934281
-0.191300,-0.265432,0.851600,-0.329285,-0.130570,-0.935159
-0.463941,-0.322839,0.774875,-0.757758,0.643398,0.108820
-0.550521,-0.366628,0.670838,0.315711,0.799371,0.511207
-0.589331,-0.360704,0.703686,-0.169269,0.983771,-0.059525
-0.772696,-0.409828,0.619317,-0.184933,0.353929,0.916807
0.320851,-0.286935,0.191542,0.957768,0.286849,0.019948
0.313724,-0.235838,0.355581,0.594958,0.532740,-0.601841
0.252281,-0.253994,0.321459,0.381681,-0.853862,0.353892
0.090683,-0.281602,0.296336,-0.600383,0.244673,-0.761364
0.005548,-0.169365,0.683061,0.927856,0.302784,0.217725
-0.024115,-0.154376,0.742784,0.972919,0.206932,0.102998
-0.054546,-0.138194,0.804379,-0.061133,-0.599113,0.798327
-0.115121,-0.155749,0.771332,0.422622,0.672438,-0.607632
-0.156920,-0.153184,0.795978,0.049542,-0.015554,0.998651
-0.201508,-0.154966,0.806449,0.616043,-0.787703,0.004021
-0.237143,-0.147465,0.844433,0.549461,-0.831446,0.082400
-0.288088,-0.154171,0.841686,0.090617,0.971893,0.217285
-0.357137,-0.181598,0.782082,-0.645032,-0.232054,-0.728069
-0.417522,-0.198165,0.753574,-0.637320,0.770457,0.014812
-0.459994,-0.195998,0.775831,0.811009,0.214797,-0.544175
-0.714624,-0.273908,0.625887,-0.104615,0.092936,0.990161
0.380466,-0.021418,-0.967560,-0.744061,0.402672,0.533131
0.449033,-0.014508,-0.971462,0.045922,0.046261,0.997873
0.319311,-0.146682,-0.970466,-0.202074,-0.166367,0.965136
0.393562,-0.138592,-0.972099,-0.195417,0.090209,0.976563
0.473592,-0.131488,-0.965290,0.231124,-0.098851,0.967890
0.547940,-0.123602,-0.966485,-0.436757,0.208944,0.874978
0.628066,-0.116100,-0.962185,0.586094,0.265238,0.765600
0.717630,-0.108612,-0.948449,-0.166023,-0.349811,0.921991
0.792460,-0.101701,-0.945900,0.170240,0.491819,-0.853892
0.872489,-0.094597,-0.938296,0.669378,0.649404,-0.360843
0.523767,-0.006621,-0.969232,0.260374,0.390124,0.883181
0.606012,0.000675,-0.962862,-0.043741,0.272041,0.961291
0.690185,0.007971,-0.951355,-0.040382,0.071183,0.996646
0.769923,0.015279,-0.947692,0.255954,0.452419,0.854286
0.444507,0.159674,-0.976200,0.313687,0.406891,-0.857928
0.528102,0.166971,-0.968754,-0.136992,0.293750,0.946015
0.604760,0.174856,-0.964773,-0.649816,0.586326,0.483694
0.686429,0.181960,-0.955854,-0.429451,0.358573,0.828853
0.850916,0.022768,-0.942158,0.447043,0.636967,0.628033
0.929309,0.030462,-0.938336,-0.019319,0.514245,0.857426
0.319023,-0.283384,-0.972099,0.327601,0.668709,-0.667462
0.395488,-0.275498,-0.971661,-0.012170,0.345005,0.938522
0.472725,-0.268189,-0.970506,0.527665,0.695978,-0.487016
0.553912,-0.260496,-0.962145,-0.226497,0.481721,0.846548
0.634808,-0.253199,-0.954182,-0.863740,0.267498,0.427081
0.720907,-0.245903,-0.943830,-0.070522,-0.223035,0.972256
0.792557,-0.238993,-0.944467,0.599978,0.664430,0.445599
0.872395,-0.231696,-0.939689,0.557988,0.029263,-0.829333
0.380175,-0.360909,0.130585,0.578506,-0.504913,0.640620
0.431123,-0.335264,-0.135222,0.713033,-0.503748,0.487670
0.450767,-0.330135,-0.179775,-0.145595,0.980528,0.131780
0.436995,-0.435472,-0.002756,0.798922,-0.545016,0.254326
0.446820,-0.425407,-0.118858,0.863170,-0.364982,-0.348893
0.488134,-0.399377,-0.405568,0.912429,0.404149,-0.064317
0.515100,-0.393658,-0.448409,0.514084,0.847459,-0.132402
0.407141,-0.364256,-0.958721,0.014761,-0.030257,0.999433
0.469742,-0.357550,-0.971263,0.182829,0.375417,0.908645
0.553142,-0.349857,-0.960871,-0.662996,0.415443,0.622771
0.629415,-0.342560,-0.960075,0.600968,-0.579355,0.550623
0.713970,-0.335264,-0.952151,0.494241,-0.169335,0.852673
0.796698,-0.327968,-0.944905,0.269666,0.104373,0.957281
0.544860,-0.502535,-0.529154,0.976502,-0.209997,0.048431
0.575290,-0.491892,-0.633351,-0.366112,-0.927803,0.071715
0.503928,-0.482814,-0.838996,-0.006614,0.998725,-0.050046
0.461460,-0.478479,-0.950917,0.989345,0.019124,-0.144331
0.533398,-0.471568,-0.954620,0.938607,0.116153,-0.324847
0.622482,-0.463477,-0.941720,0.843506,0.386798,0.372672
0.700104,-0.456579,-0.936663,-0.682783,0.682979,-0.259513
0.766649,-0.450065,-0.941521,-0.119718,0.247486,0.961467
0.497477,-0.637069,-0.892030,0.895496,0.442027,0.051952
0.530221,-0.631158,-0.930134,0.625512,0.201438,0.753762
0.580493,-0.624055,-0.951395,0.957862,0.266428,0.107316
0.679108,-0.616553,-0.929178,-0.093783,0.894313,-0.437504
0.748642,-0.609655,-0.932085,0.736902,-0.132407,-0.662905
0.601583,-0.781080,-0.938256,0.446623,0.233521,0.863710
0.124581,-0.801596,0.828268,-0.619558,-0.760312,0.195126
-0.207383,-0.678499,0.815407,0.866288,-0.173187,-0.468563
0.100890,-0.646341,0.784949,0.753345,0.627718,-0.196066
-0.203339,-0.567635,0.901488,-0.431822,0.732564,-0.526194
-0.005238,-0.539823,0.788412,-0.058054,-0.991872,-0.113220
0.387590,-0.451257,0.135880,-0.696056,0.061201,-0.715374
0.363129,-0.366038,0.177368,-0.453088,0.641392,0.619135
-0.088156,-0.468017,0.937322,0.282650,0.157825,0.946150
-0.034516,-0.449679,0.763170,0.811745,0.560522,-0.163968
0.049463,-0.442371,0.776468,0.861935,0.342212,0.374110
-0.124177,-0.427779,0.356138,-0.469313,0.826297,-0.311415
-0.472126,-0.363871,0.801392,0.664940,0.503373,0.551788
-0.565254,-0.363474,0.675417,-0.425761,-0.820599,-0.381241
-0.134672,-0.338021,0.898781,0.190015,-0.255438,0.947969
0.278574,-0.253392,0.342920,-0.076755,-0.787485,0.611536
-0.471068,-0.246891,0.814571,0.816624,0.261916,-0.514321
-0.466927,-0.238017,0.711211,-0.220665,-0.975343,0.003485
-0.234348,-0.225195,0.838421,0.968432,0.249279,-0.000639
-0.188315,-0.219271,0.819429,0.969001,0.077221,-0.234680
-0.192743,-0.214539,0.761537,0.019783,0.930279,0.366320
-0.016409,-0.195793,0.739082,0.945454,0.310262,0.099266
-0.832695,-0.109599,0.698908,0.988927,-0.144996,-0.031603
-0.567085,-0.086314,0.740555,0.128847,-0.754535,0.643487
-0.435917,-0.077248,0.786581,0.317779,0.535082,0.782754
-0.311489,-0.068567,0.829582,-0.495835,0.667562,-0.555435
-0.115509,-0.052590,0.875210,0.859711,0.114483,0.497786
-0.081802,-0.046474,0.849250,0.049508,0.637749,0.768651
-0.066008,-0.041538,0.806807,0.715112,0.059111,0.696506
-0.037211,0.152173,0.695603,-0.436462,0.661708,-0.609625
-0.853980,0.068532,0.710056,0.332717,0.541533,-0.772038
-0.767688,0.076032,0.720249,-0.155078,-0.441267,0.883875
-0.412323,0.101871,0.832369,-0.648610,0.488880,0.583354
-0.279709,0.110551,0.882377,-0.450383,-0.534191,0.715398
-0.270560,0.115487,0.835315,0.249960,0.283780,-0.925737
-0.132265,0.124951,0.888389,0.539291,-0.810489,0.228633
-0.224141,0.127118,0.762294,-0.553441,-0.645723,-0.526065
-0.121575,0.140145,0.737210,0.175649,0.857769,-0.483093
-0.185523,0.143492,0.631660,-0.049863,-0.804496,0.591862
-0.501210,0.307814,0.842163,-0.554681,-0.819356,0.144865
-0.873818,0.282566,0.720607,-0.066369,-0.194853,0.978584
-0.570550,0.673539,0.827670,-0.316792,0.749190,-0.581684
-0.381889,0.688722,0.863863,-0.584479,-0.139456,-0.799335
0.450961,-0.441589,-0.110019,0.129103,-0.906436,0.402128
0.830790,-0.211385,-0.937937,0.344529,-0.001213,0.938775
0.450382,-0.245903,-0.977275,-0.013416,-0.554293,0.832214
0.363805,-0.251622,-0.969073,0.118414,0.684110,0.719703
-0.400861,-0.019637,0.837863,-0.494629,0.680478,0.540640
0.573077,-0.487160,-0.946299,-0.550809,0.607707,-0.572103
0.655707,-0.302515,-0.945224,-0.183037,0.419400,0.889157
0.640392,-0.643981,-0.930054,0.402729,-0.299968,-0.864771
0.761256,-0.209410,-0.942755,-0.627056,0.132281,-0.767660
0.748930,-0.492084,-0.940963,0.270663,0.381781,0.883733
0.493818,0.164201,-0.968516,0.606880,0.394453,0.690003
0.411667,-0.104663,-0.963140,0.812398,0.582843,-0.017450
0.488134,-0.211770,-0.960433,-0.134221,-0.674345,0.726115
0.686332,0.169933,-0.959796,0.616465,-0.488041,-0.617889
0.617377,-0.056732,-0.962344,-0.272048,0.127171,-0.953844
0.558438,-0.252212,-0.972816,-0.636478,-0.763232,-0.111232
0.626623,-0.299758,-0.942357,0.014080,-0.012872,0.999818
0.805462,0.028090,-0.950678,-0.669290,-0.072061,-0.739498
0.732848,-0.210397,-0.952868,0.454478,0.149615,0.878103
0.633653,-0.533117,-0.938774,0.232569,-0.263499,0.936205
0.830211,-0.126949,-0.944905,0.645361,0.536715,-0.543549
0.752589,-0.380835,-0.943989,-0.040056,-0.328287,0.943728
0.670538,-0.648712,-0.938535,-0.522922,0.228065,-0.821303
0.897626,-0.202307,-0.937499,0.735507,-0.369904,-0.567627
0.963884,0.023756,-0.938813,-0.600501,-0.004261,0.799613
0.936436,-0.060669,-0.936743,0.194777,0.657996,0.727395
0.882408,0.121592,-0.949086,0.402137,0.721321,0.563899
0.912169,0.059466,-0.938973,0.281445,0.564180,0.776202
0.898684,-0.149644,-0.933040,0.974201,-0.212281,-0.076618
0.701741,-0.023188,-0.953625,0.501028,-0.812924,-0.296860
0.345892,-0.126949,-0.959039,0.399557,0.134115,-0.906845
0.343291,-0.271946,-0.967719,0.141854,0.632343,0.761590
0.321815,-0.281012,-0.972298,-0.682308,-0.625624,0.378220
-0.507664,0.201297,0.757994,0.864244,-0.345273,-0.365882
-0.441310,0.810048,0.930314,0.036216,-0.586655,0.809027
-0.318134,-0.147079,0.781923,0.498196,0.336001,0.799315
-0.125429,-0.028522,0.801233,-0.354536,0.118587,0.927492
-0.118589,0.014678,0.839177,0.609876,-0.254248,-0.750606
-0.108382,0.141722,0.719851,0.964739,0.247006,-0.090919
-0.078143,0.029077,0.798685,0.586079,0.784821,0.201414
0.645400,0.182358,-0.966923,0.310166,-0.230287,0.922369
0.318732,-0.113741,-0.969750,-0.162633,0.279702,0.946212
0.319408,-0.254584,-0.966604,0.857699,0.253361,-0.447392
0.365442,-0.440601,0.115813,0.494030,-0.345428,0.797881
0.414268,-0.116100,-0.970307,0.063328,-0.299753,0.951913
0.414847,-0.272332,-0.961627,0.838333,-0.227257,0.495532
0.416099,-0.386157,-0.975921,-0.000518,-0.828153,0.560501
0.525501,-0.511613,-0.723691,0.173010,0.939528,0.295560
0.535999,-0.399377,-0.936385,-0.466207,-0.278775,0.839605
0.629030,-0.228542,-0.952749,-0.112352,0.599195,0.792680
0.630473,-0.511216,-0.948409,-0.030152,0.367179,0.929661
0.632110,-0.794889,-0.942914,-0.222096,-0.504739,-0.834213
0.626623,0.201682,-0.959677,-0.665363,0.374300,-0.645904
0.628836,-0.070734,-0.965091,0.197827,0.129321,-0.971669
0.321815,0.026717,0.402364,0.770735,-0.284135,0.570294
-0.806597,0.000482,0.737807,-0.730514,0.535159,0.424209
-0.794268,-0.478274,0.615734,0.540997,0.723376,-0.429010
-0.679570,-0.166608,0.531405,0.816914,-0.529743,0.228086
-0.653087,0.249818,0.775433,-0.450992,0.418186,-0.788496
-0.642974,0.567215,0.936207,0.600609,0.680502,0.419744
-0.600984,0.302492,0.776349,0.734549,0.648711,0.199029
-0.574789,0.472918,0.923346,0.593774,-0.054654,0.802774
-0.564678,0.392828,0.795938,-0.133872,-0.342333,0.929993
-0.552734,0.591282,0.878117,0.536120,0.774010,0.336875
-0.545513,0.271911,0.799322,0.869870,0.301167,-0.390671
-0.522880,0.511976,0.811426,0.340422,-0.652437,-0.677081
-0.521243,0.272898,0.806290,-0.140551,0.928740,0.343057
-0.514886,0.501717,0.818075,-0.415211,0.678513,0.605987
-0.515561,0.324778,0.843676,0.777938,0.610419,-0.148997
-0.512576,0.297363,0.799641,0.319454,-0.941190,-0.110045
-0.506028,0.502512,0.825122,0.967064,-0.099852,-0.234129
-0.506797,0.309583,0.855621,0.424630,0.824975,0.372968
-0.504006,0.281182,0.811904,-0.014074,0.820634,0.571280
-0.501984,-0.062451,0.803264,0.640415,-0.631171,0.437597
-0.481372,0.288092,0.851241,0.172554,0.783079,0.597505
-0.478868,0.250612,0.811665,0.080390,0.967531,0.239627
-0.475979,0.077213,0.776468,-0.010785,-0.166787,0.985934
-0.475306,-0.045282,0.777862,-0.563917,-0.825018,-0.036639
-0.475979,-0.221836,0.804219,-0.017145,-0.827007,0.561930
-0.476461,-0.396812,0.827949,0.923105,-0.325035,-0.205498
-0.437264,0.671565,0.862708,0.268171,-0.550160,0.790828
-0.436205,0.568984,0.852555,0.678054,0.202228,0.706645
-0.437170,0.357924,0.893326,0.216129,0.939957,-0.264137
-0.434953,0.315700,0.858289,0.341487,-0.112949,0.933075
-0.433219,0.247060,0.832847,0.836208,0.456119,-0.304487
-0.429657,0.116270,0.781445,0.760368,0.641005,-0.104657
-0.428308,0.013100,0.771690,-0.698095,0.124466,0.705104
-0.429366,-0.187113,0.806648,0.585687,-0.713951,0.383725
-0.428596,-0.302515,0.804259,-0.451877,-0.365385,-0.813819
-0.393928,0.739025,0.862788,0.531487,-0.113500,0.839428
-0.393061,0.631327,0.854944,0.422497,0.320799,0.847694
-0.393158,0.300517,0.891056,0.696725,0.676441,0.238750
-0.389786,0.315110,0.830378,0.817131,0.346741,0.460507
-0.389884,0.166971,0.842999,-0.556543,0.038429,0.829930
-0.384876,-0.208820,0.789647,-0.330796,0.168040,-0.928621
-0.372355,0.061043,0.548247,-0.160848,0.150731,0.975402
-0.384009,0.738832,0.949266,0.447539,0.729474,0.517278
-0.377939,0.596207,0.850445,0.780612,0.105968,0.615967
-0.377748,0.282566,0.878913,0.810610,0.582532,0.059740
-0.374859,0.278219,0.824565,0.864054,0.502864,-0.023228
-0.370909,-0.137797,0.793549,0.812970,0.469731,0.344141
-0.389499,0.860737,0.916897,-0.697166,0.018671,-0.716666
-0.386319,0.721868,0.869994,-0.172489,-0.622847,0.763092
-0.385354,0.626980,0.858647,0.020799,-0.069038,0.997397
-0.384876,0.317085,0.887035,-0.467772,-0.851534,-0.236811
-0.382757,0.293414,0.841327,-0.205633,0.977272,0.051515
-0.381986,0.160059,0.845110,-0.470849,0.325289,0.820054
-0.376882,0.146250,0.739042,-0.052477,0.899039,0.434713
-0.377363,-0.204282,0.787815,-0.398350,0.099379,-0.911834
-0.367250,0.064788,0.545938,0.231238,-0.175532,-0.956931
-0.379288,0.583782,0.846344,-0.502201,0.320734,0.803071
-0.378615,0.288875,0.869039,-0.656404,-0.644828,0.391575
-0.376687,0.244099,0.834956,0.744645,0.570680,0.346161
-0.372258,-0.151414,0.788970,0.771211,0.124180,0.624350
-0.349434,0.696030,0.886637,0.221133,-0.210581,-0.952237
-0.348567,0.580434,0.882337,-0.043065,-0.924910,0.377739
-0.347027,0.516117,0.855063,-0.167129,-0.874784,0.454775
-0.345775,0.236598,0.870631,0.694308,0.719232,-0.025344
-0.344620,0.159072,0.851281,-0.247867,-0.691389,0.678634
-0.340382,0.141915,0.747323,-0.342286,0.887403,-0.308797
-0.339612,-0.172918,0.777623,-0.169111,-0.001857,-0.985595
-0.334122,0.072277,0.604267,0.184066,-0.982570,-0.025999
-0.331618,0.059261,0.552428,-0.002365,-0.991748,0.128184
-0.331424,0.854620,0.915264,-0.332844,-0.019679,-0.942776
-0.331136,0.701749,0.929478,0.602454,-0.783583,-0.151812
-0.329308,0.694248,0.879470,0.162125,0.787163,-0.595055
-0.327283,0.504884,0.854745,-0.360320,0.655678,-0.663518
-0.325743,0.236008,0.863464,0.203409,-0.255024,0.945297
-0.324299,0.180383,0.831333,0.588721,0.808320,0.005103
-0.323915,0.033423,0.843836,0.393385,0.116747,0.911931
-0.286066,0.820499,0.916100,-0.629717,0.481009,-0.609990
-0.284429,0.783813,0.876802,-0.082520,-0.607044,0.790372
-0.283368,0.689323,0.863305,0.831742,0.520975,0.191806
-0.279997,0.426166,0.817199,0.217729,0.140132,0.965897
-0.280961,0.125144,0.897188,0.610508,0.666502,-0.427849
-0.277687,-0.136027,0.847498,-0.132074,0.892866,0.430520
-0.237334,0.899012,0.922391,0.052563,-0.803006,0.593649
-0.233963,0.627186,0.881023,-0.192180,0.404272,0.894221
-0.232423,0.588321,0.844512,0.837454,-0.124940,0.532034
-0.231268,0.502909,0.826476,0.077021,-0.343744,0.935900
-0.230110,0.395200,0.818593,0.203740,-0.672693,0.711318
-0.231556,0.061235,0.913910,0.032276,0.925649,-0.377005
-0.226357,0.179986,0.748677,-0.072078,0.857076,0.510123
-0.227897,-0.379246,0.894799,-0.651382,0.544336,0.528583
-0.226836,-0.460913,0.875210,0.694759,0.456076,0.556152
-0.218460,0.111731,0.547291,-0.472553,0.255073,-0.843582
-0.222601,-0.665279,0.799601,0.300737,0.873110,-0.383713
-0.184076,0.621659,0.889902,-0.051964,0.624456,0.779329
-0.181381,0.507244,0.833046,-0.497297,0.168898,0.850982
-0.180320,0.408022,0.821061,0.485477,-0.780543,0.393782
-0.178589,0.371337,0.782918,0.655934,0.753560,-0.043571
-0.178492,0.178216,0.813815,0.719252,-0.645226,-0.257605
-0.176470,0.177626,0.757038,-0.529741,0.483663,0.696739
-0.167803,-0.002083,0.552109,-0.345635,-0.897147,-0.275069
-0.119457,0.550648,0.912477,0.780457,-0.416228,-0.466521
-0.117531,0.135799,0.930155,-0.422776,-0.173441,-0.889483
-0.114063,0.073468,0.849489,-0.379468,-0.915546,0.133336
-0.111753,0.096344,0.781803,0.964759,0.150464,-0.215871
-0.110501,0.040130,0.752221,0.937098,0.070792,0.341812
-0.111560,-0.267009,0.837226,0.074710,0.868965,0.489202
-0.105878,-0.924885,0.804379,0.958529,-0.133995,0.251529
-0.065044,0.506063,0.938158,-0.784618,0.443120,0.433612
-0.061672,0.068736,0.917096,-0.697213,-0.695405,0.174084
-0.057917,0.016062,0.826954,0.965739,0.202301,-0.162549
-0.056858,-0.075273,0.812182,-0.053491,-0.705297,0.706891
-0.054546,-0.043115,0.741232,0.822432,-0.481278,-0.303277
-0.052621,-0.085327,0.704721,0.819747,0.432411,0.375546
0.004778,-0.001492,0.932544,-0.139409,-0.816674,0.560007
0.165801,-0.027728,0.496845,0.956834,0.284196,0.060836
0.177069,-0.312376,0.267629,-0.033178,0.976092,0.214811
0.258254,-0.140361,0.410924,0.144446,-0.721733,0.676932
0.259217,-0.254982,0.404554,-0.786142,0.448526,0.425213
0.268655,-0.362486,0.204323,-0.635214,0.696271,-0.334230
0.270486,-0.439614,0.180593,-0.113506,0.993146,0.027877
0.360240,-0.380835,0.216705,0.895158,0.440726,-0.066731
0.363323,-0.389311,0.155788,0.992913,-0.081776,-0.086230
0.553527,0.010150,-0.968675,0.294913,0.846692,0.442876
0.545339,-0.244327,-0.965450,-0.036674,-0.966447,0.254234
0.536963,-0.457964,-0.946338,0.839086,-0.473653,0.267560
0.636639,0.094177,-0.958084,-0.267621,-0.158993,0.950316
0.632592,-0.042922,-0.961707,-0.053254,-0.184938,0.981306
0.628742,-0.160492,-0.957845,-0.475283,0.392575,-0.787395
0.611405,-0.642403,-0.939132,-0.562608,-0.139339,0.814897
0.670344,0.098318,-0.959079,-0.637469,0.710932,0.297000
0.666685,-0.017277,-0.953983,-0.609373,-0.563545,-0.557746
0.662159,-0.140169,-0.952828,-0.506168,0.567013,0.649839
0.657730,-0.251033,-0.942874,-0.567072,-0.032017,-0.823046
0.653779,-0.368398,-0.939211,-0.239040,0.867366,-0.436503
0.649448,-0.502535,-0.940844,-0.106948,-0.060642,0.992414
0.741321,0.103448,-0.952390,-0.376324,0.708714,-0.596745
0.737180,-0.017867,-0.947772,0.192899,0.624172,0.757099
0.732848,-0.160492,-0.954063,-0.724481,-0.095557,0.682639
0.728707,-0.271946,-0.946737,-0.564404,0.825258,0.019927
0.724757,-0.389119,-0.942596,-0.350707,0.935490,0.043177
0.720424,-0.514972,-0.940048,0.528555,0.801818,-0.278779
0.716474,-0.625825,-0.932483,-0.189460,0.777718,0.599383
0.813165,0.094177,-0.952868,-0.075015,0.338959,0.937806
0.809121,-0.020034,-0.947175,0.534644,0.600879,0.594222
0.804692,-0.151221,-0.947493,0.883398,0.242048,0.401273
0.800645,-0.275883,-0.944308,0.630340,-0.681193,0.372354
0.796119,-0.395235,-0.938336,0.516734,-0.487053,-0.704106
0.865941,0.101088,-0.946975,-0.145284,0.344690,0.927406
0.861609,-0.022996,-0.943750,-0.304469,-0.059307,-0.950674
0.857562,-0.151017,-0.944507,0.271070,0.268068,0.924479
0.853230,-0.269972,-0.938614,-0.182414,0.978093,-0.100297
0.951942,0.043284,-0.944228,-0.252230,0.885203,0.390890
0.947319,-0.071132,-0.935947,-0.371623,0.574271,0.729458
-0.175988,0.208593,0.792912,0.772740,-0.625589,0.107293
0.384702,-0.227759,0.404593,-0.227838,0.954416,0.192821
-0.823449,0.579844,0.755645,0.839844,0.245643,-0.484067
-0.827493,0.445900,0.746806,0.870082,0.360541,-0.336106
-0.831249,0.307417,0.734224,0.124553,-0.370055,0.920623
-0.839532,0.004227,0.700938,-0.562021,0.371740,-0.738879
-0.789069,0.449247,0.732154,-0.108891,0.865959,-0.488116
-0.792152,0.395007,0.758073,0.641413,0.095255,-0.761259
-0.796966,0.179396,0.714157,0.371914,-0.440687,-0.816992
-0.800722,0.068929,0.715989,-0.709782,-0.114230,0.695098
-0.809486,-0.335662,0.637991,0.830064,-0.521475,0.197630
-0.735138,0.565240,0.727296,0.797144,0.292804,-0.528041
-0.742456,0.329714,0.722240,-0.719026,0.673735,0.170538
-0.750256,0.080367,0.711490,-0.310535,-0.807961,0.500766
-0.763258,-0.489520,0.614579,-0.433943,0.344253,-0.832576
-0.697868,0.151186,0.717979,-0.453084,0.676313,-0.580789
-0.702297,-0.058899,0.675576,0.714041,0.699353,-0.032426
-0.714336,-0.494649,0.636637,-0.465970,0.682047,0.563634
-0.628816,0.771774,0.810908,0.854173,0.468278,-0.226062
-0.638544,0.025140,0.531007,0.791773,0.420738,-0.442804
-0.643358,0.049991,0.641295,0.928350,0.205751,-0.309569
-0.595206,0.721277,0.845786,0.566288,0.731884,-0.379029
-0.604546,0.305647,0.763130,-0.095385,-0.235693,0.967135
-0.537904,0.293607,0.572415,0.917047,0.390646,-0.080127
-0.535112,0.794854,0.842203,-0.576292,-0.791458,-0.203668
-0.542527,0.526773,0.822654,-0.257570,-0.928590,0.267167
-0.560149,-0.166211,0.719612,0.211830,0.450199,-0.867438
-0.427250,0.867058,0.879988,-0.563511,-0.387271,0.729709
-0.430715,0.750667,0.878355,-0.081108,-0.982921,0.165189
-0.439865,-0.045884,0.580577,0.207872,0.635421,0.743659
-0.442080,0.037372,0.666857,0.875525,0.140825,0.462196
-0.442562,0.280001,0.819190,-0.547479,0.833017,0.079681
-0.445354,0.273885,0.863425,-0.468517,0.351320,-0.810596
-0.449784,0.065185,0.823092,0.821641,0.194956,-0.535628
-0.457393,-0.210397,0.801711,-0.560919,0.787830,-0.254349
-0.336817,0.117451,0.540284,-0.203481,0.685016,0.699534
-0.335565,0.792097,0.885203,-0.534568,0.658458,0.529784
-0.339706,0.585563,0.842163,-0.027359,0.219350,0.975263
-0.343077,0.508628,0.857890,0.062752,-0.671321,0.738506
-0.350686,0.220224,0.830139,0.608044,0.700810,0.373027
-0.358295,-0.043319,0.815527,-0.033202,0.963583,0.265342
-0.372067,-0.415149,0.846264,0.287208,-0.947191,-0.142623
-0.241572,-0.074876,0.804020,-0.254040,-0.951318,-0.174521
-0.244267,0.048413,0.902842,0.606218,0.780567,-0.152364
-0.248024,-0.104663,0.886438,0.915944,-0.370383,0.154477
-0.265552,-0.574932,0.924899,-0.703418,0.282656,-0.652157
-0.218169,0.122976,0.544146,-0.352033,0.173246,-0.919814
-0.219806,0.688926,0.841486,-0.155792,0.546430,0.822887
-0.223465,0.571549,0.840172,-0.502911,0.682442,-0.530427
-0.227415,0.369554,0.801910,0.545487,0.704768,0.453591
-0.234445,0.136786,0.798287,-0.250718,0.281077,0.926356
-0.177337,0.789328,0.867804,-0.127339,0.461388,0.878013
-0.181187,0.617313,0.840013,-0.513508,-0.616119,0.597250
-0.185328,0.354565,0.772646,0.794873,-0.010363,-0.606688
-0.192359,0.152570,0.782321,0.221150,-0.788156,0.574371
-0.193901,0.457736,0.962007,-0.366730,0.882807,-0.293531
-0.199295,-0.069350,0.785466,0.991949,-0.062586,-0.110089
-0.202760,-0.148657,0.801432,-0.562407,0.763138,0.318307
-0.206325,-0.246891,0.806727,-0.567906,0.183476,0.802384
-0.209405,-0.252610,0.850723,0.189932,-0.294250,0.936666
-0.217881,-0.700399,0.758750,0.586410,-0.790541,0.176545
-0.220191,-0.601961,0.847140,0.987207,-0.159181,0.009164
-0.223177,-0.607090,0.892450,-0.611823,0.480147,-0.628595
-0.134481,0.673732,0.868879,-0.177455,0.535123,-0.825925
-0.139586,0.256331,0.737170,-0.811770,0.187152,-0.553176
-0.142860,0.205631,0.764961,0.972895,0.175233,0.150891
-0.153452,-0.132475,0.764603,-0.367567,0.925405,0.092306
-0.155474,-0.005044,0.865057,-0.551780,0.772096,-0.315288
-0.159327,-0.110382,0.868919,-0.479707,0.153394,0.863916
-0.169631,-0.364461,0.904514,-0.083542,-0.439158,0.894517
-0.173002,-0.467029,0.907819,-0.226664,-0.873351,-0.431140
-0.133999,-0.002672,0.512772,0.633484,0.511684,0.580411
-0.131977,0.719893,0.880704,0.589400,0.387385,-0.708901
-0.141223,0.189256,0.746447,0.507678,0.089618,-0.856873
-0.151815,-0.123602,0.758472,0.179364,-0.839758,0.512479
-0.154031,-0.045089,0.839416,0.465461,-0.660733,0.588878
-0.157208,-0.111959,0.859761,-0.375131,-0.806912,-0.456256
-0.161061,-0.253994,0.846623,0.740497,-0.525147,-0.419386
-0.167418,-0.366231,0.895834,0.020496,-0.576598,0.816771
-0.170498,-0.436255,0.914070,0.405592,-0.855759,0.321203
-0.175891,-0.744972,0.832647,0.257519,0.776636,0.574910
-0.087965,-0.090661,0.510542,0.326243,0.822451,-0.465983
-0.091527,0.153943,0.714993,0.936779,0.039531,0.347681
-0.094801,0.111538,0.746527,0.989199,0.093470,-0.112906
-0.101446,-0.086519,0.758511,-0.583577,0.645972,-0.492096
-0.102989,0.058478,0.870034,0.140688,0.483496,0.863967
-0.107227,-0.111562,0.846543,0.942514,-0.266642,-0.201419
-0.110501,-0.187317,0.861195,0.890306,-0.004346,0.455342
-0.113678,-0.275691,0.870472,-0.326429,-0.882202,0.339359
-0.117337,-0.380438,0.874772,0.206737,0.670140,0.712862
-0.120420,-0.442179,0.894679,-0.464838,0.093869,-0.880406
-0.129473,-0.862939,0.816960,0.919943,0.166462,0.354958
-0.044144,0.040322,0.767072,0.398177,-0.592359,0.700404
-0.047515,-0.044295,0.780171,0.747200,0.545152,-0.380134
-0.050501,-0.103675,0.801990,0.603767,-0.247295,0.757833
-0.051948,0.028294,0.906584,0.236921,0.971375,-0.017300
-0.005720,-0.023188,0.650493,0.106668,0.993637,0.036149
-0.008994,-0.069350,0.680991,0.758897,0.316982,0.568856
-0.014196,-0.099137,0.765797,-0.567542,0.207419,0.796789
-0.017855,-0.232889,0.756083,0.671952,0.738532,0.055225
0.069110,0.020203,0.519978,-0.099936,-0.409351,0.906887
0.066606,0.059658,0.586987,0.575612,0.473252,0.666861
0.137968,-0.365641,0.266912,-0.628357,0.770490,-0.107295
0.134788,0.008765,0.536024,0.829895,-0.004949,-0.557898
0.098098,-0.715184,0.769381,0.081844,0.689040,0.720087
0.095306,-0.730776,0.809395,0.772286,0.346767,0.532284
0.343388,-0.137014,-0.955695,0.362648,0.036739,-0.931202
0.653779,-0.198959,-0.960552,0.297420,-0.373944,-0.878469
0.646846,0.019806,-0.952430,-0.433685,-0.638707,0.635587
0.602162,0.037372,-0.972298,0.906480,0.019462,0.421800
0.780230,-0.399377,-0.941441,0.211855,-0.321917,-0.922761
0.772718,-0.243929,-0.948011,-0.061314,-0.017791,0.997960
0.718402,-0.346112,-0.952271,-0.521970,-0.152465,-0.839227
0.704339,0.033219,-0.946020,0.199653,0.491722,0.847554
0.696539,0.151186,-0.960791,0.825143,-0.202600,0.527344
0.939037,-0.059886,-0.932403,0.136731,0.990099,-0.031745
0.931043,0.034206,-0.950798,0.363957,0.332209,-0.870157
0.837241,-0.053770,-0.936186,0.938518,0.106872,0.328271
0.829250,0.058478,-0.952271,-0.260601,0.223309,0.939266
0.956565,-0.051206,-0.936504,-0.176308,0.608101,0.774034
0.980160,0.012317,-0.940525,0.110331,-0.094295,-0.989412
0.964944,0.019614,-0.936902,0.987772,0.114675,-0.105618
0.936051,-0.029112,-0.939888,0.248691,-0.323457,0.912978
-0.433701,0.089446,0.858607,-0.048646,-0.737293,0.673819
-0.443139,0.062620,0.820066,0.687026,0.424338,-0.589859
-0.447089,0.529145,0.873617,-0.331506,0.795484,0.507256
-0.454504,0.637443,0.861832,-0.233175,0.878922,-0.416083
-0.805345,-0.415354,0.613106,-0.071322,-0.565203,0.821863
-0.847429,0.445900,0.740395,0.608859,0.294142,-0.736730
-0.690547,-0.256162,0.669246,0.812866,0.505559,-0.289238
-0.494277,-0.264638,0.801512,0.421765,0.906604,-0.013547
-0.259292,-0.409828,0.835514,0.965704,-0.243494,-0.090143
-0.277590,-0.040357,0.870512,-0.559104,-0.409692,0.720802
-0.119168,-0.133065,0.856457,0.964490,-0.256881,0.061409
-0.105781,0.093394,0.767032,0.352705,-0.454628,0.817871
-0.126199,0.480418,0.806250,-0.435094,0.792782,-0.426837
-0.114545,-0.607487,0.898502,-0.180087,0.557566,0.810363
-0.128894,-0.301732,0.921515,0.657251,-0.501159,-0.562904
0.014119,-0.314748,0.759985,0.351351,0.808979,0.471280
0.051582,-0.078236,0.573609,0.563093,-0.805529,-0.184526
0.043106,-0.075273,0.608209,-0.729400,0.356965,-0.583568
0.123811,0.010740,0.526866,0.720074,0.410324,0.559579
0.049560,0.128310,0.811227,-0.212690,0.431282,0.876789
0.077777,-0.572367,0.780967,0.762352,0.491164,-0.421399
0.076044,0.178601,0.808241,-0.246013,0.839595,-0.484312
0.152702,0.042694,0.521411,0.955336,-0.066851,0.287861
0.345025,-0.318697,0.208384,0.780881,0.570283,-0.254953
0.085866,-0.648122,0.786382,0.825524,0.522457,-0.213420
0.056108,0.197155,0.810032,-0.216810,0.962232,-0.164631
0.144517,0.018626,0.514762,0.796895,0.572488,0.192913
-0.030951,0.013690,0.938317,-0.362115,-0.361906,0.859009
0.015083,-0.114524,0.785466,-0.345071,0.468861,0.813078
-0.063889,0.010740,0.818553,0.912262,0.360088,0.195227
-0.051369,-0.043909,0.777503,0.800549,0.065395,-0.595689
-0.043759,-0.025958,0.747801,0.959366,0.075649,-0.271835
-0.027486,-0.120832,0.697315,-0.725314,-0.514837,-0.457016
-0.018143,-0.010174,0.651886,0.593397,0.743773,0.307704
-0.079971,-0.120242,0.890499,0.765998,-0.284897,-0.576265
-0.059939,-0.271344,0.832090,0.017466,0.575921,0.817319
-0.068994,-0.039370,0.842402,0.295615,0.930742,0.215246
-0.094995,-0.168571,0.891773,0.899403,-0.237337,-0.367077
-0.092685,-0.083353,0.874493,0.028175,-0.875794,0.481861
-0.055797,0.006201,0.729008,0.885804,0.436053,-0.158772
-0.044241,0.085893,0.678284,0.997626,0.019415,0.066077
-0.108476,0.240354,0.900174,-0.715976,-0.021233,0.697802
-0.078143,-0.041345,0.816562,0.689089,-0.283600,-0.666878
-0.061384,-0.149247,0.765320,-0.509052,0.858778,0.058021
-0.062058,-0.027535,0.755764,0.532060,-0.678265,0.506822
-0.141702,-0.442576,0.902205,0.249811,0.132007,0.959254
-0.164335,0.083919,0.933738,-0.067607,0.954318,0.291044
-0.206325,-0.138194,0.863345,0.388398,0.196456,-0.900306
-0.140162,0.332869,0.816881,0.404174,0.450212,-0.796211
-0.131304,0.327343,0.784351,0.291703,-0.752409,0.590585
-0.249085,-0.469208,0.838460,0.932565,0.354339,-0.069038
-0.266034,-0.121434,0.868003,-0.553591,0.524382,-0.646963
-0.272294,0.078393,0.871308,0.485655,-0.873255,-0.039560
-0.503427,-0.313568,0.800118,-0.056030,0.918400,0.391667
-0.524614,0.428936,0.806210,0.716577,-0.568376,-0.404311
-0.879114,0.298941,0.725664,-0.385462,0.080639,0.919193
-0.705571,0.016459,0.663711,0.833538,-0.420875,0.357880
-0.880078,0.287888,0.724828,0.508990,-0.045426,-0.859573
-0.816998,0.560509,0.748996,0.838488,0.165187,-0.519280
-0.735138,0.160264,0.732552,-0.085977,-0.448096,0.889842
-0.792440,0.024935,0.716666,-0.561881,-0.635760,0.529244
-0.818826,0.450824,0.761617,0.093265,-0.145021,0.985023
-0.661078,0.077802,0.723633,0.885780,-0.293663,0.359383
-0.667050,0.406843,0.718218,0.952356,0.194939,0.234556
-0.642974,-0.375706,0.705199,0.115531,-0.993087,0.020764
-0.678894,0.137376,0.766475,0.353215,-0.932982,0.069169
-0.587503,0.353385,0.789209,-0.470831,0.782669,-0.407121
-0.546571,0.434065,0.801791,0.040032,-0.786338,0.616498
-0.487632,-0.274306,0.799720,-0.537343,-0.778448,-0.324469
-0.513925,0.235417,0.861752,-0.324497,-0.837320,-0.439995
-0.557454,0.507051,0.810430,-0.091425,-0.194255,0.976681
-0.578930,0.358514,0.811147,-0.344712,0.797658,0.494889
-0.573634,0.437809,0.794425,-0.059315,-0.484329,0.872873
-0.573151,0.255741,0.784909,0.409797,0.145615,-0.900479
-0.584517,0.503691,0.797291,0.539693,0.141456,-0.829893
-0.557839,0.262050,0.783714,-0.593645,0.397644,0.699618
-0.581434,0.620274,0.817438,0.383137,0.756849,-0.529514
-0.606665,0.292824,0.800835,-0.668058,0.598581,0.442039
-0.597998,0.340562,0.778339,0.944014,-0.201194,-0.261457
-0.618703,-0.114921,0.711888,0.622942,0.586174,-0.518019
-0.682362,0.151583,0.668728,-0.697453,0.371539,-0.612795
-0.830191,-0.114921,0.689233,0.446603,-0.615688,-0.649211
-0.854171,0.254946,0.724668,0.263239,-0.482101,0.835634
-0.780690,0.282169,0.738564,-0.100198,-0.298192,0.949232
-0.718765,-0.176071,0.621985,-0.522420,0.851750,0.039984
-0.268635,-0.626812,0.911004,-0.684555,0.612196,-0.395729
-0.290398,-0.114331,0.905668,0.042034,-0.040767,0.998284
-0.298295,-0.017674,0.890061,-0.162515,0.119471,0.979447
-0.306868,0.005611,0.860916,0.892794,0.224165,-0.390729
-0.315053,0.035398,0.834200,0.764676,0.175176,0.620148
-0.322663,0.121002,0.817796,0.891818,-0.008039,0.452322
-0.325551,0.734691,0.899059,0.822191,0.549482,0.148562
-0.334604,0.663282,0.853471,0.730332,0.643997,0.227780
-0.348470,0.172292,0.727256,-0.672134,0.450561,-0.587563
-0.137852,-0.645365,0.905947,0.428695,0.693642,0.578863
-0.157690,0.151186,0.952770,-0.288981,-0.921956,0.257850
-0.193322,-0.168968,0.762055,0.209791,0.695184,0.687536
-0.204591,0.571947,0.833324,0.183974,-0.879115,0.439671
-0.214798,0.322021,0.753495,-0.633143,0.637749,-0.438641
-0.064468,-0.104073,0.823530,0.796185,-0.522085,0.305806
-0.071883,0.012317,0.811505,0.970016,-0.176204,0.167394
-0.080165,-0.037203,0.769938,0.503728,0.247568,-0.827628
