-0.067208,0.615902,0.837742,-0.587573,0.714559,-0.379688
0.146927,0.736682,0.718996,-0.168811,-0.907667,0.384244
-0.469957,0.495769,0.862219,-0.662239,0.305278,-0.684284
0.551412,0.084786,0.860941,0.035865,0.968075,0.248081
-0.409873,-0.723688,0.716741,-0.489285,0.802908,-0.340499
-0.240461,0.034403,0.766672,0.929830,-0.117280,0.348801
-0.455277,-0.418998,0.810619,-0.438211,-0.108590,-0.892289
0.641352,0.241761,0.896123,-0.049955,-0.669489,0.741140
0.184589,0.905656,0.750224,0.855251,-0.285149,-0.432708
0.413714,-0.122424,0.521872,-0.413816,-0.689793,0.594089
0.543421,0.376332,0.901867,0.279662,-0.944128,0.174387
0.506256,0.135816,0.961721,-0.680150,-0.147480,0.718085
-0.076004,-0.344369,0.898138,0.957019,-0.288193,0.032544
-0.414767,-0.116897,0.757140,-0.665287,-0.572826,-0.478815
0.322411,-0.188041,0.815686,0.895766,0.440427,-0.060225
-0.568943,0.097531,0.912677,-0.350236,0.667279,0.657324
-0.767158,0.362492,0.830135,-0.657043,0.680811,0.323715
-0.095639,-0.077616,0.508326,-0.124966,-0.989798,-0.068442
0.436262,-0.275864,-0.973012,-0.026373,0.186259,0.982147
0.375991,0.327841,0.753516,0.773188,0.380450,-0.507383
0.113540,-0.162900,0.254715,0.783229,0.609590,-0.122282
-0.703234,-0.270387,0.912677,0.628504,-0.761065,0.160509
0.675112,0.214926,0.882216,-0.252228,-0.353478,0.900797
0.152007,-0.144529,-0.164596,0.786861,0.581580,-0.206432
-0.017282,-0.267599,0.468242,-0.226830,0.595481,0.770682
0.132682,-0.187145,0.859844,0.861877,0.391371,-0.322484
0.498452,-0.577915,0.569774,-0.579839,0.448998,-0.679844
-0.149468,0.093200,0.549792,0.645054,-0.724249,0.243655
-0.594215,-0.562381,0.910166,-0.554200,-0.339596,0.759958
0.217666,0.162451,0.780233,0.537915,-0.825604,-0.170367
-0.288341,-0.226476,0.949768,0.870671,0.412293,0.268230
-0.464260,-0.804491,0.656721,0.520242,0.600916,-0.606834
-0.489099,-0.686747,0.912572,-0.445532,0.400796,0.800539
0.048129,-0.161007,0.098682,0.917921,-0.376787,0.124309
-0.460046,-0.417306,0.852056,0.031705,0.860826,0.507911
0.403555,-0.044658,0.717477,0.955885,0.164499,0.243359
-0.056492,0.213283,0.564496,-0.861103,0.490622,-0.133384
0.355798,-0.563826,0.441901,-0.566374,-0.397867,-0.721750
-0.058907,-0.254954,0.670794,0.578099,0.516802,0.631441
0.240213,-0.612367,0.544831,-0.629774,-0.696866,-0.343165
-0.398786,-0.457582,0.903821,-0.771399,0.635799,0.026534
-0.452243,-0.662949,0.714876,-0.593032,-0.634893,-0.495202
-0.018335,0.023798,0.931004,0.772826,0.368015,-0.517015
-0.761521,-0.125212,0.903460,-0.776162,0.481622,0.406955
0.425731,-0.413821,0.868639,0.932559,0.243512,0.266526
-0.742256,-0.272577,0.926599,0.953864,0.152695,0.258509
0.923562,-0.524942,0.441239,0.473492,0.672657,0.568628
-0.187872,0.465548,0.811717,0.868672,-0.069381,-0.490505
0.371346,0.954446,0.787390,-0.686390,-0.725980,-0.042672
0.381505,-0.317485,-0.971058,0.020707,0.114996,0.993150
-0.264742,0.080703,0.781737,0.748126,-0.400377,0.529156
-0.795156,-0.302500,0.958203,0.952126,0.305638,0.006477
0.225656,-0.166185,-0.938778,0.812008,0.583119,-0.024827
0.111559,0.596535,0.890530,-0.032872,0.349847,0.936230
-0.415510,-0.498905,0.874834,-0.202782,0.229123,0.952041
-0.559712,-0.049437,0.771919,0.027220,-0.833651,0.551620
-0.110257,-0.111471,0.802575,0.003166,0.992616,0.121260
0.438429,-0.194065,0.038136,-0.262026,0.954593,0.141757
-0.070182,0.072588,0.315306,0.936326,0.349760,0.031001
0.260406,-0.206810,0.923863,0.879958,-0.474988,-0.007762
-0.112550,-0.585333,0.528442,0.937884,0.114220,0.327609
-0.039643,0.315942,0.598596,0.972713,-0.194666,0.126233
0.186757,-0.198048,-0.246161,0.307165,0.910723,0.276102
0.021184,0.539580,0.912000,0.483811,0.874388,-0.037048
-0.779052,-0.347655,0.879104,0.886912,-0.459283,-0.049463
-0.653184,-0.520760,0.499199,0.941919,0.200376,0.269513
-0.197100,0.189883,0.910963,0.020211,-0.772303,0.634933
-0.788776,-0.503286,0.720484,0.852004,0.400179,-0.337559
-0.076809,-0.385841,0.487622,-0.163558,0.441200,0.882378
-0.118805,0.094046,0.503409,-0.267656,0.848654,-0.456231
0.440659,-0.061386,0.691226,-0.724262,-0.574414,0.381436
0.702677,-0.078164,0.549461,0.236508,-0.896665,-0.374239
0.179447,0.741213,0.725641,0.092006,-0.992373,0.082042
-0.025396,-0.591756,0.810619,0.243032,-0.819952,0.518280
-0.403803,-0.723140,0.464604,0.398557,-0.783236,-0.477172
-0.690720,-0.546201,0.663547,0.133149,0.960840,0.243019
0.021742,-0.117196,0.239650,0.391325,0.890093,-0.233664
-0.531529,-0.023698,0.904633,0.828572,-0.375106,0.415648
0.220949,0.045455,-0.993204,-0.094674,0.262895,0.960168
-0.692766,-0.256796,0.900995,0.829275,0.522910,0.197151
0.007867,0.639052,0.856506,-0.654744,0.753685,-0.057174
0.424493,-0.387235,0.615209,-0.277324,0.674112,-0.684591
-0.631566,-0.339739,0.954053,-0.023976,-0.817462,0.575483
0.250062,-0.583142,0.642708,0.029041,-0.998394,0.048645
-0.168112,-0.108433,-0.213249,-0.295902,0.954714,-0.031044
-0.022237,-0.424574,0.720063,0.269016,0.476657,-0.836916
0.219586,-0.062083,0.899852,-0.039391,-0.052770,0.997829
0.039458,0.178383,0.969148,-0.014262,-0.279936,0.959913
0.159069,0.536643,0.909309,0.338078,0.889398,-0.307693
-0.356603,0.124415,0.897867,-0.531418,0.697682,0.480452
0.189793,-0.625062,0.559625,0.378465,-0.631029,0.677175
-0.281901,-0.347207,0.777708,-0.133319,0.744485,0.654193
-0.060766,0.279299,0.803643,-0.016907,0.999116,0.038481
0.259043,-0.141193,0.895898,-0.493503,0.468118,0.733022
0.520751,-0.135617,0.841321,0.979558,0.193772,-0.054027
0.568571,0.402469,0.905535,0.172080,-0.982835,-0.066516
-0.893954,0.324505,0.842824,0.899621,-0.392019,0.192360
-0.788095,0.069850,0.805898,0.792900,0.389880,0.468298
-0.611373,-0.354973,0.889327,-0.191188,-0.976157,0.102783
-0.684218,-0.774868,0.734783,-0.503693,0.725852,-0.468436
-0.388998,-0.172358,0.716876,-0.286039,0.954476,-0.084599
-0.620230,-0.723339,0.644347,-0.287929,0.687938,0.666212
-0.613232,-0.212735,0.673365,-0.497680,-0.389626,-0.774923
-0.718843,-0.245196,0.860956,0.625968,0.595083,0.504024
-0.063800,-0.290053,0.907670,0.880098,-0.431642,-0.197767
0.377106,0.396943,0.779767,-0.686173,-0.358241,0.633111
-0.464073,0.145126,0.840614,0.223668,0.451135,0.863973
0.118249,-0.022454,0.785721,0.990934,-0.074685,0.111676
0.191588,-0.228468,-0.223698,-0.238492,0.955042,-0.176115
-0.886954,-0.621129,0.671004,0.199092,0.297982,0.933578
-0.080091,-0.482923,0.492840,0.458828,-0.575018,-0.677371
-0.052588,-0.080504,0.358186,-0.123901,0.992270,-0.007000
-0.106665,0.175844,0.907324,0.525056,-0.842149,-0.122888
-0.074456,-0.068356,0.534772,0.695332,0.711104,-0.104138
0.053146,0.171761,0.967840,-0.039817,-0.272592,0.961305
-0.467789,-0.456089,0.871541,0.818861,-0.038829,-0.572677
-0.383300,-0.220701,0.843140,0.608415,0.708531,0.357513
-0.205216,-0.126855,0.640092,-0.460494,-0.836166,-0.297945
0.653927,-0.154585,-0.974846,0.024043,0.013279,0.999623
0.374257,0.017525,0.583907,0.973876,-0.203303,-0.101163
0.034749,0.548940,0.887283,-0.085536,0.609276,0.788331
-0.034874,-0.061884,0.302106,0.819811,0.553000,-0.148662
-0.387885,-0.336851,0.887012,0.255141,-0.956181,0.143601
0.590561,-0.008613,0.813010,0.724578,0.561122,-0.400161
0.501549,0.347207,0.836524,0.334453,0.928886,-0.159098
-0.399591,-0.460619,0.786984,-0.237635,0.126771,0.963047
-0.716304,-0.590859,0.804079,0.430678,0.892988,-0.130721
-0.404484,-0.544608,0.868940,0.771877,0.635690,-0.010203
-0.455772,-0.611869,0.540470,-0.139846,0.156262,-0.977765
0.536856,-0.532460,0.490720,0.787627,-0.450933,0.419884
-0.796209,-0.218112,0.764101,-0.626556,0.740260,-0.243809
-0.246469,-0.717067,0.725657,-0.082409,-0.944383,-0.318355
-0.714941,-0.812556,0.667200,-0.162690,0.947406,0.275597
-0.542864,-0.201334,0.717357,-0.185797,0.910515,-0.369380
-0.511274,-0.247436,0.964277,-0.197393,-0.971862,0.128529
-0.368743,-0.305935,0.884501,-0.088888,0.924188,0.371450
0.296271,1.000000,0.759169,-0.824328,0.373637,0.425299
0.390548,0.004879,0.532697,0.484674,0.848447,-0.212673
-0.749319,-0.780095,0.728122,0.836429,-0.413774,0.359413
-0.176598,0.557851,0.833292,-0.487684,0.816312,-0.309515
0.435642,-0.022702,0.687212,0.834286,0.514176,-0.198971
0.122275,-0.369361,0.376063,-0.451192,0.521001,0.724557
0.367690,-0.006721,0.557655,0.928672,0.370587,-0.015253
0.087896,-0.167579,-0.569713,-0.700238,-0.682600,0.209105
-0.760963,-0.500796,0.856732,-0.463552,0.837036,-0.290672
0.097189,0.699841,0.881314,-0.345479,0.907586,0.238603
0.712958,-0.263915,0.720274,-0.447181,0.211983,0.868960
0.649220,0.031216,0.954113,-0.160072,-0.906386,-0.390950
-0.680811,-0.277607,0.899792,0.994322,-0.105213,0.015964
-0.340498,-0.412327,0.927591,0.007655,0.718238,0.695756
-0.266911,-0.400976,0.427046,0.067416,-0.924755,0.374545
-0.002973,-0.255352,-0.089887,-0.356296,0.934373,0.000018
0.538529,0.068356,0.901596,-0.777482,0.108165,0.619534
-0.015795,-0.631186,0.510656,0.315478,0.716121,0.622612
-0.608895,-0.114458,0.664599,-0.413120,-0.310132,-0.856242
0.173377,-0.197849,-0.553536,-0.748527,-0.621194,0.232002
0.565535,0.365927,0.869767,0.886770,-0.453982,-0.086833
-0.206144,-0.121975,0.663472,0.786842,0.614153,-0.060788
0.222807,0.778055,0.781226,0.715242,0.534859,-0.449838
0.120725,0.396246,0.872954,0.360733,0.707230,-0.608027
-0.607905,-0.814547,0.695286,-0.360170,0.650778,0.668406
0.354250,0.220950,0.752945,0.982876,0.158134,0.094593
-0.451438,-0.293886,0.934718,0.615865,-0.659431,0.431116
0.352144,0.084487,0.664434,0.985569,0.002355,-0.169257
0.337339,-0.227372,0.819219,0.573916,0.731322,0.368495
-0.259043,0.619287,0.714425,-0.180408,0.101860,0.978303
0.183721,-0.202728,-0.179766,0.992013,-0.106005,0.068366
0.257247,-0.476302,0.478752,0.771742,0.375267,0.513409
-0.306740,-0.416559,0.819971,0.681414,-0.381525,0.624591
-0.676785,0.423230,0.847034,-0.131861,0.837297,0.530610
0.316464,-0.353380,0.317096,0.707678,0.499633,0.499559
0.555005,0.091307,0.957917,-0.659573,-0.514628,-0.547833
-0.707384,-0.909539,0.685408,0.589850,-0.450243,-0.670341
-0.632371,0.417107,0.759109,-0.183824,-0.970965,0.153088
0.280291,-0.192124,-0.938732,0.915202,0.391663,0.094896
0.202615,-0.661705,0.432188,-0.050592,0.903410,0.425783
0.351214,0.121528,0.676387,0.989224,0.046492,0.138830
-0.143583,-0.034203,0.583711,0.997870,0.056659,-0.032315
-0.615460,-0.583839,0.667065,0.840417,0.517548,0.160760
0.365152,0.482675,0.900183,0.540360,0.376709,0.752397
0.315969,-0.572737,0.584749,-0.269497,-0.955975,0.116117
-0.894759,0.470576,0.865271,0.777878,0.322825,0.539157
-0.717170,-0.616450,0.728363,0.799385,0.105680,-0.591453
0.189235,0.040028,0.466032,0.007782,0.120675,0.992662
0.294723,-0.506124,0.607015,0.918427,0.183179,-0.350624
-0.033449,-0.182266,0.291957,-0.638573,-0.760228,-0.119489
0.747893,0.261426,0.899566,-0.069888,-0.607652,0.791123
-0.456020,0.206412,0.880216,-0.449052,0.517949,-0.728067
0.233338,-0.351190,-0.972847,0.010151,-0.066410,0.997741
0.435952,0.142239,0.713628,0.811242,0.474087,-0.342240
-0.170403,-0.099323,0.697631,0.876871,-0.091474,0.471942
0.373204,-0.165488,0.835186,0.854289,0.114858,0.506949
-0.006936,-0.059793,0.296167,0.860552,0.491756,-0.132765
-0.579100,-0.028477,0.776460,0.068135,-0.879289,0.471390
-0.678085,-0.374490,0.933831,-0.688924,-0.690911,0.219148
0.217170,-0.116549,-0.980530,0.014394,0.618884,0.785350
-0.178581,-0.093000,0.821324,0.363372,0.931388,-0.021824
-0.760778,-0.063029,0.871571,0.954488,0.079222,0.287536
0.746408,0.014786,0.944371,0.279539,-0.611321,0.740368
-0.237178,0.145973,0.782474,0.702233,-0.403914,0.586278
0.434652,-0.167380,-0.979793,0.001617,0.194020,0.980996
0.168175,0.056557,0.276591,-0.586636,0.720030,-0.370695
-0.389743,0.100518,0.885388,0.076386,0.970912,-0.226925
0.288466,-0.719207,0.552904,-0.166675,-0.737254,0.654734
-0.656777,-0.540525,0.830270,0.168424,0.964925,-0.201379
-0.586287,-0.650652,0.734617,-0.015886,0.929855,0.367584
-0.725843,0.411182,0.821565,0.470216,-0.694349,-0.544772
-0.167430,0.174997,0.615224,0.573209,-0.703104,0.420804
0.264805,-0.337001,0.617420,-0.230565,0.214017,-0.949229
0.277317,-0.122424,0.892575,0.289495,-0.822330,0.489863
-0.463330,-0.154088,0.630214,0.817010,-0.028955,0.575895
0.270132,-0.130887,0.412057,-0.810718,0.340172,0.476465
-0.577304,-0.021607,0.791555,0.169810,-0.788051,0.591726
0.304634,0.810117,0.772415,-0.681078,-0.173090,-0.711458
-0.459118,-0.535995,0.454215,0.062080,0.955764,-0.287509
-0.056492,0.516579,0.864129,0.831690,0.340897,-0.438270
-0.418916,-0.299462,0.799057,-0.777825,-0.265508,-0.569644
0.805687,-0.243951,0.714801,0.711201,0.372230,-0.596355
-0.470887,-0.708951,0.548108,0.355727,0.877240,0.322349
-0.427032,-0.607039,0.910391,0.455029,0.873973,0.170645
-0.847745,-0.545604,0.653413,0.663815,0.559627,0.496152
0.142158,-0.007070,0.243003,0.879138,-0.449345,0.158762
-0.076872,0.199642,0.569428,0.777539,-0.585742,0.228778
-0.134540,-0.514837,0.796727,-0.487377,-0.468271,-0.737012
0.274776,-0.254655,0.938717,0.984003,0.149986,-0.096136
0.304510,0.511401,0.895161,0.307625,0.938892,0.154431
0.408263,0.294334,0.946911,0.343780,0.521714,-0.780788
0.089631,-0.458528,0.666013,0.518269,0.827239,-0.216962
0.123389,-0.140695,0.140058,0.896780,-0.092500,-0.432701
-0.646061,0.302948,0.889132,0.416481,0.781871,0.463920
-0.359887,-0.207906,0.845455,0.610862,0.713742,0.342665
-0.355055,0.324256,0.869135,0.512365,-0.822983,0.245320
-0.372151,-0.595688,0.908347,0.513377,0.648753,0.561751
0.295404,-0.151947,0.430504,0.985150,-0.166459,-0.042082
-0.501921,-0.191377,0.715718,-0.039985,0.999199,-0.001259
-0.207136,-0.114159,0.670568,0.865103,-0.413290,-0.284231
0.608958,-0.084885,0.947302,-0.256658,0.965018,-0.053551
0.337401,-0.404162,0.316434,0.706597,0.440041,0.554153
0.250990,0.063328,-0.993144,-0.204663,0.176020,0.962876
-0.760097,-0.260729,0.923096,0.829306,0.558230,0.025131
-0.190288,0.082694,0.875195,0.996325,-0.029310,-0.080487
-0.152749,-0.082694,0.616337,0.938629,-0.245211,0.242585
-0.870663,0.474758,0.875631,-0.164440,-0.933758,0.317894
0.125372,-0.182217,0.268247,-0.680603,-0.721988,0.124547
-0.751177,-0.434830,0.888591,-0.474597,0.763051,-0.438760
0.311942,-0.368814,0.921698,0.643803,-0.764018,-0.042350
-0.243745,-0.235089,0.739985,0.793206,0.289250,0.535872
0.502106,0.049189,0.865001,0.768044,0.619047,0.163977
0.111682,0.409041,0.910752,0.262804,0.922656,-0.282205
-0.286670,-0.466892,0.280365,0.443415,0.634586,0.632996
0.173254,-0.240267,-0.733520,-0.781629,-0.623429,-0.019829
-0.337711,0.329135,0.853033,-0.574623,0.818321,-0.012582
-0.636955,-0.468784,0.531134,0.117391,-0.861253,0.494432
-0.506876,-0.775018,0.670764,-0.526558,0.805159,0.272864
-0.468347,0.133825,0.853003,-0.802741,-0.566432,-0.186442
-0.022485,-0.055212,0.894259,-0.058340,0.989809,-0.129904
-0.051475,-0.091506,0.563865,-0.203541,0.963169,0.175717
-0.208127,-0.109081,0.693993,0.882365,-0.108933,0.457782
0.242072,-0.562083,0.518219,-0.519809,0.737763,0.430702
0.337897,-0.421239,0.180082,0.137049,0.745147,0.652667
-0.022732,-0.710844,0.551326,-0.341143,-0.937315,-0.071145
0.040759,-0.145923,0.126527,0.904989,0.379290,0.192704
-0.495231,-0.752265,0.505168,0.161660,0.633129,0.756976
0.172076,-0.253012,0.840945,0.900708,0.402749,-0.162846
0.122523,-0.154336,0.848237,0.896837,0.391045,-0.206803
0.703419,0.080106,0.870098,-0.336694,-0.454469,0.824679
0.101028,-0.234741,-0.418176,-0.597017,-0.765324,-0.240520
0.721136,-0.137060,0.715087,-0.082594,-0.085607,0.992900
-0.773600,0.385841,0.867752,0.002724,0.984792,0.173715
-0.251983,-0.595539,0.807537,-0.399604,0.431868,0.808583
0.050174,-0.095739,0.313938,0.916937,0.377033,-0.130663
0.148786,-0.142786,0.157259,0.899717,0.420941,-0.115408
-0.193757,0.054615,0.479864,0.434468,0.889338,-0.142530
0.109143,-0.092004,0.232479,0.868264,-0.440792,0.227639
-0.290014,0.077318,0.777061,0.818315,-0.190889,0.542146
0.103877,-0.678831,0.533133,-0.082249,-0.807789,0.583705
0.296334,0.299413,0.934102,0.877916,0.103934,-0.467398
0.144079,-0.168774,0.306631,0.956914,-0.229648,0.177699
-0.462402,0.099273,0.934357,0.922898,0.116434,0.367019
0.508981,0.053172,0.873601,-0.420575,-0.163491,0.892405
0.062624,0.004381,-0.996016,0.057467,-0.123266,-0.990708
0.341923,-0.264065,0.475083,0.669182,-0.036372,-0.742208
0.084614,0.659763,0.685588,-0.809100,0.554036,0.195963
-0.122398,0.443792,0.820723,-0.340680,-0.032619,0.939613
-0.261644,-0.311063,0.288349,-0.843003,0.504806,-0.185787
0.426164,-0.379717,0.684942,0.244623,0.373780,0.894677
0.473736,0.002838,0.794171,-0.214230,0.967835,0.131915
0.293050,-0.179628,0.854266,0.919735,0.008229,-0.392453
-0.877478,0.630389,0.831037,0.839494,0.342036,0.422209
0.339880,-0.058050,0.909279,0.590854,-0.806778,0.000003
-0.461844,-0.534253,0.517302,-0.786903,-0.202175,0.583017
0.555128,0.248830,0.868128,0.901482,0.419966,-0.104681
0.266663,-0.313651,-0.970802,-0.008581,-0.060445,0.998135
0.012946,0.398835,0.872052,-0.182271,0.319433,0.929914
-0.352515,-0.428408,0.782429,-0.539346,0.381142,0.750891
0.419536,0.322713,0.813085,-0.225450,0.768876,-0.598333
-0.116266,0.021707,0.484645,-0.385269,-0.922532,-0.022404
0.049864,-0.029623,-0.993535,-0.070175,0.126349,0.989501
0.299368,-0.143881,0.960578,-0.399148,0.047475,0.915656
0.593410,0.388927,0.892214,0.052071,-0.928026,0.368859
0.441837,-0.347705,0.803778,0.903811,-0.014520,-0.427685
-0.130514,-0.302798,0.237936,-0.675451,0.731316,-0.094566
0.222932,-0.138255,0.842779,0.077973,-0.662216,0.745245
0.034131,-0.059295,0.314404,0.552954,0.813540,-0.179985
0.380575,-0.343971,-0.968652,-0.006968,0.144563,0.989471
0.638318,0.038435,0.942145,0.557393,-0.813734,-0.164770
0.341428,0.176939,0.719838,0.266955,-0.889273,0.371388
0.763319,0.097132,0.910873,-0.748844,-0.445122,0.491019
-0.040759,0.177636,0.547101,-0.751566,0.597733,-0.279040
-0.214692,-0.200587,0.975703,-0.791166,0.420713,-0.443910
-0.764184,0.376282,0.830405,-0.640005,0.595563,0.485487
-0.482717,-0.482923,0.789916,-0.674819,0.194209,-0.711970
-0.668359,-0.213432,0.704803,-0.452745,0.848488,-0.274025
0.431988,-0.242109,-0.971749,-0.014410,0.156587,0.987559
-0.544784,-0.414567,0.898424,0.882744,-0.045669,-0.467630
-0.421024,-0.611869,0.423273,0.793385,0.546307,-0.268495
-0.552775,-0.010455,0.944897,-0.437109,0.899318,-0.012751
0.882372,-0.236384,0.719627,-0.530005,-0.816605,-0.228585
0.126487,-0.044458,0.675575,0.849375,0.521641,-0.080334
-0.184588,-0.121826,0.955677,-0.497590,0.867223,-0.018127
-0.618929,-0.030568,0.791480,0.232566,-0.885613,0.401999
-0.359887,-0.684905,0.684310,0.542923,0.238730,-0.805135
-0.033759,0.284776,0.589981,0.992652,-0.114552,0.038975
-0.266168,-0.350991,0.695406,0.585479,0.196592,-0.786489
0.154547,-0.055860,0.706066,0.715264,0.632353,-0.297534
0.121718,-0.231853,-0.028093,-0.461663,0.886406,-0.033944
0.537474,-0.388728,0.560347,0.624775,0.663699,-0.411290
0.612301,0.416908,0.908437,0.730677,0.673747,-0.110345
0.405476,-0.300458,0.825278,0.710848,0.510643,0.483672
0.385344,-0.061336,0.504191,0.855352,0.430861,-0.287633
-0.404051,-0.563876,0.774415,-0.241486,0.418048,0.875740
-0.830711,0.258986,0.903731,-0.225326,-0.966803,-0.120496
-0.424678,-0.493876,0.341242,-0.250073,-0.966983,-0.049062
0.079100,-0.718361,0.512069,-0.139134,-0.758865,0.636212
-0.754026,-0.493179,0.881825,-0.428403,0.826373,-0.365485
-0.660554,-0.560490,0.658661,0.617680,0.532837,-0.578409
0.191031,-0.182167,-0.589003,0.966610,0.254706,-0.028112
0.003160,-0.193966,0.846493,0.060331,0.746534,0.662606
0.129026,-0.407448,0.382227,-0.688399,0.424395,0.588214
0.016042,0.472867,0.647565,0.447627,-0.632051,0.632568
-0.337524,-0.508713,0.819941,0.979014,-0.203645,-0.007706
0.378159,0.021707,0.561790,0.375045,0.908554,-0.184041
0.116266,-0.630937,0.553791,0.046190,0.443141,-0.895261
0.450755,-0.334661,-0.969148,-0.008686,0.106462,0.994279
0.313925,0.694215,0.783346,0.659056,0.735155,0.158721
0.632371,-0.005178,0.849485,0.002102,0.989262,0.146140
-0.871283,-0.685502,0.674883,0.233682,-0.157016,0.959551
-0.564916,-0.013442,0.910316,0.605293,-0.249692,0.755827
0.315288,-0.676989,0.472031,-0.217355,0.913388,-0.344207
0.152194,-0.185851,0.827729,0.026383,0.123672,0.991972
0.055191,-0.198048,-0.529751,0.287410,-0.894819,-0.341605
-0.584241,-0.488848,0.900228,0.916822,0.286018,0.278625
-0.078790,0.527880,0.863603,0.781600,0.246856,-0.572855
0.746965,0.031415,0.895747,-0.189795,0.981238,-0.033901
-0.792617,0.311710,0.904828,0.983125,-0.132772,-0.125841
-0.457693,0.144778,0.946355,0.098739,0.985933,-0.134855
-0.760345,-0.694314,0.772551,0.886890,-0.450789,0.101073
0.898723,-0.320423,0.732603,0.652510,0.239226,0.719028
0.059403,-0.125660,0.138269,0.023668,-0.941995,-0.334793
-0.442455,-0.436522,0.779422,-0.407535,-0.204439,-0.890011
-0.529732,0.414617,0.883795,-0.162334,0.552761,0.817376
0.460234,0.293090,0.804259,-0.383829,0.862018,-0.331059
0.498760,-0.187593,0.865647,0.978961,-0.043355,0.199388
0.159564,-0.162452,-0.152357,0.848234,-0.014161,-0.529432
-0.263504,0.529921,0.721943,-0.280232,0.352651,0.892809
0.370541,-0.167878,0.975914,0.170870,0.948242,0.267658
0.316216,0.020562,0.770536,0.393063,0.899277,-0.191837
0.070182,-0.192572,-0.436744,0.083662,0.948203,0.306451
0.316712,0.802898,0.742616,-0.019547,-0.480877,0.876570
-0.255762,-0.058050,0.913564,0.642539,0.754104,0.135910
0.119239,0.748034,0.762853,0.789045,0.292765,-0.540089
0.475471,-0.091108,0.829503,-0.506408,-0.031472,0.861719
0.335108,-0.374539,0.935816,-0.048617,-0.529617,0.846843
0.367877,0.264115,0.935049,0.089580,0.592971,-0.800225
0.985320,-0.384248,0.734001,0.306900,0.564719,0.766097
0.390361,-0.538036,0.784549,-0.842230,0.452715,0.292740
-0.201189,-0.013841,0.705720,0.849710,-0.399847,0.343679
-0.397608,0.473315,0.838404,-0.062356,-0.856856,0.511771
0.383238,-0.361894,0.860566,0.876465,0.304274,0.373132
0.355550,0.796625,0.750630,-0.560863,0.824014,0.080204
0.637388,-0.000846,0.849229,0.013506,0.998009,0.061604
-0.178829,-0.055411,0.660089,0.742461,-0.656542,-0.133062
-0.321296,-0.515931,0.781136,0.550032,0.158122,-0.820038
-0.696977,-0.615204,0.776475,0.304383,-0.703421,0.642300
0.355673,-0.177337,-0.978560,0.034253,0.189764,0.981232
-0.737612,-0.575376,0.691317,0.196735,0.952618,-0.231977
-0.187314,-0.063278,0.883539,0.747283,-0.558274,0.360414
0.326623,-0.505028,0.898784,-0.778539,0.626174,-0.042230
0.101276,-0.212686,0.905956,0.332365,-0.166255,0.928382
-0.739780,0.383152,0.891778,0.552140,0.818220,0.160179
-0.020874,-0.054117,0.566225,0.235974,-0.969213,0.070301
-0.593100,-0.720203,0.512400,-0.225857,-0.233292,0.945814
-0.382123,0.253261,0.846327,0.727160,-0.063453,0.683529
0.080153,-0.115553,0.134781,-0.017944,0.907728,0.419175
-0.187437,-0.555959,0.807672,0.908763,-0.377322,0.178261
0.162165,0.067112,0.291716,0.462735,-0.789912,0.402387
-0.213949,-0.126954,0.662284,0.786842,0.614153,-0.060788
0.531839,-0.510505,0.826511,0.251430,-0.367667,-0.895323
-0.170776,-0.106940,0.798636,0.050195,-0.998096,0.035836
0.152131,0.229215,0.867707,-0.528375,0.844955,0.082893
0.407644,0.409141,0.776941,0.516742,0.326440,-0.791464
0.624256,0.397591,0.893627,0.045931,-0.986152,0.159358
-0.272175,-0.106890,0.635431,-0.380219,-0.898694,-0.218591
-0.333313,0.247137,0.846117,-0.729107,0.159972,-0.665441
0.042927,-0.069850,0.840945,0.939028,0.129284,-0.318609
-0.545590,0.379568,0.738767,0.163955,-0.828924,0.534792
0.086658,-0.148262,0.240372,0.682364,0.719047,-0.131722
0.262884,0.485961,0.918555,0.636676,0.765172,-0.095679
-0.299863,0.463507,0.803493,-0.597736,0.565439,-0.568322
0.917803,-0.290551,0.717748,0.797840,0.240665,0.552749
-0.241824,0.228916,0.643024,0.450727,-0.505670,0.735625
-0.518707,0.168526,0.869421,-0.347048,0.859013,-0.376369
-0.332940,0.196306,0.654781,-0.584399,0.505024,-0.635160
-0.787042,0.040327,0.842704,0.907954,0.155479,0.389161
0.580092,-0.052176,0.964382,-0.383033,-0.776331,-0.500596
-0.802218,-0.064373,0.887749,-0.722246,0.688611,0.064623
-0.754336,-0.081848,0.898018,-0.754068,0.618674,-0.220509
-0.740956,-0.815294,0.673846,-0.200953,0.929276,0.309942
-0.684588,-0.469929,0.550950,-0.353246,0.922738,-0.154179
-0.190598,-0.097232,0.917849,-0.114740,-0.234671,0.965279
-0.733151,-0.437917,0.874909,-0.290446,0.824995,0.484793
0.087401,-0.055810,0.684400,0.985002,0.171346,-0.020272
0.347622,-0.265210,-0.971479,0.074759,0.094342,0.992729
0.275521,-0.110873,0.429437,0.949183,0.236025,-0.208190
0.284317,-0.151249,0.931816,0.939683,0.341724,0.014836
-0.096382,-0.056358,0.548619,0.072819,0.997344,-0.001805
-0.058040,0.360500,0.780534,0.436129,0.800008,0.412043
-0.021309,-0.251767,-0.076100,-0.439462,0.886094,-0.147343
-0.297387,-0.478293,0.487698,0.849635,-0.499286,-0.169803
-0.510530,-0.556308,0.809687,-0.529599,0.811868,0.245754
-0.245851,-0.262172,0.870038,-0.428341,0.868011,-0.251159
0.121160,-0.261376,-0.650466,0.989333,-0.127297,-0.070818
-0.546395,-0.520512,0.873059,0.856992,-0.180166,0.482809
0.263257,-0.377327,0.571939,0.789459,-0.511197,-0.339752
0.196110,-0.621876,0.532637,-0.202697,0.964656,-0.168381
-0.717852,-0.510853,0.533284,0.446756,-0.779284,0.439460
-0.310084,-0.414916,0.261030,0.381029,0.789927,0.480450
-0.698340,-0.579210,0.770746,0.301012,-0.939988,0.160667
0.434589,-0.590810,0.529901,0.060712,-0.997586,0.033717
0.203172,0.014339,0.858100,-0.033488,-0.301257,0.952955
-0.824331,0.370557,0.803643,0.835673,-0.527356,0.153448
-0.199394,0.105994,0.571262,0.711126,-0.692195,0.123148
-0.048934,0.082943,0.948505,0.599460,0.686836,-0.410979
0.663590,-0.133924,0.712636,0.260989,0.872803,-0.412431
0.146370,0.716519,0.836555,-0.408820,0.347111,0.844026
0.610443,-0.143234,0.753787,-0.541810,0.831722,0.121165
-0.444003,-0.755999,0.674538,-0.684683,0.728839,0.001787
0.420466,0.230708,0.784188,0.973634,-0.119967,-0.194022
-0.168235,-0.476501,0.804590,0.891144,0.098533,0.442892
-0.257742,-0.050831,0.911098,-0.680416,-0.722032,-0.125316
-0.135158,-0.289704,0.229442,-0.644180,0.764749,0.013831
0.085172,-0.212486,0.239229,-0.720905,-0.638598,0.269237
-0.664828,-0.448272,0.562527,0.229908,-0.971980,0.048951
0.353878,0.019715,0.621178,0.845035,-0.533655,0.033591
-0.282271,-0.196853,0.812664,-0.783530,-0.609621,-0.120181
0.074889,-0.195011,-0.586778,-0.491723,-0.870461,-0.022490
0.860629,-0.413821,0.434338,0.646742,0.376770,-0.663151
-0.443260,-0.509758,0.772250,-0.594563,0.163465,-0.787258
-0.388503,-0.337299,0.889012,0.216789,-0.976205,-0.005092
-0.311632,-0.421189,0.822437,0.824805,-0.389054,0.410286
0.072102,-0.865877,0.461747,-0.060256,0.668376,0.741379
-0.475904,-0.628896,0.780639,0.752838,0.332991,-0.567761
0.193014,-0.259534,-0.333709,0.888675,-0.299110,-0.347548
-0.136954,0.565120,0.824361,-0.026408,-0.835945,0.548177
-0.768954,-0.275167,0.967224,0.648927,0.625265,0.433517
0.102576,-0.274121,-0.111056,-0.061525,-0.996135,-0.062688
-0.454162,-0.481131,0.357900,0.398681,0.916240,0.039473
-0.432421,-0.515832,0.864535,-0.034021,0.364592,0.930546
0.789396,-0.435378,0.417033,0.564352,0.501897,-0.655443
-0.479248,0.462860,0.852026,-0.525935,0.129102,-0.840670
0.583994,0.016529,0.916315,-0.676372,0.715447,0.175091
0.010655,-0.165688,0.585530,-0.631340,0.182394,0.753752
-0.060393,-0.104251,0.813566,-0.221116,0.901128,0.372929
-0.458683,-0.855173,0.580103,0.473016,-0.586517,-0.657460
0.537042,-0.033356,0.921307,0.682615,-0.245657,0.688251
0.080030,-0.189734,0.892906,0.607619,-0.013228,0.794119
0.305439,-0.220303,0.381686,0.886806,0.353345,-0.297862
0.292617,-0.649308,0.537343,0.953866,0.284892,0.094738
0.222435,-0.180573,-0.941905,0.906426,0.408918,0.105724
0.385654,0.049388,0.704517,-0.677645,-0.707803,-0.199532
-0.639371,-0.620831,0.820738,-0.150362,-0.981040,0.122275
0.398786,0.344319,0.772626,0.890648,0.157344,-0.426601
-0.131442,-0.113313,0.873661,0.578239,0.815551,0.022729
0.034191,0.126108,0.963330,-0.119230,-0.461489,0.879098
-0.660554,-0.693917,0.670899,0.471532,0.705733,-0.528771
-0.414024,-0.553221,0.761229,-0.694750,0.608556,-0.383384
0.900831,-0.433436,0.724153,0.167237,0.525651,0.834100
-0.246531,0.139600,0.904017,0.772193,0.150843,0.617223
-0.934774,0.425221,0.876578,0.940302,-0.126871,0.315809
-0.736992,-0.676491,0.753952,-0.105327,0.920663,0.375880
0.540883,-0.256896,-0.974967,-0.068026,0.206359,0.976109
0.193447,0.253062,0.919924,0.227014,0.921495,0.315138
0.285680,-0.151200,0.891417,0.788544,0.202403,0.580716
0.824393,-0.248332,0.744360,-0.667729,-0.530165,-0.522554
-0.397546,-0.546550,0.775407,0.740695,0.431146,0.515252
-0.496222,0.231256,0.888260,0.362964,0.896263,0.254892
-0.579287,0.306631,0.900483,-0.191744,0.951626,0.240088
-0.421147,-0.551329,0.909399,0.952445,-0.292350,-0.085910
0.197721,-0.197949,-0.387940,-0.366556,0.925309,-0.097163
0.447534,-0.082993,0.785872,0.954823,0.075055,-0.287541
0.289704,-0.171264,0.963901,0.088671,0.474460,0.875800
-0.525955,0.145027,0.947618,-0.457706,0.867665,0.194068
0.029362,-0.203724,-0.003150,-0.214780,0.975790,-0.041274
-0.690907,0.021109,0.806259,-0.151549,-0.682145,0.715340
0.186509,-0.227074,-0.225668,-0.248427,0.952572,-0.175759
0.120293,-0.275018,-0.972516,-0.317466,-0.123764,0.940159
-0.831393,-0.372648,0.937439,0.438784,0.801550,-0.406186
0.424058,0.415066,0.789645,-0.733391,-0.021855,0.679455
0.345454,-0.327890,0.889598,0.850284,-0.518451,0.090700
-0.470020,-0.476302,0.872383,0.283892,-0.507650,-0.813447
-0.410865,0.266156,0.878171,-0.385584,0.736382,0.555938
-0.060580,-0.307030,0.673154,0.276974,0.413730,0.867245
-0.978507,-0.698098,0.769228,-0.022242,0.859318,0.510959
0.059465,-0.108932,0.244371,-0.229549,-0.955346,0.186067
0.693571,-0.151050,0.713854,-0.206550,-0.527962,0.823768
-0.008672,0.058996,0.946761,0.350059,0.716451,-0.603455
0.122771,-0.165189,0.188050,0.932443,-0.325633,0.156568
-0.521556,-0.146172,0.648016,0.706723,0.384747,0.593728
0.548563,-0.007916,0.934718,-0.400415,0.836214,0.374718
0.005698,-0.246490,0.467716,0.933569,0.093447,0.346001
-0.242567,-0.157324,0.908978,0.940037,-0.186558,-0.285527
-0.924057,0.365927,0.871421,0.992937,-0.042329,0.110836
-0.718595,-0.837250,0.677965,-0.289035,0.844212,0.451404
0.276574,0.734990,0.800967,0.891142,0.425902,-0.156438
0.604806,0.029473,0.823564,0.545325,0.545849,-0.636136
0.118620,-0.066016,-0.989821,-0.152398,0.250023,0.956171
-0.439854,-0.768395,0.735008,-0.336140,0.152870,-0.929323
0.345019,0.231903,0.931185,-0.196236,0.382462,-0.902892
0.661669,-0.191327,0.680642,-0.514171,0.172161,0.840231
0.268211,-0.216668,0.946445,0.748895,-0.631788,-0.199999
0.068446,-0.391766,0.660284,0.763709,0.379680,0.522103
-0.612736,-0.510953,0.478195,-0.160522,0.986614,-0.028726
0.625991,-0.154187,-0.975418,0.013711,0.059523,0.998133
-0.594090,-0.574629,0.790758,0.191222,-0.981417,0.015953
0.546580,-0.577218,0.558963,0.114933,-0.764256,0.634589
-0.235009,-0.353281,0.230073,-0.706935,-0.476034,-0.523101
0.548748,-0.116101,0.560978,0.185448,0.849619,0.493717
0.104064,0.591358,0.888861,-0.032872,0.349847,0.936230
-0.343657,-0.775466,0.485352,0.001228,-0.902944,0.429756
0.237365,0.390173,0.857153,0.457422,-0.602895,0.653669
0.687624,-0.211540,0.682807,-0.459178,0.665910,0.587980
-0.397051,0.462810,0.838569,-0.088672,-0.934479,0.344798
0.482161,0.090760,0.866219,0.632709,0.762546,-0.134921
0.308536,-0.171662,0.928599,0.864825,-0.501801,-0.016555
0.473923,-0.361446,0.542741,-0.644477,-0.694768,-0.319290
0.180562,0.407150,0.889072,-0.701705,-0.627080,0.338204
-0.591179,-0.718162,0.631372,-0.189242,0.896777,0.399973
0.598614,-0.014338,0.886020,-0.641538,0.350509,0.682328
0.268459,-0.101165,0.390406,0.688029,0.689386,-0.226632
0.315846,-0.340635,0.679198,-0.432280,-0.072461,-0.898823
-0.737859,-0.487454,0.552664,0.603138,-0.787678,-0.125653
-0.089011,-0.269243,0.879976,-0.712175,-0.212872,0.668949
-0.347745,-0.470228,0.291882,-0.543078,-0.639778,-0.543829
-0.264680,-0.451807,0.536757,0.287571,-0.416014,0.862691
0.254956,0.436921,0.910422,0.552339,0.812139,-0.188024
0.719958,0.006024,0.954233,-0.447003,-0.150395,-0.881799
0.537289,-0.023648,0.959030,-0.298000,0.663282,0.686479
-0.018088,-0.105994,0.360005,0.686376,-0.714057,0.137880
-0.172324,-0.709300,0.471249,-0.704390,0.462075,-0.538815
-0.665511,-0.237031,0.862204,-0.676459,0.653424,-0.339765
0.007247,-0.406004,0.816663,-0.560587,-0.027852,0.827627
-0.440226,0.093150,0.914661,-0.056604,-0.455030,0.888675
-0.451375,0.465947,0.850567,0.688120,-0.149493,0.710030
-0.041749,0.315344,0.718816,0.140541,-0.831480,0.537484
-0.070429,0.322961,0.716756,0.139787,-0.843398,0.518786
-0.625061,0.356666,0.884065,0.213016,0.379338,0.900404
0.214074,-0.706313,0.557941,0.259284,-0.323400,0.910046
-0.810083,-0.501842,0.854717,-0.532102,-0.780565,0.328002
-0.187252,-0.798218,0.483578,-0.567238,0.136775,0.812117
-0.605922,-0.517176,0.436849,-0.066917,-0.995474,-0.067479
0.082198,-0.122225,0.666659,0.908190,0.405299,-0.104517
-0.437253,-0.176441,0.850763,0.689452,0.722423,0.052535
0.097064,-0.452056,0.716605,0.645545,-0.646377,-0.406778
0.270627,0.236035,0.909625,0.950920,0.250271,-0.181977
0.099603,-0.241661,0.670658,-0.055887,0.170613,0.983752
-0.337276,0.398537,0.865196,0.479929,0.490783,0.727187
0.317084,0.402668,0.903896,0.360291,0.398781,0.843305
-0.359142,-0.313900,0.664193,-0.414290,0.632861,0.654103
-0.035244,0.610823,0.879149,-0.641991,0.660995,0.388502
0.323154,0.723838,0.790923,0.777424,0.628809,0.014498
-0.217170,-0.263168,0.929155,0.785064,0.607766,0.119560
0.402007,0.059643,0.630741,0.850088,-0.525392,0.036233
0.466986,0.279648,0.834660,-0.714568,0.097598,-0.692724
-0.741948,-0.348551,0.895492,0.944467,0.286564,0.160819
-0.493000,-0.290999,0.962097,-0.222549,-0.958421,0.178609
-0.186199,-0.079807,0.873420,-0.589733,0.304531,-0.747981
0.186694,-0.229911,-0.869075,0.143532,0.982099,-0.121980
0.616886,0.292194,0.897867,0.269216,0.690870,0.670985
-0.776821,-0.213133,0.894018,-0.587500,-0.256022,-0.767656
-0.780785,0.284826,0.908512,0.242721,-0.926736,0.286787
-0.087153,0.620482,0.853334,-0.625897,0.778964,0.038301
-0.174492,0.082694,0.624666,0.981449,0.117138,0.151781
-0.774095,-0.820920,0.678943,-0.258240,0.854768,0.450205
-0.200136,0.113512,0.891357,-0.397500,0.252481,-0.882183
-0.721444,-0.234939,0.694278,-0.562045,0.763357,-0.318421
0.374195,-0.197202,0.968878,0.875617,0.056391,-0.479702
-0.476957,0.196654,0.868294,0.634291,-0.441249,0.634803
-0.506751,-0.178582,0.710622,0.044202,0.980410,0.191942
-0.119797,-0.082197,0.812438,0.084318,0.996095,-0.026186
-0.101710,-0.123021,-0.251302,0.469524,0.868926,-0.156570
-0.353815,-0.110674,0.668403,0.003041,0.988470,0.151385
-0.428580,-0.315742,0.808424,-0.521690,-0.443921,-0.728542
-0.580340,0.467938,0.860881,-0.415767,0.903701,0.102282
-0.206206,-0.003037,0.925126,0.160201,-0.152506,0.975232
0.065535,-0.251320,-0.102471,0.048613,0.957119,0.285588
-0.734391,-0.248631,0.708050,-0.538600,0.802105,-0.257948
0.710729,-0.257742,0.715042,-0.079030,0.224146,0.971346
-0.178518,0.280295,0.724168,0.604301,-0.730163,0.318877
-0.399714,0.485313,0.841155,-0.189505,-0.915896,0.353868
-0.256132,-0.730210,0.726498,-0.082409,-0.944383,-0.318355
-0.730674,-0.490939,0.796607,-0.618324,-0.780084,-0.095626
-0.765857,0.034750,0.849891,0.807788,0.044169,0.587816
-0.166934,0.464602,0.781466,0.023560,-0.861361,0.507446
-0.128778,0.118690,0.974861,0.645581,-0.490762,0.585131
-0.193199,-0.729911,0.713568,0.067390,-0.995884,0.060602
0.610506,-0.061486,0.513994,0.119360,-0.990045,-0.074595
-0.416935,-0.319875,0.905716,-0.046267,-0.985031,0.166054
0.188863,0.400130,0.890019,-0.097916,0.766595,-0.634621
0.032333,-0.212934,0.087000,-0.642689,-0.758676,-0.106588
0.248947,-0.100767,0.896108,-0.111426,-0.512075,0.851683
0.049369,-0.137559,-0.247348,0.425904,0.847314,0.317276
0.076624,0.384497,0.751532,-0.557868,0.827556,0.062723
-0.499813,0.104003,0.925862,0.962532,-0.217166,0.162394
0.129831,-0.247735,-0.175135,-0.421762,0.904039,0.069499
-0.553270,-0.523947,0.888591,0.951284,0.222464,0.213467
-0.208560,-0.681370,0.458845,-0.150052,0.757229,0.635680
-0.050607,-0.283033,0.894424,0.891058,0.422976,0.164644
0.065660,0.747436,0.854732,-0.717356,0.453689,0.528741
-0.779300,-0.483272,0.778956,0.358799,0.929710,-0.083084
-0.205154,-0.298466,0.949693,-0.558603,-0.822887,0.104018
-0.238416,-0.091756,0.546259,-0.168149,0.982156,-0.084231
-0.477577,-0.566016,0.844358,0.229189,-0.942610,0.242813
-0.144264,-0.020910,0.892019,0.498983,0.630726,-0.594307
-0.166006,0.091258,0.760132,0.640290,-0.391354,0.660962
-0.483647,0.159166,0.866023,0.408038,-0.843519,0.349256
0.074456,-0.261177,-0.086865,0.019799,-0.986892,0.160165
-0.371841,-0.733496,0.730588,-0.349867,0.843211,-0.408152
-0.090064,-0.342378,0.717553,0.838636,0.522015,0.155532
-0.275272,-0.212138,0.802545,0.851334,0.504759,0.142998
-0.310889,0.449268,0.824451,-0.340276,-0.858870,-0.382826
-0.549058,-0.346609,0.653113,0.966886,-0.240696,0.084835
0.109886,-0.164493,0.215384,-0.468422,0.879451,-0.084531
0.116328,0.216170,0.879645,0.554438,-0.827434,0.089176
0.065535,0.670069,0.893297,0.551984,-0.091194,-0.828853
0.529051,0.016878,0.943468,-0.092907,0.976143,0.196248
0.105612,-0.552176,0.662419,0.847050,0.388229,-0.363020
0.342603,-0.254506,0.826752,0.940037,0.340752,0.014769
0.189730,-0.395549,0.436564,0.999706,-0.010796,0.021706
-0.731480,0.031615,0.809687,0.981250,0.175117,-0.080514
0.431183,0.072041,0.949347,0.954544,0.022782,-0.297199
0.360072,-0.189236,0.781993,0.565315,0.812792,0.140673
-0.647919,0.092253,0.984003,0.396155,-0.807236,0.437529
0.422387,0.114707,0.817941,0.988159,-0.143996,0.052978
-0.370601,-0.660012,0.933816,-0.331476,-0.815553,-0.474338
-0.725718,0.403067,0.907099,-0.465070,-0.853164,-0.236265
-0.585109,0.073185,0.927892,0.889025,-0.175309,-0.422968
0.210791,-0.249129,-0.273043,0.896266,-0.439401,0.060278
0.345515,0.262522,0.746841,0.926369,-0.185706,0.327649
-0.412166,-0.679229,0.964833,0.341759,0.880873,0.327512
-0.205896,-0.089615,0.881088,-0.633806,0.706699,-0.314431
-0.215437,0.114209,0.855333,0.717828,0.593278,-0.364341
0.266105,-0.131435,0.826722,0.671878,0.732575,-0.109153
-0.086285,-0.110674,0.526187,-0.583090,-0.789174,0.192900
-0.414520,0.305835,0.865377,-0.493840,0.801551,-0.337103
0.137079,-0.067858,0.690775,0.753338,-0.056850,-0.655171
-0.444808,-0.618441,0.780504,0.695966,-0.402296,-0.594802
-0.544722,0.069253,0.966261,-0.348181,-0.191726,0.917612
-0.348613,-0.016678,0.925802,-0.577559,-0.581763,-0.572694
-0.261521,-0.195161,0.738316,0.931468,0.041521,0.361447
-0.114780,-0.514338,0.787601,0.363919,0.589065,0.721503
0.148105,-0.547047,0.555716,0.609009,0.786742,0.100720
-0.937810,-0.207110,0.930403,0.099832,0.908397,0.406017
0.495974,-0.694016,0.459522,-0.393259,-0.635745,0.664210
0.504397,-0.609628,0.533825,0.153185,0.982282,-0.107961
0.333870,0.278950,0.843456,0.348074,-0.602514,-0.718207
-0.035244,-0.122523,0.404915,0.973323,-0.229438,0.001095
-0.145937,0.081400,0.588522,0.947003,0.319878,0.029368
-0.760530,-0.395449,0.851590,0.800304,0.515542,-0.306153
-0.305748,-0.504730,0.483924,0.340025,-0.939746,-0.035506
0.167617,0.017226,-0.989340,0.125709,-0.142963,-0.981712
0.755018,-0.355173,0.113176,0.220606,0.385231,0.896064
0.826066,-0.078313,0.977538,-0.116969,0.737519,0.665119
0.318322,-0.079508,0.457507,0.999235,-0.023130,-0.031519
-0.035741,-0.178582,0.868639,-0.564894,-0.823252,-0.056132
-0.410803,0.120283,0.857273,0.310631,0.822442,0.476548
-0.054571,-0.041970,0.425498,0.931551,-0.200028,0.303646
0.015857,-0.124763,0.207791,0.912208,-0.332379,0.239585
-0.328543,-0.307876,0.872759,-0.176905,0.914734,0.363273
-0.053951,-0.113611,-0.352458,0.972691,-0.136296,0.187869
0.396866,-0.042318,0.703766,0.817627,0.528506,0.228402
-0.808598,-0.621328,0.665456,0.760267,-0.258184,0.596100
0.394760,-0.363039,0.874307,0.908425,-0.219907,-0.355535
-0.241514,-0.429105,0.502206,-0.788760,0.561510,0.250128
0.145317,-0.231753,-0.157710,-0.535641,0.842845,-0.051971
-0.070677,-0.232301,0.668539,0.832002,0.374784,-0.409034
-0.790263,-0.347854,0.616292,-0.498708,0.789699,-0.357304
-0.530229,0.251469,0.875841,0.204220,0.147033,0.967820
0.165201,0.258787,0.912842,-0.166225,-0.829843,-0.532663
0.056182,-0.170367,0.722424,-0.683784,0.724935,0.083115
-0.380885,0.226626,0.858205,0.911397,-0.214953,0.350928
0.125186,-0.255850,-0.540140,-0.450160,0.873278,-0.186392
0.409315,-0.243851,0.749126,0.421352,-0.349184,-0.836979
-0.417616,0.070547,0.948671,0.967714,0.247118,0.049613
-0.043792,-0.242457,0.136179,-0.715864,0.580866,-0.387472
-0.634105,-0.545454,0.686821,0.763006,0.045744,0.644770
0.479868,-0.028925,-0.984033,-0.113373,0.083781,0.990014
-0.180997,-0.372100,0.879825,-0.290919,-0.373778,-0.880713
0.307668,-0.177138,0.506386,0.564498,-0.316421,-0.762378
-0.588826,-0.579807,0.799959,-0.471739,0.846392,0.247151
0.091799,-0.403913,-0.973809,-0.093508,0.011823,0.995548
-0.273848,-0.266255,0.755290,0.814844,0.297742,0.497373
0.381938,-0.276312,0.126316,0.145863,0.720511,0.677929
-0.385654,-0.454197,0.295009,-0.777364,-0.194567,-0.598204
0.421024,0.326745,0.948265,-0.526106,-0.178593,0.831455
-0.546520,0.441004,0.864144,0.820927,0.312062,0.478222
-0.073278,-0.065070,0.523255,-0.329263,0.934199,-0.137328
-0.348860,0.383501,0.843831,0.872785,-0.375762,-0.311526
-0.418173,-0.393458,0.771889,0.297123,-0.149260,0.943101
-0.340188,-0.523101,0.782128,-0.425556,-0.492769,0.759000
-0.843100,0.131286,0.834089,0.960802,0.250341,0.119113
-0.353445,-0.241561,0.776851,-0.577133,-0.313556,-0.754056
-0.889680,0.285025,0.859754,-0.738770,-0.629570,0.240541
0.042431,0.543214,0.911850,0.384253,0.875257,0.293724
0.320428,0.798865,0.797900,0.757989,-0.004736,-0.652250
-0.232223,0.154735,0.620502,-0.722447,0.363568,-0.588124
0.412661,-0.403913,0.785210,-0.592296,0.008972,-0.805670
-0.257867,-0.637857,0.882005,-0.497540,-0.861527,-0.101119
-0.820182,0.361147,0.894996,0.533562,0.618152,-0.577235
-0.747771,-0.462561,0.869571,-0.672300,0.738928,-0.044696
-0.282459,-0.005626,0.901912,0.812645,-0.135165,0.566867
-0.472808,-0.121478,0.638168,0.822052,0.103833,0.559866
0.564669,-0.074032,-0.978109,-0.184498,0.093906,0.978336
-0.540758,-0.748631,0.514370,-0.092668,0.333803,0.938077
-0.082941,0.005078,0.483142,0.792363,0.538327,0.286993
0.140300,0.026636,0.869707,0.889103,0.002137,-0.457702
-0.490709,-0.412427,0.890049,0.203236,-0.257243,0.944733
0.301413,0.331524,0.917338,0.940455,-0.304828,-0.150414
0.012823,-0.118441,0.264022,0.742863,0.668690,-0.031748
0.094401,0.033356,-0.994347,0.036409,-0.083330,-0.995857
0.752850,-0.556457,0.569202,-0.136955,-0.793298,0.593230
0.162413,-0.218062,-0.054825,0.695598,-0.688651,0.204702
-0.329596,-0.495320,0.824316,0.986853,-0.144274,-0.072842
0.737240,-0.025789,0.806966,-0.313838,0.927971,-0.200938
0.356789,0.016429,0.726153,0.954452,0.298359,-0.001638
-0.271185,-0.494075,0.493561,0.849635,-0.499286,-0.169803
-0.246593,-0.723987,0.465085,-0.411896,0.477422,0.776151
-0.766353,0.316389,0.886215,0.356397,0.517312,0.778055
0.623018,-0.133775,0.974741,-0.680187,0.670263,0.296805
-0.643087,-0.063278,0.923547,-0.476716,0.007443,-0.879026
0.169228,0.834263,0.740631,-0.255832,0.080199,0.963389
0.373514,-0.283979,0.532261,0.113756,0.533234,0.838285
0.063925,0.747884,0.840298,-0.156249,-0.295051,0.942619
-0.373947,0.324505,0.843125,0.862772,0.375705,0.338334
0.550854,0.264911,0.917202,-0.261476,0.807647,0.528524
0.349294,0.355023,0.770115,0.906358,0.078780,-0.415102
-0.612487,-0.449218,0.583711,0.265511,0.963797,-0.024490
0.344772,0.259982,0.750509,-0.010423,-0.868010,0.496437
0.515239,-0.465548,0.819806,0.581500,0.352317,-0.733302
-0.645193,-0.669720,0.747713,-0.409372,-0.483887,-0.773478
-0.649034,-0.520612,0.453779,-0.106517,-0.994275,-0.008442
-0.545280,-0.529871,0.882020,-0.493184,-0.487657,-0.720389
-0.023538,-0.537837,0.826210,-0.712693,0.532968,-0.456086
0.093658,-0.122673,0.895898,0.004474,0.044647,0.998993
0.238973,0.076073,-0.992347,0.198414,-0.179534,-0.963535
-0.606974,-0.636414,0.704277,0.068392,0.997015,-0.035824
0.767035,-0.088021,0.977057,-0.059761,-0.948748,-0.310333
0.361063,-0.586628,0.442502,-0.378897,-0.461485,-0.802165
0.594895,0.036991,0.918089,-0.471452,0.719594,0.509821
0.549306,0.332271,0.826015,-0.499970,0.860551,0.097377
0.130574,-0.257443,-0.206844,-0.268618,0.959329,-0.086791
0.005388,0.658020,0.845606,-0.494722,0.832439,0.249592
0.201995,-0.250722,-0.421258,0.884172,-0.459522,-0.084142
-0.759540,0.377527,0.917262,0.559266,0.603898,0.567916
0.245231,-0.351090,0.464875,0.936665,0.195604,0.290514
-0.361683,0.328836,0.851665,0.933406,-0.245695,-0.261509
-0.429323,-0.781191,0.509002,-0.126144,-0.989730,0.067247
-0.263752,-0.504381,0.520188,-0.379837,-0.924926,-0.015375
0.223055,0.736085,0.737609,-0.192921,0.981189,0.007062
-0.150581,0.557702,0.836119,-0.023887,-0.881064,0.472393
-0.704040,-0.189137,0.740286,0.071255,0.978382,0.194141
-0.116266,0.007070,0.447374,0.345227,-0.867522,0.358084
-0.150954,-0.130936,0.606158,0.904875,-0.389238,0.172320
0.509911,-0.466345,0.591484,0.868925,-0.483110,0.107585
-0.811881,-0.379866,0.854987,0.998559,0.052772,0.009795
0.122708,-0.250324,-0.172669,-0.405493,0.908914,0.097218
-0.471693,-0.478443,0.397969,-0.609321,0.629877,-0.481646
-0.022485,-0.064970,0.314510,0.425902,0.885742,-0.184578
-0.362921,-0.063527,0.953046,0.663048,0.619456,0.420289
-0.082074,-0.105546,0.605858,-0.277295,0.935023,-0.220997
0.144264,-0.002689,-0.991851,-0.155362,0.129144,0.979380
-0.097436,-0.074828,0.903084,0.811239,-0.098881,-0.576293
-0.081206,-0.583939,0.515136,-0.630655,-0.776010,-0.009153
0.286050,0.780644,0.793479,0.233512,0.807206,0.542117
-0.762636,-0.273723,0.932718,-0.286461,-0.807080,0.516296
0.393645,-0.137160,-0.041835,-0.662148,0.723771,0.194205
-0.700879,-0.483023,0.840058,-0.519818,-0.850303,0.082306
-0.194127,0.419297,0.763319,-0.090548,0.832913,-0.545946
-0.406529,0.107886,0.891162,-0.301897,0.947693,-0.103617
-0.833932,-0.209101,0.913308,-0.503483,-0.851606,-0.145850
-0.424988,-0.766255,0.667441,-0.342959,0.594683,0.727139
-0.188305,-0.447127,0.824767,0.697611,0.149963,-0.700606
0.323649,-0.228915,0.605692,0.815371,0.346201,0.464020
-0.382371,-0.368416,0.901837,-0.376325,0.735437,0.563482
-0.454907,0.282834,0.869737,-0.494292,-0.570317,-0.656059
-0.134415,0.042766,0.508145,0.415190,-0.714035,0.563711
0.128408,0.044559,0.845967,-0.726868,0.487436,0.483807
0.022857,-0.056457,0.621299,-0.433388,0.895760,0.098938
0.217790,-0.672906,0.445404,0.216576,-0.954942,-0.202928
0.021061,-0.191277,-0.084880,0.576510,-0.803654,0.147565
-0.088826,-0.474709,0.404178,0.234245,0.344505,0.909091
-0.423500,0.121129,0.867000,0.501707,0.714907,0.487030
0.267158,-0.046749,0.851409,0.076275,0.188141,-0.979176
-0.286856,-0.449766,0.273795,0.426663,0.698542,0.574455
0.184774,-0.192821,-0.599318,0.967840,-0.233862,0.092705
-0.387575,-0.189585,0.788864,0.651858,0.066840,0.755389
0.141788,-0.241312,0.139111,0.887569,0.447279,0.110287
0.599232,0.403167,0.903866,0.104500,-0.992692,0.060348
0.243497,-0.442298,0.581260,0.957923,-0.266807,0.105818
0.057855,-0.465847,0.718680,0.018520,-0.566363,0.823948
-0.445366,-0.705416,0.529344,0.068185,-0.442370,0.894237
-0.450075,-0.508812,0.773408,0.611141,-0.168993,0.773271
-0.231293,-0.262422,0.804786,0.933517,0.272791,0.232662
-0.058598,-0.075923,0.483022,0.821604,0.558284,0.115268
-0.711905,-0.748532,0.631222,-0.461507,0.691747,0.555425
0.435332,-0.571791,0.565804,-0.186268,0.803326,-0.565660
0.294784,-0.284427,-0.971253,0.030693,0.037563,0.998823
0.184466,-0.207358,-0.160055,0.962233,-0.270741,-0.028401
-0.781158,0.359205,0.915834,0.857800,-0.276749,-0.433115
-0.781033,-0.535000,0.558317,0.886179,-0.429529,0.173758
0.431306,-0.148212,0.959015,-0.855321,0.409371,0.317554
-0.254584,-0.249029,0.891959,0.082914,-0.978477,0.188967
-0.420527,0.368317,0.854551,0.524718,0.848902,0.063536
-0.552960,-0.780842,0.659969,0.019777,0.829361,0.558363
0.032768,-0.438216,0.503169,0.177354,0.531201,0.828476
-0.722311,-0.769142,0.647038,0.571134,-0.682692,-0.455782
-0.258920,0.144579,0.787285,-0.673135,0.544096,-0.500847
-0.091242,-0.355472,0.486239,0.027602,0.567795,0.822707
-0.237735,-0.386737,0.239710,-0.581382,-0.626056,-0.519663
0.023352,-0.124166,0.290183,0.831237,0.246283,0.498388
-0.123823,-0.030718,0.893537,-0.751968,-0.656745,-0.056831
0.098179,-0.176341,-0.490254,-0.285390,0.869005,-0.404206
0.307731,-0.475207,0.697857,0.248352,-0.437064,0.864463
-0.386769,-0.559046,0.880667,0.755845,0.627097,-0.188274
-0.015052,0.346111,0.616668,0.959087,0.129731,-0.251638
-0.724107,-0.422633,0.871015,-0.404245,0.653720,0.639716
-0.119797,0.187196,0.921517,0.912724,-0.386206,0.133343
0.407707,-0.003336,0.878713,-0.603774,-0.739317,0.298106
0.390423,-0.074330,0.739368,0.930648,-0.126657,-0.343298
