-0.180832,-0.119798,0.607754,-0.023273,0.635844,0.771467
-0.175691,-0.117907,0.569765,-0.595478,-0.609490,-0.523381
-0.167383,-0.112777,0.531969,0.176303,-0.144129,0.973727
-0.176283,-0.125273,0.499873,0.583822,0.767788,0.263917
-0.180832,-0.133486,0.465792,0.186131,-0.961944,0.200049
-0.216620,-0.172344,0.445581,-0.296638,0.953506,0.053208
-0.182015,-0.141364,0.393755,0.747292,0.661585,0.062131
-0.233624,-0.196658,0.382256,0.998250,-0.022052,0.054872
-0.085132,-0.052520,0.275144,0.925378,-0.095391,-0.366846
-0.082561,-0.053544,0.237444,0.944851,-0.327001,0.018072
-0.063578,-0.135889,-0.063456,0.643342,0.765533,-0.008451
-0.100947,0.110112,0.954681,-0.293816,0.949280,-0.111978
-0.014738,0.192801,0.886423,-0.496527,-0.044433,0.866883
-0.051124,0.153421,0.870056,0.692801,-0.090274,-0.715456
-0.081771,0.119526,0.850196,0.950339,0.135789,0.280032
-0.050134,0.147779,0.804424,0.898922,-0.191910,0.393839
-0.226305,-0.031456,0.847410,0.850062,0.239335,0.469163
-0.389629,-0.198027,0.885366,-0.693990,0.651309,-0.306880
0.146402,0.332488,0.616114,-0.397264,0.745617,0.535011
-0.351663,-0.167047,0.802246,0.519274,-0.785620,-0.336387
0.038844,0.218473,0.596094,0.866927,-0.477710,0.142235
0.045566,0.221556,0.557785,0.383195,-0.721575,-0.576620
-0.167581,0.005177,0.619413,0.395553,0.656234,0.642569
-0.160461,0.008771,0.580751,0.874866,0.270500,-0.401795
-0.194867,-0.029230,0.560925,0.796691,-0.604371,-0.004372
-0.204751,-0.042761,0.529470,-0.342941,0.597023,-0.725228
-0.182214,-0.024100,0.484659,-0.218945,-0.041574,0.974851
-0.207720,-0.052687,0.461468,0.617011,-0.441173,0.651663
-0.286809,-0.135033,0.461276,-0.220636,-0.120368,0.967900
-0.614640,-0.465081,0.578221,-0.536202,-0.805918,-0.250967
-0.100947,0.041298,0.302787,0.883423,-0.039513,0.466907
-0.104906,0.033419,0.266944,0.906922,0.418111,0.051734
-0.136144,-0.001155,0.243690,0.958042,0.154464,0.241447
0.026782,0.284728,0.828672,0.117351,-0.822111,0.557102
-0.043611,0.211285,0.825565,-0.634558,0.772494,-0.024270
0.155501,0.404729,0.706217,0.978132,0.033641,-0.205247
-0.335848,-0.086416,0.886647,0.990175,0.112869,-0.082552
0.163605,0.404384,0.637222,-0.148188,-0.669978,0.727440
-0.105099,0.130486,0.686806,0.966413,-0.090464,0.240545
-0.113208,0.118502,0.655800,-0.472633,0.456483,-0.753818
-0.118941,0.108230,0.623769,-0.509484,0.855254,-0.094690
-0.165011,0.058590,0.609291,0.655907,0.424027,0.624490
0.005626,0.223437,0.499393,-0.022125,0.950698,0.309328
-0.056065,0.154278,0.456856,0.997901,-0.011955,0.063652
-0.088885,0.117812,0.437060,0.902012,0.371707,-0.219564
-0.220771,-0.021530,0.424376,0.957915,0.028595,0.285624
-0.119339,0.074503,0.340904,0.943425,0.178526,0.279423
-0.119930,0.069717,0.305605,0.947057,-0.025553,0.320046
-0.300651,-0.112944,0.353716,-0.418210,-0.863506,-0.281883
-0.124082,0.208202,0.808908,-0.488074,0.159793,-0.858050
-0.402874,-0.070837,0.895712,0.745428,-0.588482,0.313090
-0.039653,0.282847,0.705000,-0.126495,-0.934122,0.333790
-0.076431,0.242275,0.686710,0.797146,-0.580005,0.167788
-0.137332,0.178414,0.680272,0.816168,0.000953,0.577813
-0.175884,0.135617,0.664320,-0.055161,0.961144,-0.270480
-0.177073,0.129974,0.630304,0.570318,-0.807725,0.149391
-0.185375,0.117477,0.600515,-0.628264,-0.355478,-0.692040
-0.021267,0.274624,0.492154,0.870928,0.314419,0.377657
-0.431940,-0.133831,0.640522,-0.635764,0.151820,-0.756806
-0.132783,0.155824,0.470693,-0.754765,0.346432,-0.557059
-0.102727,0.180984,0.422422,0.772075,0.581821,-0.255702
-0.123882,0.155134,0.397342,0.767007,0.635405,0.089223
-0.187554,0.088034,0.389783,-0.070001,-0.997517,-0.007710
-0.175691,0.095222,0.349232,0.990231,0.086990,0.108970
-0.026209,0.340366,0.883156,0.969409,0.064432,0.236844
-0.026607,0.335393,0.850485,0.938279,-0.296670,0.177817
-0.048753,0.309031,0.826942,0.101058,-0.778879,0.618979
0.010569,0.354054,0.848210,0.958650,0.097520,-0.267358
-0.049543,0.290715,0.841996,0.927828,0.253408,-0.273714
-0.030360,0.305437,0.800484,0.116476,0.409471,0.904858
-0.281077,-0.066730,0.455735,-0.698356,0.275736,-0.660506
-0.113009,0.088546,0.345420,0.969721,0.108175,0.218949
-0.126851,0.068338,0.314958,0.975347,-0.182201,-0.124506
-0.301242,-0.105589,0.357912,0.393380,0.898740,-0.193699
-0.041233,0.310744,0.790747,0.955849,0.262230,-0.132624
0.143041,0.486384,0.679920,0.776096,-0.510559,0.370142
-0.346130,0.003296,0.858076,-0.764901,0.553520,-0.329457
-0.055667,0.282502,0.699394,-0.500251,0.863893,-0.058637
-0.117758,0.216425,0.693917,0.844488,-0.352029,0.403627
-0.130411,0.198955,0.665345,0.792961,0.155527,-0.589088
-0.198428,0.127571,0.660765,-0.213344,-0.959798,0.182407
-0.160268,0.159585,0.609227,-0.480146,0.873768,-0.077388
-0.015528,0.296200,0.511693,-0.964280,0.263041,-0.031185
-0.059626,0.248095,0.497407,-0.695433,0.703061,0.148586
-0.056265,0.246381,0.460315,0.960537,-0.089678,0.263301
-0.158090,0.141781,0.471654,-0.647753,0.510808,-0.565235
-0.114989,0.178246,0.416561,0.740818,0.558573,-0.373076
-0.147416,0.141102,0.395100,-0.042345,-0.479417,0.876565
-0.718046,-0.420058,0.618452,0.549349,0.345448,0.760843
-0.151168,0.132367,0.360410,0.959007,-0.280394,-0.041042
-0.146227,0.132200,0.322774,0.965683,-0.168374,0.197753
-0.532184,-0.249036,0.464639,-0.437936,-0.862389,-0.253963
0.019463,0.318968,0.859581,0.900168,-0.418308,0.121307
-0.010985,0.283526,0.841292,-0.260143,0.914643,-0.309442
-0.064567,0.226006,0.830946,-0.664230,0.710302,-0.232956
-0.108068,0.178414,0.817781,0.918206,0.125594,-0.375664
-0.352851,-0.063648,0.888922,0.823080,0.556830,-0.111710
0.157082,0.422534,0.638247,-0.694893,-0.659709,0.286196
0.021243,0.284895,0.662783,-0.238184,0.583588,0.776333
-0.090074,0.171915,0.678062,-0.213502,0.584807,-0.782571
-0.106487,0.150171,0.652597,0.899840,0.376718,-0.219935
-0.143856,0.108063,0.634724,-0.781160,-0.503357,-0.369351
-0.131594,0.114218,0.596287,-0.630211,-0.399615,-0.665689
-0.020476,0.215057,0.512942,0.348642,-0.827130,-0.440801
-0.347711,-0.105923,0.622232,0.823673,0.538225,0.178539
-0.068918,0.155312,0.464447,-0.754422,-0.237094,-0.612073
-0.085331,0.133736,0.437701,0.961447,0.170314,-0.215899
-0.023047,0.205810,0.518227,-0.382583,0.908838,-0.166265
-0.373416,-0.134520,0.638439,-0.597101,0.326263,-0.732818
-0.056856,0.159752,0.464992,-0.754422,-0.237094,-0.612073
-0.074850,0.135961,0.439143,0.971917,0.124401,-0.199752
-0.280485,-0.073919,0.460027,0.817285,-0.276905,0.505340
-0.106487,0.084773,0.346221,0.969721,0.108175,0.218949
-0.130013,0.054985,0.321877,0.973257,-0.114145,0.199351
-0.386262,-0.195634,0.403236,-0.789667,0.372974,-0.487152
-0.005252,0.295511,0.873163,0.988663,-0.132744,-0.070169
-0.052705,0.243299,0.860831,-0.389062,0.763455,0.515527
-0.045784,0.243466,0.825372,-0.216148,-0.547117,0.808667
-0.089675,0.194849,0.811182,-0.749335,0.562607,-0.349243
-0.366887,-0.076479,0.896865,-0.764141,0.564094,-0.312868
0.105871,0.369298,0.664769,-0.560632,0.804603,0.195721
0.016501,0.276505,0.669478,-0.716584,0.396767,0.573657
-0.071289,0.186292,0.674666,-0.071904,0.565986,-0.821273
-0.142866,0.111658,0.671591,-0.676758,0.374433,0.633876
-0.143457,0.104292,0.637991,-0.781160,-0.503357,-0.369351
-0.153938,0.087511,0.608298,0.367220,0.196300,0.909184
0.061182,0.320158,0.694590,-0.222448,0.974635,-0.024566
-0.513008,-0.230208,0.904200,0.529449,-0.023185,0.848025
-0.051516,0.198277,0.675820,-0.002446,-0.336768,0.941585
-0.111030,0.134937,0.667555,-0.831516,0.536645,0.143507
-0.075049,0.161811,0.619797,-0.211062,0.968866,-0.129432
-0.085132,0.145031,0.591546,0.680921,0.557350,0.475087
-0.094225,0.128940,0.561277,-0.409770,0.251472,0.876841
-0.173911,0.046605,0.562878,0.980206,-0.020724,-0.196893
-0.002875,0.200335,0.453685,0.992718,-0.013671,0.119684
-0.119731,0.081869,0.470437,-0.075087,0.486076,0.870685
-0.216814,-0.017424,0.478413,0.994131,0.003014,-0.108143
-0.190915,-0.000309,0.433217,0.920761,-0.184980,-0.343486
-0.088294,0.081012,0.317681,0.996937,0.001298,-0.078192
-0.385671,-0.207096,0.416561,0.906916,-0.323195,0.270274
-0.119140,0.035645,0.260250,0.937766,0.347210,-0.006363
0.007998,0.298426,0.843598,0.742704,0.652442,0.150698
-0.113208,0.176188,0.863201,0.962918,-0.229708,0.141503
-0.049543,0.229601,0.805769,0.785206,-0.481374,0.389527
0.129398,0.392065,0.697697,0.852153,-0.229939,-0.470066
-0.027398,0.308007,0.874219,0.970521,-0.179804,-0.160497
-0.055275,0.274112,0.853752,0.968645,-0.229621,0.094876
-0.018697,0.300818,0.807979,-0.457307,0.888301,0.042325
-0.106088,0.210773,0.812015,-0.749335,0.562607,-0.349243
-0.407617,-0.080763,0.905354,-0.448955,0.494942,-0.743957
-0.553340,-0.225245,0.934310,0.203956,-0.747684,0.631958
0.040226,0.332833,0.685045,-0.365553,0.928229,0.069007
0.001475,0.289001,0.669509,-0.427373,0.643275,0.635256
-0.099765,0.185435,0.680560,0.226690,-0.639449,0.734654
-0.107476,0.170546,0.650387,-0.712356,0.685880,-0.148720
-0.164618,0.109432,0.642924,0.962640,0.026724,-0.269463
-0.147808,0.117133,0.602084,0.649367,0.400130,0.646698
0.018872,0.265377,0.496254,0.019835,-0.988712,0.148511
-0.409795,-0.144269,0.647664,0.406247,0.852014,0.330205
-0.046182,0.188517,0.456663,0.992172,-0.068878,0.104170
-0.082760,0.145720,0.438951,0.961447,0.170314,-0.215899
-0.079991,0.140068,0.402467,0.437774,0.866830,-0.238661
-0.187554,0.031360,0.416240,0.495027,-0.458308,-0.738175
-0.113009,0.092652,0.347662,0.969721,0.108175,0.218949
-0.101345,0.095222,0.307047,0.985229,-0.062272,0.159518
-0.393183,-0.186387,0.402083,-0.789667,0.372974,-0.487152
-0.174104,0.281990,0.745871,0.002214,-0.221702,0.975112
-0.028979,0.380593,0.872650,0.999088,-0.042538,-0.003609
-0.033522,0.368264,0.842637,0.977915,-0.147500,0.148075
0.018479,0.408491,0.789401,0.867618,0.160796,-0.470514
-0.084341,0.304068,0.799523,-0.662853,-0.689178,-0.292677
-0.111627,0.255106,0.715858,0.203570,-0.978984,-0.012264
-0.139106,0.220876,0.695999,0.877653,-0.208942,0.431356
-0.185375,0.169511,0.682354,0.388654,-0.861190,0.327567
-0.219191,0.129974,0.663392,0.012186,-0.991718,0.127858
-0.062788,0.267436,0.563167,0.541532,0.820733,-0.182045
-0.012566,0.306126,0.508906,-0.694737,0.343550,-0.631913
-0.088294,0.227375,0.508778,0.181052,0.842524,0.507320
-0.164420,0.139044,0.474345,-0.592751,0.641216,-0.487327
-0.115779,0.175854,0.418322,-0.482004,-0.790229,0.378432
-0.151959,0.133569,0.398976,-0.126904,0.819196,-0.559297
-0.721805,-0.404991,0.615281,0.549349,0.345448,0.760843
-0.158289,0.118846,0.366656,0.742493,0.659083,-0.119640
-0.168372,0.101209,0.336996,0.989467,0.143072,0.022038
-0.528232,-0.242537,0.462749,0.589047,0.793690,0.151920
-0.086713,0.412607,0.898115,0.144406,0.120659,0.982135
-0.012168,0.474066,0.836167,0.936391,-0.072308,0.343430
-0.137133,0.349603,0.856763,0.191635,0.959757,0.205288
-0.044993,0.427330,0.788504,0.805021,-0.586743,0.087602
-0.079201,0.387092,0.770375,-0.282994,0.500006,0.818479
-0.374599,0.103612,0.861407,-0.442046,-0.583848,-0.680968
-0.248450,0.203929,0.744366,-0.143131,-0.953845,0.263995
-0.241137,0.202215,0.708555,0.871821,-0.127936,0.472822
-0.152749,0.276170,0.639464,-0.418721,0.647439,-0.636785
0.022233,0.431091,0.533602,-0.693856,0.701357,0.163286
-0.464567,-0.030432,0.707242,-0.145394,-0.925873,0.348741
-0.119532,0.281990,0.527644,0.508457,-0.738921,0.442117
-0.566983,-0.142221,0.686037,0.760619,-0.642286,-0.094485
-0.192496,0.196730,0.490360,0.877320,-0.138633,0.459446
-0.118150,0.256141,0.423704,0.972711,0.108506,0.205084
-0.147216,0.220532,0.402948,-0.201388,0.748598,-0.631699
-0.230855,0.134592,0.405894,0.989360,0.058586,-0.133173
-0.704602,-0.321622,0.546318,-0.448214,-0.796599,-0.405628
-0.615231,-0.248525,0.472198,-0.518200,-0.786143,-0.336821
-0.122899,0.530206,0.858524,-0.057606,0.970877,-0.232552
-0.129422,0.515829,0.829440,-0.381068,0.450373,-0.807435
-0.307373,0.341557,0.871657,-0.374200,0.637848,0.673145
-0.321414,0.319991,0.845776,-0.389348,0.459429,-0.798331
-0.337030,0.297224,0.820183,-0.329960,0.943946,-0.009637
-0.272375,0.349268,0.761535,-0.771553,0.545547,-0.327237
0.029944,0.606052,0.538759,0.561660,0.475186,-0.677301
-0.552356,0.047284,0.719478,-0.582444,-0.666749,-0.464978
-0.529022,0.060638,0.676364,0.828256,-0.478854,0.291016
-0.150975,0.403527,0.480687,0.009416,0.855403,0.517877
-0.175094,0.364157,0.424889,0.016377,-0.940684,0.338889
-0.216023,0.316742,0.408008,0.941761,0.038322,-0.334093
-0.344941,0.188685,0.430622,0.750265,-0.518916,0.409668
-0.363327,0.491013,0.873131,0.543335,0.675953,-0.497869
-0.368275,0.470127,0.811503,-0.268187,0.421426,0.866300
-0.571140,0.264865,0.834181,0.226655,-0.317000,0.920945
-0.328329,0.418250,0.435651,-0.644204,-0.724630,0.244771
-0.668024,-0.211213,-0.965832,0.937509,-0.180977,-0.297194
-0.606138,-0.122536,-0.973296,0.120223,0.448817,0.885500
-0.541875,-0.031801,-0.978581,-0.181551,-0.035325,0.982747
-0.476822,0.056186,-0.975858,0.541190,-0.285168,-0.791071
-0.412166,0.147601,-0.979798,0.141853,0.129280,0.981409
-0.349491,0.233028,-0.978645,-0.255971,0.906393,-0.336052
-0.286417,0.318790,-0.978325,-0.096196,-0.745647,-0.659361
-0.222154,0.411238,-0.984571,0.758114,-0.050378,-0.650173
-0.678305,-0.474840,-0.971726,-0.429487,0.076628,-0.899816
-0.612860,-0.385484,-0.972239,0.482689,0.552932,0.679174
-0.546027,-0.300913,-0.959843,-0.113632,-0.586241,0.802128
-0.480183,-0.212237,-0.958177,-0.086980,-0.006742,0.996187
-0.420469,-0.121335,-0.972783,-0.351250,0.108891,0.929928
-0.357202,-0.035740,-0.972143,0.386914,0.001718,-0.922114
-0.292348,0.053794,-0.972591,0.820816,0.300040,-0.486043
-0.229666,0.138876,-0.970317,-0.294119,0.579278,0.760218
-0.164021,0.228577,-0.971118,-0.260668,0.120329,0.957900
-0.411774,-0.458060,-0.972239,-0.704526,-0.320860,-0.633003
0.040226,-0.223020,-0.305738,0.823018,0.550971,0.138100
-0.023838,0.068860,-0.963462,-0.078382,0.317249,0.945098
0.229847,-0.227303,-0.957953,0.897034,0.191258,0.398436
0.749067,-0.491443,0.511725,0.768271,0.608074,-0.200015
0.714468,-0.116539,0.524025,0.610158,-0.706869,-0.357832
0.822821,0.069373,0.458169,-0.031709,0.185337,0.982163
0.555494,-0.347984,0.549489,-0.412098,0.703354,-0.579196
0.663058,-0.208297,0.563199,0.881185,0.232516,-0.411643
0.355205,-0.449335,0.832932,0.813834,0.028490,-0.580398
0.369240,-0.075288,0.218065,-0.286116,-0.866146,0.409790
0.443785,-0.150946,0.525050,0.931403,0.240638,-0.273098
0.496378,-0.054401,0.483313,-0.466941,0.751332,-0.466333
0.599392,0.135617,0.398431,0.974810,0.092272,-0.203053
0.656136,0.192624,0.434626,0.604098,0.381696,-0.699552
0.710515,0.242275,0.477452,0.719222,0.691222,0.070230
0.766071,0.306293,0.498464,-0.848722,0.233883,0.474310
0.821434,0.384866,0.493531,-0.842036,0.197356,0.502022
-0.201788,-0.627880,0.787159,-0.240390,-0.566208,-0.788429
-0.151766,-0.555638,0.781234,-0.261977,0.670260,0.694348
-0.101737,-0.158824,0.236098,0.715891,-0.128359,0.686312
-0.009995,-0.277112,0.640938,0.815228,0.540953,-0.206816
0.105871,-0.179021,0.741515,-0.609895,-0.788745,-0.076877
0.311899,0.144351,0.671239,0.987809,0.151799,0.034501
0.353618,0.336772,0.447342,0.210944,-0.816714,0.537103
0.418472,0.265042,0.714705,0.953701,0.216380,0.208889
0.574876,0.618026,0.482897,0.901768,0.386715,-0.193045
-0.035900,-0.648767,0.800388,-0.649070,0.735404,-0.194649
-0.010786,-0.451383,0.525466,-0.405004,0.825874,0.392307
0.064941,-0.479459,0.747441,-0.503334,0.741132,-0.444272
-0.001493,-0.156431,0.051376,0.829173,0.553965,0.074795
0.114572,-0.384795,0.701765,0.862607,-0.482290,-0.152664
0.169935,-0.336178,0.746864,0.867188,-0.258950,-0.425358
0.222926,-0.277801,0.770567,-0.020087,-0.979894,0.198504
0.279870,-0.233980,0.827967,0.732979,0.656563,0.177952
0.367659,0.069195,0.519829,0.945741,0.319586,0.058646
0.430335,0.060815,0.677549,0.707514,0.703009,0.072128
0.527025,0.351661,0.412108,0.830808,-0.204596,0.517589
0.580807,0.407467,0.442378,0.860031,-0.153073,-0.486739
-0.368667,-0.613848,0.759420,-0.429398,-0.875462,0.221775
-0.328329,-0.506854,0.674923,0.727094,-0.516218,-0.452607
-0.288987,-0.378808,0.554486,0.988805,-0.146084,-0.030414
-0.123092,-0.177652,0.594973,-0.513389,-0.854876,-0.074960
-0.054086,-0.199228,0.785718,0.861738,0.480326,-0.163384
-0.004263,-0.109695,0.751829,-0.614314,0.195167,0.764544
0.040027,0.009283,0.654679,0.596751,0.633676,-0.492283
0.103499,0.010484,0.795135,0.301131,-0.952435,-0.046770
0.160443,0.046772,0.863938,-0.138337,0.896703,-0.420459
0.197221,0.280788,0.560925,-0.438191,0.775540,0.454451
0.252384,0.317933,0.624666,0.958119,0.069655,0.277769
0.307355,0.342759,0.708427,0.802465,-0.556254,-0.215942
0.361528,0.411918,0.716243,0.633986,0.760936,-0.137977
0.405426,0.648159,0.426618,-0.798887,-0.351188,0.488310
-0.442222,-0.493668,0.711182,0.673333,0.736919,-0.059778
-0.419878,-0.314946,0.467907,0.076568,-0.995829,0.049610
-0.290568,-0.262568,0.673161,-0.132886,0.018344,0.990962
-0.222552,-0.269923,0.837448,-0.548996,0.112529,0.828215
-0.174702,-0.169094,0.780016,0.735399,0.606128,-0.302982
-0.135354,-0.015198,0.614608,0.152991,-0.344253,-0.926328
-0.060416,-0.077336,0.886455,-0.557203,0.538946,-0.631714
-0.097984,0.168143,0.398079,-0.484755,-0.134116,0.864307
-0.041433,0.220699,0.438470,0.960040,-0.138259,-0.243326
-0.499956,-0.249036,0.456311,0.200107,0.975097,-0.095620
-0.352061,-0.270613,0.827967,0.197408,0.934061,0.297589
-0.320624,-0.106267,0.626652,-0.692602,-0.719042,-0.057285
-0.248450,-0.142900,0.849459,-0.627683,-0.748824,-0.212781
-0.192297,-0.094973,0.897698,-0.306961,0.925261,-0.222862
-0.158687,0.083060,0.679727,0.890500,0.423844,0.165431
0.005428,0.280955,0.724090,-0.761485,0.647895,-0.019321
0.049519,0.435375,0.568227,-0.290462,0.948222,0.128481
0.160841,0.510699,0.695326,-0.467085,0.883987,0.019973
0.208885,0.649873,0.574666,0.320980,0.465163,-0.824982
0.015710,0.263496,0.495934,0.019835,-0.988712,0.148511
0.070873,0.330430,0.510604,0.528302,0.725077,-0.441769
0.128215,0.353720,0.600803,0.179414,0.687833,0.703347
0.185358,0.390175,0.669958,0.413402,0.547458,0.727591
0.238542,0.472686,0.654359,0.794433,-0.159483,0.586039
0.292523,0.561029,0.630175,0.022648,-0.717403,0.696290
0.343734,0.649706,0.600034,0.925702,0.156212,-0.344490
-0.562638,-0.319230,0.729728,0.284748,-0.850273,0.442667
-0.391210,-0.171320,0.873803,-0.272125,0.628350,0.728783
-0.335649,-0.114313,0.903880,-0.417773,-0.720791,0.553106
-0.322796,0.185947,0.437573,0.736576,-0.510124,0.444105
-0.260910,0.202382,0.549489,0.914325,-0.359639,0.186196
-0.217411,0.338141,0.424024,-0.608116,0.465534,-0.643019
-0.137725,0.209059,0.817364,0.489242,0.423524,-0.762410
-0.089875,0.306471,0.764001,0.949589,0.251887,-0.186636
-0.035303,0.371346,0.780369,0.667489,0.483017,-0.566704
0.019662,0.421332,0.821913,0.720952,-0.088483,-0.687313
-0.731098,-0.368871,0.697953,0.792993,-0.609062,-0.014363
-0.621953,-0.229352,0.714000,0.720619,-0.215636,0.658945
-0.517950,-0.094461,0.726557,0.390402,0.615153,0.684963
-0.447562,-0.112265,0.917077,-0.800508,0.090125,-0.592506
-0.361547,0.124666,0.718645,0.724978,-0.685608,-0.065940
-0.304802,0.172939,0.766787,0.992387,-0.106122,-0.062494
-0.250629,0.234397,0.788793,0.569629,-0.736993,0.363819
-0.149389,0.380760,0.775052,0.118033,-0.152374,0.981249
-0.095015,0.444789,0.792156,-0.176541,0.940099,-0.291627
-0.056657,0.706191,0.444844,0.940287,-0.340151,-0.012532
-0.001294,0.780145,0.448336,0.766948,-0.466049,-0.441122
-0.705193,0.321016,0.844687,0.833178,-0.010926,0.552897
-0.475440,0.451633,0.798851,-0.686434,0.723103,0.077014
0.001669,0.935077,0.491930,0.847252,-0.478208,0.231260
-0.783691,-0.111230,0.724346,0.948418,-0.051581,-0.312797
-0.248058,0.379903,0.846705,-0.674064,0.737098,-0.048215
-0.550968,-0.069635,0.906667,0.989770,0.116573,-0.082251
-0.459619,0.118502,0.801061,0.815088,-0.573221,0.083958
-0.406036,0.184923,0.812304,-0.252496,0.792766,0.554769
-0.512018,0.196730,0.831650,-0.424422,0.390683,-0.816843
-0.464567,0.288834,0.786038,0.805975,0.378963,-0.454742
-0.409004,0.314851,0.870120,-0.504823,0.685647,0.524445
-0.378358,0.596460,0.469252,-0.801092,0.575086,0.165916
-0.305792,0.450264,0.879216,0.784196,0.488648,-0.382439
-0.778948,-0.272838,0.724379,0.367112,-0.415427,-0.832255
-0.727936,-0.201621,0.722841,-0.306689,0.363253,-0.879767
-0.672766,-0.135200,0.736871,0.024324,-0.205427,0.978370
-0.358385,0.278908,0.763648,0.961674,-0.272661,-0.028980
-0.303221,0.329750,0.804904,-0.216239,0.910506,0.352449
0.408788,-0.401397,-0.940848,-0.202476,0.434750,-0.877494
0.319610,-0.492644,-0.942418,0.398145,0.388833,-0.830837
0.236369,-0.578072,-0.940336,0.237559,-0.071922,-0.968707
0.140471,-0.674794,-0.946742,-0.284771,-0.178849,0.941763
0.043787,-0.771339,-0.955871,-0.204765,0.406929,-0.890214
-0.026800,-0.845638,-0.947991,-0.113697,0.075480,-0.990644
-0.113208,-0.934483,-0.948055,-0.063863,-0.272919,0.959915
0.594649,-0.701835,-0.929926,-0.458308,0.515114,0.724300
0.048529,0.041809,-0.963430,-0.314569,0.684744,0.657398
-0.032931,-0.042761,-0.960419,-0.445028,0.885462,-0.133814
-0.110439,-0.123392,-0.954718,0.574999,-0.362466,-0.733481
-0.213253,-0.225078,-0.966217,0.158941,0.986971,-0.025009
-0.293531,-0.307412,-0.964391,-0.513602,0.584693,-0.627971
-0.366494,-0.384627,-0.957472,0.806494,0.267126,-0.527457
-0.468519,-0.485111,-0.967434,0.354918,0.162961,-0.920585
-0.552549,-0.571217,-0.968043,-0.024305,-0.155403,0.987552
-0.645480,-0.665202,-0.972207,-0.040054,0.520727,0.852783
-0.752651,-0.769970,-0.985083,0.474793,-0.879844,0.021109
0.062371,-0.164643,-0.312144,0.705780,0.671453,0.225889
0.096380,-0.074598,-0.953597,0.237263,-0.455450,0.858063
0.009778,-0.161906,-0.956127,0.216050,-0.537119,0.815368
-0.082163,-0.254689,-0.960611,0.182686,0.319237,0.929900
-0.165802,-0.341141,-0.959138,0.753317,0.342692,0.561316
-0.322796,-0.504284,-0.951098,0.069727,0.401729,0.913100
-0.408806,-0.591414,-0.952988,-0.121351,-0.196013,0.973064
-0.506877,-0.689516,-0.960387,0.159651,0.373839,0.913650
0.125445,-0.198027,-0.501351,0.454106,-0.890563,0.026167
0.030144,0.031883,-0.963750,-0.341766,0.460499,0.819229
-0.060808,-0.059531,-0.966986,0.295542,0.876069,-0.380997
-0.141086,-0.143078,-0.962405,0.463566,-0.073338,-0.883022
-0.226106,-0.230386,-0.961572,0.081050,-0.186001,0.979201
-0.305001,-0.311185,-0.958561,-0.574300,0.741481,-0.346966
-0.392393,-0.399861,-0.961412,-0.467141,0.667496,0.579853
-0.493434,-0.499488,-0.970701,-0.692751,0.119803,0.711156
-0.575485,-0.582857,-0.970285,0.367980,0.513864,-0.774942
-0.662883,-0.672224,-0.970637,-0.068029,0.396372,0.915566
-0.749091,-0.760556,-0.970285,0.162921,-0.416986,-0.894192
0.036074,-0.170641,-0.313297,0.577708,0.815089,0.043397
-0.213652,-0.211547,-0.967818,-0.004771,-0.482542,0.875860
-0.289180,-0.290298,-0.962886,-0.612661,0.661946,-0.431827
-0.378949,-0.381367,-0.965192,-0.362320,0.713814,-0.599328
-0.468121,-0.470734,-0.969036,-0.737698,0.331014,0.588414
-0.546618,-0.552389,-0.963750,-0.616516,0.415599,-0.668720
-0.647061,-0.651849,-0.972431,-0.036595,0.280250,0.959229
-0.735249,-0.740870,-0.972847,-0.191502,0.219850,0.956553
0.037655,-0.152147,-0.320024,-0.616524,-0.786450,0.037329
0.024212,0.029657,-0.959875,0.123451,-0.261667,-0.957231
-0.071289,-0.065351,-0.966825,-0.613660,0.788610,0.038929
-0.138714,-0.136746,-0.956415,-0.684668,0.008257,0.728808
-0.237179,-0.234148,-0.967242,0.810616,-0.580036,0.080380
-0.316466,-0.316315,-0.962661,0.224372,-0.352738,0.908424
-0.407816,-0.407395,-0.967178,0.588489,-0.013668,-0.808389
-0.493826,-0.495215,-0.966697,0.483642,-0.471306,-0.737537
-0.582406,-0.584748,-0.967530,0.140034,0.476945,-0.867706
-0.673955,-0.677187,-0.970605,-0.056081,0.391370,0.918523
-0.767676,-0.770314,-0.977107,-0.623544,0.754877,0.203358
0.020850,-0.157455,-0.311632,0.577708,0.815089,0.043397
-0.352454,-0.507367,-0.965224,-0.440448,-0.399520,0.803983
-0.443405,-0.599293,-0.968043,0.414805,-0.093559,-0.905087
-0.526452,-0.683174,-0.967594,-0.199121,0.612508,-0.764974
0.057230,-0.199573,-0.527008,-0.090761,0.974344,0.205951
-0.610090,-0.767577,-0.967370,0.048331,-0.378645,0.924279
0.091040,-0.210356,-0.345040,-0.386096,0.385202,-0.838182
0.081746,-0.231754,-0.298595,0.870179,0.470173,-0.147396
0.051298,0.055842,-0.961188,-0.031241,0.098590,0.994638
-0.040842,-0.036597,-0.965352,-0.082922,-0.490174,0.867671
-0.110638,-0.111063,-0.954237,0.551520,-0.301040,-0.777947
0.082935,-0.067242,-0.958113,-0.220145,-0.043233,0.974509
0.009187,-0.143934,-0.952059,-0.176220,0.857850,0.482742
-0.077420,-0.231243,-0.952187,0.589216,0.804687,-0.072829
-0.173513,-0.326073,-0.960900,-0.370901,-0.350769,0.859880
-0.260120,-0.414238,-0.961252,0.176603,-0.336309,-0.925045
0.123466,-0.131950,-0.955070,-0.247946,0.016490,0.968634
0.032122,-0.222853,-0.960804,0.189397,0.550056,0.813368
-0.043412,-0.301426,-0.953500,-0.469098,0.853362,0.227422
-0.134165,-0.392161,-0.956319,0.431269,0.893143,0.127680
-0.228676,-0.486312,-0.961636,-0.421130,-0.130846,0.897513
-0.302431,-0.562827,-0.955518,-0.356656,-0.075875,0.931150
0.114771,-0.226614,-0.561505,-0.222500,0.973058,-0.060438
0.104091,-0.246822,-0.515156,-0.357227,0.870525,0.338489
-0.568172,-0.830739,-0.962533,-0.422079,0.155704,0.893088
0.136125,-0.166357,-0.955583,0.303877,0.034170,-0.952098
-0.043805,-0.347138,-0.960451,-0.368499,0.106694,0.923485
-0.114198,-0.420403,-0.952251,-0.599790,-0.703447,0.381332
-0.203768,-0.509425,-0.956736,-0.292815,0.191323,0.936832
0.146601,-0.234492,-0.547284,-0.170983,-0.984852,0.028818
0.154312,-0.238943,-0.485624,-0.008060,0.999940,0.007431
-0.558680,-0.867549,-0.963334,-0.042282,-0.877238,0.478190
0.247641,-0.236206,-0.944596,-0.569792,0.275527,-0.774224
0.020453,-0.468331,-0.927395,0.436665,0.742503,-0.507949
-0.370646,-0.857790,-0.960419,0.411811,0.345113,-0.843391
0.302606,-0.474840,-0.948888,0.237823,0.643679,0.727404
0.018672,-0.759354,-0.966057,0.878682,-0.140266,-0.456337
0.507251,-0.672391,-0.938190,0.300703,-0.175028,0.937519
0.421441,-0.759009,-0.937997,0.077640,-0.431098,0.898959
0.335431,-0.845126,-0.939951,0.471512,0.187980,-0.861591
0.566965,-0.465938,-0.934923,-0.668208,-0.064306,0.741190
0.468103,-0.564541,-0.946838,-0.498100,-0.058040,0.865175
0.391976,-0.635591,-0.937325,0.627702,0.547856,0.553032
0.290942,-0.736764,-0.948215,-0.611573,-0.095591,0.785392
0.125053,-0.897338,-0.942642,-0.225672,-0.543484,-0.808515
0.433696,-0.327275,-0.942386,-0.417130,0.253499,0.872777
0.354607,-0.402599,-0.938094,0.566468,0.407411,-0.716331
0.259505,-0.497262,-0.947158,0.130808,0.119415,0.984190
0.175667,-0.578239,-0.944147,0.193944,-0.046111,-0.979928
0.089066,-0.663144,-0.946261,0.249548,0.875884,-0.412980
0.276111,-0.208642,-0.954237,-0.187797,-0.048498,0.981010
-0.001294,-0.750630,-0.947863,0.163820,-0.245133,0.955548
-0.096005,-0.843413,-0.953020,-0.108831,0.045744,0.993007
-0.185375,-0.930720,-0.954141,-0.310241,-0.319723,0.895281
0.119713,-0.313577,-0.737740,0.996676,-0.078560,-0.021549
0.146009,-0.269067,-0.650199,0.259631,0.893719,-0.365865
-0.251419,-0.722554,-0.960772,-0.602721,0.603970,0.521487
0.155302,-0.244418,-0.579347,-0.363737,0.812334,-0.455860
-0.328927,-0.796165,-0.954974,0.713246,-0.149612,-0.684760
0.157673,-0.227816,-0.512370,0.044861,-0.998966,0.007419
0.133748,-0.240479,-0.466277,0.475881,0.859467,-0.186691
0.110813,-0.252809,-0.420056,-0.523203,-0.834847,0.171141
0.125644,-0.223197,-0.348691,-0.199535,-0.079760,0.976639
0.126435,-0.208810,-0.288185,0.876418,0.480417,-0.033017
0.132765,-0.073407,-0.956928,-0.176257,-0.119169,-0.977104
-0.042024,-0.244596,-0.962405,0.364298,0.617726,0.696923
-0.130212,-0.329501,-0.962822,-0.200304,-0.215239,0.955798
-0.210490,-0.406360,-0.959394,0.060708,0.004743,0.998144
-0.302232,-0.496072,-0.962373,-0.096696,0.376504,-0.921355
-0.393780,-0.585083,-0.964871,-0.410961,0.276947,0.868569
-0.484334,-0.673414,-0.966761,-0.232505,0.422529,0.876019
-0.572124,-0.759354,-0.969003,-0.187546,0.753271,0.630404
0.181797,-0.301771,-0.959715,0.388507,0.270384,0.880883
0.064351,-0.405681,-0.913910,-0.215589,-0.862150,0.458496
-0.030161,-0.499666,-0.922366,0.436061,0.618750,-0.653452
0.149570,0.048831,-0.960067,0.650124,0.458663,-0.605778
0.064743,-0.033682,-0.960675,0.002860,0.415365,0.909650
-0.116370,-0.210523,-0.966313,0.100618,0.665294,0.739770
-0.199218,-0.290130,-0.962501,-0.442354,-0.374398,0.814953
-0.284836,-0.373155,-0.963622,0.342260,0.011586,-0.939534
-0.374206,-0.459951,-0.967146,-0.328606,0.410107,0.850782
-0.466148,-0.549997,-0.969356,-0.650274,0.168440,0.740791
-0.554330,-0.636270,-0.971982,0.214911,-0.296409,-0.930567
-0.644889,-0.724602,-0.973424,-0.138740,-0.457919,-0.878101
-0.615623,-0.602720,-0.970797,-0.248459,-0.280364,0.927181
-0.706774,-0.691219,-0.972719,0.331307,0.020690,-0.943296
0.104683,0.101387,-0.959458,0.455599,0.241007,-0.856940
0.017689,0.016816,-0.961861,-0.052243,0.336747,0.940145
-0.066740,-0.063815,-0.959042,-0.157047,0.737573,0.656751
-0.160461,-0.156943,-0.967146,0.332505,0.201832,-0.921251
-0.245487,-0.238431,-0.964904,0.607465,0.223937,0.762128
-0.333277,-0.323848,-0.964936,0.618157,-0.744400,0.252488
-0.422647,-0.411334,-0.966185,0.518068,-0.064448,-0.852908
-0.513599,-0.500690,-0.971214,0.908070,-0.133356,-0.397020
-0.596647,-0.580631,-0.969868,-0.147095,0.806093,0.573216
-0.688787,-0.669998,-0.972431,-0.121631,0.364913,0.923063
0.088668,0.082214,-0.961188,0.217340,0.065871,-0.973871
-0.000504,-0.005094,-0.963014,0.084453,0.123488,0.988746
-0.094816,-0.097198,-0.968107,0.916011,-0.256343,-0.308565
-0.177073,-0.176116,-0.966857,0.408119,-0.038576,0.912113
-0.257942,-0.254177,-0.964391,0.098079,0.448932,-0.888167
-0.345732,-0.339605,-0.964487,0.917819,-0.332059,0.217591
-0.434710,-0.427080,-0.968107,-0.065763,0.297403,0.952485
-0.526053,-0.515579,-0.970445,-0.335403,-0.461835,0.821105
0.025992,0.111825,-0.964679,0.359490,-0.169743,-0.917581
-0.070499,0.016305,-0.971566,0.619535,0.050807,-0.783323
-0.143457,-0.052008,-0.962341,0.059066,-0.408245,0.910959
-0.233425,-0.140163,-0.964519,-0.372921,0.157759,0.914353
-0.324576,-0.229529,-0.967146,-0.711424,0.411349,0.569797
-0.410387,-0.311864,-0.965160,0.143129,-0.390605,0.909363
-0.496596,-0.395922,-0.967178,0.335361,-0.087739,-0.937995
-0.587746,-0.485456,-0.972367,-0.377712,0.084954,0.922017
-0.683248,-0.578751,-0.977684,-0.229637,-0.362077,0.903420
0.001277,0.089402,-0.964551,-0.578995,0.396348,0.712512
-0.090864,-0.000643,-0.968523,0.651914,0.698273,-0.295673
-0.170743,-0.075967,-0.962053,-0.134036,-0.326799,0.935541
-0.257350,-0.160705,-0.964327,0.077345,-0.242737,0.967004
-0.347312,-0.248869,-0.968875,0.040350,0.109598,0.993157
-0.430752,-0.329333,-0.965576,0.185936,0.082203,0.979117
-0.518541,-0.415607,-0.968555,0.653006,-0.136600,-0.744932
-0.611273,-0.505820,-0.971342,0.225597,0.009146,-0.974178
-0.708953,-0.602887,-0.978773,0.127076,0.132491,0.983004
0.027772,0.176710,-0.962501,-0.129518,-0.313606,0.940679
-0.059427,0.091116,-0.965416,0.009702,0.233325,0.972350
-0.143264,0.010140,-0.965352,-0.401747,0.800933,-0.443966
-0.230457,-0.074942,-0.965224,0.257839,0.153367,-0.953938
-0.313105,-0.154206,-0.963879,-0.011013,0.108406,0.994046
-0.397534,-0.235694,-0.961220,0.446057,-0.109479,0.888284
-0.483543,-0.318373,-0.959747,-0.077807,-0.417119,0.905515
-0.587945,-0.423141,-0.972943,0.829443,-0.286628,-0.479446
-0.679886,-0.513186,-0.978453,0.749164,-0.660686,-0.047404
0.021841,0.153598,-0.961957,0.615168,-0.030134,-0.787820
-0.071489,0.062351,-0.966537,0.117683,0.955757,0.269592
-0.156116,-0.020328,-0.967882,-0.480618,0.088982,-0.872404
-0.243707,-0.104731,-0.967818,0.120501,0.804117,0.582130
-0.329916,-0.187244,-0.966249,-0.176014,0.221659,-0.959107
-0.410188,-0.263769,-0.960515,-0.328291,-0.337671,0.882158
-0.503715,-0.356720,-0.968075,-0.002127,-0.141760,0.989899
-0.591505,-0.442826,-0.970669,0.547756,-0.160731,-0.821054
-0.688787,-0.538869,-0.977908,0.953609,-0.284940,-0.097153
-0.000703,0.161466,-0.963334,0.319291,0.074004,-0.944763
-0.090864,0.073991,-0.965672,-0.613040,-0.155944,0.774509
-0.182015,-0.014853,-0.968811,-0.458155,0.092646,-0.884031
-0.259722,-0.088975,-0.963622,-0.012834,0.078317,0.996846
-0.343951,-0.170808,-0.963879,-0.188144,0.184131,-0.964727
-0.426009,-0.249381,-0.958914,-0.289615,-0.305219,-0.907174
-0.520122,-0.342510,-0.966473,-0.176812,0.273757,-0.945407
-0.612661,-0.432555,-0.969708,-0.197077,-0.248492,0.948374
-0.710733,-0.530301,-0.977844,0.199376,-0.143461,-0.969365
-0.015728,0.158729,-0.965128,0.189374,0.097029,-0.977099
-0.098184,0.078609,-0.964455,-0.565231,0.103677,0.818392
-0.185973,-0.006808,-0.965000,-0.444645,0.313913,-0.838898
-0.277124,-0.095652,-0.967498,-0.253960,-0.022053,-0.966963
-0.361547,-0.176795,-0.965000,0.178048,-0.414084,0.892655
-0.444002,-0.255891,-0.963302,0.086654,-0.352249,0.931886
-0.535352,-0.346615,-0.969196,0.234884,-0.009627,0.971976
-0.629665,-0.438719,-0.973904,0.061479,0.111075,0.991909
-0.114789,0.315707,-0.973552,0.192998,0.170951,-0.966192
-0.202579,0.229434,-0.977139,-0.451269,-0.184635,0.873079
-0.289180,0.145553,-0.976531,-0.303129,0.129010,0.944176
-0.377368,0.059613,-0.979894,0.595636,0.548621,0.586714
-0.463179,-0.022387,-0.978132,0.104217,-0.338499,0.935178
-0.548995,-0.105077,-0.976563,0.031902,0.218194,0.975384
-0.009006,0.270351,-0.969003,-0.791802,0.201984,0.576414
-0.097387,0.185090,-0.969548,0.467786,0.567545,-0.677546
-0.179445,0.106684,-0.965224,0.376716,0.680532,0.628459
-0.263873,0.024517,-0.965736,0.571920,-0.251018,-0.780960
-0.356013,-0.067064,-0.972367,0.470053,0.673481,0.570503
-0.442222,-0.149754,-0.970925,-0.088828,0.395667,0.914088
-0.510636,-0.212237,-0.957761,-0.678889,0.019833,-0.733973
-0.605939,-0.305876,-0.963686,0.269004,0.703034,-0.658316
-0.184193,0.363468,-0.978485,-0.107844,0.193602,0.975135
-0.270396,0.280277,-0.977556,0.718708,0.442202,0.536578
-0.359966,0.192624,-0.982392,-0.123744,0.156559,0.979886
-0.441824,0.113539,-0.980695,-0.098598,0.600956,0.793178
-0.529421,0.029480,-0.980503,0.427277,-0.293851,-0.855036
-0.616022,-0.054234,-0.982104,0.157961,-0.309583,-0.937660
-0.628874,-0.180055,-0.970061,-0.157963,0.205387,0.965849
-0.708953,-0.256403,-0.966185,0.953940,0.193074,-0.229609
-0.225315,0.428698,-0.982905,-0.733904,0.670833,0.106618
-0.669013,0.361420,0.852630,0.449245,-0.854142,0.261955
-0.019487,0.701572,0.424120,0.940717,-0.327109,-0.089730
-0.129814,0.586357,0.398527,0.872880,-0.234542,-0.427867
-0.427789,0.443076,0.856218,0.438293,0.356764,-0.824996
-0.600399,0.270351,0.837864,0.462838,-0.088614,0.882003
-0.069510,0.543559,0.438886,0.898831,-0.109729,-0.424338
-0.228085,0.388294,0.434530,-0.124439,-0.860184,0.494570
-0.171142,0.536203,0.730016,0.858161,-0.490772,-0.150676
-0.337627,0.401480,0.814642,-0.302370,-0.168482,0.938182
-0.351663,0.399933,0.854232,-0.637282,-0.573688,0.514542
-0.493826,0.247917,0.807339,0.791861,0.040819,0.609335
-0.533965,0.215569,0.829024,0.381260,-0.457533,0.803308
-0.598818,0.155134,0.835238,-0.442469,0.236034,-0.865165
-0.037680,0.544249,0.447823,0.859000,-0.073471,-0.506676
-0.043611,0.552639,0.496094,0.942645,-0.064209,-0.327564
-0.198029,0.386246,0.438534,-0.214948,-0.893669,0.393894
-0.208709,0.404217,0.535652,0.841498,-0.389694,0.374193
-0.303813,0.292083,0.469252,0.940877,-0.105765,-0.321813
-0.309551,0.316909,0.570758,-0.744019,0.583535,0.325458
-0.178454,0.486040,0.711950,0.986844,0.152636,-0.053296
-0.313703,0.356624,0.717332,0.977625,-0.142917,0.154348
-0.348893,0.344473,0.790715,-0.142429,0.544568,0.826535
-0.314095,0.399254,0.862400,0.951916,0.244301,-0.184857
-0.458237,0.245347,0.815891,0.808846,-0.586804,0.037800
-0.501936,0.209404,0.835750,0.231713,0.646063,0.727263
-0.555319,0.161644,0.847410,0.638814,0.767234,0.057171
0.006810,0.555888,0.509611,0.946414,-0.111236,-0.303196
-0.192297,0.338997,0.423031,-0.654967,-0.625664,0.423749
-0.307771,0.233373,0.447150,0.781296,-0.511710,0.357394
-0.306383,0.264008,0.550931,0.883839,-0.361022,0.297477
-0.167189,0.440338,0.695358,0.844006,0.450444,-0.291125
-0.261303,0.359706,0.732226,0.885008,-0.189664,-0.425193
-0.141284,0.512067,0.861599,-0.276180,0.933692,-0.227913
-0.266051,0.381450,0.825660,0.883637,-0.163223,0.438798
-0.316074,0.337284,0.839466,0.242556,-0.591224,0.769169
-0.430359,0.218986,0.813553,0.937569,-0.114775,0.328316
-0.444395,0.215569,0.850613,0.660600,-0.581792,-0.474474
-0.631837,0.013389,0.777390,-0.650702,0.758884,0.026103
-0.727146,-0.082476,0.764417,-0.734176,0.656624,-0.172716
-0.890264,-0.243395,0.753975,-0.574112,0.008036,-0.818738
0.030536,0.522338,0.529758,0.937768,-0.343636,-0.050046
-0.177073,0.310922,0.489111,0.357296,-0.523700,-0.773355
-0.164420,0.338820,0.547600,0.918693,-0.180510,-0.351310
-0.244697,0.259735,0.544300,0.727020,-0.565729,0.389092
-0.062788,0.497168,0.769478,0.292694,-0.956100,0.014267
-0.191706,0.374773,0.778223,-0.121716,0.937650,0.325574
-0.285029,0.293630,0.812240,-0.700479,0.639894,0.316014
-0.378556,0.199645,0.799459,0.863565,-0.467141,-0.189829
-0.400702,0.188172,0.834117,0.906897,0.397526,0.139683
-0.780130,-0.208465,0.730304,0.941978,0.183483,-0.281089
-0.856057,-0.281908,0.730048,0.753750,0.002942,0.657154
0.015510,0.524051,0.491898,0.965383,0.023698,-0.259759
-0.169162,0.326156,0.414351,-0.287120,-0.604687,0.742910
-0.206531,0.309721,0.494140,-0.437871,0.630935,0.640461
-0.280485,0.250832,0.545325,0.846474,-0.330830,0.417174
0.011359,0.606731,0.839722,0.485608,0.763995,0.424849
-0.170151,0.412263,0.765891,0.206795,0.749354,0.629050
-0.339401,0.244835,0.752245,-0.724509,0.440855,-0.529844
-0.328727,0.269493,0.807723,-0.496379,0.743570,-0.448009
-0.404654,0.194682,0.804488,0.992844,0.041832,0.111856
-0.488293,0.111825,0.796544,-0.277914,0.959381,0.048499
-0.590118,0.009450,0.779280,-0.645865,0.763393,-0.009448
-0.685027,-0.086583,0.764513,0.919999,-0.391248,0.022934
0.212445,0.657751,0.571367,0.320980,0.465163,-0.824982
-0.020669,0.404896,0.460924,0.957212,0.284459,0.053178
-0.141876,0.304925,0.532545,0.693905,-0.560188,0.452422
-0.241137,0.204441,0.514864,0.994008,0.018777,-0.107683
-0.103717,0.372036,0.658555,-0.305539,0.660387,0.685955
-0.096403,0.391376,0.711470,0.853998,0.516929,-0.058916
-0.081372,0.420653,0.770952,0.341518,-0.345165,-0.874200
-0.087503,0.425271,0.815763,0.121932,0.968944,-0.215128
-0.268815,0.232004,0.744910,-0.888502,0.205212,-0.410429
-0.294520,0.214534,0.774892,-0.345276,0.910938,0.225781
-0.405644,0.100697,0.749107,0.414816,-0.845729,0.335664
-0.375389,0.146410,0.816596,0.607635,-0.699181,-0.376730
-0.670395,-0.162074,0.721784,0.389599,0.524938,-0.756738
-0.723977,-0.210523,0.735557,-0.612642,-0.194172,0.766138
-0.811176,-0.296975,0.728222,0.130941,0.590691,0.796202
0.477003,0.787334,0.453332,0.950338,0.066180,-0.304102
-0.138913,0.163869,0.337733,0.946386,-0.197964,0.255273
-0.081173,0.240729,0.428829,0.668827,0.609774,-0.425261
0.069491,0.422534,0.584435,0.114286,-0.944993,0.306476
0.037263,0.398397,0.612494,0.877273,-0.227407,-0.422704
0.116153,0.498881,0.716723,0.973299,-0.228433,-0.022533
-0.053495,0.331464,0.702982,-0.578965,-0.792833,0.190303
-0.086912,0.305102,0.728382,0.270742,-0.956337,0.110085
-0.111627,0.288144,0.758876,-0.267910,-0.806731,0.526697
-0.287599,0.102233,0.692315,0.321485,0.816848,0.478964
-0.251219,0.153598,0.762688,0.883171,0.294664,-0.364940
-0.455274,-0.063648,0.678895,0.275825,0.923429,-0.266833
-0.463577,-0.061423,0.722008,0.065910,0.887506,0.456058
-0.659123,-0.257605,0.692380,0.747237,-0.631015,-0.208461
-0.725166,-0.320254,0.696704,0.781852,-0.608882,0.134049
-0.770838,-0.360481,0.715442,0.895508,-0.184057,0.405202
-0.572914,-0.129035,0.883957,0.891796,0.383824,0.239538
0.310715,0.633270,0.580367,0.205411,0.747070,-0.632213
-0.110046,0.173284,0.339174,0.954521,-0.254213,0.155771
-0.025419,0.279587,0.450514,0.996392,0.033604,0.077937
0.060199,0.387092,0.561501,0.919517,0.296379,0.258161
-0.191904,0.127237,0.491353,-0.663189,0.729088,0.169145
-0.083352,0.279587,0.709997,-0.395414,0.918276,0.020415
-0.103916,0.267090,0.745295,-0.708187,-0.370689,0.600883
-0.221762,0.147433,0.717140,-0.366684,0.877598,-0.308812
-0.434112,-0.067922,0.675275,-0.359188,-0.920681,-0.152743
-0.325758,0.072277,0.838121,0.062265,0.957527,0.281540
-0.742960,-0.378975,0.619701,0.549349,0.345448,0.760843
-0.415328,-0.006985,0.873098,0.762052,0.503728,-0.406860
-0.751463,-0.367680,0.709836,0.913220,-0.247336,0.323813
-0.495214,-0.074942,0.915475,0.064174,0.937187,0.342873
-0.810385,-0.412525,0.765282,-0.652494,-0.587643,-0.478462
-0.563821,-0.131093,0.960511,-0.646441,0.248289,-0.721433
-0.087304,0.077930,0.269859,0.943571,0.330040,-0.027351
-0.087503,0.088713,0.323575,-0.716001,-0.698099,0.000407
0.082537,0.289346,0.493339,-0.223062,-0.870847,0.438028
0.165584,0.392065,0.599233,0.395107,0.847413,0.354656
-0.159671,0.052592,0.480078,0.479370,-0.347768,-0.805767
0.136125,0.390696,0.726525,-0.829330,0.141724,-0.540487
-0.092644,0.157360,0.673449,-0.459414,0.625449,-0.630677
-0.221164,0.025886,0.638535,0.860154,0.129543,-0.493308
-0.310142,-0.062959,0.627965,-0.300959,0.570435,0.764217
-0.334858,-0.079906,0.659035,-0.777934,0.615400,0.126890
-0.361547,-0.098567,0.691227,-0.346020,-0.926863,0.145586
-0.221955,0.074503,0.873291,-0.230997,-0.475316,-0.848949
-0.388640,-0.079738,0.905578,-0.345908,0.848461,-0.400577
-0.469310,-0.159336,0.899492,-0.402206,0.334313,-0.852329
-0.537325,-0.224043,0.903335,0.625244,0.318801,0.712346
-0.571333,-0.252809,0.925821,-0.052446,-0.911862,0.407133
-0.072672,-0.096853,-0.101284,-0.462640,0.885786,0.036692
-0.032931,-0.040703,-0.015089,0.961236,-0.267492,0.066886
0.488667,0.553318,0.412461,-0.709265,-0.459546,0.534566
0.295684,0.371858,0.437733,0.914977,0.289972,0.280595
-0.044003,-0.006463,0.200223,0.800245,-0.555238,0.226538
-0.044003,0.004142,0.252722,0.979671,0.190122,0.064010
-0.096403,-0.043952,0.268257,0.981381,-0.181791,-0.061998
0.289162,0.394803,0.585813,-0.377846,0.921876,0.085885
0.212445,0.320504,0.582962,0.829561,-0.457426,0.320297
0.062770,0.175676,0.583730,0.237753,-0.882813,-0.405110
-0.236388,-0.144614,0.434722,-0.087305,0.893285,0.440931
-0.171340,-0.062959,0.526939,0.735721,0.469223,0.488411
-0.198627,-0.083333,0.557209,-0.166277,-0.872309,-0.459814
0.113582,0.271197,0.811150,-0.287585,0.925914,0.244903
-0.227095,-0.094805,0.635973,0.328666,0.454318,-0.827994
-0.222352,-0.078882,0.688120,-0.000321,-0.961473,0.274900
-0.210290,-0.055937,0.744077,-0.304548,0.506674,-0.806556
-0.094026,0.082037,0.865891,0.340677,0.445233,-0.828074
-0.223933,-0.042584,0.873867,0.127009,0.064994,0.989770
-0.283448,-0.098055,0.882964,0.491050,-0.192495,0.849597
-0.356412,-0.169439,0.881875,0.749104,-0.511399,0.421088
-0.417899,-0.226791,0.889947,0.715728,-0.664447,0.215044
-0.482162,-0.288417,0.895392,-0.749217,0.558101,-0.356647
-0.211871,-0.382914,0.415632,-0.412621,0.877894,-0.242993
-0.063379,-0.195634,0.614865,-0.633074,0.769265,0.086305
-0.196056,-0.332416,0.576075,-0.689492,0.684041,0.238095
-0.073860,-0.166012,0.797249,0.321728,0.937486,-0.132704
-0.189726,-0.283454,0.771112,0.732353,-0.273317,-0.623664
-0.057055,-0.126297,0.902663,0.987831,-0.042241,0.149683
-0.132385,-0.199050,0.901926,0.859635,0.250072,-0.445524
-0.246869,-0.316492,0.874636,0.115143,0.953547,0.278369
0.062172,-0.242026,-0.156153,0.909141,-0.415642,0.026533
0.099740,-0.186732,-0.069670,-0.718938,-0.689342,-0.089082
0.041807,-0.239800,-0.053494,0.958648,0.258022,-0.120079
0.597811,0.410382,0.452916,-0.027373,0.461890,0.886515
0.079375,-0.173034,0.084015,-0.616164,-0.782698,0.087897
0.493216,0.304925,0.432961,-0.852239,-0.151415,-0.500762
-0.096005,-0.357576,0.016526,0.850002,-0.526447,-0.018719
-0.116961,-0.369728,0.055892,-0.848089,0.524046,-0.078231
0.008589,-0.192896,0.308008,-0.677088,-0.730584,-0.088308
-0.100555,-0.304508,0.284369,0.858360,-0.357095,0.368376
0.374973,0.239193,0.658395,0.932025,-0.181503,-0.313665
-0.124480,-0.319397,0.319411,-0.126141,-0.405003,0.905572
0.310908,0.178936,0.665730,0.963102,-0.268386,-0.020101
0.265038,0.137842,0.683090,0.968213,-0.249758,-0.013563
0.809378,0.361765,0.454229,-0.705054,-0.678925,0.204840
0.456439,-0.026671,0.256021,0.306787,-0.951763,0.005329
0.682632,0.243299,0.472135,-0.416427,0.898908,-0.136209
0.407798,-0.019137,0.488791,-0.432068,0.843025,-0.320351
0.455841,0.070229,0.674442,0.644110,0.682990,0.344452
-0.000112,-0.408252,0.516978,-0.603133,0.487714,0.631162
0.186348,-0.187244,0.690458,0.902434,-0.229748,0.364456
0.033903,-0.347472,0.637799,0.219441,0.975618,0.003811
-0.012366,-0.376237,0.706089,0.921442,0.388252,-0.014347
-0.287599,-0.640042,0.719382,0.415422,-0.737968,0.531816
0.775961,0.076906,0.455382,0.082933,0.139281,0.986774
0.671560,-0.016911,0.487061,0.488902,0.503098,0.712648
0.273739,-0.382224,0.573705,0.440146,0.883121,-0.162385
0.305575,-0.297319,0.792380,-0.222075,0.787752,0.574568
0.219958,-0.383259,0.782547,0.978738,-0.204798,0.011410
0.153522,-0.446420,0.787736,0.876500,-0.413015,0.247320
0.063560,-0.536298,0.776173,0.009268,0.505595,0.862721
-0.052705,-0.655955,0.749779,0.266835,-0.791565,-0.549749
0.627469,-0.335321,0.537125,0.436059,-0.852472,0.288348
0.554511,-0.406705,0.536869,0.734947,-0.596703,0.322177
0.598602,-0.330358,0.525690,0.677211,0.629478,-0.380976
0.326929,-0.628225,0.757883,0.763386,0.615817,0.194965
0.663455,-0.038477,0.491417,-0.220116,0.552044,0.804236
0.457820,-0.240479,0.455350,-0.651409,0.741847,0.159154
0.553720,-0.160025,0.558362,-0.094708,-0.991174,-0.092761
0.539087,-0.179878,0.595134,-0.269972,0.748818,-0.605299
0.304585,-0.415440,0.586902,0.808375,-0.385702,-0.444707
0.281251,-0.443682,0.615826,-0.719996,0.653196,-0.234394
0.309527,-0.443515,0.805577,0.833544,0.103737,0.542626
0.218177,-0.534585,0.795103,0.573804,0.633396,-0.519190
0.183578,-0.320599,0.097628,-0.764085,-0.589535,-0.261958
0.145219,-0.364086,0.120691,0.904553,0.227150,0.360815
0.621736,0.051056,0.464031,0.947399,0.316866,-0.045078
0.337211,-0.228495,0.426555,0.078547,0.996547,-0.026906
0.415510,-0.175771,0.562910,-0.355016,-0.847990,-0.393544
0.551940,-0.061934,0.688023,0.923795,0.101999,0.369051
0.252976,-0.386675,0.809069,-0.371524,-0.101958,0.922808
0.117933,-0.516614,0.773834,0.122234,0.157750,0.979885
-0.008614,-0.638663,0.743853,0.947069,0.007489,0.320943
0.207105,-0.278825,0.112747,0.916529,0.068623,0.394037
0.143240,-0.345246,0.119537,0.823959,0.474116,0.310333
0.626478,0.068860,0.465056,0.971894,0.202491,-0.120078
-0.169361,-0.640554,0.022580,0.970543,-0.239857,0.022695
0.380711,-0.176461,0.451058,-0.432561,0.161421,0.887037
0.539877,-0.045666,0.592123,-0.448136,0.483211,-0.752118
0.526826,-0.075633,0.669349,-0.345925,-0.936200,0.062174
-0.142275,-0.715533,0.495773,-0.497591,0.396079,-0.771703
0.251395,-0.383771,0.804392,0.872712,0.308733,-0.378230
0.134147,-0.497095,0.779504,0.216226,-0.966682,0.137014
0.014720,-0.612301,0.751573,0.769215,-0.441814,-0.461637
0.124256,-0.256236,-0.023353,0.965433,-0.246943,0.083413
0.522675,0.062863,0.320756,0.658863,0.644812,-0.387448
0.688563,0.194170,0.469380,0.330695,-0.931594,0.150910
0.601564,0.107886,0.459995,0.997071,0.065484,0.039517
-0.186166,-0.583369,0.025559,0.970543,-0.239857,0.022695
0.363109,-0.130749,0.448752,0.163423,-0.984354,0.065876
0.500132,-0.044987,0.663359,-0.403888,-0.845061,0.350351
-0.121511,-0.638151,0.514351,-0.488634,0.454483,-0.744770
0.202754,-0.365788,0.742508,0.932332,0.001803,-0.361600
0.248825,-0.336178,0.810286,0.948349,-0.233590,-0.214638
0.145811,-0.436494,0.791900,0.839802,-0.417402,-0.347143
0.003648,-0.570194,0.751765,0.927272,-0.106229,-0.359002
-0.065159,-0.640376,0.754808,0.946799,-0.300108,-0.116218
0.060592,-0.153171,-0.183988,0.849393,0.133329,0.510642
0.028762,-0.194599,-0.153078,0.854026,-0.135951,0.502152
0.053477,-0.187066,-0.089593,0.547885,0.823097,-0.149445
0.054859,-0.199050,-0.041130,0.930155,0.274706,-0.243614
-0.011776,-0.269411,-0.033154,-0.642724,0.556816,0.526177
0.643881,0.256652,0.460667,0.639103,0.755970,0.141623
-0.182214,-0.453954,0.006308,0.974480,-0.212382,0.072687
0.358759,-0.071348,0.596447,0.375599,-0.536917,0.755411
0.320799,-0.115682,0.617715,0.797003,-0.230451,0.558281
-0.012765,-0.424165,0.510315,-0.422456,0.614125,0.666619
0.147198,-0.322991,0.725948,-0.671770,-0.524500,0.523092
0.207895,-0.282085,0.801445,0.999566,0.022468,-0.019038
-0.005445,-0.476898,0.722841,-0.425751,0.791542,0.438403
-0.030952,-0.510271,0.750099,-0.425648,0.675394,-0.602218
-0.120329,-0.598436,0.739817,0.375098,0.149460,-0.914857
0.616396,0.213855,0.420212,0.652119,0.577894,-0.490693
-0.104706,-0.388222,-0.017171,-0.534891,-0.665539,-0.520528
