0.067664,-0.062560,0.071752,0.710949,-0.674735,0.198203
0.074271,-0.061132,0.108947,-0.333412,0.932847,0.136504
0.080593,-0.058791,0.146174,-0.299152,0.953571,-0.034787
0.048848,-0.116382,0.194624,0.764184,-0.409923,-0.497981
0.066945,-0.096228,0.228681,-0.316949,-0.920151,-0.229924
0.075134,-0.092721,0.266587,-0.738195,-0.658405,-0.146870
0.049422,-0.139783,0.313096,0.798505,-0.306181,-0.518308
0.060193,-0.130943,0.350355,0.101950,0.977189,0.186299
0.058760,-0.141600,0.388811,-0.553639,0.242010,0.796816
0.024135,-0.219219,0.513008,0.169169,-0.688247,0.705477
0.100562,-0.109884,0.533546,0.684071,0.694335,0.223485
0.086770,-0.140044,0.576433,-0.467549,0.108697,-0.877259
0.141650,-0.063862,0.602275,0.903730,0.411313,-0.118721
0.202273,0.021558,0.625239,0.968329,0.083713,-0.235225
0.214053,0.007640,0.775343,0.469978,0.300130,0.830086
0.190059,-0.037470,0.819782,0.144558,-0.970017,-0.195373
0.220375,0.001141,0.851510,-0.578464,-0.241931,0.779005
0.017672,-0.232343,-0.985735,-0.425893,0.003387,0.904767
0.185464,0.017003,-0.991460,-0.053070,0.303017,0.951506
0.112487,-0.219734,-0.302586,0.846385,-0.276159,0.455377
0.108177,-0.233391,-0.261607,0.233126,-0.946685,-0.222349
0.130010,-0.208427,-0.225998,0.466671,0.879916,0.089251
0.131593,-0.214148,-0.186765,-0.617028,-0.786247,0.033067
0.164776,-0.178917,-0.113573,0.769209,0.610297,-0.189355
0.162334,-0.190098,-0.071915,0.711893,0.560134,-0.423625
-0.213619,0.535986,0.634068,0.453314,-0.883405,-0.118749
-0.177270,0.559386,0.743582,-0.251326,0.900916,0.353817
-0.317337,0.178732,0.358020,-0.648759,-0.759061,0.054202
-0.392901,0.009981,0.572390,0.386818,0.920030,-0.062589
-0.140781,0.377772,0.589079,-0.274362,-0.105371,0.955836
0.081312,0.680290,0.690183,0.606025,0.781045,-0.150676
-0.209883,0.061208,0.310120,0.252723,0.917082,0.308371
0.103004,0.494907,0.427526,0.115271,-0.993321,-0.005090
-0.092802,0.183541,0.515337,0.736689,0.560354,0.378541
-0.236600,-0.066853,0.667220,0.011717,0.980617,0.195583
-0.172386,0.023113,0.689278,0.930607,0.149134,0.334260
-0.083608,0.150651,0.706905,-0.669123,0.742499,-0.031128
-0.798016,0.196935,0.482024,0.655215,-0.671641,0.345822
-0.322510,0.649614,0.700759,-0.407910,0.828280,0.384136
-0.273523,0.607360,0.777703,0.256540,-0.966108,0.028669
-0.151128,0.725924,0.719712,-0.495474,0.529201,0.688805
-0.239331,0.631538,0.708101,0.579234,-0.633184,-0.513387
-0.321217,0.543270,0.695229,0.843264,-0.486415,-0.228706
-0.384857,0.473839,0.679542,0.775383,-0.576315,0.258150
-0.243067,0.612041,0.617767,-0.715390,0.277593,-0.641217
-0.066081,0.767526,0.710074,0.911693,0.128740,-0.390182
-0.164197,0.662999,0.700630,-0.315581,-0.435865,0.842871
-0.201979,0.619707,0.679090,-0.057240,0.069098,-0.995966
-0.363164,0.451352,0.683941,-0.519784,0.833933,-0.185417
-0.263465,0.547428,0.630284,0.616026,0.784678,0.069222
-0.035050,0.581881,0.433606,0.821168,-0.038955,0.569355
-0.131158,0.475926,0.392951,-0.189785,0.981391,-0.029206
-0.242063,0.250496,0.851866,0.160180,0.404078,0.900591
-0.179572,0.309000,0.807200,-0.690676,0.596732,-0.408507
-0.271081,0.211623,0.797853,-0.635994,0.398166,0.661041
-0.204565,0.274158,0.752120,0.971166,-0.235291,0.038392
-0.283290,0.189651,0.738666,0.031974,0.860849,0.507856
-0.239046,0.230341,0.697622,-0.494830,0.838084,0.229693
-0.355983,0.107231,0.694064,0.473353,0.573416,0.668679
-0.292199,0.167941,0.649593,0.118547,0.967076,0.225188
0.020259,0.468904,0.484967,0.991442,0.062997,0.114340
0.075424,0.495946,0.283179,-0.428664,0.638384,-0.639306
-0.063495,0.345397,0.251191,-0.059359,-0.991695,0.114096
-0.195946,0.206552,0.250415,-0.721101,-0.238970,-0.650313
-0.199107,0.150127,0.849570,0.205425,-0.412076,0.887690
0.015660,0.362425,0.771203,0.340727,0.936690,0.080725
0.140212,0.483853,0.713729,-0.589777,0.783826,-0.194373
0.049562,0.386873,0.703961,0.604260,0.235810,-0.761094
0.016379,0.348650,0.680383,0.276941,-0.937213,0.211979
-0.066511,0.260502,0.669128,0.513498,-0.807262,0.290945
-0.386005,-0.067630,0.710074,0.470765,-0.882223,-0.007996
-0.311160,0.003871,0.662045,0.949495,-0.284766,-0.131787
-0.288174,0.021296,0.625756,0.982358,-0.144024,-0.119287
-0.204565,0.100860,0.576239,-0.390074,0.836158,-0.385593
-0.114779,0.136479,0.209728,0.980205,0.196671,0.022788
-0.037203,0.209544,0.158496,-0.706742,0.623730,-0.333881
-0.106590,0.046648,0.292946,0.993493,0.107851,-0.036598
-0.121246,0.026620,0.265487,0.096242,-0.994222,-0.047536
-0.150120,-0.007309,0.241456,-0.092785,0.814160,-0.573179
-0.093232,0.044823,0.195367,0.942144,-0.306681,0.135322
-0.072832,0.060947,0.158949,0.690137,-0.688941,0.221518
-0.053297,0.075372,0.121528,0.947523,0.182645,0.262375
-0.160462,-0.043445,0.081585,0.062563,-0.997994,0.009659
0.221379,0.458374,0.718063,-0.353440,-0.418100,-0.836823
-0.200111,0.021685,0.749889,0.893940,0.329372,0.303950
-0.108747,0.109310,0.699563,0.868289,-0.039178,-0.494509
-0.092802,0.111254,0.604604,0.294542,0.236506,0.925910
-0.050566,0.148699,0.563140,-0.711895,-0.295326,-0.637172
-0.162903,0.029874,0.557415,0.325672,-0.262725,0.908248
-0.124262,0.058868,0.486390,0.438709,-0.890036,-0.123981
-0.158594,0.019995,0.463685,-0.222897,-0.971200,-0.084187
-0.128572,0.045997,0.425068,0.858261,0.512338,0.029980
-0.136901,0.031691,0.396476,0.898018,0.384658,-0.213547
-0.108318,0.055488,0.357665,0.999263,0.013453,0.035941
-0.139922,0.018305,0.333084,0.916818,-0.396252,0.049282
-0.054586,0.057955,0.962447,0.192400,0.943931,0.268283
-0.097686,0.009854,0.941197,-0.753840,-0.154419,-0.638655
-0.060623,0.042093,0.902580,0.660193,0.308726,0.684714
0.014801,0.113857,0.855262,0.240907,-0.914049,-0.326311
-0.069527,0.022852,0.844395,0.280938,0.864380,-0.417039
-0.051715,0.035857,0.810952,-0.547719,-0.832941,0.078823
-0.059475,0.022724,0.781811,0.836652,-0.496221,0.231902
-0.064788,0.012322,0.753317,0.061045,0.993473,0.096356
-0.106734,-0.034478,0.731550,-0.310943,0.834630,0.454650
-0.034621,0.032992,0.684232,0.548746,0.777344,0.307595
-0.094810,-0.032399,0.666638,-0.725987,0.661387,-0.188442
-0.002152,0.055226,0.615633,0.269276,-0.960943,0.063862
-0.130295,-0.079073,0.615180,-0.447624,0.242785,-0.860632
-0.302396,-0.258084,0.623460,0.940245,0.210009,0.268020
-0.060763,-0.019394,0.537686,-0.540595,-0.423329,-0.727014
-0.034187,0.002181,0.499942,0.366615,-0.927312,-0.075400
-0.007470,0.019733,0.429790,0.806489,0.415636,0.420502
-0.653210,-0.642514,0.520803,-0.743124,-0.627322,-0.232881
-0.542451,-0.536170,0.463168,0.302391,-0.816877,-0.491194
-0.076423,-0.071527,0.321958,0.807299,-0.578504,-0.116628
-0.366614,-0.369371,0.359088,0.011297,0.915503,0.402152
-0.309148,-0.317112,0.313355,0.964553,-0.050012,0.259106
-0.104723,-0.116510,0.232012,0.815305,-0.386282,0.431351
-0.075564,-0.091681,0.193621,-0.764527,0.143434,-0.628431
0.049852,0.029485,0.131846,0.094548,0.490650,0.866212
-0.021692,-0.047476,0.116515,0.939015,-0.330058,-0.096500
-0.009048,-0.040715,0.082005,0.759920,-0.598933,0.252591
-0.003735,-0.041112,0.047883,0.328719,0.890106,-0.315682
-0.004883,-0.047738,0.015087,0.863611,0.454267,-0.218671
-0.026287,-0.074907,-0.012631,-0.281983,-0.959135,0.023339
-0.011201,-0.064250,-0.048434,0.398437,0.896026,-0.195922
-0.006462,-0.064766,-0.081618,-0.696456,-0.662729,0.275206
-0.023126,-0.086610,-0.110824,0.902402,0.410200,-0.131932
-0.064358,-0.161881,-0.298414,-0.559770,0.818168,-0.131373
0.190493,-0.009126,-0.988096,-0.009115,0.001804,0.999957
0.046836,-0.158890,-0.984312,0.057325,-0.046618,0.997267
0.048703,-0.275382,-0.729772,0.952607,0.134201,0.273000
0.058471,-0.272518,-0.766385,0.988817,-0.081866,0.124652
0.258871,-0.084270,-0.891099,0.833765,0.238875,0.497769
0.253269,-0.102211,-0.960184,-0.734941,0.673907,0.075576
0.183882,-0.178005,-0.977003,-0.318587,0.427953,0.845789
0.024854,-0.343114,-0.969176,-0.778282,0.448127,-0.439840
-0.031171,-0.405253,-0.988258,-0.201390,0.039192,0.978727
-0.188620,-0.568672,-0.978684,-0.129016,0.041823,0.990760
0.031605,-0.001850,0.950545,0.943314,0.134249,0.303539
0.062062,0.024287,0.913641,0.409573,-0.702154,-0.582434
0.035200,-0.008999,0.888964,0.522918,0.781616,0.340049
0.066226,0.011671,0.821949,-0.566361,-0.407780,0.716206
0.056748,-0.003143,0.794360,0.226784,-0.895982,-0.381818
0.139923,0.075245,0.744940,-0.262887,-0.690938,0.673421
0.197100,0.128155,0.702280,0.978743,0.190784,-0.075254
0.158599,0.084609,0.679704,-0.839782,0.233840,0.489985
0.095104,0.014401,0.662821,-0.342603,-0.562103,-0.752770
0.019685,-0.078033,0.588465,0.843640,-0.524652,0.114065
-0.435567,-0.542407,0.661786,0.346259,-0.933324,0.094925
-0.465449,-0.576988,0.638758,-0.169731,0.652035,0.738946
-0.383133,-0.499765,0.588173,-0.239515,-0.970726,-0.017971
-0.010627,-0.129380,0.469960,0.614049,0.728677,0.303271
-0.579799,-0.709080,0.571420,-0.347078,0.819472,0.456074
-0.541443,-0.675793,0.532382,-0.328260,0.931892,-0.154345
-0.100273,-0.236898,0.397867,0.789129,0.571229,0.225771
0.029023,-0.162405,0.047560,-0.524326,-0.641071,-0.560455
0.100992,-0.105980,-0.068196,0.321712,0.938207,-0.127554
0.258012,-0.038771,0.757942,-0.641956,0.740623,-0.198420
0.260599,-0.041627,0.726472,-0.114905,-0.045108,0.992352
0.317342,0.008688,0.684038,0.959922,-0.280248,0.003245
0.160326,-0.155255,0.687952,-0.414509,-0.148389,0.897866
0.144232,-0.177616,0.660492,-0.257244,-0.911098,0.322063
0.006178,-0.322444,0.660622,0.825953,0.109419,-0.553018
0.350525,0.012060,0.521709,0.759053,0.042942,-0.649611
-0.081881,-0.446593,0.496837,0.860507,-0.473924,-0.186879
0.114065,-0.318016,0.103837,0.813794,0.513181,-0.272736
0.489443,-0.133284,-0.970469,0.343684,0.122510,-0.931060
0.311594,-0.316977,-0.957144,0.421120,0.095243,0.901991
0.195377,-0.439706,-0.960766,0.291223,0.599262,-0.745704
0.083899,-0.557356,-0.965553,-0.140490,0.111140,0.983824
-0.034332,-0.681125,-0.966944,-0.117745,0.008677,-0.993006
0.079734,-0.520832,0.584034,0.149499,0.967416,0.204343
0.095823,-0.511731,0.549038,-0.704571,0.555737,0.441290
0.742138,0.071604,0.114025,0.525155,0.541171,-0.656769
0.689415,0.011933,0.093972,-0.706210,-0.444661,0.550949
0.457120,-0.458686,-0.956691,0.205450,-0.186252,0.960781
0.329267,-0.591945,-0.957338,-0.341998,-0.126624,0.931130
0.183452,-0.744049,-0.952487,-0.095178,0.314054,0.944622
0.385720,-0.515238,-0.956626,-0.305366,0.533733,0.788594
0.246806,-0.661232,-0.953554,-0.404159,0.499878,-0.766014
0.103868,-0.811393,-0.949058,-0.118610,0.264596,0.957038
0.601925,-0.193994,-0.966588,0.335473,-0.095450,-0.937202
0.471056,-0.331672,-0.966103,0.206999,-0.122459,-0.970647
0.311310,-0.499511,-0.957241,0.089870,0.338110,0.936806
0.194947,-0.621844,-0.960572,-0.052096,0.050862,0.997346
0.052868,-0.771218,-0.954880,-0.163583,0.327146,0.930707
0.470048,-0.166697,-0.973704,0.272497,0.010098,-0.962104
0.286027,-0.361182,-0.957694,-0.167339,-0.125002,-0.977943
0.185609,-0.466613,-0.964389,0.129714,-0.103946,-0.986088
0.066660,-0.591548,-0.965456,0.010640,0.084863,0.996336
-0.060049,-0.724680,-0.965747,-0.034785,0.332822,0.942348
0.266487,-0.402912,0.586653,0.162567,0.785055,0.597713
0.152711,-0.381725,0.670519,-0.191515,0.934597,-0.299752
0.489588,-0.021481,0.559388,0.861176,-0.290665,-0.417001
0.042671,-0.492354,0.569285,-0.093464,0.942394,0.321182
0.021552,-0.513421,0.543120,-0.315242,0.906800,0.279886
0.413305,-0.073613,0.016122,0.442782,0.679826,-0.584620
0.160900,-0.292148,-0.900964,-0.108257,0.993319,-0.039964
0.166503,-0.284476,-0.938644,0.935221,0.351869,-0.039354
0.010487,-0.445292,-0.966912,-0.290359,-0.018540,0.956738
-0.076138,-0.536559,-0.977423,-0.367506,0.168021,0.914718
0.176701,-0.162016,-0.046267,-0.203135,0.439492,0.874976
0.050426,-0.240928,-0.643481,0.651211,0.608297,-0.453762
0.222672,-0.029932,-0.987708,0.068556,0.196247,0.978155
0.083035,-0.176965,-0.983115,0.289835,-0.251578,-0.923420
-0.055739,-0.322833,-0.980010,-0.109961,0.159816,0.981003
-0.169225,-0.440745,-0.984441,0.060757,0.027158,0.997783
0.263755,-0.139521,0.723238,0.808349,0.032607,0.587800
0.240340,-0.161754,0.696296,0.785243,-0.105464,-0.610141
0.075279,-0.335830,0.704479,-0.729353,0.629069,-0.268918
0.320358,-0.064123,0.547809,-0.056063,0.998425,-0.002060
0.293352,-0.086872,0.490918,0.434331,-0.272154,-0.858655
-0.028009,-0.426447,0.505052,0.840084,-0.436731,-0.321752
0.001293,-0.392120,0.464817,-0.093681,0.947428,0.305949
0.144377,-0.173450,0.843425,0.920731,-0.334925,0.200197
0.382275,0.090330,0.725534,0.772086,-0.496292,-0.396961
0.233444,-0.065940,0.727863,0.626004,0.112087,-0.771723
0.288324,-0.002239,0.683456,0.734055,-0.652039,0.189760
0.137196,-0.160715,0.686852,0.501039,0.231454,-0.833900
0.130444,-0.164746,0.655835,0.715962,-0.687950,0.118840
-0.018532,-0.321531,0.658972,0.786460,-0.046482,-0.615889
0.289328,0.022201,0.488169,0.837536,0.141492,-0.527743
0.310875,0.049893,0.450845,0.288409,-0.950507,-0.115575
0.016809,-0.255101,0.423289,0.861081,-0.503739,-0.069181
0.038071,-0.187368,0.052541,0.659082,0.656671,0.366597
0.079734,-0.128991,-0.062439,0.256733,0.966459,-0.006739
-0.007755,-0.184892,-0.350939,0.627447,0.733338,-0.261773
-0.024274,-0.189836,-0.453207,0.912273,-0.146629,-0.382438
-0.022841,-0.183988,-0.489917,0.641413,0.700867,0.312049
-0.038641,-0.122881,-0.299772,-0.403050,0.079601,0.911710
-0.076138,-0.153176,-0.359995,0.988764,0.068114,-0.133067
0.213189,-0.038120,0.871078,0.360753,0.926633,-0.105873
0.295934,0.070953,0.725437,0.159779,0.746401,0.646031
0.307000,0.092925,0.657193,-0.529741,-0.251673,-0.809960
0.104153,-0.122103,0.673042,0.966698,0.255455,-0.015422
0.144092,-0.073351,0.631772,-0.705110,0.036946,0.708135
-0.032319,-0.259909,0.642833,0.182720,0.332693,0.925164
0.218507,0.026755,0.483770,0.524322,0.715480,-0.461709
-0.199681,-0.406943,0.456376,-0.616749,0.646815,0.448609
0.027585,-0.103639,0.029189,0.635571,0.675644,0.373570
0.035630,-0.079723,-0.074826,-0.160321,0.980810,0.110943
0.017528,-0.093887,-0.105552,-0.672255,-0.721497,0.165875
-0.043959,-0.133800,-0.263936,0.974334,0.224721,0.013195
0.077432,-0.174498,0.789670,-0.687734,-0.607401,-0.397600
0.236175,0.004395,0.719357,-0.420403,0.027148,-0.906931
0.222243,-0.005881,0.691218,-0.136855,0.569437,-0.810563
0.138344,-0.086222,0.646844,-0.697788,0.010406,0.716229
0.050137,-0.176442,0.636429,0.286046,-0.948736,-0.134451
-0.107454,-0.341678,0.641701,-0.278235,-0.138477,0.950479
-0.244504,-0.478706,0.609423,0.863845,-0.478135,-0.158618
0.115648,-0.075946,0.456667,0.541161,0.129258,-0.830925
-0.078865,-0.270828,0.405662,0.936492,0.309772,-0.164390
0.040943,-0.066980,-0.031907,-0.742626,-0.425946,-0.516795
0.002587,-0.103774,-0.055420,-0.193055,-0.765676,0.613572
0.006322,-0.093633,-0.091709,-0.543855,-0.819017,0.182845
-0.002297,-0.096751,-0.124829,0.989929,0.137939,-0.031828
0.009338,-0.077898,-0.163511,0.800543,-0.078271,-0.594142
-0.017957,-0.101044,-0.190582,-0.413553,0.421660,0.806955
-0.042091,-0.121453,-0.218235,0.781574,0.321183,-0.534775
-0.103144,-0.169554,-0.307858,-0.170565,0.818364,-0.548806
0.001009,-0.126650,-0.307890,0.964238,-0.188632,-0.186180
-0.027150,-0.145242,-0.371444,0.959857,-0.147016,0.238875
-0.057891,-0.159024,-0.471158,0.660637,0.708717,-0.247547
0.325242,0.011806,0.759624,0.800186,-0.590544,0.104689
0.346790,0.042093,0.721491,-0.436532,-0.138979,-0.888889
0.230287,-0.078033,0.717546,-0.331869,-0.393794,0.857199
0.201265,-0.104424,0.691703,0.555493,0.344411,-0.756841
0.200116,-0.099743,0.658908,-0.488279,-0.301907,0.818801
0.002732,-0.308788,0.673753,0.798644,0.020292,-0.601462
-0.045252,-0.355334,0.653700,-0.702125,-0.103384,0.704509
-0.297657,-0.593889,0.520156,0.030552,0.719680,0.693633
0.043245,-0.216092,0.402524,-0.131812,0.886496,0.443566
0.063069,-0.104940,-0.078804,-0.690235,-0.716946,0.097797
0.026002,-0.106503,-0.280043,0.922249,-0.370042,-0.111913
0.090360,-0.293965,0.106424,0.813794,0.513181,-0.272736
0.154723,-0.198548,-0.046558,0.151990,0.522276,0.839122
0.065367,-0.199064,-0.555961,-0.783485,-0.144371,0.604407
0.063499,-0.193478,-0.592703,0.767978,-0.286761,0.572694
0.259161,0.081744,-0.985347,-0.257890,0.066325,0.963895
0.138918,-0.042667,-0.986835,0.013064,0.156809,0.987542
0.288179,-0.193081,0.690216,0.841761,0.468380,0.268437
0.116941,-0.368332,0.667090,-0.123079,-0.937081,0.326697
-0.044818,-0.532402,0.640181,0.785510,0.576044,0.226155
-0.001433,-0.478579,0.596356,0.826705,0.515058,-0.226437
0.059619,-0.406427,0.549362,-0.906834,0.407120,0.109117
0.039510,-0.422027,0.522323,-0.644195,0.653551,0.397346
-0.000430,-0.459852,0.498713,-0.591045,0.555640,0.584748
0.362739,-0.173324,-0.954815,-0.541531,-0.011131,-0.840607
0.243790,-0.296703,-0.958050,0.097853,0.811805,0.575672
0.126709,-0.417607,-0.960152,0.611089,0.426737,-0.666682
0.030746,-0.517055,-0.968270,0.450414,-0.532057,-0.716968
-0.089067,-0.641339,-0.970696,-0.221365,0.190986,0.956307
-0.244360,-0.123920,-0.142455,0.067401,0.813610,0.577491
-0.142364,-0.027329,-0.040316,-0.241855,-0.968164,0.064541
-0.142649,-0.047087,0.001148,-0.389983,-0.920517,0.023708
-0.044818,0.019471,-0.149830,0.825050,-0.559820,-0.076779
-0.071969,-0.063726,-0.050698,-0.409045,-0.850469,0.330735
-0.027869,-0.008738,-0.036467,-0.254956,0.846663,0.467075
-0.038786,-0.045532,0.009363,0.933387,0.357928,0.026010
-0.014222,-0.023298,0.036304,0.054171,-0.277406,0.959224
-0.007755,-0.030059,0.071494,0.977275,-0.053838,-0.205026
-0.015800,-0.061386,0.116030,0.872323,-0.477183,-0.106536
-0.031315,-0.106503,0.165062,0.494163,-0.866349,-0.072400
0.018391,-0.041755,0.176932,0.870078,-0.482374,-0.101384
-0.031315,-0.097267,-0.196016,-0.189090,0.539216,0.820665
-0.018387,-0.095577,-0.161279,0.754023,-0.288156,-0.590268
-0.015370,-0.108709,-0.122629,0.805669,0.556649,-0.202580
0.008619,-0.086610,-0.096625,0.595208,0.757793,-0.267353
0.019395,-0.087135,-0.061339,0.812704,0.582450,-0.016239
0.032613,-0.083881,-0.029029,0.561073,0.825491,-0.061329
0.044393,-0.083881,0.005352,0.492431,0.847792,-0.196877
0.046401,-0.098704,0.045069,0.912939,0.301527,-0.274996
0.204285,0.090980,0.114542,-0.155692,-0.735821,0.659036
0.244075,0.139860,0.130875,0.700260,-0.305720,-0.645113
-0.001148,-0.124056,-0.335608,0.809617,0.151679,0.567022
-0.001723,-0.144726,-0.292010,0.796343,0.578505,-0.176553
0.003161,-0.156557,-0.251904,0.990740,0.107611,-0.082785
0.019685,-0.149146,-0.218785,-0.258263,0.930151,-0.260997
0.027440,-0.154216,-0.182755,-0.233529,0.950986,0.202707
0.046261,-0.141996,-0.153096,-0.561299,0.819352,0.116642
0.048558,-0.156945,-0.112538,0.793753,0.555454,-0.247843
0.076283,-0.128602,-0.088766,0.727900,0.592684,-0.344800
0.016090,-0.167602,-0.504115,-0.730276,-0.629131,-0.266253
0.017098,-0.184114,-0.462490,-0.765686,-0.552855,0.328751
0.027155,-0.188662,-0.424196,-0.697779,-0.716313,0.000145
0.044534,-0.179171,-0.392402,0.914921,0.365954,-0.170286
0.044249,-0.199326,-0.348578,0.728543,0.598111,-0.333899
0.052868,-0.204658,-0.310413,-0.467152,-0.882663,-0.051722
0.183167,-0.139259,-0.053512,-0.272305,0.452448,0.849200
0.115358,-0.306971,0.105130,0.813794,0.513181,-0.272736
0.030746,-0.196334,-0.622782,-0.360171,-0.883313,0.300059
0.026436,-0.224154,-0.576499,0.834042,0.549829,0.045410
0.037642,-0.225844,-0.539854,-0.590542,-0.798596,-0.116210
0.052293,-0.221298,-0.504245,0.359817,0.931329,0.056201
0.059334,-0.228709,-0.465983,-0.033975,-0.970633,0.238155
0.080882,-0.212196,-0.434933,0.907283,-0.350957,-0.231663
0.091224,-0.215449,-0.397222,0.744032,0.668140,-0.002371
0.203707,-0.219084,-0.045685,-0.668013,0.382395,0.638383
0.249393,-0.161366,-0.030743,-0.718937,0.395660,0.571475
-0.116936,-0.373663,-0.983989,0.093393,0.074063,0.992871
-0.042665,-0.269399,-0.984700,0.107062,0.175956,0.978559
0.032180,-0.162270,-0.987837,0.318295,-0.251164,-0.914114
0.033907,-0.287205,-0.709720,0.932333,0.358431,-0.047775
0.056748,-0.268486,-0.680417,0.973127,0.229156,-0.022632
0.068813,-0.268749,-0.643902,0.959588,0.278863,-0.037756
0.088638,-0.256394,-0.610750,0.784545,0.610548,0.108259
0.095964,-0.263805,-0.572068,0.930520,0.300789,-0.208945
0.104442,-0.270312,-0.532318,0.255411,-0.924206,0.283915
-0.168077,-0.534092,-0.977876,-0.151018,0.344422,0.926589
-0.096248,-0.431771,-0.979752,-0.259533,0.173832,0.949960
-0.022696,-0.327768,-0.981822,-0.229943,0.307075,0.923489
0.052583,-0.221813,-0.983083,-0.425194,0.146733,0.893129
0.125701,-0.117811,-0.984927,-0.148071,0.251475,0.956470
0.204859,-0.004445,-0.988549,0.020726,0.000945,0.999785
0.070825,-0.298647,-0.760725,0.978467,0.097138,0.182119
0.080019,-0.303979,-0.721945,0.936624,0.349157,0.028717
0.089786,-0.308526,-0.681840,0.926695,0.363618,-0.094965
0.108896,-0.296179,-0.650273,0.972596,-0.220355,0.074171
0.120242,-0.298258,-0.611753,-0.661832,-0.734110,-0.151861
-0.124836,-0.591421,-0.979525,-0.254172,0.448992,0.856623
-0.053871,-0.493139,-0.978038,-0.259791,0.240886,0.935138
0.018821,-0.389526,-0.979849,-0.173113,0.295247,0.939607
0.089212,-0.292148,-0.977714,0.265182,-0.316972,-0.910608
0.167507,-0.180996,-0.980787,-0.020465,0.324017,0.945830
0.229134,-0.097791,-0.973057,-0.190633,-0.012870,0.981577
0.107458,-0.326864,-0.848083,0.906701,-0.387417,0.166739
0.110764,-0.341813,-0.804970,0.986312,-0.098922,-0.131919
0.128432,-0.334013,-0.769328,0.939169,-0.323178,0.116262
0.114784,-0.378861,-0.715671,0.900212,0.433462,0.041567
-0.059904,-0.595063,-0.975871,-0.768314,0.624140,0.141926
0.012933,-0.492489,-0.975968,0.229915,-0.199494,-0.952545
0.078440,-0.402912,-0.970987,0.287181,-0.231728,-0.929424
0.152855,-0.297481,-0.971601,-0.253006,0.255389,0.933148
0.161185,-0.305543,-0.930655,0.874152,0.433694,0.218560
0.142224,-0.359230,-0.872502,-0.164268,0.981088,-0.102384
0.702343,-0.021870,0.085725,-0.402835,0.915003,0.022189
0.024279,-0.626914,-0.972086,0.137975,0.057074,-0.988790
0.087059,-0.541757,-0.965359,-0.251521,-0.059169,0.966042
0.160037,-0.438531,-0.967170,-0.380454,-0.363564,0.850339
0.197963,-0.395635,-0.945759,0.315078,0.943879,-0.099085
0.280279,-0.276937,-0.951452,0.992286,-0.076243,0.097747
0.393480,-0.105067,-0.979267,0.025538,0.290057,0.956669
0.915962,0.089941,0.174474,0.142670,-0.978405,0.149564
0.049707,-0.756142,-0.963645,-0.058287,0.463342,0.884261
0.122829,-0.651742,-0.965974,0.308613,-0.149972,-0.939290
0.192216,-0.554762,-0.965618,-0.290090,0.090037,0.952755
0.258157,-0.463757,-0.960928,-0.367482,0.086371,0.926011
0.325386,-0.370672,-0.958761,-0.275644,-0.068807,-0.958794
0.420776,-0.229225,-0.973089,0.239847,-0.655266,-0.716310
0.125990,-0.828421,-0.955850,-0.053152,0.104946,0.993057
0.202703,-0.719348,-0.957855,-0.167152,0.288145,0.942885
0.282147,-0.604292,-0.964130,0.255666,0.009039,-0.966723
0.350959,-0.508351,-0.961316,0.113120,-0.169982,-0.978933
0.428102,-0.399405,-0.963613,-0.053360,0.424327,0.903935
0.509698,-0.282920,-0.968464,-0.030041,0.222005,0.974583
0.182303,-0.592587,0.699433,0.476992,0.801470,-0.360728
0.098120,-0.546700,0.575689,-0.696222,0.603322,0.388944
0.359863,-0.147845,0.509418,-0.621585,0.657942,0.425140
0.442898,-0.063210,0.577565,0.421297,-0.769740,-0.479593
0.074849,-0.366641,0.425650,0.203916,-0.803803,-0.558855
0.088353,-0.360793,0.455147,0.360937,-0.872640,-0.328975
0.084902,-0.384582,0.495381,-0.617144,0.722098,0.312584
0.053157,-0.453878,0.550009,-0.627276,0.642575,-0.440026
0.019540,-0.526418,0.605639,0.525869,0.542927,-0.654746
0.383279,0.057955,0.447158,0.393902,-0.853081,-0.342190
0.392331,0.055615,0.478983,-0.276812,0.959606,0.050316
0.356273,-0.021997,0.536133,0.916138,0.034240,0.399397
0.365900,-0.056450,0.641636,0.762218,0.643396,0.071163
0.352827,-0.094538,0.685267,0.960109,-0.213208,-0.180921
0.389600,-0.050729,0.701600,0.613593,-0.786931,0.065146
-0.025138,-0.377306,0.434997,0.459194,0.791882,0.402572
-0.064069,-0.459210,0.493085,0.860507,-0.473924,-0.186879
0.198393,-0.042929,0.388843,0.802873,-0.255912,0.538427
0.236464,0.003093,0.405338,0.434961,-0.880963,0.186315
-0.083030,-0.541629,0.615083,-0.521941,-0.343385,-0.780810
0.202847,-0.086484,0.499618,0.930607,-0.169383,0.324470
0.054736,-0.365340,0.652019,0.604759,0.747349,-0.275202
0.060338,-0.371973,0.684556,0.563712,-0.825805,0.016563
0.250252,-0.076994,0.621810,-0.707212,0.475920,-0.522831
0.291051,-0.026028,0.636106,0.361969,0.928643,-0.081251
0.265767,-0.084008,0.686076,-0.512208,0.049492,-0.857434
0.266916,-0.099354,0.722268,0.371030,-0.612815,0.697706
0.328977,-0.013935,0.726763,-0.411009,0.886147,-0.214043
0.310301,-0.060997,0.771300,0.817952,-0.572222,0.059289
-0.022552,-0.198025,0.391495,-0.335582,0.584245,0.738947
0.086915,-0.069971,0.445896,-0.519814,-0.171833,0.836820
-0.138484,-0.458948,0.603472,0.464375,0.852788,-0.238974
0.123833,-0.042667,0.500556,0.639876,0.503510,0.580548
0.057607,-0.169031,0.572067,0.667735,0.659930,0.344415
0.062062,-0.178655,0.607482,0.693759,0.320627,-0.644901
0.143228,-0.062560,0.601984,0.903730,0.411313,-0.118721
0.136622,-0.091157,0.642865,-0.815841,-0.028800,0.577558
0.181300,-0.033828,0.655156,-0.299381,-0.100368,0.948840
0.233159,0.035468,0.663500,0.316790,0.135977,-0.938698
0.320358,0.162220,0.654929,0.943501,0.327616,-0.049739
0.243930,0.020121,0.729545,0.411919,-0.182805,-0.892696
0.264474,0.036634,0.755452,0.891568,0.426493,0.152351
0.311020,0.080189,0.804095,0.968163,0.118486,0.220503
-0.138340,-0.131594,0.197502,0.810580,0.086144,0.579257
-0.058036,-0.016148,0.190775,-0.479973,0.439752,-0.759107
-0.049847,-0.020441,0.225899,0.969074,-0.185802,0.162399
-0.044389,-0.030059,0.262414,-0.611030,0.717171,0.335124
-0.037348,-0.036168,0.297701,0.977922,-0.058313,-0.200671
-0.041517,-0.060092,0.337418,0.815561,-0.518240,0.257464
-0.025568,-0.051379,0.366009,0.824549,-0.283516,-0.489629
-0.191207,-0.360270,0.531023,0.309042,0.798270,0.516970
0.060768,0.021812,0.471189,-0.162344,0.967164,-0.195544
0.026721,-0.051507,0.527207,0.330636,0.706302,0.625953
0.035915,-0.053332,0.558418,0.059885,-0.978785,-0.195943
0.063354,-0.025250,0.580023,0.662369,0.581378,-0.472511
0.105446,0.027017,0.595580,0.674049,-0.387776,0.628720
0.125990,0.043919,0.620646,0.819118,0.570129,0.063227
0.168656,0.097217,0.635491,0.923776,0.262408,-0.278890
0.248674,0.212273,0.630802,0.218350,-0.007240,0.975844
0.205574,0.123997,0.689795,-0.711334,0.665577,0.225856
0.204141,0.105795,0.725599,0.964653,0.263245,-0.012115
0.145240,-0.007436,0.790673,-0.326102,-0.909308,0.258488
0.131018,-0.047087,0.833948,0.075835,-0.781287,0.619548
-0.282716,-0.221163,0.282144,0.914337,0.111506,0.389299
-0.375808,-0.393160,0.371540,0.795199,-0.602705,0.066370
0.007330,0.225009,0.198246,0.975413,0.158249,-0.153382
-0.517882,-0.664351,0.525719,0.897404,0.053591,-0.437943
-0.544319,-0.725458,0.577856,-0.439986,-0.206833,-0.873861
-0.078291,0.029485,0.361158,0.993555,-0.089170,0.069987
-0.074985,0.017265,0.397996,0.784776,0.617974,-0.047277
-0.068093,0.011155,0.431277,-0.683352,-0.143781,0.715792
-0.094669,-0.049562,0.482185,0.987196,0.052614,0.150588
-0.055160,-0.001453,0.498874,0.563970,-0.770307,0.297599
-0.043959,-0.000160,0.529180,-0.273382,-0.166854,-0.947324
-0.060623,-0.045008,0.575689,-0.045149,0.689215,0.723148
-0.049562,-0.044492,0.607159,-0.480790,-0.417886,-0.770852
-0.025568,-0.021870,0.631707,0.730059,0.626327,0.273363
-0.024134,-0.036296,0.666541,0.019578,-0.831409,0.555316
0.023705,0.026366,0.676923,-0.483914,0.543753,-0.685682
0.021837,0.005823,0.714635,-0.161497,-0.970383,0.179652
0.001728,-0.043318,0.760077,0.986618,0.134967,-0.091482
-0.018672,-0.093109,0.806651,-0.250343,-0.867511,-0.429830
0.057467,0.014401,0.803804,-0.118909,0.859521,0.497077
0.124412,0.108136,0.805680,-0.658198,0.438172,-0.612194
0.096397,0.046513,0.854292,0.320032,0.180994,0.929958
0.111623,0.055099,0.880975,0.986026,-0.091757,-0.139047
0.109900,0.036118,0.917361,0.475875,-0.635909,-0.607587
-0.642579,-0.719736,0.550073,-0.701801,-0.237938,-0.671462
0.009338,0.345921,0.228551,0.987317,0.041675,0.153191
-0.530671,-0.567497,0.562590,0.758535,0.638362,-0.130841
0.022846,0.350340,0.260312,0.965759,-0.257907,-0.028175
-0.528803,-0.580630,0.597618,0.793784,-0.271397,0.544289
-0.539719,-0.616646,0.640990,0.958639,0.074436,-0.274719
-0.148681,-0.004706,0.506152,-0.290538,0.929745,0.226189
-0.093087,0.054313,0.548780,0.194073,0.956143,0.219377
-0.019824,0.157411,0.547615,-0.706580,-0.235748,-0.667209
0.038356,0.236975,0.552758,-0.276504,-0.436905,0.855955
-0.112338,-0.029146,0.668999,-0.464940,0.076018,-0.882072
-0.084038,-0.000025,0.691057,0.897850,-0.391385,0.201699
0.125416,0.311856,0.654412,0.965626,-0.176287,0.191023
-0.107883,-0.087650,0.809464,0.250492,0.873404,-0.417634
-0.062775,-0.030448,0.822369,0.396179,0.382202,0.834843
-0.071254,-0.060870,0.861181,0.926181,-0.101796,0.363080
-0.018242,-0.006270,0.905458,0.981971,0.138658,-0.128478
-0.004309,0.000491,0.933791,-0.548208,-0.809871,0.208752
0.002442,-0.004706,0.964420,0.547135,0.753701,0.364112
-0.055160,0.356062,0.331014,0.873391,-0.439207,-0.210441
-0.025138,0.387127,0.353945,0.904430,-0.197567,0.378120
-0.085476,0.235673,0.499392,0.547614,-0.113044,-0.829060
-0.235741,-0.030448,0.616635,0.703067,-0.670017,-0.238275
-0.144232,0.104501,0.603763,-0.558056,-0.829800,0.002418
-0.052004,0.239704,0.591084,-0.425571,-0.600755,0.676745
-0.219077,-0.053332,0.715346,-0.405842,-0.475835,-0.780303
-0.154144,0.037674,0.716640,0.861173,0.047857,-0.506054
0.032758,0.311983,0.693127,0.041263,0.996823,-0.068133
0.148401,0.452003,0.740574,0.142509,0.729289,0.669200
-0.022407,0.155332,0.862830,-0.245468,0.218957,0.944353
-0.110759,-0.005095,0.941392,0.793349,-0.030957,0.607980
-0.314751,0.076809,0.474391,-0.560056,0.479254,-0.675761
-0.318919,0.037023,0.548941,0.333049,0.660545,0.672873
0.000434,0.547944,0.416755,0.447420,0.882287,0.146233
-0.371064,-0.083619,0.649787,0.411623,-0.885408,-0.215915
-0.274526,0.058217,0.635976,0.157240,0.433380,-0.887388
-0.227266,0.119316,0.648105,-0.089312,0.641396,-0.761993
-0.187757,0.167029,0.664341,0.819370,-0.558360,0.129873
-0.137620,0.233332,0.673559,-0.651858,0.757899,-0.025889
-0.204421,0.107620,0.743032,0.833259,0.425900,0.352545
-0.112193,0.242823,0.731873,0.827597,-0.480692,0.289860
-0.064069,0.305096,0.742191,-0.625014,-0.281105,0.728243
-0.022552,0.355927,0.757327,0.684180,0.705756,-0.183864
-0.402384,0.190040,0.346474,0.588113,0.755223,0.289414
-0.402669,0.120490,0.495220,0.986079,0.152707,0.065797
-0.477948,-0.022909,0.573360,-0.550764,0.360950,-0.752579
-0.403103,0.083958,0.570805,0.575581,0.817737,-0.003605
-0.231431,0.350991,0.516986,0.976924,0.207306,0.051428
-0.242637,0.314848,0.559097,0.877625,0.315038,0.361284
-0.018532,0.633228,0.551108,-0.637982,0.696173,0.329124
-0.293632,0.161958,0.730677,0.524473,0.708704,-0.471876
-0.314321,0.111127,0.777574,-0.440979,0.834706,0.329854
-0.296653,0.123482,0.804580,0.925476,0.091790,0.367517
-0.210887,0.248155,0.795363,-0.745395,0.654809,0.124945
-0.056454,0.468515,0.787698,0.867204,-0.352250,-0.351961
-0.450653,0.191341,0.377653,0.512811,-0.769575,0.380498
-0.572903,-0.081540,0.593542,0.739938,-0.011104,0.672583
-0.454098,0.098518,0.566018,0.966753,0.005700,0.255647
-0.412152,0.150913,0.581026,0.963652,-0.088067,0.252227
-0.173679,0.528313,0.491015,0.813116,-0.572604,-0.104722
-0.375663,0.177169,0.634489,0.544298,-0.106133,-0.832151
-0.066800,0.651304,0.548100,0.916379,0.397003,-0.051368
-0.330700,0.166902,0.791482,0.094782,0.990866,-0.095921
-0.294786,0.210448,0.807330,0.373470,-0.617021,0.692680
-0.305987,0.174828,0.848858,-0.056450,0.576818,0.814920
-0.516160,0.199530,0.402945,0.756531,-0.417293,0.503515
-0.618729,-0.039287,0.607385,-0.082379,0.144220,0.986111
-0.595603,-0.018490,0.632192,0.507632,0.027799,0.861126
-0.383563,0.298724,0.591505,0.659447,0.210238,0.721755
-0.455966,0.145580,0.701989,0.411957,0.576139,0.705943
-0.101566,0.693422,0.592346,0.896603,0.441071,-0.039489
-0.125411,0.637520,0.641442,0.947521,-0.244162,0.206369
-0.068523,0.699143,0.682259,0.781850,0.592323,-0.194584
-0.020254,0.760766,0.694356,-0.751145,0.637071,-0.172977
-0.433989,0.257121,0.607256,0.891904,-0.223587,0.393087
-0.385001,0.288194,0.689084,0.909102,0.061004,0.412083
-0.122969,0.700309,0.590858,0.911986,0.382193,-0.149028
-0.040798,0.786379,0.657387,0.750082,-0.337801,-0.568566
-0.252979,0.490876,0.792096,-0.163521,-0.986112,-0.029055
-0.527365,0.219811,0.398740,0.629608,-0.580286,0.516586
-0.666283,-0.075168,0.620355,0.783369,0.382325,0.490061
-0.556099,0.089155,0.597747,-0.401796,0.834985,-0.375979
-0.576927,0.201220,0.419116,0.830421,-0.406344,0.381163
-0.752764,-0.152137,0.660557,0.939526,0.332172,0.083382
-0.632951,0.029096,0.632386,0.500831,0.500144,0.706416
-0.355694,0.450313,0.559679,-0.381641,-0.144966,-0.912872
-0.323944,0.485932,0.578729,0.532131,0.845820,0.037747
-0.355119,0.402473,0.668190,0.789289,-0.337035,0.513254
-0.276539,0.514926,0.664244,0.944592,-0.325713,-0.040707
-0.195372,0.631149,0.657937,0.419620,-0.882731,-0.211438
-0.163622,0.668070,0.676373,-0.623510,0.060434,-0.779476
-0.154284,0.667419,0.707940,0.573176,0.799633,-0.179044
-0.532538,0.286504,0.418114,0.889943,-0.358591,0.281806
-0.632092,0.060296,0.617282,0.665134,0.640659,0.383604
-0.667717,-0.013284,0.672395,-0.338408,0.803184,-0.490281
-0.317767,0.540794,0.527077,0.697338,0.097620,0.710063
-0.402239,0.387516,0.606350,0.999880,0.013653,0.007272
-0.445769,0.301065,0.663985,0.976197,-0.209371,-0.056599
-0.376382,0.398704,0.664244,0.911820,-0.320838,0.256215
-0.339749,0.442512,0.680448,0.430295,-0.731480,0.528946
-0.159458,0.719686,0.624980,0.311592,0.925740,0.214278
-0.220226,0.605932,0.691800,0.763989,-0.644626,0.027905
-0.167932,0.674441,0.701600,0.205627,0.200967,0.957773
-0.217065,0.580191,0.760724,-0.635754,-0.623014,-0.455709
-0.302686,0.426524,0.837538,0.820849,0.282461,0.496410
-0.606809,0.228786,0.435288,0.316023,-0.880005,0.354571
-0.737104,-0.043580,0.648946,0.788778,0.536524,0.299952
-0.690848,0.015440,0.661269,-0.444040,0.788212,0.426087
-0.649615,0.068358,0.674432,-0.088255,-0.882940,0.461116
-0.373221,0.455121,0.675823,0.802136,-0.387213,0.454581
-0.296364,0.564456,0.671457,0.494951,0.279122,-0.822869
-0.701479,0.032341,0.684782,0.167884,-0.457311,0.873316
-0.398504,0.491780,0.600108,-0.591346,0.802842,0.075859
-0.433125,0.406631,0.688469,-0.685942,0.681889,-0.253991
-0.313457,0.584214,0.663727,0.502704,-0.033217,0.863820
-0.319060,0.560949,0.702441,0.933734,-0.356438,-0.033060
-0.292628,0.589546,0.723367,0.354199,0.907153,0.227190
-0.288319,0.582008,0.755452,0.982865,0.071191,-0.170023
-0.284873,0.573169,0.789088,-0.208513,0.963832,-0.165980
-0.424651,0.436665,0.684620,0.690950,-0.673153,0.263538
-0.336158,0.563940,0.675758,-0.358201,0.665744,0.654581
-0.292918,0.619707,0.688501,0.765570,0.628950,0.135366
-0.309867,0.578890,0.732391,-0.668256,0.667920,0.327593
-0.296364,0.586039,0.761047,0.520770,0.852024,-0.053420
-0.312883,0.545999,0.804419,-0.300295,0.810380,0.503098
-0.288604,0.561988,0.703573,-0.618112,0.786069,-0.005687
-0.258293,0.596696,0.722623,0.329244,0.924277,0.193160
-0.266626,0.568614,0.762438,0.355769,0.930529,-0.086854
-0.261743,0.593188,0.791158,0.559318,-0.786013,0.263340
-0.602066,0.250234,0.434609,-0.754900,0.422751,-0.501405
-0.742852,-0.028631,0.652213,-0.859802,0.487152,-0.153049
-0.641141,0.120879,0.634359,0.190029,0.212518,0.958502
-0.274816,0.677822,0.518054,0.444269,-0.880096,-0.167501
-0.388881,0.456033,0.682259,0.771641,-0.626999,0.106970
-0.296508,0.589030,0.671748,0.984543,-0.054071,0.166588
-0.303260,0.565107,0.709169,0.843442,-0.329217,0.424525
-0.280849,0.587991,0.731938,0.051305,-0.997976,-0.037584
-0.283435,0.570954,0.768357,-0.468128,0.843069,0.264745
-0.679353,0.084870,0.626371,0.861404,0.210213,0.462378
-0.643009,0.117110,0.679090,0.720327,-0.608284,-0.333346
-0.511131,0.287806,0.716090,0.931442,-0.107076,0.347779
-0.406978,0.439910,0.699336,-0.608029,0.793139,-0.035101
-0.372072,0.482290,0.715864,0.781530,-0.614970,0.104991
-0.289757,0.600211,0.710268,0.528079,-0.783016,0.328662
-0.293202,0.581358,0.747139,0.961915,-0.248250,0.114421
-0.245363,0.644408,0.758524,-0.167137,0.975501,0.143052
-0.693719,0.054964,0.632839,-0.492678,-0.551279,-0.673319
-0.679212,0.065366,0.660137,-0.575374,0.775512,0.259857
-0.657805,0.087076,0.684815,-0.208036,0.533107,0.820072
-0.512139,0.279879,0.716090,0.931442,-0.107076,0.347779
-0.382559,0.471633,0.686561,0.773417,-0.624674,0.107741
-0.353826,0.504524,0.706128,0.821883,-0.565384,0.069642
-0.303260,0.571740,0.715023,0.922045,-0.180547,0.342397
-0.299669,0.565631,0.748077,-0.420827,0.906987,-0.016701
-0.284439,0.578104,0.773952,-0.771551,0.594553,0.226308
-0.575634,0.257645,0.428270,0.806532,-0.561487,0.185038
-0.716275,-0.008476,0.641475,0.765133,0.115730,0.633386
-0.684671,0.028834,0.661042,-0.696284,0.605702,0.385116
-0.648611,0.073690,0.678087,0.410172,0.069088,0.909388
-0.379253,0.449273,0.680092,-0.671071,0.553231,-0.493558
-0.262172,0.620746,0.657420,-0.576288,0.817072,-0.016879
-0.299810,0.549896,0.710980,0.033527,0.063727,0.997404
-0.277687,0.573034,0.735011,0.645907,-0.763239,-0.016445
-0.275820,0.565631,0.767095,-0.468128,0.843069,0.264745
-0.673465,0.024676,0.670616,-0.539634,0.839617,0.061954
-0.545323,0.211885,0.641636,0.106732,0.991543,-0.073824
-0.421490,0.393499,0.615050,0.865105,-0.293059,0.407075
-0.457833,0.315625,0.701730,0.747428,0.205769,0.631672
-0.344632,0.480735,0.679931,-0.647903,0.283962,-0.706815
-0.269643,0.585388,0.678216,0.228133,0.700337,-0.676376
-0.258871,0.591236,0.706517,0.085904,0.071152,0.993759
-0.265763,0.570177,0.744520,0.424755,-0.899400,-0.103264
-0.256284,0.574208,0.774340,0.969423,0.151803,-0.192807
-0.506247,0.269476,0.713567,0.969836,-0.076864,0.231323
-0.401950,0.420279,0.696749,0.749511,-0.627597,0.210606
-0.343339,0.500366,0.701503,0.857559,-0.510179,-0.065650
-0.298376,0.559775,0.712759,-0.291061,0.323337,-0.900409
-0.292628,0.558473,0.744455,-0.616890,0.786208,0.036378
-0.278551,0.569788,0.770750,-0.468128,0.843069,0.264745
-0.542451,0.308349,0.416303,0.687527,-0.682319,0.248490
-0.679212,0.054059,0.627017,-0.649086,-0.611425,-0.452600
-0.684381,0.036245,0.663727,-0.827414,0.366278,0.425706
-0.637840,0.097995,0.675403,-0.470946,0.792666,-0.387156
-0.558251,0.320958,0.419343,0.673725,-0.671411,0.308710
-0.709669,0.047553,0.636526,0.249151,0.549422,0.797533
-0.491021,0.334090,0.698560,0.873096,0.211772,0.439154
-0.424076,0.426524,0.700533,0.736663,-0.674740,0.045316
-0.381985,0.480600,0.714764,0.695864,-0.717839,-0.021906
-0.305847,0.578239,0.745425,-0.732277,0.678569,0.057574
-0.274961,0.616715,0.762761,-0.569558,0.732995,0.371917
-0.302396,0.721242,0.649658,-0.472437,0.881058,-0.023250
-0.589282,0.455383,0.447999,0.990710,-0.022908,0.134047
-0.777903,0.139732,0.647361,0.902555,0.368066,-0.223431
-0.863813,0.146231,0.678960,0.533878,0.147730,0.832556
0.308434,-0.618463,-0.958470,-0.172218,-0.005886,0.985041
0.246951,-0.681514,-0.958082,-0.014366,0.023544,0.999620
0.180581,-0.749381,-0.955074,-0.095178,0.314054,0.944622
0.115933,-0.815677,-0.953263,-0.035712,0.093541,0.994975
0.645744,0.017130,0.080647,-0.796726,0.117295,0.592849
0.605521,-0.021997,0.065542,-0.024123,-0.733437,0.679329
0.563284,-0.063473,0.051570,-0.703213,0.637817,0.314135
0.527800,-0.097664,0.033911,-0.352287,-0.755916,0.551802
0.434998,-0.081667,-0.974642,0.329011,-0.278368,-0.902365
0.373081,-0.144591,-0.974512,0.026816,0.133879,0.990635
0.307285,-0.212712,-0.969305,-0.101748,0.350937,0.930855
0.191352,-0.336354,-0.918106,0.811153,0.584636,0.015227
0.156875,-0.368593,-0.944207,-0.356334,0.885730,0.297504
0.116797,-0.406681,-0.967429,-0.535576,-0.045657,0.843252
0.054017,-0.470517,-0.968367,0.283488,-0.027228,-0.958589
-0.007470,-0.533441,-0.969822,0.000506,0.260880,0.965371
-0.065791,-0.592587,-0.972507,-0.633353,0.237927,0.736380
-0.122824,-0.650052,-0.976420,-0.159553,-0.085267,0.983500
0.044249,-0.247555,0.082523,0.872315,0.447052,0.198018
0.142369,-0.127952,-0.056100,-0.089645,0.768898,0.633055
0.141075,-0.100783,-0.261898,-0.047345,-0.977120,0.207353
0.058900,-0.179171,-0.296861,0.872765,0.450915,0.186969
0.048848,-0.182813,-0.343306,-0.579539,0.757643,-0.300187
0.034191,-0.192565,-0.382635,0.768859,0.580341,-0.268442
0.030891,-0.188407,-0.434190,0.973712,-0.088923,-0.209709
0.020978,-0.191653,-0.482316,0.325272,0.944745,0.040692
0.006322,-0.201278,-0.523586,-0.593151,-0.703227,0.391974
0.002013,-0.197636,-0.578181,0.962428,0.234628,0.136684
-0.014652,-0.208427,-0.622103,0.950902,0.287621,0.114279
0.111194,-0.028495,-0.986867,-0.214552,0.258457,0.941896
0.101281,0.058995,0.124180,-0.065655,0.709557,0.701582
0.106595,0.072778,0.069230,0.710172,-0.651866,0.265944
-0.016374,-0.045920,0.027669,0.931658,0.362243,0.028157
-0.021113,-0.043056,-0.020296,0.977209,-0.210099,0.030334
-0.041947,-0.059830,-0.051766,-0.236836,-0.857619,0.456507
-0.047694,-0.058006,-0.099795,0.962050,-0.269382,0.043519
-0.060623,-0.064901,-0.140838,0.908725,-0.117976,0.400376
-0.081167,-0.080239,-0.176028,-0.223245,0.973787,-0.043597
-0.218502,0.001403,0.027636,-0.185981,-0.977719,-0.097345
-0.216201,0.012711,-0.024824,-0.462744,-0.885037,-0.050763
0.012644,0.211234,0.174765,-0.691294,0.666801,-0.278368
-0.036774,0.161307,0.169687,0.964953,-0.235704,-0.115366
-0.325382,0.055615,-0.006841,0.238086,0.959984,0.147466
-0.520040,-0.126388,-0.093488,0.612123,0.383250,0.691682
-0.004883,0.244251,0.179810,0.970688,0.144641,-0.191948
-0.036774,0.213051,0.160922,-0.685517,0.613969,-0.391292
-0.223386,0.032865,-0.014701,0.461137,0.887318,0.004534
-0.396926,-0.137180,-0.111891,0.602001,0.486417,0.633240
-0.129576,-0.036168,0.078933,0.121139,0.992422,0.020608
-0.125985,-0.032138,-0.018614,0.387616,0.909349,0.151120
-0.200400,-0.105591,-0.148504,-0.063358,0.900813,0.429560
0.134035,0.050155,0.094684,-0.553040,0.812023,-0.186458
0.030027,-0.054633,0.038374,0.682644,0.366262,-0.632337
0.020114,-0.065552,0.001536,0.948493,-0.305337,0.084438
0.010347,-0.076858,-0.035303,-0.575394,-0.580896,-0.575744
0.014511,-0.073740,-0.086146,0.641375,0.747919,-0.171045
-0.029158,-0.122619,-0.290263,0.916829,-0.331305,0.222849
-0.024419,-0.119763,-0.342659,0.983581,-0.103325,0.147961
-0.030741,-0.126785,-0.388392,0.961619,0.162316,0.221227
-0.014362,-0.112740,-0.450911,0.899649,-0.315018,-0.302318
0.280564,0.109564,0.142228,0.700260,-0.305720,-0.645113
0.072403,-0.107670,-0.055841,0.264092,0.812975,-0.518967
0.058041,-0.123920,-0.091256,0.601031,0.786598,-0.141512
0.059045,-0.127174,-0.185698,0.904513,-0.417576,-0.086528
0.036204,-0.151089,-0.213772,-0.052023,0.984199,-0.169249
0.027585,-0.161627,-0.255624,-0.632689,-0.752573,0.182588
0.025428,-0.166436,-0.300969,0.056783,-0.673316,0.737171
0.017817,-0.176053,-0.344438,0.812268,0.410913,-0.413969
0.013363,-0.182948,-0.390785,0.883150,0.429352,-0.188952
0.011925,-0.186583,-0.440335,0.714135,0.698998,0.037601
0.001583,-0.198675,-0.481087,-0.543495,-0.837522,-0.056299
-0.000140,-0.202706,-0.529181,0.877120,-0.114876,0.466330
-0.007755,-0.097140,-0.113961,-0.657794,-0.503644,0.560044
-0.004883,-0.095323,-0.164578,0.754023,-0.288156,-0.590268
-0.023271,-0.114692,-0.198215,0.966150,0.126021,0.225105
-0.019824,-0.112478,-0.250255,0.970594,0.190515,-0.147143
0.073267,-0.096878,-0.072595,0.637700,0.769863,0.025480
0.061342,-0.111312,-0.109239,0.843712,-0.021102,-0.536381
0.054736,-0.120024,-0.149603,0.866103,-0.494375,-0.073888
0.059190,-0.118334,-0.200964,-0.328161,0.944199,-0.028260
0.041807,-0.137704,-0.235118,-0.424754,0.903226,-0.061371
0.028015,-0.153304,-0.272669,0.783825,-0.620846,0.012963
0.017957,-0.166174,-0.311998,0.887195,0.459001,-0.046932
0.024569,-0.162405,-0.365105,-0.581509,-0.633061,-0.510960
0.017528,-0.172546,-0.409091,0.993132,0.115687,-0.017480
0.012499,-0.179957,-0.453628,0.811023,0.308376,-0.497138
0.000864,-0.193605,-0.494768,0.655182,0.697118,0.291141
0.006467,-0.191137,-0.550851,0.897666,0.302785,0.320183
0.020399,-0.180996,-0.614728,0.896352,0.420740,-0.139755
0.273527,0.049505,-0.988064,0.554759,-0.017639,-0.831824
0.211611,-0.012507,-0.987934,-0.108919,0.239511,-0.964765
0.140786,-0.082707,-0.982566,-0.211790,0.098342,0.972355
0.075134,-0.147709,-0.981563,-0.119933,0.155579,0.980516
0.003880,-0.201143,-0.584876,0.816052,0.502227,0.286054
0.003306,-0.204523,-0.634943,0.950619,0.303780,0.063573
0.281283,0.056527,-0.982501,-0.490504,0.063740,0.869105
0.221379,-0.003929,-0.986156,-0.357893,0.247435,-0.900382
0.160326,-0.064766,-0.986932,-0.028094,0.287085,0.957493
0.093236,-0.131332,-0.982339,-0.250581,0.236009,0.938887
0.029597,-0.194518,-0.982986,0.400713,-0.308765,-0.862609
-0.026576,-0.251196,-0.987773,-0.121732,0.161995,0.979254
-0.095963,-0.320103,-0.982857,-0.293518,0.141453,0.945430
0.060483,-0.103512,0.026213,0.826448,0.514807,0.227943
0.069821,-0.097664,-0.025115,-0.687810,-0.712023,-0.141215
0.011495,-0.106503,-0.108075,0.638293,0.686883,-0.347525
0.007470,-0.113264,-0.152126,-0.360660,0.918359,-0.162917
-0.002871,-0.125873,-0.191488,0.533767,-0.314013,-0.785168
-0.007326,-0.133022,-0.234213,0.206321,-0.948068,-0.242073
-0.016948,-0.144980,-0.273154,0.840805,0.533212,0.093443
-0.018387,-0.149923,-0.320180,0.990568,0.038744,0.131428
-0.008045,-0.142901,-0.376069,0.960147,-0.210665,0.183679
-0.022407,-0.160064,-0.414040,0.979096,0.198253,0.045471
-0.017093,-0.158247,-0.468764,0.989730,-0.088361,-0.112372
-0.011346,-0.155906,-0.525171,0.888630,-0.456434,-0.044778
0.230717,0.055488,-0.989713,-0.294719,-0.174044,0.939601
0.161615,-0.013546,-0.985509,0.011189,0.197837,0.980171
0.102285,-0.072701,-0.990069,-0.291851,0.188876,0.937630
0.014222,-0.208554,-0.984474,0.607072,-0.183712,-0.773119
-0.106734,-0.329458,-0.986382,-0.265552,0.156302,0.951342
0.094815,-0.007436,0.141452,-0.813809,0.537759,-0.220298
0.031031,-0.078549,0.013567,0.440477,0.893000,-0.092369
0.028444,-0.084397,-0.030063,-0.528916,-0.840059,-0.120621
0.028878,-0.086610,-0.075247,0.759758,0.636440,0.133089
0.064793,-0.069709,0.016899,0.847936,-0.313270,-0.427629
0.050856,-0.086349,-0.017903,-0.661832,-0.748615,0.039427
0.050137,-0.090642,-0.063312,0.351886,0.935774,0.022414
0.037067,-0.106758,-0.097208,0.633044,0.744117,-0.213414
0.020544,-0.125873,-0.129130,0.159167,0.982477,-0.096981
0.033762,-0.117033,-0.186604,-0.651614,0.467504,0.597360
0.021837,-0.131855,-0.222893,-0.347963,0.921476,-0.172638
0.004169,-0.152526,-0.255947,0.999387,-0.020479,0.028410
0.006178,-0.154470,-0.305982,0.905729,0.422689,0.031465
0.005029,-0.159413,-0.353752,0.885218,0.235865,-0.400944
-0.004165,-0.172284,-0.393340,0.948131,0.313805,-0.050741
-0.002297,-0.174236,-0.442696,0.937804,-0.187577,-0.292129
-0.011491,-0.186845,-0.486003,-0.686428,-0.668220,-0.286876
-0.005603,-0.185154,-0.539693,0.992178,-0.066017,0.105950
-0.013503,-0.196597,-0.584423,0.816052,0.502227,0.286054
0.277118,0.059646,-0.985056,-0.509963,0.120035,0.851780
0.217788,0.000626,-0.987449,0.057893,-0.109532,0.992296
0.149835,-0.066853,-0.984571,-0.224003,0.216931,0.950139
0.083324,-0.132633,-0.980463,-0.010460,0.199339,0.979875
0.022846,-0.192954,-0.984086,-0.355632,0.314056,0.880281
-0.038786,-0.254965,-0.985347,-0.133251,0.214652,0.967558
0.263615,0.137781,0.127965,0.700260,-0.305720,-0.645113
0.121106,-0.135490,-0.052639,0.112508,0.888021,0.445825
0.190059,-0.087135,-0.244271,-0.073056,0.990507,0.116440
0.071544,-0.220774,-0.384608,0.840886,0.506620,-0.190386
0.078295,-0.219870,-0.439041,0.917782,0.395523,0.035177
0.079299,-0.224154,-0.489496,-0.318309,0.891292,-0.322922
0.075424,-0.233391,-0.534097,-0.184138,-0.947160,0.262642
0.069821,-0.243523,-0.578019,0.774082,0.626020,0.094320
0.058326,-0.259385,-0.619709,0.603174,0.772586,0.198224
0.048413,-0.273946,-0.660720,0.923103,0.383289,0.031144
0.042526,-0.284999,-0.707682,0.965561,0.259312,0.021218
0.276688,-0.078549,-0.956626,-0.282199,0.951744,-0.120609
0.235600,-0.121453,-0.976323,0.003222,-0.218736,0.975779
0.174833,-0.181901,-0.977358,0.403525,0.573207,0.713163
0.112197,-0.244698,-0.976291,-0.167813,0.247640,0.954208
0.051000,-0.305670,-0.978781,-0.389959,0.164519,0.906016
-0.009767,-0.366641,-0.979105,0.213201,0.042917,-0.976065
-0.071395,-0.428137,-0.981142,-0.143647,0.189363,0.971343
-0.133600,-0.490664,-0.981466,0.276464,-0.038495,-0.960253
-0.197959,-0.554500,-0.981045,-0.116943,0.009875,0.993090
0.452810,-0.081413,-0.974383,-0.201416,0.378591,0.903383
0.386155,-0.147193,-0.970599,-0.013988,-0.011503,0.999836
0.316768,-0.215449,-0.965974,-0.103854,0.427978,0.897802
0.184316,-0.339861,-0.908759,-0.756196,-0.653283,0.037260
0.163198,-0.365602,-0.944498,0.003146,0.999987,0.003995
