-0.364750,0.431728,0.724738,-0.686651,-0.688085,0.234626
0.785920,-0.152690,-0.913588,0.941879,-0.228575,0.246205
-0.176210,-0.684770,0.519230,-0.546869,-0.629740,0.551689
-0.542452,0.028875,0.361522,0.196426,-0.716014,0.669882
-0.242071,0.582480,0.774009,-0.003439,0.954839,0.297105
0.315965,-0.014007,-0.915567,-0.157849,-0.067116,0.985180
-0.354827,0.618139,0.128974,0.971853,-0.225022,-0.069761
-0.091400,0.164768,-0.962384,0.354001,-0.599735,-0.717636
0.143700,-0.387679,-0.937204,-0.411957,0.677995,-0.608781
-0.243507,0.122834,0.659283,-0.521489,0.852628,-0.032788
-0.295466,-0.426408,0.556719,0.638797,0.193234,-0.744714
-0.251607,0.060011,0.708675,-0.323302,-0.285788,-0.902109
-0.303657,-0.022680,0.836239,-0.482502,0.743971,-0.462276
0.056312,-0.271306,-0.954714,0.607725,-0.128575,-0.783670
-0.322951,-0.108382,0.932989,-0.636251,0.111224,-0.763422
-0.274391,-0.026475,-0.962521,0.303330,-0.228692,-0.925036
-0.426913,0.308960,0.887119,0.904454,-0.171806,0.390443
-0.346056,0.025078,0.519540,0.566953,0.801893,-0.188498
-0.163866,0.194136,0.391967,0.986599,-0.107164,0.123039
-0.103549,0.429343,0.583706,-0.659493,0.272876,0.700433
-0.206661,0.169777,0.492358,-0.436460,0.783207,-0.442821
-0.044288,0.164959,-0.391938,-0.813001,0.497260,0.302921
-0.217909,0.357207,0.028750,-0.194413,-0.596152,0.778978
0.264433,0.390947,0.711088,-0.109218,-0.989925,0.090112
-0.510576,0.437842,0.775577,0.163889,-0.971419,-0.171711
0.210426,0.289945,0.647957,0.190284,0.834619,0.516917
0.188070,-0.058765,0.553347,0.190851,-0.931857,0.308575
-0.261346,0.116116,0.582907,0.026630,0.997693,0.062444
-0.081675,-0.343846,-0.940836,0.707915,-0.292226,-0.643008
-0.061276,0.045232,-0.749859,0.984881,0.171588,-0.023797
-0.331249,0.053809,-0.961212,0.680042,0.140536,-0.719578
-0.310916,-0.001044,0.001720,-0.371028,0.907433,-0.197241
-0.169227,0.016256,-0.797217,0.979722,0.165334,0.113178
-0.368065,0.250107,0.599767,-0.718634,-0.119388,0.685063
-0.264690,-0.082193,0.897710,0.761610,-0.507649,-0.402793
-0.462725,0.425011,0.852750,-0.234806,0.019317,0.971850
-0.465628,-0.613109,0.233101,-0.320040,-0.336592,-0.885596
-0.175202,0.115031,0.593253,0.049712,-0.977124,0.206778
-0.133378,0.062805,-0.467764,-0.541195,0.174148,0.822667
-0.239897,-0.501099,0.537042,0.306609,-0.833596,0.459465
-0.260210,0.000561,0.788021,-0.393216,0.840846,0.371967
-0.241317,-0.369095,0.586243,0.516161,0.420468,0.746179
-0.220125,-0.135907,0.843463,0.546418,0.715676,-0.435012
-0.471833,0.463919,0.714510,0.084656,-0.753154,0.652374
0.242285,-0.050756,0.576319,0.014610,0.884440,0.466424
-0.282636,0.318865,0.794330,0.913810,-0.405717,-0.018583
0.155576,0.069703,0.701293,0.252250,-0.709197,0.658338
-0.252392,0.062838,0.035309,-0.165951,0.946950,0.275219
-0.414969,0.520603,0.720942,0.097098,0.984151,0.148388
-0.161038,0.050840,-0.435063,0.941352,0.336214,-0.028576
-0.215909,0.192668,0.680391,-0.660935,0.616752,-0.427530
-0.321362,0.202470,0.832646,-0.272773,0.214178,0.937935
-0.228063,0.287322,0.301632,-0.518948,-0.589282,-0.619225
-0.404137,0.129684,0.058459,-0.125342,-0.824810,0.551342
-0.079036,-0.437470,-0.919750,0.312908,0.910319,0.270938
-0.237503,0.389084,0.510655,-0.430648,-0.706476,0.561636
-0.623884,-0.410492,0.243659,-0.755199,0.465764,-0.461236
-0.330838,0.087568,0.590965,0.322732,0.916656,-0.235765
0.155171,-0.145889,-0.956962,-0.726048,0.237758,-0.645232
-0.293838,0.059706,0.666231,-0.534856,0.022260,-0.844650
-0.230709,0.023081,0.685517,0.746821,0.548151,-0.376548
0.352524,-0.234391,-0.896097,0.105804,-0.179708,0.978014
0.326966,-0.130851,-0.928505,0.473624,-0.264312,-0.840131
-0.330696,0.445978,0.597158,-0.217999,-0.286131,-0.933062
-0.305623,0.376279,0.550248,-0.425867,-0.150146,-0.892241
0.550756,-0.019354,-0.937456,0.152524,-0.669628,0.726866
-0.276672,0.338848,0.358038,0.386871,0.914660,-0.117167
-0.182907,-0.051286,0.919478,0.426256,0.041470,0.903651
-0.259881,0.272869,0.130488,0.662478,0.701463,-0.262818
-0.148979,0.047781,-0.411199,0.925306,0.260437,-0.275648
-0.258659,0.136715,0.229119,0.988463,0.150771,-0.014466
-0.298282,0.036764,-0.960356,-0.322619,0.787636,-0.524926
-0.439911,-0.484819,0.608267,-0.454651,-0.583115,0.673253
-0.051707,-0.076443,-0.933018,-0.105988,-0.144987,0.983740
-0.416233,0.407090,0.713984,0.642969,0.642787,-0.416431
-0.654167,-0.214372,0.580163,-0.165216,0.081965,-0.982846
-0.231929,0.227954,-0.330455,-0.702894,0.616975,0.353952
-0.158008,0.215086,0.145885,0.941233,0.276098,-0.194553
-0.197370,0.090002,-0.403996,0.818772,-0.573989,0.012244
-0.297647,0.100713,0.075307,-0.691429,0.637547,0.339794
0.501348,-0.163501,-0.907983,0.761682,0.314286,-0.566625
-0.505232,0.269547,0.873047,-0.575654,-0.817383,0.022538
-0.156035,0.174705,-0.435901,-0.306858,0.929909,-0.202750
-0.242673,0.058795,-0.161858,-0.145816,0.411357,0.899735
0.112448,-0.369929,-0.919509,-0.031231,0.656186,0.753952
0.372616,0.013964,-0.939205,-0.135980,0.850291,0.508443
0.289853,-0.009725,-0.935448,-0.515082,0.780105,-0.355144
-0.449908,0.190737,-0.995933,0.336963,0.710185,0.618138
-0.266198,0.500100,0.902314,0.786690,0.476788,-0.392163
-0.105669,0.085114,-0.287580,0.792666,0.359866,-0.492114
-0.246032,-0.177124,0.163416,0.845752,0.500520,-0.184887
-0.246001,0.125619,-0.217484,-0.592708,0.793298,-0.139197
-0.655176,0.544457,0.845134,0.743083,0.222884,-0.630992
-0.190407,0.228203,0.296345,-0.548467,-0.343567,-0.762329
-0.254536,-0.040430,0.844605,0.929633,0.360410,0.076726
-0.171202,0.242461,-0.029666,0.365061,0.904184,0.221771
-0.185584,0.203768,-0.187841,0.749981,-0.631230,0.197678
-0.140019,0.054649,-0.391221,0.947585,0.033433,0.317749
-0.303265,0.034575,-0.249073,0.817148,-0.574682,0.044827
-0.101466,-0.201889,-0.960182,-0.570417,0.428652,-0.700630
0.832449,-0.026920,-0.919111,0.120737,0.616633,0.777937
-0.256908,-0.220711,0.148937,0.896389,0.353686,-0.267194
-0.218830,-0.150247,-0.938227,-0.529948,-0.116782,-0.839951
-0.280145,-0.036114,0.515414,0.837304,-0.314052,0.447541
0.084965,-0.200480,-0.889491,0.668751,0.505605,0.545101
-0.442836,-0.127234,0.432127,0.859881,0.283874,0.424288
-0.329112,0.209669,0.697862,-0.695463,-0.593613,0.404914
0.149497,-0.263680,-0.913065,-0.188719,-0.918702,0.346946
-0.164093,-0.113282,-0.941222,-0.045495,-0.025986,0.998627
-0.388824,0.198054,0.857646,0.935456,-0.119712,0.332551
-0.239171,0.136935,0.681615,0.575241,-0.775924,0.258919
-0.291751,0.081364,0.880091,0.775061,0.631344,-0.026167
-0.388809,0.103557,-0.961009,0.191423,0.126897,0.973270
-0.414628,0.085946,0.898794,0.181899,-0.380168,0.906855
-0.052106,0.360084,0.389092,0.960102,-0.262957,0.095175
0.320416,-0.357604,-0.894904,0.255058,0.637996,0.726572
0.188804,-0.290642,-0.916692,-0.265535,-0.519043,0.812456
-0.218312,0.160887,0.182135,-0.630935,-0.774290,-0.048952
-0.182498,0.211546,0.147790,0.910231,0.387532,0.145941
-0.365467,-0.018801,0.072035,0.937590,-0.257505,-0.233700
-0.097856,-0.129063,-0.949177,0.815754,0.280743,-0.505696
-0.242665,0.274618,0.767248,0.527412,-0.842428,0.110233
0.588388,-0.050213,-0.943917,0.180947,-0.112852,0.976997
0.399471,-0.177122,-0.930143,0.338600,-0.455530,-0.823312
-0.257692,0.243461,-0.024201,0.916793,0.390859,-0.081975
-0.495732,0.491599,0.886344,-0.518300,-0.538229,0.664586
-0.279027,0.033814,0.776867,-0.533624,0.594017,0.601988
-0.326299,0.206659,-0.980329,0.164163,0.913276,0.372798
0.144041,-0.111902,-0.924992,0.208384,-0.447691,-0.869568
-0.154431,0.200085,0.794206,-0.558254,-0.781442,-0.278749
-0.205630,-0.001036,0.247207,0.934869,-0.059530,-0.349967
0.093095,0.228422,0.370841,0.884395,0.433257,-0.173594
-0.284084,0.281643,0.799254,0.879492,-0.444328,-0.170488
-0.532839,-0.486995,0.566205,0.329269,-0.185844,0.925766
-0.204046,0.050313,-0.120307,0.842239,-0.432860,0.321351
-0.363446,0.505408,0.650859,-0.816650,0.560809,0.136294
-0.279140,0.342374,0.790812,-0.419756,-0.336256,0.843052
-0.308799,0.162822,0.396517,0.983413,-0.150606,-0.101077
-0.402884,0.185094,0.821881,-0.452728,0.741965,-0.494495
0.201518,-0.282985,-0.925639,0.080504,0.983129,0.164242
-0.101258,0.112061,-0.529240,-0.550666,0.196133,0.811356
-0.156461,0.133351,-0.592743,-0.344167,-0.915278,-0.209320
-0.098079,0.170307,-0.197006,-0.680272,0.597395,0.424676
-0.009948,-0.171804,-0.922288,-0.625358,0.778515,-0.053296
-0.526083,-0.350914,0.204226,-0.713701,0.385837,0.584602
-0.244357,0.932348,0.229333,0.327620,0.884653,0.331744
0.807769,-0.111123,-0.893871,0.746372,-0.575832,-0.333685
0.020257,-0.367111,-0.925214,0.368984,0.487939,0.791054
-0.399087,0.085461,-0.965240,-0.085755,0.011201,0.996253
-0.313179,-0.087313,-0.946347,0.292185,0.367351,0.882996
0.507142,-0.065967,-0.931211,0.565232,-0.445729,-0.694146
-0.284301,0.512834,0.523602,0.968227,-0.065102,0.241448
-0.219963,0.016855,0.417515,-0.115392,0.905407,0.408562
-0.294170,-0.045152,-0.131391,-0.235559,-0.958074,-0.163113
-0.215633,0.346529,0.903375,0.971365,0.084620,-0.222013
-0.038639,0.407205,0.442155,-0.657121,0.647849,-0.385335
-0.122980,-0.060666,-0.896320,-0.245246,-0.656004,0.713802
-0.258900,0.258702,0.809005,-0.416824,0.009137,0.908941
-0.633163,-0.417339,0.669010,0.387750,-0.750827,0.534704
-0.238139,0.073627,-0.969393,-0.088612,0.101372,0.990894
-0.194429,0.357689,0.532907,-0.281811,0.905931,-0.316025
-0.220131,0.139987,0.569664,0.076879,0.656739,0.750189
-0.080899,0.320041,0.801216,0.694590,0.382115,-0.609536
-0.163030,0.146533,0.027487,-0.740995,0.513150,-0.433133
0.238142,-0.333026,-0.937326,0.817035,0.511436,0.266244
-0.149707,-0.040435,-0.915755,-0.677561,0.653989,-0.336468
-0.086744,0.336773,0.777754,0.401676,0.566733,0.719354
0.247893,-0.206634,-0.942106,-0.172403,0.967360,0.185720
-0.186156,0.119364,-0.385219,0.461743,0.878241,-0.124442
-0.374610,0.268646,0.839754,-0.093150,-0.995616,-0.008513
-0.213841,-0.581534,0.605327,0.774057,-0.620124,0.127601
0.583287,0.036922,-0.917792,0.818022,0.558998,-0.135506
-0.313561,0.478218,0.985180,0.775465,0.529743,0.343549
-0.399761,0.015494,0.325470,-0.345175,0.937401,0.046178
-0.571121,0.308554,0.784260,0.907421,0.417941,0.043723
-0.050858,-0.071208,-0.560464,0.975815,0.054906,-0.211592
-0.109121,0.210446,-0.197035,-0.588842,-0.806805,0.048274
-0.125705,0.314591,0.793417,0.253491,-0.539792,0.802724
-0.134285,0.216277,-0.363220,-0.628932,0.769890,0.108229
0.139487,-0.362852,-0.897566,0.166543,-0.645166,0.745670
-0.576329,-0.189262,0.587233,-0.535977,0.611930,0.581611
0.130156,0.018072,0.569253,-0.566501,-0.820675,-0.074627
0.195884,0.142349,0.742275,0.781714,0.585318,-0.215238
0.107118,-0.293650,-0.923799,0.373964,-0.781075,-0.500073
-0.209228,0.098261,-0.043138,-0.264262,0.958995,-0.102446
-0.150798,0.127454,-0.667252,0.963911,-0.032070,0.264286
-0.366336,-0.650021,0.573051,-0.649188,-0.751293,0.118800
-0.589415,-0.230218,0.616936,-0.166926,-0.797866,0.579262
-0.317797,-0.886283,0.536075,0.980876,-0.194445,0.008564
-0.056659,0.082889,-0.527156,0.991114,0.060857,0.118281
-0.500526,0.261411,0.924879,0.850351,0.270122,-0.451595
-0.177377,0.144674,-0.108322,0.907587,-0.367916,-0.202297
-0.514590,-0.103822,0.629597,0.978348,-0.076613,-0.192266
-0.178981,0.038268,-0.578860,0.949708,0.095190,-0.298319
-0.413190,0.180845,0.439689,0.202257,0.266817,0.942285
-0.156899,0.094899,-0.031732,0.841496,-0.436394,-0.318505
-0.595965,-0.409669,0.619718,0.309452,-0.847291,-0.431668
-0.031998,0.092157,-0.940175,-0.554251,-0.754420,-0.351648
-0.256336,-0.368627,0.638761,0.066235,-0.870473,0.487739
0.015973,0.187525,0.745121,0.956575,0.092155,0.276536
0.174862,-0.182376,-0.921985,0.215271,0.377146,0.900788
-0.200944,0.257884,0.815453,0.064842,0.949688,-0.306411
-0.069391,0.197681,0.550944,0.911571,-0.358552,0.201192
-0.388254,0.297567,0.831726,0.290132,0.763872,0.576475
0.151362,-0.263632,-0.934339,-0.177589,0.526201,0.831609
-0.654092,0.617144,0.839458,-0.705850,0.427556,0.564776
-0.486023,0.029694,0.438301,-0.161032,-0.136951,0.977401
-0.386241,-0.000136,-0.021564,0.727491,-0.407767,-0.551799
-0.245274,-0.362557,0.215230,0.936637,0.277963,0.213184
-0.050233,-0.282954,-0.922729,0.514286,-0.763456,-0.390697
-0.357122,0.051434,0.919904,0.547899,-0.523753,0.652295
-0.420993,0.347279,0.642586,0.954678,-0.296167,0.029581
-0.044378,0.211385,0.771579,0.999795,0.004828,-0.019648
-0.550273,0.454702,0.891430,0.206857,-0.214510,0.954566
-0.185887,0.203282,0.801416,-0.280761,-0.190202,-0.940742
0.152478,0.159884,0.710152,-0.006828,-0.773913,0.633255
-0.124166,0.047190,0.392170,0.982646,0.176428,0.057276
0.140190,0.318560,0.642332,0.574184,0.718989,-0.391621
-0.545503,-0.443537,0.644415,-0.267996,0.953767,-0.136038
-0.263905,-0.317320,0.555315,0.839301,-0.343948,-0.421040
-0.337831,0.105577,0.753953,0.205042,0.725658,-0.656794
-0.278212,0.094406,0.358723,0.755318,-0.655003,-0.021575
-0.223518,-0.024022,0.935323,0.668279,0.714719,-0.206347
-0.304495,-0.622372,0.569920,0.945059,-0.326727,-0.010652
0.115770,-0.069927,-0.943873,-0.667773,0.471787,-0.575757
-0.297168,-0.026652,0.225580,0.349479,-0.853422,-0.386698
-0.067329,0.054636,-0.893768,0.394171,-0.689253,0.607914
-0.237796,-0.623042,0.523251,-0.359024,-0.173583,0.917044
-0.760672,-0.638339,0.305609,-0.332769,-0.924074,0.188021
-0.196218,0.083008,-0.368224,0.727174,-0.599669,-0.334089
-0.108933,0.078786,-0.598576,0.708511,0.675972,0.202667
-0.151250,-0.213480,-0.948876,0.523189,0.436986,-0.731653
-0.631662,-0.455594,0.631721,-0.583561,0.704890,0.403219
-0.434512,0.078931,0.191629,0.675978,-0.545457,-0.495510
-0.063813,-0.306326,-0.925246,-0.577318,0.803814,0.143478
0.007329,0.437435,0.431518,0.932888,-0.168421,-0.318363
-0.067528,0.167133,0.513529,0.018690,-0.997373,0.069983
-0.307442,0.108271,0.414630,-0.030848,-0.979186,0.200605
-0.256268,-0.131248,0.842347,0.062292,-0.805909,0.588754
0.194337,0.370811,0.716320,-0.012495,-0.874920,0.484107
-0.252604,0.042084,0.417612,0.230035,0.525189,0.819305
0.078978,0.231436,0.733196,-0.032634,-0.980313,0.194732
0.149666,-0.023798,0.514301,0.264026,0.956358,-0.125174
-0.330772,0.195420,0.204940,-0.821355,0.549283,0.153832
0.097519,0.046826,-0.952512,0.192377,0.623807,0.757533
-0.214681,0.053297,-0.339691,0.760923,0.596708,-0.254824
-0.018783,0.104249,-0.941091,0.855812,0.225485,0.465555
-0.355365,0.429216,0.623143,-0.001972,0.763293,0.646050
-0.725201,0.124584,0.530851,0.998662,0.026958,0.044128
-0.048944,0.278559,0.615963,0.569545,-0.477295,-0.669184
-0.084578,-0.020083,-0.940951,0.750819,0.659229,-0.041087
-0.321364,0.303914,0.920077,0.438012,0.675095,-0.593626
-0.239909,0.106116,-0.295418,0.588835,-0.191297,0.785289
-0.038437,0.020927,0.702823,-0.642268,0.684753,0.344390
-0.203775,-0.406285,0.638600,0.726021,0.686455,0.040906
-0.385322,0.215758,-0.981303,0.438335,-0.343719,-0.830494
-0.095371,0.399623,0.535750,0.009954,0.999869,0.012766
-0.248326,0.336687,0.440530,0.002429,-0.959989,0.280027
-0.190442,0.078675,0.447735,0.710106,-0.679773,0.183460
-0.201672,0.185063,0.292900,0.648669,-0.327908,-0.686808
-0.591804,-0.516592,0.252263,0.188770,0.406681,0.893855
-0.000267,0.003862,0.731973,0.851268,-0.324947,0.412009
0.051036,-0.226978,-0.947916,0.691518,-0.159427,0.704546
-0.017216,0.285452,0.707161,0.281572,-0.118302,0.952219
-0.316287,0.087249,0.446074,0.892076,-0.396340,-0.217058
0.040569,-0.130526,-0.863830,-0.664131,-0.617837,0.420960
-0.494312,0.227690,0.833426,0.103948,-0.319423,0.941894
0.036500,-0.102918,-0.874289,0.502306,0.779220,-0.374839
-0.259740,0.023684,0.371552,0.206907,-0.785399,0.583385
-0.620881,0.413819,0.864771,0.456092,-0.726850,0.513487
-0.146512,-0.055160,-0.926251,0.456643,0.809232,-0.369622
-0.447821,0.523802,0.813972,0.676417,-0.270404,-0.685085
-0.341758,-0.027627,0.151265,0.907255,0.016714,-0.420248
-0.151945,-0.016484,0.353436,-0.568720,0.687237,0.451955
-0.109995,0.257271,0.249133,0.967313,-0.133824,-0.215398
-0.002070,-0.142534,-0.879924,-0.426613,-0.759048,0.491779
-0.403700,0.034786,-0.967025,0.712815,0.554878,0.428958
-0.035069,0.538924,0.704257,0.802906,0.426173,0.416796
-0.431568,-0.278306,0.419489,0.920553,0.291009,0.260570
-0.199966,0.003577,-0.523580,0.737460,-0.640643,-0.213845
-0.189287,0.197510,0.156616,0.130629,0.964980,0.227487
-0.531887,-0.037221,-0.054088,-0.351030,0.795595,0.493768
-0.152890,-0.060164,-0.910992,0.920710,-0.389896,-0.016530
-0.364210,-0.435010,0.610770,0.970047,-0.049830,0.237750
-0.430567,0.618656,0.863285,-0.213183,0.920508,-0.327440
-0.597128,0.512860,0.852504,-0.164080,0.467957,0.868386
-0.250643,0.001732,-0.049360,-0.426635,0.816140,0.389740
0.505852,-0.216089,-0.936607,-0.360435,0.492931,0.791900
-0.364775,0.133073,0.605493,-0.370548,0.533865,-0.760054
-0.306823,-0.022717,0.003851,-0.416002,0.907334,-0.060728
-0.111724,0.066963,0.536497,0.722763,-0.643434,-0.252204
0.417319,-0.116487,-0.933320,0.752901,-0.289941,-0.590825
-0.371343,0.071575,-0.047734,-0.163467,0.851284,-0.498593
-0.226690,0.134256,0.806717,-0.083843,-0.523399,0.847953
0.115505,-0.192209,-0.950192,0.134181,-0.988387,0.071316
-0.493593,-0.265044,0.204735,0.692303,-0.561976,-0.452659
-0.491255,0.334980,0.932084,-0.072852,0.843421,0.532290
-0.291202,0.057125,-0.093492,-0.471786,-0.873887,-0.117216
-0.461504,0.093348,0.667088,-0.791777,-0.332554,-0.512345
-0.083485,0.181501,-0.656614,0.562043,-0.817539,0.125449
-0.186491,0.132172,0.233280,0.784729,-0.616188,0.067170
0.636253,-0.059641,-0.930726,-0.151215,0.362951,0.919457
-0.102603,0.171852,0.611321,0.963610,-0.218205,-0.154412
-0.164605,0.060583,-0.175484,0.992239,-0.003179,-0.124308
-0.295965,0.082853,-0.053215,0.088119,-0.618241,0.781034
-0.055412,-0.052064,-0.943817,0.932149,0.318710,-0.171819
-0.005958,0.357804,0.775396,0.052845,0.809624,0.584565
-0.166205,0.288088,0.232661,0.937483,0.019687,-0.347473
-0.052412,0.373482,0.380822,0.873450,-0.460913,0.156984
-0.203112,-0.482021,0.454863,0.968751,-0.092395,-0.230184
-0.404598,0.356883,0.655815,0.921774,-0.206451,-0.328191
0.267558,0.141102,-0.928243,-0.089690,0.807012,0.583684
-0.828420,0.029041,0.664087,0.299700,-0.493453,0.816507
0.813882,-0.032239,-0.907834,-0.326541,-0.841891,0.429640
-0.247391,0.189493,0.301333,0.367134,0.894456,-0.255265
0.417944,-0.125837,-0.939957,0.670540,-0.384106,-0.634696
-0.570838,0.453513,0.890916,-0.324498,0.635436,-0.700658
-0.158797,0.153012,0.874748,0.671579,-0.033499,0.740175
-0.397945,-0.181433,0.468377,0.353304,-0.049091,0.934220
0.357786,-0.236629,-0.897888,0.111128,-0.297385,0.948268
-0.462009,-0.624727,0.624988,0.812810,-0.580317,-0.050721
0.282281,0.393580,0.621981,0.967696,0.251905,-0.010424
-0.357401,0.140974,0.841928,0.853385,-0.521121,-0.012926
0.217707,0.312729,0.624334,-0.177369,0.654793,0.734701
-0.317695,0.017327,-0.111044,0.677055,0.723238,0.136102
-0.819823,-0.358413,0.598372,0.401251,0.914984,-0.042438
0.801441,-0.064672,-0.913038,0.825319,0.136451,-0.547933
-0.248467,0.513271,0.736363,0.473981,-0.565950,0.674569
0.498163,-0.112502,-0.905403,0.806655,-0.300949,-0.508662
-0.557370,0.534158,0.883379,0.580423,0.481462,0.656737
-0.031868,-0.049276,0.506985,0.706021,0.638494,-0.306365
-0.094049,0.015255,0.660316,-0.551330,-0.830686,0.077429
-0.164680,0.215448,-0.310423,-0.609229,0.792339,-0.032240
-0.202582,0.129299,-0.329916,-0.631256,-0.773771,-0.052866
-0.243095,-0.417036,0.585472,0.512452,0.668732,0.538694
-0.339446,0.037147,0.049599,0.593192,-0.710459,-0.378644
0.182186,-0.279015,-0.918929,0.845346,0.001718,0.534217
-0.136586,0.081027,-0.546872,-0.575543,0.794513,-0.193646
-0.145111,-0.291157,-0.950916,0.138973,0.313855,0.939245
0.395211,-0.274063,-0.902612,0.171783,0.527291,-0.832139
-0.057322,-0.003744,-0.918230,0.868545,-0.111795,0.482836
-0.301501,-0.776174,0.537664,0.369880,-0.269507,0.889131
-0.079130,0.068414,0.502763,-0.449434,-0.151135,0.880436
-0.783757,-0.097731,0.637997,0.793907,0.219504,0.567035
-0.214724,-0.410733,0.615955,0.796951,0.603962,-0.009958
-0.139808,0.059029,-0.464826,0.084253,-0.912850,0.399507
-0.010447,0.064343,-0.949162,0.826941,0.394640,0.400535
-0.480601,0.512987,0.614852,0.531051,0.840086,-0.110637
-0.409734,0.168339,0.744675,0.805326,-0.403201,0.434603
-0.466048,0.339474,0.804226,0.668859,0.025023,-0.742968
-0.308906,-0.146676,0.163767,0.621252,0.496930,-0.605893
-0.263994,0.178952,-0.283406,0.204074,-0.936739,0.284382
-0.211988,0.184442,0.001210,0.178063,-0.727254,0.662869
0.001792,0.008822,-0.924969,0.840802,0.180429,0.510389
-0.354579,0.307233,0.064379,0.970187,0.029068,-0.240606
-0.210629,0.069320,0.738698,-0.102431,-0.859280,-0.501145
-0.323828,0.017151,-0.014903,0.622174,-0.725691,-0.293721
0.604188,-0.140593,-0.919940,0.001044,0.763814,0.645435
-0.306409,0.154627,0.798368,-0.634470,0.634412,0.441554
-0.245838,-0.280512,0.579127,0.933177,0.334172,0.132326
-0.371418,0.059525,-0.021418,-0.334836,0.601106,0.725642
-0.190889,0.250666,0.244169,0.802842,-0.308771,-0.510006
-0.085016,0.257729,0.615645,-0.840515,0.031237,0.540887
-0.114583,0.069545,-0.944591,-0.525017,0.457967,0.717373
-0.305799,0.294913,0.828448,-0.404065,0.299992,0.864139
-0.444588,0.296057,0.904898,0.080541,0.945676,0.314976
0.287471,-0.047598,0.586411,-0.105046,0.883854,0.455814
-0.080737,-0.039813,0.644991,-0.127669,-0.843063,0.522442
-0.005851,-0.345206,-0.938123,0.028394,-0.947706,0.317878
-0.078947,0.054392,-0.600480,0.879283,-0.313090,-0.358937
-0.187991,0.188067,-0.955434,0.364476,0.812451,0.455062
-0.306047,-0.842471,0.529161,-0.778285,0.299874,-0.551677
-0.149927,0.226711,-0.208289,0.860383,-0.391933,-0.325775
0.318791,-0.095465,-0.934863,0.010439,0.884561,0.466307
-0.541051,0.239110,0.890359,0.646060,0.734712,-0.206891
-0.030168,0.304409,0.767676,0.886911,0.460261,0.039355
0.253964,-0.051340,-0.943720,0.259623,0.456304,0.851106
-0.084280,0.194976,0.053647,-0.090944,-0.921410,0.377799
-0.108882,0.118793,0.563546,0.634347,-0.673382,-0.379684
-0.116760,0.124617,0.412692,-0.498464,0.855365,0.141013
-0.560047,-0.317199,0.192825,0.841609,-0.464769,-0.275106
-0.363444,0.027904,0.891352,0.168053,0.165641,0.971762
-0.468848,-0.631764,0.541273,0.834198,0.130633,0.535770
0.308582,-0.173767,-0.932543,-0.285060,0.810635,0.511480
-0.218737,0.246085,0.898151,0.931873,-0.337239,-0.133727
-0.278545,-0.037994,0.835256,-0.636492,-0.582441,0.505610
-0.524740,-0.386613,0.207061,-0.479711,0.634407,0.606139
-0.179672,0.120737,0.137508,-0.516105,0.835941,0.186650
-0.276002,0.098913,0.048031,-0.454343,0.761135,-0.462867
0.179479,-0.123839,-0.956496,-0.152500,0.395602,0.905673
-0.264877,0.197143,0.700369,0.666132,0.263666,0.697673
-0.341827,0.080732,0.661001,-0.573714,0.116119,0.810782
-0.181654,0.121863,-0.138230,0.877234,-0.472342,-0.085749
0.406653,-0.159274,-0.901329,-0.412472,-0.350732,-0.840746
-0.430859,0.012607,0.308657,-0.517276,0.805477,0.289192
-0.382106,0.020925,0.151525,-0.785484,0.238441,-0.571104
0.033687,0.401497,0.799925,0.850382,0.488546,-0.195381
-0.302068,0.129058,-0.956557,0.648155,0.689309,0.323649
-0.212869,0.166182,-0.236934,0.798116,-0.272650,-0.537282
-0.291159,0.022636,0.855089,-0.533335,0.165438,-0.829569
-0.028878,0.097769,0.642267,0.553911,-0.161347,-0.816792
-0.258409,0.188167,0.131334,0.999525,0.011628,0.028537
0.364261,-0.133006,-0.918915,0.768582,-0.052384,-0.637603
-0.587557,-0.089334,0.534837,0.411354,-0.904135,0.115444
-0.152888,0.178882,-0.404287,0.921605,0.204256,-0.330037
-0.097260,-0.074881,-0.936004,-0.619883,0.672487,-0.404360
-0.152208,0.261378,0.012573,0.603456,0.778246,-0.173708
-0.115638,-0.109943,0.621017,0.843999,-0.400975,0.356208
-0.225297,-0.060454,-0.922636,-0.383717,0.465407,0.797595
-0.284569,-0.587094,0.613733,-0.292170,-0.872818,0.390929
-0.377368,0.010824,-0.961070,-0.643865,-0.379113,-0.664614
-0.324247,0.351371,0.821859,-0.714898,0.099675,0.692088
-0.257767,0.156135,0.085764,0.878054,-0.436207,-0.196833
-0.349708,0.341622,0.794657,0.953447,0.125852,0.274045
-0.369002,0.141492,0.801338,0.477592,-0.212082,0.852600
-0.560717,0.479171,0.854510,0.115057,-0.463723,0.878477
0.000107,0.144886,0.768232,-0.902127,0.255918,-0.347379
-0.504005,-0.136296,0.245117,0.515770,-0.820024,0.248076
-0.092435,-0.071893,-0.929519,-0.273684,0.342488,-0.898777
-0.114149,0.399070,0.392123,-0.148659,0.695199,-0.703277
-0.406541,-0.051417,0.791136,-0.547602,-0.827906,0.121260
0.229339,0.087192,0.561443,0.245038,0.969461,0.010110
-0.049550,0.157639,0.731983,-0.111755,-0.633104,0.765957
-0.215578,0.090267,-0.219399,0.013957,-0.999270,-0.035574
0.470728,-0.064522,-0.948691,-0.179721,0.154122,0.971569
0.020620,0.239606,0.730579,-0.782798,-0.609317,0.126337
-0.248482,0.101331,-0.353443,0.948907,0.275376,-0.154089
-0.078588,-0.145335,-0.925313,-0.581473,-0.798559,-0.155540
-0.288479,0.173006,0.083512,0.782895,-0.506151,-0.361783
0.000117,0.223239,0.836699,-0.636915,0.491892,0.593617
0.037801,-0.121608,-0.915551,0.708794,0.479894,-0.517023
-0.170608,0.078357,-0.084124,-0.295438,0.938773,0.177260
-0.039566,0.443112,0.425346,0.975888,0.036355,-0.215223
0.229585,-0.045291,-0.930825,0.515663,0.518438,-0.682139
0.249047,-0.214501,-0.931030,0.123707,0.479572,0.868739
-0.137162,0.022460,0.664995,0.803244,0.561502,-0.198785
-0.731496,0.432709,0.843640,0.322599,0.664820,0.673754
-0.096907,-0.016924,-0.581620,0.796173,-0.459091,0.394137
-0.125778,0.049291,-0.879455,-0.214949,0.976525,0.013975
-0.203973,0.605855,0.633655,0.256272,-0.941971,0.216831
-0.471226,0.482690,0.765450,0.051763,-0.998291,-0.027140
-0.357879,-0.098336,0.905478,0.532067,0.813217,-0.235759
-0.228086,0.075967,0.633691,0.202393,0.978170,-0.047115
-0.245283,0.067946,-0.152153,-0.354857,-0.550630,0.755568
-0.654360,-0.111155,-0.037982,-0.327531,0.839647,0.433262
-0.118224,0.381407,0.427200,-0.512668,0.837093,0.190910
-0.027722,-0.095144,-0.933782,0.204200,0.567256,-0.797824
-0.636186,-0.158094,0.620622,0.003094,-0.089019,0.996025
-0.244929,0.076339,0.260357,0.320860,0.749205,0.579431
-0.107963,-0.267135,-0.946084,-0.521881,0.596888,0.609397
-0.300213,0.199615,0.454269,0.939037,-0.003593,-0.343798
-0.335377,0.603068,0.841164,-0.678778,0.447990,0.581864
-0.152596,0.144293,0.354919,-0.378763,0.923393,-0.062320
-0.061411,0.295212,0.520781,-0.614863,-0.011602,0.788549
0.635819,-0.140545,-0.918122,-0.272077,-0.848580,-0.453746
-0.286911,0.350830,0.791582,0.368876,0.077329,-0.926256
0.536527,-0.241601,-0.910070,-0.677383,0.614166,0.404910
-0.750699,0.611758,0.811259,-0.390068,0.607197,0.692213
0.086962,0.136009,-0.943080,0.153185,0.919078,0.363085
0.875601,-0.085049,-0.922363,-0.619574,0.168233,-0.766698
-0.308540,0.225756,0.896452,-0.628042,-0.472738,0.618128
-0.214033,0.026003,-0.030199,-0.551911,0.831110,-0.068194
-0.542022,0.510066,0.853101,0.097684,0.815800,-0.570025
0.347573,0.103444,-0.955772,0.022173,-0.332087,0.942988
-0.178648,-0.364036,-0.937028,0.468458,0.866571,-0.172052
0.075366,0.050609,-0.948232,0.301403,0.607460,0.734948
0.559196,-0.109901,-0.930553,0.480168,-0.684074,-0.549073
-0.207930,0.093655,-0.312532,-0.641632,-0.605288,-0.471099
-0.359883,-0.418073,0.586181,0.775477,-0.517045,-0.362353
-0.366393,0.245353,0.783517,-0.235228,-0.815947,0.528108
-0.057799,-0.211926,-0.940352,-0.013642,0.504485,0.863313
0.815240,-0.108983,-0.904886,0.144815,-0.955087,0.258531
-0.131105,0.134323,-0.354537,0.832401,0.326167,-0.448022
-0.783567,0.473071,0.846574,-0.093479,0.944475,0.315006
-0.333504,0.102491,0.762715,-0.293202,0.863037,-0.411339
0.111120,0.034799,-0.944278,-0.034609,-0.736679,0.675356
0.095640,-0.116054,-0.945306,0.061898,0.035678,0.997445
0.155085,-0.351354,0.693432,-0.058498,0.659941,0.749037
-0.388395,0.458354,0.740065,0.565975,0.823318,-0.042655
0.936253,-0.013615,-0.909103,-0.071855,0.293421,0.953279
-0.378362,0.018114,0.251567,0.605519,-0.582148,0.542633
-0.346882,0.263551,0.892013,0.367322,0.874927,-0.315559
-0.250539,0.184395,-0.157447,-0.691877,0.649627,0.315106
-0.185017,-0.088983,0.546014,0.777931,-0.579158,-0.243721
0.313430,-0.073645,0.697207,0.267727,0.414017,-0.870007
0.142112,0.062502,-0.932014,0.072706,-0.024834,0.997044
-0.238436,0.450491,0.847658,0.980952,-0.187226,0.051758
0.156587,0.055079,-0.959217,-0.155140,0.436970,0.885996
-0.234016,0.146155,0.264628,-0.623175,0.689652,-0.368827
0.534230,-0.042311,-0.919475,-0.705459,0.623731,0.336581
-0.263965,0.004932,0.321128,0.829849,-0.466196,-0.306614
-0.209782,-0.009908,-0.123043,0.623392,-0.780221,-0.051357
-0.165961,0.068888,-0.738777,0.852194,-0.518127,0.072874
-0.260648,0.045843,0.425090,-0.421777,-0.511352,-0.748748
-0.228536,0.085216,-0.963134,-0.316210,0.580150,0.750625
-0.159049,0.243012,0.412967,0.914615,-0.225559,-0.335563
0.248715,-0.071024,-0.940083,0.479016,0.402902,0.779881
-0.304455,-0.209131,0.584956,-0.696938,0.298007,-0.652280
-0.234751,-0.061901,0.958417,0.637900,0.765706,-0.082333
-0.431191,0.101925,-0.970921,0.901079,-0.193891,-0.387896
0.217316,-0.056462,-0.937986,0.589295,-0.010113,-0.807855
-0.303856,0.073019,-0.952816,0.953390,0.001779,-0.301735
-0.354750,0.400865,0.595977,0.766159,-0.605229,0.216097
-0.161951,0.154992,-0.195824,0.924014,0.280496,0.259847
-0.466348,-0.204758,0.668475,0.995613,0.032727,-0.087656
0.234067,-0.028200,-0.958577,-0.349353,0.661973,-0.663132
-0.280015,0.115694,-0.217897,-0.023591,-0.964672,0.262395
-0.354774,-0.134514,0.150532,-0.510599,0.402833,0.759615
-0.240625,0.638584,0.740505,-0.047116,-0.993987,0.098840
-0.210110,0.129541,-0.981642,0.352536,0.624778,0.696685
-0.476265,-0.121501,0.528647,0.834562,0.511819,0.203834
-0.339115,0.339781,0.445997,0.378617,0.922758,-0.071876
-0.490015,0.550444,0.626968,0.433033,0.648846,0.625685
-0.272777,0.403559,0.794847,-0.582918,-0.086598,0.807903
-0.424044,-0.090885,0.085839,0.719966,0.374494,0.584298
-0.366646,0.328205,0.363883,0.614046,0.246402,0.749822
-0.252479,0.375597,0.826776,-0.257178,0.943096,0.210783
-0.164979,0.095328,-0.495278,-0.727657,-0.127318,0.674022
0.356863,0.031311,-0.938387,0.082650,-0.984950,0.151800
-0.114617,0.176850,-0.505952,0.563048,-0.795083,0.225434
-0.387325,-0.681403,0.526666,0.683589,0.411106,0.603074
0.199212,-0.049757,-0.933913,0.100261,0.197124,-0.975238
-0.159341,-0.031240,-0.863639,-0.536700,-0.842779,0.040951
-0.156669,0.289035,0.639548,0.812036,-0.326714,0.483587
-0.300842,0.371790,0.871015,0.796068,0.588292,0.142087
-0.465313,0.249534,0.912327,-0.236984,0.941205,0.240775
0.574964,-0.107975,-0.922439,0.674710,-0.143445,-0.724010
-0.359369,0.136235,-0.973306,0.363029,0.433676,0.824703
-0.489338,-0.213637,0.191416,0.928484,-0.253409,0.271480
0.737804,-0.019214,-0.909826,-0.047515,0.962239,0.268028
-0.416558,-0.314155,0.635836,0.140785,0.974350,-0.175563
-0.359173,0.464387,0.755315,0.707838,0.656503,0.260710
0.300192,0.047203,-0.953876,-0.275325,0.325987,-0.904394
-0.095748,0.410353,0.500629,0.674461,-0.719273,-0.166581
0.379827,-0.071789,-0.925591,0.006308,0.703201,0.710963
-0.378685,-0.044553,0.255426,-0.682543,0.599951,-0.417366
-0.442440,-0.308655,0.434878,0.785200,0.599006,0.157011
-0.313815,0.093383,0.365934,-0.793216,0.606740,0.051721
-0.205427,0.254060,0.293171,0.410958,0.869283,0.274700
0.281220,0.120859,-0.945476,0.312968,0.479204,-0.820009
-0.065289,-0.021575,-0.905067,-0.649837,0.668928,0.360897
-0.142960,0.097677,0.608570,0.972117,-0.105178,-0.209585
-0.371369,0.102452,0.576281,0.937017,-0.037775,-0.347234
0.105247,-0.087100,-0.852681,0.799813,0.597805,-0.054105
-0.285486,0.057381,0.858526,-0.525356,0.794933,-0.303451
-0.060099,0.445733,0.446812,-0.424260,0.759201,-0.493575
-0.305792,0.012392,-0.121746,0.818450,0.491504,0.297596
0.026483,-0.172135,-0.881643,-0.419525,-0.777590,0.468351
0.072608,-0.322779,-0.917907,0.006434,0.304298,0.952555
-0.318299,0.155304,0.618878,0.689271,0.636475,-0.346129
-0.181878,0.306704,0.913267,0.954052,-0.252049,-0.162037
0.177870,-0.183294,-0.941063,0.756316,-0.601479,-0.257310
-0.009572,0.289743,0.696017,0.747333,0.302017,0.591844
-0.274216,0.154677,0.568421,-0.507572,0.832668,0.221436
-0.533897,0.422846,0.847334,-0.453250,-0.282874,0.845309
-0.251789,0.076321,0.661588,0.948353,0.064144,0.310664
0.171493,-0.242746,-0.863163,-0.368060,-0.797635,0.477819
-0.397490,0.187797,0.871686,0.936590,0.145303,0.318883
-0.235714,0.311358,0.925787,-0.378740,0.577371,0.723325
0.238486,-0.341607,-0.891314,0.213812,0.963640,-0.160260
-0.310312,0.219726,-0.958451,-0.021903,0.676969,0.735686
-0.384849,0.454041,0.760788,0.928758,0.340389,0.146780
-0.391375,0.628410,0.112799,-0.559358,0.701663,-0.441347
-0.186670,0.101515,0.516884,-0.297719,0.883266,0.362221
-0.265841,0.429722,0.813731,0.874122,0.476843,0.092360
-0.064723,-0.364436,-0.936810,0.608372,0.164335,-0.776452
-0.339228,-0.285138,0.677572,-0.108829,-0.886580,0.449591
-0.251609,0.745437,0.134025,0.107074,-0.796547,0.595019
-0.297029,0.208107,0.392497,0.941762,0.240231,-0.235317
-0.153725,0.159892,-0.156014,0.866964,0.459169,-0.193745
-0.352043,-0.407368,0.621893,0.875791,0.424258,0.230205
-0.584302,-0.547866,0.573521,0.463343,0.828848,-0.313566
-0.524568,-0.904702,0.324906,0.255035,0.797159,0.547261
-0.239718,-0.117482,-0.940453,0.480902,-0.538577,-0.691859
-0.559406,0.099225,0.947657,0.933739,0.316943,0.166371
-0.160092,0.153192,-0.206905,0.693856,0.689705,-0.207053
-0.380508,-0.092685,0.415603,-0.747820,0.583010,-0.317593
-0.611993,-0.143644,0.557277,0.526198,-0.835242,0.159643
-0.203514,0.075630,-0.165010,0.068248,0.557436,0.827410
-0.354269,0.329880,0.843525,0.390371,0.252326,0.885405
-0.428754,0.613524,0.898936,0.099391,0.991268,0.086656
-0.083911,0.129253,-0.031715,0.910766,-0.400546,-0.100343
0.521476,-0.044442,-0.919217,0.159402,0.912959,-0.375630
-0.334622,0.522535,0.892299,0.354959,0.549650,-0.756234
-0.007271,0.206864,0.512965,0.889872,-0.076726,-0.449711
-0.265984,0.106602,0.742963,-0.665289,-0.411635,-0.622854
-0.117945,-0.235398,-0.958636,-0.477290,-0.000727,-0.878746
-0.288817,0.108144,-0.162886,0.883335,0.096438,0.458715
0.130124,-0.256820,-0.927455,0.858053,-0.476687,0.191087
-0.315127,0.164322,-0.981393,0.303949,0.897688,0.319015
0.076022,-0.384351,-0.909841,0.744422,-0.276707,0.607676
-0.192311,-0.158833,0.913570,-0.523191,0.755482,-0.394357
-0.023988,0.285113,0.791675,0.152476,-0.987992,0.024975
-0.190051,0.175605,0.223737,-0.469850,0.693797,-0.545791
-0.432007,0.419975,0.835605,0.701708,0.675733,0.225812
-0.196840,0.111076,-0.452244,-0.819526,-0.081671,-0.567192
-0.348412,0.002752,0.857285,0.917600,-0.084006,-0.388528
-0.344092,0.121777,0.346190,0.833808,0.468818,0.291503
-0.320295,0.355583,0.025882,0.124080,-0.776381,0.617930
0.634985,-0.080799,-0.940859,-0.141704,0.741669,0.655628
-0.013115,-0.047409,-0.923532,-0.173842,0.205133,-0.963171
0.074766,-0.349843,-0.934495,-0.346420,0.330955,-0.877760
-0.271571,0.082781,-0.958911,0.516503,0.585342,0.624979
-0.154030,-0.106475,0.940293,0.966917,0.168189,0.191794
0.074464,-0.151211,-0.947259,0.023852,-0.085145,0.996083
-0.310570,-0.005170,-0.011436,0.826737,-0.540438,-0.156308
-0.277567,-0.124097,0.172570,-0.711843,-0.640902,0.287270
-0.173246,0.190638,0.719293,0.058392,0.888960,0.454246
0.019433,-0.114841,-0.941825,0.201618,-0.401570,0.893360
0.112320,-0.135509,-0.941353,0.152345,0.099855,0.983270
-0.088961,0.006164,-0.935428,0.763938,0.430138,-0.481020
0.517727,-0.267043,-0.909425,-0.558490,0.489870,0.669415
-0.239373,0.184759,0.730375,-0.654596,0.576579,-0.488938
-0.415736,0.378069,0.827767,0.972747,-0.219450,0.074870
-0.191769,0.116874,-0.575279,0.839563,0.343237,-0.421096
-0.277042,0.244191,0.341508,-0.500280,-0.863561,0.063101
0.377179,-0.136420,-0.929852,-0.039265,-0.019872,-0.999031
-0.058422,0.075396,-0.887791,-0.358283,0.886832,-0.291827
0.129253,-0.297472,-0.892117,0.974698,0.051381,0.217541
-0.223951,0.259718,0.387378,0.348110,-0.192216,0.917536
-0.645409,-0.414958,0.251463,-0.786980,0.173751,-0.592007
-0.225213,0.066274,-0.191472,0.452922,-0.832811,0.318257
0.066253,-0.130889,-0.857804,0.708925,0.514886,-0.481993
0.475803,-0.173428,-0.934910,0.010464,-0.373003,0.927771
-0.105420,-0.312086,-0.941662,0.932132,0.118476,-0.342188
-0.824549,-0.611229,0.318836,-0.305846,-0.852870,0.423167
-0.157206,-0.048962,-0.869099,-0.078423,-0.991903,-0.099887
0.530910,-0.057099,-0.920709,0.066038,-0.978580,0.194987
-0.164072,-0.359655,0.444437,0.929023,0.364970,-0.060938
0.216476,-0.191300,-0.900348,0.101146,0.839900,0.533233
-0.205400,0.080700,-0.431626,-0.546926,0.832759,0.085936
0.405909,-0.155084,-0.942050,-0.597981,0.699797,0.390772
-0.129291,-0.053496,-0.664195,-0.674026,-0.683139,-0.281088
-0.159878,0.070982,-0.217950,-0.358162,0.767066,0.532288
0.123372,0.127427,-0.962053,-0.456151,0.761469,0.460533
-0.076158,-0.029180,-0.930534,0.821741,-0.238414,0.517591
-0.481276,0.181329,0.938489,0.523971,-0.692894,-0.495331
-0.330068,0.119818,-0.115208,0.717750,-0.638610,0.277509
0.268591,-0.286230,-0.903790,-0.516543,0.733850,-0.441188
-0.381393,0.441830,0.873622,0.187197,0.557565,0.808751
-0.494398,-0.296669,0.552766,0.671558,0.338169,0.659281
-0.258973,0.086620,0.671250,0.894788,0.067093,-0.441422
-0.478174,-0.486112,0.577383,0.111233,0.958964,-0.260799
-0.259931,0.381123,0.868906,0.635086,0.751938,0.176792
-0.226693,0.227399,0.340789,0.823804,-0.107637,-0.556562
-0.337625,0.262782,0.895201,-0.182538,-0.703792,0.686554
-0.116128,0.507499,0.572280,0.839573,-0.344109,-0.420364
-0.544357,-0.304289,0.208463,0.661988,-0.563996,-0.493640
-0.232614,0.448691,0.775625,-0.542587,-0.542037,-0.641712
-0.468423,0.331637,0.383308,-0.259611,-0.870536,-0.418053
-0.252817,0.041208,-0.259768,-0.593779,0.793491,-0.133413
0.164203,-0.261042,-0.911053,-0.380770,-0.783750,-0.490662
-0.227885,0.545590,0.980370,0.677062,0.483999,0.554375
-0.051441,-0.121473,0.634168,0.989027,-0.145079,0.027874
-0.361024,0.194258,0.765400,0.242229,0.605054,-0.758442
-0.799791,0.533526,0.800762,-0.464027,0.054286,0.884156
-0.128322,0.098605,-0.034858,-0.270930,0.958005,0.093933
-0.044420,0.436083,0.432725,0.897618,-0.380568,-0.222373
0.010918,0.058179,0.507643,-0.481421,-0.501926,0.718543
-0.406378,0.550688,0.912592,0.159402,0.978166,-0.133351
-0.056698,0.005870,-0.960744,0.870774,-0.402006,-0.283099
-0.508359,0.566649,0.898488,-0.413611,0.819926,-0.395786
-0.105140,0.101445,-0.977265,-0.241700,0.258751,0.935216
-0.402614,0.059661,0.783930,0.968691,0.245665,-0.035879
-0.247641,-0.018373,0.912314,0.518780,0.670228,0.530719
-0.294813,0.353485,0.360755,0.652619,0.229284,-0.722161
-0.253002,0.621467,0.870688,-0.231848,-0.969573,-0.078584
-0.120069,0.131604,0.443731,0.909881,-0.375093,-0.177259
-0.118236,0.433588,0.793735,0.357699,0.709823,0.606796
-0.317363,0.273479,0.907868,-0.092850,0.993894,0.059619
0.100068,-0.203685,-0.887009,0.615015,0.616083,0.492137
-0.205133,0.590327,0.468243,-0.171812,-0.835802,0.521456
0.540701,-0.157884,-0.934961,-0.134958,0.654749,0.743700
-0.440637,0.420755,0.870130,0.913585,0.256033,-0.315926
0.086416,0.223901,0.622058,-0.620039,0.637528,-0.457284
-0.238250,0.045140,-0.127129,0.170638,-0.707256,-0.686055
0.122360,-0.223398,0.694373,0.083986,0.760836,0.643487
-0.292006,0.235705,0.841401,-0.633127,0.299215,0.713877
-0.322881,0.035664,0.749771,-0.005123,0.447541,0.894249
-0.372737,0.454818,0.767196,-0.147672,-0.922111,0.357636
-0.412402,0.361826,0.609751,0.989284,0.103703,0.102780
-0.430455,0.200653,-0.987357,-0.052553,-0.830502,0.554530
-0.274656,0.081939,-0.049555,0.141647,-0.607085,0.781911
-0.091454,-0.110013,-0.890359,0.238856,-0.900982,-0.362187
-0.323814,0.200577,0.629731,0.625504,0.778495,0.051863
-0.288246,0.049789,0.484866,0.327890,0.782377,-0.529504
-0.065232,0.124933,0.577283,0.984523,-0.047085,-0.168811
-0.247979,0.335415,0.889212,0.455867,0.819573,0.347110
-0.361263,0.549742,0.802947,0.861329,0.024574,0.507454
-0.226690,0.852223,0.223910,0.807467,0.427691,-0.406297
-0.444012,-0.749584,0.259355,-0.107064,0.585057,0.803894
-0.060742,0.445874,0.408187,0.980627,0.035943,-0.192561
-0.148271,0.386758,0.403811,0.365295,-0.693812,0.620632
-0.260032,0.327404,0.509155,0.176427,0.962761,-0.204852
-0.003420,0.325295,0.072979,-0.118286,-0.901851,0.415539
-0.210004,0.036673,0.044907,0.334929,-0.042047,0.941305
-0.158766,0.214957,0.458202,-0.214790,-0.623994,-0.751330
-0.534792,-0.335517,0.620171,0.677823,0.390165,-0.623159
-0.356726,-0.329093,0.640179,0.111891,-0.940679,0.320317
-0.051993,0.526709,0.479419,-0.670783,-0.673082,0.311467
-0.278268,0.069554,0.198172,0.874490,-0.340011,-0.345918
-0.339148,0.049139,0.436472,0.876091,0.477287,0.068277
-0.122946,0.189645,0.591356,0.454719,-0.809423,-0.371571
-0.238586,0.151914,0.386530,-0.166458,-0.963017,0.211875
-0.240915,0.106658,0.663122,0.731790,-0.680947,-0.028202
-0.211224,0.313833,0.753001,-0.439124,0.438072,-0.784387
-0.356880,0.032868,0.149081,-0.550134,-0.044323,-0.833899
-0.286838,0.073586,0.346859,0.896599,0.103273,0.430633
0.261504,-0.032587,-0.934800,-0.408130,0.911771,0.045868
-0.312682,0.070520,0.301596,-0.679876,0.726377,0.100721
-0.546051,-0.795200,0.304428,-0.283369,-0.778275,-0.560348
0.322939,-0.062581,-0.952812,-0.440213,-0.544775,0.713745
-0.185436,0.078487,-0.499800,-0.290026,-0.955905,-0.046162
-0.061875,0.094258,-0.797048,0.892219,0.450089,0.036951
0.246682,-0.134291,-0.956887,-0.084559,0.467866,0.879745
-0.143768,0.205639,0.174814,0.817317,-0.558085,-0.143296
-0.127413,0.147761,0.524557,0.604781,0.783342,0.143581
-0.055732,0.008859,-0.914736,0.431717,-0.685932,-0.585763
-0.064100,-0.193004,-0.938704,0.224518,0.221942,0.948859
0.036442,-0.013179,-0.841805,-0.477776,-0.807355,-0.346276
-0.522203,0.361544,0.885459,0.800726,-0.371575,-0.469861
-0.071599,0.466823,0.482853,0.937019,-0.337835,-0.088677
-0.319794,-0.264043,0.674257,-0.504885,0.621847,-0.598663
-0.137919,0.052102,-0.705992,0.990702,0.119260,0.065469
-0.168519,0.203543,0.770885,0.934834,-0.330796,0.129072
-0.269912,0.180145,0.454722,0.800600,0.384723,-0.459377
-0.370388,0.522986,0.747736,-0.979588,0.020374,0.199978
-0.181506,-0.393256,0.480222,0.893018,0.125014,0.432308
-0.355654,0.408272,0.731224,0.838681,0.475289,-0.265924
-0.329429,0.428921,0.879658,0.205805,-0.106660,0.972763
-0.381364,0.131159,0.883404,-0.018911,0.911918,0.409936
-0.095246,0.336831,0.792495,0.938659,-0.259128,0.227532
-0.358480,0.321685,0.798832,0.820853,0.497321,0.280843
0.751874,-0.002652,-0.939930,-0.214172,0.585419,0.781930
0.151281,0.118774,-0.942871,0.328249,0.261252,0.907745
-0.255832,0.146950,0.690475,0.797070,-0.391180,0.460062
0.200217,-0.236453,-0.912608,-0.635739,0.675249,-0.373997
-0.012408,0.036877,0.694798,-0.147109,0.754730,0.639329
-0.351226,0.174551,0.719090,0.952670,0.269340,0.140984
-0.144166,0.079071,-0.360735,-0.545169,-0.671076,0.502442
-0.150251,-0.296018,-0.921526,-0.283586,-0.243666,-0.927473
-0.267422,0.043153,0.108127,-0.672602,0.739464,0.028275
0.595734,-0.076143,-0.918412,0.346634,0.670283,-0.656175
0.097772,0.253413,0.544142,-0.788201,0.309662,0.531836
-0.272149,0.262645,0.673565,0.811581,0.298162,-0.502429
-0.096457,0.052184,0.576047,-0.175052,-0.584555,0.792245
0.185057,0.066789,-0.948294,0.450303,0.443459,0.774965
-0.195454,0.060217,-0.447137,0.745880,0.174657,0.642774
-0.250620,0.238495,0.902641,-0.283399,-0.941534,-0.182206
-0.213425,-0.455711,0.575177,0.920658,-0.235252,0.311520
-0.136922,0.265328,0.739687,0.261979,0.484467,-0.834661
-0.178023,0.442967,0.817935,-0.348756,-0.564776,0.747929
-0.181227,0.365136,0.522152,-0.040867,0.873497,-0.485111
-0.114661,0.097193,-0.739264,0.710730,0.684745,0.161207
-0.271894,-0.550124,0.655460,-0.344606,-0.247499,0.905533
-0.365940,0.408635,0.570304,0.990784,-0.120642,-0.061581
-0.105287,0.112086,0.541664,0.820593,-0.565429,0.083173
-0.228818,-0.002857,0.460633,-0.560051,0.824135,0.084526
-0.601534,-0.564868,0.263395,-0.193366,-0.380509,-0.904335
-0.429631,0.414724,0.523175,0.944683,0.219223,-0.243956
-0.346081,-0.840849,0.286718,0.242919,0.743694,0.622824
-0.192726,0.140251,-0.974755,0.513063,-0.116129,-0.850459
-0.094564,0.014795,-0.721110,-0.622943,-0.664147,-0.413340
-0.547385,-0.133527,0.565578,0.741365,0.658399,-0.129956
-0.383059,0.121585,0.578372,-0.684477,0.725771,-0.068899
-0.413921,-0.009440,0.004164,0.874769,-0.404076,-0.267399
-0.000697,-0.272405,-0.915829,-0.346955,-0.524439,0.777551
0.020727,-0.329018,-0.909413,-0.067440,0.694607,0.716221
-0.345227,-0.148460,0.941724,-0.031096,0.979779,0.197652
-0.350881,-0.516293,0.628674,0.835782,-0.287476,-0.467788
-0.290027,-0.034691,0.935370,0.763611,-0.401600,0.505585
-0.435056,-0.062134,0.311413,0.719121,-0.038889,0.693796
0.365895,-0.216167,-0.922070,0.456628,0.875331,0.159017
-0.413621,0.163327,0.958251,-0.306876,0.436760,0.845617
-0.040649,-0.042837,-0.681055,-0.327222,0.864255,0.382084
-0.411126,0.389330,0.698898,0.871107,0.486559,0.066587
0.487212,-0.042243,-0.937183,0.286598,0.824240,0.488355
-0.096661,0.275710,0.780329,0.217827,0.098209,0.971034
-0.238977,-0.041252,0.928360,0.729366,-0.585503,0.353852
-0.344591,0.465895,0.783050,-0.594895,0.594827,0.540629
-0.347128,0.013967,0.110489,-0.352814,0.902086,0.248521
-0.297830,0.520869,0.555013,0.938125,-0.012893,0.346058
-0.387577,-0.031621,0.495612,-0.761571,0.348564,-0.546363
-0.329695,0.149795,0.433060,0.785132,-0.609054,0.112343
-0.161306,0.281725,0.820694,-0.116731,-0.032839,0.992621
-0.575314,0.098824,0.379667,0.707977,0.455300,-0.539880
0.027434,0.404504,0.814785,-0.340886,-0.936921,0.077306
-0.536475,0.398231,0.804654,0.756986,0.396633,-0.519282
0.431739,0.039957,-0.950733,-0.289809,0.085185,0.953286
-0.487931,0.139960,0.938025,0.848131,-0.104106,0.519457
-0.121136,0.100074,-0.134466,-0.421897,0.765853,0.485255
-0.430444,0.148846,0.835713,0.385522,0.671503,-0.632816
-0.281418,-0.030400,0.359374,0.846854,0.279847,-0.452243
-0.582023,0.494200,0.855769,0.156205,-0.445720,-0.881438
-0.299034,-0.244184,0.615307,-0.160360,-0.545193,0.822830
-0.271147,0.136315,0.852965,0.985826,-0.081384,0.146710
-0.409985,0.151023,-0.983027,0.268253,-0.364157,-0.891869
0.855966,-0.023159,-0.906191,0.473868,0.311119,0.823804
-0.073363,0.117672,-0.281268,0.841446,0.509345,-0.180377
0.075411,0.004113,-0.944649,-0.122483,0.685433,0.717760
0.270542,-0.150341,0.594438,-0.469022,0.809997,0.352027
-0.172938,0.085245,-0.700859,0.999930,-0.008379,-0.008355
-0.197921,-0.225967,0.500533,-0.280663,-0.229806,0.931889
-0.236998,-0.094035,0.920694,0.329823,0.435782,0.837443
-0.023951,-0.157018,-0.936618,0.284573,-0.032168,0.958114
-0.187021,0.461642,0.745172,0.842675,0.499772,-0.200315
-0.160279,0.263338,0.196313,-0.683120,0.636357,0.358324
-0.295684,0.061238,0.473278,0.949097,-0.263517,-0.172547
-0.237279,0.133055,0.777640,0.759477,0.256065,-0.598018
0.599031,-0.164324,-0.928311,-0.238377,0.300972,0.923359
-0.382806,0.336460,0.805826,-0.098169,0.963042,-0.250825
0.151772,0.254144,0.628886,-0.227106,-0.842162,0.489067
-0.363307,0.112954,-0.045260,0.150423,0.974453,-0.166775
-0.104253,0.370122,0.495917,0.654166,-0.749303,-0.103015
-0.595332,0.571010,0.907869,-0.464237,0.761986,0.451510
0.191482,-0.005454,0.548419,0.197013,-0.628301,0.752611
-0.325157,0.452468,0.514760,0.947788,-0.116121,-0.297009
-0.127210,0.101020,-0.330073,0.890916,-0.194197,0.410557
-0.027592,0.265874,0.819072,-0.653303,0.476171,0.588605
-0.015526,0.480589,0.464870,0.853115,0.509997,-0.109987
-0.455348,-0.382720,0.618024,-0.277214,-0.960494,-0.024573
-0.076919,0.260247,0.572252,0.958408,0.172605,0.227293
0.177764,0.077987,-0.959376,0.104639,0.097093,0.989759
-0.270103,0.192034,0.808825,0.768987,0.232863,-0.595343
-0.224882,0.075041,-0.366127,0.985958,-0.102536,0.131808
-0.344005,0.131708,-0.963213,0.320278,0.915456,0.243645
-0.502166,0.367600,0.870136,-0.724876,-0.464520,-0.508701
-0.301779,0.200284,0.303813,0.881143,0.402336,0.248422
-0.287671,0.493654,0.790160,-0.184956,0.564400,0.804514
-0.200833,0.325653,0.865193,-0.454000,0.673689,-0.583118
0.159629,-0.122955,-0.934750,-0.252412,-0.036118,0.966945
-0.328812,0.125092,-0.047210,0.135141,0.989176,-0.057169
-0.151314,-0.370327,-0.948612,-0.064974,0.311677,0.947964
-0.046849,0.155684,0.466025,-0.080903,0.993805,0.076197
0.193594,-0.014295,-0.965064,0.059472,-0.227986,0.971846
-0.725020,0.466870,0.869346,0.066068,0.997672,0.016927
-0.392923,0.011292,0.559862,0.375487,-0.544027,0.750363
-0.131071,0.056316,0.631111,0.874417,0.100796,0.474590
0.003925,0.315525,0.832298,0.758558,-0.160153,-0.631618
-0.032741,0.080685,-0.594172,0.981505,0.189517,0.027028
-0.075053,-0.026875,0.655023,-0.380042,0.546813,0.746032
-0.011875,-0.088098,-0.909837,0.797888,0.159038,0.581447
-0.159452,-0.021857,-0.724898,-0.159085,0.950612,-0.266511
-0.123931,0.045025,0.683801,0.797561,0.532237,-0.283935
-0.038022,-0.057303,0.635327,-0.262357,0.896457,-0.357119
