0.425304,0.167262,0.528765,0.515200,0.382157,-0.767154
0.092355,0.151741,0.309021,0.839940,0.510750,-0.183398
0.189668,0.157877,0.151748,-0.596561,0.422286,-0.682488
-0.255880,0.401886,0.801857,0.888033,-0.420700,0.185498
0.180494,0.424446,0.797455,-0.699082,-0.699195,0.149702
-0.446285,0.400625,0.381084,-0.162084,0.716575,0.678417
0.548549,0.447998,0.556984,0.768365,0.308944,0.560507
0.239956,0.435004,0.418193,-0.793759,0.335725,0.507184
0.175433,0.433561,0.323422,0.379586,-0.477412,0.792460
0.454927,0.446555,0.378343,-0.025139,-0.389101,0.920852
0.005166,0.314625,0.917589,-0.312555,0.926482,-0.209622
-0.039113,0.313000,0.870305,0.907130,-0.413165,-0.080064
-0.017186,0.314531,0.843223,0.007064,-0.960285,0.278933
-0.193252,0.307674,0.718221,-0.332688,0.653082,0.680296
0.065892,0.320667,0.727404,0.277989,0.887853,0.366661
-0.415919,0.298828,0.538444,0.760781,-0.047694,-0.647254
0.346232,0.334569,0.745565,-0.544291,0.744281,-0.387031
0.396206,0.339350,0.582463,0.150758,-0.663329,0.732985
0.442910,0.342869,0.525238,0.250573,0.742990,0.620628
-0.008435,0.322474,0.340738,0.906426,0.290729,0.306379
-0.042382,0.321482,0.291559,-0.512412,-0.535155,0.671597
0.557091,0.350630,0.378373,-0.448598,-0.571314,0.687285
0.208222,0.336012,0.185710,0.981351,-0.051589,-0.185170
-0.072114,0.607362,0.652834,-0.743349,0.578852,0.335205
-0.074962,0.608265,0.615316,-0.174434,0.950846,0.255859
0.396099,0.638046,0.402597,0.671016,0.560035,-0.485899
0.652293,0.649596,0.450056,0.290378,0.629260,-0.720911
-0.338957,0.510985,0.612139,0.234858,0.970739,-0.050080
0.045230,0.529216,0.660647,0.243028,-0.327194,0.913171
-0.472430,0.508909,0.424607,-0.601438,0.173926,0.779758
-0.302372,0.517121,0.441835,0.599348,-0.153488,-0.785636
-0.203268,0.524072,0.362747,0.512551,0.801311,0.308531
0.249342,0.546362,0.401052,0.524852,0.123952,-0.842120
0.145492,0.545729,0.215416,0.788696,0.418697,-0.450168
-0.132525,0.706630,0.696328,-0.670694,0.518566,0.530339
-0.074013,0.659069,0.697115,-0.537893,0.842922,0.012398
-0.236057,0.653655,0.611089,0.348376,-0.626105,-0.697586
-0.191672,0.656453,0.588497,0.564833,0.377243,-0.733929
-0.353294,0.653837,0.389625,0.348328,0.933826,0.081463
-0.097208,0.120787,0.543429,-0.087336,0.079378,0.993011
0.093620,0.152369,0.603277,0.156842,0.927728,0.338705
0.151080,0.114739,0.586806,-0.688093,-0.082339,0.720936
0.046285,0.112575,0.499118,0.891681,0.450006,-0.048989
-0.032366,0.305691,0.880450,0.908408,0.267081,-0.321657
0.159620,0.187564,0.649307,0.567837,0.558069,0.605078
0.094041,0.283759,0.717522,0.982385,-0.086501,-0.165639
0.359411,-0.241079,-0.980031,-0.204153,0.232722,0.950874
0.351502,-0.329337,-0.982626,0.172357,0.115902,0.978192
0.341699,-0.435368,-0.977757,0.015615,0.125459,0.991976
0.450394,-0.249379,-0.984608,-0.058896,0.059620,0.996482
0.440591,-0.356044,-0.979390,-0.247716,0.160426,0.955458
0.423406,-0.549342,-0.975367,-0.010348,0.134989,0.990793
0.541171,-0.449265,-0.976620,-0.205313,0.204141,0.957169
-0.093517,0.353158,0.648141,0.279770,-0.917889,-0.281439
-0.123668,0.084688,0.706852,0.643253,0.764191,-0.047311
-0.121139,0.084507,0.676680,0.849789,-0.483725,0.209447
-0.118398,0.085680,0.645138,-0.040400,-0.994905,0.092372
-0.116921,0.077110,0.616366,-0.689015,0.703246,0.175222
-0.118819,0.040835,0.597038,-0.668264,-0.209122,-0.713926
-0.174803,0.134953,0.690323,0.852919,-0.510850,-0.107526
-0.174803,0.092361,0.642660,-0.289803,-0.538654,0.791117
-0.069161,0.329782,0.655983,0.801080,0.219561,-0.556833
-0.093938,0.104451,0.700206,-0.381203,0.675668,0.630997
-0.092674,0.076207,0.649132,-0.209967,0.569184,0.794948
-0.090670,0.072687,0.618727,0.985073,0.114993,0.128091
-0.093938,0.025402,0.604297,-0.286763,0.957746,-0.022148
-0.099842,-0.045165,0.596747,0.047083,0.947515,0.316227
-0.059042,0.051300,0.619077,-0.639260,-0.651532,-0.408476
-0.060516,0.020258,0.599108,-0.611505,0.790040,0.043575
-0.023406,-0.112217,-0.074701,0.723684,0.672563,0.154727
-0.008856,0.364890,0.679712,-0.543607,-0.430923,-0.720276
-0.003795,0.390154,0.639658,0.847310,-0.402099,0.346962
-0.012019,0.301808,0.637676,0.583361,0.213518,0.783645
0.003689,0.334475,0.661696,0.781817,0.188711,0.594265
0.000632,0.292604,0.645255,-0.713777,-0.535761,-0.451090
-0.005587,0.223481,0.638142,0.587119,0.133712,0.798381
0.053662,0.702747,0.379480,0.317242,0.651661,-0.688981
-0.006327,0.223387,0.682423,0.682599,0.074076,0.727029
0.004110,0.296934,0.627239,0.971847,0.205467,0.115309
0.006327,0.237647,0.732214,-0.525129,0.840160,-0.135539
0.010754,0.250734,0.666127,-0.173866,-0.854848,-0.488883
0.014126,0.268871,0.628289,0.806624,0.581280,0.107106
0.069479,0.715112,0.349454,-0.385693,-0.687730,-0.615035
-0.004007,0.280785,0.711196,-0.511443,-0.181424,0.839947
0.037218,0.157607,0.706036,-0.615404,0.784898,-0.072205
0.045863,0.223481,0.652135,-0.287275,0.034165,0.957239
0.039432,0.152011,0.645984,0.941199,-0.335605,0.038905
0.043543,0.177369,0.605551,0.864722,0.197248,-0.461897
0.041224,0.142262,0.585640,0.980137,0.146621,0.133543
0.030889,0.035327,0.590304,-0.012444,0.964798,-0.262696
0.082233,0.223663,0.738919,0.236056,-0.938907,-0.250461
0.078228,0.173668,0.724401,-0.474350,0.339257,-0.812340
0.077912,0.158687,0.697932,0.756172,-0.652340,-0.051540
0.082130,0.185400,0.658635,0.914068,-0.270126,-0.302507
0.081918,0.170688,0.633215,0.929361,-0.305162,0.207760
0.079598,0.137388,0.612605,0.557890,0.735018,-0.385366
0.078440,0.114381,0.589896,-0.522768,0.150378,-0.839106
0.075383,0.072957,0.571997,-0.610213,0.789868,-0.061221
0.080232,0.101835,0.529873,0.736485,-0.595451,0.320979
0.079917,0.072869,0.476263,0.845323,0.515718,-0.139517
0.080760,0.068446,0.446587,0.917702,0.380309,-0.114844
0.133896,0.127463,0.585203,0.361471,0.331882,0.871317
0.123986,0.022874,0.589051,-0.139717,0.933254,0.330931
0.138745,0.104093,0.432536,-0.194757,-0.979407,0.053218
0.140009,-0.259216,-0.349891,0.312444,-0.793810,0.521770
0.141801,-0.256870,-0.387526,0.364239,0.919730,0.146381
0.142120,-0.267522,-0.418777,0.860014,0.504907,-0.073793
0.079705,0.285566,0.931348,-0.215116,0.959064,-0.184177
0.087401,0.295942,0.776087,-0.169957,0.212208,0.962332
0.244911,0.671253,0.352719,-0.274348,0.687760,-0.672100
0.185555,0.083157,0.461192,-0.310503,0.949069,-0.053434
0.190510,-0.276092,-0.393327,0.991675,-0.097773,-0.083794
0.195044,-0.248751,-0.441223,0.811033,0.570002,0.131619
0.203058,-0.324462,-0.782529,0.955973,-0.110133,0.272003
0.151714,0.391961,0.744487,0.912437,-0.404027,-0.064965
0.139906,0.270948,0.754748,-0.716890,0.463401,-0.520891
0.137795,0.238369,0.734371,0.252606,0.963750,-0.085885
0.135267,0.202904,0.715685,0.583155,0.718177,-0.379674
0.140958,0.242252,0.670850,0.156556,-0.839221,0.520766
0.138957,0.212107,0.649482,-0.581625,-0.608632,-0.539703
0.136216,0.173128,0.630854,0.282823,0.804688,-0.522004
0.133262,0.133147,0.613888,-0.650282,-0.735920,0.188558
0.225935,-0.286469,-0.736936,0.417193,0.904950,-0.083758
0.223827,-0.320039,-0.761978,0.578472,0.803919,-0.138150
0.219924,-0.446197,-0.940706,0.819009,0.358710,0.447830
0.201266,0.398096,0.761657,0.834833,-0.211527,-0.508242
0.189352,0.275189,0.771277,-0.574358,0.745334,0.338511
0.195784,0.321482,0.724576,0.303191,0.949579,0.079840
0.191353,0.268061,0.711895,-0.261094,-0.865700,-0.427075
0.190617,0.223029,0.634702,0.315227,0.940302,0.128311
0.181656,0.101476,0.580334,0.305441,-0.522331,-0.796163
0.229416,0.457835,0.791392,0.513590,-0.627618,0.585083
0.226462,0.417770,0.774630,0.981505,-0.176853,0.073293
0.217186,0.317329,0.776758,0.958834,-0.002679,-0.283956
0.204954,0.190451,0.789059,0.907228,0.376251,-0.188077
0.203161,0.148762,0.740493,0.786842,0.607584,-0.108268
0.235845,0.420023,0.555876,0.432969,0.441724,0.785760
0.212756,0.190181,0.602490,0.701706,-0.390681,0.595799
0.210015,0.153091,0.584590,-0.654129,0.569592,-0.497675
0.200739,0.012227,0.505386,-0.413503,-0.691965,-0.591776
0.207695,0.051570,0.427697,0.286856,-0.115238,0.951017
0.222878,-0.272485,-0.628697,0.952210,0.259546,0.161034
0.245651,0.425168,0.818911,0.473635,0.840261,-0.263876
0.244281,0.400443,0.795852,0.763809,0.481802,-0.429491
0.247231,0.417858,0.758946,0.792587,-0.388538,-0.469941
0.227305,0.215269,0.796260,-0.705539,0.411801,0.576745
0.229519,0.224836,0.763144,-0.656640,0.404327,0.636666
0.230365,0.199929,0.678342,0.332616,0.651858,-0.681503
0.233316,0.178179,0.560570,-0.353752,0.929611,0.103358
0.233209,0.141634,0.477604,0.911464,0.332141,-0.242725
0.237112,-0.279072,-0.608553,0.992119,0.125286,-0.001943
0.241645,-0.289537,-0.755040,0.443945,0.876579,-0.185801
0.249342,-0.275189,-0.916393,0.985531,-0.122830,-0.116793
0.240063,-0.387990,-0.945312,0.866578,-0.498915,-0.011196
0.286980,0.410186,0.828822,0.625778,0.773976,-0.096765
0.273273,0.254881,0.819231,0.019336,-0.922314,0.385957
0.274538,0.212201,0.679246,0.282138,0.510451,-0.812304
0.297626,0.413436,0.548559,-0.208664,-0.977711,0.023249
0.262520,0.063483,0.636160,0.163291,0.957082,0.239436
0.305956,0.466768,0.465594,0.600124,-0.790114,0.124782
0.282761,0.221768,0.487283,0.757683,-0.621979,-0.197630
0.278440,0.169157,0.473086,-0.443433,0.599083,-0.666684
0.249023,-0.124847,0.544478,0.847479,0.446730,0.286727
0.276014,0.122594,0.425248,-0.254243,-0.446650,0.857826
0.338323,0.300183,0.729328,0.507655,-0.773080,0.380308
0.331470,0.222214,0.724052,0.004250,-0.961821,0.273647
0.333262,0.226819,0.690819,-0.715074,-0.453914,0.531631
0.351924,0.383748,0.576486,0.473675,-0.760089,-0.444856
0.344437,0.298470,0.573367,0.884162,-0.467007,0.012727
0.351396,0.350090,0.524743,0.855150,-0.446516,-0.263328
0.331892,0.150116,0.561211,-0.087665,0.955271,0.282440
0.336638,0.183053,0.517805,0.774430,0.217684,-0.594030
0.350659,0.305421,0.442827,-0.875665,0.407062,0.259831
0.341908,0.209761,0.444867,-0.663840,0.317279,0.677237
0.351396,0.288633,0.385719,-0.389031,0.920676,0.031787
0.420452,0.285296,0.729212,-0.672629,-0.566541,0.476027
0.434793,0.411001,0.656478,0.662598,0.212284,0.718262
0.427939,0.331049,0.651902,0.858027,-0.429399,0.281791
0.431417,0.350448,0.613509,-0.040821,-0.892657,0.448884
0.447231,0.488067,0.534596,0.429266,0.603159,-0.672258
0.450713,0.504492,0.497952,0.418777,-0.273717,-0.865855
0.446179,0.448813,0.485825,0.233594,-0.260561,0.936772
0.448814,0.445833,0.422421,0.896740,0.207108,0.391107
0.440063,0.334387,0.395426,-0.689816,0.712932,0.126022
0.390404,-0.209767,0.426881,0.344773,-0.869748,0.353088
0.499315,0.076476,0.709505,0.244747,0.538637,-0.806207
0.531998,0.350899,0.551941,0.886334,-0.389244,-0.250800
0.559199,0.590849,0.437317,0.861574,0.498924,-0.093622
0.497205,-0.022153,0.586835,0.818473,-0.570848,0.065080
0.494042,-0.067097,0.570394,0.181130,0.584571,-0.790866
0.487929,-0.139558,0.564709,-0.441584,0.103246,-0.891260
0.480127,-0.259668,0.509467,0.669779,0.423130,0.610211
0.547812,-0.368409,-0.972656,0.235296,-0.053926,-0.970427
0.531155,-0.557284,-0.970615,-0.051857,0.039026,0.997892
0.635739,0.407482,0.570073,0.805963,0.048485,-0.589977
0.637322,0.405945,0.539435,0.670608,-0.731332,0.124255
0.590617,-0.060779,0.636101,0.903121,0.400465,-0.154920
0.589140,-0.091188,0.614704,0.860888,0.145350,-0.487592
0.584819,-0.147682,0.603568,-0.167753,0.975802,-0.140251
0.583448,-0.176554,0.582871,0.756101,-0.554504,0.347617
0.583973,-0.189553,0.554769,0.455258,0.578723,0.676624
0.655668,-0.381942,-0.961753,-0.498290,-0.204830,0.842468
0.646810,-0.484636,-0.958080,-0.370448,0.318064,0.872699
0.668740,-0.109871,0.593744,0.344424,-0.197098,0.917891
0.686559,0.016017,0.486554,0.959470,-0.227154,0.166786
0.768159,0.073320,0.603947,-0.278098,-0.354366,0.892797
0.741168,-0.364438,0.438570,-0.672435,0.486597,-0.557722
0.734634,-0.522993,0.332459,0.097988,-0.222819,0.969923
0.729045,-0.937194,-0.123471,0.097110,0.912907,0.396447
0.850395,-0.310114,0.367033,0.570955,-0.819739,0.045151
0.938325,-0.267880,0.379976,-0.594078,0.803963,-0.026741
0.996310,-0.392864,0.369190,0.932528,-0.194055,0.304523
0.562570,-0.449534,-0.974551,0.304645,-0.143890,-0.941534
0.544016,-0.375806,-0.979273,0.242945,0.107737,-0.964039
0.388719,-0.425079,-0.982422,-0.142836,-0.062039,0.987800
0.336638,-0.208048,-0.987786,-0.281252,0.203528,0.937802
0.086345,0.192527,0.601032,0.757301,0.641718,-0.121213
0.096783,0.193518,0.642281,0.762474,-0.646552,0.024579
0.088456,0.205972,0.713732,0.962948,-0.194110,-0.187223
0.060306,0.221768,0.742592,0.137336,-0.989292,-0.049395
0.059251,0.227271,0.779527,0.393597,0.625918,-0.673281
0.049235,0.235664,0.812264,-0.026654,0.999169,-0.030838
0.100685,0.221223,0.863338,0.812180,-0.457011,0.362636
0.044808,0.246944,0.883627,0.498889,0.823519,-0.270048
0.009490,0.265082,0.908260,0.531968,0.840450,-0.103215
-0.851344,0.001217,0.612984,-0.266071,0.300204,0.916015
-0.820138,0.024317,0.605988,-0.065497,0.612335,0.787881
-0.812229,0.001757,0.610098,0.063057,0.813809,0.577702
-0.815919,0.039480,0.593773,-0.844232,0.504706,0.180398
-1.000000,0.012046,0.157579,0.299101,0.638234,0.709363
-0.767738,0.028470,0.588934,-0.449062,-0.633952,-0.629642
-0.791248,0.108064,0.576836,-0.295740,0.148874,0.943596
-0.803056,0.167262,0.579839,0.780248,0.125193,-0.612813
-0.949920,0.083157,0.140350,0.471737,0.391152,0.790230
-0.706063,-0.048326,0.613363,0.332378,0.686842,0.646353
-0.765103,0.171592,0.592170,-0.602731,-0.026687,-0.797498
-0.813494,0.396741,0.535354,0.004064,0.536117,0.844134
-0.866105,0.051030,0.142857,0.082747,0.930506,0.356807
-0.642489,-0.036143,0.587389,0.291265,0.720978,0.628773
-0.673167,0.057529,0.566050,0.238859,-0.887372,0.394357
-0.722192,0.260301,0.558966,0.366965,0.724757,0.583150
-0.754559,0.357575,0.536228,-0.733039,-0.039298,0.679050
-0.723984,0.080718,0.575379,0.487903,0.482366,0.727512
-0.566052,-0.081715,0.603218,0.173428,0.073301,0.982115
-0.606958,0.031989,0.570190,0.470775,0.629376,0.618269
-0.574382,0.076840,0.662484,0.998350,-0.049601,-0.028932
-0.699419,0.352436,0.525909,-0.094412,0.123521,0.987841
-0.692569,0.374181,0.551854,0.501683,0.084897,-0.860876
-0.687929,0.401164,0.575466,0.436009,0.453169,-0.777518
-0.708170,0.514235,0.585786,-0.389758,-0.885698,0.252246
-0.493199,-0.024323,0.677059,0.257314,-0.846795,0.465541
-0.641749,0.367864,0.545819,0.001912,-0.732815,0.680425
-0.636163,0.393585,0.570714,0.096471,-0.405221,0.909114
-0.650713,0.491675,0.586806,-0.372451,-0.921528,0.109851
-0.653135,0.005728,0.173321,-0.277103,-0.799376,0.533115
-0.416340,-0.142896,0.616657,0.491768,0.529171,0.691478
-0.401476,-0.135229,0.653330,0.881717,-0.339619,-0.327468
-0.413075,-0.042366,0.673386,0.132055,0.626174,0.768419
-0.478019,0.117356,0.610594,-0.292437,0.949258,-0.115717
-0.530100,0.253620,0.563631,0.887504,0.405071,-0.219666
-0.540537,0.308665,0.567974,0.863327,0.065032,-0.500437
-0.573854,0.407388,0.544361,0.331541,-0.811427,0.481318
-0.446600,-0.253984,0.665632,-0.344368,0.845697,0.407684
-0.498576,-0.119344,0.617998,0.119221,0.624272,0.772056
-0.552136,0.016380,0.568499,-0.020820,-0.579328,0.814829
-0.437534,-0.166178,0.728278,0.226675,0.936278,-0.268331
-0.541699,-0.101565,0.207603,0.474817,0.720075,0.506005
-0.361309,-0.107883,0.599283,0.745601,0.313777,0.587898
-0.388191,-0.020980,0.583716,0.887906,0.450765,0.091841
-0.386505,0.012679,0.603626,-0.339752,0.910296,-0.236494
-0.434053,0.139464,0.562406,0.847541,-0.510360,-0.145628
-0.419715,0.146503,0.597446,0.322671,-0.933486,0.156486
-0.275171,0.008978,0.845672,0.623604,0.641449,0.446835
-0.408750,0.339168,0.716356,0.163138,0.980306,-0.111295
-0.289933,0.141359,0.878992,0.959788,-0.280577,0.009107
-0.348340,0.289718,0.823983,-0.561546,0.389776,0.729891
-0.321033,-0.006907,0.560890,-0.308076,0.949329,-0.062152
-0.327992,0.040741,0.569723,0.845352,0.270380,-0.460733
-0.356457,0.166359,0.569432,0.753664,-0.149810,-0.639958
-0.263678,0.022516,0.702742,0.752121,-0.545284,-0.370107
-0.220664,-0.024323,0.773784,0.890392,0.374464,0.258802
-0.220243,0.044713,0.809816,-0.730488,0.564355,0.384567
-0.208644,0.056808,0.840949,-0.279640,0.634626,-0.720452
-0.330840,0.328521,0.707115,0.582403,0.811219,0.052247
-0.286873,0.278345,0.778856,-0.022207,-0.812547,0.582472
-0.258617,0.256781,0.830542,-0.459403,0.882375,0.101797
-0.260516,0.295854,0.845526,-0.628654,0.723091,0.286241
-0.265262,0.526055,0.617153,-0.634118,0.575041,0.516936
-0.295519,0.620448,0.596922,0.820069,-0.092616,0.564721
-0.403689,-0.087129,0.167315,-0.023422,-0.842121,0.538780
-0.158568,-0.217797,0.645313,-0.457689,-0.195348,-0.867387
-0.227833,0.018727,0.610769,-0.693826,0.584457,0.420731
-0.270216,0.171592,0.594211,0.737752,-0.213254,-0.640504
-0.184925,0.077561,0.735625,0.816374,-0.528873,0.232006
-0.197891,0.136578,0.736616,0.890953,0.390718,0.231394
-0.184291,0.145154,0.771248,0.294893,-0.129758,0.946679
-0.187348,0.184585,0.784803,0.791090,-0.080283,0.606409
-0.215603,0.275371,0.767342,0.029666,-0.853280,0.520609
-0.213705,0.307316,0.787136,0.248251,0.405213,-0.879871
-0.209069,0.332850,0.810719,-0.613395,0.583359,-0.532390
-0.322931,-0.126471,0.157287,0.445463,0.895071,0.020260
-0.368159,0.144157,0.193814,-0.585095,0.429101,0.688139
-0.239853,0.157332,0.486816,-0.651493,0.341645,-0.677373
-0.151187,0.024411,0.616687,0.220624,-0.963265,0.153118
-0.135267,0.027930,0.654234,0.747814,-0.506376,-0.429369
-0.150025,0.125838,0.671404,0.876323,-0.369241,0.309385
-0.150659,0.161485,0.687816,0.926031,-0.297439,0.232370
-0.133684,0.164283,0.726704,0.606718,-0.792199,0.065679
-0.242488,0.447276,0.627618,0.084993,-0.467767,0.879756
-0.182184,-0.156071,0.128806,-0.168317,0.985454,-0.023456
-0.269582,0.041375,0.033801,0.585239,0.387601,0.712222
-0.189986,0.044531,0.214074,-0.376960,-0.828798,0.413515
-0.040590,0.051570,0.553690,0.438978,0.719453,0.538225
-0.053138,0.111942,0.556110,0.003148,0.192396,0.981312
-0.066632,0.173034,0.556488,0.290130,-0.113758,0.950202
-0.232366,0.565943,0.385340,-0.570184,0.486800,-0.661753
-0.088141,0.356495,0.602344,-0.309788,0.185130,-0.932608
0.007907,0.203173,0.739677,-0.465941,0.654943,0.594936
-0.065367,0.381854,0.666477,-0.684439,0.701190,0.199689
0.065261,0.193430,0.864387,0.036859,-0.943228,0.330094
0.055033,0.248569,0.869226,0.483711,0.817439,0.312758
0.064312,0.264448,0.898465,0.504877,-0.823205,0.259679
0.075065,0.276632,0.928345,-0.016599,0.997747,-0.064998
-0.119031,0.087580,0.563835,0.271316,0.891045,0.363903
-0.079810,0.046607,0.630971,-0.528237,-0.402824,0.747461
-0.079705,0.081715,0.649569,0.792898,-0.546313,-0.269917
-0.109224,0.173486,0.629542,0.941192,0.331477,0.065430
-0.104482,0.199747,0.653767,0.968511,0.125074,-0.215275
-0.287613,0.554932,0.424636,0.673897,-0.594627,-0.438499
-0.123352,0.272209,0.648199,-0.562783,0.439720,0.699944
-0.169742,0.432295,0.626190,0.434232,-0.215013,0.874764
-0.129890,0.388259,0.693209,0.415943,-0.226792,0.880657
-0.206115,0.574155,0.616599,-0.661560,0.624928,-0.414492
-0.073694,0.347292,0.797397,-0.038425,0.813324,0.580541
-0.210861,0.618284,0.627968,0.584781,-0.768260,0.260398
-0.022668,0.280961,0.878088,0.791304,0.449728,-0.414225
-0.001054,0.273200,0.921816,0.299716,0.941532,-0.153910
-0.123459,-0.136127,0.096156,-0.241497,0.942529,-0.230906
-0.196099,0.036412,0.020625,0.804286,-0.038420,0.592999
-0.071059,-0.120517,0.221916,-0.138124,0.979024,0.149779
0.055139,0.036594,0.588497,-0.373589,-0.863405,-0.339063
-0.133684,0.437169,0.367295,0.785094,0.533649,-0.314398
0.085714,0.048772,0.663941,0.674467,-0.725167,-0.138660
-0.199156,-0.276632,0.029428,-0.041000,0.994732,0.093952
-0.152664,0.510176,0.362427,-0.673076,0.627069,-0.392113
0.067160,0.118711,0.658169,0.996976,-0.067210,-0.038998
0.063363,0.159772,0.671025,0.756477,-0.644386,-0.111847
0.074644,0.173668,0.703121,0.862281,-0.491840,0.120688
0.079071,0.198932,0.725947,0.566644,-0.377093,0.732609
0.071481,0.248657,0.734634,-0.044638,0.982328,-0.181765
0.095940,0.235482,0.783258,-0.580371,0.735555,-0.349468
0.120823,0.220865,0.832349,-0.619444,-0.729786,-0.289312
0.135373,0.225557,0.867302,0.914359,0.395835,0.085215
0.135688,0.257679,0.884881,0.902123,0.431303,0.012301
0.136953,0.289807,0.903887,0.919756,0.367800,-0.137013
-0.026781,0.650136,0.718804,-0.079400,-0.924511,0.372794
-0.125779,-0.478412,-0.288819,-0.494209,0.841514,0.218203
-0.112809,-0.035779,-0.029224,0.807042,0.452377,0.379523
-0.086770,-0.046520,0.024298,0.546098,0.830715,0.108120
0.017607,-0.129088,0.218797,-0.222502,0.956364,-0.189368
-0.023299,-0.014844,0.184923,0.578426,0.780317,0.237759
0.102478,0.036770,0.499031,-0.613912,-0.783115,0.099218
0.080969,0.114651,0.489936,0.991916,0.095350,-0.083731
0.089193,0.133422,0.518504,0.936417,0.314817,-0.154966
0.123352,0.101835,0.579839,-0.021206,-0.469676,0.882584
0.126094,0.132067,0.601994,0.849713,0.513861,-0.118042
0.123774,0.171140,0.616482,0.813177,0.471565,-0.341129
0.143912,0.166899,0.660676,0.263970,0.964138,-0.027542
0.151396,0.187476,0.688574,0.724386,0.375690,-0.578032
0.160781,0.204440,0.718396,0.186543,0.971793,-0.144293
0.177753,0.204258,0.757284,-0.610801,0.259695,0.747984
0.178493,0.271399,0.793782,-0.185080,-0.304255,0.934438
0.151714,0.462615,0.831562,-0.162628,0.981913,-0.096949
-0.047021,-0.424628,-0.298730,-0.494209,0.841514,0.218203
-0.028360,-0.071514,-0.070474,0.842066,0.502910,0.194951
-0.014551,-0.059061,-0.032548,0.803630,0.563141,0.192485
0.109540,-0.139195,0.210635,-0.103942,0.860027,0.499549
0.096046,-0.077110,0.212413,0.998928,0.045709,-0.007262
0.109119,-0.065290,0.248065,-0.391890,0.918105,0.059209
0.116712,-0.044261,0.276896,0.931022,0.351773,-0.097233
0.113970,-0.002302,0.292959,0.876845,0.127423,-0.463579
0.115341,0.030728,0.313102,0.990473,0.095364,-0.099344
0.116712,0.065196,0.334441,0.955134,0.024419,-0.295164
0.278543,-0.207602,0.563631,0.101058,0.957420,-0.270435
0.184606,0.042730,0.479324,0.055838,0.753497,0.655076
0.236269,0.047692,0.600099,0.187066,0.939348,-0.287456
0.234159,0.087580,0.615637,0.303472,0.935659,0.180131
0.201582,0.186391,0.592811,0.207574,-0.776534,0.594902
0.204323,0.216260,0.614996,0.967396,-0.138219,0.212229
0.236691,0.186391,0.673940,0.336782,0.668411,-0.663178
0.227939,0.237647,0.680470,-0.279683,-0.637148,0.718206
0.224355,0.279430,0.694434,0.552681,-0.473199,0.686023
0.272639,0.217797,0.772676,-0.750449,0.150328,-0.643605
0.261780,0.273922,0.777224,0.734250,0.259674,-0.627253
0.039959,-0.401528,-0.300450,0.210282,0.508261,0.835136
0.044808,-0.253802,-0.211596,-0.573336,0.750812,-0.327975
0.061149,-0.130261,-0.108750,-0.206237,-0.976043,0.069323
0.133475,-0.188286,0.028292,0.408701,-0.673895,0.615490
0.263363,0.305421,0.797718,0.986427,0.156962,-0.048209
0.259145,0.348641,0.810428,0.936753,0.161235,-0.310639
0.252820,0.394395,0.820018,0.103482,-0.994630,-0.001844
0.265789,0.401704,0.853193,0.828749,0.536197,0.160210
0.375225,-0.599607,0.371784,0.756377,0.370023,-0.539422
0.127992,-0.140280,0.041235,-0.261758,-0.957105,0.124229
0.374169,-0.561614,0.390121,0.666195,0.727597,-0.163669
0.140431,-0.125568,0.078170,0.982069,0.168098,-0.085346
0.292146,-0.371026,0.299780,0.801359,0.576956,0.157944
0.166788,-0.100755,0.152215,0.526935,0.845151,-0.089772
0.349395,-0.228356,0.507776,-0.163937,-0.942130,0.292432
0.188297,0.150023,0.334062,-0.704392,0.571310,0.421233
0.213705,0.137570,0.386418,-0.646400,0.732113,0.214888
0.160884,0.274286,0.336686,0.385417,0.381267,-0.840291
0.269055,0.101295,0.495620,0.779340,0.107326,-0.617342
0.335795,0.076928,0.636859,0.796033,-0.449132,-0.405724
0.319450,0.211386,0.670792,0.557411,0.386919,-0.734565
0.327358,0.230972,0.699156,0.860060,0.296133,-0.415453
0.336953,0.281958,0.747956,0.397135,-0.793218,0.461616
0.299737,0.389344,0.718804,-0.707298,-0.246769,0.662446
0.281181,0.459371,0.713003,0.975804,-0.081919,-0.202721
0.288456,0.479943,0.740289,0.917406,-0.377315,-0.126491
0.295731,0.498350,0.767108,0.991478,0.074500,-0.106874
0.281391,-0.769981,-0.145772,0.113099,0.498967,0.859209
0.107011,-0.185763,-0.241710,0.955711,-0.230516,0.182973
0.124302,-0.179446,-0.198245,0.853461,-0.497944,0.153807
0.138638,-0.166359,-0.157491,0.970411,-0.081539,-0.227273
0.153928,-0.157062,-0.116941,0.918216,0.183948,-0.350775
0.182921,-0.171686,-0.057181,0.873218,-0.464111,-0.148634
0.204217,-0.172947,-0.007710,0.993195,0.071344,0.092055
0.479599,-0.648065,0.383270,0.309486,0.842874,-0.440207
0.201897,-0.130712,0.009635,0.687975,0.623697,-0.371070
0.337690,-0.348465,0.211422,0.192161,0.641097,0.743013
0.345492,-0.327437,0.240835,0.818838,0.553209,0.153179
0.402003,-0.325096,0.373971,-0.477312,-0.009401,0.878684
0.421086,-0.289267,0.438192,0.861751,0.375942,-0.340664
0.427199,-0.266707,0.465011,0.964551,0.070964,-0.254176
0.417290,-0.213193,0.470142,0.939976,-0.240473,-0.242109
0.443438,-0.227089,0.523372,-0.167156,0.938432,-0.302333
0.299103,0.157695,0.392103,-0.806381,0.549505,0.218619
0.325145,0.143436,0.445130,0.616589,-0.704101,-0.352221
0.385343,0.060597,0.541271,0.376898,-0.380784,-0.844365
0.355508,0.152821,0.521011,0.801723,0.361946,-0.475642
0.356142,0.187382,0.540630,0.813501,0.521282,0.257839
0.424986,0.085410,0.647733,0.769125,-0.593666,-0.236660
0.441012,0.088572,0.687088,0.870425,0.317363,-0.376353
0.349604,0.304518,0.588759,0.326427,-0.763993,0.556561
0.396308,0.247214,0.667206,-0.537722,-0.614854,-0.576897
0.424986,0.256958,0.739531,0.905348,-0.057623,-0.420744
0.429519,0.282134,0.763902,-0.710878,0.250632,-0.657142
0.424986,-0.838835,-0.141749,0.275859,0.692550,0.666540
0.377123,-0.676579,-0.167432,0.238954,0.347064,0.906889
0.356985,-0.601408,-0.174253,0.773661,0.267414,0.574402
0.168686,-0.259938,-0.437142,0.922506,0.245438,0.297899
0.328095,-0.509636,-0.193639,0.937954,0.249805,0.240498
0.184079,-0.247578,-0.394231,0.887323,0.230752,0.399265
0.267475,-0.361640,-0.257947,0.663763,0.691938,0.283972
0.220137,-0.237741,-0.302928,0.690372,0.388337,0.610394
0.232366,-0.221316,-0.264302,0.919402,0.231130,-0.318244
0.331364,-0.178631,-0.005174,-0.406808,-0.200908,-0.891147
0.473801,-0.409019,0.209381,0.488189,0.814147,0.314382
0.591988,-0.524617,0.427959,0.962194,-0.272251,-0.007910
0.555087,-0.418850,0.397904,-0.399003,-0.912176,-0.093440
0.553716,-0.347292,0.433352,0.088104,-0.896494,0.434207
0.389774,0.003564,0.233810,0.935367,-0.055721,-0.349263
0.589562,-0.346840,0.519699,0.763839,0.642292,-0.063331
0.382287,0.052837,0.243255,0.973208,0.023453,-0.228729
0.571535,-0.240809,0.533692,0.218145,-0.822522,-0.525233
0.578491,-0.219240,0.562260,0.580221,-0.813183,-0.045573
0.559408,-0.148855,0.555672,-0.395349,-0.666083,0.632481
0.579440,-0.154539,0.600478,0.661818,0.088500,0.744423
0.588191,-0.136672,0.630883,0.984729,0.124823,0.121357
0.474959,0.155079,0.519845,0.723965,0.545674,0.422036
0.415076,0.309387,0.460580,-0.357443,0.033156,0.933346
0.445230,0.284844,0.519291,0.813288,-0.523780,-0.253411
0.376277,0.455758,0.448307,0.108339,0.091676,0.989878
0.416868,0.408837,0.519349,-0.465965,0.293143,0.834831
0.437428,0.402607,0.565263,-0.224358,0.533038,0.815803
0.464522,0.382123,0.618261,-0.754424,0.542446,0.369591
0.468003,0.409646,0.641815,-0.685105,0.723584,-0.084001
0.489087,0.401346,0.687845,0.883480,0.267093,0.384869
0.232894,-0.274556,-0.632661,0.851175,0.523737,0.034636
0.248286,-0.262554,-0.587943,0.956609,0.291340,-0.004471
0.268634,-0.259128,-0.536753,0.982082,-0.052040,0.181125
0.657669,-0.461806,0.299459,0.066736,0.995662,0.064831
0.676437,-0.392594,0.383445,-0.636334,0.617946,-0.461759
0.371428,0.195688,-0.032431,-0.570240,0.689951,-0.445863
0.696574,-0.397105,0.429504,-0.640451,0.672121,-0.371587
0.667054,-0.304970,0.409361,-0.219712,0.755701,0.616962
0.697417,-0.191447,0.546956,0.192472,-0.852125,0.486660
0.702372,-0.133604,0.591820,-0.670352,0.189149,-0.717532
0.527252,0.249467,0.377848,0.440357,0.780994,-0.442871
0.508276,0.322743,0.372921,-0.422374,-0.898200,0.121808
0.570585,0.232773,0.474252,-0.399847,-0.428663,0.810167
0.523774,0.360737,0.430962,0.520996,0.845792,0.114888
0.495306,0.452960,0.413325,0.960491,0.113389,0.254166
0.491301,0.494743,0.427143,0.846272,-0.006389,0.532713
0.546126,0.418492,0.518708,0.827798,-0.125212,-0.546875
0.457038,0.634257,0.421342,-0.259626,-0.508990,0.820685
0.477491,0.628390,0.467518,0.678660,-0.585283,-0.443694
0.597574,0.416867,0.642660,0.229100,0.520715,0.822416
0.240275,-0.304248,-0.969945,-0.648136,0.307657,0.696611
0.814443,-0.393046,0.408457,0.484331,-0.841853,0.238131
0.664943,0.211479,0.381579,-0.469024,-0.536865,-0.701279
0.816656,-0.058069,0.605259,-0.248327,-0.425973,0.869989
0.664101,0.317511,0.439299,0.908637,0.376320,-0.181002
0.656089,0.368316,0.448599,0.633241,0.749255,-0.193968
0.594832,0.594732,0.425481,0.330364,-0.103161,-0.938199
0.691829,0.430945,0.573192,-0.735208,-0.048208,0.676125
0.687295,0.472722,0.586165,-0.740421,-0.163545,0.651943
0.364575,-0.300547,-0.970236,-0.123634,-0.139580,0.982462
0.826778,0.421830,0.623246,-0.389339,0.431544,0.813747
0.799157,0.511437,0.605580,-0.713692,-0.202736,0.670479
0.641749,-0.456210,-0.963910,0.372031,-0.064394,-0.925984
0.252292,-0.389703,-0.984841,-0.308421,-0.341282,0.887921
0.350659,-0.152645,-0.990846,0.042576,-0.234861,-0.971096
0.352873,-0.210036,-0.987086,-0.044634,0.324127,0.944960
0.354137,-0.267247,-0.979973,-0.430542,0.323906,0.842448
0.356879,-0.322926,-0.979711,0.197226,0.066483,0.978101
0.359305,-0.376076,-0.981256,0.150617,0.002396,0.988589
0.361306,-0.429590,-0.978923,-0.064208,-0.293058,0.953936
0.363626,-0.485451,-0.976620,-0.144274,-0.118036,-0.982473
0.445758,-0.231875,-0.983996,0.244495,0.374127,0.894568
0.447865,-0.286111,-0.981576,-0.046344,0.074219,0.996165
0.450394,-0.341790,-0.981635,-0.285487,0.272891,0.918710
0.452083,-0.398097,-0.977816,0.087677,0.058321,-0.994440
0.454506,-0.453506,-0.976271,-0.012813,-0.046210,0.998850
0.457141,-0.506656,-0.978165,-0.167137,0.137348,0.976320
0.459358,-0.560440,-0.975804,-0.120457,0.257521,0.958735
0.541802,-0.352255,-0.975775,-0.276838,0.142638,0.950271
0.940538,-0.278257,0.380588,-0.594078,0.803963,-0.026741
0.780180,0.463519,0.597651,0.695717,0.140979,-0.704345
0.856089,-0.297297,0.386331,-0.092095,0.800361,0.592403
0.849552,-0.353070,0.433556,-0.444482,0.868962,-0.217579
0.865893,-0.430312,0.367324,0.299194,0.860788,-0.411737
0.879072,-0.515408,0.319253,0.249790,0.868904,-0.427329
0.697311,0.612148,0.554244,-0.820169,0.098633,0.563555
0.690458,0.546720,0.607591,0.764554,0.148610,-0.627194
0.693199,0.502233,0.603714,0.039495,-0.285471,0.957573
0.696784,0.459008,0.596018,0.526620,0.350855,-0.774320
0.737903,0.190451,0.443818,-0.624756,-0.687024,-0.371050
0.719241,-0.033708,0.598146,-0.203263,-0.452576,0.868251
0.746229,-0.283941,0.515880,-0.704034,0.604551,-0.372632
0.772587,-0.295854,0.377585,0.611225,-0.091937,0.786099
0.767001,-0.352976,0.422858,0.442252,-0.820531,0.362135
0.772587,-0.395299,0.402889,0.589990,-0.789556,0.168858
0.788507,-0.474078,0.337298,0.204759,-0.947537,0.245452
0.795045,-0.611697,0.335345,-0.695953,-0.208772,0.687069
0.590298,0.486079,0.619485,-0.071685,0.827032,0.557565
0.599472,0.454948,0.577915,-0.109420,-0.993465,0.032480
0.607589,0.423906,0.540280,0.930689,-0.131643,-0.341304
0.607065,0.371477,0.557363,0.734231,-0.357323,-0.577257
0.617081,0.340974,0.509263,0.726499,0.470523,0.500806
0.625829,0.306864,0.471074,-0.717719,0.667612,-0.197924
0.633844,0.273746,0.434431,0.886081,0.019347,0.463126
0.636585,0.229435,0.431720,-0.277827,0.077704,-0.957483
0.612229,-0.059242,0.638025,0.776826,0.615799,-0.131656
0.616025,-0.100215,0.628143,-0.517410,-0.767635,0.378184
0.620346,-0.140010,0.614004,0.828948,-0.378814,0.411515
0.625092,-0.181881,0.599254,0.888447,-0.358161,-0.287025
0.634474,-0.214817,0.555935,-0.084035,-0.990630,0.107654
0.652714,-0.237289,0.461862,-0.204496,0.978093,-0.038939
0.651237,-0.288457,0.482298,0.398995,-0.910685,-0.107033
0.664101,-0.414972,0.443293,-0.320771,0.503072,0.802511
0.671481,-0.455312,0.413704,-0.555942,0.597430,-0.577933
0.686031,-0.485181,0.341059,0.235493,0.969705,-0.064925
0.668846,-0.651585,0.476701,0.908810,-0.316230,-0.272144
0.703109,-0.663316,0.292142,0.933536,0.005180,-0.358447
0.790618,-0.934126,-0.119740,-0.072840,0.187353,0.979588
0.609278,0.727923,0.455041,-0.523217,-0.638771,0.564106
0.523034,0.685424,0.428397,0.195265,-0.453965,0.869360
0.527044,0.642557,0.417640,0.006605,-0.238372,0.971152
0.528202,0.595360,0.422741,0.915942,-0.391787,-0.086911
0.504692,0.491856,0.582492,-0.465956,-0.857614,-0.217678
0.500789,0.433468,0.618785,0.364249,-0.232125,-0.901909
0.509753,0.402425,0.575670,0.782380,-0.622788,-0.004011
0.489509,0.312367,0.713703,0.330034,0.814042,-0.477925
0.521561,0.330052,0.527599,-0.152346,-0.255230,0.954803
0.522613,0.281413,0.535704,0.266528,-0.920920,0.284375
0.535689,0.258313,0.468597,-0.846274,0.386834,0.366305
0.560885,0.254881,0.328932,-0.337447,-0.764903,0.548683
0.542223,0.169245,0.454925,0.216134,0.680026,0.700607
0.528414,0.094437,0.550833,-0.194717,0.319405,0.927397
0.523562,-0.009160,0.605230,-0.228640,0.846618,0.480585
0.523668,-0.058069,0.617736,-0.713781,0.248599,0.654764
0.579018,0.034154,0.282989,0.626806,0.519681,-0.580557
0.524511,-0.103460,0.624353,-0.546762,-0.563498,0.619291
0.615604,0.044713,0.074205,-0.461924,-0.781263,0.419827
0.529045,-0.144791,0.608991,0.326893,0.085506,0.941185
0.535689,-0.183323,0.582142,0.440998,0.671434,-0.595564
0.547497,-0.214278,0.523285,0.700376,0.462608,-0.543569
0.537690,-0.275822,0.594648,0.967357,0.253373,-0.004677
0.570901,-0.275007,0.407029,-0.426110,0.755032,0.498354
0.555930,-0.345579,0.510633,0.566296,0.822974,-0.044970
0.562570,-0.383391,0.481977,-0.025471,0.999069,0.034829
0.582181,-0.406849,0.376973,0.306120,0.919892,0.245133
0.652820,-0.315435,-0.043479,-0.851478,-0.046966,-0.522283
0.589668,-0.447276,0.346102,0.254137,0.960263,-0.115365
0.573011,-0.516945,0.456994,0.942944,-0.332748,0.011591
0.610015,-0.568565,0.262233,0.758066,0.430809,-0.489633
0.578915,-0.652939,0.458189,0.535957,-0.583679,-0.609974
0.692987,-0.939992,-0.109216,-0.286284,-0.950489,-0.120877
0.432894,0.719441,0.432215,-0.273010,0.681660,-0.678827
0.436266,0.675857,0.423732,-0.075586,-0.651074,0.755241
0.440378,0.633535,0.411547,-0.644833,-0.581740,0.495751
0.440697,0.582731,0.422042,0.932585,-0.023308,0.360197
0.432579,0.514417,0.487895,-0.638991,0.766774,-0.061229
0.387242,0.366690,0.785911,0.206947,0.931621,-0.298755
0.445861,0.494924,0.415686,0.959198,0.181320,-0.216939
0.418660,0.384288,0.601644,0.152160,-0.940297,0.304449
0.399578,0.296124,0.733934,-0.638283,-0.356053,0.682511
0.399368,0.246851,0.747256,0.944735,0.229816,0.233796
0.432894,0.264900,0.551066,-0.396887,-0.011974,-0.917789
0.410964,0.171773,0.701809,-0.537415,-0.837841,-0.095952
0.449023,0.197941,0.477575,0.373194,-0.416662,-0.828927
0.441012,0.134502,0.539814,-0.614601,-0.764054,0.196180
0.418239,0.043451,0.693413,-0.015326,-0.982525,0.185497
0.441749,-0.060327,0.586048,-0.695548,-0.717816,0.030859
0.450713,-0.141541,0.555118,-0.336133,0.035292,0.941153
0.462308,-0.219692,0.508855,0.014432,0.952040,-0.305634
0.465049,-0.311915,0.517863,0.852439,-0.374975,0.364337
0.469795,-0.354150,0.502325,0.591044,0.771916,-0.234119
0.553295,-0.289900,0.005320,0.678301,0.716778,-0.161672
0.554772,-0.389163,0.023657,0.827370,0.551170,0.108027
0.531577,-0.469390,0.176440,0.816413,0.566697,0.111014
0.491619,-0.614765,0.444197,-0.353885,0.489194,0.797154
0.505007,-0.648153,0.375457,0.390092,0.869152,-0.303979
0.499209,-0.703292,0.423266,0.793931,0.607817,-0.015248
0.600212,-0.904345,-0.104435,0.197982,0.759905,0.619151
0.344755,0.860040,0.365284,0.951719,0.099659,0.290344
0.299946,0.543746,0.714694,0.788969,-0.099326,-0.606351
0.290985,0.474892,0.785066,0.998648,-0.000736,-0.051983
0.286664,0.415600,0.826869,-0.619810,-0.765196,0.174102
0.344861,0.550240,0.448803,0.950596,-0.310394,0.004837
0.287928,0.371835,0.830805,-0.776811,-0.606565,-0.169245
0.340537,0.440237,0.502733,0.970615,-0.229045,0.073788
0.296574,0.293596,0.801099,0.844633,0.349965,-0.405116
0.344334,0.397375,0.492617,0.941821,-0.282558,0.182028
0.342014,0.341333,0.521361,0.969247,-0.118372,-0.215752
0.331998,0.223663,0.613305,0.326208,0.918440,-0.223733
0.349288,0.208230,0.515064,0.740009,0.327291,-0.587595
0.313758,0.090554,0.756264,-0.016765,-0.988652,0.149288
0.361306,0.183141,0.451689,0.870581,0.007972,-0.491961
0.436057,0.328521,-0.026047,-0.869518,0.329517,0.367910
0.349395,0.109689,0.541271,-0.407311,-0.895133,0.181206
0.345177,0.051752,0.582550,0.789850,-0.281523,0.544869
0.393358,0.141001,0.275351,0.304118,0.812526,-0.497306
0.347284,0.006273,0.581588,0.591754,0.797633,-0.116660
0.347390,-0.181881,0.139184,0.751608,-0.598805,-0.276620
0.365418,-0.206517,0.037853,-0.234069,-0.970760,-0.053259
0.319874,-0.323195,0.342429,0.693712,0.668155,-0.268946
0.360041,-0.018633,0.514627,0.431184,-0.236861,-0.870619
0.443438,-0.026394,0.025668,-0.093748,-0.520959,0.848418
0.362889,-0.207239,0.546985,-0.158066,-0.987323,0.014431
0.421929,-0.113390,0.174720,-0.000931,-0.958449,0.285261
0.381022,-0.228626,0.447491,0.109956,-0.993155,-0.039399
0.388719,-0.266255,0.411139,0.734827,0.568552,-0.369835
0.459988,-0.260753,-0.008439,0.592887,0.775169,-0.218168
0.439220,-0.341514,0.134316,0.698531,0.689579,0.191143
0.512916,-0.347562,-0.296428,-0.105596,0.826342,0.553180
0.408329,-0.628121,0.392569,0.456814,0.821198,-0.341986
0.628149,-0.373460,-0.967292,-0.444496,-0.110474,0.888942
0.631102,-0.426341,-0.969216,-0.225277,0.023022,0.974023
0.632895,-0.482741,-0.965893,0.316340,-0.062474,-0.946586
0.265049,0.782341,0.365633,0.441020,-0.894700,0.070803
0.269161,0.742001,0.352165,0.114867,0.218793,-0.968987
0.216237,0.558000,0.718192,-0.143808,-0.950802,0.274399
0.271693,0.695256,0.349134,-0.126455,-0.362782,0.923254
0.218344,0.514957,0.718251,0.699334,0.429331,0.571495
0.216659,0.460996,0.742417,0.876467,-0.220470,-0.428016
0.223827,0.427696,0.709738,-0.331754,-0.797671,0.503647
0.218344,0.365699,0.758684,0.685629,0.152420,-0.711815
0.226147,0.288903,0.733643,0.252413,0.842849,-0.475282
0.218978,0.224472,0.793432,-0.668793,0.141617,0.729836
0.222666,0.185218,0.783171,-0.306714,-0.850625,0.427041
0.273485,0.241078,0.464253,0.185451,0.948924,0.255248
0.231417,0.105266,0.753728,0.510582,0.813400,-0.278722
0.269582,0.181698,0.504599,0.752313,0.072103,-0.654848
0.277385,0.146415,0.467401,-0.334005,0.826339,-0.453437
0.280442,0.103823,0.460376,-0.422006,0.879587,-0.219632
0.359092,0.201461,-0.035463,-0.605975,0.725574,-0.326093
0.277279,-0.097776,0.534362,0.920683,0.361567,-0.147007
0.323668,-0.017823,0.235909,0.937621,-0.052518,-0.343669
0.329678,-0.058791,0.210139,0.934488,0.167965,-0.313880
0.277176,-0.196498,0.562698,0.277759,0.935467,-0.218519
0.362152,-0.108334,0.030332,-0.646284,0.761784,-0.044734
0.331683,-0.356496,0.280219,0.879869,0.459961,-0.119438
0.321455,-0.471373,0.372950,0.954347,-0.166070,-0.248280
0.428782,-0.329243,-0.306893,0.122567,-0.922479,-0.366075
0.324511,-0.515138,0.366304,0.975730,-0.003515,-0.218951
0.321982,-0.565943,0.395805,0.827789,0.551780,-0.101509
0.543385,-0.406127,-0.971490,0.266710,0.061204,-0.961831
0.323983,-0.708343,0.422362,-0.577885,-0.783417,0.228707
0.546441,-0.461266,-0.973210,0.304645,-0.143890,-0.941534
0.548655,-0.517303,-0.972248,-0.119187,-0.042253,0.991972
0.423615,-0.857060,-0.132129,0.300848,0.829005,0.471424
0.272958,0.161033,-0.038669,-0.407583,0.626891,-0.663991
0.184819,-0.053289,0.558850,-0.690546,-0.715334,0.106979
0.312072,-0.037228,-0.223403,-0.655460,0.495794,-0.569702
0.264734,-0.165098,0.101520,0.050661,-0.906939,-0.418205
0.250606,-0.289807,0.221537,0.554903,0.758751,0.341145
0.338111,-0.319500,-0.302987,0.194293,0.782797,0.591168
0.326409,-0.441052,-0.198187,0.881862,0.421321,-0.211681
0.325039,-0.496098,-0.174720,0.829703,0.362158,0.424776
0.327252,-0.546181,-0.175828,-0.819859,-0.279615,-0.499646
0.328623,-0.597260,-0.168948,-0.780245,-0.174642,-0.600598
0.332947,-0.796782,-0.140846,0.291535,0.467374,0.834607
0.177965,0.789016,0.365633,-0.610611,-0.730901,0.304857
0.182605,0.750577,0.347472,0.506856,0.726090,-0.464639
0.193043,0.617380,0.320215,0.985690,0.007867,0.168382
0.120296,0.392230,0.827773,0.956102,-0.084434,0.280605
0.194622,0.570002,0.324821,0.955300,-0.062310,0.288996
0.111651,0.325183,0.898611,0.985227,0.106527,-0.134089
0.198419,0.528676,0.312199,0.932801,-0.249381,-0.260175
0.120190,0.297479,0.852756,-0.714063,0.691122,-0.111648
0.198628,0.477415,0.324005,-0.049182,-0.572260,0.818596
0.206431,0.444390,0.287011,0.741034,0.671326,0.013779
0.140643,0.247396,0.742738,-0.416943,0.888732,0.190563
0.217289,0.415964,0.228184,0.911289,0.275241,-0.306260
0.146756,0.161936,0.730727,0.797231,-0.171337,-0.578849
0.151187,0.124395,0.713091,0.017732,-0.925097,0.379318
0.166579,0.108422,0.624120,0.901935,0.430706,-0.031714
0.211597,0.198756,0.324530,0.037077,-0.238273,0.970490
0.170691,0.066915,0.610361,0.441028,0.858291,-0.262355
0.201369,0.077831,0.421429,-0.389152,0.831053,0.397382
0.043437,0.681453,0.685367,0.547343,-0.508844,0.664449
0.096783,0.720162,0.341438,0.413907,-0.907268,-0.074469
0.104163,0.688762,0.304269,0.891927,-0.276110,0.358091
0.064627,0.537698,0.594473,0.898801,0.433848,0.062717
0.027096,0.394307,0.868293,-0.404192,0.907758,0.112272
0.022668,0.288815,0.925780,0.310221,0.936280,-0.164750
0.045757,0.293596,0.781159,0.484595,-0.185500,-0.854844
0.042803,0.191084,0.827802,0.838896,0.497914,0.219853
0.070850,0.205250,0.650123,0.505282,-0.156827,-0.848585
0.073801,0.161666,0.644905,0.945505,-0.320264,0.058748
0.084766,0.137118,0.584387,0.850565,0.074822,0.520519
0.087822,0.093534,0.577419,0.416752,0.441810,-0.794432
0.126937,0.121420,0.325113,0.724556,-0.211732,-0.655887
0.112387,0.041645,0.439241,0.576324,0.773918,-0.262492
0.153609,0.070792,0.173700,0.926810,-0.318022,0.199714
0.131891,-0.020170,0.335957,0.945801,0.316340,-0.073408
0.162995,-0.015389,0.139825,0.920781,-0.360745,-0.148412
0.165418,-0.061049,0.136881,-0.373068,0.163895,0.913213
0.166579,-0.111402,0.144694,-0.377203,-0.909989,0.172156
0.152979,-0.186033,0.250222,0.833275,0.392025,0.389832
0.193252,-0.172313,-0.004096,0.929449,0.317082,-0.188638
0.228888,-0.167444,-0.228329,0.827532,-0.560689,-0.028628
0.252398,-0.184496,-0.368111,0.699491,-0.700655,0.140693
0.245967,-0.248751,-0.310595,0.598387,0.789971,-0.133710
0.239113,-0.310654,-0.251155,-0.720187,-0.568700,-0.397381
0.238377,-0.366696,-0.229904,0.217989,0.657736,0.721016
0.364047,-0.541036,-0.964085,-0.544107,-0.838833,-0.017492
-0.062520,0.695438,0.720932,-0.253131,0.813565,-0.523485
-0.058936,0.656453,0.710234,-0.616704,0.764595,0.187271
-0.053981,0.621985,0.687496,-0.392510,-0.679300,-0.620070
-0.045757,0.593829,0.642223,0.016971,-0.992665,0.119698
-0.043122,0.550873,0.639162,0.533103,0.801371,-0.271304
-0.037746,0.514053,0.614762,0.605374,0.085434,-0.791343
0.044493,-0.062041,0.256636,-0.687787,0.602779,-0.404483
0.059357,-0.087217,0.169269,0.605922,-0.781184,-0.150366
0.073379,-0.112845,0.085720,0.727500,-0.599773,0.333191
0.080760,-0.150568,0.050738,-0.333395,0.926275,-0.175677
0.103636,-0.165098,-0.093503,0.647035,0.731716,0.214331
0.121982,-0.186843,-0.205854,0.226112,-0.959803,0.166287
0.133790,-0.222941,-0.270308,0.850049,0.501887,-0.159770
0.149604,-0.253714,-0.363505,0.278819,-0.712790,-0.643576
0.171534,-0.277177,-0.496611,-0.733624,-0.640099,-0.228188
0.198734,-0.292423,-0.668080,0.621870,0.742885,0.247789
0.165208,-0.392864,-0.421517,0.991629,-0.005115,0.129018
0.219188,-0.319588,-0.790284,0.602945,-0.767985,0.216000
0.167422,-0.444660,-0.421487,0.932238,-0.263877,-0.247591
0.242697,-0.345849,-0.935458,0.985809,-0.167863,-0.001494
0.251662,-0.450074,-0.961724,-0.644113,-0.665306,-0.377472
-0.042488,0.400713,0.678663,0.752014,0.247263,0.611012
-0.061783,0.258946,0.844710,0.903113,-0.428766,0.023373
-0.039113,0.263545,0.696707,0.943101,0.288466,-0.165370
-0.036899,0.220501,0.696387,0.873116,0.315156,-0.371947
-0.050397,0.140461,0.808066,-0.520155,0.768294,-0.373044
0.013177,0.283131,0.356217,0.822590,0.473316,0.315146
-0.035213,0.125028,0.715598,0.540960,-0.720203,0.434361
0.018450,0.242428,0.335607,-0.495854,-0.662075,0.561948
0.018978,0.191893,0.346393,-0.540606,-0.608565,0.580855
0.023511,0.152011,0.328232,0.877420,0.458435,0.141318
-0.141171,0.807787,0.421138,-0.263795,0.963484,-0.045943
-0.140328,0.758877,0.431428,-0.475186,0.877377,0.066392
-0.130312,0.735414,0.370531,-0.307682,0.619877,-0.721861
-0.157618,0.602763,0.598117,-0.414823,0.905248,-0.091916
-0.153400,0.563145,0.580830,-0.172878,0.509680,-0.842817
-0.154243,0.511889,0.600974,0.794688,0.295013,-0.530508
-0.151293,0.470018,0.595522,0.667042,0.578879,-0.468992
-0.151080,0.419841,0.608495,0.923077,-0.362494,0.128557
-0.150344,0.372826,0.619456,0.963737,-0.091470,0.250687
-0.144861,0.336370,0.592520,0.896038,-0.437165,0.077477
-0.115447,0.410732,0.370152,0.899012,0.437912,0.003079
-0.154137,0.263005,0.677759,-0.166113,-0.968957,0.183106
-0.155298,0.210212,0.701984,0.774022,0.414540,0.478588
-0.152766,0.168254,0.699010,0.984259,0.174236,-0.029585
-0.158883,0.105448,0.761657,-0.387222,0.883772,-0.262692
-0.152873,0.070341,0.730290,0.708345,-0.613010,0.349951
-0.141805,0.047059,0.663912,0.892555,0.238249,0.382861
-0.147918,-0.064029,0.737986,0.998387,-0.014537,0.054890
-0.144967,-0.106169,0.731660,-0.817640,-0.541450,-0.195698
-0.069161,-0.001129,0.183290,0.665606,0.576857,0.473503
-0.028151,-0.077562,-0.071961,0.842066,0.502910,0.194951
-0.050500,-0.171686,0.109653,0.487334,0.655849,0.576513
0.035213,-0.295673,-0.434402,0.801459,0.421352,0.424413
0.020664,-0.370662,-0.313190,-0.196750,0.803889,0.561295
-0.239641,0.694265,0.447112,0.809113,-0.470075,-0.352655
-0.253663,0.601677,0.574883,-0.012694,-0.230790,0.972921
-0.232788,0.611333,0.423091,-0.133917,0.989960,-0.045221
-0.255561,0.494743,0.622196,0.429972,-0.175396,-0.885641
-0.222563,0.536437,0.375166,0.163096,-0.586837,0.793109
-0.277176,0.333754,0.826024,-0.329267,0.715230,0.616465
-0.229943,0.463431,0.451951,0.367850,-0.161199,0.915807
-0.272745,0.296846,0.805122,0.198293,-0.929370,0.311370
-0.237849,0.340881,0.546227,0.758297,0.450461,-0.471243
-0.253241,0.252447,0.682015,0.830430,-0.555812,-0.038194
-0.259885,0.185218,0.751192,0.826365,0.545097,-0.141386
-0.272430,0.107161,0.864446,-0.507131,0.756022,-0.413823
-0.261256,0.036500,0.808591,0.926017,-0.188366,0.327125
-0.248180,0.018363,0.720903,-0.569764,0.704011,0.423956
-0.236478,-0.003206,0.644905,-0.497336,-0.389641,-0.775136
-0.233843,-0.045165,0.640416,0.317696,0.488469,0.812691
-0.180179,0.072054,0.224015,0.493866,0.869503,-0.007787
-0.142856,-0.007083,-0.014998,0.829155,0.335283,0.447312
-0.084978,-0.437263,-0.288790,-0.494209,0.841514,0.218203
-0.304058,0.430130,0.389042,0.485545,-0.874039,0.017364
-0.310911,0.358748,0.462154,0.323271,0.944883,-0.051880
-0.304270,0.324186,0.426006,0.139561,0.006864,0.990190
-0.317764,0.238011,0.551708,0.829638,0.494443,0.259282
-0.313231,0.200287,0.531418,-0.015511,0.745197,0.666664
-0.319978,0.135223,0.599895,0.843012,-0.525143,-0.116426
-0.320824,0.082888,0.623216,0.443829,0.817360,0.367340
-0.249342,0.253984,0.052954,-0.764620,0.299935,-0.570435
-0.314813,0.049317,0.589750,0.964530,0.030400,-0.262215
-0.246706,0.208318,0.048173,-0.683462,0.295195,-0.667637
-0.315235,-0.002032,0.610157,0.120361,-0.404982,0.906368
-0.310280,-0.040202,0.585348,-0.208571,0.842293,0.497032
-0.237534,0.067724,0.025289,-0.559884,0.282104,-0.779069
-0.245651,-0.154991,0.155421,-0.268226,-0.811149,-0.519703
-0.225619,-0.274649,0.047823,0.047874,-0.954969,0.292818
-0.327780,0.724046,0.466848,0.205319,0.630199,0.748794
-0.338851,0.636151,0.575933,-0.015860,-0.667641,0.744314
-0.336004,0.593107,0.568411,0.190266,-0.213969,0.958132
-0.315551,0.602041,0.418689,0.162407,0.771913,0.614634
-0.325566,0.522265,0.516084,0.666993,0.733251,-0.132149
-0.347603,0.358478,0.727346,0.861179,-0.508173,0.011429
-0.352873,0.296124,0.783987,0.288098,0.763940,0.577404
-0.421295,0.536074,0.518125,-0.167774,0.974041,-0.151972
-0.414548,0.504668,0.478333,-0.127370,-0.991597,-0.022635
-0.416762,0.446015,0.513286,-0.687261,-0.500649,0.526330
-0.417502,0.392049,0.536228,-0.237729,-0.953548,0.185017
-0.395678,0.403869,0.369277,-0.593271,0.477754,0.647905
-0.394623,0.356044,0.378635,-0.530099,0.211390,0.821163
-0.413075,0.204980,0.565496,0.607888,0.762043,0.223075
-0.411386,0.158957,0.567071,0.870595,-0.093318,-0.483069
-0.418133,0.091276,0.640416,-0.879819,0.255101,-0.401051
-0.370479,0.210576,0.245791,-0.524854,0.299139,-0.796897
