0.064307,-0.548288,-0.653273,0.320415,-0.613645,0.721647
0.069679,-0.580633,-0.687102,0.335781,0.941878,-0.010786
0.076297,-0.599554,-0.729241,0.409482,0.830856,-0.376833
0.108030,-0.573589,-0.934903,-0.393429,0.806442,0.441436
0.108530,-0.647081,-0.934684,0.945953,0.322129,-0.037484
0.108530,-0.725628,-0.930780,0.749958,0.612276,0.250362
0.072302,-0.375898,-0.237888,0.979755,0.070568,-0.187349
0.080297,-0.375347,-0.290397,0.669727,-0.705276,0.232490
0.088045,-0.381290,-0.340688,0.978008,0.176267,0.111494
0.102159,-0.410330,-0.429306,0.976741,-0.210025,-0.043204
0.107157,-0.443339,-0.457857,0.995846,-0.089135,-0.018587
0.107409,-0.515723,-0.455920,0.993079,-0.114312,-0.026959
0.117776,-0.501750,-0.524922,0.985880,-0.158385,0.054367
0.124524,-0.517153,-0.568341,0.119976,-0.979232,0.163433
0.129644,-0.552136,-0.599327,0.872756,-0.483887,0.064431
0.138642,-0.555769,-0.655428,0.629095,-0.071352,0.774047
0.144761,-0.582170,-0.694099,0.258521,0.965898,0.014439
0.186491,-0.540695,-0.966952,-0.465297,-0.113742,0.877816
0.186613,-0.621008,-0.963984,-0.176668,-0.023399,0.983992
0.186991,-0.701643,-0.959767,0.362384,0.609217,0.705360
0.059682,-0.342788,-0.157672,0.951498,-0.303238,-0.051942
0.066305,-0.355217,-0.199779,-0.176252,-0.956360,0.233049
0.232216,-0.584594,-0.973761,-0.238743,-0.154706,0.958680
0.231965,-0.667869,-0.968139,0.006616,0.438818,0.898551
0.233463,-0.735639,-0.971949,-0.021595,-0.161156,0.986693
0.294305,-0.694606,-0.967857,-0.088408,-0.080467,0.992829
0.294930,-0.766661,-0.968795,0.111582,-0.061693,-0.991838
0.212852,-0.243775,-0.093918,0.956377,-0.145914,0.253085
0.346279,-0.647846,-0.967639,0.183172,-0.016401,0.982944
0.347031,-0.725957,-0.966264,-0.155591,0.134742,0.978589
0.432983,-0.706592,-0.962766,-0.239993,-0.009005,0.970733
0.433856,-0.777001,-0.965077,-0.151696,0.082448,0.984983
0.512816,-0.838057,-0.961954,0.208976,-0.047057,-0.976788
0.606638,-0.870187,-0.958518,-0.022695,-0.319019,0.947477
0.604640,-0.808573,-0.948772,0.185805,0.260142,0.947524
0.682350,-0.894715,-0.952645,0.502831,0.806563,0.310833
0.743692,-0.932887,-0.941119,0.424026,0.805423,-0.414122
0.863505,-0.976123,-0.937933,0.471470,0.795276,-0.381120
0.889488,-0.973484,-0.932810,0.471470,0.795276,-0.381120
0.892488,-0.964903,-0.933060,0.471470,0.795276,-0.381120
0.017331,-0.120454,0.226820,0.194017,-0.645730,-0.738506
0.258951,-0.005158,0.797264,-0.162111,0.623885,0.764518
0.337785,0.018713,0.730886,0.842988,0.443586,0.304306
0.085669,-0.074358,0.632678,-0.343977,0.938182,-0.038658
-0.496268,0.571411,0.521038,-0.272319,0.953759,0.127224
-0.492147,0.534783,0.500921,-0.044310,0.998630,-0.027820
-0.496394,0.422240,0.530222,0.993745,0.111424,0.007386
-0.449044,0.819053,0.234816,0.934778,0.173789,0.309817
-0.482653,0.338187,0.453036,0.050248,0.964287,0.260050
-0.441049,0.643029,0.496829,0.670207,-0.684040,0.287943
-0.440550,0.574386,0.496392,0.002475,-0.955609,0.294626
-0.436051,0.544795,0.473433,-0.349918,0.011393,-0.936711
-0.434804,0.486042,0.468623,-0.376286,0.022233,-0.926237
-0.442799,0.332136,0.522787,-0.308874,-0.859804,-0.406613
-0.378083,0.666463,0.513822,0.924594,0.367788,-0.099288
-0.368464,0.467234,0.467623,0.726365,-0.122526,0.676299
-0.310119,0.749637,0.572297,-0.014772,-0.882522,0.470038
-0.305246,0.432466,0.559490,-0.203283,-0.164532,-0.965197
-0.219042,0.441383,0.532283,0.946139,-0.321455,0.038566
-0.155828,-0.048501,0.184119,-0.847389,-0.109817,-0.519492
-0.194805,0.703098,0.562957,0.197729,0.801405,0.564493
-0.192682,0.654142,0.551806,-0.403478,-0.267055,0.875149
-0.188187,0.406393,0.538218,-0.563382,0.490692,0.664697
-0.168319,0.171631,0.429796,0.299585,0.829478,0.471396
-0.137211,0.106284,0.246374,-0.609052,0.579325,-0.541699
-0.130588,-0.123644,0.215606,-0.013096,0.797712,0.602897
-0.190558,-0.285029,0.680345,0.276477,-0.069369,0.958513
-0.111727,0.009366,0.164784,0.920377,0.196016,0.338354
-0.188434,0.754586,0.610406,-0.055936,-0.911184,0.408185
-0.181064,0.688574,0.568174,0.040249,0.993728,-0.104330
-0.207047,0.321910,0.753345,0.985962,0.163954,0.031583
-0.199803,0.330485,0.706021,0.845594,0.373470,0.381433
-0.206174,0.187363,0.753626,0.749525,-0.353375,-0.559766
-0.216046,-0.062145,0.830905,-0.530610,-0.847367,-0.020553
-0.176066,0.374822,0.553180,0.302054,-0.053273,-0.951801
-0.137585,0.714647,0.574577,-0.204260,-0.806489,0.554845
-0.166195,0.312442,0.783020,0.996491,0.027226,0.079144
-0.143460,0.500129,0.624744,-0.342985,0.910343,0.231596
-0.159698,0.245230,0.743536,0.929388,0.212357,0.301897
-0.169943,0.056556,0.820347,-0.192364,-0.836663,-0.512827
-0.161822,0.071959,0.768838,0.850843,0.512077,0.117655
-0.128465,0.371196,0.535688,0.630822,-0.655397,0.415353
-0.121221,0.306507,0.492269,0.039069,-0.848892,0.527121
-0.145957,-0.183269,0.680563,0.361290,-0.357822,-0.861065
-0.107854,0.152931,0.414864,-0.438172,-0.605900,-0.663996
-0.082618,0.348863,0.239314,0.975608,0.194362,-0.102045
-0.056630,0.395066,0.069793,0.487723,-0.523022,0.698981
-0.077120,-0.045862,0.228850,0.722087,0.616744,-0.313396
0.034320,-0.277985,0.000448,-0.009752,-0.813361,0.581678
-0.063501,0.704858,0.577732,0.112407,0.989147,-0.094619
-0.116974,0.017396,0.961850,0.902697,-0.176797,0.392277
-0.110103,0.024433,0.916338,0.960855,-0.086901,0.263070
-0.104106,0.022782,0.877854,0.560068,-0.786761,-0.259483
-0.096233,0.041159,0.826470,-0.510622,-0.759693,-0.402656
-0.088989,0.049519,0.779115,0.779546,0.404036,-0.478605
-0.076620,0.117612,0.694901,0.650915,0.627848,-0.426751
-0.061877,-0.011322,0.607157,0.647532,0.759987,-0.055884
-0.033392,0.078123,0.417051,0.030245,0.995418,0.090714
-0.067501,-0.359286,0.663477,0.145374,0.870810,0.469634
-0.010154,0.247318,0.258244,0.809394,-0.273973,-0.519442
-0.006158,0.212556,0.234691,0.778724,-0.238861,-0.580116
0.025200,0.236098,0.030029,0.780933,0.278557,0.559061
-0.015401,-0.327821,0.326027,0.054823,0.965776,0.253516
-0.052631,0.343249,0.856113,0.633737,0.097693,0.767355
-0.052006,0.278782,0.856488,0.633737,0.097693,0.767355
-0.018527,0.673285,0.613280,0.834299,-0.242943,-0.494899
-0.015279,0.636214,0.593882,0.869142,0.400169,-0.290616
-0.060005,0.043684,0.921679,0.883347,-0.459972,0.090130
-0.051758,-0.004278,0.869483,-0.517534,-0.843072,-0.146247
-0.044388,0.005841,0.821410,0.965766,-0.103603,-0.237828
-0.032641,-0.000317,0.743880,0.756391,0.651085,0.062942
-0.034391,-0.091078,0.759623,0.924229,-0.088533,0.371433
-0.035264,-0.169847,0.769369,0.555486,0.721611,0.413174
-0.012030,-0.059835,0.610656,0.091613,0.561743,0.822224
0.019954,0.146109,0.386751,0.085886,0.804896,-0.587168
-0.019027,-0.346414,0.671130,-0.107560,-0.335487,0.935884
0.064806,0.171302,0.090128,0.952019,0.276041,0.132139
0.001714,-0.557857,0.547058,0.911821,0.088381,0.400963
0.070552,0.158208,0.052269,0.941678,0.322467,0.096215
0.073674,0.116403,0.033840,0.933785,0.215801,0.285438
0.078921,0.092090,0.001822,0.986505,0.097506,0.131528
0.080545,-0.269848,0.010693,-0.436692,0.899562,-0.009442
0.085296,-0.295477,-0.019919,0.666663,0.569042,0.481405
0.091792,-0.310995,-0.060058,0.896082,-0.182679,-0.404555
0.041317,0.706180,0.619996,0.531869,-0.192259,-0.824714
0.038320,0.520367,0.652169,0.728246,0.596792,-0.336893
0.029447,0.342806,0.722264,0.484546,0.540063,-0.688148
0.019581,0.084724,0.801855,0.997884,0.017817,0.062534
0.050063,0.285934,0.588634,0.057961,0.430840,0.900565
0.033695,0.024876,0.712737,-0.569864,0.236363,-0.787012
0.039818,0.024984,0.671193,0.691960,-0.664810,-0.281456
0.044942,0.008043,0.640362,0.870102,-0.322505,-0.372711
0.045190,-0.062037,0.642236,0.930684,0.321268,0.174970
0.051439,-0.063353,0.600754,0.865748,0.489708,-0.103277
0.057311,-0.072600,0.562364,0.965520,0.243913,0.090975
0.055561,-0.164019,0.578263,0.812238,0.546810,-0.203148
0.069927,-0.085136,0.480430,0.739673,0.487080,0.464367
0.069927,-0.155216,0.483741,0.702017,-0.534775,0.470306
0.073674,-0.184586,0.460001,-0.552556,0.779912,-0.293970
0.072176,-0.348617,0.481336,-0.729347,-0.553498,-0.402111
0.075173,-0.389428,0.463063,-0.075706,0.761174,-0.644114
0.096413,-0.240585,0.313345,0.969961,-0.146505,0.194197
0.073549,-0.554010,0.483304,0.072943,-0.876784,0.475320
0.111778,-0.231346,0.211982,0.452569,0.872337,0.184959
0.117276,-0.246964,0.175935,-0.617436,-0.763308,0.190088
0.123399,-0.262696,0.137795,0.831218,-0.553677,-0.050180
0.129396,-0.275018,0.098718,0.964478,-0.104302,-0.242699
0.137266,-0.271056,0.045678,-0.071285,-0.926771,0.368800
0.145638,-0.262918,-0.011110,0.959190,0.080487,-0.271066
0.150884,-0.287010,-0.045033,-0.886544,-0.060819,0.458630
0.070178,0.494623,0.817661,-0.076583,-0.932074,0.354081
0.092292,0.689568,0.657105,-0.131463,0.390493,0.911171
0.079298,0.457331,0.759686,-0.106194,0.924624,-0.365776
0.083294,0.430492,0.734541,0.262806,-0.516571,-0.814916
0.087294,0.405957,0.708177,0.693696,0.503116,-0.515421
0.068928,0.112442,0.849897,-0.710918,0.127457,0.691628
0.080045,0.175478,0.770306,0.348687,0.886131,-0.305268
0.098037,0.313873,0.642111,0.920619,-0.148317,-0.361197
0.100287,0.266018,0.629492,0.845997,-0.511754,-0.149660
0.106284,0.262943,0.589352,-0.138168,0.281210,0.949648
0.106158,0.188135,0.593850,-0.675375,0.447641,0.586077
0.104660,0.018605,0.615966,0.720700,0.188582,0.667104
0.111531,0.025756,0.568674,-0.564229,-0.212878,0.797702
0.110032,-0.061816,0.583730,0.058564,0.585983,0.808204
0.114905,-0.081067,0.551743,0.192517,-0.816063,0.544957
0.111904,-0.185465,0.578013,-0.502620,-0.858548,-0.101328
0.142390,0.075149,0.358201,-0.239728,-0.910608,0.336635
0.127646,-0.162589,0.471965,0.973372,-0.134628,0.185530
0.137018,-0.136073,0.408461,0.341614,0.939223,-0.034044
0.144014,-0.132554,0.361200,0.851703,-0.464397,0.242772
0.142512,-0.219904,0.375944,-0.426994,0.705224,0.565982
0.152135,-0.192072,0.309691,-0.706536,-0.643022,-0.295516
0.156756,-0.213190,0.278673,-0.654104,0.620819,0.432125
0.125271,-0.623647,0.516727,0.983170,0.179590,-0.033529
0.168873,-0.240807,0.200518,0.745044,0.612287,-0.264602
0.171747,0.437421,0.702741,0.957541,0.284798,0.044788
0.172247,0.371961,0.702991,-0.463589,0.884765,-0.047711
0.177245,0.356779,0.670037,0.879169,-0.383511,-0.282809
0.183243,0.349628,0.631709,0.194397,-0.072774,-0.978220
0.185115,0.296717,0.622151,0.183636,0.366899,-0.911956
0.194734,0.335218,0.556179,-0.510591,-0.603910,-0.612037
0.195611,0.274384,0.553118,0.846440,-0.162154,0.507193
0.201608,0.267999,0.513197,0.982887,-0.160791,0.089882
0.206855,0.252266,0.480867,0.410768,0.715535,-0.565048
0.212978,0.245451,0.440354,-0.250735,0.966781,-0.049667
0.221095,0.259532,0.385408,0.831823,-0.547893,-0.088792
0.226345,0.243141,0.350329,0.873139,-0.463330,0.151503
0.187116,-0.261595,0.642049,-0.024984,0.930066,0.366541
0.181866,-0.390858,0.685780,-0.038009,-0.387082,0.921261
0.232716,0.163708,0.314345,-0.249875,0.722227,-0.644942
0.200731,-0.258184,0.551650,0.855722,0.374376,-0.357187
0.217099,-0.154558,0.438261,0.055217,0.646523,0.760894
0.222844,-0.166436,0.399902,-0.592119,-0.610480,-0.526031
0.228343,-0.183269,0.364636,0.042832,0.997530,-0.055672
0.159505,0.666242,0.767370,0.833075,0.528324,0.163892
0.165125,0.653376,0.733572,0.378957,-0.087568,-0.921262
0.165750,0.587036,0.732510,0.464091,-0.073064,-0.882769
0.167500,0.532359,0.726075,0.912629,-0.185358,0.364351
0.168000,0.466570,0.726700,-0.054643,-0.851848,0.520931
0.217846,0.629392,0.790454,0.735394,0.533750,-0.417500
0.224842,0.641713,0.743443,0.993903,0.066382,-0.088036
0.227717,0.601668,0.726325,-0.722752,0.446950,-0.527129
0.230466,0.557331,0.711925,-0.605120,-0.185466,0.774230
0.233089,0.514539,0.696432,-0.447623,0.766346,-0.460812
0.228594,0.317398,0.738258,0.360788,-0.108965,-0.926260
0.248832,0.334997,0.600629,0.230268,-0.469281,0.852497
0.250582,0.281200,0.591726,0.862402,0.465205,-0.199617
0.239586,0.079332,0.678064,-0.366025,0.830844,-0.419195
0.273442,0.397154,0.430545,0.741086,-0.669794,-0.046565
0.244832,-0.004171,0.648608,0.119308,0.986770,0.109779
0.283062,0.356779,0.368322,0.594390,0.331634,-0.732611
0.245835,-0.281289,0.656074,0.421532,-0.787983,0.448769
0.239460,-0.426727,0.708895,-0.159121,-0.631089,0.759215
0.258325,-0.290529,0.574265,0.340542,0.900458,-0.270566
0.274441,-0.186237,0.460501,0.910779,0.150888,-0.384337
0.288560,-0.179200,0.364261,-0.307831,0.942469,-0.130351
0.249331,0.598586,0.781239,0.425727,0.818414,-0.385946
0.255954,0.612230,0.733229,0.948712,-0.312913,0.045055
0.253952,0.509040,0.755219,0.804030,-0.580351,0.129341
0.259950,0.512337,0.713112,0.618197,0.756642,0.212897
0.263949,0.486814,0.686530,-0.095664,-0.748601,0.656083
0.265821,0.434998,0.676409,-0.059296,-0.629356,0.774851
0.270445,0.417070,0.644954,-0.141875,0.964655,-0.222064
0.276065,0.411900,0.606939,0.391711,0.587887,-0.707779
0.253952,0.069979,0.782707,0.729708,0.375254,0.571586
0.261700,0.090881,0.727262,0.572298,0.401865,-0.714828
0.293806,0.332029,0.486553,0.677060,0.360655,-0.641496
0.271071,-0.018359,0.669943,0.435395,0.897824,-0.065898
0.308550,0.352052,0.383815,0.831602,-0.301131,-0.466646
0.267571,-0.419462,0.719922,-0.625475,-0.672922,-0.394914
0.275067,-0.404831,0.665507,0.316380,0.633735,0.705893
0.300303,-0.194268,0.477931,0.922499,-0.079160,-0.377796
0.314173,-0.112088,0.375600,-0.558243,0.693295,-0.455748
0.291434,-0.509122,0.558491,0.942363,-0.334406,-0.011129
0.280191,0.620918,0.827282,-0.302754,0.831080,0.466525
0.283939,0.589897,0.804729,0.093781,0.984323,-0.149377
0.288060,0.569981,0.775679,0.412494,0.846091,-0.337606
0.287309,0.479992,0.789642,-0.455150,0.689679,0.563188
0.293184,0.485277,0.746504,-0.624433,-0.777598,-0.073650
0.298804,0.486592,0.705303,0.197608,0.965994,0.166751
0.304428,0.484612,0.664133,0.286110,0.882409,-0.373491
0.308550,0.464481,0.635770,0.949782,0.306925,0.060917
0.311424,0.421689,0.619808,0.532204,0.726805,-0.434182
0.314672,0.388022,0.597755,0.729026,-0.684447,-0.007307
0.296680,0.086154,0.747472,-0.567128,0.727027,0.387036
0.324540,0.365911,0.526817,0.255475,-0.945331,-0.202686
0.307924,0.006613,0.673004,0.005539,0.822259,0.569086
0.309301,-0.047950,0.666538,0.407764,0.780963,0.473103
0.307299,-0.145755,0.686436,0.960763,-0.261341,-0.092932
0.302179,-0.282941,0.732854,0.772883,-0.630124,0.074799
0.320792,-0.276448,0.598724,-0.773602,0.531946,0.344343
0.336286,-0.169625,0.481274,0.874720,0.356661,-0.328112
0.345654,-0.131346,0.410804,0.556719,-0.830432,-0.021126
0.352776,-0.199660,0.363668,0.477690,0.238116,-0.845644
0.356151,0.537308,0.765433,0.852424,-0.480626,0.205846
0.360897,0.521912,0.733353,0.015403,0.373533,0.927489
0.367893,0.538853,0.680907,-0.762583,-0.092606,-0.640227
0.373391,0.535549,0.640987,0.969509,0.245044,-0.002361
0.379137,0.538523,0.598067,0.900541,-0.296586,0.317903
0.376140,0.423449,0.629304,-0.619168,0.702415,0.351061
0.374890,0.332687,0.643642,0.563788,0.338760,0.753249
0.361896,0.096273,0.752970,-0.503773,0.305072,-0.808173
0.393003,0.489789,0.501858,-0.319091,0.907079,-0.274571
0.364893,0.058980,0.733666,-0.519032,0.506336,0.688643
0.368519,0.031148,0.708458,0.804619,-0.034461,0.592791
0.374013,0.022453,0.670661,-0.706201,0.707927,-0.010928
0.375889,-0.024959,0.659416,-0.556515,0.171861,-0.812868
0.380136,-0.044324,0.629804,0.890990,0.207246,0.403962
0.384883,-0.059942,0.595943,0.971206,0.216393,0.099660
0.387258,-0.101197,0.580200,0.580015,0.659389,-0.478319
0.391879,-0.123751,0.550275,0.271154,0.142504,0.951929
0.381135,-0.327163,0.641424,0.958531,-0.059182,-0.278775
0.378386,-0.436846,0.670536,0.968662,-0.209304,-0.133736
0.413493,-0.090749,0.392030,-0.403783,0.907694,0.114244
0.434482,0.635113,0.739632,0.343588,-0.492036,0.799905
0.436231,0.582195,0.732229,-0.030012,-0.525382,0.850337
0.439853,0.553920,0.707583,0.935632,0.282746,0.211300
0.441104,0.499357,0.701086,0.496584,-0.744713,-0.445878
0.440852,0.420588,0.707896,0.823507,0.377763,-0.423240
0.438854,0.170422,0.739757,-0.312973,0.069222,0.947236
0.438607,0.096602,0.746035,-0.604662,-0.650704,-0.459312
0.439605,0.037748,0.741006,0.187176,-0.795742,-0.575986
0.447475,0.065030,0.682188,0.342639,-0.768056,0.541007
0.442229,-0.150818,0.735696,0.009830,0.015965,0.999824
0.471586,0.134667,0.503795,0.874827,0.474483,0.097690
0.449725,-0.274138,0.688279,0.627880,-0.069508,-0.775200
0.493074,0.629942,0.771056,-0.317437,0.941354,-0.114393
0.500822,0.657553,0.712581,0.971512,-0.174915,0.159903
0.507444,0.666134,0.665414,-0.219055,-0.551571,0.804850
0.510815,0.638195,0.642080,0.136447,0.979279,0.149650
0.508569,0.458761,0.670193,0.610663,-0.285982,0.738448
0.514063,0.457331,0.629929,-0.744246,0.292242,-0.600577
0.508317,0.303868,0.684093,-0.815342,0.433837,-0.383410
0.528933,0.415089,0.526223,0.648479,-0.188943,0.737411
0.505942,-0.017808,0.721078,0.982236,-0.078292,-0.170536
0.536302,0.208595,0.486865,0.928378,0.317936,0.192432
0.540302,0.183072,0.458502,0.883060,0.160581,-0.440930
0.507566,-0.294712,0.729761,0.592495,0.350866,-0.725151
0.521936,-0.267867,0.624744,0.056696,0.727451,0.683814
0.538300,0.682968,0.678470,0.844091,0.506053,-0.177261
0.528307,0.393085,0.773992,0.753937,0.635669,-0.165843
0.537053,0.439067,0.702648,0.630109,0.775902,-0.030626
0.543051,0.445889,0.657355,0.945108,-0.323993,-0.042424
0.550669,0.247432,0.614342,0.051549,-0.894644,0.443797
0.569034,0.185825,0.480305,0.912270,0.409294,0.015564
0.579404,0.169543,0.401683,0.997770,-0.033228,0.057887
0.573533,0.015744,0.458565,0.985130,0.121180,-0.121793
0.547172,-0.391852,0.686748,0.266131,0.961084,-0.074105
0.580030,0.586593,0.652294,0.600308,0.522433,0.605553
0.574158,0.430378,0.708895,0.357896,0.933072,0.035880
0.575157,0.286813,0.714049,0.869636,0.493492,0.014083
0.596519,0.364703,0.537905,-0.122417,-0.619801,0.775152
0.607141,0.276251,0.463250,-0.595604,0.651917,-0.469319
0.582027,-0.211102,0.694370,0.948819,-0.221040,0.225576
0.611011,0.024762,0.450787,0.498047,0.571870,-0.651854
0.615384,-0.073694,0.426453,0.545908,0.725432,-0.419206
0.630128,0.671083,0.643954,0.095961,-0.836605,0.539337
0.642996,0.397705,0.561770,-0.290149,0.798411,-0.527592
0.638996,-0.038489,0.627492,0.247163,0.501989,-0.828805
0.638748,-0.113961,0.634614,-0.700790,0.498611,-0.510178
0.654491,0.025206,0.497048,-0.456323,0.847859,-0.270008
0.642744,-0.214183,0.611749,-0.609137,-0.552343,-0.569095
0.653866,0.649966,0.660916,-0.520599,0.213150,0.826767
0.670108,0.431150,0.544371,-0.260240,0.954674,-0.144473
0.660610,0.055126,0.656886,-0.249005,0.761054,-0.598993
0.661986,-0.000981,0.649452,-0.160984,0.216932,0.962821
0.665235,-0.030130,0.624587,-0.135972,-0.108967,-0.984702
0.664983,-0.106918,0.632709,0.521400,-0.830097,0.197689
0.678602,0.013106,0.509730,0.718811,0.495911,-0.487219
0.668731,-0.207140,0.611812,0.533687,0.247002,0.808807
0.682975,0.679228,0.689185,0.157568,-0.964761,0.210735
0.687348,0.667457,0.655824,0.815341,0.549265,-0.183100
0.703586,0.452489,0.534595,-0.115954,0.922752,-0.367536
0.692720,0.048089,0.667850,-0.640823,-0.524811,0.560285
0.694467,0.000785,0.656449,-0.753317,0.076466,0.653197
0.702588,-0.030794,0.587978,0.878135,-0.473347,-0.069437
0.709210,-0.009120,0.528347,0.131923,-0.654423,0.744531
0.695218,0.677798,0.695432,0.576741,-0.655196,-0.487943
0.698466,0.654807,0.667288,0.521876,0.832856,-0.184380
0.713583,0.438959,0.548776,0.000768,0.999996,0.002623
0.704711,0.044235,0.672192,-0.279040,0.841289,-0.463001
0.707212,0.011125,0.651544,-0.275850,0.358899,0.891683
0.720206,0.071959,0.523225,0.823006,-0.433107,-0.367531
0.720080,-0.007582,0.532502,0.111079,-0.734192,0.669793
0.708337,0.674937,0.701086,-0.681105,0.416925,-0.601888
0.711334,0.653705,0.673566,0.360618,0.833220,-0.419166
0.718204,0.053481,0.673660,0.478316,-0.786752,0.390174
0.719828,0.003974,0.661915,0.826053,-0.549471,0.125370
0.733073,0.081971,0.520538,0.817412,-0.486694,-0.308166
0.731949,-0.015277,0.541623,-0.583363,-0.768921,0.261625
0.741069,0.727412,0.698868,-0.739841,0.647857,-0.181428
0.743067,0.677247,0.687529,0.209207,-0.974991,0.074995
0.744817,0.632252,0.672973,0.609807,0.514995,-0.602425
0.746189,0.580107,0.664508,0.436914,0.821462,-0.366477
0.751062,0.598478,0.611718,0.760840,-0.645397,-0.067717
0.764181,0.108594,0.536500,-0.256068,0.738556,-0.623670
0.762930,0.002100,0.561927,0.294002,-0.762762,0.575984
0.824398,0.120808,0.544340,0.012766,0.975323,0.220416
0.879243,0.124655,0.562708,0.022918,-0.639487,0.768460
0.898360,0.170859,0.561114,0.702004,0.693700,-0.161155
-0.669927,0.720590,0.581668,0.474124,0.806461,-0.353308
-0.519132,0.601224,0.469435,0.857391,0.506524,-0.091177
-0.527002,0.603319,0.508044,-0.300364,0.476212,-0.826440
-0.533625,0.571196,0.526254,0.843290,0.458239,0.280855
-0.533876,0.406286,0.465593,-0.607748,-0.367406,-0.704028
-0.538246,0.330270,0.456628,-0.072436,-0.687566,0.722500
-0.541246,0.222897,0.429483,-0.661640,0.640126,0.390475
-0.551864,0.293413,0.507481,0.584213,-0.613626,-0.531186
-0.559612,0.295394,0.543747,-0.081586,-0.961979,0.260653
-0.515758,0.312557,0.436105,-0.770433,0.637141,0.022007
-0.524253,0.326859,0.519195,0.469638,-0.681758,0.560933
-0.505766,0.491548,0.468092,0.585730,0.105020,-0.803673
-0.056878,-0.630690,-0.973917,0.093085,-0.297877,0.950055
-0.071874,-0.054665,-0.159109,0.095594,0.132273,0.986593
0.136267,-0.586353,-0.978853,0.018531,0.371727,0.928157
0.131021,-0.652472,-0.975479,0.046392,0.281069,0.958566
0.121150,-0.737291,-0.935777,-0.585850,-0.774962,-0.237091
0.117901,-0.684924,-0.854031,0.986853,0.156179,-0.041589
0.116529,-0.562920,-0.728553,0.732128,-0.630158,0.258631
0.113155,-0.528595,-0.660270,-0.473409,0.463596,-0.748975
0.110032,-0.498231,-0.596985,0.205027,-0.976546,-0.065746
0.106906,-0.481948,-0.543258,0.625793,-0.697307,0.349494
0.105159,-0.393611,-0.442832,0.975000,-0.185192,0.122793
0.100413,-0.436846,-0.427463,0.872394,-0.478181,-0.101349
0.091415,-0.331783,-0.232671,0.197588,0.978971,-0.050740
0.088918,-0.291959,-0.167606,0.919892,0.388543,-0.053226
0.085669,-0.283492,-0.122312,-0.362021,0.895438,0.259097
0.241084,-0.765123,-0.972605,-0.118341,-0.119048,0.985811
0.195359,-0.391630,-0.162920,-0.538990,-0.834576,0.113898
0.252080,-0.611762,-0.969950,-0.065483,-0.037931,0.997132
0.246708,-0.684481,-0.968670,0.005725,0.276426,0.961018
0.331914,-0.712098,-0.967857,0.221352,-0.051737,-0.973821
0.326164,-0.786026,-0.969263,0.003956,0.014185,0.999892
0.282814,-0.433106,-0.213836,-0.008671,0.909173,0.416329
0.376762,-0.687892,-0.964671,0.278488,-0.095500,-0.955680
0.371389,-0.770730,-0.971918,-0.177438,-0.036050,0.983472
0.435358,-0.747410,-0.965421,0.166963,-0.059572,-0.984162
0.429986,-0.812535,-0.959267,-0.178885,0.123412,0.976099
0.496700,-0.774362,-0.960142,0.220067,0.067946,-0.973116
0.491576,-0.841032,-0.957018,-0.161948,0.015937,0.986671
0.563662,-0.790316,-0.954363,-0.248984,0.187069,0.950269
0.558168,-0.872825,-0.959486,-0.193114,-0.244028,0.950346
0.605891,-0.798233,-0.952270,0.023804,0.284852,0.958276
0.600519,-0.875242,-0.955613,-0.063245,-0.705391,0.705991
0.674355,-0.887678,-0.950240,0.359259,0.746017,0.560707
0.500696,-0.423202,0.718360,0.302053,0.930057,0.209185
0.431359,-0.391409,0.613217,-0.728906,-0.684606,0.003413
0.251707,-0.319683,0.596755,0.020743,0.932694,0.360071
0.175621,-0.288877,0.586229,-0.383910,-0.923323,-0.009341
0.297306,-0.335852,0.541092,0.845315,-0.026864,-0.533592
0.177371,-0.288111,0.539436,0.997438,0.016136,-0.069691
-0.024399,-0.202077,0.383784,-0.096652,0.918174,-0.384207
0.164751,-0.274245,0.299601,0.996177,0.005326,-0.087195
0.093539,-0.245534,0.288106,0.380685,-0.583321,0.717506
0.111778,-0.251476,0.259743,-0.232760,-0.949800,-0.209050
0.021327,-0.215614,0.252840,0.132227,-0.984272,0.117152
0.092040,-0.241686,0.189992,0.485817,0.828304,-0.279094
0.054683,-0.226176,0.172937,0.647588,0.756418,-0.091988
0.108282,-0.242452,0.036995,0.878351,0.393840,0.270905
0.553669,-0.444769,0.733072,-0.110665,-0.941669,0.317826
0.779172,0.084059,0.531034,-0.632396,0.772115,0.062566
0.638249,0.127408,0.721421,-0.386697,0.509449,-0.768718
0.428362,0.206835,0.734728,0.965758,-0.194509,-0.171693
0.179994,0.300565,0.754001,0.212813,0.759467,-0.614752
0.345654,0.240167,0.701586,0.139671,-0.564295,0.813673
0.162128,0.310025,0.709957,-0.314434,-0.948068,-0.047930
0.838391,0.061068,0.544965,0.416177,-0.694089,-0.587399
-0.411814,0.663052,0.479556,0.733249,-0.616054,0.287790
-0.418810,0.641713,0.504389,0.912861,0.143345,-0.382279
-0.424807,0.606401,0.519257,-0.599524,0.330003,0.729156
-0.421559,0.358102,0.407399,-0.452511,0.724932,-0.519334
-0.429680,0.362943,0.447850,0.035599,-0.912609,-0.407282
-0.445049,0.578455,0.469622,-0.451141,0.378475,-0.808225
-0.450669,0.526202,0.475963,0.765490,-0.265092,0.586302
-0.451793,0.381314,0.426047,0.267204,-0.865410,0.423873
-0.458290,0.350729,0.445414,-0.227394,-0.890166,-0.394837
-0.473655,0.346217,0.516696,-0.095751,-0.995327,-0.012466
-0.447172,0.931811,0.253746,0.542220,-0.499487,0.675655
-0.449917,0.827083,0.226101,0.994925,-0.081085,-0.059578
-0.455793,0.786601,0.239096,0.929449,0.115694,0.350343
-0.362093,0.635771,0.521787,-0.747566,0.106477,0.655597
-0.363466,0.460741,0.453567,0.250321,-0.621606,0.742257
-0.367465,0.359754,0.431389,0.440947,0.722798,0.532099
-0.385206,0.285275,0.498516,-0.599673,-0.510841,0.615982
-0.301251,0.644244,0.126113,-0.182488,-0.886570,0.425079
-0.362467,0.710907,0.477900,0.873537,-0.442208,0.203431
-0.378457,0.563495,0.499453,0.721704,0.619354,-0.309101
-0.378209,0.348749,0.409523,0.710981,0.564042,0.419957
-0.399571,0.579113,0.472871,-0.366099,0.043500,0.929558
-0.404570,0.523449,0.477025,0.089285,-0.697057,0.711435
-0.406316,0.365582,0.420924,0.495187,0.861783,-0.110092
-0.426058,0.318607,0.502264,0.030140,-0.314757,0.948694
-0.428929,0.667236,0.501109,0.460699,-0.872495,0.162817
-0.433927,0.654807,0.529722,0.826859,0.455836,-0.329421
-0.438175,0.515311,0.482710,0.865819,0.291093,-0.406967
-0.443047,0.371410,0.434887,-0.751524,0.362095,-0.551451
-0.453292,0.482087,0.572922,-0.085519,0.099329,0.991373
-0.457917,0.315639,0.512604,-0.619677,-0.624389,-0.475539
-0.462789,0.267562,0.521631,-0.222213,0.652797,-0.724209
-0.362966,0.647985,0.530284,0.357227,-0.920757,0.156830
-0.365715,0.472183,0.461595,0.043293,-0.700227,0.712607
-0.370088,0.357773,0.431638,0.440947,0.722798,0.532099
-0.386704,0.290117,0.502452,-0.121084,-0.208126,0.970578
-0.336480,0.662172,0.545403,0.203437,0.951690,-0.229998
-0.337357,0.441491,0.451567,0.861897,0.248337,0.442111
-0.358467,0.243356,0.483023,0.757249,0.651289,0.048957
-0.422310,0.880001,0.231474,0.768608,-0.407235,0.493358
-0.471657,0.651060,0.515415,-0.529585,0.656423,-0.537260
-0.482775,0.403869,0.440260,0.138835,0.988561,0.058931
-0.487648,0.363380,0.453941,0.473031,0.616117,0.629795
-0.489649,0.499686,0.569892,-0.389062,-0.004581,0.921200
-0.495768,0.360304,0.525255,0.576631,0.644905,0.501592
-0.500142,0.336649,0.548370,-0.509623,0.859503,-0.039214
-0.449170,0.851283,0.226507,-0.738002,0.229232,-0.634670
-0.454043,0.806181,0.238658,0.825119,-0.265444,0.498717
-0.500393,0.601117,0.497173,0.945154,-0.272819,0.179595
-0.327985,0.713768,0.558241,-0.470806,0.741935,-0.477362
-0.335607,0.413766,0.414927,0.250058,0.890735,-0.379554
-0.339728,0.417728,0.455097,0.385289,-0.015267,0.922670
-0.351848,0.083401,0.332181,0.994798,-0.006374,0.101671
-0.325110,0.665362,0.123458,-0.171181,-0.878362,0.446293
-0.374335,0.613660,0.519538,0.903551,0.356189,-0.238170
-0.380581,0.387364,0.420987,-0.698332,-0.610590,-0.373514
-0.249902,0.620697,0.103123,-0.578377,-0.813692,0.058184
-0.283259,0.732031,0.560209,-0.129445,0.861381,-0.491189
-0.289005,0.611350,0.525411,-0.224450,-0.804096,0.550502
-0.298002,0.355678,0.410960,0.124219,-0.873351,0.470986
-0.311869,0.028502,0.291198,-0.697579,0.422801,-0.578466
-0.317866,-0.081724,0.265178,0.989278,-0.022427,-0.144312
-0.317740,0.220036,0.514478,-0.240053,0.622835,0.744615
-0.323863,0.090552,0.476807,0.758118,0.625851,0.183211
-0.278386,0.736765,0.561552,0.063535,-0.919437,0.388072
-0.283511,0.635113,0.538280,-0.033251,0.989121,0.143297
-0.291254,0.366133,0.414365,0.838650,0.488837,-0.240218
-0.309871,-0.089540,0.257463,0.998425,0.025816,-0.049801
-0.306623,0.371303,0.563676,-0.291623,0.187931,-0.937890
-0.311869,0.276365,0.545309,-0.432196,0.697585,-0.571473
-0.310245,0.729943,0.574765,-0.176593,0.929359,-0.324202
-0.325488,0.373391,0.398059,0.255620,-0.515535,0.817852
-0.344601,-0.016271,0.244031,0.959948,0.015076,0.279772
-0.345226,0.034667,0.312533,0.962834,-0.267646,0.036282
-0.352721,-0.110329,0.264741,0.991286,-0.128088,-0.030756
-0.297377,0.740613,0.568518,-0.173096,0.917871,-0.357143
-0.313741,0.378125,0.427765,-0.497703,0.527797,-0.688275
-0.324485,0.116296,0.311065,0.885614,-0.460596,-0.059490
-0.328233,0.079661,0.326402,0.962357,0.249348,0.108144
-0.334108,-0.030130,0.298883,0.887046,0.060815,0.457659
-0.329110,0.235547,0.491238,0.268891,0.954971,0.125411
-0.198427,0.481537,0.583574,-0.547138,0.775162,-0.315856
-0.208424,0.278124,0.501858,0.214060,-0.557900,0.801826
-0.204924,0.436428,0.629304,0.945070,0.010466,-0.326701
-0.253276,-0.386789,0.412022,0.455074,0.479743,0.750170
-0.235784,0.115638,0.728262,-0.085884,-0.830504,0.550351
-0.258396,-0.221771,0.679283,0.182881,0.390372,0.902311
-0.263395,-0.291522,0.676190,-0.039114,0.023773,0.998952
-0.287758,0.726089,0.567299,-0.096086,0.931732,-0.350203
-0.306245,0.381536,0.434137,-0.347458,0.936221,-0.052568
-0.319239,0.111562,0.312596,-0.852476,0.519589,-0.057544
-0.321614,0.103860,0.344863,0.922000,0.115288,-0.369627
-0.331733,-0.089205,0.270083,0.945680,-0.323828,-0.028732
-0.321115,0.229168,0.493518,0.123258,0.987796,0.095217
-0.045387,0.518171,0.076946,0.287031,0.845748,-0.449803
-0.051758,0.401008,0.044929,0.956200,0.005740,0.292659
-0.067001,0.384725,0.233567,0.934010,0.339184,-0.112159
-0.068248,0.671747,0.558959,0.048946,-0.542405,0.838690
-0.073246,0.609591,0.559490,-0.428931,-0.068709,0.900720
-0.089988,0.347432,0.515384,-0.123987,-0.499293,0.857516
-0.093983,0.304526,0.527192,-0.269628,-0.356994,0.894346
-0.091360,0.457995,0.651420,-0.411145,-0.636649,-0.652409
-0.106977,0.088464,0.473183,-0.554385,-0.760832,-0.337332
-0.100606,0.339402,0.654044,0.848541,0.479551,0.223628
-0.109226,0.171523,0.592601,-0.759322,-0.480529,0.438774
-0.114724,0.087141,0.580731,-0.649338,0.094918,-0.754553
-0.133090,-0.358736,0.365323,-0.219950,0.948274,-0.228905
-0.117847,0.135875,0.680064,0.114038,-0.990603,-0.075505
-0.125594,-0.008347,0.633302,0.338656,0.824664,0.453035
-0.124469,0.095501,0.725482,-0.082996,0.965357,0.247380
-0.138961,-0.032439,0.792453,0.925192,-0.104349,0.364872
-0.160076,0.550730,0.086598,-0.478229,-0.801657,0.358669
-0.180565,0.700788,0.567237,-0.048603,0.929676,0.365158
-0.208172,0.025092,0.202205,0.616727,0.111045,0.779305
-0.194180,0.466462,0.502795,0.016975,-0.194558,0.980744
-0.213045,-0.040470,0.202518,-0.769780,-0.099315,-0.630536
0.092166,0.530708,0.523381,-0.619373,-0.599474,0.506959
0.085795,0.412994,0.491207,0.906677,0.407750,0.108055
0.081795,0.496389,0.611499,0.969185,0.241514,0.048488
0.075798,0.496167,0.682750,-0.058310,-0.993802,-0.094649
0.062431,0.117283,0.500640,0.952059,-0.133978,-0.275015
0.065805,0.351387,0.671411,-0.083471,-0.337885,0.937479
0.058683,0.213872,0.628804,0.190920,0.269709,-0.943825
0.052937,0.115524,0.607657,-0.463696,0.861043,0.208783
0.048564,0.064479,0.613217,-0.737456,-0.210318,-0.641813
0.041443,-0.084256,0.565581,0.781119,-0.111513,0.614344
0.040444,-0.018909,0.636489,0.434130,-0.124550,-0.892199
0.036696,-0.036730,0.661946,0.857744,-0.389826,0.335128
0.031198,-0.117480,0.652513,0.866092,0.090334,0.491654
0.030698,-0.034642,0.733229,-0.757176,-0.223523,-0.613776
0.028075,-0.028813,0.769557,0.984081,-0.164109,-0.068217
0.025200,-0.035300,0.799075,0.613649,0.566921,-0.549578
0.016332,-0.137724,0.810414,-0.484072,-0.856413,0.179530
0.015455,-0.060493,0.885632,-0.333504,0.000668,-0.942748
0.110532,0.179991,-0.000958,0.981929,0.169856,-0.083457
0.104408,0.065802,-0.029977,0.814979,-0.303285,0.493789
0.083046,-0.243332,-0.056715,0.975057,-0.162157,-0.151558
0.080171,-0.225404,-0.006518,-0.316761,0.914214,-0.252738
0.075550,-0.259400,0.013567,-0.833788,0.187600,0.519234
0.197734,0.225757,0.326933,0.877273,-0.405541,0.256767
0.189862,0.032464,0.249591,0.996480,0.079407,0.026867
0.187864,0.091761,0.322966,0.822428,-0.319048,0.470979
0.188237,0.263601,0.460564,0.978483,-0.178056,0.104246
0.186240,0.323340,0.532720,0.981093,0.182338,0.064881
0.185115,0.425758,0.629086,-0.254450,-0.666177,0.701045
0.182618,0.456229,0.682906,-0.647904,-0.516258,0.560087
0.166875,-0.216822,0.294541,0.592768,-0.676714,0.436674
0.179495,0.456122,0.717829,-0.544617,0.592526,-0.593553
0.164378,-0.185136,0.349861,-0.559191,-0.829037,0.001549
0.174996,0.406729,0.723857,0.828803,-0.083935,-0.553209
0.170249,0.337200,0.719922,0.993776,0.106370,-0.033098
0.157629,-0.179529,0.426359,0.989769,-0.138084,-0.035916
0.148509,-0.269518,0.447975,-0.348074,0.066986,-0.935071
0.146759,-0.211981,0.516633,0.384601,0.884682,0.263478
0.139390,-0.377107,0.461095,0.320912,0.452169,-0.832201
0.132645,-0.519134,0.417395,0.704346,-0.467527,-0.534150
0.131268,-0.440258,0.495798,-0.158232,0.247155,0.955969
0.124897,-0.565888,0.462688,0.789998,-0.570179,0.225386
0.139641,0.119378,0.870795,0.804847,-0.067679,0.589611
0.119651,-0.518147,0.558678,-0.043313,0.814700,0.578262
0.127898,-0.096026,0.821753,0.015316,-0.898000,0.439730
0.113403,-0.637398,0.529597,0.726025,0.658337,-0.198694
0.122149,-0.187560,0.806385,0.207350,0.978255,-0.004740
0.203232,-0.889874,0.264835,-0.791427,0.058967,-0.608413
0.198859,-0.924971,0.281328,-0.779995,0.122075,-0.613764
0.206729,-0.365007,0.656292,0.250786,0.730275,0.635457
0.211353,-0.072378,0.847336,-0.651490,0.148208,0.744040
0.201608,-0.318696,0.748878,0.532992,-0.646959,0.545311
0.292060,0.404305,0.371914,0.550060,0.452246,-0.702074
0.279692,-0.202077,0.007445,-0.186520,0.969201,-0.160811
0.280065,0.160082,0.303631,-0.814107,0.462866,-0.350691
0.275944,0.464153,0.593319,-0.476942,0.877840,-0.043850
0.272196,0.461621,0.628554,0.912591,0.100043,0.396445
0.267822,0.401774,0.628804,0.225135,-0.970480,0.086508
0.268570,0.580986,0.768276,0.335622,0.937220,0.094748
0.251954,-0.154994,0.344426,-0.016090,0.998518,0.051983
0.260201,0.356894,0.675409,-0.147257,0.983041,0.109297
0.259077,0.456014,0.767714,-0.644377,0.652584,-0.398638
0.245457,-0.134206,0.431326,0.197000,0.958988,0.203797
0.252580,0.324327,0.726794,0.856030,-0.495412,0.147577
0.230466,-0.618476,0.192272,0.998203,-0.016972,-0.057468
0.249956,0.339838,0.769494,-0.387610,0.865965,-0.316012
0.227969,-0.586132,0.247092,0.694041,0.155335,0.702978
0.242461,0.173940,0.711332,-0.161185,0.081926,0.983518
0.222970,-0.638278,0.255526,0.792571,0.180176,0.582553
0.235465,0.009030,0.653481,0.304829,0.949706,-0.071671
0.218224,-0.705605,0.254433,0.775656,0.297270,0.556766
0.226345,-0.234757,0.553524,-0.630482,0.439143,0.640036
0.214602,-0.430904,0.517133,-0.656131,-0.753217,0.046433
0.303551,0.428619,0.811101,0.734290,-0.280300,0.618264
0.282940,-0.014290,0.665976,0.373612,0.917785,0.134477
0.273195,-0.270176,0.559615,0.694811,0.474357,-0.540576
0.263575,-0.381182,0.568705,0.976299,-0.058124,-0.208475
0.258825,-0.448724,0.567081,0.872196,0.073800,-0.483558
0.258078,-0.364678,0.647984,0.402127,0.690384,0.601385
0.242335,-0.497022,0.711300,0.932949,-0.304557,-0.191964
0.340034,0.623557,0.568049,0.010207,-0.970540,0.240724
0.328040,0.387472,0.501702,-0.676867,0.686484,0.265691
0.325916,0.447212,0.574015,-0.328180,0.871557,-0.364261
0.322915,0.464260,0.620839,-0.409241,-0.393626,0.823153
0.319919,0.464481,0.656043,0.542730,0.770694,-0.333878
0.312923,0.296274,0.593850,0.891206,0.348734,0.290063
0.315046,0.509805,0.752751,-0.507954,0.861333,0.009352
0.291560,-0.302964,0.322716,0.725349,0.587644,-0.358530
0.307177,0.455679,0.791422,0.202946,0.911822,0.356922
0.332539,-0.277220,0.620558,0.881878,0.276913,0.381589
0.313170,-0.435309,0.706771,0.617958,-0.733697,-0.282518
0.309423,-0.469741,0.721390,-0.946827,-0.001888,-0.321738
0.305801,-0.487891,0.746035,0.675708,0.502590,-0.539279
0.401125,0.570975,0.567018,0.295178,0.864118,-0.407640
0.396004,0.482638,0.552212,0.553063,-0.423995,0.717182
0.391379,0.572298,0.677065,0.834214,-0.470684,0.287303
0.383384,0.489789,0.701555,0.172583,-0.980320,-0.095848
0.374264,0.368550,0.700992,0.546301,0.770891,0.327541
0.368766,0.281314,0.686936,0.048582,-0.033364,0.998262
0.361522,0.112442,0.625681,0.973536,-0.223596,0.047240
0.353024,-0.087996,0.548589,0.644477,0.634954,-0.426007
0.347152,-0.194489,0.525536,0.976083,0.114007,-0.185107
0.348403,-0.031345,0.652763,-0.657533,0.404987,-0.635323
0.346905,0.017947,0.714112,0.972830,-0.219610,0.073303
0.343656,0.010682,0.743599,-0.323746,0.917100,-0.232629
0.387258,-0.401091,0.638550,0.896353,-0.435272,0.084197
0.472585,0.752054,0.657230,-0.560551,0.738407,-0.374882
0.462218,0.467013,0.525505,0.178136,-0.870854,0.458128
0.458471,0.435327,0.543997,-0.031815,-0.614325,0.788411
0.461094,0.674165,0.719516,-0.707032,0.104553,-0.699410
0.450098,0.480872,0.677877,0.139142,0.160333,0.977207
0.447727,0.498699,0.722858,-0.433335,0.634999,-0.639529
0.443228,0.440718,0.725451,0.582529,0.683104,0.440488
0.437981,0.365031,0.717860,0.881903,-0.421348,-0.211452
0.431733,0.240496,0.682688,-0.082170,-0.539929,0.837690
0.426486,0.156556,0.669537,0.812313,-0.553981,0.182350
0.417492,-0.060164,0.581887,-0.063225,-0.912993,0.403047
0.418239,0.073719,0.692590,0.845090,-0.534460,-0.013262
0.413992,0.019814,0.696619,0.699594,-0.214807,0.681488
0.411994,0.054797,0.751065,0.613214,-0.577165,0.539304
0.407747,0.016624,0.764777,0.479688,0.876061,0.049147
0.402249,-0.069074,0.752439,0.438223,0.049408,-0.897507
0.539802,0.696827,0.637301,0.724614,0.035923,-0.688218
0.533805,0.567893,0.596599,-0.348628,0.859310,-0.374226
0.528681,0.495617,0.591102,0.850757,-0.085241,-0.518600
0.530057,0.664268,0.724888,0.954148,0.030237,0.297804
0.519687,0.252381,0.483991,0.866283,0.111157,0.487030
0.520686,0.547541,0.729105,-0.636038,0.771616,-0.008062
0.507818,0.048196,0.440197,0.875925,0.171138,-0.451073
0.515066,0.444573,0.705646,0.755681,0.452012,0.473953
0.509191,0.328840,0.673785,-0.390246,0.547446,0.740278
0.499949,-0.022871,0.472434,-0.498958,0.866601,0.006640
0.506567,0.335440,0.712206,0.626009,0.733302,0.265295
0.502698,0.309146,0.732760,0.494064,0.641122,-0.587250
0.496075,0.169099,0.687717,0.965538,0.071808,0.250161
0.486330,-0.072707,0.587541,0.105789,-0.973544,0.202537
0.486829,0.061290,0.698119,0.889486,-0.398983,0.222771
0.474587,-0.273917,0.547277,-0.278778,-0.445875,-0.850575
0.473836,-0.202077,0.621464,0.890604,0.441186,0.110360
0.475212,-0.057303,0.735009,0.963595,-0.266757,0.018055
0.472211,-0.052791,0.772243,0.799897,0.405827,0.442119
0.465966,-0.167429,0.743224,0.931011,0.280724,-0.233263
0.583152,0.520481,0.538999,-0.122134,-0.964138,0.235628
0.577281,0.532467,0.620527,-0.750829,0.137510,0.646024
0.556666,0.111125,0.483460,0.929510,-0.340245,0.142280
0.562163,0.407495,0.689591,0.796379,0.291406,-0.529965
0.537553,-0.245863,0.389250,0.724471,0.646591,0.238877
0.551671,0.342699,0.760248,-0.373811,0.898499,-0.230141
0.548045,0.322347,0.782613,0.436233,0.104003,-0.893803
0.531803,-0.034971,0.651826,-0.249531,-0.957775,0.142836
0.525932,-0.042122,0.716767,0.927480,-0.344485,0.145293
0.506693,-0.313855,0.705209,0.917578,-0.101274,-0.384439
0.650991,0.413437,0.522912,-0.065481,-0.908651,0.412391
0.652367,0.568773,0.649983,-0.500807,-0.816402,-0.287541
0.630376,0.107493,0.492394,0.427125,0.572048,0.700232
0.622880,-0.051475,0.436605,0.546887,0.598543,-0.585373
0.618759,-0.100539,0.444414,0.765226,-0.491196,0.416120
0.613638,-0.180409,0.436137,-0.395699,-0.341820,0.852398
0.601144,-0.398889,0.385502,0.874121,0.128552,-0.468388
0.601769,-0.172049,0.585542,0.337479,0.744514,-0.576027
0.575531,-0.375018,0.717485,0.754068,0.646559,-0.115508
0.570410,-0.456648,0.706833,-0.053798,-0.998243,-0.024830
0.749563,-0.209671,0.462157,0.901491,0.338057,-0.270243
0.743818,-0.324081,0.433013,0.806679,0.424072,-0.411621
0.743566,-0.055652,0.654481,-0.102983,-0.453157,0.885462
0.797412,0.763496,0.734947,-0.675891,0.673930,-0.298311
0.770804,0.130819,0.509918,-0.664848,0.740944,0.094756
0.766804,0.107715,0.532189,0.170558,-0.763331,0.623086
0.879620,-0.073915,0.492925,0.088718,-0.851918,0.516105
-0.538997,0.143027,0.471372,0.828629,-0.546717,-0.120307
-0.547491,0.546332,0.523193,0.999450,-0.030233,-0.013593
-0.559234,0.601668,0.511573,-0.273613,-0.808398,0.521180
-0.582724,0.424771,0.440416,-0.118817,0.705763,-0.698413
-0.521508,0.768445,0.190054,-0.375264,0.886665,-0.270191
-0.828469,0.765584,0.550744,0.946683,0.287588,-0.145206
-0.766623,0.875596,0.233973,-0.630584,-0.169199,0.757453
-0.591718,0.965035,0.292323,-0.007338,0.980750,0.195130
-0.541246,0.852276,0.251590,0.348614,-0.926569,-0.141203
-0.830840,0.754472,0.291854,-0.703192,-0.658386,0.268421
-0.735268,0.742264,0.276486,-0.551395,-0.797075,0.246242
-0.734769,0.827412,0.246093,-0.534550,-0.326797,0.779397
-0.735642,0.880108,0.233754,0.584187,0.172925,-0.792984
-0.520383,0.732361,0.180808,0.857803,0.504730,0.097062
-0.715278,0.764597,0.591414,0.206349,0.882545,0.422533
-0.031017,-0.511325,-0.457700,0.526608,-0.798539,0.291583
-0.090487,-0.598346,-0.979040,0.300555,-0.183378,0.935970
0.040070,-0.642461,-0.978134,-0.199982,0.289087,0.936182
0.035697,-0.568090,-0.986162,-0.060756,0.374149,0.925376
0.042693,-0.299660,-0.105163,-0.328146,0.942156,0.068282
0.046441,-0.297458,-0.132652,0.769001,-0.616032,0.170712
0.052060,-0.313855,-0.164170,-0.833505,0.550736,0.044273
0.076297,-0.282061,-0.351871,0.882129,-0.360320,0.303345
0.084918,-0.322873,-0.392416,0.943577,-0.260088,0.204982
0.094290,-0.368861,-0.435023,0.968628,-0.237700,0.072513
0.103036,-0.409780,-0.476005,0.853924,-0.502473,0.135410
0.063682,-0.307691,-0.247696,-0.323414,0.941014,0.099477
0.071925,-0.348509,-0.286180,0.732209,-0.639400,0.234602
0.116902,-0.460495,-0.547568,-0.225537,-0.836235,0.499844
0.145013,-0.525076,-0.716152,0.745040,-0.589291,0.312491
0.124772,-0.493612,-0.587114,0.311765,-0.941855,0.125347
0.201482,-0.437504,-0.205277,0.190448,-0.981684,0.005093
0.039193,-0.304394,-0.174759,0.722351,0.680399,-0.123560
0.050936,-0.338712,-0.212586,0.003146,-0.975328,0.220739
0.072927,-0.229251,-0.323414,0.993393,0.047028,-0.104684
0.090416,-0.308349,-0.373424,-0.057038,-0.930873,0.360864
0.107157,-0.376891,-0.421966,0.982069,-0.080855,0.170304
0.152383,-0.493390,-0.571277,-0.310386,0.943785,-0.113710
0.058184,-0.335966,-0.240418,-0.133975,-0.990290,-0.037093
0.068928,-0.365336,-0.277090,-0.442075,0.834342,-0.329307
0.081921,-0.354337,-0.329474,0.964757,-0.070426,-0.253543
0.143763,-0.480854,-0.539072,0.842574,-0.332379,0.423784
0.039445,-0.677222,-0.974480,-0.130439,0.496400,0.858238
0.035823,-0.594821,-0.980040,0.061112,0.224220,0.972621
-0.016903,-0.629146,-0.977322,-0.034110,-0.063740,0.997383
0.404499,-0.710224,-0.962391,0.131059,-0.119306,-0.984169
0.054683,-0.552028,-0.652711,0.320415,-0.613645,0.721647
0.192610,-0.624634,-0.976791,-0.114673,-0.239010,0.964222
0.037946,-0.355110,-0.188190,0.264046,-0.950534,0.163597
0.044565,-0.321335,-0.207339,0.160902,-0.909091,0.384270
0.056933,-0.322215,-0.234764,-0.083467,0.995847,-0.036370
0.408495,-0.801758,-0.959424,0.199165,-0.007167,-0.979940
0.065306,-0.540809,-0.679699,-0.427701,0.903583,-0.024681
0.078673,-0.548947,-0.711155,-0.063991,0.966461,-0.248714
0.102784,-0.613085,-0.760165,0.229867,0.906876,-0.353180
0.117402,-0.624526,-0.794213,0.789722,-0.600394,0.125958
0.194486,-0.706377,-0.969919,-0.060149,0.135586,0.988938
0.075924,-0.359286,-0.272248,-0.568964,0.758044,-0.318825
0.091041,-0.372379,-0.304453,0.937991,-0.340341,-0.065888
0.090542,-0.232333,-0.321727,0.993393,0.047028,-0.104684
0.115027,-0.295262,-0.368082,0.955054,0.293616,0.040762
0.598521,-0.791418,-0.951333,-0.174173,0.234977,0.956269
0.150259,-0.261266,-0.078737,0.945962,-0.121714,0.300570
0.052060,-0.310659,-0.152549,0.993482,-0.066494,-0.092586
0.069179,-0.305488,-0.179007,0.496530,0.861316,-0.107669
0.089669,-0.314513,-0.209525,0.227634,0.964427,-0.134399
0.319793,-0.449940,-0.217053,-0.051851,0.893441,0.446177
0.032574,-0.496579,-0.555877,-0.181351,-0.892669,0.412619
0.055686,-0.519463,-0.590800,-0.548684,0.833654,0.062984
0.070678,-0.503731,-0.616164,-0.139704,0.979900,-0.142407
0.094915,-0.530468,-0.652555,-0.258613,0.835216,-0.485317
0.114028,-0.531677,-0.682948,0.353360,0.925007,-0.139640
-0.030396,-0.538170,-0.451297,-0.397581,0.884753,-0.243191
0.298305,-0.670844,-0.966202,-0.064751,-0.177002,0.982078
-0.011279,-0.568198,-0.977385,0.148794,0.231643,0.961354
0.767178,-0.003842,0.645860,-0.460470,0.096375,0.882428
0.883742,0.144571,0.560240,0.560169,0.605218,-0.565615
0.685346,0.059531,0.482523,0.755823,-0.569318,-0.323431
0.679101,0.285275,0.514322,-0.565122,0.080699,0.821051
0.725951,0.671197,0.690590,-0.155653,0.936090,0.315448
0.711334,0.567893,0.638706,-0.011996,0.099372,0.994978
0.632751,-0.019789,0.649702,0.646693,-0.093765,-0.756965
0.621134,-0.009892,0.627461,0.109534,-0.831255,0.544993
0.624005,0.550730,0.742100,0.433700,0.688204,-0.581618
0.525932,0.121687,0.455066,0.964975,0.145490,-0.218304
0.458345,0.446439,0.678377,-0.523700,0.340625,-0.780841
0.413992,0.616741,0.619870,-0.078625,-0.450481,0.889317
0.514314,0.291654,0.763278,0.911980,-0.280032,0.299790
0.485331,0.533017,0.749753,-0.101138,0.969288,0.224171
0.471964,0.502875,0.716923,0.068492,-0.633309,0.770862
0.561664,0.477246,0.597630,0.859792,-0.421688,-0.287988
0.554919,0.654914,0.618496,-0.529365,-0.585906,0.613585
0.095540,-0.181289,0.137077,0.986691,0.159672,-0.030737
0.081670,-0.196249,0.106496,0.885181,-0.399769,0.237990
0.377765,0.004525,0.731167,0.832543,0.553387,-0.025211
0.364393,-0.028921,0.698493,0.981164,-0.102270,-0.163887
0.291560,0.444680,0.640862,0.657012,0.509650,-0.555510
0.276565,0.388902,0.600910,0.106048,0.992768,-0.056261
0.265947,0.441712,0.589634,-0.414584,0.909476,-0.031194
0.332161,0.536979,0.738539,0.351360,0.921853,0.163504
0.318294,0.501009,0.704178,0.732442,0.667420,0.134458
0.304802,0.471082,0.672161,-0.398482,0.085941,-0.913141
0.220473,0.283845,0.470809,0.328180,0.928178,0.175453
0.205856,0.228618,0.431482,-0.144373,0.948509,-0.281935
0.192610,0.218935,0.403463,0.967226,-0.245703,-0.064064
0.396625,-0.201311,0.730667,0.332356,0.866007,-0.373594
0.236464,0.354362,0.754719,0.988402,-0.150465,-0.020530
0.249956,0.357988,0.542247,0.356763,0.822258,-0.443410
0.176494,0.149406,0.358670,0.903123,0.259429,-0.342148
0.042941,-0.217809,0.274112,0.098752,0.955803,0.276926
0.045815,0.169321,0.349705,-0.185476,-0.949132,0.254455
0.213226,0.416190,0.720484,0.551276,0.815349,0.176922
0.176620,-0.254444,0.527879,0.858676,0.506075,0.081023
0.193609,0.580986,0.712081,-0.422069,0.565397,-0.708649
0.175495,0.440611,0.651201,0.504866,0.358179,-0.785378
0.097286,0.447433,0.500703,0.957603,0.264529,0.114109
0.092414,0.657331,0.529128,-0.421889,0.591985,-0.686705
0.089543,0.718609,0.797701,-0.685028,-0.631703,0.362889
0.057558,-0.122214,0.587759,-0.749116,-0.385790,0.538508
0.047188,-0.049824,0.581012,0.118421,0.597589,0.793009
-0.019526,0.310905,0.518164,-0.791573,0.428030,-0.436121
-0.028020,0.419709,0.521069,-0.630488,0.517791,0.578253
-0.157952,-0.018359,0.195771,0.718843,-0.065451,0.692084
0.127772,-0.380961,0.675784,0.693796,0.695123,0.188285
0.101659,-0.376012,0.626899,0.542284,-0.519345,-0.660461
0.032322,-0.085686,0.546121,-0.359193,-0.836514,0.413792
0.039693,0.430492,0.651638,0.709355,0.282336,-0.645835
0.025326,0.415089,0.621557,0.749287,0.409718,0.520289
0.017705,0.559204,0.632522,0.648392,0.404135,0.645185
-0.004283,0.353811,0.554180,-0.287123,-0.850308,0.441063
0.277568,0.050399,0.779740,-0.122822,-0.987440,-0.099385
0.262950,0.390446,0.812819,-0.264565,0.882052,-0.389859
0.243585,0.199577,0.740663,-0.709678,-0.022485,-0.704167
0.159631,0.370309,0.607688,0.472104,0.400955,0.785081
0.127646,-0.135965,0.453723,0.988076,0.132243,-0.078848
0.116777,-0.080959,0.442384,-0.672676,-0.728750,-0.128184
0.084796,-0.206918,0.357889,0.742313,-0.512002,0.432233
-0.171944,0.523778,0.512260,-0.019504,-0.296312,0.954892
-0.211047,0.270530,0.394654,0.246773,0.754558,-0.608066
-0.387203,0.709041,0.140763,-0.053574,-0.866940,0.495525
0.189240,-0.100982,0.842650,0.741500,0.648628,0.171637
0.089791,-0.330574,0.612218,0.966592,-0.254694,-0.028836
0.100161,0.322676,0.748066,0.984887,0.159595,0.067285
