0.030601,-0.213057,0.624227,-0.620748,-0.436037,-0.651570
0.283573,-0.706263,0.436057,0.967535,0.096389,-0.233635
-0.416006,0.761377,0.568010,-0.421549,0.891765,0.164476
0.443060,-0.656453,0.514173,-0.653526,-0.750529,-0.098032
-0.097992,-0.022384,0.360530,0.467686,0.761910,-0.448066
-0.698668,0.127485,0.535915,0.008444,-0.896488,0.442987
-0.531253,-0.135450,0.556816,0.793826,0.459290,0.398613
0.678939,-0.351784,-0.946576,-0.443194,0.016805,0.896268
-0.405208,0.219822,0.756289,0.227780,-0.215776,0.949504
0.167927,-0.533549,-0.976777,-0.143767,0.647124,0.748707
-0.073149,-0.947732,-0.967093,0.098491,-0.479872,0.871793
0.137099,-0.279540,-0.032814,0.724746,0.635360,0.266571
0.269892,-0.516394,0.507989,0.925037,-0.261100,-0.275923
0.180925,-0.484744,-0.581231,0.970717,-0.183985,0.154463
0.012135,-0.309232,-0.137099,-0.614778,0.622798,0.483912
0.626350,-0.504831,-0.956616,0.075158,-0.156886,0.984753
0.737203,-0.763609,-0.918665,-0.637009,-0.002246,0.770853
-0.236286,0.201448,0.820249,0.734208,-0.624137,0.267193
0.208840,-0.538871,0.570250,0.931567,0.149932,0.331215
-0.256222,0.101301,0.733822,0.509243,0.472797,0.719121
-0.132478,-0.922330,-0.979760,0.861322,0.323339,-0.391889
0.039372,-0.359391,0.347143,0.769138,-0.143922,0.622667
-0.242428,0.227434,0.756161,-0.639716,0.577787,-0.506878
0.068934,-0.575340,-0.985552,-0.241407,0.388846,0.889113
0.081819,-0.343603,-0.977993,0.592124,0.583566,0.555734
-0.607754,0.341802,0.515731,0.552237,0.796206,0.247165
-0.403965,0.049841,0.819009,0.344910,0.937576,0.044590
0.595285,-0.419065,-0.938851,0.564697,0.022102,-0.825002
0.286291,-0.551896,-0.933997,-0.075953,0.993692,0.082503
-0.073728,-0.107138,0.391747,0.993345,-0.056802,-0.100196
-0.210307,-0.072465,0.611427,-0.722520,0.658009,0.212107
0.090715,-0.783961,-0.955527,-0.122766,0.331461,-0.935447
0.433371,-0.254989,0.258999,0.680613,0.630550,-0.373059
-0.190402,0.703584,0.566926,0.616929,-0.000792,0.787018
-0.260873,0.054936,0.651976,0.957746,0.249318,-0.143399
0.097430,-0.394748,-0.419266,0.500660,-0.860607,0.093252
0.034446,-0.118672,0.625635,-0.716468,-0.696973,0.030047
-0.338680,-0.352615,0.452851,0.833851,-0.273826,-0.479283
0.031401,-0.723347,-0.969146,-0.772141,0.134517,0.621050
-0.356775,0.160205,0.442081,0.964032,0.257153,0.067190
-0.526044,0.453598,0.557353,0.844174,0.142073,-0.516900
0.581790,-0.217143,-0.952215,-0.095876,0.183342,0.978363
-0.026964,-0.188819,0.414194,0.954332,0.221352,0.200636
-0.389236,0.133345,0.801419,-0.124757,-0.876260,-0.465408
-0.055704,-0.216429,0.055288,0.876718,0.362950,-0.315648
-0.137308,-0.375180,-0.977714,-0.573431,-0.661409,0.483441
-0.253492,-0.046780,0.633843,-0.472000,0.778787,0.413167
0.021617,-0.948278,-0.965245,0.032037,0.619470,0.784366
0.464230,-0.684306,-0.947739,0.017747,-0.230198,0.972982
0.430550,-0.117203,0.563615,-0.111056,-0.119785,0.986569
0.261079,0.567379,0.316808,0.806605,0.543200,-0.233070
-0.205115,-0.251707,0.485792,-0.713522,-0.476974,-0.513207
-0.386484,-0.301098,0.531762,0.085497,0.767505,0.635316
0.402542,-0.453517,-0.951174,-0.629944,0.234681,0.740335
0.370004,-0.610647,-0.948532,-0.764747,0.053277,-0.642124
0.202854,-0.679726,0.556319,-0.438193,0.742408,-0.506772
-0.426786,0.311736,0.521674,-0.608502,-0.735063,-0.299010
-0.646606,0.817628,0.426129,0.280260,-0.959193,-0.037466
0.585526,-0.775963,-0.942688,-0.506466,0.801224,0.318640
0.189653,-0.197145,-0.973920,0.289676,0.262177,-0.920517
-0.248534,-0.020902,0.435428,0.820438,0.567693,-0.067869
-0.319732,-0.050860,0.550080,0.098733,-0.260635,0.960376
-0.646839,0.140405,0.594093,-0.014514,0.956810,0.290351
0.079266,-0.323390,-0.087895,0.770425,0.637193,-0.020741
-0.141932,0.554099,0.552643,0.824517,-0.186046,0.534376
0.805489,-0.730415,-0.930943,-0.708688,-0.063173,0.702688
-0.572667,0.308444,0.374730,0.990710,-0.095784,0.096531
-0.297070,0.044933,0.824052,0.012040,0.825395,0.564428
0.721047,-0.227158,-0.944977,0.805414,-0.067602,-0.588845
0.156544,0.093617,0.446635,0.912858,-0.335874,-0.232117
0.194506,-0.345914,0.446397,0.742805,-0.552219,-0.378543
-0.338688,0.309969,0.263114,-0.549518,-0.524624,0.650230
-0.155499,0.240358,0.854531,0.994549,-0.085718,0.059365
-0.683209,-0.068185,0.593339,0.843484,0.299504,-0.445906
-0.102219,-0.078779,0.359591,0.436793,-0.798079,0.415069
0.081161,0.091113,0.674577,0.779882,0.298839,-0.549982
-0.060505,0.598396,0.452949,0.110035,-0.639698,0.760710
-0.067217,-0.170242,0.162104,0.998951,-0.016814,-0.042599
-0.395031,0.219318,0.997238,0.804194,0.589510,0.075826
-0.234024,-0.030894,0.379685,0.463116,-0.059075,0.884327
0.144264,0.658766,0.350965,-0.369196,0.641042,0.672874
-0.103326,0.128518,0.773281,0.853430,-0.408734,-0.323410
-0.355210,0.519503,0.334854,-0.088765,0.709580,-0.699011
-0.406268,0.767627,0.405770,0.718139,0.638538,-0.276669
-0.238123,0.302775,0.789135,0.944198,-0.299703,-0.136633
0.237202,-0.409907,0.460358,-0.325738,-0.859881,-0.393065
-0.073989,0.079525,0.680141,0.035984,0.227325,-0.973154
0.163754,-0.263924,-0.978154,0.272317,-0.895095,0.353057
0.069685,-0.797888,-0.951531,0.241056,-0.486523,0.839754
0.454479,-0.469426,-0.944891,-0.013342,-0.045240,0.998887
0.716438,-0.379613,-0.945902,0.939862,-0.073782,-0.333489
-0.310710,0.190294,0.518329,0.987158,0.039375,-0.154821
-0.419890,0.000386,0.703408,0.034961,-0.875830,-0.481351
0.396735,-0.490407,0.139035,0.061953,0.996032,-0.063899
-0.016727,-0.600742,-0.981341,-0.236461,-0.101819,0.966292
0.236063,-0.499062,0.488842,0.876984,0.428983,-0.216501
-0.078756,-0.058636,0.269488,0.721164,0.546385,0.425894
-0.115353,0.166601,0.896661,0.159246,0.921126,-0.355201
-0.279107,-0.155596,0.566937,0.109002,-0.393318,0.912918
-0.146380,-0.126405,0.367931,0.961968,-0.226041,-0.153372
0.320545,-0.377527,0.528369,0.814652,-0.100202,-0.571229
-0.150890,-0.405060,0.541468,0.672519,0.035755,0.739216
-0.501704,0.138910,0.864445,0.586246,0.801565,0.117517
-0.125119,-0.626568,0.512557,0.745142,0.390219,0.540826
0.387097,-0.421531,0.460565,0.703624,0.674617,-0.223170
-0.075357,0.041725,0.643574,-0.405892,0.900830,0.154131
0.309704,-0.359018,0.573205,0.317146,0.947956,-0.028234
-0.014140,-0.416336,0.496271,-0.449548,0.187954,-0.873258
-0.027054,-0.628428,0.499782,0.689787,0.350868,0.633313
-0.525036,-0.044948,0.586964,0.967451,-0.059488,0.245966
-0.368534,-0.004277,0.619414,-0.452331,-0.878444,-0.154056
-0.426596,0.064905,0.716785,0.436187,0.539388,0.720279
0.163153,-0.358291,0.620137,0.787409,0.612016,0.073649
-0.387326,-0.202803,0.646611,-0.605518,-0.792579,-0.071880
-0.023635,0.777029,0.500178,0.739958,0.008534,-0.672599
-0.192020,-0.251012,0.589012,0.736489,-0.123518,-0.665077
-0.136428,0.378982,0.329209,0.521783,0.704302,-0.481353
-0.137411,0.457226,0.597633,0.174318,0.419761,-0.890738
0.380868,-0.387210,-0.953383,-0.235596,-0.157931,0.958933
0.019213,0.264336,0.684409,0.234983,0.971895,0.014245
0.310841,-0.353724,0.517852,0.887673,0.063123,-0.456126
-0.579566,0.120487,0.654870,0.745377,0.666084,0.027300
-0.424701,0.047558,0.604056,-0.010468,-0.982563,0.185637
-0.365043,0.101647,0.762304,0.873443,0.201035,-0.443488
-0.385519,0.283095,0.510324,0.498534,-0.854089,0.148306
-0.413737,0.245368,0.723140,-0.003687,0.815331,0.578983
-0.325263,-0.019604,0.413024,0.503775,0.855714,-0.118173
-0.217449,-0.120186,0.422611,0.769842,0.631509,0.092414
-0.485161,0.053751,0.556820,0.035891,-0.982463,0.182970
0.279635,0.546491,0.327518,0.664807,0.695661,-0.272191
-0.236071,-0.059357,0.440491,-0.534769,-0.835697,0.125030
0.934528,-0.254875,0.335491,-0.593637,0.534144,0.601901
0.202810,-0.495939,-0.980958,0.312114,0.135744,-0.940297
0.078903,0.459563,0.373327,0.747712,-0.149376,0.647004
-0.149810,0.686048,0.503538,-0.680675,0.731029,-0.047718
-0.254758,0.120889,0.793153,0.550700,0.749906,-0.366567
-0.326160,-0.025681,0.542088,0.613623,-0.086724,0.784822
-0.158153,-0.211870,0.460867,0.754194,-0.642742,0.134441
0.196592,-0.369592,0.589920,0.011640,0.825900,0.563696
0.498879,-0.513726,0.543593,-0.488498,-0.219974,0.844382
-0.532584,0.335855,0.390240,-0.518087,0.851101,-0.084927
-0.571407,0.219137,0.576794,-0.569552,0.746681,0.343624
0.651938,-0.270986,-0.956992,0.020105,0.056080,0.998224
0.645329,-0.455318,0.113997,-0.421713,0.610870,-0.670072
-0.021758,-0.005111,0.379822,-0.576540,0.816477,0.031091
0.370685,-0.425048,-0.956200,0.313715,0.141408,-0.938928
0.547367,-0.430603,-0.946075,0.178433,-0.165856,-0.969873
-0.436581,0.924848,0.501258,0.910569,0.389155,-0.139365
-0.234726,-0.398052,0.514256,-0.141610,-0.081828,0.986535
0.536364,-0.768761,0.494602,0.760591,-0.602245,-0.242490
0.357866,-0.670224,-0.949785,-0.458344,0.115133,-0.881286
0.916959,-0.313300,0.348470,-0.661655,0.640924,0.389138
-0.065700,0.143705,0.670654,-0.696239,0.140989,-0.703828
0.184148,-0.483357,-0.948394,-0.197717,-0.385542,-0.901258
0.406085,-0.231432,-0.950277,-0.325099,0.116555,-0.938470
-0.741413,0.545536,0.405471,0.967527,-0.170056,0.187008
0.434428,-0.232642,-0.964655,0.656855,-0.052662,-0.752176
-0.134975,-0.563586,-0.985071,-0.057135,0.092761,0.994048
-0.079005,-0.983299,-0.976361,-0.144273,0.266834,0.952882
-0.040008,-0.167165,0.272299,0.787783,0.608839,-0.093348
-0.211082,0.533611,0.340117,0.369905,0.587724,-0.719549
-0.109885,-0.099792,0.580156,0.877645,0.478441,0.028889
-0.530602,-0.037588,0.622974,-0.465222,0.813248,0.349565
-0.447147,0.082571,0.845873,0.577598,0.814321,-0.057111
0.147450,-0.545365,-0.971529,0.877051,0.009116,0.480310
-0.050918,-0.095111,0.112905,0.793428,0.566871,0.221654
0.166607,-0.512225,-0.538417,0.929912,0.356287,0.091232
-0.285321,0.135560,0.722665,-0.609995,0.731114,0.305578
0.163750,-0.132863,0.661425,-0.059656,0.071449,0.995659
-0.094879,-0.035116,0.364634,0.099668,-0.988200,0.116308
-0.108753,-0.369860,-0.977565,0.983540,-0.175514,-0.042933
-0.174108,-0.250332,0.569836,0.802049,-0.592846,-0.072461
-0.586283,-0.069640,0.595334,-0.415244,0.560628,-0.716428
-0.522390,0.333338,0.409583,0.891796,-0.442790,-0.092938
-0.743738,0.335502,0.467047,0.695017,-0.695964,0.180513
-0.635975,0.506970,0.591107,-0.118749,0.992133,0.039625
-0.074853,-0.848536,-0.967739,-0.832471,0.396364,0.387155
-0.357953,0.332448,0.793909,-0.603601,0.786249,0.132207
-0.165700,0.762600,0.540980,0.685708,0.381242,0.620047
-0.418316,-0.160029,0.553943,0.387591,-0.894455,0.222985
-0.021756,-0.184014,0.630480,0.787126,0.241359,0.567608
-0.457151,0.635340,0.557555,-0.395748,-0.340488,0.852907
-0.151643,-0.001317,0.637066,0.920046,0.079807,-0.383597
-0.048587,-0.425442,-0.473619,-0.955583,-0.166348,-0.243288
-0.330404,0.455965,0.379258,0.975118,-0.221080,-0.016410
0.190263,-0.384307,0.486123,-0.661056,0.699921,0.270400
-0.424396,0.452850,0.585527,-0.243010,-0.880459,0.407108
0.163051,-0.499959,-0.633982,0.872286,-0.292850,0.391606
0.148201,0.679642,0.358380,0.729884,0.683020,0.027429
0.234672,-0.611317,-0.928333,0.433240,0.822232,-0.369103
0.520558,-0.613918,0.477728,-0.698527,0.084458,-0.710582
-0.242789,0.525896,0.608845,0.262051,0.559350,0.786420
-0.243166,0.041146,0.605102,0.956870,-0.148972,0.249413
-0.074882,-0.348359,-0.208057,0.877234,0.411120,-0.247872
-0.286626,0.737834,0.565516,-0.526509,-0.432671,0.731836
-0.456495,0.782009,0.538499,0.864401,0.449341,-0.225618
-0.609016,0.154951,0.672361,-0.416591,-0.842939,0.340450
-0.396868,0.028013,0.702223,0.956222,0.006255,0.292576
-0.496650,0.179626,0.579646,-0.593748,0.726142,0.346671
0.061809,0.759886,0.522206,0.076489,-0.970140,0.230170
-0.279537,0.044621,0.552053,0.197751,0.611869,-0.765840
-0.261442,-0.052658,0.824991,0.173231,0.830039,-0.530120
0.133251,-0.821743,-0.964343,-0.571436,0.575676,0.584857
0.721964,-0.335740,-0.940544,0.596275,0.248827,-0.763244
-0.595272,0.521841,0.363550,-0.216391,-0.624991,0.750040
-1.000000,0.672316,0.503057,-0.729378,0.516180,0.448961
-0.259741,0.047712,0.575652,-0.260026,0.608013,0.750138
-0.241158,-0.022163,0.552041,-0.206757,-0.960181,-0.187895
0.006610,-0.218320,0.035005,-0.533711,-0.703244,-0.469682
0.491315,-0.320704,0.530215,-0.525511,0.194280,0.828308
0.652747,-0.765438,-0.944761,0.036734,0.744815,0.666259
0.138341,-0.647685,-0.949366,0.414053,-0.190885,0.890013
-0.570461,-0.047660,0.856156,-0.675182,-0.440838,0.591431
-0.500117,0.396409,0.501713,0.005643,0.050209,0.998723
-0.564448,0.155070,0.381791,-0.758167,-0.197502,0.621430
-0.696438,0.069118,0.722099,0.696120,-0.392378,0.601213
0.022480,0.772410,0.519002,-0.543259,-0.786289,0.294314
-0.256053,-0.360854,0.586046,0.813341,-0.167080,-0.557280
0.248157,0.416809,0.306516,0.617447,0.406570,-0.673395
0.546979,-0.122913,0.568633,-0.762898,0.338319,-0.550933
-0.209904,0.247388,0.757112,0.434287,-0.769864,0.467658
-0.391327,0.756951,0.560694,0.083706,0.944078,0.318920
0.069476,0.418151,0.381739,0.530707,-0.390514,0.752230
-0.240838,0.092102,0.558685,-0.674218,0.566614,-0.473686
-0.451697,0.565868,0.505409,0.850162,0.482600,-0.210528
-0.071433,0.362780,0.817332,0.905469,-0.384113,-0.180508
0.646459,-0.420460,-0.930552,0.113195,0.232735,-0.965930
-0.350208,0.136472,0.775800,0.955182,0.269924,-0.121527
0.022300,-0.481863,-0.983353,0.856415,0.146235,0.495146
0.409481,-0.198950,0.529941,0.267943,-0.586209,0.764569
0.448054,-0.192845,0.306163,-0.271876,0.306947,-0.912067
0.085545,0.501731,0.301715,0.943628,0.294327,0.151451
-0.670726,-0.003787,0.605351,-0.694335,0.397510,0.599904
0.510570,-0.480054,0.115118,-0.187908,0.980317,0.060574
0.039705,-0.375765,-0.418866,0.047343,0.989002,-0.140120
-0.104827,0.124433,0.784720,0.853438,-0.521046,0.012450
-0.292688,-0.240409,0.559489,-0.431126,-0.477859,-0.765364
0.552584,-0.536694,0.512786,0.425497,0.882612,-0.199871
-0.393075,0.429813,0.588766,0.795699,0.595316,0.111637
-0.139960,-0.340705,0.585300,-0.233987,0.243014,-0.941379
-0.290270,0.253851,0.797717,0.824186,0.166469,0.541299
-0.145499,-0.678806,-0.952802,0.142310,0.251180,0.957422
0.138728,-0.700492,0.533094,-0.636676,0.637870,0.433319
-0.263759,0.180105,0.149112,0.629875,0.651655,-0.422615
-0.393919,0.167414,0.902842,0.118888,0.426420,0.896678
0.188309,-0.550321,-0.848785,0.387285,-0.895690,0.218516
0.687877,-0.197963,-0.943152,0.493266,-0.109233,-0.862993
-0.291058,0.059208,0.646783,-0.628598,-0.657123,0.415997
-0.289910,-0.111812,0.766261,-0.475357,-0.842043,0.254948
0.723823,-0.434483,-0.948686,0.706457,0.666371,-0.238470
0.256583,-0.369682,-0.971628,0.419225,0.233328,-0.877387
-0.156373,-0.379052,-0.990516,0.051801,0.283187,-0.957665
-0.139878,0.243732,0.904731,0.832719,-0.046000,-0.551782
-0.405734,0.020794,0.478009,-0.533611,0.680320,-0.502417
0.081506,-0.289528,-0.983298,-0.074941,0.338912,0.937829
-0.078125,-0.623378,-0.963458,0.098025,-0.266956,0.958710
0.638426,-0.603600,-0.938480,-0.607561,-0.644576,0.464102
0.319721,-0.423653,0.530588,-0.169646,0.192117,0.966598
0.350215,-0.518611,0.431602,-0.277119,-0.846682,-0.454241
0.650638,-0.719274,-0.939729,0.151071,0.239484,0.959075
0.331835,-0.459889,0.461250,-0.762843,-0.369825,0.530377
-0.386800,0.060501,0.765213,-0.109350,0.993938,0.011359
-0.560543,0.092821,0.760415,0.561990,0.697117,0.445191
0.111060,-0.831246,-0.963129,-0.098375,0.711709,0.695552
0.459430,-0.672968,0.479703,0.393581,0.886976,-0.241594
0.098888,-0.518395,0.435396,0.983490,0.175085,0.045742
0.023203,-0.395488,-0.221865,-0.305444,-0.930583,-0.201790
0.067416,-0.386166,0.442857,0.109030,0.807657,0.579485
0.228437,-0.401043,-0.969332,0.672600,-0.647186,0.358832
-0.183540,0.277723,0.766381,0.824110,-0.524683,-0.213425
-0.070536,-0.552062,-0.243640,0.919014,-0.125155,0.373830
0.570402,-0.817356,-0.939692,0.579025,-0.251056,-0.775694
0.052932,0.089692,0.602483,0.807345,-0.542165,-0.232920
0.026476,0.126161,0.243489,-0.499432,0.786272,-0.363792
-0.587761,0.856300,0.357782,0.858196,0.469599,-0.207311
-0.447389,0.018672,0.614132,0.114598,0.992449,-0.043731
0.020050,0.775561,0.484489,-0.340172,-0.862438,0.374811
-0.332389,0.170760,0.752940,0.404068,0.707944,-0.579262
-0.168601,-0.347850,0.608309,0.574021,-0.817499,0.046847
0.054393,-0.411096,0.341555,0.922985,-0.356027,0.146096
-0.422094,0.252626,0.782431,0.539863,0.721348,0.433827
0.177692,-0.534109,-0.667556,-0.625679,0.774610,-0.092221
-0.671433,0.491553,0.589617,-0.118749,0.992133,0.039625
-0.096879,-0.029297,0.384484,0.856377,-0.502914,0.117028
-0.052998,-0.404384,0.529575,0.202029,-0.975624,-0.085686
0.017352,-0.743290,-0.975239,-0.128430,0.082562,0.988276
-0.286155,-0.109710,0.600493,0.648258,-0.567625,-0.507507
0.115976,0.733774,0.378996,0.598511,0.577579,-0.555146
0.277440,-0.568123,0.572125,0.880410,0.271880,0.388536
0.166850,-0.297608,0.589908,0.787086,0.223972,-0.574745
0.036704,0.805241,0.490972,0.041641,0.990106,-0.134001
-0.175985,-0.516066,-0.995370,0.697289,0.237309,0.676367
-0.256982,-0.275354,-0.985543,-0.026663,-0.379446,0.924829
0.175364,-0.358914,0.586681,0.888470,-0.323702,-0.325328
-0.047991,-0.119873,0.217088,0.480662,0.875728,0.045432
-0.222983,-0.047324,0.418076,-0.300947,-0.742633,0.598271
-0.091410,-0.554349,-0.970718,0.691073,-0.649453,-0.317222
-0.530618,0.079010,0.881792,0.577372,0.782974,-0.231502
0.125647,-0.382380,0.467743,-0.096873,-0.891228,-0.443089
-0.501485,0.206593,0.893588,-0.554566,0.811659,0.183482
0.596059,0.362932,0.346328,-0.838056,0.508373,-0.198040
0.192170,-0.430593,0.403147,0.323072,0.021730,-0.946125
-0.515944,0.553882,0.461105,0.804542,0.400932,-0.438139
-0.222595,-0.249434,0.543657,0.899967,-0.318413,0.297778
-0.117991,-0.967986,-0.962561,0.847902,0.520346,-0.101500
-0.432336,0.516284,0.332277,0.225385,-0.759357,0.610392
-0.127720,-0.335502,0.478858,0.566551,0.207436,0.797490
-0.233712,-0.414021,0.544912,0.250334,0.968139,-0.006298
-0.033627,-0.714452,-0.962582,-0.240467,0.732956,0.636358
-0.188661,0.024449,0.485036,-0.210257,-0.939718,0.269672
-0.032697,-0.383378,-0.306204,-0.709948,0.696100,-0.106863
-0.258015,-0.117904,0.605063,-0.682086,0.495903,0.537437
-0.409622,0.081693,0.543611,0.333325,-0.685092,0.647722
-0.492613,0.004521,0.636577,-0.047891,-0.240346,0.969505
-0.337584,0.083213,0.822539,-0.713094,-0.139579,-0.687033
-0.026530,-0.440550,0.350511,-0.727319,0.009734,-0.686231
0.174135,-0.404897,-0.241915,0.230723,-0.845533,0.481498
0.206818,-0.736777,0.420737,0.420643,0.656146,-0.626523
0.663549,-0.461721,-0.954352,-0.001074,0.411515,0.911402
0.636230,-0.627242,0.509201,-0.247487,0.278461,0.928014
0.197607,-0.890110,-0.959362,0.224757,0.415715,-0.881286
0.736491,-0.529827,-0.932124,0.185886,0.465912,-0.865085
-0.209560,-0.145806,0.125768,-0.345852,0.892997,-0.287999
0.173897,-0.315558,-0.979530,0.705882,0.480876,-0.520085
-0.455875,0.224601,0.673407,0.258403,-0.392285,0.882802
0.620998,-0.253919,-0.939751,-0.351809,0.381328,0.854880
-0.325319,0.222183,0.921474,-0.870590,-0.050728,-0.489388
0.234910,-0.353825,-0.976672,0.562247,0.186611,-0.805639
-0.164980,0.178217,0.828311,-0.058146,-0.997375,-0.043154
0.036196,-0.566982,-0.960656,0.436583,-0.193413,-0.878628
0.420220,-0.648291,0.569362,0.772365,-0.496308,-0.396398
-0.337982,0.131934,0.740820,0.827170,-0.338637,0.448458
0.380089,-0.405322,0.556994,0.874894,0.439988,-0.202412
-0.133492,-0.117555,0.372490,0.953126,-0.196364,0.230202
-0.108804,-0.146499,0.086282,0.847660,0.412500,0.333642
-0.117714,-0.042325,0.414708,0.957879,-0.276590,0.077233
-0.156023,0.124174,0.791182,-0.362838,0.926347,-0.101138
-0.393236,0.832435,0.564421,-0.053121,-0.972346,-0.227424
-0.568327,0.251098,0.451380,-0.742465,0.461417,-0.485633
0.207407,0.585419,0.355456,-0.158603,-0.649188,0.743909
-0.104837,-0.024026,0.395469,-0.640102,0.370286,0.673170
0.155688,0.148685,0.265502,0.902636,-0.368812,-0.221871
-0.059058,-0.117557,0.651253,0.348883,-0.322691,0.879859
-0.542558,0.290956,0.793573,0.823350,0.386686,0.415414
-0.090607,-0.588636,-0.957434,0.405227,-0.123296,-0.905864
-0.484721,0.410911,0.536132,-0.280608,-0.201252,0.938487
-0.006918,-0.368904,-0.242451,-0.670309,-0.675168,0.307952
0.387915,-0.375682,-0.965025,0.612197,0.194708,-0.766358
0.009651,0.209524,0.702774,-0.109218,0.926056,0.361236
0.144563,-0.452807,0.018674,-0.752556,-0.614251,-0.237394
-0.243774,-0.293364,0.664851,0.923760,0.242191,0.296666
0.725382,-0.404890,0.322325,0.857182,0.232739,-0.459425
0.227177,-0.449354,-0.090477,0.478807,0.826252,-0.296734
-0.161825,-0.351054,-0.104074,-0.115860,-0.768739,0.628981
-0.438278,0.857829,0.515085,0.954809,-0.273448,0.116474
-0.190965,0.133274,0.590287,-0.467853,-0.455218,0.757555
-0.087384,0.176968,0.768037,0.938565,0.171095,-0.299703
0.028591,-0.288446,-0.147038,-0.737974,0.532352,0.414723
0.063491,-0.624163,-0.929051,-0.092787,-0.850862,0.517132
0.384472,0.618506,0.360093,-0.494712,-0.808153,0.319608
0.087359,-0.308499,-0.958333,0.058965,-0.450173,0.890993
0.388385,-0.155588,0.550501,0.193301,-0.671076,0.715745
0.085697,0.485045,0.299476,-0.116065,0.947597,-0.297638
0.610562,-0.739152,-0.928612,0.695286,-0.330295,-0.638343
-0.205634,-0.104537,0.379717,-0.683346,0.691713,0.233604
0.014241,-0.384896,-0.994534,-0.105987,0.020448,0.994157
0.688882,-0.445528,-0.936378,-0.532095,0.094966,-0.841342
-0.273178,0.086866,0.833766,0.891242,0.443694,-0.093926
-0.401476,0.887721,0.489116,0.490767,-0.575367,0.654295
0.675001,-0.546082,-0.939635,0.601785,0.235341,-0.763197
-0.139726,0.146960,0.146291,0.733171,0.584834,-0.347029
0.608427,-0.559156,-0.942881,-0.187853,0.263403,-0.946219
0.140800,-0.804131,-0.965426,0.850424,-0.474429,-0.227370
0.223535,0.612370,0.329815,0.744039,0.614667,-0.261899
-0.122810,-0.575859,-0.979937,-0.643011,0.571341,0.510006
-0.156090,-0.007433,0.407090,-0.217060,0.937269,0.272787
-0.375330,0.240459,0.404029,-0.248003,0.933752,-0.258074
-0.588676,0.319769,0.812243,-0.179632,-0.569115,0.802397
0.323280,-0.296669,-0.975195,-0.401366,0.496911,0.769405
0.101309,0.615174,0.318392,-0.773637,0.440868,-0.455105
-0.138335,-0.026809,0.397742,0.637856,0.770026,0.014135
-0.056935,-0.374412,-0.981875,0.201120,0.267045,0.942464
0.652560,-0.332130,0.313340,0.710533,0.288674,-0.641724
0.155692,-0.425877,-0.259645,0.198222,-0.946709,0.253870
0.465937,-0.620598,-0.952351,0.330053,-0.167646,-0.928956
-0.534771,0.147904,0.889910,0.868846,0.101141,-0.484642
-0.116025,-0.453121,0.526183,0.759107,-0.607743,-0.233248
0.025894,-0.269151,-0.177692,0.131767,0.990544,-0.038219
0.133978,-0.481413,-0.621071,0.489452,-0.748027,0.448209
-0.599998,0.259585,0.810593,0.063002,-0.502758,0.862129
0.126425,0.491331,0.619885,-0.087775,0.012159,-0.996066
0.345787,-0.570714,0.492622,-0.160780,0.928316,-0.335229
-0.240612,-0.093177,0.764770,0.302441,-0.154058,0.940636
-0.303029,-0.312728,0.442162,0.931396,0.145324,0.333739
-0.530782,0.171149,0.592060,-0.413277,0.909491,0.045028
0.209487,-0.635065,-0.958869,0.225394,-0.010334,-0.974213
-0.576352,0.308141,0.810673,0.067172,-0.772194,0.631827
-0.178693,-0.012828,0.553318,0.466382,-0.609870,-0.640739
-0.144792,-0.038852,0.632116,0.652473,0.241980,-0.718140
0.045751,-1.000000,-0.960782,-0.095735,0.988991,-0.112836
0.027624,0.140024,0.645194,0.020441,0.939976,0.340629
0.011962,-0.497912,-0.985406,0.281861,0.788600,0.546502
-0.049062,-0.152981,0.448793,-0.747051,0.380202,0.545309
-0.273710,0.123173,0.729820,0.622426,-0.330643,-0.709409
0.428595,-0.486895,0.571382,0.378031,-0.689555,0.617743
-0.430321,0.202881,0.719593,0.227385,0.329962,-0.916199
0.655756,-0.453275,0.087265,-0.279524,0.957765,0.067472
-0.280658,0.312080,0.799009,0.006141,-0.227659,0.973721
0.536905,-0.692343,0.479446,-0.284425,0.718902,0.634258
-0.354211,0.528722,0.560534,0.912520,-0.123669,-0.389889
-0.168394,0.302170,0.467018,0.258904,0.938161,-0.229831
0.220444,-0.327435,0.453798,0.145509,0.410374,0.900233
-0.462058,0.931782,0.437511,-0.686414,0.724844,-0.058620
0.623169,-0.615332,-0.943619,-0.051317,-0.022619,0.998426
0.489716,-0.410128,0.594984,0.291479,0.321981,-0.900760
-0.225572,0.223139,0.846362,0.321740,0.882219,-0.343763
-0.027639,0.137427,0.675167,0.737142,0.466355,-0.489014
-0.037252,0.168802,0.674298,-0.097278,-0.245892,0.964403
-0.193050,-0.028398,0.461544,-0.408429,0.912790,0.000692
-0.154596,-0.236260,0.574031,0.467562,-0.825827,-0.315269
0.119752,-0.857254,-0.962838,0.587110,0.296463,0.753268
-0.596974,0.125490,0.737367,0.953486,0.118104,-0.277336
0.215803,-0.406958,-0.969111,0.278072,-0.949898,0.142722
-0.415669,-0.079671,0.708458,0.933334,0.349040,0.084022
-0.129248,-0.153212,0.330727,-0.143752,0.020405,0.989403
-0.669040,0.170958,0.701590,0.855566,0.328312,-0.400271
-0.305994,-0.133682,0.319681,-0.120259,0.953858,0.275124
-0.098099,-0.260696,0.591571,0.294378,-0.025290,0.955354
0.147295,-0.369684,0.638593,-0.792243,-0.512861,0.330643
0.311668,-0.412830,-0.955820,0.329815,0.287602,-0.899170
0.338861,-0.442680,0.118434,-0.119652,0.986117,-0.115138
0.045869,-0.275571,0.563958,-0.051175,0.998584,-0.014518
-0.054435,-0.928719,-0.967428,0.004336,-0.636703,0.771097
0.166464,-0.129461,0.654132,0.030285,-0.071010,0.997016
0.273241,-0.515477,0.439731,0.962908,-0.262779,-0.061274
-0.236628,-0.047921,0.638880,0.894493,0.324669,0.307363
0.167762,-0.453788,-0.592664,-0.425300,0.879457,0.213718
0.326600,0.511461,0.320396,-0.584124,0.811304,0.024180
-0.159193,0.507934,0.613697,0.174532,0.940221,-0.292442
-0.627621,-0.024225,0.509774,0.707214,-0.701609,-0.087136
0.511195,-0.545229,-0.953919,0.027752,0.001840,0.999613
-0.951690,0.697764,0.456619,-0.812082,-0.098616,-0.575150
-0.325530,0.173769,0.595147,-0.113511,0.356363,-0.927427
0.378863,-0.254820,-0.953061,-0.491578,0.488226,-0.721101
-0.157313,0.952134,0.505974,0.193856,-0.549856,0.812452
-0.529038,0.367632,0.550047,0.285203,0.721714,-0.630704
0.124196,-0.361460,-0.268531,-0.786634,-0.616545,0.032850
0.550817,-0.803575,-0.936462,-0.600996,-0.037553,0.798370
-0.322760,0.139638,0.893220,-0.043776,0.975817,-0.214162
-0.189499,0.445957,0.785837,-0.161193,0.517002,0.840670
0.641262,-0.660632,-0.936953,0.193872,0.004169,-0.981018
0.450749,-0.535974,-0.956039,0.362714,0.110408,-0.925337
-0.275037,-0.089345,0.765837,-0.023346,-0.186579,0.982162
-0.196827,0.306143,0.442321,0.647607,0.631375,-0.426580
0.129874,-0.380956,-0.983560,0.281141,0.383389,0.879757
0.337951,0.562111,0.366635,0.904066,-0.400063,-0.150380
-0.407305,-0.101516,0.574544,0.570753,0.814337,0.105339
0.348167,-0.471929,-0.947182,0.385551,-0.517595,-0.763836
0.131504,-0.525517,-0.975441,0.019300,0.671411,0.740834
0.083900,-0.504942,-0.610381,0.708895,-0.523036,0.473182
-0.437589,0.186825,0.388016,0.094683,-0.771854,0.628710
-0.458982,-0.010620,0.761484,-0.641572,0.704317,-0.303847
-0.548735,0.262976,0.404823,0.887648,0.428181,0.169534
0.603043,-0.458410,-0.949918,0.375749,0.233055,0.896938
0.343897,-0.472273,0.560891,0.715363,-0.402280,-0.571337
0.173404,-0.925971,-0.967094,-0.751831,0.280898,-0.596528
-0.020570,-0.599716,-0.977439,0.032014,0.398084,0.916790
-0.225704,-0.244058,0.530506,0.799818,0.319452,-0.508175
0.101745,-0.379898,-0.964030,0.753407,0.197870,0.627077
-0.038957,0.100092,0.661987,-0.588533,0.310779,0.746355
-0.079793,0.441912,0.612895,0.022451,0.982658,-0.184062
-0.312111,-0.100261,0.622620,-0.563646,0.589313,-0.578803
-0.237835,-0.057999,0.534391,0.998665,0.047994,-0.019098
0.169639,-0.158967,0.567396,0.168977,0.921390,-0.349982
-0.155627,0.308330,0.307610,0.161464,-0.959156,0.232271
0.208599,0.413394,0.301437,-0.356872,0.725357,-0.588642
0.329514,-0.652011,0.551973,-0.413710,0.119527,0.902528
-0.138985,-0.558638,0.514842,0.734586,0.613877,0.289030
0.108809,0.339112,0.346886,0.740088,-0.655356,0.150925
-0.593602,-0.001826,0.523394,-0.711065,0.673071,0.203377
-0.169822,-0.002636,0.391488,0.367628,0.923331,0.110952
0.422439,-0.207131,-0.969107,-0.452639,0.857213,0.245567
0.304524,0.613251,0.340204,-0.434442,-0.639806,0.633963
-0.725296,0.843263,0.360030,0.904690,0.022801,-0.425461
0.140529,-0.118137,0.533368,0.765179,0.643177,-0.028702
0.738868,-0.321622,0.097960,0.900293,0.422100,-0.106322
-0.515648,0.468651,0.563779,-0.760012,-0.593625,0.264558
-0.588724,0.060976,0.674565,-0.381809,-0.077389,-0.920995
0.081981,-0.472858,-0.497294,0.854483,0.488238,-0.177435
-0.173078,0.595070,0.552497,0.290357,-0.375783,0.880046
0.058836,-0.421390,0.443521,-0.232579,0.814410,-0.531642
-0.122381,0.207857,0.678807,0.011215,-0.385140,0.922790
0.006946,0.017981,0.222904,-0.638850,0.443296,-0.628777
-0.184880,-0.152196,0.360563,0.114189,-0.052949,0.992047
0.134237,-0.436283,0.109144,0.456347,0.825098,-0.333109
0.090317,-0.385988,-0.093336,-0.572571,-0.807425,0.142224
0.155126,-0.212691,0.563950,0.830922,-0.516950,0.205745
-0.489312,0.379949,0.542742,-0.328330,-0.176774,0.927874
-0.176751,0.118841,0.843920,0.778233,-0.506385,0.371385
0.598836,-0.587585,-0.954124,0.037536,-0.989737,0.137883
-0.317426,0.074992,0.815963,0.775778,0.401096,-0.487125
0.190340,-0.079967,0.306294,0.045922,0.976365,-0.211191
-0.073553,-0.029872,0.374742,0.545069,-0.828830,0.126254
-0.013855,-0.019749,0.388933,-0.288824,0.935898,0.201682
0.348590,0.534255,0.382121,0.964439,0.211928,0.157935
0.248148,-0.516537,-0.723204,-0.603492,-0.791885,0.093356
-0.421109,0.164217,0.777229,0.847987,0.424486,-0.317380
-0.658708,0.010099,0.679557,0.612927,0.204147,0.763311
0.160944,-0.388356,-0.278309,-0.210788,-0.920726,-0.328378
-0.322029,0.220319,0.898805,-0.578701,0.698996,0.420131
-0.078382,-0.103292,0.187783,0.932677,-0.141482,-0.331807
-0.203980,-0.098768,0.538172,0.977717,-0.059665,-0.201272
-0.706798,0.110503,0.566088,0.784089,-0.475043,0.399423
-0.536134,0.137924,0.839325,0.744660,-0.652885,0.138646
-0.722052,0.055257,0.684160,0.726270,0.022855,0.687029
0.608928,0.413280,0.348876,0.967525,-0.026702,0.251361
-0.471516,0.164087,0.837582,0.789787,-0.561587,0.246690
0.007648,-0.233027,-0.023537,0.875122,0.482299,0.039347
-0.275820,0.195301,0.805155,-0.032015,0.981717,0.187637
0.268115,-0.384965,-0.269706,0.116461,-0.979497,0.164385
-0.085334,-0.308657,-0.212401,0.981861,0.152917,-0.112095
0.056034,-0.760262,-0.951425,-0.106294,0.290243,0.951031
0.143614,-0.535164,-0.970743,-0.477089,-0.448587,-0.755748
0.382405,-0.804196,-0.951165,-0.683707,0.725586,-0.077913
-0.232581,-0.015722,0.489180,0.222472,-0.857269,0.464323
0.196318,0.646939,0.338713,-0.649278,-0.602413,0.464259
0.376044,-0.652056,0.570854,-0.757543,0.154118,0.634331
-0.407117,0.785648,0.539977,0.459486,0.654522,-0.600395
0.053525,-0.769077,-0.965316,0.489788,0.265886,-0.830308
-0.634604,-0.024376,0.586854,0.928479,-0.371263,-0.009516
0.515222,-0.245979,0.281712,0.760252,0.331036,-0.558957
-0.150439,-0.574028,0.523846,0.821442,0.569621,0.027659
0.297333,-0.365772,-0.952581,-0.522929,0.047008,0.851079
-0.025678,-0.829959,-0.959805,0.263627,0.485431,0.833581
-0.327169,0.051534,0.684528,0.740668,-0.468546,0.481534
-0.017828,-0.413515,-0.977385,-0.198004,-0.292800,0.935448
0.228690,-0.406989,-0.978015,0.567789,-0.552359,-0.610340
0.020291,-0.146668,0.678355,0.086645,-0.145520,0.985554
0.101710,-0.001672,0.655668,-0.084553,-0.381335,0.920562
0.322602,-0.437552,0.145352,-0.775294,0.580572,0.248707
0.014190,-0.259511,0.330882,-0.138994,0.621934,0.770635
0.041379,0.733723,0.504064,0.534729,0.228746,-0.813474
-0.646154,0.818150,0.460733,0.821989,0.190396,0.536733
0.099102,-0.129053,0.206450,0.872746,-0.168575,-0.458145
0.661773,-0.749752,-0.924635,0.083927,-0.206361,0.974870
0.311168,-0.290011,0.749348,0.726336,0.687213,-0.013199
-0.614624,0.183779,0.825833,0.870258,0.488574,0.062823
-0.383827,-0.166222,0.541591,0.756984,-0.636037,-0.149770
0.142742,-0.377766,0.569346,0.997773,-0.021155,0.063265
0.254232,-0.415219,-0.031187,0.268089,0.885650,0.379147
-0.743317,0.749079,0.416061,-0.726794,0.003366,-0.686847
-0.119115,-0.075395,0.278235,0.749344,0.632723,-0.195307
0.044368,-0.312250,-0.983661,-0.250541,0.447264,0.858595
0.569734,-0.230061,-0.950932,-0.043229,0.226488,0.973054
-0.723271,0.138876,0.583983,-0.034846,-0.870748,0.490492
-0.015408,-0.354919,-0.221819,-0.670752,-0.532289,-0.516488
0.154026,0.630860,0.368241,0.253229,-0.564951,-0.785306
-0.464997,0.023671,0.726802,0.791857,-0.434933,0.428714
0.150147,0.340642,0.301335,0.281969,0.430738,-0.857297
-0.042905,-0.945242,-0.965300,0.037047,-0.475845,0.878749
0.517279,-0.475505,-0.933479,-0.231005,-0.002536,0.972949
-0.255705,0.243707,0.319727,-0.568046,-0.547941,-0.614072
0.611044,-0.330082,-0.943184,-0.394466,0.910859,0.121376
-0.377989,0.232894,0.728598,0.725385,0.688264,0.010451
0.516579,-0.286114,-0.950744,-0.117214,-0.162687,-0.979691
0.534747,-0.326328,-0.956157,-0.236261,-0.055389,0.970110
-0.256654,0.148003,0.711698,0.742985,0.529900,-0.408876
-0.216226,-0.060599,0.387663,0.999999,0.001356,-0.000734
0.059740,-0.113055,0.106501,0.853122,0.388628,0.348067
-0.492391,0.233716,1.000000,0.982618,0.057544,0.176493
0.296814,0.702141,0.352104,0.391968,0.919979,0.000482
-0.365302,0.056498,0.652700,0.225387,-0.569903,0.790197
-0.282136,0.095495,0.753176,-0.686553,0.650537,0.324725
-0.268405,-0.075574,0.568331,-0.367088,0.656309,0.659170
-0.565069,0.203971,0.804260,0.648049,0.701447,0.296655
-0.961235,0.582170,0.493589,0.793917,0.582373,-0.174749
-0.439228,0.132679,0.770361,-0.220825,0.816345,-0.533683
0.144208,-0.421362,-0.966176,-0.039827,0.578336,0.814826
-0.096597,-0.274431,0.473713,0.702826,0.481896,0.523270
-0.247470,0.043216,0.483819,0.006684,-0.992742,0.120076
-0.313025,0.109000,0.820955,0.250888,-0.023991,-0.967719
0.170198,-0.409522,-0.291720,-0.231960,-0.925036,-0.300836
-0.324138,-0.081245,0.627627,0.222336,-0.057375,-0.973280
-0.124204,0.359624,0.761799,0.869632,-0.293677,0.396856
0.299114,-0.441837,0.416817,-0.691586,-0.719662,0.061614
0.010060,0.739751,0.471974,-0.092431,-0.932733,0.348519
0.040782,-0.592098,0.473462,0.856695,0.293503,0.424181
-0.023405,-0.243474,0.325595,-0.715153,-0.374761,-0.590010
-0.109959,0.796340,0.459365,-0.157984,-0.699756,0.696694
0.140559,-0.229025,0.552205,0.736740,-0.676136,-0.007377
-0.127895,-0.165075,0.173958,0.898984,0.436128,0.040245
0.704198,-0.424096,-0.940432,0.667468,0.441172,0.599878
0.122505,0.048058,0.450256,-0.555081,0.826174,0.096554
-0.376604,0.178827,0.846378,-0.201819,0.963872,0.173841
0.036899,-0.121314,0.228539,-0.541098,0.622446,0.565486
0.176073,-0.248752,0.544683,0.790750,-0.181604,0.584580
-0.360527,-0.161633,0.494124,0.913768,-0.192919,-0.357506
-0.243630,0.141419,0.156778,0.629875,0.651655,-0.422615
-0.237686,0.188417,0.790244,0.777660,-0.501510,0.379120
0.153520,-0.483080,-0.623934,0.771945,-0.426603,0.471286
-0.144760,-0.496551,-1.000000,-0.157302,-0.153247,-0.975588
0.520876,-0.210545,-0.949089,-0.282240,-0.266016,0.921725
-0.331011,0.427645,0.368637,0.983657,0.019144,0.179034
-0.358981,0.219531,0.959087,-0.959842,0.246628,-0.133708
0.135858,-0.777243,-0.969054,-0.339585,0.220759,-0.914302
0.165254,0.137973,0.686093,0.671372,0.522506,-0.525592
-0.065099,-0.862875,-0.970755,-0.259273,0.017493,0.965646
-0.250913,0.025565,0.389936,0.283630,-0.050487,0.957604
0.471031,-0.835427,-0.930830,0.033369,0.152963,0.987668
-0.182581,-0.044364,0.590074,-0.257152,0.966265,0.014316
-0.001144,-0.598170,-0.969271,-0.310341,0.588985,0.746180
-0.507849,0.307790,0.821054,0.864910,0.200580,-0.460107
-0.510970,0.814160,0.579001,0.439271,0.662048,-0.607234
0.904861,-0.448112,0.143889,0.091860,0.904789,0.415834
0.138648,-0.651770,0.494349,-0.057601,-0.549705,0.833370
0.469096,-0.445462,-0.955533,0.017856,-0.999816,0.007057
-0.316481,-0.249867,0.512424,-0.545284,0.069379,-0.835375
-0.220329,-0.045155,0.398043,0.924022,-0.163841,0.345455
0.476438,-0.492928,0.434690,0.459078,0.872944,0.164973
-0.186418,-0.064826,0.395092,-0.568447,0.627627,-0.531934
-0.128980,-0.664507,0.523239,0.741986,0.327827,0.584796
-0.076039,0.149298,0.698892,0.981181,-0.153622,0.116976
-0.241936,-0.032264,0.631897,0.876662,0.478539,-0.049646
0.495690,-0.415949,0.180680,-0.414259,0.495338,0.763564
-0.139399,0.017670,0.499141,0.945187,0.167421,0.280342
0.504632,-0.471588,0.548434,0.288682,0.681087,-0.672892
-0.109994,-0.626174,-0.964717,0.792687,-0.233562,0.563113
0.827161,-0.385214,0.162140,-0.164687,-0.985050,-0.050537
0.535075,-0.734812,-0.941639,-0.342121,-0.399255,0.850617
-0.060879,-0.335748,-0.974790,-0.270860,0.462950,0.843986
-0.529820,-0.082293,0.679952,0.543089,0.395144,0.740889
-0.201240,0.003686,0.492474,0.116675,-0.983144,0.140763
-0.332341,-0.090094,0.600064,0.332184,-0.123587,0.935083
0.666725,-0.531498,-0.946746,0.909710,-0.059981,-0.410889
0.199127,-0.556670,-0.809139,0.848822,0.525837,0.054732
-0.318941,0.715702,0.443027,0.437828,-0.893457,0.100206
0.316866,-0.423778,0.595931,0.640373,0.515113,0.569720
0.057169,0.469344,0.302032,0.721307,-0.325038,0.611610
0.110613,-0.429492,-0.423229,0.813765,0.564701,0.137473
0.650081,-0.756090,-0.930492,-0.042898,-0.499697,0.865137
-0.540168,0.320394,0.502903,0.365092,0.235953,0.900574
-0.069308,-0.382617,-0.260370,0.817428,-0.128448,-0.561528
-0.553441,0.118535,0.787549,0.842292,-0.489240,0.226251
-0.275203,0.244957,0.892194,-0.273132,0.898886,-0.342641
-0.024307,-0.316748,0.207027,0.976313,-0.119185,-0.180574
0.705000,-0.621702,0.508077,0.721568,0.558558,0.409088
-0.544556,0.033945,0.849813,0.539219,0.008604,-0.842121
0.467020,-0.472835,0.548315,-0.148319,-0.738144,0.658137
-0.006031,-0.806998,-0.960324,-0.169344,0.406228,-0.897943
-0.470232,0.328351,0.428010,-0.382871,0.918735,-0.096618
-0.312156,-0.048902,0.552494,0.141213,0.985591,0.093112
0.184876,-0.270597,0.532627,0.756212,0.398451,0.519019
0.429776,-0.430821,-0.037786,0.403888,0.909483,-0.098561
0.715864,-0.790522,-0.925640,-0.224196,-0.611851,0.758534
0.332002,-0.390295,-0.970973,0.044662,-0.472343,0.880282
0.119701,0.076109,0.681488,0.547444,0.318814,-0.773733
-0.597548,0.188691,0.687837,0.584623,0.809801,-0.049388
-0.081230,-0.679159,-0.956164,0.471829,0.848717,0.238866
0.389164,-0.590745,-0.941639,-0.630217,0.758139,0.167485
0.160276,-0.602839,-0.974117,-0.485621,0.332221,0.808580
-0.272265,0.199465,0.842046,-0.300740,0.757671,-0.579215
0.318573,-0.473806,0.504661,-0.125846,0.469928,0.873688
-0.014930,0.750638,0.460705,0.387220,0.826697,-0.408206
-0.359883,0.943399,0.500791,-0.196448,-0.974941,-0.104396
0.127350,-0.437069,0.472199,-0.472505,0.794900,0.380621
-0.537290,0.046894,0.624531,0.147359,0.982278,0.115823
0.509409,-0.747175,-0.939777,-0.418829,0.542613,-0.728116
-0.381887,0.815654,0.475838,0.417817,-0.550430,0.722811
0.342946,-0.792633,-0.942495,0.352449,0.931268,-0.092302
-0.241753,0.214072,0.130623,0.629875,0.651655,-0.422615
0.389177,0.586771,0.364567,0.799200,-0.500635,0.332632
0.088811,-0.293091,-0.144017,0.287921,0.897342,0.334483
-0.576070,-0.125222,0.588100,0.131910,-0.909001,0.395369
-0.511090,0.284044,0.372983,0.820132,0.474462,-0.319795
0.680522,-0.692038,0.504258,0.319969,-0.583804,0.746186
0.578999,-0.609016,0.515936,0.027789,0.198227,0.979762
0.320543,-0.270957,-0.966058,0.790682,-0.597704,-0.132558
-0.705878,0.668283,0.366928,0.783019,-0.378859,0.493303
0.018119,-0.483218,-0.593587,0.277883,0.958192,-0.068184
0.382985,-0.469839,0.542174,-0.609584,0.718107,0.335752
-0.355453,0.153354,0.882207,0.182606,0.768897,0.612741
0.422276,-0.124133,0.320375,-0.050057,-0.000263,-0.998746
0.605983,-0.452955,0.172672,-0.493161,0.869636,-0.022934
0.007669,0.363388,0.362464,0.882573,0.376457,-0.281681
-0.333769,0.614192,0.443741,-0.090195,-0.942432,0.322003
-0.007164,-0.359784,-0.048006,0.551953,0.802839,0.225383
-0.320915,0.532262,0.514192,-0.542577,0.486497,0.684785
-0.539533,0.462775,0.557264,0.894666,0.248242,-0.371414
0.160457,-0.562510,-0.538528,0.933586,0.270603,0.234927
0.280097,-0.499360,0.524253,0.053629,0.827145,0.559424
0.487735,-0.768005,-0.949990,-0.128042,-0.212136,0.968816
-0.022568,-0.111543,0.652545,0.850694,0.477156,0.220550
0.724520,-0.204318,-0.945125,0.587085,-0.138080,-0.797662
-0.283797,0.731488,0.473664,-0.356159,0.357793,0.863212
-0.595433,0.088180,0.587766,0.179209,-0.136588,0.974283
-0.426117,0.049864,0.630198,0.273175,0.776192,-0.568244
0.320462,-0.432476,-0.027786,-0.497803,-0.774271,-0.390765
-0.185524,0.187531,0.670760,-0.388600,0.554219,-0.736092
-0.472742,0.602015,0.538134,0.989990,-0.095569,-0.103859
-0.083597,-0.230215,0.057281,0.756127,0.603572,-0.252930
-0.002230,-0.389048,-0.314661,-0.423081,0.878381,0.222371
-0.203071,-0.569461,-0.984389,-0.619576,0.329758,0.712310
-0.394301,0.127273,0.959229,-0.291731,-0.091023,0.952159
-0.697218,0.031319,0.701567,0.777181,-0.480427,-0.406423
-0.355049,0.792372,0.584800,-0.684917,-0.567265,-0.457273
0.454223,-0.736360,-0.942676,0.475733,-0.434367,-0.764855
0.060930,-0.410142,-0.182458,-0.035900,-0.874459,0.483769
0.220356,-0.414323,0.504667,0.881098,-0.458474,-0.116051
0.482453,0.221152,0.347400,0.678740,0.458875,-0.573363
0.237110,-0.658736,0.456909,0.975386,0.064070,0.210993
-0.183121,0.111734,0.554911,0.984064,-0.085599,0.155854
0.355233,-0.322784,-0.957116,0.510628,0.078922,0.856172
-0.332399,0.041646,0.523853,0.208817,-0.975631,-0.067373
0.003164,0.153953,0.630436,0.259673,-0.964076,-0.055925
0.023186,-0.975475,-0.955384,0.089817,0.321033,0.942799
0.520260,-0.421569,0.551120,0.088309,0.975390,0.202027
-0.204502,-0.065964,0.584972,0.033262,0.725053,0.687890
0.013975,-0.796678,-0.961722,-0.053729,0.950030,0.307499
-0.232852,-0.006688,0.464530,-0.030883,-0.887719,0.459349
-0.483779,0.253350,0.783966,-0.660904,0.745835,-0.083287
0.558568,-0.435189,-0.946857,-0.317106,0.390889,0.864089
0.031431,-0.580769,0.485229,-0.352765,-0.711531,-0.607684
-0.135286,-0.855262,-0.961644,0.769563,-0.533577,0.350812
0.015530,-0.497567,-0.469510,0.311447,0.853293,0.418201
-0.326623,0.365906,0.550872,0.316901,0.934351,-0.162979
-0.231472,-0.061460,0.644174,0.827789,0.266381,-0.493768
0.254175,-0.526207,-0.720013,-0.603492,-0.791885,0.093356
0.118567,0.476131,0.290177,-0.553057,-0.745903,0.371157
-0.159916,0.300927,0.858312,0.907707,-0.398110,-0.132574
-0.236019,0.057369,0.737949,0.790039,-0.184384,0.584672
-0.345521,0.633124,0.420071,0.942124,-0.126550,-0.310465
0.304215,-0.579896,-0.938351,0.496041,-0.656493,0.568296
-0.317362,0.023406,0.633150,0.851508,0.259397,-0.455683
0.437602,-0.439079,0.569313,0.836392,-0.242057,0.491790
-0.039753,-0.106785,0.246612,0.215736,0.892285,0.396593
0.127323,-0.483241,-0.717634,-0.390239,0.759616,-0.520285
-0.231728,-0.117514,0.631587,0.746627,-0.628440,-0.218199
0.320745,-0.581129,-0.935261,-0.548869,0.102377,-0.829615
0.041477,-0.563031,0.492282,-0.638491,0.499652,-0.585386
-0.626158,0.174526,0.728992,0.045103,0.346517,0.936959
0.623841,-0.595135,-0.934015,-0.071431,0.629671,0.773571
-0.239283,0.103057,0.594235,0.728055,0.245940,-0.639882
-0.363866,0.014146,0.820839,0.577866,0.796466,-0.178083
0.248547,-0.444018,0.460767,0.536828,0.838340,0.094876
0.119555,-0.348653,-0.131446,0.404329,0.641052,0.652358
0.150474,-0.558889,-0.687481,-0.598193,0.799188,-0.058848
-0.090856,-0.155179,-0.023611,0.445389,0.846077,-0.292887
-0.234391,0.764530,0.412782,0.370348,0.275746,-0.887021
0.367102,-0.828576,-0.935119,0.668919,0.512253,0.538651
0.730525,-0.676700,-0.929905,-0.526508,0.389383,0.755758
-0.248499,0.056490,0.431951,-0.689700,0.639198,0.340206
-0.461645,-0.021840,0.717058,0.928017,-0.093426,0.360632
-0.336784,0.700167,0.422714,0.516033,0.355975,-0.779097
-0.332623,0.188332,0.770665,-0.349097,-0.922860,-0.162669
-0.312146,0.094696,0.785369,0.282637,0.722504,0.630955
-0.533653,0.178291,0.817661,-0.635213,-0.771505,0.035856
-0.493036,-0.327571,0.527782,0.835192,0.517360,0.186529
-0.594177,0.222405,0.724614,0.176055,-0.976971,0.120549
-0.310688,0.454074,0.450209,0.898833,0.244804,0.363552
-0.713761,0.463862,0.418918,0.140089,0.208583,0.967920
0.240305,-0.892712,-0.946047,-0.446899,-0.845913,0.291056
-0.491563,0.333166,0.785286,0.298802,0.945222,-0.131428
-0.384915,0.695028,0.441335,0.907318,0.404272,0.115486
-0.369928,0.546335,0.498192,0.881704,0.333412,0.333817
0.112373,0.315877,0.274754,0.827630,-0.249707,0.502667
-0.669163,0.343237,0.796285,-0.451776,0.437948,-0.777239
-0.327188,0.149353,0.790019,0.801013,0.591181,-0.094253
0.153548,-0.330353,0.544116,-0.561626,0.283659,0.777248
-0.131392,-0.208706,0.630596,-0.509901,0.201166,0.836381
-0.218024,0.130284,0.410785,0.903801,0.051522,-0.424841
-0.359134,0.218926,0.409214,-0.397025,-0.078843,0.914415
0.076449,-0.345411,-0.978703,0.592124,0.583566,0.555734
0.173937,0.101008,0.415573,0.237517,-0.913398,0.330590
0.123759,0.252594,0.267578,0.993121,0.070423,0.093547
0.334817,-0.542166,0.462149,-0.382926,0.433732,0.815625
0.029866,0.172778,0.720280,0.291923,0.807877,0.511972
0.085920,-0.727716,0.421606,-0.049377,0.564886,0.823690
0.198270,-0.744538,-0.949110,0.364277,0.280157,-0.888152
-0.413070,0.235025,0.600351,0.341255,0.924785,-0.168276
-0.048965,-0.193666,0.634183,-0.328221,0.805758,0.492975
0.569296,-0.786705,-0.930334,0.467460,-0.409026,-0.783696
0.329345,-0.650376,-0.945388,0.143294,-0.146979,0.978705
-0.005208,-0.765380,-0.965621,0.275927,0.012228,-0.961101
-0.335750,0.196829,0.873604,0.121409,-0.766142,0.631099
-0.011319,-0.265513,-0.032247,0.869200,0.490776,0.060250
0.098996,-0.828958,-0.962206,-0.151340,-0.582924,-0.798308
-0.240897,0.339263,0.645909,0.953365,-0.136938,0.268967
-0.629736,0.201969,0.800861,0.739958,0.612908,0.277139
0.474278,-0.424289,0.105961,-0.086732,0.988361,0.124985
0.351706,-0.463688,-0.960075,-0.174525,-0.073357,0.981916
-0.333694,0.198413,0.590340,0.453249,0.212769,0.865618
0.838301,-0.739702,-0.924201,0.950253,0.305672,-0.059868
-0.364100,0.666470,0.412609,0.993604,0.108575,-0.031022
-0.373211,0.439173,0.598142,0.457019,0.467952,-0.756409
-0.620270,0.332163,0.818770,0.215706,-0.164089,-0.962572
-0.180570,0.038770,0.381650,0.842529,0.529179,0.100575
-0.106934,-0.135818,0.292986,0.809408,0.576600,-0.111317
-0.281621,0.666973,0.540390,0.260992,0.457054,-0.850285
-0.226362,0.126013,0.870165,0.499700,-0.865571,0.032961
0.122779,-0.308583,-0.967542,-0.782808,0.622185,-0.009912
0.687059,-0.642907,-0.933910,-0.481821,0.211027,-0.850480
-0.098446,-0.013798,0.807844,0.558247,-0.534897,-0.634228
0.073260,-0.333610,-0.974787,-0.575285,-0.604830,-0.550662
-0.048098,-0.477067,-0.965571,0.911629,0.215361,0.350074
0.134473,0.534555,0.322866,0.756163,-0.112361,0.644665
-0.299503,0.007666,0.481469,0.012204,-0.065999,0.997745
0.796278,-0.668644,-0.945250,0.190990,-0.681281,0.706668
0.262615,-0.439306,0.042861,0.589586,0.746432,0.308590
0.328020,-0.381945,-0.969428,-0.160397,0.126873,0.978865
0.252927,-0.690133,-0.935240,0.958753,-0.133097,0.251152
0.407664,-0.469130,0.562749,-0.401045,0.865232,0.300893
0.568471,-0.507827,-0.949256,-0.035522,-0.163015,0.985984
-0.164885,-0.383980,-0.990699,-0.217926,0.204598,-0.954279
-0.340825,0.182520,0.504823,0.858416,0.038421,-0.511513
-0.159564,0.910677,0.513287,0.998735,0.029914,-0.040414
0.512552,-0.346890,0.289685,0.760319,0.599405,-0.250256
-0.256232,-0.211199,0.484671,0.831404,0.094213,0.547623
-0.056509,-0.159693,0.100471,0.913602,-0.341574,-0.220588
0.290437,-0.552107,-0.838299,-0.040454,-0.995721,0.083091
-0.515359,0.184722,0.579477,0.643201,-0.651952,-0.401561
-0.287229,0.143534,0.564801,0.228960,-0.068101,0.971051
-0.238674,0.888810,0.482783,0.391479,0.438857,-0.808795
0.083256,0.514169,0.330441,0.990353,-0.030931,-0.135074
-0.030600,0.823939,0.516144,0.575608,0.817375,0.023961
0.750059,-0.825447,-0.941769,-0.231911,0.882034,0.410161
-0.624196,0.006882,0.576133,-0.254040,0.519774,0.815658
-0.311498,0.207486,0.655551,0.259398,0.071792,0.963098
-0.507787,0.070945,0.704471,-0.670735,-0.678333,0.299963
0.078291,0.038131,0.403718,-0.401289,0.863338,-0.305964
-0.109599,-0.091320,0.151933,0.291802,0.952126,-0.091150
-0.067272,-0.474820,-0.987097,-0.019699,0.973188,0.229167
-0.488682,0.495220,0.537318,-0.784614,0.448381,-0.428177
0.341006,0.540434,0.330768,0.211233,-0.971449,0.108021
0.088750,0.074508,0.659835,-0.241671,-0.279502,0.929233
0.176392,-0.330047,0.613363,0.861832,0.453171,0.227777
-0.593991,0.333505,0.852431,-0.609277,0.753817,-0.246053
-0.058457,0.602516,0.309401,0.759754,0.450307,-0.469039
-0.481138,0.535203,0.366411,0.011555,-0.794611,0.607008
0.007208,0.670015,0.366326,-0.597080,0.319224,-0.735929
0.270932,-0.913531,-0.967000,0.099055,-0.696965,0.710231
0.104470,0.173192,0.250880,0.927820,0.081722,-0.363966
-0.642816,0.293773,0.810485,0.312453,0.641410,-0.700690
0.456156,-0.615907,-0.956414,-0.094509,-0.179433,0.979220
-0.059140,-0.182861,0.113174,-0.365166,0.925171,-0.103499
0.029950,-0.367000,-0.980692,0.847553,0.528836,0.044563
-0.112788,0.171311,0.682906,0.227093,0.968106,0.105828
0.238026,-0.572507,-0.920426,-0.272167,0.934813,0.228146
