0.437997,0.415435,-0.105781,0.004819,-0.149942,0.988683
-0.034664,-0.792271,0.554122,0.774240,0.283557,0.565816
-0.437157,-0.357958,0.393105,0.311966,-0.653020,-0.690103
-0.887901,-0.495958,0.338708,0.371340,0.907590,0.195924
0.297887,0.077631,0.902477,0.914092,0.142682,0.379577
0.289221,-0.124861,0.407052,-0.795483,0.191762,0.574835
-0.235436,0.652130,0.043466,-0.452722,-0.423974,-0.784404
0.029968,0.548061,0.033399,0.812084,-0.576394,-0.091051
0.163536,0.126181,0.410932,-0.410908,0.243102,-0.878667
0.593649,0.226106,0.710630,-0.804551,0.590747,-0.060952
-0.044001,-0.351673,0.406344,-0.096758,0.365332,0.925835
-0.312479,-0.556304,0.681321,0.278066,-0.766590,0.578808
0.632618,0.360827,0.593892,0.131419,-0.188491,0.973242
-0.101141,-0.526428,0.675790,-0.695308,0.295973,0.654941
0.112714,0.163756,0.426661,0.179204,-0.304920,0.935366
0.060606,-0.141712,0.210984,0.330423,0.941870,-0.060840
0.484290,0.574340,0.535667,0.897735,0.253757,-0.360110
0.379179,-0.257669,0.722925,0.632890,0.079928,-0.770105
-0.649614,-0.262724,-0.245877,0.149845,0.397850,0.905131
-0.270435,-0.676315,0.327251,0.321051,-0.236455,0.917069
-0.114615,0.152370,0.140045,0.450533,0.550596,0.702755
0.052387,0.683010,0.003015,-0.608761,0.476563,-0.634269
0.695293,-0.122264,0.465330,0.771021,-0.517634,-0.370921
0.139606,0.139344,-0.993262,0.581989,0.365870,0.726242
0.547468,-0.249880,0.602176,-0.208673,-0.853840,0.476878
0.033937,-0.194999,0.801285,0.256790,0.213340,-0.942627
0.267919,0.021520,-0.983484,0.289338,0.034257,0.956614
-0.248015,-0.364425,0.683235,0.543324,-0.012670,0.839428
-0.764620,-0.162071,0.502661,-0.208692,-0.484485,-0.849542
0.043106,0.107553,-0.967361,0.869683,-0.195896,-0.453074
0.755507,-0.033771,0.480115,0.684853,0.656067,-0.317101
0.155541,0.582083,-0.003670,-0.085098,-0.473096,0.876891
-0.431231,-0.168401,0.458015,-0.021221,0.840027,0.542130
0.185788,-0.016328,0.902451,-0.392641,0.334497,-0.856706
0.317511,-0.086056,-0.990274,0.111958,0.017272,0.993563
0.012468,-0.264136,0.703919,0.842752,0.536361,-0.045661
0.719222,-0.003257,0.560074,0.895883,-0.120347,0.427679
-0.476071,0.242047,0.267139,-0.247852,-0.132780,0.959656
-0.136531,-0.231845,0.837331,-0.666333,0.285970,-0.688638
0.687969,-0.128094,0.627789,0.697463,0.684579,0.211888
0.248183,0.689887,0.552786,0.776779,-0.625862,0.070081
-0.028737,0.025482,0.165867,0.444053,0.148087,0.883678
0.840658,-0.014779,0.668921,-0.481201,-0.492444,0.725221
0.730460,-0.421174,0.567047,-0.632979,-0.561402,-0.533072
-0.243654,0.678546,0.048919,-0.341796,0.343960,0.874567
-0.625238,-0.279439,0.371425,0.337217,0.171497,0.925675
-0.236554,-0.095940,0.672198,-0.236007,0.815569,-0.528345
-0.431567,-0.059731,0.363429,0.479788,0.877318,0.010831
0.787935,-0.504156,0.556272,-0.806493,0.583401,0.095984
0.507940,0.262724,0.584926,0.231988,0.232915,-0.944422
-0.343565,0.184433,0.229126,-0.213787,-0.045416,-0.975824
-0.537404,-0.081274,0.465618,-0.154554,-0.972869,-0.172157
-0.279660,0.011864,0.748853,0.847202,0.257271,-0.464823
-0.505311,-0.169631,-0.275737,0.236634,-0.083940,0.967966
-0.092698,0.114932,0.149744,0.464684,0.509988,0.723865
0.122722,0.474234,0.661371,0.953023,-0.257166,0.160042
0.152633,-0.173366,0.535090,0.202615,0.769911,-0.605132
-0.134630,1.000000,0.014524,0.292638,-0.652640,-0.698874
-0.026613,-0.122173,-0.282816,-0.122308,0.671651,-0.730702
-0.035782,-0.593970,0.498938,-0.601402,-0.395511,-0.694180
0.291346,-0.026757,0.451121,0.617750,-0.010547,-0.786304
-0.158560,0.507617,0.017695,-0.026626,0.387601,0.921443
0.584871,0.488762,0.390720,-0.149368,-0.226796,0.962420
-0.205524,-0.161114,0.467532,0.534722,-0.823264,-0.190550
0.211618,0.574249,0.618744,-0.664549,0.201801,0.719480
0.013139,0.480382,0.042470,-0.381993,0.428379,0.818885
0.673656,-0.192175,0.748696,-0.648981,-0.293965,0.701718
0.483339,0.629085,0.556141,0.045203,-0.368752,0.928428
-0.009449,-0.344385,0.705859,0.906891,-0.297268,-0.298631
0.001230,-0.662833,0.458592,0.328333,0.067809,0.942125
0.684446,0.102544,0.652117,-0.683095,-0.641589,0.348920
0.106955,0.562726,0.572814,-0.034875,-0.997227,0.065742
0.104775,-0.268235,0.483943,0.466519,0.881198,0.076483
0.134351,-0.209984,-0.321327,0.883149,0.468304,0.027198
0.032483,-0.766857,0.510080,0.026427,0.909514,0.414833
0.165437,0.222872,0.616175,0.790773,-0.107409,0.602612
0.157050,-0.011545,-0.652668,0.899188,-0.431709,-0.071331
0.193504,0.186983,0.904260,0.593042,0.627431,-0.504611
-0.071117,0.007856,0.457334,-0.778147,0.290747,-0.556734
0.444314,-0.280441,0.716162,-0.442188,0.673700,0.592114
0.376160,-0.348439,0.848892,0.208648,0.383479,0.899672
-0.037012,0.341608,-0.014917,0.752554,0.038288,0.657417
0.023762,-0.095393,0.869498,-0.232023,0.963913,-0.130526
0.322934,0.292009,-0.110368,-0.621681,0.536793,-0.570408
0.086772,-0.112791,-0.133648,-0.736878,0.611458,0.288322
-0.116684,-0.041241,0.709556,0.775124,0.277265,-0.567721
-0.070334,0.186573,0.136925,0.276108,0.387286,0.879644
-0.342838,0.573201,-0.069891,-0.507744,-0.045033,0.860330
-0.020183,0.393118,0.354175,0.931681,0.173221,0.319321
0.050878,0.303031,0.501507,0.698416,0.597685,0.393685
0.716874,-0.422130,0.570769,-0.669573,-0.306058,-0.676757
0.498603,-0.078269,0.715061,0.783294,-0.444422,0.434673
0.135413,-0.053082,-0.976668,-0.691434,0.009799,-0.722373
0.288829,-0.077677,0.842312,-0.199080,0.769690,0.606584
0.210891,-0.690297,0.627081,-0.284118,-0.762992,0.580620
-0.133736,-0.176371,0.856390,0.319932,0.812291,-0.487675
0.315219,-0.036368,0.701376,-0.622640,-0.711808,0.325037
0.027004,0.229385,0.440687,-0.051502,-0.453908,0.889559
-0.433803,-0.502926,0.734959,-0.449710,0.869924,0.202468
0.026669,-0.282353,0.690916,0.937166,0.348077,0.023716
0.006821,0.260902,-0.059510,0.137582,-0.141919,0.980270
0.141787,0.024025,-0.964740,0.059240,-0.598689,0.798788
0.081740,0.452189,0.714353,-0.529297,0.056495,-0.846553
-0.138488,-0.148999,0.400105,-0.530783,0.625093,-0.572301
-0.226713,0.699588,0.044016,-0.147895,0.250770,0.956683
-0.422341,-0.057728,0.254450,-0.065385,-0.207688,0.976007
0.391088,-0.561041,0.495845,0.134874,-0.788053,0.600650
0.668903,-0.361282,0.533019,0.248588,0.957812,0.144224
-0.252264,-0.256439,0.495085,0.038929,-0.229975,0.972418
0.886951,0.118621,0.726910,0.398266,0.619559,-0.676410
0.430616,-0.504475,0.702136,0.349632,-0.573929,-0.740515
0.429722,-0.036868,0.664700,-0.280094,0.835534,0.472684
-0.116795,-0.073623,0.731603,0.463501,-0.520279,0.717270
-0.135525,0.455514,0.539468,-0.143908,-0.185744,0.972003
0.103768,0.744860,-0.007340,0.202682,0.332601,-0.921030
0.000056,-0.863002,0.564923,-0.175706,0.868750,0.463035
0.557587,-0.162207,0.772342,-0.754027,0.625596,0.200181
0.142626,-0.562589,0.516372,-0.548602,0.689550,-0.472817
-0.041037,0.051807,0.660349,-0.347379,-0.706885,-0.616150
-0.035000,-0.220505,0.474925,-0.219346,-0.968247,-0.119941
0.144974,0.635006,0.475685,0.452484,0.784529,0.423996
-0.204909,-0.588550,0.599004,0.068281,-0.631295,0.772531
0.120821,-0.026848,-0.359890,0.994598,0.075419,0.071329
-0.134910,0.253069,-0.050858,0.257040,-0.416739,0.871928
0.200101,0.024481,-0.932704,0.890881,-0.385369,0.240464
-0.366991,-0.309726,0.266981,-0.100918,-0.023962,0.994606
0.378173,0.205657,0.182488,0.954573,-0.286606,-0.081536
-0.850833,-0.011955,-0.191768,0.077536,-0.168668,0.982619
0.175836,-0.373489,0.046454,0.995101,0.091889,0.036485
0.155541,0.508301,-0.030331,-0.075895,-0.405133,0.911102
0.099631,0.448410,0.333517,-0.235752,-0.359736,0.902780
0.487924,-0.335322,0.831564,-0.263865,-0.702160,0.661322
-0.649838,0.465215,0.066142,-0.295518,-0.280103,-0.913352
0.110757,0.174322,0.427291,0.157924,-0.306443,0.938697
-0.084759,0.205520,-0.986289,0.365353,0.114591,0.923789
0.435984,0.158154,0.529480,0.121836,-0.616172,0.778131
0.142961,-0.151505,0.807812,0.360462,-0.747323,0.558189
0.826568,0.105959,0.692751,0.984512,-0.137246,-0.109084
-0.476238,-0.618519,0.551999,0.059930,0.924802,0.375698
0.520016,-0.466991,0.537606,0.813473,-0.396074,-0.425895
0.210612,0.017831,0.698073,0.330202,-0.943043,0.040447
0.220508,-0.280805,0.598375,0.152395,0.790280,0.593492
-0.205356,0.044611,0.764294,-0.807823,0.365936,-0.462074
-0.373029,-0.185298,0.414864,0.326675,-0.007918,-0.945104
-0.260371,0.036231,0.776878,0.431436,0.899360,-0.070813
-0.088002,-0.171316,0.846245,-0.106041,-0.893097,0.437188
0.101252,-0.229021,0.277074,-0.574074,0.818751,-0.009256
-0.116180,-0.681780,0.621339,0.070748,-0.807796,-0.585202
0.025830,-0.116207,0.226530,-0.579844,-0.776129,-0.247800
0.042995,0.242366,0.448394,-0.052985,-0.474718,0.878541
-0.177122,0.337873,0.181020,0.271882,-0.569587,0.775662
0.259141,0.148999,0.761384,-0.190976,0.683003,0.705007
-0.145589,-0.304716,0.281374,0.132314,-0.407681,0.903487
0.008666,0.486257,0.337764,0.143743,-0.409694,0.900827
-0.157777,-0.550794,0.509503,0.508355,0.086744,0.856768
0.197753,-0.035001,-0.978110,0.094059,-0.152679,0.983790
0.188639,0.099128,0.070075,0.954937,-0.292214,0.052027
-0.149390,-0.058001,0.289133,0.360962,0.923900,0.126945
0.646148,-0.398401,0.456993,-0.231027,-0.161643,0.959426
0.495359,0.183431,0.047634,0.268478,-0.683134,0.679152
0.185229,0.054175,-0.684861,-0.780786,-0.604234,-0.158979
0.018283,-0.119760,0.854476,-0.041747,-0.986737,0.156866
-0.123057,0.413977,0.795805,0.927226,0.367147,-0.073860
0.077771,-0.197458,0.569170,0.351467,-0.393576,0.849452
0.094487,-0.149637,-0.303998,0.571371,-0.265022,0.776723
0.062395,-0.763305,0.556797,-0.031030,0.996808,-0.073562
0.096444,0.027759,-0.552418,0.849830,0.515165,0.111328
0.475456,0.227564,0.708219,-0.667220,-0.628846,0.399212
0.075031,-0.275340,0.724263,-0.547986,0.626890,0.553824
-0.014816,-0.852299,0.698493,0.194373,0.820123,0.538161
0.711171,0.005989,0.575069,0.888225,-0.117789,0.444051
-0.333948,-0.700635,0.566706,-0.222463,-0.235107,0.946168
0.081125,-0.822604,0.576353,-0.163880,-0.093249,0.982063
0.091860,0.190855,0.924001,0.513611,0.626927,-0.585804
-0.145085,0.009177,0.720461,0.745453,0.164476,0.645947
-0.221570,-0.250245,0.702425,0.797776,-0.216133,0.562885
-0.430169,-0.046706,0.242837,-0.065385,-0.207688,0.976007
0.058090,0.505294,0.722165,0.635410,0.103248,0.765241
0.133400,-0.013276,-0.483917,0.961730,0.153173,0.227186
0.032483,0.377041,0.709189,0.930761,0.145247,0.335540
-0.073969,0.552524,0.575043,0.325431,0.399632,-0.856965
0.447613,-0.303395,0.865330,-0.743248,0.646364,0.172616
-0.750475,-0.089472,-0.217407,0.079460,-0.520864,0.849933
0.108409,0.725776,0.597300,0.400987,0.785826,-0.470837
-0.199206,0.109786,0.688059,-0.517097,0.234767,-0.823101
0.086772,-0.077904,-0.306357,0.927556,-0.373685,-0.000237
0.098960,-0.097397,-0.179028,0.998482,-0.045836,-0.030537
0.789892,-0.338101,0.571163,0.733442,0.008799,0.679696
-0.337694,-0.407966,0.608625,-0.283930,-0.671170,0.684774
0.320922,0.042197,0.437620,0.919522,-0.381924,0.092811
0.063849,-0.155557,0.082186,0.894598,-0.442711,0.060836
0.505591,-0.211577,0.780941,0.697735,-0.670790,0.251408
-0.548697,-0.277800,0.627867,-0.547784,0.010819,0.836550
0.483507,0.016829,0.671176,-0.184528,-0.123911,0.974985
0.055239,-0.260492,0.268869,0.669015,-0.714161,-0.205897
-0.062675,0.535445,0.563062,-0.232655,-0.532928,0.813547
0.178632,-0.021064,-0.595832,0.924865,-0.279170,0.258241
-0.818685,0.080363,-0.208284,-0.035583,-0.491272,0.870279
-0.019680,0.420536,0.502268,0.423319,0.058052,0.904119
0.788494,0.197003,0.680954,0.901242,0.274306,0.335439
0.590686,-0.536128,0.552523,0.884207,0.243880,0.398372
-0.133400,-0.667115,0.294377,-0.555486,0.312795,-0.770451
-0.237280,-0.770228,0.611614,-0.734846,-0.531834,-0.420898
-0.005535,-0.255938,0.667479,0.558623,0.733047,-0.388050
0.070726,0.566461,0.557661,-0.019554,-0.179976,0.983477
-0.006262,-0.007583,-0.976196,-0.316073,0.145361,0.937533
-0.149446,0.036595,0.724315,0.946316,0.061039,0.317429
0.020854,-0.632957,0.579761,0.660320,-0.080635,-0.746643
0.180421,0.003074,0.804011,0.933103,-0.229946,0.276483
0.259533,-0.296928,0.715533,0.528676,0.579662,0.620076
0.268478,-0.042152,-0.988963,0.197287,0.022110,0.980096
0.822096,-0.379410,0.577323,0.503585,-0.393704,-0.769025
0.175836,-0.107417,0.687430,-0.652375,0.028529,0.757359
0.318350,-0.584816,0.395307,-0.298302,-0.220221,0.928719
0.121100,-0.483934,0.606213,0.215649,-0.315889,-0.923964
0.724981,-0.012821,0.552235,0.963971,-0.183861,0.192236
-0.174270,-0.078724,0.798768,0.882207,0.359392,0.304219
-0.628201,-0.260037,0.576379,0.852416,-0.489467,-0.183874
0.029744,0.442625,0.058304,0.449521,-0.280333,-0.848142
0.367885,0.592330,0.602228,0.659765,-0.120789,0.741701
0.106340,-0.252203,0.351711,-0.081040,0.944881,-0.317226
-0.745331,-0.499966,0.307511,-0.107631,0.099836,0.989165
-0.311025,-0.078132,0.350243,-0.307335,-0.949277,-0.066466
0.554344,-0.637420,0.527645,0.693609,0.637845,-0.334753
0.579280,-0.410790,0.487587,0.868326,-0.280632,0.408968
-0.031589,0.304398,0.694403,0.361310,-0.806025,0.468805
-0.101588,0.542778,0.017512,0.828795,-0.233877,0.508331
0.051157,-0.279894,0.604142,0.254905,0.932544,-0.255704
0.824276,0.115387,0.668003,0.854265,0.331762,-0.400206
0.439394,0.026256,0.438485,-0.015160,0.974471,0.224002
0.262496,-0.134106,0.707799,-0.095876,0.156120,0.983074
-0.759029,-0.424407,0.297496,-0.428000,-0.218463,-0.876978
0.064632,0.317833,0.467689,-0.128033,-0.617098,0.776400
0.089623,-0.003074,-0.375488,0.984580,0.173334,0.023594
-0.051157,-0.359233,0.422441,-0.098476,0.355827,0.929349
0.159902,-0.005033,-0.648421,0.899188,-0.431709,-0.071331
0.234932,0.439255,0.607078,0.988584,0.031644,-0.147307
0.202225,0.688612,0.606476,0.192068,-0.698936,0.688911
0.506989,0.448865,0.671884,-0.007825,-0.708202,0.705967
0.817120,0.101450,0.702084,0.935805,0.302900,-0.180333
-0.124734,0.208845,0.422519,-0.158749,-0.685955,0.710116
0.492899,0.295972,0.607340,-0.035596,-0.965176,0.259170
0.254669,-0.161251,0.390038,0.688431,0.644786,-0.332134
-0.129654,-0.690889,0.625980,0.269246,0.509053,0.817540
0.311976,-0.402273,0.574204,0.673660,-0.633714,0.380249
-0.095102,0.401635,0.790956,0.921718,0.372253,0.108926
-0.172425,-0.776968,0.589881,0.607045,0.702533,0.371409
-0.001453,0.803566,0.040320,0.718684,-0.477497,0.505461
0.179135,0.085419,0.822519,0.981069,0.124967,0.147943
0.071397,0.486029,0.343217,0.133427,0.350394,-0.927050
0.800906,-0.086102,0.719885,-0.029683,-0.999551,-0.004069
-0.203231,0.078405,0.737135,0.885846,0.457916,0.074769
0.559320,-0.295607,0.595963,-0.413722,-0.850326,-0.325239
-0.186123,0.744040,0.038170,-0.295584,-0.742221,0.601446
0.173432,-0.399631,0.024066,0.982105,0.000586,0.188332
-0.422118,-0.090338,-0.261083,0.353167,0.376908,0.856279
0.182042,0.015781,-0.932914,-0.285493,-0.957515,-0.040734
-0.412054,-0.314918,0.385240,0.288152,-0.264824,-0.920237
-0.198423,-0.000433,0.780076,0.981716,0.187218,0.034393
0.179190,-0.412748,0.025429,0.982105,0.000586,0.188332
0.807559,-0.052581,0.539940,-0.164547,-0.922674,0.348706
0.851840,0.198142,0.720173,0.855265,-0.293503,-0.427058
-0.133344,0.444265,-0.016254,0.513080,0.664047,-0.543866
-0.512412,0.621980,0.050780,-0.683491,0.449911,-0.574822
-0.056469,0.383873,0.186840,-0.323987,0.718477,-0.615487
-0.199485,0.059777,0.767519,-0.616866,-0.359396,-0.700222
-0.014369,-0.856854,0.538340,-0.362071,0.718798,0.593493
0.135246,0.451461,0.635024,0.995570,0.007384,0.093729
0.522700,-0.071163,0.716948,0.792878,-0.440288,0.421296
0.271218,-0.578120,0.399450,-0.693243,-0.025172,-0.720265
-0.121044,0.495958,-0.030699,0.870327,0.126365,-0.475987
0.520127,0.262815,0.764163,0.026510,-0.762012,0.647020
-0.110198,-0.658780,0.304181,-0.689830,0.414667,-0.593452
0.325618,0.049530,-0.030908,0.220028,-0.944615,0.243495
-0.470704,-0.013641,0.374177,0.779941,0.075247,0.621313
0.082187,-0.534944,0.571897,-0.645326,0.159400,0.747092
-0.016158,-0.857582,0.616568,0.961095,0.249428,0.118670
0.138544,0.561269,0.352523,0.367169,0.621112,-0.692392
-0.546014,0.487441,0.052536,-0.542958,-0.102973,-0.833422
-0.134854,0.841687,0.059143,-0.613265,0.282803,-0.737516
-0.346025,-0.294697,0.754280,0.739781,-0.191668,0.644971
-0.345745,-0.739622,0.568410,-0.035216,-0.318476,0.947276
0.796210,0.036914,0.685490,0.650865,-0.477094,-0.590556
0.554512,0.293922,0.586944,0.348959,0.269804,-0.897459
-0.680252,-0.231344,0.375724,0.240273,0.339926,0.909241
-0.133848,0.400224,0.738288,-0.427420,-0.325390,0.843466
-0.279660,-0.498417,0.596802,0.794642,0.425443,0.433061
0.150397,-0.047298,-0.100380,0.025979,-0.253786,0.966912
-0.095437,0.041423,0.791270,0.430608,0.649521,0.626657
0.878620,-0.491085,0.468685,0.828058,-0.468171,0.308441
0.674606,0.105185,0.667532,0.967679,-0.002736,0.252170
0.162697,-0.134197,0.178896,-0.543870,0.714051,-0.440836
0.156995,0.635461,0.614864,-0.567831,0.595000,-0.568809
-0.727552,-0.098718,0.500826,0.294242,0.608204,0.737231
0.603545,-0.282536,0.563901,0.928474,0.162138,-0.334137
0.145533,0.423952,0.690208,0.927722,0.175248,0.329577
0.676731,0.193633,0.756010,0.297367,0.268264,-0.916301
-0.746562,0.072576,0.394626,0.863131,-0.489593,-0.123709
0.539528,-0.426412,0.435968,0.680458,-0.087019,-0.727602
0.662138,-0.090338,0.433845,0.715735,-0.551208,-0.428828
0.234932,-0.189079,0.675187,-0.432384,-0.251756,0.865831
-0.373197,-0.374218,0.689815,-0.914718,0.139814,0.379134
0.086604,0.530344,-0.029204,-0.001641,-0.297691,0.954661
-0.329252,-0.114978,-0.261161,0.028185,0.194300,0.980537
0.400481,0.747546,0.532967,-0.277354,-0.119629,0.953291
0.792464,0.219502,0.663232,0.670375,0.558226,-0.488857
0.768367,-0.351764,0.516791,0.315743,0.945630,0.078037
0.629543,-0.503609,0.760362,0.707531,0.116518,-0.697010
0.214470,-0.312641,0.639586,0.263155,-0.838596,-0.476976
0.033602,0.381140,0.705649,0.946288,0.222837,0.234271
-0.167058,0.204291,0.631800,-0.453726,-0.670435,-0.587069
0.791066,0.141029,0.740621,0.124775,0.954640,-0.270358
0.766186,0.150775,0.734749,0.124619,0.967922,-0.218167
-0.083194,-0.470908,0.743505,-0.182205,-0.623371,0.760401
-0.074584,-0.230797,0.530633,0.360171,0.930531,0.066243
0.510288,0.657095,0.553415,-0.167994,0.348457,0.922147
-0.125517,-0.137795,-0.291624,-0.019270,0.994803,-0.099976
0.313206,0.287819,0.461633,0.652117,0.064018,-0.755411
0.038019,0.441486,0.724079,0.412557,-0.661255,0.626529
0.014760,-1.000000,0.601049,-0.268004,0.353201,0.896339
-0.090629,-0.211896,0.785634,-0.335845,-0.902384,-0.270020
-0.246953,-0.690479,0.319465,0.322771,-0.238570,0.915917
0.053674,-0.288867,0.302609,-0.796752,0.477614,0.370231
0.274517,0.492770,0.608835,0.873695,-0.033726,0.485303
0.729509,0.487350,0.621995,-0.419723,-0.118412,-0.899895
0.556692,-0.475509,0.753179,-0.438221,0.011092,0.898799
0.281897,0.039874,-0.087062,0.285324,-0.840932,0.459809
-0.719445,0.003484,-0.169327,0.461134,0.000724,0.887330
-0.019848,0.289459,0.664674,0.410216,0.635243,-0.654362
0.128201,0.497006,0.618796,0.951463,-0.284233,-0.118020
-0.512132,-0.090793,-0.259955,0.055797,-0.319842,0.945826
-0.001342,-0.261448,0.673404,0.368829,0.885217,-0.283471
-0.258973,-0.855305,0.319964,0.235925,0.442711,0.865070
0.423963,-0.278437,0.637148,-0.685764,0.709540,-0.162112
0.647714,0.294879,0.584900,-0.291446,-0.118946,0.949163
0.154311,-0.258306,0.101639,-0.678053,-0.481643,0.555216
0.506262,-0.205884,0.846874,0.201945,0.978769,0.035052
-0.491222,-0.257214,0.395229,-0.521525,-0.570612,0.634362
-0.204853,0.754378,0.050675,0.011419,-0.298378,0.954379
0.714526,-0.242685,0.582671,0.808825,0.158044,0.566413
0.715867,-0.395441,0.622807,0.481113,-0.753105,0.448735
-0.409594,-0.005670,-0.106017,0.080196,0.560106,-0.824530
0.549983,0.081320,0.426793,0.060140,0.658085,0.750538
0.003522,0.588595,0.002281,-0.019286,0.068281,0.997480
0.606508,-0.267962,0.546048,0.944660,-0.222912,0.240680
-0.128201,-0.349031,0.635968,-0.264021,-0.699350,-0.664231
0.152354,-0.167536,0.214366,0.272177,0.868990,0.413250
0.177401,-0.015690,0.794468,-0.827723,0.064516,-0.557415
-0.397015,0.457017,0.154673,0.342186,0.158184,0.926222
0.423907,0.054721,0.899410,0.533653,0.674935,0.509586
0.519289,0.592695,0.558894,-0.122096,-0.531352,0.838306
-0.297048,0.069159,0.285096,0.953595,-0.069358,-0.292996
0.266968,0.058411,0.525731,-0.623822,0.531674,-0.572860
-0.092139,-0.172774,0.174702,-0.693094,-0.697121,-0.183418
0.483787,0.006854,0.489107,-0.724350,0.483216,0.491752
0.255787,0.517546,0.643780,-0.619022,0.009831,-0.785312
0.494745,0.258989,0.713986,0.819177,0.573484,0.008012
0.238008,0.066792,-0.047188,-0.725456,-0.211760,0.654882
0.025551,0.375811,0.695530,0.917651,0.344628,0.197860
-0.170860,0.624166,0.019242,0.598151,0.441118,0.669052
0.668624,0.437388,0.639009,0.777201,-0.415078,-0.472936
0.213519,0.103637,-0.994180,0.144463,0.190633,0.970973
-0.201275,0.069797,0.791794,0.826224,0.018223,0.563047
0.353908,0.058684,0.521694,-0.356079,0.814182,-0.458602
0.410656,-0.670075,0.424486,0.841922,0.216544,-0.494243
-0.148720,-0.065926,0.252510,0.345854,0.901275,0.260939
0.686683,-0.248514,0.622205,-0.397127,0.503670,0.767207
0.486582,0.188805,0.549299,-0.127974,-0.633708,0.762914
0.219613,0.138797,-0.066772,0.347318,-0.182777,-0.919763
0.316505,0.734749,0.568174,-0.527210,0.402775,0.748212
0.083305,-0.092479,-0.077074,0.978255,-0.172584,0.115032
0.037348,0.590645,0.547857,-0.088229,0.055866,0.994532
0.686179,-0.436750,0.464360,-0.111851,0.551837,0.826417
-0.007324,0.774919,0.025560,0.247490,-0.510432,0.823534
0.762887,-0.044155,0.812321,0.515681,-0.538739,-0.666208
0.631611,0.553800,0.390090,-0.539143,-0.628872,0.560218
0.416583,0.070389,0.646140,-0.817973,0.383067,0.429163
-0.023929,0.799012,0.077966,-0.115514,0.708034,0.696667
0.136140,0.461207,0.494246,-0.362733,0.569689,-0.737481
-0.017164,-0.392526,0.282632,0.759741,-0.299870,-0.576950
0.136755,0.035548,-0.955958,-0.283685,-0.127475,-0.950407
-0.902494,-0.016510,-0.191087,-0.492561,0.130051,-0.860506
-0.317455,0.351855,0.535535,0.767550,-0.553358,-0.323513
0.190484,0.469269,0.528956,-0.255663,-0.513132,0.819348
0.440009,0.627992,0.450518,-0.228955,-0.836345,0.498104
0.156379,0.488033,-0.029073,0.076473,0.319969,-0.944337
0.234932,0.669301,0.602176,0.280316,0.091142,-0.955571
-0.006262,0.089700,-0.098545,0.184510,0.276102,-0.943252
-0.048306,-0.178740,0.870127,0.855784,-0.449803,0.255559
0.272895,0.035047,0.906462,-0.190795,0.832333,0.520402
0.039640,-0.126591,-0.294718,0.325496,-0.388084,0.862232
-0.719949,0.071664,0.307301,0.755836,-0.587384,-0.289296
-0.066868,0.876757,0.046271,0.290607,-0.433660,0.852929
0.749916,0.079270,0.594102,0.828980,0.263669,-0.493225
-0.168288,0.104593,0.371268,0.698803,-0.121013,-0.705004
0.648496,-0.363515,0.635417,0.944112,0.325618,0.051233
-0.205747,-0.657869,0.559129,0.959943,0.246708,-0.132833
-0.217656,-0.156879,0.623961,0.292247,0.492655,-0.819684
-0.132785,-0.039191,0.227500,0.369584,0.835588,0.406448
0.187800,-0.651811,0.648682,-0.595927,0.214565,0.773843
0.664039,0.518457,0.644252,0.704641,0.055267,0.707409
-0.194733,0.318288,0.162354,0.029617,-0.503067,0.863740
0.103768,0.496505,0.354280,-0.298769,-0.344779,0.889868
0.091077,0.169767,0.429309,0.231266,-0.256933,0.938350
0.221570,-0.109831,0.174754,0.482013,0.129268,-0.866576
0.517276,-0.504156,0.519623,0.143894,0.927189,0.345855
0.110813,-0.049165,-0.299987,0.973030,-0.229239,0.025715
0.154478,0.111106,-0.970717,-0.738103,-0.435131,-0.515620
-0.066141,-0.092023,0.416437,0.347375,-0.379042,0.857705
-0.695013,-0.107735,0.486591,0.267686,0.837400,0.476557
0.529688,-0.519277,0.453139,-0.279731,0.895528,-0.346092
0.664095,0.358277,0.645118,0.991398,0.099669,-0.084827
0.182825,0.021839,-0.707222,0.973609,-0.221561,0.054728
-0.552723,0.017876,-0.172447,0.474696,-0.168081,0.863952
0.045566,-0.571289,0.455210,0.784953,0.311805,0.535376
-0.586101,-0.122447,-0.243544,0.201358,-0.238186,0.950117
0.069552,0.488079,-0.034710,0.143342,-0.429380,0.891676
-0.266689,-0.581127,0.608363,0.942257,-0.126636,0.310024
0.142010,-0.226698,0.104837,0.641490,0.534727,-0.550052
0.237001,0.579350,0.439743,-0.409880,-0.461539,0.786753
0.719501,0.442443,0.723136,-0.516889,0.227651,0.825228
0.753159,0.119578,0.660296,0.389844,0.052602,-0.919377
0.674103,-0.279120,0.755853,-0.676681,0.606113,-0.418006
0.221458,-0.097169,0.890575,-0.058446,-0.802776,0.593409
0.025048,-0.497734,0.600131,0.283709,0.464315,0.839000
0.395058,0.087697,0.844645,-0.469032,0.129627,0.873617
-0.140389,-0.521053,0.623489,0.892627,0.432891,-0.125783
-0.355306,0.428598,0.502871,-0.097019,-0.129316,0.986846
0.706978,0.070753,0.699541,0.559526,0.687922,-0.462270
0.916080,0.243914,0.750111,0.901655,-0.022308,-0.431881
0.544560,-0.479517,0.743269,0.679599,0.072579,-0.729985
0.190093,0.467356,0.547385,-0.577840,-0.661643,0.477838
0.209326,0.061873,-0.932101,0.871137,0.387919,-0.301062
-0.560326,0.572974,0.043702,0.725270,-0.539785,0.427337
0.035950,0.859131,0.053690,-0.008654,-0.237422,0.971368
-0.512356,-0.634049,0.572657,0.141489,0.693216,-0.706705
0.520854,-0.146586,0.616123,-0.780405,0.568093,0.261224
-0.189869,0.444629,-0.025980,0.228944,-0.380782,-0.895874
-0.297216,-0.010270,0.273430,0.322332,0.355085,-0.877506
0.517500,0.222417,0.574649,0.094599,0.055324,-0.993977
0.142793,-0.020290,-0.982461,-0.367281,0.176612,-0.913188
0.180365,0.041833,0.899698,0.329806,0.797651,0.504956
-0.004249,-0.398492,0.779578,-0.784989,0.505205,-0.358552
-0.030247,-0.689887,0.600577,-0.178427,-0.406433,-0.896089
0.230571,-0.533032,-0.357950,-0.114007,0.006404,0.993459
-0.752320,-0.127639,-0.210067,0.063430,-0.432918,0.899199
0.647770,-0.618018,0.571294,-0.272501,-0.239059,0.931984
0.236945,-0.025437,0.603041,-0.002058,0.995322,0.096587
-0.531701,-0.125999,-0.260873,0.151292,-0.048200,0.987313
0.266633,0.404641,0.476996,0.116847,-0.580469,0.805856
0.754221,-0.064605,0.681059,-0.654203,0.118317,0.747007
0.443308,0.038599,0.935614,0.835666,0.394518,-0.382122
0.516996,-0.465716,0.512675,0.835883,0.334276,-0.435385
0.563458,-0.121263,0.758002,-0.492035,-0.399090,0.773711
0.229733,-0.185298,0.167519,-0.538903,-0.281460,0.793954
-0.075702,-0.857582,0.559863,-0.296923,0.233771,0.925844
0.159175,0.684786,0.616647,-0.183310,0.522464,-0.832724
-0.222017,0.710245,0.047765,0.093884,0.064697,0.993479
-0.107235,0.116344,0.171897,0.283421,0.474578,0.833336
-0.074695,0.343793,0.012688,0.720057,-0.692105,0.050077
0.122945,-0.030766,-0.382016,0.993043,0.056928,0.103077
0.851784,-0.445039,0.600262,-0.368747,0.741018,0.561176
0.049983,-0.218227,0.305676,-0.595760,-0.443339,0.669716
-0.295035,-0.308633,0.708192,0.210067,-0.427639,0.879202
-0.830929,-0.003348,0.293381,0.391692,-0.241047,0.887961
-0.303310,-0.410653,0.724892,0.915068,-0.280957,0.289334
-0.405792,0.465990,0.151186,0.278571,0.367583,0.887289
0.768199,0.151914,0.641919,0.992475,-0.000325,-0.122443
0.246618,0.503427,0.560519,-0.649230,0.308782,0.695093
0.595270,0.406645,0.656862,0.384507,0.816388,-0.430888
-0.139327,0.216041,0.750950,-0.451269,0.634478,-0.627530
-0.352622,0.017876,0.259064,0.191605,-0.074569,-0.978635
0.197473,-0.046205,0.884782,-0.619277,0.151723,-0.770374
0.296936,-0.098172,-0.990169,-0.102531,-0.036454,-0.994062
-0.062059,0.362330,-0.025796,0.085821,-0.249962,0.964445
0.333781,0.076720,0.840503,-0.424233,0.840172,0.337844
0.193168,0.645526,0.571975,0.655590,-0.395141,0.643479
0.260427,-0.158655,0.421680,0.693286,-0.353675,-0.627908
0.129934,0.070116,0.755433,0.809297,0.587212,-0.014826
-0.083585,0.200100,0.615808,0.280764,0.828824,0.483966
-0.156099,-0.764854,0.607393,-0.277893,-0.892240,0.355925
0.568322,-0.116071,0.519465,0.085765,0.197548,0.976534
0.020631,0.891057,0.061581,-0.141025,0.418662,-0.897126
-0.211674,-0.180744,0.807393,0.787808,0.599719,-0.140340
-0.136587,-0.041969,0.719701,0.984360,0.153129,0.087100
-0.245499,0.132057,0.320278,0.632934,-0.473266,-0.612710
0.763614,0.013458,0.706147,-0.061737,-0.771527,0.633194
-0.436599,-0.409560,0.273902,-0.096520,0.265779,0.959190
0.096724,-0.069888,-0.293905,0.923927,-0.382100,-0.018953
0.078777,-0.543780,0.581544,0.874504,0.072686,-0.479541
0.404786,0.364926,0.636283,0.888828,0.442832,0.117836
-0.274628,-0.093936,0.361043,0.419134,0.879308,0.226151
0.177849,-0.838180,0.535824,-0.621316,-0.340487,-0.705717
0.204014,0.059914,-0.839009,0.872596,-0.467525,0.141407
-0.061053,0.160248,0.677887,0.739027,-0.483779,-0.468825
-0.263726,-0.123904,-0.265906,0.078116,0.533974,0.841885
0.364196,0.167217,0.941958,0.283924,-0.627045,0.725398
-0.281449,-0.176872,0.422100,-0.417696,-0.397410,-0.817065
-0.875993,-0.466399,0.300537,0.246100,0.418583,0.874198
0.645757,0.368479,0.588885,0.188527,-0.285621,0.939616
-0.134127,-0.165031,0.426714,0.402557,0.737622,0.542089
-0.470983,-0.191629,-0.271700,0.039853,0.037390,0.998506
0.160237,0.012730,0.393262,0.943315,0.290839,-0.159903
0.551213,-0.496095,0.745812,0.622266,0.287681,-0.728028
0.749022,0.034363,0.600656,0.862364,0.232168,-0.449918
0.443140,-0.269419,0.161935,-0.022748,-0.198358,0.979866
-0.233311,-0.519459,0.609438,-0.617590,-0.423886,-0.662498
-0.097339,-0.622663,0.302058,0.835413,-0.399115,0.377878
0.115733,-0.089472,0.885621,-0.589961,0.634444,-0.499426
-0.073186,-0.069842,0.405295,0.304537,-0.505526,0.807279
-0.194062,-0.076356,0.692987,0.163866,0.743652,-0.648174
0.250867,-0.105413,0.734461,-0.430077,-0.047569,-0.901538
0.077547,-0.003439,-0.410643,0.956914,-0.273130,0.098567
-0.478587,0.041423,0.295609,-0.634529,-0.650735,-0.417034
-0.119535,0.716029,0.035548,0.182767,0.365183,-0.912819
0.569664,0.442580,0.669577,0.208730,-0.673553,0.709054
-0.555071,0.322706,0.281426,-0.112396,-0.779956,0.615659
0.182265,-0.183522,0.035601,0.662161,0.731460,0.162819
0.412110,0.709243,0.535771,0.250866,0.402045,-0.880583
-0.285866,-0.269055,0.420212,0.810084,-0.509614,-0.289926
-0.111651,-0.056453,0.710945,0.836936,-0.129705,-0.531709
0.338030,0.037233,0.519229,-0.438367,0.735200,-0.517025
0.494130,-0.059231,0.734225,0.574287,0.153585,-0.804118
-0.224813,-0.149272,0.626845,0.718304,0.362454,-0.593858
0.275914,0.196320,0.561856,0.230585,-0.210666,0.949974
0.650118,-0.101678,0.768620,0.507979,-0.039646,-0.860457
0.145924,0.002117,-0.522873,0.881022,0.370026,0.294757
-0.182209,0.034136,0.741382,0.950372,0.247108,0.189027
-0.669238,-0.225514,0.375619,0.629196,0.111125,0.769261
0.236274,0.051625,-0.984664,0.632380,0.161765,0.757580
-0.577826,-0.324209,0.644855,0.743679,0.111445,-0.659182
0.236721,0.147952,0.673221,0.855460,-0.199149,0.478046
-0.378396,0.333091,0.482475,0.452519,0.006707,-0.891730
0.295203,0.786988,0.512544,-0.048060,-0.223913,0.973423
0.187856,0.595473,0.520016,0.106294,0.994073,-0.022809
0.068154,-0.610867,0.463914,0.896461,0.440359,0.049416
0.160572,0.544736,0.653297,-0.735258,0.667857,-0.115598
0.819356,0.215813,0.672067,0.746482,0.503462,-0.435075
-0.158671,0.898026,0.052982,0.391137,0.614652,0.684993
-0.714190,0.461526,0.075685,-0.237213,-0.569109,-0.787302
-0.407749,0.768406,0.058199,-0.288007,0.090391,0.953353
-0.200827,0.041787,-0.094718,-0.193905,0.257068,-0.946740
-0.324108,-0.450686,0.698624,-0.771820,0.633305,0.056722
0.945824,-0.285132,0.515454,0.978584,-0.205262,-0.015543
-0.075534,0.640380,0.022546,0.882602,-0.261825,-0.390463
0.024041,-0.106734,0.418010,0.514406,0.338154,0.788060
-0.247848,0.730649,0.040110,-0.498460,0.440731,-0.746521
0.649223,-0.226380,0.652563,-0.625306,0.711085,0.321481
0.492564,-0.261358,0.819164,0.857522,-0.184047,0.480398
-0.280331,0.398219,0.509084,-0.156494,0.063713,0.985622
-0.331880,-0.013276,0.699803,0.433463,0.319415,-0.842665
0.561501,-0.014370,0.745733,0.465492,0.755245,0.461434
0.084815,-0.010225,-0.351737,0.992078,0.100728,0.075066
0.336911,0.300435,0.309110,0.171805,-0.841338,0.512478
0.348709,0.084918,0.946808,-0.207080,0.475907,-0.854769
0.010008,0.080545,-0.983589,-0.001062,-0.153097,0.988211
-0.715588,0.027213,-0.206842,0.486592,0.845592,0.219549
-0.422565,0.221279,0.271385,-0.338751,-0.093065,-0.936262
-0.098457,-0.381641,0.421025,0.114873,-0.534651,-0.837229
0.243543,0.584724,0.629178,0.859270,0.103880,0.500863
0.511015,-0.003894,0.670389,0.498983,-0.518957,-0.694046
0.108576,-0.074124,-0.102740,0.949774,-0.312900,-0.004858
0.028179,-0.715802,0.610146,-0.012822,0.122062,0.992440
-0.395337,-0.217043,-0.262891,-0.254970,0.335146,0.907010
0.107850,-0.610503,0.525390,-0.636323,0.761873,-0.121005
-0.042212,0.679958,0.564635,-0.368404,0.054698,-0.928055
0.249581,-0.030265,0.609044,-0.309384,0.945334,0.103081
-0.242704,0.118074,0.323293,0.665710,-0.519853,-0.535335
0.507157,0.207660,0.731629,0.896944,0.306703,0.318471
0.360282,0.095439,0.805296,0.466155,0.458571,0.756579
0.242816,-0.083779,0.829650,0.274551,-0.625346,-0.730455
0.680868,0.201831,0.765290,0.433106,0.399559,-0.807943
-0.629599,-0.117118,0.667034,-0.597726,-0.719970,0.352657
-0.013474,-0.358869,0.708324,0.760906,-0.500273,-0.413218
-0.404954,-0.374810,0.646087,0.796403,0.080440,-0.599393
0.188863,0.251475,0.588282,0.736003,0.068401,0.673514
-0.051381,0.303532,0.752025,0.807661,0.295615,0.510191
0.005982,0.499465,0.762249,-0.483872,0.295215,-0.823842
0.224925,0.034591,0.826373,-0.663517,0.637912,0.390912
0.083250,-0.265912,0.296291,0.871166,-0.378993,-0.312144
-0.655708,0.489627,0.061030,-0.042384,0.609291,0.791813
-0.555015,-0.131738,-0.254633,-0.264226,-0.037427,-0.963734
0.187186,-0.052581,0.425088,-0.746017,0.644446,-0.167772
0.184949,-0.218500,0.662053,0.909695,0.094550,-0.404370
0.268143,0.550794,0.545576,0.868221,0.495898,-0.016686
0.117634,0.182292,0.423070,0.177555,-0.301915,0.936654
-0.479593,-0.589689,0.591244,0.411021,0.462314,-0.785702
0.078665,-0.211213,0.405820,0.790871,0.553237,0.261633
0.284636,-0.427732,0.454372,-0.475181,-0.472052,0.742543
0.074248,-0.301619,0.585110,0.230351,0.967457,-0.104714
0.209270,-0.093617,0.809071,0.821616,0.164036,-0.545929
0.114000,-0.003120,-0.409674,0.932143,-0.334533,0.138554
0.666108,-0.111470,0.762669,-0.608150,0.792901,0.038242
-0.248630,-0.499966,0.601075,0.599475,0.674738,0.430533
-0.166443,-0.051580,0.745655,-0.409214,-0.810560,-0.418970
-0.274740,0.581582,0.031983,0.009108,0.999952,-0.003486
0.178072,0.231162,0.591899,0.711827,0.072587,0.698594
0.506150,0.212944,0.561227,-0.127932,-0.598447,0.790882
-0.057251,-0.218682,0.778084,-0.210339,-0.977120,0.031534
-0.167952,-0.104776,-0.285909,0.063919,0.785021,0.616162
0.031086,0.544235,0.557583,-0.429273,-0.554899,0.712609
-0.274796,-0.394986,0.642496,0.080097,-0.858200,0.507028
0.483954,-0.391388,0.696291,-0.652936,-0.589265,0.475860
-0.123784,0.783527,0.050570,0.776202,0.627882,-0.057225
0.196411,0.053037,-0.931734,0.871137,0.387919,-0.301062
0.030191,-0.489308,0.411430,0.977552,-0.134914,-0.161835
0.226714,0.592740,0.566732,0.534923,-0.800427,0.270507
0.734653,0.410927,0.580312,-0.455158,0.517665,-0.724469
0.462038,0.098673,0.693931,-0.089940,-0.599786,0.795090
0.247065,0.636827,0.571792,-0.642601,0.239557,-0.727789
-0.160181,-0.074670,0.677284,0.581030,0.542386,-0.606813
-0.465168,-0.649216,0.295478,0.348791,0.417553,0.839044
0.027731,0.843281,0.033268,0.704941,0.188872,-0.683656
0.124790,-0.393072,0.822834,0.228643,-0.970676,0.074234
0.384547,-0.116890,0.197588,0.157135,0.435456,-0.886390
0.238455,-0.072439,0.826452,-0.178132,0.485466,0.855916
0.529968,0.086557,0.559680,0.423815,0.496606,-0.757472
0.446942,-0.745725,0.426740,0.065086,-0.108369,0.991978
-0.057307,-0.557306,0.536427,0.565014,-0.787425,0.246416
-0.848596,-0.055451,0.301534,0.356158,-0.159656,0.920685
0.226714,0.581992,0.446035,-0.322488,-0.616013,0.718700
0.002852,0.792909,0.063521,-0.252263,-0.902817,-0.348259
0.486693,-0.297520,0.601756,0.429792,-0.723364,0.540392
-0.549032,0.322023,0.276734,0.661945,0.749416,0.014342
-0.204909,0.024253,0.772526,0.231091,0.635396,0.736796
0.814436,0.008813,0.692516,-0.193887,-0.722317,0.663827
0.505088,0.178103,0.695688,-0.303976,0.021701,0.952432
-0.228503,0.015007,0.703814,0.343805,0.340523,0.875124
0.008219,-0.759297,0.493407,0.301712,0.678914,0.669362
-0.400313,-0.037233,0.246323,-0.080997,-0.190524,0.978335
-0.250643,0.718307,0.040189,-0.175910,-0.207788,0.962226
-0.005423,-0.210394,0.610801,-0.048235,-0.109260,0.992842
-0.410544,-0.195865,0.468633,0.024671,-0.990975,-0.131758
0.247959,0.028488,0.784402,-0.170966,0.617809,-0.767517
0.253494,-0.211987,0.147542,0.833117,0.528163,-0.164198
-0.198703,0.769453,0.008887,0.946663,0.314417,0.070504
0.069440,-0.641792,0.422729,-0.106326,-0.977350,0.182979
-0.252544,0.082687,0.267348,0.794064,0.378371,-0.475707
0.095997,0.545693,-0.021628,-0.081979,-0.453608,0.887423
-0.056525,-0.757065,0.629597,0.117357,0.625371,0.771452
-0.091524,0.853893,0.038406,0.374356,-0.239244,0.895891
-0.111875,-0.167354,0.637331,-0.711042,-0.658312,0.247073
0.159399,0.634004,0.448421,0.756261,0.609847,-0.236972
0.361568,-0.601622,0.406947,0.694230,0.391968,-0.603660
-0.331265,0.394576,0.165683,0.885265,-0.303684,-0.352251
-0.191211,-0.450823,0.726019,-0.354579,0.932748,0.065236
0.311808,-0.056453,-0.992896,0.148262,0.034792,0.988336
0.450464,-0.487077,0.735850,-0.527344,0.323378,0.785707
0.130549,-0.126728,-0.106305,0.759178,-0.644310,0.092270
0.879795,0.166170,0.746651,0.526462,0.517029,-0.674921
-0.285251,-0.122310,0.348539,0.416246,0.659319,0.626129
0.142850,0.039282,0.826268,0.946691,-0.048899,0.318409
0.777200,-0.018150,0.680194,0.411689,-0.093725,-0.906492
0.730069,-0.215677,0.616490,0.769739,-0.462582,-0.439909
-0.018226,-0.225970,0.792292,-0.225890,0.844085,-0.486307
0.705803,-0.004168,0.631170,0.833898,-0.549031,0.056381
-0.063234,-0.471455,0.682789,0.623484,0.709980,0.327407
0.763558,-0.429007,0.712623,0.130800,-0.040543,0.990580
0.852343,-0.464123,0.601442,0.246673,-0.945109,-0.214293
0.088673,0.645390,-0.021156,0.970763,0.139465,0.195368
0.182601,0.157289,0.913619,-0.532984,-0.830385,0.162443
0.986414,-0.333546,0.598165,0.928272,0.009387,0.371782
-0.769317,-0.540136,0.290287,-0.605417,0.242578,-0.758041
-0.488874,0.362421,0.302661,0.076050,-0.845139,0.529109
-0.481550,-0.084872,0.438799,-0.690246,-0.686847,-0.227599
0.334563,-0.039464,0.815231,-0.156199,0.853995,0.496280
0.154087,0.504474,0.539389,0.749217,0.661138,-0.039640
0.318518,-0.442717,0.642994,0.630448,-0.172502,-0.756821
-0.141731,-0.770045,0.516031,-0.491282,0.613668,-0.618105
-0.164542,0.061599,0.387443,0.765537,-0.037174,-0.642317
0.228671,-0.407374,0.695661,-0.466002,-0.868111,0.170955
0.297272,-0.443992,0.434919,0.830999,-0.239055,0.502288
0.020575,0.144946,-0.993760,-0.242061,0.056464,0.968617
-0.106731,-0.033680,0.739206,0.351796,-0.417064,0.838031
0.128648,-0.670440,0.606082,0.451654,0.851909,-0.265066
0.222744,0.675768,0.590195,-0.056533,0.960645,-0.271964
-0.008666,-0.091567,0.230410,0.495746,0.827125,0.264765
0.430784,0.396443,-0.097497,-0.025160,-0.137873,0.990130
0.126915,0.533168,0.542823,0.843855,0.449035,0.293728
0.032539,-0.279849,0.592843,0.271898,0.935255,-0.226647
-0.122107,-0.818778,0.581229,0.493660,0.415789,-0.763819
0.246226,0.089700,-0.060611,0.348408,0.364284,0.863661
0.090965,-0.158609,0.786682,0.681978,-0.670675,-0.291720
0.158280,0.126318,0.855866,0.921326,0.324106,-0.214743
-0.371128,0.638376,0.025534,-0.026305,0.112492,0.993304
-0.107235,-0.707695,0.599423,0.090906,0.104059,0.990408
0.014034,0.376449,0.495321,-0.402790,0.338498,-0.850400
0.120374,0.686608,0.001494,0.007882,-0.811663,0.584072
0.258470,-0.605629,0.420422,0.975798,0.112968,0.187235
0.052779,0.256530,0.667768,0.593821,0.433651,-0.677734
0.061221,-0.275112,0.556115,-0.830301,-0.484330,-0.275724
0.238455,-0.567508,0.432613,0.961049,-0.095309,-0.259425
0.482556,0.031540,0.207970,0.004862,-0.137754,0.990455
-0.032204,-0.196092,0.421051,0.236001,0.964353,0.119693
-0.162474,0.544827,-0.013370,0.222487,0.942229,0.250408
0.125741,0.527293,-0.031721,0.197388,0.302297,-0.932553
0.009113,-0.682827,0.453585,-0.295862,0.778478,0.553569
0.553561,0.004076,0.750190,0.334236,0.926747,-0.171540
0.485184,-0.300982,0.427448,0.726872,0.301395,-0.617105
-0.157721,0.268736,0.789173,-0.517055,-0.022158,-0.855665
-0.155037,0.066609,0.701140,-0.596540,-0.514577,-0.615914
0.116069,0.039236,-0.554594,0.652597,0.747938,0.121269
-0.114111,-0.822695,0.614366,0.233863,-0.963553,-0.129901
0.070949,-0.045431,-0.179237,0.979018,-0.203770,0.001356
0.211786,-0.110286,0.841552,0.440113,-0.773178,-0.456614
-0.381472,-0.436021,0.683078,0.799572,-0.426017,-0.423314
-0.307335,-0.211532,0.492384,-0.051746,-0.992611,0.109753
0.212513,0.388518,0.351920,0.859195,0.096903,-0.502387
0.499553,0.136110,0.688059,0.143149,0.659733,-0.737741
0.462988,-0.383599,0.536505,-0.252131,0.024444,-0.967384
-0.076317,0.189306,-0.976039,0.384660,0.053549,0.921504
-0.339204,-0.637237,0.610146,0.105352,-0.911051,0.398605
-0.134854,-0.718261,0.571687,0.572622,-0.140229,-0.807737
0.520296,-0.467310,0.509424,0.835883,0.334276,-0.435385
0.162362,-0.157607,0.202936,-0.604364,-0.785853,-0.131074
-0.886783,0.123266,-0.196749,-0.488896,-0.127878,0.862918
-0.073969,-0.242821,0.805007,-0.404235,-0.739505,-0.538262
0.358829,-0.140847,0.683209,0.138060,-0.741641,-0.656436
0.143744,-0.010179,0.117761,0.759786,0.364133,-0.538638
0.928156,0.160476,0.767021,0.582003,0.358318,-0.729987
0.328357,0.041469,-0.049443,0.484449,-0.874724,0.012926
0.578274,-0.542869,0.442548,0.101968,-0.003076,0.994783
0.395729,-0.268554,0.693302,-0.669831,0.740869,0.049382
-0.071509,-0.735978,0.616201,-0.158204,0.519240,0.839858
0.635693,0.481156,0.662603,-0.009760,0.386153,0.922383
-0.033881,0.497780,0.521982,0.255118,-0.791810,0.554934
0.127250,0.554984,0.555565,0.458141,0.786244,-0.414641
-0.043162,-0.321841,0.623018,0.490174,-0.725056,-0.483760
-0.133736,0.632273,-0.013291,0.808378,0.163071,-0.565626
0.435257,0.376039,-0.096133,-0.025160,-0.137873,0.990130
-0.055071,-0.839638,0.654712,-0.155523,-0.880496,-0.447817
0.019568,0.943206,0.083182,-0.378076,0.320853,-0.868396
0.270547,0.068613,-0.990667,0.505719,0.197819,0.839712
0.089400,0.008813,0.086853,-0.636786,-0.749992,0.178929
0.650341,-0.601121,0.756796,-0.676280,-0.440524,0.590411
-0.106172,-0.117027,0.711574,-0.762865,-0.511037,0.396079
0.591468,-0.511307,0.435549,-0.614197,-0.241376,0.751332
0.509561,0.087468,0.783379,0.795024,0.216210,0.566736
0.492732,0.310592,0.820553,0.543947,0.775170,-0.321300
0.357039,0.294833,0.316476,0.081949,-0.793459,0.603081
0.495639,0.569877,-0.088426,0.487093,-0.190001,0.852432
0.906072,-0.185571,0.595727,-0.189276,-0.445177,0.875210
0.198703,-0.050031,0.421182,-0.584746,0.804851,-0.101429
-0.672258,-0.343839,0.618613,0.460715,-0.516577,-0.721727
-0.105613,0.546831,0.070389,0.306193,0.513288,0.801736
-0.698200,-0.161433,0.511548,0.003990,0.431563,0.902074
0.055239,0.120807,-0.957347,0.744991,0.039165,-0.665924
0.695572,-0.128595,0.647555,0.837757,0.413345,0.356804
-0.548362,-0.075900,-0.232980,0.305389,-0.491906,0.815332
0.180141,-0.051306,0.377114,0.880834,0.386839,-0.272924
-0.290394,-0.176918,0.673116,0.308669,0.049453,0.949883
0.726322,0.084963,0.626897,0.894567,-0.020954,-0.446443
-0.309236,0.061372,0.794783,0.130068,0.976404,-0.172389
0.017332,-0.802291,0.505466,-0.010311,0.644600,0.764450
0.102370,-0.094665,-0.072775,0.978591,0.204756,-0.020846
-0.383540,-0.413750,0.660742,0.872380,-0.249391,-0.420424
0.191491,0.055268,-0.783484,0.995891,0.077855,-0.046249
0.282176,0.763305,0.038825,-0.099398,-0.520591,0.848000
0.141787,-0.159975,0.126439,0.758521,0.596438,-0.262503
0.194566,0.050988,-0.794678,0.963032,-0.254799,0.087449
-0.758191,-0.251475,-0.246585,0.157229,-0.368366,0.916289
-0.283015,-0.467219,0.595439,0.689858,0.608886,0.391604
-0.265739,0.815271,0.053978,-0.256857,-0.342989,0.903539
0.079783,0.020427,-0.940333,0.528419,-0.028994,-0.848488
-0.573018,0.587867,0.078700,-0.620783,0.366695,-0.692938
0.106452,0.594197,-0.020134,0.938956,0.184489,0.290387
0.208655,0.562954,0.499253,0.968552,-0.248547,-0.011496
-0.207760,0.282171,0.156482,-0.578201,-0.512941,0.634488
0.560550,0.347346,0.219950,-0.524119,-0.114312,-0.843938
0.293358,0.102635,0.890077,-0.690542,0.113266,-0.714369
0.195404,0.160977,0.870048,0.659926,0.597471,-0.455551
0.336576,0.073077,0.438616,0.397966,-0.871818,0.285581
0.286146,0.613190,0.478464,-0.778815,0.526499,-0.340949
0.483954,-0.313278,0.428706,0.726872,0.301395,-0.617105
0.052947,0.448728,0.520933,0.419416,0.324374,-0.847863
0.030191,-0.278073,0.580181,-0.535054,-0.831667,-0.148484
-0.657442,0.000524,0.413187,0.679427,0.170227,0.713723
0.124623,-0.000205,0.092385,0.728420,0.592629,-0.343796
-0.475232,-0.256211,0.653480,0.917766,-0.362459,-0.162263
-0.126132,-0.752192,0.625954,-0.140390,-0.221015,0.965113
0.334955,0.666750,0.617381,0.129891,0.828255,0.545089
-0.832327,0.011682,0.281190,0.289092,-0.404917,0.867449
0.228056,0.195773,0.584297,0.490880,0.477910,0.728449
0.231131,0.574432,-0.026819,-0.356595,0.155020,-0.921308
-0.037235,-0.010088,0.156534,0.313294,0.173482,0.933676
-0.336967,-0.462483,0.716634,-0.641547,0.710232,-0.289808
-0.339092,-0.637647,0.608389,0.105352,-0.911051,0.398605
0.160237,-0.239405,0.576511,0.127429,-0.910010,0.394518
-0.469977,-0.633047,0.551815,-0.008154,0.889596,0.456675
-0.105166,0.051078,0.424512,-0.704847,0.328875,0.628516
-0.536229,-0.055451,0.404116,-0.059042,0.997956,-0.024449
0.304820,-0.176599,0.447791,0.829967,-0.508269,-0.229818
0.329923,0.183021,0.971504,0.755789,-0.567926,0.325949
0.259756,-0.029718,0.648368,-0.318384,0.943513,-0.091732
-0.235715,-0.242366,0.516293,0.072140,-0.903927,0.421558
-0.036397,0.187029,-0.981282,0.353398,0.224329,0.908178
0.056189,0.061417,-0.095242,-0.210426,-0.159766,0.964466
0.355921,0.798192,0.511967,-0.470919,-0.334923,0.816126
0.373700,-0.382734,0.694036,-0.334332,0.806203,-0.488118
-0.040479,0.386287,-0.020029,0.768932,0.252402,0.587398
0.646539,0.071300,0.597247,0.293716,0.362685,-0.884415
-0.139774,0.437798,0.763848,0.921979,0.382136,-0.062663
0.877558,0.177373,0.761411,-0.681860,-0.204908,0.702197
0.678799,-0.391980,0.467610,0.614459,0.511403,-0.600755
-0.514704,0.254389,0.274112,0.371258,0.155605,0.915399
0.779660,0.190172,0.671988,0.872678,0.082630,-0.481254
-0.179470,-0.154555,0.902032,-0.708104,-0.706108,0.000267
0.269429,0.659418,0.628444,0.539082,-0.106506,-0.835492
0.134519,-0.065743,-0.980495,0.611056,0.175881,0.771800
0.074863,0.452099,0.718286,-0.481333,0.422874,-0.767787
-0.179861,0.719036,-0.006161,0.833008,0.548713,0.070787
-0.163088,0.890511,0.043544,0.919980,0.184157,-0.346010
-0.066085,-0.422130,0.448027,-0.169875,-0.569954,-0.803925
0.324276,-0.110469,0.435365,0.460089,0.698270,-0.548395
0.082299,0.106187,-0.180574,-0.376649,-0.106922,0.920165
0.252041,0.035320,0.845196,0.366412,-0.826271,-0.427807
-0.682489,0.007811,0.460794,0.344355,-0.252406,0.904274
-0.139550,0.715437,0.046244,-0.476136,0.868904,0.135277
0.041541,-0.658826,0.615703,0.812140,-0.506236,-0.290094
-0.491614,-0.176371,-0.267374,0.237736,-0.185833,0.953388
-0.181986,-0.284358,0.635077,-0.092545,0.667531,0.738808
0.227776,-0.464305,-0.363245,0.252202,0.225407,0.941056
-0.351000,0.133605,-0.112309,0.037629,0.246729,0.968354
-0.173320,0.253023,0.452694,-0.309303,-0.665597,0.679200
0.205077,0.607451,0.468895,-0.334456,-0.854107,0.398296
0.687689,-0.295107,0.689160,0.766466,0.573023,0.290130
0.570335,-0.617836,0.728510,-0.259117,-0.069044,0.963375
0.372414,0.306083,-0.109398,-0.402015,0.460219,-0.791570
-0.303366,-0.068977,0.701376,-0.154230,-0.537838,0.828820
-0.267751,-0.359142,0.490995,0.033731,-0.555553,0.830796
-0.060718,-0.225742,0.476183,0.230328,0.966982,0.109061
-0.302750,0.561360,0.007577,0.071677,-0.960328,0.269505
-0.317846,-0.368707,0.704758,0.716221,-0.388789,0.579543
-0.041988,-0.298522,0.433949,0.949262,-0.222013,-0.222737
0.185173,0.033270,-0.729348,0.980171,-0.055099,-0.190338
-0.361679,-0.420172,0.277913,-0.145440,0.209365,0.966961
-0.429889,-0.340013,0.446743,0.124755,-0.015864,0.992061
0.126020,0.048846,-0.961096,0.658002,0.106053,0.745511
0.039528,0.949628,0.063967,0.299804,-0.474874,0.827413
0.245331,0.013276,0.732547,-0.599519,0.791250,0.120416
0.208822,0.166215,0.434474,-0.006504,-0.196825,0.980417
0.475288,-0.073395,0.523660,0.672664,0.042806,-0.738709
0.179582,0.097579,-0.952418,0.260932,0.899682,0.349981
-0.653919,-0.149181,0.403854,-0.166840,-0.510059,0.843804
0.174830,0.020063,0.820763,0.992979,-0.110247,-0.042868
-0.696746,0.075444,-0.185477,-0.223637,0.594383,-0.772461
0.168232,0.099310,0.051094,0.941104,-0.274077,0.198000
0.504920,-0.221005,0.737921,0.873335,-0.486499,-0.024599
-0.631891,-0.261039,0.371268,0.429514,0.272251,0.861044
0.109471,-0.221461,0.716372,-0.331453,0.941838,0.055509
0.334172,-0.299433,0.597431,-0.567688,0.716078,0.406156
0.814157,-0.069296,0.502294,0.634429,0.707283,-0.311851
