-0.180065,0.239224,0.760506,0.951553,-0.203996,0.230069
-0.397664,-0.066580,0.675094,-0.680020,0.504818,0.531725
0.221732,0.111841,0.350271,-0.829397,0.503766,-0.241495
0.255590,0.380452,0.476857,0.724258,-0.326235,0.607472
-0.303368,0.029323,0.587704,0.326616,-0.714118,0.619159
0.061788,0.117218,0.548786,0.843155,0.245949,0.478119
-0.181501,0.140179,0.634644,0.006489,-0.559298,0.828941
-0.415986,-0.443028,0.335673,-0.448142,0.028399,-0.893511
-0.148991,-0.085797,0.747134,0.796984,0.602766,0.038591
0.531925,0.004788,0.894669,-0.261738,0.928192,-0.264487
0.005118,-0.487505,0.575697,-0.022493,0.999369,-0.027506
0.625057,-0.422370,0.016144,0.325180,-0.080746,-0.942199
-0.131927,-0.055626,0.896006,0.828039,-0.489761,-0.272919
0.438257,-0.502855,0.440642,-0.562156,-0.822038,0.090742
0.762190,0.497410,0.572326,0.819292,0.083706,-0.567234
0.158150,-0.118335,-0.007814,0.883408,-0.468601,-0.001674
-0.370096,-0.315577,0.566030,0.636211,0.270449,0.722560
0.026671,-0.378286,0.524020,0.841407,0.074071,-0.535302
0.426582,-0.074908,0.700751,0.908432,-0.014024,-0.417796
0.284597,-0.116694,0.639157,0.659608,-0.719503,0.217330
-0.748363,-0.376649,0.352054,0.099915,-0.540168,0.835605
0.538931,-0.128500,0.792152,0.993549,0.068405,-0.090446
0.246340,0.908757,0.568342,0.964421,-0.218523,0.148794
0.181230,-0.069203,0.731255,0.494003,-0.863487,-0.101738
0.525011,0.158411,0.714485,0.265664,-0.623804,-0.735045
0.276606,0.717152,0.520148,0.862143,0.009814,0.506569
-0.053886,0.290194,0.532294,-0.216324,-0.658227,0.721070
-0.177908,-0.541750,0.463847,0.677095,-0.180566,0.713399
0.219218,0.020927,0.178221,0.957960,-0.225135,0.177840
0.192365,-0.509084,0.264023,0.040368,-0.998893,-0.024144
0.297440,-0.341028,-0.896285,-0.234861,0.952620,-0.193273
0.355006,-0.110003,0.371972,0.999377,0.032099,-0.014667
0.207543,-0.833321,-0.974036,-0.187317,0.017299,0.982147
-0.362373,-0.582026,0.538367,-0.018909,-0.769133,0.638809
0.696002,-0.435158,0.539899,-0.141768,-0.946338,0.290425
0.084417,0.307054,0.687658,-0.584820,0.576704,-0.570437
-0.001169,-0.590818,0.508336,-0.531721,0.258173,-0.806610
0.226043,-0.122403,0.722647,-0.120251,-0.515384,0.848480
0.453344,0.397772,0.319544,0.397579,-0.480993,0.781394
0.065649,-0.570156,0.519090,0.949957,0.301225,-0.082731
-0.112710,-0.827224,0.515050,-0.272069,-0.944917,-0.181964
0.683072,-0.228338,-0.969774,-0.117482,0.065689,0.990900
0.121957,-0.559594,0.376429,-0.623744,-0.492214,-0.607182
-0.287741,-0.368709,0.632694,0.421366,0.822647,0.381711
0.329591,0.306201,0.389300,0.906901,-0.352214,0.231247
0.203322,-0.552508,0.604558,-0.243981,-0.807218,0.537469
0.586797,-0.554213,0.437494,0.295039,0.549668,-0.781548
-0.259005,0.116433,0.746660,0.048000,-0.657986,0.751498
0.164975,-0.359333,0.112114,0.900410,0.278022,0.334612
0.643198,-0.200721,0.753597,-0.037714,0.998776,-0.032018
0.579433,0.275501,0.359297,0.926767,-0.114376,-0.357801
0.093308,-0.182157,0.719750,-0.135650,-0.759133,0.636644
0.742791,-0.314268,0.496441,-0.266524,0.963305,0.031743
-0.129683,-0.203672,0.761035,0.844175,-0.339291,0.415031
0.481815,0.259563,0.486914,-0.548788,-0.460794,0.697496
0.436730,0.844672,0.541236,0.784223,0.317345,-0.533185
0.237090,0.398953,0.526890,0.915310,0.070039,0.396613
0.036192,-0.071629,0.837644,0.145335,0.857772,-0.493058
-0.600810,-0.589373,0.383338,-0.591119,0.260019,0.763524
0.431701,0.169497,0.118883,0.960571,0.051254,-0.273268
-0.207096,-0.782684,0.354812,-0.377374,0.499101,-0.780056
0.464211,0.206427,0.266224,0.531206,0.449041,-0.718458
0.490075,-0.412593,-0.967629,-0.060888,0.115013,0.991496
-0.141717,-0.247031,0.855863,-0.572790,-0.131254,0.809125
0.627570,0.194031,0.600128,-0.166852,-0.699147,0.695236
0.191469,-0.359725,-0.749307,-0.730838,0.555010,0.397291
-0.324834,-0.274516,0.563913,0.764433,0.561060,0.317574
0.311539,-0.041061,0.653560,0.832298,-0.500875,0.237496
-0.040413,-0.365955,0.504938,-0.562889,0.778122,0.278714
0.388234,-0.291307,-0.781789,0.973589,0.141185,-0.179417
-0.366412,-0.262641,0.545555,-0.546083,-0.837484,0.020330
0.465198,0.052215,0.246138,0.993304,0.115520,0.001589
0.796049,0.276158,0.651220,0.598943,0.488049,-0.634883
0.712348,-0.513216,0.490257,-0.003141,-0.946132,0.323765
0.187336,-0.759070,0.446186,0.872694,0.092009,-0.479521
0.226402,-0.800264,-0.973758,0.199984,-0.038138,-0.979057
0.244364,-0.292096,-0.982227,-0.216612,-0.526901,0.821861
0.229455,-0.294850,0.792013,0.427421,0.843265,-0.325907
0.305164,0.312038,0.625089,-0.492051,0.657344,0.570775
0.428379,-0.651101,-0.967044,-0.240807,0.163033,0.956782
0.408173,0.379667,0.467580,0.062331,0.997479,0.033928
0.299326,0.107641,0.790007,0.828684,0.456950,0.323232
0.130938,-0.403281,0.257058,0.964592,0.247269,0.091764
-0.036192,0.283961,0.690750,-0.610765,-0.791099,0.033581
0.567670,0.873990,0.565417,0.217549,-0.921999,0.320298
-0.064123,0.355197,0.875754,0.857556,0.291547,0.423791
0.712348,0.293145,0.697491,0.558811,0.521343,0.644928
-0.323307,-0.589569,0.524048,0.789085,-0.565640,0.239574
0.162549,-0.683962,0.417882,0.987526,0.155342,0.025716
0.406015,0.223678,0.744320,0.844558,-0.505551,-0.176467
0.558779,0.394228,0.378825,-0.681484,-0.396796,0.614924
-0.354019,-0.334931,0.574610,0.423792,0.151654,0.892973
0.584193,0.102593,0.804633,0.904346,0.092438,-0.416669
0.399101,-0.153166,-0.071191,-0.451932,-0.830497,0.325626
0.042567,0.244213,0.828535,0.238322,0.969622,0.055102
0.065918,0.185239,0.802404,-0.403656,0.910665,0.088035
-0.315134,-0.246047,0.247225,0.297321,-0.625925,0.720984
0.391468,-0.051162,0.718106,0.743620,-0.274183,0.609797
-0.264752,-0.392391,0.401307,0.684566,0.624641,-0.375757
0.334889,-0.363989,0.687017,-0.444292,0.792128,0.418495
0.409789,-0.282323,-0.364534,0.956504,-0.249540,0.151097
0.012033,0.278780,0.784519,0.591175,0.692165,0.414029
0.616703,-0.367925,-0.968409,-0.195783,0.047965,0.979474
0.369194,-0.177108,-0.234326,0.585319,-0.766835,0.263374
0.197665,0.112826,0.472790,0.817722,0.399447,-0.414455
0.256936,-0.123780,0.831906,0.246028,0.835912,-0.490634
0.127254,-0.378090,-0.976321,0.721113,-0.412903,-0.556334
-0.180065,-0.557756,0.534913,0.102432,-0.981194,-0.163605
-0.246611,0.206691,0.769420,-0.347540,0.907180,-0.237151
0.624427,-0.344047,-0.969050,-0.128433,0.007302,0.991691
0.385630,-0.308559,-0.476356,-0.290350,0.948610,-0.125841
0.119893,-0.213577,0.027816,0.589829,0.807473,0.009453
-0.023171,0.160641,0.871937,0.478761,0.638334,-0.602758
0.383295,-0.054509,0.668380,0.547190,0.810441,-0.209211
-0.075170,-0.090129,0.844497,-0.659647,0.407014,-0.631828
0.122316,-0.525023,0.594529,-0.409628,0.888647,-0.206183
0.629546,-0.558609,0.445127,-0.072786,0.805553,0.588036
-0.121600,-0.244081,0.226443,-0.161397,0.950041,-0.267156
0.160214,-0.173369,0.716630,-0.495852,0.213074,-0.841861
0.009608,-0.550934,0.674815,0.026233,0.939977,0.340229
0.502828,0.145752,0.428747,0.176264,-0.877680,0.445655
0.787067,-0.173301,0.794102,-0.271646,-0.510367,0.815926
0.075617,-0.151133,0.793406,-0.548206,-0.691308,-0.470705
0.063942,0.140831,0.890212,0.139120,-0.775839,0.615402
0.158600,-0.400854,-0.737662,-0.482107,0.555907,0.677156
0.459092,0.308363,0.291491,-0.422332,-0.470212,0.774943
-0.857388,-0.445062,0.245915,0.640717,-0.722673,0.259280
-0.088460,-0.159921,0.471425,-0.397167,0.753129,-0.524457
0.363269,0.119120,-0.073698,-0.404001,0.531896,-0.744224
0.416704,0.131911,0.598039,0.753543,0.452126,-0.477238
0.385449,-0.315249,-0.498113,0.481750,0.869756,-0.106966
0.371351,-0.075236,0.156687,0.832153,-0.528289,-0.168622
0.120161,-0.584388,-0.982087,0.209735,0.347110,0.914071
0.604132,-0.180323,0.586394,0.929406,0.295809,0.220685
0.205389,-0.409314,0.518532,0.214974,0.205885,0.954671
0.421194,-0.683766,0.435182,0.776350,0.626619,0.068042
-0.200719,-0.251427,0.142674,-0.242846,0.885236,0.396715
0.183565,0.821058,0.442954,0.867964,0.464601,-0.175457
-0.275170,0.029847,0.601187,-0.084197,-0.950187,0.300094
-0.511453,-0.304231,0.310852,-0.476972,0.878912,-0.003352
0.340546,-0.329486,-0.572995,-0.397677,-0.913059,0.090424
-0.192727,0.039752,0.984817,0.888009,-0.104195,-0.447865
0.093489,0.221777,0.922583,0.569213,-0.817125,-0.091121
0.050740,0.225384,0.906175,-0.571846,0.810033,0.129763
-0.486126,-0.243424,0.661360,-0.590077,-0.636400,-0.496793
0.291603,-0.083371,0.006254,0.324944,0.945307,-0.028407
0.321238,-0.196590,-0.197498,-0.498877,0.756291,-0.423257
0.564077,0.818828,0.560152,-0.695938,-0.627893,0.348454
0.610688,-0.288817,-0.970164,-0.093296,0.141738,0.985498
0.365782,-0.223678,0.524633,0.932679,0.352518,0.076422
0.222721,-0.351658,-0.709582,-0.806754,0.585603,0.078847
-0.307857,-0.782419,0.571128,0.988728,-0.007055,0.149554
0.288909,0.092227,0.921413,-0.083541,0.970837,0.224713
0.353120,-0.282980,-0.319989,-0.672985,0.723197,-0.155167
0.318456,-0.474713,-0.976237,0.482353,0.140034,-0.864711
0.311810,-0.087175,0.611243,0.941851,-0.311115,-0.126982
-0.492322,-0.422302,0.351107,-0.229115,-0.946822,-0.225910
0.439246,-0.310068,0.583636,0.825935,0.021694,-0.563348
-0.206466,-0.179927,0.619768,0.194909,-0.965736,-0.171359
-0.115404,-0.043291,0.853189,-0.250945,-0.110093,-0.961720
0.228559,-0.302461,-0.993816,-0.166266,0.104805,0.980496
0.663764,0.194620,0.583748,-0.529128,0.845559,0.071092
0.202155,0.878714,0.556085,0.980492,0.078958,0.180004
0.473911,0.026500,0.303024,0.631756,0.749615,-0.197386
-0.137943,-0.037782,0.854331,-0.314906,0.093054,0.944550
0.493759,0.148707,0.454989,0.836475,-0.388555,0.386438
0.378984,-0.083371,0.729974,0.406598,-0.833931,0.373144
0.165693,-0.370939,-0.790481,-0.181069,0.965914,-0.184999
-0.051011,-0.360710,0.484964,0.075180,0.855015,0.513126
0.117196,-0.204789,0.174432,0.922155,0.386223,-0.021505
-0.124832,-0.100951,0.749641,0.379419,0.892261,0.244769
0.593353,0.221648,0.572800,-0.173045,-0.648236,0.741516
0.549798,0.793770,0.529704,-0.718581,-0.497031,0.486416
0.570092,-0.306329,-0.003803,-0.352137,0.612398,0.707791
-0.688460,-0.435814,0.647041,0.090718,-0.054698,0.994373
0.191916,0.013776,0.345312,0.825166,-0.542083,0.158892
-0.548271,-0.473140,0.684036,-0.157033,0.893157,0.421440
0.060620,0.203344,0.856727,-0.968196,0.184720,0.168744
-0.363000,-0.953426,0.555639,-0.736998,0.596391,-0.318043
0.215806,-0.393636,0.603388,-0.245385,-0.926293,0.285951
0.632958,0.774484,0.534161,-0.371429,-0.522856,0.767243
0.027929,-0.099706,0.513992,0.362355,0.915685,0.173837
0.346205,-0.603081,0.611745,0.780619,-0.537408,0.319103
0.250739,-0.162283,-0.997158,0.176601,-0.138567,-0.974480
-0.371532,-0.234436,0.269372,-0.524398,0.630705,-0.572030
0.197575,-0.257000,-0.093366,-0.564656,-0.791938,0.232375
0.318275,0.152706,0.662001,-0.698194,0.264069,0.665427
0.013110,0.083700,0.723817,0.953311,0.276032,0.122493
0.136954,-0.599082,0.411475,0.794635,0.596008,-0.115454
0.374944,-0.234764,-0.225718,-0.683078,0.715382,-0.147081
0.251819,0.207808,0.660385,0.327810,-0.318638,0.889387
0.476424,0.750146,0.456103,0.411292,0.685570,-0.600694
0.045261,0.192850,0.582550,0.917711,-0.118857,0.379051
-0.179075,-0.431222,0.691613,0.627500,0.754467,-0.192416
-0.701303,-0.419611,0.644478,0.057848,0.014995,0.998213
-0.139560,-0.073402,0.731729,0.802351,0.546434,0.240088
0.507048,-0.174482,0.739975,0.802565,-0.575796,-0.156038
0.430443,-0.732963,0.104175,-0.244339,0.713934,-0.656199
0.221372,0.314528,0.627317,-0.420372,0.403152,0.812869
-0.320791,-0.256676,0.532768,-0.178423,-0.926741,-0.330630
0.224516,0.043163,0.835248,0.762842,0.472758,-0.441103
-0.114686,-0.135062,0.603304,0.998125,-0.058009,-0.019555
0.295015,-0.539588,0.553605,0.689980,0.723486,-0.022263
-0.735699,-0.416400,0.649548,-0.449999,0.254001,-0.856145
0.342612,-0.299835,0.594334,0.642578,0.506692,0.574767
0.115223,0.356574,0.708022,-0.543400,-0.727889,0.418202
-0.011764,-0.643358,0.348934,-0.741184,0.300410,-0.600334
0.194609,0.090782,0.774658,0.726947,-0.680673,-0.090731
-0.525192,-0.491701,0.659855,0.995006,0.051895,-0.085266
0.083072,-0.204985,0.209951,-0.305397,-0.952211,0.005205
0.479389,-0.323188,0.231011,0.302811,0.913942,-0.270215
0.230534,-0.742471,-0.967824,0.316829,0.009862,-0.948431
0.749079,-0.666515,0.446631,-0.111007,0.268911,0.956747
0.679029,0.758806,0.618876,0.954565,-0.152929,-0.255772
0.163897,-0.706463,0.407463,0.961679,0.231786,0.146456
0.440683,0.839883,0.499728,0.641901,0.307547,-0.702409
0.424605,-0.675567,0.389105,0.949564,0.103727,-0.295921
0.399282,0.425581,0.641386,0.541321,0.513713,-0.665636
0.672564,0.561035,0.551878,-0.119093,-0.158630,0.980129
-0.179884,0.199869,0.689050,-0.142008,0.735416,0.662569
0.064210,0.528894,0.486162,-0.442340,0.747057,0.496228
-0.200360,-0.426762,0.685735,0.699979,0.704776,-0.115419
0.036192,-0.573567,0.444514,0.658772,0.748920,0.071682
0.333990,-0.411412,0.177162,-0.643822,0.471605,0.602563
0.528423,-0.091899,0.810093,0.830503,0.393218,-0.394517
0.461876,-0.578879,0.451144,-0.251886,0.826757,0.503017
-0.033407,-0.641260,0.281128,-0.407979,0.185702,-0.893906
0.544947,0.317283,0.718998,-0.111483,0.691793,0.713438
0.155725,-0.563726,0.479086,0.100123,0.979672,0.173831
0.729771,0.449130,0.519870,0.817118,0.570276,0.084282
0.265829,-0.358804,-0.769615,-0.267859,0.888279,-0.373112
-0.236104,-0.483830,0.437494,0.375148,0.926942,-0.006515
-0.205657,-0.110264,0.652585,0.450417,-0.763224,0.463265
-0.782129,-0.422238,0.351692,0.275246,0.165703,0.946986
0.082173,-0.208789,0.552770,0.850303,0.525507,-0.028765
0.378625,-0.507775,-0.963395,-0.017795,-0.013488,0.999751
0.119802,-0.505541,0.566866,0.197493,0.436821,0.877601
-0.051102,0.460020,0.630187,0.339356,0.208223,0.917322
-0.410866,-0.454967,0.732007,0.840042,-0.482654,-0.247739
-0.550428,-0.426958,0.345229,0.165913,0.394860,-0.903636
-0.668434,-0.385765,0.212068,-0.490687,0.765020,-0.417098
0.349977,0.046638,-0.090051,0.082487,-0.620040,0.780222
0.018320,-0.011546,0.877899,0.942466,-0.325127,-0.077782
-0.134890,-0.262842,0.695848,0.991804,0.082394,0.097648
0.346024,-0.067889,0.819592,0.983125,-0.000374,-0.182936
0.653075,0.205314,0.532016,0.621013,-0.779462,-0.082350
0.815447,-0.508100,0.421643,-0.144043,-0.043032,0.988635
0.429725,-0.183009,-0.094257,0.922054,0.315982,-0.223544
0.313336,-0.172516,-0.992283,0.259635,-0.111865,-0.959206
0.606286,-0.178221,0.708440,0.230780,0.966310,-0.113956
0.461876,0.108430,0.669633,-0.358337,-0.873835,0.328645
0.097170,0.242836,0.866561,0.364740,-0.931002,0.014138
-0.000538,-0.115252,0.787918,0.452595,0.865437,0.214887
0.305254,0.708168,0.475102,0.870744,0.446299,-0.206452
0.699774,0.272811,0.624922,-0.673745,-0.311256,0.670214
0.374045,-0.700097,0.360829,0.909857,0.291377,-0.295398
0.431520,-0.479109,0.229396,0.780139,-0.375537,-0.500354
0.191647,0.062184,0.885727,0.927271,-0.365006,0.083295
0.672205,-0.142012,0.737997,0.542652,0.828629,-0.137486
-0.261877,0.214626,0.757664,-0.397947,0.796817,-0.454666
0.181230,0.345096,0.425515,0.158537,-0.872345,0.462471
-0.134980,0.444802,0.825498,-0.788526,-0.602365,-0.124029
0.703189,0.051362,0.729054,0.933747,0.310902,-0.177362
-0.017424,0.157362,0.609210,-0.644107,0.322709,-0.693531
0.148900,-0.278716,0.710919,0.082918,0.930144,0.357710
0.175751,-0.453462,0.227724,-0.935255,0.278389,-0.218625
0.134800,-0.408461,-0.937571,0.816844,-0.392690,0.422564
-0.071309,-0.134666,0.637848,0.735079,0.633668,-0.241088
0.362011,-0.076814,0.440140,0.056134,-0.976744,0.206933
-0.353482,0.147393,0.702701,-0.410895,-0.613620,-0.674267
0.312259,0.014889,0.717215,0.940641,-0.317058,0.121118
-0.216883,-0.358873,0.319404,-0.578504,-0.049331,-0.814187
0.063224,0.245850,0.908821,-0.606284,0.790484,0.086918
0.049482,-0.735585,0.545889,0.143751,0.935557,-0.322597
-0.495198,-0.467038,0.347847,0.402039,0.292514,-0.867640
0.536056,-0.021579,0.832240,-0.472686,-0.830608,-0.294378
0.334621,0.574616,0.172148,0.975151,0.079059,0.206954
-0.327977,-0.000132,0.623473,0.914409,-0.372789,-0.157745
-0.161743,-0.152314,0.845305,0.673124,0.735621,0.075928
0.016613,-0.182289,0.697881,-0.112000,-0.556554,0.823228
0.224966,-0.288685,0.613221,-0.450982,-0.347627,0.822053
-0.090885,0.409182,0.874250,0.605693,0.794507,-0.043518
0.327075,-0.018629,0.766105,-0.570629,0.812086,-0.122061
0.304536,0.378879,0.420083,0.837408,0.537064,0.101534
-0.135789,-0.222369,0.457719,-0.524158,0.795934,-0.302899
0.650381,-0.575140,0.422228,0.349480,0.799920,-0.487844
-0.093670,0.338406,0.641943,0.603954,0.761467,-0.235389
-0.010956,0.228470,0.873553,-0.393295,0.806159,0.442071
0.312169,-0.109543,0.890491,0.448600,-0.720740,0.528481
0.187248,-0.083700,0.786414,0.065566,-0.955987,0.285989
0.522585,0.204921,0.342944,-0.971411,0.070685,0.226636
0.726536,-0.670122,0.445517,-0.378456,0.232210,0.896018
-0.476158,-0.300624,0.310908,0.210816,0.977305,-0.020759
-0.065559,-0.187670,0.505968,0.572510,0.818850,0.041430
0.392904,-0.393179,-0.824495,-0.180690,-0.983201,0.025840
-0.287831,-0.124893,0.820930,-0.334069,0.935677,0.113604
0.201256,0.622042,0.486245,-0.623062,0.653773,0.429389
-0.067266,-0.182617,0.452008,0.562039,-0.783907,0.263821
0.357250,-0.282780,-0.740253,0.842498,0.508204,-0.178677
-0.131300,-0.269664,0.767665,-0.594910,-0.685663,-0.419462
0.533633,-0.350869,0.011909,-0.438901,0.407703,0.800715
-0.551415,-0.231225,0.362278,0.596328,0.212708,-0.774046
-0.352043,-0.412989,0.734347,0.790289,-0.497740,-0.357349
0.097529,-0.374879,0.515385,0.218872,0.374617,0.900976
-0.292233,-0.886585,0.540094,-0.334712,0.732009,0.593406
0.567670,-0.214826,-0.979636,0.242681,-0.134634,-0.960718
0.501482,0.214302,0.686265,-0.287333,0.740149,0.607963
-0.157701,-0.826043,0.519842,-0.288741,0.715252,0.636430
0.070857,-0.084616,0.740950,0.516211,-0.657421,-0.548929
0.624336,-0.231946,-0.969774,-0.115215,0.064843,0.991222
0.273730,0.117086,0.722953,0.815126,-0.577538,0.044941
0.049482,0.105936,0.629240,0.933533,-0.205679,-0.293619
0.384372,0.751199,0.512599,-0.224809,0.971913,-0.069615
-0.266819,0.127387,0.650328,0.287218,-0.957853,-0.004757
0.512527,-0.317415,0.590545,0.198027,-0.980047,0.017099
0.230622,-0.015086,0.251905,-0.016867,-0.948643,0.315898
0.637089,0.162347,0.710418,-0.514099,0.268681,-0.814563
0.198025,0.101540,0.444319,0.965503,0.260204,0.009897
0.297890,0.098981,0.572410,-0.646452,-0.564151,0.513648
0.139648,-0.284029,-0.983425,-0.084607,0.145708,0.985703
0.630533,-0.158739,0.809480,0.290620,0.877619,0.381214
0.845263,-0.218958,0.529453,0.518561,-0.772648,0.366209
-0.003504,-0.488618,0.560737,-0.013491,-0.957045,0.289624
0.186440,-0.843162,0.573830,0.560318,0.354835,-0.748422
0.475706,-0.324762,0.737579,-0.691511,0.596820,-0.406963
0.415805,-0.698131,0.353308,0.909857,0.291377,-0.295398
0.245981,0.142409,0.540011,-0.092629,-0.994744,-0.043648
0.709295,-0.158607,0.745351,0.639283,0.749546,-0.171750
-0.319804,-0.509805,0.650189,0.758418,-0.475703,0.445543
0.428021,-0.030568,0.178917,0.875631,0.340844,-0.342194
-0.079750,-0.393440,0.504631,-0.069629,0.807140,0.586240
0.462145,-0.294915,0.494686,0.719815,0.658115,0.220797
0.301302,-0.304559,-0.983592,-0.091044,0.046940,0.994740
0.246789,-0.769956,0.077152,-0.766566,0.326921,0.552719
0.715042,0.382682,0.564414,0.983727,0.179577,0.005769
-0.316390,0.054117,0.617038,0.834556,0.540426,-0.107032
0.149797,-0.527189,0.550875,0.008011,0.847063,0.531433
0.421552,0.354869,0.482317,0.973737,-0.095687,-0.206592
-0.700316,-0.194688,0.338097,0.088333,0.343719,0.934909
-0.897712,-0.473596,0.281741,0.450058,-0.879666,0.153740
0.536237,0.830111,0.602914,-0.025221,0.957249,0.288165
0.213290,0.040276,0.871269,0.882332,-0.470501,-0.010891
0.226223,-0.779273,0.587592,0.109212,0.369337,0.922856
0.796586,-0.694196,0.444458,-0.510221,0.180560,0.840876
0.518274,-0.509805,0.407463,0.536941,0.298575,-0.789017
0.025326,-0.546606,0.403006,0.779516,0.376344,-0.500720
0.695375,-0.622303,0.450754,0.378697,0.714077,-0.588797
0.693939,-0.244669,-0.972560,-0.120469,0.091490,0.988492
0.550697,0.821318,0.528283,0.575218,0.581607,-0.575202
0.562641,0.529879,0.407658,0.626222,0.456540,-0.631994
0.666458,0.808791,0.585113,0.284123,0.951942,0.114368
0.109654,-0.245458,0.087822,-0.720720,0.482300,-0.497946
0.404938,-0.215939,0.827253,0.064916,0.994013,-0.087882
0.262595,-0.731782,0.061301,-0.423169,0.611682,0.668410
0.525551,-0.345292,0.574973,0.913027,0.358213,-0.195103
0.201705,-0.380124,-0.732063,-0.739959,0.570209,0.356822
0.304087,-0.481600,-0.200758,0.986181,-0.034942,-0.161942
-0.193354,-0.040012,0.542462,0.309358,-0.857030,0.412064
0.437717,-0.126074,0.709025,0.682767,0.531691,-0.501133
-0.218412,-0.083371,0.661221,0.467766,-0.839855,0.275387
0.209700,-0.444606,-0.231569,0.957483,-0.148313,-0.247445
0.054423,0.209710,0.579430,-0.215616,0.976475,-0.002425
0.512798,-0.035816,0.763988,0.969042,0.213564,0.123883
0.554199,0.215547,0.675707,-0.480698,0.349084,0.804407
0.281635,-0.422170,-0.929854,0.899473,0.331863,-0.284282
0.443196,-0.019614,0.215160,0.922857,0.371986,-0.099808
0.432600,0.035552,0.262714,0.973237,0.216224,-0.077826
-0.286486,-0.354344,0.587258,-0.446090,0.520326,0.728193
-0.102292,-0.158347,0.738387,0.885531,-0.030340,0.463588
-0.093760,-0.149687,0.674982,0.851111,0.485673,-0.199327
0.522857,-0.419415,-0.931330,-0.485697,-0.385169,-0.784693
0.331655,0.205970,0.661276,0.376614,-0.883347,0.279034
0.231521,0.091242,0.779449,-0.570683,0.812463,0.119268
-0.074271,-0.189964,0.724458,0.309992,-0.467450,0.827886
0.441669,-0.106853,0.035616,0.382859,0.921776,-0.061218
0.257297,0.508888,0.450949,-0.549420,-0.648778,0.526521
-0.157342,0.043820,0.586868,0.050695,0.628482,0.776170
0.244542,-0.233323,-0.034307,-0.221580,0.920695,-0.321283
0.338482,-0.128829,0.734097,0.888140,-0.287678,0.358396
-0.061519,-0.098785,0.772345,0.013551,-0.988279,0.152055
0.231431,-0.337225,-0.326647,0.890559,-0.446903,0.084745
0.418231,-0.080945,0.710195,0.056739,-0.425453,0.903200
0.068612,-0.232995,0.808031,0.762027,0.618069,0.193147
-0.493131,-0.156902,0.313889,-0.195325,0.361177,-0.911811
0.219487,-0.352311,0.047094,0.937644,0.240348,0.251112
0.119353,-0.222433,0.137075,0.838477,0.451132,0.305674
0.220564,-0.166086,0.721979,0.107126,-0.738591,0.665588
0.665559,-0.378879,0.410388,-0.656486,0.424707,0.623418
0.573595,-0.286391,-0.009040,-0.349429,0.659190,0.665859
-0.584196,-0.394685,0.339546,-0.382033,-0.283365,0.879633
0.202695,0.049917,0.385762,0.929156,-0.343881,0.135703
-0.226673,0.188062,0.821570,0.177479,-0.969835,-0.167095
0.321238,0.115973,0.642611,0.763309,0.630083,0.142671
-0.353211,-0.320958,0.482401,0.856495,-0.510488,0.076281
-0.138483,-0.267106,0.308958,-0.289779,-0.049853,-0.955794
-0.402425,0.221909,0.816500,-0.468238,-0.731154,0.496152
0.136416,-0.358608,-0.991643,-0.453260,0.166199,-0.875747
0.092771,-0.562937,0.469503,-0.027787,-0.816438,0.576764
0.565244,0.213841,0.590824,0.895385,-0.106620,-0.432340
-0.324113,-0.912825,0.553605,-0.617329,0.766781,0.175928
-0.288999,0.156706,0.686989,-0.277572,0.794991,-0.539391
-0.723127,-0.452149,0.648127,-0.008110,0.666223,0.745709
-0.284869,0.030504,0.616286,0.373459,-0.927565,-0.012287
-0.557433,-0.383078,0.355815,-0.130095,-0.224099,0.965844
-0.289717,-0.381961,0.615088,0.695099,0.634919,-0.337217
0.517466,0.201050,0.342889,0.733694,0.162392,-0.659789
0.119084,-0.420664,0.258591,0.827985,0.392584,0.400398
0.125191,-0.424992,-0.986043,-0.022031,0.077774,0.996728
-0.325642,-0.264415,0.529564,0.367653,0.810589,0.455824
0.106510,-0.520959,0.330408,0.911188,-0.410545,-0.034482
-0.344860,-0.305344,0.571853,-0.245015,-0.734184,-0.633200
-0.060261,-0.523974,0.139777,0.277496,0.034344,0.960113
0.290254,-0.073334,0.069909,-0.142235,-0.985075,0.096935
0.085944,0.271433,0.562826,0.959716,0.271385,0.072765
0.119263,-0.574351,0.491259,0.221323,0.953911,0.202657
0.140278,-0.758478,0.592161,0.921654,0.382484,-0.065260
-0.811317,-0.469072,0.210786,-0.803009,0.595514,0.023255
0.792365,0.316170,0.592997,0.966030,-0.237139,-0.102723
0.741624,-0.590294,0.434039,-0.412300,0.080178,-0.907513
0.353389,-0.417974,0.610993,-0.110780,0.352737,0.929142
-0.206556,-0.770156,0.499812,0.864408,0.290245,0.410555
-0.522766,-0.602689,0.496163,-0.713480,-0.050745,0.698836
0.304446,0.144443,0.549928,0.453451,0.862855,-0.223301
0.192006,-0.225844,-0.030379,-0.705380,-0.691645,0.155131
-0.473732,-0.229319,0.652167,0.403698,0.696404,0.593338
-0.292411,-0.271894,0.591464,-0.152308,-0.894462,0.420404
-0.016525,-0.639883,0.562102,0.892759,0.399444,-0.208388
0.689269,0.199608,0.584778,-0.678449,0.728056,0.098187
-0.121419,-0.367596,0.481621,0.075180,0.855015,0.513126
0.229904,-0.259955,0.648322,0.373436,0.780129,0.501940
-0.416795,-0.402820,0.357542,-0.457181,0.726251,-0.513366
-0.322139,-0.333289,0.558007,0.984348,0.069467,0.161967
0.274449,0.235617,0.728636,-0.074039,-0.917367,0.391097
0.366413,-0.612005,-0.971585,-0.072170,-0.022277,0.997144
0.333631,0.412069,0.482206,0.274859,0.947323,-0.164413
0.335607,-0.023681,-0.140613,0.998362,0.053733,-0.019631
0.397037,-0.282652,0.487248,0.459316,0.855282,-0.239836
-0.218950,-0.070844,0.677239,0.175680,-0.983487,-0.043465
0.450023,-0.323448,0.573468,-0.148359,0.709545,0.688865
0.518905,-0.475174,-0.962280,-0.102010,0.132878,0.985869
0.334440,0.658183,0.563774,0.851066,-0.407590,0.330994
0.208711,-0.868549,0.615756,0.812946,0.018116,-0.582057
0.402513,-0.394228,-0.888875,-0.708921,-0.596067,0.377008
0.193982,-0.398492,-0.832574,-0.268525,0.954816,0.127360
0.768927,0.255887,0.676710,-0.713406,0.514731,0.475504
-0.106691,-0.420596,0.516666,0.266891,0.666351,0.696237
-0.042301,-0.512760,0.719220,0.471225,0.208405,0.857038
-0.166950,-0.032930,0.929965,0.730338,-0.494650,0.471092
-0.222811,-0.852279,0.523101,-0.703840,0.709845,-0.026985
0.400268,0.098001,0.707297,0.106050,0.721946,-0.683774
-0.347732,-0.344768,0.614447,0.257326,-0.513796,0.818411
0.282531,-0.711708,-0.968938,0.086861,-0.056808,-0.994599
0.636820,-0.566284,0.428301,-0.145304,-0.770707,0.620401
0.205567,-0.228863,0.010433,0.490469,0.870919,0.030659
-0.131927,-0.123908,0.571602,0.994573,0.097085,-0.037411
0.050290,-0.244541,0.098826,0.750092,-0.494706,0.438893
-0.708308,-0.367596,0.201120,0.391107,-0.332563,0.858159
-0.091513,-0.247492,0.599683,0.842415,0.176501,0.509101
0.348990,-0.038439,0.074116,-0.026674,-0.648038,0.761141
0.346024,0.340504,0.409413,0.994510,-0.025146,0.101577
0.307677,-0.532045,-0.145878,0.997142,-0.020417,-0.072738
0.399909,-0.192062,-0.183458,0.946950,-0.267257,-0.178493
0.056487,0.220203,0.579708,0.879286,0.169541,0.445097
0.089268,0.302722,0.621356,-0.084360,0.679706,-0.728617
0.391918,-0.121482,-0.105317,-0.509960,0.860176,-0.006195
0.377997,-0.161626,-0.110610,0.862929,0.224986,-0.452476
0.150156,-0.328173,0.752483,0.557999,0.810987,-0.175891
0.368926,0.755067,0.397797,0.601561,0.792656,0.099101
0.309653,-0.088684,0.259844,0.847424,0.530587,-0.018727
-0.062596,-0.178485,0.842380,-0.449526,0.790129,0.416681
-0.678673,-0.379535,0.304389,-0.482825,0.863844,0.143711
0.154916,-0.336240,0.732676,0.185371,0.859885,0.475642
0.339650,-0.125353,0.371916,0.988728,0.097665,0.113486
-0.200000,0.110724,0.655482,-0.428782,0.219520,-0.876331
0.835474,-0.290126,0.498530,0.782346,-0.622617,-0.016828
0.528514,0.394096,0.651442,0.662118,0.699128,-0.269852
-0.134802,-0.277467,0.767052,0.425940,0.855337,0.294912
-0.004850,-0.200065,0.844776,0.544250,0.790264,0.281559
0.282443,-0.207608,0.829566,0.981174,-0.060736,0.183326
0.592635,-0.107773,0.701949,0.293093,0.955848,0.021247
0.152940,-0.500885,0.350550,-0.057372,-0.991329,0.118217
-0.014190,-0.148378,0.880350,0.368415,0.862081,0.347975
0.616613,-0.377962,0.581213,-0.263798,-0.914717,-0.306111
0.208711,0.307314,0.631245,-0.427072,0.381573,0.819763
0.377997,-0.111381,0.675985,-0.726283,-0.148776,-0.671103
0.190211,-0.247556,-0.083420,0.336152,0.921364,-0.195168
-0.077774,-0.140047,0.731979,-0.482743,-0.634467,-0.603664
-0.204761,0.167924,0.699971,0.408094,0.663389,-0.627196
0.670857,0.232602,0.541069,0.630986,-0.772279,0.073768
0.186618,-0.794554,0.591799,-0.033252,0.149670,0.988177
0.435382,0.646965,0.438636,0.981659,0.184540,-0.047854
-0.323216,0.254902,0.805023,0.733988,-0.194489,0.650719
0.441669,0.678517,0.391027,0.961849,0.262084,-0.078473
0.229995,-0.485667,-0.981196,-0.357278,0.034048,0.933377
0.142523,-0.383142,-0.762540,0.121670,-0.987980,0.095353
-0.327256,-0.504888,0.643698,0.836865,-0.502030,0.218226
0.308576,-0.089669,0.759141,0.951229,0.002759,0.308472
0.779884,-0.313087,0.457217,-0.512106,0.756853,-0.406105
0.345756,-0.058509,-0.152619,0.996997,0.048956,0.060007
0.139201,-0.563529,0.585141,0.283523,0.722840,0.630172
0.003052,0.541029,0.629880,0.705129,-0.172877,0.687682
-0.102292,-0.317483,0.622637,0.988706,0.149540,0.009950
0.467446,0.338670,0.690833,0.689446,-0.129854,-0.712602
-0.037990,0.350541,0.657181,0.802529,0.469781,-0.367768
0.400449,-0.069267,0.124121,0.180092,0.965614,-0.187500
0.524742,0.280486,0.839065,0.615699,-0.655314,0.437583
0.248944,-0.053593,0.705208,-0.559017,0.581479,-0.591086
-0.181142,0.219022,0.786832,0.136985,0.826180,0.546500
-0.202875,-0.663888,0.472846,0.574598,0.358481,0.735750
0.110553,-0.477992,-0.983564,-0.182701,0.428168,0.885038
0.570005,-0.262906,-0.972644,0.111953,-0.096798,-0.988988
0.400986,-0.303771,-0.536083,0.743502,0.668344,0.022833
0.303097,-0.494523,0.644645,0.867786,-0.092794,0.488197
0.401077,0.240145,0.728804,-0.592385,0.789974,0.158182
0.049841,0.220664,0.603750,0.896359,0.429928,0.108174
-0.400720,-0.273795,0.634477,-0.502615,0.173347,-0.846953
-0.023889,-0.450639,0.694149,0.725778,0.487476,0.485400
0.344857,0.330535,0.389467,-0.723400,0.397288,-0.564672
-0.375484,-0.349884,0.485660,0.893410,-0.430938,0.126925
0.301751,0.786487,0.441032,0.806263,0.586225,0.079255
0.294387,0.600655,0.549900,-0.758297,0.504530,-0.412838
0.539290,-0.401379,-0.971279,0.087431,-0.025106,-0.995854
0.957610,-0.458379,0.459836,0.635235,-0.636078,-0.438043
0.282621,-0.086322,0.017564,0.251714,0.964461,-0.080346
0.251819,-0.314332,-0.688020,-0.288675,0.957267,0.017518
-0.097263,0.221844,0.820400,-0.240438,0.178807,0.954053
-0.092680,0.167924,0.719499,-0.100205,-0.860684,0.499180
0.414997,0.081338,-0.076428,-0.377443,0.562478,-0.735633
0.311360,-0.259495,-0.487220,-0.534753,-0.844837,0.017035
0.045083,-0.704625,0.555667,0.911701,-0.375044,-0.167759
0.086215,-0.161626,0.726296,-0.071300,-0.871533,0.485126
0.294206,-0.208725,0.848397,-0.478678,0.068522,-0.875313
-0.417872,-0.487833,0.708830,-0.741484,0.647772,-0.174906
0.509296,0.001245,0.782263,0.850750,0.448400,-0.274157
0.195599,0.183666,0.474907,0.926512,-0.050739,0.372828
0.515221,-0.237062,-0.955232,0.279529,-0.085389,-0.956333
-0.208891,-0.421189,0.644255,-0.285067,-0.954414,-0.088489
-0.151326,-0.726337,0.358155,0.007912,-0.019329,0.999782
0.247239,-0.285862,-0.977797,-0.304067,-0.360518,0.881799
0.157969,-0.737947,0.585280,0.965642,0.257835,0.032516
-0.229638,-0.540441,0.498893,0.769950,-0.635831,0.053811
0.786618,0.289866,0.428997,0.660159,0.662584,0.353798
0.046429,0.040012,0.712423,0.078413,0.855254,0.512242
0.226851,-0.285798,-0.760032,0.559691,-0.126265,0.819026
-0.420656,-0.303050,0.328570,0.527698,0.847615,0.055529
0.441579,0.113743,0.236137,0.958211,-0.140463,-0.249202
0.346833,-0.163924,-0.145766,0.867047,-0.497023,-0.034607
0.390928,0.026568,0.601716,0.978541,-0.196383,0.062374
0.230176,-0.321483,-0.026284,0.963459,0.267838,0.003170
0.794971,-0.172648,0.700333,0.990575,-0.107768,0.084539
0.127345,-0.455492,0.561963,0.878235,-0.253696,-0.405390
0.320070,0.727910,0.509479,0.641122,0.237865,0.729645
0.311988,-0.622238,0.051245,0.219893,0.207968,0.953098
-0.269332,-0.254902,0.796192,-0.063208,-0.997771,-0.021418
0.668163,-0.323252,-0.967016,-0.120434,0.158564,0.979976
0.435023,0.551459,0.432814,0.769618,0.572213,-0.283305
-0.112888,-0.163135,0.672809,0.571873,0.816124,0.083077
0.382577,-0.300099,-0.464655,-0.476868,0.819498,-0.317837
-0.218232,0.053000,0.464990,0.926701,-0.359394,-0.109823
0.334081,0.054970,0.833911,-0.093148,0.991273,-0.093283
-0.557970,-0.148506,0.316981,0.298725,-0.117331,0.947099
0.156352,-0.418430,-0.965512,0.310425,0.630585,0.711336
0.300493,-0.265989,0.460783,0.885000,-0.338556,0.319615
0.105611,-0.586554,-0.982143,0.209735,0.347110,0.914071
0.267084,-0.589177,-0.966877,-0.116378,-0.003234,0.993200
0.058373,0.200917,0.594027,0.974961,0.118447,-0.188204
0.143959,0.289274,0.795718,-0.220418,-0.810334,0.542932
0.724561,0.261921,0.630577,-0.583406,-0.365396,0.725344
0.673192,-0.652410,0.449417,-0.489109,-0.685987,0.538697
0.381588,0.259034,0.785021,0.331370,0.941202,0.065823
0.426223,0.369038,0.468723,0.011513,-0.999921,0.005064
-0.052447,-0.064022,0.871129,-0.100607,0.986453,-0.129572
0.157251,-0.726861,0.409413,0.955302,0.280018,0.094807
0.588682,-0.370022,-0.966877,0.003087,0.196841,0.980431
0.158328,-0.093212,0.246083,0.307135,-0.035497,-0.951004
0.460259,0.389440,0.492290,0.477069,-0.877897,-0.041258
-0.274270,-0.562613,0.489783,0.810934,-0.390803,0.435498
0.539558,0.707512,0.455518,-0.650784,-0.532172,0.541547
-0.063764,-0.194424,0.291268,0.035168,-0.978224,0.204552
0.496272,0.222173,0.807641,-0.288426,0.863151,-0.414465
0.378266,0.279437,0.721393,0.426515,0.421159,-0.800443
0.458374,0.561628,0.371526,0.995844,0.088513,0.021455
-0.064123,0.276286,0.764295,-0.392159,0.918091,0.057621
-0.345487,0.262121,0.607232,-0.506400,0.348457,-0.788757
-0.583656,-0.226501,0.680359,-0.507868,-0.135612,-0.850694
0.656487,-0.350933,-0.966431,-0.100312,0.121170,0.987550
-0.185631,-0.015414,0.951527,0.829242,-0.497954,0.253769
-0.006466,0.046178,0.921246,0.382166,0.662048,-0.644703
0.388234,-0.183338,-0.191063,0.985469,-0.167991,-0.025095
-0.008982,0.211807,0.823186,-0.150796,0.081758,0.985178
0.031522,-0.399673,0.531180,0.363797,0.668955,0.648191
0.359498,-0.573371,-0.970025,-0.026665,-0.186379,0.982116
-0.128244,-0.139062,0.536807,-0.603435,-0.658738,-0.449367
0.363628,0.368185,0.454153,0.191938,0.981047,-0.026581
0.316480,0.676027,0.577925,0.830255,-0.234543,0.505634
0.144499,0.543131,0.454376,0.216132,-0.545136,0.810008
-0.077864,-0.056411,0.901467,-0.023710,0.934255,0.355815
0.478041,-0.349624,0.566810,0.517200,0.833544,0.194185
0.028828,-0.545557,0.384926,0.819760,0.355478,0.449032
0.354288,-0.092095,0.647682,0.573733,0.700364,-0.424641
-0.460440,-0.333353,0.623167,-0.591893,0.256522,-0.764107
-0.531928,-0.129157,0.326369,0.030723,-0.341287,0.939457
-0.318456,-0.126074,0.625005,0.530891,-0.263219,0.805525
-0.112797,-0.221644,0.743485,0.822208,-0.358358,0.442214
-0.020568,-0.144114,0.444793,-0.305165,0.914465,-0.265760
0.413561,-0.313219,0.136907,0.434853,-0.832886,-0.342350
0.267534,-0.855033,0.607928,-0.731694,-0.325103,-0.599110
0.090524,0.232338,0.846726,0.397100,0.914796,-0.073890
-0.008262,-0.167267,0.921441,0.829765,-0.526534,0.185074
-0.125730,-0.164709,0.603332,0.961607,0.265753,-0.068457
0.416433,-0.731585,0.403034,0.481798,0.711638,-0.511313
-0.486485,-0.304363,0.635731,-0.547544,0.575982,-0.606993
0.670229,-0.138930,0.733344,-0.515419,-0.804230,0.295901
0.085675,-0.121418,0.782959,0.216445,-0.933897,0.284584
0.105433,-0.598361,0.499784,-0.544352,0.724730,-0.422430
0.244633,-0.306265,0.814717,0.206327,-0.974554,0.087599
-0.139201,0.311578,0.689691,-0.502516,0.352440,-0.789471
-0.549888,-0.316694,0.699553,-0.121980,0.970902,0.206083
0.671934,0.926862,0.556754,-0.051112,-0.312666,0.948487
0.010775,-0.761497,0.515412,0.725568,0.086182,-0.682733
-0.107499,-0.474713,0.598986,0.728560,0.496298,0.472111
0.353748,-0.208985,-0.297787,0.970913,-0.220658,0.092946
0.538303,0.597640,0.447356,0.477183,0.543421,-0.690645
-0.155278,-0.438568,0.695458,0.687579,0.693983,-0.213594
-0.368657,-0.338798,0.384592,-0.741077,-0.577046,0.343254
0.193354,-0.287832,0.721923,-0.594220,-0.777465,-0.206035
0.171352,0.146476,0.700249,-0.019785,0.854197,0.519573
0.147820,-0.670582,-0.977714,0.298900,-0.037209,-0.953559
0.234755,-0.041718,0.925619,-0.071970,0.162900,0.984014
0.545846,-0.158739,0.765910,0.750052,-0.354621,-0.558271
-0.774315,-0.441063,0.285557,0.208327,-0.957755,0.198254
-0.077593,0.232206,0.824690,-0.128352,-0.328541,0.935728
0.151236,-0.477732,0.545666,0.968687,0.203377,0.142416
0.398473,-0.474189,-0.969050,0.039351,0.128422,0.990939
0.757791,-0.597769,0.440391,0.791536,-0.611123,0.000223
0.171799,-0.578615,0.668463,0.345229,-0.710581,0.613100
-0.218412,0.125221,0.803491,0.507692,-0.243880,0.826299
-0.346118,-0.357299,0.379271,0.930256,0.174088,0.322982
0.295196,0.745818,0.562074,0.968448,-0.124743,-0.215751
0.814368,0.249129,0.637736,-0.608497,-0.379950,0.696684
-0.295105,-0.401311,0.641330,0.115791,0.850751,0.512654
0.108127,-0.495048,0.349129,0.393797,0.917354,-0.058193
0.439425,-0.518269,0.415932,0.996744,-0.055207,-0.058767
0.292143,-0.271694,-0.185631,-0.731356,0.680277,0.048378
-0.084689,-0.426698,0.571295,-0.619739,-0.001230,-0.784807
0.697710,0.234112,0.623167,0.827720,0.195499,-0.525985
0.464661,0.564907,0.353558,0.899071,0.428648,0.089069
0.142164,-0.699376,0.412923,0.953205,0.248234,0.172568
-0.052179,-0.116958,0.904280,-0.168150,-0.232017,-0.958068
-0.194431,-0.084749,0.680610,0.237904,0.949007,0.206851
0.244904,0.538211,0.532461,-0.191828,-0.531549,0.825020
0.570183,-0.141424,0.599905,-0.784337,0.022768,-0.619917
0.554736,0.317415,0.349547,0.807257,0.150593,-0.570664
0.409431,-0.625974,-0.969718,-0.137850,0.027232,0.990079
0.439693,-0.700886,0.417297,0.662972,0.748580,0.009824
0.231162,-0.582619,0.646762,0.724079,-0.567622,0.391809
0.569287,0.784850,0.616732,-0.068205,0.719564,0.691068
-0.410957,-0.240474,0.561517,0.428577,0.749728,0.504212
-0.092053,-0.474321,0.720753,0.527468,0.228021,-0.818403
0.327256,-0.069727,0.089688,0.006721,-0.991640,0.128859
0.503368,0.059758,0.775354,0.985133,0.114612,-0.127973
0.086303,-0.471106,0.296282,-0.709867,-0.691382,-0.134459
0.245441,-0.272678,-0.989720,0.407966,-0.149863,-0.900614
0.549707,0.264547,0.468138,0.177488,0.146281,0.973191
0.450741,-0.354216,-0.975485,-0.000171,0.239376,0.970927
0.318185,0.144443,0.647347,0.712537,0.484946,-0.507069
0.483251,0.119516,0.488279,0.674698,-0.696865,0.243234
0.183296,-0.301344,0.711392,0.572600,0.791594,0.213326
0.033227,0.295375,0.764963,0.417178,0.895499,0.155061
0.343062,0.104494,0.877648,0.244222,0.528786,0.812860
0.376112,0.234240,0.709025,0.205473,-0.932310,0.297621
-0.743244,-0.491965,0.242433,0.994889,0.092628,0.040195
0.415805,-0.544769,-0.966264,-0.074801,-0.110059,0.991106
0.521149,0.126338,0.401585,-0.180443,-0.841137,0.509832
0.492769,0.180715,0.466773,0.974971,-0.190875,0.114007
-0.108489,0.346409,0.801596,0.955764,-0.228809,0.184828
-0.093399,-0.255623,0.127018,0.058228,0.542638,0.837946
-0.113606,-0.284882,0.744850,0.850914,-0.032702,0.524287
-0.111183,-0.456345,0.719583,-0.768141,0.156874,0.620766
-0.120611,-0.256412,0.556614,0.990114,0.105183,-0.092797
0.139470,-0.396458,0.576282,-0.667420,0.230070,-0.708250
0.064841,-0.389308,0.603332,-0.514982,0.144215,0.844983
-0.000629,0.097604,0.758500,0.931635,0.353728,-0.083262
0.226761,-0.108758,0.763877,-0.124287,0.908068,0.399956
0.224157,0.031485,0.281657,-0.840999,-0.524200,0.133925
0.167937,-0.391278,-0.714234,0.911980,-0.365666,-0.185960
-0.011317,0.083964,0.698801,0.434567,0.897929,-0.069824
0.270497,0.422698,0.424234,0.921770,0.267503,0.280681
0.578805,-0.159396,0.790871,-0.042493,0.973290,0.225613
0.428108,-0.195145,-0.987854,0.172526,-0.065066,-0.982854
0.123305,-0.263170,0.174014,0.999356,-0.027677,-0.022836
0.406287,-0.540308,0.518421,-0.059496,0.997299,-0.043068
-0.010778,-0.482256,0.565752,-0.040299,-0.887836,0.458391
0.361652,-0.366219,0.177468,0.760780,-0.567205,-0.315425
-0.003233,-0.123976,0.529871,0.253450,0.902107,0.349236
-0.427121,-0.158936,0.307565,0.181464,-0.702111,0.688558
-0.035923,0.155789,0.814801,0.233227,-0.919362,0.316825
0.245622,-0.565103,0.639213,-0.655599,0.676368,-0.335732
0.481275,-0.030436,0.211984,0.872176,0.489045,0.011995
0.819219,-0.425124,0.601605,0.513425,0.706991,-0.486372
0.566952,0.804459,0.525580,-0.718581,-0.497031,0.486416
0.309116,-0.607345,-0.972393,0.120407,0.110385,-0.986568
0.547822,0.270252,0.291519,-0.520188,-0.440986,0.731393
0.069870,-0.573567,0.625479,0.109503,0.050720,0.992692
0.519083,0.103117,0.673199,0.361328,0.626499,-0.690609
0.374585,-0.259823,-0.555221,0.187065,0.981085,0.049792
0.103997,-0.572121,0.470896,-0.175189,0.830772,-0.528325
0.292143,0.255427,0.374089,0.918398,-0.316808,0.237019
0.066817,-0.555134,0.480478,-0.149757,-0.875730,0.458988
0.380601,-0.615677,0.455017,-0.093990,0.994392,0.048479
0.470408,0.533879,0.372947,0.989277,0.090492,-0.114636
-0.234396,0.117218,0.671890,0.369136,0.836959,-0.404028
0.806197,-0.409839,0.057123,-0.649009,0.235370,0.723456
0.484150,-0.233783,-0.980639,-0.077214,0.238084,0.968171
0.352133,-0.013708,-0.133175,0.975999,-0.188361,0.109300
-0.029009,0.171727,0.723455,0.835110,-0.549013,-0.034296
0.133723,0.277138,0.669522,0.565954,0.208704,-0.797583
-0.106242,-0.248016,0.727661,0.991583,-0.081986,0.100209
0.447057,0.286127,0.796025,0.373180,-0.833185,0.408092
-0.545489,-0.198556,0.631329,-0.044099,0.850502,0.524120
0.438167,-0.516499,0.432062,0.778867,0.614315,-0.126429
0.397306,-0.254642,-0.328625,0.795349,-0.503503,0.337498
-0.207546,-0.002362,0.597482,0.360992,0.932504,-0.011004
0.337405,0.174089,0.669578,-0.601760,0.643835,0.472611
0.574403,-0.178025,0.604223,0.866934,0.273794,0.416488
-0.163360,-0.791407,0.356483,0.008910,-0.033701,0.999392
0.602693,-0.461661,0.440308,0.463027,-0.815269,0.347767
0.452626,-0.056936,0.683479,-0.663500,-0.746222,0.054034
-0.113877,-0.047883,0.886591,0.520525,0.805426,-0.283448
0.510463,-0.280093,-0.976906,0.185771,0.007271,-0.982566
-0.927256,-0.476551,0.292104,-0.486851,0.867194,-0.104644
0.741087,0.856282,0.632193,0.997622,-0.068693,-0.005660
0.038078,0.316826,0.569763,-0.404500,-0.183322,0.895976
-0.570095,-0.074187,0.336231,0.041243,-0.392483,0.918834
0.180780,0.103970,0.742203,-0.273079,0.944005,0.185154
0.244455,0.856018,0.517307,0.815606,0.214548,0.537360
0.073192,0.210562,0.570237,0.665870,-0.722076,0.187679
0.283879,-0.371596,-0.016450,0.916487,0.396019,0.056755
0.306062,0.292621,0.391751,0.898719,-0.373159,0.230338
0.451190,-0.097276,0.160420,-0.514794,0.853280,-0.083064
0.321150,-0.379467,0.553271,-0.392778,0.916511,0.075715
0.270319,0.380780,0.460198,-0.490373,-0.859410,0.144737
-0.180333,-0.838766,0.519507,-0.211616,0.586557,0.781773
0.519982,-0.452737,0.467915,-0.332779,0.940648,-0.066637
-0.236104,-0.412661,0.651665,0.026378,-0.978470,0.204695
0.349886,0.823484,0.513880,0.154020,0.987661,-0.028354
0.785001,0.320498,0.670163,0.577180,0.451208,0.680643
-0.515942,-0.341292,0.634533,-0.756137,-0.378148,-0.534098
0.194251,-0.349556,-0.952112,-0.606282,0.794278,-0.039298
0.148720,0.095178,0.456465,-0.239458,-0.883788,0.401968
0.363537,-0.194884,-0.124594,0.926872,0.355523,0.120466
-0.008624,-0.192850,0.873999,0.890253,0.292160,-0.349417
0.249752,-0.319056,-0.296505,0.882464,-0.465554,-0.067211
0.498517,-0.116629,0.742649,0.765822,0.550401,0.332529
0.454062,-0.132632,0.716351,0.744984,0.339208,-0.574401
-0.288012,-0.317875,0.517808,0.728106,-0.676205,-0.112289
0.126986,-0.633977,0.415430,0.990564,0.135583,-0.019993
0.319352,-0.279569,-0.633418,0.827103,0.560662,0.039470
-0.468703,-0.288161,0.265444,-0.572411,0.743897,0.344910
-0.191649,0.217841,0.679133,-0.647839,0.190114,-0.737673
-0.407813,-0.373698,0.352750,0.767453,0.398352,0.502327
0.229545,-0.181896,-0.991698,-0.085885,0.193017,0.977429
0.254782,0.878779,0.522488,0.746754,-0.086277,0.659480
-0.293760,0.280946,0.585670,0.234963,0.096736,0.967179
0.155993,-0.109018,0.254830,0.325022,-0.218122,-0.920208
0.201078,-0.585305,0.578956,-0.581955,-0.463019,-0.668537
0.721420,-0.167267,0.749558,0.551633,0.807098,-0.210460
-0.300134,-0.370875,0.358545,0.926585,0.374601,0.033397
0.190479,0.355922,0.513045,0.981555,-0.054901,-0.183129
0.750696,-0.273271,0.570822,0.502478,-0.709230,0.494479
-0.036192,-0.144311,0.703704,-0.060780,-0.711866,0.699680
0.483161,0.597968,0.449891,-0.541462,-0.621402,0.566285
-0.018501,0.183994,0.699915,-0.761859,0.629583,0.152300
0.546564,-0.332373,0.603471,0.152987,-0.716579,0.680522
-0.354110,-0.396522,0.343975,0.993204,-0.044397,0.107589
0.500224,-0.031156,0.871352,-0.301831,0.922622,-0.240141
0.372160,-0.007283,0.728664,0.955519,0.294929,0.000862
0.352402,-0.506330,0.222375,-0.033477,-0.933499,-0.357014
0.291871,-0.786487,-0.975429,-0.021348,-0.017050,0.999627
-0.107050,-0.221973,0.665343,0.797514,-0.406410,-0.445873
-0.754648,-0.486127,0.359492,0.334348,0.389787,0.858066
-0.216615,-0.160773,0.604279,0.113144,-0.984654,0.132875
0.669421,-0.117086,0.766384,0.406856,0.559327,0.722234
0.326538,-0.009512,0.582745,0.898911,-0.437922,-0.013579
0.506240,-0.000589,0.322552,-0.622058,-0.768312,0.150801
-0.131300,-0.802425,0.510872,0.291872,0.749495,0.594196
0.420117,0.251687,0.880963,-0.205484,0.875456,0.437439
-0.139023,-0.463367,0.542546,0.945700,0.302560,0.118779
0.715401,0.553889,0.448275,-0.608422,-0.737672,0.292681
0.465198,0.552968,0.385149,0.876190,0.342588,-0.339006
0.346296,-0.244409,-0.343334,0.997272,-0.073311,0.008609
0.175573,-0.406624,0.074199,0.604507,-0.796397,0.017952
0.255680,-0.351133,-0.981976,-0.484308,0.331325,0.809734
0.329860,0.276746,0.391974,0.893318,-0.397468,0.209765
-0.198205,-0.444146,0.357152,-0.584473,0.471438,0.660407
-0.308397,-0.207676,0.430028,-0.735855,0.356382,-0.575769
0.467446,0.064218,0.716880,-0.670204,-0.508871,0.540256
0.104444,-0.269596,0.718886,0.353261,0.902989,0.244576
0.049753,0.011022,0.745880,0.326445,-0.920312,-0.215544
-0.829907,-0.409250,0.359046,0.275246,0.165703,0.946986
-0.193985,0.181108,0.790927,-0.112654,0.542890,0.832213
0.316927,-0.659624,-0.971279,-0.048682,0.237739,0.970108
0.562282,-0.340636,-0.973424,-0.052258,0.055915,0.997067
0.302469,-0.504164,-0.959105,-0.212036,-0.391025,0.895623
-0.223888,-0.084028,0.545973,-0.007858,-0.673819,0.738854
-0.224069,-0.489735,0.461675,0.066320,0.866984,0.493904
0.284866,-0.511054,-0.964816,-0.379295,-0.298217,0.875901
0.375753,0.055754,0.688744,0.640568,-0.609412,-0.467215
0.475528,-0.006886,0.324642,-0.622058,-0.768312,0.150801
-0.215088,0.112233,0.617595,0.426634,-0.349632,0.834111
-0.047149,-0.491901,0.668491,0.280751,0.944170,0.172399
0.478490,0.321350,0.684788,-0.715624,0.205363,0.667614
-0.192099,-0.260808,0.235246,-0.188831,0.830019,-0.524797
0.928334,-0.245654,0.533019,-0.450358,0.810124,-0.375336
0.220654,0.838834,0.545053,0.810920,0.429097,0.397850
-0.008624,0.288881,0.788865,-0.666078,-0.645001,-0.374585
0.335878,0.720631,0.554107,0.998728,-0.044505,-0.023686
0.275707,0.145227,0.633864,-0.748494,0.626468,0.217472
0.139648,-0.844015,0.583191,0.039949,-0.523296,0.851214
0.595241,-0.302590,-0.971446,-0.117055,0.195114,0.973770
0.118186,-0.564775,-0.982951,0.171247,0.245842,0.954063
0.266188,0.592127,0.549845,-0.696149,-0.053238,0.715920
0.356173,-0.220203,-0.206970,-0.663027,0.677292,-0.318859
0.054782,-0.203412,0.227668,-0.235604,-0.970013,0.059709
-0.109656,-0.476615,0.583915,0.766732,0.458379,0.449457
-0.361115,-0.343194,0.456409,0.991758,0.026206,0.125419
0.055500,-0.231225,0.226582,0.390420,0.919576,0.044191
0.390660,0.622367,0.467246,0.208733,0.461057,0.862472
0.252627,-0.001573,0.820902,0.877870,0.469840,-0.092704
0.072115,-0.601115,0.485995,0.920335,0.035359,-0.389528
0.076066,-0.404790,-0.987965,-0.253388,-0.124040,0.959379
0.018052,-0.547719,0.401697,0.736897,0.644438,-0.204164
0.072473,-0.344111,0.645286,0.803117,0.260606,0.535806
-0.821554,-0.505673,0.207834,-0.598349,0.789938,0.134077
0.408891,-0.130470,-0.080467,-0.191677,0.928676,-0.317524
-0.053078,-0.043555,0.859680,-0.055244,-0.937309,0.344094
0.535697,0.621318,0.449918,0.997334,-0.029507,0.066745
0.225506,-0.325222,-0.049350,0.959677,0.280628,-0.016376
0.281454,-0.570416,0.040241,-0.094027,-0.239258,-0.966393
-0.285587,-0.122531,0.733066,-0.695011,0.424164,0.580556
0.310102,-0.265856,0.648629,0.069111,0.746238,0.662082
0.257297,-0.295703,0.801401,0.546490,0.770654,-0.327783
0.392904,-0.119516,-0.000237,-0.454702,-0.875670,0.162628
0.349168,0.043291,-0.099077,-0.340735,0.587879,-0.733688
0.300672,0.500228,0.492792,-0.738776,0.673652,-0.020064
-0.412124,-0.062841,0.609071,-0.667861,0.723295,-0.175514
0.119802,-0.207151,0.150140,0.358786,0.933066,0.025703
0.397574,-0.511839,0.388548,0.990797,-0.129955,-0.037841
-0.119353,-0.160185,0.498085,0.174303,0.978399,-0.111150
0.247417,0.097280,0.484769,0.237059,0.971298,-0.019580
0.736595,0.225384,0.675372,-0.575707,-0.261471,-0.774722
