0.193206,-0.041479,-0.970503,-0.249289,0.079290,0.965178
0.391282,-0.104835,-0.954035,0.176670,-0.274321,-0.945270
0.263993,0.455754,0.826712,0.836598,0.358406,0.414306
-0.131107,0.046704,-0.196172,0.060981,-0.376636,0.924352
0.598447,0.309645,0.587474,-0.341208,-0.443588,0.828738
0.237587,-0.136023,-0.381408,0.111773,0.086056,0.990001
0.125380,-0.158934,0.185049,-0.139604,0.008675,0.990169
-0.208744,0.216083,-0.200063,0.748961,0.638788,-0.176090
0.161530,-0.044686,0.258291,0.451566,-0.601627,0.658888
-0.106940,0.305352,0.001896,0.794250,-0.093639,-0.600332
-0.465559,0.535041,-0.109725,0.281941,0.516581,0.808489
0.384038,0.082494,0.182593,-0.140581,0.085265,0.986391
-0.340510,-0.199896,-0.306967,-0.145259,0.329745,0.932828
-0.064072,0.174503,0.673057,-0.426303,-0.002954,0.904575
-0.288159,-0.165762,-0.025812,0.075619,0.278966,0.957319
0.129068,-0.142643,0.519656,-0.491806,0.229819,-0.839828
-0.289081,-0.363278,0.193126,-0.080493,0.206765,0.975074
-0.635190,-0.471579,0.193912,0.679744,0.329936,0.655050
0.370210,0.026895,0.021646,0.167943,-0.971057,-0.169835
0.079021,-0.078356,0.742662,-0.463602,-0.877196,-0.124897
-0.194520,0.133592,0.314376,0.541880,-0.155083,-0.826024
-0.119582,0.325628,0.521347,0.815350,-0.562609,-0.136657
0.239563,-0.037082,-0.965963,-0.270151,0.079213,0.959554
0.191690,0.549262,0.925029,-0.658562,0.284531,-0.696662
-0.458316,-0.128990,-0.003331,0.460213,-0.206648,0.863424
0.008034,0.033774,-0.148556,0.731113,0.585884,0.349591
0.053471,0.519835,-0.273599,-0.593807,-0.761867,0.258751
0.102398,-0.084976,0.667574,0.677376,-0.648948,0.346451
-0.552745,0.395189,-0.283995,0.990213,0.049423,-0.130521
0.216187,-0.142952,-0.296533,0.313610,0.945967,0.082434
0.101870,0.030566,-0.977656,-0.209359,0.122693,0.970111
0.488476,0.401499,0.602468,0.340953,-0.325555,-0.881910
-0.068220,-0.068217,0.686204,0.805598,0.369459,-0.463155
0.413538,0.278302,-0.053128,0.371498,-0.365287,-0.853554
-0.224812,0.220998,0.671701,0.042236,0.066486,0.996893
-0.240155,0.021620,0.008264,-0.318823,0.231914,0.919004
-0.422493,0.050012,0.554951,0.381559,0.028586,-0.923902
0.279600,0.316732,-0.208592,-0.713123,0.332555,-0.617141
0.456869,0.634910,0.816808,0.907583,-0.405842,0.107633
-0.342946,0.464495,-0.073860,0.725157,0.125651,-0.677023
0.115700,0.158729,-0.278315,-0.385990,0.451655,0.804375
-0.024694,0.176261,-0.349631,0.835906,-0.529779,-0.143507
-0.067166,-0.298423,0.192811,-0.481282,0.352809,0.802430
0.236337,-0.172227,-0.673862,-0.707049,0.705347,0.050658
-0.400764,0.084458,0.235691,0.343900,0.279946,-0.896305
-0.149216,-0.067958,0.242196,-0.160059,0.986028,0.046161
0.157053,0.225342,0.083667,-0.161618,0.441582,0.882545
0.018571,0.383917,0.015849,0.865688,0.429157,-0.257698
-0.111154,0.309904,0.512228,0.924283,0.192611,0.329547
0.280389,0.395189,0.789394,-0.715681,-0.541076,-0.441631
-0.241406,0.025601,-0.121417,0.174626,0.883740,-0.434176
-0.159619,0.090509,0.084276,-0.043149,0.908279,-0.416133
0.329777,-0.319318,0.227634,0.412438,0.346438,-0.842541
0.241078,0.379724,-0.284427,0.893747,-0.419814,0.158029
-0.021730,0.287561,0.030116,0.673771,0.731425,-0.105121
0.270382,0.784845,0.834239,0.564750,0.646913,-0.512408
-0.152640,-0.223997,-0.042575,0.572590,0.366998,0.733111
-0.522520,0.448926,-0.092667,-0.010617,-0.094517,0.995467
0.215462,0.368865,0.685535,-0.111886,0.992811,-0.042519
0.243053,0.144041,-0.147377,0.622787,-0.183573,-0.760551
-0.470366,0.282649,-0.251943,0.064166,-0.962492,-0.263612
0.072172,0.173676,0.358356,0.887468,0.235381,-0.396227
-0.674041,0.037600,0.024103,0.930560,-0.356354,0.084086
0.052681,-0.120508,-0.155395,0.149866,-0.959177,0.239833
-0.317332,-0.039254,0.514075,0.191728,-0.334017,0.922861
0.178519,0.352056,0.706189,0.974474,0.217267,0.056523
0.261821,0.091595,-0.973706,-0.304902,0.032758,0.951820
-0.422493,-0.226637,0.027149,-0.221214,0.957834,0.183351
0.278350,0.408586,0.796351,0.541387,-0.771186,0.334922
0.050047,0.145900,0.093296,0.436931,0.267910,0.858671
0.205125,0.518591,-0.232586,0.809258,-0.388503,-0.440644
-0.536216,0.361002,0.083352,-0.163067,0.239660,0.957064
-0.052746,-0.149212,-0.980014,-0.177855,0.153931,0.971943
0.251481,-0.083577,-0.268097,0.926193,0.303680,-0.223486
0.085210,0.324643,0.058041,0.926271,0.278433,-0.253963
0.334849,0.075303,0.751859,0.423269,0.402142,-0.811865
-0.489858,-0.214534,-0.025616,0.131869,-0.807522,0.574908
0.031346,-0.031239,0.306810,0.049298,0.230033,0.971933
0.230937,-0.025342,-0.608600,0.983981,0.178259,0.002168
-0.275516,0.044273,0.547915,0.222433,-0.255485,0.940878
0.003491,-0.050943,-0.376023,0.308474,-0.089565,-0.947007
-0.032529,0.153246,-0.992120,-0.179977,0.185618,0.965999
-0.095021,-0.479957,0.346742,-0.514740,0.020075,0.857111
0.439418,0.287665,0.066275,-0.300676,0.256189,-0.918674
0.050443,0.407137,0.941615,0.125827,-0.961081,-0.245950
0.191954,0.204448,0.252375,-0.623721,0.180738,-0.760464
-0.236203,0.448875,0.050455,-0.174515,0.450436,0.875586
0.235811,-0.117405,0.477248,0.962186,-0.184309,0.200571
-0.016527,0.136487,0.347764,-0.264779,-0.132035,0.955227
0.183130,0.264908,0.408861,-0.106760,-0.673339,0.731585
0.353484,0.515905,0.794739,-0.736695,0.533157,-0.415963
0.029304,0.000723,0.310407,0.537916,-0.415071,-0.733733
0.141710,0.156813,0.523233,-0.112158,-0.135647,0.984388
-0.511984,-0.213239,0.152663,0.156926,0.825768,0.541739
-0.207624,0.283785,0.307596,-0.895768,0.012758,0.444339
0.258001,-0.148539,-0.549527,-0.308747,0.888450,-0.339606
0.074411,0.304888,0.640553,0.522044,0.763076,-0.381032
-0.434874,-0.021617,-0.228892,-0.122869,-0.646716,0.752769
0.204729,0.273854,-0.264206,0.983973,0.169943,-0.054013
0.233176,-0.127437,-0.557446,0.917667,-0.372699,0.137776
0.435664,0.418309,0.123461,0.033476,-0.517884,0.854796
-0.098840,0.131111,0.326049,0.357728,0.892324,0.275296
-0.599763,-0.337368,0.210557,0.122596,-0.921933,0.367436
-0.054128,0.404189,0.356470,0.129797,0.902582,-0.410485
-0.567891,-0.497079,0.087892,0.185238,0.932826,0.309068
0.275781,-0.007810,-0.964136,-0.268928,0.130531,0.954274
0.227051,-0.060511,-0.147534,0.804158,-0.561718,-0.194431
0.602924,-0.256426,-0.936270,-0.129119,0.017523,0.991474
0.192546,0.366539,-0.195268,-0.394961,0.432178,0.810696
0.216844,-0.133024,0.693396,-0.509228,-0.629242,-0.587147
-0.154812,-0.415048,-0.372289,0.605310,-0.066584,0.793200
0.351113,0.378484,0.103751,-0.613913,0.332132,0.716100
0.305939,0.445514,0.900406,0.502937,0.730600,0.461820
0.402938,0.399223,0.746043,0.487689,0.326219,-0.809778
0.300869,0.061392,0.621255,-0.011445,0.164548,0.986303
-0.579020,0.526455,0.009187,-0.024702,0.538282,0.842403
-0.192874,-0.079442,0.147495,-0.530287,0.768295,-0.358495
0.598380,-0.038995,0.627661,-0.326746,-0.230638,-0.916539
0.195245,0.538245,0.884232,-0.250794,0.918230,-0.306524
0.040893,-0.411531,0.441325,-0.047020,-0.463582,0.884805
0.141644,0.494439,0.901153,-0.334096,0.416028,-0.845754
0.210128,-0.079701,-0.165122,0.702359,0.580545,-0.411896
0.023444,0.232015,0.673882,-0.529774,0.402330,-0.746639
-0.044645,0.059012,-0.079363,-0.028761,-0.151514,0.988037
0.475174,0.295784,-0.055997,-0.139061,0.405214,0.903584
-0.496508,0.142696,-0.254969,0.867800,-0.437089,0.236382
-0.691360,-0.382723,0.192635,-0.120493,0.940963,-0.316339
-0.112406,-0.143883,0.102709,-0.527423,0.003740,-0.849595
0.250955,0.473390,-0.207118,0.187936,-0.271324,-0.943962
-0.163373,-0.548486,0.374824,-0.448168,-0.805192,-0.388345
-0.533450,0.150660,0.435921,-0.283225,-0.071513,0.956384
-0.391940,-0.374191,0.215312,-0.248399,-0.304773,0.919462
-0.001579,-0.339745,0.447417,-0.451957,0.098068,-0.886633
0.278679,0.094338,0.537107,0.784499,0.615858,-0.072671
0.435467,0.795448,0.854441,0.168864,-0.877407,0.449045
0.428618,0.638581,0.828501,0.857946,-0.463980,0.220571
0.301068,0.525988,0.722952,0.885148,-0.276356,-0.374353
0.145990,-0.020222,0.190728,0.980533,-0.034486,-0.193301
-0.062689,0.315646,0.495662,0.805942,0.587692,-0.071244
-0.574937,0.331007,-0.295845,0.993030,-0.071334,-0.093824
-0.448899,-0.499093,0.065764,0.237168,0.963633,0.123141
0.420717,0.589760,0.808476,-0.661726,0.723085,-0.198158
0.291058,-0.072459,0.678795,-0.383137,-0.920614,-0.075345
0.114581,-0.059220,0.224902,0.851587,0.324038,0.412068
0.383644,0.229117,0.437454,-0.237681,-0.192845,0.952008
0.266431,-0.182468,-0.419355,-0.068048,0.994122,0.084203
0.374094,0.160487,0.627878,-0.078808,0.012074,0.996817
0.169762,-0.241839,-0.960343,0.309002,-0.065392,-0.948811
0.344463,0.493975,0.748853,0.939184,0.082843,-0.333272
-0.275319,0.012879,0.579102,0.512882,0.725868,0.458331
-0.346633,-0.237808,0.426174,-0.445766,0.895148,-0.001459
0.926775,-0.173001,-0.917247,0.041050,-0.163504,-0.985688
-0.551495,-0.544969,0.120218,0.401944,0.904015,-0.145598
-0.130515,0.122679,-0.184401,0.685512,0.221431,-0.693572
-0.201568,0.241220,0.483419,-0.182711,0.847919,0.497644
-0.461015,-0.506697,0.172649,-0.150461,0.115508,-0.981845
0.627224,0.033152,-0.046918,0.867073,0.473727,0.154165
0.275978,-0.095630,-0.394987,0.955976,0.290360,-0.042435
0.117213,0.506956,0.900209,-0.669617,0.081937,0.738173
-0.784866,-0.344814,0.023395,0.154472,-0.911989,-0.380018
-0.530093,0.259684,-0.277883,0.922117,0.116962,-0.368809
-0.453443,-0.172174,0.321863,0.642067,-0.351062,0.681547
0.157976,-0.032429,-0.036522,-0.641664,-0.708052,-0.294839
0.271501,-0.220945,-0.697484,0.512404,-0.838126,0.187048
-0.270116,-0.638064,0.071129,0.229800,-0.043822,0.972251
-0.050571,-0.480114,0.408664,0.016494,-0.975087,0.221211
-0.028775,-0.263201,0.287591,-0.877994,0.460785,-0.129630
0.011985,-0.286216,-0.966140,0.334992,-0.222147,-0.915659
0.341961,0.419085,-0.252041,0.852895,-0.521562,-0.023331
-0.004411,-0.170106,0.310151,0.962441,-0.060869,0.264581
0.379824,-0.149212,-0.784403,0.395959,0.917064,0.047018
0.257540,0.117509,0.585253,0.961467,-0.272021,-0.039830
0.461543,0.549729,0.841549,0.978569,0.142662,0.148491
-0.543591,0.553710,-0.115994,0.071654,0.318446,0.945229
0.151193,-0.076958,0.502599,0.920646,0.059317,0.385866
-0.084352,-0.449753,0.412614,0.025114,-0.971286,0.236587
-0.542934,0.336645,0.025144,0.875671,0.361459,0.320230
-0.664228,-0.076339,-0.150285,0.114204,0.244608,0.962873
0.749837,-0.232117,-0.929765,0.189940,-0.134059,-0.972600
-0.443697,-0.158262,0.268372,0.288583,0.279306,-0.915810
0.042474,-0.167003,-0.975219,0.210234,-0.203623,-0.956211
0.424997,-0.325937,0.005375,0.332674,0.121721,-0.935154
-0.365664,0.014483,-0.169800,0.178425,0.925651,0.333668
0.130844,0.178638,0.707624,0.632195,0.577965,-0.516028
-0.776900,0.348176,-0.021862,0.915117,0.131823,-0.381030
-0.214276,0.218568,-0.185580,0.442782,0.891135,0.099104
0.168775,0.016500,0.750641,0.636178,-0.680434,0.363712
0.041156,0.097855,-0.980918,0.166183,-0.153096,-0.974138
-0.159752,0.462064,-0.297515,-0.326762,0.358675,0.874402
-0.479718,0.066098,0.434703,0.127256,-0.709445,0.693177
0.178849,-0.105870,-0.094888,0.794822,0.034977,-0.605834
0.292441,0.611222,0.894510,-0.090931,0.399019,0.912423
0.130384,0.523456,-0.240467,0.755035,0.608710,0.243709
0.180298,-0.078511,0.099899,0.770212,-0.605511,0.200323
0.568749,-0.060202,-0.942480,-0.304905,0.246028,0.920056
0.020809,0.296561,0.179095,0.818927,0.025046,0.573351
-0.068155,-0.089837,0.331512,0.390468,-0.700406,-0.597466
-0.460951,0.397569,-0.177739,0.961589,0.065560,-0.266551
-0.336823,-0.000000,0.583092,-0.019821,-0.651791,0.758139
0.319506,-0.170624,-0.938923,0.315182,-0.736640,-0.598349
-0.807058,-0.085440,-0.271162,-0.723105,0.587165,-0.363808
-0.564334,0.174191,0.045621,-0.554680,0.779133,0.292031
-0.603844,-0.438635,0.042202,0.748235,-0.587633,-0.307948
-0.268207,-0.071219,0.519342,0.149311,-0.108279,0.982844
0.109774,-0.065631,0.741896,-0.463602,-0.877196,-0.124897
0.235152,0.591309,0.898283,0.271970,-0.091978,0.957900
0.018307,-0.026169,0.281617,0.782388,0.573831,0.242049
-0.587908,-0.200723,-0.160210,0.326316,0.030505,0.944768
-0.665085,-0.029067,0.094200,0.925817,-0.277961,-0.256127
0.295668,0.270287,0.792577,-0.787763,-0.444254,-0.426694
0.034308,-0.240753,0.460623,-0.129433,-0.230927,0.964324
-0.397010,0.196433,0.083372,-0.144306,-0.071880,0.986919
0.401027,0.572123,0.849823,0.767036,0.463457,-0.443694
-0.054721,-0.287870,0.318621,-0.445142,-0.413280,-0.794386
-0.053338,0.019136,-0.007654,-0.155019,-0.859839,0.486462
-0.329381,0.124488,0.543985,0.267647,0.568062,0.778248
-0.506189,0.061133,0.094554,0.178539,-0.936307,0.302412
0.147506,0.049084,0.336897,-0.684036,0.617969,-0.387567
0.307125,0.834497,0.843318,0.234047,0.518917,-0.822160
0.131437,-0.019445,0.518242,0.065664,0.766447,0.638942
-0.131897,0.283009,0.459326,-0.588800,0.299296,0.750824
-0.866652,-0.419550,0.166577,-0.197963,-0.532204,-0.823146
-0.605490,-0.489269,0.075433,0.172983,0.951443,0.254624
0.583959,-0.403413,-0.929805,-0.097269,-0.027126,0.994888
-0.406820,0.302404,-0.237873,-0.158638,0.983758,0.083990
-0.334321,0.425396,-0.088815,-0.512017,-0.462088,0.724095
-0.186224,0.163537,0.528519,0.085506,0.148738,0.985173
0.290729,0.261442,0.087774,0.797343,-0.339406,0.499047
-0.487224,0.243859,-0.161762,0.832917,-0.430472,0.347768
0.339063,-0.174967,0.700333,0.342567,0.545988,0.764555
-0.592715,-0.148953,0.004962,0.099968,-0.505222,0.857180
0.529305,0.104525,0.710906,0.903727,0.400677,-0.150783
-0.333991,-0.566536,0.082920,-0.087885,0.349946,0.932638
0.296261,0.663046,0.874996,0.166876,0.795481,0.582548
-0.884497,-0.243961,-0.006908,0.196930,0.968216,0.154199
0.300672,0.666717,0.867764,0.436864,0.585465,0.682920
0.075992,-0.250116,-0.968086,0.122285,-0.097434,-0.987701
-0.747727,-0.449857,0.039785,-0.576453,-0.811238,0.097950
0.156657,0.101113,0.084433,0.214466,0.080513,0.973407
-0.244963,0.282649,0.078223,-0.240899,-0.254283,0.936647
0.145793,0.227050,-0.224077,0.894701,0.400684,-0.197388
0.396156,0.213912,0.766991,0.450081,-0.468901,0.759973
0.398195,-0.035428,0.650752,-0.509155,-0.126418,-0.851340
-0.078032,-0.129350,-0.380818,0.084976,0.462355,0.882614
0.037205,0.669666,0.928213,-0.240599,-0.758770,0.605294
0.257080,-0.418618,-0.940023,0.250249,0.053969,-0.966676
-0.412090,0.130644,-0.106816,0.665855,0.518551,-0.536416
0.033058,-0.045460,0.750405,0.959344,-0.128788,0.251143
0.061505,0.266203,0.018895,0.512880,0.586699,-0.626688
-0.170089,0.070751,0.074666,-0.052337,0.952880,-0.298797
0.072305,0.020585,0.314160,0.283759,0.331220,-0.899874
0.336825,0.055962,0.377517,-0.141900,-0.939236,-0.312570
0.389438,0.061546,0.724170,-0.381728,0.406000,-0.830330
0.069604,0.178588,0.359221,0.791125,0.175462,-0.585947
0.350849,0.551383,0.778998,0.956161,-0.291971,-0.022577
-0.287303,0.390950,0.064231,-0.390916,0.259068,0.883215
0.206111,0.472563,0.835850,0.155490,0.143039,0.977427
0.276374,-0.101163,-0.588437,-0.665161,0.732405,-0.145410
-0.447583,-0.003308,0.548603,0.952930,0.177112,0.246079
-0.140195,0.138921,0.128728,-0.708588,-0.600010,0.371337
0.099697,-0.149313,-0.966573,0.276903,-0.097018,-0.955987
0.179376,-0.058185,-0.276075,0.838474,-0.543526,-0.039260
0.626169,0.863564,0.884586,0.251362,0.409055,-0.877207
0.139735,0.161728,-0.276350,-0.408614,0.351357,0.842367
0.336825,0.551589,0.843554,-0.364322,0.687615,-0.628056
-0.191952,0.059166,0.067592,0.009244,-0.819989,0.572304
0.251481,0.810704,0.859078,0.809705,-0.063350,-0.583407
0.227513,0.001862,-0.968400,0.306408,-0.187465,-0.933258
0.195774,-0.102767,-0.073153,-0.703351,0.681092,0.203498
-0.732120,-0.056685,0.078066,-0.306816,0.950711,-0.044850
-0.512840,-0.140108,0.373625,0.555792,-0.809790,0.187976
-0.725997,0.068270,-0.033201,0.761619,0.554517,-0.335332
0.213882,-0.078044,-0.432639,0.390360,-0.888980,-0.239445
0.355657,-0.071579,-0.956649,-0.256564,0.179467,0.949719
-0.627551,0.312335,0.056253,0.225155,-0.700870,0.676821
0.280126,0.170415,0.591129,-0.727265,0.619990,0.294446
0.256684,0.129817,0.571360,0.931590,0.054834,-0.359351
0.273476,-0.228549,-0.773712,0.142624,0.931850,0.333637
-0.096271,0.296561,0.508455,0.915541,0.003528,0.402208
-0.115698,0.244841,-0.078105,-0.482740,-0.295691,0.824336
0.399250,0.519681,-0.220776,0.507477,-0.542792,-0.669211
-0.687146,0.054927,-0.046898,-0.298690,0.918921,0.257621
0.111880,0.257099,0.208945,-0.450395,-0.247015,0.857979
-0.524166,0.207500,0.082055,-0.461911,-0.011581,-0.886851
-0.442183,-0.026065,0.286471,0.392156,0.093872,-0.915096
0.293429,0.453686,0.820699,0.907382,-0.308781,0.285152
-0.188330,-0.102457,0.553595,-0.417730,0.222165,0.880991
0.256684,0.504680,0.768465,0.612980,-0.742841,0.269152
0.483339,0.720249,0.831095,-0.755868,-0.499319,0.423490
-0.243514,0.205275,-0.134643,0.376957,0.835998,0.398761
0.524496,-0.040185,0.624419,0.081629,0.227929,0.970250
0.760371,-0.211740,-0.935110,-0.129666,0.090290,0.987438
0.310748,0.251357,0.826516,0.807003,-0.580462,0.108675
0.277624,-0.130177,-0.436118,0.912711,0.147879,0.380908
-0.491241,-0.125678,0.194089,0.458382,-0.270259,-0.846668
-0.405175,0.183553,0.415896,0.870632,0.351155,0.344515
-0.736007,-0.182209,-0.003881,0.941052,-0.052608,-0.334145
0.417688,-0.081977,0.647234,-0.664063,0.594891,-0.452908
0.072699,0.514816,0.858568,-0.049802,-0.974748,0.217684
-0.710785,-0.075976,-0.146905,-0.232275,0.190270,0.953858
0.311669,-0.123661,-0.470881,0.996975,0.073309,-0.025826
0.170288,0.395757,-0.203345,0.394762,-0.279581,-0.875213
-0.183590,0.416292,0.065725,-0.229893,0.694420,0.681858
0.178059,-0.051151,-0.253967,0.653481,-0.756541,-0.024663
0.056829,0.451410,0.662857,0.894624,-0.128775,-0.427861
0.130910,0.081768,0.474576,0.537588,-0.647704,0.539888
0.258857,0.362504,0.674216,-0.464026,-0.466683,0.752919
-0.298498,0.048462,0.065744,-0.146355,-0.450161,0.880872
-0.392070,0.181587,0.235613,0.286546,0.328685,-0.899921
-0.177531,0.057462,0.400666,-0.600957,0.241672,-0.761869
-0.428289,0.059116,0.559569,0.080855,0.413738,0.906798
0.145331,0.484976,0.909681,0.928871,-0.001460,-0.370399
0.328001,-0.277475,-0.901035,0.016393,-0.905116,0.424848
-0.821941,-0.489992,0.021941,-0.296651,-0.954977,-0.004083
0.138022,0.345436,0.134151,-0.341318,-0.937907,-0.061910
0.270512,0.140007,0.625382,0.564353,0.060173,-0.823338
0.229093,0.224051,0.356647,-0.204938,0.077379,-0.975711
0.882128,-0.216396,-0.921551,-0.154183,0.073643,0.985294
0.098182,0.549830,0.881757,0.079304,0.933471,-0.349774
0.143555,-0.052392,-0.105362,0.957235,-0.154957,-0.244315
-0.559396,0.218000,0.083490,-0.204856,0.596551,0.775990
0.262414,-0.582982,-0.935700,-0.228363,0.110699,0.967262
0.767483,-0.132866,-0.930689,-0.184886,0.237441,0.953645
0.720533,-0.308405,-0.925462,-0.211332,0.153895,0.965223
-0.678782,-0.459062,0.041514,-0.226746,0.233529,-0.945542
0.514619,0.383812,0.026480,0.854233,-0.229417,0.466534
0.197156,0.166744,0.530013,0.738433,0.590075,-0.326386
0.508363,0.009776,-0.951520,0.160253,-0.194989,-0.967625
-0.582971,0.231239,0.041455,-0.479788,0.113721,0.869983
-0.356183,0.089528,0.612687,-0.209774,-0.854995,0.474319
0.593310,-0.304680,-0.934226,-0.088894,0.134836,0.986872
0.595945,0.968606,0.909780,-0.171440,-0.352639,0.919920
-0.394046,-0.391673,0.179488,0.565033,0.076804,-0.821486
0.243580,0.297233,0.685948,0.543372,0.332814,0.770702
0.263006,-0.300440,0.232370,0.431910,0.351481,-0.830611
0.226591,0.332970,0.683059,0.491590,0.850700,-0.186142
-0.235216,0.247894,0.325224,0.855811,0.373849,-0.357525
-0.673908,0.141298,-0.067238,0.384511,-0.923003,-0.014733
0.087911,0.035895,0.134544,1.000000,0.000401,-0.000619
0.046556,0.066925,-0.985929,-0.161225,0.113072,0.980419
0.191624,-0.143419,-0.539996,0.989523,-0.073560,0.124227
0.244370,-0.109282,-0.961483,-0.352889,0.342788,0.870612
0.361912,-0.169330,-0.939748,-0.071032,0.726188,0.683817
-0.472144,-0.295320,0.153724,0.940046,-0.036591,0.339080
0.364547,-0.540212,-0.931023,-0.150619,0.105062,0.982993
-0.150269,0.055031,0.512444,0.834020,-0.296954,0.465004
-0.288028,-0.464908,0.290637,-0.162053,0.896420,-0.412516
-0.110694,0.270909,0.467757,-0.462376,0.335373,0.820813
0.290333,0.388260,0.837481,0.595823,0.055915,-0.801167
0.755037,-0.362088,-0.921728,-0.143360,0.102609,0.984337
-0.415645,0.173262,0.416918,0.860203,0.404283,0.310815
-0.604240,-0.024102,0.044776,0.883404,-0.055693,0.465290
0.053338,-0.093767,0.038114,-0.396681,0.914897,0.074889
0.075201,0.002484,-0.023552,0.783528,0.550855,0.287478
-0.015870,0.073441,-0.987620,0.185158,-0.118875,-0.975492
-0.594757,0.275512,0.002211,0.688906,0.379929,-0.617302
-0.223693,-0.031653,0.290873,-0.504386,0.468843,-0.725108
0.272291,0.639513,-0.320095,0.073060,-0.936154,0.343917
0.214475,-0.112594,-0.196761,0.843249,0.406075,0.352185
-0.427300,-0.086216,0.283032,0.125282,-0.405213,0.905598
0.302517,-0.062582,0.674157,0.449959,0.882087,-0.139498
0.410643,0.141661,0.274582,0.452770,0.034678,0.890953
-0.048333,0.357021,-0.202755,-0.162320,0.275521,0.947492
0.352298,-0.258080,-0.017087,0.607916,-0.274723,-0.744960
0.247597,-0.112644,0.467462,-0.409937,-0.905596,-0.108850
0.652707,-0.073804,-0.940750,-0.248694,0.282811,0.926374
-0.144672,0.207705,0.544437,-0.545195,0.170720,0.820742
0.435797,0.224824,-0.048510,-0.207618,-0.087610,-0.974279
0.432636,0.728677,0.906301,0.868172,-0.384709,-0.313489
-0.481824,0.223170,0.046348,0.249350,-0.770317,0.586887
-0.728433,-0.442098,0.045110,0.337162,-0.243519,0.909407
0.423351,0.178796,0.415346,0.566013,-0.349410,0.746687
-0.303831,-0.072718,0.089248,0.812480,-0.161090,-0.560291
-0.098379,0.239566,0.627779,0.249428,0.193131,0.948939
0.041092,0.490819,0.989938,0.732414,-0.583319,0.351154
0.411893,-0.185312,-0.858882,0.225124,0.973544,0.039134
-0.709072,-0.015515,0.059534,0.881984,-0.340701,0.325618
0.249309,0.360229,0.688188,0.637552,0.133767,0.758706
0.556565,-0.517042,-0.923654,-0.140508,0.151671,0.978393
0.011722,0.333024,0.336130,0.877686,0.478536,-0.025872
0.090479,0.148435,0.084944,0.143834,0.125255,0.981643
-0.723099,0.266253,-0.008774,0.912350,-0.408492,0.027420
0.367575,0.079959,0.438928,0.450501,0.891281,0.051632
-0.110364,-0.604653,0.382469,0.455595,0.562235,0.690163
-0.427234,-0.092372,0.187604,-0.573757,0.053545,0.817273
-0.196035,0.179829,-0.129946,0.138108,0.757482,0.638081
-0.692610,-0.018360,-0.170173,-0.017498,0.652092,0.757938
0.142962,-0.393740,-0.948238,-0.223102,0.262480,0.938792
-0.714472,0.216033,0.011624,-0.717699,0.273271,0.640493
0.173383,0.185984,0.439458,0.980195,0.104111,0.168462
0.069604,-0.075045,0.737868,0.099755,-0.963424,0.248725
0.391083,0.573777,0.868550,0.998452,0.044674,0.033135
0.157053,0.141661,-0.982687,-0.144225,0.177780,0.973444
0.244898,-0.107887,-0.575998,0.897651,-0.438176,0.047176
-0.666469,-0.014480,0.007281,-0.637772,0.728004,0.251510
0.327802,0.439566,0.766834,0.847923,-0.523018,0.086484
0.444818,0.679287,0.815590,0.877197,-0.187591,0.441967
-0.121558,0.142642,0.324104,0.421811,0.867629,0.263241
-0.209600,-0.046445,0.563637,0.976051,0.011838,-0.217220
0.310155,0.048617,0.750484,0.014303,-0.826151,0.563267
-0.338601,-0.576776,0.290067,-0.468752,0.110388,-0.876405
0.249902,-0.200878,-0.948906,-0.767229,0.152420,0.622999
0.249046,0.537832,0.890992,-0.058679,-0.799486,0.597812
-0.218357,-0.427565,0.197842,0.540372,-0.320740,-0.777897
-0.777031,-0.437186,0.027719,0.210811,0.966300,-0.147728
0.344857,-0.389447,-0.938864,-0.060074,0.075484,0.995336
0.354143,0.351333,0.856386,0.939856,-0.305402,0.152971
0.301199,0.437290,-0.197901,-0.253869,0.805736,0.535107
-0.728368,-0.351021,0.036129,-0.261004,-0.851763,0.454287
0.323851,0.067648,0.374431,0.285762,0.953629,-0.094511
-0.340114,-0.492990,0.031845,-0.474471,-0.553632,-0.684375
0.246345,0.070856,0.694241,0.954058,0.163095,-0.251344
0.286581,-0.129091,-0.443094,0.960620,-0.013126,0.277557
-0.201435,-0.982414,0.063445,0.208468,0.084306,0.974389
0.301988,0.183399,0.716290,0.730124,-0.662441,-0.167604
0.954103,-0.102922,-0.929844,-0.053697,0.311726,0.948654
0.012118,0.147403,0.628939,-0.081815,-0.996141,0.031763
0.058344,0.093922,0.176579,0.799742,0.405507,-0.442692
-0.146911,-0.063355,0.664410,-0.138966,-0.986103,-0.091049
0.846636,-0.268889,-0.924715,-0.160060,0.168794,0.972568
-0.252338,-0.029894,-0.167245,0.941898,0.193208,0.274770
0.665086,-0.088956,-0.940082,-0.133890,0.124348,0.983164
0.024037,-0.337418,-0.966278,0.426624,-0.137487,-0.893918
-0.869747,-0.252338,-0.004648,0.042848,0.617859,0.785121
0.147176,-0.075562,-0.064703,0.959880,-0.267322,-0.084671
-0.151324,0.337832,-0.008067,0.178099,0.388009,0.904284
-0.185565,0.078460,0.635561,-0.353933,0.922591,-0.153483
0.174569,0.304992,0.433111,0.163401,-0.785515,0.596880
0.093245,-0.512281,-0.949122,0.220491,-0.154860,-0.963017
-0.371394,0.019240,0.359319,0.929852,0.218514,-0.296019
0.104768,0.114715,-0.980250,-0.174797,0.153217,0.972610
-0.501777,0.157176,0.082173,0.147768,0.275810,0.949786
-0.435927,0.042773,0.315241,0.115721,-0.592096,0.797515
0.083104,0.204189,0.086300,0.305763,-0.035838,0.951433
0.338800,0.450943,0.744706,0.950948,-0.293946,-0.096405
-0.490648,-0.122367,0.385927,0.093575,0.253824,-0.962713
-0.084945,-0.452960,0.352382,0.803487,0.416740,-0.425131
0.126104,0.161469,0.521661,0.285014,-0.288555,0.914059
-0.251283,-0.083164,0.624989,0.938038,0.221365,-0.266613
-0.321940,0.100027,-0.097816,-0.224169,-0.683523,0.694655
-0.102067,-0.030462,-0.395635,-0.332218,0.645818,0.687423
0.320229,-0.113058,-0.519440,0.866298,0.479777,-0.139076
0.051496,0.369796,0.685241,-0.077313,0.308062,0.948220
-0.637429,-0.422444,0.049198,0.694230,0.719753,-0.000570
-0.620900,0.422548,0.023808,0.570648,0.676871,0.464980
0.252864,-0.075512,-0.301544,0.855659,0.496470,0.146169
0.127356,0.176366,0.656392,0.255232,0.325152,0.910567
0.426512,0.126351,0.756772,0.312746,0.615237,0.723653
0.557620,-0.002327,-0.952306,-0.152210,0.216898,0.964255
-0.732846,-0.197052,0.013019,0.758077,-0.218110,-0.614611
0.777493,-0.349417,-0.921413,-0.227156,0.115730,0.966958
-0.758856,-0.356191,0.201674,-0.044287,-0.476607,0.878000
0.228962,0.511558,0.842276,0.075129,-0.920188,0.384199
-0.144672,0.230671,0.521464,-0.260762,0.953532,0.150928
-0.546688,0.164727,0.430812,-0.276557,0.029516,0.960544
0.236994,-0.009619,0.650673,0.684438,0.476569,0.551748
0.546424,-0.386502,-0.929510,0.165348,-0.040901,-0.985387
-0.297049,0.000777,0.416780,0.128791,0.726223,0.675287
0.394048,0.373932,-0.187191,-0.059107,-0.169898,0.983687
-0.073225,0.167053,0.675768,-0.142218,-0.768921,0.623325
0.252207,0.002948,0.703792,-0.267129,-0.380697,0.885275
-0.571908,-0.340988,0.391214,0.239216,0.181734,0.953807
0.161333,-0.048462,-0.181944,0.977541,-0.017823,-0.209992
0.134795,0.541506,0.947059,0.962644,0.068736,0.261900
-0.160739,-0.062787,0.406228,0.884050,-0.163526,0.437852
-0.427696,-0.864391,0.056606,-0.024336,-0.097405,0.994947
-0.242328,0.202326,-0.133208,0.376957,0.835998,0.398761
-0.060450,-0.466821,0.388502,0.481278,0.866012,-0.135624
0.145201,-0.037549,0.511639,-0.397301,-0.673986,-0.622812
-0.113656,0.393690,0.589262,-0.722512,0.619513,0.306887
0.448572,0.425705,-0.179920,-0.275374,-0.185609,-0.943249
0.450020,-0.302612,-0.934324,-0.007689,-0.045385,0.998940
0.217043,-0.121852,-0.221817,-0.365810,0.914625,-0.172174
0.128804,-0.189605,-0.963723,-0.241426,0.127352,0.962027
0.234163,-0.128990,-0.584310,0.991488,-0.101413,0.081658
-0.288488,0.129248,0.093866,-0.400649,0.100982,0.910650
0.573950,0.870751,0.879870,0.409131,0.754021,-0.513872
0.153629,0.082390,-0.977067,0.202289,-0.200507,-0.958580
-0.436914,-0.025601,0.304334,-0.629894,0.453877,-0.630261
-0.177663,0.137576,0.610427,-0.140052,-0.989135,-0.044686
0.385290,-0.608482,-0.928409,-0.133436,0.160092,0.978042
0.442513,0.451306,0.793835,0.363517,0.927103,-0.091304
-0.046293,-0.132970,0.095182,-0.189759,0.801213,0.567494
-0.062096,0.240857,-0.075020,-0.110328,0.197630,0.974048
-0.216515,0.081664,-0.118863,-0.263595,0.659821,0.703672
-0.760700,-0.148539,-0.016105,0.613395,0.171822,-0.770859
-0.094824,0.398863,0.338999,-0.134348,0.585395,-0.799540
0.765113,-0.316679,-0.923496,-0.109914,0.122206,0.986400
0.235941,-0.127541,-0.552219,0.889263,-0.337375,0.308853
0.383182,-0.025033,0.272656,0.384660,0.057105,-0.921290
-0.584880,0.212620,-0.002329,0.895219,-0.159411,0.416138
-0.209799,0.065890,0.294764,-0.673016,-0.655000,-0.343546
0.790070,-0.201758,-0.928606,-0.182264,0.081806,0.979841
-0.237191,-0.095680,0.572932,-0.274096,-0.009110,-0.961659
0.436126,0.252187,-0.049748,0.076389,0.060273,0.995255
0.094167,0.341452,0.172845,0.823167,-0.046927,0.565856
-0.095415,0.365036,0.606457,-0.490211,0.604662,0.627755
-0.477214,0.415411,-0.106030,-0.184261,-0.336216,0.923583
-0.594560,0.385416,0.026638,-0.383618,-0.745868,-0.544534
-0.670880,-0.324747,0.050455,-0.314362,-0.342161,0.885496
-0.381271,-0.105198,0.515785,0.299253,0.525628,-0.796343
-0.306992,0.006414,0.256718,0.838835,-0.430491,-0.333216
-0.668049,-0.408170,0.166773,0.320891,-0.934367,0.154879
0.381469,-0.005430,0.628192,-0.101417,0.238232,0.965899
0.204532,-0.087147,-0.009325,-0.520148,-0.854068,-0.003599
0.227843,-0.165399,-0.960775,-0.344180,0.103360,0.933197
0.166074,0.008949,0.725860,-0.785669,0.565514,0.250836
-0.557487,-0.109181,0.290716,0.056797,-0.393078,0.917750
-0.388053,0.067030,-0.205271,-0.724930,-0.621837,0.296304
0.082775,-0.011118,0.084158,0.745050,0.597651,-0.296163
-0.165942,0.333542,0.086457,-0.441121,-0.010313,0.897389
-0.251809,-0.951743,0.061578,0.377264,-0.054660,0.924491
0.556368,0.854668,0.883112,0.393996,0.150467,-0.906712
0.128408,-0.556295,0.306790,-0.876787,-0.064659,0.476511
0.206244,0.096302,-0.974099,0.221671,-0.177451,-0.958839
-0.573684,-0.541503,0.165103,-0.124116,-0.949638,0.287720
-0.488476,0.244323,-0.234060,0.538327,-0.789453,-0.294903
0.061702,0.088546,0.536950,-0.578990,0.520067,-0.627934
0.124721,-0.135764,0.656431,0.022450,-0.956306,0.291506
0.799421,-0.151693,-0.915027,-0.156102,0.066097,0.985527
-0.457591,-0.249030,0.134466,0.259278,0.564083,0.783955
-0.865335,-0.294026,-0.001484,-0.061593,0.091794,0.993871
-0.286446,0.238326,0.232842,0.801934,-0.448738,-0.394381
-0.697419,-0.382000,0.201753,0.014709,-0.221825,0.974976
0.098052,-0.438686,0.430615,0.123805,0.219600,-0.967703
0.569735,-0.154951,-0.936093,0.138655,-0.069265,-0.987916
0.124128,0.627050,0.905790,0.113032,-0.921801,0.370819
-0.089226,0.142488,0.065508,0.623453,0.057258,-0.779761
-0.182537,0.505662,-0.042615,-0.021927,0.981970,0.187763
0.174108,-0.073959,0.511953,0.947697,-0.006090,0.319114
0.233044,-0.165245,-0.957553,-0.366584,0.127773,0.921570
-0.096997,0.122007,0.506470,-0.569872,0.536410,-0.622503
0.069737,-0.433979,-0.953878,0.327242,-0.124243,-0.936737
-0.179573,0.148385,0.599363,-0.067843,-0.974450,-0.214115
-0.388845,0.126818,0.079854,0.529856,0.069749,0.845215
0.057422,0.557848,0.928193,-0.053149,0.354100,0.933696
0.237324,0.284976,-0.188744,-0.029602,-0.070568,0.997068
-0.772750,0.148748,-0.045208,0.851128,-0.523024,-0.045025
-0.109312,0.275771,0.172354,-0.703293,0.108670,0.702545
0.088239,0.268062,-0.172217,0.310502,0.702157,0.640753
-0.102067,-0.144193,0.028446,0.240573,0.412421,-0.878654
-0.493217,-0.215465,-0.340906,-0.291551,-0.384415,-0.875913
-0.358751,0.164623,0.078164,0.161070,-0.077351,0.983907
0.340906,0.772742,0.820581,0.749092,0.392146,-0.533931
0.181614,0.331525,-0.194639,0.382212,-0.059769,-0.922140
-0.667193,0.516732,-0.006397,-0.327384,0.189668,0.925660
0.429277,-0.178279,-0.936683,0.196351,0.665399,0.720202
-0.169762,0.374036,0.063956,0.385364,-0.251905,-0.887715
0.214475,-0.161933,-0.438456,-0.477198,-0.623129,-0.619670
0.400303,-0.310059,-0.927918,-0.024765,-0.098573,0.994822
0.222180,-0.365709,0.208356,-0.688424,-0.238232,0.685068
-0.354075,0.369898,-0.071915,-0.662213,-0.687881,0.297143
0.338997,0.306852,0.840213,0.993473,-0.093526,-0.065300
0.167523,-0.069666,-0.240604,0.426598,-0.873137,-0.235892
-0.061240,0.044118,0.098209,0.501582,0.863210,0.057305
0.471356,0.073495,0.059967,-0.066463,-0.827078,0.558145
0.168182,0.164054,-0.270081,0.527026,-0.335582,-0.780787
-0.602791,-0.419963,0.152604,0.110236,-0.590846,0.799218
0.501384,-0.210345,-0.932477,0.073456,0.210786,0.974768
0.089557,0.539230,0.845519,0.214256,-0.876594,0.430903
0.448045,-0.194207,-0.936309,0.379117,0.517702,0.766978
0.301396,0.772950,0.835850,0.487483,0.693395,0.530626
-0.295337,0.359089,-0.082016,-0.055146,-0.117248,0.991570
0.395430,0.091699,0.285606,0.161371,0.158884,0.974020
-0.411300,0.011380,-0.155198,0.118902,0.992898,0.003996
-0.251283,-0.123816,0.418549,0.655205,0.109252,0.747509
0.252734,-0.087252,-0.444961,0.740867,0.651628,0.162780
0.613593,-0.102145,-0.019485,-0.697648,0.237505,-0.675928
0.235218,-0.004293,-0.121280,0.879745,-0.301304,0.367782
-0.199723,0.124955,0.425486,0.138791,-0.080588,0.987037
-0.214869,-0.491750,0.383530,0.778487,0.456688,0.430574
0.616424,0.170728,0.589282,0.117262,-0.311057,0.943130
0.583170,0.220585,-0.131243,0.335517,0.415294,-0.845552
0.462136,-0.052496,0.620764,0.060165,0.281355,0.957716
-0.559790,-0.362760,0.023376,0.264134,-0.448962,0.853620
-0.386934,-0.182310,0.407190,-0.510378,-0.093467,0.854856
0.552746,-0.346781,-0.930021,-0.084758,0.063952,0.994347
0.321546,0.098732,0.363328,0.125816,0.381259,0.915867
0.266035,0.252856,0.794405,-0.580155,0.539701,0.610035
0.302911,0.555677,0.805960,-0.687781,0.632730,-0.355824
0.082248,-0.081459,0.719769,0.828895,-0.405889,0.384950
0.443172,0.039929,0.636406,0.300014,0.669227,-0.679799
0.033321,-0.225446,0.291010,0.894975,-0.443704,0.046322
-0.188593,0.101217,-0.274582,-0.277343,0.769076,0.575850
0.112012,-0.113058,0.083726,0.392834,-0.914090,-0.100607
0.614316,-0.279183,-0.932064,0.227180,-0.153457,-0.961686
0.262150,-0.149003,-0.262850,0.884927,-0.401189,-0.236542
-0.192743,0.089060,0.081249,-0.263651,-0.959040,-0.103584
0.262544,0.304680,0.722127,0.114308,0.261059,0.958531
-0.395231,0.216705,0.396343,0.995671,0.068603,-0.062707
-0.407150,0.069564,-0.016989,0.073240,0.646788,0.759145
0.278679,0.346677,-0.198039,-0.308943,0.328257,-0.892638
0.328593,0.203466,0.771727,-0.154928,0.737170,-0.657707
-0.161002,0.065685,0.524039,0.886081,-0.337969,0.317233
-0.605820,-0.409568,0.031570,-0.286167,-0.576849,-0.765084
0.267814,0.160279,0.580557,0.949924,0.117852,-0.289406
0.251351,0.143624,0.582502,0.973793,0.107641,-0.200351
0.152576,-0.038013,-0.201065,0.865545,0.093252,0.492073
-0.286052,0.250788,0.235357,0.866614,-0.411646,-0.282006
0.295339,0.044323,0.737258,-0.329945,-0.938929,-0.097717
-0.171801,-0.026687,0.404518,-0.513073,-0.687570,-0.513813
-0.241339,-0.068011,0.004962,-0.699938,-0.194383,0.687242
0.185698,-0.262528,-0.959675,-0.393494,0.122199,0.911169
-0.266296,-0.164986,0.426685,0.976462,-0.112314,-0.184141
0.361715,-0.546418,-0.931613,-0.163835,0.117101,0.979513
0.311142,0.077734,0.511835,-0.592182,-0.805801,-0.002016
-0.314763,0.552520,-0.085199,-0.159119,-0.102121,-0.981964
0.318714,0.340057,0.750150,0.983584,-0.045396,0.174648
0.276242,0.209205,0.342891,-0.646231,0.392309,-0.654583
-0.280850,0.100904,0.424739,0.122113,-0.160676,-0.979424
-0.398853,0.192759,-0.257131,0.108393,-0.741504,0.662135
0.090150,-0.292681,0.430930,0.212356,0.789881,0.575320
0.122679,0.403775,0.332259,0.580005,0.454662,0.675926
0.621691,0.644219,0.786702,-0.431954,0.670373,-0.603337
-0.197681,0.542797,-0.109489,-0.167139,-0.721391,-0.672057
0.147966,-0.111145,-0.295805,0.961826,0.022546,-0.272730
0.277361,0.796224,0.814450,-0.617479,0.786561,0.006454
0.309100,0.295216,0.788117,0.832333,-0.488505,0.261888
-0.628472,0.101990,0.059082,0.847786,0.500694,-0.174826
-0.574213,0.347816,0.063701,-0.376982,-0.502765,0.777890
-0.409718,0.426583,-0.097501,-0.284142,-0.176092,0.942473
-0.644607,0.507164,0.006200,-0.307345,0.438360,0.844618
-0.238970,-0.217895,-0.152703,0.228732,-0.062379,-0.971489
-0.031739,-0.326351,0.487172,0.984795,-0.153648,0.081066
-0.173646,0.043601,-0.247757,-0.165092,0.799881,0.577005
0.358357,0.378070,0.922985,-0.558661,-0.586638,0.586305
-0.203543,0.422290,-0.028878,-0.203262,0.934041,0.293688
-0.282891,-0.144556,0.408095,0.891848,0.088679,0.443557
-0.451204,-0.250943,0.149932,-0.685651,-0.670915,-0.282410
-0.319834,0.487043,0.007772,0.710985,0.411560,-0.570192
-0.251086,0.402481,0.065332,-0.150688,0.572113,0.806213
-0.433096,0.307732,-0.272204,-0.303712,0.226263,0.925507
0.441393,0.589138,-0.236438,-0.363502,0.813292,0.454337
-0.000723,0.621617,0.931475,-0.349364,0.590125,-0.727803
-0.248121,0.293095,0.076454,-0.070204,0.201026,0.977067
-0.126168,0.140265,-0.190296,-0.622220,-0.138390,0.770513
0.204268,-0.092163,0.416997,0.926936,0.109918,-0.358758
-0.711641,-0.035583,-0.253830,-0.251490,0.967323,0.032218
-0.450215,-0.116628,0.262142,-0.346463,0.744321,-0.570920
0.005663,0.071064,0.656372,0.751568,-0.347221,0.560877
-0.540366,0.329766,0.034302,0.277581,0.760844,0.586571
-0.073818,-0.952675,0.066570,0.260803,0.052378,-0.963970
0.118005,0.116679,-0.982078,-0.197316,0.204569,0.958758
0.369090,-0.590947,-0.928134,-0.137079,0.098888,0.985612
-0.339391,0.119317,0.083057,-0.110376,-0.068873,0.991501
-0.804556,-0.025137,-0.212836,-0.791491,0.607915,0.063099
-0.403002,-0.583913,0.323691,0.737061,-0.094674,-0.669163
-0.791254,-0.415361,0.177522,0.281335,-0.508052,0.814084
0.219019,-0.146468,-0.000344,-0.554198,-0.831531,-0.037705
-0.219806,0.012466,0.551237,0.459913,0.269124,0.846199
0.275255,0.480373,-0.219302,-0.117936,0.439265,0.890583
0.354011,0.286784,0.835104,0.923134,-0.320758,0.211985
0.349467,0.782363,0.838307,-0.726344,0.064236,0.684323
-0.026669,-0.130540,-0.154471,0.153063,-0.517086,0.842136
-0.322269,0.349521,-0.259607,-0.162711,0.919458,0.357941
-0.932438,-0.256581,-0.023887,0.158945,-0.691665,0.704511
0.224022,0.140007,0.331827,-0.818869,0.550928,-0.161034
0.093375,0.545746,0.979091,0.438689,-0.871839,0.217830
0.201371,0.092527,-0.973038,0.273810,-0.176619,-0.945428
0.138945,0.491131,-0.203030,-0.148904,0.681639,0.716377
-0.217831,-0.456322,0.294410,-0.539482,0.827635,0.154856
0.000066,0.151746,0.621982,-0.004823,0.921915,0.387361
0.539312,-0.104629,-0.947589,-0.325301,0.150551,0.933549
0.501647,0.841583,0.872815,0.834992,0.272773,-0.477894
-0.103779,0.078302,0.067945,-0.330755,0.573632,0.749365
-0.030817,-0.318645,0.293369,-0.841486,0.540125,0.012889
-0.473726,-0.063823,0.394967,0.086211,0.165449,-0.982443
-0.000657,-0.007601,0.667829,0.618607,-0.567097,0.543808
0.608060,0.056944,-0.049159,0.890530,0.431549,0.143954
0.138352,-0.017068,-0.024005,0.710398,0.694590,0.113488
0.815950,-0.062424,-0.936172,-0.161234,0.297219,0.941098
-0.492953,0.284562,-0.306476,0.860655,-0.479796,0.170496
0.127882,-0.106025,-0.171175,0.480506,-0.860305,0.170265
0.341631,0.525315,0.720476,0.945887,0.107916,-0.306026
0.161400,0.193330,0.534808,0.293748,0.494480,-0.818047
-0.029830,-0.191673,-0.979680,0.219658,-0.199725,-0.954914
0.163835,0.064754,0.091114,0.361366,0.222721,0.905434
0.236008,0.394312,-0.283248,-0.726221,0.664895,-0.174694
0.019031,0.667285,0.927898,0.207896,-0.469703,0.857997
-0.094625,-0.334366,0.322237,0.841841,-0.499602,0.204211
-0.230343,-0.099509,0.571242,0.035130,0.219087,0.975073
-0.407612,0.478874,-0.114009,-0.173792,0.354568,0.918737
0.239498,-0.055028,-0.054405,0.517486,0.855264,0.027061
-0.417357,0.144505,0.094200,-0.415081,0.203391,-0.886758
-0.573158,0.363382,0.052322,0.798481,0.411847,-0.439103
0.151917,0.096147,-0.981410,-0.112059,0.177897,0.977648
0.412355,0.010708,-0.957808,0.154285,-0.226994,-0.961598
-0.531475,-0.163174,0.390467,0.106064,-0.180485,0.977842
-0.194586,-0.613808,0.075531,-0.572430,0.794224,-0.203796
-0.741670,-0.361779,0.028013,0.217831,0.937380,-0.271787
-0.295337,0.205742,0.064192,0.054009,-0.106806,0.992812
0.190505,-0.203049,-0.275761,-0.684053,0.694257,0.223783
-0.614578,-0.783086,0.082684,0.198867,-0.487509,0.850169
-0.547674,0.226068,-0.299402,-0.708570,-0.308584,0.634590
0.455288,0.304680,-0.048883,-0.139061,0.405214,0.903584
0.339590,0.408378,0.696226,0.858812,0.323406,-0.397304
0.126433,-0.057718,0.076749,0.979466,-0.019098,-0.200703
0.123009,0.000309,0.167657,0.965108,-0.261593,0.011600
0.592124,-0.185571,-0.023513,-0.109452,0.133351,0.985007
0.391479,0.600464,0.905063,0.419489,-0.183571,-0.889005
-0.272618,0.219291,0.029546,0.623599,0.703809,0.340261
0.064204,0.285907,0.442799,-0.404519,0.282817,-0.869700
-0.635321,0.066304,0.305140,0.276857,0.202670,0.939295
-0.035887,0.431289,0.931396,-0.059819,-0.864576,-0.498928
0.384960,0.264599,0.349749,-0.377833,0.901574,0.210727
0.052482,0.536127,0.985772,0.626322,-0.743906,0.233075
0.182800,-0.059634,-0.343480,-0.778511,0.624188,0.065650
-0.616159,0.176571,-0.020703,0.179074,-0.706315,0.684874
-0.346107,0.193690,0.245674,0.159854,-0.287450,-0.944362
-0.399381,-0.376931,0.366099,-0.466799,0.357047,-0.809084
-0.658895,-0.039667,0.059790,-0.521649,0.771427,-0.364392
0.311735,0.728677,0.863952,0.042083,0.522407,0.851657
0.746477,-0.071942,-0.945604,-0.097802,0.192853,0.976341
0.756420,-0.169434,-0.928999,-0.186090,0.063596,0.980472
-0.219676,-0.402327,0.204209,0.166564,0.021841,0.985789
0.212170,0.019758,0.761017,0.746750,-0.417613,0.517651
0.167260,-0.148072,-0.435862,-0.688119,-0.288509,-0.665774
0.388318,0.472459,0.767934,0.535425,0.833973,-0.133452
0.329383,-0.145796,-0.554400,0.791380,-0.290490,0.537896
0.149151,-0.096457,0.680544,-0.069955,-0.961119,0.267125
0.139142,-0.061856,-0.080778,0.990695,-0.064359,-0.119923
-0.502501,-0.067285,0.288298,0.273336,-0.228682,0.934341
-0.551822,-0.258544,0.319112,0.768961,0.362585,-0.526527
0.077835,0.449081,0.919841,-0.003968,0.855389,0.517971
0.200910,0.099923,0.351871,-0.478510,0.345560,-0.807228
0.287174,-0.146986,-0.951618,-0.344601,0.268006,0.899679
0.271895,0.384071,0.812897,0.748377,-0.647022,-0.145929
0.180957,0.365554,-0.190473,-0.428456,0.389072,0.815505
0.058344,0.104579,0.388148,0.992733,-0.060984,-0.103737
0.189978,0.056426,0.652403,0.482719,0.689283,0.540251
0.106876,-0.043029,0.128885,0.965564,-0.256282,0.044776
-0.340970,-0.081304,0.429259,0.815237,0.399825,-0.418962
-0.322006,-0.150657,-0.365411,0.117748,0.425686,-0.897177
-0.749439,-0.325161,0.033378,-0.154762,0.985559,0.068717
-0.026077,0.737263,0.937901,-0.766785,-0.410653,0.493361
-0.184446,-0.065840,0.678893,0.224463,0.936243,0.270306
0.082839,0.424824,-0.058984,0.247234,0.287497,0.925322
-0.129132,-0.239409,-0.042379,-0.745746,-0.224015,-0.627440
0.482353,0.796171,0.844792,0.976418,0.150712,-0.154578
0.152114,-0.293044,0.181689,-0.283974,-0.107342,0.952804
0.055907,0.207601,0.550293,0.589769,-0.161687,0.791220
-0.614973,0.075253,0.075550,-0.303032,-0.211459,0.929224
0.454038,0.615310,0.904041,-0.288032,0.954915,-0.071939
-0.237125,-0.142488,0.356411,-0.413819,-0.304280,-0.858002
-0.792110,-0.464959,0.175066,-0.029575,0.567502,0.822840
0.450350,0.634910,0.918033,-0.271525,0.659915,-0.700562
0.023904,0.254668,0.633478,-0.275310,0.199895,0.940344
-0.149216,0.016342,0.397050,0.822950,-0.077926,0.562744
-0.064928,-0.112127,0.200534,0.854867,0.392389,0.339460
0.090874,0.428395,-0.314258,-0.353420,0.434787,0.828284
0.227184,0.466976,0.679797,0.401725,-0.045316,-0.914638
0.472343,-0.166331,-0.938333,0.123978,0.270871,0.954598
-0.677596,-0.278044,0.206941,-0.313526,-0.949578,-0.001485
-0.154945,0.134315,-0.372623,0.201402,0.791379,0.577197
-0.445871,-0.163745,0.363171,0.234910,0.946481,-0.221340
-0.341234,0.289319,-0.229147,-0.353629,0.630480,0.690971
0.072042,-0.153969,-0.323416,-0.506089,0.862398,0.011952
0.441393,0.401294,0.593271,0.242570,-0.291570,-0.925282
0.076716,0.359607,0.082625,0.158892,0.687269,0.708812
0.498419,0.014638,0.003704,0.105257,0.925121,0.364791
-0.553404,-0.418928,0.020133,-0.514818,0.465988,-0.719595
0.042605,0.331108,0.025262,-0.640115,0.375141,0.670464
-0.312326,-0.180037,-0.030136,0.063241,0.990044,0.125755
-0.278281,-0.018255,0.292307,-0.692964,0.275011,0.666460
0.373041,-0.454977,-0.934541,-0.113031,0.083761,0.990055
-0.544646,-0.311972,0.137060,-0.311981,0.647009,0.695735
0.210062,-0.377707,-0.942873,-0.361097,0.026450,0.932153
0.080337,0.171088,-0.288043,-0.355324,0.431881,0.828989
-0.748846,-0.300491,0.226140,0.148291,-0.940116,0.306907
-0.170815,0.215411,-0.208533,0.469649,0.807134,0.357722
0.235282,0.366226,-0.184519,-0.089243,0.036044,0.995357
0.510405,0.907006,0.886433,-0.149751,-0.564259,0.811903
-0.843737,-0.055495,0.082035,-0.206077,0.966641,0.152111
0.659160,0.007551,-0.047016,0.886309,0.408111,0.218865
0.489531,-0.353814,-0.935071,-0.096145,0.027740,0.994981
-0.725535,-0.020171,-0.193932,-0.668600,0.680252,0.300385
0.694127,-0.342538,-0.925049,-0.159211,0.114435,0.980590
0.060979,0.004602,-0.979268,0.152537,-0.092407,-0.983968
-0.298695,0.270701,0.521150,-0.322958,0.662920,0.675452
0.028514,0.181382,0.727059,0.308460,0.947025,0.089414
-0.802054,-0.140676,-0.028072,-0.429571,-0.407711,0.805755
0.203742,0.434083,0.686498,-0.128616,-0.561385,-0.817499
-0.238508,-0.029376,0.429436,0.165479,0.285578,0.943961
0.273806,0.802121,0.789079,0.941281,-0.036138,-0.335685
-0.721650,-0.042770,-0.263282,0.340321,-0.920502,-0.191982
-0.273671,-0.105561,0.261710,-0.199041,0.979728,-0.022699
0.386080,-0.324956,0.002506,-0.530855,0.557190,0.638539
0.164494,-0.037808,0.259077,-0.628908,0.254747,-0.734560
0.032861,-0.015929,-0.147338,0.409295,0.530060,0.742640
0.376006,0.699301,0.860140,0.298408,0.531225,0.792939
0.365996,0.792190,0.861653,-0.721490,0.195773,0.664173
0.020743,0.018931,-0.985261,-0.301742,0.110842,0.946924
0.097985,0.280373,0.827734,0.112181,0.239777,0.964325
-0.183720,-0.534523,0.374215,0.480549,0.721976,0.497819
0.503556,0.032583,0.015692,0.359832,-0.617674,0.699286
0.488805,0.744401,0.893940,-0.875015,0.431920,-0.218617
0.124721,-0.463873,0.435980,-0.056151,-0.445220,0.893659
-0.804622,-0.337832,0.203443,0.137706,0.632241,-0.762435
-0.300013,0.172073,0.529659,-0.144844,0.634908,0.758888
-0.774462,-0.101732,-0.025537,-0.298845,0.176291,0.937877
-0.476491,-0.209773,-0.159443,0.075280,-0.084173,-0.993603
0.110167,0.483580,-0.205310,0.521523,-0.574459,-0.630880
-0.490582,0.227413,0.007969,-0.062171,-0.872420,0.484787
-0.625773,-0.049753,0.296925,-0.011456,-0.385813,0.922506
0.133611,0.145177,0.720024,-0.630666,-0.560818,-0.536417
-0.849004,-0.272406,0.001601,0.128445,0.346932,0.929053
-0.146384,0.146831,0.641280,0.401887,-0.790232,-0.462623
-0.449163,0.533955,-0.109135,0.058409,0.272837,0.960286
-0.267681,-0.722108,0.060733,0.086848,-0.298554,0.950433
-0.659421,0.391155,-0.253555,-0.273182,0.844078,-0.461416
-0.464769,-0.406569,0.013294,-0.259812,0.245506,-0.933930
0.262084,0.439926,0.826005,0.899418,0.115757,0.421482
0.157909,-0.048980,-0.090898,0.754521,0.394321,-0.524604
0.457856,-0.163796,-0.015004,0.067281,-0.893658,0.443676
-0.564071,-0.056530,0.395557,-0.131370,0.063501,0.989298
0.696761,-0.174500,-0.932320,-0.132245,0.215581,0.967490
-0.685038,0.335660,0.020526,0.961687,0.211084,-0.174934
0.221257,-0.083063,-0.441030,-0.576113,0.810683,0.104338
0.112669,0.115593,0.627504,0.094411,0.701374,0.706513
-0.022915,-0.090715,0.662209,-0.484124,0.015308,-0.874866
0.201041,0.064236,0.716388,-0.397421,0.208658,-0.893599
-0.044382,0.082236,-0.160150,0.603510,0.750461,0.269416
0.534176,0.506956,-0.203698,0.392215,-0.325289,-0.860438
0.240025,0.245463,0.853615,-0.200392,-0.666745,0.717840
0.017781,0.658235,0.941556,-0.147772,-0.761701,0.630852
0.187740,0.361056,-0.473318,0.912108,-0.105498,-0.396144
0.292111,0.306024,0.672408,0.862116,0.504077,0.051592
0.259383,0.488906,0.795191,-0.549137,-0.803271,-0.230659
0.119717,0.539126,0.914653,0.867426,0.476330,0.143810
0.167457,-0.112439,-0.430458,0.899538,-0.352304,0.258291
-0.071843,-0.063977,0.692826,0.114637,0.031656,0.992903
-0.663372,-0.049030,-0.161683,0.338648,0.556436,0.758747
0.242856,-0.156709,-0.249978,0.535555,-0.717064,0.446095
0.184183,0.121284,-0.979779,-0.244773,0.210931,0.946358
-0.267878,0.439513,0.038881,0.969954,-0.141726,0.197743
-0.733306,0.382000,-0.007419,0.742062,0.274509,-0.611546
-0.712300,-0.744297,0.089208,0.846487,0.047071,-0.530325
0.288753,0.402017,0.731166,-0.374412,0.034689,0.926613
0.136903,-0.058857,-0.062600,0.899188,-0.432199,0.068302
0.222640,-0.152419,-0.182003,-0.026860,-0.963880,0.264979
0.001712,0.139280,0.152329,0.961290,0.146830,-0.233158
0.017648,0.411948,0.946371,-0.283121,0.806807,0.518560
0.261688,0.012984,0.214959,-0.236091,0.823516,0.515831
-0.507901,-0.146781,0.349297,0.132845,-0.917190,0.375653
0.195511,-0.521953,-0.947294,-0.120171,0.098360,0.987869
-0.207888,0.246290,0.296238,0.906777,0.227550,-0.354933
0.166404,0.304266,-0.197803,-0.038509,0.084900,0.995645
0.362242,-0.108610,-0.952031,-0.267123,0.257403,0.928649
0.625379,-0.009309,-0.949476,-0.070203,0.334095,0.939921
