0.519360,0.096407,0.459357,0.763327,0.106011,-0.637254
0.733216,0.106778,-0.964756,-0.710461,-0.542500,-0.448263
-0.045070,-0.000546,-0.659027,0.940554,-0.284349,0.185751
0.267799,0.237488,-0.961828,-0.337051,-0.169557,0.926092
-0.119733,-0.308795,0.479343,-0.333198,-0.660738,-0.672610
-0.117110,0.068153,-0.489397,0.982396,-0.172422,-0.071889
-0.098419,0.188473,0.376485,0.876528,-0.429024,0.218258
0.016907,0.433836,0.884205,0.217113,0.716102,0.663370
-0.501323,-0.249119,0.740638,-0.345320,0.756624,0.555224
0.447721,0.262353,-0.968270,0.333798,-0.368545,0.867614
-0.085352,-0.119520,-0.416634,0.706252,0.479616,-0.520746
-0.030478,0.064924,0.116121,0.863876,0.078374,-0.497570
-0.027567,0.576745,0.875114,0.672574,0.087269,0.734867
-0.613568,-0.565562,0.355219,-0.680734,0.237498,-0.692962
-0.064094,0.250694,0.197474,0.471980,0.871268,0.134637
-0.055898,0.102609,-0.975467,0.544454,0.237784,0.804381
0.102538,-0.101829,0.405253,-0.619714,0.682461,0.387558
0.199122,-0.261750,-0.955823,0.892614,0.316011,0.321525
0.116437,0.037803,-0.771121,0.922192,-0.374346,0.097092
-0.125326,0.231485,-0.980299,0.804591,-0.298922,0.513108
-0.301165,0.390472,0.843295,-0.641079,-0.602658,-0.475206
-0.053026,-0.152469,0.778513,0.262555,-0.164579,0.950778
0.526784,-0.693679,0.787647,0.948343,0.016966,0.316793
0.223754,0.263528,0.633326,0.148857,-0.386487,0.910203
0.510205,0.294134,0.677753,0.960091,0.089698,0.264914
-0.111368,0.095216,0.532619,0.832187,0.470623,-0.293221
-0.060667,0.303989,0.688588,-0.638397,-0.738562,0.216737
0.358219,-0.170950,0.380705,0.810502,0.485684,0.327410
-0.170140,0.067471,0.587597,0.716205,-0.495842,0.491113
-0.014709,0.495974,0.646888,-0.665737,-0.653038,0.361021
-0.095768,0.101404,0.376326,-0.556720,0.402020,-0.726940
-0.285465,0.137434,-0.128108,-0.514581,-0.332821,-0.790213
-0.522494,-0.562392,0.783478,0.426681,-0.052878,0.902855
-0.500067,-0.305146,0.573049,-0.734443,0.673680,-0.082155
-0.277084,0.614286,0.785405,0.424202,-0.653440,0.626952
0.146773,-0.221375,-0.942713,0.479836,-0.317071,0.818061
0.302153,0.580731,0.776970,-0.559526,-0.793147,-0.240519
0.531317,0.113469,-0.951868,0.201333,0.053348,0.978069
0.081416,-0.011041,-0.817193,-0.226818,0.947173,0.226751
0.316789,0.251983,-0.957672,0.246451,0.566681,-0.786216
0.504879,-0.675216,0.804352,0.792891,-0.551431,0.259322
-0.306545,-0.047796,0.678104,0.292975,0.313010,0.903433
-0.007309,0.135031,0.652076,0.873616,-0.033297,-0.485475
-0.123324,0.130149,0.543053,0.157239,0.952956,0.259135
-0.240322,-0.531965,0.778134,0.459108,0.513569,-0.724891
0.400032,-0.267024,0.812965,0.092121,0.875492,0.474371
0.401975,-0.542771,0.632792,0.970648,-0.132148,0.200944
0.151104,-0.060827,-0.859162,0.942961,-0.220355,0.249535
-0.093556,-0.030693,-0.567623,0.314821,-0.949018,0.015897
0.460700,-0.003892,-0.969672,-0.417300,0.431441,0.799825
0.260110,0.433510,0.579073,0.966735,-0.255329,0.015209
-0.112738,0.127121,-0.145237,-0.115100,-0.972887,0.200608
-0.245939,0.762102,0.843342,0.836123,0.339878,0.430559
0.136474,0.159448,0.754295,0.505395,0.857576,-0.095604
-0.320973,-0.072904,-0.968612,0.686828,0.242666,0.685114
0.244263,0.181797,-0.962521,0.520084,-0.183115,-0.834255
-0.164528,0.252783,0.138541,-0.476318,-0.858484,0.190067
0.348025,0.392538,0.718088,0.532900,0.056441,-0.844294
-0.053696,-0.096501,0.080479,0.988456,-0.150942,-0.013088
0.684939,-0.423139,0.802425,0.816812,-0.508896,-0.271741
0.050422,-0.021817,-0.564868,0.387259,0.921255,-0.036324
0.257138,-0.581591,0.681323,0.338670,-0.443307,0.829929
-0.046598,0.139641,0.951053,0.928285,-0.303840,0.214402
-0.038038,0.142535,0.840926,-0.250184,-0.052863,0.966754
-0.013141,0.034415,-0.596206,-0.378593,0.923523,-0.061426
-0.086126,0.529764,0.782356,0.290948,0.450341,-0.844122
0.224482,-0.040004,0.376806,0.978888,0.189206,-0.077323
0.031417,-0.110505,-0.840249,0.080496,0.968729,-0.234702
-0.060038,0.108143,-0.091841,0.121361,0.923852,0.363001
-0.126197,-0.083191,-0.991372,0.702902,-0.263259,-0.660775
-0.311414,-0.386835,0.704295,0.605034,0.633186,0.482710
0.428020,-0.036648,0.778358,0.744435,-0.089406,-0.661683
0.203761,0.603301,0.880798,0.300653,-0.365432,0.880947
0.238021,-0.279450,-0.968580,0.280107,0.013119,0.959879
-0.439739,-0.336883,0.459681,0.925379,0.363838,0.106276
0.379733,0.015884,-0.967569,0.180283,-0.371328,0.910831
-0.086312,-0.128230,-0.573369,0.555407,0.812915,-0.175194
0.430401,0.034337,-0.978854,0.001148,0.210210,0.977656
0.344877,-0.251531,0.797759,0.547334,0.204437,-0.811561
-0.104972,-0.064945,-0.235777,-0.643572,0.699215,-0.311310
-0.107403,-0.049660,0.079709,0.893394,0.150685,0.423250
-0.213116,0.422460,0.844521,-0.209538,-0.510326,-0.834063
0.338935,-0.223631,-0.949042,-0.181339,-0.516470,0.836884
-0.160203,-0.229321,0.072243,0.958204,-0.255297,-0.129109
0.140057,0.640354,0.861297,-0.640094,0.448389,-0.623880
0.383221,-0.221951,-0.939847,-0.220306,0.504394,0.834896
0.079518,-0.151718,-0.920401,-0.201218,-0.978964,0.033778
0.322631,-0.271276,0.923364,0.404788,0.906502,0.119999
0.027518,0.501059,0.817065,0.257474,-0.965238,0.044969
0.220120,-0.189661,0.651750,-0.351908,0.245987,-0.903134
0.146055,-0.355178,0.551888,0.281816,0.955714,-0.084792
0.581132,0.249924,-0.961939,0.253277,-0.951600,0.174094
0.166049,-0.276018,-0.972645,-0.371570,0.629822,-0.682099
0.198914,0.587692,-0.978564,0.669349,-0.222553,-0.708832
0.420579,0.512847,0.715129,0.159682,0.649655,0.743269
0.175242,0.231213,0.885107,-0.647504,0.760976,0.040669
0.092183,0.057811,0.323116,0.734731,0.634631,-0.239612
0.219260,-0.489096,0.612336,0.110848,-0.989299,-0.094871
-0.651503,-0.712475,0.345672,0.706805,-0.544500,0.451604
0.554094,-0.360503,0.687355,-0.691655,0.314600,0.650109
-0.170556,0.063436,0.589371,-0.560161,0.565077,-0.605729
-0.100843,-0.190988,-0.522317,0.938393,0.341252,-0.054457
-0.024169,0.434479,0.285511,0.974727,-0.223165,0.010199
0.228068,-0.438166,0.687198,-0.444944,0.117633,0.887799
-0.067042,-0.761176,0.677419,0.140481,-0.702109,0.698075
-0.920469,-0.671060,0.528861,0.486201,-0.354898,0.798534
0.641317,0.115241,-0.967786,0.161968,0.282846,0.945391
0.499934,0.036833,0.784957,-0.570084,0.565615,0.595889
0.078535,-0.197839,0.756538,0.120784,0.165333,0.978814
0.178439,-0.473678,-0.952596,-0.023504,-0.561360,0.827238
0.220754,-0.201438,-0.957369,-0.519854,0.515998,-0.680807
0.250075,0.444335,-0.967962,-0.587640,0.134900,0.797798
0.056586,0.025231,0.258386,-0.483427,0.093069,0.870423
0.232355,0.488604,-0.973357,0.308230,0.280780,0.908932
0.039507,-0.015608,0.234099,-0.044884,0.998471,-0.032272
0.289798,0.443657,-0.963902,0.461513,0.016365,-0.886982
-0.155941,0.353698,0.903293,0.916930,0.133261,0.376140
0.667229,0.249182,0.730138,-0.686498,0.021126,-0.726825
0.415794,-0.283110,0.887269,0.232125,-0.312505,0.921118
-0.410741,-0.543697,0.764866,-0.646746,-0.687157,0.330961
0.053999,0.945645,0.901144,-0.889715,0.397643,-0.224250
-0.003406,-0.037150,-0.423018,0.161828,0.803784,-0.572489
-0.022566,0.086568,0.209342,0.756263,0.428814,0.494151
0.071117,-0.488381,-0.946629,0.850974,0.523792,-0.038544
0.020640,0.068651,0.794436,0.733717,-0.339233,0.588710
-0.011583,0.334906,0.884502,0.330636,0.462731,0.822533
-0.102154,0.187716,0.225296,0.505006,0.638474,-0.580792
0.098025,0.248695,0.412061,0.082839,-0.904545,0.418254
-0.103242,-0.111345,-0.283722,-0.719102,-0.489403,-0.493332
0.248423,-0.267372,0.916662,-0.752978,0.434802,0.493935
0.210674,0.535248,0.885581,0.912366,0.231498,0.337635
-0.012488,-0.126217,-0.600638,0.888723,-0.456611,0.040948
-0.104809,0.185713,0.173739,-0.426653,0.902280,0.062111
0.455702,-0.583393,0.680434,0.976455,-0.180695,-0.117834
0.222147,-0.477557,-0.953025,-0.133431,-0.261286,0.955995
0.437848,0.375994,0.697792,-0.505403,0.324041,0.799728
-0.023138,-0.163941,-0.611646,0.711889,-0.623678,-0.322861
0.023218,0.047611,0.207464,0.946538,0.222211,0.233853
-0.159457,0.265588,0.158049,0.888347,0.453936,-0.069147
0.160167,0.357294,0.942248,-0.428834,0.885025,0.181197
0.012390,-0.106767,-0.395061,0.500884,0.863063,-0.065093
0.002898,0.138245,0.329930,-0.575966,-0.817267,0.018364
-0.252943,-0.556455,0.704691,0.903646,0.156584,-0.398629
0.322103,0.388781,0.797387,0.942999,-0.099653,-0.317524
-0.080230,-0.073811,0.162833,0.850288,-0.526280,-0.006241
-0.115589,0.073048,0.144831,0.973968,0.068618,-0.216053
0.450177,-0.335214,0.779715,0.321129,0.931492,-0.170879
-0.097733,0.455757,0.859665,-0.270367,0.734398,-0.622544
0.090578,0.812659,0.865363,0.775011,0.626825,-0.080301
0.384215,0.539664,0.748946,0.156795,0.934550,0.319424
0.000746,0.223370,0.803249,-0.211703,0.244690,0.946207
-0.140397,0.018297,-0.092207,0.468539,-0.790149,-0.395141
-0.056215,0.537702,0.755884,0.330931,0.557791,-0.761153
0.236949,0.387686,0.624533,-0.459835,-0.203378,-0.864401
-0.491632,-0.600377,0.342744,0.266632,-0.891692,0.365777
0.149583,0.757117,0.865600,0.890484,0.455010,-0.001952
0.369426,-0.393060,0.342208,0.624017,0.390017,-0.677118
-0.114427,0.139530,0.540763,-0.003375,0.911417,0.411470
-0.389148,-0.642857,0.255847,-0.701122,-0.594240,-0.394090
0.350399,-0.382812,0.701906,0.122985,0.748084,0.652108
-0.375676,-0.565684,0.345298,-0.634943,0.593476,0.494605
0.268295,0.079743,-0.941452,0.373525,0.398485,0.837669
-0.470124,-0.647272,0.322078,0.861115,-0.500193,0.091039
-0.100758,0.209336,-0.977159,0.538158,0.292171,-0.790584
0.166095,-0.099491,-0.946992,0.834587,-0.181755,0.520029
0.060074,0.095269,0.313967,0.371407,0.679089,-0.633162
0.385148,-0.377216,0.752567,0.865599,-0.114363,-0.487503
0.231198,-0.226087,0.447821,0.536120,0.833724,0.132212
-0.163602,0.193778,0.589105,0.849262,-0.270135,0.453631
0.395877,0.477553,-0.993575,-0.257738,-0.250003,0.933311
-0.543632,-0.176521,0.737299,0.418619,-0.583855,-0.695609
0.511696,0.194625,-0.961139,0.613282,-0.250587,0.749061
0.216355,0.303090,0.768449,0.984653,0.167822,0.047890
-0.122603,-0.446570,0.641587,0.759135,-0.576910,0.301477
-0.065755,-0.042714,-0.218203,0.366567,-0.906492,0.209526
-0.221925,0.007215,0.501260,0.876800,-0.411859,0.248182
0.226441,-0.618837,0.643931,0.441443,0.117496,0.889563
-0.040010,0.368074,0.802302,0.533164,-0.339213,0.775030
0.007147,0.157327,0.890686,-0.664386,-0.685990,-0.296663
-0.153808,0.349986,0.812646,-0.739622,-0.341303,-0.580062
0.138300,-0.017500,-0.768834,0.916357,-0.381362,0.121875
-0.708608,-0.633666,0.539050,0.723890,-0.438982,0.532239
0.574231,-0.436662,0.828574,0.072866,0.778615,0.623256
-0.024814,0.027195,-0.112847,-0.646677,0.762235,0.028386
-0.016606,0.013149,-0.231747,0.944742,-0.327620,0.011276
-0.027509,-0.044051,-0.379337,0.731966,0.642496,-0.226770
-0.627692,-0.536976,0.503445,-0.746143,-0.664251,0.045183
0.159617,0.358083,0.753387,-0.150739,0.968737,0.197043
0.294502,0.029602,0.794827,0.863310,0.441947,0.243678
-0.491994,-0.489451,0.283557,0.258309,0.198628,0.945422
-0.212600,0.126492,0.262382,0.758060,-0.118222,0.641381
0.313940,0.042908,-0.958201,0.228128,0.973626,-0.003269
0.291528,0.556173,-0.980288,0.380948,0.670490,-0.636649
0.340664,-0.343303,0.916120,0.910515,0.334098,0.243599
-0.020944,-0.055273,-0.825122,0.772404,0.634682,-0.023882
0.760031,0.022906,0.777408,-0.092570,-0.868243,0.487428
0.149679,0.180976,-0.969715,0.592661,-0.235065,0.770388
0.394046,0.443236,0.774714,0.771966,0.630658,-0.079613
0.234029,0.102701,-0.979996,-0.516453,0.311997,0.797455
-0.271451,0.913639,0.812383,-0.298530,0.483800,0.822689
-0.017118,0.091230,-0.955666,0.296912,0.877877,-0.375732
0.221779,-0.119172,0.410746,-0.246050,0.256176,0.934790
-0.028057,0.078619,0.644312,-0.343509,0.378262,0.859604
0.248348,-0.417934,-0.956017,0.104035,0.868129,0.485313
-0.106500,0.053638,0.119526,0.975020,0.220075,-0.030056
-0.147277,-0.000670,0.542435,-0.482509,-0.875679,0.019270
-0.199356,0.091339,0.526094,0.858982,0.384824,-0.337729
0.406971,-0.372342,0.510547,-0.478967,0.788991,0.384817
-0.143059,0.053746,0.567673,0.426596,0.861746,-0.274607
-0.271611,0.071617,-0.065254,0.137223,0.948657,0.284990
0.058279,-0.286853,0.575270,0.737949,-0.671206,0.070097
0.034890,0.310553,0.821814,-0.073506,0.080286,0.994058
0.175216,0.016927,-0.892837,0.344421,-0.864399,0.366318
0.136365,0.706174,0.860108,0.991595,0.020474,-0.127749
0.553984,-0.410581,0.705561,0.648089,-0.317749,-0.692110
0.200726,-0.347751,-0.969164,-0.083006,0.287985,0.954031
-0.580475,-0.282489,0.663617,0.940672,-0.087268,0.327904
0.438289,-0.152618,0.783516,0.792253,-0.495729,-0.355792
-0.034209,0.443517,0.774584,-0.669937,-0.211581,-0.711630
-0.426665,-0.584935,0.252679,0.900721,0.393056,0.184956
0.044805,-0.062264,-0.620481,-0.727998,0.306193,0.613405
0.375407,-0.319619,0.847540,0.901619,0.115535,0.416815
0.362212,-0.373284,0.627831,0.822266,-0.075621,0.564057
-0.010329,-0.026341,-0.664581,0.923211,-0.308290,0.229430
-0.248546,0.043184,-0.185428,0.833141,-0.335209,0.439898
-0.102926,0.238468,0.548194,0.227077,0.729374,-0.645329
0.149601,0.620862,0.680182,-0.090978,-0.838664,0.536997
0.258501,-0.389277,-0.956668,0.692160,-0.053900,-0.719729
0.283939,0.454583,-0.985737,0.415370,0.283923,-0.864208
-0.177893,0.044512,-0.133444,0.495220,-0.679766,-0.540995
0.048672,-0.965397,0.417051,-0.116267,0.797403,0.592140
0.035402,0.063376,-0.932726,-0.620952,-0.530812,-0.576764
0.632354,0.071489,-0.953007,-0.208302,0.542435,0.813864
0.217759,0.450540,-0.988040,0.362304,0.524022,0.770802
0.522756,0.183632,-0.954816,0.846229,0.172442,-0.504143
0.397578,0.324201,-0.972587,-0.442634,-0.848059,-0.291326
0.575898,0.237871,0.792764,-0.554890,0.754113,-0.351298
0.216799,-0.253016,-0.952787,0.799585,-0.598629,-0.048035
-0.078677,0.006899,-0.957208,0.793160,-0.307306,-0.525795
0.516166,-0.029687,0.793430,-0.163817,0.289617,0.943019
0.052372,0.430495,-0.971566,0.839945,-0.499346,-0.212474
-0.365133,0.583120,0.387389,-0.040904,-0.158542,0.986505
-0.119098,-0.056108,0.052475,0.871297,-0.342453,0.351522
0.395797,-0.016217,0.887944,0.641316,-0.746971,-0.175354
-0.066463,-0.178259,-0.967196,-0.185154,0.068050,0.980351
0.953090,-0.081209,0.744927,0.113776,0.380954,-0.917567
-0.052136,0.139726,0.319121,0.400455,0.648885,-0.646981
-0.121263,0.018352,0.263301,0.996428,-0.056438,-0.062824
-0.107751,-0.046244,-0.977786,0.911829,-0.227651,-0.341677
0.174262,-0.338234,0.527215,-0.644636,0.679247,0.350811
0.406877,-0.360641,0.946329,-0.487629,-0.869982,0.073130
-0.505471,-0.253735,0.657326,0.713367,-0.677747,0.178231
-0.365070,-0.042480,0.640204,0.895956,-0.444093,-0.006707
-0.105901,0.265024,0.625776,-0.687988,0.292519,0.664157
0.479335,0.317665,-0.976111,-0.281388,-0.354184,0.891838
-0.242233,0.194959,0.108182,-0.244666,-0.954379,0.171169
-0.036286,0.154685,0.432628,0.240912,-0.253968,0.936729
0.296885,0.311411,0.918497,0.885428,-0.464306,-0.020902
0.094821,0.621710,0.805191,-0.252797,-0.826142,0.503571
-0.165231,0.396806,0.875174,-0.586678,0.611077,-0.531408
0.251632,-0.386239,-0.967686,0.989760,-0.142648,-0.005193
0.276744,-0.457754,0.798688,0.888270,0.333416,0.315928
-0.106449,-0.867605,0.777949,-0.143859,-0.979142,0.143473
0.462331,0.158890,0.768154,0.116447,0.505537,0.854911
0.113144,-0.496184,-0.253307,0.919026,-0.372297,0.129559
-0.203948,0.121935,0.409837,-0.218316,-0.178852,0.959349
-0.229969,0.216740,0.594388,-0.758541,-0.058732,-0.648973
0.500636,0.201432,-0.979469,0.131479,-0.447243,-0.884696
-0.079827,-0.132128,-0.980421,0.038594,0.075959,0.996364
0.483722,-0.269167,-0.937500,-0.337333,-0.040279,-0.940523
0.403252,0.315228,-0.978069,-0.256750,-0.856020,-0.448675
0.438528,-0.201876,-0.948249,0.339909,-0.326553,-0.881944
-0.343774,-0.060051,0.685200,-0.482183,0.709490,0.513930
0.096467,-0.164102,-0.973747,-0.213251,0.975643,0.051428
-0.287225,0.024459,-0.143911,-0.570638,0.713073,-0.407307
0.271464,-0.352907,0.872897,0.906070,0.340946,0.250587
-0.469930,-0.608322,0.287596,0.901038,0.190559,-0.389638
-0.052599,0.108301,-0.962390,-0.562190,0.279843,0.778223
0.456409,0.213563,-0.974243,-0.393283,-0.071398,-0.916641
0.586695,0.085348,0.442794,0.625307,0.030964,-0.779764
0.127706,-0.083070,0.517874,0.314237,0.948773,0.032947
-0.577530,-0.588139,0.749150,0.167857,0.973710,-0.153987
-0.005890,-0.175771,0.960416,-0.301235,-0.194209,0.933563
-0.064075,-0.046279,0.262432,0.879187,-0.109888,-0.463633
-0.038739,-0.311373,-0.963583,-0.411059,0.292843,0.863292
0.303851,0.544128,0.689199,0.432340,0.825821,-0.362081
0.026160,0.050257,-0.530357,-0.127042,-0.940887,0.313992
0.237609,0.102911,0.756250,-0.019219,0.496452,0.867851
0.035851,0.221406,0.835133,0.840064,-0.223621,-0.494252
0.521916,-0.178508,0.543683,0.809796,0.358605,-0.464363
0.495871,-0.630802,0.719001,0.730630,-0.673801,-0.110328
0.064856,0.008753,-0.765753,0.622433,-0.782420,-0.019915
0.497286,-0.353203,0.377474,0.857928,0.505468,-0.091988
0.206052,0.368287,0.956439,0.845078,-0.339840,-0.412737
0.103527,0.024131,-0.830743,0.581507,-0.813489,-0.009238
-0.105831,-0.313873,0.095353,0.029172,0.563272,0.825757
-0.082009,-0.050993,-0.338504,0.234691,0.202215,0.950804
-0.151598,0.517070,0.784191,0.116451,-0.165212,0.979359
0.966322,0.003076,0.742960,-0.522630,-0.843161,0.126244
0.450374,-0.757330,0.807257,0.075045,-0.972939,0.218537
-0.212992,-0.583265,0.750622,-0.443212,-0.146496,0.884365
0.371568,0.319795,-0.965137,0.070503,-0.967715,0.241985
-0.227631,0.291484,0.601154,-0.466525,-0.793195,-0.391403
-0.040954,0.366025,0.778397,0.751800,0.529516,-0.392950
-0.158469,-0.667524,0.730181,0.956042,-0.148586,0.252796
0.234953,0.699240,-0.982185,0.876749,0.214578,0.430427
-0.163284,0.820696,0.832929,-0.593838,0.455672,-0.663114
0.441974,0.414806,-0.986362,0.047193,-0.182818,0.982013
-0.214039,0.044267,0.598384,-0.485076,-0.871590,0.070939
0.129277,-0.288229,-0.959816,0.253991,-0.641646,0.723726
-0.383268,-0.225529,0.685337,0.960594,-0.129697,-0.245841
0.468968,-0.161305,-0.974403,-0.047659,0.094264,0.994406
-0.042288,0.172774,0.151894,0.977968,0.200620,0.057707
0.254587,-0.161717,0.900137,-0.772029,0.020853,0.635245
-0.047936,0.503551,0.793728,-0.492934,0.101952,0.864073
0.030353,0.071238,0.345720,-0.030950,0.796958,0.603241
0.032113,-0.452669,0.594787,0.983161,-0.022153,0.181393
0.099749,0.225881,-0.983027,0.141119,0.982682,0.120091
0.110826,-0.007258,0.412407,0.189904,0.620757,0.760656
0.090784,-0.540382,0.702003,0.034754,0.975507,0.217206
0.485128,-0.626755,0.681056,0.909112,-0.410130,-0.072860
0.529943,0.094553,0.782229,0.012408,0.695425,0.718491
0.048422,-0.277373,0.664854,-0.641093,0.763846,0.074429
-0.152958,0.363208,0.568293,-0.063264,-0.897900,0.435630
-0.029904,0.000683,0.060113,0.980665,-0.038942,0.191779
-0.090874,-0.100717,0.024655,-0.778525,0.526148,0.342152
0.303941,-0.385139,0.752529,0.154634,0.812556,0.561997
-0.400652,0.045742,0.601987,0.537931,0.842202,-0.036407
0.174694,0.409778,0.605720,0.984130,0.134243,0.116052
-0.670402,-0.404211,0.705864,0.982882,-0.052829,0.176500
-0.058955,-0.008241,-0.644065,0.991476,-0.130031,-0.008170
0.019587,0.033107,-0.497508,-0.028684,-0.684123,0.728802
-0.246320,0.203543,0.437976,-0.478632,-0.831327,0.282501
-0.157353,0.036253,-0.969717,0.422437,-0.119959,-0.898419
-0.217944,-0.407865,0.667814,0.693875,0.609332,0.383736
0.288071,-0.198241,0.829801,0.949162,0.308718,-0.061519
0.573504,-0.263765,0.874102,-0.527750,0.675840,0.514509
0.492147,-0.004736,0.756611,0.389223,0.457131,0.799711
-0.263928,-0.575714,0.223433,0.103060,0.868608,0.484663
0.186475,0.580064,0.732861,-0.469055,0.237842,0.850540
-0.153094,-0.332295,0.675476,-0.379344,0.750593,-0.541025
-0.225747,0.182085,0.620238,0.799927,-0.593519,-0.088619
-0.174304,0.130233,0.401994,0.458278,-0.878579,-0.134461
-0.173555,0.180528,0.411882,-0.337265,-0.701299,-0.628038
0.145171,-0.034867,0.447808,-0.169016,-0.978640,-0.117038
0.079371,0.059361,0.258559,0.773378,0.434215,-0.461892
-0.170760,-0.116086,0.776194,0.697399,0.716388,0.020564
-0.007084,0.368861,0.288307,0.950722,-0.122022,-0.285023
0.031303,-0.056111,0.380746,-0.327363,0.730517,0.599316
0.284577,0.495384,0.800165,0.348740,0.458097,-0.817635
-0.473930,-0.622268,0.739263,-0.100796,-0.971919,0.212636
0.394480,-0.333817,0.734425,-0.593656,0.664065,-0.454522
0.476884,-0.475107,0.662118,0.920448,-0.377220,-0.102375
0.234396,0.061171,0.723352,0.566767,0.813846,-0.128179
0.501483,-0.171723,0.537936,0.517423,0.181774,-0.836201
0.390237,-0.436725,0.793751,-0.633649,0.145516,-0.759812
-0.106300,-0.055657,-0.265503,-0.401678,0.377037,-0.834565
0.207867,-0.105792,0.524240,0.542641,0.838825,-0.043743
0.304608,0.183053,0.775745,0.217628,-0.565027,0.795854
0.198375,0.086261,-0.872990,-0.703004,0.523051,-0.481875
-0.194324,-0.491416,0.787420,0.143033,-0.631321,0.762217
0.200392,-0.325525,-0.954895,0.238654,-0.528015,0.815012
0.070354,-0.117825,-0.952866,0.841914,-0.116731,-0.526835
0.002007,-0.128257,-0.396316,0.547887,0.799762,0.245359
0.069396,-0.344527,-0.972038,-0.740383,-0.087112,0.666517
0.238599,-0.407617,-0.938318,-0.354418,0.059064,-0.933220
-0.006812,-0.888101,0.378380,-0.652176,-0.675649,0.343753
0.655180,-0.012284,-0.975395,-0.379954,0.152507,-0.912347
0.284682,0.412137,0.642279,0.733236,0.522329,-0.435360
0.078762,-0.041688,0.402169,-0.755875,-0.650859,-0.070964
0.354369,-0.700708,0.640374,-0.853240,0.521417,0.010325
-0.273535,0.423394,0.392954,0.447307,0.473310,0.758877
0.211749,-0.103313,0.516519,0.520090,0.822115,0.231589
-0.865928,-0.823825,0.518214,0.922607,-0.268713,0.276749
0.157943,-0.477026,-0.956276,0.290382,-0.094532,-0.952230
0.538262,0.460367,-0.963128,-0.515596,-0.187350,0.836098
-0.213097,0.824505,0.833837,0.866270,-0.001548,0.499573
0.010524,-1.000000,0.418756,-0.217465,0.799848,0.559421
0.141641,0.379679,0.901539,0.940907,0.300952,-0.155311
-0.002406,-0.090681,-0.971024,0.637179,-0.285003,-0.716084
-0.206116,-0.717935,0.729555,0.365730,0.690586,0.623965
0.245484,0.076072,-0.893328,-0.146707,-0.985195,0.088704
0.098725,-0.129386,-0.499843,-0.124788,0.990022,-0.065449
-0.099809,0.634260,0.805854,-0.195246,0.767361,-0.610767
-0.273442,0.525764,0.889370,0.875598,-0.053617,0.480055
0.165245,0.410461,0.824284,0.689037,-0.691816,0.215914
0.210648,-0.257039,-0.965754,-0.219768,0.060840,-0.973653
-0.085756,-0.043828,0.511297,0.392498,0.722484,-0.569176
0.309955,0.417478,-0.983002,-0.515097,-0.385479,0.765559
-0.114259,-0.184120,-0.964294,-0.170720,0.884271,0.434649
-0.080418,0.024358,0.106750,0.878909,0.014360,-0.476773
-0.073641,0.003199,-0.350806,0.688295,-0.725424,-0.003156
-0.115821,0.075137,0.494130,0.615205,0.733377,0.289276
0.495081,-0.255855,0.860598,0.287036,-0.302178,0.909010
-0.010403,-0.089416,-0.684010,0.768271,-0.601533,0.218899
0.342629,-0.401763,0.800105,0.362497,0.359879,0.859699
-0.349396,-0.517945,0.816400,0.009743,-0.365105,0.930915
-0.000949,0.243477,0.299351,0.851877,-0.299027,-0.429986
-0.121498,0.378993,0.796926,-0.304569,-0.942949,0.134479
0.177992,0.695852,0.896733,0.984387,0.175148,-0.017501
0.682807,-0.301699,0.789992,0.875668,0.129984,-0.465092
-0.042278,-0.033969,0.380068,0.511155,0.848270,0.138416
0.256461,0.342023,0.900281,-0.742031,0.522741,0.419680
0.395266,0.506092,0.754731,0.429140,0.757751,0.491581
-0.053662,-0.443088,0.689858,0.970770,-0.155448,-0.182870
-0.068485,0.332641,0.817962,-0.093681,0.616383,0.781854
-0.149684,-0.082702,-0.980760,-0.117898,-0.615327,0.779405
-0.038533,0.135345,0.629029,0.550656,-0.025124,-0.834354
-0.151496,0.179540,0.374693,0.013162,0.987675,0.155966
-0.150231,0.042612,0.061039,-0.243472,0.951521,0.187963
-0.026111,0.030236,0.288614,-0.328526,-0.937932,0.111145
0.647129,0.152228,-0.966655,0.000136,0.163151,0.986601
-0.083757,0.072308,0.628610,0.698110,-0.262627,-0.666085
0.168433,0.811859,0.891241,-0.741020,-0.456203,0.492715
0.264538,-0.381110,0.705841,-0.608422,0.586047,0.535137
-0.136049,-0.114053,-0.981206,0.694535,0.249261,-0.674900
-0.658591,-0.270902,0.449605,-0.090731,-0.985931,-0.140388
-0.624232,-0.337099,0.662906,0.946022,0.016994,0.323656
0.096486,0.265106,0.800646,0.049449,-0.832970,-0.551104
0.377627,-0.374475,0.868813,-0.089593,0.816805,0.569914
-0.014313,0.767434,0.849611,-0.470056,-0.833823,0.289457
0.149697,-0.283130,0.570890,0.536987,0.726722,0.428393
-0.155472,0.423602,0.809780,0.787167,0.610594,0.086857
0.215514,0.483934,0.598314,-0.134064,-0.567601,0.812315
-0.232580,0.204617,0.494981,-0.580539,0.729260,-0.362153
0.356074,-0.326925,0.798270,-0.501999,0.110742,-0.857749
-0.105002,0.131344,-0.992728,-0.348911,0.039216,0.936335
0.191903,0.025807,0.390945,0.078732,-0.648040,0.757526
-0.423342,0.267459,0.191055,-0.309234,0.846339,-0.433687
-0.500331,-0.647266,0.297910,0.812231,0.463008,-0.354831
0.327489,0.203115,0.396946,-0.656176,0.754192,-0.025047
-0.034449,-0.139988,-0.731486,-0.690208,-0.608728,-0.391233
0.391971,-0.328508,0.876761,-0.128877,-0.922542,0.363740
0.926600,-0.174786,0.737424,-0.499926,0.311941,0.807940
0.334661,-0.119158,0.826449,0.284278,-0.895445,0.342585
0.256825,-0.336028,-0.973433,-0.007919,-0.037555,0.999263
0.052443,0.004221,-0.079935,0.833165,0.115788,-0.540767
-0.116014,0.005656,-0.968048,0.532102,-0.302141,-0.790935
0.119177,0.252763,-0.973805,0.374226,0.381691,0.845143
0.093155,-0.050581,-0.814589,-0.248782,0.914673,0.318560
0.126160,0.307681,0.631983,0.761433,0.423385,0.490883
-0.142897,-0.020493,0.318961,-0.573056,-0.818428,0.042235
0.501082,0.187740,-0.956679,-0.731225,-0.170634,0.660450
-0.345608,0.102590,-0.082701,0.251225,0.955967,-0.151701
-0.110764,-0.088217,-0.013915,0.575728,0.803659,-0.150562
-0.238706,-0.027233,-0.139897,-0.198143,-0.643615,0.739256
-0.251166,-0.561729,0.707158,0.541017,0.409935,-0.734339
-0.182657,-0.502541,0.686556,-0.620003,0.138165,-0.772338
0.124125,-0.827040,0.418327,0.068339,-0.982797,0.171583
0.193925,0.268365,0.840483,0.299054,0.653306,0.695527
-0.037582,-0.464242,0.630948,0.056116,0.562923,0.824602
0.311786,0.453055,-0.966852,0.607529,0.037478,0.793412
0.315621,-0.038195,0.895608,0.775804,-0.630692,-0.018867
0.376459,-0.341290,0.744585,0.293263,-0.376033,0.878975
0.291554,-0.461108,0.708463,-0.545504,0.571948,0.612617
-0.039132,0.239043,-0.991874,0.045664,-0.150520,0.987552
0.042391,-0.053104,-0.047930,0.708828,-0.032007,0.704655
0.041718,0.018648,-0.470376,0.699486,0.695539,0.164148
-0.108495,0.299658,0.706676,0.139919,-0.292323,-0.946029
0.140827,-0.131862,0.538505,-0.307955,0.928183,0.208904
-0.090519,0.013850,-0.112138,0.223491,-0.703692,0.674440
0.410839,0.067262,0.822038,0.747773,0.451119,-0.487162
0.313395,0.190489,0.784772,-0.368217,-0.823941,0.430741
-0.166020,-0.554087,0.706418,-0.414373,-0.366193,-0.833185
-0.069652,0.036526,-0.964439,0.726743,-0.657264,-0.199621
0.243051,-0.134846,0.904571,-0.220212,-0.846801,0.484185
-0.107847,-0.804475,0.686090,-0.287708,-0.700297,0.653305
0.409402,0.233741,0.407333,0.007597,-0.894150,-0.447703
-0.236922,0.024654,0.550440,-0.186079,0.971509,-0.146785
0.019435,0.063470,-0.313348,-0.787903,0.519210,-0.331105
0.173310,-0.357027,0.944683,-0.391997,-0.563578,0.727130
0.471760,0.029694,0.805412,0.747735,0.658627,0.084276
-0.000704,-0.036807,0.169516,0.912511,-0.407166,0.039237
-0.557200,-0.692179,0.349416,0.979984,0.166168,-0.109630
0.453522,0.309074,0.739389,0.719920,0.587837,0.369002
0.043043,-0.356969,-0.968509,-0.552739,0.238432,-0.798517
0.334314,-0.292431,-0.943748,-0.375239,0.572618,0.728907
0.545775,0.036314,-0.967247,0.317761,-0.144188,0.937143
-0.196100,0.000347,0.785615,0.908425,0.396383,0.132837
-0.277373,0.069781,0.636838,-0.436852,0.804406,-0.402606
-0.023860,-0.177419,-0.297434,0.829159,0.556892,-0.048641
0.262225,0.637808,-0.991036,-0.069271,0.340512,0.937685
0.437724,-0.528814,0.692713,0.751555,0.435138,-0.495803
-0.176665,0.098458,0.424544,0.290494,0.936658,-0.195666
-0.098672,0.123972,0.393060,0.949594,-0.182406,-0.254949
0.940947,-0.077478,0.741213,-0.498993,0.505655,-0.703789
0.407551,0.384809,-0.971257,0.034664,0.434649,0.899933
-0.111781,0.152709,0.309011,0.788728,-0.607288,0.095442
0.100376,0.576922,0.795434,0.566079,0.575298,-0.590413
-0.804775,-0.525680,0.535623,-0.436632,0.899624,0.005489
0.198084,-0.325935,0.571650,0.277567,0.960185,-0.031640
-0.214454,-0.255135,0.144349,0.465115,-0.706941,-0.532824
0.050362,-0.427520,-0.956079,0.596172,0.756187,0.269740
-0.230958,-0.338416,0.165260,-0.604659,-0.787376,-0.120112
-0.068354,0.067584,0.135118,0.844223,0.146798,0.515498
-0.369786,0.405827,0.384549,0.827969,0.249059,0.502431
0.432795,-0.579745,0.663521,0.840117,-0.516432,-0.165835
0.358269,0.222582,0.583157,0.496420,0.822968,0.276209
-0.554089,-0.634819,0.299107,0.683012,0.692906,0.231033
-0.149613,-0.631959,0.737212,0.719134,-0.678131,-0.151606
-0.325932,-0.491036,0.211564,-0.049975,0.928701,0.367448
0.237222,0.109223,-0.956225,0.297156,0.737426,0.606548
0.134370,0.475366,0.625362,-0.485260,-0.580595,-0.653783
0.075907,0.281931,0.708618,-0.583072,0.431925,0.688090
0.425880,-0.052627,-0.954751,0.950658,0.185570,-0.248622
-0.039587,-0.045341,0.019762,-0.547132,0.780540,0.302331
0.495769,0.165779,0.399322,0.928627,-0.299105,-0.219518
0.151002,0.825118,0.927505,-0.666604,0.744195,-0.042587
-0.494557,-0.410339,0.420262,0.899456,-0.361709,-0.245246
0.127226,-0.290728,0.542621,-0.217009,0.849623,0.480674
0.268997,0.255411,0.637516,-0.102527,-0.178434,0.978596
0.630887,0.194832,0.744256,-0.531617,-0.540616,-0.652010
0.263691,0.088402,0.373342,0.850996,-0.469788,-0.234745
-0.050032,-0.006060,0.058297,0.971332,0.154378,0.180782
0.509806,0.383383,0.709010,0.531093,0.719660,0.447247
-0.403619,-0.457939,0.414962,0.847968,-0.447023,-0.284817
0.477844,0.147731,0.459412,0.686639,0.067133,-0.723893
0.029096,0.058710,0.925190,0.945071,0.012470,0.326628
-0.270431,0.174535,0.475786,-0.657670,0.573465,-0.488475
-0.454811,-0.304376,0.702313,0.258554,-0.862725,-0.434575
-0.221405,-0.518128,0.752463,-0.359451,-0.482160,0.798947
-0.076914,0.046174,0.353910,-0.450182,-0.565199,0.691293
0.074454,-0.321725,0.540775,-0.103095,-0.965145,0.240554
0.203936,0.839854,0.843506,0.910446,0.401828,0.098091
0.200160,0.465301,0.945217,0.354421,-0.931983,-0.076108
-0.059090,-0.079695,-0.296452,0.972936,0.176352,-0.149316
0.380635,-0.585911,0.815666,0.119369,-0.111835,0.986531
0.375314,0.290205,0.604047,0.767128,0.606080,-0.210194
0.244220,0.515518,0.670894,0.017298,-0.903950,0.427288
0.199007,-0.373790,0.938879,0.028319,-0.888719,0.457576
0.256556,-0.149748,0.290520,0.282448,0.829053,0.482591
-0.377842,-0.577373,0.777981,0.759796,0.506043,0.408205
-0.072106,-0.113127,0.034615,0.966651,-0.120624,-0.225912
-0.120935,0.076245,0.405594,0.257588,0.822798,-0.506608
0.073388,-0.243746,-0.949905,-0.125335,-0.852311,0.507796
-0.382649,-0.569635,0.781397,-0.697884,0.687583,0.200466
0.209721,-0.341861,0.549504,-0.286223,-0.895383,0.341124
0.094378,-0.075842,-0.944205,0.425879,0.207726,-0.880612
-0.239273,0.325300,0.553670,0.324721,0.122632,-0.937826
-0.211812,-0.010572,-0.132387,0.382991,0.900955,-0.203955
-0.138835,-0.432900,0.651910,-0.143445,-0.988997,0.036161
0.155544,0.062342,0.858843,0.852909,-0.348103,-0.389064
-0.471171,-0.356142,0.567851,-0.621908,0.764141,-0.171226
0.230563,0.322834,0.557171,-0.479193,-0.876618,0.043754
0.111590,0.629309,0.856241,0.848987,-0.233757,0.473898
0.370223,-0.451917,0.688176,0.504893,0.263690,-0.821919
-0.052587,-0.035922,-0.495593,0.462141,0.867624,0.183452
0.003680,-0.010980,-0.444667,-0.569281,-0.765677,-0.299429
0.242436,-0.425138,-0.969856,-0.658767,-0.246435,0.710842
0.141792,0.325973,0.545033,-0.646245,0.757275,0.094349
0.114584,0.001801,0.495882,0.828251,0.263872,0.494340
0.012267,0.075109,-0.182369,0.993481,-0.077695,-0.083418
-0.215827,-0.637540,0.385771,-0.609229,-0.551366,0.569943
0.051130,0.091511,0.345953,-0.380801,0.712643,0.589178
-0.130335,-0.074171,-0.970064,0.844929,-0.491656,0.210640
0.195883,-0.099488,-0.946637,0.975803,0.027925,-0.216862
-0.110340,0.024114,0.128793,0.764178,0.600829,-0.234596
-0.007067,0.032798,-0.085727,0.837052,-0.545740,-0.038870
-0.093391,0.063105,0.060044,-0.754246,-0.456501,-0.471933
0.400086,0.085112,0.806089,0.791499,0.469686,-0.391055
0.067673,-0.039667,-0.757254,0.866216,-0.359172,0.347368
0.357220,-0.028705,-0.963429,-0.318325,0.194475,-0.927819
-0.409193,-0.435446,0.808303,-0.454130,-0.113490,0.883677
-0.654434,-0.312015,0.730839,0.904931,0.074689,-0.418952
0.371882,0.405521,0.809294,-0.150793,0.306152,0.939964
-0.179899,-0.099491,0.761787,0.298990,0.613087,0.731252
0.601796,0.142771,0.504059,0.521019,0.850613,0.070687
0.204157,0.614587,0.701870,0.578342,0.560778,-0.592494
0.131925,0.333356,-0.969312,0.109536,0.696611,0.709038
0.473107,-0.357881,0.769299,-0.664197,0.718054,0.207944
-0.006191,-0.030889,-0.976429,0.310413,0.077435,0.947443
0.174044,-0.233403,0.551536,0.681672,0.622635,0.384251
0.078110,-0.496800,-0.951312,0.890462,0.453415,0.038624
0.530753,0.228004,-0.950361,-0.015446,0.161264,0.986790
-0.148742,0.417260,0.878458,-0.558821,0.734019,-0.385920
-0.056059,0.160456,0.407879,0.259336,0.134429,0.956386
0.507345,0.265541,-0.963805,0.536749,0.057546,-0.841777
0.544075,-0.095365,0.725771,0.917796,-0.385806,-0.093832
0.237758,0.385591,-0.990977,0.141061,0.328178,0.934024
0.405820,-0.371468,0.838261,0.878810,-0.302442,-0.369082
-0.277498,0.063808,0.471385,0.991047,-0.110720,0.074607
0.025550,-0.157637,-0.921852,0.398948,-0.755777,0.519271
0.109890,-0.044396,0.605998,0.663450,0.520692,-0.537321
0.030850,-0.228541,-0.301378,0.866713,0.473586,-0.156605
0.070863,0.097181,0.694312,0.236105,0.959905,0.151120
0.096096,-0.226465,-0.958633,-0.067414,0.049051,0.996519
0.041557,-0.278208,-0.975919,0.626811,0.436759,-0.645252
0.393444,-0.445465,0.931657,-0.666823,-0.741866,0.070580
0.258222,0.403579,-0.967531,0.568638,0.116809,-0.814252
0.017048,-0.333971,0.672834,0.474456,-0.879199,-0.043599
0.328454,-0.350842,0.694525,0.459304,-0.887406,-0.039378
-0.002018,0.107392,0.258408,0.598079,0.743027,-0.300352
-0.187383,0.236078,0.606121,0.975768,-0.215406,0.038436
-0.070187,0.531590,0.802091,-0.139655,0.444573,0.884789
-0.039998,0.343557,-0.983238,-0.062287,0.145506,0.987395
-0.176233,0.196092,0.152917,0.583643,0.775609,0.240399
-0.131708,0.179046,0.183908,0.900959,-0.072230,-0.427850
-0.277428,0.766385,0.852154,0.869102,0.372013,0.325988
-0.182530,-0.185369,0.340433,-0.872773,0.476124,-0.107576
0.269969,-0.229917,0.613015,0.880127,0.446890,0.160204
0.000399,0.122061,0.234770,0.977777,0.116539,0.174275
-0.072053,0.141819,0.044191,-0.545473,0.825277,0.146209
0.460655,-0.392371,0.922349,0.321523,0.804179,0.499920
-0.019946,-0.381642,0.633503,-0.424040,0.889320,-0.171171
-0.144995,-0.164768,0.362906,0.493088,-0.804938,0.330060
0.550308,0.079932,0.798452,-0.577809,0.368795,-0.728098
0.203478,-0.278719,-0.951764,0.866718,0.478874,0.139567
0.277397,-0.492882,0.632472,0.227761,0.970745,-0.076016
0.032764,0.458122,0.540375,-0.106708,-0.973681,-0.201392
0.412129,-0.233003,-0.961088,-0.760516,0.642498,-0.093867
0.263802,0.011219,0.461012,0.980500,0.195293,-0.021911
0.418309,0.457307,0.687206,-0.207815,-0.757919,0.618362
0.341087,0.312383,-0.984979,-0.273061,0.485963,0.830228
0.123650,0.412812,0.863688,0.928587,0.151644,-0.338717
0.203659,0.421506,-0.979640,0.006244,0.434202,0.900794
-0.415455,-0.622653,0.788235,0.496737,0.569268,0.655123
-0.387927,-0.429136,0.722233,0.927694,0.214037,0.305894
0.345862,-0.076667,0.931056,-0.681704,-0.476975,-0.554775
0.460651,-0.142167,-0.958598,-0.517749,0.219789,-0.826818
-0.386157,0.085124,0.686022,-0.615615,-0.416462,-0.669013
0.402425,-0.347462,0.807921,0.041190,0.911306,0.409664
0.357978,-0.110585,0.768722,-0.540923,-0.057445,0.839108
-0.027749,0.831713,0.829540,0.765526,0.614168,0.191748
-0.037603,0.055466,0.696561,0.098713,0.940308,0.325694
0.726469,0.055664,-0.976933,-0.386935,0.028902,0.921654
0.107199,0.036287,-0.962855,0.702855,0.494226,0.511601
0.564164,0.135413,-0.955810,-0.420271,-0.278058,-0.863745
0.262703,0.210548,-0.960693,0.186998,0.314017,-0.930819
-0.053986,0.426977,0.864394,-0.011262,-0.205182,0.978659
-0.111242,-0.102057,0.428217,0.450289,0.529132,-0.719207
-0.183626,-0.766111,0.293755,0.964946,0.022540,-0.261479
0.280540,-0.501098,0.637011,0.231129,0.853881,0.466332
0.125731,-0.189994,-0.946656,-0.363080,-0.173651,0.915433
0.056388,0.367643,0.546458,0.497043,0.727677,-0.472689
-0.469036,-0.674247,0.297461,0.784080,-0.013901,-0.620504
-0.186166,0.211915,0.826927,0.966777,0.187630,0.173601
0.678581,-0.278885,0.806654,0.477276,0.597410,0.644444
-0.582788,-0.479318,0.281490,0.295629,-0.614433,0.731488
0.296193,-0.275282,0.835366,0.334219,-0.937491,0.096997
0.028431,0.150101,-0.972856,-0.656541,0.324512,-0.680915
0.213034,0.595391,-0.983385,-0.085112,-0.613747,0.784901
0.287332,0.427587,-0.981486,-0.332180,0.342298,0.878913
0.049980,-0.033472,-0.613255,-0.040744,-0.825330,0.563179
0.272035,-0.174123,0.900522,0.333255,0.809282,-0.483739
0.525974,-0.312504,0.868855,-0.562328,0.570877,0.598236
-0.158860,-0.767559,0.770794,-0.168236,0.849910,0.499349
0.694875,0.154241,0.499653,0.641011,0.748492,-0.169896
-0.362601,0.046349,-0.074122,0.293385,0.950639,-0.101050
0.067237,0.225969,0.778267,-0.547160,-0.692112,0.470740
0.027642,0.020984,-0.020687,0.988975,-0.081940,-0.123349
-0.057380,0.147663,0.390274,0.418902,-0.790328,-0.447104
-0.214516,0.142881,0.478290,-0.671603,-0.682499,-0.288347
-0.162204,0.037965,0.470763,0.490313,0.868179,-0.076547
-0.001255,-0.640733,0.676833,-0.438830,0.207023,-0.874397
0.509069,0.047424,-0.964535,-0.008658,-0.014336,0.999860
-0.269942,0.000064,-0.172974,-0.227696,0.972139,-0.055683
0.046392,0.086663,0.568990,0.908715,0.417141,0.015162
0.566218,0.265551,0.718165,-0.504338,-0.497467,-0.705811
-0.054124,-0.015511,0.379948,0.568573,0.797238,0.202822
0.185732,0.090328,-0.825767,0.895078,-0.398965,-0.199153
0.285813,-0.252280,0.520383,0.040124,0.900347,0.433319
0.541263,-0.483090,0.883755,-0.614813,-0.100420,0.782253
-0.203219,0.363714,0.874689,-0.166345,-0.544866,0.821858
-0.030366,-0.171731,0.497230,0.079348,0.185898,-0.979360
-0.140598,0.086521,0.431976,-0.363110,-0.777073,0.514109
-0.095354,0.092762,0.425224,0.494855,0.844095,-0.206453
0.212423,-0.317169,0.842479,-0.086076,0.976197,0.199072
-0.641797,-0.663940,0.780527,0.788524,-0.589349,-0.175777
0.220175,-0.022462,-0.960290,-0.233136,0.470773,0.850894
0.015381,-0.028755,0.524756,0.503529,0.861054,0.071018
-0.543822,-0.520932,0.815551,-0.820533,0.526439,-0.222683
0.167970,0.196818,-0.974224,0.744734,-0.175728,0.643810
-0.767257,-0.623001,0.598200,0.842530,-0.388289,-0.373329
-0.307780,-0.076528,0.676084,0.893413,-0.443712,0.070237
0.435834,-0.229219,0.790871,0.879269,0.436279,0.191173
-0.205579,-0.021098,-0.186197,0.774219,-0.316093,0.548335
0.474102,-0.396631,0.807526,-0.684454,-0.715724,-0.138784
0.092239,0.623983,0.789406,-0.056743,-0.882856,0.466203
0.266363,0.323993,0.942503,0.880127,0.323125,0.347804
-0.643053,-0.409483,0.779649,0.990177,0.035070,-0.135349
-0.063107,-0.006117,-0.498517,0.594373,0.802405,0.053541
0.338412,0.455928,0.597542,0.979182,0.201986,0.020118
0.040766,-0.110604,-0.740374,0.965218,0.223783,0.135184
-0.065974,0.023160,-0.152561,0.097620,0.246220,-0.964285
0.313152,0.046852,0.673122,0.924552,0.367899,-0.099263
0.543545,-0.567798,0.720909,0.746270,0.203358,-0.633819
-0.084787,0.006848,-0.955803,0.793160,-0.307306,-0.525795
-0.155211,-0.318492,0.773320,-0.209368,0.318115,0.924645
0.464678,-0.342594,0.913276,0.754693,0.598762,-0.268184
0.316759,0.308914,-0.971007,0.177778,0.118901,0.976861
0.371010,0.125678,0.778294,-0.613424,0.203438,0.763101
0.071301,0.078470,0.421300,0.687444,0.571577,0.448017
-0.066424,0.005610,0.071457,0.901938,-0.422126,0.091197
0.483438,0.385956,0.793604,0.506552,0.835107,0.214479
0.135691,-0.136759,-0.558472,-0.783075,0.450711,0.428547
-0.003446,0.084637,0.057117,0.576958,-0.743152,0.338887
0.130584,-0.013061,0.349221,0.078828,-0.895168,0.438704
0.604111,-0.238952,0.928915,-0.273789,0.950398,-0.147589
0.326026,0.057524,0.791029,0.516758,0.671070,0.531626
0.148483,-0.918398,0.399403,0.484829,-0.855277,0.182870
0.432374,-0.083380,-0.955631,0.846746,-0.373758,-0.378585
-0.012464,-0.053131,-0.747332,-0.191238,0.945191,0.264654
0.080502,-0.444345,0.580004,0.146221,0.311652,0.938878
-0.195791,-0.454834,0.700790,0.777457,0.564283,0.277750
0.413447,-0.550451,0.625606,0.973908,0.181604,0.136096
0.177109,-0.485360,-0.974197,-0.181204,0.725452,0.663991
0.489089,-0.096943,0.842631,0.851305,0.504404,0.144414
-0.045071,-0.139461,-0.314917,0.698055,0.715274,0.033208
0.036872,-0.432090,-0.947874,-0.250821,-0.281068,0.926331
-0.334627,-0.650052,0.790310,0.297235,-0.929543,-0.218177
0.413570,-0.067808,0.808353,0.554279,-0.301042,-0.775982
-0.108362,0.096357,0.158778,0.732221,0.590921,-0.338623
0.400197,-0.440887,0.839789,0.936827,-0.330030,-0.115910
0.007177,0.079252,0.699162,0.222272,0.830506,0.510739
-0.304568,-0.008156,0.602503,0.953676,0.247016,0.171709
-0.167745,0.049506,0.049904,-0.311800,0.945287,-0.095982
0.140453,-0.370476,0.522509,-0.293742,-0.713457,-0.636156
-0.283253,0.295742,0.155622,0.161453,-0.575231,0.801899
0.446726,0.097737,-0.969118,-0.343207,-0.279601,0.896678
0.416699,0.390384,-0.969120,-0.343537,0.161720,0.925110
0.054232,0.200835,0.244266,0.120910,0.972790,-0.197637
0.496120,-0.278859,-0.957125,0.482631,0.013493,-0.875720
0.358662,-0.104586,0.803323,0.918859,-0.160023,0.360682
0.184696,-0.182948,0.506487,-0.679256,-0.170007,-0.713939
0.404089,0.354230,0.779633,-0.235008,-0.122774,0.964208
0.091838,-0.074072,-0.509876,0.506985,0.856972,-0.092551
-0.192624,0.080728,0.257758,-0.635682,-0.125724,-0.761644
0.456213,-0.249043,0.535198,0.467215,-0.032724,-0.883538
0.075257,0.080684,-0.962168,-0.158191,0.969243,0.188531
-0.155816,0.090380,0.105581,0.877941,0.394550,0.271200
0.587650,-0.534298,0.888402,0.977807,-0.139444,-0.156359
0.094276,-0.188689,0.504877,0.769529,0.624591,0.133087
0.484650,-0.371423,0.793500,-0.155947,0.448477,-0.880084
-0.029040,0.061212,-0.975265,0.554347,0.762149,0.334407
0.075390,-0.090491,0.413314,0.308476,0.639102,-0.704550
-0.285564,0.416899,0.858193,0.965771,-0.234048,-0.111841
-0.108491,-0.003779,-0.198853,-0.615223,-0.188019,-0.765604
0.014312,-0.068750,0.773414,0.324436,0.654239,0.683164
0.068590,0.241700,0.833081,0.649012,0.732772,-0.204520
0.055076,0.367767,0.768216,-0.258848,0.657836,0.707284
0.389594,0.297918,-0.968586,0.288322,-0.263970,-0.920429
-0.036302,-0.096084,-0.429018,0.791443,0.196686,0.578734
-0.190770,0.690573,0.849248,0.701575,0.537190,0.468209
0.443574,-0.415133,0.696164,-0.028505,-0.522504,0.852160
0.164532,-0.010400,-0.969277,0.450676,0.676564,-0.582367
-0.038708,-0.240816,-0.956673,0.062219,-0.997742,0.025293
-0.294420,-0.493323,0.235068,0.388715,0.871335,0.299460
0.023658,0.195342,0.485838,0.430124,-0.755292,-0.494498
0.146536,0.427466,0.773346,0.540961,0.106315,-0.834301
-0.025752,0.023988,-0.484947,-0.545123,0.829044,0.124606
0.050909,0.059945,0.327755,-0.077340,0.870257,0.486489
-0.072888,-0.047976,-0.480568,-0.740412,0.651238,0.166370
0.403584,-0.639381,0.662375,-0.044793,0.983727,0.173996
-0.128718,0.146839,0.385195,0.707762,0.652596,0.270540
0.485982,-0.380607,0.874111,-0.053792,0.645271,0.762058
-0.229695,0.203338,0.495388,-0.580539,0.729260,-0.362153
0.184333,0.216945,0.850762,0.425826,-0.635764,-0.643798
0.199876,0.151483,0.621719,0.123799,-0.359995,0.924704
-0.692464,-0.691110,0.595082,0.842530,-0.388289,-0.373329
-0.013382,-0.502056,-0.259539,0.919026,-0.372297,0.129559
0.405298,0.076114,0.746036,0.780946,-0.601139,-0.169571
-0.186094,0.488452,0.197761,0.831950,-0.240560,0.499991
0.221067,0.370199,0.607770,0.225483,0.970441,0.086029
0.509661,0.234157,-0.982953,0.246757,0.562979,0.788775
0.433710,0.145607,0.735809,-0.544579,0.089387,-0.833932
-0.039816,-0.123269,-0.732054,-0.582360,-0.794431,-0.172444
0.558762,0.101137,-0.975984,0.462759,0.414532,0.783593
0.027878,0.800592,0.853073,0.173130,-0.657300,0.733473
0.521210,0.404942,0.739781,-0.534963,-0.755254,0.378691
-0.109835,0.103214,0.577256,0.535286,-0.122440,0.835750
-0.055594,0.193277,0.276604,0.119640,-0.956704,0.265339
0.675454,-0.426049,0.868181,0.886323,-0.399431,0.234278
0.588766,0.286594,0.453865,0.760266,0.141827,-0.633941
0.396897,0.540256,-0.968438,0.604173,0.762059,-0.232898
-0.132945,-0.064535,-0.370300,-0.782304,-0.577783,-0.232738
0.116167,-0.848568,0.403852,0.036078,0.897889,0.438742
0.068446,0.300999,0.722404,0.808769,0.036764,-0.586976
-0.109351,-0.023431,0.762034,0.054095,0.501934,0.863213
0.106915,-0.319497,-0.264522,0.955205,-0.282331,0.088731
0.444078,0.320973,0.745056,0.785237,0.617572,-0.044799
-0.090174,0.150610,0.292682,0.789257,-0.156989,-0.593656
-0.051210,-0.063133,-0.048039,0.205452,0.179368,0.962090
0.459712,-0.541019,0.788403,-0.151979,0.639637,-0.753503
-0.340097,-0.043314,0.613890,0.784322,-0.025918,0.619812
0.424519,0.342288,-0.979862,-0.408533,-0.300571,0.861834
0.632713,-0.596862,0.815388,0.898288,-0.421777,0.123220
0.021797,-0.549362,0.675575,0.215278,0.933284,0.287464
-0.157088,0.137895,0.344955,0.935273,-0.302851,-0.183153
0.213529,0.358026,0.883803,-0.527052,-0.314778,0.789386
0.120804,-0.114438,0.413580,0.986256,0.156994,0.051489
-0.016998,-0.086868,-0.502786,0.019527,-0.089796,-0.995769
-0.076688,0.134350,0.219143,0.770888,0.171116,0.613556
0.273095,-0.090450,-0.959173,0.397882,0.892609,0.211987
0.672261,0.163010,-0.966582,-0.534230,-0.784117,-0.315846
-0.440231,0.228403,0.648203,-0.636421,0.149728,-0.756670
-0.157986,-0.022537,0.185212,0.860194,-0.353916,0.367164
0.448508,0.188573,-0.970246,0.955026,0.262865,0.137211
0.260917,0.551729,-0.996379,-0.299393,-0.316631,0.900060
-0.428668,-0.150173,0.407711,-0.550042,0.801835,0.233482
0.606942,0.159446,-0.967962,0.489374,0.452817,0.745298
-0.384966,0.048407,0.640163,0.131593,-0.928570,0.347046
0.250355,-0.099699,0.492742,0.802013,0.535069,-0.265472
0.020070,0.317341,0.302239,0.972439,0.132882,-0.191584
0.600912,0.164333,0.799387,0.190731,-0.089070,0.977593
0.140939,-0.200390,-0.947104,-0.629095,-0.480121,-0.611330
-0.287005,-0.796079,0.292347,0.561809,0.800134,-0.210135
-0.289339,0.185816,0.389720,0.790795,-0.385569,-0.475374
-0.280477,0.368746,0.198830,-0.395922,0.553933,-0.732396
-0.154772,0.124785,0.427451,0.263068,0.865133,-0.427013
-0.048832,0.093739,-0.018999,-0.214645,0.831264,0.512764
-0.484783,-0.442657,0.412644,0.847968,-0.447023,-0.284817
-0.100797,0.864911,0.800112,0.299940,0.707741,0.639640
0.771355,-0.200040,0.877939,-0.545860,0.832238,0.097040
-0.508855,-0.586582,0.732471,0.436885,0.898217,-0.048352
0.306271,-0.184989,-0.973472,-0.154730,-0.316156,-0.936004
-0.102475,0.167894,0.333608,-0.617762,0.578076,0.533102
-0.018233,-0.028700,0.257586,0.240138,-0.949650,-0.201243
-0.149617,-0.531584,0.727437,-0.597046,0.635381,0.489721
-0.115030,0.767018,0.825561,0.480324,0.672797,0.562702
-0.501066,-0.583855,0.343163,-0.579818,0.307823,-0.754358
-0.217098,0.157440,0.475662,-0.313257,-0.932982,0.177243
0.235027,0.730060,0.896621,0.978169,0.142896,-0.150884
-0.248165,0.086159,0.376601,-0.011379,-0.910328,0.413732
-0.556829,-0.482319,0.780934,-0.655372,0.549183,0.518541
-0.042233,0.191411,-0.977480,0.368859,-0.188076,-0.910258
0.335649,-0.237225,0.616966,0.415669,0.909393,-0.014985
-0.480747,-0.556572,0.763930,-0.043005,0.990276,0.132305
0.543410,-0.365433,0.790664,0.836621,-0.190862,0.513455
0.375566,0.198964,0.781895,-0.047259,-0.554422,0.830893
0.476886,0.400091,-0.985240,-0.232939,0.117816,0.965328
-0.169442,-0.029454,-0.193829,0.625011,-0.505809,0.594574
-0.140005,0.190687,0.547843,0.837064,0.092818,-0.539174
-0.268112,-0.798427,0.765602,-0.482990,-0.856586,-0.181610
-0.058312,0.121648,-0.989125,-0.399247,0.218169,0.890508
0.237228,0.201866,-0.985006,0.262211,0.259240,0.929537
0.147017,-0.323819,0.557332,0.021242,-0.971462,0.236244
0.132008,0.126752,0.773632,0.819450,-0.073127,0.568467
0.396155,-0.449691,0.726999,0.991474,0.129332,0.015894
-0.136141,-0.110469,-0.980440,0.171210,0.283752,-0.943489
-0.022789,-0.081493,-0.969793,0.422037,-0.363118,-0.830681
-0.241555,0.036574,-0.985511,-0.017945,0.204770,0.978646
0.203163,0.432659,-0.988661,0.765769,-0.004697,0.643098
-0.141599,0.139923,0.412679,-0.612105,0.277348,0.740544
0.004700,-0.003825,-0.426687,0.547825,0.804213,-0.230497
-0.650981,-0.512335,0.701758,0.742280,-0.351568,-0.570456
0.991695,-0.162998,0.760635,0.875042,0.448731,-0.181500
-0.071959,0.352866,0.861219,-0.318426,0.400305,-0.859279
0.073632,0.019575,0.298406,-0.578163,-0.729573,0.365309
0.096808,0.397758,0.834879,0.821498,0.547941,0.157806
-0.326495,-0.446803,0.755918,0.816749,0.468315,0.337049
