0.324773,0.552342,0.799497,0.952430,0.145533,-0.267762
-0.109599,0.284413,0.942685,-0.175802,-0.960519,0.215629
0.317499,0.723848,0.835952,0.633055,0.671625,0.384918
-0.786605,-0.230524,0.703959,0.919313,0.391994,-0.034701
0.197193,-0.535585,-0.629667,0.873297,-0.362708,0.325261
-0.224259,0.658092,0.884206,0.978133,-0.117844,-0.171370
-0.316108,-0.893053,0.592218,0.798072,0.404370,-0.446729
-0.079730,0.223224,0.902892,0.255743,0.847852,-0.464481
-0.127953,0.372926,0.915884,0.859929,-0.508920,-0.039021
-0.102805,0.344903,0.837987,0.321696,-0.187972,0.927997
-0.218311,0.424529,0.806148,-0.448831,0.157853,-0.879564
0.688599,-0.668307,-0.956494,-0.619272,-0.700692,-0.354306
0.222607,0.873587,0.811728,-0.171493,-0.878188,0.446514
0.714795,-0.690109,-0.971290,-0.321783,-0.934894,0.149763
0.689992,-0.559369,-0.955044,0.833898,0.298258,-0.464389
-0.506151,-0.091692,0.812588,0.035354,0.997641,-0.058851
0.100580,0.161664,0.760826,0.864340,-0.032480,-0.501858
-0.346513,-0.218820,0.533347,0.269850,-0.843784,-0.463907
-0.028140,0.167357,0.637703,0.496494,0.682362,-0.536541
-0.266238,0.259137,0.781838,-0.402697,0.761533,-0.507841
-0.033955,0.199301,0.628954,0.415102,0.834590,-0.362147
-0.052220,0.163263,0.582554,0.326661,0.900709,0.286385
-0.466491,0.155673,0.581190,0.406685,-0.884871,0.227179
0.099410,-0.050526,0.909271,0.911754,0.410584,-0.011201
0.247624,0.753372,0.728138,0.738028,0.660399,-0.138517
0.451980,-0.113462,-0.980947,0.668589,0.363353,-0.648817
0.760469,-0.481387,-0.966545,0.388140,0.767160,-0.510698
-0.129508,0.158827,0.292342,-0.283729,0.532683,0.797337
-0.027075,0.538676,0.737755,-0.847677,0.516266,0.122115
0.006964,0.175595,0.213471,-0.043570,-0.865360,0.499253
0.176230,-0.310057,0.186872,0.957920,-0.238074,0.160343
-0.584436,-0.372484,0.678176,0.812051,-0.261492,0.521723
-0.296521,0.536184,0.829250,0.813498,0.453955,0.363519
0.176958,-0.237115,-0.328744,0.500005,0.865260,0.036335
-0.052464,0.402224,0.791062,0.585101,0.777736,0.229745
-0.065627,0.342929,0.919871,-0.660217,-0.736051,-0.149473
0.023985,-0.145919,0.828038,0.814414,0.476083,-0.331776
-0.399643,0.216026,0.794992,0.856260,-0.505854,-0.104546
-0.669437,-0.223937,0.775360,0.919693,0.329406,0.213673
-0.105227,0.037903,0.317293,0.896987,0.421273,0.133951
0.002488,0.073984,0.452018,0.909479,0.200806,0.364040
-0.275907,-0.203371,0.539083,-0.597747,0.607280,0.523364
-0.123280,0.252104,0.747541,0.290409,0.379935,0.878244
-0.559713,0.535000,0.765761,0.489652,-0.742452,0.457172
-0.072927,-0.037885,0.395918,-0.418049,0.876759,0.237758
0.212624,-0.506931,-0.624562,0.550899,-0.549749,0.627922
-0.052418,0.184383,0.675324,0.735329,0.564349,-0.375235
-0.066127,-0.035584,0.712217,-0.181606,-0.817581,0.546426
0.026625,0.286864,0.926958,-0.247945,0.966085,-0.072135
-0.594107,0.437144,0.691252,0.183165,0.982249,0.040478
0.046635,0.069032,0.744857,0.777569,-0.620825,0.099810
-0.148134,0.177220,0.489168,0.323738,0.944860,-0.049334
-0.010554,0.359004,0.504570,0.420853,0.905435,-0.055405
0.694555,-0.488539,-0.948524,-0.844749,-0.086504,-0.528126
-0.173107,0.148274,0.651832,0.826010,0.549173,0.126949
0.817393,-0.614519,-0.954954,0.435831,0.669802,-0.601180
-0.016466,-0.054875,0.875662,0.116982,0.869435,0.479998
-0.600341,0.243804,0.655029,0.205652,0.130751,0.969851
0.033636,0.627278,0.778568,-0.371779,-0.819842,-0.435476
-0.032318,0.245557,0.817433,0.450189,-0.751518,-0.482235
-0.634812,0.571337,0.726052,-0.607463,-0.146557,-0.780711
-0.054201,0.162646,0.600990,-0.232926,-0.933280,0.273374
0.036874,-0.166154,-0.055957,0.900592,0.355276,0.250427
-0.337777,-0.080487,0.828268,0.091507,0.995762,-0.009227
-0.344294,0.257339,0.714225,-0.142461,-0.908653,0.392498
0.112515,-0.108870,0.679189,0.978776,-0.077036,0.189905
-0.112721,0.003656,0.231080,-0.084065,-0.956555,0.279168
-0.542295,0.099707,0.620642,-0.100711,0.578718,0.809286
0.248331,0.631623,0.701978,-0.057688,-0.543540,0.837399
-0.281068,-0.058466,0.427354,-0.153702,0.957518,0.244000
-0.099737,0.157765,0.764189,0.724648,-0.409710,0.554097
0.667968,-0.464540,-0.958495,-0.453890,0.349919,0.819476
-0.486321,-0.094732,0.811045,0.415115,-0.717002,0.559989
-0.567491,0.510005,0.744622,-0.704273,0.695822,0.140823
-0.531741,-0.561692,0.723508,0.886985,0.377172,0.266458
-0.575792,0.596790,0.764593,0.789171,-0.552551,0.268135
0.342103,0.588855,0.868795,-0.626807,0.721114,-0.295139
0.533739,-0.658689,-0.950264,-0.544866,0.508839,0.666486
0.024165,0.284261,0.504723,0.452488,-0.370678,-0.811081
-0.506358,-0.204275,0.733482,0.567413,-0.177410,-0.804095
-0.539830,-0.214545,0.664898,0.599237,-0.800304,0.020697
-0.616906,0.572988,0.784671,0.994572,0.008509,0.103700
-0.092513,0.153903,0.864354,0.802104,0.157588,0.576016
-0.010892,0.013023,0.261935,0.967541,-0.235322,0.092128
-0.215003,0.163877,0.463412,0.865259,0.179411,0.468122
0.256639,0.767277,0.838323,-0.278403,0.863302,0.420954
0.142431,0.231113,0.776506,0.512255,0.827271,-0.230691
-0.229692,-0.119670,0.339224,-0.327430,-0.832377,-0.447145
0.094702,0.001533,0.267858,0.808411,-0.334330,-0.484453
-0.094706,0.328971,0.775719,0.935005,-0.195459,0.295907
-0.144045,0.085747,0.242397,0.381840,-0.595413,-0.706882
-0.091234,-0.090040,0.172420,-0.422316,-0.891440,0.164267
0.239186,-0.481834,-0.536424,-0.390833,0.914820,-0.101751
-0.207890,0.224491,0.813067,0.920592,-0.387860,0.045552
0.837379,-0.825252,-0.955544,-0.150547,0.860625,0.486478
-0.235503,0.202566,0.490583,0.980250,-0.083066,0.179470
0.004511,0.111568,0.439638,-0.736576,0.502494,0.452720
0.037213,0.143422,0.803720,0.413562,-0.785644,0.460142
-0.399394,-0.105162,0.598485,0.969731,0.239419,-0.047972
-0.326329,0.206211,0.736497,-0.455545,-0.590921,0.665801
0.193344,-0.200883,-0.424602,0.897902,-0.414112,0.149279
-0.171328,-0.404171,0.701318,0.896807,-0.421622,-0.134061
-0.210494,0.212459,0.466836,0.938956,0.032770,-0.342474
-0.227738,0.440741,0.600877,-0.187955,0.809224,-0.556622
-0.018847,0.089582,0.426385,0.043055,-0.916889,-0.396814
0.175509,0.437445,0.608777,-0.311096,0.946661,-0.083980
0.251834,-0.303200,-0.366500,-0.019486,-0.994817,0.099799
-0.143641,0.085533,0.770717,0.812905,0.582337,-0.008313
-0.041607,0.218532,0.453033,0.659271,-0.621117,-0.423764
0.044248,-0.052721,0.821600,0.073033,0.494133,0.866313
0.455087,-0.088413,-0.977052,0.045790,-0.919984,0.389272
0.195230,0.118593,0.766021,0.776418,0.359619,0.517542
0.228015,-0.029363,0.853312,-0.774209,0.592524,-0.222521
0.712884,-0.409536,-0.967982,0.388976,0.921163,0.012474
-0.501195,0.553738,0.696901,-0.721280,0.682043,-0.120718
0.308021,0.883989,0.854879,-0.509837,-0.779609,-0.363698
-0.624761,-0.069959,0.811758,0.949668,0.311914,-0.028999
-0.514455,0.145231,0.614583,-0.533404,-0.506391,-0.677531
0.149781,0.583295,0.673724,0.305420,0.869610,0.387941
0.333653,0.677695,0.910352,0.385865,-0.876080,-0.289123
0.132253,-0.170684,-0.031200,0.932354,0.359037,0.042521
0.204152,0.024468,0.828980,0.557817,-0.607707,-0.565272
0.258277,0.652551,0.386797,0.811510,-0.431318,0.394229
0.172999,0.522244,0.658726,-0.557515,-0.564121,0.609053
-0.219461,-0.085227,0.797791,0.328736,0.740737,0.585868
-0.050317,0.537176,0.913276,-0.018256,0.966697,0.255273
-0.406945,0.245641,0.531144,0.236402,-0.940837,-0.242775
0.340484,0.724545,0.934726,-0.624505,-0.776758,-0.081494
-0.097380,-0.223813,0.645574,0.880354,-0.239834,0.409215
-0.131931,-0.402558,0.422090,0.895162,0.147409,0.420661
-0.051764,-0.144963,0.775489,0.782659,-0.155194,0.602793
-0.003467,0.042057,0.553705,0.040403,0.997029,-0.065577
0.275028,0.767880,0.858508,0.925610,-0.019082,-0.377997
-0.658765,0.343983,0.639904,0.892002,0.128236,0.433461
-0.149099,0.316037,0.468783,-0.543121,0.806796,-0.232594
0.127358,0.861803,0.663454,-0.539298,-0.718764,-0.438790
-0.124108,-0.084302,0.892709,-0.046631,-0.644196,0.763438
-0.165611,-0.024880,0.780132,0.196343,-0.094515,-0.975969
0.319130,0.430248,0.771743,-0.301941,0.701480,-0.645568
-0.229248,-0.446017,0.429835,0.876917,0.190587,0.441240
0.005862,-0.200546,0.249595,0.566073,-0.227743,0.792271
-0.049528,0.159702,0.453324,-0.699114,0.708551,-0.095891
-0.304238,0.159894,0.371528,0.341720,-0.758647,-0.554691
0.896989,-0.562444,-0.957273,0.549160,0.320779,-0.771702
-0.283241,-0.255517,0.749201,0.898514,0.412160,0.150985
-0.145982,0.405277,0.650908,0.366324,0.258200,0.893946
-0.036604,-0.054980,0.302666,0.873521,0.085519,0.479216
0.117993,0.532314,0.812576,0.882259,-0.458902,-0.105017
-0.414261,-0.291328,0.687365,-0.260933,-0.137333,0.955538
-0.607098,-0.189665,0.747634,-0.663131,-0.721915,0.197725
-0.611981,-0.277176,0.720891,0.288433,0.932679,-0.216604
0.006585,0.219399,0.849896,0.917090,-0.377808,-0.127309
0.154300,-0.227422,-0.277468,0.184809,0.975158,-0.122115
0.052464,-0.025744,0.415988,0.562862,0.770445,-0.299333
0.032656,0.142772,0.406448,0.622091,-0.782331,0.031013
-0.011652,0.423632,0.771818,0.653029,0.661741,0.368310
-0.426875,0.358839,0.732464,-0.236843,0.927363,-0.289660
0.523810,-0.338057,-0.983784,0.294103,0.310074,0.904078
0.025324,-0.163882,0.772830,-0.148117,0.988945,-0.006970
0.081235,-0.087431,0.841878,-0.790876,0.528761,-0.308103
-0.243558,0.046712,0.487524,-0.588559,0.441194,-0.677456
-0.141567,0.347497,0.871738,0.643081,0.548527,0.534383
0.007984,0.322176,0.879410,-0.800760,0.468646,0.373035
0.035353,0.378073,0.696511,-0.539960,-0.425660,0.726125
-0.254964,-0.108474,0.445940,0.974749,-0.207943,-0.081388
0.204443,-0.028614,0.829259,0.892698,-0.379724,-0.242694
-0.496898,-0.283684,0.586469,0.755630,-0.104219,0.646654
-0.229993,-0.579105,0.485980,-0.765120,-0.415093,-0.492228
0.160089,-0.264669,-0.183344,0.975188,-0.202796,0.088778
0.775355,-0.566710,-0.962734,0.021829,-0.778432,0.627349
-0.121296,-0.083899,0.243556,0.227710,0.900791,0.369763
0.783233,-0.611566,-0.934958,0.139271,-0.355350,0.924300
0.246550,0.642247,0.696156,-0.642796,-0.555846,0.527114
-0.152443,0.250140,0.537155,0.028204,0.259430,0.965350
0.063291,-0.060966,0.171853,0.854138,0.382173,0.352694
-0.083930,0.170131,0.863021,0.065981,0.832618,0.549903
-0.181150,0.574252,0.852018,-0.125603,-0.663298,0.737739
0.164610,-0.012200,0.065250,0.362148,0.864101,-0.349540
0.463150,-0.125026,-0.989052,-0.389571,-0.188514,-0.901497
0.112423,0.804426,0.724274,0.394649,0.791461,0.466735
-0.102691,0.082412,0.803483,-0.549562,-0.051176,0.833884
0.131562,-0.095038,-0.022180,0.996454,0.084014,-0.004521
0.511742,-0.284971,-0.981104,0.015039,0.385225,0.922700
0.530512,-0.419155,-0.967320,-0.551664,0.027120,-0.833625
0.849769,-0.527459,-0.973377,0.795691,0.604392,0.039825
-0.469374,0.505827,0.774575,0.961496,0.032852,0.272849
-0.476022,-0.252970,0.721238,-0.240770,0.691074,-0.681503
-0.635663,0.055736,0.821754,0.895394,0.443036,0.044604
0.277706,0.869478,0.845300,0.394552,-0.914324,0.091320
-0.425118,-0.095826,0.904049,-0.278486,-0.707269,-0.649781
-0.083244,0.193961,0.730264,0.855196,0.397620,-0.332475
0.251895,0.740842,0.915724,-0.667044,-0.666912,-0.332084
0.097181,-0.216076,0.031661,0.728710,0.591942,-0.344364
-0.229303,0.072245,0.685237,0.367167,-0.288285,-0.884353
-0.060135,-0.094760,0.374153,-0.333782,0.790035,-0.514231
-0.718365,0.448631,0.668691,0.580318,0.706934,-0.404322
0.695521,-0.765883,-0.948789,0.292926,0.348402,-0.890399
0.079747,0.654632,0.776894,-0.416114,0.838610,-0.351542
-0.501133,0.212969,0.605841,0.469121,-0.852553,0.230389
0.248482,0.632368,0.448367,0.946278,-0.203161,0.251561
-0.333385,0.205303,0.783833,0.166023,-0.712550,0.681696
-0.117996,0.484370,0.601699,0.310289,-0.893029,0.325913
-0.064126,0.051257,0.861516,0.940179,0.050207,0.336962
0.032039,0.182458,0.811000,0.406105,-0.318663,0.856465
0.103857,-0.265639,0.754056,-0.792798,0.472155,-0.385409
0.323031,0.727326,0.841191,0.649170,0.755850,0.085260
0.313772,0.664914,0.780094,0.875454,0.386533,-0.290124
0.472914,0.854972,0.678548,-0.744870,0.614162,0.260719
-0.425790,0.354956,0.601803,0.930618,-0.162356,0.328011
0.542711,-0.611376,-0.952862,-0.748891,-0.076520,-0.658261
-0.035493,-0.075723,0.857155,0.880190,0.467196,0.083628
-0.443526,-0.104399,0.719453,0.275974,0.595188,0.754711
-0.122828,0.100276,0.614543,-0.774941,-0.618963,0.127868
-0.564961,0.515183,0.789870,0.124114,-0.298022,0.946456
-0.303873,-0.029949,0.795629,0.087233,0.223731,0.970739
0.752964,-0.432382,-0.965964,-0.350557,-0.422689,-0.835730
-0.477385,0.347029,0.479861,0.300915,0.884956,0.355391
-0.277251,-0.102879,0.796368,-0.074596,0.746711,0.660952
-0.458789,-0.193743,0.731853,0.129029,0.305226,0.943498
-0.083394,0.314610,0.978635,0.631651,-0.546486,0.549882
0.088909,-0.096624,0.029473,0.527379,0.808526,-0.261069
0.311979,0.666657,0.812484,-0.072818,0.970643,-0.229237
-0.406359,-0.205138,0.810480,0.698574,-0.707817,0.104830
0.215156,0.338418,0.342995,0.551095,-0.697905,0.457409
0.834813,-0.431909,-0.952495,-0.135268,-0.982423,0.128635
-0.140435,0.067661,0.780016,-0.276785,-0.937058,-0.212867
0.206094,0.769180,0.823334,0.800750,0.572233,-0.177058
-0.538990,-0.031266,0.891832,0.848365,-0.110630,-0.517723
0.540441,-0.356605,-0.973785,0.162634,-0.215688,0.962823
-0.634175,0.534968,0.773381,0.980526,0.009569,0.196154
-0.578884,-0.233833,0.678025,0.257439,0.649085,0.715831
-0.837655,-0.257891,0.663939,0.427252,0.899385,0.092536
-0.094582,0.348941,0.812566,0.930809,0.318421,-0.179453
0.807646,-0.495615,-0.974131,0.048449,-0.502698,0.863103
-0.015766,0.382757,0.847338,-0.039521,-0.965094,0.258904
0.074050,0.514335,0.663140,0.247965,0.390700,-0.886491
0.211097,0.079764,0.764345,0.808788,0.293264,0.509762
-0.583447,-0.165368,0.732205,-0.702518,0.604432,-0.375674
0.226486,-0.510435,-0.517447,0.543143,0.826902,-0.145702
0.311656,0.482551,0.783343,-0.169738,0.969083,-0.179072
0.060370,0.679027,0.787611,-0.278487,0.650556,-0.706556
-0.459789,-0.060498,0.692035,-0.737420,0.529504,-0.419330
0.170602,-0.246972,0.184414,0.917006,-0.211348,0.338278
-0.608028,-0.263706,0.657432,-0.618588,0.566246,0.544714
-0.372251,-0.015844,0.920941,0.239375,-0.970916,0.004671
-0.277574,-0.266094,0.728911,-0.049309,-0.040102,0.997978
0.322554,0.672098,0.785456,0.960387,-0.170770,-0.220215
-0.223066,0.034152,0.791529,0.753027,-0.531143,0.388378
0.238570,0.722384,0.833972,0.789450,0.196553,-0.581494
-0.213122,0.202994,0.742339,0.395338,-0.766976,0.505426
-0.042918,0.453661,0.787736,0.760183,0.533733,0.370473
-0.354418,0.333797,0.559192,0.939738,-0.022902,-0.341128
-0.126512,0.336588,0.719084,0.882482,0.467743,0.049422
-0.194429,0.007312,0.783921,0.361971,-0.404951,0.839638
-0.575204,-0.161117,0.769266,0.733581,0.176882,0.656179
0.409231,0.809849,0.703054,0.027971,0.331077,0.943189
0.311442,-0.385815,-0.665668,0.803196,-0.443835,0.397349
-0.635381,-0.108874,0.757739,0.914811,0.191155,-0.355781
0.315611,0.708874,0.906810,0.275595,0.774604,0.569242
0.646577,-0.705335,-0.956662,-0.521701,0.770458,-0.366364
-0.601467,-0.197908,0.763202,0.162315,0.785579,0.597092
0.003014,0.155453,0.975546,-0.681083,0.075128,0.728341
-0.688168,-0.000099,0.636312,-0.212113,0.697362,0.684613
-0.105828,-0.271422,0.767596,-0.244632,0.891413,0.381495
0.240224,-0.463631,-0.551625,0.833687,-0.550330,-0.045859
0.345946,0.685637,0.923123,-0.656810,0.698603,0.283819
0.880296,-0.662420,-0.952169,-0.157053,0.641606,0.750784
-0.109652,0.010199,0.864304,-0.397325,0.321429,-0.859544
0.203579,0.418337,0.832274,-0.768143,0.164350,0.618826
-0.334474,0.323817,0.796297,0.798317,-0.071814,0.597940
0.261121,0.826740,0.897808,-0.431191,-0.883124,-0.184843
0.011113,-0.109930,0.893248,0.139065,-0.988386,-0.061267
0.165686,-0.340526,-0.462427,0.974476,-0.018080,0.223764
0.252705,0.507071,0.864451,0.952937,-0.277722,0.121577
-0.346772,0.139723,0.749711,-0.211669,0.577507,-0.788468
-0.269773,0.025785,0.817374,0.259068,0.860202,0.439246
-0.439447,-0.345740,0.765740,-0.573538,0.589211,-0.569109
0.239940,0.601243,0.807359,-0.191848,-0.604914,0.772835
0.052240,0.025817,0.772150,0.441770,-0.850894,-0.284286
-0.476474,-0.243436,0.739694,-0.386759,0.615841,0.686409
0.076177,-0.301844,-0.100391,-0.562725,-0.825695,-0.039592
0.588333,-0.572200,-0.951547,0.945035,-0.297395,0.135884
0.766411,-0.593239,-0.963378,-0.295588,0.657491,-0.693061
0.063518,0.048178,0.778294,0.001626,0.774622,0.632422
-0.641485,0.419594,0.638922,0.877998,0.298212,0.374418
-0.591220,0.409329,0.686423,0.132514,0.749542,-0.648558
0.316756,-0.438111,-0.478972,0.937163,0.337594,0.088069
0.312923,0.749680,0.854650,-0.069180,-0.993580,-0.089516
-0.011332,-0.257805,0.322448,0.859655,0.333284,0.387188
-0.283627,0.307409,0.552146,-0.393046,0.762491,-0.513927
0.152353,0.420038,0.789450,0.833442,-0.010267,0.552511
0.497347,-0.562738,-0.941447,0.620978,0.755874,0.207461
-0.083294,0.181870,0.556795,0.956277,-0.156294,0.247197
-0.033846,0.288199,0.741413,0.512056,0.130539,0.848975
-0.176499,0.265989,0.739241,-0.151744,-0.573300,0.805171
-0.061901,0.059195,0.865620,0.917435,-0.295161,-0.266819
-0.123162,0.292709,0.711635,-0.357956,-0.847798,0.391288
0.139308,-0.354798,0.706858,0.566769,-0.494529,-0.658949
0.291357,0.749226,0.946926,0.941568,-0.322536,-0.097063
-0.428437,-0.881611,0.581644,0.401994,-0.884924,0.235181
-0.096675,0.080750,0.886945,0.093455,0.396755,0.913155
-0.591470,0.488748,0.779172,-0.684284,-0.712410,0.155650
-0.782820,-0.442178,0.734119,0.275172,0.653175,0.705438
-0.212786,0.285922,0.746536,0.907306,-0.314014,0.279627
0.064494,0.027702,0.933892,0.370947,0.916361,0.150601
-0.445913,-0.214252,0.809012,0.485316,-0.857989,0.168294
-0.176550,0.105574,0.416626,0.497166,0.216917,-0.840103
-0.079059,-0.021813,0.410149,0.575442,-0.767178,0.283380
-0.306406,-0.415101,0.733751,0.317957,-0.939975,0.123893
0.139090,-0.156127,-0.251231,0.774328,-0.218952,0.593697
0.060583,-0.120147,0.191691,0.675056,0.665083,0.319319
-0.426026,0.548755,0.668577,0.635655,0.765048,-0.103174
-0.064264,0.074729,0.667425,0.888729,-0.420821,0.181854
0.142970,-0.287752,-0.368787,-0.117177,0.982915,-0.141941
-0.092964,0.052231,0.335827,0.997879,0.043430,-0.048481
-0.487226,0.491784,0.765951,-0.580618,0.595149,0.555590
-0.017107,0.002604,0.445751,-0.109042,0.941751,0.318142
-0.450118,0.595952,0.714992,0.837050,-0.191814,-0.512401
-0.433744,0.646068,0.796381,0.930733,0.171718,-0.322876
-0.502700,-0.426582,0.752579,-0.142392,0.741318,-0.655875
-0.445612,-0.161654,0.718106,0.887496,0.440015,-0.136885
0.380264,0.676254,0.559854,0.815669,-0.556120,-0.159421
-0.403344,-0.240329,0.737440,0.610341,0.548686,0.571338
0.407334,0.891797,0.673325,-0.438710,0.779709,-0.446751
0.242626,0.219250,0.319150,-0.350246,-0.722116,0.596554
-0.473783,-0.230287,0.585844,-0.520131,0.268702,-0.810718
-0.463103,-0.557138,0.712907,0.010721,0.937030,0.349085
0.313157,0.700211,0.850448,0.544657,-0.688378,-0.479046
0.121869,-0.192633,0.110326,0.786967,0.498660,0.363346
0.909187,-0.700678,-0.945078,0.170879,-0.000085,0.985292
-0.106709,0.363230,0.842255,0.687424,0.166164,-0.706993
0.073835,0.034636,0.774852,-0.365449,0.736917,0.568683
-0.394098,-0.135879,0.656178,0.364233,0.860028,-0.357331
0.735614,-0.523688,-0.959276,-0.000628,-0.118899,0.992906
0.290453,0.754784,0.934443,0.240527,0.962497,-0.125481
-0.091298,0.272132,0.894678,0.785655,-0.398328,-0.473373
-0.283846,0.394679,0.787264,0.035635,-0.906960,0.419707
-0.794817,0.043457,0.641096,-0.454930,-0.156441,-0.876678
-0.022526,-0.085239,0.313584,0.946711,0.314136,0.071110
0.134426,-0.073752,0.829685,-0.104070,-0.800924,0.589652
-0.399626,0.176892,0.363893,-0.429041,0.649509,0.627744
0.026835,0.054023,-0.018353,0.824537,0.443764,0.351016
0.555622,-0.539398,-0.956125,0.577166,0.619987,-0.531503
-0.021721,0.079415,0.566492,0.272122,0.961519,-0.037832
0.154077,-0.228832,-0.075634,-0.734813,-0.618839,0.277647
-0.229031,-0.360378,0.739823,-0.448191,0.598664,-0.663872
-0.138174,-0.421367,0.403804,0.802544,0.549743,0.231746
-0.071319,0.222618,0.739525,0.910976,0.121267,-0.394229
-0.212420,-0.000314,0.754093,-0.526356,0.833524,0.167888
0.016777,-0.177579,-0.081130,0.961015,-0.248289,0.121670
0.277800,0.365353,0.756953,0.543706,0.828146,0.136231
-0.277678,0.315162,0.778893,-0.117996,-0.213252,0.969846
-0.395777,-0.089902,0.824350,-0.255127,-0.306595,-0.917011
0.230557,0.516088,0.373285,-0.459995,0.465260,-0.756266
0.626140,-0.638415,-0.959868,-0.255442,-0.435384,0.863244
-0.795374,-0.178836,0.720107,0.689638,0.532583,0.490667
-0.131919,0.270136,0.650346,0.575051,0.079399,0.814256
-0.320937,-0.724555,0.569690,0.776817,-0.177727,0.604126
0.126677,0.183451,0.292033,0.700363,0.455282,-0.549736
-0.034148,0.291066,0.613089,-0.296880,0.950177,0.095010
0.072564,-0.202138,0.819486,0.580634,-0.248128,0.775433
-0.199888,-0.220790,0.766422,-0.230808,0.960979,0.152469
-0.230843,0.027336,0.798625,0.556969,-0.071241,-0.827472
-0.071192,0.373072,0.860129,0.485316,0.084075,0.870287
-0.237059,0.196388,0.723668,0.974660,-0.222019,-0.027320
0.030783,0.041499,0.913965,-0.070930,0.969258,0.235601
0.378258,0.470145,0.767153,0.269417,-0.220820,0.937365
-0.348487,0.154518,0.751772,0.174142,-0.264275,0.948596
0.083591,0.070625,0.205856,-0.357259,-0.310648,0.880831
-0.033870,0.007289,0.717611,-0.000542,-0.205824,0.978589
-0.027788,0.066025,0.222843,-0.397001,0.498960,0.770343
-0.856415,-0.241941,0.679551,0.254766,-0.936877,0.239490
-0.088014,0.323985,0.925701,0.036787,0.923774,0.381168
0.714822,-0.753383,-0.955707,0.723063,-0.158485,-0.672356
0.260526,0.179583,0.781750,-0.015472,-0.890039,0.455623
-0.763371,-0.320686,0.733923,-0.345483,0.564956,0.749311
-0.481967,0.575676,0.734567,0.374611,-0.852139,0.365413
-0.485481,-0.144309,0.731723,0.740483,-0.449410,-0.499715
0.011598,0.026821,0.447651,0.861823,-0.462702,-0.207770
0.093475,0.418284,0.624133,0.904393,-0.405111,0.134007
-0.584034,-0.621032,0.649244,-0.591963,-0.601394,0.536568
-0.139790,0.306040,0.469120,-0.254015,0.766307,-0.590128
-0.095239,0.150246,0.646577,0.759899,-0.052500,0.647918
-0.098131,0.164697,0.794168,-0.417951,0.477043,0.773141
0.148066,0.712752,0.645239,0.824020,0.021608,0.566148
-0.017727,0.011508,-0.017857,0.854341,0.173557,0.489878
-0.138058,-0.381851,0.386153,0.857817,0.358037,0.368728
0.321403,0.486743,0.855761,-0.779295,0.541483,-0.315430
0.134341,0.449709,0.620800,0.075750,-0.931934,0.354628
-0.252314,-0.119835,0.459385,0.901758,0.415163,-0.120305
-0.397359,0.313362,0.804289,0.861699,0.091547,0.499094
0.435612,-0.079617,-0.969766,0.343646,-0.730507,0.590142
0.582674,-0.679384,-0.941201,-0.051586,-0.242656,0.968740
0.037146,0.160939,0.905297,-0.316783,0.006056,0.948479
0.098894,-0.214860,-0.219736,0.898572,-0.437890,0.028641
-0.393585,-0.904304,0.616583,0.076122,0.354858,0.931816
-0.142711,-0.132638,0.406090,-0.498552,0.829149,0.252900
0.077654,-0.011944,0.917249,0.937714,0.284419,0.199496
0.642684,-0.311039,-0.962370,0.000337,0.174647,0.984631
0.105317,0.490162,0.637159,0.658698,-0.683664,0.314198
-0.808690,-0.063059,0.639409,-0.757160,0.647624,-0.085392
-0.023257,-0.115090,0.958362,-0.181185,-0.417133,0.890602
-0.124028,0.249476,0.891811,0.179001,-0.410171,0.894270
-0.360333,0.162053,0.344443,0.772759,-0.614284,0.159684
0.413957,-0.063847,-0.992447,-0.268097,-0.342047,-0.900626
0.654144,-0.450431,-0.976930,-0.163540,0.347212,0.923417
-0.572542,0.524059,0.790740,-0.022085,0.023793,0.999473
-0.048847,-0.255664,0.008097,0.778092,-0.452672,0.435502
-0.255839,-0.111631,0.733161,-0.707768,0.031032,-0.705763
0.183815,-0.274786,-0.334237,0.214590,0.928794,0.302146
-0.618503,0.485044,0.781819,0.852725,0.377223,-0.361336
0.466048,0.313501,0.753184,-0.231926,0.386523,0.892642
0.264342,0.489688,0.782429,0.607223,-0.306058,-0.733218
-0.112518,0.128498,0.764497,-0.394375,0.751515,0.528860
0.607854,-0.432306,-0.964388,0.766247,0.341018,-0.544585
0.414808,-0.023504,-1.000000,0.388741,0.241971,0.889005
-0.280046,0.350057,0.797596,0.459911,0.884142,-0.082307
-0.224932,0.135270,0.735939,0.257309,0.964546,0.058678
-0.621544,0.351021,0.664835,0.808627,0.439607,-0.390983
-0.556150,0.219007,0.623885,0.950342,-0.152544,0.271258
-0.429267,-0.090272,0.593529,0.785445,-0.610068,0.104369
0.602302,-0.696790,-0.949178,-0.102928,-0.941839,0.319914
0.217293,0.508283,0.470061,-0.947044,0.213331,-0.239997
-0.493670,-0.290667,0.868055,-0.711182,0.685034,-0.157951
0.249308,0.586163,0.807600,0.726076,-0.062246,-0.684791
0.076993,-0.075325,0.252546,0.672324,-0.497620,0.548046
0.138644,0.356836,0.816997,0.826105,-0.384836,-0.411646
0.244628,0.626713,0.791250,0.227372,0.149163,0.962316
-0.382075,0.596414,0.766933,0.340464,0.924700,0.170335
0.009454,-0.288650,0.349442,0.536819,-0.778929,-0.324184
-0.047110,0.477770,0.940218,0.818649,-0.570152,-0.068848
-0.493776,-0.188670,0.674277,-0.161637,-0.194494,0.967494
-0.039432,0.217151,0.840352,-0.649866,-0.538350,0.536520
-0.353177,-0.163923,0.747103,0.312526,-0.846478,0.431048
-0.474465,-0.078804,0.633873,0.472778,0.784786,0.400740
-0.340532,-0.009534,0.822530,0.175250,-0.436148,-0.882645
0.006029,0.146417,0.505963,0.998717,0.049745,-0.009524
0.193243,-0.279823,-0.360027,-0.054127,-0.997428,0.046976
-0.457608,-0.127628,0.857709,0.989893,-0.070802,0.122877
-0.086049,0.280343,0.765546,0.578603,-0.083420,0.811332
0.102697,-0.064830,0.792024,-0.733742,-0.643236,0.218792
-0.033284,-0.001377,0.871724,0.800807,0.597482,0.041524
0.148677,0.079929,0.789410,-0.060117,0.843314,0.534047
-0.110896,0.442543,0.753476,0.308981,-0.927386,0.210917
0.493786,-0.528482,-0.961553,-0.557313,-0.410040,-0.721990
0.426982,-0.542681,-0.932343,-0.306818,0.827596,-0.470051
-0.543003,-0.475040,0.604824,-0.642203,0.127472,0.755861
-0.706173,-0.347475,0.640540,0.528301,0.830156,-0.178157
-0.202058,-0.375911,0.723669,-0.307040,0.784030,-0.539466
-0.033407,0.145678,0.909846,0.851847,-0.280871,0.442118
0.012521,-0.329714,0.827680,0.977526,0.148712,0.149423
-0.193876,-0.026912,0.901789,-0.775153,-0.629611,0.052233
0.788411,-0.681536,-0.950612,-0.245042,0.039026,0.968727
-0.224851,0.414749,0.885308,-0.261648,-0.693253,0.671522
0.239746,0.480634,0.670889,0.858224,-0.483614,0.171960
-0.042985,-0.028529,0.809168,-0.311278,-0.786468,0.533455
-0.012581,0.051666,0.534894,-0.562011,-0.822600,-0.086447
-0.107462,0.178536,0.830573,0.959299,-0.007076,0.282303
-0.456169,0.190708,0.820282,0.681081,0.229988,-0.695150
-0.421241,0.013489,0.748551,0.652607,-0.125537,-0.747225
0.083265,0.724730,0.890018,-0.440782,0.879488,0.179477
-0.343999,-0.453603,0.792382,-0.265294,0.928767,-0.258864
-0.074509,0.155125,0.432893,0.068772,-0.975272,0.210034
0.274316,-0.415377,-0.705288,0.950179,-0.040367,0.309080
-0.598037,-0.458800,0.616228,0.842867,-0.503611,0.189611
-0.257677,-0.025107,0.293644,0.935513,0.065646,0.347140
-0.145042,0.207196,0.688458,-0.238746,0.954435,0.179034
-0.284548,0.111271,0.907480,0.808662,-0.411456,-0.420440
0.753544,-0.505508,-0.950519,-0.353317,0.858079,0.372650
0.058177,-0.004027,0.874702,0.917654,0.385848,0.095039
0.251894,0.661443,0.806373,0.775101,0.505247,-0.379399
0.758946,-0.789683,-0.961299,0.658090,0.076927,-0.748999
-0.431289,-0.217403,0.764642,0.886752,-0.394048,-0.241653
0.151795,-0.121099,-0.174370,0.147937,0.942035,0.301139
-0.295745,-0.754673,0.659250,-0.028963,0.994082,0.104704
0.168511,0.898675,0.655078,0.566335,0.386622,0.727865
-0.378118,-0.087137,0.830947,0.357600,-0.922701,0.144031
0.634937,-0.341387,-0.983214,0.016631,0.273008,0.961868
0.017214,0.012096,0.260748,0.048001,0.361768,0.931031
-0.268510,-0.510604,0.478737,-0.671539,-0.511087,-0.536493
0.289820,0.702072,0.836269,-0.283736,-0.559783,0.778548
-0.375884,0.240714,0.359455,0.437530,-0.735810,-0.516867
-0.237818,0.379787,0.911496,0.924292,0.378092,0.052256
-0.107405,0.118107,0.802530,0.602615,0.413846,0.682339
-0.222739,0.058254,0.829019,-0.321511,0.663554,0.675520
0.372262,-0.319238,-0.583844,-0.126849,0.853875,-0.504784
0.242391,0.104417,0.743123,0.465699,0.862302,-0.198895
-0.000408,0.179618,0.468343,0.918823,0.394671,0.000287
-0.004248,-0.184898,0.727945,-0.541991,-0.793951,0.275477
-0.345201,-0.157317,0.758560,0.408115,-0.272806,0.871217
-0.389557,-0.363613,0.735564,0.430549,-0.457921,-0.777777
-0.114714,0.211230,0.792877,-0.015266,-0.817015,0.576415
-0.444051,0.288916,0.532137,-0.389086,0.904100,-0.176675
0.245869,-0.344648,-0.698594,0.924256,-0.369597,-0.095654
-0.008170,0.027803,-0.003049,0.973163,0.229327,0.019046
-0.734402,0.282537,0.626252,-0.336633,-0.227218,0.913811
-0.442013,-0.173614,0.799775,-0.724147,-0.356458,-0.590379
-0.130654,0.052202,0.838550,-0.312813,0.703891,0.637719
0.479298,0.946504,0.654952,-0.538864,0.784388,0.307182
0.648963,-0.446106,-0.966233,0.479863,-0.275839,-0.832853
0.397341,-0.080198,-0.987202,0.835688,0.373317,-0.402814
-0.081841,0.234708,0.892756,-0.213784,-0.127857,0.968478
-0.123922,0.478583,0.797183,0.597775,-0.724084,0.344045
0.171805,-0.202205,-0.177247,0.878968,-0.066729,0.472189
-0.096236,0.237779,0.801043,0.572018,-0.599660,0.559646
-0.115518,-0.202246,-0.026152,0.645931,-0.725451,0.237683
0.035536,-0.029549,0.875030,0.478198,0.219670,-0.850336
0.053714,0.736163,0.663895,0.943394,0.181879,0.277359
-0.232424,0.266782,0.710283,0.205234,0.962655,0.176563
-0.127032,0.129000,0.781563,0.809469,-0.522877,0.267130
0.334636,0.390757,0.763156,-0.059299,-0.488285,0.870667
-0.242075,0.143091,0.775480,0.265799,0.962160,-0.059994
0.225668,-0.207104,-0.437980,0.923128,-0.233845,0.305208
-0.083935,-0.045062,0.336679,0.479675,0.720438,0.500881
0.214495,0.652811,0.681840,0.904776,0.372373,-0.206684
0.144060,0.781170,0.781720,-0.075284,0.992591,0.095370
-0.498868,-0.067265,0.684458,-0.494623,-0.488926,0.718540
-0.156706,0.183602,0.770867,-0.655256,0.707106,0.265782
0.180918,0.573687,0.710926,0.931133,0.236186,0.277864
-0.135164,0.351790,0.932588,0.778340,0.620108,0.098254
0.118926,-0.200962,-0.191601,-0.339427,-0.633548,0.695274
-0.364471,0.149546,0.760584,-0.420915,0.788507,-0.448427
-0.263393,0.296552,0.864289,0.837536,0.513224,-0.187444
-0.448947,-0.150704,0.692503,0.838359,0.314713,-0.445097
-0.089230,0.197521,0.788544,0.375210,-0.828290,-0.416117
-0.501707,0.449414,0.765658,-0.430389,0.876383,0.216143
-0.169349,-0.019741,0.928838,0.024718,-0.998424,-0.050386
-0.180491,0.712766,0.877853,-0.683640,-0.722287,0.104587
-0.444741,-0.037151,0.824148,-0.327974,0.915512,0.232959
-0.197475,0.034256,0.778346,0.418798,0.128167,-0.898989
0.537531,-0.520664,-0.963517,0.112341,0.885071,0.451696
-0.074674,-0.336402,0.357482,0.574256,-0.775997,-0.260880
-0.175954,0.382454,0.878459,-0.392046,-0.829732,0.397296
-0.377047,0.318142,0.822229,0.691524,0.678903,-0.246750
0.775929,-0.514643,-0.953117,0.994291,0.064721,0.084836
-0.147052,0.058132,0.839754,0.938187,-0.185103,-0.292475
0.074152,-0.135797,0.020877,0.748833,0.488524,-0.447876
0.276392,-0.346076,-0.479897,0.795770,0.568281,0.209302
-0.010622,0.257144,0.477400,0.936724,0.267124,-0.226259
-0.085918,0.061267,0.675621,0.953604,-0.259909,0.151941
0.550032,0.649461,0.658791,-0.452631,0.539697,-0.709826
-0.241943,0.100013,0.808362,-0.545232,0.333272,-0.769189
0.128004,-0.312305,0.233645,0.647632,-0.761613,-0.022758
-0.352628,0.335668,0.856043,0.466432,-0.802978,0.371037
-0.773220,-0.213714,0.708766,-0.637486,-0.732719,0.238190
0.566127,-0.363181,-0.972375,-0.365969,0.372282,0.852920
0.472387,-0.559441,-0.946648,-0.597547,-0.686495,-0.414322
-0.387734,0.045572,0.815343,0.291652,-0.396000,-0.870703
-0.027829,0.101462,0.404240,0.440641,0.893147,0.090130
-0.106539,-0.135456,0.834496,-0.011486,0.849785,0.527004
-0.158204,-0.479509,0.423128,-0.924865,-0.032204,-0.378929
-0.040776,-0.206188,0.356566,-0.656820,-0.614313,-0.437272
-0.036423,0.035510,0.926028,0.643460,0.552304,-0.530018
0.024654,0.207406,0.717127,-0.254292,-0.488729,0.834553
-0.500574,0.031043,0.868854,0.110388,0.735264,-0.668731
0.258815,-0.401328,-0.595632,-0.296005,-0.953379,-0.058729
-0.022779,0.129621,0.881282,0.757300,-0.449040,0.474194
-0.298154,-0.071273,0.850517,-0.061771,0.882126,0.466946
-0.486643,-0.193151,0.870678,-0.324387,-0.228579,0.917892
-0.271232,-0.123389,0.446917,0.993276,0.110939,0.033104
-0.624103,0.230951,0.639610,0.500725,-0.019467,0.865388
-0.536034,0.159650,0.669885,-0.206005,0.911185,0.356795
-0.306169,-0.717089,0.570621,0.809316,-0.225232,0.542474
-0.506209,-0.229775,0.730742,0.473215,0.299869,-0.828340
-0.453953,0.433674,0.406262,0.975652,0.066229,0.209085
0.766657,-0.770833,-0.954351,0.127463,-0.256086,0.958213
-0.560536,0.120304,0.610467,0.262484,0.640267,0.721915
-0.451142,0.224707,0.539777,0.015583,-0.981908,0.188716
-0.604347,-0.099792,0.767301,-0.715115,-0.576254,0.395654
-0.161150,-0.118197,0.269445,-0.695081,-0.516400,-0.500193
-0.001069,0.133924,0.896295,0.867487,-0.309770,-0.389241
-0.616212,0.602208,0.830011,0.265981,-0.910666,0.316135
-0.486731,-0.134936,0.709543,0.689545,-0.699512,0.187644
-0.466957,-0.269271,0.765844,0.747888,-0.536481,0.390963
-0.430151,0.336628,0.727893,-0.023911,0.997762,0.062445
0.390316,0.690725,0.885133,0.475495,0.857936,0.194552
-0.131206,0.312542,0.872469,-0.123838,-0.942530,0.310325
0.054113,0.207383,0.487255,-0.529724,-0.588187,0.611088
0.144708,0.438093,0.681149,-0.696841,0.644696,-0.314292
-0.009266,0.175483,0.585219,0.864781,-0.501485,0.025826
-0.282788,0.166126,0.811357,0.498576,0.858592,-0.119336
-0.171509,0.657198,0.902840,0.964994,-0.262241,0.004019
0.143016,0.032199,0.278265,-0.488472,0.854029,-0.178971
-0.230938,0.239180,0.717499,0.812978,-0.158828,-0.560215
-0.380554,0.349839,0.801486,0.492797,0.399527,0.773000
0.555931,-0.524091,-0.980921,0.389735,0.160441,0.906844
-0.224293,0.432504,0.913090,0.694089,0.638035,0.333394
-0.035930,-0.094758,0.771940,0.992844,-0.117957,0.018617
0.032535,-0.170011,0.628364,0.911151,-0.409028,-0.050008
-0.267102,-0.089251,0.418466,-0.010569,0.993214,0.115819
0.831640,-0.631071,-0.957969,-0.094526,-0.045384,0.994487
-0.644266,-0.221957,0.757966,0.931321,-0.177592,0.317965
0.173118,0.476768,0.684624,-0.799520,0.574647,-0.174782
-0.019532,0.008777,0.113580,0.001646,-0.948959,0.315395
-0.028165,0.068199,0.324037,0.622402,0.763065,-0.174205
-0.411832,-0.288479,0.579561,0.895111,0.443415,0.046476
-0.921949,-0.479620,0.770359,0.005586,0.959861,0.280420
0.097166,-0.082432,0.860856,-0.563359,-0.823677,-0.064678
-0.021505,-0.284067,0.816794,-0.687079,-0.096737,0.720114
-0.696363,0.098862,0.624618,-0.241794,-0.208949,-0.947563
0.161647,-0.268911,-0.327736,0.944773,0.213924,-0.248276
-0.022452,0.430744,0.569765,0.043381,-0.707715,0.705165
-0.069312,0.091811,0.674445,0.884269,-0.439330,0.158294
0.654165,-0.390703,-0.946967,0.499325,-0.488062,-0.715870
0.165251,-0.120091,0.108229,0.800915,-0.162860,0.576205
-0.138319,-0.083631,0.400555,0.441630,-0.832244,-0.335161
-0.205072,-0.189016,0.464691,-0.717542,-0.696293,0.017590
0.243397,0.715757,0.965804,-0.619541,-0.382855,0.685267
0.067634,-0.055927,0.708960,-0.227307,-0.770209,0.595911
-0.166640,0.017621,0.844816,0.018691,0.589739,0.807377
-0.035277,0.034340,0.355964,0.893674,0.258414,-0.366837
-0.027607,-0.027392,0.895230,0.767639,0.617181,-0.172676
-0.003587,0.255414,0.494780,0.833899,-0.477177,-0.277335
0.249987,0.704453,0.960676,-0.619541,-0.382855,0.685267
0.302121,0.490929,0.784065,0.927074,0.188256,-0.324181
-0.278340,0.342484,0.829736,-0.563920,0.223083,-0.795128
-0.366015,-0.238340,0.881084,0.711918,-0.614794,0.339414
0.877863,-0.845024,-0.953228,-0.575147,0.745487,-0.336832
-0.580353,-0.404776,0.688698,-0.701443,-0.664246,0.258370
0.281548,0.894580,0.857810,-0.066563,0.982610,0.173339
-0.494591,-0.179083,0.728695,0.179310,0.536606,0.824561
-0.017892,-0.345728,0.368023,0.549338,-0.789022,-0.275084
-0.523571,-0.176790,0.599493,0.218950,0.971288,-0.093061
0.619389,-0.485314,-0.954728,-0.776859,0.406578,-0.480816
-0.393940,-0.817074,0.603612,0.905275,-0.332983,-0.263817
0.778468,-0.757258,-0.960601,-0.800595,0.337363,0.495210
-0.100729,0.375918,0.918398,-0.767427,0.302064,0.565520
0.187846,0.656680,0.761706,0.208894,0.569285,0.795159
-0.031978,-0.040399,0.377997,0.358616,-0.823630,0.439350
-0.281807,-0.697778,0.647989,-0.427802,-0.428623,-0.795781
-0.138257,0.240014,0.769533,-0.256695,0.420802,0.870077
0.041242,0.138974,0.839175,-0.566684,-0.256221,-0.783084
-0.670611,0.628292,0.825791,0.242071,-0.762127,0.600470
-0.221774,-0.036576,0.685695,0.094560,-0.760626,0.642267
0.717766,-0.864066,-0.964675,0.347091,0.258279,0.901565
-0.061851,0.249991,0.776866,0.700845,0.712668,-0.030341
-0.200482,-0.231107,0.825893,0.149519,-0.931813,-0.330709
-0.006680,0.238319,0.035894,0.783883,-0.569069,0.248370
0.063036,0.144907,0.868930,0.956271,-0.275795,-0.097380
-0.185765,0.731285,0.900112,0.643665,0.765273,-0.007185
-0.611128,0.393697,0.667484,0.882718,0.238816,-0.404691
-0.348792,0.190539,0.769904,0.645183,-0.570942,0.507704
-0.478436,0.515729,0.753627,-0.159215,0.720796,0.674614
-0.152198,0.238186,0.813720,0.246205,0.581154,0.775657
0.076362,-0.051963,0.830080,-0.224372,-0.945214,-0.237126
-0.094182,0.062591,0.036651,0.090578,0.933417,-0.347171
-0.744223,0.324165,0.708900,0.321853,-0.738947,0.591919
-0.597152,0.491693,0.732112,-0.734400,-0.677652,0.038005
-0.401191,-0.346510,0.701648,0.833402,-0.458046,0.309248
-0.429214,-0.149916,0.797831,-0.666007,-0.696424,0.267261
-0.101342,0.219006,0.676894,0.061616,-0.938778,0.338968
0.127232,0.126492,0.696817,-0.500524,-0.789583,0.355013
0.132615,0.834714,0.659441,0.327085,-0.943549,0.052254
-0.178960,-0.011226,0.959094,0.150543,-0.905622,0.396467
-0.256282,0.054602,0.239200,0.688818,0.498562,0.526275
-0.500296,-0.051733,0.727315,-0.720005,-0.666607,0.192943
0.012772,-0.048041,-0.004589,0.815658,0.538004,0.212728
-0.193092,0.192915,0.507079,0.488225,0.863180,-0.128675
0.140751,-0.221752,-0.214010,0.711367,-0.701043,0.049958
0.085077,-0.305754,-0.224790,0.801957,-0.597379,-0.001888
-0.553906,0.607381,0.774943,0.830167,0.060633,0.554208
0.299218,-0.498784,-0.628522,-0.373033,0.770533,-0.516842
0.648154,-0.667740,-0.952484,-0.347656,-0.179270,-0.920325
-0.021598,-0.121437,0.715968,-0.753120,0.007345,-0.657842
0.298481,0.732017,0.423888,0.926479,-0.267518,0.264709
-0.584205,0.521183,0.786010,0.840097,0.113370,-0.530457
-0.629156,0.440147,0.684594,0.858648,-0.316802,0.402939
-0.464390,0.332034,0.542781,0.297264,-0.907846,0.295720
0.314293,0.718664,0.682552,-0.727739,0.348189,-0.590898
-0.515845,-0.226043,0.627076,0.862629,-0.420075,0.281794
-0.127145,0.500472,0.821794,0.999640,-0.008532,-0.025447
0.005721,-0.194952,0.242562,0.986491,0.068615,0.148750
-0.094969,0.236983,0.673126,-0.232326,-0.161176,-0.959191
0.281885,0.448858,0.749487,0.820153,0.551877,0.150930
-0.055914,0.330209,0.740160,0.784067,0.611083,-0.108705
-0.088706,0.058210,0.480467,-0.297749,-0.936952,0.182939
0.002465,0.568100,0.751904,0.975975,-0.177446,-0.126432
-0.351138,-0.598284,0.651532,0.038777,0.740201,0.671267
-0.200529,0.268844,0.873639,-0.245212,0.466816,0.849679
0.086696,0.316854,0.637143,-0.789622,0.528126,-0.312378
0.112383,-0.208532,0.857092,0.845404,0.015104,-0.533914
-0.366181,0.193313,0.364437,0.221554,-0.678585,-0.700311
-0.228231,-0.309485,0.740481,0.821782,0.201044,0.533156
0.144683,0.455867,0.712549,-0.654434,0.386132,-0.650091
-0.012460,0.203164,0.454712,0.819373,-0.572930,0.019477
-0.827727,-0.174985,0.645522,0.689686,-0.488006,-0.534961
-0.076320,0.128219,0.565563,0.791475,0.557332,-0.250895
-0.191483,-0.073252,0.444234,0.783042,-0.602669,0.153735
-0.355394,-0.029677,0.521781,-0.111121,0.982530,-0.149289
0.595391,-0.557453,-0.958522,0.176722,0.376030,0.909599
0.736769,-0.492077,-0.972414,-0.258312,0.942090,-0.213873
-0.131505,-0.090434,0.371750,-0.553715,0.501640,-0.664648
0.005714,-0.037843,0.836215,-0.241627,-0.969040,-0.050774
-0.169774,0.274957,0.478671,-0.279691,0.896811,0.342788
-0.076280,0.098211,0.548953,0.861495,0.502117,-0.075524
-0.481960,0.318311,0.492032,-0.466037,0.871167,0.154526
-0.389743,-0.131896,0.559187,0.785460,-0.511142,0.348978
-0.685088,0.541103,0.699434,0.807320,0.301829,0.507084
-0.145378,0.335707,0.735952,0.356452,-0.658196,-0.663114
-0.057729,0.079244,0.455160,0.634423,0.720586,-0.279756
-0.296889,-0.546330,0.575121,0.959943,0.237540,0.148607
0.502006,-0.508130,-0.971633,-0.486359,-0.287987,-0.824936
0.853493,-0.796980,-0.973695,0.447667,0.310182,0.838678
-0.552965,-0.137139,0.756867,0.800630,-0.594341,-0.075829
-0.378319,0.311925,0.825780,0.274011,0.814601,-0.511218
-0.015010,0.040866,-0.018982,0.839411,0.228673,0.493049
0.358138,0.812332,0.774393,0.970523,0.205147,0.126488
-0.012409,-0.000251,0.860216,0.405125,0.829552,-0.384341
-0.330889,-0.194692,0.695876,0.449298,0.739647,-0.501052
-0.799729,-0.305625,0.711390,0.872647,0.429212,0.232947
-0.551575,-0.245337,0.714917,0.846643,-0.358648,0.393150
-0.445792,-0.061545,0.799067,0.978104,0.162986,-0.129417
-0.075484,0.223049,0.776099,0.772579,-0.447740,0.450167
-0.604436,0.514639,0.702488,0.770344,0.575140,-0.275288
-0.057220,0.300418,0.949802,0.659502,0.279927,-0.697637
-0.125994,0.144477,0.762013,-0.807882,0.588784,0.025698
-0.217342,0.228440,0.724432,0.507108,0.080518,-0.858113
0.581558,-0.217965,-0.960550,-0.204171,-0.179388,0.962359
0.025525,0.244857,0.884633,0.964756,0.162548,0.206937
-0.625458,0.529160,0.771559,0.769344,-0.181221,0.612592
-0.313420,-0.197870,0.923127,0.955515,-0.271725,-0.114704
0.416655,0.779270,0.681543,-0.456672,0.734279,0.502280
0.145011,-0.262028,0.802398,0.267065,0.179535,-0.946807
-0.064521,0.339729,0.925075,0.508650,0.832733,0.218705
0.019774,0.602764,0.852367,-0.620051,0.026500,0.784114
0.000122,-0.063011,0.338509,-0.786623,0.615763,-0.045390
0.252603,0.712795,0.941779,-0.752526,0.001549,0.658560
-0.640616,-0.550942,0.655524,0.940648,0.308107,-0.142309
-0.093315,0.208722,0.536925,0.918124,0.192102,-0.346619
-0.505462,-0.060337,0.770771,-0.037629,-0.913477,0.405146
0.003725,0.147076,0.847893,-0.047774,-0.309142,0.949815
-0.120286,0.262031,0.779712,0.826629,0.513903,-0.229320
-0.652739,0.534368,0.703260,-0.455106,-0.372958,-0.808567
-0.016386,0.106622,0.353588,0.616511,0.779376,0.111752
-0.605164,0.447217,0.704084,-0.600066,0.454009,0.658633
-0.398602,0.022420,0.660711,-0.456795,0.469687,0.755468
-0.485471,-0.054813,0.852402,0.766215,0.481167,0.425902
-0.141690,0.421988,0.776888,-0.025378,0.963900,-0.265052
0.134390,-0.038214,0.368475,-0.775605,0.414457,0.476091
-0.272656,-0.028691,0.312264,-0.260442,-0.929755,-0.260241
-0.152445,0.149467,0.517631,0.295107,0.952123,0.079835
0.592262,-0.484858,-0.977770,-0.349044,0.178143,0.920018
0.052075,0.767611,0.800446,0.508364,-0.801876,0.313945
-0.257374,0.399378,0.694905,0.940150,-0.165986,0.297602
0.411102,0.882128,0.681055,0.271519,-0.859085,0.433877
-0.325470,-0.984236,0.610899,0.431241,0.605135,0.669210
-0.689056,0.521126,0.737110,-0.194852,0.714064,0.672418
0.820849,-0.926445,-0.949860,-0.420147,0.425227,-0.801660
0.043358,-0.086829,0.734384,0.899005,-0.429883,0.083611
0.027158,-0.416173,0.830395,0.989845,-0.015927,-0.141254
-0.295241,-0.782544,0.585673,0.996449,-0.026922,0.079777
-0.471576,0.307743,0.760256,0.946361,0.228243,0.228706
-0.349749,0.448326,0.622676,0.809378,-0.420527,0.409956
-0.765714,-0.321323,0.696769,0.742043,0.627497,0.235839
-0.052525,-0.232847,0.790354,-0.153855,0.413899,0.897227
-0.028411,0.084831,0.665313,0.960504,-0.107242,0.256771
-0.379288,0.347849,0.830713,-0.300731,0.427335,0.852611
-0.078942,0.413824,0.752666,0.995550,-0.030111,-0.089290
0.250922,-0.064469,0.210101,-0.051961,-0.829614,0.555915
-0.149484,-0.364947,0.879989,0.276113,0.773773,-0.570120
-0.079598,-0.184464,0.385013,0.967032,-0.146802,0.208083
-0.426602,-0.104901,0.777454,-0.450100,-0.844144,-0.291256
0.132161,0.345535,0.731216,-0.706535,0.679020,0.199349
0.329139,0.520856,0.771124,0.727397,0.652645,0.212010
-0.061477,0.075740,0.920157,0.953749,0.249944,-0.167004
0.441256,0.719959,0.703949,0.273126,-0.619390,-0.736042
0.471486,-0.645238,-0.934184,0.316373,0.023361,0.948347
0.105141,0.717076,0.794281,0.549260,0.542044,0.636005
-0.099209,0.426926,0.812360,0.706995,0.311148,0.635095
-0.787563,-0.257677,0.696789,0.895448,0.359463,0.262601
-0.378131,-0.221460,0.690038,-0.402550,0.000210,0.915398
0.236741,0.831745,0.892692,-0.160914,-0.986595,-0.027152
-0.525902,-0.044579,0.634145,0.815285,-0.034980,0.578002
-0.144358,0.065283,0.719355,-0.147737,-0.875751,0.459603
-0.522847,0.586349,0.748906,-0.120374,0.807060,0.578069
-0.431550,0.580037,0.776571,0.384039,0.799426,-0.461987
-0.260447,0.018650,0.750242,0.702427,0.316650,-0.637440
-0.270728,0.008086,0.933843,-0.303015,0.952900,-0.012743
0.233532,-0.019599,0.801870,0.652802,-0.731757,-0.195912
-0.659776,-0.022278,0.703889,-0.709402,0.387471,0.588740
0.686762,-0.488595,-0.965476,0.398726,0.815174,-0.420130
0.069635,-0.046754,0.077825,-0.257310,-0.907020,0.333327
0.017005,0.189700,0.581222,0.791098,0.592567,0.151749
-0.251071,-0.119627,0.282790,0.761612,0.611896,0.213378
-0.620746,0.492520,0.695086,-0.163319,-0.774206,0.611499
-0.426862,-0.202838,0.758396,0.967491,-0.040505,-0.249640
-0.094496,0.193443,0.922524,0.684606,0.727770,0.040815
0.215869,-0.230413,-0.003165,-0.516036,-0.846971,0.127854
-0.202976,0.125840,0.717899,0.869110,0.245742,0.429253
-0.556866,0.038614,0.745143,-0.163510,-0.074113,-0.983754
-0.467655,-0.074556,0.735878,0.797728,0.522120,-0.301698
-0.442438,-0.217047,0.731391,-0.041423,0.632568,0.773397
0.298012,-0.470829,-0.596148,0.394233,-0.849916,0.349606
-0.022196,-0.071435,0.743704,0.695692,0.158694,0.700592
0.196045,0.252461,0.791501,0.478468,0.769898,-0.422287
-0.495320,0.240918,0.532090,0.012536,-0.999915,-0.003605
0.375461,0.782900,0.684571,0.656587,-0.709424,0.256147
-0.550004,-0.052527,0.745688,0.521443,0.088201,0.848715
0.301525,0.731089,0.864709,0.197522,0.978760,-0.054896
0.051878,-0.050272,0.306152,0.719750,-0.559009,0.411665
-0.164596,0.110135,0.784318,-0.111248,-0.037247,0.993094
0.012395,0.122613,0.697423,0.854497,0.026527,-0.518779
-0.059024,0.221148,0.548090,0.996563,0.080471,0.019681
0.169949,-0.247222,0.114020,0.865078,0.467851,-0.180983
-0.431035,-0.087752,0.842652,-0.187103,-0.978975,0.081246
-0.576232,0.442617,0.679297,0.976438,-0.189578,0.103101
-0.137596,0.105935,0.691926,-0.129386,-0.627580,-0.767725
0.075703,0.304681,0.777605,0.988167,0.078418,0.131824
0.338441,0.794630,0.933749,-0.465100,-0.885232,-0.006835
-0.376685,-0.180719,0.920219,0.901498,-0.067310,-0.427516
-0.330566,0.200428,0.829561,0.224573,-0.181415,0.957421
-0.261689,-0.215659,0.738105,0.016736,0.805553,0.592288
-0.648422,-0.235523,0.712504,0.197647,-0.979968,0.024445
0.236733,0.578368,0.859128,0.884914,0.358712,-0.297075
0.145227,0.061712,0.381224,0.812678,-0.535505,-0.229758
0.668696,-0.639066,-0.957011,-0.542521,-0.622764,-0.563769
0.045882,-0.254799,0.693751,-0.482376,-0.843518,-0.236199
-0.199355,-0.177646,0.443630,0.559970,-0.663222,0.496558
0.451501,0.551744,0.820046,0.933804,0.247296,-0.258564
-0.074759,0.181938,0.948422,0.928338,0.304430,0.213332
0.336215,0.559645,0.860283,-0.604950,0.677623,-0.418166
0.033560,-0.192485,0.317326,0.930732,0.318621,0.179492
0.177927,0.621847,0.725221,0.847283,0.507527,0.156615
-0.045299,0.255776,0.865696,0.049499,0.237864,0.970036
-0.264053,0.136980,0.731181,-0.257473,0.964768,-0.054134
-0.444116,-0.216067,0.588611,0.358070,-0.528936,0.769424
-0.613347,0.614841,0.810143,0.909808,0.207339,-0.359528
-0.089694,-0.418512,0.406087,0.983603,0.139757,0.113985
0.271927,0.699574,0.798448,0.343422,0.533861,0.772692
-0.010922,0.142216,0.877061,-0.767496,-0.641000,0.008301
-0.642096,0.405368,0.700469,0.449211,-0.790357,-0.416587
-0.164892,0.288823,0.960816,0.958508,-0.016321,-0.284598
-0.568098,0.500760,0.765742,0.114632,-0.922579,0.368385
-0.621169,0.447502,0.770489,-0.179204,-0.151321,-0.972105
-0.500219,-0.288649,0.870530,0.777968,-0.606649,0.163533
-0.448970,-0.224897,0.672835,-0.186298,0.230382,0.955101
-0.203775,0.297062,0.484653,0.898697,-0.438567,0.001495
-0.098671,0.205918,0.796035,-0.085560,0.872006,-0.481960
-0.175923,0.192814,0.775686,0.709864,-0.588377,-0.387176
-0.072634,-0.061956,0.782091,0.587380,-0.181275,0.788749
-0.430961,-0.074500,0.887655,0.354871,0.910483,0.212337
0.443978,0.842985,0.693093,0.057900,0.762607,0.644265
0.251647,0.630926,0.814201,0.948330,0.072245,-0.308951
0.084513,-0.144888,-0.090358,0.760122,0.561444,-0.327101
-0.574840,0.537003,0.796226,0.777285,0.462300,0.426741
0.192021,0.132897,0.766447,-0.628676,-0.215525,-0.747206
-0.612141,-0.042930,0.797337,0.983860,-0.152549,0.093531
0.420728,0.704955,0.859351,0.928587,0.241910,-0.281435
0.201065,0.164842,0.772473,0.553518,0.548946,-0.626319
-0.327523,-0.209083,0.921818,0.900128,-0.328239,-0.286405
