0.198336,0.525308,0.448614,-0.803627,0.213549,-0.555500
-0.462259,-0.537177,0.662881,-0.208738,0.765651,-0.608447
0.291570,0.170750,0.664024,0.965846,0.143675,-0.215636
-0.001671,-0.275582,0.169435,0.481905,-0.817622,0.315058
0.376379,0.486393,0.866081,0.467426,0.784295,-0.407914
-0.726048,-0.404959,0.485678,0.008560,0.292248,0.956304
0.480811,0.092073,0.843426,0.309333,-0.943356,0.119971
0.419035,-0.407927,0.552500,-0.088617,-0.521392,0.848703
0.149797,0.523357,0.901510,-0.264179,-0.038939,0.963687
-0.401585,-0.243747,0.458162,0.460356,-0.346078,-0.817497
0.152704,-0.291818,-0.175988,-0.344084,0.936841,0.062732
-0.653506,-0.398346,0.573375,0.915012,0.266065,0.303253
-0.309587,-0.089529,0.407514,-0.312773,-0.305899,0.899221
0.056362,0.140484,0.512499,-0.661235,-0.376384,-0.648925
0.247610,0.034168,0.596218,-0.074426,0.966996,-0.243680
0.451762,0.480627,0.418827,0.375424,-0.602437,0.704363
0.005750,-0.323019,0.453171,-0.458461,0.863649,0.209582
0.343518,-0.371004,0.793834,0.006496,-0.076353,0.997060
0.539346,-0.065621,0.675945,-0.657653,0.695031,0.290560
0.387778,-0.011997,0.836482,0.337747,0.934632,-0.111306
-0.232700,-0.378677,0.764756,0.573647,-0.282326,0.768909
0.582303,-0.022466,0.734434,-0.521471,0.824322,-0.220365
0.040182,-0.332259,0.779917,-0.593360,0.739385,0.318174
-0.645717,-0.489784,0.542909,-0.028812,-0.328436,0.944087
0.481982,-0.007206,0.855868,0.533868,-0.046307,-0.844299
0.306178,-0.201823,0.884989,0.261775,0.588007,0.765324
0.413251,-0.191819,0.844222,0.590759,0.530451,0.607969
-0.332821,-0.374819,0.817661,-0.436188,0.898520,0.049012
-0.077556,0.374650,0.419218,-0.436805,0.783976,-0.441115
0.068162,-0.262441,-0.990177,-0.106462,0.136573,0.984893
-0.050445,0.501908,0.431225,0.359605,0.103679,-0.927327
0.354617,-0.598643,0.405387,-0.036114,0.385716,0.921910
0.158087,-0.083722,0.419218,-0.303557,0.527277,-0.793620
0.129773,-0.057397,0.260402,0.821068,-0.536699,0.194424
0.052149,0.387452,0.661145,-0.266749,0.377847,-0.886609
-0.314969,-0.633743,0.452954,-0.479935,0.021664,0.877037
0.590092,-0.255787,-0.071625,0.134110,0.331610,0.933836
0.296450,-0.773717,0.652393,-0.797167,0.266921,-0.541552
0.169954,0.143280,0.428766,0.862622,-0.254896,0.436934
0.358595,-0.026028,0.877959,-0.307213,0.946937,0.094497
-0.260881,-0.138406,0.722542,0.496607,0.371286,-0.784556
0.337902,-0.666765,0.398371,0.454304,0.244081,-0.856757
0.309421,0.402289,0.774579,0.992000,-0.089296,0.089232
0.370462,0.634251,0.792547,0.834795,-0.438059,0.333499
0.310223,0.487875,0.861785,0.268547,0.857460,0.438914
0.242997,-0.062442,0.738398,-0.757542,0.518131,0.397077
-0.368323,-0.537049,0.671069,0.433138,-0.286775,-0.854489
-0.224142,-0.222976,0.469634,0.093310,0.490467,0.866450
0.066825,-0.123696,0.764568,0.505043,0.579689,-0.639447
0.834927,0.246545,0.787975,0.857464,0.343655,-0.382959
0.161597,-0.334929,-0.544398,-0.365642,0.922331,-0.124941
0.611954,-0.101102,0.868873,-0.254654,-0.966515,-0.031633
-0.526609,-0.482493,0.491103,0.955807,0.092428,0.279089
0.010931,-0.386901,0.769038,-0.445526,-0.231401,-0.864847
0.827305,0.073760,0.630606,-0.157260,-0.362561,0.918596
0.216922,-0.427257,-0.974032,0.075313,-0.022428,0.996908
0.371799,-0.029589,0.877727,-0.506556,0.830893,0.230257
0.067327,0.744043,0.729154,0.335687,0.634908,0.695849
0.441232,0.162442,0.695403,-0.067716,-0.671589,0.737823
-0.857123,-0.413650,0.505845,-0.001113,0.722736,0.691123
0.621850,0.139890,0.804019,0.991538,-0.025938,0.127201
0.095708,0.986138,0.506915,0.413713,0.128059,-0.901356
0.415524,0.375879,0.401641,0.185077,-0.449229,0.874036
-0.221602,0.127851,0.376136,-0.366171,-0.800697,0.474134
0.127867,-0.158838,0.942003,0.117498,0.168525,0.978669
0.021830,-0.325264,0.785140,0.736067,-0.653143,-0.177794
0.399579,-0.137600,0.935580,-0.682385,-0.640354,0.352558
0.043993,0.082280,0.602613,0.497310,-0.561643,0.661241
0.242629,0.266087,0.408483,-0.355524,-0.617967,-0.701227
0.534633,-0.101484,0.902798,0.867174,0.173725,0.466722
-0.271511,-0.135820,0.672227,-0.487336,0.871964,-0.046726
-0.301698,-0.598686,0.661145,0.871039,0.423938,-0.248129
-0.003210,0.640270,0.895246,0.819324,-0.317705,-0.477255
0.526276,-0.332047,-0.065129,-0.433947,0.819788,0.373682
0.216253,0.584867,0.877770,0.208650,0.018661,0.977812
0.041753,0.426579,0.867976,-0.600449,0.799625,-0.007823
0.747176,-0.012717,0.690788,0.735496,0.471898,-0.486167
-0.413485,-0.244679,0.742304,-0.080458,0.761508,0.643142
-0.077088,-0.435566,0.511472,-0.063761,0.657883,0.750416
-0.033028,-0.357778,0.806782,-0.605544,0.050957,-0.794179
-0.004078,-0.395294,0.893727,0.514673,-0.462832,-0.721733
0.880558,0.314328,0.805263,-0.660609,0.743673,-0.102695
0.211005,-0.080033,0.494618,-0.420256,0.881571,-0.214981
0.430100,-0.030310,0.787440,0.859468,0.510339,-0.029479
0.703049,0.426452,0.758391,0.271522,0.149224,0.950793
0.772615,-0.077108,0.651221,0.646587,0.751040,-0.133658
-0.663735,-0.057143,0.348736,0.637446,0.302038,-0.708827
-0.576954,-0.458033,0.517635,-0.662812,-0.694801,-0.279165
0.004380,0.515176,0.682368,0.845400,0.150118,0.512605
0.303671,-0.391183,0.723613,0.736334,0.394800,-0.549495
-0.205522,-0.503391,0.726737,0.253398,0.731571,0.632924
0.443606,-0.037940,0.586424,-0.131494,0.262589,0.955906
0.365681,-0.025901,0.937229,-0.755285,0.034055,0.654512
0.159056,-0.420135,-0.590417,-0.751667,0.655053,-0.076826
-0.131644,-0.425138,0.761501,0.996194,0.073717,-0.046514
0.051248,0.474693,0.881546,-0.256396,0.664476,-0.701949
0.314702,-0.265493,0.899268,0.091307,0.331490,0.939030
-0.015812,0.028741,0.613578,-0.532497,0.541318,-0.650709
0.395801,-0.157101,-0.003096,0.142743,-0.384901,0.911853
0.570803,-0.171979,0.862103,0.908609,0.324258,-0.263222
0.390620,-0.519881,0.778818,-0.905728,0.066026,-0.418686
0.197500,-0.645357,0.738499,-0.341363,-0.837307,0.427070
0.211707,0.391606,0.944534,0.673215,0.087255,-0.734280
0.187003,0.085079,0.770586,-0.789772,0.580233,-0.198973
0.211506,0.728740,0.629796,-0.713488,-0.116412,0.690929
0.432841,0.030522,0.579162,0.007269,0.072205,0.997363
0.413652,-0.291903,0.655445,-0.502457,0.568884,0.651082
0.125828,-0.325774,0.300402,0.697817,0.609086,0.376917
-0.277930,-0.226578,0.720271,-0.262862,0.650220,0.712824
0.250218,-0.289742,0.524999,-0.411445,0.851867,0.324092
0.258441,-0.101865,0.783982,-0.665551,0.736419,0.121362
0.267467,-0.459177,-0.977070,0.112067,0.164496,0.979991
-0.030186,0.221026,0.662201,0.122629,-0.500589,0.856956
0.722204,0.418990,0.754080,0.340932,0.149761,0.928083
0.130040,-0.421576,-0.446950,0.981699,-0.149685,0.117736
-0.099853,0.731623,0.394234,0.021813,0.660608,0.750414
-0.732968,-0.685290,0.525158,-0.307437,-0.063139,0.949471
0.242863,0.557354,0.931297,0.320512,-0.895504,0.308780
0.060640,0.581432,0.867745,-0.270131,0.519949,-0.810359
0.296317,-0.302544,0.688516,0.378858,-0.236107,0.894830
0.462827,-0.065579,0.021671,-0.249200,-0.147735,0.957118
-0.356956,-0.547604,0.492246,-0.149353,0.941181,0.303104
-0.695460,-0.358076,0.368671,-0.384838,0.861135,-0.332184
0.394497,0.082450,0.999204,-0.242140,0.807459,0.537939
-0.383800,-0.251462,0.402943,0.871730,-0.215110,0.440244
0.348199,-0.278720,0.903970,0.014182,0.473154,0.880866
0.303336,0.640780,0.903304,0.741420,-0.625075,0.244085
0.455907,-0.326028,-0.074026,-0.099591,0.808736,0.579679
-0.137728,0.096566,0.427797,0.370431,-0.068642,-0.926320
0.273518,0.132980,0.639821,0.729741,0.287303,-0.620432
-0.097981,-0.133532,0.744358,0.384352,0.663865,-0.641526
-0.376513,0.359982,0.405894,0.203635,0.570432,-0.795701
-0.144213,0.736625,0.389199,0.184124,0.357724,0.915496
-0.375309,-0.580373,0.452838,0.159646,-0.015636,-0.987050
0.155947,-0.676091,0.737978,0.272079,0.889740,-0.366517
0.457177,-0.245698,0.756930,-0.551877,-0.293904,0.780418
0.511333,-0.227003,0.738152,0.454762,0.335241,-0.825109
-0.138731,-0.188045,0.407254,-0.686425,0.725454,-0.050367
0.156148,0.255277,0.596059,0.586867,-0.700549,-0.405978
0.080363,0.514116,0.679923,0.554114,0.333985,-0.762503
-0.264658,0.063756,0.691598,0.519979,0.596497,-0.611402
-0.109380,-0.382959,0.858805,0.590337,0.117385,-0.798575
-0.291435,-0.436626,0.590461,0.860452,-0.132388,0.492033
0.181320,0.736921,0.633485,0.477777,0.615546,-0.626763
0.242997,0.277617,0.406545,0.203201,0.741283,0.639695
0.113158,-0.231793,0.378161,0.929613,-0.331843,0.160312
-0.067058,0.330945,0.840316,-0.414151,0.873395,-0.256241
0.637261,0.381094,0.761429,-0.119634,-0.732436,0.670243
0.301197,0.593472,0.785082,-0.032207,0.247104,0.968453
-0.659089,-0.652650,0.521744,-0.529468,-0.528271,-0.663772
-0.415624,0.153837,0.617542,-0.153205,-0.881774,0.446098
0.398476,-0.537643,0.666310,0.908325,0.409561,-0.084882
0.357091,0.128063,0.969765,-0.111753,-0.001354,0.993735
0.297085,-0.275795,0.691945,-0.058969,-0.725590,0.685596
-0.028481,-0.102925,0.894957,-0.399284,0.737282,0.544966
0.241693,-0.653412,0.706585,0.245874,0.617111,0.747476
0.339439,0.780755,0.785747,-0.191653,0.425314,0.884521
-0.817376,-0.342475,0.388563,-0.428076,0.003321,-0.903736
0.092532,-0.382492,-0.119437,-0.786512,0.614965,0.056716
0.459818,-0.256549,0.903999,0.521156,0.835748,-0.172980
0.410075,0.447223,0.924397,-0.619384,0.505725,-0.600504
-0.596978,-0.426622,0.547162,0.873372,0.346715,0.342068
0.180618,0.283637,0.595047,0.882022,-0.449277,-0.142084
0.105168,-0.375625,0.758984,-0.553144,0.553766,0.622394
0.440161,-0.506952,0.724886,-0.638447,0.685641,0.349690
0.080765,0.276982,0.869915,-0.310785,0.237056,0.920444
-0.576920,-0.275160,0.543892,0.494300,-0.683366,-0.537288
-0.290700,0.071005,0.625210,0.938019,-0.051262,-0.342773
0.288996,-0.181899,0.882921,-0.576645,-0.313332,-0.754522
0.384001,0.395761,0.863174,-0.547659,-0.093006,-0.831516
0.100522,-0.305808,0.129579,0.321703,0.944735,0.063117
0.222939,-0.228952,0.496354,0.328818,-0.930849,-0.159369
0.209935,-0.228317,-0.016478,0.114468,-0.720562,0.683877
0.234840,0.096270,0.777140,0.351121,-0.853791,0.384390
-0.304806,-0.424289,0.817560,0.392427,-0.759726,0.518476
0.152704,0.312674,0.392744,0.871398,-0.283053,0.400682
0.578491,-0.216744,0.854826,-0.724180,0.366366,0.584243
0.070269,-0.158287,0.653015,0.970097,0.206806,-0.127054
-0.077455,-0.137389,0.419247,0.826305,-0.377657,0.417845
0.114595,-0.229122,0.446907,0.860088,-0.493762,-0.128246
0.381728,-0.464349,0.630013,0.872532,0.348326,-0.342574
0.430601,0.118398,0.835629,-0.475494,0.866675,0.150930
-0.285452,0.157736,0.628928,-0.416845,-0.149901,-0.896532
-0.065053,-0.277109,0.631373,0.871399,0.302238,0.386414
-0.409607,-0.173802,0.448064,0.010292,-0.580204,0.814406
0.287257,-0.389318,0.622649,-0.507855,0.662976,0.550043
0.605135,-0.180882,0.877669,0.885135,0.332712,-0.325327
0.321221,0.010217,0.922863,-0.722500,0.497514,0.480077
0.259745,-0.447097,-0.973179,0.214984,0.066026,0.974383
0.510397,0.090251,0.835426,-0.511796,0.840939,0.175747
0.091061,-0.142137,-0.999045,-0.090576,0.234546,0.967876
-0.331784,-0.255066,0.738615,-0.197530,-0.761270,-0.617616
0.042021,-0.302034,0.884425,-0.527441,0.821392,0.217073
-0.178779,-0.002373,0.617456,0.233415,-0.960477,0.151663
0.841145,-0.045443,0.685348,0.793612,0.302517,0.527885
-0.401451,-0.197965,0.724003,-0.486767,-0.391616,-0.780830
-0.157819,0.300678,0.399948,-0.407254,-0.194935,-0.892269
-0.342916,-0.464773,0.665225,0.168668,0.980417,0.101654
0.181187,0.654344,0.616588,-0.476260,-0.147816,0.866791
-0.075416,-0.251547,0.636291,0.906526,0.311235,0.285207
0.546667,-0.024544,0.658353,0.333216,-0.820545,-0.464406
0.115465,0.615303,0.765306,-0.536394,0.730839,-0.422084
0.344889,-0.221408,0.897966,0.124254,0.475003,0.871168
0.466604,-0.463077,0.688921,0.841359,-0.190028,-0.505968
0.666344,0.059009,0.578555,0.061616,0.667416,0.742131
0.436485,0.223612,0.867702,0.287969,0.943957,-0.161301
0.183359,-0.411064,-0.902914,0.943573,0.291942,0.156330
0.195093,-0.500296,0.340504,-0.293540,0.247551,0.923338
0.101023,0.553582,0.517100,-0.605705,0.334923,-0.721768
-0.555192,-0.050912,0.640183,0.679136,0.012742,0.733901
0.187036,0.059729,0.258680,0.317861,-0.742958,0.589049
-0.500768,-0.157482,0.441207,-0.730239,0.599376,-0.327869
0.104432,0.587282,0.413272,0.271523,0.307688,0.911923
0.157586,-0.313650,-0.356229,0.759196,0.639550,-0.120822
0.537241,-0.575498,0.540782,-0.386034,-0.501668,0.774149
0.215250,0.089063,0.795064,-0.739539,0.539110,-0.403041
-0.397139,-0.534506,0.497367,0.011325,0.756266,0.654166
0.524336,0.044594,0.771715,-0.368667,0.215330,-0.904277
0.341580,0.614921,0.935739,-0.700447,0.280880,-0.656110
0.032694,0.452226,0.465482,-0.694345,-0.673322,-0.254014
0.487799,-0.749640,0.641630,0.352023,-0.755623,0.552371
0.239353,-0.471640,-0.972918,0.081247,0.082558,0.993269
-0.392023,-0.492242,0.650093,-0.524187,0.765364,-0.373425
0.534900,0.349639,0.832923,0.019050,-0.957236,0.288681
-0.682858,-0.469903,0.561440,-0.457021,0.703531,-0.544220
0.297820,0.699152,0.800373,-0.139755,-0.605369,0.783580
0.342449,-0.204578,0.871723,-0.418269,-0.741618,-0.524456
-0.660661,-0.128910,0.625716,-0.032434,-0.891232,0.452387
-0.541552,-0.506656,0.513613,0.942823,-0.292546,0.159693
0.063716,0.672022,0.718101,0.759129,0.192904,0.621700
-0.349168,-0.035948,0.617919,0.932102,-0.343222,0.115693
0.237280,-0.694065,-0.968607,-0.051658,-0.072695,0.996015
-0.231263,-0.345994,0.444101,0.402760,-0.854065,0.329176
-0.015812,0.945612,0.381431,-0.477594,0.278636,-0.833226
-0.724811,-0.353243,0.549896,0.117543,-0.901783,0.415898
0.139767,-0.066257,0.281060,0.951653,0.051233,0.302871
0.296650,0.377491,0.895666,0.362008,0.556570,-0.747783
0.258809,-0.438787,0.625094,0.519627,-0.495866,-0.695776
0.466704,0.517931,0.883152,0.946219,0.224702,-0.232763
-0.178545,-0.619626,0.830999,0.116577,0.976183,-0.182963
0.308384,-0.024460,0.245964,0.151858,0.544291,0.825037
0.734673,0.420008,0.758666,0.200126,0.278335,0.939404
0.317678,0.583848,0.962415,-0.036130,-0.889712,0.455091
-0.110684,-0.202162,0.593687,-0.671611,-0.657094,-0.342296
0.007053,0.823697,0.738716,-0.655092,0.293258,-0.696315
0.050646,-0.568207,0.282362,-0.646191,0.673772,-0.358426
-0.165374,-0.353836,0.849473,-0.021147,-0.958751,0.283461
-0.030922,-0.001357,0.611770,0.055869,-0.800662,0.596506
0.581200,-0.133954,0.848649,-0.531223,0.646710,0.547329
0.522933,-0.116447,0.784474,0.953882,0.167197,0.249310
0.467574,-0.329800,0.577932,-0.724339,0.689383,-0.009109
-0.061442,-0.170581,0.873633,0.869369,0.190050,-0.456156
-0.035802,0.314540,0.733233,0.984221,-0.056604,-0.167647
0.109280,-0.105341,0.815100,0.571199,-0.807664,-0.146327
0.020158,0.646671,0.409554,-0.249016,-0.960775,-0.122075
-0.319014,-0.670622,0.674122,-0.060255,0.567440,0.821207
0.266197,0.527088,0.919912,0.811799,0.418539,0.407195
0.042957,0.632556,0.739526,0.993584,0.049742,-0.101567
-0.402888,-0.253201,0.426523,0.560099,-0.279134,0.779983
0.489236,0.168546,0.714180,-0.221864,-0.319822,0.921135
0.932507,-0.086775,0.660335,-0.105711,0.994343,0.010384
-0.685398,-0.027512,0.342385,0.670570,0.299742,-0.678594
0.413686,0.505637,0.899644,0.253487,0.925060,-0.282857
-0.646787,-0.207800,0.579741,0.350488,-0.736880,0.578071
0.098984,0.746121,0.612522,-0.051743,-0.371048,0.927171
0.152471,0.359686,0.444679,-0.175849,0.192506,-0.965411
0.213780,-0.600041,0.681543,0.159152,0.957567,0.240282
-0.097245,-0.140484,0.391904,0.348022,-0.645283,0.680067
0.424116,-0.218524,0.835267,0.309662,0.736765,0.601071
0.155445,0.185163,0.363940,-0.517621,0.356361,-0.777866
-0.859965,-0.307927,0.589159,-0.100766,0.438328,-0.893149
0.178278,-0.011319,0.411290,-0.832808,0.143850,0.534545
0.106673,-0.287876,0.467146,0.770940,-0.566702,-0.290689
0.102728,0.658838,0.879781,0.766046,-0.154383,-0.623970
0.058033,-0.321662,0.008781,-0.337659,-0.941268,0.001380
0.763355,-0.018525,0.690976,0.544722,0.771519,-0.328690
0.355753,0.473081,0.872866,-0.053467,-0.972908,0.224925
0.188274,0.427554,0.876136,-0.078334,0.777577,-0.623890
-0.004980,0.040569,0.701855,0.802989,-0.166902,-0.572148
0.484790,0.333447,0.839723,0.039162,-0.708900,0.704221
-0.481781,-0.671810,0.679315,0.142383,0.036076,0.989154
0.203250,-0.207248,0.496007,0.879226,0.430302,-0.204456
-0.351474,-0.656126,0.671344,-0.554029,0.197485,0.808734
0.288627,0.405257,0.855694,0.741168,0.551129,-0.383310
-0.441264,-0.233192,0.734477,-0.468530,-0.260587,-0.844141
0.096242,0.057439,0.943941,0.728028,-0.498049,0.471087
0.283380,-0.108817,0.816909,0.236176,0.895446,0.377355
-0.493414,-0.476557,0.443319,-0.651826,0.513936,-0.557668
0.626930,-0.032556,0.708784,0.387828,-0.178551,-0.904273
0.145016,-0.041500,0.835166,0.840320,-0.267885,0.471274
-0.033228,-0.602035,0.385279,0.916329,0.269801,0.295886
0.637494,0.367147,0.871709,-0.401031,0.275899,-0.873530
-0.019088,-0.491139,0.395883,-0.401536,0.891250,0.210815
-0.178913,0.210301,0.818543,-0.706355,0.126543,-0.696454
0.310324,0.485121,0.841459,-0.666624,0.630732,0.397227
-0.136993,-0.767782,0.584833,-0.537627,0.309698,0.784248
0.293743,-0.525434,-0.974379,0.053683,0.039648,0.997771
0.796484,-0.059009,0.591763,0.805282,0.586639,0.085877
0.136258,0.050105,0.296467,-0.638046,0.235455,0.733115
-0.063682,-0.001483,0.857401,-0.159130,-0.409294,0.898419
0.244133,-0.228825,0.795252,0.905813,-0.119697,0.406418
0.274554,-0.493260,-0.972557,0.060800,0.165755,0.984291
0.213245,0.494658,0.442929,0.864478,-0.174408,0.471444
0.566123,-0.073972,0.882544,0.532850,0.396115,0.747773
0.484824,-0.068758,0.872461,0.014169,0.127711,0.991710
0.297587,-0.763205,0.722195,0.251737,0.887306,-0.386414
-0.646453,-0.147775,0.605607,0.083841,-0.922889,0.375827
0.436351,-0.712844,0.432223,-0.321190,0.483983,0.814001
-0.158053,0.093048,0.613607,0.598778,0.200491,-0.775415
-0.624256,-0.138110,0.675742,-0.268845,0.594741,-0.757631
-0.103697,-0.410343,0.862711,0.479955,-0.343008,-0.807458
-0.656448,-0.150233,0.347940,-0.386992,0.044520,0.921008
-0.190379,-0.851165,0.602121,-0.646677,0.470300,0.600522
0.440028,0.154472,0.705978,-0.087049,-0.706952,0.701884
0.494819,0.030098,0.864403,0.063985,-0.245696,0.967233
-0.001270,-0.391098,0.496919,0.807001,0.229144,0.544281
0.383233,-0.297498,-0.080030,-0.049160,0.553251,0.831563
0.432774,0.641203,0.884411,0.119691,-0.612680,0.781215
0.310524,-0.096440,0.012036,0.154497,-0.510128,0.846109
0.030488,0.266342,0.637434,0.380365,0.251042,-0.890113
-0.217256,0.234675,0.585614,-0.022086,0.387010,0.921811
0.218560,0.294659,0.443377,0.573350,0.205818,-0.793037
0.131009,-0.351717,-0.264510,0.189413,-0.972157,0.137959
0.073544,0.626282,0.869148,0.939094,0.019669,-0.343098
-0.067092,-0.173549,0.491899,0.133094,0.981807,-0.135427
-0.084609,0.178380,0.629752,0.639289,0.218486,-0.737274
0.390687,0.198855,0.753342,0.125002,-0.917246,0.378199
0.630140,-0.107207,0.847000,-0.657167,0.705476,0.265396
-0.492345,-0.563968,0.681138,-0.174409,0.932748,0.315537
0.155880,0.466553,0.714354,0.411175,-0.322812,-0.852483
0.147055,-0.401569,0.325343,-0.124644,0.204066,0.970990
-0.444274,-0.661084,0.677493,0.161254,0.203069,0.965795
0.073310,-0.127215,0.833777,-0.170696,0.901246,0.398269
0.189008,0.209114,0.438039,0.968113,-0.246353,0.045477
-0.103998,-0.414710,0.808128,0.049292,0.715963,0.696396
0.095407,-0.299491,0.194332,0.455564,0.883559,0.108557
0.368724,-0.465408,0.680155,0.950670,0.277591,-0.138453
0.576954,0.400127,0.876714,0.313756,0.550553,-0.773595
0.258308,-0.573759,0.627727,0.785751,0.142272,0.601958
0.775623,0.049513,0.793097,-0.431865,-0.078131,0.898548
0.201679,0.242857,0.890935,0.418097,0.834785,-0.358231
0.327104,-0.159432,0.943464,-0.519034,0.440201,-0.732685
0.822258,0.045231,0.705413,0.352731,0.550724,-0.756494
0.435950,0.366595,0.890226,0.108252,-0.042516,-0.993214
-0.157485,-0.371174,0.789219,0.660414,0.741742,-0.116931
0.163669,0.142815,0.435421,0.911641,-0.292332,0.288882
-0.581968,-0.251378,0.364707,0.788206,0.586828,-0.185376
-0.045530,0.207164,0.656805,-0.059802,-0.738647,0.671435
0.163569,0.651547,0.626367,0.799865,0.187614,-0.570103
0.182590,0.245061,0.903492,0.707375,0.521204,-0.477459
0.274588,-0.015473,0.728300,0.419159,-0.800050,-0.429214
0.101659,-0.276642,0.022091,0.776213,-0.480265,0.408458
-0.655880,-0.171853,0.349835,-0.266471,0.096506,0.958999
0.382563,0.703985,0.788800,-0.446556,0.194968,-0.873256
0.007655,0.105045,0.617383,-0.590198,0.470879,-0.655698
-0.109781,-0.355574,0.701030,0.981500,-0.040518,0.187124
-0.470181,-0.250064,0.740119,-0.237148,0.895972,0.375492
-0.552417,-0.278211,0.552948,-0.722805,0.650280,-0.233856
-0.383766,-0.734760,0.696213,0.556371,0.412616,0.721249
0.212576,0.708224,0.806406,0.071786,-0.037990,0.996696
0.177442,-0.544552,-0.973222,0.009357,0.067274,0.997691
0.552116,-0.165027,0.904100,-0.301273,0.633837,-0.712380
-0.689042,-0.580542,0.532160,-0.038591,0.181487,0.982636
0.036539,0.752607,0.374935,0.626092,-0.124829,0.769692
0.053220,0.687029,0.729906,0.948682,0.059928,0.310500
0.417464,0.047562,0.949193,0.650801,0.748988,0.124401
0.813165,0.118907,0.779527,0.740762,0.267039,0.616410
-0.156348,-0.008648,0.411246,-0.726427,-0.353333,0.589457
-0.333088,-0.502500,0.680965,0.579525,0.699570,0.418034
0.415257,0.014922,0.810254,0.820286,-0.503158,0.271962
-0.962358,-0.324205,0.430357,-0.282665,0.314566,0.906173
0.144915,-0.244044,0.286384,0.962434,-0.168131,-0.213196
-0.024403,-0.354218,0.512630,0.804121,-0.583407,0.114135
-0.810055,-0.047097,0.626931,-0.103911,-0.310488,0.944881
0.379521,0.064391,0.959204,-0.341373,0.934074,-0.104742
0.872535,0.353116,0.814102,0.157578,-0.302525,0.940026
0.473993,0.047309,0.869756,0.459333,0.129649,-0.878751
-0.097279,0.133362,0.706585,0.837080,0.403505,-0.369433
-0.697633,-0.026961,0.352584,0.580049,0.473446,-0.662866
0.101090,0.578847,0.779990,-0.173905,-0.594972,0.784707
-0.059871,0.211191,0.424729,-0.591887,0.547264,0.591753
0.278632,-0.350446,-0.069918,-0.024791,0.474623,0.879840
-0.546567,-0.491098,0.533896,-0.674903,-0.586752,-0.447468
0.315972,-0.211573,0.546800,-0.752181,0.243243,0.612419
0.625226,0.029547,0.630606,0.308744,-0.892371,0.329167
-0.583272,-0.075032,0.648516,0.675335,-0.451256,0.583344
0.327138,0.193344,0.952564,0.906503,0.376181,0.191675
0.108144,0.732980,0.776286,0.989177,-0.119919,0.084545
0.409073,-0.616617,0.795498,-0.710467,-0.424082,0.561596
-0.292438,0.125986,0.631373,-0.462070,0.343003,-0.817827
-0.750217,-0.148665,0.604146,-0.391289,0.360424,-0.846751
-0.170589,-0.307800,0.875297,-0.277641,-0.681124,0.677485
-0.059136,0.425816,0.757450,-0.397665,-0.105883,0.911401
-0.556261,-0.742771,0.545440,0.569650,0.582599,0.579721
-0.471685,-0.115261,0.631821,0.890146,-0.062024,0.451434
0.183994,0.320516,0.444014,0.074637,-0.254831,0.964101
0.411680,0.153327,0.698050,-0.033506,-0.588500,0.807802
0.124456,-0.137389,0.235056,-0.366086,0.902778,-0.225772
0.494919,-0.000085,0.609152,-0.385217,0.921158,0.055455
0.255366,-0.673335,-0.966032,-0.053133,-0.036241,-0.997930
0.221368,0.521703,0.393149,0.866233,0.460894,-0.192917
-0.765695,-0.048411,0.478387,-0.567902,-0.370146,0.735173
-0.540884,-0.490674,0.504875,0.064439,-0.562105,0.824552
-0.335629,-0.258202,0.746311,-0.123818,0.587452,0.799731
-0.235174,-0.362654,0.834529,0.007909,-0.986595,0.162995
0.376112,-0.120983,0.894046,0.860738,-0.360617,-0.359285
0.439059,-0.206867,0.845625,-0.174560,0.701500,0.690960
0.333289,0.230860,0.856606,-0.029282,0.991410,0.127470
0.251655,-0.755362,0.703533,0.021368,-0.435941,0.899721
0.145484,-0.314413,0.686260,0.174319,0.037316,-0.983982
0.304606,-0.187155,0.884078,0.463828,0.547131,0.696787
-0.233837,-0.008733,0.600732,0.077073,0.856015,-0.511174
0.485392,0.063162,0.595698,0.146328,0.935331,0.322094
0.117203,0.623612,0.693869,0.148416,-0.642861,0.751467
-0.113559,0.394023,0.380852,0.973584,0.112632,-0.198615
0.113826,0.603009,0.892758,0.031124,0.278218,0.960013
-0.576987,-0.866257,0.492723,0.713659,-0.186468,0.675218
0.211373,0.135948,0.868034,0.808989,-0.379075,0.449265
0.120713,0.264011,0.620754,0.870205,-0.280683,0.404921
-0.055158,0.516235,0.517548,-0.157832,0.821463,-0.547985
0.426924,0.518482,0.872924,-0.545778,-0.238932,0.803143
0.128134,-0.120050,0.236271,-0.714880,0.619263,-0.324746
0.119008,-0.174862,-0.994720,-0.045813,0.282342,0.958219
0.054958,-0.262992,-0.988586,-0.025533,0.164769,0.986002
-0.017417,0.428316,0.867933,0.100948,-0.384447,0.917611
-0.016314,0.240102,0.382935,0.545296,0.837495,-0.035427
-0.717790,-0.025391,0.338131,0.703027,0.284946,-0.651582
0.254096,-0.498262,0.352931,0.735611,0.132295,-0.664360
0.070536,0.461001,0.655503,-0.571298,0.133115,-0.809876
0.236679,0.024036,0.573187,0.086307,-0.982140,0.167189
0.847597,-0.056676,0.662230,0.023129,-0.681018,0.731901
0.043760,0.694150,0.876613,0.374296,-0.413324,-0.830099
0.631711,0.028614,0.735490,-0.093485,0.848528,-0.520827
0.175738,0.834252,0.625832,-0.243554,-0.321170,0.915168
-0.221367,-0.436244,0.827918,0.293634,0.710353,0.639670
0.417464,0.395125,0.406415,-0.315210,0.596030,-0.738506
-0.394698,-0.136541,0.540232,-0.140908,0.439858,-0.886944
0.162600,0.362145,0.584197,-0.838267,0.188075,-0.511796
-0.708464,-0.289826,0.445460,-0.283483,-0.927935,-0.242021
-0.257037,-0.027977,0.851195,-0.167853,0.473497,0.864654
-0.621682,-0.180670,0.583820,-0.168154,0.830617,-0.530847
0.470449,-0.098093,0.729993,0.921983,0.378848,0.080133
0.104199,0.486011,0.674426,0.908154,-0.127381,-0.398786
0.739654,0.351589,0.771281,-0.299141,0.275068,0.913702
0.457478,-0.565578,0.398328,-0.317138,0.435201,0.842629
-0.431035,-0.304705,0.286355,0.171774,0.539735,-0.824123
0.167413,-0.497669,-0.972094,0.061784,0.044936,0.997077
0.041152,0.705214,0.741580,0.496932,0.103089,0.861645
-0.043659,-0.053116,0.860642,0.224280,0.613069,-0.757525
0.176306,-0.288766,0.688386,0.133539,0.989427,-0.056582
-0.088888,-0.156422,0.499320,-0.115263,-0.985196,0.126898
-0.527144,0.101230,0.670968,0.043883,-0.985368,0.164697
0.207295,-0.474947,0.534981,0.881788,0.158663,-0.444157
-0.403590,-0.635608,0.623083,-0.415561,0.888845,0.193040
0.404158,0.061764,0.913764,-0.499677,0.849985,-0.166877
-0.618205,-0.072361,0.670259,0.246066,0.330421,0.911193
0.506118,-0.148241,0.841256,0.265260,-0.947271,-0.179765
0.161196,-0.323570,0.306435,0.413833,0.791711,0.449372
0.798422,-0.074947,0.602700,0.813707,0.568029,0.123385
0.333723,-0.410640,0.618338,0.804976,0.322706,-0.497870
0.217590,-0.652650,-0.965193,-0.081464,0.050579,0.995392
-0.098549,0.683553,0.406473,0.110827,0.463081,0.879360
0.134386,0.594785,0.515074,-0.635504,0.469072,-0.613275
0.201344,-0.752818,0.693941,0.721260,0.630191,-0.287477
0.475229,-0.244977,0.920187,0.144749,0.977759,-0.151772
0.504112,-0.339338,0.777299,-0.676815,-0.565456,-0.471360
-0.668617,-0.203221,0.580377,-0.247973,0.550155,-0.797395
0.340342,0.205468,0.875586,-0.145780,-0.985990,-0.081073
0.527713,-0.212929,0.942712,0.938766,0.314365,-0.141042
0.433811,-0.265917,0.624790,0.772973,-0.329316,-0.542277
-0.743297,-0.642560,0.535183,-0.279379,-0.014864,0.960066
0.310055,0.589698,0.887290,-0.419151,0.008758,-0.907874
0.829311,-0.086816,0.655792,-0.090092,-0.745092,0.660849
0.537875,-0.002671,0.659626,-0.492502,0.731025,0.472276
-0.224008,-0.337389,0.261704,-0.772674,0.183240,-0.607782
0.022331,-0.631793,0.357213,0.805648,-0.199581,0.557762
-0.445008,0.105892,0.687923,-0.503639,0.343255,-0.792795
-0.300361,-0.552607,0.678838,-0.461249,-0.700283,0.544842
-0.695828,-0.415557,0.493041,0.134063,0.635080,0.760724
-0.084910,0.048877,0.852815,-0.008750,-0.291904,0.956408
0.300829,-0.019033,0.760821,-0.505409,0.844436,0.177452
0.904694,0.053031,0.632038,0.659687,0.458801,-0.595243
0.649897,0.462018,0.878479,-0.007151,-0.025995,0.999636
-0.097212,0.243069,0.407557,0.142633,0.667749,0.730594
-0.396804,-0.473081,0.454300,0.610162,0.715996,-0.339193
-0.050912,0.025562,0.373098,0.172583,0.886296,0.429762
-0.054221,-0.493811,0.654028,0.696063,-0.347706,-0.628169
0.449589,-0.547732,0.675626,-0.274939,-0.514382,0.812293
0.396403,0.395549,0.755367,0.448438,0.720406,-0.529073
-0.335629,-0.184951,0.694607,-0.588461,-0.077728,0.804781
0.759377,0.439381,0.760156,0.050770,0.338281,0.939674
0.289129,-0.791649,0.668798,0.543067,-0.821483,-0.173907
0.249917,0.387409,0.453533,-0.292032,0.538863,0.790155
-0.033864,-0.537770,0.483204,0.967228,0.221281,-0.124521
-0.455941,-0.248665,0.507508,0.996994,-0.068455,-0.036291
-0.062680,0.816998,0.402306,-0.050708,-0.007901,0.998682
0.787525,0.265494,0.804106,0.788976,-0.102399,0.605831
0.044896,-0.032260,0.916614,0.714335,-0.061505,-0.697096
-0.259210,-0.427765,0.389980,0.828426,-0.275747,-0.487519
0.134251,0.558923,0.511935,0.679528,-0.267302,0.683221
-0.108544,-0.349089,0.701117,0.936859,-0.277551,0.212748
-0.496122,-0.229164,0.608023,0.800362,-0.573091,-0.176032
0.481648,-0.659051,0.659684,0.690876,0.243420,-0.680762
0.041252,0.398219,0.789436,-0.906113,0.420655,0.044824
0.407435,-0.152861,0.948585,0.698364,0.422618,-0.577652
0.393161,-0.624884,0.668798,0.573963,0.185435,-0.797609
0.475664,0.091353,0.840475,0.269843,-0.951619,0.146989
-0.436852,-0.474862,0.694882,-0.563419,-0.781648,0.267553
0.760146,0.203476,0.753819,0.501462,0.131480,-0.855131
0.476900,-0.516321,0.726217,-0.725434,0.210284,0.655383
-0.626496,-0.677999,0.534879,0.143304,0.784554,0.603274
0.159290,-0.267232,0.204415,-0.540859,0.836673,0.086316
0.510062,-0.305977,0.914111,0.541829,-0.522625,-0.658243
-0.151869,-0.031241,0.664834,-0.249855,0.960230,0.124619
-0.069833,-0.025181,0.418523,-0.549478,-0.536583,0.640431
0.426756,-0.149343,0.947254,0.996061,0.031612,-0.082839
0.209233,0.215684,0.893163,-0.234865,-0.774539,0.587306
0.421876,-0.037558,0.018286,-0.251427,-0.439039,0.862571
0.019589,-0.068164,0.568572,0.924375,-0.354888,-0.139950
0.558435,0.123018,0.693522,-0.374473,-0.921947,-0.098909
0.294879,-0.300848,0.545238,0.010982,0.550803,0.834563
0.613392,0.077236,0.739801,-0.236385,-0.909401,0.342216
0.607877,0.071005,0.576920,-0.005999,0.898146,0.439657
0.098315,-0.315981,0.002402,-0.645696,0.757614,-0.095381
-0.682657,-0.453455,0.497396,0.971191,0.189965,-0.143878
-0.067694,-0.810513,0.642150,-0.042678,0.284990,0.957580
0.351975,0.628995,0.856229,0.557867,0.760857,0.331482
-0.149729,-0.542476,0.539769,-0.357249,0.784933,0.506215
0.291570,-0.320984,-0.983190,0.041011,0.230312,0.972252
0.026577,-0.175286,0.746962,0.842624,0.425769,-0.329705
0.672696,0.248876,0.826167,-0.602101,0.129334,0.787875
0.136591,-0.235820,0.294731,0.761756,-0.505909,-0.404702
0.126095,-0.143832,0.226087,0.889691,0.194805,0.412917
-0.476900,-0.889529,0.500058,-0.191885,0.364293,-0.911302
0.149161,0.205256,0.372418,0.995183,-0.084840,-0.049118
0.269573,-0.055151,0.757002,0.826347,-0.473461,-0.304935
0.073210,-0.130988,0.468434,-0.024372,-0.997007,0.073374
-0.003276,0.460703,0.485606,-0.232893,-0.730374,0.642117
0.035568,0.745527,0.719475,0.782155,0.425407,0.455261
0.420739,-0.398728,0.893959,0.972135,0.233806,-0.016991
0.517651,0.135226,0.774579,-0.662320,0.523014,-0.536459
-0.026810,-0.383594,0.495515,0.137485,0.498298,0.856036
0.149328,0.342900,0.421301,0.324206,0.906859,-0.269255
-0.258741,-0.121577,0.673587,0.446823,-0.874701,-0.187744
0.823728,0.128020,0.765971,0.932487,0.200013,-0.300769
0.432173,0.172489,0.703649,-0.099892,-0.670576,0.735084
0.109179,-0.374226,-0.971862,-0.317649,0.070777,0.945563
0.403657,0.586902,0.885365,0.337238,-0.318827,0.885788
0.172160,-0.204917,-0.990813,-0.034586,0.192436,0.980700
0.413620,0.297498,0.894335,-0.197859,-0.285966,0.937590
-0.212876,-0.597032,0.807737,-0.216503,0.926442,-0.307946
-0.380725,0.304875,0.396650,0.144563,0.701042,-0.698314
0.174935,-0.745061,0.306811,0.681925,0.139643,-0.717968
0.258274,-0.817465,0.672285,0.082168,0.963467,0.254911
-0.164070,-0.591564,0.552731,-0.772149,-0.069651,-0.631613
-0.040683,-0.564603,0.810196,0.453041,-0.219263,0.864105
0.848733,0.204323,0.781161,-0.224635,-0.340321,0.913083
-0.014107,-0.467698,0.803252,-0.892293,0.243564,-0.380119
-0.133148,-0.726409,0.592240,0.968188,0.203739,-0.145269
-0.146787,-0.061085,0.790145,0.812258,0.574240,0.102396
-0.578826,-0.357016,0.591575,-0.657371,0.722888,0.212829
0.535702,0.179482,0.962632,0.389662,0.708965,0.587820
0.208063,0.191013,0.490293,-0.688584,-0.669905,0.277633
-0.031591,0.164900,0.700553,-0.870857,0.348465,0.346670
0.288828,0.224375,0.801169,0.793682,-0.013786,0.608176
-0.399611,-0.497160,0.655850,-0.683510,0.532000,-0.499790
0.172963,0.285459,0.595307,0.882022,-0.449277,-0.142084
0.184195,0.287494,0.433005,0.119690,-0.416123,0.901397
-0.056796,-0.178931,0.489150,0.102097,0.974383,-0.200387
-0.142943,-0.069139,0.700654,-0.605658,0.732777,0.310188
0.272949,-0.042094,0.547856,-0.207299,-0.784311,0.584708
0.100588,0.475201,0.664530,0.977498,-0.165545,-0.130736
0.448853,0.002501,0.583155,-0.191777,0.334607,0.922637
0.122485,-0.406443,-0.814377,0.999411,0.013943,0.031362
0.484456,-0.602501,0.677174,-0.048954,-0.149385,0.987566
0.107709,0.198135,0.573838,0.855063,-0.485571,-0.181900
-0.044059,-0.012760,0.854812,0.276464,0.560225,-0.780843
0.428528,0.765154,0.903825,0.488857,0.345436,0.801057
-0.199739,-0.315430,0.264742,-0.731810,0.138841,-0.667217
0.248613,-0.312590,-0.079466,-0.072528,0.654410,0.752654
-0.380457,-0.127808,0.539306,0.174656,-0.321596,0.930630
0.140202,-0.287113,-0.332591,0.918451,0.314945,0.239284
0.562747,0.347392,0.825705,0.095638,-0.993005,-0.069243
0.124390,-0.270877,0.324605,0.770403,0.605995,0.198115
0.420840,0.038195,0.965482,0.969396,0.157477,0.188343
0.551715,0.027512,0.586121,0.153605,-0.838730,-0.522434
0.937588,0.163798,0.642787,0.990775,-0.135510,0.001118
-0.736043,-0.401653,0.490944,0.007112,0.290834,0.956747
-0.269774,-0.481729,0.817299,0.482046,0.498477,-0.720522
-0.455104,-0.528190,0.673355,0.214559,-0.422642,-0.880533
-0.212977,-0.813395,0.594410,-0.284204,0.572034,0.769419
0.185766,-0.389063,-0.802992,0.995611,-0.091902,-0.017707
0.041085,0.162908,0.621130,-0.238825,0.709209,-0.663314
-0.712141,-0.512929,0.600356,0.866199,-0.477294,0.147950
0.561075,0.410937,0.864258,0.799649,0.531095,-0.280178
0.097580,-0.307588,0.154982,-0.557430,-0.758906,0.336650
0.138999,-0.674776,0.707150,-0.430235,0.464063,0.774302
-0.201110,0.289274,0.687504,0.288196,0.700415,-0.652964
0.237114,0.570623,0.944028,-0.235881,0.971752,0.007613
0.028850,-0.062442,0.927319,0.428733,0.385879,-0.816875
0.297687,-0.652395,0.383586,0.168984,0.190333,0.967067
0.028816,0.496862,0.751100,-0.660475,0.741463,0.118343
0.214548,-0.379822,-0.933439,0.936575,-0.340179,0.084300
0.247008,-0.238406,0.745993,0.891900,-0.278284,-0.356472
-0.140369,-0.548028,0.811368,0.946298,-0.308375,0.097081
0.613124,0.130478,0.811108,0.890716,0.282660,-0.355989
0.428295,-0.515218,0.527067,0.113583,0.465610,-0.877671
0.844655,0.024162,0.695301,0.477789,-0.622453,0.619895
0.752825,0.427173,0.754152,0.033099,0.262669,0.964318
0.087685,0.552184,0.859398,0.314884,0.334744,-0.888141
0.294945,-0.461000,-0.978459,0.024392,0.194278,0.980643
0.221970,-0.518736,0.637130,0.708033,-0.064269,0.703249
0.029151,0.360619,0.790825,0.946034,-0.020594,-0.323412
-0.025606,0.071470,0.699771,0.787586,-0.207049,-0.580378
0.201711,-0.466257,0.343383,-0.277454,0.280844,0.918774
0.012670,-0.374862,0.455790,-0.466451,0.763379,0.446850
-0.012602,-0.628783,0.455920,0.939664,-0.301473,0.161697
0.860467,-0.100169,0.683193,0.542941,0.830003,-0.127713
0.386441,-0.856888,0.623242,0.968182,0.194951,0.156900
-0.332854,-0.293344,0.375355,-0.752837,-0.631036,0.187163
-0.116735,-0.415896,0.718607,0.792785,0.434401,0.427536
0.180116,0.551674,0.462994,-0.754202,0.186654,-0.629555
-0.422745,-0.271598,0.625644,-0.199052,-0.825125,0.528723
0.414087,-0.423527,0.549563,-0.044721,-0.526084,0.849256
-0.087919,-0.463502,0.519718,0.204232,-0.762621,-0.613757
-0.046500,0.659559,0.392859,-0.536269,-0.445323,-0.717010
0.335328,0.831284,0.790362,-0.131791,0.471613,0.871901
0.561711,-0.172955,0.675858,-0.106068,0.143516,-0.983948
-0.132646,-0.506146,0.782825,-0.413762,0.764090,0.494943
0.500636,0.202501,0.926769,0.796487,0.426202,0.428905
0.628469,0.352268,0.846869,0.286051,-0.899295,0.330823
-0.222471,0.162400,0.373184,-0.262190,-0.676471,0.688217
-0.585511,-0.494064,0.706933,0.592676,-0.001952,0.805439
0.166378,-0.119076,0.388968,0.909372,-0.292926,0.295358
-0.068463,0.300593,0.393207,0.685863,0.265283,0.677656
0.095273,0.554811,0.673673,-0.397961,-0.264874,0.878333
0.529485,-0.423018,0.656646,0.250393,-0.097255,-0.963247
0.435917,-0.128910,0.830942,-0.491853,-0.688955,-0.532374
-0.264224,0.065155,0.724351,0.762755,-0.046807,-0.644992
-0.355452,-0.687368,0.677305,0.221508,-0.786773,-0.576127
-0.022899,-0.602670,0.419869,0.965074,-0.240903,0.102947
0.018086,-0.301950,0.907239,-0.537101,0.831684,-0.140800
0.045096,-0.229673,0.716003,0.981147,0.095099,0.168246
0.076519,0.608563,0.871825,0.789162,-0.499671,-0.357144
-0.180150,0.132472,0.351224,-0.043386,-0.650929,0.757897
0.112355,-0.630183,0.697052,-0.638904,0.665289,0.386253
-0.603430,-0.339085,0.280699,-0.420085,0.818157,-0.392616
0.200241,0.505723,0.451218,0.755833,-0.277364,0.593116
0.407870,0.478890,0.875731,0.016846,-0.913193,0.407180
0.055726,-0.253328,0.429098,0.903354,-0.267226,0.335472
-0.216253,0.079906,0.727027,0.685598,0.380819,-0.620429
0.298957,0.337431,0.769154,0.972828,0.104510,-0.206602
0.332553,0.250657,0.948368,0.500025,-0.248228,0.829673
0.167614,-0.264773,0.299766,0.746280,-0.232050,-0.623875
-0.656716,-0.137643,0.634468,-0.311228,-0.721608,0.618400
-0.184930,-0.389402,0.403839,0.979051,-0.078249,0.187981
0.262887,-0.731453,0.580450,0.138750,-0.508883,0.849580
0.135054,0.078465,0.461924,0.841517,0.464705,-0.275496
-0.346226,0.080839,0.629174,-0.236364,-0.971392,-0.023015
0.728689,0.235990,0.759490,-0.113062,-0.679350,0.725052
0.398710,-0.002883,0.841936,0.406919,0.886519,-0.220229
0.147122,-0.033276,0.249581,0.229031,-0.585836,0.777394
0.410176,-0.267952,0.863593,-0.449359,0.312663,0.836850
0.090025,0.129462,0.955124,0.804074,-0.584741,0.107442
-0.180417,-0.613437,0.836048,0.116577,0.976183,-0.182963
0.031958,0.380076,0.540377,-0.645504,0.618031,0.448735
-0.578424,-0.771979,0.562902,0.568402,0.814758,0.114402
-0.133248,-0.219203,0.647778,0.830258,0.528078,0.178340
-0.354650,-0.481009,0.638215,-0.353977,-0.934018,-0.048062
-0.396336,-0.305765,0.287397,0.145347,0.431455,-0.890349
-0.138229,-0.327003,0.752402,-0.654526,0.712918,0.251681
-0.236578,-0.137559,0.610656,-0.437851,-0.296175,0.848862
0.276894,-0.853073,0.707121,-0.344789,-0.533109,0.772603
-0.164638,-0.199449,0.393872,-0.511776,0.716977,-0.473318
-0.360935,-0.082831,0.607980,-0.333631,0.858952,0.388447
0.297687,0.109665,0.705544,0.956311,0.114157,0.269141
0.245605,-0.024291,0.538409,-0.136577,-0.822187,0.552590
-0.369626,0.235353,0.621463,-0.080876,0.718427,-0.690885
0.169653,-0.159559,0.475247,-0.916836,0.193566,0.349204
0.044528,-0.347180,0.815780,-0.520292,0.853918,0.010992
0.430869,-0.615938,0.667757,0.413259,0.910604,-0.004284
-0.330113,-0.182195,0.717898,-0.011094,0.223705,0.974594
0.285452,-0.558583,0.399717,-0.001541,0.472087,0.881550
0.470416,-0.620516,0.716944,0.921319,0.385278,0.052268
0.343618,-0.749173,0.584442,-0.372284,-0.167767,0.912830
0.575417,0.139974,0.764785,0.249830,0.851232,-0.461507
0.349569,-0.244426,0.558532,0.837093,0.080829,-0.541056
0.123521,-0.331793,0.687504,-0.379155,0.287357,0.879584
-0.345089,-0.150233,0.447008,-0.194643,-0.803752,0.562225
-0.069265,0.247563,0.773277,-0.229560,0.964369,0.131508
-0.746106,-0.130182,0.486951,-0.512193,-0.323665,0.795549
0.050144,-0.441416,0.828743,0.612203,-0.790539,-0.015969
-0.668081,-0.135142,0.666570,0.398096,0.722407,-0.565375
0.187003,0.491818,0.903536,-0.499049,-0.858914,0.114967
0.025306,0.666893,0.637839,-0.016854,0.562494,0.826630
0.324363,-0.580712,-0.971689,-0.001244,0.098662,0.995120
-0.039346,0.214709,0.672285,0.824920,0.350840,0.443191
0.505048,0.047817,0.030337,-0.071047,-0.143029,0.987165
-0.213813,-0.046969,0.744054,-0.082531,-0.581579,0.809292
0.150130,0.263586,0.378320,0.979044,-0.074459,-0.189547
-0.430600,-0.550149,0.440961,0.405100,-0.469608,-0.784450
0.289096,0.423993,0.957106,0.856660,-0.196651,-0.476930
-0.112923,0.194787,0.821408,-0.294460,0.764021,-0.574077
0.298222,-0.485079,0.375022,0.730105,0.434330,-0.527546
0.310290,0.050954,0.635062,0.948180,-0.257297,-0.186424
0.230194,-0.377871,0.463356,0.977427,0.167820,-0.128350
0.484689,-0.264011,0.670303,-0.744865,0.073967,0.663103
-0.493916,-0.200933,0.629232,0.985176,-0.158515,0.065586
0.115331,0.096693,0.601484,-0.387535,0.143364,0.910639
0.361436,0.019584,0.958582,-0.234605,-0.558962,0.795313
0.059805,0.708224,0.731367,-0.613200,0.108731,-0.782408
-0.534265,-0.105129,0.638042,0.165092,0.386951,0.907201
0.139534,-0.459940,-0.609441,-0.626228,0.779345,-0.021434
0.478505,-0.275625,0.727374,-0.604317,0.123580,0.787101
0.022231,-0.651462,0.319238,0.922422,-0.336211,0.189999
0.063716,-0.292497,-0.988586,-0.118141,0.190186,0.974614
0.017049,-0.143197,0.753530,0.349399,0.525387,-0.775815
0.005416,-0.423950,0.695301,-0.629934,-0.543043,-0.555237
0.014776,0.774268,0.726868,0.764368,0.057198,0.642239
0.138965,0.076218,0.910784,-0.417253,0.860743,-0.291584
0.319650,-0.296863,0.913923,0.534827,0.687997,0.490530
0.680216,0.399448,0.849112,-0.494454,0.304500,-0.814122
-0.088621,-0.111869,0.404071,-0.058241,-0.682040,0.728992
-0.368489,-0.523103,0.494372,0.272505,-0.839579,-0.469945
0.165174,-0.163162,0.906603,-0.826056,-0.295251,-0.480061
0.430233,0.785587,0.902436,0.336069,0.564293,0.754076
0.065054,0.613819,0.869828,0.825284,-0.502956,-0.256790
0.720666,0.459389,0.753096,0.375251,0.008021,0.926888
0.405061,0.176304,0.703489,-0.033506,-0.588500,0.807802
0.081166,-0.271174,-0.988904,-0.191490,0.137071,0.971876
0.132580,-0.251335,-0.987964,0.091161,-0.332051,-0.938846
0.246841,0.588257,0.913865,-0.434131,0.879971,0.192825
-0.032325,-0.025604,0.602020,0.171526,-0.872719,0.457099
0.183527,-0.606146,0.688892,-0.213552,0.967295,0.136876
0.652504,0.045952,0.586685,0.188051,0.877510,0.441151
-0.087785,-0.227342,0.524449,0.260816,0.963062,0.066986
0.400448,0.635269,0.892136,-0.038714,-0.588713,0.807414
-0.517082,-0.486773,0.472267,-0.889955,0.269557,-0.367859
0.621348,-0.124375,0.855260,0.698366,-0.666443,-0.261034
-0.747108,-0.193387,0.472499,-0.086739,-0.608524,0.788781
-0.075984,0.628952,0.417829,-0.305207,-0.540722,-0.783881
0.801865,0.090165,0.789364,0.217443,0.147028,0.964936
0.253126,0.296820,0.399847,0.161015,0.516922,0.840753
-0.815036,-0.557948,0.305234,0.068406,0.651853,-0.755254
-0.254262,-0.021874,0.599416,-0.026726,0.100391,0.994589
0.107275,0.373166,0.551748,0.551165,0.730589,-0.403059
0.383165,0.098177,0.691786,-0.623133,0.778643,0.073628
-0.338470,-0.072828,0.689905,0.333798,0.286393,-0.898086
0.591195,0.097203,0.810760,0.870126,0.359700,-0.336893
0.182925,0.048793,0.764163,0.828318,-0.557873,0.051643
0.093168,0.512928,0.653666,0.949645,-0.306167,-0.066612
0.691015,0.392369,0.855694,-0.581292,0.494491,-0.646203
0.158053,0.752946,0.554438,0.738804,0.044153,-0.672473
-0.605101,-0.418864,0.530785,0.254627,-0.243459,0.935891
0.358662,-0.405637,-0.980036,-0.040129,0.106378,0.993516
0.162901,0.491480,0.478459,-0.738254,0.512195,-0.438904
-0.316574,-0.377660,0.375036,0.808743,0.247748,-0.533437
0.047938,0.688681,0.355897,0.331562,0.795877,0.506603
-0.148893,-0.337262,0.175916,-0.295344,0.850410,-0.435402
-0.385271,-0.750275,0.693348,0.599398,0.230762,0.766467
0.292539,-0.264264,-0.006756,-0.122135,-0.067143,0.990240
0.087718,-0.194320,-0.994763,-0.145188,0.284617,0.947583
0.138832,0.134252,0.603785,-0.385280,0.180660,0.904943
-0.223106,-0.416194,0.430762,0.853113,-0.250312,0.457757
-0.146654,0.033827,0.624457,-0.399480,-0.252770,0.881205
0.103096,0.686223,0.403622,-0.547655,0.812417,0.200133
0.011934,-0.188978,0.897416,-0.283042,0.126621,0.950713
0.784114,0.138788,0.781798,0.045881,0.492453,0.869129
0.442635,-0.198812,0.737443,0.222854,-0.771470,0.595961
0.015578,0.681051,0.363058,-0.489669,-0.189278,-0.851116
0.497994,0.027130,0.581593,0.236719,-0.277557,-0.931089
-0.110850,-0.163459,0.426292,0.871639,-0.310078,0.379602
-0.155144,0.114031,0.346566,0.018657,-0.610140,0.792074
-0.606338,0.075159,0.670418,-0.522823,-0.048921,0.851036
-0.585445,-0.081433,0.663952,0.257645,-0.678294,0.688140
-0.461456,-0.351546,0.496760,0.872257,-0.272933,0.405802
0.097714,-0.085544,0.268749,0.796727,-0.581329,0.165172
-0.524303,-0.221704,0.546974,0.747381,-0.664263,-0.013267
0.315772,-0.696184,0.380201,-0.560658,-0.134596,0.817035
0.044160,0.248706,0.651134,0.767940,-0.113802,-0.630331
0.055459,-0.370072,0.812656,-0.449216,0.849730,-0.275977
0.092098,0.010768,0.033187,0.831208,-0.016918,0.555704
0.274020,0.250529,0.802688,0.533927,-0.588244,0.607363
-0.196062,-0.494362,0.733320,0.223972,0.749704,0.622720
0.091998,-0.660449,0.292156,-0.338725,0.155686,0.927916
0.255132,0.435227,0.909930,0.368453,0.929339,-0.023909
0.222939,0.467655,0.899861,-0.424266,-0.877586,0.223254
0.301331,0.521026,0.932006,-0.543317,-0.505564,0.670232
0.245304,0.406570,0.402190,-0.632657,-0.052995,0.772617
-0.051280,-0.214498,0.586251,-0.892294,0.418889,-0.168356
0.177843,0.145103,0.972571,-0.514996,-0.650363,-0.558396
-0.583773,-0.621110,0.544153,-0.824627,0.369367,-0.428437
0.289898,-0.194065,0.898111,0.402572,0.542492,0.737319
0.284883,0.035439,0.702274,0.858620,0.126534,0.496750
0.187638,-0.541246,-0.972658,0.030255,0.043311,0.998603
0.155212,0.711615,0.627973,-0.426504,-0.429188,0.796173
0.506519,-0.309792,0.745920,-0.656486,0.613020,0.439583
0.195762,0.121662,0.964180,0.730114,0.557954,-0.394488
-0.288961,0.095931,0.431558,-0.376395,0.550046,0.745504
-0.281473,0.457313,0.433424,-0.289342,0.645726,-0.706625
-0.399211,-0.100339,0.465425,-0.316049,0.589152,-0.743649
0.485993,0.512632,0.404491,0.291298,-0.656565,0.695750
-0.145818,0.197583,0.809227,-0.575620,-0.323720,-0.750911
-0.103697,0.750360,0.399297,0.111111,0.504796,0.856058
0.163435,0.679058,0.797972,0.077424,-0.245114,0.966398
-0.159524,-0.183679,0.611177,0.470119,0.880698,0.057955
0.418032,-0.647562,0.678737,0.163802,0.310682,-0.936293
-0.037741,-0.136498,0.579003,-0.827081,0.441244,0.348196
-0.372769,-0.128147,0.692133,-0.186888,0.633791,-0.750587
-0.656482,-0.089869,0.349199,-0.405686,0.008940,0.913969
0.412649,-0.071810,0.898660,0.992380,-0.122630,-0.011956
0.289096,0.397329,0.452318,-0.629550,0.675936,-0.383115
0.258909,-0.011064,0.736343,0.880335,0.229239,0.415284
0.457779,-0.496736,0.712010,0.835853,-0.505456,-0.214160
0.668015,0.066808,0.625181,-0.288576,0.946316,-0.145634
0.134853,0.090590,0.913807,-0.280525,0.901744,-0.328883
0.374942,-0.011997,0.962878,0.475905,0.602531,-0.640680
-0.652871,-0.541585,0.493938,0.159908,0.896789,0.412552
-0.071204,-0.198516,0.220126,0.671016,-0.389015,0.631193
0.368390,0.506613,0.868743,0.984888,-0.023345,-0.171610
-0.149528,-0.325901,0.859687,-0.121898,-0.832742,0.540075
-0.484756,-0.162569,0.614678,0.913933,-0.353273,0.199812
0.135656,0.319924,0.515291,0.816884,-0.351511,0.457320
0.204687,-0.137898,0.782767,0.939057,-0.340797,0.045053
0.203717,-0.604450,-0.972340,-0.075273,0.091693,0.992938
-0.156682,-0.744384,0.589274,0.319663,-0.345262,-0.882389
0.143846,0.079694,0.990553,-0.234882,0.584943,0.776320
0.328609,0.213353,0.786934,0.872464,0.014039,0.488477
0.359497,0.071047,0.912780,0.257423,-0.926219,0.275412
0.004112,0.195803,0.655055,0.325381,-0.241166,0.914312
0.367019,0.637643,0.867658,-0.500777,0.629796,0.593784
-0.562947,-0.777829,0.512615,0.155773,-0.764367,0.625682
0.132480,0.500508,0.868136,0.608933,0.268310,-0.746465
0.525506,-0.110640,0.933135,0.935626,0.320846,0.147177
-0.152136,-0.357143,0.433352,0.035077,-0.924575,0.379383
0.384904,0.265240,0.940267,-0.358168,-0.570709,0.738923
0.838705,-0.029249,0.698122,0.083205,-0.634381,0.768529
0.124524,0.494447,0.430140,0.312084,0.937642,-0.153069
0.299425,-0.339466,0.697356,0.636622,0.750742,0.176348
0.411981,-0.462696,0.765841,0.552037,-0.747461,-0.369536
0.050779,-0.489826,0.403189,-0.074337,0.996743,-0.031273
0.070101,-0.154429,0.873344,-0.620144,0.507458,0.598254
0.139634,0.780966,0.812091,0.083488,-0.384328,0.919414
0.332186,-0.336329,0.669305,-0.600775,-0.799415,0.002239
0.317009,-0.225774,0.923500,0.056100,-0.934149,0.352445
0.339740,-0.800169,0.645275,0.526760,0.465303,0.711349
0.402153,0.621408,0.781653,-0.479641,0.368256,-0.796450
-0.190980,-0.280287,0.483841,0.290724,0.100967,0.951465
0.853847,-0.070920,0.686737,-0.695135,-0.706370,0.133524
0.072274,0.608902,0.869148,0.825284,-0.502956,-0.256790
0.478639,0.281179,0.894378,0.587916,0.499513,-0.636271
0.780838,0.340610,0.779368,0.812322,0.305703,-0.496667
0.721903,0.293811,0.850182,-0.618003,0.279909,-0.734659
