0.022711,-0.407894,-0.990017,-0.205315,-0.169532,-0.963901
-0.305070,-0.445379,0.907971,0.699778,0.456362,0.549586
0.014367,0.053902,0.338202,0.513215,0.544987,-0.663023
0.734924,-0.072919,0.835908,0.950760,-0.261242,0.166756
-0.095609,-0.261372,0.121342,0.421151,-0.902492,-0.090216
-0.645627,-0.175525,0.838794,-0.125931,0.271658,0.954119
0.327082,-0.445516,0.776147,-0.344742,0.234795,0.908859
-0.009562,-0.860866,0.627485,-0.132008,-0.966923,0.218253
-0.324936,-0.479376,0.485266,0.985704,-0.070149,0.153188
-0.115917,-0.168753,0.428942,0.949117,-0.025106,0.313920
-0.135419,-0.247828,0.720270,0.704970,-0.442892,-0.553953
0.373243,0.227512,0.946752,0.584681,0.661281,-0.469952
-0.127809,-0.189890,0.275125,-0.566979,-0.783451,-0.254440
-0.157945,-0.274232,-0.255073,0.606298,-0.787934,-0.107525
0.127886,-0.552705,0.341758,0.598186,0.197064,-0.776749
-0.247679,0.493809,0.838674,0.625057,-0.437342,0.646556
-0.172348,-0.351666,-0.887232,0.024068,-0.983245,0.180696
-0.116363,-0.368698,-0.920566,-0.199258,0.978772,0.047973
-0.320875,-0.464669,0.477208,0.999492,0.031544,-0.004581
0.299827,-0.438470,0.460901,0.588993,-0.088119,-0.803319
-0.097159,-0.162802,0.528892,0.097277,0.938866,0.330254
0.142730,0.931117,0.800323,-0.318236,0.656567,-0.683846
-0.060451,-0.253779,0.143817,0.026377,0.999472,0.018993
-0.126258,0.025994,0.955360,-0.581623,0.360486,-0.729222
-0.072343,-0.132909,0.846252,0.207621,0.970103,-0.125675
-0.268065,-0.176688,0.803863,0.649796,0.637814,0.413470
-0.058680,-0.848622,0.622691,0.596949,0.723984,-0.345686
0.104548,0.044394,0.354164,-0.431136,-0.759174,0.487624
-0.068205,-0.496477,0.128628,0.372636,0.927455,0.031149
0.360689,-0.157398,0.585268,0.217560,-0.843502,0.491092
0.161862,-0.568575,0.391536,0.843219,0.534656,-0.055897
-0.483435,-0.417744,0.657949,0.760097,0.544645,0.354422
-0.142063,-0.297079,0.050327,-0.405268,0.901198,0.153624
0.990547,0.205965,0.781491,0.362911,-0.141026,0.921090
-0.502418,0.207949,0.744515,0.228038,-0.047632,0.972486
-0.346430,-0.374171,0.660888,0.414461,0.092476,-0.905356
0.667125,-0.093166,0.789017,0.363213,-0.853116,-0.374526
0.109940,0.090157,0.938693,-0.183403,0.943165,0.277135
-0.129360,-0.691634,0.622777,-0.195063,-0.846757,0.494928
0.207212,0.442506,0.701679,-0.849912,0.016226,0.526676
-0.086967,-0.280457,-0.269919,-0.630847,-0.775851,0.009309
-0.370805,-0.291128,0.571453,0.090360,0.708169,0.700236
-0.234241,-0.453246,-0.988608,-0.168125,0.010454,0.985710
0.323760,-0.464054,0.776199,-0.324994,0.226249,0.918254
-0.155654,-0.798276,0.342136,0.386446,0.731189,-0.562158
0.387867,0.198577,0.919294,0.984122,-0.177003,-0.013200
0.738986,0.109994,0.910084,0.995495,-0.010497,-0.094234
-0.195022,-0.182365,-0.040241,0.525843,0.829237,0.189355
0.306030,0.090430,0.866853,0.657055,0.737489,-0.156171
-0.290298,-0.120460,0.900617,-0.192605,0.959901,-0.203701
-0.184753,-0.419454,-0.975687,0.820025,-0.249034,-0.515307
-0.283874,0.106574,0.845358,0.183792,-0.770683,0.610138
0.498285,0.558109,0.819292,-0.045017,0.876770,0.478798
0.110751,0.752514,0.803966,0.867319,-0.480889,0.128468
-0.366225,-0.790820,0.820014,-0.798470,-0.573738,0.182400
-0.091619,-0.367125,-0.076565,-0.413030,0.910327,-0.026648
0.388751,0.306587,0.924999,0.386723,-0.546369,-0.742917
0.226046,0.528490,0.900393,0.471779,-0.627492,0.619418
-0.485356,-0.784322,0.622193,-0.513759,0.226476,-0.827503
-0.084528,-0.314796,-0.217753,-0.959108,-0.133615,-0.249517
-0.518372,-0.482865,0.879878,0.651567,0.594067,0.471746
0.090294,0.724810,0.810564,-0.498691,0.759981,-0.416816
-0.340079,-0.451467,0.718758,-0.749790,0.617757,-0.237047
-0.197826,-0.352897,-0.497225,-0.781628,0.616483,0.094900
0.364602,0.197483,0.834276,-0.431342,0.721977,-0.541011
-0.411277,-0.703673,0.626523,0.274788,-0.709139,0.649317
0.227078,0.484096,0.939191,0.444473,0.871415,-0.207555
-0.114957,-0.723716,-0.006632,-0.238163,0.003812,0.971218
0.102258,0.068541,0.363786,0.565100,0.473896,-0.675341
0.762698,-0.266092,0.751095,0.897854,-0.187389,-0.398426
-0.034896,0.018127,0.716353,0.720477,0.456672,-0.521885
-0.492375,0.289418,0.783089,-0.341573,0.575493,-0.743059
-0.177888,0.433887,0.824567,0.109182,0.757100,0.644111
0.718457,-0.378001,0.740975,-0.536994,0.154390,0.829338
0.879169,0.105753,0.811732,0.610104,-0.790276,-0.056892
0.363714,-0.148437,0.606849,-0.708548,0.394101,0.585358
-0.266739,-0.441891,-0.988093,0.135951,-0.055105,-0.989182
-0.150556,-0.122238,0.546831,0.981871,0.013843,-0.189046
0.738616,-0.148984,0.864104,-0.082852,0.830398,0.550976
0.668157,-0.214994,0.851991,0.886062,-0.428624,-0.176566
0.010305,0.347767,0.857145,0.462992,0.443993,-0.767144
0.277964,-0.168890,0.578670,0.101748,0.991458,-0.081598
0.652722,-0.204255,0.711181,-0.222856,0.478081,0.849573
-0.063481,0.285040,0.863675,0.728934,0.684495,0.011010
-0.294359,-0.546617,-0.072321,0.159406,0.163507,0.973579
-0.366373,-0.376360,0.526796,0.822205,0.564881,-0.069913
-0.428781,-0.487037,0.880496,0.509808,0.857164,-0.073255
0.102921,-0.627061,0.335504,0.795501,0.442129,0.414367
0.069170,-0.214379,0.299816,-0.646646,-0.586856,0.487287
0.316813,0.446474,0.858348,0.308973,-0.520163,-0.796220
-0.115182,-0.317053,0.055379,-0.419503,0.887775,0.189400
0.451975,0.059512,0.879414,0.722694,-0.613537,0.318254
-0.272572,-0.754224,0.002526,0.084004,0.211638,0.973731
-0.067615,-0.251864,0.160209,0.276091,-0.934603,0.224256
-0.423169,-0.198714,0.868039,0.511338,0.334650,-0.791545
-0.061340,-0.327519,-0.993333,0.073274,0.426482,0.901523
-0.087630,0.182776,0.775185,0.089158,-0.612334,0.785555
-0.099373,0.461181,0.800100,-0.439893,-0.617928,0.651658
-0.113185,-0.343184,0.297170,-0.234523,0.877519,0.418281
0.163485,0.520008,0.940944,-0.500937,0.859316,-0.103141
-0.115845,-0.434777,-0.793691,-0.556063,-0.830010,0.043326
-0.162669,-0.429441,-0.963333,0.947946,0.236969,-0.212708
-0.025515,0.150352,0.907644,0.927811,0.349955,-0.129223
-0.303222,-0.729188,0.646987,-0.732754,-0.645769,0.214601
-0.461797,-0.708804,0.632897,-0.782116,0.608362,-0.134875
0.079804,0.704905,0.817213,-0.462450,0.796978,-0.388544
0.308099,0.766537,0.760357,-0.038202,-0.274420,0.960851
0.328705,0.370135,0.868915,0.249569,-0.912920,-0.322944
-0.082387,-0.194747,0.365951,0.885339,0.405039,0.228293
0.022936,-0.484301,-0.054142,-0.329859,0.209458,0.920500
-0.044426,-0.315548,-0.993316,0.211185,0.406620,0.888854
-0.078028,-0.099938,0.887232,-0.484246,0.736835,0.471784
-0.985818,-0.489158,0.774103,0.250504,0.566611,0.784984
0.012667,-0.163212,0.837334,0.146839,0.905534,-0.398053
-0.253810,-0.020248,0.992027,-0.365815,0.907003,0.208625
0.417115,0.402832,0.462963,-0.343667,-0.491177,0.800399
0.249532,0.704084,0.801560,-0.463592,-0.349969,0.814005
-0.151593,-0.294959,0.040224,0.792836,0.609379,-0.008294
-0.314744,0.083043,0.838142,-0.331440,0.560352,-0.759047
-0.097011,-0.405842,-0.825925,-0.691560,-0.664233,0.283794
-0.110526,-0.176277,0.667726,0.937222,-0.308612,-0.162398
0.012667,0.022847,0.557982,-0.198881,-0.708842,0.676749
-0.445177,-0.417402,0.391553,-0.360744,0.225774,-0.904925
-0.061042,-0.317258,0.122494,0.615631,0.787185,-0.036579
-0.005355,-0.226212,0.915755,0.050794,0.104482,0.993229
-0.339930,-0.635201,0.867472,-0.481948,-0.608227,-0.630704
0.299016,-0.353444,0.570903,-0.053158,0.679754,0.731511
-0.185713,-0.558315,-0.010172,0.368177,0.195236,0.909026
-0.102551,-0.191874,0.806818,-0.097224,-0.993966,0.050787
-0.149005,-0.156919,0.590594,-0.060808,0.994378,0.086693
-0.140810,0.724331,0.884517,-0.084018,0.417500,0.904784
0.121016,-0.185307,0.045293,0.194089,0.689273,-0.698020
0.478270,0.611670,0.905875,0.989441,-0.044794,0.137843
-0.133277,-0.078323,0.959295,-0.504366,-0.808208,-0.303997
0.205661,0.002599,0.906803,-0.538191,0.403782,-0.739805
0.333583,0.613585,0.775134,-0.476664,0.825433,0.302411
-0.042059,0.004309,0.719892,0.873974,0.253725,-0.414480
-0.100261,-0.365004,-0.719823,0.546836,-0.732143,0.406123
-0.302631,0.718791,0.851355,0.564233,-0.555683,-0.610620
-0.032313,-0.455093,-0.983178,-0.523898,0.318085,-0.790160
-0.078253,-0.413093,-0.081720,0.866429,-0.383260,-0.320019
-0.046491,-0.202339,0.409182,0.978402,-0.130874,0.160002
-0.174268,-0.397223,-0.592622,-0.526763,-0.848591,0.049135
-0.747181,-0.310965,0.776714,-0.513292,-0.544008,0.663767
0.440452,0.801012,0.848812,0.795234,0.518576,-0.314136
-0.199526,0.638279,0.822145,0.775276,0.213563,0.594422
0.442152,0.985362,0.790804,-0.556766,0.750410,0.356227
-0.109566,-0.110267,0.911253,0.414695,-0.861687,0.292445
-0.818235,-0.293864,0.846080,-0.039686,-0.550492,0.833897
0.431811,0.399412,0.864242,-0.237103,-0.905787,-0.351186
-0.189852,-0.354744,0.362377,-0.129505,0.959381,-0.250631
-0.113704,-0.388467,-0.080379,-0.444660,0.884253,-0.142737
0.119983,-0.187017,0.441245,-0.450260,-0.850839,0.270811
0.096199,0.074697,0.607382,0.368518,0.505734,-0.780018
-0.220280,-0.153567,0.793519,0.635836,0.762300,-0.120879
0.067619,-0.061085,0.904517,-0.158443,0.781825,-0.603030
0.414532,0.633354,0.810358,0.616132,-0.403674,-0.676335
0.417336,-0.040906,0.610268,0.315352,0.058497,0.947170
-0.139922,-0.536494,-0.061341,-0.291624,0.698269,0.653740
0.275750,-0.208017,0.859929,0.234773,-0.449888,0.861674
-0.548580,0.102333,0.754412,-0.365412,0.086663,-0.926803
0.449243,0.003831,0.855101,-0.585835,-0.644699,-0.491080
-0.395991,-0.448731,0.628482,0.884566,0.423355,0.195737
0.086967,0.612012,0.865049,0.994702,0.101933,-0.013323
0.070130,-0.167795,0.479218,0.273578,0.901567,-0.335160
0.232100,0.193105,0.408443,0.619006,0.392345,-0.680366
-0.678715,-0.377728,0.826887,0.726696,0.396481,0.560996
-0.626648,-0.369109,0.915909,0.788129,0.615125,-0.021789
0.510988,0.540735,0.823863,0.512352,0.597756,0.616590
-0.082387,-0.512757,0.130432,0.372636,0.927455,0.031149
-0.659146,-0.549764,0.892094,-0.173282,0.322404,0.930607
-0.316223,-0.570832,0.536109,0.983052,-0.179116,0.039081
-0.047158,0.533963,0.868761,-0.216128,-0.624571,0.750466
0.034454,0.114030,0.356432,0.490236,0.522685,-0.697474
-0.100482,-0.453656,0.324043,0.622807,0.735684,0.266235
0.377747,0.411724,0.813416,0.734191,0.582001,-0.349627
-0.596954,-0.422806,0.707022,-0.087691,-0.988772,0.121000
0.423615,0.699501,0.797316,0.905330,-0.371732,-0.205408
-0.082536,0.081469,0.959673,0.598051,-0.403966,0.692204
-0.609955,0.033518,0.860977,0.013288,-0.454281,0.890760
0.711515,-0.168821,0.714840,0.906929,0.143270,-0.396173
-0.307581,0.335112,0.863675,-0.322901,-0.702779,0.633905
-0.636102,0.428483,0.767109,0.063309,-0.011031,0.997933
-0.420288,-0.558109,0.565096,-0.489028,-0.677023,-0.549993
0.173308,-0.573158,0.337068,-0.362583,-0.260740,0.894734
0.388530,0.730967,0.848503,0.947107,-0.210465,0.242268
-0.141031,-0.636090,0.620045,0.317185,0.945639,-0.071838
0.523398,-0.126411,0.804997,0.740172,-0.543266,0.396242
-0.326339,-0.390040,0.415763,0.274549,0.930751,0.241508
0.178924,0.385115,0.689943,-0.360188,0.597257,-0.716623
-0.208537,0.213626,0.777264,-0.013565,-0.640456,0.767875
-0.275895,-0.408373,0.137150,-0.130454,-0.649628,0.748976
-0.082978,-0.135167,0.883864,-0.494371,-0.279098,0.823226
-0.063922,-0.481565,-0.071101,-0.385330,0.421097,0.821096
-0.233353,-0.313633,0.511675,0.884314,-0.317907,0.341941
0.511507,-0.125453,0.639066,0.710157,0.515300,-0.479732
-0.059122,-0.373281,-0.187529,-0.301414,0.889983,-0.342170
0.012744,0.665983,0.890806,0.690889,0.072764,-0.719290
0.377675,0.719748,0.840667,-0.625788,-0.498553,-0.599862
0.654345,-0.071551,0.785649,0.306130,-0.949856,0.063700
0.072343,0.038854,0.561109,-0.689609,0.459901,0.559402
-0.256100,-0.722348,-0.000326,0.048643,0.174789,0.983404
-0.634623,-0.168206,0.635509,0.183629,-0.718535,0.670811
0.493781,0.517819,0.923006,0.596146,0.082048,0.798673
-0.541047,-0.412272,0.698105,0.731611,0.623261,0.276208
0.239412,-0.192558,0.575165,-0.509347,-0.454749,0.730595
-0.478783,-0.749641,0.789739,0.445032,0.889262,-0.105636
-0.150484,-0.270880,-0.098112,0.853854,0.510781,-0.100178
0.033273,-0.067104,0.899758,0.613033,0.094345,-0.784404
-0.378117,-0.240235,0.842557,-0.015004,0.940590,0.339214
0.050038,-0.333607,0.643843,0.679090,0.639590,0.360223
0.756269,0.096860,0.591264,-0.484543,0.808735,0.333414
0.539424,-0.121623,0.659152,-0.080048,-0.981567,0.173549
-0.655598,-0.563103,0.896132,-0.173282,0.322404,0.930607
-0.055578,0.688282,0.817901,0.281007,-0.175766,0.943473
0.051224,-0.117381,0.909002,0.238374,-0.032542,-0.970628
0.132096,-0.596894,0.332239,-0.308086,-0.078993,0.948074
-0.286678,0.148027,0.849637,0.796649,0.150852,-0.585316
-0.121385,-0.145974,0.597639,-0.162733,0.977584,0.133598
-0.075815,-0.258089,0.120775,-0.263894,0.963223,0.050613
-0.423092,-0.394418,0.988024,0.327688,-0.699510,0.635065
0.399980,-0.408988,0.600509,0.871109,0.151112,0.467263
0.277599,-0.253779,0.862558,0.396978,0.129252,0.908682
-0.641714,-0.169916,0.632932,0.183629,-0.718535,0.670811
0.122273,-0.515904,0.342738,0.078561,-0.169758,0.982349
-0.240593,0.108352,0.580319,0.838944,0.509690,0.190757
-0.298272,-0.440112,0.563085,0.710566,0.685145,-0.160226
0.085416,-0.149805,0.047441,0.142992,0.751550,-0.643992
-0.078397,-0.663041,0.635217,-0.035321,0.944532,0.326514
-0.006460,-0.079486,0.653929,-0.759797,-0.650001,0.014414
-0.735736,-0.092688,0.840392,-0.699572,0.197822,-0.686633
0.723551,0.233874,0.847420,0.958145,0.013027,0.285986
-0.480483,-0.034544,0.908968,0.424683,0.905180,-0.017146
-0.853465,-0.500992,0.833708,0.012365,-0.162691,0.986600
0.731972,0.232506,0.880221,-0.657517,-0.753033,-0.024757
-0.326118,-0.420275,0.563206,0.942079,-0.245460,0.228553
0.319031,0.469868,0.890582,0.458268,0.563836,-0.687080
-0.370435,-0.578767,0.810306,0.598894,0.488228,0.634791
-0.127886,0.088652,-0.174711,0.812794,0.378660,-0.442699
-0.128030,-0.162255,0.710734,-0.845521,0.435854,0.308425
-0.130911,-0.215473,0.231241,0.819035,-0.569498,0.069676
0.316002,0.868117,0.793519,0.831731,-0.545222,0.104671
-0.847555,-0.268691,0.836355,0.398802,-0.916315,0.036370
0.194509,0.190848,0.400729,-0.411853,-0.582087,0.701108
0.103218,0.091251,0.611883,0.411876,0.689255,-0.596058
0.500724,0.433203,0.841063,-0.069103,-0.978994,0.191820
-0.091101,-0.319516,0.906425,0.890423,0.196929,-0.410325
-0.178920,-0.650181,0.609306,0.480847,-0.874215,0.067337
-0.020863,-0.120323,-0.190519,0.109060,-0.567154,0.816359
0.450352,-0.502976,0.580457,0.791700,0.579831,-0.192372
0.057796,0.539025,0.934415,0.895816,0.365538,0.252775
-0.076698,-0.392777,-0.898022,0.088064,0.990627,-0.104417
-0.065401,-0.456461,0.342686,0.566147,0.569244,-0.596187
0.983532,0.185170,0.771783,0.197059,-0.092401,0.976028
0.202632,0.629113,0.786904,0.370824,0.734492,-0.568341
-0.137118,-0.365688,-0.024158,-0.451587,0.808263,-0.377862
-0.521546,-0.511458,0.944827,-0.109387,0.786652,0.607629
0.764100,-0.176483,0.803725,0.980186,-0.187214,0.064704
-0.182910,0.630070,0.816612,-0.439394,0.332854,-0.834351
0.194139,-0.332786,0.799430,0.910290,-0.401755,0.099826
-0.115845,-0.945071,0.578962,0.790182,0.186722,-0.583735
0.155289,0.268213,0.691180,0.977392,0.051281,-0.205124
-0.117026,-0.313291,0.257324,0.995338,-0.094827,-0.017595
0.613133,-0.422943,0.508067,-0.001243,-0.600222,0.799832
-0.377229,-0.412545,0.532913,-0.689309,-0.688731,-0.224728
0.046644,0.702168,0.869792,0.792725,0.581766,-0.182030
0.048934,-0.192216,0.922335,-0.172413,0.138957,0.975174
-0.116363,-0.265340,0.760185,0.303705,0.809283,0.502815
-0.208907,-0.119023,0.284799,0.713915,0.282642,0.640655
0.044944,-0.152610,0.931872,-0.458795,0.041643,0.887566
0.368591,-0.172789,0.855702,-0.468533,0.821055,-0.326106
-0.039106,0.443396,0.816251,0.974620,0.109529,-0.195243
-0.090587,-0.315548,-0.203577,0.779420,0.614458,0.122252
0.611213,-0.174225,0.732951,0.149207,-0.579479,0.801212
-0.920453,-0.625145,0.775357,-0.366883,0.283149,0.886128
-0.261789,-0.042753,0.991082,-0.163724,-0.591346,0.789623
-0.091547,-0.382790,-0.649977,-0.043576,0.953303,0.298855
-0.371026,-0.759081,0.806440,-0.640800,-0.761766,0.095327
-0.177590,-0.544155,-0.983316,0.081346,0.048747,-0.995493
0.157872,0.104727,0.376158,-0.718344,-0.175450,0.673201
-0.045309,0.198030,0.815959,-0.728564,-0.419523,0.541475
-0.125077,0.012244,0.704136,-0.216696,-0.599499,0.770483
-0.125226,-0.255626,0.235365,0.880266,-0.417825,-0.224844
-0.085488,-0.335591,-0.755236,0.798507,0.471225,0.374610
0.337793,-0.042958,0.801955,0.337060,0.666874,0.664582
0.031280,-0.183733,0.762762,0.263635,0.311122,-0.913072
0.463939,-0.441343,0.493857,0.282490,0.622083,-0.730214
0.210016,-0.134688,0.854998,-0.672079,0.075149,0.736656
-0.214370,-0.145359,0.770494,-0.374274,-0.913703,-0.158319
0.255217,0.256447,0.957508,0.966491,-0.166627,-0.195270
-0.124780,-0.158219,0.702057,0.952362,-0.231195,-0.198885
0.379298,0.514467,0.923315,0.283663,0.138476,-0.948873
0.224419,0.404132,0.813743,0.930488,0.186159,0.315495
0.483363,-0.438470,0.611351,-0.109586,-0.490687,0.864417
0.361424,0.157261,0.903022,0.339265,0.072994,0.937854
-0.104990,0.446269,0.901442,0.193410,-0.887837,0.417537
-0.422430,-0.404816,0.976683,-0.280352,0.837249,-0.469487
0.672810,-0.064574,0.740013,-0.419355,0.687858,-0.592447
-0.093098,-0.386757,0.861080,0.983491,-0.177823,0.033528
-0.388309,-0.479445,0.718414,0.803611,-0.502530,0.318861
-0.494295,-0.404405,0.567450,-0.809521,0.367683,-0.457696
-0.055578,0.222177,0.862059,0.832585,0.537174,-0.135077
0.013186,0.122580,0.816612,0.068145,-0.789382,0.610108
-0.256547,0.159724,0.862077,-0.637415,-0.487244,0.596905
0.049596,-0.553526,0.336363,0.799503,0.520190,0.300328
-0.350713,-0.323962,0.443719,0.787544,-0.616179,0.009932
-0.223603,-0.456803,0.583893,0.499846,-0.060448,0.864002
0.315853,0.200356,0.881166,0.003714,-0.727080,0.686543
-0.407139,-0.797866,0.625320,-0.065414,-0.454884,0.888145
0.363123,-0.462754,0.348408,-0.075141,-0.202146,0.976469
0.944904,0.156303,0.786130,-0.273809,0.563341,-0.779536
0.496585,-0.201177,0.622347,0.649262,0.588568,-0.481713
0.018500,-0.240235,0.657812,-0.250808,0.739751,0.624391
-0.179141,-0.714755,0.851338,0.691676,0.070848,-0.718725
0.223900,-0.537109,0.350882,-0.101376,0.296172,0.949739
-0.084528,-0.207470,0.788862,0.855324,0.481053,-0.192379
-0.020493,-0.423080,-0.975807,0.723812,-0.207602,0.658025
0.791499,0.219440,0.843915,0.957016,0.253536,0.140853
-0.207947,-0.556536,0.334301,0.198665,0.177774,-0.963809
0.119834,0.655448,0.954003,0.904466,-0.415974,0.094378
0.306328,0.491894,0.924036,0.309929,-0.937870,0.156024
0.098638,-0.130378,0.557089,0.604587,0.718402,0.344053
-0.109566,-0.166838,0.463891,0.585853,-0.805669,0.087600
-0.113483,-0.340037,-0.549099,0.405680,0.879431,0.249048
-0.017099,-0.325604,0.832368,0.942806,-0.291160,0.162305
-0.400715,-0.144333,0.921339,-0.246875,-0.967026,0.062556
0.336017,-0.350366,0.762883,-0.277887,0.159168,0.947335
-0.120795,-0.308708,-0.472104,0.751788,-0.585104,0.304085
-0.080836,-0.421369,0.902215,0.909322,0.152385,-0.387185
0.632856,-0.388399,0.506813,0.135430,-0.650019,0.747753
-0.409654,-0.599562,0.908194,0.386412,-0.467319,0.795172
-0.041099,0.557562,0.863108,0.810116,-0.094667,0.578577
-0.127219,-0.662699,-0.002577,0.246525,0.297358,-0.922390
-0.521474,0.346125,0.782883,0.856186,-0.498916,0.134272
0.045535,-0.365552,-0.994897,-0.009819,0.269488,0.962954
0.283283,0.638279,0.746920,0.952007,-0.305418,0.020058
0.075670,0.634312,0.971271,0.935295,-0.345058,0.078481
-0.084010,-0.067788,0.633860,-0.356094,0.804198,-0.475881
-0.215331,-0.381353,0.330074,-0.088927,-0.993806,-0.066647
0.020719,-0.280115,0.143233,-0.119663,-0.981889,0.146886
-0.742308,-0.037280,0.672812,0.462117,-0.626365,0.627785
-0.333506,0.242014,0.891373,-0.271793,0.395259,-0.877439
0.081134,0.654217,0.863967,-0.674333,-0.518811,0.525462
-0.672810,-0.537451,0.821629,0.512883,0.052731,0.856837
-0.231284,-0.379711,0.338459,0.318788,-0.947548,0.022953
-0.128400,-0.189958,0.709617,-0.140262,0.638537,0.756701
-0.183203,0.422122,0.890221,-0.862845,0.474858,-0.173230
0.459066,-0.621315,0.618155,-0.223018,-0.964173,-0.143640
-0.277297,-0.074287,0.964054,-0.456865,-0.844433,-0.279656
0.611362,0.405500,0.872128,-0.754789,0.633485,0.170268
-0.384910,-0.658048,0.882919,0.527490,0.849258,0.022681
0.433438,0.964498,0.795237,-0.556766,0.750410,0.356227
-0.058973,-0.043368,0.711748,0.739592,-0.671740,0.042062
-0.171166,-0.330734,-0.371793,0.945689,-0.217937,-0.241197
-0.275823,-0.186812,0.110689,0.859079,-0.162185,0.485468
0.670375,-0.130720,0.860032,0.843155,-0.478553,-0.245104
0.208907,0.163349,0.687142,0.907534,0.167566,-0.385102
0.151521,-0.520897,-0.044296,0.242440,-0.068355,-0.967755
-0.061412,-0.247281,0.179144,-0.121824,0.836667,0.533992
-0.321835,-0.713250,0.838640,0.876392,0.038399,-0.480066
0.186529,-0.268007,0.114194,0.900895,-0.377033,-0.215021
0.280254,-0.105616,0.828021,-0.651179,0.570956,-0.499975
0.213636,-0.396539,0.791801,0.262949,-0.964678,0.015939
-0.267772,-0.626445,0.846973,0.170193,0.728100,0.664007
0.457443,-0.156372,0.653585,-0.753694,-0.294813,-0.587393
-0.087779,-0.389014,-0.143147,0.512229,-0.756312,0.406956
-0.112153,-0.210822,0.545800,-0.045145,-0.995478,0.083583
0.409361,0.400506,0.822729,-0.641447,-0.736032,0.216339
0.102258,0.687804,0.809602,0.277830,-0.617957,0.735486
0.188450,-0.134141,0.792110,0.715046,0.011556,-0.698982
-0.196424,-0.432451,0.572450,-0.715718,-0.298844,0.631221
0.110012,0.501607,0.941150,-0.215916,0.638255,-0.738926
-0.174047,-0.384568,0.130397,-0.369073,0.027056,-0.929006
-0.267181,0.268623,0.882781,-0.039200,-0.103611,0.993845
-0.104030,-0.364115,-0.286500,-0.741729,-0.657818,0.130816
0.309060,0.353718,0.952766,0.815163,0.326058,-0.478744
-0.486983,0.146864,0.870324,0.839312,0.542790,0.030582
-0.349532,-0.798550,0.843399,-0.428114,-0.754777,0.497021
0.116363,0.517819,0.952164,-0.537442,-0.734882,-0.413648
-0.082608,-0.499213,-0.982749,-0.185893,0.423933,-0.886411
0.260685,0.436555,0.886098,0.310760,-0.172739,0.934660
0.859375,0.106437,0.893692,0.622273,0.552873,-0.554173
0.130103,0.008003,0.566522,0.851980,-0.475776,-0.218558
0.696593,0.019906,0.817763,0.629875,0.154414,-0.761193
0.017766,-0.394829,0.382412,0.868737,0.471495,-0.151620
-0.400566,-0.678774,0.644994,0.343919,0.224747,-0.911706
-0.464678,-0.231685,0.852901,-0.078312,-0.888149,0.452833
0.100040,0.085710,0.924964,-0.383505,0.916508,-0.113741
0.404930,-0.449552,-0.027354,0.274464,0.004702,-0.961586
-0.335571,-0.210206,0.780271,0.421753,-0.780935,0.460722
-0.139629,-0.349203,-0.707211,-0.339882,0.855130,-0.391449
-0.312603,-0.496477,0.435145,0.780153,0.123357,0.613307
0.532996,-0.288187,0.606265,-0.278119,0.222441,-0.934435
-0.048487,0.628429,0.862747,0.325710,-0.476967,0.816343
-0.198863,0.263698,0.885513,-0.370261,0.236422,-0.898338
-0.088739,-0.486422,0.932370,0.780907,-0.522689,-0.342025
0.777614,-0.230317,0.775752,0.954791,0.290842,-0.061521
0.395549,-0.375333,0.767384,-0.556873,0.528657,0.640636
-0.910116,-0.300568,0.832884,-0.798265,0.461704,0.386785
-0.060672,-0.352555,-0.061444,-0.706205,0.668824,-0.232268
0.025078,-0.530611,-0.991168,0.384143,-0.141614,0.912348
-0.196645,0.677201,0.847403,0.357169,-0.501370,0.788073
-0.275823,0.503933,0.837575,0.375163,0.707279,-0.599175
-0.098710,-0.365073,-0.154934,-0.213503,0.975454,0.053906
0.142807,-0.235242,0.514682,0.997526,-0.021110,-0.067053
0.400792,-0.057254,0.612485,0.569720,-0.414385,-0.709721
-0.030762,-0.632191,0.350848,-0.479155,0.385638,0.788476
0.004025,-0.333265,0.832317,0.943054,-0.294880,0.153932
0.823627,0.127574,0.884740,0.451520,-0.672644,0.586242
-0.003728,-0.028046,0.324215,-0.148840,-0.677489,0.720316
0.167402,0.093372,0.606883,-0.413468,-0.683773,0.601247
-0.175152,-0.343526,-0.545267,-0.400379,0.857960,0.321872
0.007425,0.227444,0.898985,0.132652,0.676161,0.724714
0.363200,0.447773,0.910359,0.793069,0.293351,-0.533841
-0.269250,0.605035,0.915016,0.803543,0.514412,0.299497
0.281732,-0.283125,0.836939,-0.656379,0.663901,-0.358331
-0.455888,0.200903,0.902077,0.627784,0.418668,-0.656204
0.359062,0.290854,0.955309,0.830257,-0.364453,0.421720
-0.215628,-0.305561,-0.034743,0.801858,0.576454,0.157241
-0.564605,-0.665025,0.886940,-0.308287,0.121303,-0.943528
0.136676,0.366715,0.882644,-0.297092,0.706361,-0.642488
-0.066064,0.065942,0.758106,0.942169,-0.230174,0.243591
-0.180250,0.391545,0.821097,0.371715,0.872452,0.317262
0.106027,-0.180176,0.478462,0.413941,0.875486,-0.249353
0.030690,-0.195567,0.468891,-0.093256,0.994293,-0.051818
0.255956,0.070935,0.795529,0.594599,0.790589,-0.146358
-0.834928,-0.349682,0.815048,-0.266851,0.188030,-0.945217
-0.113262,-0.142759,0.500421,-0.768865,-0.621536,0.150133
-0.022490,-0.442027,0.084606,0.096939,-0.189495,0.977085
0.326861,0.078733,0.884019,0.911881,0.390296,0.127047
-0.389635,-0.317327,0.660613,0.145991,-0.318794,0.936513
-0.149596,-0.338737,-0.653345,-0.104934,0.994194,-0.023810
-0.818235,-0.441959,0.826561,0.125747,0.425445,0.896205
-0.433141,0.409330,0.805632,-0.263983,0.960270,-0.090522
-0.581596,-0.256242,0.608670,-0.734593,-0.629031,0.254350
-0.455518,0.389220,0.767505,0.015870,0.189110,0.981828
-0.373758,-0.373555,0.534133,0.670890,0.712127,0.206838
0.211566,0.445311,0.700253,0.752563,0.290692,-0.590886
-0.470511,-0.831863,0.620990,-0.205386,0.200487,0.957926
-0.730268,-0.197278,0.856784,-0.021257,0.227573,0.973529
0.380776,0.313086,0.458633,0.407603,0.651439,-0.639911
-0.291186,-0.037349,0.809636,0.889145,-0.236268,0.391916
0.162822,-0.301252,0.698174,-0.448694,0.806711,0.384566
0.105287,-0.160818,0.909191,0.422319,0.677031,-0.602724
0.054325,0.270402,0.900892,-0.650697,0.652051,-0.389131
0.373537,-0.166427,0.850650,0.427843,-0.831817,0.353597
0.219839,0.328203,0.728380,0.940692,0.265747,-0.210894
0.832566,-0.092688,0.779601,0.031676,-0.995176,-0.092855
-0.142510,-0.056775,0.537672,0.951861,0.306528,0.000618
-0.057941,-0.144470,0.867197,-0.103097,-0.967677,-0.230159
0.058905,-0.197825,0.608172,-0.644158,-0.759662,0.089299
0.271468,0.382653,0.878348,-0.486679,0.593282,-0.641218
0.312900,0.295301,0.894551,-0.743180,-0.094021,0.662453
0.177076,0.522266,0.931717,-0.587411,0.749961,0.304150
0.083866,0.933580,0.820134,-0.029635,-0.605941,0.794957
-0.100410,-0.250564,0.294112,0.983217,-0.149588,-0.104441
-0.277373,0.428552,0.793777,0.210808,0.231546,0.949709
-0.295396,-0.308708,-0.560353,-0.000667,-0.990558,0.137095
-0.351380,-0.589712,0.860101,-0.623211,-0.745513,-0.236259
-0.223454,-0.482112,0.880359,0.802838,0.400831,0.441344
0.767422,0.161502,0.840959,-0.779655,-0.238605,0.578969
0.205661,0.846638,0.811028,-0.123359,0.267995,0.955490
-0.225230,0.649018,0.887129,0.664702,0.722134,-0.191555
-0.203808,0.600178,0.859860,0.566813,0.810574,0.147285
-0.021674,-0.452972,-0.982027,0.717942,-0.207626,0.664417
0.291704,0.931801,0.790546,-0.399164,0.448619,-0.799631
0.465268,0.597373,0.905411,0.989441,-0.044794,0.137843
-0.626202,-0.336685,0.882627,0.872665,0.463205,-0.154585
-0.187855,-0.352144,-0.600371,0.986547,-0.156038,-0.048752
-0.110156,0.165196,0.764962,0.178958,-0.499537,0.847606
-0.540231,-0.482933,0.958487,0.644771,-0.047279,-0.762912
-0.449829,-0.551064,0.895978,0.253241,-0.530075,0.809252
-0.578715,-0.595868,0.728260,0.222576,0.905791,0.360559
0.039846,-0.468705,-0.991649,-0.313970,-0.042106,-0.948499
0.064811,-0.166154,0.044331,0.115139,0.739468,-0.663272
-0.114222,-0.183049,0.468977,0.528647,-0.845480,0.075478
0.246945,-0.351597,0.770477,0.141302,-0.552047,0.821753
-0.415488,-0.526301,0.722658,0.906069,-0.096225,0.412043
0.137857,-0.045215,0.864706,0.081091,-0.917154,0.390196
0.673918,-0.224571,0.728655,-0.018783,0.596918,0.802082
0.281363,0.434708,0.944776,0.873275,0.386863,-0.296189
-0.076108,-0.039811,0.051547,0.140561,0.215702,0.966289
-0.036595,0.277174,0.825736,0.809201,0.296629,-0.507154
-0.311494,-0.701348,0.840066,0.827769,0.162029,-0.537165
-0.271464,-0.024420,0.985343,-0.531124,0.753259,0.387953
-0.138002,-0.342773,-0.208681,0.807169,-0.535519,-0.248390
-0.153144,-0.151447,0.691833,0.994494,-0.020819,0.102708
-0.107794,-0.170395,0.452791,0.275789,-0.929370,0.245379
0.430778,0.509611,0.851183,0.811684,-0.370147,0.451841
-0.094870,-0.276079,0.120535,-0.628485,0.455204,0.630711
0.749178,-0.015528,0.741439,-0.004309,-0.409315,0.912383
0.028400,-0.070388,0.906665,0.840227,-0.174803,0.513286
-0.059342,0.444832,0.830220,0.819739,-0.369131,0.437917
-0.135788,0.449005,0.878864,0.056893,0.932409,0.356898
-0.686915,-0.160408,0.823966,0.885164,0.087794,-0.456922
-0.160604,-0.390793,-0.560663,0.281766,0.923909,-0.258842
0.855683,-0.206922,0.812523,0.522497,0.214030,-0.825341
0.479009,0.719885,0.830427,-0.549412,0.828518,0.108184
-0.026475,0.547438,0.808296,0.806983,0.043879,-0.588943
0.254703,0.344073,0.806784,-0.459934,-0.721952,-0.516958
0.807083,-0.342021,0.781113,-0.757139,-0.603015,0.251223
-0.342811,-0.682605,0.843228,0.783583,0.411311,-0.465641
-0.132610,-0.409672,0.326191,0.533621,0.711348,0.457419
0.762328,-0.062863,0.778656,0.430712,0.900525,-0.059516
-0.343401,-0.238320,0.858795,0.550864,0.753725,-0.358396
-0.222791,0.464259,0.797419,0.194329,0.748217,-0.634356
0.761810,-0.065189,0.871235,0.214341,-0.947127,0.238763
0.128183,-0.564745,0.386605,-0.708915,-0.705239,0.008786
0.135125,-0.221835,0.509510,0.992900,0.093705,-0.073270
-0.489566,-0.719885,0.875187,0.577843,-0.775039,0.255758
0.028991,-0.395444,0.401502,0.895393,0.353992,-0.270112
-0.391780,-0.134756,0.920652,-0.246875,-0.967026,0.062556
-0.041915,-0.218551,0.262651,0.797476,-0.602762,-0.026669
0.443924,0.022915,0.857781,0.673460,-0.730700,0.111932
-0.003656,-0.441891,-0.989175,-0.401241,-0.205805,-0.892552
0.097236,-0.264450,0.455884,0.399633,0.901979,-0.163483
-0.098859,-0.002736,0.056685,-0.584583,0.092769,-0.806013
0.046792,-0.612354,-0.049571,0.993720,-0.039934,-0.104523
-0.597103,-0.031876,0.849052,0.150144,-0.900273,0.408613
-0.482696,-0.532526,0.782539,0.334212,-0.942159,0.025270
0.584477,0.518093,0.869225,0.009212,0.984378,0.175829
0.090808,0.046788,0.762109,0.122044,-0.987177,0.102895
-0.120795,-0.184349,0.263252,0.713783,0.637960,0.288998
0.174047,-0.500923,-0.040465,0.081690,-0.098491,-0.991779
0.894384,-0.126342,0.797471,-0.118978,0.992797,0.014095
-0.062741,-0.276626,0.398495,0.938199,0.317054,-0.138780
0.273902,-0.453109,-0.037217,-0.332534,0.017852,0.942922
-0.630859,-0.361516,0.781182,0.429018,-0.900440,0.071769
-0.157796,-0.314454,-0.255709,0.936867,0.349666,0.003836
-0.534177,0.624940,0.795753,-0.395745,0.202592,-0.895736
-0.149303,-0.383474,-0.658499,0.168744,0.961941,0.214930
-0.502639,-0.034202,0.915170,-0.382566,-0.857853,-0.343120
-0.174931,-0.058554,0.863022,0.891979,0.354549,0.280479
-0.066064,-0.399412,-0.813330,0.644585,-0.755582,-0.116645
-0.180471,-0.537725,0.355367,-0.518014,-0.429905,0.739488
0.308176,-0.330118,0.826870,-0.406741,0.851167,-0.331778
-0.133200,-0.220672,0.744738,0.430832,0.871262,0.235131
0.985453,0.080512,0.765477,0.116066,-0.382768,0.916525
0.085195,-0.165059,0.483685,0.331493,0.883326,-0.331432
-0.380037,-0.111294,0.900428,0.401675,0.829537,0.387977
-0.111044,-0.255831,0.875909,0.898094,0.119207,0.423340
0.487943,0.236815,0.780701,0.910852,0.329681,-0.248311
-0.630931,-0.346057,0.750803,0.940577,0.302492,-0.154316
-0.145165,-0.192558,0.824997,0.095244,-0.941471,0.323359
0.083126,0.037349,0.572742,0.918525,-0.303433,-0.253456
0.095537,-0.239209,0.851767,0.009282,0.986307,0.164660
-0.267920,-0.394213,0.403237,-0.501196,-0.785433,-0.363178
0.260018,-0.410288,-0.037784,-0.248039,0.096101,0.963971
-0.140959,-0.309050,-0.273080,-0.555905,0.704176,-0.441708
-0.929464,-0.545113,0.777659,0.790318,0.361134,-0.494953
0.029581,0.046173,0.935738,0.907012,-0.224633,-0.356188
-0.315114,0.535946,0.873177,0.810927,-0.420250,0.407170
-0.090366,-0.423148,-0.849533,0.972064,0.060455,0.226796
0.696742,-0.231343,0.825289,0.500241,0.671875,0.546207
0.452051,0.726452,0.815633,0.955358,-0.262112,-0.136341
-0.134309,-0.389425,-0.973711,-0.577984,0.629325,0.519504
-0.055871,-0.187906,0.085981,0.973861,-0.227143,-0.000981
0.239633,0.564608,0.761559,0.694883,0.709404,-0.117825
-0.600651,-0.195362,0.624976,-0.142894,-0.711119,0.688398
-0.338231,-0.198440,0.781525,0.489880,-0.780431,0.388516
-0.535655,-0.726041,0.891407,0.474911,-0.166039,-0.864228
-0.093467,-0.708735,0.862472,0.366000,0.191315,-0.910737
0.585216,0.548122,0.531745,-0.089756,-0.855314,0.510277
-0.616009,-0.144606,0.634684,0.397906,-0.477708,0.783241
-0.087630,-0.586292,0.342583,0.282941,0.335027,-0.898722
-0.176558,-0.452562,-0.013540,0.876138,0.171156,0.450653
0.031501,0.446474,0.887489,0.546902,0.373735,-0.749147
0.137415,-0.561530,0.744618,-0.735299,0.491743,0.466395
-0.505741,0.487106,0.842678,-0.789144,0.574135,0.218224
0.715058,0.040837,0.598086,-0.459169,0.827328,0.323563
-0.832710,-0.453109,0.820031,0.763589,0.095223,0.638642
0.277892,0.371845,0.843726,-0.038970,-0.963605,0.264475
-0.239484,0.593679,0.848210,0.951177,-0.307263,-0.029190
0.130027,0.504138,0.959827,0.401510,0.892566,0.205221
-0.308244,-0.778439,0.628911,-0.365218,-0.231567,0.901661
0.131064,0.129215,0.626574,-0.770815,-0.568331,0.287828
-0.263782,0.483549,0.789825,0.109575,0.366661,0.923879
-0.505669,0.487174,0.850685,-0.702450,-0.004136,0.711721
0.266000,-0.246802,0.558291,0.779610,0.315127,-0.541205
0.601611,-0.102606,0.674994,0.159644,-0.987073,-0.014135
-0.060600,-0.396676,-0.959381,0.768201,0.598158,0.228199
-0.244434,-0.267734,0.086806,-0.660757,-0.749096,0.047494
0.469109,0.002463,0.603069,-0.257025,0.068053,-0.964006
0.019907,-0.680416,-0.043970,-0.756334,-0.371118,0.538730
0.190889,-0.134072,0.589735,-0.919142,0.136249,0.369613
-0.196127,0.614474,0.883125,-0.530631,-0.839330,0.118136
-0.224860,-0.503112,0.569872,-0.591951,-0.140883,0.793565
0.212455,0.509748,0.945274,0.255460,0.870594,0.420483
0.221020,-0.385868,0.600973,-0.098044,-0.993708,-0.054144
0.347688,0.195978,0.932336,-0.430875,0.661328,-0.613997
-0.338010,-0.070730,0.325693,-0.541603,-0.837866,-0.068169
-0.131727,-0.315138,0.019416,0.817046,0.557582,0.146758
-0.092431,0.008619,0.945635,-0.590124,0.427558,-0.684798
0.512980,-0.624667,0.613894,0.748927,0.588411,0.304764
0.833896,-0.108352,0.760151,-0.319478,0.899506,0.298032
0.754056,-0.294411,0.809120,0.703215,0.709841,-0.040188
-0.494886,0.204392,0.751731,0.065690,-0.730081,0.680196
0.359503,-0.051303,0.865926,-0.219683,-0.769521,0.599647
-0.085709,-0.407894,-0.808124,0.776774,-0.628864,0.033945
-0.512462,0.443327,0.772762,0.035551,0.915403,0.400965
-1.000000,-0.491073,0.775185,0.250504,0.566611,0.784984
-0.010152,-0.252411,0.170931,0.440097,0.897810,0.015879
0.087706,-0.318216,-0.120947,0.268869,-0.962660,-0.031559
0.088004,0.127026,0.838176,-0.384327,0.011589,0.923124
-0.490747,-0.509542,0.958126,-0.612650,0.683411,0.397001
-0.106762,-0.186743,0.494081,-0.650235,-0.736280,0.187314
0.922008,0.160476,0.770580,-0.127345,-0.387210,0.913155
-0.417926,-0.406389,0.549047,-0.538656,-0.813967,-0.217501
0.571034,0.408646,0.890290,0.899744,-0.426494,-0.092543
-0.445767,-0.717012,0.851458,0.470378,-0.681497,0.560630
-0.312824,-0.150010,0.819207,-0.655339,0.101572,-0.748475
0.127074,-0.319447,0.711713,0.181951,0.950292,0.252665
0.712326,0.103906,0.836269,0.698781,0.164452,-0.696176
0.069909,-0.005814,0.557931,-0.769471,-0.458155,0.444981
0.223679,0.125385,0.794155,-0.539087,-0.726399,0.426298
-0.215700,0.284835,0.801491,0.728064,-0.088178,0.679814
0.120281,0.482865,0.910806,-0.604107,-0.655214,-0.453596
0.225527,-0.570764,-0.028214,-0.126573,0.490462,0.862222
-0.206910,-0.586771,0.331140,0.239366,0.776571,0.582787
0.353742,0.206649,0.929380,0.202759,0.545941,-0.812919
0.253148,-0.099596,0.825787,0.777454,-0.290565,0.557797
-0.088076,-0.230043,0.243045,-0.680153,0.733034,-0.007318
0.389711,0.535468,0.908710,-0.305123,0.769563,0.560957
-0.395175,-0.518298,0.571144,-0.564027,-0.116667,-0.817473
0.554566,-0.008551,0.796302,0.767252,0.101252,-0.633302
-0.300193,-0.412066,0.422997,-0.694076,-0.562649,-0.449093
-0.143763,-0.184212,0.652949,0.445646,0.895196,-0.004912
-0.426861,-0.601067,0.643362,0.638818,-0.273513,0.719098
-0.468293,-0.535810,0.862094,-0.292559,-0.697853,0.653766
-0.331586,-0.422122,0.572518,0.774740,0.501606,0.384928
-0.441485,0.619741,0.802746,-0.312185,-0.817442,0.484075
-0.462091,-0.573227,0.881527,0.872853,-0.425756,0.238453
-0.682781,-0.359669,0.824756,0.734341,0.613950,0.289497
-0.092359,-0.302757,-0.306758,0.912473,0.366309,0.182237
-0.632482,-0.099254,0.856699,0.902798,-0.165909,-0.396774
-0.175007,-0.567686,0.575233,-0.403831,0.390261,0.827416
-0.392073,-0.348382,0.533291,-0.857168,0.142428,-0.494951
0.376863,0.268623,0.761336,-0.088369,0.778166,0.621811
-0.611876,-0.192831,0.613894,-0.286562,-0.710987,0.642168
-0.098120,-0.371708,-0.950291,0.374062,-0.923174,0.088473
0.274127,-0.229975,0.794258,0.006739,-0.987307,0.158682
-0.166510,-0.184965,0.876957,-0.467998,0.090390,-0.879095
-0.427379,-0.462959,0.793347,0.985813,0.125784,0.111139
0.000261,-0.380053,0.181532,0.871385,0.103094,-0.479645
0.004174,-0.352418,0.797230,-0.156777,-0.957250,-0.243093
-0.032827,-0.253916,0.755700,-0.376542,0.792218,0.480216
0.342148,0.059238,0.975240,-0.118104,-0.975228,-0.187032
0.225451,0.480334,0.886751,0.624808,0.778825,-0.055197
0.088297,0.022505,0.943178,0.814289,-0.165198,-0.556455
-0.597622,0.159587,0.761319,0.316204,-0.047825,0.947485
-0.380627,-0.570148,0.377859,0.513712,0.532171,0.672974
-0.034973,-0.304877,-0.997921,0.130796,0.285799,0.949321
0.788767,0.044531,0.894706,0.871131,0.294712,-0.392780
0.119320,0.052808,0.343906,0.446876,0.744094,-0.496615
0.008015,-0.469458,0.412653,0.743914,-0.080189,-0.663447
-0.072713,-0.396470,-0.766096,0.976959,0.198564,0.078254
0.335575,0.477392,0.953985,0.144414,0.779925,0.608984
0.168953,-0.631370,0.346449,-0.450292,0.075707,-0.889666
-0.291555,-0.778644,0.718019,0.830566,0.505325,-0.234108
-0.132831,-0.206033,0.758707,0.653814,0.693903,0.301703
0.086895,0.069567,0.943539,-0.313808,0.848517,0.426078
0.373983,-0.402079,0.607467,0.410119,0.834235,0.368584
-0.525242,0.625419,0.822609,-0.637776,0.452693,0.623146
-0.360757,-0.685546,0.703706,-0.598091,-0.797870,0.075444
0.050926,-0.210206,0.905754,0.549936,-0.813231,-0.190329
-0.433064,-0.670155,0.852867,0.968068,-0.241132,0.068549
0.077221,-0.511389,0.364542,-0.638166,-0.585825,0.499553
-0.722072,-0.288734,0.846423,-0.505335,0.626437,-0.593476
-0.259869,0.094056,0.583292,-0.719872,-0.693274,0.033996
-0.687433,-0.237773,0.798983,-0.598633,0.385109,0.702374
-0.006239,-0.732608,0.646575,-0.426200,-0.327524,0.843257
0.038665,-0.728983,0.631300,0.221123,-0.517034,0.826910
0.068949,0.415692,0.889929,0.382784,0.472343,-0.793957
0.372283,0.784117,0.819207,0.175098,0.706726,0.685477
0.747704,0.039196,0.890823,0.857456,0.053488,-0.511770
0.371693,0.038170,0.902180,0.078754,0.916656,0.391841
-0.270061,-0.135645,0.961133,0.003723,-0.996926,0.078265
-0.107131,-0.430057,-0.724171,0.143964,-0.964245,0.222497
-0.807155,-0.207265,0.774996,0.965080,-0.143488,-0.219162
-0.110233,-0.218688,0.743123,0.973708,0.165481,-0.156556
0.321691,0.046446,0.914105,0.684382,0.720590,-0.111226
0.767643,0.009440,0.849843,0.034622,0.727972,0.684732
0.689651,0.061701,0.593601,-0.459169,0.827328,0.323563
0.133277,-0.171010,0.931597,-0.730634,0.572603,-0.371887
0.235643,0.538477,0.937989,-0.517005,-0.852635,-0.075623
-0.160974,-0.167932,0.666455,0.946205,-0.278076,-0.165436
0.206914,0.037280,0.768398,-0.155046,-0.965566,0.208911
0.314528,-0.627882,0.330590,-0.285109,0.418095,-0.862502
-0.071162,-0.284493,-0.210691,0.869215,-0.474714,0.138246
-0.271243,-0.375539,0.034004,-0.466433,0.882531,-0.059831
-0.530336,0.010876,0.864139,-0.631145,0.774805,0.036502
-0.466450,-0.436350,0.684135,0.804517,0.459598,0.376194
0.581817,-0.086942,0.762968,-0.205330,0.976716,0.062174
-0.194283,-0.546549,0.403357,0.938603,-0.298214,-0.173472
-0.035487,-0.436008,-0.068816,-0.610934,0.016722,0.791505
-0.170499,-0.154593,0.260297,0.762363,0.593227,0.258621
-0.188891,-0.651481,0.847609,0.597417,0.642593,-0.479757
-0.809743,-0.280389,0.774395,0.817404,0.294385,-0.495165
0.889362,-0.126069,0.792591,0.139390,-0.986321,0.087982
-0.507368,0.030987,0.877094,0.060390,0.996655,0.055054
0.156101,0.179903,0.640492,-0.090601,-0.864495,0.494408
-0.060600,-0.363910,-0.934260,0.330579,0.914172,0.234534
0.001294,-0.320131,0.667726,0.259310,-0.416725,-0.871263
-0.409798,-0.897804,0.644547,-0.096809,0.982171,0.161149
-0.603973,-0.172447,0.627090,0.179670,-0.649170,0.739119
-0.510839,-0.387441,0.912971,0.646808,-0.757655,0.087174
-0.079804,-0.315411,-0.232358,0.309478,0.950696,0.019996
0.089627,-0.568438,0.331793,0.008683,-0.135853,0.990691
0.368884,-0.385662,0.606729,-0.174114,-0.927429,-0.330997
-0.653457,-0.294822,0.763175,0.497244,0.865097,0.065991
0.215407,-0.749914,0.326930,-0.252115,-0.636184,0.729183
-0.136230,-0.472467,0.916682,0.590210,-0.622701,-0.513708
-0.214740,-0.209453,-0.082493,-0.746815,-0.656865,-0.103905
-0.013849,-0.398796,0.355745,0.882077,0.316268,-0.349164
-0.215110,-0.630002,0.850805,0.723590,0.579736,-0.374597
0.055429,-0.088583,0.899706,0.973965,-0.204369,-0.098110
0.131357,-0.576784,0.336346,-0.623603,-0.034994,0.780958
-0.357065,-0.592038,0.554992,0.889184,0.363425,0.277982
0.185790,-0.383337,0.745734,0.929888,0.341817,-0.135902
0.641128,-0.032355,0.802557,0.543045,-0.055417,-0.837873
0.583814,0.063411,0.795306,0.276943,0.521814,-0.806854
0.361649,0.089609,0.872403,0.408082,0.890958,-0.199156
-0.143911,-0.282167,0.441898,0.759623,-0.489219,0.428529
-0.485947,-0.402216,0.935566,-0.597088,-0.793803,-0.115597
-0.086228,0.169232,0.769171,0.055093,-0.571965,0.818426
0.817352,0.093987,0.783828,0.918400,-0.233591,0.319339
-0.469700,-0.465216,0.908229,0.264815,0.758824,-0.595029
-0.450938,-0.248786,0.847472,-0.101248,-0.843672,0.527225
-0.310610,-0.747247,0.858056,0.805576,-0.088069,-0.585910
-0.734848,-0.422669,0.746473,-0.573223,0.762992,-0.298760
-0.307360,-0.431151,0.889259,-0.704737,-0.516681,-0.486196
-0.139480,-0.365278,-0.086479,0.809425,0.584523,0.056255
0.360910,0.017580,0.917249,-0.447055,-0.858984,-0.249575
0.040143,-0.548943,0.346587,-0.705310,0.214967,0.675519
0.125451,-0.717286,-0.042578,0.834085,0.288257,-0.470330
0.223756,-0.447363,0.457963,0.656290,0.167873,-0.735597
-0.015399,-0.078049,0.918315,-0.618108,0.786045,-0.008741
-0.033345,-0.838224,0.625492,0.285140,0.846928,-0.448785
-0.065253,-0.453793,0.910067,-0.691138,0.708841,0.140970
0.293697,-0.159518,0.585474,-0.390579,0.873778,-0.289758
0.005355,0.509200,0.896682,-0.720595,0.314722,0.617813
0.151593,-0.054108,0.513188,-0.594579,-0.677426,0.433094
-0.390230,-0.346262,0.531126,0.907618,-0.370021,0.198277
0.816541,-0.229701,0.753020,0.973042,0.199221,0.116191
-0.017910,-0.159040,0.453736,0.277655,0.952856,-0.122367
0.119393,-0.804980,0.612708,-0.517443,0.386952,-0.763230
-0.379740,-0.403584,0.586385,0.576496,0.213694,0.788661
-0.182540,-0.083521,0.861114,0.824600,0.511866,0.240890
0.096055,0.332855,0.872317,-0.678072,0.730032,-0.085277
0.489643,0.444422,0.904981,0.895362,-0.415187,0.161077
-0.988405,-0.535194,0.769360,0.520075,0.379126,0.765366
0.380627,0.101375,0.953951,0.510825,-0.449172,0.733009
-0.102402,-0.427321,0.861372,0.955876,-0.288752,0.054073
0.138745,-0.182981,0.762006,0.401243,0.441403,-0.802600
-0.400787,-0.483207,0.650544,0.581536,0.654270,0.483473
0.366301,0.444353,0.897249,0.464571,0.843311,-0.270185
0.228850,-0.160408,0.062664,0.074878,0.971888,0.223219
-0.352043,0.273206,0.619186,0.933482,0.286656,0.215499
0.550135,-0.199193,0.771439,-0.700105,0.143957,0.699377
-0.203218,-0.837130,0.739240,0.929308,0.223076,-0.294318
-0.125226,-0.054655,0.692589,0.563316,-0.711783,0.419572
-0.136230,0.422464,0.863005,0.756727,0.648362,-0.083610
-0.242734,-0.768042,0.335109,-0.093592,-0.222956,0.970325
-0.444735,-0.352350,0.549339,-0.714632,0.531602,-0.454643
-0.179069,-0.241125,0.915892,-0.520194,-0.604096,0.603711
-0.282395,0.249196,0.855152,0.959234,0.163903,-0.230230
-0.053361,-0.237978,0.320109,-0.520460,0.851638,0.061929
0.034012,-0.190095,0.888400,0.867226,-0.497892,0.004723
-0.649544,-0.416376,0.739772,0.324370,-0.856784,0.400881
-0.075296,-0.381148,-0.184007,-0.502041,0.770173,-0.393432
0.026628,-0.145085,0.900754,0.504919,0.803692,-0.314859
-0.066582,0.112662,0.768982,-0.695287,0.081867,-0.714054
0.742385,-0.291607,0.767745,0.718241,0.659842,-0.220768
0.204994,-0.087763,0.893263,-0.367424,0.598160,-0.712183
-0.085858,-0.340379,0.672503,0.924688,0.175270,0.337984
-0.128697,-0.298858,-0.158336,0.733262,0.636811,-0.238326
0.086525,0.586429,0.890393,0.933957,0.191880,0.301508
-0.476272,-0.046446,0.921442,0.652449,0.715223,0.250531
-0.535579,0.367877,0.837162,0.553870,-0.028722,0.832108
-0.151444,-0.370819,-0.312033,-0.484996,0.874483,-0.007656
-0.522876,0.013476,0.871527,-0.552475,0.783870,0.283408
-0.460540,-0.387304,0.927147,-0.224008,-0.945180,-0.237605
0.160604,0.057391,0.769034,-0.204596,-0.844994,0.494091
0.304926,0.168958,0.941356,0.809896,0.178149,0.558866
-0.115106,-0.417060,-0.038042,0.969313,-0.126533,0.210763
0.024411,-0.006430,0.942903,0.183749,-0.456085,0.870760
0.774883,0.076955,0.823313,0.207825,-0.458106,0.864261
-0.701981,-0.089541,0.852695,-0.390967,0.202935,0.897754
-0.820598,-0.295848,0.842712,0.035202,-0.973430,0.226261
-0.582700,0.002052,0.940085,-0.383715,-0.580245,0.718386
-0.452345,-0.334359,0.653396,-0.587965,0.434707,-0.682149
-0.290149,-0.661742,0.728054,0.813890,0.534637,-0.227479
-0.627901,-0.055271,0.641265,0.391861,-0.462006,0.795610
0.786107,-0.323962,0.750683,0.975749,-0.107504,-0.190676
0.148270,0.490389,0.923160,0.022409,-0.891794,0.451886
-0.017392,-0.871811,0.619358,0.086051,0.974833,0.205662
-0.171978,-0.256447,0.629117,0.784473,-0.500189,0.366625
-0.380551,-0.603393,0.697057,-0.679251,-0.483968,-0.551718
0.467117,-0.146727,0.583842,-0.073766,0.980398,-0.182695
-0.088297,-0.047883,-0.191240,0.801279,0.585871,-0.121273
-0.079434,0.350092,0.810787,0.931350,0.150205,-0.331701
-0.158386,-0.316232,0.153130,0.242219,-0.969891,0.025325
-0.311792,-0.464327,0.434492,0.764777,0.370453,0.527144
0.450645,0.586497,0.922559,0.789819,0.566991,0.233896
-0.619039,-0.538409,0.809103,-0.490269,-0.394226,-0.777317
-0.413716,-0.407962,0.984605,0.327688,-0.699510,0.635065
-0.019979,-0.217046,0.648946,-0.135027,0.743650,0.654792
-0.903539,-0.512826,0.787677,0.390559,0.863596,0.318850
-0.139922,-0.816745,0.340796,-0.692355,-0.098548,0.714796
-0.436612,0.156030,0.738965,0.178014,-0.509175,0.842052
0.210534,-0.089951,0.858864,0.673776,-0.737162,0.051164
-0.311201,-0.179356,0.130775,0.912987,0.251154,0.321523
0.754277,0.153978,0.854929,0.812100,0.565998,-0.141913
0.322281,0.429168,0.903246,-0.564544,0.776975,-0.278568
-0.093688,-0.311649,-0.090036,-0.108703,0.817340,0.565809
-0.371468,-0.403926,0.593275,0.040984,-0.870651,0.490191
-0.824366,-0.284014,0.825272,0.443372,0.893997,-0.064738
-0.439343,-0.465285,0.394130,0.367789,-0.128655,0.920967
-0.251078,-0.136056,0.811767,-0.428395,0.263046,-0.864456
-0.336310,-0.364936,0.500387,-0.556569,-0.830423,0.025061
-0.165626,-0.399959,-0.948075,-0.613189,0.773971,-0.158014
-0.442296,0.403721,0.782488,-0.611343,-0.781218,-0.126325
0.686180,-0.114714,0.803089,-0.677758,-0.414562,0.607275
0.115701,-0.506259,0.719102,-0.316162,0.736472,0.598039
-0.423092,-0.560503,0.848984,-0.686467,-0.725199,-0.053383
0.013997,-0.420343,0.369783,0.891095,0.373602,-0.257628
0.230698,-0.219167,-0.181361,-0.447152,-0.341967,0.826507
0.087562,0.027362,0.555697,-0.717177,-0.111215,0.687960
0.145020,0.491620,0.959415,0.226228,0.950063,0.214945
0.829023,-0.397360,0.750597,0.574959,0.022800,-0.817864
-0.312752,0.802791,0.839396,0.055089,0.959177,0.277389
-0.148415,0.030645,0.863176,0.573967,0.153632,0.804338
-0.486537,0.186333,0.750975,0.265703,-0.574571,0.774125
0.167695,-0.765921,0.609443,-0.517443,0.386952,-0.763230
-0.479816,-0.459607,0.680046,0.797100,0.489155,0.354060
0.854430,0.107942,0.887197,0.536076,0.672724,-0.509966
0.430558,-0.618100,0.621162,0.567687,0.678219,0.466638
-0.294287,-0.471031,0.901150,0.792879,0.373664,0.481371
-0.504339,0.229427,0.860771,0.546025,-0.058297,0.835738
-0.583737,-0.268144,0.609478,-0.734593,-0.629031,0.254350
-0.457289,-0.629660,0.726267,-0.319724,0.822944,0.469617
0.217179,0.129147,0.820650,0.839961,0.495061,-0.222216
-0.014511,-0.233532,0.650870,-0.048319,0.682042,0.729715
0.624877,-0.048225,0.788295,0.847593,0.517388,0.117882
0.341999,0.387373,0.874173,-0.060499,0.993014,0.101308
-0.438311,0.075039,0.834310,0.381661,-0.450254,0.807221
0.317850,0.885013,0.785099,-0.623977,0.746108,-0.232326
