-0.031806,-0.072037,0.864804,0.374464,0.527958,0.762258
-0.224200,-0.078147,0.861354,0.473587,0.348084,-0.809044
-0.248577,0.071040,0.903143,0.741448,-0.670410,0.028378
-0.696854,0.051011,0.877519,0.622099,0.199031,0.757219
0.292397,0.006573,0.492079,0.294799,0.944874,0.142501
0.239768,0.012190,0.530844,0.517294,-0.053228,0.854151
0.046408,0.005842,0.525650,0.794764,-0.330984,0.508723
0.013339,0.013174,0.567322,0.925787,-0.033808,-0.376532
-0.018523,0.020745,0.611398,0.475237,-0.736226,-0.481789
-0.071874,0.026348,0.646751,0.207462,0.871036,0.445259
-0.027460,0.040520,0.712691,0.429025,0.102038,0.897511
0.033377,0.055646,0.782312,0.974691,-0.223304,0.010648
0.112792,0.072501,0.856509,0.982256,0.165466,-0.088281
0.035307,0.075913,0.883722,0.988156,0.023524,-0.151638
-0.375796,0.050281,0.817046,0.988944,-0.077118,0.126655
0.212731,-0.087178,0.511035,0.019729,-0.563367,0.825971
0.269221,-0.069608,0.581200,-0.000571,0.928579,0.371133
0.213939,-0.063498,0.618298,0.507117,0.851558,0.132970
0.000064,-0.061054,0.660242,0.053694,0.439990,0.896396
-0.013455,-0.050802,0.706643,0.189223,-0.194471,-0.962484
-0.110013,-0.049088,0.731143,-0.485638,0.615583,0.620656
0.018407,-0.026392,0.817511,-0.665466,0.729082,-0.159980
0.083825,-0.008806,0.887365,0.075996,0.415931,0.906215
-0.322689,-0.035661,0.823791,0.926603,-0.205735,-0.314771
-0.272476,-0.020282,0.888800,0.808058,-0.549827,0.211501
0.263188,-0.178991,0.548986,-0.791985,0.512632,0.331613
0.261736,-0.166294,0.600001,0.756815,0.515005,-0.402493
0.216113,-0.157248,0.639735,0.736359,0.618528,-0.274224
0.243635,-0.140900,0.700480,-0.789905,0.513073,-0.335866
0.127519,-0.139917,0.719436,-0.320931,0.858796,0.399339
0.102655,-0.130156,0.762348,0.175991,0.850156,0.496247
0.002959,-0.128204,0.783708,0.545716,0.392254,0.740494
-0.014420,-0.116476,0.830226,0.381238,-0.262549,0.886412
-0.109291,-0.113302,0.853097,-0.704673,-0.481677,-0.520983
-0.218888,-0.112080,0.873294,0.599162,-0.669812,-0.438585
0.209837,-0.105254,0.503902,-0.293783,0.950910,-0.097270
0.281774,-0.085465,0.576742,-0.330381,0.937185,-0.111947
0.259327,-0.076195,0.621244,0.496361,0.840264,-0.218132
-0.016114,-0.079131,0.645239,-0.727234,-0.595372,-0.341559
0.130900,-0.052992,0.739942,-0.162860,-0.050536,0.985354
-0.094329,-0.063990,0.727499,0.259724,-0.366097,-0.893597
-0.036874,-0.045183,0.795609,0.847070,-0.441734,-0.295539
-0.038318,-0.033470,0.844646,0.895288,0.078816,-0.438460
-0.230955,-0.040787,0.840072,0.627536,0.684307,0.371379
-0.252680,-0.031264,0.884962,0.783918,-0.569893,0.246364
0.426129,-0.430467,0.670204,0.890306,-0.028347,0.454480
0.623599,-0.268345,0.640937,0.359789,-0.849753,-0.385321
0.257390,-0.280804,0.638107,0.730573,0.614963,-0.296791
0.206455,-0.272011,0.673887,0.962443,-0.199029,-0.184640
0.139107,-0.265409,0.707070,0.302448,-0.437578,-0.846789
0.250634,-0.239286,0.789096,0.218686,0.889217,-0.401832
0.199943,-0.230985,0.826156,-0.614220,-0.131499,-0.778101
0.079722,-0.229763,0.843406,0.392384,-0.427919,0.814199
-0.012490,-0.225128,0.868991,-0.610569,0.053893,-0.790128
-0.194504,-0.231969,0.866704,0.998449,0.007539,-0.055158
0.234700,-0.421183,0.720444,-0.209945,0.811866,-0.544790
0.229875,-0.406296,0.771226,0.859030,-0.449420,-0.245131
0.240976,-0.389933,0.824140,-0.696991,-0.706221,0.124320
0.189076,-0.380664,0.858796,0.593965,0.731124,0.335654
0.109175,-0.374316,0.886745,-0.688673,-0.005572,0.725051
0.331744,-0.618221,0.662645,-0.725919,0.365296,-0.582753
0.166629,-0.571831,0.818403,0.572439,0.816790,0.071882
0.085999,-0.564274,0.847050,0.860382,0.503271,-0.080380
0.282739,-0.683910,0.668615,-0.477882,-0.603423,-0.638365
0.248218,-0.652898,0.761108,-0.170412,0.696412,0.697115
0.105794,-0.653629,0.772156,-0.146869,-0.922858,0.356036
0.030482,-0.626775,0.852128,0.432458,-0.355141,0.828767
0.482132,-0.768630,0.642603,0.277881,0.917436,0.284769
0.577968,-0.562307,0.642875,-0.593899,-0.456417,0.662546
0.176523,-0.558403,0.682919,0.537069,-0.495678,0.682540
0.247982,-0.528375,0.754944,0.730530,0.362963,0.578432
0.222876,-0.512266,0.799602,-0.669448,0.675733,-0.308585
0.144418,-0.504203,0.826621,0.139734,-0.861477,0.488192
0.196075,-0.477588,0.890428,0.810020,0.585022,0.040215
-0.005491,-0.485650,0.884303,0.373705,-0.419407,0.827311
0.265361,-0.693180,0.765566,-0.313740,-0.473957,-0.822759
0.050277,-0.703925,0.755875,-0.669085,0.497808,0.551826
0.129692,-0.672182,0.829916,-0.210355,0.782744,-0.585715
0.031447,-0.665596,0.853485,0.030950,0.222863,0.974358
0.348157,-0.525932,0.627369,0.411456,0.519930,0.748583
0.265118,-0.475890,0.758976,0.664351,0.283430,0.691597
0.277914,-0.454147,0.812472,0.702274,-0.694324,0.157239
0.143453,-0.452925,0.825729,0.886683,-0.251214,0.388181
0.167351,-0.430467,0.881551,-0.490006,-0.830650,-0.264413
0.037959,-0.427785,0.896049,-0.183800,0.040985,0.982109
0.062586,-0.267853,0.604110,0.773483,0.203990,0.600093
0.190763,-0.228555,0.691796,0.937495,0.299702,0.176868
0.476828,-0.409962,0.643301,-0.055668,0.338530,0.939308
0.372542,-0.362840,0.766264,0.127171,0.921001,0.368217
0.254738,-0.360397,0.782157,0.870640,-0.074132,-0.486303
0.249669,-0.339891,0.832203,-0.184349,0.655463,-0.732383
0.180383,-0.329624,0.863680,0.445560,0.528985,-0.722255
0.049304,-0.328417,0.877442,0.154128,0.621866,0.767807
-0.142361,-0.335734,0.872286,-0.003292,-0.580081,0.814552
0.187389,-0.134791,0.514136,-0.037556,-0.851175,0.523537
0.264631,-0.102557,0.589999,0.990115,-0.138121,-0.024400
0.328362,-0.073259,0.659234,-0.586938,0.702716,0.402113
-0.009594,-0.079131,0.666715,-0.335050,-0.256262,0.906681
-0.230477,-0.069846,0.705713,-0.382322,0.708089,-0.593667
0.167351,-0.211463,0.737268,0.344744,-0.672663,-0.654733
0.097108,-0.200465,0.769016,0.447143,0.797366,0.405304
0.144662,-0.173611,0.833560,0.925955,0.373628,0.054851
-0.039048,-0.180451,0.830614,-0.754933,-0.204069,-0.623243
-0.076700,-0.166532,0.868952,-0.561889,-0.163070,0.810980
-0.230955,-0.167755,0.876317,-0.614587,-0.377302,0.692767
0.261501,-0.044945,0.584456,0.238325,0.908576,0.343062
0.632528,0.031728,0.744865,0.093289,0.664543,0.741404
0.040619,-0.033947,0.626128,0.946406,0.279506,-0.161838
-0.024321,-0.023218,0.657799,-0.489618,0.153168,0.858379
-0.012732,-0.000744,0.711179,-0.174193,0.104310,0.979171
-0.173501,-0.003189,0.717265,0.746954,-0.591067,-0.304465
0.082861,0.054439,0.839336,-0.287568,0.695196,0.658792
0.086241,0.076404,0.891746,-0.389663,-0.158218,0.907265
-0.408866,0.026109,0.803711,0.927014,0.108515,-0.358983
-0.259922,0.067613,0.895971,-0.537533,0.832412,-0.134716
-0.534877,0.048091,0.867983,0.022927,-0.735622,0.677004
0.056545,-0.009775,0.837010,0.713086,0.517508,0.472963
0.058240,0.010730,0.888606,-0.192247,-0.190591,-0.962661
-0.426488,-0.037613,0.801385,0.945860,0.197366,-0.257674
-0.263790,0.005112,0.897522,0.821982,-0.158279,0.547077
0.199213,-0.061784,0.518323,0.352478,-0.917129,0.186101
0.244601,-0.031995,0.584921,0.231241,0.956222,0.179351
0.463545,0.022697,0.701177,-0.326752,0.944984,0.015434
-0.052079,-0.033947,0.602676,0.787258,0.538000,-0.301297
-0.025043,-0.009299,0.660474,0.061961,0.441619,0.895060
-0.121122,-0.001236,0.685129,0.878462,0.420331,0.227213
0.234221,-0.091813,0.471495,0.044264,0.653797,0.755374
0.260771,-0.066434,0.530844,0.819556,0.323901,0.472670
-0.142847,0.016826,0.728662,0.943616,-0.108353,-0.312808
0.070550,0.069326,0.840460,-0.716090,0.575152,0.395494
0.078035,0.092276,0.893258,0.409592,0.161765,-0.897812
-0.461732,0.033919,0.792585,-0.523070,0.288301,0.802047
-0.297339,0.077865,0.887094,0.890856,0.419366,-0.174665
-0.601990,0.054439,0.850888,-0.053255,-0.995409,0.079532
-0.805729,0.066152,0.893064,0.027816,-0.658536,0.752035
0.255702,-0.116476,0.498941,-0.444816,0.887797,0.118133
0.232769,-0.096954,0.543675,-0.326881,0.883793,0.334753
0.235664,-0.073989,0.595620,0.275506,0.567963,0.775574
0.473925,-0.013933,0.717381,-0.585138,0.630421,0.510082
-0.068736,-0.076434,0.611126,0.906461,0.422034,-0.014685
-0.039048,-0.049341,0.671561,0.708152,0.520694,0.476863
-0.127155,-0.039565,0.698309,-0.410412,-0.828462,-0.381069
-0.186297,-0.025646,0.733158,-0.342381,-0.381459,-0.858641
0.016964,0.026348,0.839801,-0.368826,-0.532453,-0.761880
-0.033249,0.040758,0.874495,-0.540820,0.642757,-0.542565
-0.414178,0.005351,0.819294,0.814565,0.522510,-0.251928
0.202116,-0.139917,0.569144,-0.079559,-0.481907,0.872603
0.177245,-0.119411,0.612948,-0.659771,0.733635,-0.162735
0.116895,-0.178991,0.501266,-0.138124,0.906621,0.398699
0.193180,-0.142600,0.576703,-0.225888,0.857480,-0.462281
0.204281,-0.116729,0.632757,0.160805,0.640240,0.751155
0.181356,-0.096462,0.678732,0.012356,-0.618808,0.785445
-0.038082,-0.108175,0.665862,0.205159,0.506318,-0.837587
-0.239405,-0.093034,0.710055,0.175915,-0.906480,0.383860
0.043757,-0.025169,0.839568,-0.357914,-0.307650,-0.881618
0.005611,-0.008077,0.880078,0.513147,-0.855735,-0.066315
-0.383281,-0.045675,0.821930,0.992245,0.068709,-0.103583
-0.288167,-0.007346,0.898956,0.804292,-0.303577,0.510838
0.246288,-0.083765,0.685012,-0.048966,-0.980132,-0.192207
0.001507,-0.100366,0.664738,-0.072839,-0.459325,0.885277
0.097587,-0.059593,0.744168,-0.269311,0.201150,0.941812
-0.063911,-0.061784,0.749672,0.686261,-0.232347,0.689246
-0.097224,-0.042740,0.791461,0.845041,-0.501089,0.186590
0.001507,-0.003189,0.868409,0.877864,-0.475016,-0.060944
-0.370241,-0.039818,0.812665,0.989950,-0.101541,0.098434
-0.307719,-0.006124,0.880775,0.342025,0.551672,-0.760708
0.556000,-0.166532,0.609382,-0.059852,0.813026,0.579143
0.170004,-0.180943,0.600815,-0.444340,0.498279,-0.744500
0.211531,-0.148217,0.665514,0.588286,0.784287,-0.197013
0.019129,-0.155550,0.661908,0.133533,0.682313,0.718762
0.018407,-0.129664,0.713698,-0.524321,-0.625439,-0.577852
0.023962,-0.104509,0.764829,0.861978,0.506594,-0.018892
-0.110986,-0.102080,0.775877,-0.213272,0.755061,0.619999
-0.116533,-0.077417,0.825342,-0.228970,0.957280,0.176600
-0.173501,-0.063007,0.858253,0.325900,0.730846,0.599711
-0.294444,-0.058372,0.874767,0.947594,0.077810,0.309857
0.697703,-0.233921,0.660086,0.547712,0.828911,-0.113655
0.361197,-0.266632,0.614693,0.937838,0.187177,-0.292276
0.247982,-0.259806,0.634502,-0.218749,-0.050705,0.974463
0.169525,-0.221462,0.712264,0.940563,0.000330,-0.339618
0.149730,-0.197783,0.758239,0.686702,0.645969,-0.333413
0.111348,-0.179229,0.796733,0.685052,0.232695,-0.690331
0.098795,-0.154566,0.844104,-0.706129,-0.284834,0.648268
-0.085149,-0.159946,0.843755,0.872960,0.404732,0.272272
-0.181951,-0.150424,0.867285,0.873364,-0.087303,0.479180
0.277671,-0.422658,0.601474,0.404306,0.738221,0.539968
0.178454,-0.411914,0.625314,0.446182,0.803451,-0.394194
0.278393,-0.334765,0.756146,0.558238,-0.732632,0.389386
0.276463,-0.306435,0.807006,-0.601291,0.786196,-0.142633
0.226979,-0.287152,0.843949,0.072852,-0.950394,0.302396
0.135968,-0.276646,0.867091,0.508411,0.655804,0.558067
-0.004040,-0.274694,0.876317,0.765524,0.542008,0.346701
-0.186297,-0.279090,0.875697,0.590963,0.117913,-0.798035
0.742847,-0.347939,0.698347,-0.653194,0.675137,-0.342824
0.217321,-0.388473,0.648612,0.758558,0.457237,0.464246
0.220459,-0.330846,0.753355,0.800662,-0.596541,-0.055494
0.221425,-0.303023,0.802935,0.490805,-0.351573,0.797187
0.211531,-0.278359,0.849376,0.513415,0.827172,-0.228457
0.103863,-0.270059,0.869727,0.123781,0.725999,0.676464
0.058483,-0.251982,0.905352,0.214433,-0.274958,-0.937239
-0.272961,-0.283247,0.862982,0.601778,0.592288,-0.535778
0.669944,-0.387981,0.680516,-0.792170,0.608411,0.047989
0.222633,-0.355270,0.755099,0.760777,-0.539457,0.360838
0.247010,-0.292278,0.862285,-0.501987,0.738925,0.449442
0.128004,-0.284708,0.879496,-0.661418,0.551370,0.508447
-0.012976,-0.282264,0.890273,0.911477,0.110787,-0.396152
-0.253646,-0.298373,0.873449,0.531810,0.434761,-0.726747
0.249913,-0.287152,0.777273,0.890614,0.368748,-0.266142
0.197769,-0.266632,0.813712,0.974682,-0.091993,0.203796
0.091553,-0.258092,0.833095,0.552522,0.819839,-0.150280
-0.044116,-0.255156,0.843832,0.753209,-0.150179,-0.640408
-0.109291,-0.238555,0.876162,0.073990,0.482664,0.872675
-0.329208,-0.250284,0.863176,-0.607198,0.268422,0.747837
0.046408,0.021952,0.516889,-0.432194,-0.573587,0.695849
0.041827,0.052233,0.568407,-0.709122,0.659260,0.250044
-0.034701,0.068834,0.599419,-0.102384,-0.743560,-0.660785
-0.149367,0.076166,0.616902,0.962625,-0.265066,0.055620
-0.231198,0.119383,0.695479,0.961177,0.149556,-0.231886
-0.268859,0.141603,0.734399,0.984569,0.124962,0.122509
-0.191122,0.185057,0.806696,0.900570,-0.068779,-0.429236
-0.155643,0.221434,0.867130,0.944078,-0.038026,0.327523
-0.231921,0.236336,0.896088,0.922028,0.380105,0.073374
-0.478152,0.218751,0.875891,0.133128,-0.195516,0.971623
-0.644475,0.216560,0.877946,-0.081964,0.984250,-0.156630
-0.689377,0.237066,0.915354,0.754784,-0.654176,0.048531
0.120277,-0.231238,0.597714,0.769087,-0.342471,0.539647
0.169525,-0.191435,0.662180,0.344577,0.938756,0.001957
0.052928,-0.183372,0.680826,-0.757900,-0.567433,0.321881
0.072723,-0.149931,0.736066,-0.669727,-0.742607,-0.000866
-0.130294,-0.158232,0.729941,0.563330,0.255386,-0.785772
-0.130537,-0.128204,0.781033,0.014685,0.863415,0.504281
-0.125704,-0.096701,0.833250,-0.019523,0.996257,0.084203
-0.181229,-0.078639,0.866161,0.354761,0.789545,0.500763
-0.288897,-0.070084,0.884342,0.941189,0.198053,0.273749
0.232769,-0.002696,0.466727,0.046349,0.301765,0.952255
0.035550,-0.010997,0.460369,0.771683,0.374095,-0.514353
-0.138022,0.486591,0.774133,-0.697362,0.715216,-0.046394
-0.093842,0.550312,0.885699,-0.336277,0.801344,0.494737
-0.316655,0.538107,0.871782,0.409731,0.289869,-0.864926
-0.395348,0.552757,0.899809,0.939597,-0.035148,-0.340474
-0.335964,-0.615539,-0.955405,0.007938,0.506486,0.862211
0.009235,-0.590146,-0.941372,-0.265730,0.471660,-0.840788
0.324260,-0.566704,-0.933115,-0.224583,-0.205401,-0.952561
0.626494,-0.544247,-0.924897,-0.434711,0.183908,0.881592
-0.382073,-0.385537,-0.956878,0.919277,0.297528,-0.257695
-0.031319,-0.359904,-0.941178,-0.598209,-0.570386,0.562855
0.279601,-0.337194,-0.931409,-0.187790,0.464916,0.865209
0.563728,-0.315958,-0.929432,-0.016778,0.355370,0.934575
-0.273440,-0.188513,-0.945946,-0.284050,0.780124,-0.557424
0.038689,-0.165549,-0.937728,0.223631,0.001106,-0.974673
0.296501,-0.146265,-0.939046,0.563907,0.652405,0.506337
0.546593,-0.127474,-0.941914,0.045152,0.988339,0.145422
0.376159,0.006095,0.355626,0.015281,-0.974803,0.222542
0.232047,-0.000998,0.277670,0.760491,0.469537,0.448540
0.102412,-0.004172,0.147769,0.648202,-0.708761,-0.278374
0.079722,-0.002220,0.090358,0.358908,-0.348499,-0.865871
0.089858,0.000954,0.041126,-0.506062,-0.505646,-0.698730
0.147800,0.021714,-0.268800,0.915313,-0.108147,0.387953
0.170976,0.025617,-0.317178,0.970345,-0.203134,-0.131026
0.182078,0.029045,-0.368232,-0.543857,0.701902,-0.459949
0.113278,0.027331,-0.438358,0.966395,0.257014,-0.004937
0.163491,0.033441,-0.481852,0.528433,-0.788816,0.313891
0.152146,0.035393,-0.540620,0.527917,0.794685,0.299632
0.120277,0.035871,-0.603923,-0.024501,-0.929789,0.367276
0.117867,0.039536,-0.661295,0.997801,0.058733,-0.030728
0.049304,0.038076,-0.730955,0.221047,-0.915907,0.335043
-0.342240,0.018300,-0.927067,0.118735,0.560006,0.819936
-0.139709,0.034172,-0.940674,-0.455139,0.528502,0.716613
0.064274,0.050043,-0.955211,0.912204,0.357954,-0.199379
0.385331,0.073468,-0.945520,-0.068493,0.044015,0.996680
0.665354,0.095450,-0.944046,0.632931,-0.020218,0.773944
0.143932,0.177249,0.397066,0.173155,0.939050,0.296990
0.247010,0.186771,0.365046,0.239737,0.914029,0.327227
0.279601,0.191167,0.321475,0.866825,0.482358,-0.126274
0.151417,0.185788,0.246619,-0.183023,0.443164,-0.877558
0.129449,0.187009,0.189712,-0.569194,0.783967,-0.247819
0.191735,0.194819,0.151335,0.788665,-0.411537,-0.456776
0.156485,0.195071,0.091211,0.898015,-0.035690,0.438515
0.170246,0.198723,0.040467,0.954640,0.241522,0.174153
0.067654,0.195071,-0.033302,0.168418,-0.624510,0.762642
0.071272,0.197993,-0.084433,-0.575353,0.362156,0.733357
0.001028,0.198976,-0.205109,0.994748,-0.102295,0.003356
0.063065,0.206785,-0.245269,0.317368,-0.240826,0.917214
0.003445,0.205816,-0.312410,-0.529735,-0.684960,0.500210
-0.500842,0.203864,-0.977850,-0.091626,-0.099851,0.990775
-0.172300,0.227544,-0.964514,-0.426325,0.901024,0.080020
0.150938,0.250985,-0.954668,-0.090130,-0.901355,0.423599
0.417200,0.270999,-0.954242,0.330215,-0.790046,0.516512
0.102898,0.373065,0.066246,0.673281,0.737429,-0.053780
0.146105,0.378429,0.023605,0.827006,0.555226,-0.088230
0.461858,0.459736,-0.959436,0.128309,-0.433565,-0.891941
0.097108,-0.242951,0.824760,0.869028,-0.490163,0.067306
0.360711,-0.220986,0.776536,-0.401633,0.915700,-0.013621
0.077549,-0.021011,0.449011,-0.627546,-0.766471,0.136780
-0.047254,-0.052515,0.872480,-0.758090,0.482617,-0.438613
0.141523,-0.037374,0.857943,0.758708,-0.393592,-0.519084
-0.061737,-0.048357,0.770799,0.398086,-0.788240,-0.469260
0.017685,-0.040787,0.737733,0.302305,-0.225530,0.926147
0.073932,-0.034692,0.699937,-0.700379,-0.528512,-0.479733
0.130657,-0.028582,0.660435,0.293967,-0.160649,0.942218
0.187633,-0.018821,0.572051,-0.076866,0.471525,0.878497
0.386782,-0.003189,0.559104,0.389604,-0.749326,-0.535461
0.053171,0.144284,0.876007,0.944568,-0.113531,0.308061
0.119069,0.151125,0.840770,-0.526666,-0.701793,0.479697
-0.012490,0.147697,0.717071,0.737003,0.511232,-0.442119
-0.065841,0.150380,0.608335,-0.107413,-0.959070,0.262007
0.018164,0.158442,0.575501,0.924922,-0.307237,-0.223886
0.076583,0.165028,0.535767,0.708740,-0.685546,-0.166474
0.123658,0.170647,0.495917,0.459731,0.827334,-0.322747
0.127762,0.173583,0.445367,-0.158684,-0.977982,-0.135538
-0.818283,0.257572,0.848329,-0.312486,0.923597,0.222084
-0.215264,0.300058,0.909074,0.322803,0.424717,0.845821
-0.104945,0.310072,0.880039,0.523596,-0.767358,0.370147
-0.058113,0.315676,0.841274,0.198041,0.563766,-0.801840
-0.172536,0.311041,0.772582,0.802741,0.557433,-0.211839
-0.244717,0.309089,0.709512,0.997812,-0.060871,-0.025816
-0.185089,0.511984,0.884303,-0.038226,0.998744,0.032386
0.032169,0.089832,0.835498,0.241989,0.170019,0.955267
0.096865,0.191405,0.905624,0.640169,0.492097,-0.589935
-0.305310,0.369398,0.899421,0.372137,0.370493,0.851028
0.007062,0.137683,0.885854,0.957790,0.279325,-0.067945
-0.018523,0.003159,0.737268,-0.330958,-0.416822,-0.846597
0.058240,-0.049341,0.689432,0.872796,-0.256617,0.415179
-0.021661,-0.265901,-0.950947,-0.257118,-0.341050,0.904199
-0.094808,0.096433,-0.943116,-0.714867,0.694202,0.083954
0.218772,0.216069,0.152304,-0.705715,0.545799,0.451741
0.158901,0.220465,0.118036,0.777258,-0.622387,-0.092222
0.259084,0.082753,0.195798,0.968197,-0.235550,0.084328
0.126796,0.172599,0.100359,0.955516,0.290970,0.048230
0.146105,0.253429,0.147110,0.791038,0.600442,0.117164
0.237359,0.104481,0.223205,0.875629,-0.422404,-0.234200
0.264631,0.165282,0.272902,0.919337,-0.363310,0.151079
0.118833,0.184566,0.124083,0.869518,-0.456976,-0.187379
0.122693,0.151363,0.150095,-0.067770,-0.903798,0.422559
0.131386,0.227291,0.115633,0.973358,-0.220885,-0.061521
0.196075,-0.071307,0.799718,-0.160233,0.934678,0.317337
-0.466807,0.145015,-0.968081,0.551739,-0.769113,-0.322568
-0.456427,-0.169946,-0.964359,0.082081,0.994625,-0.063113
-0.184610,0.204341,-0.949319,0.951265,0.091568,0.294466
-0.174230,-0.135774,-0.938774,0.788331,0.363695,-0.496246
-0.164816,-0.387012,-0.944550,0.683685,-0.570165,-0.455507
-0.154435,-0.701004,-0.940519,0.353900,0.935069,0.020032
-0.039527,-0.037613,-0.242633,-0.734689,-0.259622,-0.626761
0.035786,-0.078386,-0.639393,0.836857,-0.529218,0.139998
0.045687,-0.094256,-0.689477,0.444340,0.893155,0.069547
0.083103,0.211672,-0.953273,0.116190,-0.429662,0.895484
0.093483,-0.106223,-0.947070,-0.364944,-0.439412,-0.820812
0.104828,-0.444385,-0.938891,0.101444,0.036797,0.994161
-0.261373,0.311533,0.874806,0.854353,-0.310896,-0.416442
-0.253889,0.386000,0.819876,0.645206,0.691830,-0.324163
-0.244717,0.230718,0.800222,-0.367130,-0.825817,0.428068
-0.076221,0.211672,0.835420,-0.434357,-0.048066,0.899457
-0.065841,0.008047,0.821116,-0.707928,0.694660,0.127615
0.059683,0.005842,0.172462,-0.459187,0.575465,-0.676747
0.068863,0.050772,0.116098,0.192367,-0.876005,0.442279
0.078035,0.068342,0.064191,0.873247,-0.291484,0.390483
0.086720,0.146729,0.003912,0.968602,-0.111163,-0.222382
0.271638,0.067135,-0.944008,0.449982,-0.307576,-0.838400
0.282260,-0.216590,-0.945985,0.919335,-0.390775,0.046021
0.157693,-0.037866,0.872286,-0.498913,0.794495,-0.346213
0.167838,-0.251253,0.861819,0.555557,0.646221,0.523215
0.195110,-0.167755,0.714396,-0.422331,0.335637,-0.842012
0.222389,0.046377,0.540031,-0.444320,0.743908,-0.499179
0.231326,0.063216,0.492002,0.959989,0.229775,0.160075
0.268978,0.036362,0.310426,-0.148869,0.625151,0.766175
0.511342,0.446309,-0.960483,-0.189919,0.225077,0.955652
0.521722,0.071770,-0.944085,0.351969,0.683506,0.639482
0.532345,-0.262250,-0.936797,-0.063008,-0.419773,-0.905440
-0.448699,0.254397,-0.983897,0.339339,-0.637525,-0.691673
-0.459322,0.082515,-0.976260,-0.115877,-0.770415,-0.626924
-0.470910,-0.096954,-0.962421,-0.461579,0.439771,0.770420
-0.479353,-0.253204,-0.960638,-0.132330,0.868673,-0.477385
-0.428418,0.176757,-0.193363,0.379254,0.911490,0.159222
-0.220818,0.302010,-0.980369,-0.020468,0.194336,0.980721
-0.232650,0.129874,-0.968546,-0.715477,0.657246,0.236896
-0.243752,-0.044453,-0.958816,-0.750998,0.197784,0.629987
-0.249306,-0.191196,-0.962460,0.358649,-0.388231,-0.848910
-0.260409,-0.363809,-0.953466,0.284748,0.119924,-0.951071
-0.269823,-0.532042,-0.947070,-0.611491,-0.761714,0.214175
-0.277065,-0.687561,-0.949474,0.054708,0.070682,0.995998
-0.211160,0.138905,-0.318070,-0.523739,0.851878,0.001298
-0.030354,0.364019,-0.971686,0.901484,-0.326449,0.284180
-0.042186,0.182866,-0.957188,0.972206,0.148938,0.180647
-0.072596,-0.074973,-0.889698,-0.088024,-0.832808,0.546519
-0.073561,-0.205114,-0.911019,-0.501043,0.597113,0.626427
-0.067292,-0.300817,-0.951451,0.002414,0.642617,0.766184
-0.077908,-0.468066,-0.941914,-0.284143,-0.024313,-0.958474
-0.083462,-0.620918,-0.946876,0.426998,-0.347126,0.834971
-0.093120,-0.781818,-0.941100,-0.581541,-0.279428,0.764022
-0.045081,-0.000015,-0.429287,-0.181753,0.982811,0.032369
-0.012490,-0.086939,-0.571903,0.428767,0.895134,-0.122043
0.108932,0.337657,-0.960250,-0.303035,-0.694838,-0.652203
0.042062,-0.085717,-0.780032,0.519532,-0.812279,0.265122
0.087450,-0.004649,-0.940596,0.845011,-0.486732,-0.221469
0.080930,-0.164089,-0.942186,0.467185,0.282019,0.837976
0.072723,-0.324020,-0.942302,0.075382,0.116095,0.990373
0.065482,-0.481016,-0.944667,-0.240431,0.107557,0.964689
0.055824,-0.646312,-0.936022,0.327905,-0.397348,0.857084
-0.097467,0.113512,0.234292,-0.730594,0.355987,-0.582670
-0.089017,0.048567,0.187619,0.958867,-0.151094,0.240301
-0.075256,-0.001475,0.127688,0.857262,-0.510618,0.066121
-0.056669,-0.026392,0.050430,0.881143,-0.339815,0.328804
-0.024564,0.007556,-0.065749,0.871235,0.239261,0.428606
-0.010073,-0.033947,-0.130680,0.684111,0.124819,-0.718619
0.014303,-0.031995,-0.225383,-0.203295,-0.446420,-0.871424
0.035550,-0.053484,-0.310201,0.847466,-0.477518,0.231899
0.055345,-0.077655,-0.390987,0.220045,0.974209,0.049970
0.082382,-0.072529,-0.495497,-0.215205,-0.659292,0.720431
0.100968,-0.107683,-0.575508,-0.133229,0.991081,0.002957
0.217808,0.289552,-0.950675,-0.462883,-0.456039,-0.760111
0.208871,0.130365,-0.947031,0.104698,-0.087869,-0.990615
0.203081,-0.016377,-0.951955,0.012352,0.115879,0.993187
0.194145,-0.185086,-0.947031,-0.114615,0.706802,0.698065
0.184008,-0.350144,-0.939550,0.262846,-0.020012,0.964630
0.176523,-0.510553,-0.939201,-0.258207,-0.633473,0.729411
0.167351,-0.676341,-0.934665,0.001776,0.558728,0.829349
-0.087566,0.053217,0.373691,0.802789,0.393539,0.447946
-0.060286,0.078610,0.269762,0.696446,0.700218,-0.157029
-0.040978,0.068104,0.189829,-0.766557,0.444071,-0.463888
-0.030598,0.010000,0.138814,0.870900,-0.489082,0.048281
-0.023113,-0.063736,0.092800,0.120346,0.975121,0.186160
0.012616,-0.003918,-0.036404,0.867595,0.489651,-0.086721
0.037959,0.004128,-0.137037,0.940379,0.190321,-0.281894
0.058719,-0.011980,-0.223910,-0.122687,-0.429014,0.894927
0.074411,-0.056658,-0.293415,-0.627770,0.694138,0.352247
0.093727,-0.079369,-0.375287,0.896349,0.080225,-0.436031
0.258119,0.334244,-0.957382,-0.504185,0.274121,0.818936
0.251113,0.174313,-0.957498,0.295954,-0.052049,-0.953783
0.242427,0.010238,-0.954939,0.292063,0.431144,0.853706
0.232290,-0.163596,-0.945481,0.330961,-0.449076,-0.829937
0.223355,-0.323767,-0.940945,0.653825,-0.015161,0.756494
0.215634,-0.481254,-0.937883,-0.638793,0.366858,-0.676283
0.207663,-0.640202,-0.937999,0.144682,-0.225937,0.963338
0.269221,0.045393,-0.953389,-0.884394,0.367213,0.288101
0.261257,-0.113555,-0.950133,-0.436065,-0.631005,-0.641623
0.252564,-0.277630,-0.947380,-0.828344,0.544380,-0.132274
0.244114,-0.442925,-0.943310,0.418934,0.323242,-0.848533
0.235664,-0.605525,-0.940945,-0.593149,-0.140085,-0.792811
-0.057877,0.031728,0.408037,0.009735,0.829895,0.557834
-0.036631,0.039045,0.319653,0.133458,-0.958904,0.250386
0.000543,0.119860,0.180060,-0.748324,-0.144909,-0.647312
0.009714,0.053455,0.130480,-0.287749,0.783633,0.550563
0.009478,-0.058610,0.108345,0.434069,0.839030,-0.328044
0.032411,-0.054945,0.015425,-0.603577,0.791989,0.091916
0.069585,0.021714,-0.124904,0.753697,0.597597,-0.273530
0.081895,-0.031518,-0.187781,0.898836,-0.412523,0.148050
0.100725,-0.052262,-0.268606,0.925889,0.285089,-0.247901
0.117382,-0.088161,-0.345167,0.251352,0.936360,0.245057
0.134282,-0.121364,-0.423859,0.629769,0.737612,-0.243558
0.164935,-0.092304,-0.546124,-0.296633,0.925023,-0.237363
0.284669,0.364272,-0.956761,-0.709336,0.233141,0.665197
0.279357,0.216307,-0.960870,0.770324,0.573313,0.279127
0.053650,-0.093780,0.378537,0.828018,0.512927,-0.226478
0.128726,0.185788,0.115400,0.845886,-0.514395,0.140973
0.117382,0.018047,0.132069,-0.011093,0.926033,0.377280
0.168803,0.051995,-0.077766,0.327917,0.644560,0.690661
0.399336,0.493430,-0.966840,-0.681551,-0.501646,0.532766
0.391129,0.328626,-0.963855,-0.238142,0.217676,0.946523
0.380506,0.153808,-0.954319,0.209685,0.486631,-0.848070
0.370369,-0.012711,-0.946062,0.811598,-0.169014,-0.559234
0.364571,-0.160184,-0.949280,-0.249837,-0.379352,0.890883
0.353956,-0.333051,-0.940519,0.837420,0.115962,-0.534116
0.346714,-0.489555,-0.938154,-0.275675,-0.114372,0.954423
0.337299,-0.655090,-0.933657,0.014985,0.983720,0.179081
0.196318,0.039045,0.398074,0.149607,0.733898,0.662579
0.231083,0.113035,0.264257,0.837059,-0.289340,0.464343
0.216835,-0.069117,0.287400,0.422070,0.872860,0.244892
0.231561,-0.100128,0.219833,-0.641274,0.633312,-0.433224
0.528485,0.335704,-0.947729,0.630856,-0.050684,0.774243
0.522208,0.187009,-0.951567,-0.181935,-0.039275,0.982526
0.513037,0.019031,-0.947497,0.886596,-0.457692,-0.066819
0.504830,-0.145297,-0.944822,0.032721,-0.355050,0.934274
0.494450,-0.318640,-0.936138,0.076722,0.101754,0.991847
0.487930,-0.471240,-0.936836,-0.178404,-0.285865,0.941517
0.478515,-0.632870,-0.930556,0.745978,-0.347368,-0.568200
0.430475,-0.157502,0.114043,-0.564922,-0.824948,0.017970
0.686844,-0.080591,-0.939317,0.854312,-0.339164,-0.393850
0.678394,-0.237825,-0.937069,-0.181749,-0.131107,0.974566
0.671874,-0.396281,-0.938232,0.555409,-0.160324,-0.815976
0.659564,-0.575988,-0.924083,0.136731,-0.518949,0.843799
0.628181,0.234622,0.091056,0.453735,0.889220,0.058408
0.613698,-0.172151,0.071789,0.660412,0.709943,0.244614
0.797399,-0.293009,0.075860,0.221359,0.954044,0.201991
0.791851,-0.032487,0.767659,-0.340761,0.118461,-0.932657
0.806579,-0.160422,0.683617,-0.464127,-0.325916,0.823629
0.815507,-0.221462,0.635820,0.331630,0.599511,0.728429
0.803197,-0.385298,0.653186,0.415803,0.819180,0.395034
0.875614,-0.052262,0.760837,-0.040146,-0.146898,0.988337
0.616114,0.287362,0.914152,-0.368389,-0.156470,0.916410
0.646524,0.031474,0.745641,-0.076392,0.785399,0.614258
0.616349,-0.227572,0.817201,-0.008374,-0.907654,0.419637
0.658599,-0.217812,0.646868,0.428063,0.882475,0.194935
0.655704,-0.338669,0.634967,-0.103152,0.470373,0.876418
0.665841,-0.397265,0.584650,-0.797240,0.601060,-0.055990
0.430475,0.262937,0.908764,0.286564,-0.847711,0.446394
0.426372,-0.062276,0.863447,-0.711825,-0.269783,-0.648477
0.419616,-0.196323,0.864184,-0.475445,0.575301,-0.665569
0.431441,-0.241000,0.808401,0.006711,0.940941,0.338505
0.450270,-0.246617,0.728817,0.007188,0.214228,0.976757
0.459685,-0.505187,0.638417,0.744961,0.064640,-0.663969
0.100968,0.456324,0.884652,-0.285509,-0.510506,0.811091
0.272846,0.598656,0.917757,0.202864,-0.751001,0.628366
0.260293,0.230956,0.898142,-0.063974,-0.997911,0.009017
0.258841,0.121574,0.881706,0.587558,-0.491072,0.643136
0.235664,-0.100604,0.934155,0.917122,-0.165955,-0.362417
0.245080,-0.155550,0.885854,0.619710,0.238174,-0.747819
0.250148,-0.231969,0.849376,0.262650,-0.682779,0.681782
0.276949,-0.196323,0.745602,0.833974,0.176547,-0.522798
0.294806,-0.203162,0.669506,0.768501,-0.639739,-0.011891
0.239768,-0.589177,0.822395,0.892925,0.305415,-0.330767
0.280087,-0.484920,0.673887,0.244744,-0.204423,0.947793
0.260528,-0.685132,0.714551,0.345884,0.548072,-0.761565
0.085756,0.276617,0.911438,0.891562,0.353428,-0.283205
0.088894,0.190914,0.882093,-0.330291,0.586911,0.739218
0.091796,0.104973,0.852206,0.894556,0.357834,0.267813
0.091553,-0.002950,0.833754,0.543236,0.159558,0.824279
0.097108,-0.071307,0.795492,0.934891,0.125742,-0.331916
0.127519,-0.007823,0.678500,0.969873,0.184604,-0.158959
0.115451,-0.178991,0.697185,0.792792,0.603113,-0.087954
0.074653,-0.493951,0.806618,0.360909,0.912761,0.191345
-0.138258,0.635777,0.862750,0.878420,-0.233647,0.416878
-0.143570,0.509063,0.858330,-0.755063,0.337276,-0.562250
-0.140430,0.427264,0.829373,-0.443713,0.655584,0.611006
-0.147672,0.283949,0.832280,0.579413,0.792898,-0.188663
-0.155879,0.141110,0.837824,0.461141,0.595364,0.657944
-0.149846,0.071517,0.797780,0.195226,0.668997,0.717168
-0.181715,-0.203401,0.877984,0.863638,0.227612,-0.449803
-0.086600,0.194819,0.559802,-0.153923,0.263529,0.952292
-0.094808,0.047598,0.566469,-0.569525,-0.814130,-0.113282
-0.070909,0.069565,0.471417,-0.435442,0.804263,-0.404415
-0.031077,0.587180,0.872480,0.740607,0.629050,-0.236215
-0.011768,0.592561,0.791732,0.846831,-0.258420,0.464862
-0.026973,0.408711,0.817550,0.785888,0.617269,-0.036860
-0.033736,0.270030,0.821000,0.161270,0.695780,-0.699916
-0.019010,0.250732,0.754712,0.753969,-0.207858,0.623158
-0.053287,-0.037374,0.840964,-0.567516,0.689170,0.450523
-0.050149,-0.120380,0.812045,0.470304,0.249165,-0.846600
0.011409,0.103259,0.596318,-0.312424,0.927831,0.203768
0.017199,0.024395,0.558677,-0.277608,0.796267,0.537488
-0.072596,-0.550595,0.821543,-0.587861,0.397464,0.704586
0.032648,-0.100128,0.466455,-0.574286,0.818647,-0.003584
-0.194990,0.645046,0.917370,-0.507299,0.722351,-0.469954
-0.187262,0.583277,0.874844,0.193490,-0.416639,0.888242
-0.188956,0.474624,0.860075,-0.699443,0.278964,-0.657996
-0.190643,0.363781,0.844608,-0.466859,0.241394,-0.850748
-0.176160,0.334483,0.782080,0.772761,0.563392,-0.292285
-0.176404,0.228765,0.762581,-0.091286,0.826826,0.555000
-0.210439,-0.045914,0.845693,0.190539,0.876163,0.442756
-0.225165,-0.223176,0.872635,-0.141579,-0.041309,0.989065
-0.148159,0.066391,0.618802,0.954622,0.239697,0.176753
-0.124261,0.082023,0.528479,-0.527631,0.767048,0.365025
-0.107604,0.059803,0.456454,0.604896,-0.783047,0.144698
-0.358897,0.469989,0.860308,0.827130,0.285288,0.484218
-0.346107,0.432883,0.802935,-0.366634,0.463251,-0.806832
-0.345378,0.336197,0.782119,0.817815,0.411477,0.402325
-0.351177,0.199945,0.780839,0.747554,-0.550566,-0.371537
-0.378449,-0.040057,0.840072,0.055933,-0.991551,0.117036
-0.356002,-0.137965,0.736996,-0.665473,0.368207,-0.649284
-0.252680,0.602575,0.925123,0.769935,-0.637103,-0.036052
-0.247855,0.525173,0.891978,-0.250998,0.865670,-0.433145
-0.243994,0.443135,0.860540,0.845564,-0.405792,-0.346922
-0.248342,0.321547,0.854415,-0.063529,0.979530,0.191013
-0.228304,0.321786,0.778513,0.475924,-0.082741,-0.875586
-0.229990,0.208498,0.763511,-0.032157,0.837824,0.544993
-0.222505,0.144284,0.722227,-0.321142,-0.819239,0.475096
-0.201989,0.138905,0.643069,0.697052,0.703370,0.139244
-0.209952,-0.008568,0.646790,0.736549,0.667343,0.110221
-0.180021,0.030744,0.539179,0.354907,0.653507,0.668558
-0.155643,0.047345,0.447112,0.186973,-0.950111,-0.249660
-0.492635,0.522728,0.831893,0.829268,0.550791,-0.094578
-0.516047,0.299805,0.880039,0.845255,-0.431575,0.315098
-0.513152,0.211672,0.851779,-0.626571,-0.302368,-0.718319
-0.678996,0.647491,0.875697,0.191290,-0.616313,0.763915
0.798850,-0.526185,-0.937456,-0.364041,0.115989,0.924133
0.786297,-0.379680,-0.930014,0.342071,-0.533057,-0.773846
0.769397,-0.243936,-0.935131,0.029164,-0.617058,0.786377
0.594868,0.097655,-0.945442,0.240611,0.564982,0.789241
0.579419,0.236336,-0.947031,0.132522,0.767655,0.627012
0.560590,0.375747,-0.953699,0.840021,0.248464,0.482317
0.541281,0.506858,-0.964282,0.606036,0.569553,0.555274
0.680324,-0.601128,-0.925866,-0.001541,0.999995,-0.002908
0.662703,-0.468066,-0.932998,-0.300298,0.871152,0.388477
0.644837,-0.328163,-0.937883,-0.302380,0.074404,-0.950279
0.627702,-0.184847,-0.941178,0.502467,-0.017730,-0.864415
0.612976,-0.036644,-0.939278,-0.630711,-0.108324,0.768420
0.521243,-0.512504,-0.929161,0.505666,-0.292532,-0.811620
0.503379,-0.379680,-0.936526,-0.332023,0.464072,0.821217
0.487208,-0.243682,-0.939937,-0.089925,0.481898,0.871600
0.469100,-0.102318,-0.944977,-0.110161,-0.221670,0.968879
0.453166,0.036615,-0.947031,0.376879,0.365302,-0.851185
0.434336,0.175297,-0.954087,-0.079566,0.366232,0.927115
0.417922,0.319342,-0.955947,0.910618,0.031030,-0.412082
0.398613,0.459498,-0.963623,0.286848,-0.138661,-0.947888
0.745499,0.127431,0.004300,-0.018068,-0.984197,0.176155
0.352747,-0.583305,-0.937728,0.229411,0.044417,0.972316
0.336812,-0.435594,-0.936255,-0.177702,-0.397186,0.900369
0.318226,-0.298135,-0.944434,-0.138937,0.128846,0.981884
0.300361,-0.153836,-0.948156,0.057349,-0.412489,0.909156
0.283947,-0.016868,-0.952265,0.279646,0.192600,0.940587
0.269707,0.125970,-0.950094,0.033954,0.809408,0.586264
0.247739,0.258556,-0.964592,0.205185,-0.100331,-0.973567
0.232047,0.397236,-0.966375,-0.188789,-0.275043,-0.942714
0.144662,-0.704416,-0.933929,0.127361,0.127258,0.983659
0.128004,-0.568910,-0.938658,-0.042691,-0.247148,0.968037
0.113278,-0.424849,-0.935402,0.174583,0.313631,-0.933358
0.095170,-0.285438,-0.941604,-0.148810,0.079839,0.985638
0.085033,-0.131378,-0.929742,0.618085,-0.552881,0.558832
0.058240,-0.011251,-0.956141,0.551427,-0.094040,-0.828906
0.043999,0.138905,-0.952420,0.338018,0.333592,0.880034
0.023719,0.275633,-0.962421,-0.260940,-0.481994,-0.836416
0.523659,-0.031995,0.378537,0.042850,-0.990159,-0.133228
0.389678,-0.065689,0.110981,0.621538,0.782856,0.028763
0.219008,-0.194862,-0.247673,0.437539,0.822062,-0.364381
0.191971,-0.088161,-0.278219,0.275037,0.623093,0.732195
-0.072361,-0.782549,-0.938426,0.357422,0.453530,-0.816431
0.179418,0.049298,-0.272715,0.798628,-0.161801,0.579667
-0.086115,-0.637519,-0.934006,-0.298130,0.879267,-0.371495
0.092997,0.004620,-0.450801,0.879570,-0.253616,-0.402537
0.006097,-0.034692,-0.627608,0.946210,0.321019,-0.040408
-0.127155,-0.366983,-0.956141,0.901969,-0.230167,-0.365341
-0.129808,-0.188990,-0.924780,0.943938,0.123587,-0.306117
-0.159504,-0.085717,-0.961142,0.801613,-0.067377,-0.594035
-0.175196,0.053455,-0.961723,0.008367,0.230050,0.973143
-0.203440,0.171139,-0.992270,0.446464,0.516674,-0.730561
0.307845,-0.083765,0.314884,-0.233796,-0.017835,-0.972122
0.317261,0.110590,0.373768,0.548584,-0.080415,-0.832219
0.275255,0.156982,0.302518,0.896858,0.388278,-0.211865
0.220217,0.177978,0.201807,0.828482,0.462699,-0.315480
0.165421,0.200690,0.100514,0.926560,0.345370,0.149019
-0.277544,-0.775709,-0.955172,-0.679642,0.728506,0.085821
-0.289861,-0.627267,-0.948311,0.313988,-0.486540,-0.815285
-0.075012,0.089340,-0.385831,-0.204537,0.968221,0.143922
-0.304344,-0.485650,-0.947303,-0.526263,-0.847228,0.072468
-0.323410,-0.346478,-0.954009,-0.087988,0.491992,0.866142
-0.339587,-0.209749,-0.957420,-0.076203,0.200218,0.976783
-0.360348,-0.071798,-0.967189,-0.421421,0.015208,0.906738
-0.375310,0.076404,-0.965910,-0.720708,-0.029149,0.692626
-0.395348,0.212895,-0.976415,0.328271,-0.646035,-0.689114
-0.001631,-0.076925,0.112454,-0.493469,-0.868520,0.046489
-0.034701,0.006826,0.067331,0.898015,-0.439964,-0.000154
-0.244960,0.149903,-0.303378,0.790412,-0.485866,0.373072
-0.584847,0.032458,-0.973275,-0.171575,0.029173,0.984739
-0.603190,0.172122,-0.980524,-0.829108,0.314219,-0.462435
-0.060043,0.125478,0.364271,0.477288,0.878305,0.027875
-0.907113,0.092514,0.876356,-0.502880,0.817071,0.281969
-0.256548,-0.255410,0.863603,-0.428802,0.555901,0.712112
-0.289376,-0.032248,0.847670,0.399474,0.904112,0.151663
-0.343935,-0.029074,0.749401,0.912378,-0.397593,0.097394
-0.292999,0.268555,0.899809,0.597525,0.061330,0.799501
-0.343205,0.290536,0.812472,-0.168824,-0.785705,0.595118
-0.340066,0.455102,0.850694,0.190506,-0.461430,0.866481
-0.725099,0.176995,0.926751,0.751557,-0.658108,-0.045343
-0.568190,-0.228555,0.742074,0.179186,0.878882,-0.442106
-0.571572,0.067613,0.792120,0.996617,-0.040720,-0.071387
-0.558054,0.259763,0.852322,0.811574,0.150562,0.564516
-0.607302,0.597449,0.828869,0.744627,0.663731,0.070657
-0.615744,0.732225,0.840072,0.871073,0.062090,-0.487213
0.197040,-0.115984,0.801617,0.180260,-0.035513,-0.982978
0.164456,-0.054705,0.751921,0.116121,-0.085882,0.989515
0.200664,0.206055,0.874457,0.692674,-0.698275,-0.180595
0.062100,-0.026138,0.564570,0.725603,0.579832,-0.370534
0.050277,0.097402,0.567128,0.959828,-0.278583,0.033499
0.189076,0.640903,0.941365,0.857861,-0.348635,0.377529
0.014303,-0.688306,0.824217,-0.090774,0.378478,0.921149
0.005853,-0.556943,0.834451,-0.395286,-0.486596,0.779085
-0.009108,-0.444385,0.829722,0.867637,0.148951,-0.474362
-0.004040,-0.267615,0.874185,0.599233,0.600191,0.529802
-0.020461,-0.161898,0.864106,0.809394,0.045173,-0.585526
-0.042665,-0.063498,0.843832,0.829209,0.011378,-0.558823
-0.067292,0.026348,0.815534,-0.525172,0.778468,0.343777
-0.031077,0.287362,0.935124,0.293940,-0.085170,0.952022
-0.145986,0.122557,0.689238,-0.512896,-0.743986,0.428280
-0.186297,0.169916,0.623958,0.840903,0.073658,0.536150
-0.101328,0.557406,0.858989,0.445577,0.283738,-0.849090
-0.132467,0.626746,0.814875,0.998942,-0.045970,0.001494
0.256668,-0.752520,0.783902,-0.527468,-0.830248,0.180183
0.261014,-0.573305,0.828365,0.758276,0.057193,-0.649420
0.257876,-0.425341,0.852167,-0.444129,0.893816,0.061990
0.228423,-0.351113,0.812394,-0.695182,-0.515338,-0.501148
0.232047,-0.177515,0.854299,-0.474843,-0.372692,0.797261
-0.001388,0.120352,0.474945,-0.638140,0.711594,-0.293957
0.003202,0.460467,0.553405,0.997553,0.067355,0.018727
0.382436,-0.618966,0.731259,0.901289,-0.408291,0.144836
0.392580,-0.419976,0.792314,-0.218668,-0.720731,0.657823
0.380992,-0.298626,0.794330,0.035132,0.856276,0.515322
0.303499,-0.372363,0.631827,-0.027697,-0.536887,0.843199
0.291676,-0.242713,0.636595,0.236461,0.225487,0.945115
0.261014,-0.174103,0.591899,0.465940,0.563522,-0.682160
0.242427,-0.061054,0.580347,-0.320515,0.672666,0.666927
0.370369,0.462181,0.930705,-0.673957,0.644056,-0.361904
0.184494,-0.060562,0.470022,0.273667,0.640734,0.717332
0.532102,-0.581353,0.643340,-0.625305,-0.126386,0.770078
0.574594,-0.283978,0.786654,0.928665,0.355262,-0.106629
0.496622,-0.193387,0.655977,-0.366338,-0.664111,0.651731
0.478515,-0.081813,0.643611,0.955785,0.240694,0.168945
0.406098,0.035393,0.529255,0.776791,-0.583675,-0.236473
0.735119,-0.723207,0.644658,0.481275,0.596607,-0.642211
0.702049,-0.321322,0.664661,0.153577,-0.676037,0.720686
0.699397,-0.170437,0.691913,0.469733,0.031315,-0.882253
0.687323,-0.047388,0.694045,-0.121838,-0.848801,0.514483
0.649185,0.005604,0.631633,0.024252,0.601935,0.798177
0.904102,-0.111349,0.691370,-0.355404,-0.167745,0.919538
-0.610197,0.149172,-0.981610,-0.679929,-0.473214,-0.560147
-0.398008,0.224117,-0.976183,-0.294418,0.544372,0.785479
-0.413699,0.071517,-0.968972,-0.010491,-0.545502,0.838044
-0.428183,-0.093780,-0.967189,-0.656680,-0.630644,-0.413592
-0.442422,-0.235634,-0.959320,-0.428177,-0.116250,-0.896187
-0.185333,0.284679,-0.982734,-0.348873,0.052512,0.935698
-0.199337,0.168203,-0.965406,0.725607,-0.487323,-0.485810
-0.213577,0.027823,-0.956645,0.879262,0.421085,0.222677
-0.229026,-0.149440,-0.955676,0.541563,-0.214489,-0.812837
-0.245439,-0.331591,-0.956257,0.619268,-0.065809,-0.782417
-0.260652,-0.484190,-0.948892,-0.101063,-0.481061,-0.870842
-0.275614,-0.653629,-0.947768,0.002617,0.075545,0.997139
-0.363000,0.244145,-0.241897,-0.279503,-0.948016,-0.152132
-0.157574,0.108638,-0.365828,0.502346,-0.632265,0.589821
0.006097,0.333022,-0.967422,-0.058126,0.920551,0.386272
-0.008143,0.185057,-0.960715,0.945189,0.303182,0.121238
-0.021905,0.057613,-0.948427,0.243368,0.784450,-0.570447
-0.036874,-0.058119,-0.930324,0.594931,0.289720,0.749746
-0.049185,-0.113794,-0.897955,0.401013,0.771067,-0.494615
-0.062460,-0.157741,-0.860663,0.950874,0.014154,0.309254
-0.080811,-0.471002,-0.897606,-0.707450,-0.449084,-0.545745
-0.099633,-0.792563,-0.936526,0.151143,-0.436743,0.886798
0.165178,0.314946,-0.961258,0.298340,0.431474,0.851366
0.150208,0.152823,-0.956761,0.987971,0.107110,-0.111540
0.135003,-0.012473,-0.953079,-0.229339,-0.242367,0.942689
0.120033,-0.173849,-0.948078,0.376904,0.164286,0.911567
0.105315,-0.320593,-0.941023,0.193005,-0.244454,0.950259
0.090102,-0.474905,-0.936100,-0.017838,-0.088962,0.995875
0.075862,-0.606508,-0.922726,0.826384,0.544875,0.142129
0.064760,-0.060562,-0.677033,0.900737,0.176755,0.396776
0.053650,-0.025646,-0.619506,0.475241,0.570625,-0.669726
0.041583,-0.036644,-0.574965,-0.554540,0.553257,0.621604
0.031925,0.004873,-0.518368,-0.679339,0.422815,-0.599772
0.021066,0.021952,-0.468749,0.268953,0.784830,0.558306
0.009478,-0.007585,-0.430527,0.018850,0.930128,0.366751
0.000307,0.044171,-0.372341,-0.129198,0.685653,0.716372
-0.051115,0.132079,-0.126687,-0.105384,0.832505,-0.543903
-0.064390,0.026602,-0.109669,-0.424302,0.786032,0.449579
-0.120879,0.214117,0.191457,-0.034393,0.798211,0.601395
-0.011281,0.096671,0.359387,0.462764,0.484069,-0.742649
-0.021905,0.083245,0.397066,0.489786,-0.812685,-0.315679
0.328606,0.351083,-0.959824,-0.571840,0.028063,-0.819885
0.313401,0.186518,-0.958002,-0.228444,0.219331,0.948529
0.299153,0.050043,-0.946101,-0.410399,0.596387,-0.689852
0.284190,-0.139679,-0.951063,0.349992,-0.936747,-0.003123
0.269221,-0.295690,-0.944550,-0.198017,-0.224329,0.954183
0.253530,-0.460257,-0.940480,-0.046898,0.069233,0.996498
0.238324,-0.627505,-0.936875,-0.326134,-0.248360,0.912115
0.170489,-0.042740,-0.447816,-0.282021,0.593876,0.753509
0.159867,-0.052515,-0.405873,0.492852,0.861196,-0.124250
0.150938,0.010238,-0.345128,0.638385,0.612579,0.466059
0.140558,0.021714,-0.296439,-0.296879,0.939032,0.173443
0.129934,0.031236,-0.250309,0.783522,0.523952,0.334018
0.119069,0.027331,-0.205845,0.924211,0.335919,0.181638
0.100239,0.148427,-0.085403,0.753023,0.323085,-0.573213
0.090832,0.170170,-0.037605,-0.547391,0.754686,-0.361680
0.080208,0.168694,0.004067,-0.809575,-0.133906,0.571540
0.068863,0.112781,0.032792,0.448353,-0.723485,-0.524927
0.057518,0.069818,0.063377,0.889711,-0.061333,-0.452384
0.047860,0.086657,0.110477,-0.657383,0.704210,-0.268209
0.035307,0.002668,0.131914,-0.413983,0.426310,0.804287
0.024440,-0.009045,0.171493,0.196995,-0.451009,0.870508
0.018407,0.120113,0.244138,-0.283585,-0.923757,0.257395
0.007305,0.056629,0.268444,0.287300,-0.847159,-0.446967
-0.003074,0.061025,0.311008,-0.212231,0.973176,0.088805
0.500483,0.389412,-0.960599,0.020190,0.747302,0.664177
0.485034,0.230718,-0.955250,-0.404000,-0.331500,0.852579
0.470787,0.107416,-0.939550,0.885477,0.190261,-0.423946
0.456304,-0.066672,-0.940325,-0.264396,-0.466929,0.843844
0.441342,-0.249553,-0.943426,0.115544,0.560243,0.820230
0.425650,-0.408248,-0.937612,-0.588045,-0.132968,-0.797824
0.410437,-0.568417,-0.934161,-0.606814,-0.696344,0.383252
0.303743,0.272459,-0.195689,0.788224,-0.502976,0.354567
0.270186,-0.241729,-0.241664,-0.621572,0.127076,0.772982
0.258363,-0.315228,-0.217669,-0.479800,0.207341,0.852526
0.225527,0.089832,0.060044,0.957531,-0.200423,-0.207280
0.216600,0.139158,0.113811,0.480421,-0.294542,0.826100
0.207906,0.196771,0.170679,0.517110,0.821673,0.239690
0.197526,0.187993,0.209172,-0.025910,-0.999653,0.004721
0.186660,0.150633,0.241929,0.486658,-0.479172,0.730451
0.172176,0.009509,0.248674,0.506096,-0.055779,-0.860672
0.161561,-0.020282,0.282903,-0.428874,-0.660268,0.616533
0.150695,-0.070338,0.310504,-0.281396,0.365346,0.887321
0.140801,-0.066434,0.350975,0.997599,0.006609,-0.068935
0.129692,-0.114285,0.380358,0.785832,-0.525494,-0.326075
0.117625,-0.195592,0.399702,0.529163,0.544017,-0.651177
0.337056,0.054439,0.314846,-0.346650,0.485292,0.802699
0.326432,0.037822,0.352138,-0.202784,-0.616025,0.761178
0.315573,0.026109,0.390399,0.011440,0.721924,0.691878
0.306394,0.044424,0.435327,-0.470267,0.792879,0.387545
0.646768,0.051265,-0.941953,-0.707680,-0.210024,-0.674595
0.631806,-0.116729,-0.939007,0.271264,-0.482984,-0.832551
0.616593,-0.291548,-0.937185,0.194542,0.622764,0.757838
0.601144,-0.447321,-0.930479,-0.849187,-0.011422,-0.527968
0.770849,-0.224890,-0.936371,-0.583969,0.014796,0.811641
0.756845,-0.372109,-0.929355,-0.075061,0.608559,0.789951
0.741160,-0.532771,-0.924199,0.708985,-0.233351,0.665498
0.570490,-0.040549,-0.057375,0.315992,0.280522,-0.906342
0.479966,0.034648,0.336593,-0.448977,0.846717,0.285463
0.572421,-0.043961,0.370280,0.133665,-0.966663,-0.218393
0.855340,-0.413136,-0.928347,0.714380,0.178343,0.676650
0.617079,-0.253934,0.111097,-0.357116,-0.646542,0.674131
0.895652,-0.325719,0.093226,-0.036580,-0.993463,-0.108131
0.762642,-0.302531,0.074115,0.288109,0.909021,0.301122
-0.580022,0.733194,0.859687,-0.162359,0.466862,0.869298
-0.626368,0.115479,0.826970,0.947871,0.009043,0.318527
-0.632165,0.187740,0.880233,-0.097949,0.988365,0.116362
-0.295652,0.088133,0.869534,0.503679,0.856129,0.115543
-0.306032,0.056391,0.899848,0.427514,-0.508184,-0.747650
-0.418767,0.365986,0.811464,0.000073,0.951764,0.306832
-0.436146,0.093990,0.785801,0.364974,-0.667661,-0.648863
-0.452803,-0.139679,0.768202,0.234973,0.788037,-0.569021
-0.274169,-0.101097,0.712225,0.811836,-0.575217,-0.100241
-0.281168,0.266602,0.873022,0.912190,-0.174300,-0.370848
-0.031077,0.102781,0.442615,0.855146,-0.508014,-0.103184
-0.041943,0.066152,0.474131,-0.014589,-0.988667,0.149415
-0.049185,0.134270,0.529216,-0.503201,0.853537,-0.135142
-0.064154,-0.054705,0.522161,0.087158,0.067162,0.993928
-0.076221,-0.136996,0.542319,0.923847,0.243467,0.295348
-0.065119,0.533473,0.739865,0.887853,-0.414405,-0.199964
-0.100598,-0.015155,0.687881,0.987882,-0.089721,-0.126649
-0.158782,-0.136505,0.885660,0.696378,-0.492501,0.522016
-0.216715,-0.060086,0.488823,0.867006,-0.347727,-0.356913
-0.218888,0.187740,0.588216,0.986465,0.114572,-0.117302
-0.231921,0.057122,0.596279,0.978517,-0.200774,-0.046837
-0.236753,0.228765,0.676407,0.971253,-0.089749,0.220481
-0.247134,0.197262,0.706372,0.988837,-0.122146,-0.085329
-0.260409,0.049298,0.708698,0.892705,0.353540,0.279442
0.110862,-0.065943,0.471611,0.494730,0.154765,-0.855155
0.096378,0.096433,0.590465,0.318077,-0.767377,0.556740
0.086241,0.057851,0.619306,0.879471,-0.474750,0.033801
0.080452,0.190183,0.688462,0.960641,0.257727,0.103658
0.065961,0.029522,0.689548,-0.441182,-0.871910,-0.212440
0.049790,0.096180,0.780917,0.777340,-0.604443,-0.174330
0.038924,0.033919,0.804835,0.932315,-0.359072,0.043080
0.029031,0.025617,0.841041,0.235659,0.700121,0.674015
0.018164,-0.046897,0.860656,-0.134086,-0.796749,-0.589247
0.005853,-0.144314,0.874495,-0.233022,0.211864,0.949112
-0.009108,-0.329877,0.870270,0.563172,-0.326492,-0.759105
-0.025529,-0.576719,0.850345,-0.535408,0.238809,-0.810128
-0.039527,-0.721747,0.855113,0.391062,0.442756,-0.806869
0.214905,-0.129664,0.743082,0.935492,0.302256,-0.183020
0.209593,0.009747,0.814100,-0.503427,-0.579269,0.641099
0.201151,0.046868,0.859300,-0.374614,0.812302,-0.447023
0.190763,-0.000744,0.886241,0.682113,0.384216,-0.622174
0.170004,-0.363571,0.840731,0.977529,-0.210648,0.007994
0.159145,-0.426563,0.864223,0.826838,0.264339,0.496451
