0.772018,0.657050,0.144302,-0.176492,-0.973223,0.147264
0.222933,0.241422,0.798527,0.989005,0.090313,0.117104
0.127582,-0.060692,0.429505,0.605562,-0.729913,0.317051
0.242387,0.617482,0.753424,-0.110975,-0.846771,0.520253
-0.207780,0.733103,0.552246,-0.172261,-0.933691,-0.313922
0.024508,-0.175475,0.300790,0.959756,-0.140943,0.242907
0.502899,0.094780,0.677945,0.378875,0.924447,0.043028
0.188771,-0.002882,0.264086,-0.328622,0.809085,-0.487226
0.416459,0.224858,-0.978676,-0.412747,0.302699,0.859077
-0.798601,0.258259,0.585549,-0.722572,-0.644610,0.249734
0.391507,0.095764,-0.971222,-0.134034,0.414737,0.900016
0.035199,-0.404062,0.379521,0.876915,0.475466,0.070366
0.218772,-0.020842,0.323356,-0.881226,0.431922,0.192054
0.407398,0.235529,-0.985656,-0.181568,0.144203,0.972748
0.506905,-0.269487,-0.956612,0.004217,0.058218,0.998295
0.212685,-0.124961,0.010145,-0.096512,0.986747,0.130443
0.203924,0.006239,0.079294,0.024971,-0.783877,0.620414
-0.072774,0.612009,0.480524,0.739304,-0.503236,0.447418
0.305955,0.291652,-0.987578,0.386641,-0.198688,-0.900573
-0.288133,0.353540,0.796930,-0.240987,-0.970332,-0.019507
0.409179,0.252504,-0.980066,0.157689,-0.276280,-0.948053
0.594388,0.171115,-0.969951,-0.292669,-0.023877,0.955916
0.183722,0.205922,0.786874,-0.255059,0.966881,0.009280
0.205854,-0.068829,0.187483,-0.666306,0.658480,-0.349916
0.306998,0.159048,0.858951,0.837980,-0.496141,-0.227232
0.104411,0.515324,0.317057,0.335712,0.822191,-0.459673
0.615623,-0.127068,-0.955991,0.034092,0.001154,0.999418
0.060596,-0.058731,0.199935,0.256747,0.928700,-0.267578
-0.648148,0.395352,0.568779,0.564777,0.295922,-0.770361
0.065051,-0.070516,0.511372,0.451649,0.856367,0.250298
-0.580278,-0.276785,0.668037,-0.467901,0.783567,-0.408769
0.449727,0.505227,0.746798,0.308417,-0.540810,0.782562
0.682015,-0.255741,-0.219248,-0.154414,0.937691,0.311276
0.376654,-0.192458,-0.928928,-0.179010,0.888840,-0.421805
-0.125352,-0.582547,0.558901,-0.062644,0.833427,0.549067
0.298531,-0.049327,-0.098637,-0.477151,0.870115,-0.123396
-0.684835,0.068683,0.525243,0.162005,-0.956141,0.244024
0.065794,-0.260366,0.327763,-0.061916,0.367675,0.927891
0.256795,-0.041611,0.218686,-0.476079,-0.724675,0.498192
0.465170,0.419907,0.687498,0.752926,-0.238013,0.613557
-0.703844,0.526415,0.567005,0.767545,-0.236772,0.595662
0.005793,-0.294607,-0.974357,-0.181962,0.007714,0.983275
0.683497,0.615520,0.108456,0.035756,-0.785604,0.617696
0.072181,0.237208,0.683298,0.459385,-0.481122,0.746651
-0.605524,0.218126,0.623407,-0.044664,-0.926841,0.372787
0.204662,0.056616,0.866197,0.396671,0.893275,-0.211453
0.100994,-0.050869,0.059419,0.885616,0.405858,0.225753
0.312641,0.173505,0.878678,0.721939,-0.689005,0.063844
0.047678,0.778992,0.669782,0.478253,-0.843152,0.245700
0.230656,-0.681331,-0.956582,-0.239581,0.117586,0.963729
-0.027775,-0.279594,0.365650,0.934790,-0.165343,0.314371
0.239717,-0.116961,-0.693118,0.929335,0.348823,0.121071
0.089857,0.159613,-0.989560,-0.228562,0.108583,0.967455
0.333581,-0.037817,0.817485,-0.217528,-0.490786,0.843689
0.161739,-0.742935,-0.959954,-0.179541,0.040717,0.982907
0.503342,-0.606827,0.292035,-0.497891,0.600556,0.625649
0.410961,-0.140960,-0.431664,0.404075,0.908532,-0.106265
0.064607,-0.255176,0.847771,-0.368281,-0.929198,-0.030982
0.265557,-0.046938,0.170004,0.872369,0.488726,0.010926
-0.252190,-0.480672,0.611251,0.845718,0.378015,-0.376652
0.231993,-0.040763,-0.310372,0.007932,-0.992654,0.120726
0.563344,0.137440,0.199136,0.850296,-0.521055,0.074154
0.587702,0.079492,0.789654,0.995261,-0.053497,-0.081197
0.238525,-0.030665,0.247907,0.790013,-0.312500,-0.527468
0.396556,-0.010881,-0.966342,-0.303614,-0.064928,0.950580
0.583546,0.432677,-0.976724,0.014793,0.048678,0.998705
0.341005,-0.158919,-0.883825,0.089392,-0.979206,0.182113
0.112430,0.439553,0.227530,-0.472495,0.082999,-0.877416
0.567950,0.227110,0.830114,0.959491,-0.263057,0.100883
-0.752265,0.040900,0.662240,0.885277,0.419111,0.201571
0.059707,-0.154988,0.734790,0.901101,-0.339330,-0.269947
0.017527,0.708412,0.547159,0.289535,-0.525050,0.800307
0.272392,0.300919,0.875159,-0.397365,-0.917193,0.029286
-0.705480,0.100681,0.532637,0.861459,-0.488682,-0.138122
0.162931,0.181787,0.645056,-0.253844,-0.966056,0.047941
-0.701469,0.158072,0.550620,-0.118493,-0.977327,0.175473
0.395663,-0.023223,0.463015,-0.538430,-0.251042,0.804408
0.150897,-0.585639,-0.963651,0.176974,-0.225113,-0.958125
0.365513,0.010727,-0.044157,-0.494477,-0.813965,-0.304884
0.258577,0.640778,0.791044,0.454478,0.841726,-0.291457
0.043666,-0.048060,-0.983319,-0.205520,0.036831,-0.977960
0.357640,0.080048,-0.967170,-0.189452,0.215348,0.957984
-0.072774,0.547604,0.567330,0.761842,-0.334662,0.554616
0.196200,0.208166,0.995416,0.630238,-0.758538,-0.165589
-0.360908,-0.317200,0.739996,-0.107323,0.993725,0.031518
0.319027,0.128601,0.801810,-0.863020,0.458522,0.212026
0.479578,-0.201014,0.512969,-0.386952,0.702202,0.597646
-0.303132,0.178413,0.647629,0.818273,0.549420,-0.169021
-0.660926,-0.222485,0.701576,0.934619,-0.353991,0.034310
0.280260,0.214760,0.899027,0.810548,-0.289143,0.509320
-0.087333,-0.469590,0.586496,0.843733,0.515540,0.149445
-0.005199,0.202830,0.813286,0.794105,-0.040576,0.606425
0.609830,-0.480672,0.457573,0.223001,0.959128,0.174193
-0.223971,-0.464253,0.534057,0.846997,-0.528097,0.060903
0.168126,0.801859,0.361184,-0.234144,-0.775900,0.585795
0.280559,0.144454,0.342492,0.499656,0.864596,-0.053081
-0.111242,0.905705,0.651179,0.796485,0.590953,-0.128007
0.178822,-0.056059,-0.077430,0.969208,0.242888,-0.040507
-0.064906,0.717250,0.611251,-0.182349,-0.788864,0.586892
-0.035644,-0.371645,0.567922,0.982140,-0.015763,-0.187488
0.823852,0.674873,0.172045,-0.322130,-0.811911,0.486859
0.309967,0.033183,0.799355,-0.302244,-0.528562,0.793266
0.073074,-0.080896,0.197036,-0.311788,-0.914016,0.259544
-0.615773,-0.288852,0.710390,-0.329414,0.714810,0.616874
-0.001337,0.744469,0.680755,0.419229,-0.907267,0.033363
0.559483,-0.250688,-0.956641,-0.063221,0.058602,0.996278
0.231694,-0.099559,0.814735,0.209860,0.977226,0.031431
0.753453,-0.369256,-0.946438,-0.061433,0.159440,0.985294
0.748254,0.095910,0.485877,0.425477,0.643210,-0.636593
0.032376,0.525430,0.319659,-0.012298,-0.725721,0.687879
-0.088521,0.060830,-0.990062,-0.055289,0.164435,0.984837
-0.084360,0.286600,0.745526,0.633463,0.684083,0.361600
-0.160552,-0.427495,0.474875,-0.713445,0.699041,-0.048348
0.192039,0.093521,0.788530,0.911011,-0.122520,0.393760
0.586071,0.350448,0.275295,-0.665915,-0.718657,0.200223
0.656914,-0.042733,-0.964006,-0.100610,-0.096031,-0.990281
0.039655,0.630106,0.384727,0.372618,0.916574,-0.145082
0.078123,-0.092690,0.166839,0.812487,-0.571358,0.115824
0.666419,-0.118083,-0.957410,0.068477,0.043531,0.996703
0.107829,-0.017613,0.890805,-0.416994,0.871895,-0.256740
0.523540,0.144736,0.494602,-0.142438,0.834917,-0.531625
-0.154609,0.584928,0.271391,-0.243598,-0.797557,0.551872
-0.208375,0.725952,0.567064,-0.542726,-0.821365,0.175523
0.592158,0.077102,0.852208,0.849565,0.522418,0.072926
0.618745,-0.403497,0.447428,0.847240,0.156797,-0.507543
0.175255,-0.038665,-0.297802,0.907117,-0.414168,0.074857
0.042030,-0.133799,0.859898,-0.699363,0.289233,-0.653633
0.116291,0.260786,0.856556,0.245973,-0.363583,0.898502
0.405612,-0.071775,0.752684,-0.793685,0.584518,-0.168534
0.477797,0.037817,0.170802,-0.669639,0.686831,0.282572
-0.061189,-0.062097,0.566916,-0.677137,-0.734507,-0.044546
0.259470,-0.098719,-0.588595,0.946260,-0.275045,-0.170122
0.396556,0.100535,-0.132087,0.790900,-0.564312,0.236706
-0.043811,-0.177162,0.537606,0.965162,-0.040260,0.258539
0.669687,0.469161,0.712224,0.812641,-0.511906,-0.278508
-0.211049,0.749239,0.571678,0.470636,0.851529,0.231086
0.012922,-0.132677,-0.207891,0.894497,-0.015548,0.446803
0.224270,0.066302,0.370235,0.831708,0.554243,0.032826
0.740979,0.263313,0.690042,-0.384619,-0.579420,-0.718569
0.036092,-0.095208,0.644199,0.875932,0.453277,-0.165175
0.130551,-0.099139,0.770075,-0.377091,0.829820,0.411341
-0.128026,-0.100406,0.245186,-0.364114,-0.924535,-0.112498
-0.188028,0.481511,0.258170,-0.298190,-0.656893,0.692514
-0.083915,0.383002,0.791725,0.929153,0.340061,0.145026
-0.362245,0.494983,0.625773,-0.568071,0.173097,-0.804570
0.335662,-0.070516,-0.839224,0.985058,-0.007168,0.172074
-0.388234,-0.324780,0.691402,0.532937,0.831769,0.155366
0.603000,0.127762,-0.962557,0.152860,-0.031501,0.987746
0.232139,0.014376,0.314069,0.675174,-0.691078,0.257974
-0.246103,-0.349335,0.583094,0.722132,0.685815,0.090465
0.759096,0.744751,0.174825,0.485133,0.734789,-0.474059
0.147484,0.228369,0.936115,0.863828,-0.482646,-0.144411
-0.157583,-0.162987,0.781284,0.541851,-0.833836,-0.105426
-0.588890,0.035145,0.562007,0.874356,0.429595,-0.225722
-0.440073,0.831193,0.561326,0.106454,-0.676316,0.728879
0.532007,-0.344984,-0.955192,-0.218961,0.144371,0.964994
0.253971,-0.047366,-0.028925,0.586499,0.730319,0.350218
0.147928,0.602751,0.333028,-0.651617,0.491796,0.577522
-0.374274,-0.522347,0.588477,0.699396,-0.707625,0.100559
0.427745,-0.233988,0.575848,0.904355,0.314401,0.288606
-0.072480,-0.293905,0.683978,0.869269,-0.482402,0.107977
0.090002,-0.428051,0.659046,0.209745,-0.975881,0.060532
0.544929,-0.012003,-0.959451,0.055924,0.216875,0.974596
0.721820,0.461582,0.700985,-0.663453,-0.507897,0.549428
-0.666419,0.098154,0.561770,0.694858,0.606177,0.386940
0.732512,-0.185015,-0.958771,-0.088522,0.147924,0.985029
-0.079311,0.316353,0.828015,0.499783,0.864681,0.050431
-0.072031,-0.105177,0.746680,0.664180,0.530295,-0.526927
-0.090002,0.275654,0.796368,0.915833,0.398307,-0.050999
-0.379179,0.254466,0.637307,0.670728,0.740744,-0.037712
0.585622,0.029955,0.726568,0.752325,0.642874,-0.143947
0.331501,0.373881,0.821685,-0.158262,-0.677175,0.718601
0.086589,0.627862,0.463015,0.059091,-0.138684,0.988572
-0.025246,-0.479130,0.611990,0.891799,0.211501,0.399953
0.114809,0.065035,0.833811,0.934747,0.070016,-0.348348
-0.142285,0.626184,0.619591,-0.488912,0.744312,-0.454934
-0.158920,0.793021,0.624619,0.926406,0.309380,-0.214607
-0.100400,-0.730302,0.556121,0.424692,-0.782304,0.455672
-0.411260,-0.467765,0.742480,-0.359567,0.904675,-0.228638
0.438736,0.187679,-0.974269,-0.165369,0.460130,0.872315
0.764444,-0.017056,0.677649,0.560365,-0.791854,-0.242814
0.250260,-0.023223,-0.588300,-0.375118,0.926277,0.036015
0.672955,0.391138,-0.973943,-0.154881,0.231238,0.960490
-0.032525,-0.081881,-0.984265,-0.269456,0.164724,0.948820
0.170206,0.202127,0.718583,-0.127212,-0.989296,-0.071486
0.117927,0.471825,0.228180,-0.370064,0.131734,-0.919619
0.173179,0.213921,0.765609,-0.546511,0.814787,0.193512
0.304468,-0.114435,0.218183,0.452612,0.395320,-0.799290
0.144810,-0.589981,-0.965455,-0.212602,0.195995,0.957281
-0.260208,0.097734,-0.106681,0.848873,0.421903,0.318454
0.149116,-0.072897,0.816835,-0.046792,-0.977935,0.203601
-0.585327,-0.232729,0.544793,0.673351,0.177936,-0.717591
0.443935,-0.016071,-0.967999,-0.135056,0.358723,0.923622
-0.481804,-0.253917,0.599154,0.681980,0.659994,-0.315138
0.703994,0.321543,0.659933,0.105595,0.188632,-0.976354
-0.530520,-0.101665,0.622785,0.971709,0.230111,0.053194
0.226495,0.047495,0.329094,0.978759,-0.162878,0.124506
0.099512,-0.486710,-0.962231,-0.176832,0.210348,0.961501
-0.323927,-0.346243,0.631688,0.806014,-0.552208,-0.213091
0.113323,0.277478,0.502647,0.783954,0.454351,-0.423062
0.200206,-0.116824,-0.367661,0.156431,0.977606,0.140770
0.560670,0.354097,0.657537,-0.076316,-0.079057,0.993945
0.293627,0.201845,0.913460,0.677138,0.662884,-0.319482
0.217734,-0.171963,0.121972,0.878504,-0.447366,-0.167615
0.255159,-0.009759,0.289403,-0.463423,0.763603,-0.449611
0.396556,0.421174,0.662033,-0.367229,0.773930,-0.515921
-0.724938,-0.321834,0.688208,-0.387921,0.834702,-0.390884
-0.154165,-0.038802,0.265919,-0.053591,-0.993760,0.097826
0.326896,0.130562,0.707787,-0.698249,0.575248,0.426074
0.244023,0.156950,-0.980007,0.334011,-0.283509,-0.898921
-0.070844,-0.153447,0.893407,0.267728,-0.354977,0.895719
-0.065500,0.019009,0.786963,-0.692981,-0.323184,0.644460
0.062082,0.238895,0.817840,0.001853,0.924914,0.380173
-0.743948,-0.066585,0.693916,0.570906,0.522895,0.632968
0.087777,-0.056761,0.874065,-0.599165,0.615823,0.511627
-0.282636,0.148531,0.654994,0.874229,0.373277,-0.310464
-0.003562,0.353540,0.250421,0.538477,-0.669923,0.511123
0.232587,-0.016208,0.216675,-0.130090,-0.950946,0.280673
-0.281004,0.123411,-0.061607,0.818697,-0.048042,0.572213
-0.686171,0.386933,0.465588,0.999134,0.041370,-0.004402
0.352890,-0.512386,-0.957795,-0.188078,0.178319,0.965831
-0.114216,0.319436,0.721895,-0.551820,0.360282,-0.752125
-0.455515,-0.554207,0.604389,0.282029,0.496959,-0.820665
0.145848,0.133235,0.396528,0.878748,0.442710,-0.178354
0.498588,0.384407,0.810831,0.470183,0.880061,0.066484
0.226944,0.206898,0.988022,0.440082,-0.857410,-0.266788
-0.307736,-0.240308,0.821774,0.650066,-0.726489,0.222773
-0.127283,-0.166216,0.803762,-0.739682,0.665955,0.096822
0.427300,0.352838,0.680311,0.302564,-0.798696,0.520135
0.017378,-0.125381,0.477596,-0.670087,-0.561016,-0.486050
0.463982,0.490915,0.692141,0.380424,0.118110,-0.917239
0.234518,-0.108679,-0.632901,0.959292,-0.273482,0.070479
0.447498,-0.102505,-0.948567,0.553247,0.400581,0.730379
0.517453,0.058723,0.073467,-0.628928,0.777462,-0.001613
-0.550128,-0.678247,0.656325,0.957367,-0.284926,0.047592
0.582354,0.539742,0.684156,-0.182756,0.976810,0.111548
0.306998,-0.056624,0.021916,0.271031,-0.962570,0.001249
0.479135,0.280005,-0.978764,-0.158359,0.384134,0.909595
-0.308924,-0.593630,0.594895,0.531861,0.835614,-0.137381
0.427002,0.297691,-0.063648,0.590168,0.645609,-0.484655
0.027476,-0.047220,-0.187897,0.849600,-0.313337,0.424264
0.674587,-0.212662,-0.953802,-0.149164,0.234105,0.960700
0.845835,0.670103,0.240632,-0.435962,-0.899652,-0.023745
0.028664,0.744751,0.684067,-0.516960,0.854654,-0.048149
0.300163,0.270464,0.951525,0.655150,0.561118,-0.505891
0.454922,0.184450,-0.083996,0.521618,0.692715,-0.498057
-0.032970,-0.029963,0.768448,-0.344325,0.938724,-0.015423
-0.618002,0.170558,0.022803,-0.688107,-0.620721,-0.375786
0.849103,0.278326,0.682589,-0.461715,-0.738254,0.491733
0.523839,0.048197,0.682056,0.788125,0.609226,0.087760
-0.030744,-0.174918,0.629115,0.955660,0.088547,-0.280845
-0.003562,-0.107275,0.884919,-0.165911,0.436209,0.884418
0.158621,-0.117527,-0.258555,0.417078,-0.901888,0.112445
-0.033119,-0.242689,0.756233,-0.603781,-0.401962,-0.688385
-0.018266,0.778992,0.703528,0.943512,-0.310718,-0.115066
-0.177485,-0.265702,0.743220,0.630379,0.102486,0.769492
0.297045,-0.041328,-0.723049,-0.366825,0.918430,-0.148073
0.703105,-0.446576,-0.949247,-0.093682,0.034452,0.995006
-0.204512,0.203815,0.703410,0.495281,0.668893,-0.554327
0.439329,-0.310469,-0.953092,-0.043331,-0.020941,0.998841
0.065794,-0.254336,-0.966963,0.289550,-0.127007,-0.948699
-0.040548,0.564159,0.471001,0.215223,-0.756780,0.617222
0.367444,-0.385117,0.470527,-0.127324,0.974548,-0.184515
0.846279,0.681605,0.231670,0.469999,0.875198,0.114586
0.712016,-0.043289,0.474224,0.372408,0.781145,-0.501123
-0.068468,-0.037260,-0.152347,0.875293,0.362690,0.319871
-0.177929,-0.608224,0.691254,0.619887,0.462322,0.634033
-0.868706,0.123548,0.690574,0.111473,-0.993606,-0.017896
-0.010842,-0.290402,0.364053,0.897410,0.236022,0.372758
-0.462795,-0.407008,0.590695,0.650747,0.689214,-0.318610
-0.560970,0.192587,-0.007069,0.563824,-0.657699,0.499535
0.033269,-0.097032,0.199610,-0.100268,0.982808,0.155032
0.682758,-0.112611,0.728491,-0.331480,0.503211,0.798060
0.099213,-0.099002,-0.232498,0.883484,-0.032757,0.467314
0.330907,-0.146706,-0.692792,0.893213,-0.448937,0.025006
-0.205850,0.577631,0.558250,-0.450968,0.079610,0.888983
0.003417,0.097032,0.744906,0.174604,0.200246,0.964062
-0.416454,0.045534,0.447133,-0.057641,0.992653,-0.106388
0.702511,-0.037543,-0.959510,-0.026573,0.047815,0.998503
0.147928,0.592079,0.429268,-0.590372,0.797419,-0.124834
0.174961,-0.301904,-0.963119,0.335896,-0.161024,-0.928033
0.365812,0.165643,0.638017,0.576455,0.621164,0.530900
0.259764,0.061524,0.385023,0.072310,-0.820043,0.567716
-0.016190,-0.198907,0.738162,0.078419,-0.956355,0.281489
0.365957,0.250397,-0.980864,-0.249448,0.086584,0.964510
0.342198,-0.216867,-0.933661,-0.088216,-0.969556,0.228429
0.346354,-0.112328,-0.690870,0.911511,-0.406787,0.060598
-0.870487,0.123830,0.688681,-0.368328,0.922169,0.118061
0.046042,0.507471,0.288131,-0.014452,-0.969709,0.243837
0.363881,0.019574,0.888380,0.217340,0.958962,-0.182083
0.093420,-0.081744,-0.387537,-0.282360,0.955172,-0.088990
0.303580,-0.064058,-0.091568,0.973024,-0.227333,-0.039299
0.913560,0.214615,0.664843,0.601063,0.696186,-0.392491
0.182090,0.763131,0.347343,0.176940,-0.835986,0.519441
0.469181,-0.211540,-0.955606,0.096101,-0.332986,0.938022
0.220703,0.000065,0.194315,0.329439,0.575198,-0.748744
-0.075598,0.488809,0.464582,-0.176304,0.635662,-0.751566
0.006831,0.472244,0.274822,-0.505379,0.804875,-0.311077
-0.171543,-0.457239,0.707847,0.535453,-0.505259,0.676759
0.158027,0.175192,0.606282,0.799436,0.534542,0.274167
0.422246,0.248856,0.499541,-0.540853,0.692915,-0.476808
0.683946,-0.232446,-0.266629,0.481303,0.871972,0.089512
-0.744392,-0.189649,0.719263,-0.000428,-0.999950,0.010000
-0.052428,0.467757,0.609890,0.439630,0.803982,0.400422
0.095501,-0.119625,0.313626,0.826969,0.554800,0.091209
-0.356158,-0.308919,0.771051,0.769766,-0.532008,0.352744
0.531263,0.617345,0.165893,-0.381213,0.880722,-0.281080
0.407992,0.626184,0.758895,0.168228,-0.888651,0.426613
0.153127,0.000347,0.774423,0.781455,0.509248,-0.360548
0.182534,-0.014247,0.759280,0.167975,0.978136,-0.122618
0.126988,-0.097880,0.729230,-0.476607,0.788071,0.389603
0.508093,-0.563885,-0.951495,-0.143287,-0.001760,0.989680
0.124015,-0.160041,-0.978616,-0.290478,0.308622,0.905746
-0.203774,0.740966,0.547987,0.642656,0.603205,0.472374
-0.140205,0.440539,0.588477,-0.485164,0.469979,-0.737384
0.082578,-0.103070,0.611517,-0.354318,-0.800061,-0.484108
-0.177485,-0.341900,0.783768,0.726000,-0.495160,0.477222
0.390020,0.190626,0.806661,0.243549,-0.207897,0.947345
0.318877,-0.066028,-0.804768,0.961693,-0.244299,0.124354
-0.376060,0.057181,0.616900,0.973080,0.096592,-0.209247
-0.201693,-0.450088,0.649641,-0.116582,0.984070,-0.134223
0.012922,0.759208,0.720357,-0.436916,0.598288,0.671681
0.777661,-0.293768,-0.944959,-0.036734,0.223757,0.973952
-0.684984,0.150629,0.528556,0.996187,-0.064621,-0.058609
0.699243,0.113304,-0.967023,-0.033109,-0.061784,-0.997540
0.339523,-0.189229,-0.870604,0.537800,-0.826031,0.168652
-0.276548,0.103481,0.624205,0.842634,0.243564,-0.480255
0.484478,-0.124541,0.290645,0.424458,0.864168,-0.270275
-0.229763,-0.587318,0.630889,0.443117,0.884767,-0.144339
-0.386453,0.170276,-0.060335,0.651047,0.499142,0.571835
0.105155,-0.029260,0.834196,0.229757,0.839338,-0.492670
-0.253378,0.105168,0.337553,0.447010,-0.795747,0.408618
0.248034,-0.391292,-0.956316,0.819894,-0.045566,-0.570699
0.445272,-0.061258,0.064269,-0.535950,0.843323,0.039548
0.266894,-0.049884,0.321404,0.155243,0.144185,0.977298
0.193226,0.022238,-0.980746,-0.139224,0.262951,0.954711
0.155058,0.205639,0.563515,0.150547,-0.988507,0.013769
-0.105155,0.029115,-0.156369,0.875293,0.362690,0.319871
0.394176,-0.453454,-0.953743,-0.218038,0.219746,0.950879
0.211792,0.267518,0.663275,0.985397,-0.159793,-0.058809
0.812117,0.427203,0.709917,0.615652,0.729684,-0.297546
0.275062,-0.049045,-0.159534,0.009609,0.971641,0.236264
0.382147,0.154842,-0.105705,0.958546,-0.279952,-0.053068
0.342936,-0.077393,0.215669,0.247194,0.777997,0.577595
0.035499,0.874546,0.367011,0.036862,-0.578548,0.814815
0.188920,-0.137448,0.209725,-0.022243,0.055622,0.998204
0.056883,-0.072477,-0.984206,0.021272,0.134381,0.990701
0.281153,-0.242123,-0.962645,-0.180292,0.318977,0.930456
0.239567,-0.700138,-0.953477,-0.231569,0.067868,0.970448
0.275655,0.023077,-0.437432,0.981291,0.152974,0.116902
0.468737,0.079064,-0.968383,-0.203159,0.349496,0.914647
0.130850,-0.018178,0.138831,0.982544,0.087590,0.164121
0.399081,-0.029398,0.444027,0.501512,0.500455,0.705712
-0.089559,-0.301202,0.651652,-0.516679,0.044297,-0.855032
-0.038169,0.701672,0.615953,-0.121805,-0.906060,0.405239
0.048272,0.772398,0.721511,-0.629099,0.490220,0.603257
-0.022577,-0.516318,0.527018,0.738704,0.622693,-0.258012
-0.017971,-0.366875,0.364497,0.863350,0.485829,0.136368
0.201394,0.264717,0.949513,-0.634277,0.730802,-0.252232
0.081835,0.374729,0.242199,-0.558275,0.532257,-0.636421
-0.050497,-0.115275,0.933868,-0.553538,0.774700,-0.305673
0.013666,0.022238,-0.991600,-0.160478,0.169371,0.972399
0.070699,0.373881,0.233179,-0.587519,0.458929,-0.666487
0.115403,-0.065463,-0.245601,-0.576932,0.702506,-0.416696
-0.736668,0.268923,0.523705,0.732583,0.640088,-0.231536
0.083766,0.463269,0.784005,0.398198,-0.547653,0.735877
-0.266300,0.862205,0.579575,0.376114,-0.055173,-0.924929
0.055845,0.815331,0.498595,0.940680,-0.235405,0.244348
-0.186246,0.866128,0.571293,-0.428744,0.511809,-0.744466
0.650972,-0.017750,-0.964597,0.072203,0.059008,0.995643
0.675923,-0.210135,-0.955458,-0.149164,0.234105,0.960700
-0.125352,0.436470,0.588862,-0.578778,0.513605,-0.633423
0.303430,0.049456,0.426903,0.949773,-0.311945,-0.024911
-0.552652,-0.302606,0.678507,0.827450,0.053826,-0.558954
0.217435,-0.053396,-0.277425,0.898296,-0.439229,-0.011956
0.283084,-0.081462,0.193901,0.449777,0.845291,0.288417
-0.058814,-0.283105,0.382154,0.922438,0.313367,0.225630
-0.053914,-0.099841,0.969389,0.606755,-0.770717,0.194536
0.406210,-0.484320,-0.958416,0.220128,-0.178451,-0.959009
-0.022871,-0.057327,0.751885,0.722272,-0.562356,-0.402591
0.060151,-0.104894,0.185117,-0.140024,-0.972366,0.186809
0.311304,0.123128,-0.974831,-0.020643,0.378624,0.925320
-0.097282,-0.051854,-0.164266,0.910036,0.183004,0.371947
0.154315,-0.514776,-0.962823,-0.348559,-0.161743,0.923226
0.543148,0.317757,0.658721,-0.085150,-0.035544,0.995734
-0.075748,-0.150080,0.883499,0.758633,0.377585,0.530948
-0.143174,-0.402794,0.509597,-0.091087,0.764848,0.637739
-0.613397,0.031077,0.495105,0.935593,-0.204008,0.288178
-0.203325,-0.528522,0.705214,0.590614,-0.119107,0.798115
-0.424477,-0.452469,0.711366,-0.344290,0.622222,-0.703068
0.488789,0.065035,0.523942,0.672623,0.739915,-0.010238
0.203624,0.472673,0.731981,0.899278,0.429388,0.083216
-0.272093,-0.329970,0.587886,0.519028,0.843572,0.137827
-0.316648,0.860801,0.560824,-0.059052,-0.837716,0.542904
0.193226,0.285478,0.804472,0.317005,0.348326,0.882143
0.580722,0.643578,0.156902,-0.283146,0.923631,-0.258329
0.545967,-0.435914,-0.949188,-0.068367,0.090465,0.993550
-0.239417,0.474069,0.454793,-0.472257,-0.862427,0.182193
0.427151,0.026589,0.162639,-0.526691,0.849902,-0.016195
0.317984,0.072469,0.419745,0.952287,0.246399,-0.180102
0.484927,0.210547,-0.973500,-0.189229,0.154720,0.969667
-0.069212,0.655791,0.645234,0.344877,-0.906972,0.241789
0.149709,0.410503,0.738251,-0.375932,0.894787,-0.240899
0.220408,0.039641,0.311615,-0.300035,0.874962,0.380027
0.001931,0.117656,0.689835,-0.026996,0.032533,0.999106
0.134118,0.354097,0.724350,0.830597,0.022421,0.556422
0.432349,-0.331512,-0.957529,-0.121115,-0.083734,0.989100
-0.131738,0.386514,0.754252,-0.492488,0.831228,-0.257905
0.617109,0.137302,0.659105,-0.169133,-0.975544,-0.140382
0.206149,0.102925,0.402768,-0.695298,-0.718466,-0.019161
0.613248,0.172802,-0.963947,0.193660,-0.023456,0.980788
0.650084,0.400123,0.713170,0.948706,-0.309667,0.063745
0.563050,0.370652,0.397090,-0.309119,0.722580,-0.618323
-0.046042,0.747141,0.561267,-0.080798,-0.695547,0.713923
0.512254,0.323230,0.824465,0.514092,0.606905,0.606115
0.431307,0.229354,-0.076159,-0.763663,-0.578438,0.286756
-0.018266,0.591806,0.457188,-0.678761,0.117118,-0.724960
0.033568,-0.131975,0.639881,-0.562477,-0.810450,-0.163678
0.167532,0.147126,0.208985,0.860584,0.445445,-0.246929
-0.708449,-0.331229,0.678921,-0.411180,0.866371,-0.283430
0.604337,-0.026734,-0.961699,0.106023,0.291868,0.950564
0.206298,0.179397,0.536719,0.791891,-0.590930,0.153983
0.377397,0.574685,0.745852,-0.341316,0.367517,-0.865121
0.693746,0.326314,0.682115,-0.069277,0.921884,-0.381223
0.121640,-0.055922,0.268404,0.092249,0.815323,0.571611
0.322740,-0.063082,-0.195025,0.799515,-0.584953,-0.136401
0.304618,-0.046801,-0.562006,0.935460,-0.166712,0.311645
-0.051240,-0.532316,0.668540,0.807460,-0.491429,-0.326353
0.507205,-0.004560,0.794091,0.048831,0.832021,0.552591
0.335362,-0.003438,-0.116648,-0.378827,0.925032,0.028403
0.233924,-0.080194,-0.045547,0.009297,0.993830,0.110524
0.658695,-0.159622,0.420899,0.943983,-0.326950,0.044725
0.171842,-0.580303,-0.961610,-0.145656,0.256723,0.955446
0.204812,-0.085110,-0.424004,0.863696,-0.395926,0.311884
0.187139,-0.053533,-0.084795,0.946152,-0.214432,0.242519
-0.208080,-0.390590,0.508237,-0.456333,0.187787,0.869768
-0.408585,-0.068127,0.703322,-0.641578,0.427367,-0.636973
0.262144,0.034588,0.388217,0.975235,0.165335,-0.146907
0.237636,-0.172811,0.798320,0.289275,0.607431,-0.739830
0.031782,-0.035436,0.596877,0.263074,0.956387,-0.126945
-0.062975,0.131967,0.882523,0.925903,0.308479,-0.218047
0.326302,-0.082447,0.162521,-0.181664,-0.982787,0.033575
0.256351,0.015361,-0.147437,-0.400167,-0.897482,-0.185455
0.092976,-0.291379,-0.965071,-0.105679,0.087315,0.990559
0.605230,0.155399,0.796664,-0.279687,-0.934472,0.220313
0.236893,-0.086087,0.801396,0.987644,0.006744,-0.156571
-0.023615,-0.722029,0.511401,0.042646,0.867912,0.494883
-0.070699,-0.336428,0.461122,0.590985,-0.786697,0.178454
0.192783,0.192304,0.743841,-0.393363,-0.887499,-0.240023
0.630476,0.106008,0.801396,0.932231,0.038401,0.359820
0.555621,0.084965,0.840673,0.791252,0.606719,-0.076239
-0.268975,0.069951,0.734938,0.189506,0.905737,-0.379114
-0.245061,0.616360,0.283990,-0.135715,-0.854396,0.501586
0.036092,-0.053259,0.768744,0.878662,-0.042833,0.475519
0.064906,-0.530912,-0.965248,-0.118824,0.036656,0.992238
0.116590,-0.568655,-0.962911,-0.061686,0.186810,0.980458
0.329420,0.110924,0.913578,0.281496,0.760808,-0.584750
-0.316797,0.571876,0.601372,0.261259,0.927171,0.268508
-0.388234,-0.429601,0.628878,0.988862,-0.141196,-0.047063
-0.217435,-0.160881,0.820680,-0.601290,0.712044,-0.362551
0.124609,-0.305416,0.835764,0.795721,0.369751,-0.479701
-0.196495,0.766085,0.543226,0.705171,-0.508282,0.494350
0.028220,-0.241987,0.318979,0.993770,-0.098135,-0.052831
-0.084509,0.185007,0.858389,0.975285,0.180199,0.127855
-0.557552,-0.208868,0.693857,0.344423,-0.823006,0.451702
0.514185,0.227247,-0.975541,-0.201580,0.187465,0.961365
-0.540619,-0.575815,0.633492,0.927843,-0.363381,-0.084039
0.123571,0.430013,0.232557,0.642379,-0.048325,0.764862
-0.345610,-0.298821,0.597380,-0.265629,-0.898361,-0.349840
0.463094,-0.209998,-0.952057,0.135304,-0.313348,0.939950
0.656021,0.174344,0.595368,0.443462,0.665457,-0.600423
0.314717,-0.511127,-0.960398,-0.343819,0.034113,0.938416
-0.021983,-0.132960,0.215581,0.270081,0.920574,0.282135
0.363582,-0.309338,0.232498,0.964736,0.263179,0.004518
0.124907,0.184450,0.504925,0.609388,0.728872,0.312077
-0.263925,0.090574,0.649700,-0.766016,-0.639852,0.061717
0.253378,0.116816,0.395729,0.745555,0.565874,0.352044
0.217883,0.050158,0.220461,0.989995,0.138554,0.026682
0.270756,0.029818,-0.460028,0.786541,-0.615925,0.044607
0.422546,0.096047,-0.968324,-0.008676,0.281017,0.959664
-0.616665,0.061104,0.498684,0.809508,-0.503781,0.301499
0.587108,0.183885,0.824761,0.996889,-0.071571,0.033009
-0.098175,0.942044,0.586555,0.358148,0.592120,-0.721889
-0.041736,-0.476466,0.607702,0.883704,-0.098298,0.457609
-0.417497,-0.699993,0.590695,0.696873,0.429495,0.574371
0.128026,-0.074584,0.061164,0.766557,0.636206,0.087365
0.266599,0.058158,0.264234,0.923181,-0.372957,-0.092952
0.307293,-0.047220,-0.437313,0.822074,0.562481,0.088371
0.384377,0.377110,0.509006,0.917115,-0.287795,0.275816
0.219071,-0.073180,-0.274260,0.943412,-0.283070,0.172759
0.641023,0.414999,0.659785,0.726699,0.630496,0.272735
-0.517747,-0.447416,0.650824,-0.254475,-0.268031,0.929194
0.448241,0.139829,0.407767,0.234610,-0.837989,-0.492679
-0.102481,-0.083568,0.899648,0.881801,0.465014,-0.078671
0.151047,-0.021964,0.044926,0.844332,-0.474031,0.249798
-0.005643,-0.303729,-0.968945,-0.321846,0.064010,0.944626
0.351108,-0.101108,-0.197894,-0.585518,0.809850,-0.036222
-0.577155,-0.238758,0.659253,0.832837,-0.543967,0.102380
0.257834,-0.065600,-0.553429,0.855368,-0.226154,0.466048
-0.747660,0.625764,0.585520,0.672694,0.404142,-0.619800
0.444674,-0.068829,0.076750,-0.645539,0.763562,0.015880
0.036686,0.402786,0.419331,0.905003,0.425372,-0.005320
0.538692,0.072897,0.440833,-0.405813,-0.122608,0.905695
0.343236,-0.236514,-0.964065,-0.336020,0.275015,0.900809
0.743948,-0.306118,-0.948390,0.170430,-0.226151,-0.959067
0.021389,0.448392,0.442578,0.933518,-0.031144,0.357175
-0.135600,-0.033611,0.769010,0.662883,0.747064,0.049814
-0.039356,-0.323093,0.696844,-0.622232,0.779202,0.075308
-0.647110,-0.285768,0.721954,0.335599,0.681187,0.650659
-0.257389,-0.457239,0.553903,0.833265,-0.116593,0.540441
0.507499,0.085521,0.646387,0.982074,-0.123763,0.142172
-0.307293,-0.658883,0.550590,0.886474,0.052054,0.459842
0.496508,0.252641,0.307622,0.660992,-0.713839,0.231351
0.539431,-0.221920,-0.954187,0.118925,-0.153338,0.980992
0.169762,-0.035719,0.763479,-0.454193,-0.874229,-0.171556
0.518491,0.104749,0.775221,-0.201414,0.890416,-0.408155
-0.569731,-0.014667,0.571855,0.950415,0.310438,-0.018398
-0.006980,0.654807,0.621662,0.342266,0.822580,-0.454111
-0.075893,-0.501158,0.622726,0.367063,0.511964,0.776632
0.302094,-0.084545,-0.332850,0.615571,0.758882,-0.212533
-0.142729,-0.421456,0.623821,0.043880,-0.929727,0.365625
0.724789,0.429028,0.734702,0.617724,-0.441754,-0.650593
-0.199318,0.276219,0.696963,0.741403,-0.440110,-0.506581
0.487452,0.105168,0.806483,-0.455276,0.134767,-0.880092
0.749591,0.353394,0.686700,0.728727,0.182809,-0.659953
0.297638,-0.169719,-0.824288,0.875482,-0.458225,0.153494
0.294669,-0.171407,0.217326,0.929321,0.166375,-0.329670
0.243873,0.440393,0.722842,0.848894,0.467428,-0.246760
0.766524,-0.329405,-0.947236,-0.104519,0.232417,0.966984
-0.346649,-0.307095,0.597409,-0.263530,-0.887387,-0.378280
0.806030,0.378514,0.714649,0.063628,0.985700,0.156037
0.005942,-0.105177,0.226021,0.168190,0.982270,-0.082808
0.276698,-0.113031,-0.120198,0.018612,0.999827,0.000219
0.300312,0.105031,0.775369,0.339720,-0.737683,0.583451
0.238081,0.228506,0.767443,-0.691376,0.709056,0.138704
0.569436,0.098154,0.480140,0.142920,-0.923227,0.356687
0.581760,-0.027574,0.705421,-0.573630,-0.794869,-0.197819
0.258876,-0.054381,-0.451510,-0.780892,-0.288920,0.553834
-0.573742,0.097306,0.490403,0.574927,-0.385849,0.721512
-0.004012,-0.029963,-0.190086,0.849600,-0.313337,0.424264
0.582947,0.545497,0.708142,0.904085,0.418078,0.088552
-0.659140,0.146707,0.546893,-0.762374,-0.631567,-0.141098
0.321103,-0.488114,-0.958475,-0.232162,0.025587,0.972341
0.041885,-0.260649,-0.970453,-0.208846,0.073392,0.975191
0.249072,0.062371,0.377570,-0.590463,-0.803330,0.077548
0.265407,0.784465,0.559108,-0.146745,0.143583,-0.978698
0.836181,0.185435,0.523853,-0.622543,0.777147,0.092105
0.282191,-0.031222,0.423560,-0.747253,0.530952,-0.399629
-0.328232,-0.602897,0.513915,-0.497875,0.847304,0.184922
0.436211,0.290813,0.264234,0.729336,0.681182,0.063720
0.674292,0.553916,0.090858,-0.530253,0.779029,0.334584
0.294520,-0.085812,-0.971607,-0.593481,0.336260,0.731238
0.480322,0.108680,0.658454,0.907139,-0.420831,0.000067
0.058370,0.361111,0.244861,0.488087,-0.525783,0.696652
-0.119115,-0.324078,0.437313,0.939886,-0.138929,0.311950
0.286647,-0.045114,-0.240750,0.520894,0.841059,-0.145907
0.016190,0.495823,0.568750,0.956172,-0.276602,0.096051
0.025695,-0.122854,0.783059,0.447217,0.771997,-0.451683
-0.118372,0.708412,0.509509,0.316623,-0.523097,0.791277
-0.311598,0.406435,0.805626,0.995536,-0.041750,0.084642
-0.033119,-0.074721,0.638106,-0.748390,-0.661106,0.053406
0.227388,-0.092407,-0.564254,0.986418,-0.142187,0.082229
-0.134113,0.899529,0.667239,0.934803,0.351650,-0.049856
0.285758,-0.005409,-0.973884,-0.227773,0.115954,0.966785
-0.337443,-0.442089,0.634853,0.549917,0.826421,0.120912
0.130850,-0.295027,0.560883,-0.081673,0.360103,0.929331
-0.172137,0.824178,0.537281,0.828880,-0.395363,0.395786
0.496508,0.219531,0.264322,0.815500,-0.350833,0.460300
0.093865,-0.075149,0.310224,-0.720768,-0.573859,-0.388818
0.293627,0.285341,0.964834,0.321281,-0.942292,-0.094151
0.702511,0.096330,0.653012,0.020287,0.898072,0.439379
0.495320,0.224438,0.890953,0.888635,0.023570,0.458009
0.216696,0.077102,0.406347,0.691654,0.722226,0.002123
0.015148,0.911032,0.519210,0.263256,-0.485842,0.833459
0.160552,0.335015,0.521339,0.712227,0.518012,-0.473705
0.121640,-0.060975,-0.979888,-0.295514,0.189650,0.936325
-0.103518,0.327436,0.705007,-0.607121,0.786064,-0.116224
0.348434,0.037388,-0.172163,-0.810760,0.385596,-0.440437
0.083022,-0.123976,0.223921,-0.049409,0.932817,0.356947
-0.441555,-0.320986,0.733933,0.684554,-0.192172,-0.703175
0.311598,-0.030948,-0.604182,0.511016,0.859566,0.002970
0.286796,-0.137165,-0.969093,0.765462,-0.206443,-0.609466
-0.498438,-0.108825,0.566236,0.782964,0.589990,-0.197179
0.199613,-0.504387,-0.960693,-0.151217,-0.024012,0.988209
-0.600326,0.065737,0.576410,0.719913,0.671666,-0.174900
0.228576,0.444042,0.762208,0.370060,0.928811,0.019108
0.569731,0.013819,0.683505,0.646280,0.756734,0.098362
0.328088,0.062508,0.426932,0.147055,0.980897,0.127340
-0.169612,-0.247460,0.797433,-0.218240,0.020280,-0.975684
0.564382,-0.115000,-0.957262,-0.154613,-0.101258,-0.982772
0.273131,0.330527,0.861968,0.253503,0.794878,-0.551276
0.595426,0.057455,0.447635,0.553714,0.178911,-0.813260
-0.012623,0.738302,0.553489,0.077297,-0.415351,0.906371
0.032376,-0.610467,0.452575,0.722802,0.647760,0.240758
-0.269718,0.623238,0.288723,-0.169952,-0.882159,0.439217
0.026438,0.579310,0.455207,0.769544,-0.545936,0.331293
0.140948,0.250397,0.811127,-0.220557,0.942665,0.250476
0.024657,-0.000775,0.693088,-0.182307,-0.848403,0.496968
0.258876,0.036412,0.320576,0.035925,-0.927127,0.373022
0.018566,0.101383,0.787051,-0.420528,0.357348,0.833942
-0.007279,-0.344564,0.688681,0.963796,0.205446,-0.169967
0.332543,-0.075843,-0.222768,0.980117,0.139316,-0.141287
0.597207,0.314666,0.628760,-0.736136,-0.367375,0.568453
0.151346,0.026589,-0.982816,0.354326,-0.261042,-0.897948
0.005793,0.904720,0.524238,-0.368822,0.560024,-0.741851
0.015741,-0.403779,0.668185,-0.384195,0.909866,-0.156647
-0.196195,-0.070799,0.677324,0.429226,-0.620782,0.656045
0.455520,-0.148813,0.284286,0.364414,0.927954,-0.078126
0.562751,0.110076,0.796398,0.517458,-0.559881,-0.647125
0.434575,0.273975,-0.057585,-0.687268,-0.627744,0.365513
0.318284,-0.255596,0.216172,0.944347,0.319753,0.077249
-0.792664,0.332069,0.683624,-0.842355,-0.115644,-0.526369
0.218772,0.184168,0.481707,-0.015951,-0.949769,0.312544
-0.137975,-0.360837,0.469877,-0.673633,-0.737797,-0.043289
-0.016485,0.699573,0.520600,-0.434775,0.583324,-0.686078
0.210604,-0.044839,0.137884,0.998664,0.044295,0.026597
0.135305,-0.112054,0.236757,0.965066,-0.238224,-0.109072
0.717365,-0.204097,-0.955133,-0.043948,0.038459,0.998293
0.264669,0.118075,0.876638,0.646573,-0.759499,-0.071439
0.706668,0.584928,0.114874,0.917703,-0.373361,-0.135731
-0.551465,0.421731,0.576706,-0.254491,0.745902,0.615519
0.561119,0.262747,-0.968620,-0.174047,0.188378,0.966551
-0.261251,0.623092,0.644494,-0.301237,0.870771,-0.388605
-0.296600,0.724547,0.539706,0.835845,-0.547946,0.033444
0.336849,-0.265000,0.223566,0.945457,0.325424,0.014517
0.251003,0.781518,0.555086,-0.303284,0.952898,-0.002031
-0.173623,-0.036421,0.761172,-0.605286,-0.486084,0.630358
0.208823,-0.086652,-0.482801,0.987224,-0.153324,0.043358
0.344423,0.039213,0.818225,0.328689,0.537909,0.776285
-0.492796,0.195250,-0.029813,0.842217,-0.143144,0.519789
0.115104,-0.053678,0.268818,0.818226,-0.524820,-0.234671
0.480617,0.531888,0.064920,-0.673811,0.738737,0.015700
0.201249,0.235529,0.720298,0.959476,-0.275831,0.057651
0.036537,-0.005828,0.865310,0.011773,-0.907076,0.420802
0.088521,0.184587,0.743663,0.339134,-0.939338,0.051304
-0.231100,-0.114718,0.270533,-0.081509,-0.996542,-0.016153
0.223971,0.086361,-0.979267,-0.312047,0.215469,0.925311
0.211941,-0.091002,0.124250,-0.551528,0.781618,-0.291359
-0.474674,0.019574,0.515897,-0.021552,0.834321,0.550858
-0.403386,-0.690452,0.487297,0.701574,-0.635828,-0.321741
0.096389,0.020276,-0.984058,-0.093917,0.032342,0.995055
-0.009210,-0.099421,0.527787,0.971857,-0.141719,0.188177
0.582947,-0.039221,-0.958298,-0.057374,0.156147,0.986066
0.068618,-0.500182,-0.966461,-0.121121,0.133723,0.983589
0.314717,-0.112611,-0.447044,0.716315,0.633936,-0.291579
0.198725,0.618604,0.345154,-0.659220,-0.426926,0.619002
0.381703,0.316490,-0.984561,-0.152900,0.120608,0.980854
-0.067131,0.871463,0.574280,0.690919,0.666279,-0.280540
0.277292,-0.005263,0.300612,0.674167,0.697370,-0.243256
-0.551016,-0.351442,0.647689,0.670438,-0.066773,0.738955
0.342048,-0.054800,0.298424,0.936741,0.328976,-0.119549
-0.725084,-0.160178,0.517228,0.933162,0.337819,-0.122832
0.439924,-0.020705,0.037207,0.217838,-0.975783,0.019861
0.068024,0.392406,0.705687,-0.241808,0.885892,-0.395884
-0.002525,0.479824,0.465026,-0.313130,0.692041,-0.650407
0.562451,0.315231,0.382361,0.229250,-0.603592,0.763624
0.536761,-0.336145,0.583656,0.847431,-0.368763,0.381934
0.043517,-0.059707,0.940700,-0.746643,0.642157,-0.173663
-0.072031,-0.166499,0.887818,0.802717,0.296535,0.517409
0.026289,0.278883,0.227056,-0.715238,-0.598435,0.360985
0.252340,0.460177,0.764633,0.446669,0.794612,-0.411192
0.139761,0.094360,0.963355,0.806695,-0.588937,0.048948
-0.032825,0.170139,0.838041,0.948596,-0.022162,0.315713
0.217883,0.195815,0.691639,0.255101,0.925155,0.281090
0.334025,-0.595034,-0.963414,-0.171642,0.148944,0.973835
0.214022,-0.114298,-0.415871,0.768427,0.632786,-0.095400
0.538098,-0.144745,-0.269616,0.458628,0.867242,0.193785
-0.054059,-0.437036,0.615983,-0.563652,0.021928,-0.825721
0.023615,0.550824,0.490994,0.348623,-0.798662,0.490511
0.075897,-0.375294,0.649079,0.885472,0.464558,-0.011181
-0.653941,-0.161583,0.509479,-0.354040,0.155764,0.922168
0.700132,0.094086,0.711780,0.419803,0.003629,0.907608
0.280709,-0.136189,-0.138121,-0.023667,0.995801,-0.088432
0.020052,0.150209,0.678744,0.123639,-0.553475,0.823637
-0.620971,0.175192,0.497945,0.811750,0.129960,0.569361
0.147630,0.266816,0.862974,0.306120,0.784812,-0.538851
0.690627,0.631373,0.125817,-0.726009,-0.291432,0.622879
0.145553,-0.093666,0.755997,0.129685,-0.810992,0.570504
-0.202138,0.406435,0.768093,0.604962,-0.785608,0.129777
0.688252,-0.039221,0.718198,-0.012299,0.947881,0.318388
0.063719,0.008209,0.174292,0.900008,-0.434767,0.031048
0.326751,0.057601,0.499985,0.579612,0.814892,0.000190
0.123720,0.251665,0.204578,0.702678,-0.224928,0.675020
-0.171543,0.682872,0.577918,0.781479,0.620677,0.063653
0.209118,-0.115420,-0.459052,0.624690,-0.722222,0.296914
0.056439,0.557564,0.320901,-0.373502,-0.604804,0.703355
-0.185503,0.117793,0.586969,-0.590636,0.355228,-0.724543
0.280559,-0.182069,0.397297,0.561390,0.827539,0.004567
-0.123571,0.394367,0.655112,0.842673,0.532160,-0.081902
0.378136,-0.001057,0.042235,0.047023,-0.998711,-0.019091
0.326751,-0.101108,-0.670255,0.825239,-0.471611,0.310748
-0.548342,-0.205922,0.674278,-0.445833,0.859939,-0.248469
0.160701,0.030794,0.621543,0.495531,-0.360710,-0.790150
0.769049,0.534269,0.703913,-0.393326,0.864354,-0.313347
0.075299,-0.047366,0.850285,0.196937,-0.978518,0.060982
0.259619,-0.122717,-0.766319,0.936911,0.272615,0.218813
-0.028070,-0.073462,0.747242,0.925038,-0.376592,0.049836
-0.230062,-0.335443,0.530478,0.885593,0.462239,-0.045400
0.657208,-0.236377,-0.217621,-0.154679,0.965592,0.209062
0.180603,-0.093949,0.730827,-0.714555,0.550343,-0.431896
0.128176,0.130991,0.612079,0.990713,0.135321,-0.013294
0.588446,-0.242689,-0.956139,-0.110426,0.012827,0.993802
0.315610,-0.035290,0.794120,0.711082,-0.176959,0.680477
0.620527,0.376690,-0.972376,0.175529,-0.109903,-0.978321
-0.005199,0.414717,0.541274,-0.059669,0.997298,0.042864
-0.388683,-0.518142,0.644051,0.352790,-0.933780,0.059947
0.071587,-0.215471,-0.974269,-0.241072,0.323552,0.914986
0.155801,0.245070,0.736121,0.073261,0.955498,0.285755
0.128026,0.034442,-0.982668,-0.163548,-0.058435,0.984803
0.553690,0.689321,0.191979,0.271798,-0.893244,0.358107
0.675180,0.294042,0.835290,0.940888,-0.338432,0.013952
0.220703,0.466498,0.794801,0.607441,0.713583,0.349021
-0.149116,0.064050,0.571707,0.765237,0.643444,-0.019798
0.040398,-0.139975,-0.223951,0.929899,0.050523,0.364328
0.262883,-0.121869,-0.286445,0.044501,-0.879081,0.474591
0.147035,0.106153,0.449647,0.954798,-0.286697,-0.078524
0.498887,-0.381049,-0.953684,0.368332,-0.232998,-0.900024
0.413485,0.164521,-0.975718,0.262213,-0.249971,-0.932072
0.005942,0.325894,0.239597,0.261680,-0.499395,0.825911
0.518491,0.260923,-0.976280,-0.342419,0.327987,0.880439
-0.093719,-0.205365,0.824140,0.178478,-0.962667,-0.203512
-0.360464,-0.317337,0.773860,0.707828,-0.640038,0.298883
0.036387,-0.103909,0.529473,0.963471,0.217245,0.156617
0.677854,0.079492,-0.963385,-0.085905,0.392503,0.915730
0.326896,0.016346,-0.204342,0.725679,-0.553185,-0.409118
0.320958,0.204517,0.790837,0.623599,0.781701,-0.008228
0.439180,0.026169,0.149123,-0.518360,0.855120,-0.008545
0.194269,0.099413,0.376327,0.890106,0.366009,-0.271566
0.244467,-0.597706,-0.959155,-0.167443,0.260225,0.950918
0.224120,0.205074,0.513915,-0.231755,0.972764,0.004362
-0.894252,0.124533,0.563042,0.750528,0.253394,0.610327
0.242536,-0.061395,-0.000384,0.806221,-0.586553,0.077229
0.538987,0.307651,0.401023,-0.653484,0.425988,-0.625694
-0.066093,-0.138013,0.863299,0.983860,-0.083175,-0.158435
0.137830,0.703496,0.514241,0.469340,0.584310,0.662043
0.050796,-0.040763,0.596699,0.301119,0.944586,-0.130711
-0.314716,0.674590,0.533436,-0.423321,-0.136690,-0.895609
-0.284122,-0.525576,0.536512,0.904502,-0.424543,-0.040486
0.218478,0.185007,0.578658,0.490236,-0.863024,-0.121899
-0.185652,-0.337122,0.717222,-0.239458,0.970282,-0.034816
0.384672,0.146424,0.488894,-0.197189,0.259301,0.945452
0.700581,-0.514348,0.618852,0.943307,0.271856,-0.190439
0.423439,-0.014247,0.103487,-0.047680,0.998863,0.000521
0.449428,-0.581562,-0.950637,-0.170806,0.033234,0.984744
0.256351,0.635022,0.782704,0.228479,0.921494,-0.314081
0.311154,0.309339,-0.990003,0.373940,-0.269587,-0.887407
0.405467,0.463269,0.692023,-0.148968,0.171340,0.973885
-0.457152,-0.045542,0.706634,-0.523530,0.552984,-0.648170
-0.232437,0.014239,0.771731,0.123215,-0.109296,0.986343
0.082877,0.372339,0.425157,-0.637355,-0.725613,0.259353
0.774393,-0.274686,-0.949839,-0.090327,0.160986,0.982815
0.090601,-0.368554,-0.969093,-0.351861,0.017847,0.935882
-0.717954,0.118358,0.575227,0.818006,0.568920,0.084830
0.327045,-0.043152,-0.963385,0.306844,-0.416651,-0.855715
0.441705,-0.517157,-0.947295,-0.181042,0.102305,0.978140
-0.482697,0.296004,0.845997,-0.557374,0.779842,-0.284922
0.184615,0.598255,0.262134,0.877467,-0.449244,0.168023
0.472005,0.228789,0.598651,-0.699007,0.714492,0.029844
0.364625,-0.364066,-0.955133,0.238720,0.143891,-0.960369
0.149116,-0.106718,0.749727,-0.261771,0.870247,-0.417308
0.622902,-0.082447,0.414333,-0.706407,-0.662965,0.247925
0.468437,0.294462,0.781107,-0.261140,-0.101545,0.959945
-0.388534,-0.018178,0.743013,-0.485611,0.751261,0.446979
-0.608348,-0.181512,0.699329,0.033889,-0.675969,0.736150
0.614585,-0.286754,0.543018,-0.098474,0.832398,0.545359
0.662262,-0.259390,0.606962,0.976910,-0.213624,0.003459
-0.006386,-0.193297,0.814498,0.505314,0.811180,0.294355
-0.349621,0.166910,0.624412,0.746815,0.588703,-0.309346
0.160850,0.171115,0.900979,0.835475,-0.423317,0.350405
0.185653,0.210272,0.806779,0.791249,-0.481620,0.376785
0.528145,-0.115000,-0.956079,-0.179597,-0.222962,-0.958140
0.544185,-0.020979,-0.958978,0.184882,0.126220,0.974621
0.232587,0.026169,0.145456,0.866535,0.490756,-0.090969
0.884896,0.670522,0.248026,-0.313468,-0.938870,0.142341
0.210455,0.005400,0.291858,-0.581682,0.692701,-0.426393
-0.000294,0.064478,-0.990033,-0.302316,0.012577,0.953125
-0.545967,0.048762,0.459141,-0.717587,-0.666304,-0.202748
0.310710,0.080331,0.428381,0.992659,-0.030047,-0.117153
0.198870,0.041183,0.899766,-0.459591,0.576380,-0.675694
0.028664,-0.117381,0.394635,0.970104,-0.110291,-0.216182
-0.100105,-0.077393,0.892579,0.863766,0.451255,-0.224224
0.192932,0.236232,0.849457,-0.282190,-0.933767,0.220109
0.328088,0.120884,0.745822,-0.017911,0.417069,0.908698
0.189958,-0.121869,0.205998,-0.424357,0.259129,0.867625
0.209417,0.160033,0.901304,-0.598584,0.541998,-0.589860
0.307736,-0.042870,-0.538346,0.897611,-0.257287,-0.357907
-0.205256,-0.335863,0.541096,0.936778,0.251137,0.243676
0.284421,-0.123137,-0.104493,-0.372877,0.923499,-0.090071
0.037874,0.766779,0.473337,-0.558716,0.770080,-0.307919
0.339968,0.058303,-0.971518,0.270677,-0.119315,-0.955248
-0.678004,-0.346388,0.680932,0.435444,-0.876857,0.203743
0.158770,0.044686,0.799651,-0.629918,0.600436,-0.492626
0.262588,-0.044137,0.188785,-0.048475,-0.958160,0.282099
0.276253,0.239315,0.709917,0.263848,0.862213,-0.432404
0.038767,0.890262,0.376209,0.506037,0.585138,-0.633672
-0.288428,0.434501,0.783532,0.771771,0.564204,0.293332
0.035794,0.360691,0.908255,0.088727,-0.939814,0.329967
0.276992,0.298950,-0.988317,-0.179079,0.110809,0.977575
-0.097876,0.212790,0.796664,0.941620,0.295058,0.162151
0.151346,-0.050869,0.239035,-0.596584,0.799785,-0.066570
0.058370,-0.102933,-0.208482,0.937746,0.022762,0.346574
0.176297,0.483335,0.382420,-0.716435,-0.188329,-0.671754
0.474230,0.176871,0.799799,0.011120,-0.791054,0.611646
0.213722,-0.018178,0.089498,0.318477,0.899512,-0.299084
0.266894,0.120465,0.988702,-0.507480,0.734198,-0.451018
0.142285,0.298110,0.527018,0.848561,0.250686,-0.465942
0.212091,-0.035573,0.187838,-0.550398,0.712969,0.434439
0.724939,0.552092,0.725090,0.073509,-0.824666,0.560824
0.785978,-0.119068,-0.955074,-0.036150,-0.030284,0.998887
-0.240161,-0.387498,0.722457,-0.456719,0.691074,-0.560201
0.316797,0.079209,-0.970394,0.201994,0.150341,-0.967779
0.293033,0.011010,0.378723,0.396640,0.917974,0.000790
-0.226201,-0.547184,0.680814,-0.045315,0.927805,0.370303
-0.231250,-0.269213,0.735264,-0.505943,0.475124,-0.719916
0.256052,-0.018032,0.030079,0.075133,0.881641,-0.465902
0.127877,0.159750,0.558221,-0.032192,0.992115,0.121123
0.080947,0.398016,0.575641,-0.250784,-0.940571,0.228982
0.433981,0.222477,-0.976783,-0.209309,0.359104,0.909524
0.391802,-0.031924,0.048180,0.313668,-0.916394,-0.248667
0.213428,0.148385,0.441158,0.577548,0.766725,-0.280307
-0.032525,-0.552657,0.569371,-0.480780,0.870613,-0.104322
0.203474,0.741385,0.543344,0.274129,-0.944576,0.180636
0.305955,-0.095490,-0.468427,-0.565378,0.823658,-0.043987
0.155801,0.064050,0.746710,0.653758,-0.466121,0.596097
0.380515,0.071630,0.484694,0.012392,0.947918,-0.318275
-0.384672,-0.607521,0.497412,-0.509688,0.859951,-0.026495
0.014853,0.790357,0.670847,0.431648,-0.871658,0.232149
0.636862,0.114007,0.782083,-0.182954,-0.977739,0.102735
0.186546,0.639373,0.782674,0.783857,-0.111497,-0.610849
0.256202,0.054655,0.361450,0.682841,0.545986,0.485414
0.481804,-0.199755,0.494100,0.795774,0.605346,-0.017313
-0.328976,0.266679,0.769188,0.893653,0.043299,0.446666
0.471556,0.177436,0.862057,0.520033,0.818692,0.243536
0.199169,0.108680,0.954305,0.970694,-0.173796,0.165975
-0.049459,-0.213784,0.890598,-0.381337,0.554064,-0.739997
0.250110,-0.178840,-0.971991,-0.303759,0.209367,0.929460
0.405467,0.080751,0.666884,-0.510601,-0.754697,-0.411970
0.068618,-0.446294,-0.965396,-0.168716,0.178778,0.969316
0.283084,-0.118503,-0.846322,0.964578,0.151250,0.216134
-0.151641,0.187533,0.667150,0.557951,-0.625310,0.545599
-0.680973,0.417380,0.553991,0.625359,0.404124,-0.667540
-0.151940,-0.061951,0.810860,0.594680,-0.689006,0.414279
-0.187434,-0.353266,0.528852,0.915330,0.402595,0.009357
-0.445716,-0.076126,0.679217,0.627987,0.637631,0.446159
0.088964,-0.580586,-0.962113,0.418086,-0.004398,-0.908397
0.161739,-0.110650,0.125965,-0.525239,0.074255,0.847709
0.069212,0.595728,0.343172,-0.008310,-0.824296,0.566098
0.022577,0.551672,0.579131,0.062465,-0.593383,0.802493
0.586071,0.096184,0.449085,0.530947,0.032890,-0.846766
0.721077,0.516729,0.730177,0.861347,-0.190405,0.470986
-0.003417,0.753033,0.644494,0.359095,0.896829,-0.258356
-0.016041,-0.293623,0.555293,0.903831,-0.370450,-0.214141
-0.261695,-0.353823,0.727041,0.287454,-0.732004,0.617690
