0.315836,-0.014218,0.648868,0.849876,0.442855,-0.285640
0.152734,0.405706,0.183463,-0.040005,-0.487827,0.872023
0.184257,0.100117,0.479174,0.283924,0.295212,-0.912270
-0.084433,0.247395,-0.043647,0.853925,0.323785,0.407401
0.252278,0.812817,0.446271,0.623072,0.633935,0.458156
0.424540,-0.129659,0.791192,0.824964,0.262846,-0.500347
-0.225962,-0.376915,0.007496,0.882450,-0.187215,-0.431548
0.263065,0.124755,0.826892,0.601180,-0.477806,-0.640534
0.176493,0.065393,0.670050,-0.204339,0.886206,-0.415793
0.151432,0.000692,0.879906,0.969021,-0.241848,-0.050077
0.494374,-0.342034,0.418695,0.353244,0.759443,0.546319
-0.642319,-0.005873,0.233310,0.811616,-0.005843,-0.584162
0.504231,0.626980,0.413307,0.415097,0.650146,-0.636399
0.450949,-0.258547,0.383839,0.567139,0.776581,0.274365
-0.616933,0.706354,-0.003013,0.558070,0.743888,0.367680
0.144598,0.548991,0.471873,-0.189758,-0.161884,0.968393
-0.049842,0.168179,0.395334,0.798051,0.474695,0.371185
0.393436,0.572244,0.611216,-0.191420,0.748453,-0.634962
-0.472661,-0.248660,0.738363,0.359673,0.575983,0.734084
-0.033987,0.740325,-0.149799,-0.607845,0.363443,0.705998
-0.190999,0.296079,-0.340428,-0.474790,-0.218110,0.852645
0.230287,0.304542,0.432781,0.632779,0.407528,-0.658416
0.285568,-0.276819,0.203985,0.968810,0.246366,-0.026676
0.512507,-0.278203,0.743813,0.906055,-0.419330,-0.056801
0.142040,-0.139784,0.192367,0.344591,0.641521,0.685353
0.543240,-0.360028,0.436729,0.353244,0.759443,0.546319
0.001069,0.395345,0.753046,0.783526,0.317666,0.534019
0.044402,0.164581,-0.790247,-0.794295,0.229035,-0.562706
0.233681,0.566036,-0.012842,0.046217,-0.017904,0.998771
-0.084713,0.232248,-0.323915,-0.358982,0.174605,0.916867
-0.037753,-0.760416,0.366565,0.178189,-0.982179,0.059784
0.024689,-0.403413,0.222966,-0.689340,-0.721220,-0.068199
0.057885,0.341124,-0.192963,0.116969,-0.303775,0.945537
0.246513,0.180281,-0.783440,0.581966,-0.774605,0.247595
0.451832,0.352514,0.659562,-0.596397,0.726688,0.340932
-0.007858,0.578692,0.196500,0.870195,0.211133,0.445179
0.105217,-0.319571,0.383139,-0.116191,0.420693,0.899732
-0.028780,0.137569,0.855722,0.763794,0.569678,0.303456
0.346662,-0.425481,0.446929,-0.691870,0.407128,-0.596291
-0.196532,-0.042376,0.446107,-0.709601,0.533535,-0.460224
0.174819,0.164067,-0.788519,0.144611,-0.983402,0.109580
0.393482,0.261711,0.735176,0.852386,-0.463014,0.243017
-0.010136,-0.527911,0.537699,0.891557,-0.151080,0.426968
-0.021712,-0.172569,0.890291,-0.786083,-0.583299,-0.204540
0.746095,0.224101,0.683334,0.993900,0.003094,0.110238
0.272085,-0.051275,0.869500,-0.202212,-0.246431,-0.947830
0.183560,-0.515810,0.653804,-0.565943,0.543577,0.619865
-0.295564,0.101264,0.909498,-0.519737,0.580215,0.627077
-0.440953,-0.599810,0.336500,0.915429,-0.296084,0.272624
0.386879,0.192739,0.801351,0.004409,0.365046,0.930979
0.367724,0.177078,0.560998,-0.715920,-0.577959,0.391691
0.338479,-0.100196,0.798184,-0.632472,0.703019,-0.325184
0.404222,0.443080,0.297696,0.826808,0.439726,-0.350755
-0.200995,-0.184552,0.707085,0.649672,0.683957,0.331857
-0.106704,-0.453520,0.591166,0.786360,-0.380034,-0.487044
-0.616468,-0.142275,0.225557,-0.341399,-0.925988,0.161226
0.026316,-0.015166,0.364796,0.776219,-0.608104,-0.166416
0.399015,0.610804,0.662502,0.011960,-0.721925,0.691867
0.398410,-0.241304,0.764726,0.649891,0.749161,0.128057
0.118003,-0.673331,0.169952,0.320540,0.220937,-0.921109
0.550865,-0.080066,0.639594,0.689495,0.141820,-0.710271
0.381579,0.136620,0.826768,0.218201,-0.494731,-0.841207
0.446671,0.563030,0.603052,-0.311925,0.758577,-0.572070
-0.016924,0.327955,0.185930,0.598764,0.604546,0.525362
-0.251906,0.795338,-0.126294,-0.045999,0.103787,0.993535
0.297796,0.127563,-0.946575,-0.006486,-0.258333,0.966034
-0.257951,0.839276,-0.088703,0.488419,0.201042,0.849134
0.151060,0.320243,0.397452,0.885041,0.221210,-0.409596
0.008695,-0.474640,0.654421,0.230178,0.942432,-0.242571
0.039799,0.809021,-0.039493,0.934327,0.354070,0.040847
-0.083643,0.530285,-0.146509,0.836361,0.537567,0.107344
0.393667,-0.368927,0.633404,-0.612622,-0.725225,0.314234
0.414451,0.618715,0.210792,0.770591,-0.637097,0.017226
0.210387,0.316406,0.845564,0.984982,0.127577,-0.116339
0.041287,0.442408,0.833781,-0.590911,0.751113,-0.294370
0.509903,0.467007,0.225084,-0.554932,0.462498,0.691481
0.092013,0.757884,0.473868,-0.420854,-0.093661,-0.902280
0.291613,-0.360977,0.193210,0.758302,0.165979,0.630420
0.562488,0.452335,0.654997,-0.700758,-0.710730,-0.061657
0.493724,0.083230,0.446065,0.751047,0.640945,0.158487
-0.061186,-0.281169,-0.051667,0.486435,0.485536,-0.726385
-0.813093,-0.267564,0.233310,-0.161816,0.931360,0.326166
-0.186117,-0.528623,0.031042,-0.387575,0.098400,-0.916571
0.561652,-0.161140,0.777332,0.652442,-0.575187,0.493437
0.333829,-0.003738,0.056500,0.053664,0.351038,0.934822
0.051981,0.204999,0.828598,-0.514135,0.699329,0.496592
-0.459038,-0.150343,0.723043,-0.479585,0.626895,0.614004
-0.174215,-0.150857,0.838983,-0.712081,0.257190,-0.653295
0.072764,0.006703,0.178136,-0.181569,-0.979532,0.086892
0.158639,0.088885,0.903966,-0.545717,-0.355983,-0.758597
0.674819,0.271954,0.722323,-0.104378,0.730576,-0.674806
-0.326157,-0.229440,0.821751,-0.694748,-0.392251,0.602880
0.198345,-0.469894,0.715578,0.158003,-0.183198,0.970296
0.470616,0.030709,0.520919,0.675669,0.283178,-0.680648
0.066673,-0.251705,0.729521,-0.161931,0.912425,0.375843
0.431839,-0.400526,-0.099561,0.125255,-0.024811,0.991814
0.257951,-0.776908,0.217804,-0.493502,0.680056,0.542199
0.238005,-0.139269,0.359429,0.977289,0.145024,0.154512
0.412591,0.046885,0.727834,-0.611149,0.783646,0.111336
0.734471,0.124439,0.763143,-0.702109,0.179754,-0.689008
0.129161,0.609025,0.574488,-0.109244,-0.541897,0.833315
0.477079,-0.370548,0.714941,0.592614,-0.156989,-0.790040
-0.669797,-0.179134,0.189652,0.413879,0.222144,0.882811
-0.102055,-0.393645,0.124402,0.492359,0.097390,-0.864927
-0.757765,-0.121671,0.225866,-0.378636,-0.561089,-0.736080
-0.121908,0.285915,-0.016174,0.768826,0.245185,0.590585
0.224335,-0.119456,0.294426,-0.440076,-0.132359,0.888152
0.389669,-0.237033,0.777970,-0.730466,-0.680860,-0.053382
-0.464292,-0.382690,0.385977,0.879103,0.179067,-0.441715
-0.037103,0.192700,-0.055143,0.768224,0.283286,0.574091
0.144179,0.317396,-0.027073,-0.753343,0.183877,-0.631398
-0.159894,-0.203575,0.134211,0.324512,-0.929245,-0.176621
0.019760,0.605782,0.510863,-0.489298,0.846375,0.210323
0.657244,0.312096,0.492520,0.248215,-0.666045,0.703401
0.159615,0.041110,0.034990,-0.792609,0.527475,0.305845
0.333411,-0.289000,0.605314,0.754603,0.620246,0.214170
-0.225498,-0.487216,0.547570,0.849172,-0.199764,-0.488877
0.368840,-0.782049,0.185786,0.253130,0.187066,0.949174
-0.040543,-0.108659,0.826213,-0.588375,-0.764735,-0.262671
0.083736,0.096003,0.446806,0.463532,0.884060,-0.059801
-0.339316,0.547092,0.213959,-0.479322,-0.562374,-0.673785
-0.081551,-0.358407,0.547405,-0.899198,-0.156887,-0.408447
-0.374419,0.024579,0.283938,0.407124,0.424001,0.808995
0.291799,-0.311345,0.222102,0.900252,0.339586,-0.272446
0.045100,0.461906,0.269934,0.879067,-0.404100,0.252872
-0.300028,0.365724,0.668363,0.897826,-0.346406,0.271867
0.211828,-0.146230,0.481168,0.813132,0.507691,0.284720
-0.070253,0.194281,0.557379,-0.094439,-0.934400,0.343479
0.344198,-0.075794,0.761683,0.327124,0.935412,-0.134143
-0.067463,-0.235846,-0.028821,0.944894,0.041668,0.324715
0.352799,0.564612,0.205219,0.833495,-0.552409,-0.011455
0.570393,0.624212,0.433768,-0.676166,0.039145,0.735708
0.495862,0.637500,0.493075,-0.357112,-0.538104,0.763488
0.796680,0.086631,0.471832,0.301078,-0.936061,0.182049
0.511159,-0.270372,0.748440,-0.228123,0.617614,0.752670
0.198810,-0.725613,0.186917,-0.650527,-0.031264,0.758839
0.101590,0.149671,0.134253,0.999720,-0.003414,-0.023427
0.133253,0.351051,0.734045,0.113309,0.993443,0.015214
0.303515,-0.033873,0.814039,0.674565,0.638371,-0.370735
0.027664,0.309090,0.184347,-0.453831,-0.828911,-0.327023
0.443835,0.520436,0.325971,-0.621471,-0.518355,0.587437
0.778036,0.202310,0.753354,0.951816,-0.161066,0.260967
0.538358,0.128591,-0.983055,0.347430,-0.013719,0.937606
0.653524,0.401871,0.503892,-0.269861,-0.604492,0.749510
0.759485,0.302169,0.684300,0.703762,-0.196215,0.682802
0.213735,0.332661,0.828475,0.920074,0.144438,0.364144
0.696206,-0.040992,0.595937,-0.646084,0.256143,0.719004
0.004882,-0.740365,0.302076,0.448826,0.275274,0.850164
0.005626,0.098297,0.778607,0.953455,0.301204,-0.014139
-0.101962,0.376481,0.386121,0.474396,-0.109984,0.873414
0.103729,0.063653,0.125286,0.985920,0.033137,0.163903
0.342663,0.015681,0.862262,-0.815023,-0.189776,0.547469
-0.100661,0.349311,0.409359,0.395612,-0.210438,0.893984
0.606751,0.637025,0.484746,0.103107,-0.768550,0.631427
0.244003,0.587827,0.481148,0.460112,-0.138112,-0.877053
0.240376,0.087936,0.641527,-0.525430,0.846222,-0.088497
0.126325,0.118981,0.148771,0.990684,-0.001747,-0.136173
0.176493,0.514464,0.038218,0.734645,-0.174572,-0.655608
-0.110145,-0.283384,0.816342,-0.026884,-0.897179,0.440847
0.652409,0.120365,0.713810,0.528271,0.416444,-0.739935
0.148922,0.103676,-0.463689,0.975381,0.191797,0.108837
0.276223,0.593839,0.659068,0.087760,0.927623,-0.363060
0.661103,-0.199383,0.688434,0.797862,-0.354338,-0.487710
0.336851,0.174310,0.791439,0.092949,0.928923,-0.358418
-0.350381,-0.057761,-0.104065,-0.214236,-0.631953,0.744807
0.449275,-0.324514,0.683066,0.862781,-0.090069,-0.497490
0.667612,0.599138,0.426118,-0.006481,-0.683241,0.730164
-0.154593,-0.001325,0.755041,0.349682,0.907862,0.231321
0.205412,-0.431651,0.694068,0.894170,0.344722,-0.285705
0.533616,0.826976,0.439362,0.835463,-0.209178,0.508180
-0.413288,0.190920,0.580287,0.828582,-0.402006,0.389670
0.393063,0.015602,0.845502,-0.206468,0.026758,-0.978087
0.298029,0.397600,0.590611,0.520800,0.852594,0.043018
0.033848,-0.362718,0.690223,0.607975,0.793902,-0.009281
-0.122233,-0.450594,0.400825,0.450596,-0.244953,-0.858465
0.284499,0.146507,-0.850006,-0.741875,0.558594,-0.370936
0.004929,0.078919,-0.771019,-0.688982,0.349695,-0.634837
0.549005,0.785649,0.465169,-0.724255,0.582326,0.369257
0.695137,-0.087896,0.812682,0.866228,-0.022436,0.499145
0.243817,-0.117874,0.856195,-0.556894,0.053386,-0.828866
-0.467128,-0.210377,0.467555,0.377905,-0.917674,0.122730
0.193324,0.155563,0.886342,-0.099759,-0.108343,0.989095
0.161103,0.417018,0.189796,-0.077198,-0.507995,0.857894
0.554584,0.837615,0.384497,0.739395,0.417496,-0.528197
-0.027292,0.373079,0.879741,0.951113,-0.184927,0.247359
0.165567,0.630144,0.588245,-0.110754,-0.560775,0.820527
0.416078,0.270372,-0.974953,-0.276370,-0.157978,-0.947978
0.271527,0.485041,0.562273,-0.172556,-0.199332,0.964620
0.380231,-0.039924,0.340901,-0.586168,-0.228570,0.777279
0.363075,0.091021,0.826604,0.282788,0.294538,0.912841
-0.583411,0.609460,0.044922,-0.546062,-0.547149,-0.634385
-0.773852,-0.313718,0.177190,-0.287973,0.620906,-0.729073
0.096243,0.011766,-0.242872,0.668984,-0.707665,0.227311
0.422494,0.169010,0.830758,0.848030,-0.205695,-0.488399
0.156547,0.176208,0.346433,0.401100,-0.767743,0.499690
-0.022875,-0.166360,0.377155,-0.668871,-0.405995,-0.622720
0.291054,0.173123,0.687282,-0.391292,0.862802,-0.320099
-0.502882,-0.260643,0.239232,0.146812,0.949952,-0.275747
-0.323461,0.644975,0.002642,0.829669,0.448808,-0.331997
0.218012,0.115224,0.496057,-0.185025,0.713046,-0.676263
0.380742,0.024342,-0.966296,0.304903,0.005347,0.952369
0.217826,-0.459730,0.631409,-0.623452,0.781837,0.006191
0.661986,0.578098,0.286776,0.845855,0.463279,-0.264391
-0.174865,-0.422159,-0.220519,0.810517,0.585568,0.013111
0.121862,0.084377,0.997532,0.959553,-0.279456,0.034107
0.460015,0.382927,0.275651,0.161997,-0.823754,0.543310
0.225311,0.861541,0.372241,0.390369,0.871344,0.297273
0.375070,0.170276,-0.938801,0.906325,-0.248902,0.341501
0.131998,0.661506,0.572452,0.555089,0.775916,-0.299719
0.380835,-0.004805,0.936848,-0.552300,0.789040,0.269036
0.386601,0.080896,0.844063,0.306261,0.428281,0.850164
0.003162,0.935259,-0.047760,-0.808618,0.029124,0.587612
-0.331458,0.563742,0.204273,-0.479322,-0.562374,-0.673785
0.377720,0.179372,0.570046,-0.782740,-0.490216,0.383414
0.707179,0.115264,0.716874,0.808484,-0.285152,-0.514822
0.624605,-0.099959,0.694562,-0.080214,0.994698,0.064353
0.150874,0.024500,0.619174,0.611159,-0.766659,0.196770
-0.022968,0.698325,0.036594,0.547451,-0.524980,-0.651686
0.326437,0.519922,0.638422,-0.770785,-0.112136,-0.627150
0.723963,0.411995,0.528877,-0.456034,-0.009682,0.889910
-0.168449,0.748828,-0.174353,0.636587,0.423897,0.644257
0.701785,0.292638,0.265163,-0.290480,0.385011,-0.876007
0.243305,-0.009472,0.811242,0.228776,-0.890274,0.393794
-0.052027,0.424690,0.782473,0.823290,0.567386,0.016315
0.038312,0.071484,0.408659,-0.524551,-0.815240,0.245418
0.498234,0.236281,0.300904,-0.512875,0.457510,-0.726391
0.212014,-0.233197,0.772438,0.359488,-0.489090,0.794707
0.546680,0.456486,0.653989,-0.232514,0.753361,0.615130
0.273805,-0.335073,0.279250,0.812361,-0.002337,0.583150
0.692812,0.144886,0.765426,-0.374039,0.133020,0.917824
0.383300,0.346622,0.652467,0.475034,0.557400,0.680917
0.644179,0.211920,0.663243,0.735096,0.155401,-0.659912
0.243212,0.815704,0.481107,0.783106,0.621326,0.026429
0.433234,0.377983,0.719157,0.606049,-0.794313,0.042090
-0.054119,0.525578,0.374873,0.745939,0.422675,0.514704
0.392227,0.529691,0.564124,0.245290,-0.969444,0.003325
-0.155152,0.082043,0.930473,0.955010,0.197242,0.221476
0.306212,0.837021,0.414726,0.343217,0.872296,0.348283
-0.103915,-0.397481,0.387705,-0.242605,0.001866,0.970123
-0.091966,-0.310039,0.473457,0.473737,-0.811931,-0.341088
0.432769,-0.062150,0.596697,-0.748166,-0.008625,0.663456
-0.138692,0.070337,0.895658,0.924027,-0.245123,0.293408
0.079599,0.025766,0.238821,0.646785,-0.762304,0.023697
-0.091780,-0.724190,0.293110,-0.393701,0.812381,0.430159
-0.412079,-0.192779,0.485014,0.091343,0.892269,0.442168
-0.184536,-0.210456,0.154611,0.226656,0.490466,0.841469
0.038218,-0.759981,0.482053,0.992987,0.105032,-0.054262
0.385717,0.612189,0.662893,-0.226065,-0.400889,0.887796
0.388879,-0.068241,0.550798,0.113487,0.990345,0.079613
0.139669,0.050167,0.128515,0.731925,0.391686,0.557555
0.363028,0.355480,0.214905,0.494557,0.715296,-0.493726
-0.098289,-0.296711,0.127199,0.660973,0.037316,0.749481
0.051981,-0.151411,0.351759,0.862366,0.210791,0.460318
-0.729496,0.260841,-0.010087,-0.264118,-0.439357,0.858608
0.192951,0.522493,0.211573,0.913061,0.330567,-0.238841
0.452808,0.086077,0.317334,0.276264,-0.467454,-0.839741
-0.058815,0.351565,0.188624,0.613703,0.782854,0.102508
0.210387,0.319610,0.878117,0.998221,0.003833,0.059506
-0.325832,-0.375690,0.599679,0.746628,0.382449,0.544315
0.347592,0.881869,0.354391,-0.182100,0.547694,-0.816622
0.729682,0.313005,0.701286,-0.847928,0.523470,-0.083653
0.417240,0.075715,0.765138,-0.402857,-0.832876,0.379505
-0.453181,-0.266734,0.176285,-0.012674,0.625537,0.780092
0.486796,0.020348,0.626186,0.812660,-0.569259,-0.124608
-0.053933,-0.046489,0.700608,0.669655,0.741257,0.045825
-0.149572,0.008641,0.750907,0.420903,0.880026,0.219988
0.210341,-0.670760,0.193436,0.630074,-0.439488,-0.640201
0.539334,0.912440,0.438642,0.749103,-0.427404,0.506133
0.548401,0.242372,0.455854,0.606332,0.203526,-0.768725
0.101497,0.223982,0.657546,0.544958,0.830351,-0.116350
0.585503,0.447905,0.162323,-0.454885,0.871930,-0.181155
0.036963,-0.385774,0.730117,-0.486300,0.356910,-0.797576
-0.140227,0.261711,0.787224,0.961760,-0.158760,0.223188
-0.323228,-0.032766,0.705193,0.401134,0.910390,-0.101394
0.310070,0.021257,0.838922,0.835612,-0.028653,-0.548572
-0.064674,-0.232604,0.819201,0.965297,-0.214560,0.148882
0.629533,0.226750,0.643152,0.586879,0.563676,-0.581242
0.485261,0.131399,0.772664,0.267301,0.199279,0.942782
0.224475,-0.169643,0.790370,0.119632,0.631734,0.765898
0.139995,0.040992,-0.071656,0.941006,-0.329655,-0.076391
-0.191417,0.294655,0.623739,0.857178,-0.405227,-0.317862
-0.376976,0.366673,0.027155,0.110457,0.027176,0.993509
0.299377,-0.269028,0.459946,0.922872,0.215259,-0.319328
0.390878,-0.211050,0.737829,-0.246364,0.795677,0.553356
-0.076995,-0.071958,0.812702,0.028169,0.995954,0.085333
0.242142,0.716043,0.154097,-0.298512,-0.087488,-0.950388
0.355914,0.140456,-0.958995,-0.663886,0.244936,-0.706584
-0.195044,0.059501,0.776181,-0.270831,0.881871,-0.385947
0.513111,0.295367,0.700361,0.246995,-0.742248,0.622945
-0.010414,-0.129659,0.801289,-0.519972,-0.641625,-0.563867
0.225033,0.473611,-0.019484,-0.778825,0.441860,-0.445186
-0.659475,0.710269,0.007681,-0.570297,-0.720941,-0.393706
0.000790,0.398272,0.835590,0.884713,-0.460170,0.074333
0.201878,0.556979,0.206741,-0.618964,-0.091993,0.780014
-0.112284,-0.295565,-0.448163,0.805319,-0.382692,0.452779
0.111122,-0.108778,0.797649,0.804800,-0.510212,0.303282
0.242375,-0.195863,0.386101,-0.785269,0.496531,0.369879
-0.011716,0.299599,0.365619,0.331129,-0.282573,0.900281
0.195974,0.646556,0.127384,0.133108,-0.249775,0.959111
0.361726,-0.158411,0.336665,0.030410,0.325636,0.945006
0.289521,0.005596,0.432123,-0.543226,0.829402,0.130375
0.331086,-0.073026,0.897365,0.986400,-0.148438,0.070574
0.382881,0.450476,-0.990520,-0.183133,-0.131815,-0.974211
-0.088014,-0.439204,0.596862,0.966766,-0.180245,-0.181313
-0.860052,0.499199,0.145007,-0.265133,-0.150021,-0.952470
0.275154,0.432639,0.189405,0.628486,0.322124,0.707984
-0.190487,0.004054,0.851137,0.714309,-0.617511,0.329307
-0.280222,0.801310,-0.040213,0.966685,-0.124358,0.223729
0.870932,0.165450,0.508580,-0.430295,0.645795,-0.630710
0.031616,0.456724,0.552382,-0.236451,-0.023578,0.971357
-0.229310,-0.227463,0.842047,-0.454786,-0.885160,0.098295
-0.256602,-0.109767,0.603730,-0.195260,-0.901221,-0.386878
0.455598,0.365130,0.751936,-0.204205,0.864985,0.458367
-0.356937,-0.176050,0.756645,0.668806,0.595298,0.445331
-0.169937,0.092404,0.813566,0.899221,-0.226040,0.374577
-0.658871,0.572206,0.139414,-0.317414,-0.350608,-0.881091
-0.585084,-0.441815,0.209024,0.507306,0.288441,-0.812060
0.051283,0.285915,0.599227,0.910479,-0.103125,-0.400492
0.396783,-0.305333,0.017428,0.924323,0.033212,-0.380162
0.309420,0.370271,0.198310,0.672488,0.473267,-0.569015
0.116515,0.423188,0.185046,-0.027863,-0.455622,0.889737
0.447741,-0.037116,0.603381,0.729445,0.091761,-0.677857
0.045472,0.387673,0.791645,0.797392,-0.168474,0.579468
0.351032,0.620138,0.434570,-0.460319,-0.795926,-0.393203
0.384322,-0.828558,0.181550,-0.378208,0.162474,-0.911351
0.035987,0.366356,0.664435,0.751874,-0.300297,0.586946
0.146830,0.101422,0.282725,-0.556770,-0.766940,0.319078
-0.159196,0.550533,0.390645,0.692669,0.687302,0.218692
-0.189929,-0.503194,0.238266,-0.418521,-0.544847,-0.726624
0.508416,0.419351,0.334403,0.367717,0.900227,-0.233185
-0.350428,0.418837,0.004925,0.138580,0.347493,0.927386
0.204482,0.444899,0.451392,0.909982,0.189098,-0.369019
0.444346,-0.234621,0.639573,-0.629583,0.644298,0.434171
0.438534,-0.790315,0.274602,0.192802,0.494736,0.847386
0.506509,0.075043,0.835487,0.734643,0.625956,0.261684
-0.004928,0.286706,0.756583,-0.611313,0.786824,0.084878
0.275525,0.675348,0.144000,0.019334,-0.252028,0.967527
-0.488749,-0.231022,0.487050,0.195608,0.980029,0.035774
0.200902,0.482194,0.482567,0.997118,0.010681,0.075112
0.482751,0.526686,0.523037,-0.043456,-0.946901,0.318575
-0.048122,-0.586364,0.115642,0.773284,-0.164423,-0.612370
0.378371,0.790789,0.413513,0.028674,0.882266,0.469878
-0.180165,0.318542,0.593263,0.968776,0.235023,0.078980
-0.529152,-0.199027,0.542984,-0.583074,0.422545,-0.693888
0.206063,-0.200213,0.389083,-0.421262,0.734505,0.532017
0.624512,-0.029009,0.552299,0.151101,-0.970970,-0.185434
0.835503,0.203140,0.547549,-0.496818,0.268563,-0.825255
0.108471,0.015641,0.548783,0.192606,-0.847347,0.494880
0.521527,-0.257598,0.759729,0.793217,-0.573343,0.205148
0.026501,0.307350,0.186485,-0.453831,-0.828911,-0.327023
0.454622,0.821636,0.543807,-0.128419,0.826077,-0.548730
-0.009624,0.283028,0.776366,0.563397,-0.823950,-0.060751
0.100242,0.344684,-0.003424,0.752067,-0.175372,0.635326
0.256602,-0.221965,0.167793,0.635750,0.558813,0.532494
0.156128,0.093315,-0.482711,0.954871,0.284260,0.086131
0.312442,0.025330,0.048459,0.134270,0.442634,0.886593
-0.027897,0.366712,0.881222,0.959042,-0.206115,0.194305
0.033058,0.336141,0.804353,-0.072458,-0.124179,0.989611
0.530128,0.455340,0.621621,-0.117622,0.477317,0.870824
0.440069,-0.266576,0.659809,0.934134,-0.283192,-0.217245
-0.409754,0.558324,0.211676,0.445434,0.600190,0.664350
0.373489,0.275395,0.787635,-0.338996,-0.410148,0.846676
0.008044,-0.108303,0.093351,0.070120,0.098050,0.992708
-0.578994,-0.493504,0.176615,0.435664,0.481888,-0.760250
0.063837,0.029721,0.369074,0.817091,-0.546753,-0.182823
-0.468151,-0.257914,0.056171,0.295394,-0.813766,0.500527
-0.342803,0.054517,0.845379,0.473787,0.880574,-0.010774
-0.306770,-0.542900,0.253092,0.118168,-0.716421,0.687588
0.301981,-0.148445,-0.052161,-0.557016,-0.633586,0.536938
0.426120,-0.953847,0.214247,0.043211,0.307294,0.950633
0.190906,-0.014692,-0.021952,0.811048,0.571903,-0.122996
0.336015,-0.033913,0.843281,0.748388,0.654965,-0.104573
-0.179701,-0.013269,0.865490,0.892337,-0.450766,0.023321
-0.039706,-0.219513,-0.008441,0.948296,0.101756,0.300634
0.419100,-0.066342,0.883258,-0.520167,-0.008629,-0.854021
-0.415705,0.547053,0.002231,0.373313,-0.038213,0.926918
0.487261,0.338830,0.724770,0.328216,0.936469,-0.123692
-0.015901,-0.170513,0.892450,0.922765,0.233672,0.306434
0.094570,-0.454668,-0.054485,-0.038515,-0.157178,0.986819
0.178445,0.104625,-0.410798,0.761915,-0.633833,0.133193
-0.060582,-0.492397,0.404464,0.188436,0.428862,0.883498
-0.293193,0.331237,0.680681,0.862089,0.005620,-0.506726
-0.404036,0.535821,-0.005193,0.279968,-0.047865,0.958815
0.160684,0.139942,0.811962,0.933527,-0.341072,-0.110440
0.228705,-0.123252,0.147763,0.605548,0.545960,0.578998
0.257114,0.449962,0.600563,-0.347063,0.208360,-0.914403
0.251069,0.684602,0.149059,-0.461087,0.886763,-0.032395
0.452437,0.117834,-0.976537,-0.245245,0.029195,-0.969021
-0.565557,-0.248502,0.489353,0.364326,0.514817,0.776035
0.109773,0.006426,0.117184,0.948319,0.219437,0.229214
-0.303329,0.189021,0.225763,0.948255,-0.313343,-0.051278
0.203506,0.116015,-0.658657,0.718288,-0.689902,-0.089988
0.452530,-0.096755,0.866087,0.825373,0.456622,0.332047
0.613492,0.074252,0.695898,-0.490691,-0.200366,0.847983
-0.051655,-0.301853,0.371727,-0.840383,0.294708,0.454867
-0.182211,-0.411560,0.098923,0.500300,-0.374720,-0.780567
0.137484,0.096122,0.965288,0.969317,-0.244691,0.023458
0.676213,0.662376,0.471606,-0.685535,0.675718,0.271012
0.379301,-0.227858,0.818954,0.851372,0.523482,0.033636
-0.127441,-0.476973,0.589788,0.356813,-0.706454,-0.611234
-0.030919,0.306519,0.873181,0.914499,0.344144,-0.212735
0.213874,0.270452,0.884204,0.997485,-0.045753,0.054129
0.351032,-0.382887,0.251036,0.489552,0.742031,0.457961
0.355357,-0.014415,-0.962162,0.147760,-0.078929,0.985869
0.067696,0.105376,0.812867,-0.092765,0.736312,-0.670254
0.100288,0.059856,0.725778,-0.337235,-0.941129,-0.023403
0.571183,-0.239881,0.660508,-0.238254,0.801109,0.549054
0.286359,-0.001325,0.832567,0.816646,-0.245042,-0.522536
-0.006602,0.360463,0.838880,-0.515113,-0.201281,0.833153
0.199507,-0.663997,0.171576,-0.709946,0.557097,0.430836
-0.089409,0.269661,0.801063,-0.056341,0.986144,0.156033
0.099638,0.498487,0.758372,0.314582,0.938192,0.144343
-0.114143,0.268909,0.100528,0.706077,0.668385,0.233916
-0.118189,-0.189575,0.138715,0.318095,-0.852999,-0.413773
-0.294913,-0.187953,0.700135,-0.644916,-0.456663,-0.612815
0.330249,0.517035,0.545678,-0.495257,0.858839,0.130827
-0.390738,-0.175219,0.624705,0.411049,0.681161,0.605854
0.147340,-0.051749,0.953484,0.654575,-0.561429,0.506290
0.053004,-0.221214,0.530995,-0.155360,0.751001,0.641764
-0.278873,-0.161693,0.708381,-0.466363,0.646776,-0.603479
-0.068021,0.190287,0.505455,0.758970,0.586012,-0.283823
0.220616,0.239327,0.766721,0.894320,-0.104631,-0.435023
0.484797,-0.336062,0.622999,-0.609107,0.036109,0.792266
0.193556,-0.347887,0.202361,-0.016020,0.199702,0.979726
-0.225684,-0.285757,0.543910,-0.294701,0.599142,0.744432
-0.270039,-0.001483,0.775502,0.522845,-0.248458,0.815415
-0.226660,-0.487295,0.538604,0.618554,0.327582,-0.714199
-0.083597,0.053410,0.194279,0.681509,0.662085,0.311752
-0.801376,0.354887,0.023556,-0.226528,-0.516453,0.825810
-0.009345,0.624844,0.127322,0.116703,-0.971544,-0.206113
0.238051,-0.100275,0.737993,0.278520,0.396027,0.874980
-0.652641,0.019636,0.249576,-0.837208,0.355611,0.415480
0.445881,0.365209,-0.987847,0.192734,0.147521,0.970099
-0.021712,-0.239247,0.791316,-0.067122,0.549855,0.832559
0.410405,-0.212790,0.855599,0.980015,0.162966,-0.114076
-0.344151,-0.549228,0.218853,0.994495,0.057359,0.087685
0.323787,0.144925,-0.874868,0.940045,-0.231920,0.250058
-0.444021,-0.050009,-0.081835,-0.355277,-0.455325,0.816369
-0.321090,0.294141,0.688043,0.956555,-0.059288,0.285461
0.076204,0.232327,-0.294344,-0.747222,0.072364,0.660623
0.191975,0.394040,0.824712,-0.775927,0.101702,-0.622570
0.177841,-0.811433,0.167648,-0.339772,0.449206,0.826298
0.458573,0.230903,0.222226,0.637128,0.672344,-0.376858
-0.629626,-0.370113,0.326012,-0.088304,0.552666,0.828711
-0.057467,0.314350,0.797218,-0.794067,0.502033,-0.342668
-0.758090,-0.255858,0.218339,-0.006421,0.924700,0.380643
0.194533,-0.136620,0.575907,-0.467672,-0.856038,0.220187
0.550865,-0.240039,0.706160,-0.761973,-0.587006,-0.273536
0.036544,-0.222835,0.114264,-0.489780,-0.303062,-0.817477
-0.068811,-0.638251,0.289326,0.641521,-0.284786,-0.712284
0.378510,-0.191869,-0.028019,0.871503,0.191275,-0.451549
-0.113120,-0.001246,0.417255,-0.591975,0.465759,-0.657749
0.299331,-0.245694,0.776818,0.599127,0.746699,-0.288942
-0.175655,-0.041111,0.784530,-0.416431,0.737621,0.531507
0.593826,0.060370,0.748028,-0.452312,0.858663,0.241062
-0.687558,-0.294062,0.175874,0.145421,0.658023,-0.738823
-0.297703,-0.333452,0.548721,0.975272,-0.210571,-0.067109
-0.304259,0.832750,-0.044449,0.984992,-0.091411,-0.146407
0.396318,0.723320,0.240815,-0.007975,-0.369958,0.929014
-0.445044,-0.258705,0.277584,-0.058317,0.990770,0.122370
0.165753,0.108382,-0.664250,0.694617,-0.705515,-0.140556
0.513530,0.239960,-0.986819,0.350826,0.163677,0.922025
0.005254,0.444939,0.825041,-0.774359,0.589083,-0.230975
0.368886,-0.028297,0.555405,0.024533,-0.999658,0.009083
0.269435,-0.333531,0.733633,-0.559797,0.280084,-0.779859
-0.044728,-0.009709,0.729768,0.148004,0.932280,-0.330073
-0.564022,0.637223,0.015454,0.550068,0.689135,0.471718
0.708109,0.544759,0.400125,0.241627,0.922405,-0.301305
-0.027617,-0.127444,0.884204,0.764729,0.619981,-0.175538
0.375674,-0.233751,0.770998,0.843977,0.527773,0.095697
-0.739399,-0.262977,0.262942,0.283738,-0.905285,-0.316153
-0.042403,-0.068952,0.451042,0.635383,0.497757,0.590361
0.378138,-0.458583,0.642165,0.840215,0.223476,0.494062
-0.537614,-0.205395,0.516251,-0.404230,0.850458,-0.336627
-0.318858,-0.220067,0.775646,-0.062595,0.842248,0.535443
0.530268,-0.292796,0.757077,0.826728,-0.536545,0.169232
-0.199414,-0.340847,0.609406,0.879561,-0.020158,-0.475358
0.062349,0.947124,-0.039144,0.985362,0.155665,-0.069493
0.549377,0.086987,0.350381,-0.000160,-0.996010,0.089241
0.263856,0.505408,0.651912,-0.446439,-0.286347,-0.847760
-0.128278,-0.301378,0.323257,0.344371,-0.928993,0.135576
0.467314,0.241463,0.806595,0.933431,0.204324,0.294885
0.322810,-0.000850,0.926237,-0.596540,0.758559,0.262160
0.749303,0.645567,0.372611,0.423891,0.160413,-0.891395
-0.153617,0.372486,0.083809,0.651009,0.453373,0.608802
-0.097173,-0.627573,0.485631,-0.624287,-0.485690,0.611859
0.652362,0.397204,0.673401,-0.168356,-0.985327,-0.028048
-0.305654,-0.167863,0.830141,0.508949,-0.012844,-0.860701
0.171564,0.016828,-0.422911,-0.547289,-0.801111,-0.242271
0.213967,0.691404,0.142417,-0.306994,0.395806,-0.865501
-0.134554,-0.004410,0.586292,0.133557,-0.489713,0.861594
-0.347498,-0.383837,0.320789,-0.011635,0.749223,0.662216
0.534685,0.768049,0.546233,0.563028,0.816669,-0.126692
0.381765,0.520556,0.248136,0.968542,-0.169611,-0.182095
-0.221359,0.723122,-0.090389,0.790464,0.240946,0.563126
0.033569,-0.460442,0.320727,0.999181,-0.017634,0.036410
-0.582202,0.360701,0.031720,0.033998,-0.312111,0.949437
0.423145,0.713947,0.380631,-0.796265,0.594902,0.109786
0.475172,0.575804,0.363213,-0.488833,-0.643820,0.588675
0.196718,0.741749,-0.003897,0.828524,0.337111,-0.447106
0.282500,-0.156750,0.782638,-0.319674,-0.234446,0.918065
0.356658,0.006031,0.063080,-0.055442,0.147730,0.987473
0.399991,0.457792,-0.994468,0.172351,0.166763,0.970817
-0.087270,0.241028,0.602085,-0.342430,0.725626,-0.596832
0.349358,-0.111704,0.711116,0.902810,-0.217670,0.370882
0.000512,-0.079829,0.028368,0.823389,-0.564105,-0.061785
-0.583737,-0.338000,0.342978,0.083926,0.140762,0.986480
-0.226055,0.472267,0.186506,0.410638,0.675761,-0.612147
0.582434,0.538708,0.276042,0.855017,-0.148833,-0.496784
0.139809,-0.479465,-0.046917,0.114065,0.182808,0.976509
0.428538,0.207965,-0.977030,-0.187464,-0.056810,-0.980627
0.558071,-0.263372,0.746424,-0.635308,0.713796,0.294754
0.047564,-0.026320,0.265780,0.804727,-0.561166,-0.193668
0.888786,-0.017302,0.638771,-0.189070,-0.894768,0.404528
0.357774,0.362402,-0.985626,-0.189596,-0.156947,-0.969237
-0.134136,-0.368769,0.079141,0.855267,-0.309604,-0.415529
-0.083364,0.707421,-0.116979,-0.601201,0.684486,-0.412353
-0.095035,-0.082241,0.452153,0.121069,0.390196,0.912737
0.451600,0.821558,0.506154,0.945677,-0.279854,0.165459
0.172773,-0.068794,0.434632,0.172582,0.563849,0.807645
-0.088571,0.658381,0.053600,0.107857,0.917674,0.382416
-0.376650,-0.200213,0.766001,-0.611799,0.359496,0.704602
0.394923,-0.357458,0.630607,-0.448439,0.879980,-0.156646
0.192440,0.456646,0.448636,0.909982,0.189098,-0.369019
0.104520,0.485437,0.443639,0.673396,0.462235,-0.576955
0.515576,0.301774,0.306518,-0.476875,0.334193,-0.812961
0.230054,-0.271203,0.780993,-0.258428,0.884401,-0.388650
0.423656,-0.512606,0.699497,0.719080,-0.694873,-0.008708
0.207364,0.449328,0.199276,0.136386,-0.556361,0.819671
0.299703,-0.253999,0.356632,0.898719,0.428798,0.091854
0.549284,-0.061913,0.636756,0.860762,0.013142,-0.508837
-0.160545,0.032291,0.951037,0.307903,0.869397,-0.386451
0.146968,0.039806,0.118110,0.936468,0.269132,0.224933
-0.042449,-0.158569,-0.001820,0.911772,-0.376055,0.165089
-0.206621,-0.029365,0.838469,0.081599,-0.949200,0.303908
0.171517,-0.062071,0.766947,-0.525075,0.724425,0.446659
0.328250,-0.456131,0.191174,-0.533724,-0.025788,0.845265
0.476706,0.099682,0.819900,-0.485156,-0.844257,0.227713
0.196438,-0.345593,0.771430,0.667295,-0.452935,0.591243
0.441092,-0.382966,0.654708,-0.048238,-0.850789,0.523289
-0.106425,-0.646398,0.420175,0.894444,0.321995,-0.310306
0.330947,0.497815,0.579177,-0.522111,0.766117,-0.374786
-0.249070,-0.084297,0.430478,-0.333925,0.114783,-0.935585
0.191138,0.200411,0.866231,0.573523,-0.692523,-0.437587
0.387298,0.366198,0.242708,-0.186138,-0.909040,0.372825
0.357216,0.717546,0.438087,-0.385310,0.780967,-0.491556
0.355449,-0.020427,0.882723,0.956539,-0.269935,-0.110308
0.307421,0.285124,0.451865,0.252958,0.732601,-0.631909
0.394690,-0.243321,0.737705,0.771305,0.630590,0.086282
-0.466617,-0.345158,0.334937,-0.287386,0.522660,0.802643
-0.102753,-0.709043,0.320933,-0.088977,0.610361,0.787110
0.249024,0.461312,0.264649,0.711158,0.546953,0.441698
0.539334,-0.120286,0.491862,0.248080,-0.894596,0.371692
0.612052,-0.415475,0.678172,-0.453420,0.432353,0.779411
-0.199321,0.102015,0.152801,-0.052513,-0.988107,0.144521
0.410545,0.768128,0.412772,-0.579554,-0.802580,0.141360
0.339781,0.036918,0.867321,-0.560059,0.475873,0.678144
-0.281662,0.437346,0.075172,0.434215,0.404720,0.804773
0.436722,-0.361690,0.033859,0.864435,-0.094488,-0.493785
-0.507067,0.069941,0.648786,0.671855,-0.734647,0.094365
0.655988,0.412034,0.519006,-0.097586,-0.363603,0.926429
0.441092,0.048467,0.842849,-0.461534,-0.179683,-0.868735
0.435699,-0.539341,0.328192,0.967334,0.160256,0.196427
0.128510,-0.400368,0.672188,0.028432,0.967116,0.252741
0.383997,0.175851,-0.959262,-0.610446,-0.196427,-0.767315
-0.063186,0.244350,-0.044696,0.788508,0.497055,0.362203
0.103636,0.054122,0.119755,0.620798,0.400336,0.674048
0.347917,0.342232,0.785907,0.513585,0.137889,-0.846887
0.357681,0.140654,0.290642,0.549590,-0.234427,-0.801870
0.280733,-0.773585,0.183092,-0.214757,0.960490,-0.177024
-0.723731,-0.123727,0.241330,-0.377483,-0.713644,-0.590101
0.522643,0.332186,0.737602,-0.460653,0.050721,-0.886130
0.840943,0.322813,0.705872,0.911691,0.408857,-0.040688
0.123675,0.039489,0.479503,0.932897,-0.354244,-0.064921
0.140971,0.128196,-0.517176,0.924074,0.334792,0.184398
0.459689,0.731822,0.407981,-0.454444,0.878422,0.147835
-0.317091,-0.403136,0.516847,0.858296,0.122465,-0.498327
0.150363,0.560539,0.013356,-0.695160,0.384764,0.607214
-0.375860,-0.370984,-0.059482,0.163419,0.979936,-0.114100
0.510833,-0.425283,0.656559,0.790589,0.128796,-0.598649
-0.074856,-0.066461,0.868513,0.957918,-0.203596,-0.202342
-0.319974,0.326254,0.013459,0.491452,0.258065,0.831792
-0.143249,0.321113,0.660508,0.897546,-0.416252,-0.145415
0.452064,-0.325305,0.538625,0.760522,0.641396,-0.101083
0.312488,0.585019,0.630669,0.094135,-0.978569,0.183141
0.203366,0.177671,-0.683025,0.833877,-0.549692,0.049879
0.219221,0.098891,0.894712,0.939056,0.333695,0.082597
-0.049238,-0.269740,0.464059,-0.461119,-0.595423,-0.657906
0.371118,-0.022562,0.948096,-0.417492,0.898977,0.132442
0.066115,-0.066580,0.481621,-0.270947,0.232957,0.933980
-0.094430,-0.553262,0.524970,0.021031,-0.971734,0.235141
-0.190022,0.586245,0.362616,0.692561,0.539926,0.478371
0.055653,-0.022879,0.851630,-0.686855,0.658737,0.307076
0.278966,0.865654,0.412320,0.372412,0.899256,0.229452
-0.001209,0.433589,-0.121215,-0.715477,-0.450995,-0.533570
0.530454,0.114235,0.336048,-0.077408,0.952515,0.294489
0.492375,-0.506911,0.093495,0.627807,-0.196247,-0.753224
-0.500465,-0.080145,0.693143,0.422715,-0.308136,0.852270
0.407011,-0.311147,0.843528,0.908647,0.297649,-0.292857
0.003766,-0.000613,0.628469,0.548232,0.810195,0.207428
-0.480565,-0.426312,0.203739,-0.264248,0.897721,0.352520
-0.412823,-0.307667,0.461160,-0.261443,0.886964,-0.380714
-0.286126,0.466533,0.004041,0.203965,0.627061,0.751793
0.361075,-0.362164,0.687549,-0.196403,-0.978794,0.058201
-0.091361,0.252378,0.498668,0.916398,-0.386389,-0.104495
0.263390,-0.194835,0.784242,0.349632,0.002828,0.936883
0.333829,-0.086947,0.264485,0.726739,0.595112,0.343062
0.010182,0.736608,0.230061,0.171961,0.270217,0.947318
0.059094,-0.002788,0.286838,0.990799,-0.111249,0.077072
0.258137,-0.208796,0.345425,0.951544,-0.012677,0.307250
0.363446,0.034308,0.739494,0.182352,0.854979,0.485550
0.180630,-0.148524,0.787511,0.470858,0.279056,0.836911
0.675656,0.542267,0.504776,-0.066752,0.879766,0.470698
-0.468849,0.590634,0.001409,0.614066,0.413543,0.672239
0.194021,-0.099207,0.291979,-0.661968,0.045655,0.748140
0.204156,-0.465188,0.699065,0.509710,0.133962,-0.849853
-0.487167,-0.528386,0.285995,-0.423837,0.825805,0.372032
0.084527,-0.500979,0.608871,-0.454756,0.699405,0.551389
0.324438,0.205196,0.809124,0.200297,-0.603890,0.771491
0.274596,0.361254,0.787203,0.510185,0.650725,0.562377
0.074019,0.024026,-0.158765,0.876679,-0.481060,0.003898
-0.326669,0.328706,-0.371829,-0.399765,-0.048236,0.915348
-0.482518,-0.688201,0.285954,-0.576495,-0.816360,0.034784
0.321322,0.591822,-0.010539,0.434630,-0.282480,-0.855162
-0.297889,-0.116332,0.496859,-0.385961,-0.511267,0.767881
-0.722429,-0.166637,0.245175,0.459488,0.660118,0.594234
-0.190720,0.607641,0.372775,0.793829,0.384545,0.471127
0.231635,0.174665,0.816918,0.608268,0.622727,0.492159
0.041473,0.284531,-0.839847,0.998769,-0.009133,0.048753
0.225079,0.588025,0.497147,0.913543,0.071837,0.400349
0.082853,0.277886,0.515017,0.537126,-0.015371,-0.843362
0.171936,0.008799,-0.007228,-0.624486,-0.749916,0.218275
0.302957,-0.730636,0.352643,-0.128836,-0.989283,0.068698
0.035987,0.598742,0.125328,-0.180427,0.611317,0.770544
0.236331,-0.229677,0.181673,0.723329,0.516942,0.457785
-0.274921,0.047952,-0.063677,0.069394,0.539360,-0.839211
-0.062070,0.438730,-0.116629,0.918266,0.328576,0.220963
0.436815,-0.473295,0.669515,0.533701,-0.786720,-0.310217
-0.537800,-0.273655,0.288771,-0.385601,0.404193,-0.829422
0.034034,0.258112,0.363336,0.356084,-0.041584,0.933528
0.002139,-0.382610,-0.040234,-0.229336,-0.217303,0.948780
0.322020,-0.343181,0.248054,0.348679,0.825706,0.443433
0.627162,0.849321,0.459494,-0.689918,-0.638728,0.340645
0.195276,0.309604,0.758495,0.820974,0.298447,-0.486757
0.123814,-0.675150,0.173119,-0.204797,-0.352554,0.913107
0.692626,0.292836,0.730343,-0.340759,0.718418,-0.606431
-0.420262,-0.702794,0.206782,0.816105,-0.420051,0.396900
0.147387,-0.035732,0.106984,0.704476,0.707284,-0.058845
-0.068951,-0.009432,0.880338,-0.035701,0.784840,0.618669
0.296262,-0.399300,0.187472,-0.006860,0.192975,0.981180
0.024735,-0.041111,0.858087,0.439076,0.606864,0.662516
-0.512693,-0.203101,0.550243,-0.556071,0.356892,-0.750609
0.518644,0.731150,0.495419,0.151961,-0.672728,0.724116
0.169704,0.624528,0.507100,-0.000385,0.778165,0.628060
-0.119908,0.040320,0.850499,-0.083286,-0.986519,0.140871
-0.126929,-0.089637,0.555076,0.528848,0.762584,0.372539
0.096848,0.013625,0.202792,-0.371045,0.923996,-0.092509
-0.419053,0.695833,-0.012287,0.300792,0.447603,0.842125
-0.267993,-0.581064,0.304543,-0.098716,-0.976355,0.192317
0.294681,0.361729,-0.977030,0.076795,0.115429,0.990343
-0.016552,-0.048744,0.233597,-0.191630,0.809364,0.555165
0.351683,-0.777540,0.231952,0.256233,0.935118,-0.244741
-0.005068,0.559036,0.202217,0.744818,0.655238,-0.126133
-0.064581,-0.540725,0.076056,0.784986,0.105673,-0.610434
0.406035,0.885546,0.365681,0.083470,-0.084095,0.992956
0.081040,-0.190919,0.364529,0.241596,0.804703,0.542295
0.272550,-0.222281,0.427784,0.904820,-0.078564,-0.418484
0.335735,0.648256,0.405595,0.562071,0.695379,0.447801
0.322067,0.303158,0.451227,-0.150781,-0.752195,0.641458
-0.459829,-0.236044,0.474382,-0.024199,-0.976446,0.214401
-0.139344,-0.036562,0.759359,-0.103369,0.874912,0.473120
0.211968,0.127286,0.865573,0.967543,-0.151034,-0.202604
0.103868,0.669020,0.524517,0.527797,-0.842602,-0.107017
-0.280222,0.376164,0.699518,0.008649,0.500680,0.865589
0.034452,0.728659,0.196500,-0.178843,0.059998,0.982047
0.808815,0.000732,0.599186,0.627466,0.199682,-0.752604
-0.444625,-0.521307,0.285748,0.645180,-0.564689,-0.514654
0.141668,0.604516,0.550922,-0.332413,-0.724608,0.603693
0.400223,0.265745,-0.978099,0.263187,0.119846,0.957272
0.346430,0.692670,0.358072,0.794076,0.270220,0.544449
0.454017,-0.198513,0.650863,-0.810799,0.584721,-0.026570
0.336991,-0.103123,0.883690,-0.703644,-0.592856,-0.391673
0.346337,-0.163355,0.339194,0.108211,0.208780,0.971957
-0.318625,0.167151,0.253503,-0.777480,0.358533,0.516700
0.012786,0.322102,0.814121,0.750838,-0.516623,-0.411513
-0.011902,-0.691325,0.314538,0.252623,0.162020,0.953903
0.070532,0.032054,-0.132525,0.876887,-0.468108,-0.109294
0.306026,0.436990,0.579938,0.925807,-0.250015,-0.283504
0.042542,0.203496,0.505825,0.961903,-0.272729,-0.019022
0.074484,-0.161456,0.805731,-0.566306,0.753138,-0.334784
-0.005626,0.563782,0.179123,0.745046,0.562842,0.357932
-0.510368,-0.096083,0.563918,-0.611998,-0.745257,0.264671
0.181328,0.843745,0.452913,0.888270,-0.111129,-0.445676
0.648270,0.176762,0.663284,0.854305,0.116748,-0.506490
0.162451,0.073658,0.874703,-0.609030,0.793099,-0.008724
-0.301470,0.946095,-0.128022,-0.384392,-0.907373,-0.170052
0.049889,0.182338,0.086955,-0.390176,-0.467148,0.793433
0.052167,0.182931,-0.806883,0.908434,0.007987,0.417953
0.292775,0.564810,0.639224,-0.123749,-0.815119,0.565922
0.263297,-0.163315,0.854365,0.906387,-0.072157,0.416241
0.597127,0.511183,0.283301,0.771130,-0.161606,-0.615827
0.392552,0.506753,0.583331,-0.372529,0.897587,-0.235709
-0.066859,0.515731,-0.164132,0.808488,0.578156,0.109923
-0.556723,0.604952,0.029725,0.700556,0.599202,0.387529
0.169332,0.164304,-0.661742,0.842941,-0.524088,-0.121583
0.511531,-0.057642,0.633939,-0.679266,-0.090914,0.728239
0.475591,0.068004,-0.983055,-0.370064,0.013553,-0.928907
-0.431607,-0.256491,0.289758,0.451221,-0.635342,0.626689
0.049144,0.375927,0.730405,-0.482294,-0.429531,-0.763476
0.275340,0.597358,0.663366,0.087760,0.927623,-0.363060
0.377115,0.598544,0.185807,0.799297,-0.592000,-0.103250
0.249443,-0.101026,0.768037,0.378190,0.496312,0.781439
-0.322671,-0.547725,0.101432,-0.199382,0.134713,0.970618
0.172355,0.174507,-0.656086,0.888316,-0.452652,-0.077467
-0.007206,0.393328,-0.109082,0.810414,0.235673,0.536364
-0.061652,-0.279943,0.477405,-0.365567,0.892162,0.265343
0.218570,0.748591,0.463710,-0.085790,-0.361841,0.928284
0.012833,0.263373,0.361794,0.337053,-0.107140,0.935370
0.040683,-0.021297,0.348818,0.900484,-0.428916,0.071838
0.101730,0.028376,0.181817,-0.279266,0.953769,-0.111063
-0.691185,-0.178462,0.269276,0.112364,0.069445,0.991237
0.185373,0.305966,0.379705,0.982439,0.171607,-0.073238
-0.193416,-0.407961,0.656086,0.451106,0.862764,0.228346
0.319881,0.159281,0.708792,-0.598571,-0.030256,0.800498
0.100753,0.465623,0.247170,-0.411415,0.780537,-0.470636
-0.483169,-0.093236,0.628983,-0.139158,0.815593,0.561643
0.208573,-0.313124,0.440719,-0.712513,0.378197,0.591010
0.894179,0.229598,0.514174,-0.426526,0.325884,-0.843727
-0.320486,0.700500,-0.040007,-0.745330,0.450730,-0.491248
0.544309,0.524115,0.491265,-0.219751,0.960585,-0.170254
-0.243258,-0.341520,-0.021829,0.461299,-0.777702,0.427063
-0.088757,0.469736,0.027443,0.959505,-0.273073,0.069144
-0.003208,-0.499990,0.370513,0.491345,0.823493,0.283618
-0.334852,-0.051868,0.505475,-0.151181,-0.348880,0.924893
-0.101637,-0.071721,0.792365,0.126691,0.820742,0.557074
0.705552,0.702953,0.403518,0.849095,-0.495935,0.181896
-0.045936,-0.205988,-0.125349,0.915449,-0.393163,-0.085888
0.149665,-0.056455,0.890455,0.743879,0.643259,-0.181277
-0.307839,-0.255937,0.800960,0.878563,0.476972,0.025005
-0.184489,-0.250954,0.851363,0.888368,0.403932,0.218269
0.555189,0.349865,0.522872,0.846908,-0.113477,-0.519489
-0.067835,-0.254039,0.680085,0.907229,0.410297,-0.092695
0.219872,0.234621,0.823663,0.978351,-0.008826,0.206766
0.753534,-0.042693,0.753478,0.144910,-0.648684,0.747135
0.305840,0.243756,-0.964054,0.314988,0.264768,0.911417
0.385113,0.206265,-0.971560,0.414926,0.134299,0.899889
-0.050958,-0.569279,0.423013,-0.344806,-0.266101,-0.900166
0.190952,0.762235,0.483739,-0.917730,0.088775,0.387157
0.271388,0.382057,0.773034,-0.335209,-0.659208,0.673112
-0.440953,-0.136896,0.152966,0.028707,0.592839,0.804809
0.389809,-0.365091,0.660549,-0.222443,-0.969364,-0.104177
0.031756,0.576121,0.122901,-0.612093,0.514708,0.600349
0.065696,-0.304345,0.752223,0.699681,-0.265293,-0.663375
0.079924,-0.161021,0.795840,-0.081461,-0.699771,0.709708
0.142645,0.327678,0.831333,-0.513394,-0.309430,0.800425
-0.096382,-0.436238,0.605170,0.938912,-0.139884,-0.314447
-0.141622,0.304384,-0.330475,-0.376491,-0.093032,0.921737
0.492049,0.491013,0.631265,0.441545,0.692687,0.570284
0.674865,0.049100,0.724709,0.652640,-0.172827,-0.737693
0.177888,0.038105,0.178486,0.799113,0.414511,-0.435430
0.654919,0.657867,0.497723,0.154434,-0.951846,-0.264839
-0.734006,-0.005398,-0.045745,0.275566,-0.421444,0.863972
0.224289,-0.097388,0.779471,0.904618,0.393054,-0.164850
0.197880,-0.129778,0.766618,-0.333213,0.868803,0.366266
-0.028920,-0.327401,0.731186,-0.007404,-0.518682,0.854935
0.450716,-0.399854,0.659068,-0.114564,-0.734425,0.668951
0.103078,-0.377549,0.655058,0.187042,-0.309741,-0.932242
-0.180630,-0.275514,0.853214,0.946860,0.317851,-0.049255
0.267993,-0.499437,0.672332,-0.121096,0.142592,0.982346
0.443417,-0.902474,0.206617,0.054610,0.500541,0.863989
0.466850,-0.449843,0.626844,-0.519981,0.824725,0.222368
0.361400,-0.169801,0.681606,-0.317139,0.476096,0.820216
0.234797,0.143541,0.089896,-0.110461,-0.816250,0.567040
-0.014320,-0.477645,0.478228,0.843953,0.070354,-0.531783
0.472010,0.230072,0.708833,0.392024,-0.918755,0.046977
0.407290,0.279983,-0.980978,0.292830,0.251254,0.922563
0.122745,0.173875,0.856216,-0.071660,0.631933,0.771703
0.301655,-0.485080,0.190948,0.225482,-0.002792,-0.974243
-0.798773,-0.157462,0.301829,-0.541506,-0.381402,-0.749202
-0.828017,0.384271,0.021109,-0.450502,-0.660326,-0.600847
0.476939,-0.091574,0.835837,0.982784,-0.131340,-0.129943
0.512879,-0.091653,0.244805,0.536217,0.606974,0.586561
0.260880,0.516205,0.235119,0.806274,0.577084,0.129988
-0.023573,0.487770,0.533936,0.879253,0.266339,0.394939
0.157383,0.020071,0.005048,0.252967,0.921584,-0.294432
0.109261,0.248463,-0.810009,0.989044,-0.014584,-0.146897
0.133160,-0.734986,0.444749,0.864060,-0.472153,0.174563
0.515994,-0.302565,0.729644,0.778152,-0.569965,0.263856
0.318951,-0.152953,-0.055266,-0.517742,-0.629872,0.578968
-0.053562,-0.068597,0.943367,0.964368,0.067236,0.255879
-0.314999,-0.071840,0.147681,0.280543,-0.638189,-0.716946
0.357263,0.294972,0.816425,0.863995,-0.345418,0.366332
0.019388,0.231773,0.627831,0.981574,-0.112777,-0.154252
0.326344,-0.755077,0.229032,0.495645,0.767793,-0.405992
-0.247768,-0.343576,0.722920,-0.381191,0.820704,0.425603
0.136368,0.109094,-0.459864,0.975381,0.191797,0.108837
-0.092524,0.029840,0.909148,0.088849,0.969491,0.228459
0.071927,-0.763224,0.311803,0.115294,-0.166716,0.979241
0.517157,-0.085207,0.748357,0.324698,0.930933,-0.167136
0.028780,0.111506,0.760017,0.767345,0.627611,0.131475
0.178167,-0.025173,0.858951,-0.091388,-0.962123,0.256843
-0.134322,-0.244864,0.886712,0.310380,-0.948254,-0.066915
-0.074437,0.473928,0.388877,0.754200,0.180899,0.631235
0.483960,-0.051631,0.634844,0.648699,0.060621,-0.758627
0.048215,-0.385379,0.166641,0.828144,-0.142504,-0.542098
-0.518365,0.024816,0.676753,-0.463319,0.701718,0.541229
0.074298,0.547883,0.178712,0.577156,0.643091,0.503314
-0.043565,0.838287,-0.090657,-0.165574,-0.438942,0.883128
0.384741,-0.531629,0.203985,-0.441673,0.144889,0.885399
0.389250,0.023630,0.481600,0.442889,0.597325,-0.668620
0.455040,-0.332582,0.691128,0.814289,-0.076681,-0.575372
0.043332,0.553182,0.259015,-0.258920,0.330276,0.907677
0.048122,0.703150,-0.105792,0.704707,0.546269,-0.452746
0.490934,-0.063416,0.383325,-0.342773,0.731927,0.588888
-0.100428,0.278954,0.840834,-0.221709,-0.574563,0.787860
-0.483401,-0.404955,0.181365,0.210535,-0.102813,-0.972165
-0.732797,-0.388385,0.165695,-0.229602,0.964267,-0.132184
0.446160,0.436752,-0.999445,0.214739,0.228613,0.949538
-0.084015,-0.236242,-0.002170,0.860025,-0.024692,0.509654
-0.122233,-0.363153,0.714982,0.341992,0.925735,-0.161420
0.614794,-0.293468,0.728287,0.074511,-0.928226,0.364480
0.201507,0.041664,0.255395,0.330634,0.891685,-0.309159
0.421146,-0.618833,0.248527,-0.436678,-0.478076,-0.762074
-0.161195,-0.339424,0.703425,0.391864,0.876676,-0.279075
0.571695,0.066026,0.415487,-0.252370,0.062704,0.965597
0.644319,0.345039,0.284453,-0.299831,0.076057,-0.950956
-0.118560,0.288367,0.427763,-0.687646,-0.261814,-0.677197
-0.037474,0.505487,0.784488,0.599486,0.715465,-0.358783
-0.040171,0.310553,0.368580,-0.423432,0.307584,-0.852113
0.093826,0.031975,-0.183647,-0.771893,0.635547,-0.016148
0.329319,0.795772,0.432719,0.307246,0.653771,0.691508
-0.570578,-0.268316,0.319124,0.038321,0.041561,0.998401
0.409848,-0.063139,0.581974,-0.016790,0.928020,0.372152
0.190813,-0.392221,0.660199,-0.091261,-0.995822,0.003023
0.427236,-0.219790,0.371706,0.787468,0.616302,-0.008095
0.040962,0.764924,0.201168,-0.091689,-0.035723,0.995147
-0.454714,-0.021257,0.615658,0.707985,-0.068198,0.702927
-0.218151,-0.334717,0.574694,-0.136050,0.800435,0.583776
0.085782,-0.024223,0.069023,-0.585375,0.722013,0.368825
-0.307049,0.554883,0.046793,-0.145571,-0.845004,-0.514566
-0.285754,0.002195,0.906701,0.465890,0.751683,-0.466818
0.530872,-0.123529,0.852885,-0.069426,-0.991372,0.111181
0.163102,0.194558,0.346063,0.887471,-0.426058,0.175700
-0.100288,0.319926,0.391632,0.781539,-0.247037,0.572861
-0.235215,-0.200728,0.856607,0.704830,0.681361,-0.197386
0.514367,0.443594,0.358915,0.949544,0.005053,-0.313594
0.442254,-0.223824,0.679365,0.816271,-0.547842,0.183223
0.328204,0.561409,0.162302,-0.494552,0.506200,0.706527
-0.137762,0.634494,-0.345076,-0.574372,-0.379925,0.725089
0.059048,0.136185,0.540989,0.796806,0.575439,-0.184309
0.127069,0.553460,0.031000,0.761406,-0.375985,-0.528106
-0.109355,0.525222,0.398953,0.845975,0.339103,0.411504
0.199136,0.190168,0.728020,0.441977,0.639971,-0.628565
-0.011531,0.624053,0.087572,-0.740932,0.647859,0.176913
0.276409,-0.288169,0.199975,0.989856,0.119630,0.076640
