0.484043,-0.666997,0.662960,0.199725,-0.972806,-0.117293
0.405408,-0.254650,-0.965851,0.041964,0.106200,0.993459
0.284378,0.067605,0.429315,0.930551,-0.324102,-0.170389
-0.866571,0.012909,0.309374,0.777258,-0.508597,0.370403
0.336134,-0.678908,-0.957009,-0.135153,0.074604,0.988012
0.501241,-0.393746,0.534908,0.472861,0.435127,-0.766203
0.326614,-0.291318,0.830802,0.864226,0.025711,0.502446
-0.301015,0.628856,0.142888,0.665393,0.134798,-0.734222
0.472283,0.598929,0.792557,0.072195,0.994121,0.080688
0.697546,-0.548130,-0.938836,-0.186952,0.169937,0.967559
0.144070,-0.319245,0.242677,0.476183,-0.817613,0.323664
-0.201823,-0.301648,0.181540,0.685105,0.318103,0.655318
0.419167,-0.325780,0.775822,-0.510942,-0.762705,0.396510
0.111672,-0.668791,-0.966909,-0.262997,-0.050041,0.963498
-0.198223,0.294483,0.425572,0.583859,0.386840,0.713767
-0.546037,0.468047,0.197976,-0.684876,-0.478485,-0.549542
-0.063114,-0.482164,-0.008435,-0.655113,0.690724,-0.306149
0.529718,-0.294483,-0.958528,-0.088755,0.078087,0.992988
0.352774,0.379319,0.516762,-0.799942,0.400180,-0.447155
-0.385249,-0.671216,0.462433,-0.120475,0.936815,0.328425
0.110313,-0.340953,-0.254286,0.519127,-0.702533,0.486779
0.220943,0.100479,0.830775,0.986197,0.133777,-0.097571
0.132391,-0.153059,0.105729,0.720128,0.693824,0.004799
0.136629,-0.343693,0.248020,0.717033,-0.683939,0.134503
-0.139748,-0.535060,0.348622,0.349011,0.738814,0.576494
-0.220701,0.593976,0.599246,-0.168514,-0.086894,0.981862
-0.297736,-0.031979,-0.085304,0.475552,-0.306552,0.824546
0.681466,-0.605772,-0.940111,-0.242499,0.062323,0.968148
0.272619,-0.735387,0.685364,0.984398,0.096816,0.146929
-0.012798,-0.329575,0.746203,-0.538675,-0.465720,-0.702092
-0.328212,0.242745,0.506700,0.123068,0.977900,-0.169011
0.388210,-0.286578,-0.966746,0.004817,0.048618,0.998806
-0.256858,0.180253,0.612537,0.537114,-0.825620,0.172800
-0.157747,-0.010484,0.605403,-0.160678,-0.930072,0.330377
-0.327893,-0.504605,0.422616,0.181438,0.739830,0.647867
-0.388288,0.182253,0.665048,-0.307621,0.912134,-0.270891
0.143349,-0.319348,0.801590,-0.377380,0.723791,0.577677
-0.496600,0.141051,0.517685,-0.599790,0.111446,-0.792358
0.224222,-0.556774,0.607356,0.881097,-0.085250,-0.465189
0.236062,-0.299538,0.962488,0.832161,0.543352,0.110805
0.421086,0.268035,0.812466,0.597504,-0.330377,-0.730644
0.239182,0.256863,0.821553,0.509067,0.457156,0.729287
-0.252459,0.522737,0.146984,-0.788498,-0.597245,0.146865
-0.136148,-0.632644,0.438239,-0.190135,-0.972833,0.132080
0.206225,-0.062646,0.899208,-0.560094,0.307641,-0.769189
0.420928,0.237162,0.879163,-0.225167,0.968130,-0.109651
0.450286,-0.356653,0.808072,0.523507,0.563756,-0.638843
0.218224,-0.318505,-0.039329,0.926114,0.374009,-0.049294
0.146069,-0.441592,0.792150,0.940964,-0.337462,0.026575
0.247902,0.203331,0.847727,-0.084368,0.883030,0.461672
-0.069993,0.494604,0.469133,-0.109910,0.961902,0.250329
-0.567874,0.203967,0.538841,0.873595,0.177373,0.453178
-0.159346,0.481746,0.363920,-0.688644,0.353854,-0.632895
-0.477961,-0.028821,0.475995,-0.646078,0.752828,-0.125830
0.515800,0.218085,0.588152,-0.127740,-0.480955,-0.867390
-0.127909,-0.539807,0.031762,-0.036667,0.954488,0.295987
0.250301,-0.681121,0.476891,-0.210886,-0.977471,0.008844
0.236621,0.509249,0.417734,0.100434,-0.432574,0.895987
0.640990,-0.225141,0.343116,-0.197163,-0.583254,0.787999
0.123910,0.390382,0.320522,-0.055705,-0.719448,0.692309
-0.057194,-0.331890,0.160844,-0.177401,-0.983510,0.035159
-0.773697,-0.775116,0.278480,0.813091,0.369370,0.449943
0.419726,-0.804516,-0.946810,-0.280804,0.183278,0.942103
-0.347012,-0.060749,0.439704,0.067775,0.450345,0.890279
-0.327734,-0.216709,0.476511,-0.704786,0.315777,-0.635265
0.619791,-0.559089,0.683167,0.970491,0.198956,0.136252
-0.112311,-0.451497,0.594011,0.131535,0.988064,-0.080171
-0.160067,0.641289,0.366388,-0.326594,-0.768430,0.550320
0.314935,-0.679114,0.479739,-0.497201,0.800280,-0.335175
-0.164388,-0.113439,0.074645,0.975733,0.136731,-0.171023
-0.420126,-0.509455,0.386867,0.227306,-0.964816,0.132148
0.062235,0.802208,0.454324,0.102468,-0.252999,0.962025
0.245260,-0.250643,0.714956,0.201779,0.820233,-0.535259
-0.592432,0.221983,0.224883,-0.640825,-0.056839,-0.765580
-0.128389,0.570789,0.352474,0.377492,-0.436529,0.816665
0.307655,-0.232518,0.813768,0.323992,0.923173,-0.206834
-0.329174,0.169717,0.653656,-0.597590,-0.483056,-0.639956
0.245980,-0.384053,-0.625420,0.897207,0.432378,0.089824
0.822495,0.207653,0.692253,0.973444,-0.220959,0.059861
0.059916,-0.710309,-0.970842,-0.187925,0.004695,0.982172
-0.305255,-0.616732,0.505072,0.659976,0.364096,-0.657165
-0.354770,0.253705,0.191440,0.249416,-0.900385,0.356508
0.042398,0.149695,0.566616,0.905445,0.379203,-0.190723
0.257181,-0.646659,-0.955924,-0.110430,-0.262631,0.958556
-0.025517,0.160758,0.486736,-0.144011,-0.851942,0.503444
0.572275,-0.278043,-0.957687,0.256423,-0.118221,-0.959308
-0.059916,-0.462560,0.642834,0.817485,0.574562,-0.039969
-0.204782,-0.047364,0.602013,0.132047,-0.726562,0.674294
0.163829,-0.301648,0.607085,0.370765,0.922021,-0.111403
0.349493,0.021553,0.695590,0.970166,0.237551,-0.048441
0.143349,-0.114809,0.257269,0.802086,-0.576062,0.157517
0.045838,0.446867,0.677091,-0.588021,-0.608996,-0.532311
0.521401,-0.127453,0.555956,-0.075306,-0.536403,0.840596
0.609072,-0.157490,0.677905,0.247959,0.919719,-0.304356
0.015039,0.797358,0.457633,0.740221,-0.207980,0.639388
0.081594,0.098163,0.856759,0.489218,0.601716,-0.631350
0.079114,-0.032616,0.332890,0.988566,-0.138473,0.059681
-0.522599,0.185102,0.528399,0.535039,0.014561,0.844702
0.470123,0.508091,0.671802,-0.139527,-0.968251,0.207420
0.058317,0.187843,0.932028,0.385351,0.911440,-0.144158
0.098473,-0.243375,-0.242053,-0.443376,0.878076,-0.180002
0.492282,-0.671949,-0.946132,0.024609,0.061913,0.997778
0.629390,-0.532744,0.649343,0.719550,-0.575034,-0.389338
0.530919,-0.437482,0.583026,-0.669951,0.611995,0.420272
-0.252620,-0.042836,-0.096235,-0.569622,-0.806274,0.159541
0.764980,-0.502714,-0.937724,-0.270723,0.001508,0.962656
-0.182306,0.001743,0.620321,-0.135246,0.250942,-0.958508
0.031117,0.133995,0.865981,0.545740,0.837693,0.020940
-0.140469,-0.048001,0.571553,0.950409,-0.245193,-0.191318
0.364372,-0.452867,0.905365,0.399567,0.894116,-0.202243
0.022800,-0.568892,0.084057,-0.645137,-0.581664,0.495444
0.111911,-0.586174,-0.970896,-0.111065,0.288892,0.950897
0.370292,-0.387217,-0.959043,-0.062673,0.224793,0.972389
0.321814,-0.207755,-0.419985,-0.529788,0.847870,-0.020987
0.257581,-0.187418,0.976755,0.555524,-0.451883,-0.697994
-0.167107,0.476794,0.365737,-0.703505,0.379416,-0.600936
-0.310294,0.244745,0.235651,0.991357,0.106825,-0.076157
0.217662,-0.187418,0.922968,0.229328,-0.787107,0.572601
0.557396,-0.524209,-0.951448,-0.184048,0.183649,0.965608
0.584913,-0.351070,0.494711,-0.734522,0.654941,-0.177565
0.367092,-0.140208,-0.251248,-0.211202,0.939400,-0.270039
0.455964,-0.701349,0.245335,0.585408,-0.070146,-0.807699
-0.453483,0.107123,0.243735,0.294518,0.942982,0.155061
0.085514,-0.758574,-0.970028,0.162159,-0.015684,-0.986640
0.576674,0.434222,0.449631,0.752536,0.445389,-0.485096
0.755539,0.617369,0.648096,0.704494,0.532107,0.469629
0.724182,-0.374572,0.340376,-0.048496,0.872722,0.485803
0.587875,0.031773,0.553515,0.938774,-0.330806,-0.096288
-0.422446,0.043891,0.511880,-0.146882,-0.159901,0.976144
0.287418,0.162868,0.738635,0.645557,0.654057,-0.394291
-0.446765,0.136523,0.679234,-0.436118,0.849138,-0.297935
-0.210463,0.167293,0.610638,0.912498,0.364117,-0.186456
-0.136548,-0.546972,0.712705,-0.284274,-0.523453,-0.803234
0.146789,-0.327041,0.158322,0.332587,0.940605,-0.068173
-0.719143,-0.376463,0.321146,-0.650970,0.051412,-0.757361
0.371491,-0.124083,-0.220761,0.189813,-0.951509,0.242078
0.371810,-0.600820,0.325187,0.447711,0.811510,0.375509
0.221822,-0.042309,0.647065,-0.718342,0.541088,0.437274
-0.411646,-0.552767,0.454351,0.428450,0.273932,0.861041
0.291419,-0.432948,0.864435,-0.198807,0.214316,-0.956318
-0.648348,-0.865426,0.142590,-0.447230,0.863143,-0.234458
0.373170,-0.794611,-0.950879,-0.154225,0.150781,0.976463
0.016160,0.185102,0.629950,-0.569122,-0.769457,0.289888
0.541399,0.295962,0.177064,0.901660,-0.391909,0.182802
0.013121,0.743826,0.729983,-0.272461,0.826277,0.492982
0.098153,-0.457505,0.809699,0.974001,0.169425,0.150390
0.528438,-0.512619,0.856244,0.647309,0.522186,-0.555260
-0.528516,-0.353386,0.288950,-0.365433,0.799622,0.476511
-0.520758,-0.122186,0.269963,0.538083,-0.108954,0.835820
-0.591311,-0.434633,0.303407,0.917440,0.396135,-0.037148
-0.426366,0.321040,0.400402,0.085164,0.807127,0.584203
0.461884,-0.130618,0.551210,-0.546833,-0.288054,0.786129
0.193665,0.093108,0.821851,0.877182,-0.127431,0.462940
0.019519,0.262028,0.822583,0.765572,0.523042,-0.374603
-0.558995,0.045261,0.519692,0.811595,-0.378561,-0.444977
-0.238219,-0.296907,0.395248,-0.730509,0.526744,-0.434623
0.573396,-0.802941,0.299447,0.824507,-0.553938,-0.115506
0.692505,-0.469307,-0.939297,-0.138968,-0.048428,0.989112
0.524840,-0.710939,-0.947814,0.022324,0.113072,0.993336
0.387009,-0.328623,0.618449,0.772579,-0.546320,-0.323506
0.317576,0.490179,0.648367,0.948475,-0.112688,0.296136
0.489721,-0.303963,-0.959640,0.149773,-0.011675,-0.988651
-0.120470,0.332843,0.852772,-0.700957,-0.711040,-0.055513
-0.288696,-0.232833,0.459802,0.746558,-0.473518,0.467366
0.546757,-0.745929,-0.942904,-0.064301,0.219263,0.973545
0.121752,-0.302806,0.350657,-0.728151,-0.683456,-0.051805
0.729624,0.121138,0.558696,-0.009294,-0.833411,0.552576
0.359333,-0.358338,0.752197,0.746273,0.598003,-0.292351
-0.052636,0.234738,0.649479,0.026273,-0.871805,0.489148
0.747462,0.424632,0.667137,0.395035,0.895132,-0.206607
0.168948,-0.323773,0.587881,0.791121,0.577431,-0.201745
0.500760,-0.493330,0.471195,0.808031,-0.530535,-0.256162
-0.471162,-0.158860,0.258191,-0.343767,-0.806402,-0.481186
0.044397,-0.309868,0.668520,0.301780,-0.831077,0.467161
-0.285977,-0.613992,0.448004,-0.007251,-0.999130,-0.041068
-0.294455,-0.614204,0.082972,-0.783324,0.452330,-0.426381
0.252860,0.140421,0.429424,0.971387,-0.221217,-0.086431
-0.086793,0.541814,0.706358,-0.061882,-0.345784,0.936271
0.247582,-0.365825,0.896360,0.011783,-0.982347,0.186699
0.401888,-0.059694,-0.145790,0.740096,0.653704,-0.157887
-0.440125,0.232100,0.428176,0.374618,0.814096,0.443744
-0.333813,0.628329,0.348703,-0.130484,-0.530693,0.837460
-0.031757,0.331582,0.836579,0.948925,-0.073236,0.306885
0.167027,-0.343905,0.177579,0.964833,0.261966,-0.021693
-0.472361,-0.465409,0.462433,0.983092,-0.012505,-0.182687
-0.789697,-0.238313,0.352555,0.121069,0.857295,0.500388
0.222222,-0.318403,-0.014918,0.964538,0.247502,-0.091700
-0.475562,-0.033458,0.506076,0.721427,-0.578855,0.380091
0.295737,-0.348858,0.243653,0.210464,0.975874,-0.058103
0.168308,-0.334843,0.632798,-0.676917,-0.677249,-0.288299
-0.248780,0.459196,0.601389,0.608474,-0.013243,0.793464
-0.163987,0.746141,0.381415,-0.222723,0.093331,0.970404
-0.284937,-0.523579,0.423809,0.810181,-0.406417,-0.422412
0.119672,-0.533060,0.781301,0.184391,-0.979306,0.083421
0.397328,0.320197,0.550749,-0.522880,0.797235,0.301682
0.277418,-0.382580,-0.971113,0.364874,-0.144831,-0.919723
-0.078154,-0.532320,0.031762,-0.036667,0.954488,0.295987
-0.467403,-0.199639,0.515759,-0.156549,0.667196,0.728246
0.128790,-0.569207,-0.970055,-0.183131,0.371388,0.910238
0.232141,-0.262233,0.338044,0.348368,0.929382,-0.122020
-0.193345,0.429790,0.556797,0.807426,0.587544,-0.053427
0.035358,0.550664,0.760280,-0.109588,0.846343,-0.521243
-0.643148,0.220195,0.020967,0.489750,-0.360834,0.793690
-0.542995,-0.029664,0.187751,-0.196290,-0.925674,0.323416
0.240060,-0.417460,-0.810812,0.718201,0.690508,-0.085942
0.497801,-0.230621,0.541662,0.031102,-0.080258,0.996289
-0.018637,0.634651,0.730010,0.154809,0.829350,0.536854
0.295576,-0.317033,0.403521,0.390322,0.916092,-0.091781
0.034479,0.088258,0.525659,0.013248,0.886466,0.462603
0.355251,-0.341056,0.623929,0.968221,-0.249677,-0.014470
0.622352,-0.320718,-0.955354,-0.137688,0.194072,0.971277
0.568516,0.513462,0.692362,-0.693008,-0.604343,-0.393076
0.197185,-0.257069,0.430238,-0.680740,0.729882,-0.062179
0.295818,-0.427680,0.611886,-0.187985,0.888005,0.419654
0.306457,-0.629480,-0.958365,0.138635,-0.078877,0.987197
0.222142,-0.317560,0.279945,-0.252514,0.967590,-0.002350
0.315496,-0.294374,0.824346,-0.226979,0.962699,0.147281
0.150788,-0.535169,0.530487,0.930692,-0.256967,-0.260347
0.030959,0.092786,0.591705,0.876918,-0.176595,0.447023
0.310936,-0.513249,-0.938185,-0.682211,0.288018,-0.672037
-0.120309,-0.325992,0.503608,0.664868,0.354590,0.657432
-0.385088,-0.560562,0.494196,0.458150,0.331389,-0.824791
0.019038,-0.244533,0.698682,-0.345311,-0.927902,0.140566
-0.530198,-0.080559,0.460426,-0.361479,0.878426,-0.312570
0.593873,-0.248533,0.378513,0.299366,-0.880955,0.366468
-0.088073,0.393334,0.776853,0.963031,-0.258101,0.077166
0.109431,0.145270,0.864354,0.470593,0.631910,0.615818
-0.156866,-0.359393,0.612320,-0.182536,0.866815,-0.464018
-0.081032,0.408295,0.805278,0.939984,-0.152479,-0.305256
0.556676,-0.239786,-0.955463,-0.249375,-0.073261,0.965632
-0.092152,0.326308,0.762884,0.888184,0.223037,0.401727
-0.261899,-0.611676,0.552403,0.896688,0.411190,0.163933
0.176706,-0.213235,0.017115,0.850967,0.523085,-0.047302
-0.536916,-0.100163,0.277802,0.319423,-0.673196,0.666916
0.214865,-0.233991,-0.160491,0.875622,-0.477537,-0.072422
0.696025,-0.482692,-0.948139,-0.189984,-0.089175,0.977729
0.048076,0.148216,0.868721,0.306487,0.950483,0.051448
-0.051994,0.181095,0.633449,0.274200,-0.819038,0.503976
0.238381,-0.397122,-0.780216,0.845341,0.530811,-0.060321
0.504441,-0.533799,0.494087,0.931103,-0.320907,-0.173393
-0.270778,0.325890,0.675952,0.498409,0.779988,0.378427
0.346453,-0.157806,0.754584,-0.433305,0.335158,0.836610
-0.317974,-0.162018,0.469242,0.711210,-0.286382,0.642001
0.459484,0.446442,0.526636,0.536528,-0.146790,-0.831017
-0.367411,0.186048,0.201476,-0.625652,0.068844,0.777059
-0.558275,0.456244,0.206927,-0.290403,-0.059930,-0.955026
0.251099,-0.270138,-0.394868,-0.434200,0.899515,-0.048408
0.275180,-0.458874,0.862889,0.764508,-0.225988,-0.603702
-0.136228,-0.211968,0.685635,0.868894,-0.407008,0.281721
0.177827,-0.121974,0.793181,0.490299,0.781260,-0.386315
0.327014,-0.594921,0.642617,-0.395771,0.511767,-0.762535
-0.524518,-0.073182,0.472442,0.602093,-0.724420,0.335709
0.361572,-0.916958,-0.948899,-0.256314,0.213310,0.942763
0.777618,0.012066,0.280758,0.852153,0.521948,-0.037497
0.787697,-0.882291,0.338993,0.866375,0.452154,-0.212016
0.043038,-0.480582,0.570549,-0.589959,0.542892,-0.597676
0.514999,-0.723584,-0.945563,-0.045115,0.153173,0.987169
0.369891,0.303024,0.804817,-0.370723,-0.429517,0.823456
0.291738,0.246643,0.737523,-0.223649,0.657983,0.719055
0.236223,-0.295537,0.767522,0.425298,-0.790388,0.440918
0.220304,-0.338001,0.307394,0.763900,0.584028,-0.274533
-0.181664,0.430529,0.544754,0.957885,0.204415,0.201671
0.078315,0.589654,0.746962,0.384561,0.879096,0.281609
0.547636,-0.083614,0.583677,0.689988,0.035265,-0.722961
0.087995,-0.105534,0.289085,0.971588,0.197743,0.130058
0.210783,-0.016491,0.693637,-0.349215,-0.934251,0.072281
-0.103030,0.141688,0.274086,-0.222743,0.451130,-0.864215
0.678507,-0.427468,0.699984,-0.833987,0.509197,-0.212566
0.563477,0.380580,0.527856,0.315210,-0.029473,0.948564
-0.061195,0.374997,0.837501,-0.746102,0.449987,-0.490758
0.431727,-0.625164,-0.951367,0.173384,-0.306516,-0.935941
-0.027038,-0.097314,0.370728,-0.313025,-0.306394,-0.898965
-0.676666,0.000058,0.386894,-0.370804,-0.907529,-0.197219
0.181186,-0.654455,-0.970191,0.114626,-0.069833,-0.990951
0.732102,-0.601874,-0.932435,-0.239272,0.067023,0.968637
0.449084,-0.451497,0.647526,0.776504,0.309891,-0.548644
0.011040,0.293962,0.753309,0.992148,-0.104998,0.067959
0.295017,-0.570364,-0.954134,0.017107,-0.267546,0.963393
0.390610,-0.045467,-0.176657,0.960851,0.209277,-0.181573
-0.686104,0.066654,0.367338,-0.571490,-0.528673,-0.627617
0.208544,-0.355707,0.711213,0.979608,0.023634,0.199522
-0.476362,0.267405,0.205897,0.094147,0.257080,0.961793
-0.063595,0.214078,0.865629,0.622674,0.693945,0.361548
-0.008880,-0.394910,-0.987469,-0.212995,0.203758,0.955571
0.471004,0.067393,0.602989,0.226377,0.697539,-0.679847
0.213825,-0.330520,0.026093,0.941272,0.316057,0.118805
0.091112,0.000476,0.511745,0.965555,0.174465,0.193043
-0.542597,-0.083826,0.339156,0.688661,0.722174,-0.064893
0.047917,-0.722426,-0.983807,-0.106931,-0.137694,0.984686
0.151669,-0.274248,0.656314,0.792961,0.387651,0.470042
0.278619,0.058118,0.966963,0.963401,0.205493,-0.172140
0.609391,-0.040624,0.747152,0.752666,0.598227,-0.274988
-0.019838,0.132201,0.742758,-0.201837,0.915710,0.347471
0.299897,-0.504290,-0.801698,0.707113,0.707096,-0.002486
-0.773057,-0.736551,0.274737,0.760780,0.550118,0.344360
0.290218,-0.323458,0.912770,-0.192480,0.934135,0.300572
-0.108152,-0.222298,-0.007052,-0.549148,-0.832957,0.067967
-0.323655,0.235998,0.626641,0.346868,0.555514,-0.755703
-0.337653,-0.185835,0.504665,-0.459643,0.839062,-0.291039
0.213825,0.085936,0.931295,-0.546159,-0.833611,0.082475
0.178307,-0.244217,-0.052647,0.861039,0.482295,-0.161255
0.149269,-0.043466,0.223554,0.988269,0.117746,-0.097259
0.477722,-0.572789,-0.954052,-0.157476,0.266170,0.950976
-0.014878,-0.732756,-0.978328,0.351679,0.039557,-0.935285
0.482121,0.276782,0.213084,0.862422,0.475399,-0.173852
0.331574,-0.300278,0.731420,0.709100,0.566156,-0.420291
-0.508518,-0.043363,0.518390,-0.579597,-0.804669,0.128745
-0.307174,-0.581221,0.438646,0.470221,0.653233,0.593446
0.185827,-0.021862,0.309374,-0.180996,0.975014,-0.128795
0.145910,0.716529,0.412282,0.269032,0.584828,-0.765244
-0.693305,0.405767,0.050423,0.082541,-0.969704,0.229917
0.189586,0.094683,0.879245,0.620706,0.778122,0.096177
0.244940,-0.331151,0.907888,0.725412,-0.321151,-0.608802
0.086874,-0.132515,0.309293,0.324660,0.945784,0.009401
-0.076313,0.201330,0.512558,0.816697,0.504144,-0.280792
-0.731940,-0.008059,0.349110,-0.114251,-0.774473,0.622205
0.705543,-0.323458,0.338071,-0.342996,-0.665236,0.663186
-0.041756,0.491439,0.779077,-0.614755,-0.164381,-0.771398
-0.035277,0.483535,0.751682,0.852621,-0.051826,0.519953
0.518120,-0.397225,0.542205,0.866809,0.309266,-0.391147
0.654749,0.011751,0.675274,-0.543884,-0.367630,-0.754347
0.397409,-0.872385,-0.947380,-0.278817,0.084374,0.956631
0.131431,-0.422940,0.720354,-0.584123,0.515904,-0.626612
0.618990,0.392910,0.476050,0.973077,0.219827,-0.069270
0.418608,-0.867323,-0.945183,-0.196253,0.012787,0.980470
0.344613,-0.756361,0.631116,-0.592384,-0.617005,0.518059
0.198465,-0.325253,0.635700,-0.757122,-0.638947,-0.136062
-0.285816,0.409034,0.243924,0.826037,-0.515063,-0.228850
0.799057,0.145270,0.605050,0.997503,0.060894,0.035766
0.346373,-0.332630,0.604454,-0.663753,0.510892,0.546279
0.219823,-0.350118,-0.977162,0.239968,-0.021154,-0.970550
0.648509,0.153593,0.520777,-0.163735,0.500055,0.850374
0.499481,0.279837,0.703618,0.694636,-0.328718,-0.639864
0.199905,-0.107746,0.661197,0.917413,-0.186781,-0.351378
-0.393407,-0.377100,0.416133,-0.225842,-0.118536,-0.966925
-0.099991,-0.002367,0.583948,0.919583,-0.029729,0.391770
0.343333,0.622109,0.775469,-0.785347,0.611810,0.094441
-0.094952,-0.631062,0.546165,-0.691522,0.286269,0.663210
-0.012878,0.582592,0.740669,0.342467,0.933209,0.108800
0.195425,-0.396067,0.878079,0.345034,-0.745648,0.570053
0.211584,-0.212284,-0.027042,0.882296,0.465899,-0.067015
0.701386,0.026718,0.609173,-0.271876,-0.932004,-0.239692
-0.076714,-0.556452,0.045270,-0.052931,0.944862,0.323163
0.380210,-0.274351,-0.332294,0.967388,-0.236107,0.091731
0.343172,-0.804941,0.716963,-0.209944,0.595842,0.775175
-0.219503,-0.399753,0.657698,-0.583173,0.716764,-0.382306
0.510200,-0.319876,0.573478,0.952339,0.303515,0.030481
0.534119,0.466889,0.329256,0.910436,-0.400774,-0.102408
0.252782,0.288270,0.703049,0.214312,-0.306789,0.927335
0.595393,0.477424,0.450228,0.775267,0.521917,-0.355758
-0.028556,0.238423,0.802349,0.889478,0.449779,0.080789
0.204943,0.158333,0.490995,0.878324,0.175752,-0.444588
0.403090,-0.206488,0.990669,0.424692,0.872622,0.241180
0.161429,-0.302387,0.841868,-0.574699,0.597457,-0.559255
-0.458683,0.249280,0.159922,-0.285582,-0.938575,-0.193703
0.222464,-0.004580,0.844825,0.753982,-0.057240,-0.654397
0.817456,0.159703,0.542340,-0.496247,0.669134,-0.553172
-0.018799,0.675538,0.674541,0.902814,0.401417,-0.154245
0.024719,-0.271193,0.833677,-0.621729,0.780680,0.063182
-0.324375,0.219031,0.147364,-0.502896,-0.036834,-0.863562
0.215424,-0.052002,0.308506,-0.446945,0.883581,-0.139732
-0.147267,0.328732,0.610611,0.827401,0.356393,-0.434042
-0.539556,-0.241156,0.284691,-0.748181,-0.038587,-0.662372
0.315416,-0.225456,-0.387301,-0.448493,0.892850,-0.040891
-0.447244,0.359612,0.197543,0.648680,0.760832,0.018691
0.079433,0.137468,0.833921,-0.410995,-0.911212,0.027844
0.386211,-0.085827,-0.193610,-0.093145,-0.975743,0.198115
0.160467,-0.495864,0.771753,-0.635180,0.771351,0.039543
0.751541,0.030191,0.243219,-0.708253,-0.696500,0.115177
0.234783,0.000373,-0.175355,-0.119432,-0.854661,0.505262
-0.146466,-0.347700,0.243789,-0.015658,0.992586,0.120531
0.202625,-0.678066,0.601850,0.985611,0.156441,-0.064015
0.177588,-0.710733,-0.960508,-0.093647,0.029486,0.995169
-0.472681,-0.107746,-0.020044,-0.708022,0.630042,-0.318986
0.294858,-0.578687,-0.958799,0.181394,-0.303210,0.935500
-0.407566,0.580488,0.111886,0.229063,0.614741,0.754734
-0.553795,-0.396807,0.373088,0.917537,-0.082693,0.388958
-0.265097,0.343275,0.425654,0.969388,0.225243,0.097733
0.742743,0.137996,0.577845,-0.161249,-0.561131,0.811869
-0.517558,-0.441483,0.366117,0.509278,0.019399,0.860383
0.395170,0.147058,0.669876,0.587252,-0.332385,-0.738008
0.306295,-0.308388,0.742894,0.430473,0.895245,0.115022
-0.351970,-0.551500,0.451693,-0.614824,-0.701959,-0.359506
0.177346,0.031458,0.830287,-0.779086,0.204247,-0.592713
0.149269,0.093526,0.937453,0.297851,0.928627,0.221218
0.505881,0.599559,0.784664,0.816909,0.529923,-0.227690
0.737543,0.055378,0.547819,-0.546320,0.836369,0.044969
0.201665,-0.362873,-0.973120,-0.135987,-0.049479,0.989474
0.116391,0.130618,0.848297,0.691663,0.719854,-0.058417
0.761940,-0.044624,0.636378,-0.068963,-0.877057,0.475411
0.602754,-0.721166,-0.945698,0.165803,-0.207754,-0.964027
0.340133,-0.443065,0.894217,-0.484362,-0.846880,0.219517
-0.116230,-0.406815,0.610502,-0.136186,-0.921223,0.364419
-0.156708,0.427262,0.604752,0.049447,0.292104,0.955107
0.701225,-0.559089,-0.937670,-0.277064,0.113090,0.954173
0.329575,-0.400705,0.873142,0.210297,0.969408,0.126580
0.447644,0.527374,0.719757,-0.473366,0.878166,-0.068912
-0.830572,-0.830128,0.293344,-0.534430,-0.155229,-0.830836
0.312535,-0.557295,-0.951150,-0.237819,0.455835,-0.857704
-0.711063,0.364140,0.045025,0.246920,-0.835124,0.491526
0.658108,0.605566,0.730254,-0.518419,0.752765,-0.405692
0.874012,0.147483,0.476836,0.553270,-0.822220,-0.133591
0.140230,-0.297538,-0.980715,-0.143733,0.222982,0.964168
-0.095111,-0.347803,0.680400,-0.794135,-0.163064,-0.585456
-0.454365,-0.176246,0.333813,0.303690,0.348667,0.886681
-0.493241,-0.541910,0.380303,0.585660,0.305703,0.750699
-0.011357,-0.044097,0.689053,0.908650,-0.409009,0.084068
-0.768497,-0.260863,0.337203,-0.320438,-0.347829,-0.881099
0.297898,-0.453710,-0.948031,0.117643,0.406239,0.906162
-0.465404,-0.493542,0.427091,-0.292762,-0.402417,0.867381
0.137669,0.550239,0.600467,-0.783080,0.182814,0.594445
0.475562,0.386272,0.220327,0.873005,0.472610,-0.120427
0.693145,-0.805359,0.303407,0.689062,0.630158,-0.357902
-0.367330,0.024711,0.566616,0.989577,0.084122,-0.116878
0.224942,-0.731913,0.531843,0.838517,0.412289,0.356241
-0.155106,-0.572892,0.024683,-0.249608,0.963870,0.093006
-0.359491,-0.353180,0.285641,0.414464,0.842897,0.343138
0.245102,-0.309759,-0.970842,0.341023,-0.028446,-0.939624
0.346934,0.065811,0.828388,0.868204,-0.021868,-0.495726
-0.622029,0.372257,0.034637,-0.025438,-0.915538,0.401426
0.175346,-0.078456,0.620891,-0.708955,0.686891,-0.159885
-0.595471,-0.055899,0.117310,-0.034471,-0.883669,0.466840
0.708905,0.110918,0.648096,0.736319,-0.658981,-0.153553
-0.291975,-0.174664,0.052919,-0.162806,0.914409,-0.370607
-0.324133,-0.636651,0.462867,-0.536719,0.701280,-0.469190
-0.358291,0.247170,0.534800,-0.302431,0.670761,0.677211
-0.310694,0.056009,0.667300,0.971361,0.201288,0.126256
0.382610,-0.352652,0.747803,0.891490,0.437779,-0.116600
0.549157,-0.514195,0.537567,0.905436,0.347348,0.243998
0.216464,-0.345803,0.669008,0.839855,0.540479,-0.050253
0.425807,-0.093732,0.749322,0.191049,-0.648144,0.737163
0.371491,-0.279098,0.476809,0.645094,0.615957,-0.452163
-0.394689,-0.205118,0.553922,0.648593,-0.755487,-0.092554
0.230383,-0.628007,-0.959260,0.262947,0.088703,-0.960724
-0.093673,0.162552,0.540875,0.866775,0.306853,0.393118
0.271098,-0.268350,0.896360,0.791401,0.420329,0.443856
0.097032,-0.499447,0.877482,0.179497,0.713305,-0.677478
-0.093673,-0.095526,0.564229,0.753800,0.388730,-0.529787
-0.724021,-0.034931,0.342329,-0.178712,-0.883889,0.432207
0.204304,-0.133358,0.889823,-0.638824,0.769299,-0.009096
-0.270778,0.477849,0.415428,0.823722,0.110422,0.556138
-0.232622,0.229573,0.620484,0.567926,-0.702060,0.429619
0.489323,-0.763423,-0.942416,-0.025722,0.223379,0.974392
0.081914,0.291428,0.590648,-0.791213,0.227534,-0.567636
0.271579,-0.246006,-0.489693,-0.636246,0.743287,0.206676
-0.435726,0.526319,0.146251,0.192956,0.755144,0.626518
0.172627,-0.082354,0.639389,0.349562,0.924865,-0.149768
0.283658,0.117761,0.441847,0.876564,-0.480659,0.024539
0.153588,-0.325144,0.199875,0.547315,-0.835817,0.043086
0.233423,-0.289633,0.018634,0.869190,0.493341,0.033503
-0.592513,-0.370462,0.276473,-0.503649,-0.041226,-0.862924
0.167188,-0.301751,0.241076,0.036970,-0.980304,0.194002
0.243661,-0.220613,0.960887,0.741032,-0.327611,-0.586126
0.155587,-0.285311,-0.175681,-0.053183,-0.994824,0.086582
0.218463,0.258869,0.474910,0.594631,0.215466,-0.774589
0.138870,-0.099739,0.164397,0.975382,0.208070,0.073051
0.518839,-0.081826,0.653304,0.154490,0.827381,-0.539975
0.526920,0.692609,0.489232,0.245921,0.151817,0.957327
-0.442844,-0.029348,0.460643,0.134621,-0.894893,0.425492
0.015920,-0.280886,0.745335,0.257927,0.937224,0.234701
-0.221980,-0.178561,0.183248,0.916859,0.272016,0.292193
-0.865770,-0.775644,0.278263,-0.575200,0.475425,-0.665669
0.558355,-0.782809,0.367039,0.158916,0.870066,-0.466617
-0.229421,0.467095,0.616334,-0.756765,0.296239,-0.582709
0.177346,-0.335473,0.883096,-0.741771,-0.398234,0.539616
0.386689,-0.408500,0.969594,0.702407,0.697367,0.142491
0.056877,0.574481,0.420120,0.939596,0.277935,0.199780
-0.303256,0.131988,0.212244,0.984784,-0.171520,0.027946
0.406768,-0.094999,0.648150,-0.336612,-0.850655,0.403830
-0.560916,0.015018,0.493517,0.328724,0.737072,-0.590479
0.975044,0.129461,0.497016,0.973874,0.224275,-0.035637
0.628750,-0.509455,0.641885,0.920086,-0.384092,-0.076911
0.048796,-0.671004,-0.975697,-0.209627,0.219650,0.952791
-0.401807,0.500289,0.138657,0.160145,0.927426,0.337985
0.172307,-0.056427,0.844581,-0.244044,-0.438124,0.865153
0.107671,-0.112596,0.159786,0.977052,0.205067,0.057592
-0.622830,-0.149270,0.491456,0.016038,0.560778,0.827811
0.196785,-0.172239,0.875122,0.692845,0.633584,-0.344291
-0.426686,0.680491,0.120430,0.000674,0.678105,0.734965
-0.235022,-0.033562,-0.098920,-0.569622,-0.806274,0.159541
-0.227341,-0.008162,0.341082,-0.777500,0.428297,0.460494
-0.209503,0.369935,0.627319,0.351819,0.787502,-0.506027
0.281498,-0.331575,-0.590458,0.932936,-0.172747,0.315894
0.336054,-0.390588,0.594798,-0.487392,0.738057,-0.466606
0.363093,-0.402917,0.615629,-0.676043,0.295234,0.675131
-0.296535,-0.735284,0.322610,0.106072,-0.469682,0.876440
0.728662,0.172875,0.636921,-0.588544,0.685461,0.428671
0.182067,-0.274673,0.709097,0.780775,-0.500077,0.374586
0.424687,-0.777856,-0.945861,-0.285655,0.219198,0.932928
0.122072,-0.050316,0.209043,-0.423345,0.868191,-0.258888
-0.433404,-0.041151,-0.026174,-0.782154,0.478104,-0.399565
0.463963,-0.351282,0.509493,0.790908,0.592931,-0.151316
-0.222303,0.209865,0.651947,-0.655056,0.734161,-0.178629
-0.439564,0.078565,0.501383,0.300867,0.127914,-0.945049
0.872571,0.245273,0.583975,-0.735012,-0.048716,-0.676302
-0.573154,0.063913,0.520397,-0.764483,-0.091233,-0.638156
0.217743,0.013333,0.808587,0.721509,-0.503261,0.475555
-0.043916,0.630226,0.255425,0.770841,0.577222,0.269481
0.547878,-0.372250,0.326950,-0.844100,0.515775,0.146535
0.335175,-0.682170,0.443691,-0.391350,0.811402,-0.434134
0.335414,0.109020,0.850765,-0.541983,0.305036,-0.783076
0.081755,0.213133,0.753391,0.337162,-0.938234,0.077703
0.318936,0.221455,0.659081,0.545190,-0.702881,-0.456865
0.581794,0.594709,0.829120,0.858387,0.355008,0.370326
0.318055,0.258027,0.802213,0.118219,-0.537283,-0.835076
0.736503,-0.225983,0.361235,-0.241135,0.423656,-0.873138
0.506441,-0.692287,-0.946864,-0.052455,0.048064,0.997466
0.283577,0.506091,0.708256,0.976646,-0.090150,0.195028
0.031517,0.161498,0.622328,-0.824418,0.523507,0.215117
0.413247,0.328315,0.812927,0.115566,-0.839290,0.531259
0.364772,0.419679,0.521374,0.140376,-0.315197,0.938587
0.148310,0.089313,0.939622,0.297851,0.928627,0.221218
0.243581,-0.307758,0.740534,0.488811,0.700579,-0.519859
0.454204,-0.224723,0.673267,0.619270,0.503432,0.602545
-0.638908,-0.247376,0.305278,0.406695,-0.179580,0.895740
0.017839,-0.588914,-0.977433,0.204879,-0.239502,-0.949033
0.287737,-0.683752,-0.959341,0.002464,-0.041480,0.999136
-0.002640,0.810742,0.494765,0.574960,0.432292,-0.694654
0.639389,-0.458347,-0.944912,-0.131336,0.142591,0.981029
-0.161507,-0.424940,0.604183,0.369196,-0.758039,0.537654
0.386770,0.485960,0.731664,-0.316027,0.777929,-0.543096
-0.518278,-0.127241,0.270750,0.458525,0.188788,0.868398
0.142629,-0.294374,0.835169,-0.334439,0.725248,-0.601802
0.796017,-0.039987,0.623549,0.807649,0.576999,-0.121554
0.327734,0.317355,0.639525,0.814088,0.456009,-0.359606
0.299416,-0.743716,-0.957199,-0.061531,0.062930,0.996119
-0.287657,0.427687,0.534746,0.119444,-0.171315,0.977949
-0.279337,0.439592,0.173674,0.926140,0.272815,0.260456
0.637309,0.446024,0.669741,-0.631436,-0.774389,0.040136
0.238542,-0.303018,0.222361,0.102000,0.994471,-0.024951
-0.009439,0.205228,0.719052,-0.503380,0.791676,0.346204
0.105193,-0.313553,-0.979820,0.201941,-0.142804,-0.968931
-0.337733,-0.149373,0.526988,0.149082,-0.648522,0.746454
-0.282056,0.557302,0.572719,-0.700795,0.629407,-0.335756
0.409329,0.214503,0.831046,-0.188691,0.961610,0.199251
0.775460,-0.557295,-0.935039,0.307819,-0.087152,-0.947445
0.527638,-0.653824,0.257757,0.761113,0.211033,-0.613329
-0.258059,-0.559302,0.490507,0.741159,0.669474,-0.049880
-0.105032,0.336534,0.718048,-0.728190,0.681837,0.069555
-0.552835,0.235052,0.211457,-0.536339,0.391058,-0.747939
-0.033516,-0.166025,-0.181133,0.540821,0.820617,0.184662
-0.271579,-0.249170,0.445752,0.982903,0.057147,0.175029
-0.222623,0.585332,0.624308,0.689389,-0.076581,0.720332
0.581635,0.012176,0.072041,0.750277,0.638141,-0.172799
0.004400,0.745195,0.404524,-0.535847,-0.729109,0.425756
0.451965,0.047898,-0.030243,0.984786,-0.163946,-0.057607
0.481482,-0.718214,-0.945291,-0.028116,0.190891,0.981209
0.174467,-0.231991,0.746555,-0.627573,0.008704,-0.778509
0.176547,-0.252643,-0.235706,-0.260233,0.963497,-0.062863
-0.752820,0.025136,0.403385,-0.312771,-0.939226,0.141521
0.509241,-0.459293,0.537377,0.982976,0.133717,-0.126007
0.166468,0.083306,0.851199,0.715019,0.536293,0.448484
0.454126,0.663524,0.671368,-0.003475,0.983983,0.178228
-0.141589,0.837930,0.356759,0.146430,0.626186,0.765799
0.255980,-0.396698,-0.964631,0.450967,-0.100662,-0.886846
0.432206,-0.064119,-0.160166,0.872876,0.461397,-0.158746
0.303896,0.049795,0.816101,-0.012483,0.980161,0.197812
-0.465404,-0.674477,0.157454,0.336709,-0.872436,0.354235
-0.237741,0.281735,0.659190,0.871363,0.462025,0.165103
-0.474363,0.222620,0.169470,-0.438544,-0.887427,-0.141957
0.649149,-0.245794,0.348975,-0.064016,-0.581598,0.810953
-0.539477,0.076771,0.521808,-0.712985,0.676121,-0.185778
-0.053195,0.260027,0.548253,0.990578,0.038957,0.131288
-0.022639,0.109966,0.693610,0.975339,0.065208,0.210858
0.726423,-0.438325,-0.940084,-0.269469,0.031069,0.962508
0.410928,-0.034089,-0.141857,0.602930,0.775443,-0.187519
0.141189,-0.311238,0.806445,-0.399903,0.857310,0.324187
0.216945,-0.214290,0.884127,0.975860,0.205229,-0.074689
0.290699,-0.298908,0.785478,-0.065554,-0.937122,0.342789
-0.343653,-0.032191,0.198736,0.669084,0.492472,0.556595
0.552037,-0.407767,0.543724,0.973840,-0.209906,-0.087032
0.787778,-0.536752,-0.934333,-0.230751,0.077433,0.969927
0.209103,-0.252437,-0.131605,0.944487,-0.328514,0.004825
0.227183,-0.296271,-0.493409,-0.620203,0.748495,0.234742
0.458124,0.047268,-0.049257,-0.978579,0.164926,0.123216
0.326535,-0.350543,0.784257,-0.014938,-0.942428,0.334075
0.154789,-0.374675,0.476864,0.938073,0.247112,-0.242804
0.133350,-0.325465,0.159434,0.276202,0.960838,0.022447
-0.148947,0.021656,0.725697,0.611857,0.253363,-0.749292
-0.588114,-0.775747,0.190165,-0.841448,0.537980,-0.050429
-0.674425,-0.180459,0.365032,0.771139,0.101439,0.628533
-0.075513,-0.544650,0.048579,0.074133,0.969181,0.234930
0.142148,-0.765636,0.505804,0.658347,-0.230624,0.716513
0.634909,-0.338001,-0.954541,-0.014336,0.071520,0.997336
0.163587,-0.812318,-0.962325,-0.238160,0.122212,0.963506
-0.298456,-0.338528,0.465254,0.860230,0.138903,0.490622
-0.550917,-0.685437,0.186395,0.851116,-0.452857,0.265562
-0.239340,-0.116179,0.169415,0.971220,0.207875,0.116270
0.408209,-0.418933,0.800396,0.332107,-0.231514,0.914388
0.131031,0.525264,0.592438,-0.768537,0.225566,0.598724
0.424526,-0.080668,-0.188022,0.960851,0.209277,-0.181573
-0.867210,-0.774171,0.284719,0.505026,-0.389018,0.770464
0.325896,-0.678381,-0.957823,-0.253706,-0.022198,0.967027
0.801698,0.368675,0.670663,-0.559170,-0.817722,0.136600
0.338615,-0.350118,-0.965037,0.235940,0.344916,0.908496
0.405968,-0.581112,0.266410,0.322545,0.881725,-0.344277
0.723142,-0.731913,0.334111,-0.787260,-0.612717,0.069286
-0.524359,-0.553082,0.385755,-0.022296,0.516337,0.856095
0.245102,-0.367928,0.922209,-0.273906,0.855922,-0.438603
0.131990,-0.600607,0.459369,0.899367,0.318440,-0.299559
0.159669,-0.305443,0.256048,0.160687,0.986814,-0.019423
-0.247179,0.442229,0.567891,0.826711,0.547513,0.129529
-0.252059,-0.415035,0.645736,-0.199252,0.894568,-0.400059
-0.115751,0.061810,0.134615,0.347010,-0.498720,0.794268
0.223983,0.833711,0.391749,0.758621,-0.193096,0.622261
0.162867,-0.349173,0.566318,0.967697,0.239190,0.079686
0.083354,0.907375,0.511745,-0.030361,-0.904556,0.425272
-0.401088,0.066550,0.225697,0.155824,0.966741,0.202806
0.668747,0.452134,0.619182,-0.063596,0.984931,0.160829
0.265979,0.200803,0.737360,0.993469,0.108201,-0.036213
0.075835,0.531484,0.580124,0.119418,-0.887032,0.445997
0.342694,0.361400,0.694071,0.699633,-0.157159,0.697004
0.057035,0.353495,0.612672,0.922329,-0.385484,0.026668
0.102474,-0.156121,0.695942,-0.446476,-0.843783,0.297808
0.381731,-0.304806,0.441467,0.780993,0.605268,-0.153950
0.283177,-0.262233,0.910492,0.090825,0.981953,-0.165891
0.355972,0.268775,0.898232,0.939625,-0.242608,0.241343
-0.119191,0.819278,0.402544,0.804023,0.300571,-0.513034
0.161029,-0.262870,0.328117,0.110198,-0.876017,0.469522
0.139109,0.554877,0.589129,-0.482769,0.871880,-0.082219
0.343094,0.153490,0.884751,0.717964,-0.689184,0.097744
-0.665547,-0.722851,0.219703,-0.582726,0.327457,-0.743776
0.428046,-0.365400,0.268607,0.137081,0.986009,-0.094838
-0.299575,0.317355,0.692443,-0.709777,-0.102112,-0.696986
0.308216,0.372469,0.657915,0.680564,0.464139,-0.566929
-0.282857,-0.429262,0.645221,-0.169443,0.934461,-0.313166
0.532837,-0.344323,0.578523,0.807879,0.359342,-0.467125
0.468843,0.224195,0.708989,0.791539,-0.119026,-0.599415
0.618832,-0.555192,0.686557,0.970491,0.198956,0.136252
0.523080,0.262658,0.241293,0.629214,0.771608,-0.093331
-0.340213,-0.773959,0.071932,0.755377,0.164528,0.634300
0.156627,0.043158,0.899778,-0.154773,-0.935531,0.317531
0.163668,0.180150,0.795297,0.231373,-0.210914,0.949727
0.346773,0.380689,0.527829,0.943037,-0.253004,-0.216032
-0.392367,-0.190364,0.559157,-0.698261,0.684732,0.208743
-0.182145,-0.327883,0.346507,0.058696,-0.918187,0.391775
0.093114,0.504400,0.568488,0.771408,-0.399897,-0.494987
-0.004400,0.213763,0.804139,0.711523,0.580200,0.396362
-0.206862,0.495022,0.522459,0.852804,0.244004,0.461723
0.454204,-0.003209,-0.081534,-0.976218,0.166229,0.139163
0.502681,0.578482,0.799203,0.714150,0.696861,0.066142
-0.182785,-0.527367,0.348215,0.645612,0.484019,0.590686
-0.788896,0.035466,0.382988,-0.309735,0.936812,-0.162625
0.195906,-0.297428,0.207470,0.151022,0.971826,-0.180961
0.148869,-0.292476,0.290197,-0.181952,0.982775,0.032362
-0.262939,0.333685,0.614815,0.734321,-0.123844,0.667410
0.322854,0.172142,0.824645,0.280955,0.959565,0.017319
0.169907,-0.237786,0.895601,-0.753572,0.415208,0.509638
0.427167,-0.442435,0.777585,0.686238,0.714242,-0.137606
-0.062713,-0.530635,0.615602,0.531657,0.821055,-0.207868
-0.056874,0.328629,0.738906,-0.605611,-0.789793,-0.097277
0.435086,-0.684279,0.349246,0.480545,0.563001,0.672389
0.475164,0.569734,0.617419,0.367309,0.843863,-0.391125
-0.761059,-0.277303,0.353640,-0.797312,0.095867,-0.595905
0.127830,0.524531,0.424080,0.874714,0.420082,0.241674
0.168467,-0.344645,0.524167,0.971592,-0.123711,-0.201753
-0.158545,0.105438,0.135755,0.278391,-0.552803,0.785434
-0.533877,-0.488693,0.341027,0.874767,-0.028009,-0.483733
-0.117431,-0.368455,0.661441,-0.696811,0.708660,-0.110707
0.182787,-0.384265,0.711023,-0.694646,0.557139,-0.455042
0.062716,0.467307,0.688565,-0.360635,-0.654881,0.664134
-0.464122,-0.218394,0.508490,0.731256,-0.238730,-0.638962
0.124791,-0.298483,0.310676,-0.398012,0.917078,0.023555
0.283499,-0.267610,-0.308181,0.546596,-0.755044,0.362135
0.083273,0.096793,0.525849,0.942556,0.310620,0.122896
0.202864,-0.415775,0.362754,0.893729,-0.365476,0.260147
-0.023358,-0.632117,-0.975100,-0.242809,0.008633,0.970036
-0.129510,0.342220,0.614761,0.639767,0.392112,-0.661019
0.195984,-0.310080,0.308669,0.383346,0.902240,-0.197507
0.501561,0.389012,0.706439,-0.047463,-0.080557,0.995619
-0.046155,0.720008,0.386813,-0.798517,-0.204855,0.566043
-0.324453,-0.036404,0.190572,0.799397,0.587347,0.126440
0.304777,0.678175,0.651459,0.918322,0.243510,0.312069
0.090394,0.112493,0.875882,0.285108,0.956772,0.057446
0.075916,-0.384580,0.918791,-0.317083,0.946844,0.054269
-0.672106,-0.061694,0.345449,0.217516,0.900887,-0.375618
0.181506,-0.552870,0.606379,0.902027,-0.006541,0.431629
0.107273,-0.457717,-0.495769,-0.675048,0.723373,-0.145057
0.348052,-0.015539,0.826380,0.900172,-0.433393,-0.043146
-0.075435,0.166238,0.100819,0.644179,0.169366,0.745888
0.249261,-0.311450,0.956195,-0.664680,-0.739188,0.108639
0.251820,-0.431578,-0.946214,-0.683278,0.576208,0.448458
-0.049196,0.064126,0.472659,-0.131794,0.844288,-0.519430
0.469163,0.073613,0.009710,0.976309,0.032068,-0.213991
0.287337,0.123769,0.943908,0.873369,-0.084303,-0.479709
0.542117,0.325150,0.342899,0.692375,-0.697812,0.183506
-0.222381,-0.603874,0.658294,0.655440,0.755198,0.008602
0.192706,-0.326095,0.343116,-0.145126,0.986837,0.071349
0.347974,0.446654,0.755153,0.857920,0.348412,-0.377601
0.574035,-0.367722,-0.951096,-0.196232,0.100243,0.975420
-0.532837,-0.207331,0.540875,0.251616,0.830888,0.496301
-0.549396,-0.113014,0.280975,0.383298,-0.667967,0.637889
0.230542,-0.260973,0.335413,0.141099,0.987022,-0.076674
-0.156546,-0.335158,0.346832,-0.369633,-0.920617,0.125840
0.032079,-0.693554,-0.972632,-0.062638,0.094516,0.993551
-0.347093,-0.651296,0.475046,-0.008189,0.999855,0.014926
-0.154786,-0.324623,0.673213,-0.759870,0.436204,0.482000
0.369252,0.233573,0.842628,0.929300,-0.307873,0.203999
0.555158,-0.443805,-0.952289,-0.183111,0.083972,0.979499
0.232622,-0.376148,0.656342,0.868014,0.496522,0.004087
-0.456684,-0.380785,0.430427,-0.699240,-0.413440,0.583207
-0.070313,0.126720,0.908294,-0.621902,-0.700850,-0.349353
0.135511,-0.054002,0.395736,-0.341103,-0.915086,0.215095
-0.008079,-0.414720,0.492921,-0.561947,-0.497073,-0.661161
-0.547155,0.241060,0.542286,-0.516501,0.521358,-0.679273
-0.175265,0.791453,0.633368,0.412417,0.013620,-0.910893
0.104073,-0.294483,0.798524,0.356588,0.934179,0.012457
-0.247101,-0.475102,0.676983,-0.650593,-0.731925,-0.202523
-0.956083,-0.907683,0.235136,-0.282611,0.888471,-0.361595
-0.660188,0.003428,0.378323,-0.595792,-0.751465,-0.283432
0.235823,-0.804098,0.528968,0.644842,0.362200,0.673046
0.748101,-0.620630,-0.935337,-0.226934,0.190140,0.955169
0.217743,-0.355077,0.208582,0.131243,0.896923,-0.422261
0.116630,0.134838,0.944315,0.420698,0.905373,0.057555
0.372611,0.357927,0.835115,0.952597,0.303082,0.026472
0.193826,0.330739,0.680075,0.244290,0.872725,-0.422698
0.249901,-0.367613,-0.666567,0.999659,0.000123,-0.026123
0.154149,-0.557823,0.419632,0.815856,0.509536,0.273408
0.417168,-0.172033,0.680943,0.778238,0.590990,0.212312
-0.099432,-0.382265,0.279049,-0.385948,0.921586,0.041527
0.569714,-0.000894,0.072176,0.750277,0.638141,-0.172799
-0.782017,-0.258966,0.338749,-0.465548,-0.530389,-0.708486
0.209103,-0.585331,0.610312,0.918525,0.013972,-0.395116
0.611552,-0.318191,-0.952533,-0.131852,0.187073,0.973457
0.507962,0.559096,0.726809,0.322249,0.890135,-0.322204
0.408209,-0.430002,0.977758,0.723303,0.683113,0.100949
0.608671,0.473212,0.525632,-0.625004,0.715029,0.313215
0.047598,-0.462875,-0.979088,0.198437,-0.075384,-0.977210
-0.423085,0.255493,0.407942,0.216542,0.794684,0.567086
-0.052475,0.054536,0.371297,0.200101,0.202228,0.958678
0.233022,-0.877968,0.444261,0.874713,0.179952,0.449995
0.235503,-0.341268,0.092546,0.630677,0.773911,0.057514
-0.783696,-0.716316,0.278833,0.886630,-0.087745,0.454080
0.217823,-0.361818,-0.100928,0.620915,0.604804,-0.498675
-0.392687,0.029876,0.502333,-0.072429,-0.216722,0.973543
-0.030397,-0.506503,-0.981990,0.111719,0.024998,0.993425
0.562916,-0.758464,-0.943800,-0.042191,0.237123,0.970563
-0.306615,0.129248,0.613052,0.745722,0.585711,0.317554
0.362131,-0.365510,0.606081,-0.706666,0.396886,0.585751
0.217904,-0.299223,-0.464088,-0.019144,-0.999729,0.013233
-0.017597,-0.268029,-0.117283,-0.222799,-0.972469,0.068294
0.192864,-0.267186,0.387680,0.376551,-0.920296,0.106134
-0.489720,-0.572892,0.393810,0.124618,-0.987659,0.094865
0.162227,-0.310183,0.205653,0.449080,-0.892973,0.030432
0.115271,-0.803571,-0.964549,-0.203657,0.182384,0.961904
0.374132,0.284372,0.678068,-0.673624,-0.518000,0.527168
-0.322373,-0.456553,0.665672,0.784512,-0.087670,0.613885
-0.000399,0.220825,0.749458,0.753820,0.649012,-0.102658
-0.643468,-0.256438,0.350846,0.871745,0.103918,0.478814
-0.468843,-0.580694,0.346398,0.271906,-0.476238,0.836220
-0.200945,-0.381313,0.679153,-0.522791,0.521380,0.674428
0.121271,-0.084566,0.828984,-0.276070,-0.753505,0.596670
0.479722,-0.290791,-0.958989,0.123522,-0.009922,-0.992292
0.170388,-0.366140,0.400944,0.887694,-0.273506,0.370398
0.149269,0.023239,0.429939,0.300343,-0.951236,0.070315
0.340294,-0.564145,0.603152,-0.714414,0.197691,0.671216
-0.591712,-0.023444,0.480552,0.218238,-0.477335,0.851190
0.537637,-0.464882,0.313361,0.869815,-0.438520,-0.226102
0.895609,0.214606,0.521184,0.102669,-0.245120,0.964041
0.531319,0.018711,0.744440,0.391110,0.907539,0.152990
-0.235341,-0.148743,0.165048,0.832390,0.540198,0.123744
-0.485241,0.255493,0.538489,0.149090,-0.899308,0.411118
0.180387,-0.440962,0.675193,0.843366,-0.029209,0.536545
-0.126868,-0.061064,0.597429,0.402456,-0.890154,0.213668
0.281339,-0.186781,0.893295,-0.676120,-0.370734,-0.636725
-0.201904,-0.366031,0.351958,0.939835,0.046599,0.338437
0.254939,-0.835080,-0.957606,-0.079701,0.370127,0.925556
0.209985,0.667106,0.612699,-0.320919,-0.090501,0.942773
0.410289,-0.624006,0.237279,0.520263,0.681927,-0.514103
0.634831,-0.542122,-0.947488,0.204158,-0.045288,-0.977890
0.189825,0.141160,0.839997,-0.424664,0.537917,-0.728221
0.037279,-0.107746,0.656314,-0.041183,-0.786952,0.615639
-0.073433,0.137468,0.772567,-0.696549,0.677786,-0.235429
0.301816,-0.067071,-0.227189,0.064210,-0.915042,0.398216
-0.024477,-0.335055,0.654145,-0.066500,0.136756,0.988370
-0.306056,0.079408,0.195861,-0.741578,-0.431280,0.513866
-0.504199,-0.122501,0.118341,0.005892,-0.900079,0.435687
-0.294455,0.568789,0.359526,0.402837,0.400398,0.823046
0.015200,0.527586,0.678827,0.829662,-0.553578,-0.072193
-0.109431,0.231997,0.844337,0.893140,0.133006,0.429663
0.173667,-0.510612,-0.966068,-0.303385,0.248778,0.919819
-0.187825,-0.302175,0.172562,0.561815,0.453643,0.691789
-0.280696,0.014916,0.651215,0.659236,0.683211,0.314055
0.684747,-0.553082,-0.942470,-0.292571,0.108129,0.950111
-0.053835,0.235052,0.654551,-0.129197,-0.985253,0.112179
0.164869,0.453819,0.358088,-0.690279,-0.700584,0.180825
-0.494361,-0.121658,0.277992,0.510460,-0.346438,0.787027
0.190306,-0.608512,0.494873,0.630195,0.739024,0.238115
-0.059835,-0.307018,0.220977,0.507948,-0.839611,0.192462
-0.516837,-0.154223,0.350114,0.158731,-0.124674,0.979419
0.353653,-0.503235,0.628946,0.760372,0.380737,0.526188
-0.285977,0.458354,0.129896,-0.496927,-0.556178,0.666130
-0.245179,0.163608,0.146143,0.055521,-0.394442,0.917242
-0.008638,-0.441065,0.903168,0.742905,-0.652402,0.149878
0.224703,-0.443175,-0.005642,0.988440,0.013721,0.150990
-0.793617,-0.252437,0.351145,-0.782554,-0.288396,-0.551758
0.318455,0.498501,0.770180,0.957252,0.078423,-0.278421
-0.351572,0.344433,0.236302,-0.635558,0.352122,0.687078
0.132950,-0.165286,0.569464,0.727927,-0.472412,0.496940
-0.323335,-0.280152,0.434089,-0.369927,0.916493,-0.152297
-0.105432,-0.551397,0.703564,0.310727,0.355202,0.881635
-0.327333,0.204598,0.478545,-0.129310,0.679083,-0.722582
-0.156068,-0.224723,0.674975,-0.666586,0.316581,-0.674863
0.220782,0.761320,0.602148,-0.091177,-0.416949,0.904345
0.272299,-0.278358,0.845394,0.407430,0.547554,0.730880
0.027519,-0.518305,-0.973527,0.173052,-0.058563,-0.983170
0.564515,-0.796824,0.327194,0.882829,-0.300005,-0.361399
0.266299,-0.164758,0.875936,-0.478381,-0.639774,0.601533
-0.270219,0.228518,0.632473,-0.368300,-0.916163,0.158114
0.800016,-0.357393,0.338722,-0.014312,0.624838,0.780623
0.271498,-0.825697,0.725995,-0.334161,0.760426,0.556856
0.318216,0.519264,0.725914,0.790785,0.202893,-0.577489
-0.125750,-0.497652,0.558126,0.940554,-0.158785,0.300241
0.531639,-0.349070,0.318705,-0.692271,0.689253,0.213754
0.366933,-0.766478,-0.951123,-0.247538,0.204371,0.947078
0.145830,-0.365510,-0.117853,0.542485,-0.838165,-0.056478
0.478682,0.432742,0.550423,-0.744108,-0.624952,-0.236091
-0.371090,0.308292,0.665645,0.933454,0.051674,0.354956
-0.596831,0.066338,0.208094,-0.265458,-0.942314,0.203904
0.410208,-0.442750,-0.959233,-0.039534,-0.030679,0.998747
-0.643788,-0.234943,0.339563,0.276493,0.660068,0.698471
-0.478122,-0.020807,0.525252,0.409094,-0.075329,0.909378
0.016079,-0.036199,0.089373,0.087818,-0.232040,0.968734
0.124872,0.356762,0.317484,-0.055705,-0.719448,0.692309
0.115431,-0.536642,-0.973229,-0.208693,0.223450,0.952112
-0.462604,-0.021232,0.231366,0.304249,0.617875,0.725026
0.885851,0.138838,0.557638,0.747850,0.663120,-0.031497
0.016638,-0.641282,-0.977460,0.029700,0.004518,0.999549
0.343014,-0.443277,0.637436,-0.499524,0.327828,-0.801876
0.412369,-0.307231,0.791038,0.685999,0.712097,0.149413
-0.624829,-0.076976,0.132120,-0.010770,-0.913073,0.407653
0.323096,-0.296380,0.408159,0.383289,0.909868,-0.158841
-0.417966,-0.273405,0.522052,-0.106887,-0.594782,0.796749
-0.461961,-0.682806,0.155555,0.336709,-0.872436,0.354235
0.131431,-0.329993,0.123006,0.234783,-0.957836,0.165614
0.273339,-0.349070,-0.967560,0.310784,-0.144082,-0.939497
0.231582,0.154018,0.843685,0.623033,0.711498,-0.324962
-0.020478,0.490700,0.437371,0.816624,-0.240935,0.524476
0.729782,-0.355920,0.667815,0.961445,-0.149352,-0.230908
0.080395,0.526634,0.702045,0.972593,-0.161634,-0.167143
0.024719,0.180883,0.851633,0.540553,0.717942,0.438591
0.177746,-0.507139,0.839590,-0.108433,0.652312,0.750154
0.210305,0.059701,0.814799,0.555967,-0.794723,0.243549
-0.472762,0.051481,0.202181,-0.214496,0.060589,-0.974844
-0.092472,-0.064756,0.565287,0.844192,0.202201,-0.496442
0.106631,0.849623,0.477894,0.097448,-0.835507,0.540769
0.307577,-0.342426,0.765542,0.432808,0.901101,0.026355
0.681307,0.622534,0.509304,-0.369960,0.155026,0.916022
0.282699,-0.240841,-0.491293,-0.636246,0.743287,0.206676
0.185106,-0.829601,-0.958039,0.111794,-0.254667,-0.960545
-0.091671,-0.294058,0.287512,-0.940613,-0.021927,-0.338772
