0.044273,0.388214,0.361815,0.462453,-0.701473,0.542284
0.043579,0.415015,0.616025,0.797489,-0.371954,-0.475037
-0.083702,0.413272,0.612220,0.289865,0.722699,0.627443
-0.193787,0.412899,0.618030,-0.625997,-0.085603,-0.775113
-0.226260,0.417382,0.664428,0.346411,0.937712,-0.026367
-0.418656,0.411522,0.624535,0.813061,0.167504,0.557560
0.849110,0.201317,0.345939,0.303839,0.923747,-0.233182
0.073276,0.160674,0.042344,0.766980,0.600728,-0.225538
0.038025,0.165779,0.092343,-0.558284,0.702386,0.441557
0.635702,0.221765,0.561280,-0.199810,-0.971036,-0.131011
0.471439,0.217275,0.534275,0.699733,0.638218,-0.321016
0.281819,0.210670,0.493768,0.794822,-0.598747,-0.098791
-0.068593,0.269889,0.062270,0.406533,0.903848,-0.133379
-0.090818,0.275498,0.116565,0.449186,0.683090,0.575865
0.033336,0.290961,0.253633,-0.192266,0.428642,-0.882780
0.430460,0.331483,0.602155,0.368303,0.640270,-0.674097
0.811777,0.184112,0.324499,0.806518,0.490533,-0.330010
0.076921,0.148079,0.044553,0.607013,0.761679,-0.226670
0.041671,0.152569,0.091893,-0.359049,0.342155,0.868340
0.436708,0.192094,0.444997,0.196274,-0.948756,0.247666
0.466923,0.200572,0.528301,-0.396472,0.879281,-0.263959
0.223825,0.191341,0.460913,-0.416277,-0.868649,0.268631
0.712105,0.105061,0.281497,0.839946,-0.244483,-0.484478
0.081611,0.069409,-0.006592,-0.750939,-0.598041,-0.280067
0.423857,0.112792,0.390620,0.685278,-0.206537,-0.698382
0.370204,0.115662,0.425398,0.968966,0.110383,-0.221180
0.432543,0.126133,0.526215,0.890071,0.161705,0.426175
-0.180941,0.118652,0.516518,-0.063696,-0.243935,0.967697
-0.766292,0.119528,0.588120,0.999648,0.026077,-0.004987
-0.815606,0.122145,0.622449,0.332365,0.941962,0.047346
0.119119,-0.015995,-0.181466,0.582106,-0.800164,-0.144534
0.092899,-0.010760,-0.127457,0.620475,0.775816,-0.114547
0.089247,-0.004527,-0.060641,-0.667322,0.603023,-0.437087
0.051220,0.020159,0.195696,0.425955,-0.903166,0.053412
0.461890,0.059928,0.554283,0.578962,0.605047,0.546554
0.341207,0.057934,0.550641,0.269861,0.949264,0.161470
0.295188,0.061549,0.591066,0.742084,-0.215063,0.634869
-0.324888,0.040484,0.450316,-0.330713,-0.887086,0.322036
-0.430988,0.039982,0.459031,0.155848,-0.468175,0.869784
-0.144647,0.064174,0.672161,0.981767,0.155515,-0.109308
-0.403204,0.072149,0.782880,-0.896343,0.386687,-0.216893
-0.711419,0.059060,0.686277,0.217431,0.797978,0.562099
-0.573546,0.073397,0.818640,0.914627,-0.373616,-0.154497
0.061814,-0.118606,-0.175247,0.778022,-0.448526,0.439893
-0.041849,-0.118856,-0.162481,-0.454132,0.445380,-0.771622
0.035593,-0.106643,-0.049840,0.836258,0.459488,0.299236
0.009892,-0.101780,0.004374,0.837616,0.523014,0.157657
-0.021188,-0.096667,0.057155,-0.218747,0.911521,0.348251
-0.014240,-0.089810,0.127817,0.868735,0.288543,0.402546
0.366038,-0.058016,0.407150,-0.140740,0.012095,0.989973
-0.146904,-0.085069,0.191809,0.526826,-0.750220,-0.399530
-0.171562,-0.080336,0.245655,0.829055,-0.534179,0.165290
-0.258903,-0.079583,0.262635,0.654158,-0.728328,0.204002
-0.203511,-0.069362,0.356659,-0.288511,-0.830791,0.475970
-0.347117,-0.072353,0.345530,-0.325420,0.814448,-0.480391
-0.356492,-0.060505,0.470119,0.511134,-0.408336,-0.756309
-0.084915,-0.036572,0.678544,0.995845,0.076484,0.049421
-0.492283,-0.032455,0.771832,-0.649687,0.076524,0.756341
0.224169,-0.177330,0.161163,-0.380450,0.492538,-0.782729
0.738500,-0.135940,0.514881,0.584958,0.747372,0.315055
-0.146730,-0.168358,0.291767,0.858857,-0.433908,-0.272193
-0.124680,-0.160254,0.370530,-0.820120,-0.532173,0.210228
-0.128670,-0.141549,0.560093,-0.603425,0.788576,0.118431
-0.228517,-0.141671,0.568685,-0.476384,0.862339,-0.171551
-0.412058,-0.147408,0.535912,0.884418,0.002862,-0.466687
-0.674086,-0.133072,0.710623,-0.376043,0.508379,-0.774689
-0.390873,-0.315600,0.116442,0.888450,-0.453980,0.067520
-0.066161,-0.286797,0.358828,-0.127486,0.315022,-0.940483
-0.149162,-0.285678,0.380431,-0.596129,-0.791907,0.132341
-0.149512,-0.279073,0.445856,0.862326,0.504676,-0.041184
-0.295541,-0.282064,0.432926,0.896663,-0.436609,-0.073269
-0.303357,-0.275831,0.491354,-0.634045,0.045354,-0.771965
-0.789905,-0.262734,0.674862,-0.256316,0.617510,-0.743629
-0.765073,-0.255133,0.747038,-0.602525,-0.171811,-0.779387
-0.318640,-0.423948,0.488531,0.432057,0.729354,0.530443
-0.375595,-0.407861,0.645812,0.972190,-0.157488,0.173330
-0.905898,-0.397762,0.801333,-0.012702,-0.124285,0.992165
0.152975,-0.719314,-0.944465,0.028277,0.210656,0.977151
0.401288,-0.723423,-0.919506,-0.164826,0.219841,0.961510
0.299529,-0.380930,-0.942091,-0.090717,0.195408,0.976517
-0.141521,-0.333802,-0.959563,0.095739,-0.083960,-0.991859
0.416916,-0.312731,-0.953957,0.469508,0.526343,0.708890
0.431849,-0.365596,-0.952034,0.202868,-0.320613,0.925231
0.487066,-0.418834,-0.935218,0.720416,-0.654640,-0.229013
0.428372,-0.539898,-0.909072,-0.680179,0.464975,-0.566705
0.557735,-0.524564,-0.926339,0.864742,0.336735,-0.372601
0.244836,-0.496134,-0.899457,0.161370,0.814910,0.556669
0.514324,-0.465710,-0.932926,0.540220,0.800838,-0.258498
0.424207,-0.587528,-0.923311,-0.456565,0.598380,-0.658399
0.579096,-0.575306,-0.933295,-0.454234,0.592523,0.665273
0.734854,-0.712328,-0.914310,0.005160,-0.094857,0.995478
0.477861,-0.648246,-0.931085,0.609823,0.111157,0.784703
0.250045,-0.791873,-0.930717,-0.141133,-0.093460,0.985569
0.471089,-0.789377,-0.917256,-0.040565,0.285026,0.957661
0.168258,-0.731900,-0.924007,0.805375,0.359314,-0.471450
0.166520,-0.871418,-0.922206,0.731145,0.412358,0.543496
0.359436,-0.864683,-0.918974,0.094268,0.065607,0.993383
0.537943,-0.857081,-0.918278,0.251666,-0.184287,-0.950107
0.263584,-0.939495,-0.926830,-0.607094,0.419952,0.674594
0.516238,-0.717312,-0.934277,0.076179,-0.985089,0.154263
0.314467,-0.880017,-0.920161,0.369626,-0.922724,0.109346
0.489148,-0.872537,-0.920856,-0.181857,0.316949,0.930845
0.145683,-0.396020,-0.869179,0.960111,0.241522,0.140902
0.280430,-0.349387,-0.951011,-0.607290,0.536270,0.586186
0.354057,-0.860193,-0.925357,-0.038298,0.391846,0.919233
0.568678,-0.856457,-0.913778,-0.474209,0.259236,0.841381
-0.133879,-0.531793,-0.965904,-0.216985,0.242804,0.945496
0.306131,-0.527433,-0.937182,0.261879,0.655297,0.708523
0.139430,-0.124594,-0.383181,0.904790,-0.079807,-0.418314
0.125716,-0.216353,-0.974169,-0.486013,0.163387,0.858543
0.332696,-0.205760,-0.965086,-0.338604,0.065652,0.938636
0.264109,-0.286926,-0.962959,0.022532,0.681269,0.731686
-0.160100,-0.309116,-0.986567,0.282820,-0.066636,0.956856
0.090291,-0.296279,-0.962795,-0.662664,0.115341,0.739981
-0.007818,-0.405494,-0.967132,-0.531813,-0.395795,0.748680
0.212363,-0.393775,-0.953466,-0.150403,-0.690778,-0.707252
0.409618,-0.383677,-0.947779,0.181905,0.222601,0.957789
-0.279219,-0.370207,-0.979366,0.102577,0.165598,0.980844
-0.115476,-0.361859,-0.983539,0.764495,0.583017,-0.275026
0.138911,-0.348269,-0.958049,0.965254,-0.175151,0.193925
0.333565,-0.338292,-0.950807,-0.765393,-0.642023,-0.044500
0.008335,-0.449258,-0.958458,0.007159,0.891941,0.452096
0.188919,-0.439403,-0.956044,-0.153708,0.132246,0.979227
0.392084,-0.429062,-0.948229,0.099602,0.753541,0.649812
0.170515,-0.495137,-0.902239,0.860423,0.432881,-0.268860
0.419867,-0.482049,-0.942132,0.918504,-0.190768,0.346349
0.003645,-0.570565,-0.955430,0.362009,-0.101306,-0.926653
0.287722,-0.556228,-0.916805,-0.659424,-0.745997,0.092993
0.442092,-0.548375,-0.924416,-0.729440,0.651895,-0.207243
0.617123,-0.539396,-0.926380,0.608154,-0.788458,0.092105
0.022743,-0.629663,-0.946756,0.745266,-0.617545,-0.251430
0.220173,-0.619694,-0.938941,0.636605,0.418955,-0.647464
0.434276,-0.608842,-0.927157,-0.040275,0.408248,0.911982
0.625809,-0.598996,-0.923434,0.081146,-0.252155,-0.964279
0.155582,-0.698242,-0.949702,-0.064580,0.749864,0.658433
0.384442,-0.686766,-0.929694,0.111398,0.019291,0.993589
0.585174,-0.676668,-0.920038,-0.685737,-0.551040,0.475520
0.523010,-0.783274,-0.922656,0.020203,0.017179,0.999648
0.712975,-0.773670,-0.919260,-0.305630,-0.053644,0.950638
0.270881,-0.885009,-0.928998,-0.085134,-0.867673,-0.489792
0.477342,-0.874409,-0.919751,-0.264395,0.246088,0.932489
0.667481,-0.864683,-0.916519,-0.523787,0.582897,-0.621190
-0.137181,-0.090304,0.567785,0.790981,-0.571222,0.219215
0.271401,0.185732,0.345162,-0.799841,-0.035636,0.599153
0.161135,0.273877,0.398557,0.630310,0.426713,-0.648557
0.046705,0.447433,0.263535,-0.612113,0.411818,0.675073
0.332176,0.192094,0.386405,0.891024,0.318853,-0.323124
-0.057826,0.350682,0.084242,0.607798,0.708941,-0.357747
-0.192398,-0.236557,0.437222,-0.459119,0.430630,-0.777025
-0.156803,-0.038939,0.222210,-0.559322,0.828709,0.020009
-0.200039,-0.040811,0.151753,0.219599,-0.504009,0.835315
-0.006079,-0.030956,0.159650,-0.743660,0.592132,0.310403
-0.319678,0.013302,0.448597,-0.205280,-0.734017,0.647363
0.113560,0.038734,-0.082777,0.990810,0.133347,0.022697
-0.259771,-0.045422,0.355759,0.333326,-0.847003,0.414100
0.021354,-0.028962,0.056296,0.924835,-0.280011,-0.257438
0.100015,-0.023232,-0.205852,0.979413,-0.043693,-0.197082
0.345896,0.137106,0.401790,0.303174,-0.137624,0.942945
0.083175,0.124390,0.263371,0.862921,-0.441711,-0.245475
-0.515377,0.090351,0.778706,-0.141700,-0.504653,0.851614
0.199512,0.131125,0.077859,0.932945,0.357716,-0.040647
0.064940,0.125265,-0.023367,0.480836,0.838711,-0.255655
0.454942,0.318767,0.620648,0.817754,0.521553,-0.243436
0.036462,0.301188,0.160018,0.325885,0.017810,-0.945242
-0.062166,0.296698,0.071108,0.369917,0.794105,-0.482244
0.038545,0.204932,0.049300,0.742180,0.616480,-0.262909
-0.382887,0.359783,0.571427,0.313826,0.489901,-0.813333
0.464666,0.319634,0.569095,-0.156460,0.839454,0.520420
0.054696,0.301683,0.220246,0.103106,0.904963,0.412809
0.046705,0.446809,0.398271,-0.115689,0.924599,0.362949
0.042715,0.447433,0.341520,0.419429,0.739612,0.526359
0.395035,0.399308,0.599904,0.995048,0.057201,-0.081287
0.021179,0.382848,0.318403,0.556720,0.037767,-0.829841
0.039589,0.384218,0.267872,-0.654033,0.485198,0.580366
-0.098460,0.437707,0.621958,-0.568759,-0.533442,-0.626062
0.281819,0.457531,0.577810,0.763588,0.637096,-0.105085
0.022398,0.445310,0.443728,0.428664,0.903421,-0.008830
-0.339476,0.425616,0.599577,0.675245,-0.662079,0.325108
-0.098460,0.506903,0.779320,0.732853,0.385971,-0.560315
-0.006604,0.514011,0.489636,-0.071730,0.994706,0.073580
-0.042718,0.512641,0.423066,-0.470893,-0.881435,0.036484
0.129537,0.522366,0.366806,0.134379,0.965429,-0.223358
-0.345029,0.495184,0.650517,-0.631744,-0.430974,0.644330
-0.292939,0.498548,0.612343,0.687716,-0.725936,0.007926
-0.131972,0.506781,0.609969,0.841765,-0.446677,0.303170
0.112690,0.519125,0.633823,-0.636853,0.318395,0.702170
-0.026052,0.575353,0.543808,0.968895,-0.239853,0.060931
-0.048971,0.574478,0.484030,0.296540,-0.853889,-0.427713
-0.160100,0.571115,0.174666,0.377400,-0.457992,0.804868
-0.127806,0.651535,0.701866,0.394676,-0.696725,-0.599003
-0.147079,0.654525,0.209403,-0.568830,-0.793836,-0.215072
-0.032300,0.657265,0.625599,0.578333,0.691510,0.432833
-0.415530,0.638940,0.454530,-0.733920,-0.644216,-0.215283
-0.399383,0.555278,0.643234,0.394245,0.666036,0.633220
-0.075016,0.572606,0.582924,-0.554142,0.832343,-0.011433
-0.252130,0.644800,0.768682,0.271886,0.138975,-0.952242
-0.350414,0.728454,0.769828,-0.575110,0.613999,0.540605
-0.182849,0.737061,0.769705,0.777220,0.298239,0.554060
-0.121204,0.741299,0.681327,0.537814,0.817959,0.204204
-0.227998,0.832693,0.684313,-0.209970,-0.080612,0.974379
-0.272972,0.885551,0.703012,0.086567,0.958919,-0.270151
0.006771,0.584454,0.617825,0.024906,0.951889,-0.305430
-0.078662,0.606150,0.646671,-0.193437,-0.966350,0.169556
-0.050185,0.674721,0.711441,-0.788702,0.493847,0.366149
-0.172081,0.668117,0.628136,0.804679,0.381367,0.455029
-0.164095,0.706888,0.781284,0.327348,-0.434295,0.839185
-0.290506,0.702771,0.636687,0.495120,0.253261,0.831093
0.403890,0.254806,0.569626,0.069115,-0.880906,0.468217
-0.027091,0.536825,0.610747,0.882092,-0.012240,-0.470919
-0.108878,0.534086,0.534521,0.320894,-0.879724,0.350873
-0.188752,0.548171,0.603586,0.808449,0.260007,-0.528021
-0.197607,0.699780,0.667865,0.958146,-0.111019,0.263878
-0.189971,0.881069,0.774288,0.473249,-0.870570,-0.134695
-0.021188,-0.083578,0.099176,0.697025,0.715295,0.050085
0.085776,-0.103272,-0.181957,-0.640153,-0.215000,-0.737550
-0.307872,-0.208629,0.519136,-0.131056,0.599952,0.789229
-0.336349,0.442821,0.672980,-0.333129,0.011623,0.942810
-0.338432,0.579592,0.739386,0.458158,0.701726,0.545593
-0.398859,0.768109,0.735499,0.516765,-0.610349,-0.600357
-0.024658,-0.573312,-0.964186,0.119086,-0.349531,0.929326
0.297101,-0.672681,-0.933458,-0.329460,0.052286,0.942721
0.303004,-0.794612,-0.931576,-0.373578,-0.144602,0.916259
0.610525,-0.548999,-0.928426,0.766781,-0.640130,-0.047767
0.618342,-0.646625,-0.936609,-0.099108,-0.594405,0.798035
0.623026,-0.778533,-0.927730,0.118709,-0.102714,0.987602
0.702731,-0.679286,-0.925070,0.111048,0.806916,0.580134
0.708809,-0.802595,-0.922575,-0.498281,-0.303538,-0.812146
0.780522,-0.790625,-0.923598,-0.260605,-0.373034,-0.890467
0.569023,0.262287,0.563816,0.982477,0.176261,-0.060589
0.561211,0.198076,0.570936,0.802538,-0.571996,-0.169567
0.375932,0.273755,0.526501,0.479591,0.785358,-0.391414
0.380277,0.125509,0.539962,0.955888,0.190675,-0.223429
0.393472,0.105564,0.501051,0.864518,-0.331793,0.377521
0.411357,0.140348,0.436732,0.813488,-0.526717,-0.246590
0.271226,0.526476,0.478425,-0.317165,0.836858,0.446178
0.278867,0.211537,0.512467,0.430370,0.807292,-0.403809
0.141169,0.526726,0.665983,0.883847,0.455653,-0.105801
0.214965,0.512762,0.430962,0.639608,-0.571300,0.514313
0.221043,0.395938,0.432558,0.204311,-0.579434,0.788995
0.242578,0.070779,0.421675,-0.708571,-0.654027,0.264908
0.257856,0.077133,0.370898,-0.430062,0.849383,0.305934
0.033511,0.870590,0.671057,0.016418,-0.638736,0.769251
0.037156,0.712626,0.687259,0.362973,0.348848,-0.864035
0.048269,0.665993,0.660051,0.453893,0.890518,-0.030956
0.058862,0.611507,0.635828,0.864817,-0.275628,0.419667
0.099665,0.551040,0.516599,-0.062872,-0.937886,0.341199
0.137348,0.449305,0.413041,-0.493425,0.869759,-0.007058
0.152630,0.457036,0.362019,0.460709,0.391752,-0.796415
-0.101586,0.811119,0.754975,0.421829,-0.884667,-0.198556
-0.092726,0.725837,0.741800,-0.050348,0.910874,0.409601
-0.004691,0.498304,0.502074,-0.522937,0.069254,0.849553
0.009028,0.477856,0.461527,0.250689,-0.668162,0.700510
0.022398,0.455659,0.423229,-0.087715,-0.982843,-0.162252
0.031078,0.374995,0.409564,-0.232214,0.958452,0.165668
0.048444,0.397809,0.350154,0.843234,0.110303,-0.526108
0.060075,0.355172,0.320244,0.765904,-0.437742,-0.470928
0.073795,0.323500,0.283502,0.742180,0.609940,-0.277744
-0.013026,0.701653,0.680140,0.727596,0.018010,0.685769
-0.000351,0.666244,0.646262,-0.630984,0.648792,-0.425356
0.008853,0.578093,0.633741,-0.372868,0.860580,-0.346945
0.102622,0.424740,0.359523,-0.121139,0.177122,-0.976705
0.021704,0.182613,0.179085,0.870236,-0.314676,0.379036
0.062508,0.095214,0.065339,-0.238480,0.865043,0.441393
-0.190835,-0.079955,0.529447,0.220763,-0.382748,-0.897089
-0.121034,-0.348017,0.350440,-0.491360,-0.176361,-0.852914
-0.065987,-0.064873,0.126590,0.623137,0.768392,0.145855
-0.028479,0.000085,-0.005078,0.975803,-0.109096,0.189491
-0.018411,-0.064370,-0.026558,0.547413,-0.832684,-0.083524
-0.004346,-0.083075,-0.068211,0.982573,0.154183,0.103814
-0.206117,0.771472,0.801906,0.875886,0.481236,0.035139
-0.196044,0.713996,0.779484,0.063451,0.363730,0.929341
-0.184756,0.666495,0.751170,0.307906,0.906632,0.288466
-0.166178,0.721849,0.682472,0.846925,0.488692,0.209518
-0.136311,0.506028,0.626376,0.822159,-0.526683,-0.216007
-0.119296,0.537951,0.566476,0.782812,-0.563479,0.264004
-0.109222,0.478351,0.544381,0.954345,0.262955,0.141704
-0.093426,0.486083,0.492705,-0.098103,-0.944089,0.314756
-0.083177,0.427236,0.470160,0.989425,0.143629,0.020239
-0.070851,0.387833,0.437550,-0.658657,-0.711734,0.244144
-0.012507,0.340333,0.261244,0.235995,0.497104,-0.834981
-0.002608,0.268268,0.241645,0.176587,0.971008,0.161121
-0.338607,-0.135438,0.545077,-0.110933,0.193697,0.974769
-0.323155,-0.122349,0.492295,-0.585632,-0.633055,-0.506238
-0.275923,-0.096294,0.334237,0.063350,-0.662915,0.746009
-0.283390,0.656892,0.698470,0.741052,0.495097,0.453565
-0.270020,0.641056,0.658864,-0.539593,-0.640878,-0.545999
-0.233726,0.330737,0.595199,0.285208,0.950419,0.123936
-0.446265,0.795785,0.729935,0.575990,0.814138,-0.073584
-0.420045,0.553787,0.686769,0.754807,0.317231,0.574135
-0.406155,0.539199,0.644543,-0.048745,-0.329442,0.942917
-0.406850,0.333978,0.682963,-0.533434,0.818001,-0.215229
-0.387746,0.400427,0.608988,0.957757,-0.213402,0.192771
-0.789730,-0.031207,0.709559,-0.065974,0.514508,-0.854944
-0.791643,-0.264858,0.759108,-0.833345,0.459767,-0.306839
-0.575283,-0.039061,0.762135,0.799219,0.093430,-0.593733
0.733291,-0.726041,-0.917747,-0.400537,-0.127518,0.907364
0.729471,-0.798235,-0.920365,0.542387,-0.337785,-0.769232
0.724436,-0.872917,-0.916069,-0.090844,-0.268922,0.958868
0.488804,-0.471448,-0.942091,-0.183185,-0.283583,0.941288
0.483595,-0.543391,-0.935054,-0.344302,-0.114350,0.931869
0.478036,-0.614953,-0.928303,-0.373175,-0.308149,-0.875091
0.473172,-0.689887,-0.925030,0.663506,-0.073928,0.744510
0.469181,-0.761951,-0.926748,-0.139577,0.528510,0.837374
0.464147,-0.837509,-0.923188,-0.132664,-0.155155,0.978942
0.458932,-0.912686,-0.918565,0.373625,-0.743450,-0.554695
0.148291,-0.165862,-0.350939,0.886126,0.355528,0.297290
0.236501,-0.264485,-0.966068,-0.200708,0.174905,0.963911
0.168082,-0.314724,-0.537311,0.641520,0.616900,-0.455947
0.231116,-0.336047,-0.956371,0.015117,-0.946237,0.323120
0.225388,-0.407990,-0.949579,-0.450402,-0.591065,-0.669164
0.218266,-0.482543,-0.933090,0.191681,0.768471,0.610500
0.203158,-0.549501,-0.858296,0.925665,0.050780,0.374920
0.210624,-0.630043,-0.939432,0.636605,0.418955,-0.647464
0.206634,-0.705350,-0.941437,0.243226,-0.055036,-0.968407
0.201595,-0.780154,-0.939064,0.460785,0.622371,-0.632718
0.196910,-0.852713,-0.935954,-0.343101,-0.789071,0.509557
0.191871,-0.925029,-0.931699,0.976860,-0.108994,-0.184024
0.025175,-0.266973,-0.977606,0.050622,0.169404,0.984246
-0.044975,-0.315851,-0.513048,-0.038474,0.999129,-0.016172
0.014407,-0.414473,-0.966846,-0.749321,-0.120408,0.651169
0.009198,-0.488654,-0.961036,-0.347395,0.196377,0.916926
0.005033,-0.563960,-0.963613,-0.795468,0.379233,0.472666
-0.000001,-0.635773,-0.957558,-0.356785,0.220491,0.907793
-0.005041,-0.707587,-0.953057,-0.437441,0.292335,0.850403
0.134221,-0.091431,-0.232038,0.937954,-0.158036,0.308655
-0.180072,-0.286675,-0.979325,-0.108340,0.141521,0.983989
-0.184756,-0.359113,-0.977566,-0.629385,0.160918,-0.760250
-0.189271,-0.430553,-0.973965,-0.569590,-0.297604,-0.766159
-0.194136,-0.505859,-0.973760,-0.275209,0.128401,-0.952771
-0.776185,-0.182071,0.763076,0.970668,-0.131451,-0.201308
-0.797891,-0.426938,0.818559,-0.023435,0.022151,0.999480
-0.574590,-0.046297,0.687341,0.240937,-0.970489,0.010037
-0.585527,-0.171600,0.714305,-0.730306,-0.012317,0.683009
-0.388440,-0.277947,0.564389,-0.350429,-0.870442,-0.345731
-0.339995,-0.297275,0.197538,-0.499610,0.756987,0.421141
-0.407194,-0.399885,0.648717,0.989916,-0.140886,-0.014750
-0.411189,-0.461852,0.652563,0.914134,-0.191394,0.357389
-0.511381,0.783694,0.589389,-0.358207,-0.928108,0.101502
-0.571463,0.578846,0.963237,-0.586246,0.809876,0.020413
-0.499399,0.597170,0.406127,-0.044291,0.368939,0.928398
-0.569030,0.517504,0.916183,0.872708,-0.260381,-0.413017
-0.582400,0.017792,0.780670,-0.399673,-0.445568,0.801081
-0.176596,-0.006894,0.530961,0.239365,-0.580365,-0.778384
-0.122073,-0.083950,0.121352,-0.032409,0.979993,0.196376
-0.189102,-0.199026,0.538694,-0.005667,-0.999947,-0.008600
-0.177290,-0.267970,0.427198,0.898599,-0.231424,-0.372776
-0.178334,-0.335796,0.404776,-0.559469,-0.245355,0.791704
-0.184238,-0.400510,0.420038,-0.466552,0.762489,0.448264
-0.316552,0.881814,0.552278,-0.694327,0.719106,-0.028223
-0.337738,0.809377,0.674003,0.831054,0.344210,-0.436885
-0.314125,0.754266,0.477893,-0.678020,0.093634,0.729055
-0.354928,0.677218,0.745728,0.852199,0.507387,-0.127732
-0.355797,0.616370,0.727848,0.867811,0.400446,0.294187
-0.349894,0.492688,0.625354,0.482907,-0.838306,0.253068
-0.350763,0.430721,0.605878,-0.454841,0.739172,-0.496733
-0.355104,0.300564,0.579487,0.015114,0.587246,0.809267
-0.287211,0.302809,0.078513,0.147990,-0.289220,0.945754
-0.391917,0.174759,0.793886,-0.151914,0.586436,-0.795622
-0.357880,0.109551,0.514513,0.872888,0.313823,0.373607
-0.353021,-0.090054,0.387346,0.828866,0.484518,0.279685
0.041496,0.762866,0.703707,-0.391572,0.707335,0.588513
0.033686,0.697285,0.728134,-0.605602,-0.793646,0.058068
0.037676,0.637190,0.680549,-0.697780,0.713931,-0.058360
0.031598,0.574608,0.697366,0.553507,-0.536919,0.636669
0.072057,0.387833,0.359237,-0.067601,-0.378160,0.923269
0.021529,0.319140,0.664019,-0.724803,0.288437,0.625672
0.079179,0.321506,0.289394,0.573588,0.577622,-0.580818
0.084907,0.254433,0.224378,0.308923,0.903696,0.296480
0.061119,0.189469,0.356087,0.800170,0.496406,-0.336614
0.103486,0.121399,0.050977,0.939294,0.325278,-0.109184
0.108001,0.051450,-0.002868,0.910516,0.078650,0.405925
0.069105,-0.009268,0.225606,0.187729,-0.949171,0.252652
0.023962,-0.266227,0.420038,0.168692,-0.062131,-0.983709
0.015800,-0.328445,0.448270,0.946662,-0.076115,0.313111
0.025350,-0.400632,0.357396,0.122758,-0.722893,0.679968
0.052264,-0.619565,0.098030,-0.438225,0.868403,0.232023
-0.155066,0.882438,0.746710,-0.138541,-0.962055,0.235066
-0.157672,0.821217,0.741596,0.155165,-0.986126,0.058981
-0.157672,0.760750,0.715205,-0.402352,0.686533,-0.605628
-0.158542,0.697041,0.696425,-0.571257,-0.404516,-0.714165
-0.157672,0.636445,0.667047,0.320428,-0.610863,0.723997
-0.166178,0.569988,0.701048,-0.243020,0.941493,0.233523
-0.168266,0.441451,0.659927,-0.484761,0.017993,-0.874461
-0.096546,0.450675,0.164641,0.416233,-0.069723,0.906581
-0.165139,0.379728,0.613406,0.154429,-0.149300,0.976658
0.322103,-0.198904,0.149871,0.162269,-0.565283,0.808780
0.522660,-0.024350,0.469955,0.793932,0.607639,0.021148
0.525092,-0.091674,0.434236,-0.073028,-0.983788,0.163794
0.311684,0.526476,0.470242,0.740486,0.302790,0.599999
0.278867,0.459273,0.642170,-0.272646,-0.912196,0.305881
0.306476,0.399552,0.455144,0.472242,-0.791497,-0.387969
0.260288,0.331604,0.708249,0.036493,0.994664,-0.096498
0.293625,0.136482,0.439228,0.946496,0.046991,0.319277
0.298140,0.069531,0.389433,0.886087,-0.353516,-0.299793
0.290329,0.005822,0.413287,0.900209,-0.213699,0.379415
0.515718,0.237722,0.592334,-0.287144,-0.741084,0.606912
0.520753,0.171890,0.544831,0.467824,0.477626,0.743650
0.533772,0.107687,0.451216,0.756020,0.029542,-0.653881
0.510334,0.043727,0.561198,0.779157,-0.188201,0.597909
0.807612,0.154311,0.350645,-0.048817,-0.920457,0.387783
0.797713,-0.812572,-0.917337,0.367242,-0.085492,-0.926188
0.717489,-0.835264,-0.916028,0.015486,-0.081152,0.996581
0.703600,-0.765064,-0.923188,-0.318048,0.541520,0.778204
0.690400,-0.681158,-0.922902,0.065120,0.470767,0.879851
0.610525,-0.877901,-0.918606,0.403702,0.425316,0.810019
0.596806,-0.798356,-0.920979,0.030864,-0.197839,0.979748
0.583436,-0.717191,-0.922697,0.901390,-0.419712,-0.106480
0.569716,-0.638764,-0.926748,-0.091043,0.026116,0.995504
0.556522,-0.557849,-0.925930,0.560502,-0.652681,0.509750
0.542977,-0.488159,-0.933213,-0.574642,0.400006,0.713990
0.530652,-0.843863,-0.920692,-0.142553,0.421015,0.895782
0.517626,-0.760582,-0.920815,0.093478,0.222853,0.970360
0.504950,-0.680656,-0.920611,-0.565013,0.818942,-0.100467
0.490712,-0.610966,-0.930758,0.005372,0.528040,0.849202
0.476992,-0.529297,-0.931699,-0.195974,0.435192,0.878750
0.463103,-0.455490,-0.938204,0.622250,0.005725,0.782798
0.449558,-0.385671,-0.945692,-0.069804,-0.026415,0.997211
0.435320,-0.319214,-0.955062,0.330633,0.516774,0.789700
0.405973,-0.904832,-0.919179,-0.089176,0.511877,0.854418
0.392258,-0.830523,-0.925684,-0.439045,-0.286672,0.851504
0.378884,-0.749357,-0.927239,0.230867,-0.359755,0.904034
0.365689,-0.678168,-0.933213,-0.221700,0.053332,-0.973655
0.351969,-0.610836,-0.942623,-0.112893,-0.221443,0.968617
0.338255,-0.528300,-0.943769,0.155341,0.663925,0.731487
0.325749,-0.450628,-0.945037,0.560692,-0.062076,-0.825694
0.310991,-0.383548,-0.956903,0.325017,-0.416305,-0.849149
0.297271,-0.305874,-0.960504,0.007869,0.191187,0.981522
0.282863,-0.234806,-0.969423,0.004305,0.072392,0.997367
0.284426,-0.910190,-0.924293,0.845430,-0.467782,-0.257735
0.269837,-0.839875,-0.933663,0.609904,-0.054880,0.790573
0.257856,-0.755719,-0.930635,-0.651642,0.418888,-0.632373
0.245006,-0.670687,-0.929244,0.184444,0.269199,-0.945258
0.237194,-0.538901,-0.893197,-0.320532,0.201522,0.925553
0.216527,-0.528925,-0.947574,0.543647,0.301585,-0.783259
0.203158,-0.454121,-0.951338,0.228277,-0.307001,-0.923927
0.190307,-0.379560,-0.954694,0.231033,-0.697067,-0.678764
0.175549,-0.310113,-0.964513,-0.164013,0.170679,0.971580
0.162529,-0.237181,-0.969464,-0.268074,0.117992,0.956145
0.174505,-0.922038,-0.924129,0.449302,0.733231,0.510392
0.160966,-0.847234,-0.929980,-0.184105,-0.978678,-0.091077
0.146552,-0.772544,-0.935913,-0.458398,0.667673,-0.586587
0.161660,-0.430553,-0.742422,0.825343,-0.194673,0.530011
0.120852,-0.622061,-0.942501,0.359227,-0.220799,-0.906755
0.106268,-0.556982,-0.955757,-0.130704,-0.057942,0.989727
0.093417,-0.478677,-0.957312,0.207446,0.803533,0.557943
0.080217,-0.394772,-0.956576,-0.132937,-0.172547,0.975989
0.065634,-0.327319,-0.967909,-0.112532,0.485899,0.866740
0.051220,-0.255756,-0.976174,-0.280050,0.277089,0.919126
0.144639,-0.305250,-0.504619,0.405950,-0.685095,0.604855
0.130750,-0.241290,-0.516403,0.726743,0.625447,0.284009
0.058512,-0.749106,-0.945528,0.532741,0.511538,0.674178
0.045317,-0.670185,-0.948515,0.234614,-0.066771,-0.969793
0.031598,-0.595251,-0.954407,0.527863,0.675322,0.515073
0.018228,-0.519329,-0.959399,0.085567,0.103940,0.990896
0.005208,-0.445263,-0.963695,-0.292846,-0.627480,-0.721464
-0.008512,-0.372201,-0.969178,-0.577863,0.351980,0.736332
-0.022231,-0.298523,-0.975765,0.147214,-0.015067,0.988990
-0.346942,-0.203515,-0.226964,0.354720,-0.925797,-0.130667
-0.259252,-0.177832,-0.321971,-0.068963,0.946136,-0.316339
-0.186844,-0.262864,-0.397829,0.922455,-0.228808,0.311004
-0.126069,-0.454988,-0.521272,0.768432,-0.605650,0.206639
-0.127631,-0.264112,-0.439031,0.858179,0.505905,0.087111
-0.260296,-0.379309,-0.980511,0.036586,-0.437753,0.898351
-0.273666,-0.302138,-0.984808,0.233671,-0.212930,-0.948714
0.034030,-0.065124,-0.249182,-0.255215,-0.931427,0.259439
-0.025877,-0.282938,-0.519717,-0.520675,0.757305,-0.394191
-0.137530,-0.568701,-0.967214,0.223385,0.591313,0.774886
-0.150206,-0.494262,-0.970814,-0.272331,0.048402,0.960985
-0.162707,-0.416719,-0.972124,-0.065686,0.995988,0.060766
-0.177120,-0.350262,-0.984480,0.576682,-0.356444,0.735109
-0.189971,-0.269218,-0.983785,-0.089682,-0.297744,0.950424
0.111128,-0.061509,-0.232570,0.743183,-0.633598,0.215019
0.088383,-0.093547,-0.312315,0.761919,0.522513,-0.382701
0.061294,-0.161502,-0.418614,-0.281096,0.901278,-0.329671
0.024825,-0.323453,-0.595330,0.982273,-0.095242,-0.161461
-0.063904,-0.581912,-0.963081,0.781854,0.167988,-0.600404
-0.076405,-0.506605,-0.966232,0.281147,0.024663,0.959348
-0.090124,-0.429678,-0.971019,-0.661650,0.198959,-0.722935
-0.103319,-0.354379,-0.976093,0.322880,-0.231580,-0.917670
-0.117558,-0.281691,-0.983253,-0.087451,-0.491981,0.866202
-0.856409,0.018287,0.677931,-0.313445,-0.949022,0.033321
-0.758300,0.002831,0.699289,-0.247186,0.581001,0.775459
-0.811261,0.104939,0.577728,0.942436,-0.334198,-0.011191
-0.576672,-0.070359,0.705140,0.839216,-0.529976,-0.121826
-0.590217,-0.035446,0.679731,0.422174,0.662015,0.619278
-0.648386,-0.138056,0.695647,-0.615742,-0.539971,-0.573841
-0.665751,0.095214,0.754157,-0.546738,0.411070,-0.729451
-0.563647,-0.109755,0.482967,-0.260697,0.721703,0.641235
-0.694054,0.566252,0.399253,0.786762,-0.158116,0.596662
-0.391223,-0.522571,0.591721,0.796125,-0.423288,0.432448
-0.506522,0.634946,0.783534,-0.384255,0.811447,0.440343
-0.544199,0.522115,0.612629,0.630270,0.250134,0.734978
-0.586740,0.828203,0.626254,0.775584,0.465200,-0.426683
-0.620951,0.582712,0.402935,-0.282732,-0.928580,0.240418
-0.648560,0.861618,0.449866,-0.034722,0.702291,-0.711043
-0.364652,-0.173221,0.571304,0.860944,-0.071191,-0.503693
-0.434633,-0.033201,0.422247,-0.133043,0.918132,-0.373273
-0.442794,0.325250,0.565903,0.846254,0.463031,-0.263545
-0.441056,0.590436,0.696711,0.913439,-0.406973,-0.001136
-0.461547,0.528720,0.605223,0.426904,0.166751,0.888790
-0.265675,-0.280937,0.559479,-0.785291,0.593079,-0.177697
-0.282346,-0.296400,0.500724,0.958911,-0.204952,0.196175
-0.291895,-0.200395,0.516763,0.873778,-0.300019,-0.382755
-0.348675,-0.092298,0.394220,0.871195,0.235876,0.430560
-0.349375,0.388830,0.618684,-0.173035,0.738318,0.651878
-0.402679,-0.407236,0.078882,0.193364,-0.801419,0.565984
-0.343296,0.700405,0.783125,0.318747,-0.877897,0.357347
-0.364828,0.615122,0.677890,-0.802009,0.092372,-0.590126
-0.372469,0.733195,0.709681,-0.527808,-0.605793,-0.595343
-0.394174,0.646793,0.602032,-0.374514,0.241045,0.895342
-0.447478,-0.093797,0.089233,0.993595,-0.035933,0.107133
-0.400422,0.788176,0.650681,-0.464107,0.614665,-0.637802
-0.410321,0.873207,0.659927,0.317148,0.437836,-0.841259
-0.448697,0.580467,0.403631,-0.401719,0.610083,-0.682950
-0.498880,0.671982,0.557515,0.834490,0.495459,0.241135
-0.499574,0.884303,0.655468,-0.654762,0.329035,0.680458
-0.538815,0.566876,0.383623,-0.082702,-0.808625,0.582483
-0.204729,-0.439281,0.514922,-0.288891,0.134365,0.947886
-0.231124,-0.354874,0.474088,-0.783389,0.357500,-0.508424
-0.236678,-0.193044,0.533088,-0.623264,0.741586,0.248176
-0.254218,-0.209748,0.472983,-0.469786,0.841410,-0.267076
-0.292070,-0.041929,0.437468,-0.664702,-0.481714,0.571071
-0.274360,0.443689,0.716392,-0.595695,-0.802750,0.027190
-0.309435,-0.061129,0.376176,0.756739,-0.652668,0.037018
-0.295196,0.377491,0.622572,0.119076,0.973881,-0.193330
-0.300755,0.519870,0.671957,-0.268614,-0.945153,0.185829
-0.321067,0.472621,0.590207,0.921384,-0.259913,0.288958
-0.319503,0.717983,0.708945,-0.001725,0.238852,0.971055
-0.353021,0.495686,0.505430,0.189528,0.335226,0.922877
-0.400597,-0.136062,0.068162,0.933867,0.084938,0.347388
-0.350239,0.743666,0.628995,-0.459464,-0.545826,-0.700690
-0.360138,0.819346,0.633496,-0.617669,0.491718,-0.613757
-0.406850,0.647913,0.412837,-0.570756,-0.338935,0.747904
-0.414141,0.772347,0.449866,-0.340612,-0.258050,0.904098
-0.129020,-0.458983,0.540903,0.763233,0.059470,-0.643381
-0.175382,-0.421452,0.419056,0.584461,0.777584,-0.231880
-0.161838,0.031505,0.668847,0.994990,0.056358,-0.082576
-0.191359,-0.412099,0.377117,0.842918,0.329327,0.425479
-0.198826,-0.283935,0.413696,-0.450614,-0.892713,0.003241
-0.216191,-0.293904,0.357150,0.758205,0.431684,0.488644
-0.222959,-0.153146,0.402608,0.874839,0.389023,0.288647
-0.227473,0.020661,0.468932,0.079607,-0.681315,0.727649
-0.207161,0.530471,0.763567,0.669102,0.559765,-0.488841
-0.231294,0.423743,0.642498,0.810893,-0.086514,0.578764
-0.238591,0.544807,0.677644,0.898758,0.318972,0.300818
-0.258039,0.495686,0.596467,-0.570073,0.818651,0.069480
-0.247621,0.848400,0.789099,-0.788577,0.614103,0.032008
-0.286516,0.562264,0.543317,0.330762,0.939510,0.088983
-0.287730,0.759008,0.629650,0.811755,0.527571,0.250444
-0.315688,0.623478,0.484317,0.535569,0.702394,0.468837
-0.339301,0.542936,0.375890,0.678190,0.713681,0.175267
-0.345380,0.669981,0.416274,0.528277,0.756404,-0.385716
0.094631,-0.004778,0.810212,-0.683368,-0.176947,0.708306
0.065809,-0.219724,0.625108,0.600438,0.779483,-0.178551
0.023267,-0.367217,0.431167,0.152929,-0.783622,0.602121
0.005552,-0.384050,0.370325,-0.373125,0.843157,-0.387123
-0.010420,0.318516,0.646385,0.531029,0.539459,-0.653446
-0.080400,-0.417335,0.098439,0.336981,0.666216,-0.665282
-0.025008,0.574608,0.721670,0.183414,0.649727,0.737709
-0.088041,-0.275451,0.142710,-0.194155,0.739778,0.644230
-0.040985,0.583206,0.678217,-0.523546,0.672237,0.523447
-0.053830,0.622983,0.657759,0.415221,-0.767278,0.488748
-0.075191,0.559023,0.565657,-0.681840,0.694761,-0.228913
-0.122942,-0.057644,0.138864,0.882490,0.316967,0.347482
-0.068593,0.858246,0.722856,0.402560,0.915382,-0.004673
-0.138394,-0.027098,0.106909,-0.740069,-0.047282,-0.670867
-0.127457,0.320137,0.298763,-0.395988,-0.834700,0.382713
-0.069288,-0.186933,0.599986,-0.442681,-0.877723,0.183402
-0.098979,-0.380930,0.424457,0.613465,-0.786218,0.074311
-0.128845,-0.337044,0.355923,-0.497449,-0.857704,-0.129955
-0.138919,-0.234806,0.373844,-0.836389,0.455097,0.305516
-0.105752,0.463269,0.791185,0.930931,0.265033,0.251247
-0.152808,-0.192672,0.351668,-0.631905,0.735573,0.244190
-0.116345,0.535455,0.792290,0.516702,0.846156,-0.130535
-0.130583,0.556154,0.759476,0.443185,-0.886681,-0.131849
-0.146035,0.574105,0.722693,-0.675835,0.367949,0.638640
-0.197607,-0.107761,0.258584,-0.003864,0.549285,0.835626
-0.158367,0.619985,0.706817,0.544460,-0.812964,-0.206524
-0.172606,0.653277,0.679936,-0.040915,-0.975594,-0.215736
-0.193267,0.607147,0.598840,0.891097,-0.438550,0.116701
-0.202991,0.698662,0.612056,0.717259,-0.221552,-0.660646
-0.331835,0.400427,0.094716,0.510386,-0.701907,0.496822
-0.327839,0.650781,0.221228,-0.253183,0.885926,0.388630
0.106787,-0.354623,0.428794,0.321316,-0.862291,0.391422
0.089941,-0.356495,0.377690,0.103394,0.827491,-0.551877
0.064940,-0.233810,0.360792,0.678875,0.712782,-0.176268
0.019447,-0.631162,0.043162,0.875455,0.287465,-0.388512
0.072751,0.340957,0.647039,-0.432658,0.776001,0.458944
0.075009,0.587323,0.766800,0.677937,0.379069,-0.629848
0.062858,0.639565,0.755507,0.897102,0.115098,-0.426567
0.037676,0.527975,0.629691,0.430105,0.192001,-0.882125
0.030384,0.643803,0.662055,-0.745584,0.202641,0.634855
0.014582,0.657014,0.621344,0.657144,0.691562,0.299838
-0.040461,-0.041305,0.137105,0.548802,0.694510,-0.465265
-0.017367,0.469996,0.440578,-0.322048,-0.715202,0.620299
-0.049490,0.287597,0.261162,0.598030,0.801042,-0.026297
-0.115301,0.342326,0.092507,-0.500041,-0.772386,0.391636
-0.119471,0.503288,0.153799,0.521013,-0.117477,0.845426
-0.137530,0.411522,0.310547,-0.329282,0.788723,-0.519124
-0.201427,0.283602,0.061943,0.769518,-0.102072,0.630415
0.177982,0.000830,0.578751,0.810162,-0.308062,0.498733
0.185968,0.334595,0.754362,0.974106,-0.122230,0.190206
0.111822,-0.698486,0.064643,-0.633441,0.190711,-0.749922
0.134746,0.523858,0.690492,-0.522370,-0.637527,0.566295
0.125886,0.625973,0.710868,-0.029866,-0.741977,0.669760
0.116861,0.727960,0.731367,-0.638856,0.406911,0.652906
0.104181,0.773215,0.715164,0.839745,0.257043,-0.478285
0.042540,0.005571,0.183422,0.928054,-0.370262,0.040283
0.064765,0.488327,0.468810,-0.517404,0.813804,-0.264606
0.044623,0.454662,0.393811,-0.338102,0.829755,-0.444065
0.016840,0.328865,0.255352,0.067492,-0.934567,0.349326
-0.009900,0.230364,0.132645,-0.342135,0.795757,0.499715
0.164087,0.704522,0.730671,0.810343,0.288593,-0.509958
0.108526,0.038613,0.272414,0.861904,-0.096957,-0.497715
0.092549,0.053451,0.232439,0.548187,-0.761741,0.345313
0.113040,0.501668,0.491845,0.213452,0.635120,-0.742334
0.069105,0.409901,0.324704,-0.771045,-0.016965,0.636554
0.037506,0.249944,0.161163,0.797876,-0.200115,-0.568637
-0.003997,-0.009892,-0.074962,0.960224,-0.096057,-0.262189
-0.011113,0.121270,-0.036133,0.054153,-0.839178,0.541154
0.212882,-0.407366,0.373394,0.089723,0.880258,-0.465934
0.154713,-0.725546,0.061983,0.367572,0.218830,0.903883
0.218441,0.336345,0.722161,0.600376,-0.789452,-0.127729
0.143601,-0.639518,0.067998,-0.544660,0.779812,-0.308606
0.205765,0.387209,0.707676,0.836260,-0.086168,-0.541520
0.133182,-0.541892,0.081500,-0.141428,-0.553676,0.820634
0.194303,0.461769,0.709231,0.939573,0.336440,0.063330
0.179890,0.485581,0.678258,0.322175,0.787934,0.524750
0.178326,0.668117,0.755016,-0.356298,-0.435932,-0.826447
0.107307,-0.200273,0.160509,0.108904,-0.284319,0.952524
0.297446,0.053946,0.560829,-0.628469,0.310119,0.713339
0.281644,0.059928,0.517295,-0.127147,0.928600,0.348620
0.210449,-0.397268,0.108341,0.406216,0.532304,-0.742725
0.264283,0.488822,0.660255,-0.007532,-0.829595,0.558315
0.230072,0.495930,0.565044,-0.073774,0.647104,0.758824
0.216183,0.531216,0.540985,0.080893,-0.918494,0.387073
0.194303,0.474364,0.452239,-0.001355,-0.999855,0.016985
0.176938,0.480969,0.405145,0.403536,-0.880666,-0.248164
0.126410,0.113044,0.095821,0.831865,0.380653,0.403862
0.119288,0.241588,0.132972,0.366975,-0.928468,-0.057238
0.080048,0.023523,-0.076435,-0.746024,-0.002613,-0.665914
0.058687,-0.000038,-0.148529,0.679935,0.707754,-0.191763
0.384962,-0.033079,0.562343,-0.204498,0.381460,0.901482
0.373505,0.030881,0.557515,0.046850,0.735976,0.675384
0.354401,0.007694,0.492132,-0.016299,-0.220295,0.975297
0.349367,0.167530,0.549946,-0.828805,0.288906,-0.479183
0.297446,-0.475687,0.115624,0.922755,-0.111336,-0.368956
0.327142,0.109056,0.459972,-0.622415,-0.411644,0.665694
0.316374,0.185359,0.463982,0.235945,0.816131,-0.527504
0.292762,0.108432,0.362265,0.768102,-0.627931,-0.125385
0.299529,0.395192,0.508498,0.871393,0.228890,-0.433916
0.287722,0.454791,0.501092,-0.353282,-0.823231,-0.444390
0.278173,0.548049,0.515044,-0.703145,-0.657901,0.269729
0.254559,0.489697,0.422247,-0.565459,-0.253102,0.784982
0.459632,0.091097,0.564021,-0.667639,0.018326,-0.744260
0.442611,0.092224,0.517009,0.505857,0.464875,0.726636
0.429241,0.144465,0.502074,-0.405772,0.442607,-0.799655
0.421430,0.258543,0.531370,-0.475596,-0.856804,0.199238
0.404065,0.262660,0.483785,-0.060595,0.374717,0.925157
0.367602,0.450675,0.462345,-0.173072,0.916831,0.359816
0.548536,0.042600,0.558047,-0.642125,0.370440,-0.671156
0.533772,0.073770,0.529365,-0.933565,-0.222145,0.281263
0.527006,0.215532,0.574741,0.896851,0.410614,0.164484
0.504431,0.157683,0.485053,0.773214,-0.620844,0.129202
0.448689,-0.295403,0.126549,-0.350214,-0.801897,0.484058
0.474390,0.207177,0.421388,-0.569730,0.791403,0.221560
0.459632,0.444815,0.485831,-0.375536,0.922880,-0.085239
0.444524,0.478481,0.457844,0.289196,-0.952010,0.100217
0.662447,-0.088060,0.510667,0.501648,0.817420,0.283151
0.648377,0.158299,0.580060,0.130637,0.655788,0.743556
0.631187,0.166906,0.535912,-0.120233,0.973288,0.195589
0.581004,0.409779,0.501951,-0.525189,-0.799763,0.290785
0.813340,0.146831,0.334892,0.970821,-0.221584,-0.091686
0.746317,0.334595,0.601254,-0.114293,0.773891,0.622920
0.702207,0.430721,0.519545,0.222160,0.967150,-0.123558
0.659495,0.138103,0.266685,0.984054,0.177509,-0.011316
0.898948,0.145340,0.356905,0.850973,0.230621,-0.471867
0.781911,-0.803714,-0.921838,-0.174986,0.161649,0.971210
0.612783,-0.804216,-0.922984,0.089837,0.992117,-0.087366
0.412401,-0.719930,-0.931412,0.526905,-0.086285,0.845533
0.398506,-0.840248,-0.931412,-0.519417,-0.037934,0.853679
0.638309,-0.580915,-0.927566,0.009392,0.240660,0.970564
0.625459,-0.698615,-0.926625,-0.179945,-0.040915,0.982825
0.448170,-0.418339,-0.951134,-0.228503,0.046549,0.972430
0.437752,-0.499003,-0.938614,-0.114053,-0.066698,0.991233
0.425246,-0.608218,-0.934890,-0.482456,0.180089,0.857207
0.148810,-0.299269,-0.512516,0.049187,-0.002976,0.998785
0.150198,-0.139182,-0.373157,0.909380,-0.045182,-0.413505
0.146377,-0.130081,-0.329540,0.899972,0.424910,-0.097484
0.141687,-0.121474,-0.285024,0.818173,0.574957,-0.004184
0.148635,-0.744616,-0.929939,0.031878,-0.332875,0.942432
0.150718,-0.634776,-0.845776,0.911807,-0.248702,0.326735
0.160442,-0.426938,-0.727938,0.797950,-0.373117,0.473349
0.155057,-0.426063,-0.684608,0.890971,0.413529,0.187524
0.157665,-0.317099,-0.602163,0.763092,0.305369,0.569596
0.207673,-0.264355,-0.969628,-0.263123,0.161692,0.951116
0.195517,-0.358618,-0.960585,-0.661392,0.105831,0.742537
0.183885,-0.456365,-0.952689,-0.099197,0.442361,0.891334
0.171554,-0.561966,-0.947533,0.297932,-0.853565,-0.427391
0.160097,-0.647995,-0.936691,-0.162910,0.373205,0.913334
-0.086304,-0.430804,-0.974783,-0.201441,0.569669,0.796805
-0.097935,-0.529176,-0.968646,-0.190756,-0.464051,-0.865025
-0.073803,-0.326071,-0.978302,0.225225,0.220234,0.949089
-0.127282,-0.333802,-0.472255,0.975559,-0.013906,0.219298
-0.136486,-0.391028,-0.450651,0.993918,0.010519,0.109622
-0.608970,0.842411,0.455389,-0.079274,-0.844167,0.530187
-0.632239,0.611758,0.416028,-0.009093,-0.911907,0.410295
-0.358055,0.405792,0.107605,0.241573,0.794727,-0.556823
-0.360487,0.822838,0.661892,-0.524141,0.676451,-0.517389
-0.422821,0.123271,0.469751,0.373058,0.391268,-0.841271
-0.401985,0.407413,0.600436,0.879325,0.451507,-0.151424
-0.390698,0.581586,0.692865,0.856033,-0.260394,0.446545
-0.389135,0.642677,0.748019,-0.081337,-0.919781,0.383910
-0.720793,0.030379,0.705794,-0.225701,0.889313,0.397719
-0.153502,-0.021360,0.117834,0.841123,-0.103705,-0.530808
-0.158192,-0.026474,0.153880,0.265106,-0.668536,0.694822
-0.166872,-0.087192,0.172824,-0.503536,0.852949,-0.137584
-0.169998,-0.076592,0.215582,0.983549,0.141796,-0.111919
-0.183368,-0.145414,0.268977,-0.678925,0.639303,0.361045
-0.154890,0.512641,0.708904,0.891428,0.381127,0.245150
-0.357186,0.664000,0.425316,-0.395754,-0.818898,0.415675
0.094981,0.015418,0.235221,0.915069,0.366447,0.168417
0.103486,0.250187,0.389883,0.651133,0.352636,-0.672067
-0.147599,0.647167,0.787749,0.881327,0.456517,-0.121880
-0.223308,-0.300639,0.482312,0.778179,-0.106854,0.618886
0.103836,0.556024,0.675926,0.455195,0.640589,0.618420
0.113385,0.748156,0.773796,-0.756733,0.319346,0.570415
0.090116,0.489203,0.726948,0.431616,-0.841119,0.325923
0.124847,0.108303,0.073031,-0.569168,0.452363,0.686597
0.129187,0.667241,0.566148,0.213309,0.873332,-0.437938
0.113210,0.627092,0.661973,0.946414,-0.258679,0.193356
-0.103669,0.467758,0.169756,0.416233,-0.069723,0.906581
-0.132147,0.555903,0.537876,0.763819,0.642329,-0.063200
-0.135618,0.557896,0.576336,0.929194,0.275801,0.246032
-0.140307,0.545431,0.608046,-0.507469,-0.134928,-0.851040
-0.138569,0.614003,0.667824,0.335205,0.866057,-0.370922
-0.154890,0.461769,0.655427,-0.462779,0.313542,-0.829172
0.308733,0.124763,0.562589,0.977655,-0.114166,-0.176513
0.300398,0.071274,0.581451,0.889286,-0.444328,-0.108363
0.130750,0.060179,-0.021608,0.934762,0.218895,-0.279829
0.330439,0.154190,0.422043,-0.312477,0.803593,0.506554
0.317418,0.035865,0.421388,0.200407,0.969467,-0.141317
0.316549,0.165779,0.539840,0.913780,0.301194,0.272558
0.514499,0.218401,0.590780,-0.011721,-0.633129,0.773957
0.510334,0.239343,0.634928,0.853966,0.449646,-0.261840
0.303179,-0.470573,0.101017,0.860922,-0.442684,0.250687
0.658626,-0.043550,0.505634,-0.502258,-0.464095,-0.729625
0.515368,-0.008271,0.404572,0.162928,0.575222,0.801607
0.509290,0.051701,0.498883,0.982863,0.183160,-0.020792
0.714188,0.145713,0.267422,0.969352,0.147182,-0.196709
-0.065642,0.135363,0.193569,0.887120,-0.067084,0.456637
-0.145691,-0.247523,0.458417,0.851128,0.299606,0.431065
0.046705,-0.051784,-0.025290,0.917401,-0.339771,0.207198
0.036806,-0.022608,0.026141,-0.603656,0.763471,0.229590
-0.077098,-0.087314,0.100485,-0.414777,-0.904730,-0.097072
0.255079,0.615373,0.559725,-0.441766,0.801346,-0.403344
-0.289637,-0.039190,0.457844,0.871007,0.036419,0.489919
0.102622,0.537578,0.668725,-0.499643,-0.348640,0.792973
0.116861,0.631711,0.773387,-0.141084,0.949742,0.279439
-0.577366,-0.129708,0.738486,-0.402186,-0.312407,-0.860609
-0.516070,-0.015128,0.804238,-0.610279,0.792183,0.002258
0.443136,-0.338414,-0.951052,-0.019738,0.310862,0.950250
0.295713,-0.486409,-0.940905,-0.685650,0.609425,-0.398102
0.137523,-0.650491,-0.936159,-0.279841,0.392566,0.876117
0.172947,-0.517952,-0.811488,0.835668,-0.547917,0.038027
0.525092,-0.469827,-0.932640,-0.361891,0.554208,-0.749592
0.367771,-0.644502,-0.928344,-0.028408,-0.325434,0.945138
0.198298,-0.833392,-0.927403,0.354654,0.034896,-0.934346
0.281474,-0.213986,-0.958785,0.304182,0.199363,0.931519
0.118075,-0.396393,-0.958540,-0.397126,0.032558,0.917186
-0.037684,-0.568572,-0.955716,0.147041,0.555650,0.818311
0.084907,-0.385922,-0.659813,0.957358,0.066180,0.281221
0.388438,0.128377,0.453303,0.869477,0.491555,-0.048812
0.321064,0.065544,0.527524,-0.028336,0.999423,-0.018737
0.351969,0.108554,0.583538,0.525419,0.814663,-0.245476
-0.305790,-0.255011,0.170656,-0.764785,0.642270,0.050921
-0.358230,-0.275451,0.489390,0.729244,-0.130682,0.671659
-0.204554,-0.145414,0.151385,-0.679580,0.733584,-0.005088
-0.000696,0.472492,0.469914,0.091503,0.636044,-0.766208
0.013194,0.491820,0.520936,0.755050,0.634363,0.165781
-0.030912,0.446436,0.554569,0.445288,0.882024,-0.154117
-0.012507,0.471122,0.606573,-0.659315,-0.439966,0.609700
-0.054524,0.427107,0.642661,0.675503,-0.314193,-0.667067
0.048444,0.551664,0.761031,0.017182,-0.069051,0.997465
-0.582400,-0.149280,0.736890,-0.373113,0.425253,-0.824589
-0.545242,-0.103523,0.793150,0.941215,-0.289926,0.173373
-0.712632,-0.289171,0.797978,-0.257750,0.610829,0.748634
-0.275923,0.556778,0.611074,-0.688174,0.413319,-0.596309
-0.345029,0.482468,0.639961,0.775058,0.604530,-0.183927
-0.232338,0.610388,0.715532,-0.114033,0.914512,0.388156
-0.175207,0.677088,0.776742,0.801233,0.468720,-0.371923
0.523631,-0.576465,-0.923960,0.989603,0.040230,-0.138086
-0.477605,0.611449,0.411651,-0.242618,0.029549,-0.969672
-0.008541,0.242492,0.027397,0.424427,0.714901,-0.555678
-0.049714,0.226260,0.125032,0.835297,-0.256791,-0.486144
-0.428122,0.146999,0.480577,0.846542,0.442670,-0.295650
0.280417,0.058610,0.419839,-0.399422,-0.914652,0.062232
-0.022132,0.527352,0.757922,-0.443984,-0.885960,0.133988
-0.112345,0.027412,0.128382,-0.104412,0.985193,0.135992
0.014851,0.267698,0.232885,-0.081819,-0.980909,-0.176415
0.217662,0.087047,0.244140,-0.468135,0.834776,-0.289824
0.317007,0.537160,0.653473,0.725860,0.674003,-0.137287
0.663054,0.104115,0.298314,0.306352,-0.940022,-0.150023
-0.261298,-0.252874,0.150661,0.917547,-0.389783,-0.078596
-0.122451,-0.520503,-0.979305,0.376160,0.181632,-0.908578
-0.386792,0.461189,0.618209,0.345463,-0.589808,0.729919
0.040676,-0.595543,-0.962030,-0.223912,-0.009331,0.974565
0.138372,-0.964990,-0.903650,0.575585,0.577239,-0.579222
-0.877995,0.041712,0.670100,-0.376912,-0.743905,-0.551853
-0.095687,-0.332244,0.453437,0.277122,0.695392,-0.663048
-0.447300,0.800008,0.767287,0.530409,0.798721,0.284095
0.186333,-0.522109,-0.809685,-0.453280,0.890372,-0.042121
-0.064677,-0.417987,-0.976098,-0.293131,0.339467,0.893776
-0.011791,-0.533813,-0.957477,0.231686,-0.331857,0.914436
0.274351,-0.786874,-0.930829,-0.258521,-0.363396,0.895047
-0.218115,0.464552,0.657139,0.003909,-0.400898,0.916114
0.608481,-0.931554,-0.937604,-0.023599,0.795669,-0.605271
0.465379,-0.851615,-0.924483,0.214702,-0.061169,-0.974762
0.535633,0.246538,0.584772,0.655548,0.709552,-0.258444
-0.128031,0.576587,0.556041,0.220251,0.448587,0.866175
0.222793,0.383696,0.676748,0.691105,-0.574067,-0.439115
0.035503,0.527202,0.387722,-0.697421,0.593599,-0.401553
-0.027486,-0.325653,-0.966427,0.867139,0.244534,0.433904
0.550155,-0.711296,-0.944309,0.019137,0.301866,0.953158
0.378560,-0.281058,-0.974133,0.035975,0.701924,0.711343
-0.633755,-0.059839,0.673808,-0.290393,0.637361,0.713753
0.018968,-0.491346,-0.981517,0.182377,0.066614,-0.980969
-0.222094,-0.076434,0.247644,-0.172429,0.790995,0.587023
0.339552,-0.892319,-0.922096,-0.456195,0.342663,-0.821260
0.412565,-0.802500,-0.932550,-0.263462,0.476140,0.838975
0.138629,-0.524202,-0.917373,0.703158,0.594882,-0.389467
0.217287,-0.563697,-0.952794,-0.550110,0.631343,0.546613
-0.237933,-0.184744,0.526392,-0.723771,0.641035,0.255401
0.301188,-0.256710,-0.953828,0.210041,0.895276,0.392891
-0.156144,-0.027302,0.183226,0.955385,-0.013077,0.295073
0.018195,0.394768,0.314542,0.929957,0.118973,-0.347887
0.368156,-0.275680,-0.938780,0.528040,0.606573,0.594342
0.372005,0.121021,0.299869,0.137707,-0.192119,-0.971662
-0.332276,-0.305973,0.208624,-0.364697,0.901247,0.233988
-0.121142,0.705896,0.819281,0.733551,0.662343,0.152333
-0.244319,0.807578,0.745390,-0.574620,0.722287,0.384855
-0.199020,-0.231251,-0.452558,0.769646,0.582297,0.261868
0.045206,-0.018176,-0.196154,0.633712,-0.770267,-0.071397
0.443018,-0.793538,-0.915345,0.451661,0.291621,0.843184
0.453914,0.427893,0.469063,0.357213,0.933801,0.020362
-0.066871,0.493180,0.506337,0.899239,-0.279461,-0.336556
-0.737473,-0.240659,0.804960,-0.257750,0.610829,0.748634
-0.196000,0.329606,0.083327,-0.190644,-0.548289,0.814269
0.565900,0.158365,0.555453,-0.428132,0.487379,-0.761028
