0.350341,-0.188793,-0.976054,-0.120442,0.209461,0.970371
-0.241907,-0.458199,0.954309,0.132405,0.059755,0.989393
0.186027,-0.714233,0.785818,0.437036,-0.558905,-0.704716
0.202887,0.396639,-0.993471,-0.081176,-0.030451,0.996235
0.078102,-0.222338,0.574094,0.972433,-0.060256,-0.225263
-0.397791,-0.496675,0.745985,-0.263901,0.835780,0.481486
0.677820,0.185432,0.704638,0.230202,0.621138,0.749129
0.330991,0.003139,-0.099797,0.845353,0.519823,0.123138
-0.335270,-0.103549,0.895960,0.279596,-0.959541,-0.033272
0.312089,-0.106089,0.587210,0.237571,0.590058,0.771617
0.781594,-0.206201,0.616970,-0.365096,0.596121,0.715084
-0.535667,-0.493836,0.801806,0.888882,0.432552,-0.150952
0.443897,-0.438102,-0.970282,-0.034587,-0.016326,0.999268
0.177725,-0.111542,0.185207,0.341722,-0.938557,0.048332
0.258062,-0.511244,0.723640,-0.411760,0.802033,0.432662
-0.495882,0.169443,0.772145,-0.336611,-0.591478,0.732698
-0.228815,-0.601195,0.655975,0.556508,0.193240,0.808058
0.360304,0.500412,0.619214,0.146897,0.599895,0.786478
-0.135705,0.126486,0.539705,0.224864,-0.746802,0.625877
-0.329716,-0.435338,0.798863,0.019762,-0.638890,0.769044
0.130531,-0.693537,0.781875,0.822465,-0.302355,-0.481802
0.715307,0.447143,0.399503,0.989518,-0.131807,-0.058994
0.068523,-0.046992,0.765287,0.953186,-0.210557,0.217029
0.441662,-0.045947,0.687393,0.864993,0.353159,0.356462
-0.397791,0.210535,0.805349,0.766666,-0.639959,0.051723
-0.322819,-0.216810,0.885944,-0.566412,-0.824055,-0.010526
0.138642,-0.132163,0.189807,-0.180372,0.976616,0.116989
-0.471998,0.612179,0.781261,0.592129,-0.786901,-0.173697
0.570279,0.086814,-0.980312,-0.129186,0.156428,0.979204
-0.042084,-0.333731,0.757658,0.489441,-0.156773,0.857829
-0.546204,0.315952,0.877929,-0.658722,-0.212428,0.721775
-0.126255,-0.459245,0.789176,0.340571,0.923549,-0.176261
0.601250,0.043184,0.693179,0.419343,0.727004,0.543707
-0.161442,-0.101830,0.691979,-0.543743,0.346086,0.764571
-0.137940,-0.072169,0.664919,0.737443,-0.668092,0.099150
0.525575,-0.203063,0.616256,0.512523,-0.235796,0.825664
-0.022862,-0.413448,0.750171,-0.226255,-0.186245,0.956097
0.408837,0.249833,0.493613,-0.348659,-0.394098,0.850367
-0.303404,0.126262,0.558207,-0.471339,0.526044,-0.707896
-0.210614,0.636684,0.675263,-0.632138,0.042884,0.773668
-0.523533,-0.055808,0.966210,0.032509,0.925774,0.376678
-0.146307,-0.514606,0.564179,-0.350310,0.704640,0.617062
-0.466313,0.658946,0.755472,-0.436428,0.862639,-0.255704
0.396576,-0.094135,-0.937664,-0.170777,0.956139,0.237978
0.201417,0.408741,-0.993457,-0.057102,0.050655,0.997082
0.386359,-0.105118,-0.459295,0.818595,-0.571805,0.054237
0.376205,-0.014046,-0.504358,0.716487,0.689720,0.104556
-0.002235,-0.605304,0.725883,0.915254,0.391683,0.094315
-0.150138,-0.600672,0.842939,0.534820,-0.840204,-0.089581
-0.237372,-0.122227,0.809907,0.941939,0.228034,0.246477
0.400217,-0.338961,-0.971797,-0.284213,-0.053952,0.957242
0.427868,-0.083303,-0.505615,0.963962,0.252614,0.083446
-0.128042,-0.040717,0.807464,-0.461348,0.850486,0.252648
-0.282968,-0.518267,0.856126,0.797202,0.580858,-0.164538
0.787981,0.312291,0.452023,-0.500742,-0.336791,0.797389
-0.452201,-0.318714,0.656832,0.471082,0.754375,0.457165
-0.054091,-0.300037,0.922963,0.016375,0.012300,0.999790
0.157481,0.184908,-0.987499,0.125985,-0.223471,0.966534
0.175809,-0.051700,-0.983998,-0.229857,0.023107,0.972950
-0.408455,-0.473141,0.938693,0.377464,0.609849,-0.696854
0.625518,0.074637,-0.981455,0.095011,0.215235,0.971929
-0.129383,0.111394,0.534761,0.275665,-0.646751,0.711141
-0.319434,-0.386851,0.804263,0.236162,0.036973,0.971010
0.338847,-0.495479,0.862041,0.630846,-0.748354,0.204938
-0.408200,0.227569,0.671463,-0.034953,-0.122844,0.991810
-0.352960,0.016960,0.949223,-0.403409,0.470911,0.784540
0.731974,0.315877,0.593996,0.622704,0.234837,0.746386
-0.494732,-0.493313,0.924406,-0.468566,0.797078,0.380935
-0.532665,0.130594,0.804792,-0.723517,-0.473874,-0.501963
0.387317,-0.141278,-0.404060,-0.187348,0.979821,-0.069658
-0.536752,0.012701,0.848040,0.741650,-0.084567,0.665435
0.176448,0.189691,-0.989985,0.026065,-0.108008,0.993808
-0.474551,-0.168323,0.887173,-0.184390,-0.776291,0.602804
0.499712,0.048936,0.660376,0.312936,-0.949606,0.017890
0.762628,0.083975,0.614656,-0.709658,-0.164377,0.685103
0.013794,-0.036907,0.886173,-0.689930,-0.636648,-0.344493
0.234562,-0.047516,0.763330,0.689571,0.702809,-0.174790
0.518041,-0.122001,-0.971797,-0.279876,0.176341,-0.943702
0.222299,0.293761,-0.989485,-0.240233,0.262099,0.934661
0.256656,0.252373,0.630643,-0.538042,-0.112716,-0.835348
0.006959,-0.671199,0.744656,0.858993,0.413599,0.301775
-0.005747,-0.015988,0.839996,0.868810,0.480389,0.119982
-0.281501,-0.179903,0.873014,0.954896,-0.175644,0.239422
-0.070503,0.199402,0.556064,-0.105747,-0.833865,0.541744
-0.132066,-0.643258,0.865928,-0.389869,0.647652,0.654637
0.306086,-0.087710,-0.193465,-0.056184,-0.938779,0.339907
0.071588,0.156221,0.950809,0.304773,-0.948249,0.089094
-0.344978,-0.389466,0.962710,0.925739,-0.286991,-0.246259
0.348490,-0.318640,0.739370,-0.573465,-0.174914,0.800340
0.155502,-0.316772,0.767573,-0.359467,0.916245,0.176859
-0.262916,-0.176093,0.666648,-0.397305,0.884881,-0.243176
0.536879,-0.156219,0.683692,0.856902,0.056135,-0.512414
0.748707,-0.203139,0.612956,0.351305,-0.553671,-0.755005
-0.075740,-0.159057,0.782304,-0.374591,0.105444,-0.921175
0.330544,-0.272693,-0.974254,-0.105852,0.021200,0.994156
0.285970,-0.017632,0.732612,0.053516,-0.970979,0.233101
0.482341,-0.172655,0.596082,-0.511119,0.702462,0.495283
0.185197,-0.007546,0.724940,-0.730435,0.270536,0.627117
-0.330802,-0.089278,0.923206,0.876787,-0.027918,0.480067
-0.346512,-0.170115,0.825623,0.771128,-0.636490,-0.015554
0.613448,0.368248,0.456781,0.801489,-0.150994,-0.578634
0.195541,-0.044527,0.436793,0.507356,-0.364706,-0.780756
0.444408,-0.049534,-0.736484,0.952073,-0.301491,0.051575
0.321858,-0.190362,0.903117,-0.588965,-0.628768,-0.507711
0.573216,0.682332,0.551134,0.682576,0.729939,-0.035762
-0.507250,0.104372,0.825109,0.890995,-0.432347,-0.138579
-0.489751,-0.191483,0.915162,-0.147925,0.342470,-0.927811
0.271026,-0.286066,0.744299,-0.622875,0.416291,-0.662365
0.044830,-0.690623,0.690708,-0.254389,0.918862,-0.301627
0.093620,0.109899,-0.989313,0.176398,-0.045013,-0.983289
-0.310366,0.025551,0.971854,-0.314123,-0.190739,0.930024
-0.183984,0.121554,0.544319,0.777981,-0.172793,0.604059
0.214572,-0.150391,0.944351,0.891287,0.334213,0.306445
0.025544,-0.070079,0.756029,0.396967,0.773043,-0.494795
-0.150713,-0.047664,0.764630,-0.414523,-0.520892,-0.746219
-0.089598,-0.149495,0.392459,0.954514,-0.252336,-0.158838
0.324413,-0.417781,0.706909,-0.095986,-0.718118,0.689271
0.020818,-0.635786,0.806764,0.444061,0.880319,0.166876
0.198991,-0.212252,0.636987,0.440509,0.877082,0.191515
0.041318,-0.126709,0.464125,0.480589,0.874368,-0.067192
-0.340955,0.075457,0.830981,-0.405869,-0.740342,-0.535877
-0.179003,0.206427,0.562007,-0.322623,-0.809487,0.490556
-0.396705,-0.432499,0.667848,0.705051,0.694121,0.145251
0.655661,-0.148225,0.705266,0.705688,-0.533183,-0.466606
0.536752,0.160405,0.378129,-0.149047,-0.789352,0.595574
0.122741,0.114981,-0.987841,-0.344634,0.055982,0.937066
0.289290,-0.068061,0.040705,-0.505452,-0.841618,-0.190255
-0.251613,-0.195815,0.739913,0.794932,0.522409,-0.308498
0.220000,0.025626,0.728998,-0.173670,0.327486,0.928758
0.404559,-0.028090,-0.530689,-0.750249,-0.527366,-0.398763
-0.102817,-0.056855,0.598583,0.868096,0.422691,-0.260273
0.251420,-0.051549,0.003786,0.681751,-0.729559,0.054403
-0.020245,-0.127979,-0.992185,-0.043680,0.132019,0.990284
0.447729,-0.107208,-0.785147,0.636703,-0.742648,0.207566
0.393447,0.072769,-0.980112,-0.062269,0.126665,0.989989
0.319050,-0.416511,-0.972540,-0.016730,0.025691,0.999530
-0.274604,-0.471199,0.915619,0.859047,0.492270,-0.140389
0.057475,-0.009488,-0.982812,-0.083460,0.115707,0.989771
-0.235712,-0.431005,0.960195,-0.400217,0.363462,-0.841262
0.643528,-0.007546,0.682978,0.840585,0.524964,0.133530
0.202694,-0.091520,-0.984455,0.271443,-0.063137,-0.960381
0.172934,-0.119985,0.127186,0.906363,-0.359894,0.221320
0.145410,0.196563,-0.989556,-0.162071,0.016590,0.986640
0.780063,-0.242883,-0.971197,0.063141,-0.042737,0.997089
-0.302765,-0.163914,0.602440,-0.322310,-0.918542,-0.228904
-0.039851,-0.330444,0.533618,0.420384,0.878041,-0.228738
0.471932,0.227943,-0.986499,0.087275,0.084263,0.992614
-0.306341,0.260964,0.798005,0.632089,0.257209,0.730963
-0.306661,-0.097498,0.749828,0.730457,-0.199260,-0.653244
-0.332844,-0.417631,0.948837,-0.846983,0.531591,-0.005595
0.239799,-0.168024,0.912647,0.376996,0.068012,0.923715
0.444728,-0.719089,0.634115,-0.236065,-0.530176,-0.814363
0.484001,-0.423832,-0.966410,-0.009230,0.135711,0.990705
-0.104030,0.351066,0.721497,0.418628,0.399007,-0.815808
-0.330737,-0.365633,0.961724,0.975192,-0.084443,-0.204622
0.374480,-0.357041,0.779475,-0.006906,-0.946774,0.321825
0.024841,-0.097049,0.219354,-0.172649,0.984130,0.040994
-0.194267,-0.176839,0.655318,-0.695435,0.562288,-0.447440
-0.395939,0.461787,0.683664,-0.835004,0.406164,-0.371214
0.150902,-0.270751,0.637587,0.003067,0.834201,0.551452
-0.158951,-0.157938,0.888516,0.581885,0.631164,-0.512876
0.172743,-0.489578,0.876043,0.476176,-0.106624,-0.872862
-0.221791,-0.496675,0.918791,-0.015844,0.056368,0.998284
-0.177853,-0.434142,0.686207,0.862728,0.032940,0.504595
-0.117058,-0.019125,0.762173,-0.381305,0.923659,0.038218
0.516507,0.210984,-0.983555,0.102228,-0.146067,-0.983979
0.677309,0.134703,-0.980069,0.090964,-0.025611,0.995525
0.459097,-0.125364,-0.886759,-0.405630,0.904329,-0.132868
-0.159206,0.127457,0.938407,-0.310248,-0.640527,-0.702475
0.545820,0.203437,0.668119,0.101658,-0.660989,0.743478
0.232709,-0.070601,0.562993,0.166352,0.914329,0.369227
-0.205442,-0.006723,0.862713,0.341680,-0.935400,-0.091003
0.484450,0.228166,-0.986013,0.026992,0.077995,0.996588
-0.167509,-0.054240,0.711753,0.754370,0.167976,0.634594
-0.140304,0.062161,0.845297,-0.512091,0.839174,-0.183169
-0.151288,-0.124317,0.767845,-0.350835,-0.377087,-0.857158
0.229516,-0.100710,0.896988,-0.153592,0.829217,0.537410
0.260808,-0.234814,0.746300,0.896184,-0.195282,-0.398395
0.770739,-0.200970,-0.969940,-0.176926,0.091730,0.979940
0.156969,-0.283152,0.956481,0.886141,-0.424507,0.185868
-0.053261,-0.167277,-0.988642,0.027446,0.214802,0.976272
0.096111,-0.443407,0.577166,0.846900,-0.196979,-0.493923
0.098664,0.280613,-0.992628,0.309280,-0.237672,-0.920792
0.504884,-0.423832,-0.971897,0.101504,-0.137029,-0.985353
0.433104,0.236235,-0.984913,0.003967,0.119576,0.992817
-0.226197,0.335825,0.624286,0.974716,0.058495,0.215656
0.358451,-0.068957,-0.522717,-0.642325,-0.583887,-0.496481
0.608722,0.233246,0.413290,0.031175,-0.835148,0.549141
0.329523,-0.707957,0.723011,0.221593,-0.708776,0.669726
0.437704,-0.072767,-0.573294,0.991937,0.124896,0.021478
-0.270963,-0.430183,0.885673,-0.397469,0.664145,-0.633190
0.130275,0.102354,0.716325,-0.611486,-0.274110,-0.742259
-0.359027,0.732462,0.839610,0.243003,0.889311,-0.387397
0.183281,-0.045124,0.213082,0.829574,0.536310,0.155498
-0.311196,0.229213,0.647774,0.093356,0.534299,0.840124
-0.393257,0.290847,0.654689,0.350610,0.090406,0.932148
0.385402,-0.483228,0.673520,0.143181,-0.700985,0.698656
-0.397984,0.225403,0.884473,-0.516702,0.323351,0.792756
0.383741,-0.464101,0.681678,-0.043503,-0.998983,0.011843
-0.585416,-0.241539,0.862570,0.219583,0.534375,-0.816227
0.562551,0.045947,0.717696,-0.598259,-0.767241,-0.231145
-0.063159,-0.372283,0.931921,-0.006446,0.280759,0.959757
-0.096111,-0.005826,0.751914,-0.104419,0.814905,0.570111
0.878600,-0.303474,0.652760,-0.450292,0.683069,0.575025
-0.301105,0.362870,0.634958,0.866516,0.065506,0.494832
0.307298,-0.586851,0.759415,0.670200,0.231031,0.705306
0.122357,-0.043408,0.326537,0.206191,0.976619,0.060837
0.287757,-0.127755,0.014245,-0.485245,0.849969,0.205160
0.277412,-0.420993,-0.969439,-0.063232,0.066892,0.995755
-0.403156,0.459395,0.665390,0.819958,-0.529163,-0.218303
-0.156332,-0.162197,0.904989,0.168743,-0.977507,-0.126515
0.384698,-0.544116,0.739184,0.756838,-0.015887,-0.653410
0.402260,0.178558,-0.985955,0.096613,-0.082817,-0.991871
-0.037231,0.064700,0.770302,0.916158,-0.386533,0.106052
-0.051217,0.589541,0.724469,0.944244,-0.264892,0.195540
0.135960,0.084796,0.938764,-0.703462,-0.347978,0.619720
-0.527429,-0.626895,0.789219,-0.021473,0.832088,0.554228
0.590586,-0.357714,-0.968896,0.140222,-0.098048,-0.985253
0.373585,0.119463,0.481484,-0.705361,0.669100,-0.234034
0.127212,-0.073439,0.924148,0.205740,-0.486299,0.849225
-0.347597,-0.410160,0.943093,0.797837,-0.502386,-0.333262
0.424802,-0.103100,-0.516945,-0.506739,-0.766088,-0.395378
-0.606169,-0.762495,0.801635,0.719783,-0.658391,0.220077
-0.655981,0.679268,0.763587,0.787822,-0.276486,0.550356
0.441917,-0.910571,0.644416,0.081577,0.537940,0.839027
0.797815,0.303700,0.579609,0.700864,-0.311314,-0.641773
0.619644,0.549348,0.555549,0.224249,0.416209,0.881183
-0.047833,0.139559,0.658032,-0.143303,-0.848387,0.509611
-0.511528,0.413075,0.710910,0.150328,0.705731,0.692348
0.455072,-0.745163,0.735856,0.763463,0.194256,0.615946
-0.007856,-0.092940,0.504258,-0.133542,0.927719,-0.348574
0.594227,0.219352,0.672277,0.105300,-0.487470,0.866767
-0.177216,-0.109751,0.430692,-0.272153,0.958659,-0.083105
-0.383486,0.703475,0.731326,0.789495,-0.469015,0.395882
0.340889,-0.371311,-0.973711,0.018810,0.097079,0.995099
-0.574558,0.743743,0.791919,-0.589217,-0.804596,-0.073815
0.008109,-0.589839,0.861270,-0.101757,0.869404,0.483511
0.066414,-0.082630,0.377086,0.033541,-0.999420,-0.005901
-0.411265,-0.147477,0.893659,-0.055713,-0.544536,0.836885
-0.185390,0.011581,0.907104,0.429037,0.410292,-0.804728
-0.156460,-0.001121,0.739627,-0.472588,-0.153825,0.867755
-0.252891,0.442211,0.628443,0.883840,-0.243055,0.399690
0.247781,-0.800075,0.743756,0.494016,0.567945,-0.658321
0.211891,-0.518715,0.805721,-0.159794,-0.289529,0.943737
0.349000,-0.132685,0.595039,0.269382,0.672262,0.689563
0.535156,-0.019500,0.654246,-0.537292,0.831722,0.139844
-0.601317,0.700187,0.805292,0.812778,0.028746,-0.581864
-0.202185,-0.079566,0.881144,-0.859995,0.124194,0.494958
0.077782,-0.151139,-0.984155,-0.158527,0.052583,0.985953
0.197137,-0.279044,0.647345,0.425363,0.839617,0.337802
0.309598,0.060592,0.771145,0.913024,-0.103000,0.394688
0.009130,-0.012028,0.915990,0.378420,0.922974,0.070123
0.291526,-0.376391,0.896817,0.731555,0.221911,-0.644657
-0.064245,-0.262831,0.761901,-0.303121,0.950551,-0.067602
-0.442941,-0.475607,0.745885,0.242502,0.703341,0.668210
-0.207486,-0.570713,0.902603,0.748492,-0.596103,0.290555
0.053195,-0.145236,0.587667,-0.529374,0.843504,0.090907
-0.069546,0.001419,0.500686,0.943341,0.327507,-0.053359
0.339038,0.374226,-0.989828,-0.139447,-0.118155,0.983155
0.196947,-0.336944,-0.981841,0.133849,-0.011653,-0.990933
0.306086,-0.307508,0.908418,0.386780,-0.418231,0.821878
0.056198,-0.061262,0.299791,-0.047923,-0.975907,0.212859
-0.468038,-0.281210,0.908261,-0.629292,0.571579,-0.526583
0.348297,0.286141,0.407732,0.225935,-0.238644,0.944459
0.470591,-0.335375,0.257515,-0.396392,0.345633,0.850536
-0.053006,0.007546,0.774174,-0.458756,-0.853403,-0.247479
0.628137,0.190437,0.397846,0.385862,0.341846,-0.856885
0.006258,-0.132012,0.549877,0.385464,0.892271,0.235097
0.363752,-0.419873,0.650074,-0.092530,0.757011,0.646818
-0.267387,-0.683078,0.689979,-0.376799,0.873264,-0.308921
0.811163,-0.208592,0.619285,0.070393,0.511168,0.856593
0.112842,-0.113560,0.892245,0.592895,0.805182,-0.012551
0.341273,0.431231,0.489342,0.218163,0.106250,0.970111
-0.453223,-0.508331,0.751200,-0.465815,-0.585072,-0.663858
-0.534581,-0.519461,0.679521,0.691710,-0.695429,-0.194720
0.341145,-0.633320,0.741028,0.951512,-0.307509,-0.007934
-0.106520,-0.786776,0.754358,-0.060756,-0.899921,0.431800
0.359729,-0.305790,-0.978026,-0.032331,-0.030733,0.999005
0.209591,-0.096675,0.044362,-0.377970,0.924564,0.048162
0.277667,-0.284199,-0.981584,-0.139111,0.145337,0.979554
0.266683,-0.103323,0.886258,-0.081012,-0.428999,0.899665
0.323838,0.218006,0.618485,-0.807576,0.088805,-0.583040
0.603614,-0.031526,-0.973526,-0.128229,0.225381,0.965796
0.541733,0.494808,0.530703,-0.574380,0.445968,-0.686440
0.418418,-0.103549,-0.732184,0.826413,-0.528584,-0.194012
-0.546588,-0.511318,0.648831,-0.745766,0.611503,0.264380
0.009004,-0.201419,-0.987084,-0.017421,0.146987,0.988985
-0.455010,0.742996,0.764673,-0.641232,0.728546,-0.240919
0.257487,-0.070900,0.764730,-0.636920,-0.344148,-0.689852
0.724055,0.032500,0.287104,-0.099364,-0.373162,0.922430
0.342485,-0.489279,0.804363,0.826729,0.248685,-0.504653
0.291461,-0.064550,0.071651,0.855877,-0.446597,0.260817
-0.196183,0.118342,0.676034,0.258578,-0.712635,-0.652141
0.362986,-0.488980,0.817965,0.984200,-0.101439,-0.145124
0.606169,-0.377138,-0.966868,-0.191760,0.058091,0.979721
0.170188,-0.154502,0.762201,0.065020,0.286800,0.955781
0.013091,-0.074784,0.482612,-0.541461,-0.830851,0.128478
0.313045,-0.204632,0.704566,-0.344558,0.208726,-0.915267
-0.227665,-0.241987,0.748986,0.782186,0.413745,-0.465833
0.466376,0.071349,0.675934,-0.648482,0.223353,-0.727726
0.240372,-0.462308,0.733170,0.043319,-0.877429,0.477747
0.338973,0.152783,0.480998,-0.705361,0.669100,-0.234034
0.447474,-0.052074,-0.739299,0.949775,-0.288281,0.121745
0.167380,-0.114978,0.181492,0.152073,-0.982522,-0.107354
-0.373396,-0.478893,0.736284,-0.273361,0.914761,0.297467
0.310812,-0.422861,0.912833,-0.646927,0.452529,-0.613761
0.366051,0.109527,0.588239,-0.469095,0.569124,-0.675313
0.290440,-0.158460,0.759515,0.566021,0.066191,0.821729
0.517721,-0.195891,0.611413,0.611979,0.108766,-0.783359
-0.169871,-0.561748,0.856798,0.769212,-0.189583,0.610223
-0.454435,0.616436,0.729641,0.412497,-0.456372,0.788397
0.067437,-0.037653,0.554092,-0.259191,0.310302,-0.914622
0.467526,0.010460,-0.977769,-0.126790,0.222070,0.966752
-0.028738,-0.056182,0.917191,0.870041,0.349240,-0.347936
-0.266621,-0.609637,0.872343,0.927891,0.139722,-0.345683
-0.568301,-0.324317,0.658347,0.305221,0.043332,0.951295
0.168466,-0.131116,0.823723,-0.841214,0.309870,0.443102
-0.260554,-0.669256,0.868914,0.817704,0.570712,0.075157
-0.046684,-0.066939,0.352255,0.882470,-0.421146,0.209482
-0.140559,-0.645050,0.866770,-0.609411,-0.149315,0.778667
0.018392,-0.045423,0.739184,0.875123,-0.424272,-0.232705
0.449518,-0.121928,-0.575252,0.995464,0.095138,0.000806
0.345424,-0.116175,-0.238641,0.826553,-0.553089,0.104414
-0.499713,-0.528577,0.827709,-0.024112,0.512945,-0.858083
0.053259,-0.282032,0.495014,0.935942,-0.326431,0.132116
0.760137,-0.174598,-0.968996,-0.228878,0.045503,0.972391
0.512611,-0.524692,0.760001,0.672517,-0.552088,0.492869
0.372182,0.630782,0.511373,-0.361046,0.091149,0.928083
0.200267,0.580127,0.619985,-0.161545,0.016903,-0.986721
0.354683,-0.247664,0.238913,-0.151372,0.367524,0.917613
-0.192351,-0.075756,0.738041,-0.712234,-0.556648,-0.427629
0.171593,-0.629586,0.647560,0.168512,0.983858,-0.060226
0.020307,0.062161,-0.992599,-0.059081,0.123639,0.990567
-0.320200,0.266643,0.789276,0.728124,-0.175285,0.662654
-0.334633,-0.356967,0.689179,0.845773,-0.528070,0.076226
0.795453,-0.068734,0.606926,0.495643,0.715986,0.491632
0.481640,-0.224281,0.683278,0.727900,-0.191227,0.658479
0.318282,-0.130669,-0.121800,-0.385630,0.864526,0.322311
0.148221,0.543967,0.624929,0.999398,0.033382,0.009501
-0.083851,-0.576316,0.877700,0.995929,-0.031461,0.084476
0.346574,-0.406500,0.813993,0.845692,-0.511963,0.150660
-0.089662,0.653791,0.751429,-0.239432,-0.968437,-0.069297
-0.000639,-0.179080,0.461667,-0.080062,0.626931,0.774950
-0.380294,0.673440,0.824023,-0.457055,0.655428,-0.601261
-0.398685,-0.453492,0.694922,-0.205049,0.809101,0.550736
0.105179,-0.060366,0.343425,0.264765,0.963258,0.045084
-0.108374,-0.360552,0.666090,-0.136374,0.826947,0.545491
0.264832,-0.255211,0.514259,0.141822,0.744708,0.652148
0.158567,-0.466642,0.788147,0.877458,0.479182,-0.021275
-0.098537,-0.565558,0.830338,-0.367515,0.923959,-0.105984
-0.049494,-0.454090,0.899188,-0.586993,0.546900,-0.596942
0.504438,-0.098768,0.576209,-0.292995,0.447428,0.844963
0.154671,-0.410982,0.787004,0.984209,0.118657,-0.131353
-0.436427,-0.698095,0.817065,0.153987,-0.491385,0.857222
-0.499394,0.208966,0.769731,0.035480,-0.288849,0.956717
0.285586,-0.109301,-0.978983,-0.051022,0.288967,0.955979
-0.562105,0.693388,0.800063,0.321355,0.245532,0.914574
-0.533113,0.856781,0.793891,0.326109,0.202575,-0.923372
-0.520276,0.039971,0.928263,0.884386,0.133829,-0.447159
0.284181,-0.091743,-0.049863,0.937678,0.257383,-0.233482
-0.403411,0.784163,0.749214,0.334738,0.021951,0.942056
-0.259020,-0.649757,0.906418,0.273904,0.592438,-0.757624
0.425186,-0.077026,-0.365656,-0.831889,0.502086,-0.236371
0.265214,-0.624057,0.759058,-0.554421,0.048506,0.830822
0.516955,-0.254911,0.671019,-0.724868,0.312876,-0.613739
0.455712,-0.003585,-0.983213,-0.108177,0.324099,0.939818
-0.470593,-0.579829,0.829566,-0.756762,0.463775,-0.460677
-0.228879,-0.472992,0.834453,-0.306407,0.188105,-0.933130
-0.224983,-0.175793,0.577252,-0.491755,0.832381,-0.255576
-0.069417,0.005156,0.430678,-0.153667,0.985015,0.078312
0.566256,-0.109226,0.700609,0.216629,0.817427,-0.533746
-0.423847,0.104819,0.870085,0.966674,0.032964,-0.253879
0.371288,-0.693314,0.771960,-0.205736,0.785831,0.583217
-0.719715,-0.185131,0.700194,0.474572,0.667875,0.573345
0.416309,-0.042958,-0.570579,0.999469,-0.025885,0.019786
0.347977,0.171461,-0.988613,-0.148061,0.118541,0.981848
0.169487,-0.152708,0.269088,0.372107,-0.927791,-0.027193
0.052877,-0.103772,-0.987899,-0.257489,0.133877,0.956962
0.718756,0.574897,0.388916,0.942265,-0.333958,-0.024673
-0.245035,-0.225849,0.700423,0.097327,-0.991899,-0.081628
0.430807,0.005977,-0.798991,-0.297678,-0.954511,-0.017212
0.014112,-0.048487,0.496428,0.620863,0.745938,-0.241052
-0.384061,-0.234740,0.887730,-0.038043,0.985629,0.164584
0.215658,-0.204780,-0.979726,-0.233531,0.041354,0.971470
-0.586246,0.367202,0.713539,-0.447126,0.679202,-0.582034
0.699086,0.365708,0.509973,0.244507,0.349951,-0.904296
0.307298,0.328203,0.626100,0.306289,-0.218477,-0.926528
-0.059073,0.012851,0.774960,-0.259632,-0.959637,-0.108111
0.383038,-0.043182,-0.437064,0.999476,0.026185,0.019030
0.683441,-0.256631,-0.970354,-0.007109,0.127112,0.991863
0.368668,-0.505417,-0.968768,-0.138874,0.201542,0.969585
-0.315283,0.234965,0.784047,0.195948,-0.255931,0.946628
-0.452519,0.145911,0.911233,-0.193893,0.605016,0.772244
0.309278,-0.392678,0.853612,0.056693,0.545656,0.836089
0.354492,-0.664326,0.755672,0.116450,0.846921,0.518811
-0.241650,-0.123645,0.878843,0.648191,0.072995,-0.757971
-0.252443,0.264550,0.622271,0.962897,0.251153,0.098755
-0.058944,-0.506014,0.718211,0.691555,0.539730,-0.480046
0.119165,0.075608,0.794062,0.793152,-0.597561,0.117603
0.362921,-0.119388,-0.410261,0.024604,0.991186,0.130170
0.738234,-0.430332,0.666748,0.640530,0.754284,-0.144143
0.585158,0.128205,-0.980169,-0.139673,0.032110,0.989677
-0.380038,-0.327157,0.705738,0.748815,-0.661847,-0.035125
0.506418,-0.481883,0.778446,0.606320,0.032383,-0.794561
0.402515,-0.059693,-0.276903,0.932441,-0.328959,0.149468
0.181812,-0.211580,0.922877,0.994767,-0.023918,0.099335
0.244651,-0.072543,0.402132,0.828937,-0.543057,-0.133985
0.100835,-0.058200,-0.987784,-0.006736,0.054430,0.998495
-0.024332,-0.028015,0.603469,0.675749,0.655814,-0.336558
0.516507,-0.597161,-0.960853,0.009184,0.274780,0.961463
0.548630,0.386404,0.599468,0.539618,-0.050681,-0.840383
0.544095,-0.747105,0.725326,0.050758,-0.602370,0.796602
0.410562,-0.568621,0.798806,0.283456,-0.523717,0.803351
-0.269687,0.812626,0.686007,0.265841,0.325192,-0.907512
0.097643,-0.556369,0.769674,0.782657,0.065188,-0.619030
0.776038,-0.007024,0.279789,-0.013161,-0.216490,0.976196
-0.566385,-0.436234,0.807492,0.814103,-0.510125,-0.277505
-0.036274,-0.214793,0.873928,0.962846,-0.260826,-0.069983
0.404368,-0.157190,0.739670,0.133839,-0.936313,0.324661
-0.021202,-0.109003,0.251686,0.637357,-0.741116,0.211004
0.670987,0.231976,0.631886,-0.790530,-0.561438,-0.244642
0.354683,0.143444,0.493071,-0.553415,0.616206,-0.560376
-0.595889,0.422863,0.734798,-0.124391,-0.985193,-0.117992
0.718692,0.417708,0.448837,0.956555,-0.279149,-0.084129
0.343444,-0.041538,-0.151675,-0.002921,-0.998314,0.057971
-0.166103,-0.168396,0.931078,0.716461,-0.696366,-0.041920
0.332587,-0.144192,-0.980612,0.057541,-0.132552,-0.989504
0.507439,0.014718,0.679235,0.665493,-0.739706,0.099772
0.576217,-0.205528,-0.973883,-0.085091,0.035379,0.995745
0.256465,-0.402091,0.726526,-0.738344,0.419772,0.527863
0.707260,-0.281210,-0.962224,0.032153,0.361223,0.931925
0.291908,-0.130742,-0.093796,0.661515,0.733516,-0.156054
-0.538541,0.310125,0.861270,0.832159,0.489755,0.260098
-0.230921,-0.409264,0.919391,0.824911,-0.364338,0.432179
0.338847,-0.033843,-0.018859,0.997015,-0.067735,-0.037048
0.709815,-0.340082,0.641087,-0.172116,0.786264,0.593434
-0.071972,0.062085,0.514373,0.471438,-0.525807,0.708006
0.562105,-0.771087,0.724111,-0.121822,-0.497864,0.858656
0.757966,0.175644,0.676049,0.405639,0.913521,0.030602
0.086339,-0.235861,-0.986970,-0.073186,0.023510,0.997041
-0.339295,0.199851,0.819322,-0.041449,0.994480,0.096388
0.467654,-0.113335,0.239299,-0.413487,0.248280,0.876006
0.393000,-0.512664,-0.968939,-0.105126,0.215744,0.970774
0.489112,-0.088084,-0.946794,-0.045986,-0.992327,0.114774
0.263937,-0.169069,-0.977898,0.204951,0.043189,-0.977819
0.167507,0.419799,0.609898,0.913807,-0.330806,-0.235636
0.188198,-0.153679,0.038262,-0.478543,0.877140,0.040276
0.450284,-0.037055,-0.560478,0.965120,0.261534,0.011957
0.410497,-0.095405,-0.421863,0.991685,-0.106560,0.072150
-0.538923,-0.495629,0.849340,0.253463,-0.570770,0.781011
0.104986,0.087113,-0.989199,0.167177,-0.006456,-0.985906
0.450923,-0.056406,-0.962767,-0.332500,-0.851885,-0.404642
-0.436683,0.068959,0.936621,0.729167,0.645733,0.226592
0.051152,0.035414,0.720197,0.039263,0.218055,0.975146
0.260168,-0.071647,-0.070208,0.495512,0.838599,0.226317
0.390254,-0.420918,0.773631,0.199626,0.296264,-0.934011
0.264064,-0.311169,0.922677,-0.664564,0.432111,0.609618
0.000766,0.115952,0.779932,0.968646,-0.242414,-0.054416
0.667282,-0.293687,0.656232,0.554296,-0.830787,-0.050494
0.124401,-0.364437,0.938007,0.836064,0.540456,-0.094362
0.417204,-0.438700,-0.971168,-0.144268,0.029776,0.989091
-0.191647,-0.526559,0.890645,0.714789,0.400410,0.573366
-0.312090,-0.465072,0.889030,0.959324,-0.109002,0.260414
0.137172,-0.092790,0.249843,-0.366298,0.923580,0.113246
0.126892,0.324842,-0.984013,0.191843,0.511772,0.837428
0.807969,-0.000970,-0.974126,-0.075574,0.247939,0.965824
-0.107095,-0.249234,0.542062,-0.483077,-0.716658,0.503029
0.606551,-0.302801,-0.969140,0.050195,0.042639,0.997829
-0.168850,-0.296376,0.898846,-0.004138,0.991880,0.127113
0.092790,-0.350990,0.924834,0.804940,0.349363,-0.479602
-0.143752,-0.025177,0.792734,0.739535,-0.636619,-0.218640
-0.013730,-0.523123,0.846125,0.204511,-0.901069,-0.382427
0.183345,-0.080612,0.234341,-0.458994,0.819154,-0.343965
0.114119,-0.251625,0.743614,0.448264,0.540586,0.711917
0.484195,0.370565,0.564407,0.994135,0.107333,0.013250
-0.452519,-0.226074,0.901474,0.821135,0.568596,0.049358
0.646913,-0.463952,0.670691,0.072524,0.944715,-0.319771
0.105752,-0.040566,-0.985598,-0.018896,0.083555,0.996324
-0.057794,-0.626372,0.870857,-0.754470,0.647622,-0.106590
0.379526,-0.030706,-0.259501,-0.646254,0.746702,0.157453
0.426591,-0.604782,0.791019,0.257065,-0.501768,0.825922
-0.345107,-0.169666,0.610670,-0.488029,0.683731,-0.542531
0.118206,-0.076428,0.244914,-0.426557,0.852197,-0.303000
0.207165,-0.113934,0.339739,-0.402453,0.914872,0.032251
0.054345,0.111618,0.781204,-0.143372,0.219289,0.965068
-0.075038,-0.263728,0.732384,-0.375445,0.357880,0.854964
0.295613,-0.056107,-0.983870,0.029653,0.144720,0.989028
-0.123826,0.023535,0.750529,-0.474450,-0.574100,-0.667313
0.307809,0.037206,-0.986756,-0.314942,-0.082235,0.945541
-0.342743,-0.244826,0.616185,-0.289382,-0.749789,-0.595042
0.335908,-0.027343,-0.027575,0.889287,-0.408340,-0.205977
0.611597,-0.079940,-0.970140,0.126639,0.108004,0.986052
0.787597,-0.081134,0.233970,0.254630,0.962419,0.094410
-0.298232,0.192530,0.818036,-0.440624,-0.891117,0.108452
-0.271347,0.358985,0.650189,0.708778,-0.189490,0.679505
0.589565,-0.145685,-0.973211,0.064087,-0.138597,0.988273
0.431637,-0.181620,0.587210,-0.055166,0.713775,0.698199
-0.231434,-0.168396,0.624543,0.311345,0.785865,-0.534303
-0.592568,0.542549,0.759187,-0.031043,0.735422,0.676898
0.104476,-0.270227,0.912590,-0.649416,-0.239320,-0.721793
0.648254,0.141652,0.396645,-0.489898,-0.396825,0.776227
0.808608,-0.059992,0.606412,-0.660294,-0.531927,-0.530156
0.086404,-0.361599,0.554249,0.984168,-0.160718,-0.074724
-0.067310,-0.266268,0.757972,-0.413947,0.852430,-0.319391
-0.383934,0.265298,0.753072,0.600977,0.358391,0.714411
0.383293,-0.349869,0.346240,0.739883,0.672123,-0.028690
-0.324095,0.108330,0.861884,0.347648,0.845441,0.405425
-0.093110,0.053344,0.514659,0.924221,0.076673,0.374080
0.618621,0.101830,0.678092,0.745701,-0.248080,-0.618374
-0.275369,0.686217,0.716596,0.837608,-0.054680,-0.543528
-0.007408,-0.180127,0.610684,0.451194,0.668731,0.590951
0.614088,0.475533,0.276946,-0.304241,-0.055652,0.950968
0.501756,0.029661,0.556164,0.253921,0.680117,0.687725
0.635034,-0.518715,-0.967325,0.131356,-0.265051,-0.955245
0.624688,0.178483,0.600154,-0.126602,0.007185,0.991928
0.147264,-0.066342,0.378958,-0.435244,-0.778405,-0.452380
0.441917,-0.062384,-0.713396,0.888297,0.422735,0.179510
0.322817,-0.136123,-0.102297,-0.002575,0.999949,0.009722
-0.028994,0.112963,0.914576,0.643622,-0.381848,0.663282
0.677245,-0.059244,-0.971540,0.009337,-0.038496,0.999215
0.417523,-0.143145,0.439064,0.071769,0.881725,0.466273
-0.503865,-0.487336,0.656275,-0.626052,0.778127,-0.050768
0.514336,0.501532,0.514659,-0.119406,-0.038346,0.992105
0.602209,0.158237,-0.980569,0.058129,-0.249574,-0.966609
0.156458,-0.134627,0.251329,-0.299841,0.949047,0.096985
-0.528769,0.557266,0.766430,-0.414999,0.882571,0.221007
-0.464653,-0.183339,0.882915,0.089167,0.995176,0.040904
0.701641,0.173180,0.680035,0.609313,0.555896,-0.565436
-0.264961,-0.593724,0.877015,0.890262,0.447200,-0.086286
-0.241204,0.223907,0.751629,0.053940,-0.011673,0.998476
0.677054,-0.104894,0.267673,0.105848,-0.944667,0.310483
-0.244653,-0.267389,0.609241,-0.073257,0.424923,0.902260
0.337122,-0.173179,0.444722,0.065004,0.960644,0.270071
0.118015,0.246696,-0.990813,0.370200,-0.069262,-0.926367
-0.608915,0.613823,0.702552,0.393646,-0.682314,0.616028
-0.621304,0.757266,0.792162,0.477807,-0.823503,-0.305849
-0.637525,-0.525737,0.807878,-0.745197,0.280284,-0.605080
0.509228,-0.175793,0.625686,-0.225957,0.047191,-0.972993
-0.369372,0.273141,0.747157,0.446329,0.228109,0.865307
0.730442,-0.260739,-0.971468,-0.134803,-0.042532,-0.989959
0.326009,-0.187372,-0.980612,0.182260,-0.299846,-0.936415
0.325372,-0.056481,0.001043,-0.742718,0.603301,-0.290514
0.160163,-0.241912,-0.981327,-0.145942,0.071255,0.986724
0.236478,-0.266193,-0.981184,-0.048565,-0.001000,0.998820
0.197777,-0.182817,0.906332,-0.373364,0.927610,0.011776
-0.523215,0.217633,0.879015,0.932651,0.310406,0.183878
-0.245546,-0.451699,0.930449,-0.192073,0.589622,-0.784509
0.200971,-0.156668,0.059935,-0.143306,0.988307,-0.052089
0.261318,-0.125813,0.023560,-0.222971,0.928813,0.295957
0.365923,0.306912,-0.990128,-0.061690,0.246223,0.967248
0.719394,0.016884,0.608898,-0.272783,-0.300220,0.914034
0.267449,-0.544415,0.734641,0.103373,0.251617,0.962290
0.223705,-0.506462,0.889073,-0.586388,0.294300,-0.754676
0.166550,-0.415838,0.955466,0.882990,0.276947,-0.378985
0.415288,-0.044602,-0.499886,0.878567,-0.471500,-0.076207
0.056709,-0.165856,0.596697,-0.570466,0.761709,0.307195
-0.051983,-0.415166,0.872714,-0.473302,0.264387,0.840288
-0.035955,-0.499888,0.810478,0.965685,0.021347,-0.258838
0.192924,-0.120432,0.176363,-0.227795,0.959273,-0.167050
-0.205058,-0.073515,0.757644,-0.401935,0.868776,0.289269
-0.169935,0.062758,0.778032,0.305578,0.196258,-0.931721
-0.043363,-0.187299,0.930921,-0.286679,0.501225,-0.816449
0.396193,0.184386,-0.982698,0.076848,-0.062454,-0.995085
0.342933,-0.054240,-0.154046,-0.430735,0.902393,-0.012442
-0.459991,0.683304,0.824680,-0.000179,-0.046263,0.998929
0.672202,0.181846,0.707995,-0.099908,0.453009,0.885890
0.212082,0.275159,-0.992471,-0.077011,0.362027,0.928981
-0.492881,0.194621,0.870671,0.436720,0.857855,0.270850
-0.114312,-0.544191,0.732741,-0.591841,-0.000650,0.806054
0.283670,-0.715278,0.650289,0.816310,0.576701,-0.032457
-0.447986,-0.342547,0.795019,0.129488,-0.074439,0.988783
0.012644,-0.457079,0.576837,-0.761862,0.121655,0.636212
0.278307,-0.283600,0.878829,-0.029414,0.999566,0.001874
0.185452,-0.090250,0.270888,0.778235,0.624245,-0.068331
-0.178939,-0.032498,0.834067,-0.141292,-0.969951,-0.198067
0.517593,-0.410833,-0.968825,-0.080064,0.147235,0.985856
0.323072,0.589092,0.418662,-0.125610,-0.223717,0.966526
-0.134874,0.029511,0.782261,-0.281970,0.059082,0.957602
0.821252,0.429512,0.582238,0.100306,0.501057,0.859582
0.354108,-0.300635,-0.974411,-0.023122,0.009529,0.999687
0.047448,-0.367277,0.576609,0.881539,0.242193,0.405256
-0.147392,-0.463279,0.664290,0.977645,-0.210220,-0.004230
0.207038,-0.455061,0.874700,0.217789,0.711494,0.668091
0.392490,-0.011953,-0.366770,-0.508916,-0.805786,-0.302843
-0.536115,0.523871,0.728326,-0.061425,-0.221029,0.973331
0.634586,0.144192,-0.979469,-0.021682,-0.008482,0.999729
-0.104478,-0.278969,0.759644,0.800818,-0.376106,0.466085
0.056069,-0.111618,0.451337,0.312955,0.934804,0.167932
0.370458,0.074486,-0.982169,0.021927,0.024771,0.999453
-0.117568,-0.251999,0.636559,0.712862,0.701155,-0.014449
0.103837,0.001495,-0.988541,0.026283,0.136638,0.990272
0.152116,-0.281958,0.907832,-0.839851,-0.112072,0.531121
-0.103137,-0.462980,0.802677,0.702425,0.700112,-0.128224
-0.300467,0.556744,0.647360,-0.265961,-0.431286,0.862124
0.292356,-0.233769,-0.976897,-0.254332,-0.090089,0.962912
-0.367201,-0.056406,0.624357,-0.056282,-0.957986,0.281238
-0.509867,0.440569,0.722825,-0.046404,-0.996492,0.069643
0.494986,0.186479,-0.983198,-0.058221,0.178096,0.982289
0.170763,-0.301083,0.949637,0.818750,-0.483596,-0.309490
-0.175236,-0.623235,0.841953,-0.685385,0.726412,0.050721
-0.208188,-0.282330,0.789933,0.854000,-0.446798,0.266562
0.329905,-0.244153,0.697222,-0.193616,-0.697702,0.689728
-0.270452,-0.185656,0.673677,-0.291609,0.909717,0.295599
0.292418,-0.129399,-0.977097,-0.063103,-0.179090,-0.981807
-0.369310,0.723274,0.783504,0.931891,0.357910,-0.058986
0.807587,0.142174,0.682135,0.987186,-0.149943,0.054593
-0.111630,0.181472,0.553163,0.237016,-0.773556,0.587737
-0.100966,0.122003,0.825023,0.766251,-0.212432,0.606409
0.145794,-0.018902,-0.988942,-0.165377,0.170219,0.971430
-0.501438,-0.157115,0.974969,0.478943,0.861693,0.167628
0.642187,-0.478222,0.648903,-0.366308,0.367391,-0.854893
0.331501,0.048711,0.491356,-0.676561,0.709255,-0.198047
-0.115717,0.025551,0.632229,0.791397,-0.580114,0.192767
-0.171467,-0.094732,0.696508,0.954874,0.222370,-0.196895
-0.070631,0.039971,0.818994,0.550477,0.736882,-0.392403
0.029185,0.030633,0.652060,0.905705,-0.383437,-0.180759
0.772591,0.056034,0.405846,-0.223829,0.419906,0.879534
-0.071908,0.165560,0.879543,0.569386,0.814022,-0.114750
-0.061179,-0.103250,0.465310,0.273334,0.958759,-0.077901
-0.217447,-0.089502,0.829309,0.951649,-0.297315,0.077260
0.216808,-0.054315,0.193679,0.511289,0.859056,0.024628
0.111437,-0.106909,0.326937,-0.086947,-0.989338,-0.116838
-0.261575,-0.360179,0.960696,0.049463,0.123031,0.991169
0.217447,-0.061413,0.571137,-0.301690,0.952835,-0.032988
0.270579,0.346807,0.427563,0.218456,0.286585,0.932816
0.251675,-0.305416,0.539805,-0.414557,-0.877734,0.240261
-0.264002,-0.282032,0.911947,0.280128,-0.910745,0.303433
0.734529,-0.210982,-0.970897,-0.020454,0.042485,0.998888
-0.641485,0.357266,0.718896,-0.250764,0.745217,-0.617874
-0.262022,0.022712,0.663419,0.465760,0.813527,0.348198
-0.347340,0.715353,0.661761,-0.530858,-0.629721,0.567133
0.678459,-0.261786,0.657061,-0.373189,-0.795505,-0.477390
-0.374227,-0.348001,0.727769,-0.491084,0.443889,-0.749533
0.395811,-0.292491,0.837367,-0.672065,0.584552,-0.454562
0.389744,-0.358983,0.823423,0.963236,-0.267482,0.025090
0.208634,0.076055,-0.984741,-0.042814,0.127561,0.990906
-0.102114,0.160405,0.864556,0.779312,-0.556413,0.288231
0.493900,-0.323497,0.752186,0.562986,0.787178,0.251788
0.377419,-0.442061,0.839525,0.983810,0.154922,0.090098
0.086786,0.350991,0.697380,0.947206,0.316384,-0.051984
-0.473339,0.059319,0.878200,0.626330,0.136549,0.767506
0.214763,0.140756,-0.992313,-0.000656,0.079558,0.996830
0.529662,-0.267090,-0.970325,0.206583,-0.102065,-0.973091
-0.102753,0.212776,0.692022,0.062547,-0.591233,0.804072
-0.093430,0.172058,0.892788,0.231302,-0.961091,0.151008
0.746152,0.086666,0.608827,0.838319,0.020682,-0.544787
-0.364393,0.244826,0.828780,0.731289,0.427277,0.531650
-0.130788,-0.004780,0.826337,-0.727175,0.609680,-0.315447
0.582987,-0.211654,-0.971025,-0.141618,0.107391,0.984079
-0.457374,0.152934,0.832438,-0.110924,-0.935457,-0.335583
-0.297146,-0.232648,0.831438,-0.388226,0.920488,-0.044515
0.069480,-0.243331,0.608970,0.659948,-0.651951,0.373402
0.464715,-0.459320,0.677035,0.222510,0.820478,-0.526597
0.592821,0.063804,0.669948,0.771111,0.355435,-0.528255
0.283606,0.012701,0.657275,-0.695560,-0.686191,0.212930
0.483811,0.151214,-0.983127,-0.055158,0.219678,0.974012
0.788875,0.421292,0.585653,-0.050622,0.483547,0.873853
0.224726,-0.089429,0.392145,0.800086,-0.579164,-0.156309
0.234433,-0.103772,0.142031,-0.027893,-0.962865,0.268537
-0.154800,-0.044153,0.718954,0.535379,0.814968,-0.221801
0.274666,-0.279790,0.888559,-0.279442,-0.898117,-0.339555
0.400919,-0.511617,0.756787,0.674784,0.496605,0.545939
-0.255637,-0.283974,0.958138,-0.257937,0.919627,-0.296235
0.164186,-0.240419,0.934493,0.876016,-0.477443,-0.068149
0.001021,-0.094808,0.407547,-0.379920,0.850801,0.363040
0.137620,-0.293761,0.893731,0.805715,0.344643,0.481710
0.419694,0.099963,0.366970,-0.475693,0.840116,-0.260617
0.280158,0.014495,0.644374,0.310919,0.569816,-0.760683
0.335908,-0.271722,0.902732,0.606226,-0.214743,0.765752
0.337442,-0.051175,-0.035318,0.985264,-0.171033,-0.001755
-0.332334,-0.354800,0.943594,0.970231,-0.182959,-0.158677
0.655533,-0.391707,0.665990,0.863669,-0.190893,-0.466514
-0.263620,0.167651,0.858741,0.360205,0.336771,-0.869964
-0.089087,-0.373702,0.896388,0.089655,-0.558856,0.824404
0.055495,0.141055,0.960181,-0.621967,0.783044,0.000348
0.103901,-0.279343,0.942379,0.317594,0.825319,-0.466886
0.107351,-0.438326,0.839825,-0.451334,0.663632,0.596565
0.259083,-0.074561,0.926649,0.983378,-0.105920,0.147477
0.273325,-0.097869,0.849154,0.105125,0.028221,-0.994058
-0.376078,-0.089800,0.974911,-0.694113,0.605576,-0.389210
-0.400472,-0.005902,0.908004,-0.765972,-0.387544,-0.512929
-0.234180,0.042436,0.778675,-0.556645,0.199846,-0.806355
0.612234,-0.148448,-0.972183,0.064578,0.038143,0.997183
0.320071,0.450430,0.498471,-0.615966,-0.135188,0.776086
-0.484004,-0.369592,0.846797,-0.014988,-0.289765,0.956981
0.408007,-0.053941,-0.429749,0.988293,0.132016,0.076479
-0.020500,-0.131041,0.325866,-0.204547,0.952473,0.225732
0.543840,-0.031752,-0.975869,0.066157,0.283609,0.956655
-0.127147,-0.303773,0.773988,-0.143379,0.947140,0.286998
0.578326,-0.078148,-0.971025,0.075374,0.239967,0.967850
0.456095,-0.378708,-0.970397,0.029094,0.247978,0.968329
-0.261129,0.158984,0.920862,-0.481756,0.859213,-0.172235
-0.484769,0.280239,0.824280,0.771649,-0.227428,0.593999
0.219170,-0.032796,0.611413,-0.558261,0.817966,-0.138838
-0.180792,-0.269779,0.712739,0.784842,-0.176569,-0.594009
0.147264,-0.609488,0.622185,-0.197522,-0.911966,-0.359586
0.062392,-0.057600,0.289476,-0.057365,-0.998042,0.024939
0.650232,0.156967,-0.977983,-0.028019,0.011160,0.999545
-0.635929,0.388570,0.862113,-0.321417,-0.426058,0.845674
-0.314899,0.765335,0.755301,0.255304,-0.041518,-0.965969
-0.187687,-0.338065,0.852640,0.953004,0.295099,-0.068556
0.300656,0.079270,0.733627,0.066109,0.989414,0.129189
0.237434,-0.661187,0.776974,-0.586409,0.158770,-0.794302
-0.301489,-0.257676,0.885644,-0.531866,-0.671433,0.516039
0.251739,0.331641,-0.991913,-0.125342,0.019500,0.991922
0.404368,-0.169295,0.724540,0.401198,0.868270,0.291800
0.110862,-0.737990,0.712796,-0.519855,-0.765172,-0.379819
-0.438789,-0.301083,0.817336,-0.593623,0.782479,-0.187985
0.510633,-0.302727,-0.970482,0.278949,-0.115277,-0.953362
0.024010,0.190063,-0.991728,-0.242867,0.013254,0.969969
0.129829,0.447815,-0.995957,-0.220807,0.057322,0.973632
-0.403283,0.542772,0.650889,0.934624,-0.285131,-0.212553
0.320262,-0.082705,0.846725,0.033591,0.446852,0.893977
0.221214,-0.653642,0.668219,-0.668138,-0.693639,0.269179
0.699277,0.150467,0.593611,-0.154083,0.417984,0.895292
0.041125,0.049310,0.791876,-0.527969,0.657191,0.537911
-0.473530,0.198059,0.860984,-0.302374,-0.793357,0.528351
0.123378,-0.089354,0.162533,-0.285515,0.934874,0.210930
-0.501820,0.001570,0.809764,-0.404122,-0.775983,-0.484289
0.248292,-0.145311,0.941436,-0.780593,-0.325991,-0.533296
0.172297,-0.131191,0.476926,-0.421895,0.881094,-0.213723
0.638482,0.268884,0.682421,-0.228707,0.890100,0.394228
0.012451,-0.066492,0.954423,0.748134,-0.060830,0.660754
0.256976,-0.646021,0.810921,0.440694,-0.095971,-0.892512
-0.288525,-0.135972,0.800277,-0.154431,-0.939039,-0.307176
0.181876,0.029734,0.556506,0.885434,0.250630,-0.391397
0.627052,-0.018302,-0.973297,-0.091275,0.158783,0.983085
-0.123380,-0.452670,0.784561,0.574616,-0.176213,-0.799228
-0.322626,-0.285393,0.874214,-0.499283,-0.621741,0.603452
-0.301808,-0.434068,0.898903,-0.626812,0.770531,-0.115709
0.427997,0.086814,0.632201,0.027681,0.827151,0.561298
-0.438279,-0.225849,0.874343,0.021095,0.919545,-0.392417
0.523659,0.488832,0.567608,0.835059,-0.189473,-0.516504
0.406539,-0.024803,0.647388,-0.338757,0.794243,0.504402
-0.065202,-0.267464,0.756501,-0.566087,0.704761,-0.427618
0.221660,0.029810,-0.985127,0.047265,0.032688,0.998347
0.267258,-0.343817,0.869242,-0.740135,0.407425,-0.534981
0.769716,0.267389,0.576423,0.729007,-0.300369,-0.615083
0.381186,-0.058200,-0.160004,-0.575127,0.747198,-0.333053
0.164250,-0.095927,0.260001,0.088151,0.995447,-0.036256
0.269365,-0.317221,-0.973754,0.208392,-0.215073,-0.954105
-0.443644,0.176691,0.867456,-0.538515,-0.466161,0.701922
0.220448,-0.335823,-0.972340,-0.309592,0.099604,0.945638
0.383486,-0.107582,-0.513173,-0.725813,-0.687888,0.002469
-0.493456,0.439300,0.737170,-0.618839,0.423412,0.661635
-0.227283,-0.183937,0.583552,0.413210,-0.866906,0.278802
0.228302,-0.559806,0.741342,0.827190,-0.480955,-0.290583
0.371352,-0.090847,-0.341868,0.710701,0.695526,-0.105576
-0.425060,0.736646,0.794162,-0.265324,-0.934488,-0.237351
0.697171,-0.354426,-0.968982,-0.132127,0.373715,0.918085
0.196245,0.367352,-0.997385,-0.024278,0.020412,-0.999497
-0.501245,0.525515,0.788890,-0.071353,0.902363,-0.425028
0.634459,-0.443556,-0.964768,-0.069799,-0.091306,0.993374
0.183536,-0.211879,0.915276,0.875916,-0.467188,0.120447
0.037678,-0.743444,0.674320,-0.289391,0.957204,0.003675
-0.252061,0.010758,0.800334,0.811951,-0.465418,-0.352309
-0.284693,-0.267837,0.730526,-0.657907,0.749344,-0.075117
0.150136,-0.440493,0.806006,0.795654,0.551991,-0.249479
0.142282,-0.086141,0.262844,0.305748,0.922735,-0.234689
0.004533,-0.243631,0.476354,0.000649,0.408204,0.912890
0.654511,-0.219948,0.636801,-0.557886,0.453457,0.695083
0.629924,-0.169892,-0.972768,0.044631,0.008932,0.998964
-0.311706,-0.144937,0.917776,-0.361469,-0.493624,-0.790996
0.457563,-0.287860,0.829223,0.087845,-0.301432,0.949433
-0.277925,-0.451177,0.804606,0.093921,-0.708146,0.699791
-0.203590,-0.219723,0.838324,-0.287276,0.723015,0.628269
0.152180,-0.283526,0.910290,-0.909288,-0.043516,0.413885
-0.271538,-0.019575,0.966125,0.271022,0.454323,0.848609
0.231303,-0.463056,0.823923,-0.458987,0.839847,-0.289806
-0.380420,-0.429136,0.856455,0.815729,-0.290579,-0.500150
0.016092,-0.152261,-0.990242,0.180142,-0.186963,-0.965709
0.494923,-0.381845,-0.971411,-0.068322,0.079574,0.994485
0.112012,0.383638,-0.993471,-0.245147,0.516758,0.820283
-0.258063,-0.012028,0.856726,0.201620,-0.977988,0.053740
0.146049,0.022564,0.725283,0.255313,-0.330163,-0.908740
-0.319434,-0.005678,0.741613,0.524157,0.198923,0.828064
-0.475575,-0.616735,0.870042,-0.143507,-0.956529,0.253886
-0.516509,-0.081360,0.644745,0.699178,-0.229246,0.677198
0.018201,-0.370788,0.790247,-0.089163,0.977304,-0.192164
0.317070,-0.042660,-0.191079,0.154498,-0.976094,0.152874
-0.386296,-0.112963,0.940550,0.194406,0.980180,0.038136
-0.100136,-0.113560,0.395588,0.962824,-0.117553,-0.243210
0.368797,-0.436160,0.683993,0.874656,-0.183086,0.448838
-0.433937,0.361226,0.750957,-0.205219,-0.246598,-0.947140
-0.190882,-0.452447,0.955095,0.356213,-0.532718,0.767674
-0.066416,0.058649,0.524346,0.552192,-0.064551,0.831214
0.288971,-0.028838,0.334710,-0.595290,0.803465,-0.008647
-0.397984,-0.431079,0.936336,-0.405385,0.663677,0.628646
-0.431000,0.714680,0.706066,0.819020,-0.222238,-0.528976
-0.362988,-0.007470,0.942251,0.850672,0.492678,-0.183372
0.269876,0.301981,-0.990513,-0.051756,0.189934,0.980432
-0.126956,0.338513,0.933478,-0.382681,-0.891099,0.243921
0.206270,-0.307658,0.840325,0.714012,-0.296166,-0.634408
0.493007,-0.233694,0.473040,0.243497,0.924555,0.293100
-0.123891,-0.258424,0.732584,0.479989,-0.632248,-0.608171
-0.492497,-0.094732,0.960438,-0.296678,-0.754936,-0.584853
0.654001,-0.616884,-0.963210,-0.024345,0.030802,0.999229
0.181747,-0.257676,0.632144,0.729478,0.350731,-0.587239
0.159013,0.096376,-0.982841,-0.212772,-0.088705,0.973067
-0.041511,-0.212252,-0.987113,0.053372,0.199296,0.978485
0.008620,0.029810,-0.990313,-0.012200,0.096357,0.995272
-0.473850,0.904596,0.805321,-0.354776,-0.917618,-0.179194
0.170126,0.593949,0.603669,0.423542,-0.583341,0.693055
0.209975,-0.098020,0.525031,-0.380576,0.892274,-0.242916
0.568809,0.670752,0.560764,-0.700545,-0.474481,-0.533014
0.634395,-0.171237,-0.971940,0.044631,0.008932,0.998964
0.064116,-0.020918,0.886587,0.847623,0.524919,0.077435
0.403345,-0.042509,-0.449609,0.986427,0.164066,-0.006631
0.261063,-0.059917,-0.042276,0.433713,-0.843353,0.317252
0.312535,-0.879491,0.728340,0.422216,-0.889335,0.175550
-0.073249,-0.188120,-0.988013,0.027446,0.214802,0.976272
0.193818,-0.223608,0.926534,0.969492,-0.243217,0.030520
-0.174981,0.096153,0.784504,-0.293196,-0.196940,0.935548
0.065202,-0.132087,0.751857,0.444914,0.591188,-0.672717
0.158885,0.489056,-0.995899,0.079710,0.285562,0.955040
-0.406668,0.683602,0.752700,-0.341226,-0.909732,-0.236544
-0.144902,-0.075234,0.832052,0.069583,0.965536,0.250796
0.335972,-0.480762,0.694808,-0.346828,-0.896792,0.274727
0.184302,-0.323571,0.659261,-0.194944,0.947594,0.253106
-0.511208,0.610535,0.744885,-0.692544,0.686782,-0.220712
0.417523,0.004185,-0.975112,0.071782,0.522431,0.849655
0.201544,-0.099739,0.343939,-0.175508,0.970676,-0.164272
0.607382,0.184760,-0.985155,-0.072681,0.269557,0.960238
0.309407,0.166903,0.630972,0.573762,-0.031797,-0.818405
0.469060,-0.061636,-0.803235,0.825858,0.563877,-0.001235
-0.160036,-0.164586,0.909547,-0.277299,0.960474,0.024377
0.343828,0.125291,-0.982384,-0.142495,0.187644,0.971846
0.272750,-0.274411,0.937479,0.269021,0.907576,0.322386
-0.230348,-0.105042,0.776246,0.843132,-0.492557,0.215674
0.173318,0.400822,0.587153,-0.718826,0.569076,-0.399302
-0.627371,-0.555473,0.823537,0.833335,0.245807,-0.495108
0.056964,-0.676280,0.673420,0.503300,-0.863506,-0.032344
-0.114185,-0.152559,0.963239,-0.072018,0.968838,0.236993
-0.576219,0.198207,0.816493,0.961846,0.186480,-0.200192
-0.565874,0.569519,0.722397,0.097830,-0.850621,0.516598
0.659619,0.018380,0.589653,-0.170693,-0.554458,0.814519
0.573919,-0.569593,-0.962124,-0.067895,0.210969,0.975132
0.179769,-0.121255,0.261687,-0.645948,0.750017,0.142218
0.194136,-0.059992,0.108855,-0.090237,0.990816,-0.100707
-0.193499,-0.351288,0.958895,0.806454,0.127360,0.577418
-0.113098,-0.048636,0.644345,-0.798956,0.096902,-0.593531
0.274793,0.644603,0.493342,0.084014,-0.010258,0.996412
-0.240373,0.029212,0.806506,0.220047,-0.637999,-0.737928
-0.530048,-0.112888,0.881886,0.630611,0.489021,-0.602651
-0.505334,0.486664,0.694394,-0.110476,-0.993736,-0.016874
-0.577624,-0.478147,0.820980,0.621802,-0.773178,-0.124730
0.333099,-0.038551,-0.189536,0.165550,-0.969142,0.182640
0.375310,-0.360627,0.762687,0.317950,0.233831,-0.918820
