0.353720,-0.235361,-0.922642,-0.569870,0.127410,-0.811797
0.110408,-0.148405,-0.952990,-0.693187,0.136130,-0.707786
-0.088111,0.048148,0.235231,0.991757,0.082619,0.097944
-0.202026,-0.244938,-0.421194,0.131857,0.896281,0.423432
-0.249600,-0.159422,-0.214621,0.256945,-0.955656,-0.143875
-0.060116,-0.699420,-0.928874,0.402283,-0.897631,-0.180076
-0.048155,-0.041023,-0.026127,0.516908,0.852515,-0.077614
-0.280333,-0.217109,-0.440188,-0.410069,-0.901346,-0.139353
-0.123949,-0.669829,-0.923586,0.359357,-0.086195,-0.929211
-0.078396,-0.090200,-0.937862,-0.585418,0.516475,-0.624932
-0.231014,0.493760,0.338192,0.157601,-0.517755,0.840888
-0.182913,-0.323538,-0.865489,0.832799,0.553163,-0.021358
-0.197791,0.017029,-0.120484,0.788957,-0.381046,-0.482027
-0.198996,0.387664,0.439315,0.409211,-0.665947,-0.623748
-0.231801,0.161633,0.643105,0.809404,0.587127,-0.012095
-0.429295,-0.420814,-0.954758,-0.188767,-0.871559,0.452495
-0.149522,0.131894,0.610492,-0.459030,0.630525,-0.625883
-0.377507,-0.259162,0.396726,-0.589080,-0.802429,-0.095355
-0.129617,-0.236282,0.770468,0.553963,-0.654328,-0.514762
-0.089877,-0.084935,0.537519,-0.576574,-0.549677,-0.604498
-0.207139,0.570313,0.375605,0.437526,0.896019,0.075643
0.845766,-0.134394,0.241820,0.382030,0.708086,-0.593858
-0.018618,-0.714049,-0.899702,-0.798055,0.511926,0.317869
-0.281461,-0.854439,-0.923289,-0.302228,0.932864,0.196017
0.112158,-0.185343,0.134626,0.637416,-0.769348,-0.042487
-0.203569,-0.427907,-0.950303,-0.371045,-0.096439,-0.923594
0.028638,0.008126,-0.994675,0.712290,0.658820,-0.242073
-0.328669,0.190585,0.114857,0.485544,0.873540,-0.034282
0.029434,-0.232977,0.771751,-0.111799,0.470370,0.875359
-0.666607,0.419312,0.411647,0.825871,0.490375,-0.278333
0.321270,0.232079,0.803327,0.086934,-0.973331,0.212295
0.077890,0.131029,0.740184,-0.153632,-0.811331,0.564039
0.448272,0.390012,0.468810,0.389692,-0.473617,0.789827
-0.090206,-0.040663,0.674918,0.887544,0.342835,0.307784
-0.424650,-0.469271,-0.939368,-0.365056,0.925228,-0.103378
0.202159,0.080334,0.866167,0.825012,0.053002,0.562624
0.084760,-0.332449,0.162353,0.554641,0.694008,0.459049
-0.107969,0.365669,0.821287,-0.701425,0.656195,-0.278228
-0.206646,0.079113,0.641251,-0.590877,-0.226730,-0.774246
-0.140790,-0.132132,-0.918361,0.786959,0.602038,-0.135081
-0.108520,0.075408,0.962444,-0.614410,0.315298,0.723248
0.181497,0.017381,-0.930419,-0.111008,-0.083549,0.990301
0.144592,0.475517,0.862001,0.005504,-0.543559,0.839353
0.545455,-0.120134,0.534949,-0.677016,-0.701170,0.223629
0.427192,-0.134168,0.593216,0.449138,0.555764,-0.699572
0.297324,-0.509092,-0.901337,0.886980,0.251694,0.387190
0.281812,-0.083802,0.732665,-0.174886,0.984488,-0.014101
-0.184468,0.346502,0.302742,-0.371142,0.747802,-0.550496
0.205644,-0.334247,0.163430,-0.419326,-0.127470,0.898842
-0.264283,0.190930,0.242109,0.860026,0.508033,-0.047522
0.057413,-0.299145,-0.913227,0.733869,0.644685,-0.214050
0.090326,-0.458682,-0.901075,-0.243800,0.123414,-0.961941
-0.162270,-0.224161,-0.466662,0.974996,0.018368,0.221461
0.337366,0.469576,0.908790,0.996744,-0.080326,-0.007028
-0.480847,-0.664626,0.513821,-0.661224,0.632981,-0.402640
0.143035,0.086441,-0.963793,-0.309534,-0.944791,0.107511
-0.279376,0.329304,0.192376,-0.008764,0.334108,0.942494
-0.234701,0.055005,-0.957480,-0.199009,0.979594,0.028133
-0.411101,0.482226,0.320516,-0.325355,-0.753041,-0.571903
0.469354,0.357598,0.290914,-0.462639,-0.844092,0.271061
0.103434,-0.044263,-0.953313,0.086268,0.024483,0.995971
-0.334966,-0.237053,0.749864,0.424602,0.609556,-0.669444
0.508760,-0.000482,0.828514,0.732824,-0.201354,0.649943
-0.117931,-0.028500,-0.018116,0.901385,0.190164,-0.389027
-0.049655,0.026646,0.174460,-0.501777,0.528622,-0.684674
-0.187615,-0.148182,-0.377908,0.916644,-0.397110,-0.045466
0.032574,-0.566580,-0.898891,-0.531974,0.110110,0.839571
-0.155578,-0.134298,-0.955240,0.131092,0.606424,0.784261
-0.150964,-0.506814,-0.890938,-0.691700,0.581177,-0.428700
-0.230032,0.020155,-0.927942,0.833033,0.546506,0.085949
0.232811,0.268827,0.704820,0.703835,0.701646,-0.110944
-0.215385,-0.128778,-0.385437,-0.449719,-0.245813,0.858678
-0.385588,-0.250938,-0.429344,0.997941,0.014605,-0.062457
0.041115,0.240079,0.898127,-0.562314,0.818262,-0.119374
0.230835,-0.310082,0.195508,-0.313811,-0.631866,0.708708
0.483062,-0.127691,0.258897,0.777324,-0.102330,-0.620722
-0.311107,0.102542,-0.068636,0.920722,0.354050,0.164071
-0.122169,-0.252845,0.617693,0.751809,-0.433348,-0.496983
-0.070691,-0.516868,-0.904661,0.885523,0.038631,0.462987
0.273958,0.847289,0.675383,-0.545416,0.753547,-0.366999
-0.257114,-0.561838,-0.850437,0.043933,0.455681,0.889059
-0.075003,-0.301209,-0.932468,0.712787,0.434629,-0.550483
-0.138217,-0.250749,-0.900429,0.084090,0.058992,0.994710
0.213822,-0.345818,0.170715,0.715300,-0.016182,-0.698630
0.017001,-0.478071,-0.943473,-0.423159,-0.168909,0.890172
-0.240305,0.080470,-0.092506,0.607026,0.560328,0.563518
0.183818,-0.202520,0.215990,0.419652,0.192685,-0.886998
0.053393,-0.111763,0.014440,0.849736,-0.514517,0.114982
-0.026139,-0.799853,-0.883740,-0.698886,0.279540,-0.658343
0.100977,0.160476,0.247403,0.960683,-0.097488,-0.259969
-0.186123,0.141796,0.043767,0.884168,0.285899,0.369471
-0.421930,-0.628112,-0.944704,-0.149922,-0.973291,0.173861
-0.072794,-0.281548,0.869896,0.301721,0.733630,0.608894
-0.050268,-0.480602,-0.901522,-0.537951,0.537387,-0.649480
-0.303072,0.642348,0.544607,0.638331,-0.258198,-0.725167
-0.234768,-0.001867,-0.950717,-0.272134,-0.958416,0.085912
-0.019278,-0.485680,-0.898566,-0.159204,0.738142,-0.655592
0.161631,0.579542,0.924212,-0.146220,0.835217,0.530124
0.026685,0.057271,0.009661,0.102807,-0.809234,-0.578421
-0.051491,-0.538809,-0.921300,-0.314731,0.946497,0.071328
-0.500735,-0.474117,-0.942494,0.684837,0.392962,0.613661
0.062618,-0.063708,-0.020672,0.960949,-0.031022,0.274981
-0.060433,0.511656,0.476472,-0.443794,-0.609047,0.657349
0.021148,-0.539277,-0.899778,0.499733,-0.517530,-0.694572
-0.190718,-0.159612,-0.416735,-0.805719,0.107928,-0.582382
0.547162,0.241049,0.920986,0.214203,0.938318,0.271435
0.122972,0.533164,0.523523,0.625825,0.774051,0.095854
0.132943,-0.030331,0.221104,0.851587,0.385355,-0.355389
-0.009495,-0.154412,0.620647,0.339145,0.226198,0.913135
-0.328899,-0.484096,-0.954417,-0.063772,-0.898171,0.434997
0.130076,-0.308509,-0.906140,0.086572,-0.383670,0.919403
-0.333621,-0.184342,0.476248,0.634991,0.658793,-0.403458
-0.156441,-0.490268,-0.933553,-0.412173,0.409757,0.813764
0.040358,0.048214,0.577549,-0.373506,0.737682,0.562421
-0.154173,0.223558,0.848714,0.525403,0.652704,-0.545829
-0.615653,-0.051956,0.399915,-0.554536,0.818221,-0.151674
0.362192,-0.325978,-0.915580,-0.342647,0.068374,0.936973
-0.328512,-0.200317,0.379223,0.036077,0.885918,-0.462437
0.078434,-0.487787,-0.924083,0.006697,0.248459,0.968619
-0.065384,0.064935,0.442667,0.393453,0.486002,-0.780382
-0.189085,-0.051804,-0.284499,0.994712,0.101593,0.015064
-0.218081,0.251368,0.754410,0.405074,-0.889606,0.210988
-0.116608,0.180114,0.281513,0.576793,0.660209,-0.481077
0.031544,-0.450991,-0.936923,0.627055,0.424411,-0.653206
-0.339402,-0.064914,0.495508,-0.384721,-0.805114,0.451421
0.323698,-0.112137,-0.919215,0.821722,0.438906,0.363502
-0.198784,-0.749912,-0.899192,0.904316,-0.341506,-0.256099
0.184377,0.204066,0.852118,0.590268,0.790561,0.163084
0.208919,0.344543,0.464680,0.141371,0.793346,-0.592128
0.076540,0.228142,0.882794,0.135969,-0.380415,0.914766
0.795883,0.490750,1.000000,-0.009605,-0.651696,0.758420
-0.170936,-0.431902,-0.951905,-0.031439,0.240469,0.970148
-0.510735,-0.025121,0.501173,0.526158,0.587624,-0.614700
-0.563255,-0.198789,0.433817,-0.096717,-0.973163,0.208805
-0.196180,0.014389,-0.192338,0.509790,-0.294548,0.808304
-0.033819,-0.062173,-0.923261,0.701076,-0.167214,-0.693204
-0.174760,0.285294,0.902929,0.797261,0.449845,-0.402510
-0.113722,-0.395097,-0.955123,-0.410613,0.621464,0.667218
0.227476,-0.185184,0.796291,0.873465,0.466368,0.139855
-0.803491,-0.369401,0.436681,-0.576405,0.577327,0.578317
-0.248516,0.087040,-0.174368,0.268658,0.758380,-0.593871
0.643558,0.196995,0.255840,0.875425,0.441945,0.195746
0.081159,-0.288115,0.189094,-0.719486,-0.529951,0.448878
-0.256675,0.197863,0.008386,-0.152854,-0.983624,-0.095497
-0.329799,-0.536902,-0.965603,-0.175546,0.031322,0.983973
-0.071426,-0.142429,-0.289523,0.307788,-0.060603,0.949523
-0.369437,0.009387,-0.963860,-0.542100,0.793785,0.275739
-0.070862,-0.089932,-0.940810,0.402141,-0.560162,0.724224
-0.136900,-0.227160,-0.360883,0.927159,-0.116724,-0.356021
-0.302394,-0.747830,-0.899377,0.738997,-0.503599,0.447517
-0.529473,-0.481923,-0.934036,-0.178171,-0.071549,0.981395
0.716891,0.339368,0.223421,0.744686,0.663241,0.074535
0.356991,-0.032721,0.591286,-0.523975,-0.317534,0.790331
-0.542136,-0.482428,-0.960741,-0.560066,-0.411409,0.719075
-0.119210,-0.039168,0.565125,0.756315,0.561692,-0.335395
-0.146854,0.037818,-0.153332,-0.508388,-0.093554,-0.856031
0.174250,-0.454377,-0.909702,-0.686414,0.457600,0.565188
0.149860,0.008837,0.733850,0.869898,-0.137235,0.473756
0.641155,0.215528,0.924098,0.363074,0.850607,-0.380323
-0.046019,-0.186058,-0.919896,-0.356410,-0.301534,-0.884335
0.239595,0.386341,0.951401,0.565847,0.554609,0.610104
-0.136336,-0.804460,-0.936192,-0.161525,0.488102,0.857710
0.049147,0.349529,0.446104,-0.561143,-0.629312,-0.537666
0.049949,-0.399615,-0.931402,-0.541450,-0.041358,0.839715
0.047093,-0.030978,0.494851,0.043062,0.829652,0.556617
0.396942,0.370851,0.944505,0.246993,0.772759,0.584669
-0.056654,0.182233,0.611101,0.992492,0.120954,-0.018186
0.361998,0.119221,0.413066,0.079834,0.885135,0.458434
-0.216335,-0.013767,0.552203,-0.403085,0.438816,0.803096
-0.208253,-0.023334,-0.957387,0.810289,-0.461728,0.360887
-0.125080,-0.155504,0.006837,-0.466168,0.687745,0.556501
0.137427,-0.010566,-0.968505,-0.512972,-0.839917,-0.177195
-0.137540,-0.690781,-0.910477,0.074313,-0.873647,0.480852
-0.049893,0.036890,-0.055784,-0.014063,-0.484475,0.874692
-0.148010,0.060273,0.403948,-0.154690,-0.660253,0.734940
0.161056,0.370512,0.975422,-0.509308,-0.077488,-0.857089
-0.217981,-0.691275,-0.910859,0.159292,-0.424477,-0.891317
-0.561742,-0.265100,-0.948143,0.715460,-0.611111,0.338616
0.024192,-0.110088,0.164695,-0.456749,0.072930,-0.886601
-0.422796,-0.372594,-0.936299,-0.363927,-0.832543,-0.417648
-0.068752,0.029211,0.518081,-0.297050,-0.375457,0.877948
-0.236367,-0.119060,0.245024,0.605377,0.733754,0.308422
-0.297953,0.084290,-0.026455,0.577488,-0.630321,0.518847
0.078236,-0.007361,-0.934126,-0.602307,-0.481850,0.636433
0.030484,-0.035396,0.025123,0.632252,-0.715217,-0.297863
0.141513,-0.034664,-0.916699,0.944549,0.273838,-0.181218
-0.150637,-0.699475,-0.930731,-0.475517,-0.395029,-0.786025
-0.125376,0.073515,0.570310,-0.707512,0.644534,-0.289832
0.508361,0.163224,0.940965,0.474961,-0.695872,0.538678
-0.098483,0.129569,0.713452,0.888380,0.099669,-0.448159
-0.035598,0.132230,0.563750,0.730192,0.329298,0.598651
-0.003154,0.256663,0.627827,0.793382,0.600007,0.102646
-0.203189,-0.015115,-0.018273,-0.039015,-0.998509,0.038183
-0.161488,-0.220883,-0.955365,0.587803,0.039865,0.808021
0.048816,-0.631487,0.504789,0.535931,-0.840400,0.080663
0.288453,-0.045831,0.757351,0.127602,-0.874572,0.467805
-0.455101,-0.353767,-0.924590,-0.386175,-0.802890,0.454132
-0.115977,-0.171149,-0.904535,0.154972,-0.257951,0.953648
0.329735,-0.038491,0.780578,0.256730,-0.127247,0.958070
-0.348556,-0.296024,0.746289,0.641663,0.549730,-0.534851
0.117657,0.660494,0.669822,0.971182,0.181071,0.154980
-0.190325,-0.282483,-0.638332,0.202918,0.522464,0.828164
-0.145317,0.148567,0.413593,0.311831,0.892506,0.325877
-0.213803,-0.240883,0.782285,-0.034813,0.564365,0.824791
0.191099,0.038585,0.296591,-0.246758,-0.872664,0.421388
0.112919,0.368895,0.436403,0.679018,0.733217,0.036422
-0.589532,0.303624,0.141583,0.983966,-0.047847,-0.171818
0.365097,-0.352426,-0.917239,0.261935,-0.290915,-0.920195
-0.185405,-0.473035,-0.914241,-0.322355,-0.051213,0.945233
0.009518,-0.205594,-0.928233,0.005556,-0.745381,0.666615
-0.247226,0.188137,0.048406,0.438392,-0.422570,0.793251
-0.467102,-0.172927,0.418012,0.867254,0.497259,0.024556
-0.578097,-0.551167,-0.985907,-0.461864,0.349202,0.815316
-0.039779,-0.233937,-0.945742,-0.344415,-0.903440,0.255292
-0.238348,-0.909102,-0.892296,-0.655187,-0.584970,0.478059
-0.259823,-0.235061,-0.651117,-0.707991,0.128153,0.694497
-0.040910,0.030997,-0.967402,0.514434,-0.483818,0.708010
0.174033,-0.069860,-0.929852,0.511314,0.669390,0.538958
-0.162888,-0.009001,-0.934156,0.690735,-0.282489,-0.665646
-0.044319,-0.647296,-0.883954,-0.009231,0.856353,0.516308
-0.170098,-0.476908,-0.891477,0.777709,-0.390203,0.492859
0.099441,-0.417981,-0.927868,0.130017,0.061518,0.989602
0.044013,-0.099856,-0.950334,-0.556465,-0.738861,-0.380041
-0.289522,-0.462906,-0.950315,0.364644,-0.275793,0.889367
-0.225371,-0.039489,-0.968078,-0.699316,0.595638,0.395186
-0.069408,0.091625,-0.145448,0.792348,-0.419702,0.442759
-0.112972,-0.280450,0.438734,-0.015364,0.905425,0.424228
-0.217213,-0.569717,-0.874776,0.881060,-0.458623,0.115751
0.242538,-0.083922,-0.934049,-0.119522,-0.661842,0.740053
-0.015822,-0.471285,-0.963223,0.436908,-0.861609,-0.258342
0.195119,-0.089993,-0.943735,-0.138541,0.000538,0.990357
-0.190634,-0.318392,-0.604502,0.174775,-0.973368,-0.148349
-0.098648,-0.325658,-0.763288,-0.002040,-0.963079,0.269213
-0.100579,-0.185645,-0.306156,0.868732,-0.483267,-0.108438
-0.272498,-0.112733,-0.945264,0.616485,0.747200,0.248269
0.271787,-0.320743,-0.911050,-0.790250,0.602905,-0.109593
-0.491279,-0.734856,-0.899497,0.997542,-0.062669,-0.031361
-0.190887,-0.539900,-0.900857,-0.752017,0.560420,0.346987
-0.480805,-0.582680,-0.956311,-0.755819,-0.258127,-0.601755
-0.358737,-0.272425,-0.959088,-0.034745,-0.471796,0.881023
0.465864,0.676313,0.700158,-0.464067,0.226149,0.856445
-0.020985,0.188213,0.313195,0.708173,0.675899,-0.204087
-0.084206,0.324107,0.837272,-0.574860,-0.762765,0.296184
-0.275509,-0.604036,-0.953858,0.277804,0.955110,-0.102908
-0.057288,-0.053879,-0.060811,-0.209378,-0.958505,0.193466
-0.119828,-0.122436,-0.455392,0.936870,-0.069293,0.342744
0.059150,0.205762,0.879068,0.073495,-0.539609,0.838702
0.266989,0.045614,0.596594,-0.686059,0.069619,0.724207
-0.263653,-0.833004,-0.882777,0.068518,-0.089588,0.993619
-0.455051,-0.735609,-0.900477,-0.401315,0.700356,0.590295
0.071761,-0.068733,-0.956059,-0.222797,-0.376108,0.899391
-0.097513,-0.069372,-0.935976,0.004368,-0.976408,0.215887
-0.583306,0.463930,0.338779,-0.470329,0.239030,0.849503
0.174585,-0.276313,-0.907683,-0.344147,-0.703383,-0.621945
-0.147659,0.023686,0.462487,0.935214,0.278391,-0.218801
-0.206751,-0.662458,-0.913797,-0.608292,-0.205720,-0.766590
0.080387,-0.106490,0.294934,0.704682,0.202055,0.680145
-0.109199,-0.303938,-0.728289,0.098317,0.968268,0.229761
-0.348123,0.235870,0.094152,-0.304337,0.593162,0.745344
-0.118840,-0.061291,-0.927690,-0.383789,0.886617,-0.258102
-0.032344,0.103495,0.181660,-0.394122,0.702959,0.592045
-0.604383,-0.441658,-0.938783,0.314034,0.574009,-0.756238
-0.015147,0.134537,0.225482,0.959103,0.151262,0.239250
0.165023,0.364056,0.960893,-0.293592,-0.742507,-0.602069
-0.528608,-0.677392,-0.943365,-0.471596,0.617642,0.629377
-0.135273,0.349693,0.295587,-0.533096,0.685580,-0.495770
-0.026501,0.149686,0.964554,-0.510169,0.532465,0.675432
0.084607,0.263040,0.436190,0.950834,0.085893,0.297552
0.700867,0.115368,0.264228,0.007432,-0.547195,0.836972
-0.010737,0.324815,0.489663,0.306406,0.328878,-0.893283
-0.113629,0.039808,0.673241,0.934010,0.287119,0.212576
-0.193557,-0.148684,-0.899458,-0.087594,0.742321,0.664295
-0.030703,-0.246308,-0.930376,-0.245584,0.034085,0.968776
-0.255650,0.250208,0.102870,-0.081811,0.892819,0.442924
0.084172,-0.427635,-0.888813,-0.376038,0.920088,-0.109700
-0.065538,0.456144,0.569874,-0.915536,0.264521,-0.303022
-0.077582,-0.239006,0.227808,-0.654078,0.737904,0.166370
-0.197124,-0.427392,-0.924445,-0.158481,0.761439,0.628566
-0.266745,-0.871205,-0.897742,0.915212,-0.276547,0.293102
0.250664,0.123944,0.785345,0.656765,0.467049,0.592051
0.353366,0.310141,0.749173,-0.806740,0.245564,0.537465
-0.395549,0.602015,0.204233,0.966324,0.231135,0.113113
-0.482921,-0.151079,0.389315,0.174711,0.374618,-0.910570
0.146279,0.709748,0.681331,0.456438,-0.584083,0.671201
0.252041,0.013141,0.846167,-0.377370,0.461352,0.802961
-0.323175,-0.910588,-0.899359,-0.085312,-0.289436,0.953388
-0.569040,0.136118,0.455479,0.712106,0.691959,0.118730
-0.033637,0.080079,-0.037336,-0.061606,-0.711103,0.700384
0.050143,0.053372,0.749135,-0.496435,0.258338,-0.828742
-0.679433,-0.602480,-0.985831,-0.576517,0.002312,-0.817082
-0.446940,-0.120339,-0.943285,0.782742,-0.595784,-0.179880
0.506985,0.321819,0.691108,-0.293233,-0.467507,0.833937
-0.086517,-0.379552,-0.952748,-0.270959,0.932962,0.236988
-0.226465,-0.126638,-0.177364,-0.369861,0.648087,-0.665722
-0.628840,-0.120145,0.384674,0.670464,0.174852,0.721045
-0.181920,0.049328,0.036720,0.948430,0.195782,-0.249299
-0.820854,-0.786815,0.556911,-0.549489,0.832567,-0.069953
-0.195382,-0.023923,-0.964491,-0.639996,0.729313,-0.241884
-0.197050,-0.305943,-0.900831,0.442066,0.600210,0.666578
-0.135445,0.065609,0.517249,0.948657,-0.064697,0.309620
-0.280892,-0.129372,-0.392703,0.812957,0.303818,-0.496785
0.037311,0.268326,0.880498,-0.431276,0.661815,0.613190
0.398648,0.057116,0.602151,-0.046591,0.152250,0.987243
0.117846,0.168878,0.700556,-0.156572,0.618477,0.770046
0.274609,-0.099398,0.249077,0.412281,0.863168,0.291487
-0.288508,0.038160,-0.966018,-0.646728,0.670683,-0.363218
-0.410847,-0.472835,-0.934432,0.662248,0.446492,0.601725
-0.929407,-0.300365,0.418176,0.854368,-0.029496,-0.518831
0.360051,0.110291,0.828911,0.035084,0.498302,0.866294
0.084452,0.033045,0.849111,-0.579314,-0.662548,0.474789
-0.270698,-0.750319,-0.900642,-0.437296,0.479430,-0.760867
0.358559,-0.271945,-0.907488,0.009366,-0.424424,0.905415
-0.553418,0.051027,0.469203,-0.539406,0.532035,0.652671
-0.180139,0.189300,0.678083,-0.556904,0.736959,0.383080
0.389604,-0.267537,-0.927578,0.983503,0.063256,-0.169473
0.072372,0.045910,0.727656,-0.599440,-0.463190,-0.652784
-0.049520,0.039963,-0.970729,0.458137,-0.854242,0.245728
-0.434063,-0.244939,-0.949135,-0.632364,0.527395,0.567424
-0.177975,-0.548861,-0.932906,-0.220306,0.828698,-0.514514
-0.701397,-0.121080,0.392575,0.716255,0.391005,0.578008
-0.337283,0.532324,0.270011,-0.688902,-0.662356,-0.294447
-0.330577,-0.260035,-0.654698,-0.750746,0.436960,0.495424
0.204907,-0.096073,-0.951172,-0.543575,0.602030,0.584881
-0.286334,-0.643584,-0.890166,0.333102,-0.297374,-0.894769
-0.041439,-0.032641,-0.939168,-0.156343,-0.363373,0.918432
-0.085248,-0.122670,-0.949164,-0.351794,0.670435,-0.653267
-0.113369,0.260366,0.894959,0.781367,0.567994,0.258550
-0.198381,-0.824725,-0.887192,-0.677478,0.604322,0.419307
-0.272827,0.538007,0.472318,0.408539,0.832667,0.373847
0.278400,-0.076375,0.698567,0.625706,0.532000,0.570497
-0.104046,-0.873734,-0.881694,0.825524,0.285621,0.486755
-0.116436,0.201504,0.740278,-0.033735,-0.617657,0.785724
-0.249913,-0.757004,-0.887098,-0.460307,-0.120648,0.879523
-0.300498,-0.791226,-0.903413,0.994992,0.098921,0.014361
0.140400,-0.609916,-0.925096,-0.372393,0.806607,-0.459029
-0.338501,-0.152459,-0.450691,0.937328,-0.324696,-0.126448
-0.006230,-0.479014,-0.932028,0.548854,-0.105502,-0.829234
0.275147,-0.251931,0.149037,-0.750878,0.231984,0.618357
-0.904777,-0.280557,0.395449,-0.388157,0.375609,0.841577
-0.270644,0.057493,-0.930373,0.840868,-0.498889,-0.209883
-0.381029,-0.550684,-0.961334,-0.635353,0.768856,-0.072018
-0.143904,-0.110155,-0.065810,0.206149,-0.452151,0.867791
0.216979,0.607111,0.688130,-0.435670,-0.655157,-0.617220
-0.137125,0.164588,0.645205,0.812735,-0.559582,0.162264
-0.127309,-0.382692,-0.955675,-0.237252,0.451042,0.860391
0.751182,-0.028696,0.207952,0.687326,-0.378927,0.619675
0.114663,0.182322,0.776026,0.434188,0.881350,0.186287
-0.549956,-0.641008,-0.956210,0.994780,0.086865,-0.053552
-0.157362,0.181126,0.284776,0.537584,0.476947,-0.695359
-0.110901,-0.149418,-0.934568,0.790271,-0.195747,-0.580651
-0.240951,0.295046,0.856500,0.616561,-0.781421,-0.096095
-0.564583,-0.702100,-0.940925,-0.267415,-0.320046,0.908878
-0.114429,0.197428,-0.969884,-0.476366,0.644409,0.598174
-0.335701,-0.595553,-0.935190,0.138735,-0.412806,0.900191
-0.328547,-0.762131,-0.900630,-0.050025,0.986966,0.152955
-0.349141,-0.553271,-0.945280,0.334652,0.242752,-0.910538
0.328041,-0.144953,0.844275,0.336726,-0.644028,0.686909
-0.065619,0.190925,0.203526,0.999619,0.013359,-0.024164
-0.077467,0.274564,0.804038,-0.236690,0.970447,-0.047014
-0.211706,-0.276848,0.456207,0.936220,-0.294988,-0.190982
-0.334504,-0.431975,-0.943629,0.474486,0.591636,-0.651790
-0.430418,-0.818983,-0.929581,0.128732,0.234734,-0.963498
-0.413126,-0.371907,-0.958943,0.885993,-0.104433,-0.451786
-0.228543,-0.615714,-0.894315,-0.156025,0.615922,0.772203
-0.047474,0.389016,0.346450,0.566311,0.708399,0.421263
0.230494,0.278926,0.777077,-0.242192,0.786384,-0.568280
-0.293309,-0.265467,-0.688848,0.155480,-0.932585,0.325748
-0.508863,-0.462396,-0.954537,-0.029304,0.353720,0.934892
-0.342034,-0.286339,-0.920214,-0.708904,-0.461604,-0.533270
-0.456966,-0.262853,-0.933639,-0.398285,0.045129,-0.916151
0.110961,-0.377003,-0.901682,0.448860,-0.728989,0.516817
0.081656,0.214470,0.865921,0.363347,0.795902,-0.484272
-0.269008,0.029151,0.708424,0.844438,0.221274,0.487813
-0.310545,0.014343,0.447221,0.387765,-0.720569,-0.574821
-0.154693,-0.144493,-0.474447,0.864800,-0.496140,0.077237
0.278130,-0.185800,0.338276,-0.191202,0.960887,-0.200344
-0.384476,-0.365849,-0.469940,0.798020,-0.577759,0.171342
0.537253,0.123831,0.797171,0.955864,0.259612,0.137571
-0.178393,-0.801789,-0.900685,-0.692213,-0.008927,0.721638
0.141942,-0.547863,-0.895785,0.151889,0.160957,0.975204
0.052845,0.036433,0.978807,0.899552,0.363258,-0.242590
-0.414455,-0.302229,-0.953710,0.572456,0.807386,0.142904
-0.227335,0.356143,0.295025,-0.048997,-0.874134,0.483207
-0.175390,-0.893547,-0.901523,-0.350972,0.856737,0.377915
-0.471583,-0.183192,0.416076,0.482685,0.869557,-0.104333
-0.315724,-0.806507,-0.896744,0.954106,0.196257,0.226196
-0.239952,-0.036918,-0.972649,0.904661,0.031988,0.424930
-0.021682,0.131622,0.834966,0.606434,-0.097200,0.789170
-0.238420,0.020238,-0.190674,0.722250,-0.299839,0.623259
-0.011143,-0.350488,0.705562,0.192448,0.591679,0.782866
-0.419234,-0.566099,-0.972626,-0.130357,-0.324112,0.936994
-0.289667,-0.624768,-0.937001,-0.005876,0.449872,0.893074
-0.191002,-0.178591,-0.385900,0.442087,0.688981,-0.574338
-0.168900,0.380038,0.256368,0.812116,0.482506,0.328110
-0.015154,0.206932,0.873028,0.909986,0.333401,0.246514
0.231684,-0.360889,-0.910817,0.650472,0.060836,0.757090
-0.338816,0.370797,0.156940,0.108437,-0.535872,0.837306
-0.555565,-0.685242,-0.949124,0.933743,0.310445,-0.178180
-0.119663,0.128254,-0.948537,0.745477,-0.659437,0.096990
0.127980,-0.024934,0.833479,-0.307870,0.931840,0.192069
0.092771,0.334391,0.894505,-0.713263,0.490654,-0.500514
-0.345342,-0.088926,0.743704,-0.692985,-0.407338,-0.594850
0.024342,-0.110961,0.194146,-0.575851,0.062347,0.815174
0.489900,0.993055,0.649806,0.322258,0.011697,0.946580
-0.154819,-0.344734,-0.904768,0.174010,-0.451376,0.875203
0.006562,0.085888,0.156303,0.940239,0.319401,-0.118039
-0.091649,0.080734,0.253015,0.915653,0.214784,-0.339776
0.194281,0.174637,0.784711,0.276346,-0.352966,-0.893895
-0.288305,-0.048334,-0.961543,-0.262469,-0.917896,-0.297619
0.239927,-0.177710,0.578510,-0.311694,0.006506,0.950160
-0.109439,-0.296109,-0.934889,-0.183896,0.934138,-0.305891
-0.062994,-0.298585,-0.612682,0.938752,-0.300193,-0.169201
-0.057142,-0.126673,-0.948061,-0.179113,-0.045571,0.982772
-0.048993,0.246076,0.821398,-0.115521,-0.570044,0.813452
-0.018150,0.108014,0.500120,-0.444162,-0.255578,0.858720
-0.252544,-0.190304,-0.941381,0.331191,-0.045530,0.942465
-0.377515,-0.676435,-0.936838,0.668650,0.555702,0.494068
-0.182064,-0.284225,-0.932092,0.634761,-0.099798,-0.766237
0.432051,0.219057,0.801724,-0.199698,0.862474,0.465037
-0.047165,0.110521,0.252905,0.900803,0.315405,-0.298453
-0.152907,0.571822,0.511961,-0.610196,-0.792250,-0.001277
0.116450,-0.243345,-0.931913,0.428847,0.269208,-0.862333
0.001603,-0.032063,0.283905,0.775700,0.562051,-0.287035
0.446014,0.971007,0.637949,0.322258,0.011697,0.946580
-0.139603,-0.006391,-0.055583,0.900076,0.349456,-0.260278
-0.304661,-0.609221,-0.943372,0.313804,-0.935814,0.160559
0.314519,0.056003,0.600647,-0.506449,0.706650,-0.494121
-0.163871,-0.283713,0.464494,0.817402,0.561190,0.130074
-0.127405,-0.103677,-0.490606,0.629428,0.637848,-0.443813
0.310991,0.261501,0.413298,0.364742,0.915939,0.167391
-0.133974,0.338963,0.823007,-0.748724,-0.653810,0.109292
-0.114120,-0.915290,-0.905945,0.654566,0.632829,0.413607
-0.396202,0.331005,0.084085,-0.045673,0.988798,0.142099
-0.138981,0.135302,-0.005797,0.907089,0.419464,0.035211
-0.643970,0.360760,0.403117,0.555450,0.831192,0.024399
-0.121361,-0.697048,-0.905572,0.589065,0.524126,-0.615056
-0.440180,-0.458463,0.562436,-0.190257,0.980628,0.046590
0.274087,0.092101,0.904683,0.180781,0.333937,-0.925097
-0.058834,0.203421,0.891973,-0.435495,-0.400790,-0.806047
0.164397,-0.256351,-0.926572,0.806963,0.121269,-0.578017
0.494200,0.261475,0.845848,0.059300,-0.829673,0.555091
-0.047385,-0.165090,-0.945902,0.727584,0.465411,-0.503998
0.227465,0.227053,0.786930,0.039559,-0.732621,0.679486
-0.029262,-0.315286,0.397164,-0.697109,0.706516,0.121956
0.334584,-0.231009,0.585805,0.021786,-0.658788,0.752013
0.009083,-0.574818,-0.895898,0.058621,-0.397246,0.915838
-0.164129,0.157141,0.050271,0.912358,0.391843,0.118586
-0.145371,0.013890,-0.971471,0.154545,-0.088015,0.984058
0.333458,0.811001,0.659854,-0.504686,0.754072,-0.420319
-0.356912,-0.071040,0.454706,-0.764452,0.369369,-0.528375
0.104590,0.136512,0.278956,-0.688923,-0.053603,0.722849
0.327724,0.486728,0.881748,0.397125,0.611629,-0.684252
-0.185025,-0.652771,-0.926162,-0.171642,0.908135,0.381877
0.481948,0.441763,0.328688,-0.565798,-0.811078,0.148407
-0.396066,-0.052663,-0.934367,0.360915,0.494710,-0.790571
-0.126016,-0.107552,0.046107,0.292842,0.721763,0.627137
0.218776,-0.551296,-0.913361,0.132894,0.346632,0.928539
-0.125911,0.009321,-0.044806,0.508205,-0.572775,-0.643161
-0.200845,-0.798367,-0.910498,-0.264188,0.789550,0.553910
-0.352673,0.169560,0.152322,0.771253,0.430456,-0.468909
-0.132497,-0.095177,0.070675,0.325165,0.619681,-0.714327
-0.357099,-0.348309,-0.696608,0.075601,-0.925723,0.370568
-0.265509,-0.588213,-0.897559,0.305093,-0.537224,-0.786326
-0.193503,0.125376,-0.066919,0.367088,-0.896769,0.247086
0.059660,-0.527239,-0.922286,0.070157,0.128422,0.989235
-0.089521,0.233572,0.816922,-0.767508,-0.558961,0.313836
-0.152012,-0.129286,-0.207786,0.433702,0.899256,-0.056926
0.117588,-0.097191,0.528785,0.103533,-0.241001,0.964987
0.261666,-0.129309,0.287909,-0.565177,-0.818437,-0.103615
-0.535126,0.088604,0.480499,0.515083,0.794018,0.322840
-0.023386,0.082529,0.435498,0.831844,0.411582,-0.372338
-0.086875,0.122185,-0.973539,-0.509241,-0.456582,-0.729525
-0.213879,-0.866859,-0.882468,-0.490426,0.118316,0.863414
-0.246519,0.002042,-0.980719,-0.753987,-0.026120,0.656369
-0.289629,-0.464873,-0.911241,-0.529659,0.144979,0.835728
-0.327611,-0.854197,-0.892249,-0.199674,-0.351508,0.914643
0.128750,0.702873,0.695769,0.913473,0.232278,-0.334087
-0.505109,-0.140252,0.373140,-0.583109,-0.804486,0.113074
0.163094,-0.578106,-0.928017,0.803110,0.023742,0.595357
0.089857,0.090418,0.584255,-0.587794,0.680529,0.437468
-0.269224,-0.795161,-0.888594,0.375335,-0.600127,-0.706379
-0.428795,-0.045605,0.774778,0.997495,-0.050038,0.049993
-0.549330,-0.516887,-0.969867,0.869270,0.460055,0.180883
-0.225060,-0.218506,-0.615519,0.764397,-0.615613,0.191619
0.213105,0.220560,0.887372,-0.456059,-0.039089,-0.889091
-0.024374,-0.480610,-0.912588,-0.386990,-0.292062,0.874608
0.175681,-0.260475,-0.940068,-0.227298,0.814040,-0.534485
-0.102915,0.146611,0.915503,0.793477,-0.566861,0.221503
0.392691,-0.311809,-0.935102,-0.779104,0.350355,-0.519855
0.026530,-0.557415,-0.900508,-0.559646,0.608855,0.562221
0.738391,0.354391,0.706424,0.760643,-0.647409,-0.047796
-0.297887,-0.408666,-0.919145,0.423704,0.238239,0.873909
-0.226037,-0.601767,-0.929118,0.475736,0.546462,-0.689242
-0.350924,-0.931930,-0.897362,0.903337,0.322308,0.283018
0.168671,-0.020357,0.827051,-0.268356,0.863744,-0.426533
-0.188441,-0.246927,-0.928841,0.289575,0.933326,-0.212247
-0.121485,-0.467458,-0.945352,0.278103,0.712732,-0.643951
0.085058,-0.011474,0.747506,0.719318,-0.208882,0.662533
-0.201681,0.061659,-0.973934,0.569701,-0.814108,-0.112556
-0.259615,0.089233,0.811933,-0.843112,0.257474,0.472090
-0.318160,-0.721980,-0.895044,-0.222362,0.168741,-0.960251
0.358684,0.617607,0.696988,0.675489,0.360745,-0.643100
-0.627826,-0.705628,-0.946096,-0.727671,-0.637746,-0.252535
0.060234,-0.033899,0.090062,-0.666447,-0.731837,0.142346
-0.332973,-0.201234,0.280377,0.782967,0.585997,-0.208734
0.479302,0.049081,0.611281,-0.564318,0.425864,0.707238
0.049594,0.090162,0.260130,0.286787,0.775856,-0.561961
0.118782,-0.423512,-0.940954,0.745344,-0.258322,-0.614599
-0.060853,-0.267095,-0.616540,0.965926,-0.248050,-0.073881
-0.473428,0.004965,0.493927,0.975420,0.218955,0.024782
-0.045737,0.102511,0.183136,-0.183287,0.719660,0.669698
-0.327767,-0.547030,-0.941429,-0.156802,-0.205524,0.966009
0.080593,0.201959,0.334998,0.688867,0.713379,-0.128652
-0.118071,0.371977,0.371390,-0.507053,-0.800542,-0.319421
-0.356122,-0.441141,-0.947198,0.595715,0.735305,0.323188
-0.089336,-0.329034,-0.961962,-0.835451,0.263087,-0.482500
-0.062976,0.016931,0.000377,-0.342401,-0.833255,-0.434105
0.208890,-0.151790,-0.905018,-0.421869,-0.249773,0.871573
0.258545,-0.394755,-0.925283,-0.229244,-0.698049,0.678362
-0.697136,-0.064036,0.466667,0.670107,0.589847,-0.450597
-0.110197,-0.031637,-0.043882,-0.251001,-0.897518,0.362574
-0.526267,-0.644498,-0.910262,0.777395,0.125486,-0.616368
-0.065059,-0.234901,-0.906808,-0.018140,0.704866,0.709109
0.076694,0.468852,0.569844,0.474118,0.538762,0.696381
0.052804,0.122299,0.725910,-0.015101,-0.971437,0.236815
-0.232769,0.015264,-0.245426,-0.721832,0.489129,-0.489603
0.615146,0.251182,0.919200,0.786152,0.381766,0.486024
-0.148939,-0.168186,-0.938463,0.871215,-0.430628,-0.235677
0.044811,-0.009936,-0.944218,-0.259340,-0.852285,-0.454261
0.302778,-0.157196,-0.919353,-0.248377,-0.063938,0.966551
0.129124,0.268742,0.824007,0.835376,0.498629,-0.231336
0.074740,0.090591,-0.956361,-0.157753,0.986264,0.048972
0.035595,0.056550,-0.962111,0.820523,-0.431795,-0.374560
-0.560969,-0.154201,0.430728,-0.113375,0.863214,-0.491942
-0.230106,0.081389,0.063696,0.929990,0.355147,-0.094811
-0.245342,-0.038188,-0.958276,0.216982,0.917054,-0.334560
0.079630,-0.420276,-0.904010,0.000869,0.110034,0.993927
-0.122011,0.094539,0.434244,0.580496,0.778749,0.237852
-0.228842,-0.180137,0.584188,0.900598,-0.390758,-0.190347
-0.290637,-0.176371,-0.374538,0.899914,-0.348755,0.261773
-0.487943,-0.545001,-0.938309,0.683341,0.728215,-0.052415
-0.138612,0.159186,0.787997,0.813030,-0.295065,0.501916
0.264664,0.372753,0.868935,0.931020,-0.261059,-0.255048
-0.242742,-0.762860,-0.907561,0.467693,0.183268,0.864682
0.210939,-0.532155,-0.891011,-0.041927,0.358628,0.932538
-0.489881,0.033419,0.501957,0.378007,0.688300,0.619156
-0.055076,-0.824571,-0.877378,-0.671282,0.546731,-0.500465
-0.114352,0.036253,0.646493,0.189400,-0.357340,0.914569
0.611344,0.319280,0.694750,-0.588404,0.807535,-0.040835
-0.249788,-0.707074,-0.884872,0.285552,-0.262838,-0.921616
-0.292322,-0.273747,-0.913042,0.253451,0.639741,-0.725599
-0.137222,-0.073186,-0.135051,0.692769,0.552088,0.463972
-0.301981,-0.744196,-0.928326,0.627730,-0.765920,-0.138998
0.037659,0.156566,0.754270,-0.534974,-0.671100,0.513252
-0.063741,-0.321118,-0.953292,-0.161676,0.102252,-0.981532
-0.276108,0.530876,0.533149,-0.572109,0.787382,-0.229612
0.112877,0.006567,0.582133,-0.502439,-0.081025,0.860808
-0.146119,0.246182,0.789733,0.920454,-0.019044,-0.390387
0.215896,0.271941,0.883905,0.512274,-0.242924,-0.823749
-0.915895,-0.264742,0.399206,0.835296,-0.117349,-0.537131
-0.489014,-0.221804,-0.924477,-0.665062,-0.013896,0.746659
-0.310688,-0.213301,-0.444856,0.119128,-0.973384,-0.195788
0.086330,-0.623145,-0.922406,-0.409946,0.883327,-0.227328
-0.020408,0.554817,0.493584,0.699136,0.293886,-0.651797
-0.378296,0.335089,0.092805,-0.008211,0.832472,0.554006
0.099095,-0.157507,0.198322,-0.006292,-0.144448,0.989492
-0.027901,-0.341024,-0.945438,0.970478,-0.227066,-0.081325
-0.005330,-0.091802,0.574893,0.504997,-0.106962,-0.856468
-0.081089,-0.291818,0.417019,-0.218585,0.912141,-0.346727
0.606663,0.278407,0.696522,-0.546347,0.454016,0.703828
0.052360,-0.065448,0.844200,0.950215,-0.204805,-0.234832
0.017571,0.118210,0.298511,-0.419855,-0.102397,0.901796
-0.134666,0.390233,0.871039,0.891707,0.148710,0.427486
-0.216898,0.177154,0.137979,-0.279709,-0.953890,0.108885
0.325825,0.406564,0.864139,0.816630,-0.399940,-0.416129
-0.064872,-0.215928,0.519879,-0.528352,0.723704,0.443956
0.008827,0.188766,0.165599,0.975040,-0.071757,0.210114
0.019890,-0.162105,0.190077,0.698550,0.697654,-0.159078
0.016454,0.084979,-0.946169,-0.244505,0.516488,-0.820644
-0.107264,0.457564,0.560345,-0.380495,0.735576,0.560492
0.675424,0.171699,0.857181,-0.813105,0.163679,0.558632
-0.240292,-0.499819,-0.918570,0.339904,-0.005892,-0.940442
-0.038623,-0.475703,-0.906022,-0.024077,0.931049,0.364100
0.152614,-0.100991,0.184000,0.757798,0.366282,-0.539980
0.123166,-0.224862,-0.952221,0.172897,-0.318057,-0.932173
-0.239445,0.012789,-0.913224,-0.095508,0.464904,0.880195
0.123176,0.103855,0.654050,-0.173499,0.952306,0.251022
-0.370796,-0.552622,-0.947301,0.458871,0.632557,-0.623946
0.152118,0.331670,0.487137,-0.421217,0.195107,-0.885725
0.418569,-0.393444,-0.895537,0.374370,-0.630669,-0.679782
-0.312350,-0.173838,-0.522724,0.966627,0.063432,-0.248211
-0.487989,-0.636064,-0.898540,-0.082770,-0.111395,0.990323
-0.252350,-0.730031,-0.919972,0.218470,0.921823,0.320178
0.024140,-0.191392,0.530671,-0.350994,0.299471,0.887198
-0.338850,-0.511191,-0.940918,0.510043,-0.305904,0.803915
-0.163156,-0.694656,-0.908615,-0.253993,0.966977,0.021056
-0.531140,-0.548131,-0.938093,0.858028,0.252584,0.447201
-0.109236,0.457257,0.338656,0.081923,0.488252,0.868849
-0.449864,0.395669,0.365202,0.093477,0.628553,-0.772129
0.034207,-0.077765,0.166246,0.801750,0.596550,-0.036406
-0.319590,-0.428896,-0.913589,-0.637573,-0.423531,0.643523
-0.265910,-0.189439,-0.453868,-0.371599,-0.798317,-0.473924
0.152080,-0.244967,-0.930370,-0.490482,-0.851460,-0.185588
-0.527519,0.453925,0.404344,-0.191849,0.942425,-0.273915
-0.246900,0.055751,-0.162719,0.790242,0.238355,-0.564540
0.194057,0.253813,0.880915,-0.608689,-0.215470,0.763591
0.034298,-0.637617,-0.916009,0.148223,-0.314892,0.937482
-0.010025,-0.018001,-0.918274,0.393517,-0.346685,-0.851442
0.769261,0.021306,0.232761,0.704530,0.559433,-0.436661
0.019128,0.007686,-0.936575,0.492761,0.325994,0.806793
0.048525,-0.295827,-0.887548,0.404960,-0.331617,0.852078
-0.453309,-0.319669,-0.941915,0.790869,0.350917,-0.501382
0.313512,0.161407,0.729777,0.787263,-0.503835,-0.355481
0.357290,0.091808,0.405871,-0.169963,0.910742,0.376380
0.415205,0.173905,0.814395,0.619652,0.720473,-0.311369
-0.405702,-0.344165,-0.942835,0.448457,-0.118262,-0.885946
-0.118536,0.253526,0.793451,0.652786,-0.120952,-0.747824
0.208071,-0.495340,-0.905815,-0.276534,-0.738275,0.615206
-0.182869,-0.782596,-0.893053,-0.262979,0.286262,0.921356
-0.201412,0.049520,-0.094228,0.274064,0.484408,0.830805
0.029824,-0.133519,-0.934907,-0.682336,0.036166,-0.730143
-0.468079,-0.451098,-0.960239,0.966627,-0.256176,-0.002468
-0.163749,-0.635987,-0.925137,0.984402,-0.166798,0.055956
-0.548464,-0.666785,-0.954211,0.825297,0.547978,0.136398
-0.135261,-0.040317,-0.262227,0.802907,0.142547,-0.578810
0.539431,-0.156001,0.606436,0.499990,-0.764924,0.406080
-0.085526,0.325669,0.822414,0.700497,0.585397,0.408183
-0.234338,0.162042,0.640944,0.724410,0.688368,-0.037147
0.361438,-0.087182,0.261337,-0.732113,0.264105,0.627901
0.459992,-0.179236,0.315898,-0.635622,-0.754637,0.162808
-0.039892,-0.336734,-0.659179,0.034285,0.929941,0.366106
-0.019639,-0.145507,0.689126,0.960256,0.251858,-0.120316
-0.122000,0.086220,-0.016338,-0.094995,-0.951129,0.293820
-0.100204,0.118189,0.361952,-0.509493,-0.518109,0.687008
-0.278482,0.344900,0.406207,0.907528,-0.159182,0.388658
-0.201202,-0.208309,0.563158,0.822475,-0.041019,0.567320
0.046017,0.436041,0.558878,-0.621122,-0.393172,-0.677956
-0.552100,-0.062809,0.434928,-0.038825,0.810704,-0.584168
-0.261873,-0.049886,-0.181057,0.999182,0.013627,0.038071
-0.528595,0.488653,0.323440,0.442515,0.895077,-0.054929
0.188548,0.283918,0.420061,-0.107492,-0.958230,0.265029
0.077833,-0.057368,-0.941848,0.917104,-0.301838,0.260410
-0.370455,-0.131159,0.373630,0.053104,-0.879851,0.472274
0.193813,-0.121817,-0.941355,-0.030151,0.732227,0.680393
-0.148395,0.281796,0.181889,0.371993,-0.207103,0.904837
0.379224,0.149792,0.792544,0.637000,0.241723,-0.731984
0.027467,-0.376086,-0.910826,0.149037,0.461162,0.874710
-0.248102,0.433400,0.346844,0.827917,-0.080393,0.555059
-0.033781,-0.845670,-0.893082,0.809930,-0.513946,0.282617
-0.474194,-0.667773,-0.950871,-0.210830,0.936914,0.278826
-0.372252,-0.026166,-0.951270,-0.651917,0.548797,0.523285
-0.422129,0.161081,0.092794,0.836160,0.267048,0.479084
-0.259040,-0.405966,-0.926331,-0.545067,-0.452371,-0.705877
0.299392,-0.006845,0.648034,0.968553,0.160973,-0.189718
-0.630684,-0.609866,-0.947626,0.981411,0.143308,0.127650
0.041410,0.160680,0.137628,0.897237,0.243610,-0.368265
0.179338,-0.456796,-0.910702,-0.498229,-0.239295,0.833370
0.163556,0.109110,0.747643,-0.582014,0.811455,0.052924
0.490261,0.159057,0.922661,0.856269,-0.320338,0.405199
-0.318513,-0.454628,0.539108,-0.646206,0.652329,-0.396087
-0.398598,0.355266,0.359591,-0.125444,-0.708364,0.694611
0.082930,-0.168300,-0.941960,0.690530,-0.199010,-0.695388
-0.351964,-0.007382,-0.929415,-0.539318,0.422067,0.728694
-0.351912,-0.477761,-0.955994,-0.674615,-0.663200,0.324131
0.359037,0.348745,0.462408,-0.370547,0.608892,-0.701388
-0.895299,-0.765760,0.638638,-0.611922,0.772510,0.169646
0.184454,0.216758,0.804922,0.986224,-0.071639,0.149095
-0.072962,-0.729174,-0.904400,-0.057969,0.493415,0.867860
-0.546108,-0.474623,-0.935202,0.749717,0.367831,0.550114
-0.533624,-0.419496,-0.935255,-0.385374,-0.147986,0.910817
-0.512865,-0.535481,-0.942688,0.830833,0.556386,-0.012336
0.072292,-0.483884,-0.924914,-0.219536,-0.636454,0.739412
0.093961,-0.118963,0.168653,0.853660,-0.513549,0.086785
-0.604486,0.400639,0.346241,0.481300,0.423922,-0.767229
0.088183,-0.580434,-0.889054,-0.157088,0.373054,0.914415
0.041460,-0.107130,0.529288,0.223420,-0.081300,0.971326
0.011273,-0.060401,0.005729,0.872930,-0.417908,-0.251686
0.506123,0.322086,0.301887,-0.438430,-0.868637,0.230755
-0.389424,-0.309985,-0.959803,-0.237966,0.425027,0.873341
-0.070565,0.017543,-0.970141,-0.497885,0.745062,-0.443839
0.145920,-0.810019,-0.886822,0.482509,-0.613787,-0.624861
-0.443556,-0.324941,-0.961936,-0.341161,-0.226095,-0.912409
-0.434044,0.396091,0.335834,0.440034,0.049156,0.896635
-0.148662,-0.653468,-0.963179,0.440630,0.897094,0.032678
0.333799,-0.209586,-0.944419,0.707921,0.000963,-0.706291
-0.037765,0.053613,0.290609,0.808642,0.139708,-0.571471
-0.278795,-0.204700,0.395284,-0.173827,-0.513808,-0.840111
-0.181169,-0.140740,-0.947687,-0.291110,-0.793021,-0.535138
-0.114793,0.139492,0.130960,-0.727818,-0.236167,0.643822
-0.787967,-0.103153,0.414207,-0.613177,0.674360,-0.411402
0.422908,0.090565,0.825244,-0.063138,-0.230176,0.971099
-0.035848,0.097076,0.440875,0.761947,0.443603,-0.471860
0.580416,0.924260,0.658223,-0.592139,0.042086,-0.804736
-0.396284,-0.303962,-0.950941,0.836928,0.372769,0.400743
-0.122555,-0.171609,-0.415143,0.972977,0.047431,-0.225976
-0.161109,-0.064231,0.000075,0.997905,0.047937,-0.043438
0.448861,-0.154611,0.309804,0.736055,0.655623,-0.168468
-0.316366,-0.280711,-0.468187,0.687066,-0.554875,0.469100
0.435505,0.073386,0.821601,0.253815,-0.681462,0.686431
-0.302377,-0.350282,0.411342,0.976119,0.166600,0.139414
0.190180,0.230026,0.418132,-0.183999,-0.843592,-0.504476
-0.332963,0.483728,0.309706,0.908188,-0.118928,0.401311
-0.525814,0.487105,0.455333,-0.651161,0.430217,0.625222
-0.077338,0.023852,0.001178,-0.230520,0.940992,0.247781
-0.131186,-0.083849,-0.921043,-0.690989,-0.274904,-0.668552
-0.249098,-0.523933,-0.931700,-0.685619,-0.361022,-0.632131
-0.110934,-0.781937,-0.922783,0.338027,-0.390683,-0.856216
-0.263797,0.405209,0.181760,-0.249386,0.737331,0.627813
-0.347648,-0.861758,-0.904300,0.812628,-0.569934,0.121698
0.221665,0.191927,0.891856,0.227654,0.110017,0.967507
-0.274609,-0.109624,-0.946952,0.859022,0.490769,0.145694
0.214554,-0.561797,-0.889143,-0.283373,-0.154354,0.946506
0.610550,0.236148,0.226393,0.759731,0.639704,0.116570
0.223611,-0.344201,-0.945702,-0.583231,0.139551,0.800230
0.743544,-0.080709,0.254641,0.874341,0.066167,-0.480781
-0.344339,-0.736843,-0.889532,0.518794,0.078968,0.851244
-0.077294,-0.264070,0.438485,0.103803,0.886964,0.450021
-0.449410,-0.704959,-0.932626,0.604122,0.593275,0.532035
-0.147037,-0.253136,0.510499,-0.687047,0.304241,0.659851
-0.374000,-0.455408,-0.941475,-0.533564,-0.193465,-0.823335
-0.273831,-0.159487,-0.164817,0.231598,-0.824943,0.515589
0.173932,-0.442091,-0.930091,0.074939,0.958562,-0.274850
0.844215,-0.010627,0.256768,0.890104,0.270942,-0.366477
-0.697168,-0.100460,0.464972,0.492039,0.366631,-0.789607
0.406197,0.451788,0.438361,0.263512,-0.623265,0.736276
-0.173461,-0.007714,-0.234167,0.126382,0.480434,0.867877
-0.548159,-0.067020,0.362048,0.041537,-0.660974,0.749259
0.323733,-0.363229,-0.942780,0.300132,0.249780,0.920614
0.549158,0.263213,0.899191,0.242311,-0.932386,-0.268220
0.271901,-0.435331,-0.950034,0.357735,-0.699630,-0.618501
-0.332009,0.130342,0.093920,0.594207,0.505671,-0.625472
-0.458976,-0.156462,0.366368,-0.159419,0.987122,0.013286
-0.328471,-0.600095,-0.952348,0.164923,-0.984542,0.058978
-0.193248,-0.352739,0.479239,-0.858391,-0.068161,0.508448
-0.084789,-0.311949,-0.950051,-0.516049,0.506259,-0.690938
0.018818,0.130903,0.271968,-0.576368,0.142850,0.804608
0.268936,-0.359152,-0.895183,0.929040,0.011012,0.369816
-0.237995,-0.027137,-0.954719,-0.025250,0.831745,0.554584
-0.122668,-0.826086,-0.915270,-0.256847,0.318971,0.912298
-0.427969,-0.070691,0.420848,-0.745121,0.546061,0.382901
-0.179186,-0.475063,-0.888931,0.798948,-0.483735,0.357326
0.045409,0.006930,0.543546,0.940256,0.289416,0.179325
-0.169359,-0.703012,-0.924283,0.575938,-0.817122,-0.024638
-0.611565,-0.506908,-0.948110,0.704412,-0.671115,-0.231103
0.198288,0.244384,0.436343,-0.192330,0.898591,-0.394390
0.825195,-0.119052,0.228209,0.658493,0.635501,-0.403144
0.150165,-0.003096,-0.925364,0.767392,0.510549,0.387877
0.222961,0.200344,0.829712,0.482222,-0.866748,-0.127319
0.034415,0.009185,0.769019,0.221214,-0.494480,-0.840568
-0.318550,0.027261,0.793973,0.576007,0.085473,-0.812964
0.265620,0.046921,0.322545,-0.545135,-0.837769,-0.031142
0.021188,0.118819,0.274216,0.643759,0.025286,-0.764811
0.265049,0.479526,0.885577,-0.581356,-0.338213,0.740026
-0.342985,-0.128258,-0.973306,0.463040,0.194829,0.864660
0.183392,-0.084389,-0.909624,0.479976,0.463330,0.744949
0.287136,0.139935,0.746275,0.714409,-0.683993,-0.147559
0.324240,0.154096,0.606518,-0.114927,-0.941523,0.316742
-0.015670,0.259194,0.825337,-0.113566,0.685048,-0.719592
-0.363460,-0.330838,-0.961745,-0.251544,0.145423,0.956858
0.406722,-0.184057,0.776535,-0.392497,0.365117,0.844177
-0.335045,-0.184663,-0.317886,0.944359,-0.032398,0.327317
-0.090555,0.045804,-0.035399,0.840008,-0.532975,0.101610
0.040689,-0.350719,-0.927377,-0.454739,0.455454,0.765359
0.349231,0.454541,0.865999,0.838416,0.014434,-0.544839
-0.329923,-0.803328,-0.889688,-0.476149,-0.570074,-0.669550
-0.244420,-0.264914,-0.930418,0.262846,-0.072758,-0.962090
-0.083776,-0.471075,-0.925944,-0.619194,0.684770,0.384304
-0.010257,-0.006275,-0.951766,-0.355284,0.481848,0.800997
-0.161648,-0.168086,-0.920857,-0.559095,0.171213,-0.811233
-0.098134,0.361897,0.451456,0.209061,0.186131,-0.960025
-0.258143,-0.439313,-0.921171,0.850948,-0.518608,0.083270
-0.581710,-0.628657,-0.948763,0.144972,0.270598,0.951714
-0.139900,0.384413,0.225044,0.778464,0.613594,-0.132272
-0.173434,-0.231561,-0.830214,-0.657236,0.689957,0.303315
-0.358363,-0.134104,-0.950931,0.997992,-0.029818,-0.055875
0.269362,-0.304807,-0.936772,0.459656,-0.849563,-0.258767
0.119727,-0.181686,-0.924682,-0.442658,-0.838351,-0.318154
0.503856,0.290814,0.924824,0.774039,0.090381,0.626654
-0.001352,0.150916,0.505401,-0.312815,-0.594003,0.741152
-0.290526,0.010503,0.709068,0.909454,0.194966,0.367262
-0.029008,-0.730758,-0.880275,-0.035390,-0.325971,0.944717
-0.217485,-0.123110,-0.938246,0.690200,0.518207,0.505060
0.485238,-0.100995,0.576112,-0.120041,-0.988877,0.087816
-0.135380,0.067279,-0.988771,0.023502,-0.774637,0.631969
0.413913,0.200738,0.845192,0.897875,0.320637,0.301683
-0.408367,-0.085789,-0.953069,-0.273627,-0.194195,0.942028
0.015157,0.049161,0.268166,-0.454436,0.257154,-0.852854
0.423738,0.147345,0.825191,-0.601934,-0.338720,0.723149
-0.055077,-0.446017,-0.957127,0.552812,-0.787098,-0.273636
-0.244011,0.109004,0.786280,0.580464,-0.743460,-0.332158
-0.354005,-0.477544,-0.932961,-0.555848,0.461571,0.691365
0.132458,-0.030248,-0.942113,0.043311,-0.880044,0.472912
0.080109,0.416465,0.855021,0.040218,-0.066743,0.996959
0.092951,-0.584082,-0.897049,0.316583,-0.330641,0.889073
0.299358,0.056634,0.738940,0.843675,0.508979,-0.170741
0.315341,-0.061106,0.791170,0.878219,-0.456466,0.142722
0.594448,0.265111,0.240738,-0.550365,-0.802975,0.228756
-0.173038,-0.396862,-0.952712,0.212675,0.213453,0.953524
0.501146,-0.109355,0.591475,-0.152197,-0.987508,-0.040782
-0.392102,-0.403802,-0.925948,-0.610773,-0.385758,0.691481
0.286442,-0.343519,0.172348,0.978411,-0.126654,-0.163308
-0.007071,-0.315783,-0.756607,0.086621,0.793090,-0.602914
-0.382218,0.323935,0.325520,0.247175,0.144854,0.958082
-0.131664,-0.593934,-0.916887,-0.500021,-0.001331,0.866012
-0.312120,-0.759820,-0.926190,-0.496326,0.572146,-0.652924
-0.338496,0.213331,0.137251,0.643196,0.750559,-0.151527
0.245991,-0.170068,0.777852,-0.086045,-0.032611,0.995757
-0.132454,0.116221,-0.116208,0.628078,0.768481,-0.122292
0.111152,-0.517933,-0.914349,0.415398,-0.695665,-0.586085
0.392080,-0.001140,0.785028,0.959532,-0.243786,0.140951
-0.115321,-0.149718,-0.879474,-0.712901,0.651461,0.259559
0.351513,-0.125424,0.301561,0.395680,0.410050,-0.821765
0.348904,0.333986,0.934590,0.488919,0.507295,-0.709655
-0.410657,-0.068747,0.485690,0.303115,0.847051,-0.436607
-0.407324,-0.200697,-0.947865,0.678516,-0.704011,-0.209724
0.333423,-0.443192,-0.900722,0.839903,-0.295142,0.455470
-0.264494,0.119369,-0.975992,-0.344182,0.527984,0.776383
-0.344422,0.297408,0.153488,0.431886,0.236508,0.870367
-0.662576,-0.477264,-0.952476,-0.661957,-0.375442,-0.648734
-0.340413,-0.139508,-0.353639,0.985461,0.080731,0.149498
-0.218943,-0.082712,-0.218478,0.276245,0.959091,0.061907
-0.111106,0.053184,-0.939579,-0.079515,-0.229627,-0.970025
-0.268794,-0.701424,-0.915119,-0.230310,0.600275,-0.765916
-0.393572,0.010811,0.512883,0.465742,0.736656,-0.490329
-0.287124,0.504359,0.502588,-0.309998,0.856806,-0.412049
0.641733,0.196450,0.264437,0.576421,0.245213,0.779493
0.010035,-0.168171,0.632983,-0.617817,0.728583,-0.295753
-0.147101,-0.069447,-0.235866,-0.358279,0.677055,-0.642832
-0.030285,-0.365242,-0.956828,-0.222364,0.001121,0.974963
0.264079,-0.262360,-0.925159,-0.301330,0.932161,0.200687
-0.265864,-0.868348,-0.888805,-0.219599,0.883719,-0.413301
0.041846,-0.493025,-0.938590,-0.142393,-0.433562,0.889802
-0.173617,-0.200445,0.062775,0.014920,0.301531,0.953340
-0.147079,-0.642212,-0.933981,0.025632,0.469060,0.882794
-0.499601,-0.617095,-0.914054,0.848570,-0.245334,-0.468764
-0.167598,-0.785781,-0.893597,0.395918,-0.295072,-0.869587
-0.211742,0.104030,0.631480,0.942905,0.094045,-0.319510
0.163094,-0.287320,-0.939174,0.889704,-0.023968,0.455909
0.247557,0.565340,0.683686,-0.125242,0.805628,0.579032
0.087898,-0.514121,-0.946739,-0.251821,-0.314157,-0.915364
0.053018,0.018067,-0.035762,0.458729,-0.135878,-0.878126
