0.607403,-0.158144,0.696794,0.253214,0.780213,0.571971
0.535609,-0.288938,0.548484,-0.644909,0.759419,0.085883
0.500702,-0.422837,0.452145,0.282034,0.233631,0.930523
0.479219,-0.574437,0.368312,0.851206,0.306866,-0.425773
0.419103,-0.267251,0.389653,0.900977,0.160132,-0.403235
0.364701,0.108430,0.442713,0.963474,-0.088222,-0.252853
0.315202,-0.163233,0.277401,0.985822,-0.157273,-0.058476
0.798389,-0.705123,0.699217,-0.437887,-0.733845,-0.519352
0.785899,-0.671374,0.693509,0.254641,0.710977,0.655492
0.761153,-0.596678,0.684393,0.137459,0.917140,0.374112
0.610204,-0.291265,0.575971,0.256135,-0.026385,0.966281
0.573202,-0.489782,0.454376,0.783744,0.607967,0.126972
0.768741,-0.544561,0.625976,0.412743,0.299558,-0.860179
0.757298,-0.482147,0.631579,-0.032232,0.095073,0.994948
0.718308,-0.441538,0.590426,0.149191,-0.964414,-0.218282
0.856062,-0.712759,0.691647,-0.419188,-0.700874,-0.577111
0.844854,-0.642602,0.699973,0.271775,-0.659592,-0.700769
0.832598,-0.629654,0.687098,0.200131,0.848492,0.489907
0.793138,-0.653003,0.623025,0.646780,0.277744,-0.710305
0.781111,-0.595351,0.625870,0.646780,0.277744,-0.710305
0.908832,-0.749940,0.698655,-0.536422,-0.322185,-0.780031
0.896334,-0.718733,0.691999,0.992549,0.057997,-0.107155
0.885012,-0.659976,0.696091,0.799421,-0.041798,0.599316
0.872756,-0.613056,0.694967,0.020850,0.952679,0.303262
0.808899,-0.529732,0.634108,0.917794,-0.012391,-0.396862
0.743404,-0.429918,0.576849,-0.007842,0.993746,0.111384
0.932880,-0.623346,0.691560,0.837401,0.074038,-0.541551
0.921785,-0.560936,0.697163,0.396840,-0.758189,0.517365
0.805515,-0.399265,0.590128,-0.152586,0.979799,0.129276
0.839602,-0.303659,0.575620,0.944676,-0.322764,0.058406
0.162970,0.029203,-0.661163,0.979077,-0.203469,-0.002818
0.150244,-0.017275,-0.608788,-0.283703,0.950053,0.130048
0.138224,-0.023141,-0.553988,-0.355410,0.932082,-0.070047
0.134020,-0.055675,-0.537865,0.223501,0.968257,0.111916
0.129467,-0.061761,-0.519616,0.340641,-0.540695,-0.769163
0.125263,-0.058772,-0.500594,0.776538,0.572699,-0.262687
0.182237,-0.162237,-0.984709,0.992474,0.004578,-0.122373
0.227532,-0.088871,-0.236450,0.420073,0.855366,-0.303130
0.219588,-0.099603,-0.201603,0.384901,0.899838,0.205289
0.216324,-0.116978,-0.185672,-0.283469,-0.958957,-0.006867
0.211650,-0.101265,-0.166457,0.237630,0.971267,-0.013124
0.207567,-0.120186,-0.149859,-0.372582,0.902842,0.214613
0.203833,-0.122510,-0.132049,0.068431,-0.973720,0.217226
0.200563,-0.139553,-0.116119,-0.041436,0.965495,0.257103
0.196943,-0.154824,-0.099785,-0.137491,0.840689,-0.523773
0.192975,-0.181381,-0.083801,0.411811,0.901112,0.135679
0.188884,-0.168764,-0.065710,0.369208,0.901386,0.226248
0.184916,-0.162679,-0.047409,0.045302,0.984396,-0.170037
0.180833,-0.181492,-0.030934,0.082577,0.996236,-0.026369
0.177099,-0.177176,-0.012773,-0.596009,-0.775676,-0.207604
0.173715,-0.199198,0.002684,-0.225656,0.924276,0.307887
0.170209,-0.205283,0.019334,0.342340,-0.932007,0.119018
0.299790,-0.063530,-0.993070,0.173938,0.918308,0.355607
0.295707,-0.076477,-0.974346,0.329141,0.909955,-0.252284
0.260800,-0.035092,-0.816394,-0.075731,-0.872071,0.483483
0.243172,0.006958,-0.736706,-0.438856,0.597832,0.670822
0.239090,-0.018160,-0.719704,-0.303802,0.951324,-0.051833
0.234999,-0.027788,-0.701280,-0.374205,0.925399,-0.060060
0.230681,0.004523,-0.680062,-0.261411,0.964439,0.039006
0.226827,0.004966,-0.661603,0.699098,-0.483761,0.526532
0.222160,0.018579,-0.641351,-0.594532,0.458575,0.660486
0.218070,0.031083,-0.621803,-0.041392,0.998613,0.032547
0.214336,-0.017387,-0.606926,-0.380566,0.773886,0.506231
0.209783,-0.022587,-0.588414,-0.509710,0.836188,0.202449
0.205928,-0.030334,-0.570112,0.537025,0.843379,0.017781
0.202430,-0.054899,-0.553953,0.777978,0.475846,0.410269
0.198461,-0.032327,-0.534123,0.039757,0.980583,0.192035
0.194143,-0.050917,-0.516876,-0.233420,0.890655,0.390191
0.189939,-0.053683,-0.499083,0.145817,0.743777,0.652329
0.158303,-0.109120,-0.356973,0.815782,-0.558980,0.148463
0.153985,-0.109231,-0.338584,0.773130,-0.528408,0.350792
0.145926,-0.108677,-0.302472,0.739783,-0.666570,0.091678
0.138338,-0.156925,-0.270295,0.346510,-0.867494,0.356911
0.134020,-0.094514,-0.247954,-0.538774,0.826558,0.162865
0.130165,-0.093299,-0.229670,-0.350449,0.935102,0.052633
0.125612,-0.075812,-0.210139,-0.367525,-0.921843,0.123008
0.121992,-0.087875,-0.192926,-0.253049,0.967353,-0.013963
0.117795,-0.081236,-0.175081,0.177396,-0.525838,0.831880
0.114176,-0.133022,-0.161609,0.511467,0.858456,0.038148
0.110321,-0.129483,-0.143308,-0.428295,0.893028,0.138073
0.107172,-0.164448,-0.128642,0.726739,-0.683564,-0.067747
0.103203,-0.155043,-0.109919,0.946894,-0.046683,-0.318139
0.099348,-0.191228,-0.094656,-0.110154,0.969417,-0.219311
0.239667,-0.058218,-0.994949,-0.652052,0.526587,-0.545467
0.235235,-0.082120,-0.977332,0.809605,-0.507604,-0.294749
0.231031,-0.082894,-0.958346,-0.406188,0.909437,0.089088
0.263950,-0.226420,-0.045688,0.271099,-0.959593,0.075407
0.259396,-0.196540,-0.025717,0.254054,0.953519,0.162043
0.255314,-0.186470,-0.007943,0.512636,0.856190,0.064369
0.251694,-0.195544,0.009200,-0.243290,-0.878602,-0.410936
0.247960,-0.195986,0.026904,0.111889,-0.972252,-0.205445
0.244341,-0.200856,0.044275,-0.038789,-0.994082,0.101475
0.240486,-0.209157,0.060715,0.032844,0.758934,-0.650339
0.236631,-0.229959,0.076171,0.172694,-0.960526,-0.218098
0.232662,-0.202406,0.095720,-0.433394,0.891040,0.134974
0.228580,-0.197094,0.112968,-0.160629,0.975097,0.152922
0.225074,-0.203733,0.130075,-0.196100,0.927019,-0.319656
0.221226,-0.185585,0.148781,-0.055221,0.995371,-0.078664
0.350344,-0.040293,-0.786184,0.350094,0.915137,0.199894
0.345320,-0.011852,-0.764194,-0.732014,-0.679229,0.052943
0.256012,-0.129814,-0.365843,-0.778740,-0.492476,-0.388627
0.243408,-0.063530,-0.306723,0.158251,0.973633,0.164306
0.239553,-0.104696,-0.291565,0.011252,0.934083,0.356878
0.235698,-0.107904,-0.273545,-0.291548,0.949402,0.116774
0.231501,-0.118639,-0.256192,-0.481886,-0.839451,-0.251212
-0.462759,0.162986,0.906472,0.957937,0.283781,-0.042731
-0.466265,0.154577,0.921577,-0.101374,0.964890,-0.242301
-0.471395,0.319787,0.945973,0.755726,-0.047397,0.653170
-0.497431,0.237128,0.903311,0.720790,0.616587,-0.316672
-0.501521,0.266008,0.920980,0.710723,0.168897,0.682895
-0.505255,0.189765,0.932607,0.803110,-0.018265,0.595550
-0.508169,-0.006432,0.938386,0.901470,0.259410,0.346495
-0.535138,0.231482,0.905330,-0.506937,-0.861981,-0.001999
-0.539456,0.264127,0.923105,0.950312,0.087263,0.298819
-0.544479,0.361618,0.943444,0.623442,-0.526512,-0.578018
-0.554868,-0.077585,0.970071,-0.479121,0.693114,-0.538550
-0.592112,-0.050029,0.917028,0.080494,0.996685,0.011819
-0.399601,0.037831,0.894019,-0.455999,-0.293986,0.840022
-0.402173,-0.227747,0.896408,0.082995,-0.688646,0.720332
0.123282,-0.121959,-0.299820,0.713623,-0.699477,0.038387
0.110207,-0.094402,-0.318333,-0.712074,-0.640244,0.288164
0.104721,-0.130810,-0.340200,0.937197,0.209315,-0.279013
0.244690,-0.222546,0.004914,0.130952,0.897365,0.421411
0.224725,-0.227413,-0.035360,-0.003788,0.995757,0.091942
0.148263,-0.072050,-0.149192,-0.338101,-0.855996,-0.391100
0.139742,-0.083117,-0.169496,0.171172,0.983661,-0.055779
0.132965,-0.113105,-0.191486,-0.057829,0.994779,0.084086
0.122926,-0.108900,-0.211825,-0.768462,0.584268,-0.260954
0.114404,-0.119301,-0.232972,-0.478381,0.878121,-0.007477
0.108105,-0.150285,-0.254365,0.998036,-0.017599,0.060116
0.219944,-0.257512,0.057747,0.218756,0.808473,-0.546368
0.192390,-0.185143,0.020318,-0.430847,0.888604,0.157330
0.174648,-0.201964,-0.020624,-0.045235,0.987823,0.148864
0.142193,-0.167660,-0.078848,0.173323,0.984036,0.040414
0.133785,-0.175849,-0.099521,-0.219568,0.942870,-0.250573
0.120710,-0.148847,-0.118754,-0.314729,0.938807,0.139954
0.107635,-0.116866,-0.137705,-0.102752,0.994695,-0.004906
0.085924,-0.100380,-0.176363,0.372012,-0.474558,0.797748
0.178617,-0.243129,0.118553,0.457332,0.887304,0.059487
0.169390,-0.248772,0.098003,0.663979,-0.735113,-0.136900
0.159699,-0.252092,0.077611,-0.219218,0.963540,-0.153411
0.145463,-0.208380,0.059222,0.298122,0.954232,-0.023746
0.140326,-0.241690,0.038251,0.057814,-0.993223,0.100822
0.130051,-0.235159,0.019001,0.221823,0.965925,-0.133356
0.052186,-0.143315,-0.117050,-0.531375,-0.802501,-0.271352
0.125733,-0.097722,-0.438418,-0.581768,0.751255,0.311709
0.164373,-0.092856,-0.296764,-0.659422,0.627092,0.414630
0.154099,-0.111223,-0.318403,-0.632407,0.029667,0.774068
0.141138,-0.098830,-0.338549,0.917510,-0.325231,-0.228910
0.130984,-0.112551,-0.360012,0.838184,-0.059102,0.542176
0.118608,-0.096064,-0.379139,0.796523,-0.571807,0.196438
0.110321,-0.117863,-0.400304,0.807661,-0.587983,0.044273
0.188186,-0.099938,-0.195086,-0.059674,-0.980238,-0.188604
0.179665,-0.126494,-0.217217,0.689171,0.527516,0.496759
0.164837,-0.084332,-0.234939,0.071829,-0.997022,-0.028058
0.154334,-0.097503,-0.256262,-0.081594,-0.825648,0.558254
0.136001,-0.132802,-0.299451,0.572248,-0.793174,0.208342
0.125961,-0.138888,-0.319527,0.891594,0.348129,-0.289597
0.113356,-0.117974,-0.338356,0.860225,0.288596,-0.420387
0.193209,-0.106796,-0.189923,-0.152570,-0.987946,0.026172
0.178731,-0.068177,-0.208576,0.523054,0.824025,-0.217710
0.173010,-0.113989,-0.231479,-0.395437,0.907129,-0.144037
0.160519,-0.093629,-0.251063,0.411821,0.891700,-0.187812
0.152111,-0.117751,-0.272157,0.783758,-0.432919,0.445314
0.143012,-0.130699,-0.292689,0.817989,-0.371276,-0.439373
0.129937,-0.109673,-0.312308,0.669529,0.730991,-0.131844
0.116741,-0.079355,-0.330627,0.488838,-0.796300,0.356291
0.109274,-0.104031,-0.352670,-0.911706,0.402413,-0.082796
0.186555,-0.143534,-0.178295,0.404761,-0.913364,-0.043975
0.173244,-0.109454,-0.196421,-0.059674,-0.980238,-0.188604
0.161688,-0.092856,-0.216198,0.889329,0.429001,0.158276
0.152467,-0.101153,-0.236432,0.265404,-0.962149,0.061895
0.145342,-0.130699,-0.258563,0.372284,-0.891134,0.259393
0.228694,-0.074928,-0.984938,0.824538,-0.527426,0.204839
-0.631102,-0.433238,0.904083,-0.220850,0.741188,0.633929
-0.689351,-0.458025,0.920067,0.917217,-0.046621,0.395651
0.182700,-0.116535,0.345971,0.872204,0.489140,0.001435
0.156550,-0.215465,0.263315,0.936510,-0.343728,0.069282
0.136820,-0.218119,0.223761,0.676868,0.621045,-0.395162
-0.249934,0.032373,0.871888,-0.499855,-0.864601,0.051099
0.459049,-0.191594,0.900441,-0.618743,-0.585506,0.523775
0.369504,-0.482056,0.715491,-0.064223,-0.680460,0.729966
-0.010842,0.008241,0.192407,0.025594,0.989214,0.144224
0.737577,-0.626223,0.700483,0.372953,0.857269,0.354958
0.364597,-0.431367,0.758772,-0.413698,-0.821926,0.391525
-0.617131,-0.171511,0.930207,-0.649611,0.752363,-0.109343
0.063380,0.080984,0.327292,0.766720,0.491986,-0.412420
0.079106,-0.183101,-0.303384,-0.808608,-0.140636,0.571293
0.218440,0.091972,-0.658122,0.998190,-0.001059,-0.060128
0.347986,-0.279844,0.700931,0.854214,-0.441667,-0.274314
-0.384063,-0.367508,0.600488,0.408963,-0.299745,-0.861918
-0.513600,0.333392,0.950338,-0.806032,0.030278,-0.591097
-0.168065,-0.559292,0.482554,0.910516,-0.413115,0.017193
-0.230603,-0.366859,0.893108,0.221221,0.961910,0.160591
0.136165,-0.418415,0.754004,-0.225359,0.972679,0.055763
-0.343024,-0.214221,0.928517,0.872922,-0.055947,0.484642
-0.645854,-0.184707,0.455911,-0.613876,-0.755425,0.229106
-0.208349,-0.075821,0.633727,0.191188,-0.933407,0.303643
0.205400,-0.394887,0.334054,0.712240,0.061902,-0.699201
0.158840,-0.049853,0.741614,0.581688,0.798473,0.155174
0.333336,-0.008232,0.754026,0.930549,-0.272757,0.244301
-0.181811,-0.031530,0.671705,-0.581992,-0.810774,0.062697
-0.086164,-0.404281,0.877919,0.775660,0.291120,0.560000
0.170901,-0.097413,0.407288,-0.397595,-0.838464,0.372689
0.601206,-0.324161,0.584621,0.256135,-0.026385,0.966281
-0.054134,-0.292216,0.485251,-0.610629,0.556293,0.563622
0.032119,-0.043492,0.404893,0.469261,0.857950,0.209084
0.353656,-0.654749,0.572044,-0.496135,-0.490407,0.716485
0.312860,-0.677792,0.724225,0.432185,0.516981,0.738882
-0.061704,-0.091767,0.625102,0.022592,0.985624,0.167434
0.430726,-0.469161,0.452632,0.622244,0.782044,0.034928
0.241754,-0.138604,-0.130901,0.950094,0.030561,0.310463
-0.056782,-0.687112,0.855329,0.643273,-0.580299,-0.499453
-0.595681,-0.412014,0.613937,-0.654562,0.637893,-0.405759
-0.401975,-0.237461,0.911544,0.238493,0.898065,-0.369594
0.139618,-0.474818,0.883602,0.590207,0.771700,-0.236929
-0.399406,0.345070,0.761667,-0.478237,-0.162467,-0.863073
0.077802,-0.251208,-0.357476,-0.827741,0.203021,-0.523094
0.067272,-0.245205,0.879617,0.792853,0.471154,0.386520
-0.154818,-0.341510,0.644958,0.255820,-0.918079,-0.302799
0.209385,-0.483100,0.924672,0.834433,0.514764,0.196824
-0.009176,-0.198977,0.844735,0.266175,-0.955811,0.124806
-0.160474,-0.706830,0.464307,-0.396345,-0.384122,0.833883
0.342111,-0.197515,0.383233,0.746872,0.591390,-0.304038
-0.448944,-0.200586,0.902955,-0.308934,0.923443,0.227624
0.036667,-0.181007,0.726453,0.970344,0.233466,-0.062654
-0.106195,-0.314818,0.894222,0.242936,0.951393,0.189299
-0.848251,0.108646,0.769836,-0.047483,0.299845,0.952806
-0.091471,-0.296972,0.882891,0.723110,-0.687287,0.068908
0.180762,-0.003858,-0.608368,-0.520763,0.823709,0.224298
-0.195569,0.054478,0.924339,0.871776,0.249452,0.421641
-0.173506,-0.371052,0.767010,-0.553978,0.440780,0.706273
0.028821,0.079986,-0.504268,0.910711,0.413041,0.001371
-0.278222,-0.416738,0.764064,0.767982,0.082208,0.635174
0.438895,-0.677937,0.922116,0.363228,0.904907,0.221828
0.468853,-0.770998,0.932253,0.914640,0.402570,0.037032
0.671031,-0.474047,0.735713,0.151723,0.850761,-0.503176
0.163719,-0.317817,0.214660,0.448664,0.849525,-0.277502
0.317524,-0.433782,0.482157,-0.590115,0.375312,0.714776
-0.333633,0.372601,0.316435,-0.077501,-0.727701,0.681502
0.159143,-0.025127,-0.211153,0.443619,0.890460,-0.101410
0.235111,-0.009798,-0.667659,0.205757,-0.879690,0.428731
0.426397,-0.351526,0.483306,-0.437098,0.723026,0.534957
0.318354,-0.138001,-0.891318,0.464015,0.057203,-0.883978
-0.412313,0.224245,0.767679,0.313818,-0.547502,0.775732
-0.213607,0.528258,0.830359,0.977452,-0.144154,0.154293
0.213298,-0.148563,0.442951,0.871411,-0.467492,0.148643
-0.106847,-0.676670,0.475474,0.478227,0.475350,-0.738472
-0.510426,0.231198,0.934322,0.360569,-0.341126,-0.868115
-0.399871,-0.286724,0.925542,-0.682160,-0.727792,0.070543
-0.297529,-0.350837,0.929943,0.917689,-0.044693,-0.394778
-0.112389,0.145256,-0.099088,0.326828,0.596457,0.733091
-0.154509,-0.585035,0.970631,-0.068511,0.487158,-0.870622
-0.018854,-0.051860,-0.056617,-0.122180,-0.742352,0.658775
-0.013359,0.577044,0.741730,0.754045,0.645505,0.121403
0.962650,-0.545167,0.699029,-0.571964,0.690936,-0.442114
0.240291,-0.240541,0.136734,0.095923,0.934885,0.341743
0.091164,-0.015722,0.565898,0.455321,0.674619,-0.581010
0.466891,-0.713086,0.883350,0.716469,-0.071986,-0.693895
-0.011797,-0.244763,0.900296,0.921888,-0.363613,-0.133820
0.215471,-0.631834,0.554796,0.675331,-0.256037,0.691645
-0.102746,0.618879,0.798690,-0.202259,0.978116,0.048790
0.240855,0.026465,-0.685734,-0.356436,0.932872,-0.051998
-0.404264,0.130164,0.930969,0.162684,0.752865,0.637752
0.113358,0.248380,0.795981,-0.460778,-0.439966,0.770787
-0.135409,0.702209,0.843880,0.102495,-0.976661,0.188752
0.168997,-0.135148,-0.276058,0.979337,-0.194616,0.054988
0.126669,-0.141320,-0.337429,0.546420,0.561510,-0.621395
-0.543724,-0.482892,0.473845,-0.095561,-0.496798,0.862589
-0.121474,-0.064749,0.588229,-0.346555,0.228763,-0.909707
0.235793,0.327618,0.750006,0.509936,0.644782,0.569405
-0.204955,0.686597,0.804867,0.986972,0.124747,-0.101612
0.276432,-0.058631,-0.641104,0.755662,0.404042,-0.515486
-0.353741,-0.224756,0.585060,-0.137743,0.210197,0.967907
-0.301695,-0.583462,0.469221,-0.013690,0.234636,0.971987
0.780925,-0.608398,0.621848,-0.457723,-0.329180,0.825912
0.552276,-0.667108,0.669731,-0.580199,0.693873,-0.426509
0.221276,-0.008047,0.543600,-0.048657,-0.998439,0.027409
-0.374821,-0.359603,0.905364,0.528823,0.421401,-0.736727
-0.041720,0.601305,0.827848,0.662560,0.487445,-0.568693
-0.184827,0.761338,0.723130,-0.414378,-0.194919,-0.888987
-0.138775,-0.339654,0.863134,-0.307566,0.531263,-0.789407
0.174031,-0.215671,0.148003,0.625510,0.774361,-0.095408
-0.886746,0.155195,0.843465,-0.007018,-0.934684,0.355409
0.259818,-0.363133,0.736925,-0.588605,-0.774578,0.231461
0.205999,-0.155327,-0.410622,-0.727471,-0.571502,0.379698
0.114886,-0.230672,-0.187761,0.842596,-0.475770,0.252340
0.293500,-0.022998,0.535259,0.681795,-0.731301,0.018823
0.411698,-0.446349,0.691527,0.809921,0.418918,0.410531
0.132497,0.259173,0.632258,-0.454174,-0.873920,0.173173
-0.122356,-0.472574,0.965873,0.277083,0.873237,-0.400851
-0.013444,-0.096366,0.495301,-0.532705,-0.660918,0.528595
-0.199741,-0.287442,0.916675,-0.682314,0.283189,0.673982
0.181473,0.656355,0.756805,0.133350,-0.351460,0.926657
-0.528193,0.238039,0.901026,0.506272,0.645955,0.571341
0.239440,-0.154752,-0.311032,0.405755,-0.885071,0.228061
0.252793,-0.172350,0.314607,0.585728,0.720460,-0.371296
0.401959,-0.806542,0.724822,-0.673992,-0.731902,-0.100268
0.138458,-0.198663,0.546079,0.881972,0.356675,-0.308071
0.309141,-0.286466,0.056754,0.564498,0.818289,0.108372
-0.111036,0.693158,0.822129,0.726286,-0.291529,-0.622510
0.168497,-0.188808,-0.104334,0.297650,0.860082,-0.414323
0.127850,-0.144985,0.717118,0.299286,0.392630,0.869638
-0.425185,-0.255798,0.932095,0.352262,0.753431,0.555206
0.461865,-0.738454,0.921086,-0.091157,-0.393523,-0.914784
0.254993,-0.575122,0.739097,-0.903106,0.429180,-0.014271
-0.730438,0.158101,0.704329,0.918223,-0.090707,0.385537
-0.441182,0.382466,0.889842,0.112398,-0.751390,0.650215
0.236722,-0.084443,-0.127869,-0.195547,0.979891,0.039675
-0.313013,0.442218,0.747877,-0.630773,0.599549,-0.492612
0.215397,-0.096534,-0.394807,0.930000,0.005859,-0.367512
-0.059959,0.521441,0.768892,-0.140286,0.889987,0.433870
-0.568655,0.257063,0.974392,0.888702,0.458258,0.014461
-0.155903,0.616150,0.799975,-0.453557,-0.846386,-0.279137
-0.176643,-0.209069,0.930229,0.617216,0.760738,0.200805
-0.702136,0.178891,0.780166,-0.085812,0.983307,-0.160445
-0.053815,-0.117693,0.252753,0.058416,0.560289,-0.826234
0.303942,0.039715,0.556333,-0.487652,0.869926,-0.073655
-0.047519,-0.614022,0.484294,-0.559560,-0.358219,0.747376
-0.306417,-0.513209,0.253216,-0.010335,-0.171647,0.985104
-0.367215,0.150988,0.697794,0.832117,0.492408,0.255178
0.120801,-0.675017,0.834158,0.789031,-0.026350,-0.613788
-0.169348,-0.126017,0.785574,0.826168,-0.111554,0.552270
0.296266,-0.073013,0.420891,-0.421817,-0.897366,0.129633
-0.096028,-0.072761,0.420838,0.236749,0.549796,-0.801046
0.123013,0.090977,0.787559,-0.630568,0.685867,-0.363276
0.090382,-0.069902,0.599018,-0.662481,0.724621,0.189849
-0.280031,-0.496796,0.958699,0.119746,0.369101,0.921643
-0.061203,0.029769,0.503113,-0.696718,0.473433,0.538930
-0.049982,-0.043754,-0.092703,0.321846,0.728907,0.604243
-0.121556,-0.239651,0.923997,0.581858,0.784858,-0.213164
0.071501,-0.019823,0.614677,0.935431,0.325834,-0.137120
-0.620818,-0.278388,0.448964,0.403274,0.869611,-0.284864
0.343605,-0.354799,0.475725,0.681973,-0.716013,-0.149122
0.182156,-0.153691,-0.243951,0.757826,0.489551,-0.431322
-0.338394,0.305778,0.306784,0.146417,-0.454254,0.878758
-0.013322,0.841910,0.830915,0.962441,0.256618,-0.088625
0.420902,-0.359051,0.388813,0.928165,-0.315636,-0.197188
-0.628531,-0.418324,0.933347,-0.011713,-0.554592,0.832040
-0.582387,0.518066,0.931866,-0.187647,0.970405,-0.151994
-0.198321,-0.600251,0.934195,0.920424,-0.018467,0.390486
-0.007442,-0.181788,0.732518,0.833611,0.143046,0.533508
0.235795,-0.072980,-0.182844,0.056717,0.994421,-0.088940
0.147628,-0.342014,0.733743,0.509802,0.581626,-0.633887
-0.227639,-0.450791,0.973030,0.652295,0.635782,0.412665
-0.117567,-0.464113,0.696006,0.070497,0.950972,0.301134
0.153269,0.052838,0.855048,0.873301,-0.264948,-0.408838
0.824855,-0.504407,0.638439,0.917794,-0.012391,-0.396862
0.063635,-0.078790,0.584439,-0.697989,0.545224,-0.464264
0.354875,-0.136328,-0.897718,0.883783,-0.453363,-0.115713
0.060960,-0.145580,0.620562,0.741775,-0.624617,0.244178
-0.444011,0.271604,0.934555,0.691356,0.387222,0.609988
0.559996,-0.740035,0.697302,-0.669407,-0.700928,-0.246159
-0.146849,-0.530176,0.922615,-0.544271,-0.557285,-0.627058
-0.007802,-0.140921,-0.058009,-0.036801,0.552163,0.832924
-0.329805,0.235344,0.731678,0.142938,0.989071,0.036165
-0.094620,-0.667398,0.884777,-0.639312,0.694061,-0.330998
-0.074114,-0.484726,0.960126,0.745388,-0.428513,0.510660
-0.687349,-0.496192,0.917115,0.678746,0.329859,0.656122
0.389926,-0.419226,0.490752,0.147092,-0.964292,0.220238
-0.265171,0.391850,0.685723,-0.118486,-0.345958,0.930738
-0.268082,-0.334958,0.881065,0.108111,0.804072,0.584619
-0.197750,-0.519464,0.464143,-0.423991,0.882271,-0.204522
-0.104956,0.656038,0.843617,-0.248961,0.062014,0.966526
-0.134229,-0.355382,0.881435,0.289809,0.637702,0.713686
0.219716,-0.172411,-0.940209,0.064966,0.997869,-0.005998
0.197017,-0.513359,0.897809,-0.233531,-0.952497,-0.195482
0.188735,-0.726461,0.549771,-0.075846,0.758251,0.647536
-0.038815,-0.435246,0.794051,0.730026,0.623930,0.278878
0.009743,0.002733,-0.358629,-0.411557,0.577901,-0.704735
-0.158649,0.797239,0.691791,0.050167,-0.543382,0.837985
-0.612324,-0.026520,0.608633,-0.652179,-0.110118,-0.750024
0.296827,-0.940436,0.887370,0.822358,-0.447160,0.351817
0.246930,-0.083827,-0.164150,0.277486,0.960311,0.028360
-0.617780,0.077303,0.969535,0.246919,0.828911,0.501934
0.302657,-0.895053,0.891840,-0.093977,-0.993215,-0.068505
0.241309,0.026574,-0.712508,0.234245,0.971722,-0.029740
0.434814,-0.663259,0.910115,0.846301,-0.119340,0.519165
0.175561,-0.103578,0.756780,0.364913,0.855469,-0.367438
0.333018,-0.827602,0.717628,-0.069672,0.213897,0.974368
0.244521,-0.160160,0.344761,-0.526857,-0.840999,0.123054
-0.277275,-0.266592,0.912623,0.505968,0.119022,0.854301
-0.173961,0.073612,0.816015,0.123812,-0.902497,0.412516
-0.500206,-0.443469,0.899434,-0.508236,0.847767,-0.151615
0.320274,-0.875615,0.708347,0.523762,-0.708252,-0.473342
0.111231,-0.048180,-0.309070,0.802454,-0.558419,-0.210325
0.179279,0.157954,0.823949,-0.101106,-0.990797,0.089995
0.389826,-0.740965,0.909937,0.479709,0.759552,-0.439273
-0.614190,0.104193,0.973248,-0.153591,0.883182,0.443170
-0.032591,-0.140294,0.681662,-0.403013,0.507577,-0.761542
-0.557981,0.027328,0.945874,0.723939,-0.226307,-0.651688
-0.154024,0.255682,0.310481,-0.604001,-0.330341,0.725298
0.390749,-0.515071,0.705839,0.860906,0.136562,0.490093
-0.128784,0.054788,0.810206,0.251164,0.956538,0.148162
-0.465397,0.150935,0.774268,-0.817201,0.099373,-0.567722
-0.546211,0.092709,0.844775,0.720128,-0.681939,-0.127965
0.389771,-0.128103,-0.947155,-0.780544,0.590375,0.205448
-0.464331,-0.421797,0.479675,0.521580,0.350213,0.778014
0.172807,-0.168388,-0.274945,0.952123,-0.049973,0.301602
0.092213,0.531599,0.732311,0.047562,-0.923817,0.379867
0.382922,0.053317,0.705128,0.792329,0.575751,0.201803
0.221859,-0.256662,0.263641,0.806143,-0.131530,0.576917
0.291682,0.075098,0.597143,-0.027514,-0.929197,0.368559
-0.553199,0.052841,0.945383,0.952156,-0.294307,-0.082353
-0.001752,-0.568945,0.846253,0.400851,-0.122825,0.907872
0.097820,-0.500795,0.962398,-0.642409,-0.303026,0.703908
0.019332,0.252782,0.798546,0.693014,0.518442,-0.500948
-0.050937,-0.706025,0.874254,-0.589560,0.711338,-0.382645
-0.250324,-0.186336,0.909533,-0.385924,0.782148,-0.489190
-0.582772,-0.321202,0.618246,-0.683195,0.670850,-0.288453
-0.346071,-0.574073,0.461962,-0.206758,-0.718207,-0.664402
-0.060584,0.671236,0.853007,0.115496,0.993307,0.001317
-0.018155,0.389239,0.725889,0.933615,-0.358274,-0.001476
-0.364718,-0.426769,0.956945,0.273238,0.229819,-0.934090
-0.057649,-0.519769,0.953801,0.906316,-0.285795,-0.311309
-0.093488,-0.368177,0.938980,0.826970,0.286612,0.483710
0.019294,-0.047820,0.869604,-0.139165,0.268349,-0.953217
-0.367149,-0.324636,0.950878,0.342246,0.931410,0.123872
0.111416,-0.294502,-0.061352,0.359668,0.932925,0.017030
-0.148662,-0.245760,0.924430,-0.671813,-0.601556,0.432201
-0.176459,0.751624,0.803471,0.905697,-0.288052,-0.311029
0.382633,-0.772768,0.719244,0.322285,0.859471,-0.396790
0.068550,-0.505670,0.888257,-0.134299,-0.270850,0.953207
0.233851,-0.630264,0.726307,-0.654185,0.596458,-0.465059
-0.407290,0.167351,0.806470,0.796379,-0.063545,-0.601451
-0.144012,0.658983,0.839012,-0.099017,0.993890,-0.048768
0.079183,-0.627048,0.822283,0.917004,-0.391829,-0.074654
-0.198653,-0.049399,-0.341402,0.318632,0.435166,0.842083
0.151486,-0.019256,0.343960,0.878440,0.473032,-0.067702
-0.465880,0.112999,0.903630,-0.549062,0.660931,0.511568
0.425761,-0.870759,0.723765,-0.824716,0.553933,-0.114028
0.198911,-0.101987,-0.972457,0.918136,-0.396246,0.003933
-0.127836,0.252984,0.708198,-0.603014,0.549209,-0.578570
0.092906,0.372617,0.691164,-0.543260,0.302416,-0.783207
0.449036,0.101647,0.787699,-0.087457,0.737983,0.669128
0.028233,-0.023250,0.683470,0.912654,-0.392824,0.112920
0.353903,-0.181062,-0.812402,-0.744224,0.651835,-0.145747
-0.408108,-0.368752,0.598967,0.069903,0.153353,0.985696
0.241500,-0.361003,0.766421,-0.113823,0.333783,0.935753
-0.638407,0.343766,0.969283,0.869464,0.487950,-0.077050
-0.051353,0.734762,0.813888,0.806047,-0.542557,0.236474
0.135003,-0.153733,-0.493814,0.938987,0.064921,0.337771
-0.531727,0.012515,0.781287,-0.272140,0.938797,0.211188
-0.295664,0.247294,0.895296,0.488800,-0.407640,0.771300
-0.051004,0.529901,0.770384,-0.617038,0.523136,0.587872
0.157798,-0.331032,-0.000318,0.775011,-0.610907,0.161712
-0.233174,-0.205027,0.042739,-0.033063,-0.913293,0.405959
0.207980,0.045965,0.508159,0.752522,0.656492,0.052252
-0.070645,0.386101,0.826194,-0.255628,0.308187,-0.916338
-0.252279,0.571205,0.904029,0.910224,-0.378182,-0.168734
-0.038521,-0.183738,0.737347,0.663749,0.708785,0.238877
-0.356159,0.117910,0.893582,0.873535,-0.003855,0.486747
0.097071,-0.597462,0.808607,0.797594,-0.387546,-0.462225
0.492303,-0.678056,0.902131,0.724557,0.011106,0.689126
-0.306466,0.458487,0.927179,-0.582005,0.642652,-0.498266
-0.379546,0.332397,0.316505,0.010332,-0.442735,0.896593
0.289926,-0.049113,-0.380809,0.946789,0.319620,0.037853
-0.000790,0.014937,0.199822,0.033805,-0.999415,0.005232
-0.030982,0.045829,0.843073,-0.494181,0.559493,-0.665397
0.114631,-0.044814,0.582137,-0.766847,0.228412,-0.599812
0.335957,-0.204734,-0.979847,-0.492307,0.686913,0.534588
-0.598174,-0.092582,0.898416,-0.435064,0.508589,0.743005
0.244676,0.082671,0.585586,-0.319237,0.816656,-0.480792
0.160405,-0.017673,0.343875,0.932829,0.346682,-0.098194
0.201017,-0.085765,-0.298199,0.823695,-0.542339,-0.165516
-0.462723,0.542276,0.897861,-0.619457,0.130417,-0.774122
0.154602,-0.042654,0.564791,-0.067916,-0.841851,0.535420
0.052363,-0.181287,0.057032,0.518717,0.852324,-0.066910
0.295698,-0.222487,0.079205,-0.631051,-0.747186,-0.208538
-0.406566,0.122819,0.804725,-0.711393,0.203547,0.672673
0.214924,0.248050,0.790371,-0.223138,-0.271201,0.936301
-0.024512,-0.094510,0.424660,0.018579,0.999269,0.033413
0.557477,-0.545207,0.638181,0.273177,-0.789696,-0.549322
0.279497,0.003753,-0.782920,-0.227053,-0.969807,0.089008
0.016678,-0.212592,0.029387,-0.294955,-0.951042,0.092310
-0.160021,0.192677,0.729232,0.117783,0.931395,0.344428
-0.373787,0.235159,0.747418,0.123643,0.965962,0.227222
0.246782,-0.819730,0.553449,0.890184,0.298770,-0.343960
-0.058904,-0.789640,0.470713,0.682261,0.217620,-0.697969
0.306326,-0.089229,-0.410819,-0.634710,0.675062,-0.376077
-0.169898,0.679954,0.713635,-0.067982,-0.164342,0.984058
0.278328,-0.794336,0.559998,-0.519832,-0.785179,0.336556
0.191610,-0.114134,0.514889,0.561694,0.431696,0.705789
-0.038791,-0.496501,0.754558,-0.042574,-0.996952,0.065372
0.443762,-0.679878,0.922149,0.363228,0.904907,0.221828
-0.009992,-0.094184,0.746861,0.904651,-0.415890,-0.092961
-0.652831,-0.371955,0.935264,-0.354061,-0.270712,0.895185
0.239581,-0.892096,0.893498,-0.566845,0.589415,-0.575566
-0.228385,0.197945,0.850323,0.959276,0.257354,0.116443
0.755515,-0.428861,0.585026,-0.143103,0.981961,0.123592
-0.518949,-0.481391,0.476126,-0.336943,0.018609,0.941341
0.218115,-0.013681,0.904322,0.452296,0.852683,-0.261456
-0.026613,-0.257874,0.888993,0.761697,-0.533265,0.368029
-0.578162,-0.066537,0.386066,-0.075600,0.952437,0.295208
0.151494,-0.031208,0.710989,0.853991,0.473242,0.216198
-0.499551,0.134234,0.821492,-0.056448,-0.988643,-0.139277
0.067409,-0.358309,0.620546,0.872356,-0.487755,-0.033027
-0.428124,0.241529,0.781988,0.807464,0.518976,0.280474
0.154597,-0.135257,-0.091496,-0.176945,0.982873,-0.051491
0.362981,-0.722559,0.712586,0.701108,-0.593981,-0.394505
-0.409406,0.067619,0.885696,-0.585036,0.594095,-0.552073
0.237596,-0.299042,-0.262608,-0.737671,0.662828,0.128455
-0.623073,0.064329,0.974774,0.444520,0.842030,0.305595
0.139972,-0.085119,-0.180060,-0.532033,-0.816876,0.222833
0.479655,-0.647847,0.611999,0.868355,0.415378,0.270964
-0.140329,0.089216,0.869943,-0.591292,0.519959,-0.616455
-0.168084,0.110028,0.813958,0.192021,-0.938809,0.285947
0.061242,-0.651683,0.860422,0.436101,-0.896882,0.073612
-0.313281,0.449115,0.785553,0.252337,-0.043772,0.966649
-0.615154,0.194638,0.924134,-0.426408,0.813153,-0.396180
0.059182,-0.287996,0.568377,-0.864334,0.502187,-0.027105
-0.075576,-0.364962,0.919103,0.437558,-0.590401,-0.678211
-0.140618,-0.486638,0.481767,0.736149,0.340057,-0.585189
0.260955,0.023338,-0.713549,-0.084703,-0.995749,0.036179
0.195570,-0.718662,0.866409,0.968331,-0.244763,0.049253
-0.125991,-0.520237,0.498929,0.741769,0.354143,0.569528
0.344429,0.248940,-0.403371,0.026574,-0.166280,0.985720
-0.260207,0.070679,0.896097,-0.586093,-0.433200,-0.684714
0.262535,-0.113353,-0.850615,0.062885,0.979738,0.190156
-0.486378,-0.285146,0.452462,-0.193243,0.542426,-0.817576
0.379208,-0.151030,-0.938608,-0.812650,0.575682,0.090502
0.700010,-0.467378,0.741725,-0.039877,-0.759565,0.649208
0.121736,-0.684688,0.836820,0.901089,0.283536,-0.328094
0.018744,-0.130519,0.733663,0.959806,-0.163760,0.227935
-0.496664,-0.376685,0.930930,0.164246,-0.839971,0.517177
0.113223,-0.200674,-0.186270,0.936428,0.017552,0.350420
0.259657,-0.574141,0.903950,-0.330705,-0.612221,0.718206
-0.302293,0.380159,0.320675,0.011319,-0.804833,0.593393
0.375233,-0.135371,-0.754126,0.974892,0.213419,-0.063539
-0.063714,-0.031047,-0.105438,0.552878,0.794365,0.251615
-0.343204,-0.361254,0.930851,-0.491348,0.339895,-0.801903
-0.424123,0.233713,0.680201,0.146187,0.348264,0.925927
0.231206,-0.110991,-0.313959,0.892544,-0.303027,0.333976
-0.018529,-0.405966,0.798843,0.310446,0.790702,0.527649
-0.012931,-0.091704,-0.010864,-0.588569,0.635244,0.500051
0.122229,-0.091509,0.604346,0.783628,-0.612495,-0.103813
-0.443330,0.227613,0.918524,0.112472,0.277557,0.954103
-0.396796,0.367965,0.312044,-0.208891,0.785340,-0.582757
-0.508406,0.313661,0.876465,-0.225760,0.872961,-0.432401
0.571748,-0.441451,0.661445,0.334361,0.873726,-0.353278
-0.255646,-0.139221,-0.313369,0.024473,-0.987856,0.153430
-0.208898,-0.475253,0.482154,0.437284,0.890022,-0.129012
-0.335655,0.080393,0.936860,0.604624,0.052762,-0.794762
-0.128313,-0.752444,0.882607,0.945011,0.234987,-0.227455
-0.389786,0.257627,0.767402,-0.655492,-0.553728,-0.513532
-0.132918,0.364436,0.823659,-0.052618,-0.900149,0.432392
0.216338,-0.146570,-0.133991,0.899362,-0.094155,0.426946
0.415301,-0.402156,0.526353,-0.349284,0.929337,0.119726
-0.322464,0.863796,0.732212,-0.079942,-0.402283,0.912018
0.609749,-0.256163,0.574711,-0.533184,-0.428244,-0.729604
-0.570864,0.253970,0.769014,-0.006057,0.632551,0.774495
0.042232,-0.423450,0.813518,0.705875,0.624013,-0.335183
0.171717,-0.043563,0.576384,-0.707167,0.588148,-0.392425
-0.244173,-0.001843,0.422205,0.674602,0.014046,-0.738048
0.012616,0.847628,0.801500,0.650654,0.096974,0.753157
0.568436,-0.491994,0.682087,-0.373369,-0.358270,0.855709
-0.619799,-0.479733,0.925185,0.185326,0.495538,0.848585
-0.384400,-0.051788,0.964637,-0.411321,-0.910532,-0.041800
0.369278,-0.030466,-0.860885,0.940827,0.322406,-0.104393
0.120954,-0.205689,0.909946,0.938911,-0.341097,-0.045819
0.356344,-0.527781,0.877358,-0.479986,0.126184,0.868154
-0.097666,-0.056763,0.427412,0.003033,-0.369221,0.929337
0.225453,-0.058097,-0.585069,0.784815,0.617350,-0.054261
0.215270,-0.303922,0.495605,-0.157572,0.424709,-0.891512
0.033232,-0.025537,0.738593,0.836509,0.117751,0.535152
0.148051,-0.020580,0.573618,-0.495045,-0.802944,-0.331982
-0.434441,0.510984,0.897654,-0.326448,-0.853904,-0.405313
0.430241,-0.753696,0.906451,-0.128298,0.926148,-0.354667
0.216954,-0.125999,-0.249460,0.590729,0.806410,0.027246
0.168772,-0.256282,0.747286,-0.163150,0.307006,0.937619
-0.074519,-0.043028,0.405818,0.076347,0.991306,0.107158
0.074827,0.718932,0.760630,-0.279927,-0.268582,0.921686
0.352985,-0.766554,0.702234,0.943543,0.218051,0.249361
0.220754,-0.300469,0.352072,0.918668,0.271134,-0.287289
-0.595244,0.020373,0.907470,0.206953,0.952312,-0.224216
0.325696,-0.125014,-0.891104,0.798816,0.111192,-0.591210
0.499372,-0.138698,0.690418,0.753144,-0.635047,-0.171722
-0.225055,-0.318432,0.886198,-0.533117,0.707904,-0.463313
0.120052,-0.094683,0.880942,0.807229,0.135244,-0.574535
0.305309,-0.816873,0.578981,-0.632425,0.350834,0.690619
0.485536,-0.556428,0.707618,-0.339958,-0.344680,0.874999
-0.392201,-0.257873,0.941481,-0.011416,0.833981,0.551675
-0.137318,0.010227,0.426215,-0.065038,0.035851,0.997239
0.200989,0.111734,0.809451,0.877407,-0.479613,-0.011306
-0.629877,-0.209741,0.905337,-0.588458,0.401277,-0.701921
0.355165,-0.767329,0.576699,0.767855,0.027004,-0.640054
-0.035168,-0.325144,0.882316,-0.650310,-0.756513,-0.069167
-0.789605,0.091776,0.837203,0.022081,0.533588,0.845456
-0.121983,-0.036953,0.266603,0.757641,0.326173,0.565324
0.129361,-0.489099,0.884337,-0.546918,-0.837076,0.013604
0.341111,-0.057538,-0.955521,0.493109,0.868537,-0.049861
-0.909224,0.143622,0.846647,0.177587,0.967584,-0.179563
0.101711,-0.573738,0.873996,-0.420004,0.460160,-0.782208
-0.267454,0.071260,0.875406,0.391657,0.919762,-0.025332
0.062172,-0.406871,0.783748,-0.604941,0.393638,0.692168
-0.207421,0.218354,0.741292,-0.015155,0.993271,0.114817
-0.122552,-0.234605,0.928387,0.792744,-0.060852,-0.606509
0.192852,-0.034136,0.529172,0.614395,-0.744056,-0.262488
0.089283,-0.223508,0.682336,-0.264818,0.110122,-0.957990
0.122136,-0.326620,0.728467,0.621643,0.462532,-0.632158
-0.127691,-0.394861,0.892572,-0.639332,-0.235561,-0.731960
0.161162,-0.173154,0.420423,-0.250452,0.968051,-0.012314
0.014159,-0.284411,0.777999,0.805401,-0.560470,-0.192879
-0.425671,0.154032,0.687188,-0.195949,0.661955,0.723478
0.460857,-0.694635,0.702422,0.592689,0.676720,0.436771
0.242594,-0.046022,-0.475057,0.060954,-0.979711,0.190922
-0.103823,-0.642893,0.488832,-0.272368,-0.473267,0.837755
0.278553,-0.866554,0.544146,0.294240,0.925083,-0.240092
0.161182,-0.038060,0.338683,0.804250,0.593858,0.022669
0.328789,-0.469489,0.720281,0.529104,0.745302,-0.405678
0.249295,0.100584,0.440102,0.086532,0.013398,0.996159
0.025651,-0.144322,0.902170,0.816564,0.464261,-0.343053
0.074486,-0.152071,0.412608,-0.313742,-0.938333,-0.145249
-0.025431,-0.427847,0.806269,0.624778,0.683848,-0.376834
0.063779,-0.808212,0.861581,0.057548,0.879145,0.473067
-0.110499,-0.170710,-0.050391,-0.074026,-0.542060,0.837073
-0.112824,0.374803,0.709247,-0.437594,-0.731357,-0.523095
0.113956,-0.127808,0.477179,-0.758659,0.647874,-0.068523
-0.288840,-0.496776,0.254840,-0.010335,-0.171647,0.985104
0.123087,0.021619,0.750172,0.983469,-0.154376,0.094638
0.664508,-0.586760,0.672353,0.434246,0.600271,-0.671644
-0.144321,0.564493,0.670763,0.306874,0.882747,-0.355790
0.371013,-0.864709,0.725154,-0.431834,0.027730,0.901527
-0.289466,-0.065422,0.402909,-0.258518,0.876271,0.406592
0.013192,0.425883,0.653084,0.670706,0.741570,-0.015089
-0.063318,0.006670,0.426288,0.292936,0.304337,0.906404
-0.267674,-0.357680,0.895419,0.170111,0.962361,0.211952
0.127088,-0.071301,0.439581,0.551105,0.777224,0.303654
0.267217,-0.044894,-0.372396,-0.551598,-0.802136,-0.228730
0.159906,-0.390421,0.503840,0.074505,-0.575560,0.814358
-0.623868,0.411331,0.938068,0.832294,0.536747,-0.138529
0.534650,-0.085341,0.692492,0.516233,0.582330,-0.628009
-0.124077,-0.453606,0.694756,0.007258,0.943952,0.330003
0.020803,0.453071,0.788992,-0.482759,0.451318,0.750504
0.082649,-0.575697,0.843629,-0.571467,0.817793,-0.068118
-0.644771,0.108163,0.844711,0.749172,0.612113,0.253098
0.245720,-0.583003,0.865956,0.883864,0.374856,-0.279762
-0.104268,-0.194124,0.475721,-0.074308,0.458430,0.885619
0.109965,-0.364804,0.825180,-0.616766,0.706991,-0.346069
-0.240436,0.755374,0.726373,0.210517,0.024236,0.977290
-0.248142,-0.423085,0.960664,0.890665,0.191094,0.412551
0.201351,-0.249944,0.203389,-0.202675,-0.737032,-0.644753
-0.159411,-0.197300,0.922793,0.850139,0.088576,-0.519055
-0.660104,0.410667,0.911146,-0.779043,0.430886,-0.455443
-0.314782,-0.065826,0.923359,-0.430876,-0.221577,0.874785
-0.039104,-0.282450,0.925269,0.543289,0.611716,0.575014
-0.679107,-0.254798,0.458553,0.693447,0.698687,0.175975
0.111155,-0.247435,-0.064318,0.802922,0.501005,0.322970
-0.367933,0.203518,0.924615,-0.499182,0.106436,0.859936
-0.154571,-0.528842,0.474859,0.944144,0.072318,-0.321500
0.417261,-0.397478,0.487448,-0.616975,0.556801,0.556160
-0.633235,-0.206374,0.927634,0.902473,-0.353403,0.246271
-0.637003,0.122946,0.834190,0.176860,0.958625,0.223067
-0.049612,0.551279,0.756116,0.964643,-0.035245,0.261194
0.433896,-0.898299,0.879025,0.066843,0.831109,0.552078
-0.282797,-0.544519,0.969631,-0.746049,0.643422,-0.171521
0.238839,-0.018833,-0.456844,0.579465,0.814603,-0.025354
0.239619,-0.187420,-0.347250,-0.488313,0.872228,0.027722
0.328119,0.185970,-0.402504,0.026574,-0.166280,0.985720
-0.624548,-0.221194,0.939745,0.380821,-0.773976,0.505902
0.137513,0.006497,0.424994,0.258109,0.964317,0.058922
0.390378,-0.531499,0.355681,-0.512422,-0.241062,0.824204
-0.491239,0.067156,0.780236,-0.626137,0.509861,0.589911
-0.026486,-0.247468,0.837328,0.218369,-0.489758,-0.844069
-0.147977,-0.495715,0.957396,-0.105677,-0.932322,0.345844
-0.422228,0.337446,0.860827,-0.597766,0.322413,0.733979
0.043149,0.000346,0.734590,0.860703,0.436221,0.262491
-0.356304,-0.461544,0.613801,0.785554,-0.121298,-0.606788
-0.665065,0.059616,0.900091,-0.114343,-0.716786,0.687854
0.035734,-0.138648,0.608012,-0.535147,0.844756,-0.002380
-0.508330,0.096522,0.969463,-0.484931,0.646747,-0.588694
0.526389,-0.761818,0.718243,-0.307691,0.429358,-0.849104
0.032814,-0.078012,0.405706,0.707978,0.636955,0.305051
0.141885,-0.379075,0.500550,-0.308253,-0.703194,0.640702
0.273183,-0.177415,0.067878,0.174708,0.974902,0.137998
0.145280,-0.197841,0.504412,-0.709636,0.683523,0.170918
-0.051491,-0.225977,0.151474,0.005958,-0.992397,0.122931
0.398516,-0.710793,0.691660,0.585588,0.804838,0.096557
0.046472,-0.261407,0.778064,0.750773,-0.548398,-0.368238
0.172337,0.477546,0.726897,0.033497,-0.874936,0.483079
-0.590108,-0.053698,0.368755,-0.359031,0.822560,0.441012
-0.529920,0.231594,0.746025,-0.331090,-0.563164,0.757117
-0.852921,0.029509,0.786081,-0.583528,0.357960,0.728944
-0.045210,-0.291474,0.859012,0.894166,-0.350306,-0.278841
-0.419552,0.057697,0.917197,0.026929,-0.741583,0.670320
0.375410,0.086646,0.608756,-0.132423,-0.892371,0.431438
-0.183167,0.228151,0.732939,0.679805,-0.709154,-0.186993
0.591630,-0.168463,0.704131,0.178473,0.561746,0.807830
0.053189,0.768031,0.794644,0.245219,-0.133232,0.960269
-0.253960,0.237678,0.837902,-0.581006,-0.718341,0.382647
0.191782,-0.055275,-0.307888,-0.095773,-0.995327,0.012306
-0.635807,0.288038,0.747499,-0.315942,-0.669150,0.672621
-0.029146,-0.366021,0.877222,0.972793,0.207054,-0.103933
-0.204667,-0.217241,0.943256,0.826649,0.543965,-0.144060
0.098754,-0.000313,0.577246,-0.529892,-0.847396,-0.033687
-0.387836,-0.342101,0.936308,0.736231,-0.215290,0.641572
0.282837,-0.783947,0.864443,-0.307319,0.201130,0.930109
-0.570756,-0.044804,0.972011,-0.343690,0.502376,-0.793408
-0.816956,0.325904,0.761437,0.228202,0.452196,-0.862231
-0.391272,0.010265,0.893395,0.738021,-0.647865,-0.188671
0.234179,-0.139847,-0.137846,0.825220,-0.311691,0.471021
-0.158464,0.211800,0.709161,-0.337030,0.936309,-0.098667
0.372160,-0.098967,-0.771227,0.940216,-0.335041,0.061173
0.421912,-0.918032,0.871306,-0.324220,0.803946,0.498549
-0.230337,-0.153383,0.902132,-0.269945,0.956929,-0.106849
-0.062312,0.164459,0.854837,0.046103,-0.865128,0.499428
0.441239,-0.687783,0.910472,0.289141,-0.637080,0.714511
-0.004552,-0.323881,0.919538,0.820297,-0.026791,0.571310
-0.417596,0.088262,0.895953,0.465021,0.736295,-0.491554
0.171338,-0.129718,-0.296228,-0.630625,0.598568,0.493992
0.087885,-0.453300,0.813093,0.404330,-0.569240,0.715879
-0.254621,-0.001099,0.476393,-0.700767,0.650479,-0.292922
-0.111231,0.059314,0.183451,0.011648,0.997771,0.065705
0.469362,-0.647839,0.676584,0.022377,0.545509,0.837806
-0.061767,-0.526089,0.952508,0.295453,-0.580263,-0.758948
-0.418028,0.362828,0.860895,-0.727807,0.071913,0.682001
0.073502,-0.456979,0.847742,-0.476980,0.845980,-0.238343
-0.387669,0.362299,0.696362,-0.690596,0.586101,-0.423748
-0.241560,-0.299039,0.774381,-0.007756,-0.927622,0.373439
0.249068,-0.808398,0.581189,0.061356,0.607198,0.792178
0.039912,-0.401678,0.948406,-0.688216,0.689364,0.226132
-0.003485,-0.224537,0.254388,-0.082254,0.000046,0.996611
-0.826951,0.072289,0.851709,-0.153338,-0.935874,0.317218
-0.155607,0.745722,0.719371,-0.195452,-0.370801,0.907912
-0.197649,0.729329,0.779891,-0.062431,-0.854525,0.515645
-0.511322,0.428453,0.932745,-0.022968,0.168644,0.985409
-0.278984,-0.520474,0.960591,0.534380,0.750377,0.389065
-0.712617,-0.366406,0.932368,0.678578,0.086121,-0.729462
-0.376550,-0.238006,0.901371,0.673352,0.738965,0.022950
0.202616,-0.065039,0.358171,0.882625,0.462118,-0.086139
-0.250374,-0.233464,0.930888,0.665604,-0.182362,-0.723681
0.112692,0.868317,0.772661,-0.390983,-0.397498,0.830137
-0.021767,-0.284540,0.752837,-0.698362,0.364264,-0.616119
-0.358166,0.668105,0.894921,0.010288,-0.561956,0.827103
-0.586272,0.018003,0.928272,-0.740768,0.671395,-0.022185
-0.558721,0.204976,0.951725,0.483184,0.864760,0.136831
-0.344512,0.145702,0.810120,0.281644,0.925268,-0.254077
-0.010421,-0.027298,0.450706,-0.057711,0.990522,-0.124641
-0.513797,0.454906,0.918029,-0.105162,-0.961135,0.255265
0.346110,0.015642,-0.888996,0.638238,0.733726,0.233020
-0.248776,0.136598,0.829163,0.190521,0.873047,-0.448876
0.177948,-0.162522,-0.445000,0.823209,-0.554468,0.122036
-0.925455,0.263586,0.747912,0.414346,0.615819,0.670137
-0.220211,0.500708,0.332325,0.159111,-0.461320,0.872850
0.020884,0.201676,0.718477,-0.175598,-0.885157,0.430886
-0.145065,0.158673,0.428506,0.890410,0.330729,-0.312710
-0.037523,-0.347982,0.864362,0.824183,-0.472930,0.311544
0.099865,-0.175558,-0.345044,0.299892,0.855951,-0.421204
0.410297,-0.706188,0.911209,-0.591217,0.667923,-0.452043
-0.234969,-0.485553,0.968911,0.969515,-0.139069,0.201742
0.831504,-0.427536,0.586334,-0.250334,0.962180,0.107439
-0.194500,-0.321269,0.652545,-0.445132,0.777075,0.444985
0.095152,-0.132243,-0.002243,0.497909,0.809534,0.311031
0.267494,-0.080118,0.324207,0.476793,0.874399,-0.089972
-0.005441,-0.829835,0.876901,-0.373884,0.686779,0.623334
-0.050097,0.725467,0.694384,-0.635227,-0.197420,0.746667
-0.338263,-0.262950,0.899282,0.127177,0.976959,0.171396
0.075212,-0.235426,0.838108,-0.477034,-0.799839,0.364276
-0.360819,0.379420,0.876640,0.399315,-0.784222,0.474914
0.089978,-0.060997,0.341651,-0.189385,0.629886,0.753244
-0.669194,-0.438533,0.920747,0.119203,-0.858986,0.497930
0.351340,-0.509421,0.558544,-0.714354,0.633848,0.296538
0.181785,-0.076382,-0.837659,0.985404,-0.061477,0.158742
0.384166,-0.565423,0.890933,-0.264037,0.774851,-0.574361
0.387380,-0.392396,0.501279,0.188428,0.940304,-0.283413
0.354191,-0.313299,0.676709,0.566115,-0.364374,-0.739422
-0.265345,0.531322,0.893091,-0.851129,0.491134,0.185383
-0.212536,0.162507,0.408822,0.911977,-0.100254,-0.397803
0.269760,-0.234250,0.030592,0.606813,-0.756630,0.243493
0.081325,-0.274909,0.617660,0.995540,-0.017586,-0.092687
0.078668,-0.064471,0.635776,-0.402113,0.764472,0.503873
-0.235088,0.103538,0.820043,-0.171989,0.889107,-0.424156
0.125834,-0.528206,0.851119,-0.681700,-0.270014,0.679984
-0.476196,-0.205537,0.914724,-0.624943,0.770853,0.123418
0.010354,-0.117152,0.763557,0.915873,-0.401467,-0.000578
-0.437141,-0.311027,0.598842,0.340442,0.081714,0.936708
-0.275591,-0.538101,0.953099,-0.218755,-0.293317,0.930651
-0.294394,-0.518030,0.977843,-0.587487,0.188998,-0.786854
0.028411,-0.120303,0.618431,0.995579,-0.091020,0.023203
-0.940440,0.237839,0.759710,-0.660993,-0.397873,-0.636228
0.438295,-0.461485,0.575067,-0.318797,0.810949,0.490643
-0.047674,0.463787,0.652052,0.437589,0.709034,-0.552980
0.162747,-0.168874,-0.986988,0.940923,0.006043,0.338567
0.082937,0.103203,0.862415,0.775774,-0.001485,-0.631010
0.174828,-0.134794,-0.068836,-0.055947,0.981796,-0.181512
-0.088553,-0.720702,0.867076,0.642131,-0.643808,0.416148
-0.039420,-0.745448,0.864856,-0.349113,0.484484,-0.802119
0.150291,-0.115513,-0.327989,0.752398,0.651478,-0.097336
0.080370,-0.148175,0.705664,-0.407470,-0.889010,-0.208876
-0.600175,0.047079,0.684617,0.129138,0.025139,0.991308
0.023088,0.531506,0.735633,-0.309324,-0.950672,-0.023285
-0.048140,-0.045452,0.444097,0.032135,0.999453,0.007799
-0.136042,-0.298811,0.882772,0.264002,-0.964354,0.018015
-0.194791,-0.047623,0.660373,-0.347026,0.912002,-0.218692
0.590031,-0.549419,0.723213,0.502626,0.475641,-0.721895
0.330912,-0.845494,0.700638,-0.631186,-0.049748,-0.774034
0.429936,-0.289166,0.403163,0.969122,0.139616,-0.203249
0.236092,-0.586884,0.883307,0.473328,0.693380,0.543309
0.190840,-0.178381,0.170083,0.845111,0.532875,0.042791
-0.004646,0.419350,0.714022,0.018491,-0.972449,0.232380
0.235352,-0.639280,0.711601,0.148646,-0.972246,-0.180670
-0.368696,-0.268975,0.605376,-0.697680,0.392247,0.599487
0.011022,-0.083585,0.730485,0.880397,-0.474192,0.006515
-0.061188,0.347017,0.737221,0.766471,-0.091971,0.635660
0.027280,-0.386845,0.926816,0.646881,0.730144,0.220079
0.806023,-0.601876,0.683010,0.297057,0.752733,-0.587494
-0.003371,-0.188585,0.856743,-0.379252,-0.923497,-0.057624
0.469991,-0.313179,0.476799,-0.503910,0.811206,0.296682
0.022899,-0.434141,0.803610,0.679043,0.729732,-0.079946
0.408464,-0.031024,-0.741488,-0.697733,-0.713155,0.067669
0.042494,0.281288,0.761205,0.890099,-0.422618,-0.170639
-0.021930,0.482184,0.747577,0.748453,-0.462779,0.475030
0.075596,-0.132791,0.714986,-0.577813,-0.157824,-0.800765
-0.267389,-0.159004,0.935044,0.572912,0.539190,-0.617289
-0.045498,-0.453613,0.944660,-0.167530,-0.959605,-0.226035
0.075008,-0.007942,-0.528198,0.116904,0.912408,0.392231
0.223748,0.176069,0.807045,0.989779,-0.094845,0.106494
-0.038842,0.788874,0.808553,0.725058,0.033197,0.687887
-0.446997,0.244601,0.935507,-0.703350,-0.154959,-0.693748
0.221402,0.226353,0.630026,0.940193,0.285357,-0.186034
0.019283,-0.277884,0.678079,0.233478,-0.055732,-0.970764
0.207770,-0.069367,-0.774853,0.952642,-0.008182,0.303985
0.330883,0.108945,-0.305963,0.871961,-0.485447,-0.063442
0.042177,-0.269469,0.790450,0.999102,0.041670,0.007705
-0.239461,-0.211553,0.935400,-0.679178,-0.432643,0.592905
0.111097,-0.226566,0.217109,-0.504649,-0.792925,0.341467
0.301566,-0.093064,-0.219901,0.882774,0.440283,0.163894
-0.407407,-0.239506,0.889789,0.354398,-0.493749,0.794112
-0.372424,-0.330408,0.941762,0.316025,0.886491,-0.338027
-0.198574,0.037628,0.899822,-0.701910,0.194515,0.685190
-0.439291,-0.099320,0.968686,-0.164437,-0.926242,0.339170
-0.421570,-0.091194,0.959550,-0.207923,-0.915695,0.343906
-0.015202,-0.194253,-0.000700,0.480035,0.826121,0.295111
0.442583,-0.783148,0.861613,0.922435,0.307265,-0.233884
0.044625,0.499807,0.735048,-0.230024,0.768619,-0.596920
-0.062904,-0.203194,-0.398065,-0.274331,0.944839,-0.178946
-0.163584,0.161396,0.837375,-0.305801,-0.873854,0.377974
-0.062325,-0.481608,0.943392,-0.733598,0.027443,-0.679030
0.255565,-0.107231,-0.153122,-0.598815,0.786685,0.150157
-0.275494,-0.401471,0.257450,-0.010335,-0.171647,0.985104
-0.439744,0.347873,0.766589,0.102656,0.216590,0.970850
0.737156,-0.425010,0.602488,-0.256944,0.955672,0.143775
0.015900,0.225281,0.701265,0.974033,-0.200612,0.104949
0.255991,-0.217468,0.098935,-0.356644,0.934151,-0.012912
0.074483,-0.220139,0.779506,-0.807263,0.414663,0.419978
0.177032,0.111432,0.603505,0.498521,-0.703396,0.506667
0.116668,0.000739,-0.600738,-0.579021,0.803826,0.136374
