0.314846,-0.042934,-0.009072,0.540278,-0.529258,-0.654206
0.056252,0.168660,0.099487,0.965677,0.108450,0.236022
0.216229,0.042863,0.070399,0.445478,-0.219413,0.867990
-0.062909,0.271239,0.185708,-0.048170,-0.925008,0.376881
-0.059895,0.271895,0.208006,0.877968,0.415169,0.238343
-0.105231,0.311247,0.244964,-0.712083,-0.676961,0.186176
-0.141120,0.342865,0.278642,0.145413,-0.740060,0.656633
0.688629,-0.323128,0.034174,-0.674973,-0.409858,-0.613537
0.080495,0.173384,0.275363,-0.254873,0.695474,0.671830
-0.100165,0.341944,0.509454,0.081569,0.850038,-0.520368
-0.133311,0.374082,0.562885,-0.772592,0.541319,0.331776
-0.144543,0.388645,0.609024,0.064483,0.362368,0.929802
-0.030586,0.299445,0.595406,0.979624,-0.045560,-0.195603
-0.368071,0.573338,0.718392,0.768750,-0.626332,-0.129353
-0.178099,0.423665,0.682746,0.170596,-0.982732,0.071662
-0.403956,0.607837,0.771360,-0.271555,0.565008,-0.779117
-0.284524,0.514707,0.756121,0.901943,0.197421,-0.384087
0.118846,0.198828,0.699296,0.909684,0.042017,-0.413170
0.202531,0.134552,0.696249,0.962849,0.200502,-0.180886
0.173084,0.161054,0.726185,0.478768,0.407730,-0.777520
-0.292741,0.537133,0.882078,-0.368565,0.884645,0.285591
-0.245621,0.501848,0.888289,0.819720,-0.570919,0.045945
-0.271646,0.525459,0.915603,-0.180099,0.983648,0.000767
-0.273292,0.529263,0.936512,0.534677,-0.826118,-0.177906
-0.260281,0.526772,0.993183,0.006800,-0.880293,0.474382
0.221709,0.019772,-0.072918,0.596288,-0.802656,0.013565
-0.172619,0.496868,0.732975,0.248900,0.818823,0.517280
0.082961,0.294457,0.678541,-0.144034,0.758970,0.634995
0.129667,0.259693,0.685408,0.215348,0.463458,0.859553
0.167194,0.237788,0.736871,0.991616,0.124836,-0.033385
-0.279182,0.600624,0.907656,0.576686,0.812471,-0.085579
-0.269593,0.595508,0.925440,0.655582,0.702079,-0.278025
-0.230695,0.567045,0.934004,0.970576,0.161267,0.178817
-0.000591,0.283048,0.084750,0.986394,-0.162883,-0.022280
0.009273,0.277668,0.104116,0.942126,0.285051,0.176479
0.005436,0.283961,0.128073,0.884778,0.152061,-0.440506
0.005298,0.286851,0.151567,0.415235,0.879636,0.231994
-0.055924,0.342336,0.217381,0.021743,0.994762,0.099879
0.162948,0.182960,0.282346,-0.324327,0.880888,0.344744
-0.082634,0.403465,0.535957,0.449180,-0.842582,0.297140
-0.092495,0.413834,0.560801,0.320236,0.341663,0.883581
-0.093452,0.419862,0.603623,0.166398,0.918285,-0.359256
-0.379165,0.654675,0.731972,0.593043,-0.206420,0.778261
-0.277263,0.575571,0.721710,-0.625617,-0.633903,-0.454720
-0.133036,0.462368,0.699836,-0.054493,-0.422163,0.904881
0.006122,0.338661,0.014229,-0.646159,-0.751652,-0.132279
0.043515,0.311511,0.024607,0.672522,0.697182,-0.248296
0.420722,0.022134,0.017856,-0.459499,-0.691664,0.557191
0.707531,-0.202702,-0.029788,-0.315129,-0.929025,-0.193921
-0.072636,0.428261,0.248089,0.670603,-0.703910,0.234100
0.780399,-0.255569,-0.006101,0.245154,0.967634,0.059870
0.856824,-0.313944,-0.006641,0.885063,0.415173,0.210462
0.013930,0.372376,0.332613,0.326137,-0.929968,-0.169690
0.188700,0.234905,0.299050,0.678126,-0.709296,-0.192467
-0.142624,0.504082,0.426357,-0.517047,0.725372,-0.454421
-0.072770,0.451088,0.426010,0.338125,-0.365527,0.867215
0.023242,0.389558,0.527200,-0.695058,0.718587,0.022965
0.028722,0.387597,0.546566,0.527897,0.449217,-0.720783
-0.049212,0.455411,0.613730,0.170552,-0.893698,0.414988
-0.029077,0.442160,0.629663,-0.421114,0.119948,0.899041
0.009683,0.413834,0.638729,-0.673119,0.538268,0.507127
0.052552,0.381824,0.646560,-0.009442,0.928541,0.371110
0.031461,0.401368,0.674336,0.133075,-0.877637,0.460484
-0.067842,0.483354,0.724295,-0.684282,0.679453,-0.264765
0.013930,0.420647,0.721285,0.240298,0.408712,0.880461
0.112271,0.344570,0.713686,0.884421,0.063637,-0.462331
0.143637,0.324498,0.746207,0.947386,0.319670,-0.016423
0.179659,0.297868,0.755967,0.565756,0.822482,-0.058672
0.121997,0.346932,0.793889,0.745215,0.391412,-0.539863
0.344431,-0.039651,-0.951762,-0.267811,0.307736,0.913004
0.184177,0.186499,-0.117785,0.862446,0.437864,-0.253895
0.115832,0.244745,-0.070256,0.854035,0.492619,-0.167185
0.069263,0.285146,-0.030174,0.462833,0.852062,-0.244492
0.046529,0.449638,0.544753,0.815457,0.576772,-0.048616
0.111999,0.399790,0.545872,-0.103385,-0.987530,0.118725
-0.333282,0.764075,0.743892,0.142847,-0.243212,0.959397
-0.037433,0.529526,0.676574,0.952995,-0.123988,0.276457
-0.177004,0.643914,0.739456,0.284396,0.777085,0.561478
-0.239732,0.696517,0.778227,0.128600,-0.684459,0.717619
0.018586,0.492008,0.722211,-0.452106,0.066521,-0.889480
0.087480,0.439542,0.723214,0.044805,0.306077,0.950952
0.149526,0.392576,0.725568,0.889364,-0.090123,-0.448229
0.090769,0.441768,0.763721,0.695604,0.681493,0.227382
0.243348,0.327380,0.782084,-0.179762,-0.741507,0.646415
0.138980,0.266515,-0.394234,0.810437,-0.305559,0.499825
0.096245,0.322136,-0.205202,0.929062,0.220189,0.297256
0.092002,0.328565,-0.178930,0.891737,0.450709,-0.040835
0.113232,0.314265,-0.161686,0.783729,0.617353,0.068142
0.081043,0.342865,-0.126001,-0.031276,-0.853787,-0.519683
0.094602,0.334858,-0.107098,-0.638659,-0.755924,-0.143853
0.056252,0.368701,-0.070642,0.033475,0.282389,0.958716
0.052828,0.377100,-0.021880,0.675140,0.737313,-0.023545
0.128158,0.318989,-0.023423,0.438646,0.889172,-0.130240
0.782861,-0.181982,-0.026239,-0.237294,-0.151704,0.959519
-0.017436,0.464202,0.256460,-0.263133,0.960940,-0.085758
0.163633,0.321087,0.219888,-0.673609,0.649736,0.352269
-0.048392,0.502377,0.378212,0.384461,-0.739120,0.553075
0.277042,0.243953,0.297854,-0.588837,0.759599,-0.276188
-0.100165,0.549206,0.438316,-0.003444,-0.482272,0.876015
0.056661,0.528350,0.555825,-0.258775,-0.111966,0.959426
0.191576,0.427997,0.579512,0.863068,0.273726,-0.424486
-0.418063,0.917679,0.783049,-0.559473,0.825149,-0.078220
-0.160978,0.715148,0.727304,-0.439107,-0.524984,-0.729093
-0.177414,0.732194,0.773250,0.656388,0.397223,-0.641380
0.129258,0.492273,0.725298,-0.899413,0.424358,-0.104768
-0.001958,0.599575,0.783975,-0.649654,0.666377,0.365911
0.141036,0.492145,0.803688,-0.595749,-0.733791,0.326549
0.222804,0.429174,0.801142,-0.469569,-0.490466,0.734131
0.378263,0.016098,-0.958397,0.319742,0.516651,0.794252
0.426474,-0.019972,-0.950180,0.710804,-0.426679,-0.559199
0.486464,-0.065360,-0.946284,-0.362169,-0.263128,0.894202
0.521529,-0.090284,-0.931701,-0.107046,-0.780186,0.616320
0.219381,0.277139,-0.558306,0.991554,0.118183,0.053417
0.203217,0.293280,-0.526055,-0.541279,0.840365,-0.028355
0.216505,0.285538,-0.505840,-0.339154,0.939799,-0.041854
0.209930,0.293673,-0.477446,-0.272248,0.959431,0.073297
0.208835,0.297347,-0.451059,-0.759285,-0.644319,-0.091320
0.186919,0.317804,-0.417381,0.874212,0.484522,0.031485
0.201850,0.308493,-0.398169,-0.705254,-0.634713,-0.315842
0.188291,0.325546,-0.343118,-0.184853,-0.907490,0.377214
0.191438,0.325939,-0.319817,0.946927,-0.017948,0.320948
0.181030,0.336956,-0.290922,0.314244,0.949119,-0.020582
0.184177,0.337092,-0.266965,-0.431779,-0.895268,0.109828
0.182125,0.341679,-0.241157,-0.673019,-0.737705,-0.053259
0.197465,0.332240,-0.222600,-0.537724,-0.829941,-0.148498
0.271700,0.283305,-0.151309,-0.334634,0.074734,0.939380
0.190752,0.351255,-0.099036,-0.082387,0.975492,-0.204029
0.255403,0.312824,-0.002822,0.071607,0.983648,0.165253
0.303614,0.277011,0.005125,0.199123,0.961759,0.188066
0.645212,0.018595,0.033325,0.029234,0.999532,-0.008959
0.187876,0.391007,0.228414,0.872199,-0.415730,-0.257755
0.347444,0.268092,0.222511,0.274998,0.817881,0.505418
0.363608,0.257467,0.239409,0.265073,0.810842,0.521797
-0.365606,0.844620,0.493637,0.567855,-0.039355,-0.822187
0.105971,0.469446,0.365867,0.127955,-0.883082,0.451435
0.314983,0.312039,0.389592,0.785154,-0.472036,0.400892
0.073782,0.339582,-0.985865,0.711396,-0.280619,-0.644336
0.132815,0.295242,-0.980927,0.172121,-0.298445,0.938778
0.188972,0.252744,-0.975024,0.742369,0.029032,-0.669362
0.245542,0.210110,-0.970087,0.425201,0.018991,-0.904900
0.310598,0.160261,-0.968659,-0.135884,-0.163149,0.977199
0.355524,0.127203,-0.958012,-0.574451,0.142381,0.806061
0.412915,0.084048,-0.953305,-0.216576,0.097855,0.971349
0.470304,0.040629,-0.947480,-0.117293,0.834626,0.538183
0.570839,-0.034007,-0.929734,-0.219999,0.789016,0.573633
0.624940,-0.075072,-0.923639,0.324970,0.076551,0.942621
0.194861,0.275962,-0.732948,-0.820884,0.545888,0.167796
0.275809,0.213392,-0.736574,-0.580463,0.814000,0.021612
0.190619,0.288556,-0.651741,0.734747,-0.630100,-0.251239
0.209382,0.276619,-0.631951,0.646996,-0.692244,-0.319678
0.187467,0.297212,-0.597270,0.616034,0.764165,-0.191194
0.211982,0.280030,-0.581028,0.990818,0.041273,-0.128750
0.304847,0.349157,-0.100424,-0.152921,0.962161,-0.225526
0.612751,0.119733,-0.036925,0.097585,-0.646901,0.756305
0.507422,0.206963,0.021868,-0.110652,0.817131,0.565733
0.695752,0.066602,0.054080,0.487840,0.843827,-0.223534
0.784780,-0.002525,0.049027,0.876022,0.121120,-0.466815
0.830938,-0.036769,0.057128,0.729610,0.262441,-0.631501
-0.255072,0.839504,0.471995,0.723132,-0.488518,0.488293
0.486878,0.246187,0.237133,0.042982,0.701224,0.711644
-0.267537,0.851962,0.497109,0.106136,0.838732,0.534101
0.190480,0.487813,0.374316,-0.658360,0.560306,0.502612
0.304300,0.399398,0.361238,-0.612520,-0.280870,-0.738871
0.184453,0.497260,0.420031,-0.252628,-0.188335,-0.949057
0.309641,0.399790,0.403519,0.982337,0.186767,-0.011528
0.350596,0.369494,0.413318,0.920272,-0.353031,-0.168726
0.354429,0.371063,0.455908,0.053792,0.245664,0.967861
0.085151,0.588294,0.559143,-0.248059,-0.263082,0.932338
0.567960,0.212343,0.500311,-0.090114,0.676891,0.730546
0.218147,0.493714,0.626577,-0.063246,-0.504349,0.861181
0.348539,0.392056,0.608561,0.629483,0.766596,-0.126813
-0.270279,0.890001,0.833007,-0.695753,-0.665453,0.270370
0.132815,0.570848,0.734788,-0.252738,0.961003,0.112232
0.120354,0.591841,0.841301,0.876089,0.164524,-0.453210
0.253760,0.489782,0.843925,-0.506684,-0.660879,0.553634
0.052418,0.446492,-0.986714,0.376380,0.455597,-0.806703
0.103095,0.408317,-0.979770,-0.302389,-0.619369,0.724530
0.172536,0.355322,-0.979114,0.166030,0.133656,-0.977021
0.233078,0.308885,-0.976105,-0.008416,0.998490,0.054291
0.271429,0.281207,-0.962872,0.441694,-0.542112,-0.714857
0.270605,0.284753,-0.934633,0.812697,0.302941,0.497745
0.261292,0.295242,-0.902961,0.974295,-0.061032,-0.216853
0.312107,0.257332,-0.895901,0.530435,0.826131,-0.190121
0.333062,0.243168,-0.877384,0.231111,0.945595,-0.228994
0.285260,0.284753,-0.831206,-0.040109,0.995791,0.082408
0.602339,0.031582,-0.926455,-0.589947,0.760643,-0.270895
0.721228,-0.061165,-0.944008,-0.262429,0.078306,0.961769
0.276771,0.303376,-0.719947,0.852031,-0.520778,0.053232
0.260883,0.318989,-0.687966,0.926597,-0.350204,0.137025
0.630692,0.192536,-0.039085,-0.214587,-0.562084,0.798758
0.644251,0.184273,-0.020375,0.410863,-0.305462,-0.859002
0.791083,0.071590,-0.021378,-0.133043,-0.022919,0.990845
0.641375,0.193976,0.051457,-0.449723,0.669445,0.591263
0.806833,0.068836,0.068200,-0.645171,-0.678844,0.350607
0.843541,0.044304,0.102958,0.793698,0.389674,-0.467116
0.908187,-0.005024,0.105080,0.799394,0.459305,-0.387310
0.524543,0.308629,0.295655,-0.181154,-0.937614,0.296754
0.295124,0.495820,0.410386,0.321890,0.691305,0.646903
0.328819,0.471288,0.422345,-0.591294,0.261830,0.762769
0.398807,0.420255,0.444605,-0.126706,0.521680,0.843680
0.106381,0.657686,0.577660,0.687376,0.105035,-0.718667
0.616037,0.257988,0.487928,0.876033,-0.155635,-0.456448
0.213215,0.583442,0.650842,0.827218,-0.347835,-0.441272
0.155829,0.631056,0.689189,-0.226602,-0.934013,-0.276172
0.306766,0.512865,0.666042,0.848959,0.152332,0.506027
0.045568,0.731801,0.845121,0.549096,0.824287,0.138000
0.048991,0.541200,-0.981274,0.489216,0.285449,0.824128
0.111999,0.492929,-0.978265,-0.196552,-0.040285,0.979665
0.175140,0.444786,-0.975217,-0.585326,0.184241,-0.789588
0.235268,0.399270,-0.971900,0.211326,-0.527626,0.822771
0.309917,0.341679,-0.974407,0.071561,0.323409,0.943549
0.344840,0.316627,-0.959478,0.047820,0.255055,0.965743
0.414695,0.263240,-0.959748,0.132832,0.558900,-0.818527
0.482493,0.211687,-0.957857,0.143284,0.126377,-0.981580
0.550291,0.159605,-0.956237,0.138668,-0.030671,-0.989864
0.617955,0.107795,-0.954308,0.104934,-0.149385,0.983195
0.667947,0.070405,-0.946747,0.219025,0.693646,0.686209
0.708626,0.040629,-0.935482,0.065203,0.185337,0.980509
0.439486,0.331055,-0.118671,0.125358,-0.985971,0.110208
0.733826,0.181382,-0.058413,0.460583,-0.060674,-0.885540
0.506736,0.365427,0.040539,-0.431595,0.322485,0.842454
0.870522,0.081822,-0.008532,0.337987,-0.579084,0.741907
0.522352,0.393497,0.441595,0.426304,-0.314787,-0.848041
0.590698,0.345747,0.487542,0.716109,0.002654,-0.697984
0.021052,0.800937,0.679197,0.994401,-0.057252,0.088823
0.326762,0.562321,0.630126,0.145389,0.714946,0.683896
0.094464,0.578854,-0.980695,-0.233003,-0.017688,0.972315
0.150487,0.536484,-0.976066,0.159398,0.017382,-0.987061
0.215819,0.486636,-0.973790,0.211852,0.470721,-0.856470
0.254032,0.458557,-0.960751,0.813527,-0.487893,0.316439
0.345526,0.387332,-0.968813,-0.349459,-0.060471,0.934998
0.416066,0.333417,-0.969431,0.264209,-0.655734,-0.707253
0.473180,0.290390,-0.964608,0.037174,0.222725,0.974172
0.586451,0.204601,-0.953614,0.397170,0.735154,-0.549367
0.665481,0.143472,-0.956121,-0.392408,-0.012562,0.919706
0.703698,0.115794,-0.942735,-0.407670,0.049848,0.911768
0.514954,0.339582,-0.152813,-0.375445,0.926251,0.033167
0.577139,0.299702,-0.077933,0.198756,0.491931,0.847644
0.607271,0.278188,-0.064624,0.120726,0.722089,0.681185
0.656168,0.307836,-0.059609,-0.237371,0.595919,0.767161
0.742048,0.243953,-0.040744,-0.608758,0.706812,0.360319
0.966948,0.073688,-0.018832,-0.742521,0.576323,-0.341343
0.793821,0.216667,0.083863,-0.193565,0.921355,0.337103
0.589055,0.408717,0.440863,-0.418791,0.499924,0.758083
0.412229,0.563762,0.644323,0.980072,0.198639,-0.001475
0.435515,0.592361,0.398465,0.570484,0.014484,-0.821181
0.527147,0.546580,0.651498,-0.317748,-0.142710,-0.937374
0.081590,0.657557,-0.976876,0.955881,-0.247383,-0.158408
0.151307,0.604034,-0.977725,0.248555,0.395017,0.884411
0.214586,0.555371,-0.975950,0.454423,-0.460447,-0.762554
0.279509,0.506044,-0.973597,-0.099481,0.144466,0.984496
0.342379,0.457773,-0.971437,0.149180,0.297505,0.942993
0.395246,0.418293,-0.963991,-0.279247,-0.185579,-0.942115
0.477427,0.355058,-0.968003,-0.173736,0.248647,0.952885
0.537693,0.309934,-0.963258,0.073458,0.336118,-0.938951
0.648636,0.225194,-0.952611,-0.197985,0.520909,0.830335
0.721914,0.169053,-0.952726,-0.144377,0.985728,0.086581
0.746705,0.151999,-0.935405,-0.110092,0.258008,0.959850
0.651649,0.295770,-0.954540,-0.078513,0.071202,0.994367
0.701917,0.258380,-0.945474,0.227148,0.480552,0.847038
0.772181,0.204601,-0.945590,0.684979,-0.291798,0.667576
0.814774,0.259173,-0.042634,-0.541878,0.588398,0.600130
0.484959,0.658214,0.661875,-0.091119,-0.383328,0.919106
0.156787,0.672514,-0.981467,0.670138,-0.718698,-0.185442
0.222394,0.622137,-0.979538,0.030318,0.404095,0.914214
0.282113,0.577013,-0.975063,0.069974,0.087407,0.993712
0.354019,0.521528,-0.976529,0.127315,-0.193465,0.972811
0.416200,0.474434,-0.973867,-0.082271,0.284991,0.954993
0.471538,0.432328,-0.967618,-0.575194,-0.088494,-0.813216
0.532898,0.385891,-0.964570,0.162222,-0.179600,-0.970272
0.594121,0.339582,-0.960172,-0.621678,0.218223,0.752260
0.282660,0.658342,-0.978342,-0.094214,0.433869,-0.896037
0.348268,0.608102,-0.976259,0.062002,0.267042,0.961688
0.418532,0.554058,-0.976028,0.036963,0.340723,0.939437
0.485783,0.503033,-0.973906,0.342117,-0.121704,-0.931742
0.539198,0.462889,-0.967618,-0.293653,-0.111755,0.949357
0.600696,0.416188,-0.964570,0.051984,0.365058,0.929532
0.660824,0.370670,-0.959786,0.402386,-0.327988,-0.854699
0.730131,0.317412,-0.959941,0.223166,-0.090570,-0.970564
0.787655,0.273993,-0.954000,0.269226,0.495256,0.825978
0.665343,0.442689,-0.161339,-0.684076,0.340214,-0.645209
0.395384,0.647197,-0.980695,0.678300,0.667352,-0.307491
0.464005,0.594331,-0.980695,0.319942,-0.235539,-0.917692
0.522215,0.550520,-0.975295,-0.312197,0.518811,0.795844
0.575220,0.510768,-0.968003,-0.174807,-0.123534,0.976822
0.642061,0.460007,-0.965843,-0.010513,0.046223,0.998876
0.700270,0.415667,-0.961599,-0.469136,0.281321,-0.837120
0.757660,0.372248,-0.956816,0.937955,-0.342642,0.053258
0.469481,0.637221,-0.982316,-0.063993,-0.007849,0.997919
0.523719,0.596429,-0.976529,-0.142477,0.500016,0.854216
0.579329,0.554843,-0.970202,-0.428035,0.805242,0.410331
0.637267,0.511160,-0.965766,0.083631,-0.429149,0.899354
0.697942,0.464987,-0.961329,0.265698,0.014575,-0.963946
0.762864,0.415403,-0.958475,-0.664134,-0.039529,0.746568
0.748895,0.504739,-0.154125,0.162483,-0.975106,0.150891
0.653154,0.585932,-0.074037,-0.143153,-0.265943,0.953300
0.557004,0.597741,-0.972324,-0.113443,0.500175,0.858461
0.608643,0.559174,-0.965419,-0.200623,0.194022,0.960263
0.667947,0.514443,-0.961561,-0.139133,-0.054645,0.988765
0.734512,0.463674,-0.959400,0.798442,-0.601597,-0.023920
0.581248,0.594331,-0.972093,-0.279125,0.464678,0.840335
0.632062,0.556812,-0.963798,-0.160457,0.363857,0.917530
0.705340,0.501064,-0.964184,-0.004060,0.131161,0.991353
0.758484,0.461055,-0.956739,-0.347693,0.401621,0.847237
0.792450,0.539366,-0.153739,0.490666,0.151067,0.858152
0.562346,0.612826,-0.978034,-0.229259,0.488244,0.842056
0.612614,0.575571,-0.970588,-0.192879,0.659089,0.726911
0.665071,0.536612,-0.963953,-0.215363,0.001561,0.976533
0.733417,0.484931,-0.962371,-0.521838,-0.431368,0.735940
0.565769,0.597869,-0.972247,-0.344585,0.496424,0.796759
0.615627,0.560879,-0.963490,-0.190987,0.327271,0.925428
0.688491,0.505523,-0.963683,-0.081286,0.176601,0.980920
0.744239,0.464202,-0.957124,-0.705708,0.552864,0.443077
0.814093,0.520871,-0.152697,0.142970,-0.906685,0.396839
0.780123,0.524803,-0.157057,0.232078,-0.726398,0.646905
0.472223,0.634211,-0.983126,-0.057396,-0.080458,0.995104
0.523857,0.595508,-0.976413,-0.141659,0.498537,0.855215
0.572482,0.559959,-0.968196,-0.371974,0.309279,0.875204
0.638090,0.510640,-0.965573,0.083631,-0.429149,0.899354
0.689862,0.472465,-0.958552,-0.090350,-0.276349,-0.956801
0.766288,0.413962,-0.960172,-0.595442,0.029163,0.802869
0.763826,0.514443,-0.153662,-0.331762,0.881369,-0.336337
0.382096,0.666349,-0.982547,-0.378701,-0.457220,0.804696
0.450441,0.614403,-0.981351,-0.065448,-0.143464,0.987489
0.513588,0.567173,-0.977879,-0.361260,0.082667,0.928793
0.562755,0.531104,-0.968968,0.398625,-0.287643,-0.870839
0.623159,0.485843,-0.965303,0.077125,0.382628,0.920678
0.685068,0.439670,-0.962255,-0.200717,-0.068302,0.977265
0.750266,0.390351,-0.959439,-0.512102,0.205043,0.834092
0.806557,0.348501,-0.954000,-0.428621,-0.129407,0.894169
0.372373,0.645748,-0.981081,-0.107079,0.127827,0.985999
0.448113,0.587509,-0.982894,0.366107,-0.473015,-0.801388
0.497014,0.552089,-0.975024,-0.163448,0.358716,0.919025
0.552348,0.511424,-0.968428,0.165182,0.030900,0.985779
0.620969,0.459742,-0.967000,-0.017363,-0.078364,0.996774
0.676575,0.418293,-0.960558,0.222264,-0.257740,-0.940303
0.749305,0.362536,-0.961792,0.642646,-0.333627,-0.689710
0.305123,0.671985,-0.980541,0.086192,-0.575048,0.813567
0.374839,0.619383,-0.979885,-0.438637,0.600246,0.668807
0.445651,0.565603,-0.979654,0.225458,-0.249586,-0.941741
0.499752,0.525851,-0.973327,-0.131387,0.246717,0.960140
0.557280,0.483354,-0.968505,-0.025406,0.213273,0.976662
0.617542,0.438750,-0.963644,-0.619106,0.379037,-0.687778
0.671784,0.398485,-0.957626,-0.531796,0.155436,-0.832486
0.748895,0.339453,-0.959362,-0.269295,-0.156432,0.950268
0.707255,0.502769,-0.157944,-0.360752,0.777699,-0.514823
0.234859,0.686549,-0.984283,-0.273512,-0.655058,-0.704337
0.289783,0.645748,-0.978882,-0.027533,-0.363256,0.931283
0.356895,0.595380,-0.977108,-0.006277,-0.476880,0.878946
0.430993,0.538446,-0.979345,0.350305,0.082006,0.933039
0.487563,0.497125,-0.973096,-0.476450,0.341708,0.810081
0.547829,0.452528,-0.968389,-0.266837,-0.120193,0.956217
0.603710,0.411599,-0.961754,0.159393,0.153551,0.975201
0.664386,0.366211,-0.958359,-0.183981,0.152148,0.971083
0.740539,0.307444,-0.960944,-0.118745,0.230704,0.965751
0.262112,0.644443,-0.981891,0.145764,-0.453323,0.879347
0.318954,0.602857,-0.975950,-0.238270,0.755456,0.610339
0.387166,0.551176,-0.974793,0.044433,0.187204,0.981316
0.458111,0.497125,-0.975603,-0.303002,0.535831,0.788083
0.515230,0.455283,-0.970665,0.195138,-0.164536,-0.966876
0.565631,0.419078,-0.961985,0.505362,-0.243647,-0.827796
0.632882,0.368701,-0.960982,0.081830,-0.458769,-0.884780
0.703560,0.315050,-0.960249,-0.109143,0.148521,-0.982868
0.745334,0.285802,-0.947981,-0.724898,0.024365,0.688425
0.168565,0.691137,-0.980233,0.061908,0.410727,0.909654
0.235131,0.640768,-0.979615,0.421991,0.187012,0.887102
0.300329,0.591705,-0.977262,-0.149226,0.702835,0.695524
0.368674,0.540151,-0.977069,-0.254697,-0.052486,0.965596
0.437843,0.487813,-0.976143,-0.239416,0.330033,0.913104
0.494272,0.446756,-0.969816,0.018033,0.221183,0.975065
0.559061,0.398221,-0.966885,0.724115,-0.082101,-0.684775
0.613980,0.358076,-0.961021,-0.138071,0.513610,0.846842
0.669456,0.317676,-0.955311,0.122859,0.384625,0.914860
0.727527,0.274778,-0.949486,-0.234506,0.616993,0.751217
0.803819,0.216667,-0.951801,0.737195,0.034308,0.674808
0.140761,0.701105,-0.986906,0.310930,0.894144,0.322226
0.196370,0.660576,-0.980657,0.341344,0.211000,-0.915950
0.262112,0.611777,-0.978304,-0.058917,0.346800,0.936087
0.317588,0.571240,-0.971900,0.713695,0.212408,-0.667475
0.398398,0.509062,-0.976761,-0.022256,-0.140027,0.989898
0.460168,0.462889,-0.973906,0.498597,0.538673,0.679141
0.512902,0.424714,-0.966190,0.000094,0.475616,0.879653
0.568783,0.383922,-0.960751,-0.276289,0.068828,0.958607
0.641651,0.328957,-0.960751,0.214299,0.341043,0.915295
0.705888,0.281735,-0.957317,0.255725,0.605298,0.753803
0.769577,0.234113,-0.953614,0.593381,0.299465,0.747141
0.171989,0.674347,-0.979962,0.403872,0.153754,0.901802
0.242115,0.620960,-0.980850,0.272881,0.344108,0.898402
0.299505,0.579246,-0.975063,0.068846,-0.033516,0.997064
0.373878,0.522185,-0.977493,0.140594,-0.202931,0.969047
0.438800,0.474042,-0.974600,-0.066060,0.241944,0.968039
0.497696,0.430623,-0.969392,0.012388,0.337265,0.941328
0.550567,0.392969,-0.961754,-0.029090,0.382676,0.923425
0.612338,0.346932,-0.958745,0.285267,-0.472487,-0.833894
0.683015,0.293537,-0.959053,0.041841,-0.192684,-0.980368
0.718900,0.270454,-0.944316,0.268554,0.146921,0.951994
0.790807,0.215754,-0.945088,0.846953,0.103542,0.521489
0.155278,0.684187,-0.983319,-0.284947,0.182412,0.941027
0.219652,0.636309,-0.980657,0.255872,0.201583,0.945460
0.277042,0.594459,-0.974870,0.112779,0.456473,0.882561
0.347716,0.541336,-0.974639,0.344919,0.502181,0.792998
0.420860,0.485451,-0.976452,-0.192071,0.413610,0.889964
0.476332,0.445315,-0.970820,-0.171460,0.705418,0.687740
0.529609,0.407012,-0.963220,-0.036276,0.243885,0.969126
0.587823,0.364506,-0.958552,0.382354,0.164899,0.909183
0.658634,0.310983,-0.957819,0.063075,-0.132681,0.989150
0.717667,0.267956,-0.952302,-0.186765,-0.677520,-0.711397
0.766564,0.233985,-0.942658,0.755223,0.443170,0.482948
0.628225,0.576885,-0.072764,-0.051673,-0.286660,0.956638
0.757113,0.479422,-0.162458,-0.752088,0.325649,0.572990
0.164181,0.694547,-0.982740,0.526253,0.665598,-0.529186
0.243486,0.633554,-0.987331,0.620579,0.365450,0.693778
0.290602,0.600888,-0.977416,0.012575,0.627420,0.778579
0.355114,0.553009,-0.975526,-0.135064,0.050661,0.989541
0.429212,0.496604,-0.976606,0.430383,-0.670625,-0.604179
0.489892,0.452393,-0.971861,0.206133,-0.471566,-0.857400
0.540431,0.416323,-0.963297,0.275205,-0.267586,-0.923396
0.598230,0.374082,-0.958552,0.252733,0.123832,0.959579
0.677126,0.313609,-0.962139,0.257881,0.450697,0.854617
0.731912,0.274522,-0.954810,-0.000333,0.820121,0.572190
0.796834,0.226507,-0.952572,0.702018,0.042859,0.710869
0.558375,0.415667,-0.964300,0.424349,-0.326954,-0.844410
0.625897,0.365291,-0.962371,-0.092945,-0.238107,0.966781
0.690134,0.317940,-0.958783,0.281278,0.028521,0.959202
0.756841,0.268613,-0.956198,0.123542,0.729591,0.672632
0.756703,0.522705,-0.080750,0.712573,-0.344716,0.611074
0.180069,0.695596,-0.981930,0.520073,0.249796,-0.816778
0.248004,0.644835,-0.980541,0.319324,0.013540,-0.947549
0.307861,0.601280,-0.975873,0.260469,-0.810798,-0.524177
0.374564,0.551432,-0.975024,0.036813,0.082665,0.995897
0.442224,0.500279,-0.974484,0.519073,-0.277843,-0.808311
0.501532,0.456852,-0.969392,-0.024270,0.310748,0.950182
0.220066,0.683266,-0.984129,-0.095964,0.498503,0.861560
0.272248,0.646669,-0.976220,-0.281544,0.129913,0.950713
0.346487,0.590263,-0.978535,-0.166290,-0.672797,0.720897
0.415790,0.539102,-0.977339,0.140345,0.307782,0.941049
0.478113,0.492537,-0.973597,0.407285,-0.059885,-0.911336
0.542211,0.444922,-0.970511,-0.314782,-0.281386,0.906496
0.591384,0.410679,-0.962139,0.008734,0.203929,0.978947
0.652607,0.365291,-0.958745,0.365124,-0.255976,-0.895076
0.727118,0.309277,-0.959323,0.185396,-0.390994,-0.901527
0.780809,0.270582,-0.952765,0.529117,0.519806,0.670699
0.254856,0.681297,-0.981891,-0.305420,-0.219019,0.926687
0.325939,0.627646,-0.981853,-0.742425,0.257652,0.618401
0.386752,0.583050,-0.978458,-0.259237,0.370912,-0.891751
0.449622,0.536740,-0.976028,0.175293,0.195295,0.964952
0.503037,0.498966,-0.968003,0.671835,0.075521,-0.736840
0.567003,0.451344,-0.965843,-0.278250,-0.103389,0.954928
0.628773,0.406484,-0.961368,-0.166642,0.059867,0.984198
0.699313,0.353353,-0.960558,0.427896,0.297175,-0.853576
0.764511,0.304818,-0.957780,0.120983,0.211911,0.969771
0.308546,0.675532,-0.980503,0.086192,-0.575048,0.813567
0.377301,0.623843,-0.980503,-0.500776,0.330138,0.800145
0.448937,0.570191,-0.980541,-0.248299,0.266768,0.931226
0.502766,0.532153,-0.973096,-0.109226,0.302131,0.946988
0.558099,0.492801,-0.965804,0.382204,0.012896,0.923988
0.623022,0.444394,-0.963991,0.203700,-0.632645,0.747173
0.680683,0.402808,-0.958976,-0.345897,0.275061,0.897049
0.749990,0.350999,-0.957510,-0.878373,0.477551,0.020156
0.415104,0.629615,-0.981428,-0.030674,-0.250511,0.967628
0.486602,0.575836,-0.982354,0.114412,-0.206175,-0.971803
0.536460,0.540808,-0.973481,0.401377,-0.297821,-0.866140
0.593983,0.499358,-0.968582,0.174893,0.166395,-0.970425
0.654935,0.455147,-0.963837,0.372225,0.352113,-0.858758
0.711230,0.414618,-0.957317,-0.556628,0.586938,-0.587936
0.782727,0.361359,-0.956661,0.491903,0.090727,-0.865910
0.912705,0.570455,-0.152234,-0.625307,0.770074,0.126399
0.469757,0.641689,-0.981698,0.065542,-0.142518,0.987620
0.530980,0.596693,-0.977493,-0.174588,0.470626,0.864887
0.582342,0.561008,-0.969006,-0.435600,0.461775,0.772669
0.636581,0.522441,-0.962872,-0.181131,-0.220955,0.958316
0.696985,0.478237,-0.958937,-0.182626,0.370895,0.910541
0.757936,0.433770,-0.954231,-0.552770,-0.321981,0.768618
0.602615,0.603514,-0.969662,0.082473,0.701252,0.708127
0.660415,0.561800,-0.964994,-0.026174,0.819763,0.572105
0.718486,0.520087,-0.959130,-0.279574,0.096924,0.955219
0.778480,0.477060,-0.953807,0.393752,-0.139544,-0.908563
0.766016,0.544747,-0.956970,0.027347,-0.436444,0.899316
-0.015794,0.401368,0.644747,0.851612,0.072057,-0.519196
-0.053183,0.420647,0.689227,0.576211,-0.746882,0.331886
-0.103998,0.530311,0.759246,-0.248222,-0.245984,0.936951
0.132953,0.411471,0.777339,0.861359,0.294615,-0.413840
-0.334787,0.482697,0.837212,-0.032287,-0.998875,-0.034726
-0.302192,0.282127,0.781081,0.891828,0.446134,-0.074875
-0.226172,0.244217,0.812908,-0.110199,-0.289122,0.950928
-0.234666,0.335514,0.444451,0.862648,0.432886,0.261625
-0.178509,0.308228,0.480019,0.509669,-0.695238,0.506835
-0.203576,0.322008,0.523612,-0.674946,0.668466,-0.312412
-0.227681,0.335122,0.566704,0.944295,-0.246869,-0.217631
-0.245621,0.344570,0.607905,0.151285,-0.578374,0.801621
-0.289728,0.367916,0.651421,0.374343,-0.778715,0.503458
-0.267127,0.357027,0.689883,0.170119,-0.980064,-0.102639
-0.252610,0.349942,0.727767,0.800618,0.172111,-0.573923
-0.153308,0.524146,0.699065,-0.024648,-0.270030,0.962537
-0.131531,0.434946,0.740806,0.626755,0.769083,0.125258
-0.197820,0.345226,0.745281,0.815595,0.530571,0.230867
-0.097561,0.268613,0.710947,0.916861,-0.067098,-0.393528
0.441129,0.296163,-0.955851,-0.218629,0.114859,-0.969025
-0.087700,0.356243,0.613422,0.200832,-0.902879,-0.380100
-0.199053,0.269013,0.682399,0.054684,0.673885,0.736810
0.266906,0.077227,-0.962371,0.353115,-0.265910,-0.896996
0.212806,0.197652,-0.969006,0.199287,0.072786,0.977234
0.304985,0.195554,-0.895863,0.279061,0.919669,-0.276287
0.534541,0.198436,-0.881203,-0.112076,-0.989116,0.095330
0.128982,0.185578,-0.787767,-0.420362,0.906092,0.047889
0.684930,-0.122558,-0.948599,-0.475566,0.583963,-0.657893
-0.241513,0.146098,0.814914,0.308442,0.184480,0.933183
-0.176181,0.153175,0.838447,0.163012,0.976990,0.137543
-0.278906,0.270846,0.797901,0.840957,0.527421,-0.120911
-0.307668,0.267171,0.768775,-0.752853,-0.182554,-0.632366
-0.220421,0.263633,0.514431,-0.638525,0.104762,0.762437
-0.177689,0.262319,0.401127,0.951545,0.073987,0.298476
-0.059758,0.262976,0.170933,-0.340727,0.939771,0.027128
0.015301,0.264946,0.052344,-0.544117,-0.838971,0.008057
0.209382,0.251559,-0.645183,0.734747,-0.630100,-0.251239
0.226913,0.251695,-0.686770,0.955230,-0.221417,0.196241
0.223761,0.246187,-0.799418,-0.377568,0.925269,-0.036334
0.284712,0.246050,-0.926108,-0.615742,-0.682453,-0.393851
0.262250,0.242776,-0.961136,-0.160827,-0.413271,0.896294
0.109257,0.227948,-0.970279,0.124625,0.719482,0.683238
-0.300274,0.414090,0.796474,0.880649,-0.472402,-0.035967
0.657539,0.444002,-0.963142,0.304532,0.219666,-0.926826
0.475918,0.426684,-0.967232,-0.575194,-0.088494,-0.813216
0.289235,0.408973,-0.970241,-0.165412,-0.296999,0.940442
0.143912,0.395331,-0.982316,-0.397613,-0.460036,0.793896
-0.085096,0.572945,0.789530,0.077810,-0.982579,0.168773
-0.301097,0.552353,0.755273,0.571157,0.064992,-0.818264
0.253760,0.595900,0.392062,-0.658367,0.371804,-0.654458
0.474551,0.585804,-0.973906,-0.363731,-0.071440,0.928760
0.323477,0.571376,-0.985132,-0.599382,-0.593445,-0.537181
0.061593,0.547501,-0.975333,0.216768,0.185084,0.958517
-0.448744,0.816413,0.784785,0.589094,0.441406,-0.676853
0.171579,0.663594,-0.986984,0.673116,0.715005,0.188901
0.327995,0.633554,-0.972054,0.900288,0.386092,0.201033
0.174179,0.615844,-0.980965,-0.099982,0.460327,0.882101
0.501257,0.601808,-0.974870,0.368001,0.544079,0.754024
0.272796,0.579503,-0.971514,0.402879,-0.253209,0.879530
0.125559,0.561800,-0.981467,-0.171300,0.207742,-0.963068
0.538241,0.566917,-0.969624,0.640212,0.140939,-0.755159
0.114465,0.524939,-0.968852,-0.007732,0.318805,0.947789
0.142403,0.501984,-0.970125,0.363645,0.478494,0.799253
0.415104,0.525459,-0.981776,-0.314098,0.266315,-0.911273
0.426474,0.500928,-0.980425,-0.135398,0.766690,0.627577
0.122817,0.476660,-0.962872,-0.495252,0.130545,0.858885
0.376206,0.480207,-0.977455,0.857110,0.250134,-0.450329
0.062688,0.421832,-0.988797,-0.068159,-0.486327,0.871114
0.763412,0.539238,-0.958359,-0.117333,-0.049435,0.991861
0.611242,0.520871,-0.967810,0.327906,0.097667,-0.939648
0.436882,0.501064,-0.974523,0.344831,-0.082093,-0.935068
0.557280,0.601808,-0.979924,-0.229259,0.488244,0.842056
0.365798,0.582129,-0.983434,0.171321,-0.631444,-0.756259
0.141036,0.561536,-0.978882,0.271775,-0.007773,0.962329
0.002699,-0.486707,0.598569,-0.470486,-0.882393,-0.005126
-0.329035,-0.412455,0.465630,-0.411460,0.436668,-0.800014
-0.020588,-0.396714,0.586610,-0.719049,-0.135168,0.681688
0.561389,-0.149051,-0.936408,-0.657586,0.396981,-0.640302
-0.022369,-0.284560,0.373699,0.772015,0.572446,0.276223
-0.129612,-0.296890,0.435809,0.572283,0.363458,0.735113
0.008450,-0.286394,0.433571,0.785641,-0.250617,0.565649
-0.073865,-0.301222,0.556866,-0.750155,-0.403466,-0.523911
-0.058663,-0.302006,0.586880,0.955887,-0.111092,-0.271917
-0.035242,-0.302134,0.613345,0.020252,-0.722693,0.690872
0.147474,-0.287051,0.598531,0.523012,0.597235,-0.608086
0.437568,-0.068251,-0.933245,0.347542,0.096779,-0.932657
0.766564,-0.041621,-0.954077,-0.579714,-0.280630,0.764970
-0.186179,-0.213984,0.455291,0.483857,0.647150,0.589135
0.200479,-0.181982,0.420378,-0.025222,-0.172841,0.984627
-0.564348,-0.259637,0.688263,-0.167480,-0.713004,0.680864
-0.376565,-0.243896,0.671520,0.098099,0.553462,0.827077
-0.018531,-0.093959,0.332806,0.968575,0.128640,0.212870
-0.157826,-0.109572,0.403519,0.786386,0.266944,0.557080
-0.071951,-0.106417,0.448424,0.268826,-0.358980,0.893793
-0.165087,-0.118099,0.507410,0.922787,0.287803,0.256192
-0.388616,-0.144328,0.634331,0.104695,0.755867,0.646301
-0.096742,-0.121245,0.622950,-0.545717,0.837248,-0.034767
-0.049074,-0.119404,0.644323,-0.702099,-0.712022,0.009039
-0.040722,-0.120853,0.674491,-0.492138,0.715696,-0.495561
-0.133311,-0.019451,0.450083,0.780508,-0.271661,0.563035
-0.285343,-0.036897,0.523304,0.706093,0.116815,-0.698418
-0.163307,-0.032566,0.592165,-0.214584,-0.296502,0.930613
-0.154813,-0.034271,0.623529,0.769576,0.107413,-0.629456
-0.172619,0.064897,0.547916,0.884349,-0.210978,-0.416431
-0.137559,0.065818,0.571449,0.197331,0.836374,0.511408
0.596178,0.128652,0.481794,0.962544,-0.193260,-0.190158
-0.094137,0.051910,0.790996,-0.363971,0.918290,-0.155782
0.186781,0.177579,-0.550474,0.449063,0.880670,0.150876
0.020505,0.096642,0.326942,-0.484157,-0.555777,0.675799
0.204450,0.258516,-0.444269,0.018720,-0.925790,0.377574
0.154730,0.250910,-0.393231,0.608810,-0.772414,0.180907
0.171989,0.249333,-0.360440,-0.634980,-0.757834,-0.149957
0.169389,0.245922,-0.323019,0.831510,-0.544431,-0.110385
-0.047293,0.182960,0.274515,0.941023,0.130662,0.312094
0.185277,0.197387,0.315754,0.080548,-0.568265,0.818894
-0.130160,0.164201,0.433147,0.954052,-0.123609,0.272956
-0.153580,0.156587,0.506792,0.040774,0.232038,0.971852
-0.509286,0.114088,0.701456,0.793376,0.221645,0.566946
0.091588,0.159869,0.709712,0.992672,-0.073166,-0.096170
-0.165911,0.132063,0.808395,-0.458037,-0.049443,-0.887557
-0.075646,0.137964,0.818618,0.227601,0.972638,-0.046615
0.080085,0.150686,0.811018,0.782355,0.353678,0.512672
-0.022502,0.138484,0.868422,-0.783185,0.266089,-0.561977
-0.100712,0.128516,0.921196,-0.176969,-0.924435,0.337790
0.053238,0.322264,-0.084607,0.506131,0.766184,-0.395972
-0.144543,0.263761,0.458261,0.677230,0.133942,0.723477
-0.161116,0.259301,0.495643,0.499186,0.841310,-0.207390
-0.126598,0.259693,0.519407,-0.076313,-0.758200,0.647541
-0.336434,0.236739,0.608484,-0.578916,0.759046,-0.297834
-0.300683,0.237788,0.631746,0.628660,0.368939,-0.684595
-0.254253,0.239757,0.653041,-0.499258,0.283870,-0.818632
-0.144953,0.242119,0.723793,-0.636634,0.481218,0.602600
-0.177823,0.236611,0.764146,0.870072,0.448845,0.203745
-0.346294,0.217587,0.840221,0.839189,-0.450845,-0.304139
-0.298083,0.219557,0.859510,0.314868,-0.272511,-0.909173
0.594945,0.434290,-0.964377,0.004025,0.164653,0.986343
0.718900,0.443473,-0.961638,0.099714,-0.426494,0.898977
-0.101807,0.333153,0.678773,0.178274,-0.647155,0.741221
-0.178646,0.323056,0.731933,-0.580026,-0.789004,-0.202589
-0.121532,0.323449,0.783820,-0.144280,0.003673,-0.989530
0.064607,0.338797,0.768351,-0.168824,0.981809,0.086883
0.158567,0.345226,0.776568,0.557816,0.620082,-0.551670
0.222666,0.348893,0.793542,-0.024697,-0.733486,0.679256
0.233078,0.492408,-0.971514,0.228752,0.971614,-0.060327
0.382372,0.504338,-0.978497,0.364260,-0.053944,0.929734
0.492629,0.512345,-0.971784,0.577554,0.146510,-0.803098
0.618227,0.522048,-0.969469,0.476792,0.069306,-0.876280
-0.106054,0.382480,0.067081,-0.459526,-0.733120,0.501369
-0.206861,0.355459,0.303255,-0.113594,0.819385,-0.561877
0.310051,0.386940,0.405333,0.994749,-0.015092,-0.101228
-0.163716,0.337748,0.563849,0.942113,-0.292492,0.163926
-0.119204,0.339582,0.584797,0.173010,-0.959666,0.221604
-0.176181,0.331191,0.632132,0.469297,-0.883013,0.006931
-0.213846,0.324890,0.675494,-0.416016,0.480393,-0.772109
-0.062771,0.443865,0.430408,-0.151997,0.184956,0.970921
0.311832,0.475091,0.399314,0.990175,0.040930,-0.133710
0.011739,0.437445,0.579512,-0.151032,0.975214,0.161700
-0.263566,0.407660,0.684714,0.728919,0.639332,0.244809
-0.036062,0.424586,0.690539,0.325442,-0.818632,0.473212
-0.189330,0.404250,0.794622,-0.510061,0.140372,0.848607
-0.245897,0.396123,0.841919,-0.744750,0.519819,0.418492
-0.240146,0.393761,0.873283,-0.001922,-0.998704,0.050868
0.356486,0.591184,-0.975063,0.122867,0.636126,-0.761739
-0.447649,0.500279,0.417292,-0.221768,-0.392461,0.892633
0.323201,0.562321,0.383806,0.005840,0.747256,0.664511
-0.369990,0.490959,0.598762,0.976152,0.043158,-0.212756
0.140898,0.533465,0.565084,-0.579481,-0.175193,0.795933
-0.304382,0.486636,0.713879,-0.597252,-0.722558,-0.348139
-0.196453,0.491616,0.752842,0.812096,-0.579756,0.066205
0.091041,0.517325,0.711487,-0.119042,-0.464402,0.877588
0.203902,0.525988,0.714689,0.991815,-0.089170,0.091384
-0.127832,0.490439,0.831734,-0.413647,0.624947,-0.662071
-0.152485,0.485187,0.869463,-0.620873,0.287299,-0.729367
-0.123723,0.485451,0.894925,0.682227,-0.593632,0.426811
-0.154813,0.479942,0.935277,-0.600678,0.726084,0.334645
-0.160431,0.476796,0.969226,-0.261835,0.873476,-0.410464
0.077619,0.656773,-0.984322,0.197025,-0.353157,0.914582
0.192399,0.665036,-0.980965,-0.239590,-0.121712,0.963215
-0.338624,0.551697,0.611030,0.793736,0.127555,-0.594738
-0.355883,0.539366,0.746708,0.390933,-0.866225,-0.311168
-0.188783,0.550648,0.769006,0.441572,0.033657,0.896595
0.197055,0.585540,0.704080,-0.689590,0.495102,-0.528526
0.066112,0.570191,0.770588,0.875973,0.462883,-0.135685
0.062279,0.564683,0.835090,0.729333,0.378634,-0.569833
-0.211656,0.608102,0.706240,0.057615,-0.494782,0.867105
-0.277263,0.599447,0.755080,0.472604,0.611402,-0.634691
-0.206451,0.603642,0.768736,0.941618,0.336679,0.001725
0.069673,0.622666,0.796744,0.935558,-0.343425,-0.082400
0.108985,0.621745,0.852759,-0.653573,-0.458889,0.601883
-0.154813,0.703731,0.437661,-0.228277,0.409390,-0.883340
-0.019902,0.696125,0.670093,0.909647,-0.170869,-0.378611
-0.384783,0.658478,0.796821,0.323280,-0.595112,0.735752
-0.220149,0.671985,0.787717,0.144727,0.952345,-0.268503
-0.139339,0.677494,0.799444,0.386072,0.910382,0.148843
-0.178918,0.821658,0.467520,0.424832,-0.407131,0.808556
-0.225625,0.789656,0.809899,0.196693,-0.605839,0.770890
-0.158374,0.793587,0.825870,0.293232,0.799289,-0.524550
-0.011137,0.181118,0.780618,-0.641484,0.737086,-0.212611
-0.133721,0.180070,0.802569,0.636892,0.125056,0.760743
-0.163169,0.169973,0.777185,0.856871,0.485804,-0.172527
-0.306025,0.171414,0.812445,0.615842,0.690051,0.380222
0.887095,0.031974,0.130928,0.813833,0.268096,-0.515559
-0.335611,0.147539,0.744085,0.184352,0.977249,0.104877
-0.078112,0.106090,0.561457,0.274880,0.872270,0.404458
-0.121942,0.096378,0.540317,0.317294,0.946972,-0.050685
0.779028,-0.001085,0.050531,0.876022,0.121120,-0.466815
-0.405875,0.112647,0.650611,0.330998,-0.192380,0.923813
-0.114548,0.052959,0.404522,0.926416,0.170809,0.335527
-0.165087,0.043912,0.386622,0.917491,0.352173,0.184891
0.446746,-0.039523,0.001151,-0.595191,0.551924,-0.584061
0.420447,-0.051981,-0.032604,-0.375481,-0.849215,-0.371278
-0.509148,0.038660,0.442483,-0.458218,0.881702,-0.112414
-0.193439,-0.012630,0.217612,0.968884,0.247506,-0.002038
-0.421901,-0.000692,0.301789,0.588113,-0.563742,0.579930
0.194180,-0.072318,-0.048961,0.970730,-0.229537,-0.070682
-0.509971,-0.005024,0.307306,-0.039653,-0.928620,0.368907
-0.027710,0.196467,0.831657,-0.409527,-0.498937,0.763773
0.270058,-0.119804,0.023411,-0.272386,-0.945737,0.177167
-0.616943,-0.033358,0.476586,0.298974,-0.481262,-0.824015
-0.325888,-0.096321,0.219464,0.470328,-0.253922,0.845172
0.003794,0.122615,0.830615,-0.505268,-0.411258,0.758664
-0.037709,0.113696,0.811597,0.628442,0.624237,-0.464100
-0.195905,0.103199,0.811712,-0.263043,-0.411589,-0.872584
-0.348075,0.105433,0.850213,-0.838088,0.026871,-0.544873
0.783137,-0.070612,0.067660,-0.606303,-0.373544,0.702041
-0.379713,0.026201,0.611801,0.313680,0.114066,0.942652
-0.184674,-0.009739,0.459534,-0.687785,0.584051,0.431087
-0.157141,-0.027450,0.398620,-0.673274,-0.299058,-0.676215
-0.003738,-0.082286,0.456371,-0.255777,0.442014,-0.859768
-0.163992,-0.079395,0.498845,0.946134,0.312321,-0.085356
-0.278768,-0.081101,0.518250,0.821405,-0.565231,-0.076213
-0.110711,-0.113895,0.381645,-0.256231,-0.729709,-0.633932
-0.402451,-0.095929,0.497997,0.403165,0.588750,-0.700594
-0.506957,-0.098154,0.512618,0.867672,-0.455498,-0.199167
0.322106,-0.192214,0.048872,-0.081295,-0.440359,-0.894134
-0.536814,-0.109436,0.484031,0.217456,-0.369533,-0.903415
-0.130707,-0.171221,0.208662,0.969338,0.170233,-0.177213
0.140351,-0.218051,0.006938,0.174022,0.873074,0.455476
-0.481071,-0.160333,0.314944,0.081993,0.903216,0.421281
0.229788,-0.166890,0.419490,0.015109,-0.430925,0.902261
-0.214393,-0.132791,0.616739,0.061254,0.997996,0.015843
-0.119476,-0.156922,0.522455,0.892174,0.446787,0.066388
0.770672,-0.269740,-0.010383,0.269317,0.952160,-0.144430
-0.117558,-0.185913,0.432800,-0.220351,0.630004,0.744675
-0.262608,-0.184600,0.467944,-0.543776,0.497496,-0.675873
-0.392863,-0.184600,0.494872,0.824926,-0.495125,-0.272667
0.441267,-0.279052,0.030548,0.503076,0.645158,0.575054
0.408120,-0.290726,0.001151,0.396618,0.182471,0.899666
0.032008,-0.015776,0.654430,0.350066,-0.831958,-0.430465
-0.012504,-0.024695,0.636337,0.138510,-0.986944,-0.082194
-0.069894,-0.032830,0.623876,0.004828,0.951239,0.308418
-0.092085,-0.044111,0.593438,0.065210,-0.366579,0.928099
0.925446,-0.168075,-0.002745,-0.804016,0.154865,-0.574086
0.222532,-0.284560,0.059095,-0.153723,0.652919,0.741665
0.217872,-0.315257,-0.033877,-0.681685,0.135382,0.719011
-0.277263,-0.272094,0.201795,-0.820829,0.487513,-0.297607
0.124735,-0.234584,0.619170,-0.152156,-0.783353,0.602666
0.098849,-0.245729,0.590815,0.284642,0.760983,-0.582995
0.096930,-0.260029,0.547878,0.748107,0.581400,-0.319860
-0.037980,-0.259108,0.578123,-0.757461,0.049783,0.650980
-0.077974,-0.269740,0.554822,-0.694991,-0.415510,-0.586804
0.826282,-0.386226,0.017316,0.589107,0.349551,0.728538
-0.485728,-0.253207,0.688379,0.271123,0.302405,0.913807
-0.050721,-0.316963,0.406297,-0.652679,-0.754662,-0.067041
-0.572975,-0.271310,0.651190,0.045084,0.929606,0.365788
-0.346019,-0.312759,0.480289,-0.476834,0.602435,-0.640079
0.128572,-0.398420,0.123598,-0.763585,-0.472741,-0.439834
0.119121,-0.413112,0.080892,0.911750,-0.080611,0.402758
-0.027982,-0.417179,0.561611,-0.102066,-0.985754,-0.133688
-0.066742,-0.442495,0.495566,0.350361,0.932431,-0.088427
0.485916,-0.554658,0.054620,-0.276608,0.960600,0.027113
0.293616,-0.548092,0.113336,-0.131213,0.989099,-0.066835
-0.467098,-0.470566,0.493367,-0.527748,-0.418580,-0.739102
0.158839,-0.562656,0.097056,-0.081574,0.985656,0.147743
0.312107,-0.695147,0.013496,0.645368,0.439096,-0.625056
0.088575,-0.511367,0.590043,0.588995,-0.806921,-0.044304
-0.121119,-0.516611,0.616354,0.074761,0.881718,0.465815
0.417433,-0.659206,0.096130,0.458771,-0.801078,0.384451
0.341693,-0.810848,0.007362,-0.808535,0.269835,0.522934
0.445238,-0.971537,0.045092,0.731961,0.621565,0.279089
-0.223572,0.231230,0.758166,0.745353,-0.064954,-0.663498
-0.524898,0.249205,0.876330,0.264248,0.917542,0.297137
-0.289865,0.210374,0.707166,0.189330,0.801571,0.567132
0.886000,0.070277,0.028889,0.830285,-0.548525,0.098731
-0.206589,0.174041,0.577698,0.844216,0.140114,0.517365
0.760126,0.069092,0.051881,0.561022,0.787044,-0.256545
-0.315066,0.171542,0.592320,0.593216,0.201111,0.779518
-0.365058,0.163280,0.576966,0.995124,0.098239,0.008823
-0.131117,0.108187,0.356878,0.977730,-0.201722,-0.057894
0.394289,0.033544,0.017470,-0.653792,0.686759,0.317676
-0.134816,0.275698,0.877796,-0.496258,0.559906,0.663501
0.593850,0.201719,0.497071,-0.310466,0.679459,0.664790
-0.172072,0.253008,0.814567,0.798542,0.074109,0.597360
-0.276987,0.250382,0.829381,0.344319,-0.893803,0.287335
-0.100437,0.140061,0.266606,-0.738300,0.527157,0.420736
-0.586125,0.181775,0.494718,0.846302,0.375138,0.378213
0.414423,0.065946,-0.068019,0.022061,-0.999676,-0.012715
-0.900052,0.173776,0.535108,0.010776,0.635129,0.772331
-0.751992,0.141767,0.405679,0.882530,0.456127,0.114404
-0.508738,0.121694,0.477589,-0.050471,0.241799,0.969013
0.467838,0.010197,-0.070218,0.041219,0.480114,0.876237
-0.582288,0.115922,0.475004,-0.131386,-0.972216,-0.193734
-0.754320,0.121038,0.526313,0.088578,0.707905,0.700731
0.195137,-0.004103,-0.058837,0.764055,-0.579132,-0.284300
-0.710218,0.071718,0.364247,0.374581,0.530654,-0.760326
0.151582,0.338405,0.826488,0.258753,-0.926456,-0.273359
0.177878,0.309021,0.729966,-0.412353,0.006657,0.911000
-0.134545,0.328036,0.852566,0.845909,0.480515,-0.231393
0.569468,0.255370,0.483877,0.924908,0.094145,-0.368351
0.476879,0.250774,0.488468,0.526305,0.564484,0.635894
-0.265756,0.300358,0.794699,0.996581,-0.013281,0.081542
-0.247540,0.285010,0.743815,0.938156,-0.323605,-0.123058
0.618227,0.178628,0.237056,0.290923,0.954619,-0.063764
-0.375880,0.257732,0.686450,0.039028,0.913469,0.405033
-0.349308,0.240678,0.628197,0.564863,-0.733447,0.378133
-0.202890,0.210246,0.503706,-0.493589,0.869073,0.032893
-0.008943,0.173904,0.351671,-0.705920,-0.688580,0.165933
-0.066061,0.165906,0.338593,-0.740991,-0.662133,0.111861
-0.108930,0.156066,0.318108,0.982813,0.184104,0.013558
0.345664,0.397956,0.641969,-0.807381,0.092841,0.582681
0.281427,0.390743,0.633906,0.288993,-0.901315,-0.322669
-0.284110,0.435211,0.889717,0.801952,-0.267425,0.534189
-0.299998,0.423409,0.856000,-0.412662,0.890826,0.190103
0.034203,0.375659,0.637610,-0.308204,0.815857,0.489273
-0.263018,0.392841,0.752765,-0.595029,0.584329,-0.551815
-0.133997,0.365291,0.640812,0.209459,0.380346,0.900813
-0.244392,0.363065,0.656591,-0.699603,-0.713250,0.042772
-0.279316,0.353489,0.633521,-0.455629,0.800084,-0.390216
-0.218502,0.333289,0.557985,0.981573,0.168804,0.089556
-0.219188,0.319117,0.513659,0.895755,-0.444065,0.020722
-0.198644,0.302720,0.458724,0.734840,0.572969,-0.362928
-0.197410,0.287900,0.412315,0.848349,0.294872,0.439720
-0.144129,0.267307,0.336972,0.787366,0.400641,-0.468553
-0.684466,0.313345,0.592628,-0.191203,0.180247,-0.964859
-0.093865,0.246707,0.262247,0.905949,0.380402,0.185879
-0.042775,0.226771,0.188756,-0.216899,-0.975462,-0.037808
-0.814310,0.300358,0.579319,0.564108,0.799115,-0.207840
-0.066195,0.214569,0.156620,-0.647727,0.592913,-0.478438
-0.727338,0.246843,0.393682,0.870028,0.355342,0.341737
0.199522,0.137964,-0.138346,0.781777,0.510725,0.357751
-0.788971,0.238708,0.381838,0.689029,0.622449,-0.371209
0.774509,-0.082550,-0.943854,0.737149,-0.001215,-0.675729
0.693424,-0.089371,-0.948290,-0.708047,0.576754,-0.407461
0.605763,-0.095008,-0.948213,0.065200,0.063793,0.995831
0.508927,-0.100252,-0.944972,0.080519,-0.378541,0.922075
0.409901,-0.104976,-0.938183,0.376789,-0.338312,-0.862308
0.606176,0.519431,0.637610,0.129052,-0.445331,0.886017
0.083647,0.530447,0.782470,-0.614448,-0.578400,0.536569
-0.270550,0.539238,0.883930,0.969113,-0.010042,0.246411
-0.091124,0.508277,0.748676,0.910574,0.303473,0.280641
-0.104136,0.496076,0.713994,0.001261,-0.913059,0.407825
-0.220421,0.494506,0.732859,-0.759984,0.649452,0.025236
-0.220149,0.467485,0.647563,0.341685,0.673118,0.655869
0.116793,0.418029,0.420918,0.490472,0.627406,0.604813
0.083647,0.379462,0.306804,-0.362518,-0.927543,-0.090803
-0.162483,0.391664,0.396845,-0.654801,-0.179717,-0.734124
-0.680218,0.434690,0.640426,0.441960,0.880899,0.169375
0.226913,0.334858,0.136251,0.424552,-0.900551,-0.093609
-0.628447,0.414226,0.566395,-0.508902,-0.652614,-0.561350
-0.180565,0.349814,0.269268,0.572131,-0.811741,0.117232
0.222804,0.289605,-0.005523,0.060327,0.992727,0.104180
0.077619,0.291175,0.030239,0.805556,-0.589594,0.058814
0.020777,0.283176,0.016428,-0.135880,-0.898517,0.417377
0.147198,0.252744,-0.104783,0.820545,0.511234,0.255629
-0.852523,0.354145,0.424004,0.752244,-0.010544,0.658800
0.152678,0.237131,-0.155436,0.635864,0.770412,0.046288
-0.866496,0.341023,0.385195,-0.248650,-0.820104,0.515367
0.781218,0.029476,-0.940574,-0.696962,-0.327692,0.637857
0.706845,0.021085,-0.951492,0.114455,0.156470,0.981029
0.608505,0.015833,-0.947750,0.433934,-0.308267,-0.846565
0.512216,0.010717,-0.942696,0.183309,0.459122,0.869255
0.427297,0.004552,-0.944741,0.931204,0.310720,-0.190555
0.014202,0.715540,0.826796,0.054028,-0.861092,0.505571
0.046529,0.700192,0.769431,0.738034,0.215457,-0.639440
-0.241788,0.688254,0.793619,0.543636,0.715974,-0.437997
0.428940,0.610856,0.394916,0.585119,0.230743,-0.777427
0.368264,0.603642,0.384269,0.194149,-0.972677,-0.127298
