-0.063465,-0.111482,0.651536,0.232364,0.443274,-0.865745
0.072927,-0.080731,0.724975,-0.650064,-0.637843,-0.413005
0.056184,-0.071465,0.754623,-0.019882,0.768533,0.639501
0.057788,-0.059371,0.790366,-0.495954,0.797205,-0.344230
-0.050512,-0.312573,0.364380,-0.463344,0.884522,-0.054162
0.025325,-0.264192,0.496463,0.950781,0.149547,0.271389
0.044395,-0.249147,0.537265,0.961996,0.260153,0.082969
0.120232,-0.214407,0.630233,-0.188195,0.294555,0.936920
0.113101,-0.203083,0.664762,0.750474,0.192677,-0.632190
-0.111210,-0.220712,0.639050,-0.396820,-0.405397,-0.823521
-0.034209,-0.198065,0.696363,0.955284,-0.176720,0.237070
0.089811,-0.169246,0.764624,0.947294,-0.037687,-0.318140
0.101601,-0.156250,0.801935,0.771026,0.635282,-0.043995
-0.034791,-0.162681,0.799952,0.840387,0.529409,-0.116080
0.021833,-0.143128,0.849010,-0.441540,0.375833,0.814735
-0.056625,-0.141715,0.862946,0.279366,0.889991,0.360375
0.050507,-0.337403,0.558303,-0.560431,-0.730571,0.390107
0.233621,-0.300346,0.644524,0.329587,-0.941845,0.065580
0.094467,-0.307421,0.640677,0.235136,-0.436302,0.868534
0.130421,-0.289800,0.686747,0.572820,0.776346,0.262990
-0.347892,-0.342931,0.589756,0.985761,0.132159,0.103972
-0.113830,-0.298422,0.690120,-0.825941,0.180051,0.534231
-0.028385,-0.274621,0.749178,0.820722,0.566256,-0.075955
0.121835,-0.242456,0.825517,0.400015,0.556992,-0.727838
-0.307570,-0.485614,0.463235,0.782824,0.558046,-0.275265
0.075543,-0.419997,0.607331,-0.149207,0.965518,-0.213337
0.200874,-0.469665,0.545195,0.582490,0.727603,-0.362352
-0.287336,-0.511606,0.480692,0.904044,0.367526,-0.218240
-0.048762,-0.779861,-0.970831,-0.410177,0.732827,-0.542880
0.048473,-0.772268,-0.991898,0.370008,-0.169801,0.913379
0.302764,-0.760175,-0.975891,0.056720,-0.137433,0.988886
0.222996,0.309617,0.549071,-0.441291,-0.403881,0.801338
0.067392,0.431718,0.596235,-0.078596,0.558445,0.825810
0.320231,0.236156,0.530608,-0.554457,0.437058,0.708208
-0.017760,-0.248244,0.757818,-0.647865,0.171101,0.742291
-0.283552,-0.250811,0.669171,0.766082,0.435189,0.473000
-0.218194,-0.238719,0.606946,0.884665,-0.363980,0.291352
0.018342,-0.226885,0.615616,0.335524,0.376709,0.863431
0.065792,-0.215051,0.548154,-0.104320,0.464607,0.879351
0.131439,-0.167833,0.820546,0.552542,-0.234077,-0.799941
-0.011208,-0.166671,0.755066,-0.149481,-0.762189,0.629860
-0.105386,-0.164228,0.698671,0.741670,0.417490,-0.525002
-0.182097,-0.161142,0.645559,-0.106382,0.332125,0.937217
0.148616,-0.146732,0.674112,0.898007,-0.401422,-0.180118
0.118632,-0.142484,0.631416,0.943352,0.309674,-0.119117
0.063172,-0.133736,0.544870,0.055181,-0.994867,0.084817
-0.419362,-0.136312,0.369232,0.008290,0.999233,-0.038277
-0.325037,-0.128208,0.349023,0.911713,-0.132854,0.388754
0.069866,0.004698,0.524247,-0.417466,0.374811,-0.827791
0.106549,-0.102475,0.818179,0.515104,0.822234,0.242072
-0.005824,-0.100802,0.759949,0.437469,-0.165263,0.883917
-0.022127,-0.096043,0.718880,0.741891,-0.667088,0.067759
-0.070159,-0.092439,0.672929,0.148636,0.988513,-0.027385
0.098834,-0.082529,0.668283,0.700855,-0.005796,-0.713280
0.090975,-0.077511,0.628428,0.667289,-0.637814,-0.384602
-0.063172,-0.076616,0.559250,0.820078,-0.571270,0.033503
0.093450,-0.046375,0.400862,0.634185,0.580075,-0.511198
-0.062448,-0.013960,0.839985,0.643087,-0.337781,-0.687272
-0.029260,-0.008298,0.810486,-0.393718,0.054847,0.917593
0.078017,-0.000319,0.795336,0.655859,0.576416,0.487435
0.021833,0.002766,0.746604,-0.378744,0.703643,-0.601198
0.030713,0.007785,0.711956,0.855885,-0.126845,0.501370
-0.102476,0.008813,0.647572,0.517127,0.826029,0.224177
0.035955,0.017820,0.636801,0.725173,-0.660737,-0.193779
0.013829,0.022068,0.594016,-0.043867,0.963968,0.262375
-0.094471,0.023741,0.534869,0.914189,0.211037,0.346010
0.085587,0.033902,0.533804,0.210469,-0.958079,0.194390
0.201163,0.057319,0.403141,0.358278,0.771134,0.526298
-0.036102,-0.043548,0.839601,0.995370,0.078540,-0.055403
-0.010479,-0.038013,0.808622,0.421949,-0.515672,0.745682
0.067832,-0.030552,0.785987,-0.710198,0.691351,0.132863
0.053421,-0.025919,0.745421,-0.647894,0.715458,0.261445
0.036972,-0.021286,0.704145,0.902763,-0.290628,-0.317103
-0.059681,-0.019103,0.648518,-0.358913,-0.740669,-0.567971
0.016010,-0.012153,0.626830,-0.062060,-0.668852,0.740800
-0.055314,-0.009068,0.574606,-0.682221,0.370325,0.630423
-0.203348,-0.008164,0.507884,0.463959,0.771092,0.436071
-0.186171,0.039949,0.827588,0.511958,0.499122,0.699125
-0.054732,0.048446,0.817173,-0.055684,-0.387890,0.920022
-0.025036,0.054107,0.785543,0.560702,0.827816,-0.018298
0.021540,0.060405,0.756931,-0.094475,0.218266,0.971306
0.013388,0.065038,0.717252,0.002221,0.910244,0.414067
0.010772,0.069546,0.680119,0.275960,0.403068,0.872572
0.053128,0.075459,0.651980,-0.570240,0.278435,0.772852
0.128094,0.082668,0.628576,-0.601858,-0.704753,0.375620
0.044395,0.084725,0.574961,0.911148,0.379977,0.159456
0.096941,0.091290,0.547059,0.486201,0.050360,-0.872394
-0.152402,0.077265,0.836642,0.035799,-0.786213,0.616918
-0.105532,0.083311,0.808237,0.064192,0.591994,0.803382
-0.048180,0.089483,0.783383,0.950799,0.252341,0.179736
-0.004367,0.095404,0.755836,0.081415,-0.565517,0.820708
0.051818,0.101710,0.729147,0.545706,0.462919,-0.698507
0.074526,0.106854,0.696866,0.866792,0.430509,-0.251663
0.034351,0.110325,0.650708,0.745918,0.464341,0.477487
0.056766,0.115735,0.617036,0.678098,0.646478,0.349641
-0.014122,0.118303,0.564517,0.795912,-0.133126,-0.590594
0.043231,0.124609,0.538863,0.096913,-0.009640,0.995246
-0.049637,0.097462,0.850075,0.104447,0.994005,0.032317
-0.104804,0.099904,0.803029,0.353060,0.360009,0.863564
-0.046869,0.106084,0.776696,-0.126986,-0.307893,-0.942909
0.057788,0.113803,0.760984,-0.626290,0.505836,-0.593204
0.055314,0.118043,0.722697,0.718587,-0.514020,0.468419
0.071759,0.122936,0.688019,0.858451,0.486259,0.163141
0.017613,0.125512,0.639582,0.377505,0.924740,0.048434
0.070741,0.131424,0.613574,0.863345,0.295072,0.409350
-0.001022,0.133356,0.562327,0.931995,0.330420,0.149025
0.090975,0.140816,0.542355,0.679766,0.167303,-0.714092
-0.240467,0.119332,0.834186,0.936944,-0.260978,0.232436
-0.108588,0.128079,0.822173,0.325111,0.389766,0.861618
-0.054003,0.134000,0.795100,0.831581,0.375151,0.409555
0.001017,0.140047,0.768559,0.008984,0.341710,0.939762
0.065358,0.146227,0.745006,0.259482,0.885741,0.384878
0.075255,0.150601,0.710595,0.928555,-0.264749,-0.260178
-0.005095,0.152014,0.656626,0.815669,0.578354,0.013792
-0.024747,0.155485,0.616030,-0.516007,-0.762332,-0.390624
-0.004949,0.160378,0.581589,0.871570,0.265584,-0.412105
0.075983,0.167327,0.559279,-0.416128,-0.410480,-0.811384
-0.056771,0.167193,0.494007,-0.581170,-0.481734,-0.655876
-0.170308,0.147899,0.889073,0.936176,0.338397,-0.095197
-0.252985,0.148795,0.837293,-0.747161,-0.085220,-0.659157
-0.150367,0.156899,0.819865,-0.234940,0.914876,-0.328336
-0.072052,0.163338,0.798946,0.815862,0.359273,0.453092
-0.034063,0.168740,0.768796,-0.208046,0.575126,0.791168
0.015427,0.174528,0.740657,0.466349,0.708083,-0.530223
-0.045563,0.176326,0.690741,0.913815,0.195881,-0.355770
-0.002185,0.181603,0.662839,0.816804,-0.461037,-0.346808
-0.015432,0.185208,0.623427,0.929135,-0.367575,-0.039955
0.028821,0.190610,0.593957,0.943888,0.239196,-0.227728
0.050800,0.195369,0.561410,0.478531,-0.632447,-0.609113
-0.108588,0.193955,0.490634,-0.409213,0.825974,-0.387700
0.341486,0.213383,0.542739,0.005295,0.726948,0.686673
-0.092868,0.221102,0.904873,-0.518919,0.802399,-0.294753
-0.065650,0.225861,0.872829,-0.601717,0.700237,0.384194
-0.061719,0.230368,0.836346,-0.518482,-0.076616,-0.851649
-0.032899,0.235253,0.804509,0.996990,0.074601,0.021112
-0.016014,0.239501,0.771666,-0.178510,0.656171,0.733194
0.021398,0.244518,0.742728,0.064499,-0.305908,0.949874
-0.062301,0.245547,0.688374,-0.169204,-0.873350,0.456760
0.233040,0.259572,0.710329,0.609836,0.518709,-0.599200
-0.062155,0.258544,0.972512,0.856820,0.303814,-0.416601
-0.162739,0.258410,0.917300,-0.298282,-0.946648,-0.122008
-0.094613,0.264590,0.894695,-0.275428,0.702340,0.656397
-0.079039,0.268831,0.860283,-0.518843,0.796776,0.309760
-0.028967,0.274752,0.834038,-0.202422,0.396067,0.895632
-0.096217,0.276165,0.783353,0.685122,-0.077653,-0.724278
0.080496,0.286201,0.780572,-0.336278,0.934025,-0.120474
-0.119214,0.282730,0.703730,0.375797,0.878231,0.295783
0.166665,0.296755,0.723584,0.814856,0.367738,-0.448083
0.023432,0.295208,0.658785,-0.012168,0.951121,-0.308580
-0.109024,0.319786,0.972927,0.292570,-0.936488,0.193370
-0.094760,0.327631,0.901293,0.192449,-0.905698,0.377723
-0.201750,0.327247,0.843418,0.789045,0.392444,0.472647
-0.159536,0.332775,0.815753,0.179055,-0.010128,0.983787
-0.116593,0.337792,0.787998,0.305467,-0.872991,0.380232
0.113972,0.349760,0.795277,-0.402747,0.032941,-0.914719
-0.083553,0.425279,0.806698,0.352647,-0.677939,0.645011
-0.450075,0.522165,0.614876,0.943330,-0.295729,-0.150574
-0.366816,0.487551,0.626297,-0.339133,-0.256428,0.905115
0.269141,0.608231,0.521998,0.556103,0.635825,-0.535235
-0.381514,0.619169,0.671006,-0.751655,0.547405,-0.367916
0.249343,0.663686,0.532620,0.416110,0.747664,-0.517544
-0.339159,0.656870,0.695534,-0.725872,0.148240,0.671666
-0.729549,0.776647,0.367753,-0.570251,-0.549630,0.610508
-0.753567,0.729303,0.362841,-0.742916,-0.012075,0.669275
-0.715285,0.851530,0.383760,-0.289774,0.325977,0.899872
-0.330568,-0.275775,0.658933,0.965484,-0.019610,0.259723
-0.523726,0.078034,0.741929,0.922154,0.372323,-0.104916
-0.412956,0.002641,0.726395,-0.797643,0.536599,-0.275366
-0.512811,0.074563,0.664526,-0.634083,0.763539,0.122261
-0.153565,-0.174390,0.702399,0.656605,-0.142344,-0.740681
-0.297962,-0.071205,0.630262,0.759384,0.585279,0.284227
0.074526,-0.327108,0.629848,0.617536,-0.064616,0.783884
-0.677002,0.066067,0.587300,0.839423,0.278836,0.466497
-0.285155,-0.205400,0.632629,0.082502,-0.996490,0.014157
-0.438574,-0.087806,0.391956,0.714123,-0.178502,-0.676879
-0.435371,-0.087932,0.349793,0.446381,0.890259,0.090458
-0.432609,-0.087806,0.307688,-0.765765,-0.336232,-0.548227
-0.382825,0.099904,0.836464,0.967634,0.233535,0.095636
-0.262883,0.018079,0.823150,-0.245909,0.961228,0.124778
-0.141776,-0.064264,0.808355,0.870674,0.486481,0.072548
-0.058663,-0.120096,0.785395,0.993036,-0.107748,0.047643
-0.032459,-0.136179,0.749977,0.335180,-0.726066,0.600402
-0.051383,-0.120615,0.705950,-0.572532,-0.763680,-0.298328
-0.120524,-0.070051,0.651092,0.879434,-0.089721,-0.467489
-0.088066,-0.090508,0.616622,-0.406112,0.190543,0.893737
-0.039739,-0.122153,0.587270,-0.105970,-0.988519,-0.107704
-0.053128,-0.108003,0.499688,0.256873,0.754421,0.604041
-0.042361,-0.104273,0.293900,0.876732,-0.478799,-0.045732
-0.172342,0.173499,0.923248,0.205703,-0.601653,0.771816
-0.123874,0.142748,0.892712,0.194731,0.890845,-0.410458
-0.102041,0.129752,0.857443,0.986803,0.010030,0.161613
-0.086320,0.121264,0.819836,-0.054533,0.191294,0.980017
-0.059827,0.104796,0.786194,0.987681,-0.154330,-0.025873
0.015721,0.054233,0.763233,0.781228,-0.268947,0.563339
0.009315,0.061183,0.720448,0.468576,-0.589397,-0.658064
0.001457,0.069161,0.678284,0.096598,-0.139985,0.985430
0.035226,0.047802,0.644080,0.805455,0.060059,-0.589605
0.048473,0.040978,0.605171,-0.094961,-0.365315,0.926028
-0.013247,0.086523,0.549397,0.942009,-0.146136,0.302098
0.046580,0.046899,0.522382,0.170081,0.952605,-0.252223
0.042796,0.051916,0.480870,-0.446233,0.818431,-0.362003
0.026346,0.066067,0.434623,-0.104269,0.978477,0.178075
-0.023437,0.108141,0.296385,0.566156,0.341091,-0.750416
-0.003203,0.096433,0.257980,0.933514,0.315750,-0.169863
-0.263029,0.124090,0.838299,0.985696,-0.094641,0.139447
-0.140905,0.040978,0.825310,0.215280,-0.060494,0.974677
-0.108735,0.020914,0.791164,-0.561137,-0.774396,-0.292294
-0.064340,-0.007913,0.761339,0.264339,0.505184,0.821531
0.035515,-0.075454,0.742018,0.860150,0.216608,-0.461762
0.004220,-0.051267,0.693670,-0.603048,0.352509,0.715591
0.017466,-0.058217,0.654880,-0.208563,0.494182,0.843970
0.036390,-0.069148,0.618959,-0.122474,-0.643323,0.755735
0.008298,-0.047153,0.572446,-0.516631,0.202842,0.831834
-0.040903,-0.010481,0.519128,-0.370546,0.689411,-0.622421
0.005677,-0.040714,0.489125,0.097255,0.802677,0.588432
-0.015574,-0.021160,0.399146,0.781786,0.608287,0.137108
-0.063465,0.267676,0.938486,0.903330,-0.428342,0.022757
-0.027510,0.246835,0.866822,-0.667283,0.105780,-0.737254
0.050507,0.194340,0.844542,0.921573,0.081066,0.379648
-0.022127,0.247346,0.787673,0.519529,-0.391487,0.759492
0.079621,0.178258,0.770364,-0.123874,-0.509813,-0.851320
0.012953,0.227274,0.713820,-0.642209,0.189429,-0.742755
0.080638,0.184304,0.645678,-0.000309,-0.176322,0.984332
0.046869,0.210163,0.597804,0.520427,0.380899,-0.764246
-0.003496,0.247479,0.546201,0.810333,-0.330883,-0.483608
0.082970,0.189456,0.523389,0.942829,-0.232189,-0.239086
0.292431,0.044841,0.530253,0.840336,0.020105,-0.541693
0.308006,0.036352,0.491610,0.966948,-0.052295,-0.249553
-0.138138,0.232041,0.911767,0.258967,0.689894,-0.676004
-0.070306,0.186747,0.885581,-0.273805,0.938631,-0.209768
-0.031006,0.161406,0.854809,-0.592708,-0.425989,0.683543
-0.050219,0.177104,0.809509,-0.475972,0.839462,0.262210
-0.053568,0.181736,0.767494,-0.444341,0.788221,-0.425756
0.007423,0.141209,0.739592,0.326465,0.933894,-0.145814
0.060697,0.106210,0.711483,0.736212,-0.634117,0.236404
0.115576,0.069931,0.683758,0.394143,0.813995,-0.426688
0.060844,0.110584,0.629848,0.784793,0.025964,0.619215
-0.013682,0.164877,0.572860,0.732422,0.618375,-0.284903
-0.013393,0.167068,0.530934,-0.042616,-0.123619,0.991414
0.148035,0.056290,0.525075,-0.479049,0.871370,0.105951
0.163902,0.047417,0.486433,-0.092057,-0.984428,0.149755
0.099562,0.094761,0.431191,-0.613495,0.630560,0.475414
0.193158,0.281701,0.814421,0.213543,-0.926160,0.310850
0.204512,0.277971,0.734355,-0.710844,0.660569,-0.241558
0.237553,0.256871,0.701718,0.929596,0.198698,-0.310434
0.101601,0.356066,0.589549,0.824174,-0.112388,0.555074
0.228531,0.271406,0.535786,-0.550169,-0.679318,0.485634
0.510625,0.076236,0.557415,-0.190195,-0.415930,0.889285
-0.007716,0.312837,0.863834,-0.544345,0.838595,0.021160
0.024307,0.292506,0.829866,0.529399,0.554019,0.642494
-0.053714,0.349116,0.771547,-0.493454,0.707386,-0.506071
0.151384,0.207847,0.776814,-0.129088,0.510618,0.850062
0.166958,0.201156,0.699233,-0.531673,0.741920,0.408508
0.111791,0.241684,0.646980,0.817790,-0.575193,0.019316
0.160553,0.209653,0.616089,0.930153,0.153323,-0.333627
0.050365,0.288902,0.549279,0.409670,-0.682380,-0.605415
0.108006,0.250691,0.520223,-0.687756,0.099514,0.719088
0.441630,0.019367,0.555107,0.464441,0.500718,-0.730463
0.371906,0.070315,0.498860,0.823857,0.325149,-0.464260
0.248760,0.485878,0.545787,0.844016,-0.367646,-0.390479
0.422706,0.366227,0.542887,0.721507,-0.181696,0.668143
0.260115,0.344483,0.840637,-0.253851,0.919156,-0.301183
0.253567,0.363267,0.553184,-0.608286,-0.067478,-0.790845
0.549343,0.158186,0.577950,-0.033499,0.637189,0.769980
-0.056189,-0.853449,-0.977429,-0.226383,-0.662701,0.713848
-0.064775,-0.952777,-0.991898,-0.131267,0.104940,0.985777
-0.021252,-0.531544,-0.506143,0.060366,0.989378,-0.132239
-0.024019,-0.575032,-0.531797,0.264783,0.961968,-0.067138
-0.019505,-0.554961,-0.573960,0.263473,0.916714,-0.300363
-0.025036,-0.623153,-0.593992,0.297785,-0.910763,0.286068
-0.019505,-0.588413,-0.640061,0.994843,0.038671,-0.093768
-0.023872,-0.648243,-0.663761,0.995891,-0.077884,-0.046216
-0.028092,-0.705104,-0.688083,0.951809,-0.306010,-0.020455
-0.023002,-0.707420,-0.799661,0.846820,0.479540,-0.230083
-0.020088,-0.713216,-0.874432,0.962038,-0.272863,0.005455
-0.016449,-0.713985,-0.952486,0.635239,0.766265,0.096487
-0.020523,-0.769048,-0.976127,0.908438,-0.405360,0.102097
-0.026782,-0.844827,-0.994975,0.331887,0.307926,-0.891646
-0.002474,-0.553673,-0.509576,0.167230,0.979004,-0.116556
-0.000293,-0.546087,-0.548840,0.606749,0.785866,-0.119459
-0.003638,-0.599737,-0.573664,0.263473,0.916714,-0.300363
-0.006406,-0.640649,-0.600146,-0.279198,0.931521,-0.233061
-0.005677,-0.648887,-0.634173,-0.487354,0.863260,-0.131412
-0.005095,-0.657760,-0.669975,0.993290,-0.107534,-0.042572
-0.008880,-0.708842,-0.694149,0.997435,-0.027485,0.066096
-0.006988,-0.737402,-0.802709,0.846820,0.479540,-0.230083
-0.009315,-0.788860,-0.864549,0.967362,0.249947,-0.041693
-0.000000,-0.729039,-0.956303,0.761492,0.626590,0.165875
-0.005530,-0.798896,-0.978198,0.073371,-0.489112,0.869130
-0.013393,-0.888699,-0.995064,0.230706,0.062270,-0.971029
0.072634,-0.568475,-0.587334,0.219285,-0.925405,0.309095
0.072487,-0.583914,-0.621479,-0.655314,0.754285,-0.040219
0.066521,-0.797608,-0.987016,0.164000,-0.027947,0.986064
0.052258,-0.949817,-0.988347,-0.168926,0.334143,0.927261
0.117468,-0.716687,-0.989738,0.110076,-0.396553,0.911388
0.101890,-0.883941,-0.987401,-0.112611,0.008610,0.993602
0.130710,-0.732384,-0.985270,-0.103127,-0.090230,0.990567
0.114554,-0.905299,-0.980891,0.079367,-0.553076,0.829341
0.163174,-0.776641,-0.983554,0.213278,-0.106352,-0.971186
0.150074,-0.917008,-0.987815,0.062506,0.086756,0.994267
0.190831,-0.721830,-0.987578,0.058050,0.165090,0.984569
0.175980,-0.880085,-0.987460,-0.027264,-0.286802,0.957602
0.198400,-0.703431,-0.984501,0.050174,0.198826,0.978750
0.184278,-0.855640,-0.984294,-0.128262,0.216150,-0.967899
0.240902,-0.739074,-0.989235,-0.080086,0.215928,0.973119
0.225328,-0.906203,-0.985122,-0.253839,-0.012596,0.967165
0.310333,-0.704335,-0.983436,-0.229203,0.562238,0.794578
0.295052,-0.869531,-0.981572,-0.403465,0.094905,0.910060
0.351383,-0.813565,-0.981483,-0.113416,0.035524,0.992912
-0.739157,0.482282,0.342839,0.957518,0.008073,0.288259
-0.731588,0.257766,0.642541,0.898615,0.395593,-0.189728
-0.659100,0.311290,0.606532,-0.881791,0.044855,-0.469502
-0.614701,0.544545,0.362486,-0.697299,0.027868,-0.716238
-0.614412,0.180700,0.682811,0.649089,0.344599,-0.678185
-0.612520,0.169510,0.652601,0.688790,0.112087,0.716243
-0.598398,0.267550,0.600111,0.964395,-0.252600,-0.078333
-0.628822,-0.026563,0.626534,0.968775,0.010856,0.247705
-0.633625,-0.193048,0.500073,0.925181,-0.377495,0.039203
-0.563465,0.367130,0.317245,0.164824,-0.187079,0.968419
-0.592868,0.083822,0.343846,-0.316069,0.919233,-0.234759
-0.515432,0.193955,0.754149,-0.543013,-0.755257,-0.367048
-0.517031,0.152273,0.730094,-0.509986,0.673323,-0.535304
-0.511066,0.177614,0.692694,0.949990,-0.041570,-0.309500
-0.503203,0.219814,0.653045,0.485048,0.344660,-0.803703
-0.504514,0.182121,0.629315,0.214934,0.858396,0.465790
-0.507863,0.125763,0.607686,0.867142,-0.180115,0.464353
-0.516596,0.022587,0.597034,0.941194,0.018705,0.337349
-0.520816,-0.042645,0.577417,0.811475,-0.337633,-0.476982
-0.429406,0.733802,0.386157,0.267706,-0.618460,-0.738810
-0.543960,-0.289282,0.562179,0.807553,-0.558835,0.188580
-0.455170,0.399295,0.322690,0.171650,-0.081660,0.981768
-0.483697,0.096174,0.319494,-0.718491,-0.399653,-0.569253
-0.471180,0.201030,0.750392,0.400964,0.406252,0.821089
-0.475986,0.132971,0.732757,0.917532,-0.397602,-0.006953
-0.463463,0.217372,0.683581,-0.686895,0.719029,-0.105705
-0.452402,0.290574,0.637778,0.797715,0.602922,-0.011657
-0.464774,0.154197,0.632452,-0.127441,0.653719,0.745929
-0.458662,0.181344,0.594283,-0.640070,0.768316,0.000693
-0.463610,0.109940,0.575731,0.294559,-0.439839,0.848396
-0.471180,0.017569,0.562860,-0.207290,0.973837,-0.093124
-0.492142,-0.213762,0.545550,0.202763,0.641677,0.739688
-0.421254,0.389259,0.389737,-0.510293,-0.191169,-0.838484
-0.444687,0.151496,0.405153,0.977824,-0.038106,0.205932
-0.414556,0.388489,0.322423,0.899787,0.327130,-0.288738
-0.420672,0.308204,0.305173,-0.127570,0.351233,0.927557
-0.445855,0.060405,0.324406,0.503850,0.856499,-0.112005
-0.456623,-0.060016,0.317245,0.891675,-0.141003,0.430155
-0.406844,0.499259,0.719412,0.949744,-0.077960,-0.303164
-0.440902,0.170798,0.753084,0.221605,0.731461,0.644869
-0.442794,0.127436,0.729354,-0.286539,-0.245746,0.926015
-0.433772,0.182373,0.686096,-0.538989,-0.045579,0.841079
-0.423147,0.253007,0.639405,0.794505,0.461041,-0.395225
-0.432609,0.143518,0.629966,-0.199570,0.948622,0.245537
-0.428677,0.153812,0.596413,0.502058,0.744891,0.439403
-0.428095,0.134385,0.567475,0.243015,0.780178,0.576426
-0.438139,0.018982,0.559279,0.386097,-0.908996,0.157020
-0.446872,-0.083306,0.547414,-0.651450,-0.281631,0.704483
-0.440320,-0.049980,0.507618,0.828283,-0.401708,0.390613
-0.430423,0.017694,0.460513,0.941934,-0.296468,-0.157694
-0.429406,0.005602,0.431132,0.982976,0.179703,-0.038279
-0.389666,0.328786,0.331862,0.982020,0.132852,-0.134114
-0.388502,0.313481,0.300735,0.808196,0.505265,0.302535
-0.413684,0.063884,0.320471,0.202916,0.711227,0.673039
-0.392722,0.049733,0.840755,0.639556,0.562098,0.524417
-0.338865,0.509939,0.718051,0.138524,0.363018,0.921428
-0.345853,0.421683,0.703020,-0.205865,-0.914557,-0.348146
-0.359246,0.277193,0.700535,0.355787,0.243177,0.902375
-0.366816,0.184823,0.687664,-0.199242,0.296543,0.934005
-0.363031,0.194081,0.653371,0.125017,0.992042,-0.014943
-0.367539,0.130011,0.634789,-0.607929,0.097582,-0.787972
-0.363466,0.142238,0.599638,-0.530184,0.843473,0.086367
-0.361574,0.133231,0.568511,0.031394,-0.192726,0.980750
-0.363031,0.095145,0.543213,0.979442,-0.012182,0.201357
-0.360699,0.092059,0.512145,-0.189343,0.894294,0.405448
-0.343668,0.220332,0.453885,-0.715833,0.681338,-0.152848
-0.380497,-0.178512,0.437375,0.997966,0.060286,-0.020709
-0.326494,0.283633,0.307511,-0.451635,-0.875745,0.170575
-0.340469,0.127051,0.306268,-0.426214,0.648693,-0.630507
-0.346870,0.046773,0.290527,-0.102921,0.283937,0.953303
-0.346288,0.026183,0.262240,0.873899,-0.377609,0.306125
-0.344396,0.121648,0.820072,0.817103,0.251212,0.518879
-0.309028,0.420779,0.729088,0.891955,0.443075,-0.090008
-0.306114,0.424251,0.697310,0.291540,0.631123,-0.718810
-0.331878,0.166290,0.715654,-0.355173,-0.180265,-0.917255
-0.333624,0.125896,0.691333,-0.421976,0.889529,-0.175140
-0.325765,0.175431,0.648873,0.555805,0.698933,0.450081
-0.330714,0.106210,0.631327,-0.065350,0.583334,0.809599
-0.328675,0.102606,0.600585,-0.468281,0.356679,0.808389
-0.323438,0.126156,0.563008,-0.377145,0.883362,-0.278267
-0.330279,0.040334,0.548775,-0.321548,0.838185,0.440515
-0.342362,-0.092950,0.543006,-0.251380,0.804026,0.538842
-0.318489,0.098876,0.470455,-0.670641,0.709628,0.216029
-0.284573,0.381925,0.378523,0.343025,-0.915966,0.208183
-0.260990,0.571567,0.306653,-0.254069,0.711343,-0.655317
-0.341775,-0.176062,0.429682,0.991629,-0.002307,0.129098
-0.294324,0.227534,0.311831,0.687513,0.261050,0.677628
-0.317032,0.005083,0.325974,-0.628616,-0.633268,0.451458
-0.327658,-0.120615,0.318488,0.668963,0.613772,-0.419252
-0.303639,0.070834,0.244073,0.724769,-0.546999,0.418930
-0.306553,-0.002251,0.192382,0.884552,0.058301,0.462785
-0.265503,0.224832,0.843033,0.718425,-0.638026,0.277107
-0.279185,0.080995,0.839305,0.770392,-0.594338,0.230777
-0.271762,0.121782,0.799153,0.809947,-0.567969,0.146278
-0.267396,0.137346,0.764002,0.103813,-0.898752,-0.425990
-0.257934,0.200520,0.720359,0.587967,0.307121,-0.748312
-0.262012,0.141075,0.701008,-0.546543,0.549499,-0.631935
-0.260261,0.132713,0.670148,0.816664,-0.430758,-0.384066
-0.249201,0.212228,0.622776,-0.357949,0.501330,-0.787744
-0.265939,0.035449,0.625735,0.832578,-0.420156,-0.360948
-0.258227,0.082023,0.583483,0.814252,0.364978,-0.451426
-0.251528,0.120235,0.542650,-0.339597,0.940470,0.013776
-0.276858,-0.133862,0.562889,-0.622260,0.735436,-0.268191
-0.254731,0.043679,0.494717,0.820391,0.492940,0.289775
-0.235079,0.198455,0.429475,0.059126,-0.787984,0.612850
-0.199129,0.500932,0.334466,0.985073,0.168572,-0.034864
-0.201167,0.458865,0.309286,0.325806,0.891398,-0.315057
-0.225910,0.190736,0.297362,-0.231518,0.010808,-0.972770
-0.255752,-0.096938,0.325323,0.838343,-0.326313,0.436693
-0.249347,-0.066706,0.286326,0.814205,0.507392,0.282176
-0.257205,-0.162296,0.272537,-0.749972,-0.562957,0.347305
-0.238863,-0.021035,0.209602,-0.572640,-0.528089,-0.627061
-0.241631,-0.094496,0.156580,0.636703,-0.721350,0.272513
-0.244105,-0.165516,0.104031,0.788555,0.596485,0.149621
-0.243524,-0.183145,0.074324,0.998070,-0.011052,0.061103
-0.229406,0.203347,0.920230,0.837527,0.142909,0.527376
-0.224453,0.205923,0.856170,-0.011538,0.822540,0.568590
-0.225621,0.179161,0.830695,-0.150516,0.137146,0.979049
-0.231005,0.114573,0.812587,-0.055020,0.826107,0.560821
-0.228531,0.109555,0.781371,-0.348256,-0.871776,0.344565
-0.214410,0.219555,0.728555,0.331503,-0.335676,0.881719
-0.220962,0.136191,0.712873,-0.079458,-0.640737,0.763637
-0.221543,0.108785,0.685770,0.078377,-0.210384,0.974472
-0.212810,0.167712,0.641417,0.765377,0.603994,0.222237
-0.216013,0.116764,0.620172,-0.654442,-0.403023,-0.639748
-0.252110,-0.236017,0.660117,-0.672096,0.340006,0.657786
-0.204952,0.174528,0.543982,-0.422117,0.885836,-0.192647
-0.224746,-0.027207,0.553302,0.934596,0.326922,0.140185
-0.216013,0.029913,0.508565,0.052243,-0.563617,0.824383
-0.189520,0.251076,0.429622,0.755670,0.594095,-0.275706
-0.207568,0.062596,0.435185,0.053864,0.650663,0.757454
-0.183408,0.261629,0.361510,0.684069,0.437871,0.583368
-0.181369,0.236156,0.300706,0.320020,0.597611,-0.735152
-0.188938,0.151629,0.285941,-0.357166,0.727405,0.585930
-0.195632,0.043554,0.240670,-0.478503,0.270970,-0.835230
-0.211500,-0.123575,0.241676,0.041204,0.998887,0.022967
-0.202038,-0.058343,0.194897,0.847654,0.115717,-0.517776
-0.204952,-0.108262,0.172528,-0.689850,0.300379,-0.658695
-0.204223,-0.122931,0.141135,0.284422,-0.954815,-0.086210
-0.206987,-0.170919,0.118233,0.330499,0.888773,-0.317575
-0.207134,-0.195882,0.088822,0.598355,0.798596,0.064926
-0.186171,-0.028236,0.017395,0.944316,-0.179757,0.275597
-0.210483,-0.271786,0.035711,0.533721,-0.843418,-0.061544
-0.158661,-0.158441,0.058168,0.467641,-0.798138,-0.379852
-0.164191,-0.232805,0.039528,0.748187,-0.662585,-0.034603
-0.158372,-0.200508,-0.001275,-0.636367,0.768210,0.069932
-0.137556,-0.097323,-0.164426,-0.493421,-0.866275,0.078128
-0.178748,0.251076,0.921413,0.354712,0.862995,0.359749
-0.187046,0.154716,0.909696,0.649702,0.579240,0.492309
-0.180934,0.190995,0.870817,-0.557231,0.817264,0.146879
-0.176567,0.211326,0.836139,0.572882,0.613188,-0.543881
-0.179476,0.167193,0.812735,0.701285,-0.074850,-0.708941
-0.189085,0.058348,0.802112,0.715016,-0.639120,0.283332
-0.178313,0.141845,0.753380,0.836242,0.251787,-0.487137
-0.182097,0.082927,0.734029,0.280332,-0.206436,0.937442
-0.172200,0.153946,0.688759,0.730304,-0.631655,-0.260131
-0.186899,-0.002251,0.687516,-0.603341,-0.729254,-0.322752
-0.174821,0.088196,0.637985,-0.056463,0.985599,0.159393
-0.186171,-0.038013,0.630736,-0.091443,-0.992767,0.077799
-0.192288,-0.114434,0.613426,0.766105,-0.136204,-0.628118
-0.171036,0.061308,0.544811,0.372796,0.538141,0.755928
-0.177878,-0.023218,0.530253,-0.179849,0.968064,-0.174663
-0.147453,0.237443,0.444772,-0.111694,-0.454509,0.883711
-0.167540,0.031335,0.453796,-0.698972,-0.641095,-0.316916
-0.152841,0.145709,0.397904,-0.484277,-0.826944,-0.285726
-0.152841,0.125378,0.368522,0.130769,0.978209,0.161267
-0.135082,0.265619,0.305173,0.774685,0.259004,-0.576871
-0.138719,0.211326,0.282538,0.217722,0.170921,0.960928
-0.146289,0.109940,0.238422,0.159360,0.128895,0.978770
-0.137556,0.192801,0.962659,-0.628599,-0.771303,-0.099781
-0.130422,0.238472,0.922212,0.395211,0.676539,0.621373
-0.137121,0.156773,0.905968,-0.412287,-0.526291,-0.743665
-0.130715,0.197685,0.866319,-0.231392,0.741058,0.630310
-0.130715,0.177229,0.839542,0.282691,0.364668,-0.887188
-0.130715,0.158964,0.812379,0.778533,-0.230321,0.583814
-0.143815,0.021040,0.807497,0.794641,0.592913,0.130384
-0.135952,0.080861,0.764712,-0.651806,0.227178,0.723560
-0.132754,0.085753,0.731396,0.317781,-0.855492,-0.408837
-0.128676,0.105181,0.694972,0.472852,0.848262,0.238460
-0.143086,-0.050365,0.693730,0.457028,0.660706,0.595478
-0.135082,0.005602,0.651152,-0.558559,-0.827604,0.055522
-0.143815,-0.096428,0.640352,0.944229,0.327988,-0.029234
-0.145854,-0.135668,0.615586,0.128150,-0.439925,-0.888844
-0.121982,0.067999,0.542384,0.774601,0.549591,-0.312958
-0.132025,-0.046760,0.532857,0.342000,-0.453879,0.822818
-0.128530,-0.034023,0.496995,0.343438,0.659728,0.668438
-0.113102,0.089868,0.438085,0.573884,0.808927,0.127652
-0.105386,0.141845,0.394945,0.802388,0.530642,-0.273118
-0.101748,0.155870,0.359705,-0.324592,0.945438,0.028070
-0.088937,0.255583,0.304937,-0.559801,-0.779943,-0.279842
-0.097963,0.150342,0.294285,-0.215532,-0.855223,0.471317
-0.105532,0.059636,0.279254,0.874445,0.215637,-0.434565
-0.114119,-0.035696,0.265347,0.937942,-0.036044,0.344915
-0.105968,-0.082529,0.072489,0.936585,-0.168336,-0.307362
-0.114848,-0.186616,0.060269,0.306383,-0.933737,0.185109
-0.110916,-0.170149,0.021538,0.831819,-0.554718,-0.019108
-0.116451,-0.242064,0.003696,-0.036615,-0.893252,-0.448062
-0.116740,-0.265355,-0.025094,-0.242559,0.970136,-0.000649
-0.116740,-0.286455,-0.055688,-0.030760,-0.959292,0.280735
-0.104515,-0.194595,-0.110220,0.639539,-0.761166,0.107775
-0.112085,-0.286070,-0.125073,0.726007,-0.644365,0.240225
-0.105679,-0.267797,-0.200731,0.864983,0.490149,0.107507
-0.106261,-0.060534,0.536644,0.843051,-0.137665,-0.519917
-0.100148,-0.021679,0.495487,0.357809,0.731499,0.580415
-0.084570,0.108526,0.436428,-0.134106,-0.573911,0.807862
-0.076418,0.166550,0.390832,0.503970,-0.780898,-0.369070
-0.074966,0.160503,0.358373,0.030481,0.109401,0.993530
-0.065504,0.230494,0.309907,-0.402415,-0.908534,0.112380
-0.070159,0.169125,0.289965,0.264897,-0.781917,0.564300
-0.083259,0.025924,0.287361,-0.128015,0.211704,0.968914
-0.085592,-0.013826,0.261678,0.672467,-0.274942,0.687164
-0.081807,-0.087421,0.073969,0.995640,-0.001451,-0.093266
-0.082678,-0.114049,0.044735,0.913428,0.249567,-0.321505
-0.080061,-0.109032,0.009850,0.955398,0.287615,0.067027
-0.085592,-0.179800,-0.008909,-0.224386,0.955891,-0.189534
-0.088795,-0.248888,-0.064150,0.102869,0.983243,-0.150504
-0.085592,-0.237305,-0.100781,0.976833,0.213664,-0.012015
-0.087631,-0.275650,-0.126375,0.731517,-0.599512,0.324759
-0.086609,-0.304853,-0.190493,0.847177,0.528661,0.052992
-0.089812,-0.353996,-0.215318,0.863006,0.491088,0.118545
-0.090687,-0.382430,-0.244966,0.977910,0.159413,-0.135204
-0.086462,-0.382689,-0.316185,-0.744027,-0.665726,0.056867
-0.085445,-0.391696,-0.349236,0.827102,-0.547426,0.127388
-0.103933,0.226638,0.955558,0.935942,0.055668,0.347726
-0.093890,0.305118,0.910051,0.456837,-0.556369,0.694085
-0.110481,0.128983,0.912448,0.129008,0.651059,0.747984
-0.099855,0.211970,0.865698,0.072841,-0.991995,0.103151
-0.099127,0.201549,0.835665,-0.171794,0.135314,-0.975796
-0.102765,0.147899,0.814155,0.582953,0.793618,0.174172
-0.115283,0.011389,0.808977,-0.723452,-0.586251,-0.364592
-0.112809,0.022068,0.776045,0.980821,-0.148876,-0.125805
-0.107425,0.061049,0.737343,-0.278750,0.814214,0.509267
-0.100290,0.105440,0.695949,0.500109,0.845735,0.186071
-0.119507,-0.095140,0.705062,0.687524,0.718643,-0.104227
-0.109752,-0.020132,0.657306,0.308761,-0.067152,0.948766
-0.111063,-0.051652,0.630943,-0.581227,-0.056825,-0.811755
-0.120524,-0.160883,0.620409,0.285620,0.859271,0.424352
-0.095924,0.055136,0.544663,0.174715,0.690948,0.701474
-0.062737,0.153687,0.913957,-0.496445,0.427146,0.755704
-0.049201,0.267935,0.861023,-0.632016,0.601423,-0.488719
-0.051822,0.227274,0.838299,-0.518482,-0.076616,-0.851649
-0.056771,0.161532,0.819126,0.488915,0.279449,0.826360
-0.074237,-0.021286,0.824333,-0.619674,-0.517533,-0.590053
-0.070306,-0.000186,0.788117,-0.323680,-0.922084,0.212114
-0.065504,0.033258,0.749119,-0.689057,0.460151,0.559876
-0.059534,0.080610,0.707222,0.588745,0.723397,-0.360660
-0.078311,-0.121384,0.716542,0.856398,0.378059,-0.351646
-0.068560,-0.044318,0.669763,0.810124,0.571044,-0.132697
-0.060698,0.013446,0.625410,-0.508252,0.860879,0.023803
-0.073362,-0.124604,0.621918,-0.635972,0.638263,0.433774
-0.054878,0.035834,0.556646,-0.705106,0.501915,0.500906
-0.058370,-0.014855,0.534011,-0.601597,0.718836,0.348362
-0.061284,-0.059246,0.510044,0.915911,0.209151,-0.342583
-0.043960,0.089358,0.447376,-0.303648,0.923937,-0.232675
-0.037119,0.138500,0.404591,0.130005,-0.063319,0.989489
-0.032605,0.163589,0.365652,-0.026215,0.080753,0.996389
-0.028967,0.181478,0.329377,0.944673,0.318665,-0.077752
-0.026782,0.184046,0.294995,0.994330,-0.102684,0.027641
-0.041486,0.026568,0.293989,0.849534,0.262457,-0.457611
-0.038136,0.041496,0.256678,0.598540,-0.037608,0.800210
-0.045123,-0.037368,0.240552,-0.341340,0.874525,-0.344517
-0.034498,0.047668,0.189364,0.807541,-0.509866,0.296502
-0.046287,-0.329166,-0.248457,-0.713401,-0.684200,0.151425
-0.054150,-0.420900,-0.262245,0.996692,0.055026,0.059811
-0.048762,-0.387582,-0.306332,0.728164,0.673869,-0.125209
-0.047162,-0.392081,-0.342253,0.570344,0.817139,0.083620
-0.047309,-0.411249,-0.374445,0.987648,0.102119,0.118843
-0.047598,-0.431964,-0.404951,0.990755,0.025798,-0.133187
-0.051094,-0.482143,-0.428829,0.965965,-0.252408,0.056591
-0.052258,-0.511348,-0.459039,-0.485150,0.846813,-0.218032
-0.049348,-0.502081,-0.496882,-0.047756,-0.983680,0.173475
-0.017907,0.212739,0.891499,0.403807,0.907237,0.117733
-0.018195,0.195502,0.862858,0.010997,-0.591200,0.806450
-0.023872,0.124734,0.844809,0.972197,-0.016254,-0.233599
-0.034063,0.011648,0.834985,0.712999,-0.643887,-0.277565
-0.019799,0.134903,0.779714,0.809655,-0.088040,0.580266
-0.038136,-0.057573,0.787022,-0.211585,-0.096233,0.972610
-0.022562,0.083696,0.726484,0.286386,0.844878,0.451846
-0.033334,-0.031196,0.718761,-0.078776,-0.309209,0.947726
-0.036244,-0.078925,0.695860,0.109472,-0.949579,-0.293794
-0.023437,0.028500,0.641654,-0.416695,0.889105,0.189360
-0.025765,-0.007521,0.616267,0.639630,0.333648,-0.692498
-0.027075,-0.036858,0.590732,0.003102,-0.998109,0.061391
-0.020381,0.013320,0.548420,-0.045305,0.323878,0.945014
-0.018195,0.019108,0.513979,0.688775,-0.191460,-0.699237
-0.014122,0.042650,0.477142,-0.140715,0.854449,-0.500116
0.001310,0.177488,0.415805,0.380474,0.355386,-0.853780
-0.007569,0.075459,0.403318,-0.521170,-0.131253,-0.843300
-0.003349,0.098876,0.364794,0.409802,0.681943,0.605819
-0.009608,0.025029,0.347751,0.955526,-0.033231,0.293029
0.001457,0.115735,0.296001,0.153324,0.187841,-0.970158
-0.009897,-0.009970,0.288426,0.975145,0.015393,-0.221032
-0.007716,-0.005338,0.254577,-0.378339,0.697543,-0.608517
-0.009173,-0.317591,-0.337075,0.463447,0.885466,0.034171
-0.014850,-0.388092,-0.357461,0.915177,-0.381355,0.130455
-0.014410,-0.400703,-0.389890,0.996797,0.071765,0.035279
-0.018777,-0.459245,-0.413058,0.932322,0.220870,-0.286342
-0.024454,-0.546857,-0.466732,-0.313066,0.942203,-0.119345
0.012224,0.232041,0.910465,0.889474,0.362249,-0.278587
0.021105,0.305628,0.865580,-0.689852,0.660584,0.296199
0.017760,0.260727,0.843477,-0.703414,-0.468315,-0.534687
0.010043,0.171827,0.828890,0.975311,-0.133310,-0.176059
-0.013247,-0.069792,0.845785,0.877019,-0.153234,-0.455365
0.000729,0.054618,0.788975,0.899825,0.436238,0.003258
-0.005242,-0.018074,0.771252,0.815750,-0.327027,-0.477080
-0.005530,-0.029908,0.741308,-0.504588,-0.859371,0.082903
-0.007569,-0.057055,0.715566,-0.521005,0.808782,-0.272811
-0.005388,-0.054739,0.683817,0.831646,0.362742,-0.420456
0.006406,0.047158,0.630499,-0.145594,0.330350,0.932562
-0.002474,-0.052422,0.619196,0.231412,0.601328,0.764757
-0.001022,-0.052171,0.586175,0.721471,-0.210363,0.659718
0.011354,0.055906,0.531052,0.264911,0.689363,-0.674241
0.008880,0.018205,0.505547,0.391718,0.277891,-0.877117
0.007276,-0.011125,0.479627,-0.281345,0.949875,0.136319
0.016885,0.069027,0.430925,-0.038130,0.998509,-0.039053
0.020816,0.093857,0.392045,-0.736061,0.424868,-0.526974
0.022562,0.096692,0.359054,-0.202274,0.771961,0.602629
0.018195,0.040852,0.336892,0.874935,0.257789,-0.409920
0.007423,-0.078289,0.328075,-0.309171,0.087604,0.946963
0.014992,-0.018844,0.281355,0.879138,-0.383407,0.283046
0.016449,-0.017556,0.248215,-0.510762,0.727595,-0.457961
0.022562,-0.222251,-0.368971,0.967202,-0.177528,0.181670
0.012224,-0.338432,-0.378824,0.964408,-0.224310,0.140010
0.003785,-0.447662,-0.424361,0.981790,0.053695,-0.182222
-0.000729,-0.521642,-0.479810,-0.221371,0.966203,-0.132083
0.078892,0.017569,0.661656,-0.042609,0.858080,0.511745
0.064775,-0.133092,0.659466,0.775541,0.042582,-0.629860
0.068849,-0.105820,0.622540,0.930167,0.163592,-0.328676
0.085445,0.044582,0.560078,0.547315,0.730742,0.407998
0.083695,0.014349,0.533242,0.104521,0.989388,0.100931
0.076565,-0.067350,0.518063,-0.531189,0.019871,0.847021
0.085734,0.008562,0.469064,0.068989,0.848388,0.524860
0.090975,0.047802,0.427463,0.266376,-0.487947,0.831235
0.088354,0.008813,0.401898,0.602932,-0.314966,-0.732986
0.082531,-0.059112,0.383820,0.887172,0.411846,0.208108
0.099855,0.096433,0.318547,0.918382,0.384075,0.095187
0.085880,-0.053325,0.316151,0.165770,0.941836,0.292345
0.096070,0.034287,0.264814,-0.465909,-0.791722,0.395101
0.094031,-0.019747,0.173120,0.874105,-0.366562,0.318704
0.079039,0.101066,0.867473,0.540639,-0.278900,-0.793678
0.085880,0.157543,0.824392,0.229689,0.137175,0.963549
0.087044,0.156773,0.793650,0.289730,0.904407,-0.313218
0.070013,-0.025275,0.798798,-0.372775,0.908476,-0.188971
0.074237,0.003929,0.760718,0.562596,0.004826,-0.826718
0.063607,-0.107359,0.751871,-0.169129,0.945929,-0.276793
0.067103,-0.079702,0.713909,0.859871,0.298739,-0.413978
0.144396,0.265619,0.820516,-0.327391,0.942987,-0.059921
0.134935,0.160378,0.809154,0.909509,0.397433,-0.121824
0.125473,0.052945,0.798147,0.953938,-0.170591,-0.246779
0.124598,0.033777,0.769624,0.369424,0.869023,0.329129
0.116300,-0.060016,0.757463,0.218958,-0.379315,-0.898987
0.117321,-0.056411,0.725596,0.592023,0.187790,-0.783737
0.121688,-0.020775,0.685859,-0.513549,-0.271701,0.813908
0.114701,-0.106071,0.671745,0.792588,-0.105266,-0.600602
0.128382,0.017820,0.613900,0.976721,0.214063,-0.013922
0.111933,-0.156894,0.616651,0.779646,0.549339,0.300631
0.130568,0.015119,0.548332,0.838429,-0.544642,0.020041
0.133189,0.029662,0.513447,0.150974,0.404318,0.902072
0.138280,0.069027,0.473295,-0.250280,0.967690,-0.030576
0.140319,0.076362,0.438322,0.668085,-0.179761,-0.722045
0.133189,-0.006107,0.423231,0.434130,-0.129018,0.891564
0.143375,0.082149,0.370978,-0.089033,0.862878,0.497509
0.129404,-0.067475,0.368670,0.794228,0.599480,0.099127
0.125038,-0.122413,0.346331,-0.171058,-0.738921,-0.651716
0.138427,-0.001859,0.288189,0.689018,0.675656,0.262189
0.141629,0.016532,0.251263,0.287649,0.926756,0.241623
0.131004,-0.099774,0.241765,0.628157,0.551080,-0.549299
0.121253,-0.202824,0.231084,0.819107,0.357806,-0.448373
0.168993,0.261629,0.821522,-0.345749,0.374792,-0.860226
0.146871,0.018598,0.806905,-0.740185,0.193003,0.644108
0.149927,0.040082,0.770423,0.209800,0.875811,0.434671
0.140465,-0.065159,0.759179,-0.154246,0.244920,0.957195
0.144250,-0.031840,0.720152,-0.497300,0.474158,0.726545
0.141629,-0.062717,0.694795,0.763514,-0.193213,0.616211
0.133478,-0.160498,0.683137,0.772710,0.076492,0.630134
0.158660,0.083052,0.600940,0.898905,0.157963,0.408677
0.155022,0.025539,0.547858,-0.250875,0.927428,0.277378
0.162591,0.092319,0.500931,0.191300,0.872920,-0.448793
0.163755,0.093732,0.467170,-0.018204,0.756329,0.653938
0.170885,0.134518,0.360178,-0.294356,0.955506,-0.019067
0.148035,-0.115212,0.346360,0.470148,-0.843608,-0.259395
0.164484,0.039305,0.279668,-0.695385,-0.598497,0.397796
0.159242,-0.023218,0.258630,0.820218,0.445020,-0.359443
0.150509,-0.121384,0.246677,0.357967,-0.891754,0.276830
0.144685,-0.184684,0.227326,0.651588,0.480640,-0.586872
0.221832,0.318624,0.833742,-0.346819,0.931259,-0.111686
0.216013,0.250824,0.814924,0.044226,0.131656,0.990308
0.180347,-0.129103,0.828268,0.188415,-0.913896,-0.359574
0.203490,0.099134,0.750628,-0.652162,-0.001852,-0.758078
0.202909,0.091800,0.720862,0.350159,-0.846459,0.401118
0.192430,-0.032609,0.680710,0.815172,-0.578708,0.024311
0.179036,-0.175811,0.677071,-0.272655,-0.065855,0.959855
0.226781,0.300359,0.548598,0.506183,0.109308,-0.855471
0.204948,0.063107,0.532058,-0.403281,0.525892,-0.748868
0.207422,0.079448,0.496700,-0.237804,-0.962540,0.130253
0.204077,0.037892,0.471875,-0.082469,0.670440,-0.737366
0.206987,0.041755,0.371422,-0.119230,0.920499,0.372110
0.195339,-0.085231,0.365623,0.802420,0.582795,-0.128346
0.193593,-0.109935,0.337011,-0.646266,0.092363,-0.757502
0.202038,-0.034156,0.288101,0.698401,0.703116,0.133656
0.195197,-0.119845,0.237711,0.246057,0.716106,-0.653183
0.215284,-0.097072,0.830133,-0.226816,-0.882300,-0.412433
0.240902,0.162309,0.746338,0.313626,-0.945494,-0.087637
0.241049,0.163982,0.714856,0.794476,0.607002,0.018881
0.230712,0.043554,0.674793,0.162247,-0.122166,0.979158
0.261861,0.351692,0.547562,-0.863866,0.498296,0.073735
0.239738,0.109296,0.530815,-0.357620,-0.328708,0.874105
0.232751,0.031335,0.514838,-0.104358,0.571686,0.813808
0.237699,0.076362,0.473532,0.133625,0.990425,0.034681
0.233621,0.027212,0.450127,-0.311687,-0.903416,0.294433
0.225910,-0.078674,0.338697,0.059397,0.943128,0.327079
0.228531,-0.058987,0.301741,0.669819,0.731236,0.128982
0.224453,-0.107234,0.279550,0.982008,0.024380,-0.187258
0.224453,-0.112762,0.246529,-0.012588,0.894396,0.447099
0.215867,-0.201410,0.232622,-0.347241,-0.937642,0.015848
0.222561,-0.281563,0.222977,0.023616,0.708284,-0.705533
0.249782,0.072891,0.803651,-0.352911,0.710643,-0.608638
0.259968,0.175297,0.752315,0.065751,0.962958,-0.261513
0.259386,0.172470,0.720389,0.824253,0.441405,0.354638
0.258516,0.164107,0.689350,-0.681749,-0.435247,0.588029
0.282969,0.401996,0.544988,0.967105,-0.193103,-0.165585
0.256912,0.119332,0.537709,-0.176519,-0.651846,0.737522
0.250071,0.044456,0.519779,-0.280179,-0.389507,-0.877373
0.259244,0.135932,0.467585,-0.049316,0.228409,0.972315
0.247743,0.010101,0.460099,0.242546,0.841799,-0.482230
0.244394,-0.034023,0.404768,-0.154673,0.390554,0.907493
0.255019,0.073661,0.348313,0.327514,0.521248,-0.788058
0.233479,-0.166160,0.298279,0.997790,0.032102,-0.058183
0.229255,-0.212349,0.240966,-0.357609,-0.639275,0.680766
0.318925,0.227274,0.793088,-0.050968,-0.952912,0.298933
0.320670,0.241558,0.759061,0.112400,-0.587260,0.801556
0.313389,0.166424,0.710388,-0.731655,-0.659850,-0.171111
0.339882,0.439179,0.557889,0.719052,0.552666,-0.421336
0.329839,0.330458,0.546793,0.145189,0.978917,-0.143673
0.315428,0.175297,0.546615,-0.239931,-0.620638,-0.746486
0.309898,0.114188,0.527205,0.994187,-0.070934,0.081003
0.303346,0.038920,0.477378,0.501952,0.864625,-0.021634
0.307131,0.071344,0.370031,-0.221831,0.533822,0.815981
0.281366,-0.211572,0.229249,-0.273430,0.863128,-0.424555
0.366229,-0.019873,0.532768,-0.434466,0.711018,0.552895
0.379911,-0.485748,0.413763,0.739300,-0.537810,0.405211
0.504220,0.046388,0.581559,-0.411803,0.682060,0.604328
0.490832,-0.098227,0.547562,0.822228,0.431876,0.370707
0.583988,0.124868,0.471076,0.391497,-0.541289,-0.744134
0.624456,-0.089094,0.643636,-0.853618,0.299691,-0.426054
0.638866,0.069546,0.479450,0.379069,0.176008,-0.908475
0.710771,0.057963,0.490279,-0.038109,-0.890769,0.452855
0.771909,0.039564,0.473739,0.578415,-0.006433,0.815717
0.755606,-0.138236,0.478621,-0.191564,-0.672235,0.715125
0.856478,0.003929,0.498534,-0.247961,-0.621320,0.743288
0.952691,0.136317,0.556942,0.589374,-0.702745,-0.398482
0.509027,-0.086778,0.553332,0.880015,0.467525,0.083632
0.394614,0.228696,0.793679,-0.451133,-0.473057,-0.756767
0.264481,0.046639,0.796727,-0.552302,0.833630,-0.004963
0.194615,-0.056670,0.785483,0.243286,0.657828,-0.712794
0.235372,-0.895139,-0.982045,-0.514021,0.003833,0.857769
0.219504,-0.688896,-0.981867,0.025554,-0.129650,0.991230
0.016156,-0.977089,-0.983406,-0.168211,0.334516,0.927256
0.142358,-0.157153,0.715625,0.800545,0.430239,-0.417158
0.243377,-0.034156,0.663638,0.973247,-0.047589,-0.224778
0.332895,0.051273,0.555463,-0.103001,0.459867,0.881994
0.286461,-0.020650,0.539455,0.934642,-0.330633,-0.130867
0.194615,0.250824,0.860490,0.814133,-0.578187,-0.053735
0.096212,0.109814,0.855993,-0.688348,0.663315,0.293582
0.116300,0.126156,0.823120,-0.653026,0.003126,-0.757329
-0.036825,-0.087162,0.832973,-0.518927,-0.826892,-0.216713
0.042213,-0.010355,0.731544,-0.681187,0.543147,0.490894
-0.049201,-0.143003,0.725774,0.859719,-0.052403,-0.508073
0.003491,-0.083691,0.684498,0.469374,0.734412,-0.490232
-0.134207,-0.286455,0.663046,0.167707,0.273879,0.947029
0.129404,0.042399,0.541319,0.646010,-0.763046,0.020791
0.017320,0.050369,0.570257,0.823415,0.192677,-0.533726
0.028967,0.055388,0.538538,0.653926,0.081560,0.752150
-0.127512,-0.162681,0.549249,-0.027118,-0.918801,0.393788
-0.000293,0.148535,0.906944,0.816318,-0.341872,-0.465562
0.026928,0.153812,0.818889,0.373960,0.883459,0.282231
-0.094613,-0.017815,0.820043,0.881459,0.256662,0.396427
-0.046434,0.026827,0.753232,-0.315988,0.465699,0.826605
-0.008152,0.068384,0.715477,0.386508,0.878613,0.280448
-0.053422,-0.003280,0.698345,-0.165997,0.290171,0.942468
-0.086902,-0.057440,0.679290,0.782697,-0.073087,0.618096
-0.121400,-0.123575,0.632215,0.996019,-0.086110,-0.023036
-0.087919,0.211836,0.963843,0.739263,0.605467,-0.294787
-0.089812,0.199492,0.936503,0.821607,-0.566566,0.062964
-0.076565,0.188678,0.851880,0.232214,0.956378,-0.177253
-0.113977,0.129501,0.833831,0.626437,0.672030,-0.394908
-0.151673,0.069287,0.814835,0.866554,-0.097221,-0.489522
-0.126495,0.092703,0.780661,-0.028228,0.985309,-0.168432
-0.102912,0.113670,0.746841,0.940900,-0.021860,0.337979
-0.121542,0.080225,0.724087,-0.698500,0.705915,0.117393
-0.082678,0.122166,0.687279,-0.383268,0.918729,0.095096
-0.150074,0.023482,0.675355,-0.658038,-0.193139,-0.727793
-0.083406,0.101325,0.631712,-0.085349,-0.483272,0.871300
-0.146142,0.008043,0.618693,-0.152858,0.457479,0.875984
-0.094178,0.056290,0.548480,-0.406895,0.168122,0.897870
-0.173653,0.237443,0.922685,-0.215850,-0.747193,-0.628579
-0.171036,0.211836,0.839394,0.492972,0.784048,-0.377156
-0.221837,0.124483,0.796579,0.420725,0.895827,-0.143124
-0.172489,0.180316,0.757611,-0.377311,0.916104,-0.135611
-0.145272,0.206433,0.722786,0.377772,0.523852,-0.763458
-0.178459,0.153169,0.703582,0.192606,0.733719,-0.651583
-0.240032,0.062211,0.690208,0.839904,0.526146,-0.133162
-0.204223,0.098491,0.653134,0.833842,0.457526,0.308833
-0.212810,0.076880,0.626712,-0.686545,0.711516,0.149671
-0.199999,0.083955,0.596176,0.971997,-0.084936,-0.219105
-0.234062,0.232292,0.782702,0.846384,0.411050,-0.338633
-0.203202,0.253141,0.718761,-0.617661,0.024907,-0.786050
-0.281659,0.139403,0.709382,-0.304304,0.857083,-0.415701
-0.320381,0.078160,0.691688,0.161139,0.984220,0.073107
-0.247161,0.155359,0.617480,0.375859,0.721100,-0.582018
-0.248037,0.133741,0.561498,0.493439,-0.852996,0.170047
-0.308153,0.033651,0.519453,0.676055,0.656906,-0.333802
-0.394033,-0.024247,0.306268,0.939824,0.092264,0.328965
-0.436828,0.077265,0.768470,0.218840,-0.640129,0.736440
-0.304079,0.244260,0.709115,-0.541290,-0.457844,-0.705254
-0.297527,0.243749,0.679024,0.995446,-0.054015,0.078542
-0.295781,0.236281,0.651211,0.169659,-0.791625,0.586980
-0.370014,0.117274,0.612598,0.879158,0.389486,0.274559
-0.432168,0.262274,0.727579,0.916971,-0.398951,0.001275
-0.436682,0.246317,0.700357,0.855877,-0.483109,-0.184608
-0.447747,0.222515,0.674586,0.850152,-0.484163,0.206952
-0.474529,0.176844,0.652661,-0.438177,0.666465,-0.603179
-0.001746,-0.939011,-0.996247,-0.114280,0.211892,0.970588
-0.160553,-0.834280,-0.995537,-0.249419,-0.160742,0.954962
0.045412,-0.548915,-0.512209,0.166554,0.983277,-0.073657
-0.306989,-0.254934,0.149212,0.271481,0.961624,0.039730
-0.274236,-0.238719,0.324140,0.539891,0.760953,0.359816
-0.514411,-0.111482,0.398200,0.403483,-0.879896,-0.250966
-0.300001,-0.197162,0.482911,0.939832,0.074826,-0.333341
-0.234208,-0.210417,0.578719,0.940108,-0.187449,-0.284710
-0.379333,-0.140427,0.589667,-0.393752,0.826458,0.402401
-0.474818,-0.091921,0.610467,0.950951,0.019855,0.308703
-0.149781,-0.226625,0.715181,0.898755,-0.307025,-0.313010
-0.247744,-0.175811,0.734858,0.832818,0.532133,0.152472
-0.707569,-0.015499,0.555640,0.804335,0.589141,-0.077187
-0.665795,-0.021286,0.631091,0.871945,-0.443135,-0.208192
-0.654734,0.049341,0.678344,0.778227,-0.624512,0.065934
-0.629986,-0.071080,0.463413,0.781395,0.581694,0.225952
-0.567396,-0.180310,0.538538,0.312665,-0.769783,-0.556484
-0.666670,0.125637,0.470070,-0.671138,-0.520410,-0.527966
-0.710483,0.288776,0.451429,0.998132,-0.041243,0.045072
-0.713828,0.347828,0.466993,0.985431,0.168747,0.021196
-0.610916,0.131173,0.576174,0.724857,-0.007723,0.688856
