-0.358235,0.300103,0.831845,0.095321,-0.396558,0.913048
0.114196,0.203306,0.428159,0.107194,0.978596,-0.175669
0.721367,-0.147083,-0.936243,-0.668826,-0.241373,0.703144
0.603743,-0.484953,-0.928376,0.937147,-0.199501,-0.286279
0.558295,-0.486120,-0.928322,0.069910,-0.987710,-0.139793
-0.637038,0.335137,0.912033,-0.579972,-0.787057,0.210176
-0.371063,0.716906,0.873084,0.920682,-0.186016,0.343138
-0.519886,0.150238,0.686350,0.487612,-0.869448,0.079337
0.699041,-0.185111,-0.924847,-0.579432,0.539849,0.610591
-0.565738,0.304942,0.687410,-0.725170,0.572786,0.382157
0.370473,-0.349475,-0.423998,0.803147,-0.180633,-0.567738
0.755474,-0.321714,-0.955518,-0.579516,-0.548479,-0.602771
-0.311774,0.355894,0.849376,0.718922,0.076182,-0.690903
0.174439,0.037090,0.170114,-0.030211,-0.521575,0.852670
0.304419,-0.525988,-0.937594,-0.153869,0.523265,0.838163
0.689182,-0.569807,-0.903019,0.168206,-0.215712,-0.961860
-0.761934,0.221193,0.780348,0.905290,0.250187,0.343302
-0.511128,0.057819,0.547616,0.306700,-0.809884,0.500024
-0.662082,-0.085104,0.734151,0.825543,0.440811,0.352369
-0.455506,-0.051980,0.484036,-0.698383,-0.563541,0.441229
-0.505753,0.317851,0.830052,-0.676634,0.252527,-0.691663
0.534077,-0.329437,-0.963111,-0.028119,0.928456,-0.370375
0.428875,-0.629875,-0.912853,0.434812,0.353933,0.828052
0.665234,-0.148014,-0.943028,-0.218132,0.296271,0.929861
-0.803191,-0.048942,0.804196,0.091930,0.988815,0.117444
-0.241916,-0.192487,0.713965,0.009881,0.909688,0.415176
-0.204482,-0.201693,0.783059,0.264364,0.073166,0.961644
0.263165,-0.394931,-0.208943,0.403338,-0.909839,0.097524
0.120906,-0.257042,0.032146,0.589633,-0.807540,0.014596
-0.121017,0.085374,0.767115,0.502944,0.636251,0.585006
0.617835,-0.467813,-0.947368,0.136802,-0.714149,0.686496
0.639930,-0.208224,-0.963642,-0.758920,0.240354,-0.605203
-0.156915,-0.130477,0.674514,0.928149,-0.367918,0.056349
-0.234325,-0.292262,0.405262,-0.033112,-0.992945,0.113862
0.260243,-0.053121,0.109651,0.075367,0.954396,0.288872
-0.970705,0.230573,0.806618,-0.657065,-0.296221,-0.693194
-0.654440,-0.268738,0.712225,0.896284,0.151582,0.416771
0.544605,-0.818144,-0.921761,-0.184155,-0.545074,-0.817913
0.748830,-0.414674,-0.931111,-0.121777,0.060322,0.990723
0.290305,-0.322053,-0.238232,0.417158,-0.132493,-0.899124
0.597059,-0.067029,-0.929772,-0.133889,0.293962,0.946393
0.630034,-0.419053,-0.936325,0.049835,-0.609945,0.790875
0.354726,-0.375560,-0.956370,0.136025,0.084400,0.987104
0.716537,-0.242411,-0.934328,0.864721,0.477878,-0.154562
0.335556,-0.388855,-0.538564,-0.569088,0.661648,-0.488223
0.596251,-0.355305,-0.925427,-0.129882,0.145685,0.980768
-0.347543,-0.063125,0.836411,0.552358,-0.814101,0.179277
0.276856,-0.578478,-0.945011,0.845852,-0.360158,-0.393471
-0.496553,0.284517,0.732789,-0.639986,-0.661084,-0.391645
0.754077,-0.060793,-0.941934,-0.493854,-0.763978,0.415266
0.544877,-0.051839,-0.968232,0.284757,-0.311140,-0.906700
0.220733,-0.309735,-0.115325,-0.536451,0.657445,-0.529137
-0.377574,-0.257193,0.873923,-0.441428,-0.618542,-0.650037
-0.209728,0.660806,0.821997,-0.516027,-0.140040,-0.845048
-0.535848,0.110913,0.632188,0.902598,0.145587,0.405120
-0.515615,0.085103,0.813481,0.928203,0.032558,-0.370648
0.472115,-0.304380,-0.960700,0.820219,0.201515,-0.535381
0.586513,-0.606641,-0.925558,-0.122006,-0.518157,0.846539
0.222407,-0.473773,-0.979903,-0.657880,0.586423,0.472548
-0.712248,0.004315,0.770813,0.999117,0.008850,0.041080
0.603670,-0.325747,-0.928293,-0.371455,0.075747,-0.925356
-0.665067,-0.016020,0.771520,0.907429,0.145004,0.394395
0.284240,-0.544983,-0.977293,-0.253974,-0.014150,-0.967107
0.455072,-0.395603,-0.897479,-0.198719,-0.945370,-0.258429
0.931664,-0.401908,-0.913674,-0.743893,0.486504,0.458189
0.633615,-0.265988,-0.951674,-0.486931,-0.534757,-0.690604
-0.734944,-0.399694,0.864049,0.097696,0.193304,0.976263
-0.314068,-0.378674,0.800156,0.732406,-0.631085,0.255566
-0.213321,-0.032330,0.799694,-0.533634,0.811414,0.238416
0.397066,-0.383792,-0.942025,-0.000843,0.539704,0.841855
-0.419451,-0.521353,0.607855,0.953055,0.170620,0.250149
-0.771388,-0.028577,0.819578,0.689609,0.724116,0.009783
0.659179,-0.624198,-0.929938,0.295876,0.239993,0.924587
-0.623947,0.312351,0.831714,-0.352424,0.793285,-0.496484
-0.189163,0.318201,0.767326,0.444338,-0.860462,0.249336
0.496274,-0.289209,-0.937057,-0.670707,0.694381,0.260743
-0.320645,0.092229,0.446813,-0.555749,-0.640593,-0.529890
0.214384,-0.351787,-0.199876,0.688471,0.611854,-0.389413
0.474547,-0.562729,-0.904155,0.564801,0.772560,0.290087
0.594853,-0.363562,-0.937935,-0.684570,-0.360402,0.633620
0.535112,-0.763411,-0.939823,0.217947,-0.240160,-0.945950
0.533538,-0.520947,-0.942492,0.105392,0.894171,-0.435144
0.694812,-0.601742,-0.940082,-0.597559,0.337360,0.727400
0.475887,-0.135644,-0.973808,-0.287960,0.035187,0.956996
0.435182,-0.245200,-0.947808,-0.526990,0.499792,0.687379
-0.372177,0.138387,0.787370,-0.777718,0.090020,-0.622134
0.470166,-0.287899,-0.946589,-0.077012,0.592722,0.801717
-0.166002,-0.479487,0.816580,0.530940,0.847382,0.006802
0.339768,-0.483923,-0.944910,0.488598,0.058015,0.870578
0.601201,-0.128575,-0.951043,0.819296,-0.567866,0.079262
0.294773,-0.385650,-0.191555,-0.005888,-0.906299,0.422597
0.513059,-0.619284,-0.952791,0.269478,-0.095415,-0.958268
-0.671915,0.599783,0.899614,0.345004,0.460747,0.817731
-0.477782,-0.402249,0.840684,-0.632484,0.138791,-0.762038
0.030727,-0.303683,0.275592,0.950532,-0.302605,0.070137
-0.382554,-0.038461,0.763271,0.139721,0.623806,0.768989
0.280826,-0.483829,-0.974443,-0.133869,-0.293258,0.946614
0.233328,-0.496090,-0.972880,0.064479,0.404708,0.912170
0.452535,-0.370261,-0.962188,-0.579491,-0.449424,-0.679859
-0.299827,-0.238356,0.780685,-0.724565,0.025407,-0.688738
-0.420200,0.678189,0.883872,0.775452,-0.464518,-0.427665
-0.622687,0.363514,0.910018,0.708611,0.663072,0.241257
-0.749925,-0.185641,0.836913,-0.710166,-0.520220,0.474379
-0.486197,0.304123,0.841210,0.178919,-0.473312,0.862533
-0.443758,-0.035800,0.484270,0.003088,-0.735493,0.677525
0.379541,-0.381093,-0.898775,0.546790,0.824983,0.142911
-0.667965,-0.181862,0.752831,0.997366,0.068377,0.024199
-0.229003,-0.133529,0.748247,-0.363512,-0.028549,-0.931152
0.238580,-0.438279,-0.251540,0.329950,0.943448,-0.032225
0.199594,-0.067970,0.139559,0.670243,0.473024,-0.571859
0.504879,-0.622410,-0.917599,-0.722430,0.192343,-0.664153
-0.885014,0.013076,0.791153,-0.555592,0.663409,0.501205
0.848996,-0.511035,-0.917123,0.182969,0.980159,-0.076224
0.728595,-0.468500,-0.943302,-0.361790,0.031192,0.931738
0.477300,-0.520058,-0.952673,0.946691,-0.197948,-0.254150
0.472581,-0.404514,-0.974177,-0.399076,0.117932,0.909302
0.542626,-0.560785,-0.921096,0.873653,0.335717,-0.352171
-0.441066,0.227887,0.760572,0.334015,-0.322822,-0.885562
0.249300,-0.095476,0.055117,-0.742807,0.626822,-0.235227
0.345240,-0.317335,-0.139552,0.963041,0.269164,-0.010117
-0.101630,-0.010511,0.814034,0.915556,0.315427,0.249524
-0.368677,0.427777,0.920325,0.074527,0.201965,0.976553
-0.411986,0.467410,0.896318,0.947695,0.314647,-0.053590
0.742267,-0.858041,-0.919465,-0.361290,0.529140,0.767776
-0.419572,0.804086,0.897868,0.670948,0.440414,0.596544
-0.080614,-0.034272,0.789022,0.533929,0.712308,0.455562
0.141571,-0.254288,-0.116479,-0.600681,-0.686829,-0.409205
-0.333051,0.274237,0.806357,0.793635,0.172994,-0.583280
-0.677358,0.453326,0.901409,-0.718272,-0.206835,-0.664308
0.740353,-0.631770,-0.932240,0.395809,0.095061,0.913400
-0.046369,-0.240039,0.857237,0.846443,0.472340,-0.245824
0.098999,-0.271387,0.095694,0.440948,0.212765,-0.871949
-0.437158,-0.174030,0.614244,0.602336,0.018269,-0.798034
0.897842,-0.625962,-0.906645,0.924295,-0.148337,-0.351676
0.525498,-0.470179,-0.951960,-0.547073,0.264231,-0.794288
0.647034,-0.801381,-0.932924,-0.470713,-0.043999,-0.881189
0.633384,-0.140698,-0.968227,0.631832,-0.040414,0.774051
0.374948,-0.426419,-0.630656,-0.604158,0.644517,-0.468605
0.584599,-0.233829,-0.968398,0.005933,-0.056575,0.998381
0.498887,-0.623871,-0.922640,-0.316849,0.424676,0.848090
-0.733727,0.071149,0.774567,0.809723,0.325329,0.488375
-0.114966,-0.091433,0.829975,0.491356,0.329147,0.806369
0.652723,-0.493805,-0.939522,0.981713,-0.082429,0.171593
-0.026641,-0.239904,0.317578,0.056603,0.071799,0.995812
-0.759968,-0.526795,0.907352,-0.404562,0.303962,0.862517
0.738465,-0.454391,-0.946252,-0.111060,-0.089270,0.989796
0.552438,-0.565322,-0.927870,0.526151,0.485432,-0.698227
0.288892,-0.653565,-0.972561,0.590915,0.736181,-0.329935
-0.371719,0.330625,0.809151,-0.687495,0.085404,-0.721149
0.354051,-0.402612,-0.427131,0.045106,-0.848817,0.526759
0.405938,-0.291838,-0.943935,-0.224923,0.647034,-0.728531
-0.650729,0.187552,0.810187,-0.379176,0.236141,-0.894686
-0.577031,0.456738,0.839251,0.550673,0.578577,0.601671
-0.283699,-0.149420,0.355863,0.825747,0.400654,0.397012
0.510872,-0.252410,-0.951055,0.029134,-0.562476,0.826300
-0.275499,-0.204340,0.770768,0.753636,0.174185,0.633793
0.306848,-0.327371,-0.965348,-0.146136,-0.052352,0.987878
0.468822,-0.210504,-0.951338,0.686952,-0.278187,-0.671349
0.140556,-0.134647,-0.002192,0.429165,0.282705,0.857843
0.778579,-0.893739,-0.916038,-0.107317,-0.175280,0.978652
-0.230052,-0.159390,0.801266,0.305880,-0.681220,0.665114
-0.741006,0.074972,0.767462,0.396972,-0.297123,0.868407
-0.353908,0.357299,0.891145,0.808908,0.562447,0.171233
-0.184502,0.404279,0.855500,0.097628,-0.311215,0.945311
-0.144632,-0.352286,0.610621,0.992365,-0.046920,0.114059
-0.134261,-0.353895,0.639330,0.827940,0.442785,0.344175
-0.326715,-0.365085,0.780045,0.614686,0.640279,0.460656
0.679525,-0.339863,-0.920212,-0.594605,-0.795874,0.114147
-0.569277,0.184774,0.627320,0.952174,0.237505,0.192238
0.454890,0.047862,-0.989705,0.232730,-0.313221,0.920722
0.628526,-0.202797,-0.964203,-0.478192,0.018475,0.878061
-0.331655,0.551726,0.865360,-0.126830,0.750306,0.648811
0.243299,-0.240713,-0.109161,-0.569375,-0.716782,0.402536
0.725919,-0.830079,-0.925114,-0.108238,0.279175,0.954121
-0.196474,-0.092856,0.743317,-0.671722,0.650414,0.354615
-0.441826,0.500139,0.843633,0.950158,-0.297119,-0.094451
-0.351000,0.423796,0.870561,-0.764852,-0.564628,0.310156
0.257367,-0.580178,-0.970022,-0.264182,0.337469,0.903506
0.252288,-0.404696,-0.268643,0.791041,-0.030180,-0.611018
-0.133674,0.033516,0.875424,0.762911,-0.639702,-0.093526
0.342168,-0.611558,-0.910664,-0.712539,-0.145644,0.686350
-0.891218,0.315647,0.775001,0.098584,0.925300,0.366197
0.410698,-0.739280,-0.935286,0.095184,0.675751,0.730959
-0.537450,0.046608,0.831447,0.046220,0.641361,0.765846
0.900393,-0.244959,-0.924660,0.345239,-0.028011,0.938097
0.523307,-0.716820,-0.910767,0.844184,0.210492,-0.492997
-0.190304,0.537392,0.780470,0.646440,-0.252659,0.719916
-0.470278,-0.272596,0.917455,-0.529499,-0.665672,-0.525844
-0.792244,-0.383212,0.857007,0.571349,0.328766,0.751979
0.591257,-0.713193,-0.936781,0.244596,-0.099856,-0.964469
-0.483751,0.388795,0.819708,-0.266727,-0.933950,0.237895
0.436578,-0.205296,-0.965872,0.863709,0.422817,-0.274285
0.362778,-0.239074,-0.963661,-0.540337,-0.158314,0.826421
0.406082,-0.516530,-0.659526,-0.697975,0.675511,0.237731
0.796050,-0.163402,-0.933833,0.241988,0.887752,-0.391585
0.859859,-0.571958,-0.929330,-0.529572,0.794834,0.296299
0.546978,-0.393785,-0.935929,0.859845,-0.460583,-0.220295
0.199458,-0.224623,-0.041401,-0.381554,0.719008,-0.580899
-0.658801,-0.091174,0.754273,-0.285692,-0.169628,-0.943189
-0.361857,0.089420,0.781303,0.408350,0.785940,-0.464272
-0.315847,0.247977,0.807775,0.989843,-0.114593,-0.084139
0.779151,-0.461532,-0.928208,0.943646,-0.044552,-0.327944
0.151115,-0.493385,0.606685,0.835515,-0.439527,0.329743
0.883613,-0.232471,-0.923766,-0.180150,-0.027857,0.983245
-0.631519,0.869519,0.964212,-0.510231,0.859525,-0.029669
-0.595878,0.010520,0.824039,-0.080007,0.152709,0.985027
-0.663496,0.210053,0.767791,-0.230329,0.498908,0.835488
-0.211491,-0.063662,0.641079,-0.391017,0.700653,-0.596818
0.620920,-0.083276,-0.972695,-0.382009,0.169868,0.908413
-0.630793,-0.289363,0.749683,0.983534,0.180267,0.012868
0.658159,-0.643205,-0.897781,-0.057161,-0.887324,-0.457590
0.263688,-0.149887,-0.024314,0.786966,0.400111,-0.469676
0.429375,-0.469656,-0.721691,-0.226610,-0.972022,0.061819
-0.552446,0.269673,0.772345,-0.427317,0.851417,0.304120
-0.152878,-0.302391,0.726115,0.181872,-0.457710,0.870301
-0.455136,0.478018,0.817164,0.788686,-0.228266,-0.570850
0.716065,-0.177122,-0.945361,-0.699567,-0.249142,0.669727
-0.351927,0.115689,0.715581,0.883293,0.039392,-0.467163
-0.919960,0.201618,0.818680,-0.245790,0.885317,0.394717
-0.384374,-0.457933,0.821933,0.268600,0.317202,0.909526
-0.589964,0.391818,0.839494,0.128842,0.408301,0.903709
0.209588,-0.142979,-0.076816,-0.805481,-0.552449,0.214476
-0.247381,-0.349848,0.384596,-0.203000,-0.955328,-0.214800
0.713367,-0.266103,-0.928665,0.951759,0.223027,-0.210745
0.549338,-0.040903,-0.983084,0.481973,0.345541,0.805173
0.316190,-0.396540,-0.365188,-0.332246,0.409981,-0.849428
-0.268480,0.052467,0.425511,-0.226360,0.923762,-0.308910
-0.262136,-0.082626,0.756975,0.247822,0.204209,-0.947039
-0.848749,-0.179286,0.801619,0.756934,0.652012,-0.043937
-0.609545,-0.266064,0.737774,0.915162,0.119910,0.384839
0.489255,-0.472048,-0.931695,-0.064731,0.986107,-0.152980
0.580634,-0.452256,-0.927466,-0.580636,0.676636,-0.452798
0.387507,-0.166890,-0.972127,-0.592262,-0.214308,0.776722
0.440053,-0.466124,-0.959032,-0.396833,0.686797,0.608962
-0.365298,0.147776,0.705209,0.868274,0.183150,-0.461039
0.727174,-0.442106,-0.946459,-0.076334,-0.562863,0.823018
0.631414,-0.243140,-0.934692,0.483577,-0.457720,-0.746087
0.625698,-0.281265,-0.939156,-0.163085,-0.399458,0.902129
0.228681,-0.668928,-0.949189,0.997582,-0.061955,-0.031477
0.714742,-0.534152,-0.933137,0.331786,0.270465,-0.903752
0.660887,-0.487142,-0.930309,-0.068695,-0.587895,0.806015
-0.627891,-0.132035,0.739573,0.994770,0.069596,0.074765
0.513412,-0.768418,-0.922563,0.834212,0.180821,-0.520955
0.218531,-0.663067,-0.929383,-0.047447,0.239521,0.969731
0.325227,-0.565471,-0.919009,-0.273339,0.506142,0.817989
0.119450,-0.432927,0.314068,0.903821,0.085999,0.419179
-0.184355,0.101918,0.786631,0.115264,0.009981,0.993285
0.234802,-0.239479,0.053032,0.891018,-0.446494,-0.082035
0.607441,-0.110157,-0.961298,0.877283,-0.478592,-0.036396
0.792406,-0.151848,-0.912433,0.166102,-0.986053,0.010512
0.505151,0.178569,-0.965215,-0.464959,0.882958,0.064791
0.971648,-0.444221,-0.949107,0.562019,-0.177643,-0.807823
0.279562,-0.481267,-0.948538,-0.549460,0.650150,0.524783
-0.523488,0.283080,0.840368,0.517385,0.855741,-0.004451
0.642093,-0.463419,-0.927545,-0.475485,-0.500689,-0.723343
0.745530,-1.000000,-0.905557,-0.476984,-0.605208,-0.637345
-0.721005,0.137462,0.770012,0.928085,0.326734,0.178615
-0.614115,0.121856,0.770778,0.896118,0.303783,-0.323555
0.392259,-0.281996,-0.985948,-0.094843,0.029871,0.995044
0.471178,-0.268030,-0.954879,0.672285,0.673736,-0.306779
-0.460284,-0.393776,0.815947,0.711540,0.615023,-0.339791
0.187633,-0.080903,0.132628,0.869380,-0.225205,0.439843
-0.267318,0.368669,0.872436,0.153612,0.884448,0.440631
0.279907,-0.481606,-0.919554,0.499965,-0.335755,-0.798313
0.736332,-0.276054,-0.934188,0.558774,0.631805,-0.537209
-0.515376,0.330332,0.833951,0.823933,0.190843,0.533585
0.215742,-0.347383,-0.969009,0.727738,-0.339387,-0.595998
0.431245,-0.198414,-0.963137,0.938164,0.288361,0.191560
0.528546,-0.598663,-0.923357,0.262821,-0.309612,-0.913819
0.781465,-0.447021,-0.922187,-0.602411,0.558753,0.569997
0.860353,-0.222941,-0.924234,-0.029643,-0.071874,0.996973
0.781824,-0.617798,-0.931524,-0.777586,0.422328,0.465831
0.319443,-0.414484,-0.954192,0.630064,0.743587,0.223825
-0.101513,0.273865,0.786501,-0.519268,0.806827,-0.281764
-0.210727,0.176311,0.763242,-0.406614,0.869470,-0.280512
-0.407221,-0.494112,0.686128,0.929765,-0.252489,0.267931
0.551289,-0.556651,-0.949786,0.979182,0.108013,0.171861
0.318201,-0.377323,-0.410458,-0.613029,0.579581,0.536919
-0.393568,0.192501,0.815354,0.222612,0.399810,-0.889155
-0.110796,0.471059,0.853847,0.576738,-0.054153,0.815133
-0.322624,0.284021,0.831373,0.569062,0.681365,0.460337
0.630672,-0.102881,-0.952450,0.206437,0.965672,0.157675
-0.343203,-0.033983,0.759339,-0.185462,-0.137845,-0.972935
-0.328326,0.238468,0.815737,-0.602181,0.378938,-0.702698
-0.656677,0.530746,0.909161,0.988811,-0.142238,-0.044966
-0.915058,0.283102,0.781784,0.068707,0.764728,0.640680
0.106474,-0.259553,0.107730,-0.648715,-0.267993,-0.712284
0.187674,-0.227938,-0.122626,-0.255335,0.964235,0.071098
0.382419,-0.519123,-0.939648,-0.632216,-0.749971,0.194541
0.485469,-0.104773,-0.944388,-0.268676,0.249752,0.930289
-0.642934,-0.231327,0.752928,0.974996,0.161332,0.152822
0.269686,-0.305432,-0.129265,0.806660,0.579522,-0.115994
-0.259097,0.386098,0.903221,0.867079,-0.447799,0.218289
0.754686,-0.437528,-0.925556,0.205042,0.354445,-0.912319
0.679136,-0.353639,-0.933073,-0.620732,0.293775,0.726903
0.308596,-0.337405,-0.472974,0.313641,-0.780510,0.540771
0.509126,-0.085021,-0.968574,0.185007,0.381083,0.905841
0.575362,-0.661454,-0.914721,0.548396,-0.821001,0.158805
-0.631228,-0.123427,0.699053,0.954754,0.048530,-0.293410
0.387842,-0.471565,-0.964366,0.463001,-0.886053,-0.023224
-0.115133,-0.329754,0.551956,0.315424,-0.875553,-0.365943
-0.503062,-0.257724,0.940394,0.331394,0.903894,0.270470
0.611106,-0.168465,-0.959110,0.427553,-0.006620,0.903966
-0.142822,-0.418111,0.656087,0.877301,0.415794,0.239706
0.556286,-0.360144,-0.895087,0.875171,-0.243531,0.418053
-0.330430,-0.160844,0.458560,-0.720343,-0.490024,-0.490900
0.241488,-0.380069,-0.346288,0.429694,-0.882354,-0.191874
0.653377,-0.240151,-0.957029,0.377629,-0.310873,-0.872212
-0.414710,-0.539450,0.666760,-0.809549,-0.567462,-0.150390
-0.621533,0.405652,0.950454,0.688934,0.534546,-0.489522
0.584917,0.105411,-0.959981,0.393954,0.574749,-0.717261
-0.356084,-0.012868,0.763330,-0.022542,-0.102162,0.994512
-0.684437,-0.176654,0.750316,0.721084,0.636482,-0.273729
0.430679,-0.280697,-0.953477,0.466432,-0.769480,-0.436281
0.373412,-0.418469,-0.665836,0.444235,0.878937,-0.173565
0.652235,-0.760740,-0.914225,0.214876,-0.867289,0.449041
-0.062596,-0.245850,0.471733,-0.021460,0.886186,0.462831
0.481208,-0.604536,-0.905274,0.359952,-0.701464,0.615128
0.434084,-0.636070,-0.930411,0.764788,-0.636077,0.102498
0.354326,-0.327135,-0.955993,-0.647783,0.643178,-0.408288
0.646711,0.001775,-0.965463,0.837304,0.007952,-0.546681
-0.732854,-0.451167,0.867017,0.970742,-0.187410,-0.150127
0.405028,-0.435557,-0.773113,0.062981,0.997489,-0.032389
0.529707,-0.515344,-0.953381,-0.342296,0.265476,0.901308
-0.654224,-0.111997,0.719413,0.801884,-0.589487,-0.097403
0.432495,-0.080319,-0.977428,-0.204341,0.176981,-0.962768
0.512978,-0.534456,-0.944906,0.095063,0.542815,0.834455
0.273302,-0.339263,-0.202675,-0.468661,0.318077,0.824126
-0.707202,0.090611,0.777394,0.639468,-0.297484,0.708932
0.359688,-0.262236,-0.224491,-0.220449,-0.958810,0.179126
0.377012,-0.467402,-0.933331,0.206410,0.978333,-0.016104
0.522068,-0.417772,-0.937271,-0.757760,-0.120323,0.641344
-0.458717,-0.048904,0.859663,-0.409536,0.016899,0.912137
-0.662181,0.441782,0.867468,0.817615,0.249843,0.518733
0.462795,-0.369660,-0.963898,-0.166823,0.442629,-0.881050
-0.790334,-0.218189,0.790538,-0.477247,-0.877395,-0.049133
-0.109539,0.148556,0.445343,-0.393404,0.884801,-0.249722
-0.243724,-0.175034,0.757923,0.697140,0.073095,-0.713199
0.082859,-0.235579,0.318986,0.980030,-0.124329,-0.155190
0.725797,-0.133131,-0.930899,0.856065,0.247045,-0.454006
0.576319,-0.608952,-0.921535,-0.107784,-0.655083,0.747829
0.665459,-0.239938,-0.967726,0.299974,0.570796,0.764335
-0.278918,-0.100896,0.800187,-0.126297,0.845416,-0.518961
0.112546,-0.214668,0.093042,0.883197,0.245245,0.399771
0.238464,-0.386095,-0.952841,0.518762,0.814288,-0.260425
0.634270,-0.334749,-0.953545,0.481937,0.701838,-0.524558
-0.318444,-0.271353,0.403191,-0.540742,-0.840887,-0.022536
-0.701425,-0.273819,0.764812,0.810434,0.213779,0.545431
0.421298,-0.474324,-0.962235,-0.611357,-0.718353,-0.331983
0.335791,-0.247298,-0.948808,-0.590978,-0.450288,-0.669318
-0.615813,-0.261701,0.684518,0.973039,0.138342,0.184544
-0.004543,-0.294582,0.845309,0.931076,0.223144,-0.288625
0.622216,-0.476917,-0.914043,0.038392,-0.682580,-0.729802
0.324289,-0.404470,-0.529581,0.809901,-0.527831,0.255842
-0.155567,0.554536,0.845873,-0.218830,0.820321,0.528382
0.239624,-0.169625,-0.077655,0.903806,0.427707,-0.014186
0.654801,-0.021051,-0.991053,-0.631472,0.002167,0.775395
0.587012,-0.235102,-0.961518,-0.551728,0.590079,-0.589409
0.318331,-0.375280,-0.250276,0.955801,0.289633,0.050560
0.382143,-0.601035,-0.874659,-0.501549,0.782667,0.368621
-0.567151,0.299864,0.849183,-0.131584,0.923122,0.361290
-0.251620,0.603711,0.879242,0.898506,0.316227,0.304446
-0.198545,0.518656,0.871697,0.728791,0.579359,0.364975
0.387362,-0.482174,-0.947105,-0.601994,0.795702,-0.066793
0.667694,-0.247949,-0.954319,-0.174674,0.008148,0.984593
0.481766,0.136305,-0.970418,-0.617557,0.720031,-0.316509
0.132502,-0.175384,0.277578,0.993305,0.000616,0.115517
0.678664,-0.646310,-0.946056,0.542396,0.309337,-0.781100
-0.335874,0.240536,0.818993,-0.567188,0.094830,-0.818111
-0.334083,-0.086989,0.769668,0.533631,0.433610,0.726099
0.367306,-0.164260,-0.954817,0.828679,-0.047590,0.557697
0.373311,-0.238442,-0.966679,0.933435,-0.267110,-0.239481
0.743828,-0.146548,-0.950466,0.861970,-0.298379,0.409851
0.182266,-0.572076,-0.941975,0.995043,-0.025278,-0.096177
0.600634,-0.485455,-0.950975,0.336228,0.842422,-0.421041
0.298375,-0.627139,-0.975704,-0.355030,-0.116739,-0.927537
0.346330,-0.441505,-0.547793,-0.343339,-0.778191,0.525868
0.920992,-0.417258,-0.929584,-0.404371,0.341485,-0.848453
-0.721675,0.576916,0.914140,0.468679,-0.540703,-0.698556
0.937028,-0.494992,-0.919071,-0.755956,0.118760,-0.643760
0.555565,-0.708429,-0.944545,-0.011405,-0.667453,0.744564
0.344886,-0.686983,-0.932861,-0.335367,-0.846301,0.413888
0.568651,0.020296,-0.953130,-0.214175,-0.140541,0.966632
-0.231087,0.829893,0.885572,0.059327,-0.591409,0.804186
-0.516396,0.141726,0.798740,-0.542449,0.618231,0.568805
0.269713,-0.352835,-0.951887,0.975829,-0.173207,0.133259
0.738343,-0.668712,-0.904137,-0.015689,-0.135941,0.990593
0.365659,-0.379598,-0.938544,-0.610795,-0.250554,-0.751100
0.361623,-0.216034,-0.992351,0.371900,0.178943,-0.910862
0.808998,-0.511703,-0.907231,-0.002634,-0.994287,0.106705
-0.671150,0.143594,0.712095,-0.620819,-0.575145,-0.532722
0.306577,-0.262117,-0.979477,0.300545,0.416595,0.857975
-0.558968,0.039643,0.648800,-0.442530,0.720699,0.533629
0.501636,-0.529528,-0.923455,0.326339,-0.221196,0.919008
0.599603,-0.588324,-0.908873,-0.081031,0.576914,0.812776
0.239573,-0.637555,-0.970987,0.383765,0.544356,0.745923
-0.299241,0.373863,0.875651,-0.015153,0.756362,0.653978
0.557213,-0.305832,-0.962266,-0.027915,0.641140,0.766916
0.260196,-0.384966,-0.969198,0.942887,-0.143534,0.300602
0.026045,-0.206909,0.114321,-0.272642,0.767728,0.579879
-0.602065,0.196243,0.761057,0.809847,-0.478815,0.338947
0.611148,-0.494657,-0.929321,0.683137,0.571843,-0.454224
-0.893980,-0.046242,0.807416,0.681417,-0.599123,-0.420384
-0.355388,-0.305468,0.828348,0.131345,0.957455,-0.256960
-0.440389,0.546716,0.945739,0.834868,0.271740,0.478699
0.680194,-0.468886,-0.926985,0.064524,-0.138104,0.988314
0.835466,-0.503505,-0.910043,0.361894,-0.922807,-0.132140
-0.147938,-0.259827,0.204315,-0.373383,0.125305,-0.919176
-0.285460,0.004327,0.713125,0.871920,0.158205,0.463385
0.362385,-0.190679,-0.962257,-0.735382,0.098484,0.670458
-0.703813,-0.123218,0.756655,0.610790,0.682192,0.401932
0.055595,-0.214245,0.375625,-0.611624,0.777857,0.144412
0.557899,-0.016738,-0.937008,0.894994,0.331047,-0.298987
0.682657,0.089092,-0.958987,0.598063,0.161313,-0.785047
0.936220,-0.473460,-0.914139,0.096913,0.226955,0.969071
-0.140710,-0.283185,0.460314,-0.179528,0.956139,0.231447
-0.383049,-0.381374,0.870210,0.888368,-0.186572,0.419515
0.529445,0.032425,-0.978586,0.056809,0.088705,0.994437
-0.563027,0.092925,0.791546,0.571776,0.319297,-0.755726
-0.384238,-0.400064,0.862185,0.955610,0.037410,0.292250
0.515615,-0.353768,-0.942372,-0.736033,0.649915,0.189384
-0.495590,0.473355,0.830262,0.327652,-0.619078,-0.713713
0.941645,-0.485108,-0.936361,0.680775,-0.612026,-0.402455
-0.273565,-0.344947,0.829448,-0.373913,0.862877,-0.340047
-0.446428,0.262020,0.727967,0.426972,-0.643567,-0.635229
0.398716,-0.379260,-0.555300,0.995808,-0.003556,-0.091394
-0.047966,-0.336809,0.181460,-0.240770,-0.710883,0.660814
-0.346559,-0.206898,0.542366,-0.865273,0.479097,0.147542
0.309579,-0.377385,-0.971658,0.372679,-0.747481,0.549893
-0.480769,0.081829,0.794113,0.814430,-0.067638,0.576306
0.260325,-0.389337,-0.357807,-0.061682,0.070959,0.995570
0.872426,-0.278413,-0.943953,-0.484648,0.355177,0.799353
0.452285,-0.136743,-0.976674,0.313943,0.379463,-0.870315
-0.862720,-0.470279,0.850726,-0.200669,0.624991,-0.754399
-0.025759,-0.291041,0.844420,0.848618,0.510238,-0.139660
0.125925,-0.242165,0.096287,-0.458954,-0.833919,-0.306497
-0.414676,0.010491,0.843630,0.055090,0.837833,0.543140
-0.355452,-0.182529,0.839289,0.968864,0.032553,-0.245442
-0.150851,0.722816,0.821608,0.811969,0.544987,0.209034
0.405433,-0.490514,-0.840850,0.818014,0.574345,-0.031313
-0.197038,-0.210900,0.326808,-0.434043,-0.863804,-0.255829
-0.353714,0.779811,0.866850,0.789358,-0.391410,0.472982
0.432581,-0.081881,-0.975531,-0.081958,-0.260547,0.961976
-0.716187,-0.323479,0.839903,0.187171,0.857479,0.479267
-0.236992,0.021538,0.799202,0.649719,0.300857,0.698105
0.476881,0.090436,-0.953961,0.047205,-0.888066,0.457286
0.773244,-0.306986,-0.915126,0.389103,0.338648,0.856689
0.439691,0.097854,-0.964601,-0.130515,-0.989991,0.053698
-0.476017,0.126421,0.789101,0.746678,0.452053,0.487975
0.374901,-0.229563,-0.977409,0.857245,0.329800,0.395428
0.274806,-0.647075,-0.966515,-0.400113,-0.832622,0.382950
0.567496,-0.172806,-0.965341,-0.053081,-0.964109,0.260146
0.650811,-0.389515,-0.929157,0.600463,-0.147241,-0.785980
0.716645,-0.344542,-0.937963,0.845728,-0.223965,0.484338
0.792145,-0.812888,-0.905844,0.144006,-0.486766,0.861581
0.787192,-0.434829,-0.922953,-0.766908,0.382821,0.515072
0.623587,-0.012596,-0.936675,-0.606381,0.418191,-0.676328
-0.318709,-0.039156,0.546208,-0.434611,0.787730,-0.436572
0.409120,-0.426026,-0.923263,-0.493204,-0.542081,-0.680366
0.666002,-0.648884,-0.909019,-0.085614,-0.757014,0.647766
-0.584143,0.301279,0.779463,0.334801,-0.164758,-0.927773
0.420058,-0.337562,-0.957903,0.089142,-0.316474,0.944404
-0.572629,0.076347,0.819171,0.098021,0.434154,0.895490
0.343123,-0.381466,-0.454286,0.799996,-0.065765,0.596390
-0.708932,-0.121789,0.746872,-0.166005,-0.471053,0.866344
-0.541193,0.464100,0.725846,0.811913,-0.381616,0.441777
0.568832,-0.306149,-0.966331,0.180486,0.780040,0.599135
0.403961,-0.022473,-0.963291,0.273155,-0.698895,0.661008
0.803697,-0.528511,-0.929472,0.562832,0.180779,-0.806560
-0.409292,-0.328011,0.875027,-0.018991,0.676225,-0.736451
0.583014,-0.646468,-0.936981,0.967124,-0.249546,0.048967
-0.747287,-0.278820,0.812440,-0.546221,0.773332,0.321870
-0.327378,-0.321526,0.461806,0.761693,-0.636833,-0.119450
0.370843,-0.494861,-0.964956,0.913409,-0.405052,-0.040211
-0.505307,-0.271706,0.828542,-0.149942,0.322472,0.934628
-0.092544,-0.321322,0.814205,-0.148655,-0.713274,0.684940
0.685568,-0.674417,-0.941854,0.070368,0.901695,-0.426608
-0.047763,-0.397682,0.544302,-0.234848,0.774840,0.586916
-0.840760,-0.472812,0.840811,-0.053305,-0.009685,0.998531
0.682487,-0.010662,-0.960796,-0.264187,0.451980,0.852009
-0.550269,-0.353298,0.664671,0.593883,-0.286693,-0.751738
-0.698319,0.328751,0.833512,0.011950,-0.927020,0.374821
-0.381430,-0.024569,0.469837,0.341247,-0.923093,-0.177340
0.933789,-0.373436,-0.914989,-0.686482,0.570752,0.450538
0.746573,-0.425704,-0.920367,0.598361,0.662171,0.451103
0.798325,-0.235888,-0.913252,0.168739,0.102978,0.980267
0.856520,-0.577457,-0.910623,0.870729,-0.146558,0.469416
-0.306739,0.251693,0.753948,0.139378,-0.432526,0.890783
0.835053,-0.270898,-0.930855,0.154554,-0.731106,0.664528
0.241378,-0.495618,-0.977558,0.073627,0.352409,0.932945
0.805435,-0.783953,-0.943446,-0.005218,0.067085,0.997734
-0.368734,0.380197,0.901462,0.971706,-0.164597,-0.169395
-0.182586,-0.140029,0.756911,0.200843,0.607938,0.768162
0.746502,-0.630734,-0.904954,0.481652,-0.000558,0.876362
-0.320900,-0.233608,0.387205,-0.011774,0.840424,0.541802
0.510286,-0.508292,-0.940098,-0.560208,0.175404,0.809568
-0.725232,-0.394069,0.865397,0.160487,0.270045,0.949379
0.420859,-0.591427,-0.910104,-0.744604,-0.515698,0.423817
0.056526,-0.494504,0.287921,0.912656,-0.110925,0.393389
0.221229,-0.509602,-0.960637,0.585429,-0.707026,-0.396720
0.640656,-0.426747,-0.926192,-0.325119,-0.123675,0.937551
0.481468,-0.574483,-0.862422,-0.251287,0.899435,-0.357590
0.585492,-0.198948,-0.961314,-0.334853,-0.223263,0.915438
0.793457,-0.378614,-0.941620,0.687822,-0.104766,-0.718279
-0.402450,-0.088137,0.637722,-0.405769,0.887564,-0.218134
0.684555,-0.578927,-0.947760,-0.096405,0.238622,0.966316
0.267612,-0.246385,-0.272501,0.993690,0.065466,-0.091078
0.530233,-0.534264,-0.944947,-0.063519,0.349930,0.934620
-0.815688,-0.059855,0.777642,0.003655,-0.989190,0.146595
0.291390,-0.612816,0.565827,0.922303,0.084623,0.377089
-0.285586,0.839483,0.838889,0.784620,-0.152743,0.600866
-0.237543,0.756834,0.818937,0.648328,-0.307547,0.696481
0.125762,-0.515603,-0.981752,-0.327407,-0.943217,0.056096
0.649973,-0.157134,-0.956555,0.972522,0.231836,-0.021284
0.703135,-0.861110,-0.949730,0.973526,-0.153700,-0.169182
0.448363,-0.315053,-0.951279,0.198403,0.374724,-0.905659
0.909731,-0.275251,-0.935386,-0.339583,-0.140918,0.929960
0.765198,-0.193942,-0.920909,-0.363372,-0.879735,0.306639
-0.604143,0.117310,0.732386,0.546064,0.817617,-0.182528
0.589740,-0.338204,-0.928523,0.582894,0.096856,0.806755
-0.206010,0.339392,0.785154,0.523487,0.311942,0.792877
0.552296,-0.390775,-0.928546,-0.429769,-0.017499,0.902769
0.106758,-0.070430,0.263270,-0.781115,0.337905,0.525052
0.409979,-0.354627,-0.939983,-0.101811,-0.094742,-0.990282
-0.273432,-0.082419,0.549913,-0.426141,-0.584888,0.690152
0.761143,-0.106782,-0.966067,-0.708046,-0.440012,0.552323
-0.130500,-0.282842,0.402130,0.262604,-0.961525,-0.080671
0.328587,-0.326892,-0.972484,-0.194281,0.708786,0.678143
0.027163,-0.192918,0.389823,-0.094156,0.989447,0.110134
0.779720,-0.720882,-0.908936,-0.216037,0.656943,0.722325
0.664218,-0.076936,-0.955008,0.278973,-0.346597,-0.895569
0.058308,-0.100299,0.228242,-0.892050,-0.019361,-0.451521
-0.386340,0.232384,0.819595,-0.619429,-0.223695,0.752508
-0.104497,0.357005,0.802602,0.415525,-0.647275,0.639042
-0.196914,-0.184445,0.309359,-0.300123,-0.951471,0.068039
0.430316,-0.225875,-0.962368,0.951555,-0.254514,-0.172527
0.053903,0.001868,0.809807,-0.760985,0.645796,0.062043
0.558452,-0.057410,-0.948057,0.059242,-0.318846,0.945953
-0.609111,-0.299306,0.767096,0.799320,0.356841,-0.483479
0.617437,0.016963,-0.938983,0.130578,0.613031,0.779193
0.128376,-0.177285,0.300540,0.941898,0.128132,0.310500
-0.075348,0.531902,0.754093,0.024245,-0.329760,0.943753
-0.341624,0.525704,0.828023,-0.081316,0.945738,-0.314589
-0.529312,0.100659,0.708327,-0.031752,0.745357,0.665910
0.179814,-0.203963,0.086902,0.288538,-0.193453,0.937722
-0.111434,0.031690,0.810240,0.710547,0.686135,0.156018
-0.181819,-0.070255,0.709843,0.825504,0.502813,0.256365
0.837229,-0.373099,-0.939302,-0.545454,0.218512,0.809155
0.630806,-0.140616,-0.958778,0.900185,-0.359177,-0.246291
-0.406908,0.036968,0.492866,0.249739,-0.561252,0.789067
0.741005,-0.769188,-0.906645,-0.793963,0.114008,-0.597181
-0.591292,0.661749,0.944245,0.291569,0.868456,-0.400964
-0.170825,-0.162797,0.744496,-0.550220,0.689774,0.470605
-0.082369,0.096348,0.842043,0.928631,-0.370389,0.021371
-0.029162,-0.127817,0.770211,-0.580775,-0.639780,0.503371
0.585791,-0.213079,-0.937121,0.351859,-0.150947,0.923802
-0.660141,0.207124,0.773151,-0.284717,0.592063,0.753922
-0.613857,0.313334,0.756817,0.051331,0.024520,0.998381
-0.733434,0.573355,0.893236,0.076272,0.194260,0.977980
0.596691,-0.389451,-0.953143,-0.315558,0.370352,0.873649
0.558852,-0.431345,-0.940598,0.062355,-0.496475,0.865808
0.532609,-0.500213,-0.947377,0.351778,0.392302,0.849913
-0.693743,-0.120196,0.819900,0.486958,0.388209,0.782410
0.451668,-0.106493,-0.956734,-0.314693,0.831141,-0.458446
0.477102,-0.524952,-0.962594,-0.576513,-0.382604,0.721974
0.621391,-0.870302,-0.943220,-0.361944,-0.388397,0.847434
0.440557,-0.835788,-0.936016,0.220269,0.917198,0.332009
0.069539,-0.244999,0.327762,0.926201,-0.260373,0.272685
0.321354,-0.248290,-0.949789,-0.552401,0.015380,-0.833437
0.006765,-0.337170,0.810473,0.225523,0.617861,0.753251
0.624340,0.142519,-0.949068,-0.217276,-0.103929,0.970562
-0.781334,-0.400786,0.828321,-0.155474,0.476269,0.865445
0.119713,-0.572743,0.613325,0.495536,-0.747853,0.441769
0.195667,-0.300925,-0.187885,0.795258,0.576256,-0.188399
0.520610,-0.141587,-0.958320,0.321675,0.818497,0.476012
-0.323652,-0.011727,0.766736,0.014481,-0.358613,0.933374
0.318980,-0.446478,-0.541198,-0.645407,0.700419,0.304734
0.292622,-0.418839,-0.432247,0.617384,0.736604,-0.276138
-0.738423,-0.362309,0.807305,0.772645,0.233853,0.590197
0.596415,-0.173663,-0.952232,0.467940,0.470488,0.748113
0.366186,-0.721617,-0.951112,-0.255997,0.841204,0.476278
-0.592027,-0.022886,0.722575,-0.826676,0.386531,-0.408903
0.325143,-0.362216,-0.345859,0.907536,0.418889,-0.030164
0.605061,-0.314242,-0.956676,-0.532067,-0.829165,-0.171435
0.801240,-0.719965,-0.893399,-0.200664,0.842917,-0.499224
-0.484006,0.187110,0.750562,-0.676746,0.177296,0.714549
-0.229539,0.554141,0.914671,-0.506193,-0.400529,-0.763770
0.444696,-0.044125,-0.983336,0.976084,0.141187,-0.165306
0.527422,-0.247938,-0.930265,-0.645503,0.231750,0.727749
0.534566,0.130837,-0.957690,0.224957,0.913090,-0.340089
-0.276411,0.351864,0.815324,0.957094,0.101923,0.271261
-0.114913,-0.241676,0.731832,-0.510565,0.607892,-0.608105
0.433458,-0.674922,-0.911254,0.822670,-0.159735,0.545618
-0.340591,0.123046,0.807084,-0.039753,-0.166288,0.985276
-0.493242,0.168707,0.787874,-0.614839,-0.734213,0.287933
0.239663,-0.116504,-0.028967,0.776050,0.535339,-0.333403
-0.335169,0.214374,0.813546,0.761731,0.088387,0.641837
-0.245788,0.587229,0.871683,0.982223,-0.182145,0.045401
-0.500886,0.060960,0.780862,0.605952,0.778980,-0.161284
-0.384610,0.296448,0.793632,-0.423780,-0.054370,-0.904132
0.496362,-0.687624,-0.916484,0.923282,0.370443,0.101595
0.266499,-0.348095,-0.964367,0.084711,0.069530,0.993977
0.485324,-0.006437,-0.968983,-0.492183,-0.202482,-0.846615
-0.627719,0.563833,0.912468,-0.716182,-0.319052,-0.620717
0.878773,-0.305260,-0.917060,0.978557,-0.205247,-0.017300
0.605395,-0.530213,-0.912914,0.476162,0.513155,-0.714102
-0.166004,-0.458581,0.845954,0.639914,0.414355,0.647163
0.692975,-0.118289,-0.956051,0.546374,0.706188,-0.450304
-0.586148,0.244708,0.869149,-0.568365,0.805355,0.168419
0.328136,-0.418420,-0.952930,0.219015,0.957811,-0.186092
0.593098,-0.217588,-0.953478,0.874618,0.367556,-0.316143
0.568153,-0.632802,-0.952851,-0.237894,0.147837,0.959974
-0.341405,0.472629,0.876154,0.011500,-0.200201,0.979687
-0.423397,0.616354,0.805524,-0.318518,0.489482,0.811759
-0.508899,-0.356157,0.808897,0.799456,0.600723,0.001471
-0.607639,0.033721,0.590586,0.995591,-0.092752,-0.014002
-0.316904,0.278087,0.816772,0.877568,0.004359,-0.479432
-0.250634,0.059844,0.693384,0.830745,0.548323,-0.095936
0.463493,-0.540244,-0.946631,-0.292788,0.873263,0.389470
-0.186179,0.904278,0.838422,-0.581459,0.028126,-0.813090
0.644646,-0.422843,-0.950287,0.596647,0.798860,-0.076385
0.430387,-0.055884,-0.967159,0.835455,-0.213466,0.506407
-0.248723,-0.029335,0.772678,0.856760,0.268900,-0.440063
0.583360,-0.123276,-0.944299,0.029296,0.109951,0.993505
-0.036163,-0.329206,0.539787,-0.597881,-0.786204,0.156275
0.612516,-0.194724,-0.946051,0.575034,0.726182,-0.376823
-0.538896,0.419013,0.827357,0.384044,-0.210237,0.899061
-0.164077,0.607483,0.810195,0.776760,0.310811,0.547759
0.514629,-0.235184,-0.951848,0.264572,0.556822,-0.787369
-0.123035,0.479729,0.777640,0.734064,0.390800,0.555361
0.854158,-0.325037,-0.938417,0.154345,0.803793,0.574539
-0.294512,0.373083,0.932205,-0.489344,-0.101418,-0.866173
0.849940,-0.421515,-0.908024,-0.011407,0.378915,0.925361
0.642245,-0.574521,-0.946804,0.082335,0.411386,0.907735
-0.449264,-0.241325,0.876085,-0.086439,0.945626,0.313560
0.115258,-0.132594,0.273424,0.585802,0.200878,0.785165
-0.435022,0.566137,0.821165,0.921653,0.380997,0.073464
0.367654,-0.568127,-0.934010,0.586877,-0.303793,-0.750524
-0.347855,0.173579,0.784354,-0.323559,-0.318080,0.891142
0.126774,-0.175912,0.050612,-0.706237,0.666039,-0.240045
0.642931,-0.438329,-0.941712,-0.607913,-0.573554,-0.549069
0.832962,-0.309820,-0.924705,-0.683361,0.436989,-0.584857
0.526494,-0.759725,-0.932862,0.152404,0.081883,0.984920
0.542628,0.004672,-0.951197,0.907913,0.027054,0.418285
-0.283314,-0.126852,0.750420,0.986879,0.029253,0.158789
-0.327501,0.726018,0.850450,0.339006,-0.258228,0.904651
0.357854,-0.608249,-0.944256,-0.411480,0.473906,0.778522
-0.715867,-0.211986,0.786923,0.865019,-0.433330,0.252919
0.273495,-0.359968,-0.161816,0.439888,0.894002,-0.085201
-0.290497,0.739036,0.846723,0.741511,0.132714,0.657684
-0.397336,0.306682,0.815328,-0.538923,-0.804070,0.251065
0.126556,-0.507029,-0.951456,0.959155,-0.184449,0.214478
0.402878,-0.638500,-0.921369,-0.275410,0.903309,-0.328911
-0.405589,0.017947,0.856812,-0.073485,-0.551200,-0.831131
0.586390,-0.387789,-0.922694,0.010142,-0.016716,0.999809
0.227430,-0.363149,-0.096537,-0.235103,-0.885221,0.401386
0.169498,-0.208114,0.051818,-0.785788,0.068437,-0.614698
-0.490330,0.084364,0.782336,0.000216,0.094984,0.995479
0.714338,-0.817430,-0.920527,-0.601844,0.734083,-0.314493
0.511028,-0.542887,-0.953406,-0.095762,-0.652997,0.751282
-0.737596,0.037242,0.816150,0.728979,-0.630648,-0.266218
-0.187898,-0.328890,0.812749,0.075850,0.978935,0.189558
-0.220116,0.581322,0.857141,0.678872,0.653170,0.335414
0.366688,-0.277266,-0.980031,-0.716783,0.530149,-0.452950
-0.432627,0.492561,0.871399,0.920815,-0.364859,-0.137762
0.409609,-0.667668,-0.931250,0.706895,-0.423397,-0.566599
0.153837,-0.482539,-0.938782,0.425063,0.897769,-0.115462
-0.277534,0.214391,0.777123,-0.781136,0.623765,-0.027268
0.780660,-0.579645,-0.917971,-0.541998,-0.247155,0.803214
0.229281,-0.058802,0.108640,0.394668,-0.918822,-0.001915
-0.141260,-0.228309,0.757337,-0.535219,-0.419943,0.732932
-0.906001,0.143958,0.927481,0.697249,0.631099,0.339938
-0.151743,-0.263459,0.412609,-0.251529,0.871777,0.420402
-0.369261,0.334814,0.803315,0.839001,-0.515733,-0.173487
-0.452824,0.276692,0.829179,-0.240608,0.708484,-0.663445
-0.605611,0.265032,0.875396,-0.296047,-0.939552,0.172041
-0.420055,0.500253,0.884272,0.966094,0.246524,0.076733
0.571879,-0.328237,-0.927849,-0.014609,0.318253,0.947893
0.291839,-0.447490,-0.663882,0.974148,-0.211714,0.078815
0.156667,-0.590389,-0.955853,0.976437,0.000954,-0.215799
-0.560337,-0.290225,0.828518,0.951175,-0.154609,-0.267137
-0.592208,-0.602008,0.867183,0.544339,0.814433,-0.200984
0.498800,-0.018794,-0.949653,-0.409277,0.735765,0.539576
-0.785725,-0.068177,0.777167,-0.058391,-0.933243,0.354470
0.693310,-0.718689,-0.911123,0.163556,-0.609259,0.775920
-0.136317,-0.280431,0.764233,0.078928,0.994764,0.064915
0.221253,-0.484589,-0.957472,-0.359258,0.484185,0.797809
0.364771,-0.428323,-0.614178,-0.227726,0.939593,0.255550
-0.517421,0.565664,0.798632,-0.348832,0.912534,-0.213537
0.657166,-0.835143,-0.931089,0.816769,0.549853,0.174784
-0.041694,-0.335354,0.184771,-0.282745,-0.660211,0.695828
0.604148,-0.610206,-0.912273,0.769242,0.507285,-0.388496
0.622378,-0.639241,-0.940824,-0.376957,-0.031576,0.925692
0.597045,-0.714846,-0.930599,0.025230,0.006418,0.999661
-0.655583,0.277392,0.764418,0.327714,-0.323521,-0.887659
0.074780,-0.168762,0.094256,0.536147,0.055808,0.842278
-0.499304,0.293966,0.759989,0.335493,0.859849,0.384843
-0.224859,0.284940,0.820051,0.593848,0.463242,-0.657838
0.246049,-0.638162,-0.955075,0.832931,0.121122,0.539959
0.125126,-0.208634,0.034647,0.531548,-0.635955,0.559480
0.534619,0.034683,-0.960257,0.392919,0.773752,0.496913
0.526670,-0.538995,-0.923584,-0.334592,-0.708641,0.621190
-0.323574,0.078406,0.782427,0.290694,0.738186,0.608751
-0.631686,0.311212,0.798799,0.892375,0.141654,0.428488
0.585778,-0.515308,-0.892567,-0.363230,-0.782040,-0.506436
-0.594386,0.158942,0.704888,0.772464,0.005196,0.635038
0.305105,-0.134234,0.092339,0.814044,-0.572999,-0.094896
-0.381429,0.739935,0.900985,0.790564,-0.024494,0.611889
0.749580,-0.836637,-0.906040,0.539445,-0.057037,0.840087
-0.399997,0.302931,0.808411,-0.596051,0.521247,-0.610758
0.276450,-0.369031,-0.235652,-0.550830,0.636966,-0.539315
-0.678901,-0.263002,0.759660,0.763807,0.102231,0.637297
-0.705354,-0.289662,0.788617,-0.718911,-0.680664,-0.140938
-0.277544,0.003804,0.688599,0.834598,-0.256606,-0.487442
0.543200,-0.188421,-0.955831,0.294339,0.669744,0.681768
0.526131,-0.618856,-0.936321,0.104508,-0.164072,0.980897
0.127995,0.114473,0.438181,-0.057581,0.974762,-0.215695
0.231211,-0.434185,-0.301290,-0.735672,0.254064,-0.627884
0.169922,-0.157825,-0.043078,0.015250,-0.203235,0.979011
0.843015,-0.694580,-0.918038,-0.594406,0.308762,-0.742528
-0.294701,-0.222375,0.484843,-0.146120,-0.987660,-0.056355
0.397830,-0.595236,-0.881351,-0.651985,0.704713,0.279812
0.713911,-0.178721,-0.966242,0.363620,0.128925,0.922583
-0.276070,0.275859,0.773484,-0.409330,-0.748890,0.521165
0.700140,-0.001817,-0.934755,0.095098,0.160327,0.982472
0.437161,-0.669990,-0.904916,0.866199,-0.282676,0.412059
0.329098,-0.501077,-0.945130,-0.056533,-0.998064,0.025929
-0.326734,0.157527,0.786830,-0.606531,-0.013445,0.794946
0.498671,0.078177,-0.950613,-0.103231,-0.502067,0.858645
-0.149395,0.281105,0.798752,-0.473451,0.879323,0.051336
-0.094362,-0.108120,0.821148,0.897281,0.065381,0.436590
0.320959,-0.317812,-0.201516,0.504965,0.826887,0.247524
0.112728,-0.231693,0.061202,0.880566,0.323161,0.346655
-0.654097,0.355419,0.755844,0.412617,0.049655,0.909550
-0.366397,-0.225975,0.699248,0.979428,-0.026981,-0.199982
0.883135,-0.567524,-0.937536,0.801071,-0.593490,-0.077806
-0.390748,0.536184,0.863136,0.441709,-0.763137,-0.471715
0.201340,-0.097101,0.119730,0.100170,-0.886103,0.452535
0.311545,-0.590647,-0.939095,0.519677,-0.332410,0.787045
0.573253,-0.290055,-0.933822,-0.216576,0.790341,0.573110
0.617815,-0.101652,-0.943987,0.438838,-0.885192,-0.154456
0.372631,-0.440761,-0.951382,0.383014,0.474239,-0.792716
-0.646991,-0.501602,0.890462,0.470027,0.585330,0.660654
-0.604623,0.829815,0.982127,0.381621,-0.111569,-0.917561
0.740389,-0.441333,-0.896419,0.210035,0.390195,0.896456
-0.441769,0.307909,0.825118,0.006077,0.231158,0.972897
-0.389242,0.327165,0.905088,0.768995,0.358399,-0.529336
-0.671036,0.781721,0.976869,0.717522,-0.104702,-0.688622
-0.621745,-0.221383,0.708291,0.993132,0.116002,-0.015259
-0.639927,0.151666,0.721719,0.684449,0.084559,0.724141
0.285668,-0.321321,-0.293994,0.989398,-0.115977,0.087417
0.348006,-0.303329,-0.423219,0.970291,0.238861,-0.038483
-0.598941,0.117288,0.673203,0.854012,0.403220,0.328751
-0.619903,-0.223829,0.706829,0.993132,0.116002,-0.015259
0.649373,-0.472282,-0.930194,0.955668,0.017735,-0.293910
-0.344542,-0.064713,0.778303,0.552089,0.746453,0.371491
0.127401,-0.495459,-0.972155,-0.089378,-0.967968,0.234627
0.499272,-0.816773,-0.918597,0.489999,0.869078,0.067863
0.380357,-0.400415,-0.628738,-0.146515,-0.943515,0.297173
0.330736,-0.491558,-0.552335,0.153077,-0.977239,-0.146873
0.942826,-0.453316,-0.919053,0.276108,-0.221330,-0.935295
-0.276508,0.488305,0.843428,0.919083,0.101625,0.380735
0.625236,-0.395345,-0.937747,-0.770908,0.582372,-0.257960
-0.546462,0.304056,0.748935,0.249169,-0.633733,0.732323
0.348452,-0.531714,-0.913356,-0.006209,0.226864,0.973907
-0.382625,-0.226186,0.470738,0.951228,-0.291888,0.099836
-0.708736,-0.033606,0.741633,0.710764,0.039584,0.702315
0.827879,-0.469446,-0.936620,0.504220,0.294050,-0.811971
-0.163527,0.484022,0.856857,-0.330647,0.027856,-0.943343
0.540051,-0.010305,-0.978690,0.884735,-0.018165,-0.465740
0.373000,-0.500529,-0.696791,-0.669836,0.733992,0.112142
0.725403,-0.296439,-0.915746,-0.318547,0.187750,0.929128
-0.213475,0.645944,0.811503,0.006542,0.488033,0.872801
-0.343874,-0.370986,0.807896,0.443377,-0.732694,0.516311
0.664543,-0.161000,-0.957622,0.122093,0.938438,0.323153
0.467528,-0.416490,-0.959706,0.532226,0.539378,0.652539
-0.301155,0.037279,0.592464,0.746232,-0.624297,0.231067
0.702426,-0.653193,-0.918490,-0.027851,-0.736421,0.675951
0.598673,-0.510067,-0.904334,-0.518187,-0.822575,-0.234205
-0.397959,-0.292988,0.878260,0.767368,-0.032413,0.640387
0.522090,-0.821244,-0.949569,0.417127,0.895485,0.155276
-0.871892,-0.104001,0.787624,0.960749,-0.214119,0.176392
0.677957,-0.788224,-0.930683,0.237238,0.970441,0.044301
-0.288443,-0.095833,0.746196,0.819282,0.492991,0.292810
0.277260,-0.302048,-0.199482,-0.179786,0.843212,0.506627
0.359588,-0.071953,-0.974465,0.967839,-0.199937,0.152682
0.156260,-0.099737,-0.016659,-0.648636,0.740794,-0.174630
0.793573,-0.221222,-0.942904,0.259560,-0.022774,-0.965458
0.770982,-0.298498,-0.922931,0.300479,0.939619,-0.163794
0.297926,-0.303848,-0.057109,-0.067121,-0.380673,0.922270
-0.470456,-0.447149,0.596288,0.935798,-0.002721,0.352527
0.934180,-0.523069,-0.924169,-0.101495,0.171215,0.979992
0.639490,-0.501863,-0.951500,0.476483,0.494811,-0.726722
0.736564,-0.476780,-0.901734,-0.346499,-0.098035,0.932914
0.498595,-0.188837,-0.946561,-0.637886,0.241986,-0.731125
-0.688505,-0.005855,0.826761,-0.172025,0.485166,0.857334
0.612194,-0.078195,-0.962633,0.931280,0.290837,0.219388
0.560403,-0.304016,-0.952007,0.095211,0.989942,0.104645
0.449559,0.086774,-0.954594,-0.219702,0.752178,0.621256
-0.321199,0.289935,0.817987,0.905873,0.234036,-0.353018
0.354985,-0.608018,-0.966417,0.051849,0.666862,0.743375
-0.663072,-0.056522,0.736236,0.768120,-0.203829,0.606997
0.824750,-0.258155,-0.925725,0.879441,-0.402920,-0.253453
0.665019,-0.201220,-0.947589,0.876722,-0.389725,-0.281910
-0.577918,0.147325,0.748239,-0.165163,0.438693,0.883328
-0.199314,0.269873,0.841427,0.112804,-0.951587,0.285931
-0.404838,-0.418968,0.820116,0.145187,-0.793777,-0.590626
0.398450,-0.381655,-0.960626,-0.284839,0.542748,0.790121
-0.499114,0.168763,0.801927,0.803255,-0.483790,-0.347460
-0.140621,-0.400233,0.655160,0.877301,0.415794,0.239706
0.535646,0.127654,-0.949904,0.193279,0.224965,0.955005
-0.528196,-0.543974,0.860511,0.773778,0.142223,0.617284
0.791943,-0.570389,-0.916143,-0.463045,-0.171275,0.869629
0.418094,-0.449620,-0.968729,0.497765,0.463455,0.733103
0.756170,-0.531487,-0.908045,0.137040,-0.308193,-0.941402
0.825901,-0.508721,-0.911127,-0.340634,0.855319,0.390383
-0.338909,-0.443763,0.846802,0.893839,0.261312,0.364373
-0.294333,0.629989,0.857171,0.241225,0.079606,0.967199
-0.075011,-0.271026,0.748099,-0.391779,0.918018,-0.061259
0.385688,-0.426512,-0.953754,-0.159056,0.659501,0.734683
0.840681,-0.725182,-0.929479,0.711857,-0.645084,-0.277716
0.500905,0.012632,-0.977983,-0.250561,0.401455,0.880939
0.228024,-0.117360,-0.020687,0.373430,-0.286902,0.882178
0.383523,-0.016147,-0.982656,0.450537,0.854291,0.259238
-0.300808,-0.436679,0.759891,-0.541189,-0.764365,-0.350516
0.739709,-0.322086,-0.911729,0.281514,-0.165193,-0.945231
0.261602,-0.359607,-0.422140,0.911332,-0.335115,-0.239106
0.346292,-0.537669,-0.949911,-0.751620,0.068579,-0.656022
0.172246,-0.213848,0.001797,0.901290,-0.203003,0.382708
-0.624434,0.388901,0.764372,-0.031547,0.117565,0.992564
-0.415178,0.390341,0.871111,0.525449,0.135585,-0.839953
-0.809247,0.010007,0.813400,0.488514,0.761361,-0.426245
-0.121904,0.059870,0.780406,0.481755,0.787063,0.385284
-0.578435,0.168299,0.697910,0.917403,0.379762,-0.118968
0.178803,-0.498365,0.586570,0.701823,-0.451906,0.550659
0.417246,-0.571635,-0.897007,0.879716,-0.395444,-0.264052
0.224926,-0.215428,-0.058537,0.960728,0.154671,0.230386
-0.274850,-0.189276,0.731796,0.672745,-0.734193,-0.091518
-0.368217,0.687793,0.839733,-0.458822,0.432273,-0.776288
-0.414638,-0.070635,0.823526,-0.442111,-0.828478,0.343747
0.823723,-0.404119,-0.916114,-0.677024,0.577576,0.456120
-0.092982,0.139226,0.397934,0.338790,-0.807947,0.482123
0.702638,-0.505085,-0.930076,0.237945,0.080794,-0.967913
