0.222098,-0.111555,0.615109,0.494887,0.824547,-0.274241
0.190605,-0.144246,0.593497,0.936910,0.169551,-0.305701
0.170033,-0.176930,0.511731,0.806406,0.584063,0.092634
0.175654,-0.177240,0.481551,-0.311841,-0.243344,0.918443
0.206617,-0.170106,0.360713,0.938527,0.345149,0.006189
0.340544,-0.284303,-0.976220,-0.126746,-0.075071,0.989090
0.149355,-0.115488,0.964962,-0.487530,-0.241609,-0.839011
0.223477,-0.054665,0.924329,0.627367,0.025911,-0.778293
0.151902,-0.116416,0.970703,-0.464652,-0.205243,-0.861379
0.171412,-0.102868,0.940023,-0.257260,0.675868,0.690666
0.188061,-0.092110,0.909725,0.638618,0.743490,-0.198468
0.208843,-0.078971,0.877572,-0.021709,0.706870,0.707011
0.291554,-0.010603,0.834584,-0.084440,0.614277,0.784559
0.202375,-0.093662,0.822600,-0.504038,-0.683064,0.528553
0.204708,-0.096251,0.793598,0.649741,0.732438,-0.203398
0.162400,-0.138141,0.773046,-0.828672,-0.058547,0.556664
0.194954,-0.113316,0.739244,0.012686,0.909859,0.414723
0.272043,-0.049184,0.697169,0.119541,-0.992603,-0.021216
0.233975,-0.087974,0.675763,-0.509233,-0.212065,0.834092
0.175548,-0.143936,0.659363,-0.636249,0.758595,0.140427
0.223690,-0.106075,0.621203,-0.578891,-0.715345,0.391365
0.180745,-0.148589,0.600563,0.866993,0.421941,-0.265120
0.170564,-0.162138,0.573681,-0.568777,0.160213,0.806737
0.167914,-0.172277,0.518326,-0.370032,-0.928830,-0.018752
0.117228,-0.226686,0.471363,-0.763849,0.491069,0.418792
0.338955,-0.006051,0.946294,0.987310,-0.111420,-0.113160
0.190395,-0.141038,0.945352,-0.533078,0.689971,0.489660
0.212979,-0.124901,0.912934,-0.200891,-0.292255,0.935002
0.278299,-0.072147,0.872567,-0.287262,0.891375,0.350614
0.284237,-0.071111,0.843741,0.808391,-0.557905,0.187739
0.272784,-0.085594,0.818537,0.662359,-0.748720,0.026457
0.332804,-0.036974,0.778699,-0.640969,0.105386,0.760298
0.274907,-0.100178,0.704589,0.227983,-0.973367,-0.024091
0.194530,-0.223687,0.378232,0.950169,0.073399,0.302970
0.385082,-0.253992,-0.976043,0.080749,0.042115,0.995844
0.235353,-0.171450,0.925949,0.564924,0.170154,-0.807409
0.253592,-0.159139,0.894238,0.181736,0.688937,0.701667
0.423044,-0.014120,0.835379,-0.457496,0.035610,-0.888498
0.427497,-0.014429,0.805906,-0.473808,0.150164,0.867731
0.348285,-0.088593,0.792126,0.875862,0.399266,0.271020
0.302582,-0.348845,-0.090369,-0.727391,-0.675370,-0.121567
0.308944,-0.355878,-0.181733,0.956973,0.288378,0.032244
0.296327,-0.371296,-0.208498,0.986654,0.159974,0.030361
0.310643,-0.436873,-0.199871,0.988973,0.138584,0.052221
0.418909,-0.740157,-0.966592,-0.547120,0.036512,0.836258
0.451460,-0.816702,-0.954844,0.565001,0.378562,-0.733119
0.378720,-0.395085,-0.977751,-0.314167,-0.075573,0.946355
0.722816,-0.368915,-0.958141,-0.150125,-0.052306,0.987282
0.545836,0.026431,0.630684,0.758658,-0.651488,0.001379
0.510418,0.065739,0.674320,0.792129,-0.609752,-0.027113
0.458143,-0.028596,0.729381,-0.377484,0.650242,0.659311
0.405547,0.014745,0.779582,-0.205627,-0.245270,0.947397
0.431950,0.051565,0.824396,0.751699,0.284769,0.594857
0.224538,-0.222961,0.365277,0.976131,0.131876,0.172562
0.424633,0.068839,0.624383,0.860751,0.443211,-0.250342
0.401622,0.025396,0.664280,-0.435960,-0.877812,0.198458
0.374264,-0.026424,0.707357,0.394679,-0.914291,-0.091109
0.290706,-0.173515,0.776020,0.291790,-0.285925,-0.912746
0.208209,-0.119731,0.418806,0.832258,0.531163,0.158783
0.186363,-0.166071,0.491091,0.864309,0.495072,0.088736
0.276179,-0.060770,0.797485,-0.351611,0.707535,-0.612996
0.304278,-0.020736,0.842328,-0.773705,0.182398,-0.606722
0.258151,-0.103486,0.891941,0.624986,0.579436,0.523112
0.237476,-0.142592,0.929364,-0.537845,0.808191,0.239895
0.344043,0.035738,0.908106,-0.721818,0.615903,0.315661
0.336939,0.019089,0.939110,0.952224,0.299068,0.061864
0.173321,-0.200719,0.585930,-0.661188,0.253136,0.706225
0.199617,-0.159347,0.601564,-0.782213,-0.523377,0.337963
0.353161,0.083631,0.673143,0.786807,-0.315208,0.530640
0.396214,0.153767,0.681858,-0.573578,0.808722,-0.130299
0.265151,-0.074937,0.773458,-0.107393,0.906202,0.408980
0.125602,-0.164417,0.817595,0.662431,0.020286,0.748848
0.165898,-0.098625,0.826075,-0.105780,0.889164,0.445194
0.251048,0.043913,0.814415,-0.468567,-0.023457,-0.883116
0.199193,-0.048976,0.868179,0.804068,-0.576115,-0.146855
0.194954,-0.060770,0.899037,0.723205,-0.310331,0.616984
0.215526,-0.029531,0.916939,0.433533,-0.097758,-0.895820
0.103652,-0.295061,0.441478,-0.386252,-0.536998,-0.749962
0.419332,0.373885,0.438268,0.980736,-0.163388,0.107057
0.168338,-0.062834,0.593467,-0.536709,0.787563,-0.302802
0.478394,0.467292,0.468919,-0.465608,0.849624,-0.247685
0.136738,-0.125312,0.667637,0.613569,0.789520,-0.013844
0.188592,-0.047215,0.729616,-0.255542,0.877957,0.404833
0.171095,-0.081869,0.766362,0.983492,-0.143134,-0.110709
-0.014263,-0.348435,0.477605,-0.630949,0.773512,-0.059852
0.187213,-0.009770,0.434911,0.835745,-0.005761,-0.549087
0.344256,0.256891,0.386182,0.121659,-0.858147,0.498781
0.073751,-0.096043,0.845949,0.945855,0.239096,0.219527
0.111290,-0.034702,0.855842,-0.796337,0.082121,0.599252
0.073431,-0.104522,0.902747,-0.390709,-0.015463,-0.920385
0.262711,0.208795,0.898890,0.888880,-0.450821,0.081567
0.279360,0.234036,0.918588,-0.158293,0.862636,-0.480419
0.244048,0.259378,0.318549,0.891838,0.197620,0.406904
0.342347,0.399536,0.480903,-0.712688,0.623502,-0.321436
0.088491,-0.042978,0.636779,0.300758,-0.096722,0.948783
-0.037271,-0.263405,0.727084,0.544930,-0.706111,-0.452171
0.461430,0.592449,0.512231,0.796879,-0.599148,0.077494
-0.010021,-0.223997,0.772280,-0.505595,0.790546,0.345558
0.261546,0.276342,0.401257,0.796580,0.033784,-0.603589
-0.026349,-0.228233,0.606482,0.869391,-0.399275,0.291100
-0.025292,-0.230096,0.634600,0.664273,-0.663914,0.343453
0.073644,-0.092419,0.817006,0.227717,0.741143,0.631548
0.119240,0.060669,0.260515,0.870767,0.177668,0.458475
-0.076295,-0.168344,0.806612,-0.124478,-0.569071,0.812812
0.518903,0.859223,0.517914,0.919199,0.348670,0.183038
0.056467,0.056224,0.771545,0.309946,0.670581,0.673984
0.078842,-0.075455,0.758442,0.435629,0.819368,-0.372642
0.061451,-0.108865,0.794864,-0.600480,0.314087,0.735373
0.071525,-0.111555,0.932279,-0.379433,0.879814,-0.286282
0.083081,-0.095936,0.955451,0.341263,0.696972,0.630689
0.120512,0.162972,0.769954,0.765043,-0.408551,0.497790
0.056044,0.047948,0.828842,-0.607768,0.415771,-0.676574
0.033880,0.005433,0.867355,0.333050,0.396640,0.855426
-0.033349,0.059533,0.887377,-0.332159,0.931388,-0.148951
-0.088065,-0.172896,0.697552,0.973894,0.124940,0.189528
0.106516,0.209830,0.269790,0.854221,-0.450770,0.259062
0.036954,0.085393,0.336834,0.115997,-0.651599,0.749642
-0.092093,-0.183755,0.727761,-0.336265,-0.047470,-0.940570
-0.037485,-0.093044,0.730352,0.419847,-0.857360,0.297762
-0.082019,-0.174449,0.780260,0.215542,-0.469750,0.856082
0.095381,0.107837,0.866913,-0.529027,-0.843343,0.094353
0.075554,0.243449,0.863439,-0.724132,0.681020,0.108837
0.107364,0.290099,0.905073,0.082296,-0.996030,-0.033948
-0.208950,-0.073182,0.833965,-0.726271,-0.386828,0.568238
-0.069719,-0.073699,0.208752,0.719190,0.622153,0.309340
-0.203860,-0.177031,0.566438,0.858196,0.102491,0.502986
0.034728,0.228657,0.503928,-0.475335,-0.642464,0.601079
-0.035362,0.102565,0.569088,-0.363742,-0.824913,0.432678
-0.050423,0.071737,0.605481,0.550876,-0.790040,0.269021
-0.207572,-0.204552,0.713010,-0.096486,0.358300,0.928607
-0.147339,-0.128936,0.884138,0.077877,-0.872899,0.481646
0.072797,0.247168,0.807731,0.363618,0.851061,0.378784
0.045015,0.276652,0.287220,0.537458,-0.206839,0.817531
-0.128146,-0.071111,0.703116,-0.540295,-0.589736,0.600243
-0.077780,0.012157,0.708122,0.733426,-0.019091,0.679501
-0.120619,-0.066559,0.757411,-0.540949,0.756802,0.366912
-0.183288,-0.179519,0.815916,0.322358,0.910639,0.258500
-0.125816,-0.084041,0.817124,-0.179226,-0.373460,0.910168
-0.069719,0.009259,0.817889,0.515725,-0.735345,0.439654
-0.181803,0.168351,0.664663,0.431595,0.818942,-0.378232
0.024337,0.518494,0.620644,-0.200326,-0.333990,0.921043
-0.006626,0.459634,0.665605,0.886199,0.379642,-0.265562
-0.009173,0.446395,0.724787,0.033124,0.994114,0.103154
-0.006522,0.446805,0.752965,0.920110,-0.137271,0.366817
-0.122422,0.072873,0.820009,0.287390,-0.070954,-0.955182
-0.053390,0.188624,0.814768,-0.603093,0.775149,0.188208
0.024547,0.310372,0.863586,0.853477,0.229551,-0.467850
-0.279784,0.061806,0.295818,0.684694,-0.634720,0.358225
-0.289858,-0.005325,0.628947,0.780597,0.490153,0.387838
-0.063888,0.382673,0.546445,0.667079,0.739157,0.093024
-0.029851,0.437398,0.559666,0.987145,0.101512,-0.123447
-0.126767,0.233827,0.839825,-0.409331,-0.016305,0.912240
-0.199935,0.025705,0.266050,-0.604379,-0.790894,-0.095988
-0.100788,0.175795,0.368368,-0.655426,0.041380,-0.754125
-0.021580,0.260413,0.684302,0.711140,-0.690497,0.132263
0.061875,0.400262,0.673349,0.870670,0.491855,-0.003594
-0.273633,-0.146108,0.604332,0.875323,-0.477377,-0.076942
-0.214040,-0.047012,0.604362,-0.244813,0.969416,0.017321
-0.032608,0.262996,0.543795,0.735961,-0.526449,-0.425692
-0.229098,-0.082595,0.670375,-0.328340,0.826332,0.457567
-0.097608,0.141664,0.633747,0.988225,0.071089,0.135490
-0.088381,0.153451,0.658862,0.350607,0.612938,-0.708083
-0.157520,0.029639,0.721136,-0.524726,-0.047795,0.849928
-0.202268,0.173939,0.406675,0.657475,0.721071,-0.218593
-0.400667,-0.015149,0.382413,0.494742,-0.857299,0.142372
-0.185939,0.344711,0.361684,0.451195,0.396674,0.799420
-0.209691,0.353922,0.690132,0.964893,0.165159,-0.204215
-0.199407,0.367571,0.713510,0.767666,0.119132,0.629679
0.068237,0.769023,0.354912,-0.072418,-0.684652,0.725264
-0.347541,0.032019,0.651766,0.967988,-0.235793,-0.086025
-0.314141,0.080942,0.693430,0.225125,0.029393,0.973886
-0.046604,0.542182,0.591318,0.205470,-0.943956,-0.258319
-0.152429,0.353094,0.673084,-0.418470,0.840767,0.343501
-0.066008,0.486011,0.746870,-0.319792,-0.218271,-0.922004
0.023596,0.637552,0.732178,0.561119,0.754262,0.340932
-0.223370,0.417018,0.698111,-0.456212,-0.888691,0.045816
-0.061555,0.693616,0.647791,-0.611308,0.787930,-0.073951
-0.155507,0.526146,0.721490,-0.678976,0.599198,-0.424209
-0.052649,0.699512,0.701586,0.125314,-0.030763,0.991640
-0.275328,0.275515,0.486733,0.902515,-0.023091,0.430039
-0.226020,0.347608,0.551451,0.033015,0.368300,0.929120
-0.081809,0.580245,0.597943,0.751248,0.086546,0.654321
-0.159853,0.561836,0.716779,0.193693,0.618383,-0.761633
-0.144902,0.583244,0.738979,-0.482135,0.875680,0.027042
-0.259954,0.401607,0.389980,0.933226,-0.133107,0.333725
-0.188589,0.516524,0.414036,-0.589427,-0.592643,-0.548954
-0.253592,0.399328,0.477252,0.745964,0.519011,0.417331
-0.309368,0.343264,0.496891,0.951878,0.305324,0.026571
-0.185832,0.524384,0.671670,0.767637,0.415873,0.487630
-0.060176,0.737986,0.639223,0.966499,0.007901,0.256548
-0.217222,0.576211,0.369664,0.469617,0.669883,-0.575079
-0.305550,0.380501,0.737713,-0.786755,0.606296,0.115854
-0.107364,0.730436,0.582661,0.292496,0.159888,0.942805
-0.296220,0.400155,0.704029,0.792409,-0.550601,-0.262540
-0.419650,0.176830,0.373962,-0.037099,-0.988420,0.147139
-0.347861,0.478978,0.413653,-0.027163,0.393550,0.918902
-0.382536,0.414429,0.461529,-0.044674,-0.982559,0.180506
-0.442979,0.318648,0.431290,-0.388331,-0.223335,0.894047
-0.524310,0.342229,0.764478,-0.675851,-0.512816,0.529381
-0.503632,0.373676,0.783675,-0.591575,-0.801818,-0.084422
0.380202,-0.194513,-0.974306,0.032719,-0.090499,0.995359
0.416152,-0.204861,-0.977810,0.219529,0.196425,-0.955628
0.367795,-0.264851,-0.979106,-0.091959,-0.009190,0.995720
0.500981,-0.122111,-0.973334,0.350706,-0.086885,-0.932447
0.450188,-0.185100,-0.973069,0.101878,0.195004,-0.975497
0.404168,-0.242306,-0.976279,0.010161,0.007433,0.999921
0.354968,-0.303231,-0.977044,-0.143353,-0.025447,0.989344
0.657072,-0.109901,-0.969271,0.729050,0.470716,-0.496902
0.514343,-0.287302,-0.972481,-0.262766,-0.141732,0.954393
0.464291,-0.349053,-0.973040,0.161373,0.184715,0.969453
0.414983,-0.410085,-0.972068,-0.239530,0.645408,0.725310
0.364086,-0.473074,-0.971215,-0.106714,0.425189,0.898791
0.667673,-0.364774,-0.946835,-0.261939,0.485245,0.834221
0.630349,-0.412459,-0.955109,-0.020435,0.759696,0.649957
0.388794,-0.125312,0.808231,0.030227,-0.560167,0.827828
0.560787,0.073290,0.620674,0.756465,-0.649996,-0.072570
0.588889,0.102767,0.546799,-0.095781,-0.952432,0.289309
0.711680,0.080739,0.478489,-0.290218,0.949158,-0.121956
0.621230,-0.031286,0.477576,0.998533,-0.028826,0.045826
0.634802,-0.018047,0.439740,0.946949,-0.320127,0.028405
0.278513,-0.226996,0.763977,-0.222849,0.715340,0.662289
0.544989,0.087148,0.571532,-0.491195,0.796838,-0.351820
0.538730,0.077324,0.547800,-0.400847,0.915359,0.037940
0.525158,0.058498,0.527483,-0.315876,-0.884637,-0.342988
0.393140,-0.137004,0.583869,-0.249710,-0.744268,0.619444
0.430995,-0.094489,0.532312,-0.179143,0.098877,0.978842
0.281800,-0.337569,-0.236087,-0.728143,0.685123,-0.020346
0.527808,0.059223,0.497833,0.506891,0.844048,0.175056
0.416999,-0.074627,0.538525,0.297606,-0.170028,-0.939426
0.258472,-0.335606,-0.217920,0.996769,-0.002651,0.080284
0.447431,-0.012150,0.823719,0.762390,-0.376327,0.526441
0.319442,-0.169171,0.847981,0.973669,-0.219690,0.060873
0.516569,0.060461,0.673378,0.959367,-0.278227,-0.046965
0.335878,-0.082488,0.897358,0.962355,-0.047997,-0.267525
0.431419,0.028294,0.813001,0.005001,0.931839,0.362838
0.439480,0.030257,0.727231,-0.407648,0.897416,-0.168724
0.377445,-0.045668,0.737213,0.107195,-0.969240,0.221545
0.531203,0.134315,0.616169,0.945830,0.162353,-0.281152
0.405864,-0.019082,0.636897,0.962830,0.270035,0.006314
0.452415,0.033048,0.579688,0.580326,-0.766821,-0.274240
0.407987,-0.021873,0.579864,-0.320567,0.879777,0.351039
0.519857,0.108045,0.481786,0.422086,0.905769,0.037754
0.265575,-0.242925,0.077373,0.991002,0.127829,-0.039692
0.240761,-0.277989,0.033090,0.041726,0.993586,0.105099
0.249139,-0.270855,-0.005011,0.269370,-0.906410,0.325362
0.261229,-0.114352,0.940199,0.985490,0.146600,-0.085549
0.423892,0.072671,0.790212,-0.660995,0.592555,-0.460395
0.428452,0.075670,0.761062,0.401298,-0.782794,0.475599
0.387732,0.019809,0.702381,-0.659547,0.312147,-0.683785
0.273422,-0.117660,0.745575,0.038765,-0.984216,-0.172672
0.448068,0.086220,0.611222,0.081347,0.955867,-0.282315
0.403851,0.030876,0.610250,0.855092,-0.294039,-0.427035
0.403214,0.027675,0.583162,-0.254494,0.846444,0.467724
0.435555,0.063150,0.534285,-0.073004,0.968820,0.236764
0.238427,-0.210240,0.220412,0.065808,-0.994603,0.080212
0.232916,-0.219445,0.193088,-0.646197,-0.762732,0.025880
0.223690,-0.233101,0.169503,0.856948,-0.513065,-0.049039
0.228567,-0.230096,0.136114,0.709371,-0.691065,0.138645
0.235567,-0.224824,0.099368,0.792002,-0.583912,0.178271
0.225600,-0.239818,0.075842,-0.862698,-0.249782,0.439729
0.210859,-0.260097,0.053818,0.898232,-0.383622,0.214505
0.207572,-0.266714,0.023962,-0.055947,-0.991040,0.121285
0.190922,-0.179411,0.328530,0.987422,0.053425,-0.148807
0.184667,-0.190069,0.302443,0.965762,0.029515,0.257745
0.139602,-0.245823,0.301619,0.960369,-0.276571,-0.034636
0.193152,-0.185415,0.236577,-0.393690,0.918917,0.024498
0.187000,-0.195340,0.211196,-0.345161,-0.936635,-0.059815
0.202164,-0.180447,0.170063,0.897286,0.033911,0.440144
0.186363,-0.201654,0.150689,0.151077,-0.899905,0.409081
0.176185,-0.216648,0.126162,0.957790,0.284589,-0.040583
0.184560,-0.209615,0.088415,0.259471,0.936988,0.233942
0.174593,-0.224717,0.063505,0.590140,-0.636638,0.496413
0.328775,0.045669,0.914053,0.847474,-0.443790,-0.291268
0.198983,-0.153659,0.174126,0.844292,0.522077,0.120857
0.188379,-0.168963,0.150129,0.886702,-0.379115,0.264635
0.154022,-0.218100,0.080053,-0.165395,-0.936626,0.308831
0.296961,0.041432,0.932191,0.823313,0.561858,-0.080440
0.314459,0.059533,0.896210,0.188461,0.981722,-0.026542
0.316261,0.059116,0.868297,0.463765,-0.854171,-0.235190
0.201847,-0.077942,0.909548,-0.517878,-0.808769,-0.278738
0.172260,-0.115179,0.900362,0.832291,0.087774,-0.547346
0.291343,0.021671,0.802784,-0.218473,-0.927281,0.304005
0.454007,0.210038,0.678325,-0.534377,-0.746199,-0.397025
0.183288,-0.110418,0.814297,0.205415,-0.273381,0.939717
0.415090,0.159146,0.646938,-0.497141,0.861325,-0.104736
0.294841,0.000673,0.881547,-0.436118,0.820783,-0.368940
0.147342,-0.175794,0.943085,-0.692857,-0.415881,-0.589061
0.291874,-0.008324,0.829579,-0.086401,0.925934,0.367670
0.431950,0.154594,0.717515,0.253721,0.704837,-0.662443
0.485393,0.215209,0.658421,0.047252,0.789276,0.612218
0.459097,0.181691,0.647556,-0.491314,0.476632,0.728994
0.221040,-0.101523,0.764596,0.318809,0.750919,0.578344
0.354223,0.053017,0.656124,0.199960,0.971177,-0.129739
0.404909,0.110116,0.596588,0.725857,0.230057,0.648233
0.376918,0.074117,0.585517,0.489984,-0.863889,0.116668
0.319232,0.003571,0.592672,0.512226,0.833077,-0.208823
0.375432,0.067292,0.530045,0.369938,-0.921509,-0.118178
0.305870,-0.017220,0.545798,0.789091,-0.570637,0.227397
0.196333,0.003470,0.387831,0.879376,-0.231238,0.416205
0.091776,-0.121902,0.425460,-0.012618,-0.902890,0.429686
-0.084035,-0.330846,0.509611,0.502763,-0.858872,0.097815
-0.126981,-0.383708,0.508139,0.453031,-0.889768,0.055458
0.070463,-0.175586,0.107995,-0.425592,-0.904615,-0.023306
0.336515,0.064287,0.666665,0.833063,0.053464,0.550589
0.263986,-0.023634,0.683036,0.819557,-0.013113,-0.572848
0.295159,0.010395,0.635602,0.954581,-0.214053,-0.207258
0.309158,0.023742,0.599916,0.672392,0.349831,-0.652309
0.280845,-0.012150,0.590140,-0.635282,0.768590,0.075404
0.234719,-0.077109,0.504723,0.197654,-0.979008,-0.049767
0.206300,-0.113209,0.493623,0.909929,-0.082754,-0.406425
0.176926,-0.156241,0.426491,-0.159560,0.987064,-0.015628
0.169503,-0.167517,0.402818,0.325487,-0.532056,-0.781648
0.174700,-0.164310,0.369575,0.930547,0.366050,0.009437
0.176820,-0.164828,0.338188,0.995693,0.092441,-0.007036
0.175865,-0.168862,0.308450,0.999386,-0.004467,0.034740
0.162083,-0.187689,0.288222,0.163996,-0.198655,-0.966251
0.665023,0.712853,0.562286,0.341566,-0.916052,-0.210195
0.061027,-0.002326,0.895651,-0.151737,0.933570,0.324688
0.014473,-0.059318,0.896534,0.742023,-0.430251,0.514088
0.026139,-0.047732,0.862379,0.010529,-0.993469,0.113612
-0.002704,-0.083940,0.853781,0.766915,-0.584713,-0.264485
0.007053,-0.074419,0.821894,-0.212699,0.778952,0.589909
0.012778,-0.069873,0.790948,0.729525,0.634749,-0.254729
0.034197,-0.046703,0.751257,0.900096,-0.213415,-0.379844
-0.044271,-0.141966,0.772045,-0.282524,0.769762,0.572404
-0.000371,-0.092318,0.716985,0.331117,-0.879489,-0.341848
0.021686,-0.068630,0.674880,-0.649636,0.757580,0.063604
-0.095595,-0.209097,0.720960,0.820160,-0.009767,0.572052
-0.120088,-0.240027,0.709270,0.956721,-0.249983,0.148972
0.320397,0.276342,0.403141,0.812790,-0.354173,0.462531
-0.078838,-0.195858,0.627534,0.722641,-0.438639,0.534216
0.136524,0.052500,0.432438,-0.505799,0.178077,-0.844071
0.099093,0.006159,0.426815,0.326827,-0.365266,0.871645
-0.008749,-0.123039,0.467712,-0.741060,-0.591568,-0.317611
0.108636,0.000155,0.212345,0.904410,-0.241590,0.351677
-0.012885,-0.155105,0.141385,-0.639782,-0.768431,0.013902
-0.052225,-0.211168,0.043130,-0.675848,-0.734893,-0.056235
0.344363,0.228859,0.880929,0.557105,0.764063,-0.325334
0.379885,0.266203,0.805788,0.828088,0.134387,0.544253
0.116273,-0.046905,0.935341,0.708506,0.474031,0.522795
0.156248,-0.001909,0.885758,0.688663,-0.711676,-0.138782
0.203860,0.051982,0.831168,0.947610,-0.219051,-0.232491
0.140980,-0.025080,0.841945,-0.532038,0.769699,0.352845
0.190074,0.030567,0.785795,0.709954,0.177861,-0.681419
0.121043,-0.052909,0.800105,0.814128,-0.562562,0.143939
0.088278,-0.093972,0.792685,-0.106261,0.967830,0.228065
0.141828,-0.033255,0.732089,-0.221492,0.668425,0.710034
0.131861,-0.047423,0.711508,-0.367623,0.911648,-0.183715
0.138116,-0.042151,0.680621,-0.639025,0.765875,0.071292
0.122104,-0.063977,0.662484,-0.443778,0.695283,-0.565370
0.110545,-0.079798,0.642403,-0.495925,0.523597,0.692752
0.086475,-0.110519,0.629036,0.883284,-0.308734,-0.352836
0.112772,-0.082078,0.583839,-0.684811,0.726966,-0.050541
0.062933,-0.145483,0.558694,-0.304503,0.896537,-0.321714
0.089763,-0.116416,0.513704,-0.096032,-0.993050,-0.068035
0.223053,0.037189,0.399343,0.866427,-0.153492,0.475125
0.241398,0.205796,0.876659,0.121365,0.937950,0.324840
0.673825,0.712127,0.622558,-0.586851,0.809693,-0.001690
0.689200,0.727235,0.587078,0.504560,-0.860424,-0.071346
0.021790,-0.056527,0.955422,0.984519,-0.057152,0.165699
0.032501,-0.048976,0.896917,-0.658680,-0.232930,0.715461
0.027518,-0.057462,0.873067,-0.446419,0.859048,0.250492
0.001539,-0.090247,0.861290,-0.404505,0.900121,0.161737
0.020732,-0.070492,0.822512,-0.031813,0.640242,0.767514
0.034410,-0.057354,0.788092,0.997089,-0.026684,0.071426
0.054238,-0.036772,0.749520,0.864552,-0.469007,0.180506
-0.034938,-0.143520,0.776697,-0.559318,0.712308,-0.424005
0.031440,-0.068529,0.709359,-0.037638,0.237280,0.970712
0.030592,-0.072147,0.681947,-0.558489,0.759455,-0.333644
-0.092944,-0.219136,0.730499,-0.208073,0.640079,0.739598
-0.084353,-0.211686,0.697257,0.845468,-0.482438,-0.228990
0.329623,0.268892,0.410679,0.787460,-0.396854,0.471608
-0.136738,-0.278507,0.675852,0.972632,-0.226541,-0.051636
0.303113,0.234755,0.399196,0.112837,-0.856045,0.504435
0.116483,0.008848,0.430053,-0.154013,0.171332,0.973101
0.005992,-0.122831,0.471569,-0.399155,-0.910763,-0.105764
0.100578,-0.032738,0.202981,0.941889,-0.096695,0.321707
0.007477,-0.153034,0.143298,-0.520124,-0.853831,0.021077
0.231962,0.206314,0.873685,0.570684,0.716235,0.401655
0.661312,0.710990,0.591554,-0.424639,0.893257,0.147563
0.040559,-0.024253,0.934694,0.944623,-0.142376,0.295662
0.379778,0.364781,0.839796,0.927820,0.116093,0.354504
0.389004,0.372231,0.809056,0.929576,-0.081643,0.359477
0.239279,0.195556,0.869681,0.856725,0.502725,-0.115280
0.022321,-0.059318,0.970527,0.848835,0.312720,0.426246
0.705001,0.733333,0.569176,0.435101,-0.859595,-0.267926
-0.018185,-0.109181,0.968083,0.996810,-0.079310,-0.008956
0.119030,0.047323,0.861407,0.053321,-0.359515,-0.931615
0.009490,-0.082595,0.900450,0.126798,0.002669,0.991925
0.004189,-0.091491,0.876777,-0.087930,-0.655521,-0.750041
0.013201,-0.083940,0.845478,0.033395,-0.839353,0.542560
0.035365,-0.061489,0.805228,0.832969,0.522261,-0.182771
0.060283,-0.035529,0.762741,0.101948,-0.963768,0.246491
0.050633,-0.049803,0.741482,-0.485270,-0.555253,-0.675431
-0.092944,-0.219028,0.802549,-0.613021,-0.634185,-0.471184
0.010658,-0.101731,0.712686,-0.029025,0.346259,0.937690
0.019036,-0.095108,0.679620,0.896879,-0.386776,-0.214505
-0.069509,-0.200410,0.707563,0.984546,0.159209,-0.072952
-0.141721,-0.287403,0.724316,-0.635256,0.769306,-0.067965
0.334182,0.260098,0.399402,0.447317,0.792175,-0.415170
0.157202,0.046293,0.424842,0.187610,-0.084863,-0.978571
0.110545,-0.010805,0.425460,-0.195808,-0.039915,0.979830
0.068768,-0.062215,0.423840,0.808854,-0.175964,-0.561064
0.124331,-0.017529,0.210048,0.904410,-0.241590,0.351677
0.118286,-0.027769,0.184549,0.877322,-0.229124,0.421672
0.034728,-0.134416,0.147480,-0.539406,-0.841205,0.037634
0.019563,-0.155105,0.127752,-0.348672,-0.935427,0.058338
0.238004,0.200827,0.876865,0.121365,0.937950,0.324840
0.069085,0.002844,0.949886,0.678155,0.464060,0.569871
0.705532,0.736749,0.578039,0.497521,-0.857078,-0.133753
0.016913,-0.060353,0.955069,0.647120,-0.491571,-0.582747
0.176926,0.121076,0.834378,0.468067,0.422940,0.775910
0.027304,-0.054456,0.897005,-0.377933,0.037742,-0.925063
0.043316,-0.039045,0.861024,0.959231,0.087811,0.268637
0.008749,-0.082078,0.854753,-0.346403,0.930891,0.115957
0.023913,-0.068213,0.818861,-0.152981,-0.974926,-0.161604
0.063995,-0.025288,0.768659,-0.039942,-0.874248,0.483833
0.067389,-0.024461,0.740304,-0.540762,0.740876,-0.398347
-0.020625,-0.128828,0.766215,-0.466423,-0.791744,-0.394449
0.034834,-0.068112,0.705884,-0.751444,0.655606,0.074243
0.027835,-0.079596,0.682476,-0.725546,0.503969,-0.468612
-0.090504,-0.218927,0.727261,0.224970,0.140008,0.964254
-0.077674,-0.207752,0.691692,0.499616,-0.737447,-0.454485
0.338849,0.267446,0.406704,0.812790,-0.354173,0.462531
-0.103335,-0.243651,0.653857,0.830202,-0.504998,0.236097
0.117545,-0.000155,0.430613,-0.154013,0.171332,0.973101
0.017230,-0.118588,0.464827,0.416188,0.908812,-0.029125
-0.185091,-0.354123,0.564406,0.947086,0.306438,0.095519
0.089656,-0.091282,-0.077090,0.913016,0.289089,0.287801
0.341286,0.329097,0.864911,0.602107,0.415743,0.681634
0.230477,0.195556,0.877984,0.599304,0.702994,0.382928
0.671492,0.700541,0.622528,-0.586851,0.809693,-0.001690
0.042575,-0.023015,0.960663,-0.516568,-0.466549,-0.717976
0.026777,-0.044323,0.944763,0.705497,-0.261304,0.658782
0.135466,0.076497,0.854724,-0.763252,-0.641456,0.077340
-0.016596,-0.101005,0.917528,0.213610,0.916811,0.337386
0.019036,-0.063560,0.869946,-0.615335,0.777230,0.131441
-0.007794,-0.098006,0.860377,-0.442253,0.895048,0.057459
0.018185,-0.071837,0.819126,0.008760,0.969231,0.245998
0.048406,-0.040699,0.774018,0.930043,-0.306355,0.202893
0.046711,-0.046185,0.748814,0.842691,-0.537630,-0.028737
-0.043633,-0.152933,0.775991,-0.386928,0.093619,-0.917345
-0.004293,-0.111662,0.724905,-0.007337,0.442333,0.896821
0.003551,-0.106176,0.692458,0.869562,-0.468235,-0.156904
-0.057739,-0.179929,0.703499,0.943282,-0.066765,0.325210
-0.080006,-0.208895,0.690485,0.499616,-0.737447,-0.454485
0.335243,0.261032,0.406439,0.812790,-0.354173,0.462531
-0.091883,-0.229477,0.643228,-0.591792,0.724865,-0.352636
0.118606,-0.000874,0.426608,-0.154013,0.171332,0.973101
0.017230,-0.120248,0.462707,-0.508069,-0.755609,0.413426
0.075871,-0.072563,0.279977,0.791952,0.607716,-0.059101
0.081809,-0.062007,0.278859,0.791952,0.607716,-0.059101
0.123269,-0.018154,0.221708,0.974787,0.200480,-0.097965
0.126240,-0.018255,0.189202,0.930762,-0.145375,0.335483
-0.018292,-0.191205,0.224034,-0.385814,-0.859518,-0.335225
0.020411,-0.154070,0.137998,0.548082,0.835635,0.036345
0.270134,0.331578,0.921326,-0.044257,-0.986857,-0.155416
0.247867,0.302404,0.908724,0.041264,-0.751985,0.657887
0.234612,0.283685,0.889968,0.935641,0.266864,-0.230998
0.210115,0.252446,0.877543,0.963636,-0.170073,0.206109
0.649328,0.747917,0.569794,-0.229342,0.883824,0.407747
0.625152,0.716786,0.557457,-0.266267,0.901992,0.339871
0.129104,0.146216,0.820892,-0.400697,-0.227378,-0.887548
-0.028366,-0.040807,0.861437,0.855314,0.278358,-0.436984
-0.021259,-0.036046,0.830491,0.849569,0.522060,0.075403
-0.001432,-0.016910,0.791360,0.573699,-0.621823,0.533109
-0.048724,-0.074217,0.793598,-0.480871,0.770083,-0.419208
-0.091990,-0.126972,0.793509,0.897614,-0.419463,-0.135423
-0.124648,-0.167725,0.786148,0.477372,-0.793634,0.377175
-0.143734,-0.192966,0.771486,0.370926,-0.077880,-0.925391
-0.114681,-0.167309,0.698906,0.801536,0.517239,0.300008
-0.136314,-0.195448,0.684479,0.860036,-0.148861,-0.488035
0.298870,0.300232,0.416715,0.898201,-0.300979,0.320385
-0.045863,-0.095834,0.601771,-0.748927,-0.574526,-0.330194
0.054558,0.014947,0.512703,-0.441278,-0.876360,0.193044
0.125709,0.092325,0.439652,-0.518870,-0.676768,0.522264
0.100471,0.060050,0.427639,-0.456572,0.220330,-0.861973
-0.028576,-0.091074,0.479843,0.164308,-0.941076,0.295598
0.042892,-0.024562,0.319197,0.418054,0.713728,-0.561982
0.079476,0.013293,0.265785,0.711567,0.330050,0.620273
0.119134,-0.027460,0.221825,0.974787,0.200480,-0.097965
0.137586,-0.010603,0.180781,0.877322,-0.229124,0.421672
-0.025185,-0.203207,0.227214,-0.389203,-0.871614,-0.298011
0.022534,-0.157068,0.135614,-0.451431,-0.888868,-0.078257
0.042258,0.169178,0.899155,-0.245479,0.883705,-0.398505
0.656859,0.873390,0.541646,-0.464774,0.175518,-0.867859
0.046921,0.171350,0.869858,0.886358,-0.054095,-0.459829
0.024123,0.142074,0.856579,-0.887462,0.336414,0.315020
-0.041727,0.063049,0.868798,-0.326010,0.559994,-0.761659
0.578071,0.772849,0.503545,0.871034,0.027738,-0.490439
-0.077249,0.019398,0.863998,-0.174601,0.054776,0.983115
0.011189,0.117458,0.785736,0.917474,0.293051,0.269004
-0.036637,0.059426,0.787120,0.659471,0.629042,-0.411587
-0.057739,0.032221,0.773517,0.367083,0.585231,-0.723018
-0.227082,-0.164518,0.848069,0.241712,-0.134241,-0.961017
0.373206,0.521701,0.486880,-0.572398,0.599193,-0.559758
-0.083398,-0.003671,0.734298,0.919832,0.360778,0.154105
-0.238958,-0.184690,0.801401,0.946315,-0.322653,-0.019552
-0.260378,-0.212620,0.788475,0.959280,0.159087,-0.233396
-0.138751,-0.076799,0.687776,-0.633016,-0.628795,-0.451562
0.047135,0.121802,0.460587,0.846814,0.050965,0.529442
-0.122635,-0.078769,0.510259,-0.545981,-0.362936,0.755104
0.081702,0.140111,0.265344,0.899827,0.303310,0.313551
0.054345,0.105456,0.252771,0.870266,0.091558,0.483998
-0.116060,-0.095936,0.304122,-0.635753,0.563511,-0.527517
-0.105031,-0.104938,0.115503,0.518994,0.839222,-0.162330
-0.009279,-0.003362,-0.008927,0.922086,0.129412,0.364704
0.115001,0.049810,0.213935,0.838750,-0.045438,0.542617
-0.023486,-0.126972,0.153781,-0.563590,-0.821478,0.086833
-0.054238,-0.177549,0.051315,0.277775,0.947922,-0.155837
0.061768,-0.050529,-0.058776,0.897510,0.396324,0.193396
0.021473,0.294853,0.859376,0.710391,0.255300,-0.655871
0.507237,0.854046,0.575889,0.452794,0.639465,-0.621339
-0.056361,0.202380,0.879427,0.539969,0.739957,0.401120
0.020094,0.287511,0.808850,-0.723953,0.659741,-0.201577
0.469064,0.800780,0.516677,0.986328,-0.150786,-0.066484
-0.075978,0.170933,0.812943,-0.371637,0.708029,0.600483
-0.074069,0.170005,0.784500,-0.616255,-0.765320,-0.185781
-0.196330,0.026532,0.830344,-0.339782,-0.842852,-0.417311
-0.157309,0.068321,0.779877,0.138079,0.615969,-0.775575
-0.198453,0.018155,0.778434,0.996378,0.055486,-0.064444
-0.184350,0.028086,0.716072,-0.267245,-0.245882,0.931731
-0.222736,-0.018981,0.712921,0.944416,-0.242658,-0.221799
-0.168655,0.040087,0.651914,0.884975,-0.456347,-0.092558
-0.091245,0.125836,0.576154,0.940222,0.197464,0.277472
-0.225386,-0.031185,0.630802,-0.692133,-0.538046,-0.481101
0.015324,0.244895,0.481698,0.403759,0.058698,0.912980
-0.230580,-0.043079,0.579540,-0.439735,0.888623,-0.130319
-0.243942,-0.061597,0.559342,0.810233,0.419323,0.409500
0.113622,0.341402,0.276739,-0.323735,0.552299,-0.768220
-0.077142,0.116322,0.338276,0.275959,-0.626332,0.729078
-0.170458,-0.010086,0.221855,0.434571,0.868418,-0.238743
-0.061448,0.100804,0.027554,0.910651,0.149503,0.385181
-0.077142,0.079597,0.007562,0.908926,0.137797,0.393531
-0.000477,0.564519,0.732266,0.753484,0.594063,0.281693
-0.020412,0.538867,0.717397,0.466472,0.726642,-0.504376
-0.012885,0.545282,0.685156,0.408239,-0.599804,0.688169
-0.056995,0.491599,0.683772,0.982119,0.126464,0.139463
-0.073431,0.470184,0.665870,0.766915,0.438707,-0.468378
0.036637,0.595448,0.572650,0.953767,-0.154176,-0.257988
-0.200042,0.317821,0.689396,0.614291,0.785972,-0.069966
-0.205873,0.308818,0.665016,0.957455,-0.253810,-0.137333
-0.126874,0.397882,0.589934,0.977985,-0.147814,0.147296
-0.125816,0.396638,0.560902,-0.804861,0.361489,-0.470664
-0.388367,0.089736,0.693960,-0.059748,-0.583765,0.809721
0.444040,0.942902,0.513645,0.714469,-0.152480,0.682850
-0.049148,0.369434,0.777374,-0.001730,-0.497406,0.867516
-0.135783,0.266512,0.801960,-0.767001,0.583335,0.267264
-0.148931,0.248929,0.783587,0.954060,-0.285771,-0.090020
-0.315944,0.053017,0.857727,0.433632,0.900850,0.020789
0.019246,0.440807,0.656625,0.678589,0.733296,-0.042357
0.039925,0.462014,0.616316,0.932733,-0.308837,-0.186090
-0.143734,0.247067,0.700467,0.423099,0.795953,-0.432951
-0.173108,0.207450,0.662513,0.467479,-0.021662,-0.883739
-0.192831,0.182001,0.646525,-0.424636,0.900620,0.092562
-0.261756,0.099768,0.661925,-0.500834,0.636653,0.586377
-0.094109,0.290617,0.531223,-0.425112,-0.125371,-0.896416
-0.321775,0.025087,0.643875,0.998669,0.045554,0.024188
-0.108319,0.262895,0.425578,-0.463172,0.872463,-0.155818
-0.055299,0.321231,0.362891,0.146973,0.252367,0.956405
0.010020,0.393848,0.293109,-0.513212,0.220271,-0.829514
-0.049678,0.322165,0.302355,0.813647,0.291795,0.502826
-0.384445,-0.066666,0.486615,0.041908,0.858999,-0.510259
-0.270452,0.050220,0.266227,-0.574076,-0.813970,-0.088825
-0.191560,0.129353,0.092832,0.933320,0.327997,0.146052
0.007583,0.443288,0.823984,0.929342,-0.204110,0.307674
-0.130799,0.277580,0.852663,-0.666114,0.321451,0.673024
0.033563,0.314507,0.905338,0.846084,-0.492291,-0.204429
0.029106,0.306546,0.881400,0.650227,0.704070,-0.285465
-0.031547,0.641479,0.721166,-0.480570,0.822089,0.305323
-0.056361,0.610241,0.708358,0.736142,-0.619837,-0.271839
-0.252320,0.379983,0.798574,-0.044656,0.998220,0.039532
-0.023806,0.641271,0.607482,-0.366868,0.930221,-0.009862
-0.272044,0.350298,0.730293,0.838412,0.459225,-0.293560
-0.221781,0.406052,0.672259,0.974241,0.169404,0.148853
-0.261546,0.357331,0.668520,0.985797,0.077196,0.149145
-0.153174,0.478460,0.546916,0.100137,0.534608,-0.839147
-0.379247,0.213555,0.658803,-0.657132,0.359402,-0.662576
-0.030485,0.608277,0.327470,0.253761,-0.387247,0.886366
-0.164306,0.445567,0.324879,0.780186,0.223083,0.584418
-0.402152,0.156766,0.329208,-0.301868,-0.729738,0.613480
0.044484,0.583661,0.341368,-0.769781,-0.354564,0.530774
-0.015852,0.508456,0.321111,0.982689,-0.113189,0.146664
-0.430678,0.015156,0.439564,-0.202838,0.744411,0.636167
-0.366734,0.083839,0.339778,0.758157,0.188011,0.624379
-0.349450,0.101113,0.298527,-0.564313,-0.821154,-0.085185
-0.530989,0.142801,0.402523,-0.676607,-0.609720,-0.412848
-0.007794,0.750815,0.708770,0.502940,0.285374,0.815851
0.019670,0.780501,0.666047,0.389056,-0.909586,-0.145910
-0.032925,0.716994,0.670581,0.063299,-0.844953,0.531082
-0.130269,0.599072,0.674026,0.846903,0.250376,-0.469113
-0.238641,0.470808,0.711243,-0.746238,0.220939,-0.627945
-0.269497,0.432537,0.702204,-0.412075,0.868017,-0.277020
-0.331001,0.358265,0.712126,0.168565,0.672346,0.720789
-0.180638,0.530597,0.594056,0.245401,0.882140,0.402003
-0.488681,0.163281,0.672495,-0.619387,0.638892,-0.456264
-0.336619,0.331989,0.493505,0.881306,0.457855,-0.116917
-0.385716,0.267649,0.439740,-0.041470,0.141131,-0.989122
-0.441810,0.192039,0.358328,0.539775,-0.727420,0.423678
-0.291661,0.508354,0.512850,0.270756,0.962049,-0.033954
-0.311064,0.480424,0.468743,0.679726,0.362855,0.637424
-0.307249,0.478770,0.409590,0.862028,-0.290237,0.415535
-0.564816,0.170832,0.457583,0.330125,0.417962,0.846360
-0.519644,0.219963,0.399314,-0.016291,0.965097,0.261385
-0.101957,0.697959,0.751552,-0.524560,-0.656431,-0.542158
-0.034090,0.773676,0.685627,-0.127453,0.982451,0.136180
-0.229522,0.542182,0.746900,0.700612,-0.439818,0.561874
-0.277661,0.483738,0.748077,0.176216,0.375139,0.910065
-0.216584,0.552006,0.684008,0.139309,-0.123169,0.982559
-0.340331,0.403469,0.704118,0.192394,0.871044,0.451960
-0.276707,0.474325,0.639311,-0.728518,-0.682122,-0.063021
-0.212238,0.546216,0.571973,-0.585551,0.340961,-0.735442
-0.537034,0.162555,0.687953,0.211552,-0.848019,0.485910
-0.035258,0.743163,0.378320,-0.444411,0.797869,-0.407314
-0.080217,0.782982,0.689425,0.313769,0.922191,-0.226082
-0.266209,0.565144,0.771721,0.405520,-0.557116,0.724690
-0.221674,0.613864,0.717838,0.655103,0.725037,0.212513
-0.163247,0.676026,0.628800,0.930751,-0.031414,0.364302
-0.174169,0.660925,0.608513,-0.564326,0.455679,0.688399
-0.374264,0.426949,0.701173,-0.192240,0.970268,-0.147052
-0.215313,0.607551,0.578510,-0.018017,-0.651631,0.758322
-0.088488,0.772332,0.685862,-0.113792,-0.962399,0.246657
-0.070463,0.787433,0.702881,0.540186,0.716657,-0.441138
-0.137692,0.707164,0.715130,-0.235542,0.572783,0.785137
-0.250517,0.574766,0.754997,0.997298,-0.070791,0.019607
-0.147446,0.686784,0.640548,0.929727,0.252459,-0.268088
-0.206724,0.615727,0.649234,0.411079,0.388654,0.824598
-0.376280,0.418262,0.722991,-0.015201,0.855863,0.516979
-0.379141,0.411430,0.697434,-0.090761,0.994347,-0.055106
-0.218811,0.592039,0.573121,0.347543,-0.432770,0.831820
-0.572557,0.177657,0.706768,0.011702,-0.999728,0.020190
-0.059328,0.761990,0.365218,-0.445634,0.676629,-0.586160
-0.345211,0.421362,0.427168,-0.639667,0.747680,0.178327
-0.307776,0.457670,0.346521,-0.447175,0.409972,-0.794958
-0.526854,0.197620,0.398313,-0.832887,0.225262,-0.505526
-0.030699,0.811532,0.672142,-0.424637,0.699835,0.574381
-0.258258,0.550869,0.778169,-0.087139,-0.588039,0.804125
-0.206724,0.605171,0.721490,0.533284,0.806164,0.256336
-0.116060,0.703749,0.642403,0.245229,-0.967672,-0.058935
-0.123693,0.690718,0.620085,0.980722,-0.025134,0.193787
-0.253168,0.540938,0.668991,0.412906,-0.305346,-0.858064
-0.410741,0.359402,0.735299,0.107574,0.862776,0.494009
-0.221781,0.568452,0.596883,0.889095,-0.181701,0.420113
-0.235036,0.549732,0.577862,0.969645,-0.113271,0.216700
-0.225066,0.556766,0.544178,-0.218672,0.138113,0.965975
-0.299932,0.464287,0.534579,0.169203,0.372678,0.912404
-0.282965,0.467393,0.412828,0.865966,-0.400609,0.299359
-0.228143,0.606206,0.713186,0.750943,0.657782,-0.058380
-0.140449,0.702612,0.634130,0.908732,-0.324724,0.262222
-0.212872,0.616863,0.650677,0.408098,0.425276,0.807834
-0.388684,0.409467,0.701762,-0.098349,0.994140,-0.044880
-0.581889,0.175795,0.710271,-0.569476,-0.029613,0.821474
-0.342347,0.430156,0.425548,0.584573,-0.741415,-0.329513
-0.302689,0.467803,0.342664,-0.447175,0.409972,-0.794958
-0.026563,0.757021,0.704442,-0.549552,-0.061761,0.833174
-0.239275,0.505974,0.748254,0.743095,0.370039,0.557566
-0.257834,0.480942,0.733414,-0.773923,0.591969,-0.224980
-0.271196,0.461704,0.714394,0.748646,-0.648053,0.139843
-0.259213,0.470701,0.681505,-0.153650,-0.424788,0.892159
-0.329623,0.387850,0.696197,0.024393,-0.074875,0.996895
-0.171095,0.555005,0.547947,0.143462,0.987256,0.068872
-0.500134,0.180145,0.691869,-0.375113,0.767712,-0.519527
-0.360161,0.317096,0.497774,-0.516301,-0.270882,0.812439
-0.377659,0.283477,0.425931,0.369553,0.052770,0.927710
-0.455386,0.178282,0.360654,0.442961,-0.719071,0.535465
-0.502570,0.101732,0.247618,-0.272825,0.952896,0.132498
-0.152006,0.391468,0.340190,0.798129,0.269517,0.538842
-0.504162,-0.000363,0.498452,0.048063,-0.655699,0.753491
-0.360372,0.137005,0.327264,0.813815,0.570607,0.110058
-0.440325,0.044431,0.348376,-0.665215,-0.096418,-0.740401
0.019460,0.756093,0.715395,-0.186411,0.104303,-0.976920
0.019987,0.746371,0.662837,0.364358,-0.891090,0.270560
-0.132709,0.573105,0.723609,0.346210,-0.741309,0.574977
-0.217646,0.474527,0.745899,-0.208872,0.566828,0.796918
-0.114998,0.582518,0.660011,0.756032,0.501826,-0.420223
-0.270982,0.401190,0.699083,0.006182,-0.320266,0.947307
-0.310961,0.352059,0.695726,0.950979,0.289640,0.108384
-0.124438,0.546626,0.532813,0.929964,0.213039,0.299635
-0.461748,0.165971,0.678560,-0.061582,0.904178,0.422694
-0.016169,0.639825,0.330621,0.106349,-0.495821,0.861889
-0.353799,0.248203,0.423134,-0.629943,0.038090,-0.775706
-0.403424,0.173004,0.342634,-0.170695,0.904773,-0.390190
-0.060390,0.549834,0.707121,0.049319,-0.779175,0.624864
-0.051694,0.547043,0.651737,0.754167,0.652607,0.073053
-0.078311,0.506492,0.614843,-0.761100,-0.427968,-0.487411
-0.226445,0.341093,0.673643,0.696214,0.110374,0.709298
-0.090504,0.480942,0.568352,-0.064403,0.071852,0.995334
-0.097504,0.467292,0.545385,0.654276,-0.409724,0.635649
-0.221144,0.322266,0.565554,-0.344452,-0.749265,-0.565646
0.066435,0.611276,0.313779,0.540036,-0.203513,0.816666
-0.022004,0.503594,0.309834,0.867131,-0.217857,0.447909
-0.213613,0.286374,0.370871,-0.652895,-0.446926,-0.611544
-0.344466,0.140212,0.421986,-0.289330,0.328528,-0.899087
-0.397379,0.057570,0.342722,-0.664295,-0.253776,-0.703072
-0.032288,0.619345,0.725641,0.036086,0.964632,-0.261118
-0.050316,0.594103,0.710654,0.856192,-0.516243,0.020692
-0.231111,0.391985,0.787297,-0.205508,0.601036,-0.772348
0.023065,0.662895,0.616699,0.454378,-0.562785,0.690516
-0.033456,0.595865,0.622234,-0.714449,0.665285,0.216699
-0.185515,0.418773,0.656713,-0.534079,0.429801,-0.728032
-0.249670,0.343681,0.668137,0.990639,0.129802,0.042267
-0.069509,0.533596,0.537377,0.945637,-0.150447,-0.288335
-0.140977,0.450328,0.552040,-0.518203,0.115878,0.847371
-0.369704,0.197001,0.660659,0.560949,0.561229,0.608571
-0.063888,0.504320,0.369870,-0.062842,0.968531,0.240829
-0.199194,0.325164,0.673643,0.943887,0.234257,-0.232811
-0.222205,0.294026,0.661689,0.980080,-0.154422,0.124890
-0.071311,0.445877,0.548565,-0.771232,0.541551,0.334550
-0.104821,0.403779,0.542205,0.985045,0.125988,0.117529
-0.156141,0.342854,0.545003,0.060279,0.042086,0.997294
-0.032078,0.430049,0.310746,0.803872,-0.436604,0.403939
-0.172684,0.275408,0.366513,-0.713828,-0.248692,-0.654676
-0.344997,0.051673,0.305240,-0.793729,0.223581,-0.565691
-0.519537,-0.091901,0.486645,0.026771,-0.890925,0.453360
-0.371083,0.051047,0.341132,-0.669009,-0.244225,-0.701984
-0.386140,0.028395,0.322259,0.956138,-0.264597,0.125651
0.019563,0.618208,0.724935,-0.550222,-0.833518,-0.050045
0.012354,0.604243,0.704029,0.713566,-0.041081,-0.699382
-0.021259,0.561520,0.696845,0.331019,-0.875467,0.352113
-0.069509,0.497186,0.671523,0.799001,0.493216,-0.343999
0.032818,0.600000,0.588226,0.164224,0.317755,-0.933843
-0.207251,0.331679,0.673643,-0.585240,-0.605601,0.539205
-0.227295,0.304064,0.659775,-0.646656,-0.138241,-0.750150
-0.058374,0.476806,0.535315,0.881050,0.049900,0.470383
-0.126240,0.397674,0.547770,0.098077,0.297408,0.949700
-0.415090,0.084565,0.689248,0.391951,0.587277,-0.708152
0.076295,0.585726,0.321140,-0.549353,0.399183,-0.734074
-0.029637,0.453118,0.300794,-0.620773,0.315398,-0.717750
-0.190074,0.276544,0.368662,-0.646950,-0.309594,-0.696855
0.007687,0.635273,0.721136,-0.425561,-0.900373,0.090696
-0.008004,0.612312,0.703735,-0.264997,0.198195,-0.943661
-0.015428,0.555213,0.764095,0.780396,0.317492,0.538684
0.016065,0.581173,0.720989,0.908576,-0.062367,-0.413038
-0.008111,0.548697,0.708475,0.797619,0.595182,0.097784
-0.081595,0.464703,0.724493,-0.013865,0.961751,0.273573
-0.062826,0.477425,0.689219,0.857836,-0.173796,0.483646
-0.030485,0.504011,0.645082,0.437615,0.688435,0.578403
0.158474,0.694752,0.513291,0.043590,0.444703,0.894617
-0.191136,0.321439,0.684920,0.665252,0.745924,-0.032220
-0.203753,0.301059,0.666017,0.874234,-0.476447,-0.093347
-0.073431,0.429740,0.565437,0.964086,-0.244127,0.104596
-0.101743,0.393229,0.556044,0.123381,0.892047,0.434774
-0.391124,0.084149,0.696933,0.750948,0.187454,-0.633197
0.000794,0.447222,0.308450,0.764890,-0.355058,0.537473
-0.065373,0.371088,0.320669,0.840040,0.269413,0.470903
-0.299081,0.082186,0.294758,-0.012089,-0.871645,0.489989
0.022427,0.606623,0.728056,0.299647,0.532845,0.791384
0.027835,0.605796,0.700172,-0.172083,-0.483822,0.858082
-0.000053,0.569487,0.689690,0.432939,-0.710511,0.554741
-0.140660,0.414328,0.743219,0.353207,0.058487,0.933715
-0.066962,0.485184,0.675881,0.942169,0.320532,-0.097863
-0.084353,0.459943,0.659481,0.626208,0.322930,-0.709633
0.192197,0.744710,0.476015,0.727424,0.599598,0.333672
-0.011930,0.547870,0.713452,0.380373,0.730225,-0.567527
0.008962,0.555421,0.748902,0.845128,0.040638,0.533016
-0.013626,0.524902,0.736742,0.693715,0.284184,0.661814
-0.057312,0.464495,0.710684,-0.354360,0.687479,0.633878
-0.030592,0.484666,0.670110,-0.149821,0.785612,0.600306
0.205979,0.714197,0.485526,0.907229,0.391430,0.154005
-0.201634,0.284411,0.689661,0.870395,-0.484787,0.085993
-0.192618,0.286166,0.659834,0.700889,-0.553626,0.449726
-0.386034,0.071219,0.718840,0.852336,-0.456301,-0.255562
-0.128677,0.329407,0.545150,-0.424666,0.007443,-0.905319
-0.035789,0.377502,0.331828,-0.263781,0.622565,-0.736771
-0.070463,0.333542,0.324526,0.906519,0.235715,0.350232
-0.283176,0.066358,0.287309,-0.652342,-0.752430,-0.091100
-0.029424,0.440289,0.303385,-0.671040,0.301649,-0.677284
-0.221037,0.236618,0.388066,-0.594407,-0.648520,-0.475502
-0.345211,0.067911,0.325881,0.945092,-0.326182,0.020143
-0.032501,0.518696,0.699259,0.359811,-0.182472,-0.915008
-0.065373,0.477116,0.692841,0.749800,-0.461875,0.473784
-0.052012,0.483322,0.660659,0.540596,0.821649,0.180692
0.031229,0.560800,0.588138,-0.691498,0.690812,0.211208
-0.190392,0.324747,0.687246,0.883992,0.391208,-0.255957
-0.202906,0.303957,0.668402,-0.512861,-0.794283,0.325711
-0.194847,0.304267,0.637781,0.919607,0.340470,0.195964
-0.130056,0.362817,0.574800,0.853154,-0.162971,0.495550
-0.376280,0.101940,0.689808,0.131348,-0.734677,0.665581
-0.294521,0.129871,0.460469,0.591609,0.762983,-0.260492
-0.290492,0.083839,0.295229,-0.012089,-0.871645,0.489989
-0.296538,0.069357,0.271939,-0.425320,-0.904963,-0.012030
-0.416572,0.165144,0.335980,0.347332,-0.704136,0.619316
-0.072159,0.582518,0.713452,0.899408,-0.384386,0.208117
-0.237049,0.405225,0.778552,0.254171,0.764096,0.592920
-0.023169,0.616756,0.635130,-0.121542,0.837778,0.532312
0.006205,0.638689,0.594174,-0.156489,-0.798910,0.580735
-0.298023,0.319166,0.738243,0.851564,-0.189059,0.488974
-0.237369,0.373367,0.678884,0.832462,-0.118485,-0.541265
-0.245851,0.356813,0.658803,0.922240,0.252543,0.292738
-0.075764,0.522629,0.536994,0.893962,0.281576,-0.348636
-0.339059,0.237136,0.633452,0.342449,0.380099,0.859217
-0.057208,0.492009,0.368839,0.120332,0.931625,0.342921
-0.031757,0.509390,0.326705,0.987412,-0.158119,-0.003996
-0.153598,0.368196,0.342693,-0.706974,-0.318786,-0.631318
-0.347541,0.129144,0.322583,0.807779,0.569781,0.151140
-0.378717,0.089118,0.313691,0.941262,0.007098,0.337602
0.076615,0.759092,0.707798,-0.232530,0.935523,-0.265946
-0.039498,0.624105,0.720989,0.473316,0.698510,-0.536708
-0.006626,0.601654,0.731942,0.223893,0.532850,0.816053
-0.001219,0.599691,0.704530,0.277028,-0.218146,0.935771
-0.046287,0.545383,0.703735,-0.126591,-0.942484,0.309353
-0.062933,0.512180,0.662690,0.914517,0.356135,-0.191902
-0.173322,0.382673,0.672465,0.156097,-0.202832,0.966692
-0.213934,0.333333,0.670463,0.734389,-0.138806,0.664384
-0.139599,0.401809,0.603684,0.954525,0.084948,-0.285772
-0.098138,0.436154,0.553983,-0.567039,0.802692,0.184805
-0.156355,0.368607,0.561638,-0.291617,0.101273,-0.951159
-0.234399,0.280579,0.579599,0.596338,0.789003,0.147838
0.005674,0.484256,0.309421,0.812047,-0.312351,0.492968
-0.087533,0.762192,0.692075,0.246620,0.878018,-0.410199
-0.250304,0.586862,0.755497,0.909307,-0.415245,0.027077
-0.121997,0.702821,0.633923,0.854814,-0.325814,-0.403903
-0.163672,0.652446,0.632068,0.787228,0.544823,-0.288859
-0.383597,0.411222,0.703705,-0.098349,0.994140,-0.044880
-0.017444,0.746472,0.367720,-0.382721,0.710359,-0.590690
-0.007687,0.768714,0.702852,-0.059791,-0.919861,-0.387661
0.049468,0.819600,0.646143,0.786798,-0.578727,0.214531
0.028683,0.790640,0.632716,-0.043973,0.030485,0.998568
-0.233020,0.513834,0.751640,-0.499817,-0.859909,0.103636
-0.278829,0.458598,0.751876,0.779549,-0.041629,0.624956
-0.258045,0.472563,0.715925,0.475051,-0.851849,0.220636
-0.248501,0.474426,0.685067,0.033384,-0.381106,0.923928
-0.314989,0.398292,0.696492,0.226191,0.145318,-0.963182
-0.542866,0.133905,0.723669,0.752779,0.655668,0.058507
-0.520705,0.149007,0.686275,0.242463,-0.908844,0.339432
-0.027518,0.627514,0.323731,0.496895,-0.282151,0.820662
-0.191877,0.786297,0.678796,-0.454329,0.889806,-0.042782
-0.300249,0.667238,0.713599,0.774026,-0.190315,0.603874
-0.180001,0.783708,0.621557,0.946646,-0.257541,0.193735
-0.551775,0.392913,0.802814,-0.006193,0.890246,0.455437
-0.548487,0.388778,0.775667,-0.034366,0.778149,0.627139
-0.316899,0.619862,0.620467,0.914329,-0.213278,0.344260
-0.666509,0.252345,0.790830,0.554705,0.669829,0.493591
-0.730450,0.179311,0.802460,0.397187,0.773148,0.494454
-0.062826,0.795192,0.703175,0.540186,0.716657,-0.441138
-0.596202,0.457771,0.780407,-0.796310,0.591462,-0.126743
-0.635016,0.410705,0.777639,-0.133479,0.756930,0.639719
-0.732463,0.295996,0.782557,-0.523963,-0.778544,-0.345444
-0.478711,0.534940,0.560460,-0.418043,-0.889932,-0.182377
-0.409469,0.599072,0.495301,-0.694348,0.434196,0.573894
-0.385399,0.601452,0.402464,0.207650,0.682944,0.700334
-0.463974,0.674581,0.497068,0.833396,0.132414,0.536580
-0.434814,0.697341,0.453461,0.119833,-0.943903,0.307714
-0.459945,0.663930,0.440771,-0.178339,-0.951822,0.249458
-0.482212,0.626277,0.400197,0.376219,-0.543404,0.750448
-0.573828,0.815673,0.403760,0.798513,0.582531,0.151775
-0.586873,0.653791,0.510141,0.931883,0.156674,-0.327180
0.362284,-0.418665,-0.972657,0.445163,-0.374836,-0.813221
0.396745,-0.365500,-0.967622,-0.106989,0.655692,0.747410
0.502466,-0.195965,-0.973953,-0.126218,-0.371919,0.919644
0.534277,-0.204552,-0.986231,0.409614,0.012977,-0.912166
0.602778,-0.100595,-0.972010,-0.509215,0.315414,-0.800759
0.438205,-0.431393,-0.969212,-0.224034,0.308342,0.924518
0.612534,-0.155521,-0.968329,-0.273162,0.056596,0.960302
