-0.389779,0.017975,0.734684,0.397771,-0.915928,0.053422
0.170824,0.025122,-0.655214,0.909047,0.412368,0.059882
-0.893809,0.408699,0.843202,-0.404460,-0.896517,-0.180748
-0.029803,-0.483169,0.956767,-0.713274,-0.117332,-0.690994
-0.206348,-0.306649,0.617185,0.399253,0.889219,-0.223356
-0.180241,0.268074,0.925526,-0.425548,0.242569,-0.871819
0.716697,-0.568135,0.681339,-0.648417,-0.075568,-0.757526
-0.188204,0.118573,0.765333,-0.699361,0.702366,-0.132573
-0.839450,0.618937,0.824283,-0.106803,-0.922138,0.371826
0.097688,0.416011,0.351016,0.865211,0.153381,0.477371
0.091179,-0.608273,0.686908,-0.517534,-0.589682,-0.620027
-0.684965,0.261039,0.881614,-0.379730,-0.907064,-0.181770
0.544959,0.439122,0.364383,0.015697,0.823202,0.567532
-0.122911,-0.251158,0.087946,0.965842,0.234930,0.109346
-0.065960,-0.170490,0.910854,-0.418135,-0.804529,0.421777
0.711072,0.473400,0.339756,-0.415662,0.890286,-0.186054
-0.224045,-0.800146,0.715191,0.750253,0.636445,-0.179046
-0.096488,0.130297,-0.099955,-0.651633,-0.714955,-0.253407
-0.051990,-0.043041,0.703147,-0.211323,0.826646,0.521536
-0.055655,0.074024,0.837476,0.417051,0.899668,-0.129095
-0.309313,-0.399989,0.706871,-0.564428,0.479551,0.671901
0.004645,0.384692,0.469664,0.995687,-0.073340,-0.056828
-0.006038,0.376709,0.885895,-0.794759,0.480462,-0.370829
0.421384,0.670574,0.665762,-0.622803,0.721531,0.302504
0.023923,-0.030816,0.150480,-0.269475,0.705729,0.655233
-0.061157,0.092558,0.734057,0.992885,-0.111439,0.041953
0.016593,-0.230949,0.919626,-0.091792,0.802186,-0.589977
-0.132961,-0.559203,0.831819,0.206314,0.823747,0.528087
0.350274,0.080668,-0.980663,0.058435,0.243749,0.968076
0.596536,-0.605873,0.651699,0.810039,-0.077297,0.581259
0.076133,-0.005136,-0.570976,-0.369444,0.928375,0.040391
0.376948,0.044828,0.225512,0.265125,-0.096335,0.959390
-0.167915,-0.592363,0.848893,0.660448,0.611707,0.435458
0.234156,0.698823,0.756405,0.686468,0.712421,-0.145666
-0.017982,-0.576732,0.711797,-0.162412,0.983760,-0.076413
-0.695459,0.273600,0.884137,0.679494,0.724771,0.114000
-0.542177,-0.245744,0.449022,0.413428,-0.326455,-0.850003
-0.869600,0.540836,0.841113,-0.626179,0.778871,0.035498
-0.847286,0.348742,0.687344,-0.206273,-0.140941,0.968291
0.368225,0.046000,0.205479,0.456390,0.683330,-0.569885
-0.270502,-0.585161,0.668651,-0.671366,0.217636,0.708451
-0.362978,-0.281192,0.843254,-0.282159,0.757619,0.588557
-0.296671,0.283872,0.310133,0.855702,-0.295315,0.424927
0.035239,0.462960,0.849189,-0.355685,0.711378,-0.606160
0.033341,-0.515826,0.948308,-0.257427,0.192327,0.946964
0.102495,-0.603416,0.675874,0.006592,0.984903,0.172983
0.205966,0.382738,0.820019,-0.767862,-0.451230,0.454731
-0.063051,-0.760565,0.673942,0.473027,-0.379270,-0.795236
0.254260,-0.406409,0.788534,0.318018,0.746947,-0.583896
0.165828,-0.021493,0.354967,-0.689405,0.203957,0.695071
-0.500773,0.424663,0.446202,0.783063,0.545955,0.297902
-0.334788,0.440351,0.869309,0.479013,-0.875116,-0.068692
-0.082773,-0.097694,0.910575,0.126362,-0.991482,-0.031549
-0.655069,0.237760,0.811543,-0.101700,0.820479,-0.562558
0.066149,0.014849,-0.204904,0.932584,0.282025,0.225277
-0.564804,0.387539,0.914752,0.974804,-0.023812,-0.221791
-0.362095,0.462625,0.976695,0.589658,-0.577401,-0.564722
0.056921,-0.203875,0.809994,0.862164,-0.479192,-0.164464
-0.119119,-0.306314,0.647522,-0.703425,-0.696616,-0.141136
0.000725,-0.008039,-0.240654,0.209996,0.888876,-0.407186
0.313989,0.191257,0.873886,-0.503963,0.092762,0.858730
0.104138,0.495227,0.871154,-0.371300,-0.730635,0.572983
-0.174172,-0.007201,0.299429,-0.319851,0.233368,-0.918278
0.750261,-0.507117,0.654309,-0.062927,-0.945244,0.320240
0.248253,-0.372634,0.475233,-0.658043,0.217883,-0.720768
-0.571695,0.317200,0.912368,-0.657403,0.494188,-0.568858
0.073668,-0.202813,0.816225,0.924291,-0.379715,-0.038776
0.175816,0.125887,0.420600,0.739831,0.612557,-0.278251
0.312095,-0.107409,0.527708,0.392737,0.884833,-0.250654
0.220252,0.729638,0.756631,0.268158,-0.929804,0.252103
-0.434910,0.028080,0.864070,0.297533,0.653878,-0.695642
-0.495149,-0.323955,0.481012,0.308193,0.652607,0.692186
0.338325,-0.404790,0.852583,0.794123,0.607057,0.029174
-0.458992,0.551332,0.821742,0.999334,0.003053,-0.036360
-0.340856,-0.513369,0.716131,-0.561712,0.568944,-0.600651
-0.161846,0.216770,0.903631,-0.265899,0.909001,0.320959
0.092757,0.319042,0.773879,0.265799,0.950863,-0.158777
-0.397808,-0.434042,0.879925,0.821427,0.005848,-0.570284
0.349830,-0.034611,0.682801,-0.132341,0.090779,0.987039
0.141619,-0.186624,0.327607,-0.633016,0.129900,0.763163
0.007997,0.061185,-0.199144,-0.603103,-0.671902,-0.429900
0.425115,-0.248199,0.875087,-0.462793,0.870786,-0.165994
-0.110963,0.182717,0.561908,0.183630,0.482617,0.856365
-0.105716,-0.538101,0.918964,0.702726,-0.012285,0.711355
-0.182452,0.397644,0.689989,0.601152,0.454176,0.657526
-0.456781,0.692124,0.774280,0.959051,0.003436,0.283213
0.165766,-0.234411,0.179337,0.955275,0.277845,0.101252
-0.446037,0.266287,0.831419,0.591831,0.524294,-0.612251
-0.053695,-0.631664,0.915901,-0.145663,-0.987613,-0.058338
-0.137197,0.553117,0.593080,-0.453882,0.433849,-0.778310
-0.475110,-0.650199,0.643536,0.134542,0.430499,0.892507
0.289657,-0.066879,0.535349,-0.031421,-0.072367,0.996883
0.240730,-0.027187,0.179825,-0.399733,0.336335,0.852697
-0.604692,0.257131,0.898096,-0.135009,-0.957910,0.253339
0.506399,0.373082,0.752698,-0.723387,0.595325,0.349713
-0.381751,-0.145146,0.910958,0.980671,0.191327,0.040968
0.167471,0.012449,-0.869187,-0.267070,0.917319,-0.295296
-0.271262,0.452745,0.829678,0.460881,-0.886117,-0.048849
0.285672,-0.411879,0.858257,0.361442,0.885480,0.292035
0.507664,0.948195,0.618717,-0.578059,-0.158033,-0.800546
0.194651,0.062637,-0.904866,0.182083,-0.978571,-0.096150
0.187953,-0.534696,0.840330,-0.006719,-0.997552,0.069607
0.226193,0.723106,0.812709,0.539423,0.319997,0.778862
-0.031825,-0.222688,0.932244,0.482757,0.674738,0.558278
0.209191,-0.321722,0.153961,0.863745,0.191347,-0.466188
0.141113,0.276113,0.774332,0.090118,0.822045,0.562246
-0.034039,-0.049126,0.899088,0.888557,-0.458238,-0.022010
0.300529,-0.307319,0.485554,-0.539353,0.673389,-0.505614
-0.432317,0.776141,0.898618,0.336856,0.922435,-0.188791
-0.430107,-0.129962,0.513280,-0.169102,0.929441,-0.327938
0.125693,0.388098,0.342958,0.859978,0.171302,0.480723
0.002496,-0.214536,0.304755,-0.413647,0.127012,-0.901534
-0.535792,-0.269022,0.480524,0.884490,0.312480,-0.346458
-0.479601,0.751130,0.864087,0.104544,-0.898948,0.425398
-0.460323,0.599397,0.774784,0.600106,-0.770767,0.213988
-0.221328,-0.644225,0.634172,-0.516987,0.810496,-0.275357
-0.347870,-0.391113,0.595778,-0.552058,0.413403,-0.724106
0.294078,-0.149891,0.792328,-0.282981,0.627364,-0.725490
0.041307,0.302406,0.861616,0.388828,-0.496487,0.776089
0.247937,0.366829,0.815755,0.749550,0.551293,-0.366402
-0.537119,-0.611399,0.655493,-0.581798,-0.037257,-0.812480
0.255587,0.175068,0.836310,-0.392140,0.894017,0.216704
-0.969850,0.543292,0.809715,0.285963,-0.768894,0.571863
-0.266143,-0.739296,0.579748,0.088461,-0.946351,0.310796
0.821939,-0.521242,0.664735,-0.288750,-0.913421,0.286855
-0.292689,-0.267571,0.871258,0.765131,0.405083,-0.500482
-0.199897,-0.033719,0.301239,0.286873,-0.620403,0.729934
-0.200719,0.900241,0.840365,-0.629483,0.773046,-0.078429
0.253562,0.016413,-0.915640,-0.445615,-0.891726,-0.079068
-0.277836,0.281081,0.286236,0.816984,-0.297754,0.493842
-0.681173,0.480155,0.890229,-0.841275,0.229924,0.489276
-0.711577,0.491208,0.869100,-0.543048,0.734338,-0.407242
-0.443760,0.689052,0.775098,0.830717,-0.196617,0.520817
-0.613982,0.441969,0.820524,0.003404,0.979423,0.201790
0.200785,-0.109361,0.331489,0.568486,0.347501,-0.745699
0.209697,0.206555,-0.991228,-0.151622,0.132930,0.979459
0.062167,0.018757,-0.209186,0.800010,0.451892,0.394686
0.371512,-0.073354,0.781120,0.924248,-0.364207,-0.114537
-0.064251,-0.648411,0.665901,-0.096930,0.495945,0.862927
0.249959,-0.218668,0.942286,-0.796844,0.520259,-0.307199
-0.343133,-0.017641,0.476573,0.814883,0.405285,0.414378
-0.896529,0.640708,0.824509,0.767784,0.378835,0.516713
-0.282196,0.385641,0.755117,0.943749,0.302810,0.132831
-0.336809,-0.626920,0.660854,-0.474717,0.771771,0.423100
0.085871,-0.122871,0.314763,0.700713,0.117420,-0.703715
0.035555,0.470328,0.486964,-0.434010,0.694872,-0.573400
0.072657,0.685871,0.639655,-0.205528,0.159724,0.965529
-0.070636,-0.334450,0.704452,-0.497229,-0.630137,-0.596399
-0.232451,0.105398,0.758911,-0.477798,0.849837,-0.222455
-0.130307,-0.085580,0.407599,0.536516,0.626654,0.565204
-0.037959,-0.067661,0.719507,-0.676983,-0.637000,-0.368679
-0.317026,-0.204767,0.924394,-0.587265,-0.805727,0.076974
0.173289,0.840284,0.634694,-0.765290,0.386196,-0.514961
-0.054455,0.477755,0.608431,0.752266,0.012280,-0.658746
0.057110,-0.007648,-0.482317,0.793540,0.601087,0.094805
-0.556587,-0.038073,0.609684,-0.682157,0.729977,-0.042381
0.273095,-0.342712,0.470778,-0.668604,0.450181,-0.591866
-0.092379,0.164183,0.839129,-0.895637,0.343888,0.282091
0.294395,-0.554012,0.746954,0.239929,0.959045,-0.150557
-0.519357,-0.305811,0.882467,-0.643751,-0.672700,-0.364773
0.426187,-0.194104,0.560586,0.250998,0.146505,0.956837
0.018993,0.601965,0.772226,0.901586,0.296406,-0.315098
0.216016,0.311730,0.576180,0.143859,0.007925,0.989566
0.591922,-0.288952,0.475233,-0.319080,0.628449,0.709394
-0.873771,0.630269,0.821551,0.681813,-0.193618,0.705438
-0.341995,0.345726,0.891151,0.966866,-0.221109,-0.127599
-0.113178,-0.320660,0.488043,-0.096751,-0.869444,0.484466
0.023607,-0.489811,0.862277,-0.734496,0.651952,0.188346
0.549191,-0.280522,0.555207,0.807476,-0.143372,0.572213
-0.111218,0.177860,0.762096,-0.735051,0.525131,-0.428879
0.327581,-0.703957,0.757049,0.120508,0.712349,0.691402
-0.227270,0.251047,0.264533,0.866409,-0.153014,0.475313
-0.320880,0.846649,0.805190,-0.625003,0.766538,-0.147620
-0.523339,0.052979,0.757971,0.248312,-0.409721,0.877764
-0.048387,-0.200133,0.897208,-0.191085,-0.495680,0.847224
-0.005721,0.432814,0.505883,0.858068,-0.039719,0.511997
-0.586170,0.393011,0.929355,0.978855,-0.187132,0.082610
-0.173351,-0.180819,0.892701,0.210505,-0.975234,0.067863
-0.471761,0.219393,0.800978,-0.195590,0.886512,-0.419334
0.263361,0.263496,-0.995353,0.289916,-0.168163,-0.942162
-0.535098,-0.034891,0.913795,0.469191,0.319454,0.823292
-0.142379,-0.187741,0.440476,-0.523272,-0.525229,-0.671060
-0.215387,-0.356054,0.912577,0.123014,-0.975471,0.182550
-0.272273,-0.075252,0.544817,-0.138989,-0.988615,0.057640
0.224233,-0.227264,0.948569,0.051933,-0.673768,0.737115
-0.501217,0.671244,0.906676,0.839405,0.543286,0.015482
-0.148698,-0.575393,0.763697,-0.167680,-0.975375,0.143273
-0.259819,0.271703,0.526490,-0.639990,0.393945,-0.659712
0.497297,-0.210294,0.902134,-0.603995,-0.792881,0.080806
0.538763,0.217719,-0.967540,-0.078199,-0.040184,0.996128
0.357731,0.153184,0.860310,0.174845,-0.911335,-0.372689
0.280363,0.237091,0.198761,-0.036832,0.304927,0.951663
-0.246483,-0.280243,0.874843,-0.248046,0.835740,0.489910
-0.165199,0.386313,0.932244,0.841759,0.472292,-0.261500
-0.029803,-0.454251,0.891534,0.186187,0.132310,0.973565
-0.185993,0.543349,0.630065,-0.566276,-0.774641,-0.281537
-0.102811,-0.338581,0.653317,-0.709234,-0.704915,0.009117
-0.462344,0.266622,0.829000,-0.483552,-0.611228,0.626561
-0.259063,-0.188634,0.848858,0.894540,-0.325409,-0.306443
0.813027,-0.538156,0.595238,0.958010,-0.272405,0.089517
0.050914,-0.267794,0.768101,0.081280,-0.984693,0.154183
0.238581,0.316531,0.731603,0.757500,0.650251,0.058036
0.332068,-0.302518,0.847640,0.962523,-0.231324,-0.141558
-0.269681,0.576175,0.811978,0.423372,-0.723015,0.545899
-0.082013,-0.057836,0.714773,0.212914,0.970306,0.114781
0.375115,0.049350,-0.978157,-0.087167,0.144678,0.985632
0.115577,0.030759,-0.404710,0.511303,-0.765807,0.390012
0.177332,0.294647,0.844385,-0.604721,0.411760,-0.681737
0.354383,-0.044995,0.407582,-0.191964,0.893097,0.406851
0.421195,0.245631,0.359597,-0.641314,0.311082,0.701388
0.167220,0.190252,0.767857,0.764675,0.126045,-0.631969
-0.164439,0.148607,0.791910,0.817476,-0.468486,-0.335043
-0.032395,-0.502262,0.642631,0.843688,-0.089520,-0.529317
-0.109447,0.623458,0.601243,0.347849,0.677097,-0.648492
-0.063240,-0.604254,0.906154,0.534185,0.788911,0.303753
0.914098,-0.242897,0.558758,-0.356451,-0.556039,0.750842
-0.684587,0.182717,0.829504,0.926491,-0.251827,-0.279637
0.103633,-0.555853,0.743630,0.017801,-0.016127,-0.999711
0.201923,0.039022,-0.742412,0.934081,0.305796,0.184344
-0.155716,0.038184,0.369883,0.925687,0.254472,0.279905
0.350335,0.437112,0.737939,0.369017,0.634910,-0.678760
0.245283,-0.078658,0.683549,0.211703,-0.047320,-0.976188
0.063495,-0.687377,0.673924,0.976267,0.031982,0.214194
-0.410007,0.096299,0.768345,0.482556,-0.262536,0.835592
0.302423,-0.455702,0.699283,0.693350,0.719569,-0.038554
0.120446,0.033160,-0.479289,0.484217,0.845769,0.224073
-0.457665,-0.028192,0.979219,0.316275,0.620217,-0.717844
-0.530735,0.068443,0.783191,-0.762237,0.612197,-0.210260
-0.312350,0.382571,0.797445,0.399116,0.909036,0.119836
0.295915,-0.458103,0.839512,-0.367529,0.165862,0.915102
-0.142506,0.527605,0.589060,0.323678,-0.695879,0.641081
0.345405,0.125997,0.538516,-0.452036,-0.337206,0.825806
0.599191,0.212081,0.347744,0.048026,-0.098163,0.994011
0.357099,0.390555,0.863391,-0.307457,-0.668808,0.676879
0.043140,-0.576844,0.693888,-0.725472,-0.667822,-0.166448
0.250529,0.025400,-0.845900,0.683451,0.728926,0.039524
0.418035,0.404288,0.874843,-0.362651,-0.488731,0.793490
0.408425,-0.149947,0.709656,-0.189427,0.726664,0.660361
-0.078603,0.362419,0.599816,0.413843,0.485400,-0.770144
-0.323978,0.433373,0.645538,0.329968,-0.870089,-0.366150
-0.011219,-0.639033,0.869813,0.774742,0.631806,0.024412
-0.260707,0.400157,0.885164,0.827292,0.003701,-0.561760
0.468853,-0.168984,0.471265,0.078602,-0.933983,0.348564
-0.422460,-0.361023,0.467506,0.453733,0.161762,0.876333
0.089787,-0.292357,0.789648,0.706508,0.660693,0.253636
0.335737,0.748060,0.733588,-0.775532,0.511933,0.369425
0.114756,0.543405,0.887723,-0.152299,-0.726815,0.669735
-0.110712,-0.775916,0.716601,0.017121,-0.050474,0.998579
-0.159952,-0.005360,0.168668,0.264019,0.104651,0.958823
-0.120319,0.241333,0.890717,-0.563627,0.611226,-0.555633
-0.059197,-0.130072,0.931008,0.949110,0.218228,0.227081
0.159003,0.335065,0.788325,0.037797,-0.861865,0.505728
-0.244334,-0.174957,0.302440,0.197980,0.165411,0.966149
0.631679,-0.814157,0.646164,-0.117776,-0.395064,0.911073
-0.223095,0.097025,0.737521,-0.423973,0.830221,-0.361911
-0.136183,0.128790,-0.089129,-0.602743,-0.737224,-0.305291
0.179357,-0.270977,0.853349,-0.258154,0.819354,0.511874
0.285548,-0.536984,0.768518,-0.553528,0.646140,-0.525462
-0.059829,-0.036622,0.294016,0.409751,-0.243633,-0.879060
0.037704,0.108915,0.818748,-0.185401,0.752298,0.632198
-0.134223,0.191873,0.798715,-0.677232,0.662186,0.320728
-0.646725,0.286775,0.959743,-0.718605,-0.694927,-0.026135
-0.316837,-0.134260,0.928380,-0.512163,0.324692,0.795150
-0.474099,0.520349,0.814397,-0.630447,-0.008882,-0.776181
-0.036439,-0.346675,0.684889,0.803432,0.556213,0.212426
0.504948,0.427734,0.753603,-0.269121,0.085449,0.959308
0.000409,0.249037,0.390107,0.295029,0.866623,-0.402395
-0.104895,0.067158,-0.072960,0.569635,0.782489,0.251452
0.724282,-0.596607,0.680312,-0.706818,0.106551,-0.699324
-0.370247,-0.081394,0.889098,0.758276,-0.636684,-0.140180
-0.731488,0.389606,0.891674,-0.798368,0.432118,-0.419383
0.511456,-0.340089,0.546018,0.373742,-0.863122,-0.339615
0.695837,-0.649640,0.667746,-0.373956,-0.589655,0.715866
-0.279923,-0.285212,0.889481,0.424041,0.893677,0.146734
0.161595,0.070117,-0.712075,0.199504,0.973806,0.109088
-0.059448,0.566684,0.902430,0.332118,-0.883153,0.331267
-0.028854,-0.764361,0.701894,0.567014,0.673392,0.474381
0.091812,-0.324401,0.941642,0.045118,0.600657,0.798233
0.280934,0.633786,0.798629,0.794856,-0.179104,0.579763
0.423533,0.370736,0.317913,0.252172,0.074971,0.964774
0.429474,-0.076424,0.224520,0.006115,0.261969,0.965057
0.355266,0.175962,0.860189,0.186927,0.831878,0.522529
-0.020131,0.017249,0.003516,0.794755,-0.603365,-0.065693
-0.236371,0.421203,0.679442,-0.113183,0.445950,0.887873
-0.492051,0.075309,0.897295,-0.249699,0.917556,-0.309419
0.513100,0.729247,0.620788,-0.595720,-0.756714,-0.269260
0.359375,-0.124099,0.503533,0.800268,-0.396051,0.450239
-0.258685,-0.248368,0.931565,0.234604,-0.361550,0.902354
-0.112672,-0.934573,0.710805,0.758968,0.645899,-0.082347
0.264056,0.202311,-0.986999,0.325393,0.056713,-0.943877
-0.163428,-0.003740,0.904971,0.904193,0.410365,0.118473
0.027592,0.357282,0.482091,0.998058,-0.044333,-0.043753
0.738124,-0.497571,0.556252,-0.798810,-0.528584,-0.287231
0.376188,0.370010,0.330966,0.236054,0.000460,0.971740
-0.048765,-0.087813,0.000261,0.951256,-0.308188,-0.011449
-0.460068,-0.145536,0.515751,0.165797,-0.770349,0.615690
0.065894,-0.009546,0.681217,0.359882,0.538444,0.761947
-0.637875,0.460113,0.851991,-0.019465,-0.940853,0.338256
0.082518,0.576119,0.887636,-0.364890,-0.153162,0.918366
-0.639391,0.305029,0.926170,-0.491037,0.781496,-0.384900
0.653044,-0.609781,0.683601,-0.002097,-0.775603,0.631218
0.396164,-0.163512,0.478941,0.369427,-0.675703,0.637926
0.091747,0.722214,0.810707,0.046360,0.747749,0.662361
-0.214500,0.455200,0.681843,0.746973,0.394453,0.535199
-0.041307,-0.479930,0.957950,0.918437,-0.120213,0.376858
-0.189724,-0.251550,0.493839,0.834631,-0.539033,-0.113290
-0.974969,0.526489,0.815929,-0.617768,0.354883,0.701727
-0.233778,0.584605,0.663255,0.942670,0.111682,0.314483
0.374039,-0.155474,0.873155,0.443661,0.884784,0.142559
-0.313928,-0.612795,0.658626,-0.530638,0.620466,0.577447
-0.430801,-0.389662,0.617534,-0.703534,-0.087491,-0.705255
-0.075505,0.180317,0.159548,-0.481127,0.865660,-0.138380
-0.445149,-0.163737,0.954278,0.231736,0.955964,0.180085
0.280680,0.064702,-0.965521,0.666881,-0.085393,0.740255
0.502417,0.295707,0.366072,0.509306,0.066762,-0.857992
-0.436619,-0.598225,0.620997,-0.801946,0.567863,0.185510
0.313928,0.263999,-0.985693,0.404529,-0.227291,-0.885830
-0.018364,0.184392,0.856429,0.978600,0.033498,-0.203026
-0.578523,0.309217,0.892196,0.958929,-0.258784,0.116126
-0.592871,0.110143,0.853210,0.898291,-0.271262,-0.345674
0.296038,0.192319,0.855629,-0.553374,0.797047,0.241855
-0.378464,0.415397,0.657007,0.064277,0.459203,0.886003
0.564048,-0.347290,0.497685,0.098117,0.787200,0.608843
-0.210773,0.163401,0.367499,-0.713053,0.023802,-0.700705
-0.591922,-0.280243,0.901299,0.489958,0.736889,0.465764
-0.698746,0.433763,0.896025,0.168655,0.092461,0.981329
-0.621756,0.308658,0.692774,0.442261,-0.889982,0.111074
-0.279731,-0.247586,0.838746,-0.471014,0.575517,0.668525
-0.037137,-0.142633,0.732195,0.023991,0.587024,0.809214
0.386809,0.244292,0.348597,-0.424727,0.673147,0.605375
0.060902,0.033775,-0.499008,-0.456899,0.882520,-0.111366
0.477957,-0.241556,0.450101,-0.442207,0.187941,0.877001
0.665814,0.136660,0.396025,0.129208,0.825239,-0.549805
-0.026832,0.141461,0.190093,0.905907,-0.308905,-0.289672
0.156916,-0.254284,0.782529,-0.012066,-0.326265,0.945201
-0.387503,0.403506,0.820175,0.852286,0.514397,0.094897
0.363040,0.644505,0.750383,0.887082,0.265447,0.377656
0.081129,-0.003462,-0.637340,-0.165261,0.965753,-0.200023
0.350652,-0.281192,0.873573,-0.685486,0.677308,-0.267137
0.428398,0.295204,0.758998,0.984994,-0.171800,-0.016456
-0.417275,0.782895,0.877297,0.274175,0.904100,-0.327768
-0.484909,-0.018870,0.643484,0.283008,0.931849,-0.227077
0.471573,-0.330039,0.807905,-0.551227,-0.800553,-0.235082
0.430485,-0.329705,0.814641,-0.095942,-0.995385,-0.001833
-0.457035,-0.092055,0.888593,-0.216246,0.951551,0.218604
0.241174,0.755261,0.746101,0.745475,-0.240572,0.621604
0.174172,-0.652710,0.761748,0.929111,0.301602,0.213985
0.808667,-0.494837,0.674847,-0.156440,-0.949059,0.273522
-0.091812,-0.887959,0.736859,0.570055,0.596359,-0.565149
0.192378,0.012617,-0.955949,0.709292,-0.350980,-0.611325
0.507853,0.332049,0.372650,0.525807,0.082078,-0.846635
0.681234,-0.699269,0.652934,0.931922,0.161269,-0.324829
0.299136,-0.199241,0.773809,-0.709706,0.687366,-0.154422
0.400967,0.050411,0.019075,0.085814,0.157336,-0.983810
-0.185299,-0.301959,0.686821,0.631840,0.278078,0.723499
0.583072,-0.730867,0.658782,0.063300,-0.268598,0.961170
0.460951,-0.059064,0.555364,-0.205915,0.102587,0.973178
-0.144211,0.611623,0.612730,0.751471,-0.117460,-0.649226
-0.179041,-0.217886,0.465086,0.776499,-0.564485,-0.280009
0.240607,0.034835,-0.860954,-0.008213,0.997944,-0.063565
-0.231440,0.199967,0.564658,-0.224371,0.243393,0.943619
0.481623,-0.378999,0.557070,0.462385,-0.611832,-0.641765
-0.026138,0.458382,0.494378,0.843843,-0.304650,0.441722
-0.678580,0.315469,0.708264,0.339213,-0.939410,0.049433
0.272651,0.540892,0.516709,-0.000287,0.930723,0.365724
0.324672,-0.160052,0.726591,0.834128,-0.485063,-0.262573
0.591544,-0.753586,0.619500,0.053472,-0.974036,-0.219988
0.330301,0.511361,0.738913,0.034732,0.391486,0.919528
0.038780,0.107463,0.855542,-0.307508,0.893869,-0.326247
-0.292501,-0.049684,0.867116,0.353026,0.428449,-0.831747
0.439273,0.381789,0.818696,-0.644443,-0.553093,-0.527998
-0.241745,-0.028749,0.884242,-0.165131,-0.626161,0.762007
-0.379729,-0.603808,0.642318,-0.478964,0.560357,0.675717
0.176449,-0.214705,0.888297,0.822037,-0.414245,0.390713
0.518285,0.163457,-0.981429,0.251581,-0.157456,-0.954942
0.372017,0.923632,0.626688,0.273000,0.432807,-0.859156
0.540028,0.670351,0.681356,0.311357,-0.750089,-0.583458
-0.199457,-0.222186,0.455253,0.272153,0.697878,0.662494
0.296293,0.024061,0.184280,0.371398,0.580593,-0.724552
0.225877,0.051415,-0.867916,0.088728,-0.969854,0.226961
0.467653,0.361414,0.749025,-0.452664,0.548250,0.703219
-0.117159,-0.640373,0.913952,-0.464688,-0.845019,-0.264589
-0.377453,0.100877,0.935029,0.957826,-0.287125,0.011352
0.234283,-0.231842,0.487921,0.709265,0.289533,-0.642739
0.360513,-0.576173,0.731116,-0.478266,0.849841,-0.221433
-0.410574,-0.222409,0.307209,-0.294417,-0.112889,0.948986
0.135045,-0.019370,-0.786289,-0.130086,-0.991496,0.003587
-0.782117,0.408809,0.854201,-0.103113,-0.859187,0.501164
0.775670,0.263999,0.358779,-0.560865,0.241504,-0.791900
-0.197432,0.502764,0.649906,0.046343,0.974027,0.221639
-0.049147,-0.467147,0.634259,0.833773,0.362527,-0.416409
0.048070,0.560821,0.780215,0.367873,-0.208921,-0.906103
0.025756,-0.199800,0.931304,-0.454274,0.452249,-0.767533
0.250213,-0.281137,0.185377,0.806108,0.537463,0.247636
0.623777,0.442305,0.334691,-0.404724,0.862400,-0.304078
-0.391612,0.799754,0.900724,0.270788,0.955893,-0.113767
0.225688,-0.263998,0.206471,0.199182,-0.363738,-0.909957
-0.173667,-0.619160,0.645381,-0.079441,-0.290988,0.953423
-0.252362,-0.069559,0.496554,-0.391149,0.873932,0.288523
-0.226637,-0.245521,0.628777,0.042937,0.995738,-0.081618
-0.274738,-0.088762,0.491141,0.848791,0.501828,0.166503
-0.882370,0.566237,0.835753,0.987099,0.044707,-0.153745
0.378591,0.047229,0.537159,-0.656564,0.483059,0.579291
-0.145855,0.078770,0.874339,0.857656,0.147934,0.492486
-0.029236,-0.509574,0.840904,0.809186,-0.518321,-0.276695
0.009830,-0.217998,0.853610,-0.703678,0.697838,-0.133635
0.315949,-0.268520,0.173855,-0.618920,0.686909,-0.380913
0.984009,-0.429018,0.610989,-0.057714,-0.270006,0.961127
0.037893,0.076201,0.142666,0.712563,0.509174,-0.482696
-0.061786,-0.695081,0.669330,0.135575,0.242990,0.960508
-0.431750,-0.267794,0.862260,-0.307886,0.950832,-0.033539
-0.042889,0.176465,0.174899,0.933167,0.091059,-0.347717
0.222401,-0.414448,0.684907,-0.064302,-0.693522,0.717561
-0.150407,-0.324625,0.848527,-0.427242,0.896052,0.120647
-0.074301,-0.114107,0.727827,-0.299558,0.152845,-0.941756
-0.383395,-0.383464,0.902830,-0.697739,0.716340,0.004184
0.078286,0.071847,-0.571376,-0.060908,0.997217,0.042984
0.275498,0.482107,0.871084,-0.161571,-0.727668,0.666629
-0.387503,-0.052643,0.749565,-0.602507,-0.740112,-0.298696
0.346670,-0.075588,0.417903,-0.458005,0.510839,0.727513
-0.036250,-0.624743,0.803293,0.988012,-0.154339,-0.003462
-0.065960,-0.653045,0.664787,0.054222,0.462384,0.885021
-0.272651,0.392955,0.740950,0.302163,0.947317,0.106243
0.313989,0.826887,0.765142,-0.251618,-0.791562,-0.556882
-0.402295,0.437058,0.796575,0.497459,0.845224,0.195273
-0.120886,-0.288339,0.544121,0.925490,0.370836,-0.077125
0.086311,-0.723330,0.657338,0.739714,0.389050,0.549056
-0.113301,-0.914531,0.725720,0.719009,0.504466,-0.478058
0.022029,0.675878,0.809419,-0.674951,0.338136,0.655824
0.050852,-0.455479,0.965539,0.739686,0.671474,-0.044585
-0.016844,-0.549434,0.948204,-0.823383,0.244718,-0.512009
0.127337,-0.283592,0.925682,0.996844,-0.013397,-0.078250
0.261779,0.567186,0.719333,-0.149830,-0.831220,0.535373
0.418602,0.448501,0.752646,0.149608,-0.969418,0.194541
-0.004205,-0.690952,0.812779,0.070115,0.855705,-0.512693
-0.084478,-0.974208,0.722501,0.778107,0.528477,-0.339502
0.334406,0.045108,0.684506,0.732485,0.255145,-0.631163
-0.252300,0.622173,0.880865,-0.424095,-0.803111,0.418517
-0.011852,-0.284597,0.326354,-0.855544,0.517675,-0.007518
-0.007554,-0.713281,0.750992,-0.470215,0.082290,0.878707
0.265699,0.192207,0.209621,0.232799,-0.343232,-0.909943
0.317087,-0.329482,0.879125,-0.668190,0.631706,-0.393026
-0.458803,0.025848,0.772609,-0.370112,0.666657,-0.646982
-0.528524,-0.231452,0.714112,-0.338286,-0.788036,0.514356
-0.371767,0.014962,0.901333,0.917978,0.384657,0.096721
-0.185361,0.539664,0.616872,0.906111,-0.285481,0.312192
-0.147498,-0.299895,0.912890,-0.906313,0.195540,-0.374647
-0.662716,0.080724,0.923402,-0.704328,0.506326,-0.497550
0.318985,0.731090,0.500453,-0.427497,0.188914,-0.884057
0.263172,-0.002903,0.547828,-0.703474,0.558867,0.439081
0.112101,-0.292748,0.907320,-0.741919,-0.505937,-0.439981
0.064822,-0.623346,0.926344,0.170887,0.810133,-0.560787
0.162733,0.055992,-0.699875,0.616554,0.782098,-0.090465
0.243577,-0.246023,0.201946,0.157447,0.143983,0.976975
0.318604,0.240551,0.852531,0.864627,-0.006582,-0.502372
-0.272779,0.292804,0.871067,0.361601,-0.403700,-0.840399
-0.656331,0.307989,0.973580,-0.532756,-0.846261,0.003581
0.270313,-0.135153,0.189885,0.003255,0.266203,0.963911
0.447364,-0.523530,0.755483,0.220064,-0.974348,0.047095
-0.463609,-0.300285,0.922080,0.044137,-0.980029,-0.193894
0.160646,0.041310,-0.689902,0.609805,0.792493,-0.009596
0.136815,0.776475,0.641848,0.825485,-0.549661,0.128248
0.729212,-0.415844,0.513506,0.304837,0.576196,0.758335
0.117981,-0.541507,0.833246,0.269502,0.933507,0.236503
-0.478841,-0.648411,0.638593,0.134542,0.430499,0.892507
-0.322716,-0.215765,0.705531,-0.249001,0.912578,-0.324347
-0.116021,-0.667504,0.838137,-0.680955,-0.228885,-0.695638
-0.385293,0.061352,0.754334,0.138102,-0.753675,0.642574
-0.006227,-0.218054,0.891569,0.214384,-0.437453,0.873312
-0.047754,-0.575950,0.644424,-0.599413,0.567075,0.564915
0.551467,-0.587059,0.678989,-0.070619,-0.313366,0.947003
-0.152051,0.029197,0.689972,0.817324,0.351102,-0.456847
0.255965,0.020935,-0.923942,0.423265,0.902213,0.082822
-0.092950,0.066543,0.316486,0.551417,-0.817583,0.165823
0.298947,0.283761,0.763819,0.042126,0.940093,0.338306
-0.000031,0.322001,0.530319,0.274961,0.661827,-0.697411
-0.048009,-0.637638,0.801013,0.997697,-0.051794,0.043797
-0.104389,-0.394909,0.626062,0.840777,0.194521,-0.505228
0.598874,0.032323,0.478941,-0.322812,0.230895,0.917867
-0.100157,-0.324401,0.649784,0.384643,0.922617,-0.028770
0.459690,0.219339,-0.983866,-0.126329,0.183052,0.974953
0.291551,0.194161,0.845656,0.751685,-0.622676,-0.217357
0.831483,-0.570479,0.585631,0.862894,0.098357,-0.495722
-0.080497,0.123820,0.361564,0.262869,0.104016,0.959208
-0.157737,0.191257,0.218045,0.679230,0.705680,0.201651
-0.210646,-0.103611,0.868195,-0.690917,-0.308203,0.653945
-0.114189,0.464021,0.548211,-0.638341,0.552711,-0.535753
-0.148509,-0.684754,0.670687,-0.514918,-0.056292,-0.855389
0.258620,-0.648188,0.750609,0.614546,0.305250,-0.727431
-0.023040,0.049070,-0.162803,0.625481,-0.596381,0.503094
0.176449,0.122145,-0.990828,-0.131874,0.243932,0.960784
0.382635,-0.125217,0.514080,0.332616,0.853025,-0.402138
0.380486,-0.163960,0.476330,0.474323,-0.698074,0.536387
0.175499,0.247586,0.347118,-0.033485,-0.013737,0.999345
0.389714,0.916708,0.630413,0.353131,-0.012928,-0.935485
-0.050219,-0.074470,0.886939,-0.865050,0.494645,-0.083759
0.002558,0.077319,0.256857,-0.981232,-0.036542,-0.189336
-0.032963,0.540110,0.885338,0.316560,-0.705717,0.633840
0.063305,0.674539,0.689536,-0.555785,0.682669,0.474411
-0.289657,-0.075085,0.634572,0.005462,-0.941942,0.335731
0.602605,0.243454,-0.977304,-0.255439,0.122644,0.959015
0.203312,0.532352,0.709099,-0.569361,0.542029,-0.618088
0.839450,-0.641546,0.639759,-0.098725,-0.884364,0.456238
0.353939,0.602636,0.752646,-0.808068,0.239801,-0.538071
-0.007049,-0.617764,0.891117,0.101698,0.986418,0.128985
-0.216332,0.004745,0.667676,-0.486493,-0.673778,0.556191
-0.179608,0.033049,0.911532,-0.721825,-0.261835,-0.640633
0.009448,-0.649193,0.756283,-0.744788,0.537216,-0.395840
-0.135299,-0.552783,0.726382,0.066534,0.944185,0.322628
-0.020447,-0.033998,-0.135269,-0.428203,0.903214,-0.029089
0.516259,0.441579,0.752889,-0.378337,-0.185981,0.906792
-0.302423,-0.021548,0.816660,0.972462,0.221850,0.071412
-0.369425,-0.165745,0.945315,-0.569292,-0.801160,-0.184523
-0.263867,-0.054764,0.483152,-0.448826,0.747629,0.489497
-0.422839,0.002121,0.846996,-0.518649,-0.808075,0.279316
-0.332384,0.531626,0.719281,0.916949,0.394285,-0.061185
0.003445,0.295707,0.444758,-0.601904,0.783353,-0.155145
-0.365632,0.422655,0.834760,0.303894,0.852817,-0.424679
-0.050219,0.055826,-0.250157,0.327537,-0.941986,0.073367
0.100281,0.251828,0.851556,-0.077599,-0.964938,0.250747
-0.084355,0.162508,0.733379,-0.319205,0.947681,-0.002835
0.194273,-0.517334,0.841061,0.110937,-0.212598,0.970822
-0.262223,0.089824,0.750557,-0.463249,0.848079,-0.257223
-0.524353,-0.227153,0.710979,-0.285934,-0.822369,0.491886
0.122406,-0.007481,-0.415831,0.294044,-0.937570,0.185746
0.105465,0.231341,0.341166,-0.474223,0.750415,-0.460422
-0.063935,0.561770,0.913725,-0.451166,0.681682,-0.575985
0.345405,-0.370122,0.467645,-0.087430,0.125647,0.988215
-0.072345,-0.491152,0.808689,0.933109,-0.147310,-0.328037
-0.477575,-0.202926,0.723110,0.108117,0.770868,-0.627752
-0.215387,0.744654,0.861825,-0.742093,-0.336062,-0.579965
0.190102,0.689221,0.744570,-0.641671,0.220760,-0.734522
0.041685,0.705857,0.797149,-0.134082,0.909233,0.394103
-0.695775,0.262101,0.843011,0.870150,-0.290492,0.398063
-0.287254,-0.266510,0.868874,0.936271,0.279413,-0.212898
0.061975,-0.422096,0.958908,0.677125,0.726491,-0.117100
0.081886,0.493943,0.678711,0.585921,0.565855,-0.580090
-0.106604,-0.312287,0.639063,0.866743,0.406360,-0.289185
-0.129103,0.408699,0.552057,0.860984,-0.209554,0.463458
0.256409,0.382348,0.731046,0.973405,0.031897,0.226858
0.061662,0.318819,0.778892,-0.199066,-0.969889,0.140317
-0.315699,0.567689,0.690407,0.797717,0.339383,0.498464
-0.711450,0.124435,0.823621,-0.510527,0.636602,0.578013
-0.395848,0.176129,0.915379,0.632892,0.761919,0.137579
-0.037893,-0.323006,0.682052,0.575807,0.806668,0.133163
0.179863,-0.186569,0.142805,0.940038,0.331186,-0.081518
-0.399640,0.287444,0.847831,-0.113306,-0.356459,0.927415
-0.104895,-0.585553,0.904797,0.838510,0.056930,0.541904
0.017477,-0.602244,0.900011,-0.169593,0.940702,0.293799
-0.010714,0.562944,0.911271,-0.496622,0.522582,-0.693019
0.241807,-0.030592,0.379438,0.620535,-0.278271,-0.733145
-0.300591,0.419863,0.753690,-0.783321,-0.615936,-0.083857
0.055088,-0.428907,0.683758,0.052877,0.110828,0.992432
0.317342,0.447441,0.825815,-0.807625,-0.370145,-0.459059
-0.461268,0.303244,0.844107,-0.792855,0.518958,-0.319473
0.366771,0.127672,-0.982769,0.089529,0.122037,0.988479
-0.408552,0.224697,0.918164,0.798319,0.496092,-0.341438
-0.322334,0.404678,0.857700,0.947838,0.286445,-0.139831
-0.222212,0.311953,0.919504,0.776830,-0.127308,-0.616707
0.165071,0.013956,-0.648914,0.895062,0.440802,0.067505
-0.295915,-0.166917,0.948970,-0.723153,0.688368,0.056566
0.323534,0.205047,-0.983187,-0.141608,-0.177081,0.973956
0.311401,-0.037235,-0.973893,-0.434687,-0.123122,-0.892126
-0.090419,0.506114,0.570436,-0.457082,0.798452,-0.391856
-0.205843,0.419304,0.693766,0.705611,0.480593,0.520715
0.072152,0.689667,0.717471,0.971326,0.210505,-0.110515
-0.563605,0.455926,0.465678,0.783063,0.545955,0.297902
-0.240418,-0.786021,0.723650,0.670437,0.268705,-0.691601
0.553616,-0.266845,0.468724,0.158666,0.761812,0.628066
-0.240734,0.262101,0.273583,0.858371,-0.244601,0.450964
-0.045416,-0.199576,0.900428,-0.692123,-0.445887,0.567583
0.093390,0.490593,0.865619,0.310851,0.834488,-0.454974
-0.434154,0.060403,0.767056,0.624136,-0.259553,0.736944
-0.215511,-0.259811,0.536898,-0.180616,0.976447,0.118018
-0.349325,0.421035,0.923507,0.055066,-0.935169,0.349896
0.094023,0.127338,0.757397,-0.688697,0.683882,0.240834
0.027905,-0.424384,0.932279,0.857800,0.509314,-0.069123
-0.085238,-0.357505,0.706088,-0.685393,-0.622055,-0.378529
0.495527,-0.081784,0.555869,0.969432,-0.081932,-0.231276
-0.730605,0.360408,0.902656,0.359922,-0.926489,-0.109880
0.166649,-0.025289,-0.891273,-0.212026,0.966984,-0.141375
0.155716,-0.519901,0.852983,0.425679,0.893480,-0.143147
-0.268164,0.440797,0.712458,0.984323,0.043780,0.170856
-0.351095,0.416123,0.916945,0.003947,-0.840342,0.542042
0.097499,0.023894,-0.678798,0.798341,0.508028,-0.323358
0.413799,-0.527718,0.765038,0.187731,-0.948181,0.256341
-0.035111,0.136660,0.185116,0.939489,-0.161372,-0.302191
-0.105211,0.116619,0.160854,0.983280,-0.131796,-0.125661
0.120570,-0.233294,0.870510,0.854977,0.129834,-0.502154
0.650263,0.195891,-0.974467,-0.167801,-0.054389,0.984319
-0.375810,0.387987,0.998747,0.502722,-0.152893,-0.850820
0.712399,-0.212136,0.489366,0.813502,-0.036607,-0.580409
0.299831,0.303355,0.808480,0.858757,0.456977,-0.231751
0.313044,0.493217,0.814327,-0.753336,0.634077,-0.174446
0.073545,-0.629041,0.722535,0.905278,-0.367702,0.212758
0.327581,0.313125,0.724015,-0.046772,0.735336,0.676086
-0.103757,-0.586780,0.912820,0.900351,0.153140,0.407327
-0.493189,0.656507,0.915535,0.804274,0.532172,0.264453
0.330108,0.006811,-0.978349,-0.045371,0.019932,0.998771
0.384533,0.301736,0.730263,-0.336198,0.279086,0.899490
-0.295598,-0.041757,0.448883,0.490765,0.798031,0.349709
-0.314560,0.685703,0.770381,0.572390,0.559956,0.599015
0.261590,0.681348,0.728331,0.695589,-0.635481,-0.335140
0.484720,0.173562,-0.983500,0.149913,-0.080191,-0.985442
-0.161152,0.025679,0.877332,0.934970,-0.047168,0.351576
0.233844,-0.234857,0.936282,0.797659,-0.467122,0.381494
0.004012,-0.338358,0.701841,-0.472635,0.880689,0.031663
-0.682122,0.233518,0.701737,0.991836,-0.090864,-0.089472
-0.504566,-0.641322,0.634869,0.270086,0.324339,0.906564
0.220063,0.622063,0.501305,0.262281,-0.026179,0.964636
0.386871,0.313572,0.365775,-0.747105,0.180846,0.639631
0.080624,-0.327862,0.747807,-0.886531,0.386748,0.253946
0.486869,0.225312,0.372076,-0.018803,0.371690,0.928167
0.231818,-0.138279,0.838503,-0.061643,0.966594,0.248790
0.062357,-0.040250,0.691886,0.153364,0.821410,0.549332
-0.242439,-0.235193,0.933688,0.098990,-0.492938,0.864415
-0.181317,-0.798917,0.694810,0.866391,0.132171,0.481558
-0.100219,-0.605650,0.915623,-0.471913,-0.745823,-0.470155
-0.119308,0.032547,0.859005,0.901831,0.009828,0.431978
-0.300845,0.443979,0.708612,0.991716,0.012513,0.127837
-0.241112,0.333668,0.962371,0.301273,0.216049,-0.928740
0.032141,-0.583822,0.674812,-0.579999,-0.788403,0.204993
-0.282512,-0.121142,0.934820,0.810271,0.314090,-0.494781
0.253245,0.576175,0.733622,0.039257,-0.844818,0.533612
-0.224172,-0.811422,0.691869,0.989003,0.119610,-0.086991
-0.821183,0.516385,0.880361,0.638644,0.663942,-0.388993
-0.306787,0.536538,0.864714,0.049367,0.400492,0.914970
0.155716,-0.221850,0.892213,-0.215277,0.691521,0.689532
-0.696469,0.460447,0.894041,0.633302,-0.097603,-0.767725
0.006416,-0.544577,0.934089,0.869473,0.489566,0.065892
-0.069625,-0.962821,0.716635,0.830763,0.392469,-0.394716
0.386809,0.554235,0.693818,-0.172184,-0.731819,-0.659389
-0.444582,0.094848,0.477740,-0.561804,-0.198334,0.803144
0.636231,-0.014069,0.478627,0.112174,0.492451,0.863081
0.247431,0.517501,0.750505,-0.624546,-0.509224,-0.592143
-0.132267,-0.907665,0.705253,0.864715,0.500285,0.044524
-0.538258,0.742980,0.885739,0.792544,0.609259,0.026034
-0.345721,0.011946,0.858744,0.323803,0.729092,-0.602974
0.162857,-0.113939,0.325780,-0.669448,-0.258479,0.696439
0.314182,0.979624,0.635130,-0.237224,-0.689649,0.684185
-0.303245,-0.090604,0.591601,0.633707,0.773567,-0.003254
0.068676,-0.634511,0.757884,0.781055,-0.540942,-0.311985
-0.554315,-0.331770,0.917624,0.409863,0.907171,0.095150
-0.034795,-0.135153,0.333072,-0.026530,0.837114,0.546384
-0.281883,0.494389,0.726521,0.982232,0.156505,0.103573
-0.426315,-0.051081,0.871676,0.547393,0.526717,0.650330
0.498497,0.229331,-0.985310,0.223117,-0.102379,-0.969401
-0.477892,-0.417518,0.479584,-0.431051,-0.173706,-0.885450
0.139470,0.227656,-0.997998,0.228695,-0.137430,-0.963749
-0.618785,0.332888,0.692391,-0.835808,0.481297,-0.264156
-0.784142,0.509519,0.895172,0.135938,0.001850,0.990716
0.486680,-0.211633,0.900933,-0.603995,-0.792881,0.080806
-0.486426,-0.550327,0.602844,0.885428,0.252299,0.390337
-0.269873,-0.036956,0.445680,-0.753979,-0.630359,-0.184833
-0.376126,-0.402669,0.480838,-0.072151,0.160616,0.984376
0.064567,-0.193155,0.800160,0.878683,-0.464383,0.110748
-0.443255,0.121922,0.772887,0.166470,-0.517596,0.839274
0.137448,0.026684,-0.534217,-0.277478,0.952136,0.128231
0.288643,0.785966,0.607317,0.093440,0.053428,0.994190
-0.367087,0.446324,0.980263,0.794315,-0.442524,-0.416216
-0.007616,0.025400,0.198900,-0.590709,-0.664600,0.457570
-0.408236,-0.243734,0.712580,-0.410787,0.806522,-0.425178
0.734393,-0.512143,0.644511,0.132109,0.827821,-0.545215
0.623527,-0.369453,0.659165,0.773991,0.305329,0.554717
-0.512783,0.372859,0.921000,0.053964,-0.055274,0.997012
-0.029425,-0.310278,0.866802,0.900502,0.432407,0.046043
0.332450,0.510356,0.520851,-0.015540,0.654643,0.755779
-0.053572,0.176242,0.868421,0.969101,0.242451,-0.045386
-0.160646,0.389996,0.932383,0.841759,0.472292,-0.261500
-0.330490,-0.229387,0.827590,-0.154921,0.800952,0.578338
0.495276,-0.154245,0.484841,-0.072384,0.995973,-0.052896
0.201730,0.467148,0.692338,0.464702,-0.453631,-0.760441
0.272779,-0.632557,0.707550,-0.688383,0.687043,-0.232595
0.234727,0.157708,0.831593,0.342575,-0.805232,-0.483988
-0.264816,-0.100485,0.545792,-0.138989,-0.988615,0.057640
0.075312,-0.104952,0.941277,0.271906,0.620985,-0.735149
-0.186182,0.513482,0.641535,0.020674,0.979784,0.198987
-0.325938,-0.307096,0.896425,-0.306049,-0.721964,0.620566
0.528458,-0.128846,0.552162,0.838766,0.523478,-0.149804
0.058248,-0.016413,-0.402812,0.511303,-0.765807,0.390012
0.249708,-0.263216,0.179807,-0.584823,-0.810752,0.025755
0.004961,-0.463406,0.942600,0.517904,-0.205381,0.830418
-0.159825,-0.130072,0.429250,-0.516087,-0.650149,-0.557639
0.392117,-0.082399,0.022574,0.082476,-0.017900,-0.996432
0.624854,-0.097415,0.472762,-0.589445,0.298642,0.750578
-0.183084,-0.291073,0.688806,0.437108,0.542465,0.717404
0.362218,0.572657,0.757676,0.942547,0.112526,0.314553
-0.033973,-0.319935,0.494013,0.549966,-0.394211,0.736298
-0.442433,-0.069949,0.907112,-0.710422,-0.598352,0.370507
-0.396731,-0.639425,0.653805,-0.225267,0.916962,0.329295
0.628835,-0.581422,0.638767,0.476413,-0.294994,0.828257
-0.025443,0.070508,-0.016656,0.874750,-0.465590,-0.134309
0.285294,0.554961,0.665187,-0.429888,0.292058,-0.854341
-0.203250,-0.067492,0.497198,0.897749,0.409865,-0.161422
0.103695,-0.608888,0.682575,-0.705720,-0.421166,-0.569718
-0.304510,-0.094568,0.981464,-0.107279,0.916643,-0.385041
0.070385,0.302183,0.826598,-0.529817,0.640207,0.556263
-0.337697,0.593758,0.719420,0.771238,0.636303,-0.017604
0.064756,0.531011,0.606203,0.473942,0.090559,0.875887
-0.451723,0.085413,0.480403,-0.168509,0.085200,0.982011
0.038337,0.065093,-0.016204,0.924610,-0.359481,-0.125978
-0.615626,0.807681,0.822386,0.275543,-0.305662,0.911398
0.015139,0.136773,0.162716,0.385768,-0.578089,0.719024
0.468096,0.182548,-0.983587,-0.048678,0.100398,0.993756
0.358742,-0.397143,0.863356,0.825501,0.557693,-0.086752
-0.105844,-0.291465,0.575432,0.225655,0.949975,0.215931
0.081762,0.573048,0.895555,0.303944,0.174498,-0.936573
-0.408047,-0.245129,0.707411,0.445963,-0.758411,0.475321
0.085489,-0.071344,0.160296,-0.591565,-0.671121,0.446819
-0.086627,0.024507,-0.031276,0.826231,-0.497774,-0.263749
0.124427,0.177022,0.756335,0.776247,-0.616684,0.130922
-0.153629,0.078099,0.693487,-0.299327,-0.761255,0.575234
-0.649063,0.370736,0.897226,0.137579,0.721626,0.678475
-0.071836,-0.304750,0.873886,-0.563642,0.728253,-0.389814
0.435794,0.533244,0.317704,0.204925,0.199882,0.958151
-0.014444,0.689890,0.632832,-0.519396,0.529174,-0.670971
-0.347870,0.397420,0.799847,0.529166,0.839157,0.125689
-0.437186,0.196171,0.827538,0.851572,0.187528,-0.489549
0.143328,0.313236,0.847501,0.289084,0.139809,-0.947040
-0.357037,0.404288,0.859057,0.907030,-0.362603,-0.214046
-0.349514,-0.636353,0.659009,-0.483006,0.665992,0.568472
-0.038653,-0.518060,0.855176,-0.725099,0.646274,0.237826
-0.084860,0.105342,0.090469,-0.908604,0.290933,0.299659
-0.425809,-0.368002,0.634694,0.967740,-0.098929,-0.231715
0.175943,-0.185620,0.171697,0.925349,0.031613,-0.377797
-0.046743,0.087646,0.197090,0.971979,0.126397,-0.198193
0.176892,0.258080,0.820785,-0.023069,0.999718,0.005644
-0.121141,-0.317032,0.575223,0.225655,0.949975,0.215931
-0.404444,0.794842,0.927336,-0.197614,-0.945782,0.257769
0.336049,0.285770,-0.945106,-0.237531,0.763472,-0.600574
-0.242501,0.445654,0.958890,0.561257,0.589355,-0.581078
-0.010270,0.723330,0.794016,0.390763,0.411333,-0.823474
-0.693688,0.452466,0.852357,-0.058290,0.978705,-0.196821
0.158497,-0.166360,0.938771,0.713906,0.499797,-0.490449
0.245537,-0.438453,0.826876,0.787842,-0.417597,0.452679
0.438513,-0.219114,0.198622,0.254795,-0.019726,-0.966794
-0.336620,-0.620444,0.656450,-0.414776,0.640617,0.646197
-0.464871,0.731201,0.779414,0.757999,-0.398011,0.516744
-0.705825,0.386646,0.860693,-0.362427,-0.675972,-0.641645
-0.480801,-0.290180,0.841705,-0.857504,-0.109768,-0.502631
0.816063,-0.532128,0.589164,0.889067,0.047261,-0.455331
0.239280,0.466868,0.484823,-0.106205,0.582451,-0.805898
0.220885,0.585051,0.732595,-0.331387,0.837956,-0.433603
-0.155399,-0.211969,0.091531,0.956821,0.266915,0.115106
-0.678075,0.192039,0.816225,0.975488,-0.175451,0.132819
0.130685,-0.537319,0.828826,0.133007,0.914103,0.383046
-0.186877,-0.317311,0.197003,0.920614,0.377906,0.098268
-0.524543,-0.300452,0.896930,0.489958,0.736889,0.465764
0.186055,-0.244739,0.146930,0.941292,0.335663,-0.036047
-0.092696,-0.575170,0.813179,0.724044,0.347870,0.595606
0.337380,0.458326,0.759085,0.280876,0.955643,-0.088630
0.021713,-0.488472,0.863844,-0.428117,0.722501,0.542870
-0.551911,-0.043377,0.465643,0.265087,-0.377540,0.887239
-0.447742,0.698766,0.831158,0.838174,0.421244,0.346437
0.166399,0.000670,-0.890438,0.754330,-0.655797,0.030262
-0.829651,0.264835,0.682174,0.349915,0.250523,-0.902662
0.025189,0.072238,-0.224241,0.070199,-0.991633,0.108333
0.514998,0.219003,-0.983117,-0.142700,0.032869,0.989220
0.053634,0.049294,0.724885,0.001826,-0.631188,0.775628
0.064822,-0.053145,0.317478,0.742763,0.172260,-0.647016
0.453872,-0.341148,0.537681,-0.258273,0.762924,0.592657
0.243512,-0.235919,0.783104,-0.653798,0.744963,0.132585
-0.149269,-0.605483,0.641430,-0.169471,0.604692,-0.778221
0.247748,-0.652766,0.661184,-0.364154,0.296872,0.882756
0.413610,0.202814,0.040744,0.181723,0.399776,-0.898419
0.451283,0.339810,0.741489,0.853105,-0.394583,-0.341344
-0.227775,-0.333445,0.921331,0.260166,-0.962803,-0.072965
-0.156221,0.053425,0.351573,0.872853,0.426299,0.237481
-0.398757,-0.657959,0.647939,-0.274037,0.923975,0.266785
-0.140546,-0.597666,0.849172,0.762046,0.588000,0.271186
0.054201,-0.661531,0.690441,0.993667,0.107193,0.033687
0.158686,-0.075421,0.337093,0.565511,0.557300,-0.607959
-0.265321,0.405404,0.765473,0.745263,0.529961,0.404629
0.067665,-0.152458,0.929076,-0.235329,-0.842025,0.485400
-0.306787,0.418803,0.765995,0.793972,0.489693,0.360291
-0.353939,-0.144587,0.864540,0.826524,0.498031,0.262343
0.050536,-0.659967,0.773462,0.654437,0.347601,-0.671481
0.229924,0.366829,0.810829,0.998709,-0.047801,-0.017207
0.075821,0.643054,0.887566,0.738885,0.041038,0.672581
-0.444455,0.650757,0.944619,0.916040,-0.366037,0.163975
0.359946,-0.763134,0.624252,0.273426,0.929278,-0.248356
-0.006859,0.063250,-0.212249,-0.333177,0.937846,-0.097145
0.245661,-0.060683,0.685777,0.211703,-0.047320,-0.976188
-0.769034,0.733881,0.833995,-0.646998,0.628469,-0.431764
-0.453494,-0.056997,0.478297,-0.089549,-0.402209,0.911158
-0.096932,-0.887121,0.738722,0.570055,0.596359,-0.565149
-0.216143,0.243454,0.266169,0.866409,-0.153014,0.475313
-0.158119,-0.753922,0.714303,-0.350132,0.088747,-0.932487
0.301540,0.696255,0.498590,-0.458236,0.224034,-0.860133
0.103317,-0.236811,0.864453,0.184595,0.981355,0.053536
0.026643,0.453414,0.788586,0.874646,-0.342379,-0.343177
-0.039919,0.594484,0.609945,0.066471,-0.686765,0.723834
0.323472,-0.126892,0.182627,0.504017,0.153302,0.849980
-0.118675,-0.709820,0.685551,0.332068,0.883095,-0.331472
-0.437881,0.430359,0.964999,0.914688,-0.366835,-0.169640
-0.090547,-0.564171,0.790483,-0.322467,-0.831905,0.451607
-0.536992,0.471725,0.916023,0.935104,-0.225569,-0.273310
-0.131380,-0.339028,0.896913,0.646359,-0.557742,0.520715
0.038587,-0.453861,0.922010,0.948809,-0.307867,-0.070560
0.042696,0.006978,-0.392387,-0.260508,-0.961426,0.088286
0.380929,-0.564116,0.765316,0.449054,-0.876433,-0.173825
-0.608990,0.001508,0.476800,-0.001328,0.210050,0.977690
0.119941,0.533691,0.851487,0.661182,-0.721351,0.206136
-0.099524,-0.322168,0.648670,0.384643,0.922617,-0.028770
-0.737491,0.712946,0.837267,0.515025,-0.427411,0.743013
0.772383,-0.480489,0.612155,0.996739,0.051958,0.061736
-0.225499,0.485682,0.979706,-0.294888,-0.907149,0.300204
-0.236876,-0.057054,0.315354,-0.599895,0.639715,-0.480511
-0.193640,-0.655335,0.624582,-0.498658,0.812423,-0.302174
0.031257,0.607660,0.698395,0.841069,0.045495,-0.539011
0.342751,0.070954,-0.981708,0.219460,0.240981,0.945392
-0.079675,0.155418,0.726608,0.273604,-0.628598,0.728015
0.196865,0.009155,-0.721265,0.925613,0.378338,-0.010010
0.280807,0.559762,0.516865,0.332421,-0.913757,0.233548
0.024622,-0.194273,0.912873,0.453609,0.184904,-0.871808
0.005216,-0.060962,0.298803,0.418485,0.049325,-0.906883
0.691288,-0.677496,0.605176,0.722566,-0.675220,0.148245
-0.152556,0.668118,0.655041,-0.293507,0.950615,-0.100920
0.014950,-0.416178,0.883842,0.179897,0.398655,0.899284
0.059320,0.510802,0.865880,-0.182007,-0.799906,0.571860
0.478397,0.177916,-0.984388,-0.078394,0.046142,0.995854
0.048830,0.077821,0.812604,0.514004,-0.747588,-0.420609
-0.373723,0.444649,0.798124,-0.301636,-0.952026,-0.051601
-0.948168,0.463630,0.836954,0.822376,0.114266,0.557352
-0.124744,0.049517,0.365271,0.911986,0.216516,0.348427
0.537498,0.599956,0.322630,-0.231915,0.594546,0.769890
-0.332323,0.618545,0.857317,0.485696,0.666278,0.565838
-0.073734,0.733601,0.791928,0.382461,0.585064,-0.715139
0.349074,-0.498520,0.800769,0.914584,0.380140,0.137947
-0.301162,-0.385864,0.894093,-0.493505,0.868092,0.053564
0.444200,0.488862,0.746432,-0.700650,0.643612,-0.307982
0.127020,-0.346675,0.801796,-0.372803,-0.912877,0.166352
-0.752283,0.621560,0.821881,0.222511,0.001129,-0.974930
-0.393005,0.016134,0.315476,-0.486262,0.063678,0.871490
-0.042507,0.093786,0.203147,0.982592,0.081308,-0.167040
-0.267721,-0.616257,0.890873,0.119479,-0.984948,0.124913
0.721184,-0.608386,0.687848,0.258476,-0.292169,0.920775
0.374672,-0.024396,0.200432,0.232959,0.053712,0.971002
0.212035,0.059398,-0.823656,0.580209,0.813422,-0.041261
0.440408,0.792498,0.607735,-0.311925,0.447443,-0.838151
0.549889,0.207504,-0.981917,-0.189853,0.108752,0.975771
-0.151102,-0.755820,0.677684,-0.581507,0.298232,-0.756906
0.420373,0.041310,0.549586,0.761476,-0.405724,-0.505512
0.218419,0.431698,0.698535,0.739434,0.499300,-0.451593
-0.513227,-0.137722,0.899384,0.947168,0.088011,0.308427
0.457348,-0.022609,0.199335,-0.004997,0.419416,0.907781
-0.216587,-0.638253,0.876880,-0.408980,-0.892967,-0.188002
-0.568662,0.082845,0.911062,0.395934,-0.444529,0.803511
-0.051230,0.023056,0.291963,0.539045,-0.012611,-0.842183
0.436175,-0.142523,0.476330,-0.112813,0.980785,-0.159164
-0.091307,-0.409758,0.635756,0.849061,0.362434,-0.384365
