-0.195070,0.696062,0.819139,0.158576,-0.250971,0.954917
0.639484,0.355554,0.820214,0.095850,0.618123,0.780216
0.371412,-0.476425,0.819336,-0.031758,0.081736,0.996148
-0.505295,-0.235412,0.807280,-0.505383,0.093707,-0.857792
-0.338418,-0.292298,0.805281,-0.726092,0.193968,0.659671
-0.226293,-0.160810,0.898998,0.682861,0.328975,0.652286
-0.484388,0.544806,0.345207,0.276639,-0.446400,0.850998
0.064626,0.443116,0.725558,-0.661018,0.401200,0.634108
-0.443461,-0.133501,0.875811,0.825507,0.557875,-0.085515
-0.319828,-0.619335,0.576274,-0.781678,-0.022365,-0.623282
-0.095304,-0.221282,0.653998,0.967225,0.213400,-0.137609
-0.085907,-0.222893,0.877523,0.857677,-0.203056,-0.472397
-0.056828,0.464201,0.903133,0.954721,-0.295595,-0.033630
0.015186,0.419797,0.496490,-0.475890,0.651174,-0.591187
-0.061664,0.234790,-0.035432,-0.055289,-0.997563,-0.042551
0.381831,-0.444871,0.777096,0.913192,0.333760,-0.233849
0.022200,0.403655,0.870026,0.926575,-0.087589,-0.365770
-0.689231,0.006260,0.378632,-0.630794,0.708212,-0.317071
-0.232490,0.447033,0.939208,-0.110928,-0.245067,0.963139
-0.555076,-0.181895,0.844552,0.584303,0.298158,-0.754779
0.302053,-0.420383,0.696252,0.827059,0.421581,-0.371810
-0.157853,-0.144739,0.674686,-0.177984,-0.982832,0.048600
-0.381389,-0.508748,0.560811,-0.321025,0.524525,0.788553
-0.097450,-0.160772,0.594478,0.644894,-0.747239,-0.160454
0.065103,-0.402884,0.827726,0.058306,0.065841,0.996125
-0.125574,-0.146350,0.891441,0.365570,0.891579,-0.267293
-0.460725,-0.148913,0.217383,0.766190,0.000175,-0.642614
-0.024447,0.230398,-0.005217,0.273579,-0.960015,0.059377
0.590282,0.404276,0.794134,0.425799,0.826323,0.368627
-0.052232,0.307636,0.261743,-0.206851,-0.940331,0.270166
-0.028193,-0.228202,0.856426,0.721107,0.194671,-0.664912
-0.073990,-0.219160,0.943858,0.984798,-0.151558,-0.084876
-0.100923,0.406620,0.807083,0.124097,-0.801750,-0.584635
-0.014676,0.113551,0.240510,-0.307613,-0.925098,0.222638
0.021656,-0.336846,0.890835,0.231939,0.665112,0.709810
0.378086,0.181749,0.910508,-0.600631,-0.771252,0.210742
0.100548,-0.105168,0.061208,0.045043,0.198701,0.979025
0.117641,-0.116992,0.861287,0.961928,0.272865,-0.015452
0.206715,-0.272567,0.760497,0.771313,0.636123,-0.020556
-0.082060,-0.043597,0.821986,0.904917,0.067623,-0.420182
-0.139024,-0.060106,0.907919,0.817052,0.551230,0.169032
-0.438319,-0.487004,0.731661,0.835982,-0.538195,0.107145
-0.346488,-0.474302,0.552496,-0.330866,0.216049,0.918614
-0.102659,-0.138883,0.924714,0.588796,0.799470,0.119021
0.438626,-0.420859,0.806599,0.849355,-0.462868,-0.253670
-0.038339,0.211876,-0.022649,0.036193,0.994341,-0.099876
-0.142532,0.265650,0.808507,0.200242,-0.979048,-0.036993
0.222820,0.209532,0.441347,-0.077612,0.672687,0.735846
-0.272703,0.021415,0.853896,-0.755341,-0.615092,-0.226099
-0.250843,-0.567464,0.718364,0.884371,0.051088,0.463981
-0.224659,-0.482685,0.659586,-0.284336,-0.396032,0.873104
-0.627056,-0.645984,0.498126,0.199395,0.177478,0.963713
-0.004631,0.352736,0.383706,0.388198,0.057161,0.919802
-0.100344,-0.481550,0.646062,0.618566,-0.297325,-0.727305
0.478566,-0.072881,0.872161,-0.096217,0.940368,0.326268
0.070551,0.292481,0.816185,0.818126,-0.545784,-0.181080
-0.954612,-0.102056,0.789212,-0.756376,-0.522691,-0.393307
-0.761109,0.042133,0.676049,0.909322,-0.384921,-0.158015
0.041268,-0.547184,0.814565,0.834946,0.471532,-0.283765
0.052505,-0.763160,0.629645,0.432097,-0.751333,-0.498790
-0.891621,-0.215426,0.574775,-0.678163,0.592954,-0.434167
-0.115393,0.312323,-0.168632,0.819762,0.569526,-0.060252
-0.018625,-0.227614,0.539350,-0.479525,-0.698923,0.530625
-0.277981,0.051761,0.852140,0.761379,0.590973,0.266557
0.215738,-0.663408,0.802404,0.326854,-0.441763,0.835471
0.354422,-0.271651,0.804145,0.493194,0.088426,0.865414
-0.393783,0.546819,0.883051,0.227138,0.968654,-0.100589
0.095782,0.332418,0.786865,0.555797,-0.699942,-0.448521
-0.722564,0.402153,0.756484,0.798893,0.186045,0.571977
0.492662,-0.683030,0.681289,0.248271,0.589722,0.768498
-0.055773,0.338386,0.941389,0.881681,-0.458500,-0.111428
0.022881,0.817227,0.809037,0.243562,0.946786,-0.210414
0.618441,-0.518156,0.724104,0.079502,-0.594136,0.800426
-0.362900,0.560510,0.362094,0.245525,-0.854154,0.458408
0.839252,0.057545,0.746867,0.887788,0.460248,0.002049
0.740304,0.281792,0.716017,0.875293,0.155653,-0.457859
-0.434540,0.294641,0.821501,0.086513,0.764281,0.639054
0.185570,-0.927776,0.504214,-0.678275,0.444969,-0.584761
-0.146924,0.534191,0.900407,0.981097,0.120101,0.151735
0.063639,0.168167,0.032372,0.550158,0.827887,-0.109223
0.021213,0.585623,0.648515,0.069853,0.993433,0.090617
-0.557868,0.618129,0.824182,0.581422,-0.282516,0.762976
0.146856,-0.785159,0.782336,-0.052907,-0.608384,0.791877
0.620144,0.313163,0.660071,0.689966,0.320944,-0.648800
-0.202799,-0.460539,0.734509,0.322098,0.400841,0.857660
-0.318703,-0.135147,0.722302,0.714574,0.583761,0.385496
0.474412,0.478182,0.660662,-0.696078,-0.415699,0.585380
-0.580272,-0.663408,0.572306,-0.471850,0.046253,0.880465
-0.198748,0.491691,0.599340,-0.174107,-0.781530,0.599081
-0.518063,-0.825939,0.591389,-0.751627,-0.651303,-0.104215
-0.061153,-0.224649,0.870738,0.982021,-0.134863,0.132088
-0.278355,-0.387510,0.643896,-0.351260,0.929349,-0.113695
0.115053,0.186178,0.813899,0.812743,0.444301,0.376889
-0.184548,0.426241,0.882642,-0.878969,0.418015,-0.229514
0.145323,-0.091551,0.623284,0.392441,0.713979,-0.579848
-0.014164,0.328430,-0.245917,0.808400,-0.145327,-0.570411
0.151861,-0.060729,0.905677,-0.695218,-0.573278,0.433618
-0.368246,-0.077312,0.259365,0.150381,-0.252549,0.955827
0.334502,-0.224613,0.797542,0.084257,0.962881,0.256438
0.315639,-0.186544,0.749305,0.678971,0.694395,-0.238356
0.886070,0.260708,0.837479,-0.419905,-0.442497,0.792387
0.138650,0.724835,0.935422,-0.001377,-0.985071,0.172143
-0.051075,0.329858,0.269588,-0.313671,-0.921355,0.229598
-0.337363,-0.172560,0.153744,0.013436,-0.065199,0.997782
-0.442610,0.010984,0.526886,-0.674298,0.336588,-0.657290
-0.809425,-0.668386,0.624874,0.048680,0.769997,0.636188
-0.768702,0.109634,0.694556,0.863430,0.150682,-0.481439
-0.708945,0.073543,0.492477,0.867196,-0.193485,0.458840
0.101263,0.377371,-0.989777,0.846386,-0.497737,-0.189441
-0.836427,-0.244710,0.583453,0.665047,0.727810,-0.167347
-0.355238,-0.303426,0.140417,0.050200,-0.530883,0.845957
0.148048,0.477085,0.559115,0.640247,0.087082,-0.763218
-0.060574,0.440991,0.566566,0.369782,-0.580219,0.725677
-0.086282,0.087048,0.333197,0.598699,-0.780335,0.180654
-0.397392,-0.416135,0.659768,-0.473196,-0.725351,-0.499951
0.020974,0.307015,0.238586,-0.226651,0.942595,-0.245241
-0.547652,-0.086206,0.236890,-0.636408,-0.009011,-0.771300
-0.074636,0.016437,0.072098,0.648982,0.106752,0.753277
-0.307263,0.283367,0.778399,-0.465732,0.583580,-0.665228
0.141339,-0.605754,0.790151,-0.017271,-0.836793,0.547247
-0.588579,0.362802,0.350629,0.200059,-0.223278,0.954004
-0.080732,-0.527014,0.655073,-0.729436,0.586751,0.351634
0.087507,-0.147228,0.791984,0.877138,-0.405691,-0.256990
-0.060846,-0.141957,0.631356,0.350107,-0.936595,-0.014647
-0.194695,-0.420711,0.719863,-0.806920,0.025559,-0.590107
-0.021009,0.416173,0.532702,0.805086,-0.451420,0.384782
0.380231,0.684055,0.878310,-0.111262,0.121202,0.986373
-0.073581,0.276265,-0.167587,0.123298,0.975726,0.180986
-0.217202,-0.475253,0.737189,-0.028990,0.538149,0.842351
0.099697,-0.827183,0.757302,0.869306,0.486474,0.087470
0.028261,-0.372500,0.806962,0.585936,0.736769,-0.337416
-0.029895,-0.886521,0.675458,0.625392,0.304132,-0.718602
-0.234670,-0.201185,0.863286,-0.765416,0.377775,-0.520984
0.492730,0.291750,0.818230,-0.626250,-0.165849,0.761777
0.204740,0.450473,0.770554,0.155840,-0.093404,0.983356
0.170418,-0.217475,0.827044,0.383451,-0.054684,0.921941
-0.548095,-0.819202,0.683970,0.853560,0.517487,-0.060346
0.130341,-0.762280,0.796603,-0.425001,0.765393,-0.483268
-0.557629,-0.221575,0.861333,-0.718884,0.692885,-0.055829
-0.117471,-0.036459,0.696919,-0.429362,-0.490225,-0.758504
0.606558,0.298375,0.777323,-0.406382,0.650719,0.641419
0.248834,-0.369317,0.836207,-0.270260,-0.229029,0.935150
-0.749226,0.351894,0.694844,-0.352120,0.747285,-0.563539
-0.219381,-0.068270,0.099131,-0.809772,0.239137,-0.535801
0.429330,0.128304,0.801449,0.230860,0.961899,0.146475
-0.265109,0.001977,0.843234,0.444862,0.563103,0.696428
-0.026933,-0.201735,0.940844,0.911819,-0.404987,-0.067616
-0.842419,-0.116004,0.805902,0.293171,-0.462630,0.836675
0.202322,-0.012483,0.785108,-0.724832,-0.550132,0.414696
-0.155606,-0.069112,0.905632,0.664800,0.713718,0.220562
-0.824134,0.085402,0.822107,-0.156227,0.355912,-0.921368
-0.594130,0.795227,0.792726,0.549462,0.723261,0.418312
-0.072015,0.465298,0.919277,0.884078,-0.116628,0.452553
-0.387960,0.115162,0.302907,0.193474,0.215910,0.957053
-0.078076,0.382166,0.705142,0.134636,-0.464296,0.875387
-0.031598,0.296143,-0.246765,-0.450644,0.392138,0.801965
0.073615,-0.154733,0.392944,-0.798792,-0.335518,-0.499358
-0.484899,0.697014,0.754000,0.771067,0.164841,0.615047
-0.502026,-0.245222,0.214900,0.529772,-0.248197,-0.811011
0.152746,-0.677136,0.746867,-0.624676,0.474100,0.620491
0.200484,-0.144739,0.921216,-0.080402,0.295271,0.952024
0.002485,-0.008638,0.699842,0.090596,0.942954,0.320359
0.592598,0.033275,0.824227,-0.490844,0.514637,-0.703008
0.078450,-0.440222,0.818821,-0.636037,-0.166222,0.753543
0.339746,0.557288,0.847414,0.902407,0.429387,0.035893
-0.044299,-0.178197,0.935604,0.974163,0.089581,-0.207320
-0.034731,0.466140,0.920444,0.919032,-0.231058,0.319363
0.475706,0.153636,0.842326,-0.410297,0.835618,-0.365238
-0.850386,-0.010908,0.850171,0.196850,-0.445370,0.873439
-0.598250,-0.356027,0.424158,-0.379202,-0.199956,-0.903451
-0.255473,0.462918,0.930803,0.007987,0.148131,0.988935
0.352174,0.376493,0.846915,0.921954,-0.385896,0.032950
-0.221458,0.323231,0.348206,-0.451371,0.242111,0.858863
-0.750826,-0.104069,0.785381,0.596036,0.043792,0.801762
0.321632,0.059413,0.520828,0.931409,-0.200635,-0.303683
0.374851,-0.735522,0.749169,0.953296,0.243617,-0.178544
0.447649,0.019512,0.762784,0.105216,-0.985507,-0.133062
0.088835,-0.249396,0.423082,0.774992,0.531918,0.341249
-0.476489,0.509848,0.342557,0.188969,-0.661338,0.725895
-0.196466,-0.252801,0.903284,-0.690001,0.703727,0.169314
0.345671,0.037558,0.878507,0.773290,0.558748,0.299705
-0.788519,-0.808588,0.625132,0.871716,0.489794,-0.014591
0.025537,-0.538949,0.818624,0.924951,0.322485,-0.201171
0.285777,0.209825,0.823455,-0.677609,-0.339044,0.652607
0.450611,0.082730,0.830664,-0.043474,-0.113006,0.992643
-0.479792,-0.214144,0.866785,0.401255,0.249145,-0.881431
0.020668,0.402080,0.870086,0.948663,-0.117120,-0.293807
0.402091,0.402080,0.654089,-0.482926,0.539156,0.689995
-0.199292,0.429389,0.290216,0.575420,0.779104,0.248775
-0.135041,-0.228054,0.617105,0.956751,-0.290705,-0.010863
-0.045218,-0.054067,0.064828,-0.111193,-0.222323,0.968612
-0.844257,-0.020390,0.596765,-0.708683,0.705451,-0.010323
0.416834,-0.263416,0.769342,0.907898,0.088466,-0.409750
-0.305969,-0.183175,0.232468,-0.187291,0.390076,-0.901534
-0.802887,-0.448934,0.650166,-0.605530,0.703011,0.372974
-0.667643,-0.288709,0.584422,0.749145,-0.402490,-0.526102
0.040587,0.687386,0.738658,0.857028,0.423002,-0.294232
0.006538,-0.317739,0.818593,0.185627,0.275170,-0.943305
-0.881099,0.390256,0.741657,0.765975,0.619511,-0.171724
0.230447,-0.774507,0.757408,0.609036,0.265715,-0.747309
-0.143178,0.419431,-0.602263,-0.200488,0.974193,0.103695
-0.338895,-0.135916,0.715290,0.597854,0.555664,0.577761
-0.205319,-0.540558,0.758226,0.611207,0.195662,0.766904
-0.726446,-0.059009,0.738204,-0.318039,-0.942634,0.101448
-0.246314,0.237610,0.726118,0.407278,0.857008,0.315693
-0.401954,-0.186689,0.860303,0.982311,0.156201,0.103281
-0.138412,-0.123252,0.963319,0.927500,0.351958,-0.125973
-0.376145,-0.129620,0.810355,0.938245,-0.024349,-0.345113
-0.528619,-0.089135,0.351159,0.969539,-0.221920,0.103663
-0.122169,0.046197,0.498141,0.932347,-0.257944,-0.253366
0.133270,0.216928,0.865422,0.323863,0.641056,-0.695815
0.325956,0.195695,0.571458,0.829322,-0.012699,-0.558627
-0.275528,-0.175927,0.715683,0.351043,0.450989,0.820596
0.911437,0.207776,0.826499,0.353265,0.818095,0.453788
0.370629,-0.676623,0.772492,0.058365,-0.491575,0.868877
-0.277946,-0.148289,0.935089,0.481906,0.814793,0.322303
-0.368484,-0.327804,0.567929,-0.464534,0.465671,-0.753232
-0.659641,-0.058240,0.463671,-0.806578,-0.296014,-0.511671
-0.017332,0.238160,0.061269,-0.033442,0.998392,-0.045781
-0.349825,-0.547513,0.621027,0.962135,-0.085143,-0.258934
0.224625,-0.522659,0.624526,0.821705,0.565627,-0.069762
0.087030,0.400176,0.454296,0.122842,-0.638355,0.759877
-0.278593,0.051323,0.765495,0.209619,-0.969571,0.126462
-0.554871,-0.793176,0.676322,0.612903,0.784315,-0.095914
0.344002,0.001501,0.851382,0.803306,-0.595344,-0.016318
0.753005,0.142214,0.693890,0.830490,0.204629,-0.518086
0.196636,-0.056958,0.868345,-0.627578,0.154756,-0.763018
0.558412,0.021672,0.736053,-0.549376,-0.801255,-0.237015
-0.080799,0.343402,0.275782,-0.328537,-0.905510,0.268541
0.194048,-0.629108,0.832890,0.560929,0.639332,0.525940
0.435800,-0.023171,0.845688,-0.887086,0.435337,0.153495
-0.066022,-0.359908,0.787349,0.612466,-0.789853,-0.031907
-0.463754,-0.097078,0.777051,-0.085709,0.247586,0.965067
0.322960,0.138957,0.575623,0.956428,-0.156728,0.246337
-0.748987,0.168167,0.759816,0.732751,0.653782,0.188798
0.459430,-0.579690,0.761906,0.294653,0.954071,0.054106
0.772788,0.210375,0.727663,0.999287,-0.031159,0.021344
0.250570,-0.657771,0.796361,-0.552754,-0.057939,-0.831328
-0.119787,-0.316164,0.914840,0.692903,0.594209,-0.408413
-0.501516,0.364924,0.808613,0.726461,0.594257,-0.345126
0.223977,-0.322753,0.878870,-0.682523,-0.724887,0.093277
-0.110593,0.329710,-0.308480,-0.276398,0.939183,0.203811
0.362457,0.414489,0.810960,0.621552,-0.292862,0.726570
-0.082229,-0.226115,0.824924,0.875033,0.406536,-0.262766
-0.852430,-0.835968,0.576410,0.247073,0.541951,0.803271
0.010112,0.147816,0.184413,0.983918,-0.134468,0.117571
0.133678,-0.474778,0.664948,0.902975,0.270765,0.333650
-0.173278,0.265467,0.631977,-0.766065,-0.509486,-0.391878
0.363785,-0.073871,0.861393,0.836037,0.139030,-0.530767
0.325888,0.146497,0.563295,0.950256,-0.178703,0.255104
-0.533590,-0.193316,0.339588,0.386038,0.820933,0.420766
-0.033573,0.350283,0.502972,0.260505,0.239090,0.935400
0.096871,-0.650852,0.615363,-0.825814,0.353561,-0.439347
0.332766,0.006296,0.902027,0.891897,-0.152558,0.425729
-0.244952,0.540744,0.906359,0.511479,-0.129734,-0.849446
-0.859887,0.232044,0.669158,0.026559,-0.386228,0.922021
-0.192788,0.041950,0.887548,0.608221,-0.777632,0.159236
-0.117982,-0.016399,0.456159,-0.562036,-0.326952,-0.759748
0.421363,0.398822,0.848490,0.707832,0.504448,0.494476
0.202731,0.250823,0.840902,-0.217604,0.773623,-0.595111
-0.420954,0.303500,0.891910,0.282182,0.958655,0.036791
0.019000,0.236108,0.814974,-0.063813,0.288700,0.955291
0.441724,-0.047076,0.836192,0.938912,-0.336413,0.072599
0.651606,0.203091,0.794801,-0.727830,-0.310621,0.611374
-0.802717,-0.032102,0.755348,0.739379,0.643979,0.196494
0.031326,0.340910,0.351992,-0.821497,0.533663,-0.200865
-0.047261,0.241234,-0.113383,0.042472,0.991834,0.120252
0.217610,0.724066,0.883475,0.297781,-0.445927,0.844083
0.028806,0.324256,0.260834,0.158183,-0.982553,0.097816
-0.870442,0.017608,0.839100,-0.594710,0.707590,0.381623
0.255031,0.115053,0.479043,-0.627823,0.304446,0.716345
0.275324,-0.104473,0.812081,0.428492,-0.422374,-0.798746
-0.716537,-0.797496,0.598340,0.195152,0.877892,0.437289
-0.239981,-0.633319,0.562795,-0.096552,-0.105073,0.989766
-0.055910,-0.203821,0.250172,0.940895,-0.066466,-0.332114
0.037761,0.573212,0.890441,0.896270,0.439953,-0.056054
-0.353910,-0.183798,0.782730,0.633847,0.763970,0.120781
-0.011781,0.460577,-0.744853,-0.430911,0.899987,-0.065868
0.196772,-0.707958,0.707323,0.662824,0.039054,-0.747756
-0.765978,-0.849036,0.608093,-0.726795,-0.539751,0.424781
-0.151895,0.833957,0.844613,-0.432229,-0.123913,0.893210
-0.137287,-0.208250,0.576334,0.721345,-0.475993,-0.503083
-0.845484,0.020866,0.783912,0.339403,0.940636,-0.003034
-0.277538,-0.546415,0.556404,-0.243033,0.080112,0.966704
-0.780075,0.065671,0.632749,0.994845,0.088668,0.049214
-0.016616,0.321767,-0.180581,-0.384165,0.884248,0.265561
0.200586,-0.175817,0.888170,0.834639,0.338585,-0.434440
-0.427356,-0.119517,0.875448,0.934899,0.154488,0.319527
0.436957,0.416797,0.801480,0.243322,0.697309,0.674207
0.066839,-0.387253,0.825545,0.735121,0.672323,0.087059
-0.648950,-0.050954,0.721166,0.408542,0.911147,-0.053898
0.374374,0.433305,0.823925,0.102226,-0.572433,0.813554
-0.368279,-0.109159,0.264605,0.251622,-0.408635,0.877328
-0.518846,-0.048867,0.371423,0.868043,0.495460,0.031954
-0.108584,0.307747,-0.228030,0.501869,0.864062,0.039035
-0.908203,-0.508528,0.696449,-0.881770,0.341010,-0.325874
-0.030645,0.792117,0.750850,-0.113498,-0.715430,0.689404
-0.019102,-0.504758,0.689785,-0.321089,0.116482,0.939858
-0.568218,-0.000952,0.393822,0.663014,0.740239,-0.111622
0.286493,0.433049,0.575759,-0.476869,-0.672213,0.566326
-0.541592,-0.021451,0.253943,-0.546098,0.752566,-0.367997
-0.325514,-0.362105,0.754227,-0.082479,-0.022903,0.996330
0.004869,-0.747418,0.682895,0.511262,0.645048,0.567913
0.084102,0.221394,0.897090,0.306937,0.881146,-0.359683
-0.377439,-0.065450,0.265166,-0.001536,-0.093266,0.995640
0.082604,-0.077274,0.370908,-0.663162,-0.310450,-0.681055
-0.218734,0.350319,0.917672,-0.397778,0.301381,-0.866569
0.681399,0.171791,0.798784,0.854391,-0.426174,-0.297309
-0.680820,-0.225016,0.728163,-0.610842,-0.730564,-0.305204
-0.257516,-0.445969,0.780216,0.844651,0.265002,-0.465123
0.074466,0.550992,0.874509,0.798930,0.235447,0.553422
-0.542647,0.294349,0.741430,0.589256,0.785997,0.187046
-0.515237,-0.838860,0.689346,0.853870,0.477461,-0.207212
-0.504716,-0.581118,0.688786,0.044226,0.605147,0.794885
-0.786203,0.397651,0.739522,-0.376089,0.752087,0.541223
-0.854949,0.071713,0.823622,-0.668448,0.474254,-0.572940
-0.375158,0.263418,0.850580,-0.004739,-0.757671,0.652620
-0.144472,0.412549,-0.614591,0.308737,0.940601,0.141251
0.033300,-0.134928,0.069402,0.007962,0.203365,0.979071
-0.581805,0.038181,0.407559,-0.340988,0.937608,0.067965
0.002928,0.553629,0.815065,0.719848,0.542898,-0.432529
-0.725017,0.120435,0.790242,0.938833,-0.150835,0.309583
0.116824,-0.559850,0.592661,0.900888,-0.102858,0.421687
-0.079301,0.197856,0.654028,0.253117,0.400092,0.880828
0.144029,-0.675195,0.687468,0.714949,-0.546173,-0.436512
-0.064286,-0.366497,0.886503,0.936381,0.350089,-0.025063
0.085533,-0.158978,0.390490,-0.701403,-0.501255,-0.506733
-0.912220,-0.017972,0.867073,-0.227852,0.285874,0.930784
0.256052,0.492533,0.858228,-0.426185,0.588517,0.687033
-0.476557,-0.031921,0.841614,0.831461,0.524486,-0.183267
-0.370663,-0.268907,0.225925,0.082124,-0.329178,0.940690
-0.269264,-0.377590,0.789091,0.815057,0.517149,0.261226
-0.276686,0.029358,0.903633,0.873207,-0.091750,-0.478635
0.163982,0.248299,0.932090,-0.848005,0.509368,-0.146394
-0.021757,-0.171425,0.867587,0.364389,0.927870,-0.079231
0.074262,-0.672999,0.685060,0.183120,0.844800,0.502773
-0.196977,-0.634050,0.667038,0.570642,-0.329604,-0.752149
-0.260036,0.290944,0.881491,-0.128415,0.968906,-0.211498
0.464197,-0.702833,0.692981,-0.446960,-0.388200,-0.805933
0.100174,0.652208,0.920444,-0.117175,-0.035077,0.992492
-0.192278,-0.269564,0.775052,0.885340,-0.304378,-0.351465
-0.666962,-0.626802,0.552133,-0.079252,-0.996766,0.013296
0.381491,0.416247,0.814368,0.767223,-0.110273,0.631829
0.535837,-0.429496,0.734357,-0.722064,0.210086,0.659157
0.515033,0.028261,0.772674,-0.018490,0.948832,0.315239
0.161088,0.170585,0.653498,0.420767,0.906082,-0.044392
0.156389,-0.583644,0.665054,0.775345,0.435909,0.456973
-0.542443,-0.362947,0.408770,-0.057627,0.463110,0.884425
0.468589,-0.481550,0.738446,0.191370,0.683843,0.704085
-0.715176,0.146645,0.729814,0.786054,0.464905,-0.407409
-0.391195,0.494620,0.331955,0.525249,0.714343,0.462414
-0.101467,0.413061,-0.653013,0.033214,0.992683,0.116092
-0.122408,-0.541693,0.733115,0.437420,0.338768,0.833007
0.707413,0.147742,0.660707,0.770885,0.377793,-0.512844
0.272634,0.108464,0.483147,-0.602620,0.260429,0.754338
-0.561136,0.446117,0.357035,-0.295480,0.176536,-0.938897
-0.403691,-0.185409,0.813217,0.625746,0.750920,0.211093
-0.200688,0.482906,0.599567,-0.146597,-0.862873,0.483693
-0.574143,0.312835,0.783866,0.973595,0.171985,-0.150110
0.010522,-0.284098,0.880779,0.925775,-0.215545,-0.310613
-0.762062,-0.060546,0.531490,0.799434,-0.546335,0.249846
-0.180020,-0.470861,0.622814,0.688153,0.630115,0.359723
-0.053696,0.335787,-0.948977,-0.015381,-0.997922,0.062565
-0.046001,0.188412,0.826408,0.928051,-0.368718,-0.052618
-0.200790,-0.240463,0.892092,0.962548,-0.050944,0.266283
-0.761415,0.088514,0.808689,-0.574843,-0.200801,-0.793243
-0.016378,0.171829,0.225213,-0.079949,0.994434,0.068616
-0.063843,0.350502,0.293699,-0.245064,-0.845779,0.473921
-0.041779,0.570906,0.895288,0.921873,-0.089879,-0.376925
0.004903,-0.371587,0.354763,-0.664891,0.008516,-0.746892
-0.250740,-0.419759,0.148035,0.898301,-0.148221,-0.413624
0.660799,0.183360,0.814716,0.894576,-0.119366,0.430679
0.169294,-0.447616,0.555889,0.965135,0.118248,0.233522
-0.001056,0.141848,0.248870,0.265208,0.952685,-0.148514
-0.266267,-0.246393,0.134374,-0.740763,-0.243964,-0.625900
0.278525,0.059485,0.313463,-0.135738,-0.846502,0.514791
-0.545542,-0.010689,0.284142,-0.570960,0.817910,-0.070912
0.224522,-0.619847,0.774718,-0.619812,-0.765471,0.172878
-0.535701,-0.930961,0.593342,-0.555506,0.542375,-0.630272
-0.577139,-0.149279,0.568035,0.354037,0.460513,0.813994
0.366032,-0.663188,0.740673,-0.632561,0.201351,-0.747880
-0.101739,-0.115417,0.853669,0.864646,-0.499922,0.049652
0.023358,0.431364,0.788606,0.739594,0.467139,0.484543
0.227553,-0.683578,0.800041,-0.433055,0.575154,-0.694019
-0.529811,-0.794311,0.668219,0.812440,0.581887,0.036717
-0.172393,0.409511,0.294865,0.628229,0.599938,0.495381
-0.252034,-0.376931,0.137433,0.860631,-0.182758,-0.475304
-0.184991,0.027492,0.778035,0.984012,-0.010948,-0.177767
0.253805,-0.038217,0.687014,-0.260465,-0.841435,-0.473440
0.111103,-0.859140,0.721605,-0.458671,-0.796085,-0.394804
-0.022506,-0.459147,0.360428,-0.158446,0.744773,0.648234
0.122373,0.107659,0.305376,-0.337424,0.864661,0.372164
0.159079,0.431476,0.848066,0.741742,-0.004085,-0.670673
-0.006163,-0.198732,0.864574,0.266918,0.947172,0.177821
0.516906,-0.223150,0.800556,0.956476,-0.096813,-0.275284
0.504137,0.432316,0.672869,-0.496633,-0.224797,0.838345
-0.269706,0.229263,0.928289,-0.103544,0.051503,0.993290
-0.492697,0.724432,0.805993,0.900144,0.085655,0.427087
-0.780619,-0.671974,0.673626,0.176943,-0.957949,-0.225885
-0.568695,-0.573064,0.582741,-0.544502,0.232392,0.805923
0.778746,0.272824,0.741506,0.787487,-0.241606,-0.567001
0.133951,0.474487,0.376163,0.349271,-0.397310,0.848619
-0.442337,0.531702,0.870162,0.635792,-0.731633,-0.245933
0.057578,0.296764,0.524826,0.325602,0.779770,0.534735
-0.141714,0.386011,0.290231,0.018070,-0.536413,0.843762
-0.090776,-0.297752,0.676367,-0.685452,0.425397,0.590926
-0.103443,-0.448897,0.770841,0.798556,-0.127370,-0.588291
-0.423610,-0.502050,0.732812,-0.606769,0.764847,-0.216426
-0.079437,0.279377,0.389733,-0.156259,0.367704,0.916721
-0.127993,0.040779,0.352416,-0.798899,0.581711,-0.152882
0.248153,0.622300,0.859833,0.836482,0.339566,-0.430107
-0.068849,-0.343728,0.027632,0.838869,-0.135960,-0.527080
0.041506,0.580571,0.620255,0.774516,-0.575690,0.262119
-0.045797,-0.525844,0.374603,-0.145813,0.031813,0.988801
0.166638,0.367708,0.880037,0.955154,-0.097209,-0.279699
-0.409650,-0.387472,0.753743,0.810431,-0.447002,0.378670
-0.243659,0.328466,0.338392,-0.287299,0.315230,0.904483
-0.077735,0.340546,-0.343178,-0.272083,0.961309,0.043086
-0.618543,0.436232,0.711337,0.066456,0.592135,0.803094
0.353162,-0.056739,0.678366,0.370246,0.888790,0.270131
0.523817,0.197087,0.653332,-0.722318,-0.141614,-0.676906
-0.550138,-0.113734,0.236421,-0.556845,-0.120897,-0.821771
-0.728251,0.022586,0.530703,0.778259,-0.610500,0.146979
0.406517,-0.442967,0.816155,0.337102,-0.328703,0.882222
-0.318295,-0.375173,0.662282,0.075799,-0.996440,0.036900
0.038715,-0.624643,0.653862,-0.282869,0.955981,-0.078004
-0.168613,-0.336701,0.577016,-0.403327,0.135043,-0.905036
-0.394362,-0.502123,0.677685,-0.681882,0.644020,-0.346808
-0.861623,-0.321801,0.683833,0.182444,-0.315095,0.931359
-0.761040,-0.257010,0.675685,-0.305475,0.743180,-0.595288
-0.120603,0.026907,0.841886,0.687023,0.660611,0.302643
-0.434268,-0.533677,0.707005,-0.693140,0.688298,-0.214016
0.426538,-0.193975,0.761891,0.969014,0.118036,-0.216977
-0.341721,0.336080,0.935679,0.668886,0.733075,-0.123255
0.367905,-0.477414,0.744656,-0.045983,0.228117,0.972547
0.478838,0.296692,0.754424,0.999201,-0.023728,-0.032172
-0.410092,0.719783,0.614242,0.662119,0.074310,0.745705
0.541047,-0.387144,0.809476,0.982085,-0.179823,-0.056325
-0.822534,-0.117944,0.597189,0.954492,-0.089440,0.284508
-0.243216,-0.531590,0.772810,0.238412,-0.124541,0.963146
-0.431441,-0.535690,0.663176,0.464618,-0.007271,-0.885482
0.013109,0.234719,0.880552,0.705917,0.579457,-0.407321
-0.081617,0.284245,0.186685,0.278720,-0.373002,0.884977
-0.237904,-0.448715,0.662525,-0.134379,-0.113635,0.984393
0.422010,0.435135,0.648228,-0.673194,0.202471,0.711207
-0.424223,-0.325901,0.770448,0.995824,-0.033137,-0.085069
0.134394,-0.061095,0.895924,-0.271159,-0.842502,0.465472
0.144506,0.352955,0.829816,0.757034,-0.622164,-0.199529
-0.138105,0.384217,0.287353,-0.019570,-0.542430,0.839873
0.769621,0.021672,0.655618,0.929350,0.365618,-0.051306
0.004971,0.791384,0.764935,-0.257850,-0.795096,0.548940
0.324867,-0.024416,0.902209,0.836020,-0.087405,0.541693
-0.167523,0.632770,0.940995,0.918885,0.386204,-0.080605
-0.064456,0.420090,-0.675231,0.915262,-0.379677,-0.134689
0.195648,-0.136758,0.915748,-0.083011,0.313615,0.945915
-0.176513,0.921958,0.851776,0.072898,-0.429055,0.900332
-0.048758,-0.060984,0.066025,-0.230020,-0.275416,0.933400
0.747387,0.284795,0.722892,0.954266,0.268021,-0.132441
-0.301236,0.707702,0.947295,0.886158,0.378663,0.267092
-0.021996,0.193061,0.846793,0.876255,0.409387,-0.254125
0.033403,-0.006955,0.316416,-0.458248,0.345720,0.818832
0.632367,-0.408668,0.767176,-0.665797,0.274482,0.693811
0.150975,-0.685665,0.804705,0.127097,-0.945344,0.300285
0.528653,-0.449556,0.714866,0.660618,0.733522,0.159779
-0.940925,0.011897,0.840175,-0.657029,0.610659,0.442050
-0.375294,0.435100,0.626828,-0.004122,0.555501,0.831506
-0.497497,-0.617870,0.723695,0.933702,-0.333504,0.130287
-0.221016,0.226262,0.848702,0.948928,0.275825,0.153156
0.424870,-0.060070,0.894212,-0.110428,0.398672,-0.910421
-0.675508,-0.331833,0.693390,0.128388,0.736167,0.664511
-0.130649,-0.175525,0.644714,0.930597,0.329962,0.158475
0.238347,-0.605570,0.785381,0.359387,0.755295,-0.548060
-0.478633,-0.210446,0.633401,0.561540,0.622723,-0.544875
-0.033232,0.862071,0.850383,-0.383892,-0.589579,-0.710650
0.868331,0.317263,0.829771,-0.515561,-0.717633,0.468187
-0.656883,-0.724174,0.553163,0.973976,-0.163320,-0.157152
-0.248936,-0.204040,0.128255,-0.811876,-0.029434,-0.583087
-0.557118,-0.211326,0.871056,-0.393894,0.825087,0.405066
-0.230617,-0.555677,0.732797,-0.307841,-0.331755,0.891724
0.814124,0.120690,0.720075,0.781959,0.583885,-0.218217
-0.424188,-0.176258,0.870889,-0.618198,-0.699839,-0.357850
-0.640506,-0.624862,0.558403,0.164942,-0.966445,-0.196922
-0.062073,-0.136941,0.936770,0.725714,0.153957,-0.670549
0.026763,0.511202,-0.974572,0.844678,0.310987,-0.435667
-0.676325,-0.909180,0.610017,-0.024977,-0.648582,0.760735
0.110014,0.031518,0.335938,0.557384,-0.614738,-0.558051
0.165140,0.593528,0.931848,-0.491654,0.739521,-0.459766
0.582417,-0.346219,0.750487,-0.343522,0.161046,0.925233
-0.033778,-0.009444,0.848475,0.819119,0.324961,0.472698
-0.124281,-0.418662,0.566960,-0.250529,0.073482,-0.965316
-0.370799,0.492057,0.897908,0.132793,0.986148,0.099389
0.480166,-0.046964,0.846778,0.096332,0.980045,-0.173873
-0.499166,0.676771,0.865649,0.928844,-0.078441,0.362073
0.855051,0.301085,0.815883,0.639449,0.528467,-0.558416
-0.171848,0.330295,0.519102,-0.225680,0.971887,-0.067115
-0.088665,-0.158649,0.831436,0.884684,0.235357,-0.402419
-0.054070,0.401128,0.567444,0.981385,0.050071,0.185408
-0.581157,-0.415916,0.417176,-0.117801,0.360783,0.925180
-0.618373,0.446300,0.824924,-0.655808,-0.104687,0.747634
-0.250263,0.121094,0.466851,-0.293390,-0.514537,-0.805713
-0.114270,0.371515,-0.444497,-0.169300,0.982469,0.078047
0.604379,-0.091441,0.717910,0.049821,-0.197944,0.978946
0.293371,0.621863,0.828801,0.382783,0.858165,-0.342096
-0.499336,-0.238926,0.826666,0.862310,-0.482878,-0.152479
-0.522320,-0.881909,0.651908,0.967382,-0.253200,-0.007862
0.310804,0.049931,0.311949,-0.135738,-0.846502,0.514791
-0.238483,-0.366535,0.620588,-0.285304,0.694848,0.660142
-0.622629,-0.676330,0.502306,-0.603687,0.583775,-0.542927
0.442848,-0.082325,0.828438,0.972347,-0.120680,-0.199946
-0.103374,0.085659,0.345343,0.748809,-0.631937,0.199853
-0.269196,-0.096528,0.888715,-0.204796,0.452848,0.867748
-0.313562,-0.811882,0.621239,0.893786,-0.406094,-0.190353
0.046205,0.352698,0.460763,-0.662558,-0.718990,0.209931
-0.353434,0.332968,0.905723,-0.168232,0.064529,-0.983633
-0.133134,-0.187091,0.825924,-0.162620,-0.446048,-0.880112
0.408764,-0.293799,0.708277,0.279334,0.707118,0.649582
0.098471,0.128818,0.705142,0.407054,0.169302,0.897577
0.111853,-0.413611,0.644487,0.892618,0.028332,-0.449922
-0.341857,-0.341898,0.748790,-0.030601,-0.408154,0.912400
0.458681,-0.055164,0.853472,-0.553275,0.447221,0.702766
-0.801287,0.388352,0.700114,0.292700,-0.736684,0.609609
-0.861180,0.303793,0.704597,-0.465534,0.752111,-0.466484
-0.911369,-0.130060,0.801495,0.796736,0.350880,0.492031
-0.232150,-0.275972,0.120062,-0.367834,0.070457,-0.927218
-0.058293,-0.182516,0.984158,0.246105,0.279701,0.928008
-0.652048,0.565050,0.735841,0.939905,0.266099,-0.213939
0.119343,-0.695878,0.731525,-0.573604,0.796739,0.190224
-0.214887,0.441577,0.928304,0.062737,0.212242,-0.975201
0.460485,0.075153,0.823516,0.436306,0.089425,0.895343
0.626511,0.289664,0.827211,0.133742,0.139843,0.981100
-0.304948,-0.206860,0.885913,0.785418,0.164725,-0.596645
-0.084818,0.411269,-0.635839,-0.160242,-0.973065,-0.165732
-0.518983,-0.194377,0.859985,0.514991,0.361101,-0.777426
-0.398788,0.408083,0.336590,0.190163,0.231092,0.954167
-0.389560,-0.032140,0.316871,-0.623690,0.283148,-0.728586
0.352208,-0.655025,0.735008,0.650109,-0.676799,0.345399
-0.409820,-0.364850,0.794877,0.784659,-0.615640,0.072792
-0.627975,-0.924042,0.602308,0.239946,0.471824,-0.848415
0.158705,-0.443443,0.561265,0.974186,-0.082893,0.209979
0.409377,-0.258181,0.694511,0.400061,0.718088,0.569475
-0.541761,-0.143787,0.293335,0.988484,0.128396,-0.080083
-0.167353,-0.509224,0.632356,-0.084180,0.203987,0.975348
0.092547,0.231388,0.576440,-0.403887,0.771807,0.491110
-0.010930,-0.788088,0.687862,-0.185733,-0.409305,0.893293
0.498247,-0.107548,0.673702,0.327908,-0.341748,-0.880730
0.099697,-0.761292,0.701750,-0.159107,0.712761,0.683123
0.357383,0.434036,0.854744,0.964973,0.226365,0.132611
-0.084613,-0.454059,0.383993,-0.053303,0.045326,-0.997549
0.494365,0.509665,0.713003,0.417025,0.887070,-0.197981
0.070551,0.469362,0.479270,-0.275020,-0.766734,0.580072
0.173993,0.323742,0.856471,-0.393900,0.857788,0.330216
0.499268,-0.660919,0.683425,-0.013796,0.059042,0.998160
0.104601,0.672450,0.910826,0.751819,0.181194,0.633985
-0.030610,0.186837,0.842916,0.986643,-0.004537,-0.162833
0.176683,-0.096345,0.911129,0.782007,0.283977,-0.554817
-0.417856,0.227469,0.895666,0.326071,0.941219,-0.088225
-0.055637,0.496193,0.934074,-0.554094,0.477549,-0.681856
-0.599612,-0.178049,0.567247,0.257514,0.481517,0.837752
0.211686,0.308954,0.851443,0.526681,0.848003,0.059145
0.251353,0.150854,0.683349,-0.060379,0.782629,0.619553
0.264565,0.370342,0.611350,-0.719878,0.673125,-0.169348
-0.244918,-0.273995,0.902285,0.001448,-0.345171,0.938539
0.468317,0.259389,0.752304,0.808935,0.572297,-0.134540
-0.065239,0.249396,0.069917,0.383114,0.923471,0.020613
-0.415846,0.415478,0.635824,0.261627,0.537363,0.801743
-0.735333,-0.001573,0.568277,-0.467323,0.883819,-0.021763
-0.040757,0.338788,0.392777,0.016338,0.169951,0.985317
0.088018,-0.267991,0.534443,0.192305,-0.892978,0.406951
0.555790,0.079070,0.731919,0.454516,0.802113,0.387338
0.102182,-0.308257,0.483450,0.878869,0.472446,0.066209
0.648132,-0.232118,0.684394,0.107176,0.202797,0.973338
-0.530627,-0.344387,0.406711,0.405039,0.490985,0.771283
0.479553,0.410719,0.826075,0.017033,0.849671,0.527038
-0.602438,-0.883373,0.620649,0.513740,0.140727,-0.846326
0.315094,0.222053,0.911462,0.333162,0.850825,-0.406326
0.014368,0.251411,0.042565,-0.159601,0.973327,-0.164813
-0.299670,-0.191960,0.745231,0.769566,0.084374,0.632969
-0.264258,0.095688,0.824288,0.531651,-0.843457,0.076989
0.142327,0.751373,0.441771,0.184600,-0.459113,0.868987
-0.441146,0.296252,0.908282,-0.521103,0.853328,-0.016839
-0.007116,-0.443188,0.833920,0.299667,-0.478202,0.825544
-0.429603,-0.873965,0.574850,0.224330,-0.347471,-0.910461
-0.321870,0.465664,0.325837,-0.013279,-0.889467,0.456806
0.147571,0.515631,0.380661,0.288762,-0.547034,0.785729
-0.348769,-0.458122,0.545287,-0.210610,0.166177,0.963342
-0.425108,0.331723,0.923896,0.089268,-0.860657,0.501299
0.219653,-0.786916,0.796497,0.175390,0.935876,-0.305572
-0.005686,0.559558,0.874963,0.158765,-0.881249,0.445189
-0.077225,-0.100557,0.829074,0.857637,-0.501230,-0.115010
-0.171848,-0.560070,0.743686,-0.372233,0.213446,-0.903263
-0.482481,-0.066916,0.246144,0.093671,0.748246,0.656776
-0.425347,-0.875503,0.582559,-0.063054,0.474041,0.878242
-0.738261,-0.487736,0.596174,0.298653,-0.099812,-0.949128
-0.061051,-0.231057,0.944993,-0.764299,0.644218,0.028801
-0.054173,-0.213228,0.840796,0.772989,0.336290,-0.537956
0.230243,-0.021194,0.872404,0.042283,0.445457,0.894304
-0.071980,0.472400,0.596190,0.930852,-0.114912,0.346858
-0.154109,0.415514,0.345146,-0.616189,0.331394,0.714485
-0.518983,0.679553,0.868466,0.884805,-0.288160,0.366175
0.242024,-0.147411,0.912492,-0.011914,0.654152,0.756269
-0.285947,-0.555713,0.555995,0.144427,0.088675,0.985534
-0.418673,-0.355149,0.815383,0.801999,-0.002049,0.597321
-0.098982,0.035107,0.812263,0.919273,-0.356508,-0.166849
-0.149034,0.244382,0.786062,0.486868,-0.858757,0.159675
-0.017604,0.239989,-0.049956,0.635186,-0.769254,-0.069191
-0.035922,-0.139431,0.589405,0.165984,-0.985325,-0.039807
-0.197351,-0.254155,0.769615,0.802830,-0.243375,-0.544273
0.255848,-0.665861,0.756363,0.774404,0.544372,-0.322424
-0.040315,0.339302,0.266953,-0.111715,-0.911892,0.394933
0.141101,-0.279046,0.892395,-0.526096,-0.850423,-0.001999
-0.067078,-0.573431,0.731131,-0.310348,-0.929726,0.198224
-0.933706,-0.305402,0.595099,0.512266,-0.620009,-0.594284
0.327318,-0.511604,0.753818,-0.569708,-0.012529,-0.821751
-0.281249,0.039095,0.872449,-0.415844,-0.773893,-0.477664
-0.019749,0.213230,0.102372,0.103258,0.992895,0.059131
0.315094,-0.035764,0.833102,-0.100739,-0.353853,0.929860
-0.730191,-0.845412,0.625450,0.003403,-0.061911,0.998076
-0.013109,0.805770,0.769372,-0.190450,-0.894564,0.404332
-0.220437,-0.549600,0.770629,-0.704826,0.433583,-0.561450
0.243250,0.278535,0.830013,-0.098469,-0.706333,0.700998
0.642582,-0.170801,0.678624,-0.208150,-0.125749,0.969980
0.161361,0.725529,0.925729,-0.148682,-0.939414,0.308860
-0.515952,0.618677,0.826120,-0.746747,0.599449,-0.288150
-0.097620,-0.080495,0.470577,0.416267,0.753662,0.508641
0.002111,-0.333846,0.768736,-0.308351,0.769358,0.559472
-0.467534,0.471594,0.901860,0.931635,-0.066238,-0.357309
0.422759,-0.159930,0.635536,0.998106,-0.061516,-0.000454
0.207055,-0.267699,0.744292,0.643594,0.503907,-0.576077
0.295345,0.475877,0.624283,-0.655256,-0.534011,-0.534296
0.319248,0.527602,0.901391,-0.322389,0.930453,-0.174136
-0.164051,0.073250,0.459067,-0.451319,-0.187055,0.872537
0.411454,-0.321691,0.719333,-0.546731,-0.578422,-0.605404
-0.126562,0.492057,0.347963,0.558645,-0.103186,-0.822963
0.105349,-0.787429,0.740612,0.781234,0.597508,0.180712
-0.744152,-0.233546,0.688089,0.623667,0.592337,-0.510075
-0.175185,0.323267,0.357702,-0.644007,0.483853,0.592572
-0.512581,0.247639,0.794543,-0.689443,-0.718240,0.093808
0.819061,0.305806,0.837782,0.295167,0.886277,-0.356917
-0.038578,-0.510176,0.689467,0.098377,-0.044156,-0.994169
-0.199496,-0.223990,0.869390,0.622182,0.773823,0.118690
-0.342573,0.517315,0.737765,0.747396,0.290944,0.597286
0.099220,-0.232704,0.408755,0.873740,0.363987,0.322631
-0.342878,0.213487,0.909191,0.519552,0.100152,-0.848549
-0.389288,0.059815,0.889578,-0.150896,-0.652298,0.742790
0.070381,-0.191301,0.418660,0.863979,0.399838,0.306056
0.016378,0.255071,0.035386,-0.117256,0.992785,-0.025095
-0.074977,-0.243502,0.916324,0.974857,-0.179131,0.132537
-0.112159,0.212680,-0.000674,0.586864,-0.778566,-0.222317
-0.183356,-0.070906,0.746564,0.435970,-0.680448,0.588999
0.020123,-0.038179,0.319824,0.561009,-0.237673,-0.792957
-0.583507,-0.067575,0.252732,0.662934,-0.389658,0.639285
0.416221,0.121458,0.859606,-0.729459,0.539869,0.420037
-0.562124,-0.053664,0.299484,0.975811,0.080530,-0.203245
0.337839,-0.412951,0.810188,0.585247,0.084149,0.806477
0.236099,-0.649424,0.753985,0.563017,0.738684,-0.370619
-0.390821,-0.866681,0.627388,0.128482,-0.829364,0.543736
-0.756819,0.027930,0.666326,0.868363,-0.229674,-0.439541
-0.452484,-0.356065,0.833118,0.652164,0.377582,0.657354
0.343730,0.053702,0.894727,-0.677608,0.268509,-0.684653
0.338827,0.012447,0.790015,-0.581446,-0.688931,-0.432774
0.287276,-0.248920,0.790151,0.857220,-0.302897,-0.416445
-0.423167,-0.793835,0.573139,-0.270936,-0.273522,0.922919
0.390990,-0.452558,0.785956,-0.711449,0.381023,0.590475
-0.230379,0.125998,0.077853,0.180802,-0.736856,0.651425
-0.065511,-0.678782,0.662116,-0.648641,-0.627562,-0.430617
-0.561714,0.439711,0.731995,0.846109,0.199524,0.494256
-0.576220,-0.352332,0.415752,-0.057627,0.463110,0.884425
0.198951,-0.130755,0.819426,0.271889,0.432400,0.859713
0.503796,0.239952,0.794816,0.879338,0.458425,-0.128884
-0.378869,-0.141041,0.244978,0.031833,0.499443,-0.865762
0.314039,-0.622666,0.749169,0.975595,-0.052284,0.213263
0.495352,0.167032,0.870510,-0.542597,0.387311,-0.745372
-0.777793,0.062561,0.633295,0.994880,0.081274,0.060068
0.318465,-0.008676,0.914582,0.881135,-0.125538,0.455896
-0.119038,-0.479940,0.792665,0.856128,0.454753,-0.245449
-0.084000,-0.287722,0.841750,0.890606,0.454692,0.008789
0.321223,-0.523135,0.766677,0.965737,-0.063956,0.251521
0.542919,-0.343435,0.706112,-0.201624,-0.690930,0.694236
-0.255848,0.073945,0.795755,0.745501,-0.629124,0.220071
-0.437639,0.463870,0.882081,-0.378517,0.907287,0.183179
-0.606967,0.462809,0.780458,0.787272,0.595998,-0.158080
0.366441,0.207117,0.886943,-0.552544,0.830520,0.070225
-0.020191,0.305915,-0.210159,0.919549,-0.220104,0.325552
-0.237904,0.165093,0.865921,0.936449,0.205042,0.284641
0.504920,0.201261,0.862332,-0.745995,0.310518,-0.589126
-0.213082,0.238195,0.801525,0.871728,0.200561,0.447063
-0.409105,0.498208,0.333030,0.513869,0.726035,0.456960
-0.941333,-0.486273,0.715320,-0.858203,0.295072,-0.420024
0.493241,-0.111793,0.739476,-0.621833,-0.743519,0.245976
-0.600089,-0.613112,0.551012,-0.439641,-0.300306,0.846482
-0.553781,0.371953,0.864574,0.337754,0.752478,0.565419
-0.278320,0.621789,0.355536,-0.322639,0.261113,-0.909793
0.577446,-0.380629,0.748169,0.862943,0.087372,-0.497690
-0.060608,-0.213594,0.960335,0.056084,0.983212,0.173632
0.251285,0.229227,0.841114,-0.562043,-0.548182,0.619358
-0.330144,0.107293,0.898574,-0.297181,-0.669052,0.681215
-0.292928,-0.325206,0.124090,-0.391702,0.170715,-0.904116
-0.342573,0.356946,0.963607,-0.001351,-0.979985,0.199067
-0.278525,0.242990,0.771265,0.169578,-0.595776,0.785044
-0.055705,0.244125,0.011760,0.364799,-0.928596,0.068047
-0.161565,0.492350,0.685530,-0.165312,-0.978788,0.121020
-0.221186,0.350174,0.344117,0.562726,-0.214186,-0.798413
0.140283,0.092907,0.839494,-0.462016,0.199955,0.864037
-0.069223,0.434074,-0.626676,0.736074,-0.631232,0.244420
0.391671,0.055056,0.859015,0.857407,-0.240764,-0.454848
-0.811944,-0.671425,0.673959,0.535008,0.844207,-0.032872
0.587013,0.094956,0.799874,-0.125211,0.125622,0.984145
-0.897374,-0.792481,0.622799,0.976454,-0.072889,0.203039
0.018285,-0.329087,0.368076,-0.760799,0.020504,-0.648663
0.328203,0.034155,0.532187,0.945360,-0.187373,-0.266806
0.211311,-0.635917,0.806886,0.876375,0.469906,0.105618
-0.328306,-0.095358,0.159696,0.313976,-0.205101,0.927013
0.439852,-0.026429,0.889002,-0.336699,0.214422,0.916873
-0.421158,0.016875,0.170086,0.519704,-0.852943,0.048946
0.536552,0.324109,0.630447,0.186674,0.950619,0.247945
-0.478123,-0.035837,0.874539,-0.042917,0.452865,0.890546
0.772822,0.029358,0.650333,0.861005,0.476565,-0.177640
0.744629,-0.058385,0.723332,-0.166666,0.294468,0.941016
-0.071129,0.334688,0.274389,-0.306925,-0.913891,0.265708
-0.175457,0.906546,0.849444,0.023009,-0.421249,0.906653
0.009227,0.528444,-0.984779,0.640770,0.039515,-0.766716
0.357214,0.547406,0.873161,-0.215798,-0.794473,0.567665
0.020805,0.621422,0.916263,0.179617,0.794347,0.580302
-0.034424,0.566549,0.864634,0.614441,0.637907,0.464260
-0.076407,0.244491,-0.022664,-0.017938,0.996591,-0.080522
0.363955,-0.293285,0.806220,0.582218,-0.180748,0.792687
0.610099,-0.325608,0.713184,-0.347530,-0.931529,0.107128
0.433655,-0.079763,0.843204,0.875924,-0.482418,-0.005514
0.377030,-0.103631,0.862983,-0.279227,0.669705,-0.688133
0.087779,-0.407350,0.727512,0.107459,-0.092901,0.989860
0.382410,0.228934,0.869284,0.456989,-0.760802,-0.460805
0.349450,0.114943,0.840327,0.991412,-0.034985,-0.126008
0.000409,0.258402,0.160771,-0.272750,0.734961,-0.620838
-0.388879,0.521672,0.942086,-0.269020,-0.174584,0.947179
0.387313,0.206384,0.883308,-0.465895,0.803969,0.369562
-0.064014,-0.328939,0.028132,0.838869,-0.135960,-0.527080
-0.237904,-0.222308,0.780504,0.661247,0.393197,0.638865
-0.292825,-0.532359,0.731570,0.880733,-0.145147,0.450824
-0.075522,0.419688,-0.819154,0.190176,0.964740,-0.181962
0.325377,0.222967,0.906253,0.044276,-0.915748,0.399307
-0.188940,-0.143935,0.849368,-0.374191,0.441818,-0.815339
-0.926487,-0.787026,0.658965,0.394574,-0.432133,0.810908
0.122068,0.170511,0.721105,0.506801,0.741604,-0.439518
-0.833192,0.195622,0.764299,0.249406,0.364161,0.897320
-0.090129,-0.129732,0.929379,0.066051,-0.451232,0.889959
-0.933637,-0.091258,0.827847,-0.375434,-0.620422,0.688568
0.283939,0.077459,0.715759,-0.100394,0.883471,0.457602
-0.074398,-0.248444,0.960608,-0.693048,0.682875,0.231011
-0.771017,-0.431692,0.665932,0.784284,-0.358091,-0.506625
-0.172835,0.382899,0.285218,-0.191685,-0.651742,0.733818
-0.383364,0.455378,0.859652,-0.216494,-0.787845,0.576567
0.255814,0.076836,0.311419,-0.206722,-0.887036,0.412835
0.284416,0.342412,0.912401,-0.636785,0.156819,0.754926
0.025707,-0.241891,0.554011,-0.078690,-0.114281,0.990327
-0.187647,0.586318,0.780019,0.726023,-0.256092,0.638207
0.090640,0.552127,0.861878,0.791048,-0.483590,-0.374677
-0.280160,0.073543,0.132375,-0.792450,0.332613,-0.511265
0.493786,-0.089135,0.879431,-0.466961,0.856899,-0.218338
-0.150023,0.058240,0.100373,0.943942,0.036857,0.328048
0.057373,0.099312,0.276888,-0.020156,0.968249,0.249174
-0.563554,0.607367,0.869844,-0.717942,0.691916,0.076232
-0.134564,0.063732,0.487146,0.882052,0.292496,-0.369366
-0.364023,-0.268503,0.738704,0.913104,-0.007148,0.407664
-0.041234,0.234243,0.079413,-0.036396,0.944134,0.327546
-0.080458,-0.514349,0.682849,0.726247,-0.044594,-0.685986
0.520072,0.315471,0.623450,0.438691,0.136776,-0.888168
-0.434268,0.508273,0.345237,0.303297,0.866933,-0.395521
-0.152405,0.579289,0.922291,0.957995,0.124568,-0.258317
-0.404099,-0.157807,0.783700,0.659569,0.091405,0.746065
-0.339984,-0.407643,0.813414,0.275579,0.930948,0.239567
0.006810,0.324256,0.854729,0.863208,-0.468277,-0.188652
-0.068678,0.275789,-0.217686,-0.351363,-0.924293,-0.149086
-0.568389,-0.234826,0.634234,-0.207204,0.584011,0.784855
0.180394,-0.650963,0.687150,-0.732005,0.461839,0.500873
-0.560660,0.582694,0.809582,-0.725031,0.198002,-0.659640
-0.549287,0.625265,0.916142,-0.402614,0.475598,0.782118
-0.572781,0.346769,0.751880,0.720983,0.664041,-0.198074
0.030304,0.334067,0.335469,0.852474,-0.512159,-0.104791
-0.087064,0.364998,-0.419781,-0.540364,0.826027,0.160268
-0.132078,-0.173657,0.681198,0.076929,-0.996231,-0.040064
-0.370391,0.038364,0.161650,0.102869,0.893748,0.436616
-0.144881,0.544368,0.936406,-0.692808,-0.672049,0.261470
-0.270728,0.632696,0.355369,-0.333361,0.167932,-0.927723
0.166060,-0.726626,0.778187,0.546702,-0.710338,0.443325
-0.255882,0.627975,0.950173,0.724366,-0.641276,0.253097
-0.015118,-0.189033,0.908282,0.614488,0.786263,-0.064765
0.001260,0.029322,0.309768,0.521931,0.550187,0.651830
0.038476,-0.735815,0.770145,-0.710476,-0.655807,-0.255229
0.243862,0.131050,0.699509,-0.034729,0.756123,0.653507
0.300998,-0.744527,0.773158,0.615009,0.411233,0.672793
-0.454424,0.016985,0.189335,-0.729096,0.677189,-0.099170
-0.244100,-0.512775,0.770599,-0.539344,0.229983,-0.810071
-0.051414,-0.811919,0.669355,0.888560,-0.009229,-0.458669
-0.087882,0.235668,-0.021786,-0.034109,0.977728,0.207084
-0.276277,0.701956,0.916627,-0.697818,-0.685144,-0.208870
-0.484865,-0.520205,0.541032,-0.440962,0.696948,-0.565522
-0.489156,-0.642250,0.704915,0.654671,-0.469192,-0.592676
0.213116,0.108024,0.321308,-0.134052,-0.776556,0.615622
0.093942,-0.055751,0.902633,0.420218,0.665458,-0.616914
-0.096190,-0.157186,0.869920,0.914655,-0.115256,-0.387457
-0.198815,0.413392,0.906222,0.892540,0.255664,0.371494
0.004223,-0.259682,0.913916,0.331386,-0.654535,0.679534
0.034356,0.373014,0.888139,0.937158,0.348694,-0.012113
-0.235214,-0.251152,0.724604,-0.319519,-0.464606,-0.825862
0.135517,-0.683322,0.711943,0.520544,-0.851204,0.066973
-0.427390,-0.139395,0.794770,0.553932,-0.236601,-0.798235
-0.467227,-0.199684,0.925684,0.650328,-0.753103,0.099549
-0.360857,0.217073,0.865513,0.875036,0.483955,-0.009974
-0.173584,0.615821,0.794513,0.821167,-0.073331,0.565957
-0.193095,-0.272933,0.897817,-0.039768,-0.621699,0.782246
-0.656747,-0.863130,0.531505,0.977525,0.179253,0.110965
-0.205012,0.050809,0.924472,0.738720,0.038286,-0.672925
0.382683,-0.506332,0.808355,0.326395,-0.050313,0.943893
0.473254,-0.116992,0.830422,-0.637347,-0.761443,0.118291
0.524941,-0.059520,0.861696,0.373249,0.878131,0.299284
-0.369403,-0.254483,0.848914,0.619716,-0.258783,0.740934
0.098913,0.034300,0.333515,0.549658,-0.477407,-0.685536
0.394396,-0.546782,0.740627,-0.392688,0.322845,-0.861143
-0.268787,0.613480,0.892183,0.735101,-0.523600,0.430661
0.322040,-0.526612,0.761497,0.423654,0.113017,0.898746
0.667574,0.208142,0.823031,0.047004,-0.164099,0.985323
-0.466206,0.667144,0.766313,0.839162,0.454450,0.298799
-0.440567,-0.326048,0.598401,-0.684246,0.318660,-0.655945
-0.548503,-0.056739,0.247264,-0.626208,0.412766,-0.661429
-0.329157,0.151366,0.858788,0.679102,0.689654,-0.251393
-0.508223,0.718136,0.806841,0.869313,0.004100,0.494245
0.409581,0.156858,0.794225,-0.290474,-0.949847,0.115822
0.600429,-0.323742,0.755545,-0.388105,0.108100,0.915253
-0.424393,0.587305,0.749972,0.648235,0.693474,0.314460
0.250400,-0.172634,0.834102,-0.167994,0.273747,0.947017
0.264496,0.204152,0.447102,-0.146651,0.716968,0.681507
0.058258,-0.402774,0.806008,0.859330,0.438546,-0.263114
-0.302700,-0.150414,0.891320,0.770974,0.037573,-0.635757
0.045932,0.366573,0.464110,-0.249399,0.470216,-0.846580
-0.419286,-0.238414,0.839433,-0.420727,0.587433,-0.691311
-0.068678,-0.496302,0.373452,-0.341300,0.444479,0.828223
-0.464538,-0.888644,0.543727,-0.553467,0.348224,0.756580
-0.613198,-0.137710,0.613894,-0.347997,0.415648,0.840318
-0.129490,-0.123947,0.847278,0.404847,0.447541,-0.797374
0.275393,0.605132,0.831194,-0.222289,-0.661282,0.716445
-0.401614,0.314738,0.806735,0.490556,0.687294,0.535707
0.773979,0.274654,0.738098,0.966042,0.140936,-0.216563
0.444959,0.065343,0.827029,0.436306,0.089425,0.895343
-0.760394,-0.749762,0.554617,-0.617530,0.521975,0.588387
-0.455446,-0.561205,0.674686,-0.129632,0.697485,0.704776
0.005448,0.456551,0.545681,-0.672913,0.586720,-0.450498
0.375225,0.467056,0.830013,0.438035,0.048630,-0.897641
-0.326909,-0.794164,0.620527,-0.560695,0.627673,0.540044
0.169294,-0.089428,0.846385,0.986359,-0.070999,0.148508
0.261739,-0.396514,0.823485,0.283880,0.804601,-0.521565
-0.362729,-0.198403,0.775733,0.834043,0.477853,0.275735
