0.183724,0.684036,0.897289,0.903199,-0.428171,0.030021
0.204662,0.747087,0.563826,-0.669807,0.346320,-0.656826
0.215187,0.851538,0.740495,-0.575958,0.018881,0.817261
0.202239,0.772309,0.760100,0.036068,0.242150,0.969568
0.286956,0.887450,0.754917,0.982057,0.001671,-0.188578
0.274491,0.799741,0.722017,-0.363965,-0.693202,0.622093
0.208654,0.378449,0.712192,0.804036,0.523568,0.281785
0.192676,0.288175,0.766815,0.815686,-0.540360,-0.206560
0.346862,0.790622,0.719042,0.803268,0.211702,0.556725
0.343837,0.779006,0.753069,0.677413,0.212067,-0.704372
0.308739,0.526217,0.623317,0.854497,0.459270,-0.242704
0.403498,0.694220,0.735898,0.384960,0.364892,-0.847738
0.386196,0.573314,0.677850,0.636347,0.636941,-0.435165
0.479622,0.739964,0.611599,0.972899,0.086197,-0.214562
0.555021,0.538328,0.561978,0.056427,-0.988761,0.138445
0.601250,-0.658439,-0.977701,0.546337,-0.308918,-0.778515
0.552114,-0.750205,-0.957736,-0.086968,-0.274878,0.957538
0.496205,-0.851381,-0.943674,0.941700,-0.295207,0.161410
0.565912,-0.743294,-0.849886,0.956459,-0.291868,-0.000228
0.590236,-0.712232,-0.783410,0.442152,0.853377,-0.276133
0.600042,-0.705178,-0.728562,0.984266,-0.110962,-0.137508
0.710776,-0.565242,-0.975132,-0.616003,-0.071241,-0.784516
0.578499,-0.675607,-0.978377,-0.447456,-0.011673,0.894230
0.442954,-0.788325,-0.980495,0.668596,0.455104,-0.588098
0.492814,-0.653307,-0.600837,-0.838234,0.530678,0.125474
0.575474,-0.546934,-0.446612,0.878960,0.466491,-0.099078
0.537836,-0.567808,-0.404158,0.912368,0.124213,0.390071
0.528635,-0.561467,-0.349264,0.953661,-0.266655,-0.139379
0.518228,-0.556979,-0.294866,0.597843,-0.771920,0.216154
0.646878,-0.638700,-0.979549,-0.260775,0.518020,0.814648
0.521256,-0.742225,-0.977115,-0.555710,0.463192,0.690390
0.561554,-0.618183,-0.602640,-0.531956,0.661743,0.528317
0.574507,-0.577853,-0.480414,-0.227025,-0.967407,0.112178
0.570389,-0.568238,-0.425385,0.987419,0.135346,-0.081767
0.537474,-0.584411,-0.381083,-0.770443,-0.637037,0.024519
0.554175,-0.555483,-0.317130,-0.238777,0.966380,-0.095365
0.720337,-0.599301,-0.971617,0.089073,0.004127,-0.996017
0.600160,-0.697912,-0.969183,0.496718,-0.645323,-0.580370
0.476841,-0.799440,-0.965803,-0.517424,-0.289926,0.805118
0.555021,-0.655660,-0.632205,0.974538,-0.052788,0.217921
0.534327,-0.661787,-0.584072,0.884359,-0.138544,-0.445774
0.630298,-0.558406,-0.481496,-0.186583,-0.848478,0.495250
0.557078,-0.613051,-0.454950,0.859484,-0.369031,-0.353699
0.550300,-0.605072,-0.398750,0.747121,-0.296210,0.595038
0.538198,-0.602649,-0.347461,0.758584,-0.194654,0.621820
0.703880,-0.651528,-0.972428,-0.098501,0.031375,0.994642
0.603189,-0.732749,-0.961251,-0.551689,0.830193,-0.080120
0.490395,-0.824376,-0.952643,0.952083,0.115666,-0.283124
0.590358,-0.702399,-0.786745,0.873714,0.470489,0.123552
0.577410,-0.700829,-0.732257,0.887986,-0.418683,0.190224
0.586606,-0.677890,-0.667989,0.785949,0.547961,-0.286396
0.580194,-0.670837,-0.613276,-0.519160,0.852878,0.055435
0.575231,-0.662357,-0.558112,-0.519158,0.852116,0.066135
0.602945,-0.623097,-0.486904,0.385333,-0.432569,0.815109
0.755191,-0.630363,-0.971662,-0.086223,0.046011,0.995213
0.641552,-0.723060,-0.964000,0.182797,-0.870453,0.457053
0.543885,-0.801362,-0.950930,-0.015888,0.851956,0.523373
0.506852,-0.822380,-0.909557,-0.544839,0.837876,-0.033384
0.589269,-0.731327,-0.811172,0.944363,0.321466,-0.069558
0.608271,-0.700686,-0.744381,-0.250415,0.950943,-0.181659
0.619768,-0.675964,-0.679166,0.799269,0.600652,0.019652
0.611779,-0.670193,-0.623146,0.743282,0.575388,-0.341262
0.706661,-0.661857,-0.969183,-0.184929,0.044616,0.981739
0.602461,-0.746360,-0.959538,-0.111420,0.674463,0.729853
0.484223,-0.843471,-0.953724,0.940958,0.151647,-0.302656
0.605364,-0.704178,-0.777641,0.377282,0.910815,-0.167552
0.606938,-0.689501,-0.719232,0.995726,-0.054051,-0.074894
0.598225,-0.684800,-0.666006,0.203360,0.885835,0.417062
0.608877,-0.661930,-0.601648,0.429319,0.840652,-0.330135
0.579223,-0.677177,-0.558022,-0.504634,0.851688,0.141323
0.813767,-0.587190,-0.967515,-0.397979,0.003872,0.917386
0.689236,-0.690215,-0.965082,0.124924,-0.561720,-0.817842
0.595684,-0.765025,-0.950480,0.452792,0.348770,-0.820572
0.518350,-0.824732,-0.928216,-0.602798,0.796258,0.051076
0.602340,-0.720568,-0.771197,0.731567,0.664931,-0.150590
0.602100,-0.708170,-0.711661,0.984888,0.092422,0.146468
0.601978,-0.695202,-0.651990,0.927813,-0.280295,-0.246165
0.618317,-0.667558,-0.585289,0.896555,-0.430310,0.104988
0.757976,-0.646967,-0.970625,-0.070402,0.311529,0.947625
0.657041,-0.728261,-0.956969,0.098264,0.746125,0.658515
0.574991,-0.791956,-0.934480,-0.116251,-0.085028,0.989574
0.589753,-0.765881,-0.867508,0.691714,0.250100,0.677482
0.610328,-0.734319,-0.800266,0.931762,0.359162,0.053135
0.608511,-0.723560,-0.743299,0.761737,-0.199034,0.616556
0.711743,-0.660004,-0.969003,-0.263980,0.119539,0.957092
0.618679,-0.734175,-0.954355,0.031964,0.813854,0.580190
0.521134,-0.812978,-0.941646,0.670212,-0.311779,-0.673506
0.595200,-0.721421,-0.789900,0.946029,0.201861,0.253536
0.612264,-0.693419,-0.722522,0.984699,0.174254,0.001805
0.606092,-0.687505,-0.665871,-0.642146,-0.489186,-0.590208
0.605124,-0.675964,-0.606921,0.500589,0.791747,-0.350068
0.686207,-0.661361,-0.974095,0.104287,0.290755,0.951097
0.596168,-0.732892,-0.957961,0.526733,-0.836868,-0.149009
0.500441,-0.809842,-0.942638,0.744604,-0.337421,-0.575944
0.585760,-0.697624,-0.726939,0.962807,-0.176691,-0.204411
0.592415,-0.680239,-0.667043,-0.602789,-0.792987,-0.088413
0.612386,-0.650885,-0.598584,-0.653910,-0.648560,0.389579
0.694802,-0.641909,-0.968237,-0.633498,0.237355,-0.736439
0.582370,-0.733536,-0.960124,-0.331552,0.618670,0.712264
0.582008,-0.680239,-0.668440,0.785949,0.547961,-0.286396
0.598709,-0.653024,-0.601829,0.314755,0.800977,-0.509279
0.596652,-0.643475,-0.543870,-0.736663,0.606113,-0.299924
0.649297,-0.585050,-0.464820,-0.367236,0.929530,-0.033330
0.529242,-0.673329,-0.403662,0.633719,-0.770250,-0.071518
0.741880,-0.700829,-0.965307,-0.209762,0.159325,0.964684
0.650386,-0.774288,-0.950029,0.009142,-0.241771,0.970290
0.616983,-0.793809,-0.905276,0.359364,0.873621,-0.328090
0.697343,-0.852520,-0.947820,-0.055274,0.250619,0.966507
0.911795,-0.756832,-0.944440,0.200248,-0.078628,-0.976585
0.777702,-0.869689,-0.948767,0.293843,-0.180912,-0.938577
0.651232,-0.975066,-0.947009,-0.264609,0.414561,0.870702
0.872100,-0.832712,-0.945161,0.204604,-0.051286,-0.977500
0.297120,-0.402227,-0.125904,-0.428725,-0.093679,0.898565
0.351220,-0.360332,-0.050504,-0.664587,0.481569,-0.571328
0.449850,-0.289509,0.043329,-0.042466,-0.698828,0.714028
0.742605,-0.512662,-0.425250,-0.688577,0.504215,0.521180
0.773226,-0.534605,-0.981757,-0.189468,0.446016,0.874741
0.556594,-0.539167,-0.257369,0.096947,-0.964032,0.247476
0.492452,-0.521498,-0.364137,0.985292,-0.006550,-0.170752
0.484826,-0.500125,-0.251916,0.413425,-0.888870,-0.197460
0.663335,-0.478464,-0.464234,0.454943,0.755165,0.471967
0.277516,-0.313096,-0.133250,0.723604,0.074880,-0.686142
0.425770,-0.107612,0.210578,0.376097,-0.085222,0.922653
0.316362,-0.375865,-0.061411,0.758557,0.589017,-0.278658
0.147293,0.239439,0.471210,0.347182,0.862471,-0.368251
0.074067,0.327994,0.607947,0.774072,-0.313530,0.550010
0.320114,0.183742,0.398492,-0.525187,-0.797566,-0.296761
0.488950,0.517813,0.500736,0.230363,0.629790,-0.741820
0.080084,0.765133,0.803123,-0.714121,-0.642294,-0.278369
0.529442,0.573484,0.536852,0.454494,0.293324,-0.841068
0.478652,-0.392582,-0.101529,-0.172873,-0.794731,0.581822
0.120964,0.379134,0.568387,-0.282270,-0.762517,0.582144
-0.105710,0.451216,0.595819,0.852057,-0.523441,-0.002965
0.708952,-0.527789,-0.988355,0.018413,-0.072369,0.997208
-0.737891,-0.152922,-0.053998,-0.580380,0.281208,0.764252
0.140254,-0.548325,0.000944,-0.630023,0.684549,0.366693
0.884280,-0.789702,-0.952839,0.032745,0.435210,0.899733
0.045987,0.112929,0.241100,-0.245866,0.249688,-0.936593
0.087804,0.634714,0.784013,-0.649844,0.747479,-0.137762
0.186091,0.231843,0.446384,-0.436670,-0.388297,0.811508
0.136782,0.326945,0.463740,-0.711011,-0.603674,-0.360613
-0.416894,-0.165324,-0.020889,0.713301,0.700818,0.007555
0.449956,-0.357199,-0.020090,0.935099,0.024325,-0.353551
0.045055,0.360518,0.574810,-0.508982,-0.152598,-0.847143
0.482004,0.596487,0.555147,0.892282,0.376088,0.249781
-0.285964,0.520135,0.715206,0.839002,0.258014,0.479066
0.028232,0.205647,0.255361,0.733374,0.073323,-0.675860
-0.081217,0.665014,0.671638,-0.380536,0.026822,-0.924377
0.013376,0.674868,0.620992,0.928536,-0.370352,0.025683
0.310132,0.368270,0.553054,0.938995,-0.032673,-0.342376
-0.230291,0.081341,0.180838,-0.405266,0.364755,-0.838280
0.312736,0.030305,0.267874,0.059468,0.031773,0.997724
0.583764,-0.756813,-0.971859,0.173917,0.060793,0.982882
-0.322355,0.339517,0.484867,-0.371542,-0.346166,-0.861467
-0.001470,0.262814,0.238491,-0.107881,-0.561964,0.820096
-0.069717,0.599344,0.666567,0.765415,-0.466668,0.443126
0.170700,-0.369440,-0.141378,0.821548,-0.321198,-0.471054
0.017329,0.668256,0.493317,0.457315,0.871607,-0.176535
-0.100464,0.455839,0.526031,0.975613,0.117573,-0.185351
0.074402,0.841641,0.786382,0.855636,0.137968,-0.498850
-0.071070,0.387292,0.557254,-0.539683,-0.193863,-0.819243
0.538077,-0.665721,-0.677997,0.220847,-0.947935,0.229446
0.332940,-0.461998,-0.128461,0.399666,0.503588,0.765941
0.627968,-0.696232,-0.963993,0.284586,-0.138624,-0.948575
-0.066778,0.558174,0.439726,0.740488,0.635132,0.219736
-0.050085,0.242159,0.441061,-0.498405,-0.864547,0.064430
0.538575,-0.582270,-0.483597,0.935356,-0.259712,-0.240124
0.728535,-0.615907,-0.964721,-0.343405,-0.139381,0.928787
-0.120701,0.153875,0.227427,0.107362,0.682596,-0.722867
0.260387,0.221981,0.439164,-0.476282,0.755698,-0.449529
0.468444,-0.147481,0.157801,0.378418,-0.706497,0.598048
0.287604,0.573304,0.626431,0.852812,-0.309985,0.420263
0.306209,0.057206,0.362518,-0.576530,0.191874,-0.794227
0.620693,-0.883227,-0.960942,0.060635,-0.061571,0.996259
0.637250,-0.727952,-0.939714,0.763119,-0.615321,-0.197559
0.089237,0.719539,0.797265,0.962657,-0.074547,-0.260259
0.764730,-0.699146,-0.969608,-0.658955,0.559253,-0.503005
0.309322,0.877655,0.898801,-0.614121,0.384217,-0.689372
-0.587502,-0.093655,-0.041427,-0.404744,-0.871849,-0.275793
0.310139,-0.465887,-0.235791,-0.438783,-0.694223,-0.570547
0.789235,-0.562895,-0.978020,-0.590559,-0.014489,0.806865
0.518527,-0.478676,-0.172934,0.587026,0.773946,-0.237505
0.699811,-0.486973,-0.436401,-0.778394,0.310400,0.545668
0.350061,-0.382042,-0.394750,-0.229683,-0.778659,-0.583897
0.358544,-0.044955,0.208755,-0.701319,-0.406961,0.585265
-0.247954,0.205037,0.262374,0.578516,-0.083424,0.811394
-0.040943,0.464624,0.563770,0.835654,0.353441,0.420430
0.186545,0.183772,0.455666,-0.332766,0.859465,-0.388056
0.147966,0.244796,0.364066,-0.294409,-0.909509,0.293456
-0.216782,0.345037,0.479245,0.628649,0.279152,0.725861
0.757628,-0.696751,-0.940834,0.965170,0.257854,-0.044262
0.026923,0.592689,0.711356,-0.527849,-0.841665,-0.113908
0.347702,-0.533009,-0.244596,-0.769938,0.634431,-0.068504
0.424423,0.230210,0.398226,-0.841725,0.516683,-0.156642
-0.168144,0.075013,0.191348,0.324253,-0.367917,0.871491
-0.310912,0.212699,0.243065,0.432142,0.196286,-0.880185
-0.129134,0.796903,0.719016,0.416188,0.139646,0.898491
0.114926,-0.409667,-0.183411,-0.565095,0.099482,-0.819006
0.190000,0.331146,0.697405,0.824914,-0.550872,-0.126715
-0.056267,0.497861,0.635782,-0.666498,0.732982,-0.136080
0.692737,-0.794210,-0.947999,-0.187128,-0.411836,0.891837
0.127857,0.188729,0.466646,-0.002971,-0.990486,0.137585
0.174899,0.328154,0.642771,-0.356107,0.212128,-0.910049
0.224218,-0.397402,-0.074370,0.850985,0.408219,-0.330425
0.077680,0.636553,0.735209,0.563399,-0.215839,-0.797493
0.071789,0.784019,0.738887,0.602730,-0.796035,-0.055180
-0.563853,-0.033055,-0.052319,-0.020234,-0.165300,0.986036
0.056891,0.432104,0.619226,0.272850,0.185766,0.943951
0.275670,0.763255,0.781804,-0.399476,0.409112,-0.820394
0.185443,-0.216725,-0.070943,0.742888,0.584546,0.326227
0.149787,0.035747,0.254254,0.092156,0.691089,0.716870
0.010828,0.421098,0.581081,0.682895,0.357593,-0.637010
0.147595,0.594570,0.630114,0.840780,-0.186835,-0.508116
-0.152234,0.795860,0.729373,-0.470515,0.457614,-0.754457
0.641863,-0.718609,-0.874737,-0.423401,-0.891010,0.163807
0.409560,-0.301131,0.093986,-0.001004,-0.999967,0.008030
0.249934,0.407255,0.420627,0.814345,0.295466,-0.499541
0.320773,0.705776,0.790923,0.197233,0.641886,0.741000
0.636346,-0.420081,-0.456511,0.631578,0.614960,0.472158
0.235371,0.437005,0.540115,-0.197564,0.628184,0.752564
0.062282,-0.336699,-0.026153,0.183045,-0.351780,0.918012
0.563782,-0.705334,-0.666388,-0.755784,0.419852,0.502508
0.116937,0.357241,0.523417,0.785407,-0.392636,0.478511
0.649492,-0.744626,-0.949065,0.414724,0.131775,0.900355
0.569928,-0.408279,-0.074644,-0.742046,-0.644724,0.183570
0.262096,0.296319,0.514604,0.734641,0.567528,0.371773
0.388962,-0.017861,0.323108,-0.508269,0.850749,0.133750
0.729147,-0.712104,-0.975583,-0.213586,0.463335,-0.860059
0.223030,0.294122,0.470961,-0.250210,0.400570,-0.881441
-0.187759,0.367584,0.249836,0.139270,0.987912,-0.068065
0.148747,0.176083,0.369412,-0.746589,-0.638935,-0.185385
0.622377,-0.858221,-0.953714,0.157393,0.136734,0.978024
0.473486,0.027179,0.399915,0.869842,0.423952,-0.252267
-0.326326,0.327816,0.536206,-0.698185,-0.113707,-0.706830
0.597988,-0.697909,-0.693719,-0.143428,-0.989103,0.033224
0.385088,0.088284,0.346235,-0.479740,-0.728366,-0.489216
0.516145,0.144326,0.347266,0.895625,-0.144044,-0.420841
0.276066,0.532478,0.652448,0.456932,-0.351861,0.816950
0.284086,0.844094,0.744398,0.112322,0.268899,0.956596
0.622335,-0.728001,-0.861216,-0.086386,-0.995964,0.024338
0.684839,-0.640340,-0.973999,0.216036,0.233289,-0.948106
-0.436643,0.297206,0.202368,-0.710090,-0.373367,0.596968
0.305918,-0.542452,-0.226232,-0.626961,-0.642551,0.440509
0.290614,0.266765,0.456710,-0.489066,-0.862142,0.132385
0.378835,-0.117325,0.197751,0.392903,0.892854,0.220088
0.259656,0.091326,0.315403,0.630131,-0.303410,-0.714757
0.259329,0.825931,0.781429,-0.597248,0.798020,-0.080362
0.105200,-0.567811,-0.071938,0.752932,0.261886,0.603746
0.231130,0.807198,0.664095,0.321274,-0.946980,0.003588
0.176611,0.749247,0.865512,-0.637344,-0.739246,-0.217504
-0.544622,0.000597,-0.003628,0.248444,0.557620,-0.792045
0.579523,-0.572290,-0.463055,0.364803,-0.827028,0.427718
0.313876,0.301405,0.520785,0.800658,0.596183,-0.059269
0.207943,0.174685,0.303962,0.300642,-0.344459,0.889361
0.068088,0.432080,0.598370,-0.624741,-0.495024,0.603863
0.579846,-0.736559,-0.994035,-0.143866,0.741584,0.655252
-0.044192,0.780372,0.498292,0.654919,0.435967,0.617263
0.271607,0.124913,0.356616,0.482045,0.601831,-0.636735
0.549600,-0.567965,-0.427476,0.981805,-0.038212,-0.186008
0.615834,-0.620775,-0.486297,0.367170,-0.517669,0.772790
-0.206669,0.241805,0.235267,-0.562749,-0.637860,0.525783
0.313892,0.352197,0.584277,-0.754128,0.497374,-0.428847
-0.244066,-0.000133,0.241718,0.840484,0.522509,0.143428
0.500867,-0.274722,-0.336017,-0.245685,0.925639,-0.287805
0.444644,-0.308238,-0.463072,-0.188482,-0.978125,-0.088010
-0.089030,0.361990,0.560601,-0.089325,0.771796,0.629565
-0.315232,0.344719,0.514777,-0.615675,-0.621033,-0.485039
0.367292,-0.076628,0.186323,0.593042,0.327792,-0.735427
0.511251,-0.416081,-0.057175,0.464912,0.869433,-0.167161
-0.031316,0.399466,0.587667,0.592281,0.305314,0.745645
-0.183587,0.446494,0.595294,0.445789,0.754179,-0.482168
-0.126532,0.589331,0.590699,-0.252726,0.497049,0.830103
-0.295858,0.543483,0.609142,0.439370,0.845291,-0.304034
-0.000150,-0.494420,-0.043605,0.472987,0.050933,0.879596
0.093379,0.759244,0.836259,0.311510,0.502511,-0.806501
-0.028821,0.625872,0.416654,-0.229957,-0.152724,0.961143
-0.235733,0.545973,0.689281,-0.251244,-0.887047,-0.387329
-0.351835,0.021114,-0.006761,-0.687135,0.195589,0.699707
0.218768,0.601275,0.515104,-0.124286,-0.611210,0.781649
-0.212388,0.019355,0.140604,0.018268,-0.923108,0.384107
-0.252229,-0.328955,-0.135172,-0.328282,-0.263630,0.907045
0.141136,0.156756,0.411961,0.428097,0.839563,-0.334467
-0.163857,0.640802,0.541698,0.348070,0.910475,-0.223346
0.537029,-0.500101,-0.538423,0.748746,-0.584502,-0.312628
-0.405854,-0.066861,-0.027995,-0.651823,-0.303983,0.694781
-0.144061,0.826319,0.776417,0.337119,0.939654,-0.058323
0.474772,-0.437751,-0.175117,0.960567,-0.273788,0.048492
-0.172691,0.769226,0.717024,0.541971,-0.562941,0.623992
0.307578,0.728776,0.710331,-0.147455,0.524783,0.838367
0.049589,0.665375,0.568708,-0.138563,0.750567,0.646104
0.386251,0.121227,0.348078,-0.616978,0.770062,-0.162304
0.493731,-0.573983,-0.373003,0.842892,0.493203,0.215137
-0.101744,0.233256,0.275468,-0.594487,0.458740,-0.660411
0.165288,0.405024,0.474178,-0.649538,0.599285,0.467929
0.349036,0.693334,0.670737,-0.699056,-0.583534,0.413290
0.216608,0.271347,0.312710,-0.739644,0.090410,-0.666898
0.037028,0.557394,0.691639,-0.678728,-0.560767,0.474203
0.422619,-0.305494,0.004379,0.243496,0.613436,0.751269
0.470643,-0.357564,-0.016757,0.104477,-0.739107,0.665436
0.234573,0.814338,0.787281,-0.688576,0.709441,0.150187
-0.054403,0.813105,0.780473,0.952728,-0.243743,-0.181382
0.318634,0.211203,0.413157,0.594584,-0.771742,0.225575
0.549702,-0.548621,-0.348575,0.867779,-0.261151,-0.422801
0.075293,0.270867,0.596254,0.545858,-0.141378,0.825864
-0.165187,0.430106,0.574538,0.993716,0.094098,0.060611
0.329508,0.033119,0.306515,0.009192,0.494841,0.868935
-0.265832,0.876353,0.788569,0.972617,0.219404,0.076667
0.605203,-0.716894,-0.984011,0.512488,0.055382,-0.856907
0.188874,0.216256,0.436330,-0.469033,-0.820766,0.326115
-0.118469,-0.390568,-0.123660,0.228417,0.788633,-0.570862
0.105385,0.315127,0.500844,0.379049,0.919766,-0.101742
0.140019,-0.117325,0.186862,0.784561,0.265308,0.560424
0.365812,-0.302198,-0.099331,0.776758,0.461519,-0.428541
0.352377,0.081831,0.350316,-0.271492,-0.874784,-0.401303
-0.341835,0.031343,-0.024394,-0.705257,0.674358,0.218754
0.397487,0.159833,0.360143,-0.402241,0.322379,-0.856898
-0.250191,0.392906,0.281000,-0.030343,-0.859570,0.510116
-0.010838,-0.468989,-0.177263,0.186078,0.141371,0.972311
0.283922,0.460587,0.592723,0.375405,-0.205202,0.903860
0.369284,0.098754,0.344588,-0.207472,0.972682,-0.104143
0.262430,0.856274,0.775536,-0.494767,0.860445,-0.121817
0.252986,0.755089,0.767533,0.227734,0.807567,-0.544034
-0.303615,0.316510,0.449536,0.498895,0.864208,-0.065179
0.018005,0.556419,0.645700,-0.225769,-0.310909,0.923235
-0.066907,0.718159,0.669569,0.999170,0.039546,-0.009725
0.181563,0.848547,0.728266,-0.534142,-0.845243,0.016013
0.645572,-0.900757,-0.953293,0.802775,0.178791,-0.568847
0.209854,0.175673,0.451222,-0.310737,0.920663,-0.236265
0.338816,0.936430,0.803840,0.966608,-0.208080,-0.149572
-0.317961,0.377157,0.519834,0.293996,0.728499,0.618753
-0.237663,0.247648,0.512189,-0.171974,-0.980789,0.092078
0.136509,0.317901,0.357682,-0.227335,-0.740251,0.632730
0.420940,0.303762,0.379298,-0.500750,-0.661045,0.558810
-0.357091,0.383082,0.517393,-0.399644,-0.379917,-0.834235
0.640025,-0.867248,-0.968658,0.199301,-0.297613,0.933652
0.045339,0.293185,0.657832,-0.286544,0.920437,-0.265874
0.367316,0.644199,0.683637,0.764508,0.145381,0.628007
0.640961,-0.641507,-0.596804,-0.622464,0.522186,0.582975
0.407767,-0.215416,-0.126217,-0.340053,-0.825917,-0.449694
-0.138039,0.422969,0.560602,0.893192,0.228533,0.387274
-0.176042,0.266932,0.473499,-0.068902,-0.442523,0.894106
-0.163707,0.050423,0.173376,0.352471,-0.486454,0.799454
0.563067,-0.647767,-0.440861,0.965358,-0.135296,-0.223112
0.167776,0.223330,0.512139,0.803712,-0.403491,0.437312
0.612168,-0.724843,-0.832402,0.998353,-0.046111,0.034134
0.107051,0.574573,0.602974,-0.248745,-0.897011,0.365373
0.597312,-0.723300,-0.721097,0.922763,-0.141272,-0.358539
0.276945,0.594352,0.513582,-0.833100,0.552993,0.011991
0.288831,0.868803,0.793438,0.749640,-0.492030,0.442659
-0.228057,0.272872,0.253306,-0.400362,0.121045,0.908327
0.306152,0.174645,0.401158,0.478667,-0.763497,-0.433533
0.230034,0.204164,0.427434,-0.000051,-0.886638,0.462464
-0.266819,0.353305,0.516518,0.708103,-0.576696,-0.407445
0.081709,-0.559047,-0.056654,-0.515907,0.018333,-0.856449
0.096542,0.917050,0.841544,-0.489552,0.871437,0.030598
0.328479,0.096678,0.379161,-0.490573,0.832806,-0.256462
-0.213923,0.434303,0.622067,-0.065604,0.888935,0.453310
0.363623,-0.603154,-0.234928,-0.636693,0.058795,-0.768872
0.107716,0.530294,0.615085,0.918477,-0.373299,0.130564
0.101227,0.308032,0.343960,0.511357,-0.263655,0.817924
0.277289,0.286420,0.475353,-0.407827,-0.855141,0.320016
0.306426,0.947616,0.779087,0.602344,-0.718004,0.348787
0.219572,0.362982,0.408287,0.856402,0.251467,-0.450932
-0.253542,0.315161,0.247480,0.991934,-0.072955,0.103658
0.554234,-0.404529,-0.125768,0.056265,0.869522,-0.490679
0.087975,-0.568570,0.003544,0.594560,0.715799,-0.366238
-0.028544,0.673288,0.458703,-0.548918,0.700092,-0.456683
0.683959,-0.979164,-0.944740,-0.642932,0.433405,0.631505
0.244907,-0.320886,-0.404277,0.315194,0.873798,0.370310
0.249354,0.231349,0.466914,0.000180,-0.548990,0.835829
0.692517,-0.453328,-0.438164,0.615209,0.785837,0.063068
0.144225,0.866205,0.663828,0.790817,0.002115,0.612049
0.095067,0.784543,0.672768,-0.425351,0.198401,-0.883014
0.067744,-0.487078,-0.078910,-0.447561,-0.888355,-0.102537
0.494925,-0.225286,0.070844,0.936534,-0.343239,-0.071347
-0.124278,0.438326,0.359601,-0.537900,-0.720494,0.437667
0.817911,-0.639154,-0.980114,0.245109,0.399627,-0.883300
0.325994,0.649708,0.647691,0.665818,0.044761,-0.744770
-0.137619,0.429786,0.547049,0.791447,0.210006,0.574028
0.357677,-0.007049,0.243249,0.733778,0.671751,-0.101590
0.063574,0.152241,0.251886,0.306117,0.658675,-0.687342
0.074801,0.458722,0.625908,0.860820,0.459978,-0.217737
0.083293,0.219881,0.436885,0.246705,0.691660,-0.678780
0.141557,0.900799,0.751697,-0.386293,-0.917206,0.097526
0.320660,0.938280,0.762964,0.263490,-0.594882,0.759400
-0.084955,0.445992,0.556976,0.826958,0.048236,-0.560191
0.497255,-0.473458,-0.187220,0.284448,0.958553,-0.016318
0.517561,-0.429527,-0.115877,-0.005004,-0.224159,0.974540
0.073333,0.542420,0.388284,0.847803,0.453979,0.274105
0.469512,-0.173011,0.177859,-0.730025,0.028510,0.682825
0.395955,-0.282715,0.022155,-0.901051,-0.117683,0.417443
-0.065957,0.289304,0.633616,-0.577118,-0.626338,-0.524057
0.138477,0.574480,0.627711,0.911108,-0.412148,-0.003991
0.574032,-0.312804,0.097456,-0.234495,-0.919702,0.314896
-0.001533,0.382332,0.655202,0.316708,-0.557062,-0.767709
0.272111,0.159528,0.404614,0.810702,-0.457082,-0.365840
0.032838,0.366345,0.361743,0.895260,0.208878,-0.393548
0.575011,-0.922208,-0.965760,-0.389012,-0.206589,-0.897770
0.108685,0.831631,0.641850,0.796016,-0.497179,0.345213
0.053082,0.542923,0.673096,0.103268,0.986181,-0.129547
0.572922,0.550723,0.524192,0.450790,0.539516,-0.711134
-0.052321,0.030946,0.228338,0.238059,-0.264255,-0.934611
0.307891,0.419691,0.545458,-0.588555,-0.027673,0.807983
-0.413660,-0.116243,-0.054589,-0.439941,-0.717759,0.539698
0.225353,0.345151,0.504775,0.807738,0.316228,0.497552
0.192716,0.771229,0.840506,0.969051,-0.245492,-0.025961
0.219520,0.289827,0.331486,0.107226,-0.543606,0.832463
-0.072895,0.294267,0.548763,0.708255,0.347133,-0.614714
0.734388,-0.912599,-0.959165,-0.255308,0.020334,0.966646
0.534484,0.555103,0.536463,-0.612489,-0.588697,0.527535
0.337765,-0.105969,0.201814,0.047274,-0.631524,0.773914
0.622866,-0.406232,-0.476928,0.531041,0.733603,0.424054
0.069355,0.753867,0.611539,0.018804,-0.782794,0.621997
-0.487566,-0.085405,-0.057629,-0.251132,-0.430185,0.867107
0.323356,-0.277372,-0.123421,0.967098,-0.142737,-0.210588
0.688081,-0.307040,-0.386695,-0.235411,-0.803386,-0.546949
-0.045526,0.307247,0.667639,-0.632756,-0.503952,-0.587922
0.578654,-0.727903,-0.867429,0.489846,-0.846582,0.208207
0.542215,-0.100275,0.313798,-0.069015,0.958767,-0.275687
-0.494928,0.324359,0.272435,0.865635,0.466971,-0.180595
0.615540,-0.500989,-0.292558,0.970081,0.005381,0.242720
0.540970,-0.540224,-0.221396,-0.501529,0.688338,-0.524079
0.551173,0.431486,0.464286,-0.764074,0.572866,-0.296673
-0.200894,0.317198,0.466924,0.958047,-0.049975,0.282220
0.203925,0.645854,0.756426,-0.003608,-0.833055,0.553179
0.481503,0.000503,0.355459,0.760373,0.649420,0.009272
0.013459,0.757951,0.522889,0.859172,0.506762,-0.070816
-0.198153,0.347317,0.528838,-0.137496,0.900843,0.411798
0.210776,0.670954,0.622757,0.703695,0.616493,0.353199
0.157253,0.784051,0.643495,-0.653910,0.196052,-0.730729
0.497670,0.647483,0.543105,0.866854,0.318492,0.383572
0.515858,-0.347715,0.036624,0.518448,0.824498,-0.226748
0.462162,0.449341,0.463216,0.842878,-0.255011,-0.473841
0.481178,-0.516384,-0.289356,-0.248003,0.939329,-0.236974
0.397764,-0.143389,0.179578,0.382402,-0.569766,0.727417
0.422568,-0.090547,0.151201,0.775676,0.625356,-0.085185
0.119838,0.845724,0.894818,0.109609,0.311886,-0.943776
0.517868,-0.649825,-0.613039,0.742529,-0.534038,0.404294
-0.899617,-0.007027,-0.046072,0.286913,-0.290950,0.912704
0.068515,-0.141015,-0.076538,0.542460,0.504801,0.671500
0.302868,0.381759,0.542945,0.895558,-0.322397,-0.306654
0.234839,-0.254054,-0.079054,0.629116,0.770238,-0.104627
-0.035438,0.424339,0.559255,-0.484951,0.570336,-0.662978
-0.119331,0.716968,0.717761,0.294218,0.693382,-0.657767
0.388436,-0.024706,0.282150,0.106005,0.993572,0.039721
0.077521,0.901012,0.654589,-0.410392,-0.662294,-0.626853
0.131249,0.406470,0.658927,0.660519,0.643515,0.386787
0.471977,-0.440083,-0.107394,0.245052,0.189977,0.950715
0.297974,0.165236,0.411776,-0.691899,0.261523,-0.672964
-0.279214,0.295836,0.230826,0.558652,-0.240866,-0.793657
0.080900,0.677312,0.470206,-0.613625,-0.363684,-0.700856
0.439242,-0.419763,-0.106037,0.692243,0.276919,0.666420
0.365550,-0.085908,0.204598,0.932609,-0.247670,0.262487
0.656067,-0.718122,-0.954207,-0.242303,-0.047238,0.969050
-0.424197,0.403252,0.528036,-0.754191,0.273104,-0.597168
0.235669,0.433573,0.437018,0.878915,0.403127,-0.254944
0.026432,0.797922,0.812610,0.028192,0.606743,0.794398
0.349319,0.431725,0.419725,0.843014,0.412456,0.345264
0.758115,-0.559677,-0.982651,-0.069481,0.135531,0.988334
0.265282,-0.195602,-0.003096,0.749542,0.519670,-0.410037
0.582526,-0.660645,-0.566909,-0.178992,0.934350,0.308143
0.818148,-0.563782,-0.965639,-0.386675,-0.002432,0.922213
-0.346167,0.427684,0.489341,0.165072,-0.617729,0.768870
0.095628,0.878241,0.872607,0.923499,0.012366,0.383402
0.028262,0.458688,0.646811,-0.671850,0.625218,0.397139
-0.054194,0.293879,0.259697,0.847840,0.495492,-0.188824
0.208814,-0.247085,-0.054682,-0.072823,0.048691,0.996156
-0.151656,0.480953,0.749301,0.111802,-0.216442,0.969873
0.893716,-0.343878,-0.378364,-0.287368,-0.582518,0.760324
0.797546,-0.766834,-0.940502,0.181349,-0.516258,0.837013
0.306286,-0.474624,-0.047734,0.057255,0.063095,0.996364
0.527413,0.417340,0.421024,-0.656839,-0.253484,0.710147
-0.024059,-0.358370,-0.138211,0.221499,0.885357,-0.408756
-0.237825,0.346485,0.549310,0.409034,-0.909854,-0.069688
-0.014259,-0.065762,0.223262,-0.394344,-0.916814,0.062814
0.449519,-0.226206,0.121198,-0.080433,-0.898664,0.431200
-0.094183,-0.018336,0.231631,-0.181387,0.937886,0.295750
0.582525,-0.878620,-0.949778,-0.492961,-0.248057,0.833941
0.807411,-0.786187,-0.937784,0.561918,0.699697,0.441216
-0.170321,0.581676,0.685527,0.640002,0.503073,-0.580788
-0.249360,0.577466,0.658412,0.962418,0.004917,-0.271527
-0.019115,0.321112,0.630855,0.820211,0.458106,-0.342627
0.695951,-0.436733,-0.448460,0.440440,0.850249,0.288251
0.208517,0.665537,0.521321,0.201919,-0.615243,0.762040
0.512719,-0.212682,0.137807,-0.542393,-0.728614,0.418249
0.244179,0.760150,0.780101,-0.310271,0.460460,-0.831690
0.112779,0.578555,0.500451,0.069597,-0.678195,0.731579
0.782737,-0.764743,-0.949617,-0.150505,-0.174624,0.973065
0.238530,0.783460,0.670326,0.646463,0.281156,0.709251
-0.317646,0.216870,0.229080,0.744773,-0.264924,-0.612477
0.142621,0.929016,0.594021,0.942905,0.089723,0.320748
-0.081197,0.330578,0.628746,0.912232,0.346177,0.219077
-0.254489,-0.343268,-0.150969,-0.348248,-0.468260,0.812069
0.097111,0.243111,0.515705,-0.374024,-0.115689,-0.920175
0.139152,0.565203,0.482456,-0.460288,-0.112515,0.880611
0.526912,-0.481016,-0.207953,-0.295697,0.928102,-0.226251
0.598369,-0.740407,-0.944797,0.650027,-0.348795,-0.675134
0.220940,0.421087,0.627910,0.039601,0.940149,0.338456
-0.069345,0.627672,0.689918,0.511376,0.717563,0.472861
0.180025,0.826282,0.875400,-0.444839,0.895402,0.019338
0.577821,-0.669394,-0.548709,-0.188237,0.972072,-0.140151
-0.047760,0.548157,0.622078,0.053377,0.063819,0.996533
0.089333,0.471069,0.665393,0.650585,0.758049,0.045824
0.320365,0.425158,0.583254,0.820554,-0.571521,-0.007417
0.470535,-0.415760,-0.115394,0.248758,-0.593455,0.765461
0.506443,0.437627,0.476091,0.255375,-0.490867,0.832966
-0.569910,0.363428,0.279066,0.452107,0.721563,-0.524352
0.584169,0.606709,0.689110,0.970864,0.229789,0.067971
0.440778,0.675761,0.728671,-0.675530,0.151626,-0.721574
-0.024732,0.616237,0.440042,0.729116,0.340954,0.593415
0.261458,-0.480421,-0.185716,0.806961,0.584700,-0.083300
-0.082416,0.536413,0.623711,-0.067784,-0.658953,0.749124
0.418780,-0.714342,-0.258123,-0.867929,0.496624,0.007965
0.333094,0.175470,0.399372,0.637653,0.764370,-0.095593
0.199408,0.433568,0.441590,-0.371618,0.093401,0.923675
-0.441064,0.423718,0.496637,0.882346,0.367295,-0.294210
-0.010017,0.759454,0.567565,0.081404,0.853124,0.515318
-0.023293,0.618933,0.642291,-0.733233,0.168304,-0.658819
0.634281,-0.675377,-0.595503,0.776657,0.590958,-0.218111
0.601859,-0.916051,-0.973907,0.350522,-0.253862,-0.901492
0.355693,0.022491,0.317659,-0.653514,0.182950,-0.734472
-0.551472,-0.029156,-0.063267,0.102918,0.322256,-0.941041
0.816855,-0.846402,-0.949744,0.236161,0.127207,-0.963352
0.123974,0.687021,0.942770,0.904694,-0.420973,-0.065651
-0.194265,0.278341,0.670692,0.960258,0.279111,-0.001245
0.355742,0.794403,0.780836,0.853473,-0.100695,0.511316
-0.178444,0.539682,0.581616,0.299781,0.952226,0.058281
0.248661,0.715399,0.691680,0.754570,0.506743,-0.416936
0.037320,0.637965,0.725830,0.774024,-0.355728,-0.523780
0.349812,0.977681,0.781427,-0.763998,0.645132,-0.010538
-0.394867,-0.145820,-0.059874,-0.022223,0.530708,0.847263
0.489691,-0.523310,-0.615712,-0.202526,-0.633369,0.746878
-0.638930,-0.102328,-0.032138,0.189366,-0.918409,-0.347370
0.578540,-0.630876,-0.480961,0.165563,-0.824023,0.541826
0.184494,-0.412075,-0.142425,0.658060,0.376505,-0.652074
0.364376,-0.494733,-0.066312,0.520400,0.850433,-0.077122
0.150539,0.401555,0.605309,-0.289111,-0.809101,0.511635
0.265305,0.732424,0.833368,-0.278632,0.830648,-0.482067
0.011087,0.526863,0.655753,0.928209,-0.367951,-0.055133
-0.378212,0.215136,0.219281,-0.055908,-0.091820,0.994205
0.316750,-0.512223,-0.211193,-0.071033,-0.638317,0.766489
0.114905,0.896980,0.629131,0.857686,0.512044,-0.046756
0.373612,-0.405717,-0.113896,-0.606163,-0.595929,-0.526721
0.187596,0.326219,0.516102,-0.737709,0.089242,-0.669195
0.339497,0.961186,0.800935,0.933153,-0.336318,-0.126948
0.103734,0.319910,0.489337,0.480855,0.850218,-0.214264
0.404875,-0.080113,0.252470,-0.222637,0.955937,-0.191356
0.592460,-0.100285,0.315941,0.906722,-0.239495,0.347128
-0.138884,-0.356605,-0.131354,0.179592,0.884450,-0.430691
0.563030,-0.967204,-0.947360,0.204541,0.398403,0.894113
0.511438,0.663012,0.767206,-0.328794,0.609146,-0.721689
0.245764,0.470240,0.468164,-0.873008,0.386379,0.297604
0.579914,-0.432591,-0.128641,0.849013,0.508714,-0.142783
0.100761,0.852835,0.596075,-0.634153,0.074590,0.769601
0.203597,0.193795,0.363394,0.953668,-0.037042,-0.298573
-0.214120,0.480460,0.679169,-0.149687,-0.752037,0.641899
0.878084,-0.823735,-0.937059,-0.160846,-0.442652,0.882149
0.704221,-0.893685,-0.940598,0.242468,-0.284298,0.927569
-0.071584,0.609606,0.731087,-0.329498,-0.902386,-0.277725
0.413295,0.262147,0.368068,-0.570459,0.085685,0.816844
0.189416,0.347987,0.510224,-0.180866,-0.131827,-0.974633
0.007038,-0.269811,-0.020000,-0.507971,-0.772240,-0.381589
0.320504,0.528467,0.573307,0.766307,0.431715,0.475810
0.501906,-0.208875,0.154635,-0.640299,-0.626947,0.443797
-0.451056,0.268146,0.223712,-0.358962,0.756485,-0.546696
0.200838,0.750287,0.788137,0.847552,0.076434,0.525180
0.066791,0.919315,0.631077,0.947391,-0.138040,0.288781
0.370739,-0.201600,0.159106,-0.382223,0.471908,-0.794486
0.225816,0.593092,0.542868,-0.375169,0.903190,0.208557
0.513885,0.562725,0.597545,0.822440,0.515102,-0.241376
0.594158,-0.117212,0.292463,0.589524,0.623441,-0.513598
0.154992,0.259856,0.673583,-0.491937,0.768404,0.409332
0.193259,0.395522,0.423241,0.444551,0.891366,-0.088547
0.179005,0.278447,0.464028,0.818194,-0.180665,0.545820
-0.503154,-0.100535,-0.054473,0.151217,-0.226661,0.962163
0.034046,0.743452,0.677796,-0.627333,-0.758309,0.177257
0.304806,-0.201132,-0.138195,0.136342,0.927942,0.346894
0.707805,-0.802386,-0.905499,-0.161854,-0.861376,0.481492
0.163960,0.735728,0.837485,-0.056702,-0.444077,0.894193
-0.335730,0.277658,0.534580,0.672869,0.727811,0.132431
0.191410,-0.551827,-0.111791,-0.525746,0.798965,0.291970
0.543106,0.465650,0.460295,-0.407650,-0.809528,0.422476
0.061397,0.820327,0.790697,0.053122,-0.521609,0.851529
0.007270,0.595943,0.611958,0.425361,0.690120,-0.585493
0.165892,0.233728,0.475166,-0.697824,-0.177344,-0.693967
0.172422,0.282930,0.407675,0.273665,0.954249,-0.120483
0.375240,0.606267,0.548071,-0.205674,0.160819,0.965316
0.392820,0.123228,0.297223,0.438624,0.827641,-0.350170
0.839501,-0.764192,-0.943151,0.231659,0.099850,0.967659
0.284531,0.413403,0.583819,0.871851,-0.277152,0.403810
0.107024,0.708261,0.680333,-0.254833,0.764159,0.592555
0.080868,0.774486,0.730055,0.807765,0.588597,-0.032716
-0.064589,0.419234,0.651481,0.841459,0.337176,0.422207
0.711353,-0.618062,-0.973810,0.257817,0.052055,-0.964790
0.762319,-0.693097,-0.967069,-0.155675,0.236436,0.959095
0.417121,-0.426702,-0.367247,-0.099432,0.686589,0.720214
0.200986,0.471331,0.438818,0.768919,0.327151,-0.549305
0.389242,0.129109,0.353032,-0.689734,0.676305,-0.258608
-0.095297,-0.269387,-0.033566,0.549077,0.626630,0.553036
0.345635,0.732494,0.767862,0.307297,0.830733,-0.464168
0.026686,0.453634,0.650851,0.730649,-0.682115,-0.029514
0.020095,-0.283925,-0.057009,-0.366216,-0.928337,0.063854
0.401965,-0.398317,-0.128638,-0.612888,-0.744684,-0.264223
0.393234,-0.545323,-0.227997,-0.287779,0.404262,-0.868191
0.051271,0.737367,0.438543,0.786449,-0.119133,0.606057
0.092654,0.380941,0.384009,-0.187575,-0.067551,0.979925
0.861968,-0.520087,-0.959786,-0.413215,0.246050,0.876763
0.144144,0.792352,0.813941,0.126914,0.931613,0.340573
0.101411,0.316306,0.561319,0.831161,0.093746,0.548073
0.510184,-0.436915,-0.206949,0.378420,-0.691585,0.615231
0.150798,-0.452673,-0.165935,0.694951,0.611884,0.377678
0.289767,0.147976,0.376758,0.871775,-0.169069,0.459808
0.291030,-0.001539,0.306834,0.987480,0.157113,-0.014114
0.525554,0.607014,0.699356,-0.055388,-0.641001,0.765539
-0.377692,-0.168603,-0.046443,-0.267427,-0.340320,0.901479
0.117957,0.715508,0.824266,-0.768864,0.631360,0.101162
0.043398,0.443385,0.594351,-0.291605,-0.658676,0.693622
-0.195463,-0.414124,-0.165389,0.403033,0.271163,0.874091
0.686968,-0.954385,-0.936625,-0.611762,0.295573,0.733746
0.524630,0.553858,0.585792,0.776453,0.612268,-0.149158
-0.490036,0.361166,0.291006,-0.329831,-0.806718,0.490323
0.213273,-0.312613,-0.159021,0.900475,-0.366029,-0.234879
0.094792,0.370583,0.552834,-0.077207,-0.668356,0.739824
0.535733,-0.922288,-0.950494,0.120231,-0.019484,0.992555
-0.685002,-0.114503,-0.024659,0.085662,0.966413,0.242298
0.182479,-0.336288,-0.046597,0.601141,0.797554,0.050360
0.426045,-0.794970,-0.981682,0.769406,0.360684,-0.527182
-0.188427,0.406903,0.321738,0.530588,0.761470,-0.372343
0.176902,-0.564365,-0.095110,0.655606,-0.581331,0.481908
0.793906,-0.828312,-0.959261,0.159417,0.094345,0.982693
0.321319,0.616982,0.646606,0.921886,0.366105,0.126860
0.611374,-0.289284,0.098277,-0.238158,-0.965880,0.101767
0.192630,-0.228470,-0.077544,0.830601,0.543629,-0.120702
0.244167,0.494019,0.472524,-0.696194,-0.504759,-0.510423
-0.170658,0.253993,0.459421,-0.249806,0.952932,-0.171805
-0.193611,0.036139,0.202315,0.890540,0.040965,0.453057
-0.011462,0.551772,0.775515,-0.688992,0.720145,-0.081746
0.685167,-0.877708,-0.933029,0.214827,-0.048558,0.975444
0.176476,0.799641,0.617859,0.647929,0.665932,0.369760
0.649891,-0.799417,-0.934652,-0.185224,0.218105,-0.958187
0.550399,-0.271942,0.124599,0.679860,0.547333,-0.488075
-0.280865,0.350016,0.509845,0.942007,-0.335505,-0.007717
0.234479,0.614136,0.531615,0.804117,0.594156,-0.019351
0.490024,-0.288627,0.184855,-0.337696,0.325349,0.883238
0.313040,0.716892,0.751202,0.127418,-0.858234,0.497191
0.469905,0.436836,0.456969,-0.454471,0.782810,0.425047
0.545739,-0.209096,0.182346,-0.620888,-0.739942,0.258813
-0.358268,0.231746,0.242710,0.538805,0.408066,-0.737002
0.127007,-0.375710,-0.177488,0.460971,-0.489777,-0.740016
-0.168454,0.358833,0.690132,0.295220,-0.754890,0.585651
0.627816,-0.872251,-0.948030,0.764041,0.101724,-0.637098
0.723651,-0.471559,-0.417098,0.483822,-0.476357,-0.734166
0.526156,-0.322153,-0.466592,0.416681,0.907973,-0.044285
-0.118969,0.368336,0.675640,0.386499,-0.048357,0.921021
0.423272,0.060346,0.308929,-0.060181,-0.806684,0.587911
0.528617,0.558976,0.561803,0.865773,0.494923,-0.074078
0.051299,0.456258,0.568074,-0.266819,-0.959541,0.089940
0.750127,-0.888331,-0.954707,-0.188890,0.162826,0.968405
0.455956,-0.226657,0.072213,-0.495331,0.868486,0.019472
0.417300,0.074047,0.320121,0.114804,-0.732569,0.670942
0.530387,-0.481767,-0.163201,0.092230,0.874562,-0.476062
0.596773,-0.793946,-0.962571,-0.319001,-0.151211,0.935614
0.368026,0.014541,0.299673,-0.382396,0.512485,-0.768852
0.631233,-0.640167,-0.990186,0.063407,0.379022,0.923213
0.236488,-0.192157,0.128555,-0.524535,-0.831394,0.183432
-0.071504,0.516408,0.724715,0.717382,0.474403,0.510201
0.249221,0.969190,0.928721,0.433133,-0.901116,0.019673
0.495884,-0.762074,-0.998133,0.744728,-0.208831,-0.633854
0.057890,0.907990,0.641397,-0.091043,-0.861733,0.499127
0.556461,-0.591829,-0.373786,0.910878,0.411947,-0.024513
0.491313,0.310201,0.401632,-0.441542,-0.380841,0.812404
-0.278814,0.263666,0.236003,0.637353,-0.310749,-0.705136
-0.074441,0.747576,0.565254,0.251515,0.741149,0.622446
0.533396,0.205282,0.372611,-0.058938,-0.365168,0.929074
0.119186,0.039824,0.217309,-0.438864,0.793885,0.420886
0.279119,0.754210,0.669032,0.876303,-0.047442,0.479418
0.324669,0.010953,0.214456,0.603576,0.678793,-0.418254
-0.328107,0.191059,0.241332,-0.597409,-0.583127,0.550514
0.344820,0.735859,0.757716,0.484600,-0.696528,0.529161
0.180606,0.389752,0.505747,0.451266,-0.645238,-0.616463
-0.232154,-0.181626,-0.023625,0.730402,0.675023,0.104194
-0.280959,0.463787,0.461952,0.295884,0.806582,0.511740
-0.021651,0.241353,0.465912,-0.544529,-0.832174,0.104761
-0.564576,-0.094485,-0.126024,0.008636,0.985572,0.169036
-0.039232,-0.029623,0.246087,0.272343,0.865993,0.419387
0.133121,0.105404,0.250820,0.521701,0.295644,0.800264
0.150518,0.262051,0.494928,0.927105,0.156542,0.340544
-0.278918,0.257958,0.213888,0.550307,-0.287841,0.783779
-0.121517,0.464281,0.625013,-0.706812,0.071938,0.703735
-0.066501,0.367966,0.663873,0.950352,-0.092883,0.296992
-0.034894,0.639191,0.639592,0.558701,0.680393,0.474256
0.616131,-0.691858,-0.975105,0.409198,-0.698994,-0.586484
0.067140,0.477647,0.642023,0.752706,0.354890,0.554515
-0.103697,0.443101,0.526679,0.604641,0.085465,0.791900
0.118762,0.700332,0.560908,0.415043,-0.704027,-0.576268
-0.339544,0.353385,0.487786,-0.444144,0.343115,-0.827652
0.496149,0.270294,0.389297,-0.392810,-0.847012,0.358151
0.815995,-0.824862,-0.952110,-0.026210,0.268160,0.963018
0.193482,0.838683,0.788192,0.910269,0.315625,0.267940
0.533303,0.655775,0.604440,0.866667,0.498791,-0.009804
0.235320,-0.173977,0.151574,-0.336679,-0.903223,0.266149
-0.035712,0.385416,0.600838,0.206542,-0.551199,0.808406
-0.111301,-0.040487,0.271518,0.204324,0.805782,0.555848
-0.056027,0.763623,0.684161,-0.551185,0.419618,-0.721191
0.599539,-0.788051,-0.850083,0.269485,0.664513,0.696993
0.470124,0.696140,0.656186,0.980097,-0.058613,-0.189671
0.009801,0.638674,0.434825,0.839270,0.461168,0.288012
-0.109821,0.357874,0.631913,0.876788,0.410086,0.251143
0.351764,-0.249388,-0.116269,0.147678,0.729954,0.667352
0.638606,-0.709453,-0.844183,-0.223576,0.965313,-0.134853
0.242798,0.164972,0.396190,-0.048778,0.971420,-0.232300
0.345699,-0.059010,0.227803,0.971491,0.170111,-0.165128
0.307136,0.241157,0.441406,-0.648347,-0.398825,0.648525
0.391825,-0.533199,-0.095420,-0.489877,-0.847115,-0.205954
0.060313,0.645774,0.487603,0.906902,0.418950,0.044832
0.164577,0.090377,0.231643,0.909078,0.159032,-0.385080
0.162559,0.243582,0.476465,-0.778691,0.415691,-0.469938
-0.052826,0.340304,0.635753,-0.377827,-0.916300,0.132819
-0.048535,0.272286,0.621087,0.975310,-0.097345,0.198229
0.102223,0.768133,0.781352,0.837798,-0.159308,0.522222
0.200797,0.103451,0.225319,0.459646,0.314640,-0.830498
0.957032,-0.689268,-0.946449,-0.272800,0.073779,0.959238
0.203384,0.271574,0.523065,0.092346,-0.360221,0.928285
-0.543293,0.400934,0.316794,-0.530385,-0.721246,0.445529
0.184353,0.842733,0.593815,0.852211,0.218285,-0.475487
-0.437986,0.420033,0.485670,0.912315,0.407615,-0.039120
0.348227,0.769474,0.739478,0.847108,0.351348,-0.398701
-0.089569,0.376339,0.641430,0.948540,-0.115100,0.294999
-0.226432,0.852252,0.796455,0.899000,0.437941,0.002727
0.167789,-0.130379,0.188089,0.249803,0.812933,-0.526059
0.152067,0.764937,0.829482,-0.753259,0.645180,-0.127843
-0.081326,0.665988,0.574037,-0.663613,0.718780,0.207301
0.367819,-0.446702,-0.129410,0.046305,0.021828,0.998689
0.138292,0.215241,0.526255,-0.511897,0.398529,-0.761010
-0.042366,0.238975,0.237290,0.315430,-0.397694,0.861594
0.312067,0.685893,0.702852,0.434719,0.562493,-0.703293
0.336911,-0.319487,-0.125487,0.730564,0.270848,-0.626831
0.261849,0.484858,0.462552,0.994047,-0.038343,-0.101977
-0.077423,0.647265,0.590745,0.879242,0.111972,-0.463030
0.224250,-0.442845,-0.075392,0.974913,-0.187862,-0.119382
-0.212623,0.293381,0.620058,0.265262,0.963778,-0.027711
0.047900,-0.002736,0.244185,0.110363,0.102073,0.988636
0.067324,0.480159,0.411376,-0.428323,-0.718559,-0.547917
-0.219716,0.553005,0.627575,0.328716,-0.939667,0.094715
0.343837,-0.364240,-0.048808,-0.477173,0.347685,-0.807107
0.210279,-0.344617,-0.175643,0.889473,-0.446708,-0.096380
0.732869,-0.583808,-0.978724,-0.502732,0.318013,-0.803821
0.510589,0.177982,0.332557,0.932236,0.360104,0.035512
-0.079673,-0.038626,0.246910,0.526635,0.744676,0.410016
0.543703,-0.619996,-0.509602,0.517066,0.855933,0.004548
0.773344,-0.366541,-0.388249,-0.205627,-0.571162,0.794664
0.319075,-0.190739,-0.065765,0.891355,0.388851,-0.232983
0.048937,0.451407,0.604147,0.520607,0.511225,-0.683825
-0.196035,-0.350290,-0.177593,0.330381,0.776417,0.536680
0.413041,0.603783,0.746646,0.666395,0.509946,-0.543942
0.157364,0.354166,0.385845,0.288167,0.335553,-0.896863
0.469060,-0.285185,0.040238,-0.170792,-0.725540,0.666650
0.741154,-0.767002,-0.946287,-0.541376,-0.374916,0.752562
0.007868,-0.092320,-0.100006,-0.715226,-0.541541,-0.441797
0.776249,-0.607692,-0.956702,-0.054156,-0.299714,0.952491
-0.052317,0.490432,0.563491,0.479759,-0.864569,0.149503
0.063088,0.864092,0.833234,0.991316,0.049081,0.122000
0.213147,0.334991,0.638255,-0.790950,0.232339,-0.566054
0.561624,-0.685666,-0.822740,0.804004,0.577121,0.143210
0.108967,0.794826,0.874402,0.998984,-0.034857,-0.028550
0.310319,0.823834,0.824374,0.669579,0.741967,0.033899
0.213745,-0.143081,0.196560,0.650874,0.759133,-0.008961
0.532949,-0.387143,-0.039638,0.298783,0.773450,-0.559020
0.508647,-0.361360,-0.420063,-0.478241,0.404292,-0.779636
0.211749,-0.140265,0.188211,0.419843,0.796942,-0.434299
0.357865,-0.358503,-0.091269,0.978739,-0.128020,0.160251
0.524939,0.616017,0.754329,-0.209066,0.965339,0.156242
-0.135987,0.406577,0.706303,0.372807,-0.115604,0.920680
0.500561,0.549174,0.524812,0.354294,0.657543,-0.664916
-0.172444,0.327590,0.485417,0.318320,-0.877613,0.358424
-0.034633,0.555240,0.409596,0.844654,0.502729,-0.183911
0.112983,0.349296,0.516628,0.825637,-0.349248,0.443113
0.061624,0.747165,0.825152,-0.544282,0.109115,0.831776
0.575755,-0.631503,-0.590175,0.446809,0.864998,0.228342
0.525476,0.500297,0.504916,-0.610859,-0.395581,0.685833
0.507382,-0.562587,-0.307949,-0.621116,0.732210,-0.279433
0.324019,-0.274092,-0.096019,0.588764,0.804274,-0.080626
0.154336,0.205514,0.500086,0.641762,-0.627929,0.440281
0.504914,-0.427522,-0.183023,0.752890,-0.588678,0.294305
-0.024576,0.458969,0.611111,-0.047954,0.644582,0.763030
-0.313370,0.556035,0.611474,-0.061616,-0.986883,0.149216
-0.036964,0.267354,0.613740,0.931586,-0.261624,0.252387
0.401610,0.028024,0.294840,-0.001705,-0.042431,0.999098
0.133989,0.156848,0.399138,-0.687471,-0.714471,0.130058
-0.605072,-0.075192,-0.052212,0.165138,0.840510,0.516016
0.047258,0.347025,0.410746,0.646794,0.668978,-0.366233
0.328835,0.830448,0.786810,0.956981,0.172232,0.233504
0.565079,0.436978,0.464593,-0.749753,0.610858,-0.254407
0.544787,-0.548738,-0.045432,0.347478,-0.899702,-0.264190
0.366866,-0.154251,0.155160,0.007820,-0.485748,0.874064
0.375769,0.139204,0.386636,-0.495716,0.663441,-0.560456
0.655622,-0.859174,-0.934362,-0.016485,-0.083722,0.996353
0.387043,-0.127842,0.210754,-0.487881,-0.046181,0.871688
0.029153,-0.561221,-0.040336,0.399637,-0.175481,0.899720
0.090693,0.785224,0.825830,0.990251,0.125383,-0.060678
0.425624,0.762036,0.681927,-0.322925,-0.946362,-0.010866
0.009587,0.247811,0.242633,-0.107881,-0.561964,0.820096
0.127966,0.682135,0.685207,-0.114975,0.915410,0.385753
0.398665,-0.422018,-0.080553,-0.439888,0.526428,-0.727580
-0.073225,0.721005,0.714716,0.915376,-0.050180,0.399460
0.306850,-0.245473,-0.184693,-0.318768,0.814785,-0.484265
0.140682,0.486429,0.663889,0.883817,0.235557,-0.404202
0.681885,-0.660403,-0.964307,0.992493,-0.114104,0.044031
0.117689,0.470024,0.418220,0.605072,0.636125,-0.478783
0.140869,0.631848,0.458868,-0.672008,-0.300588,0.676795
-0.071186,0.602063,0.481696,0.351994,0.809912,-0.469194
0.146607,0.666994,0.872459,0.608246,0.791854,-0.054807
-0.132940,-0.325127,-0.106299,0.352362,0.433636,-0.829338
-0.208821,-0.195065,-0.036587,0.672518,0.727295,-0.136969
0.223376,0.754683,0.682935,0.687320,0.203187,0.697357
0.423532,0.207219,0.320179,0.735865,0.608150,-0.297753
0.447530,0.363624,0.427205,0.428478,0.466217,-0.773982
0.514388,0.269879,0.366252,-0.437632,-0.664452,0.605790
0.479554,0.200689,0.354764,0.222127,0.841279,-0.492858
-0.119315,0.657058,0.656797,0.856199,0.497229,0.140309
-0.066061,0.466327,0.600359,-0.238488,0.149150,0.959624
0.553045,-0.533368,-0.261836,0.227566,-0.925355,0.303203
0.558832,-0.914358,-0.977527,-0.407694,-0.067749,-0.910602
0.123155,0.927758,0.559539,0.903611,-0.338293,-0.262766
0.192156,0.366338,0.511069,0.761438,0.185298,-0.621190
-0.169581,-0.007695,0.251765,0.412147,0.900674,-0.137553
0.523482,0.464220,0.471781,-0.086275,0.821125,-0.564191
0.123510,0.905520,0.923881,0.751122,0.603417,-0.267775
0.357638,0.597203,0.643261,0.924741,0.284951,0.252303
0.261255,0.185006,0.417703,0.481472,-0.273740,0.832617
0.022659,0.741004,0.750643,0.675126,0.560113,0.480081
0.659926,-0.888173,-0.968732,-0.282717,0.107674,0.953141
0.609094,-0.993865,-0.944577,0.008078,0.518775,0.854872
0.138496,0.631492,0.741684,0.815398,0.490530,-0.307418
0.070425,0.730846,0.602759,-0.634906,0.511824,0.578732
0.229126,0.238464,0.442316,-0.494195,0.528201,-0.690489
0.484533,0.438230,0.475269,0.483112,0.084325,-0.871488
-0.884040,-0.165904,-0.043350,0.153488,0.257986,0.953879
0.005753,0.564429,0.432284,0.878840,0.464821,-0.107620
0.661994,-0.846894,-0.964620,0.322519,0.122339,-0.938624
0.595778,-0.699644,-0.715604,0.995937,-0.078098,0.044843
0.767704,-0.620678,-0.957849,0.143901,0.019847,-0.989393
0.723642,-0.433077,-0.467657,0.646199,-0.278362,-0.710592
0.210414,0.451749,0.468912,-0.518939,0.834616,-0.184711
0.431356,-0.357755,-0.397337,-0.666373,0.232889,-0.708314
-0.228993,0.264749,0.254412,0.278882,0.148607,0.948757
0.116742,-0.142872,0.200376,-0.477198,0.260972,-0.839152
0.659347,-0.820630,-0.975477,-0.185126,-0.124669,0.974775
-0.440486,0.462092,0.447548,0.452809,-0.494937,0.741621
0.354096,0.451012,0.412554,-0.692653,0.300773,-0.655566
0.541002,0.372225,0.459000,0.945782,0.183175,-0.268224
0.490233,-0.352787,-0.008782,-0.320425,-0.840044,0.437782
