0.179909,-0.517235,-0.968857,0.327570,-0.104332,-0.939049
0.449155,-0.304777,0.254169,0.957867,0.285382,-0.032373
0.128038,0.326308,0.289229,-0.117505,0.919712,-0.374597
-0.091689,0.086698,-0.143778,0.867630,0.260320,0.423618
0.518554,-0.438556,-0.955685,-0.639919,0.120651,0.758912
0.363642,-0.325735,0.185692,0.101258,0.978240,0.181088
0.109806,0.234221,0.739545,0.590782,0.502649,-0.631126
0.176850,-0.296416,-0.358244,0.987763,0.055411,-0.145784
0.429983,-0.358492,-0.035344,0.937752,-0.316283,0.143480
0.168501,-0.300652,-0.353190,0.970253,0.189436,0.150742
0.239429,-0.342917,-0.297505,0.780466,0.615968,-0.107029
-0.015585,-0.304546,0.696905,-0.263491,-0.115655,0.957704
0.331999,-0.410719,0.684049,0.053468,-0.021201,0.998344
-0.447037,0.131710,0.512792,-0.552171,0.324210,-0.768111
-0.440569,-0.423435,0.388377,-0.666555,0.731212,0.145027
0.361642,0.517236,0.509507,0.952525,0.302864,-0.031137
0.046168,-0.624324,0.433702,0.994720,-0.017819,0.101067
0.120037,0.034471,0.835028,0.989136,-0.020846,-0.145516
0.277422,-0.323560,-0.965824,-0.092551,0.290972,0.952245
-0.207668,-0.371663,0.439166,0.602673,-0.732963,0.315516
0.224959,-0.151528,0.063582,0.968113,-0.190233,-0.163000
0.354585,-0.367195,0.615224,0.889986,-0.427410,-0.158890
-0.398929,0.219673,0.478080,-0.747462,0.580816,0.322418
0.153798,-0.145691,0.601327,0.460208,0.828503,-0.319047
0.225433,0.397431,0.631807,0.745737,-0.089527,-0.660198
0.242017,0.048906,0.775016,0.285179,0.910290,0.300074
0.424218,-0.379800,-0.157423,0.953926,0.244392,0.174063
0.135328,-0.318178,0.894978,0.940322,-0.114103,-0.320584
0.275423,-0.355633,-0.626153,-0.093309,-0.995561,-0.012311
0.477388,-0.408888,0.047347,0.972011,0.105175,-0.210078
0.089219,-0.238806,0.164403,-0.151739,-0.941342,0.301414
0.042640,-0.296416,0.347473,-0.675120,0.729818,-0.107600
0.071225,0.267783,0.427069,0.923422,-0.125934,-0.362537
0.369407,-0.143629,0.833860,0.039845,-0.910387,0.411834
0.283187,-0.120609,0.831080,0.815690,-0.576441,-0.048644
-0.308358,1.000000,0.189735,-0.700792,0.609877,-0.370055
-0.836735,0.035960,0.387208,-0.726401,0.256650,-0.637552
0.448452,-0.557438,-0.958244,-0.037383,-0.144964,0.988730
0.241077,-0.356891,0.515287,0.771386,0.617297,-0.154622
0.258483,-0.440156,-0.886671,0.813320,-0.410161,0.412649
0.144034,-0.420688,0.323816,0.878578,0.301201,0.370646
0.509027,0.598439,0.530291,0.142116,0.507128,-0.850073
0.688762,0.352767,0.605654,0.865479,0.276061,0.418015
0.126390,-0.273277,-0.280259,0.941424,-0.336185,0.026477
-0.264011,-0.117512,0.233986,-0.087357,-0.906334,0.413433
0.615008,-0.272592,0.183449,-0.659880,0.707371,0.253346
0.200377,-0.371663,-0.420594,-0.868437,-0.190169,0.457879
0.615127,-0.301225,0.709823,-0.045783,-0.982649,0.179734
0.336705,0.544611,0.432723,0.946302,-0.312664,0.082183
0.327060,0.655133,0.509855,0.895321,0.307557,-0.322193
0.508675,-0.407741,0.055338,0.805457,0.513649,-0.295642
0.179675,-0.343148,-0.969646,0.067774,0.277114,0.958444
0.773686,0.154045,0.565509,-0.640680,0.604001,0.474038
0.215902,-0.251976,-0.194883,0.901591,-0.210488,-0.377926
-0.196963,-0.839307,0.668162,-0.574657,-0.737680,0.354398
0.678761,-0.418164,0.417435,-0.640265,0.739527,0.207751
0.172263,-0.182455,0.801485,0.586049,-0.349065,-0.731232
-0.142505,0.043062,0.643367,0.908156,-0.409267,0.088055
0.025818,-0.925207,0.690335,0.708503,0.669791,-0.222269
0.448333,-0.258506,0.635502,-0.653080,0.633276,0.415269
0.365641,0.352076,0.646115,0.791184,-0.500293,0.351760
0.091101,-0.235597,-0.976469,0.762530,-0.138501,-0.631953
0.193201,0.066201,0.775679,-0.243957,0.792012,0.559644
0.067340,-0.104915,-0.226090,-0.158660,0.983424,-0.087780
0.083340,-0.210627,0.759634,0.821775,-0.326906,0.466711
0.419278,-0.379569,-0.079185,0.800834,0.589178,-0.107399
-0.549257,-0.007214,0.420183,0.326966,0.447693,0.832265
-0.105215,0.351160,0.473342,0.451789,0.667859,-0.591483
0.326708,0.000343,0.154327,0.836473,0.455197,-0.305138
0.407633,-0.424805,-0.951516,0.301277,0.201088,0.932092
0.425162,-0.649637,-0.955496,-0.351319,-0.168650,0.920941
0.311298,0.298129,0.456791,0.273166,-0.919421,0.282922
0.066048,-0.179246,0.462034,0.980311,0.042529,0.192825
0.026644,-0.187265,0.525805,0.877689,0.263126,0.400533
-0.077926,-0.248887,0.709729,-0.667592,0.720449,0.187811
-0.028996,-0.155653,0.739766,0.394761,0.901049,0.179650
-0.089219,0.367084,0.479469,0.674880,-0.365688,0.640944
-0.107570,-0.071584,0.320720,-0.747386,-0.270164,0.606980
0.241191,-0.299282,-0.171731,0.923990,0.361448,0.124892
0.149562,0.396976,0.660423,0.222072,-0.894997,-0.386864
0.399869,-0.124726,0.537524,0.130347,-0.991277,0.019460
0.124861,-0.854197,0.759444,0.166737,0.652008,0.739652
-0.025818,0.403617,0.491156,0.018304,-0.709936,0.704028
0.553726,-0.404309,0.453348,0.114079,-0.991596,-0.061023
0.015821,0.222882,0.112003,0.923562,0.362464,0.125113
-0.189673,0.397431,0.483639,0.890962,-0.347566,0.292207
0.334943,-0.292291,-0.058275,0.243594,0.969857,-0.006181
-0.187318,0.164930,0.841851,0.009408,-0.989022,0.147469
0.229902,-0.427902,-0.564277,0.936183,-0.267402,0.228160
0.093573,-0.231242,0.886829,-0.560298,0.766174,0.314711
0.484915,-0.107781,0.439861,0.751711,0.438488,-0.492604
-0.213666,0.375557,-0.030417,0.941436,0.335922,-0.029236
-0.069692,0.136527,0.765730,0.073738,0.382868,0.920856
0.718757,-0.283246,0.490430,-0.460823,-0.879438,-0.119292
0.345292,0.173864,0.300979,-0.093980,-0.840189,0.534089
0.324942,-0.517697,0.664087,-0.124417,0.445150,0.886770
0.065696,-0.175122,0.674637,0.972495,-0.118931,0.200274
-0.095336,-0.379227,0.537018,0.044819,0.950899,0.306238
0.314122,-0.374759,0.684365,0.459308,-0.754644,-0.468560
-0.128741,-0.017414,0.844567,0.992924,-0.025800,-0.115917
0.750277,0.141106,0.567435,-0.863111,0.356850,0.357348
-0.145326,-0.320240,0.651769,0.434511,-0.888149,0.149638
0.226843,-0.184174,0.050221,0.880066,0.334108,-0.337425
0.717461,-0.290229,0.285123,0.987777,-0.136311,-0.075609
-0.033228,-0.167676,0.715572,0.063142,0.997591,0.028737
-0.206608,0.398122,-0.038219,0.938401,0.337931,-0.072157
0.048875,-0.076512,-0.986292,-0.506445,0.127359,0.852815
0.371288,-0.333641,-0.964214,-0.138116,0.390597,0.910142
-0.211666,0.176954,0.801295,-0.668017,0.631001,-0.394449
0.361761,0.286105,0.465951,0.665832,-0.587391,-0.460044
0.160618,-0.165160,-0.214024,0.465563,0.751738,0.467056
0.532787,-0.133318,0.577953,-0.678620,-0.100419,0.727593
0.111568,-0.246482,0.089071,0.861240,-0.301737,0.408926
-0.010879,-0.807814,0.733955,0.645432,0.513474,-0.565475
0.148973,-0.260449,-0.976721,0.358060,0.153537,-0.920988
0.326353,-0.355172,-0.960171,0.111755,-0.799138,-0.590668
0.506909,-0.482534,0.430164,0.849267,-0.526820,0.034723
0.174029,0.129767,0.465382,0.923219,-0.345611,-0.167988
0.789448,-0.063684,0.586955,0.625696,-0.634160,0.454252
-0.090279,0.319436,0.800316,-0.457162,0.731624,0.505698
-0.400810,0.178785,0.475711,-0.341547,0.939387,-0.029979
-0.072868,-0.339827,0.515224,0.810152,0.205912,0.548866
0.297064,0.206391,0.471194,-0.453388,0.300157,-0.839253
0.078282,-0.443247,-0.978016,0.269942,-0.061170,-0.960932
0.207434,-0.063908,0.726090,0.978211,-0.116442,0.171886
0.175206,-0.289656,0.115635,-0.615373,-0.665018,-0.423164
0.159444,-0.243042,-0.162382,0.995203,-0.064000,0.073997
0.264718,-0.302372,-0.743272,-0.031064,-0.969571,0.242830
0.147562,0.331803,0.582123,0.939967,0.184159,0.287310
0.532435,-0.461576,-0.022647,0.955596,0.071142,-0.285964
-0.324590,-0.045124,0.255496,0.256444,-0.832418,0.491241
0.317414,-0.039741,0.669046,-0.502609,-0.413925,0.758980
0.757453,0.111326,0.558718,0.931803,-0.120819,-0.342266
-0.269420,-0.105258,0.653538,-0.651130,-0.461055,-0.602875
0.289185,-0.363302,-0.621478,-0.626027,0.760960,-0.170382
0.110039,-0.209942,0.960013,0.990574,0.110605,0.080804
-0.009468,-0.060587,0.372836,-0.687911,-0.612192,0.389872
0.107451,-0.180162,0.226027,-0.370224,0.927920,-0.043572
-0.531377,0.196884,0.423974,-0.263412,-0.928423,0.262002
0.655001,-0.499598,0.494631,-0.049000,0.985953,0.159674
0.301419,-0.407399,0.687145,-0.719947,0.346054,-0.601601
0.956123,0.173521,0.595420,-0.497377,-0.165764,0.851550
0.095455,-0.080175,0.654927,0.873387,-0.475117,-0.107050
-0.014644,0.306720,0.778775,-0.651942,0.574903,-0.494427
-0.147795,-0.343945,0.549558,0.317005,0.925325,-0.208041
-0.196260,-0.249460,0.346842,-0.505805,-0.467346,-0.725085
-0.183437,-0.384721,0.412097,-0.563907,-0.014215,-0.825716
-0.108040,0.447371,0.499116,-0.371345,-0.340318,0.863879
0.030876,-0.187376,0.877764,0.775463,0.157807,-0.611354
-0.032287,-0.037225,0.762034,-0.367125,-0.482070,0.795504
0.100746,0.094604,0.602811,0.309946,-0.216350,-0.925811
0.260482,-0.301456,-0.607423,0.218421,0.972377,-0.082313
0.020528,-0.477151,0.366393,0.500779,0.713197,0.490479
0.258012,-0.225978,-0.968067,0.111876,-0.263112,-0.958257
-0.049108,-0.568434,0.482944,0.809727,0.586794,-0.003981
-0.582073,-0.498109,0.568257,0.627036,-0.775293,0.075810
0.297183,-0.360785,-0.647821,0.876214,-0.477283,0.066716
-0.530787,0.278429,0.553253,0.681085,-0.363511,0.635597
-0.262248,0.703927,0.074763,0.534860,0.464951,-0.705511
-0.208023,0.037225,0.757486,-0.188141,-0.438299,0.878918
0.277540,-0.447713,-0.915540,0.940239,0.310968,0.138744
0.427043,0.069752,0.613392,0.199136,-0.650703,0.732755
0.493383,-0.358723,0.090777,0.970780,0.223537,-0.087282
0.089338,-0.398122,-0.979690,0.283863,-0.074911,-0.955934
0.146973,0.270069,0.541819,-0.622547,-0.455128,0.636627
0.277185,0.366854,0.663013,0.394263,-0.724475,-0.565414
-0.004058,0.388727,0.800790,0.516836,-0.855718,0.025055
-0.146622,0.328139,0.829343,0.059653,-0.869613,0.490117
0.357762,0.617222,0.510360,0.949712,0.236099,-0.205683
0.005235,0.391251,0.419204,-0.613410,-0.319798,-0.722121
-0.233075,-0.785136,0.702053,0.554155,0.825568,-0.106534
-0.185203,0.059441,0.820499,0.653834,0.535131,0.534917
0.220490,-0.187607,0.540335,-0.348832,0.929588,-0.119092
0.195671,0.348301,0.652180,0.717588,-0.095438,0.689898
0.516203,0.106055,0.358086,-0.779848,0.568668,0.261637
-0.194023,-0.110871,0.610392,-0.469078,0.793142,-0.388448
0.142975,-0.747450,0.653632,-0.324288,0.225126,0.918779
0.296594,0.005383,0.798989,-0.655330,-0.691016,-0.305022
-0.571839,-0.419311,0.584049,-0.651880,0.757547,-0.034277
0.465036,-0.706792,-0.957928,-0.243287,0.098719,0.964918
0.506439,-0.327685,0.572521,-0.587621,-0.490938,0.643180
0.195438,-0.255870,-0.015382,0.486082,-0.816035,-0.312748
0.316237,-0.372697,-0.379311,0.802931,0.409582,-0.433064
0.017351,-0.218645,0.821194,0.551321,-0.822884,0.137502
0.024526,-0.356891,0.891219,0.109635,-0.615637,0.780366
-0.342115,-0.759250,0.485092,0.695169,0.698632,0.169274
0.364583,-0.358038,0.693241,-0.722793,0.579449,0.376577
0.017702,0.581486,0.524163,0.554754,0.482350,0.677928
-0.136036,0.204441,0.858402,0.037014,0.202160,0.978653
0.152501,0.437864,0.650442,-0.628632,0.671689,-0.391990
0.904016,0.170313,0.591567,-0.343828,-0.091375,0.934577
0.320591,0.406595,0.602969,-0.436286,0.380007,0.815628
0.083340,-0.164475,0.393525,-0.709365,-0.671262,0.214965
-0.719579,-0.232620,0.443778,-0.040820,-0.582436,0.811851
0.162854,-0.149124,0.494378,-0.342703,0.845955,-0.408552
-0.574075,-0.228725,0.403696,-0.702712,-0.690418,-0.171811
-0.186259,-0.528350,0.753443,0.837603,0.420823,-0.348323
0.068048,-0.331809,-0.981049,0.433000,-0.201218,-0.878648
0.204846,-0.149809,0.811434,-0.703811,0.291736,0.647719
0.037582,-0.230327,0.629596,0.789999,-0.561952,-0.245177
-0.275774,0.587561,0.046399,-0.524908,-0.715553,0.460929
0.434570,-0.340170,-0.002937,-0.613110,-0.065638,0.787266
0.607718,-0.094149,0.551169,0.467990,-0.714735,-0.519748
0.141682,-0.210627,0.422931,0.967679,0.188029,0.168052
-0.118859,-0.095869,0.598326,0.143431,-0.864770,0.481249
0.792273,-0.038029,0.630575,0.869669,-0.474307,-0.136779
0.475740,-0.792805,-0.952116,-0.189223,0.276740,0.942130
0.543492,-0.277401,0.130133,0.960674,-0.232798,-0.151361
0.233193,-0.342002,-0.593588,-0.097790,-0.988918,0.111707
-0.048286,-0.301113,0.760960,-0.337858,-0.276263,0.899739
-0.001588,-0.301456,0.743020,0.156573,-0.953486,0.257582
0.182615,-0.096554,-0.982280,0.286787,-0.292873,-0.912129
-0.831792,0.040776,0.345768,-0.005496,0.999579,0.028492
0.235312,-0.132060,0.081775,0.799937,-0.552044,0.235264
-0.456683,0.041342,0.463171,0.502594,0.860344,-0.084894
0.099101,-0.240295,0.132849,-0.300274,-0.939336,-0.165781
-0.108743,-0.046271,0.612255,-0.297707,0.780730,-0.549391
-0.045580,-0.399723,0.396210,0.946927,-0.090953,0.308313
-0.015936,-0.087732,0.911718,0.539479,-0.261000,-0.800526
0.616304,-0.159546,0.615666,0.783030,0.006253,-0.621953
0.116038,-0.115911,-0.981965,-0.060665,0.315437,0.947005
0.642767,0.245329,0.585092,0.950768,0.113879,-0.288221
-0.064400,0.262966,0.778964,0.773180,-0.132136,0.620268
0.267540,-0.123929,0.587966,0.212077,0.710782,0.670680
0.391752,-0.361813,0.682217,-0.651370,0.672478,0.351413
0.050875,-0.521360,-0.973500,-0.206093,-0.151139,0.966790
0.685936,-0.456990,0.484270,0.517394,-0.224564,0.825757
0.204024,-0.256905,-0.416014,-0.035767,0.986250,0.161341
0.201788,-0.235367,-0.016772,0.949882,-0.005360,-0.312563
-0.040522,-0.489406,0.447221,0.531148,0.763558,0.367236
-0.452095,-0.341540,0.639387,0.609146,-0.324781,-0.723504
0.363994,0.598669,0.493778,0.136179,0.420006,0.897246
0.110158,0.209138,0.250505,-0.563431,-0.631894,0.532218
0.204494,-0.268586,-0.252337,0.549441,0.834303,0.045311
-0.023112,0.385519,0.794789,0.441169,0.779775,0.444207
0.119685,-0.929905,0.741946,0.812562,-0.454546,-0.364871
0.386110,-0.365483,0.560455,-0.198272,0.920572,-0.336504
-0.277774,0.636922,0.059634,-0.355918,-0.668983,0.652521
0.865552,0.170543,0.582375,0.349921,0.532867,-0.770460
-0.651235,0.249453,0.443715,0.898822,0.409927,0.155172
0.986944,0.187377,0.603885,0.405595,0.151886,-0.901345
0.063697,-0.190131,0.784871,0.696949,0.399830,0.595313
0.233901,-0.347384,-0.559002,-0.368071,0.864201,0.343046
-0.642060,-0.458367,0.498105,-0.008093,-0.883220,0.468889
0.029702,-0.243385,0.908465,0.138115,-0.989865,0.033027
0.318003,-0.430419,0.585629,0.902420,-0.309737,-0.299502
0.042877,-0.488944,-0.976406,0.245748,-0.184939,-0.951528
0.161088,-0.294584,-0.124858,0.694157,0.554488,-0.459009
0.083102,-0.098386,0.877322,-0.091339,0.971880,-0.217041
0.275423,-0.343721,-0.273373,0.734085,0.575873,0.359846
-0.080515,0.136065,0.802843,-0.290983,0.157583,0.943661
0.001000,-0.364791,0.800158,-0.057835,-0.541797,0.838517
0.057461,0.287251,0.450411,-0.504346,0.007606,-0.863468
0.055581,-0.278548,0.432849,0.960003,-0.228187,0.162252
0.280010,0.317717,0.484144,0.172492,-0.919055,0.354378
-0.592659,0.336612,0.386418,0.529131,-0.238883,0.814220
0.354467,-0.712063,-0.959634,0.024816,0.111721,0.993430
-0.324235,-0.042377,0.684365,0.751280,0.650943,-0.108862
-0.001588,-0.222881,0.542893,0.812320,0.530514,0.242263
-0.068988,-0.411062,0.793841,-0.568748,-0.644094,0.511535
0.394341,0.150725,0.631838,0.449499,-0.727299,0.518640
0.700758,-0.399954,0.455306,0.964016,0.181618,-0.194132
0.902957,-0.038714,0.674826,0.896497,-0.290296,-0.334697
0.307065,-0.006760,0.587050,-0.712591,0.701529,0.008423
0.288245,0.223112,0.723310,0.201174,0.657648,-0.725967
-0.201080,0.414844,-0.040556,0.980490,0.172821,0.093664
0.136036,-0.060364,0.796778,0.082002,0.774769,0.626905
0.219901,-0.383463,-0.610044,0.293684,-0.516760,0.804182
0.183674,-0.289432,-0.292577,-0.319463,0.938378,-0.131871
0.136625,-0.585960,-0.968604,-0.150096,-0.165386,0.974740
0.488677,0.510595,0.532470,-0.076205,-0.338240,0.937970
0.206256,0.269041,0.626690,0.796013,-0.425348,0.430630
0.307535,0.121287,0.812255,0.019884,-0.930627,0.365428
0.077341,-0.253696,0.944188,0.953060,-0.240613,-0.183798
0.092748,-0.293899,0.851169,0.902777,0.386425,-0.188861
0.241661,0.332145,0.394662,-0.049859,-0.522556,0.851146
0.564311,-0.483792,0.072584,0.816904,0.531263,-0.224561
0.481975,-0.018329,0.642799,0.660327,0.715969,0.226618
0.212140,0.454585,0.672868,-0.171533,0.970677,-0.168413
0.020528,-0.041349,0.896905,-0.157016,-0.759373,0.631425
0.075575,-0.433054,-0.971826,0.321991,-0.122347,-0.938804
0.167323,0.170424,0.699937,-0.584080,0.760591,0.283463
-0.290477,0.019238,0.457517,-0.696342,0.126219,-0.706524
0.446215,-0.352998,0.675711,-0.387733,0.245000,0.888616
0.130626,-0.172486,0.416614,0.828348,0.559750,0.022788
0.328941,0.587100,0.496463,0.796889,0.396539,-0.455768
0.470212,-0.191500,0.623247,-0.809261,-0.287854,-0.512090
-0.170145,-0.400415,0.612476,-0.633482,0.639160,-0.436091
0.009116,0.178100,0.105749,0.898336,0.434999,0.061382
0.278833,-0.613447,0.659507,0.609415,-0.203191,0.766373
0.147443,-0.208453,0.228964,0.047678,0.996416,0.069870
-0.520672,0.287021,0.546715,0.681085,-0.363511,0.635597
-0.071458,0.282784,0.743272,0.887828,0.154903,-0.433321
-0.001940,-0.258506,0.912413,0.044911,0.998099,0.042210
0.079104,-0.015232,-0.990461,-0.156751,0.074650,0.984813
0.296831,-0.487686,0.604422,0.880082,-0.439072,-0.180751
-0.175910,0.407399,0.494504,0.287743,-0.183159,-0.940030
0.548198,0.224140,0.462097,0.367304,0.924443,-0.102440
-0.274834,-0.343945,0.607391,-0.081808,0.932109,0.352817
0.197789,-0.382428,-0.425521,0.923276,0.153474,-0.352148
0.277185,-0.063796,0.618067,-0.513061,0.842329,-0.165076
0.863316,0.153703,0.582154,0.532904,0.316255,-0.784854
-0.403753,0.023363,0.654864,-0.148698,-0.890285,0.430443
0.300830,-0.414956,0.606096,0.853819,0.429330,-0.294396
0.234723,-0.101594,-0.979533,-0.099269,0.402436,0.910050
0.238488,-0.336500,0.104959,0.577588,0.787079,-0.216562
0.173792,-0.069067,0.426753,0.890365,-0.349123,0.292170
0.013585,-0.164125,0.876848,0.897613,0.217963,-0.383124
0.344351,-0.285419,0.201011,0.365611,0.920797,-0.135875
0.053814,-0.227125,0.881965,-0.589893,0.597687,0.542952
0.235074,-0.278093,0.262034,0.168155,0.928962,0.329777
0.235663,0.512768,0.659602,0.440812,-0.624813,0.644432
-0.014407,-0.034590,0.739640,0.025513,0.435493,0.899831
-0.068048,-0.768184,0.730765,-0.146778,0.422664,0.894322
0.023231,0.574503,0.452685,0.127619,-0.931078,0.341770
0.002881,-0.377164,0.700379,0.754159,0.401728,0.519479
0.162502,-0.294584,-0.087555,0.639671,-0.756487,-0.136193
0.091101,0.551595,0.434997,-0.282258,-0.959329,-0.004162
-0.131093,0.366854,0.766014,0.949030,0.197039,0.246004
0.049227,-0.119232,-0.985186,-0.360773,0.142929,0.921636
0.106040,-0.177184,0.441977,0.759599,0.650337,0.008373
0.206256,0.254151,0.620973,0.996777,0.079935,-0.006833
-0.064519,0.014771,0.429880,0.834826,0.120822,0.537092
-0.488559,-0.449776,0.365888,-0.570547,0.681380,0.458472
0.532554,-0.320694,-0.961181,-0.132389,0.312988,0.940485
0.039230,-0.202154,0.708939,0.999414,0.015456,0.030535
0.232605,-0.398807,-0.730575,-0.614366,0.606788,0.504344
-0.042759,0.293662,0.445104,-0.605470,0.747928,-0.272047
0.080514,-0.245908,0.277953,0.945524,0.157639,0.284839
-0.366815,-0.361240,0.695515,0.361407,0.908697,-0.208937
0.014411,-0.561674,-0.980196,-0.215695,-0.026387,0.976104
-0.364227,0.196199,0.468193,0.290136,-0.741338,0.605177
0.181323,-0.242588,-0.035281,0.519095,-0.711750,-0.473236
0.169674,-0.250026,-0.092261,0.926094,0.369379,-0.076874
0.253780,0.181421,0.720183,0.064044,-0.656713,0.751417
-0.138150,-0.219106,0.592262,-0.440969,0.126301,-0.888591
0.264248,-0.740124,0.696084,-0.505807,0.618688,0.601153
0.024526,-0.563625,0.369931,0.839961,-0.533048,-0.101616
0.435629,0.240407,0.439766,0.193517,0.725034,-0.660967
0.082514,-0.314738,0.579880,-0.765272,-0.464356,-0.445794
-0.074164,0.065740,0.737082,0.808177,-0.531267,0.254175
0.148151,-0.139847,0.659634,0.945272,0.216164,-0.244405
0.203435,-0.295731,-0.338376,0.960400,-0.106049,0.257655
-0.825086,-0.181197,0.393304,0.674185,0.138640,0.725434
0.143800,-0.484365,0.556791,0.527261,-0.262371,0.808181
0.162854,-0.225859,0.699842,-0.283029,-0.063315,0.957019
-0.750278,0.097694,0.409476,-0.005453,-0.843962,0.536376
-0.210022,0.608176,0.530606,-0.344467,-0.790866,0.505839
0.527377,-0.313941,-0.960423,0.053949,-0.292261,-0.954816
0.219901,-0.309132,-0.177069,0.398215,0.914161,0.075729
0.291536,0.229069,0.555370,-0.525087,0.112245,0.843614
-0.197200,-0.163783,0.649684,-0.281617,0.731211,0.621307
-0.023582,-0.127592,0.672931,-0.398324,-0.917126,-0.014739
0.239662,-0.110983,-0.974953,-0.031515,0.338135,0.940570
0.228254,-0.397437,-0.725363,0.991483,0.038887,-0.124296
0.361761,0.614013,0.488882,0.599149,-0.780994,0.176264
0.199788,-0.268698,0.147757,0.982637,-0.041646,0.180804
0.420456,-0.368461,-0.064277,0.946966,0.305220,-0.100481
-0.044639,-0.332837,0.687713,-0.122755,-0.546979,0.828098
0.068281,-0.208341,0.195641,-0.133129,0.983044,0.126101
-0.192731,0.116939,0.663645,0.247606,0.395194,0.884597
0.061931,-0.174667,-0.205527,0.832520,-0.060446,0.550687
-0.014525,-0.746304,0.764624,0.800595,0.592854,-0.087013
0.018173,-0.309586,-0.185565,-0.277673,-0.827880,-0.487353
0.317063,-0.422750,0.690367,0.971156,-0.172096,0.165041
0.112746,-0.288167,0.310265,0.906037,0.253185,0.339107
0.417279,-0.326881,-0.956917,0.344992,-0.580594,-0.737489
-0.258834,-0.348755,0.633386,-0.430633,-0.890698,0.145645
0.790859,0.105258,0.581428,-0.153860,-0.283523,0.946542
0.214140,-0.328370,-0.215003,-0.524325,-0.664971,-0.531881
0.124154,-0.015001,0.735376,0.735041,0.675208,0.061713
-0.221197,-0.365706,0.462982,-0.722937,-0.689598,-0.042622
0.289067,-0.438094,0.651169,0.054328,0.687808,0.723857
0.048286,-0.226552,0.983102,-0.725563,-0.092708,-0.681882
0.441039,-0.153933,0.807138,-0.222028,0.953400,0.204285
0.510908,0.249453,0.461087,0.221686,0.963606,-0.149392
0.450803,-0.372809,-0.190177,0.795220,-0.585181,-0.158707
-0.003821,-0.436144,-0.980891,0.108641,-0.077844,-0.991029
0.284716,-0.447371,-0.668320,-0.621216,0.778670,-0.088112
-0.717343,-0.240526,0.464466,0.935894,-0.078312,0.343467
0.459507,-0.199750,-0.974195,0.245788,-0.186054,-0.951300
0.241780,-0.401673,-0.415445,-0.369742,0.826908,0.423692
0.191672,-0.120148,0.475774,0.988189,0.048891,-0.145231
-0.135092,0.246706,0.816709,0.019950,-0.270500,0.962513
-0.401517,-0.265720,0.648958,0.564729,0.567081,-0.599583
0.206612,-0.484135,-0.966330,-0.520665,0.148270,0.840787
0.438217,-0.694650,-0.957833,-0.171108,0.086332,0.981463
0.093573,-0.015694,0.955022,0.991582,0.101206,0.080762
0.054874,-0.092772,-0.985913,-0.437353,0.117974,0.891518
0.004999,0.077079,0.656759,0.267131,-0.932927,0.241430
-0.350231,-0.094492,0.542325,-0.382164,0.404465,-0.830878
0.173207,-0.030695,0.748705,0.861717,0.307657,-0.403474
-0.154738,0.143168,0.662950,0.434816,0.253203,0.864189
0.089101,-0.154506,0.496178,0.095231,-0.781086,0.617119
0.191909,-0.307181,0.052558,-0.792402,0.415132,-0.446950
0.174851,0.279806,0.552780,0.551048,0.506531,-0.663154
0.228724,-0.416794,-0.955180,0.564155,-0.248175,-0.787488
0.351997,-0.095296,0.415130,0.529423,0.480612,-0.699088
0.323413,0.021189,0.187745,0.190860,0.927083,-0.322629
-0.552666,-0.322875,0.556412,-0.015565,0.994770,0.100948
0.230724,-0.288055,-0.634049,0.281272,-0.903320,0.323882
0.200377,-0.328831,-0.430196,0.641354,-0.214107,-0.736765
-0.049346,-0.312683,0.758591,-0.439574,-0.674624,0.593007
-0.155090,-0.610469,0.709286,0.318442,0.876730,0.360472
0.116626,-0.099532,-0.983418,-0.169917,0.377661,0.910220
-0.071576,-0.409573,0.561213,0.987792,-0.012005,-0.155316
0.038289,-0.203412,0.831301,0.881439,-0.471267,0.031201
0.338234,0.368000,0.397094,-0.726828,-0.584143,0.361246
-0.416220,-0.083265,0.681712,0.071578,-0.356523,0.931541
0.292595,-0.471657,0.625205,0.951629,-0.305990,0.027792
0.096395,-0.543807,0.409002,0.891080,-0.450539,-0.054697
0.481386,-0.313137,0.174858,0.166308,-0.971342,-0.169812
0.360935,-0.352306,0.180164,0.062933,0.993089,0.099065
0.221430,-0.363763,-0.350790,0.724863,0.663996,0.183528
0.059109,0.327909,0.864214,0.232108,0.969654,-0.076798
0.381874,-0.375333,-0.161339,0.958104,-0.162597,0.235796
-0.098395,0.012255,0.655970,-0.326350,0.708513,-0.625703
0.113687,0.309587,0.789735,0.725554,0.671928,0.148609
-0.174614,0.192871,0.821036,0.606437,-0.568136,-0.556287
0.050993,-0.341428,0.799274,0.345518,0.936494,-0.059963
-0.099335,-0.474061,0.571573,-0.716768,0.450986,-0.531842
-0.091452,-0.600388,0.614245,-0.036822,-0.183410,0.982347
-0.838734,0.190585,0.413613,-0.593559,-0.176851,-0.785119
0.350116,-0.491468,0.656854,-0.132213,-0.911720,-0.388956
-0.141327,-0.615391,0.675016,0.923238,0.360298,0.133480
0.498559,-0.408545,0.055843,0.808840,0.519886,-0.274766
0.043580,-0.135953,0.899305,-0.408846,0.434367,-0.802602
0.503851,0.120029,0.377543,0.855558,0.517634,-0.008741
-0.005351,0.174891,0.589703,-0.244036,0.181015,0.952722
0.908014,0.051654,0.573753,-0.521793,0.025792,0.852682
0.112157,-0.243042,0.875964,-0.087462,0.995320,0.041084
-0.033228,-0.175122,0.801801,0.811394,0.385058,0.439739
0.177790,-0.351390,-0.385123,0.776455,0.629375,0.031683
0.416220,-0.371090,-0.176248,-0.709551,0.700257,0.078600
-0.029111,0.046502,0.767972,0.371114,0.464068,-0.804310
0.288830,-0.377276,-0.934365,-0.032422,0.991998,-0.122017
0.270717,0.447714,0.417499,-0.595978,-0.715756,0.364010
-0.502203,0.141106,0.448200,-0.670383,-0.741903,-0.012917
0.294125,-0.030010,0.762855,-0.516135,0.854606,-0.057031
0.033935,-0.896916,0.758781,0.742764,0.383626,-0.548756
0.192612,-0.192759,0.123437,0.955111,-0.296163,-0.007135
0.048520,-0.176499,0.793209,0.561576,0.756368,0.335470
0.272364,-0.388272,-0.511908,0.757015,-0.640026,0.131511
0.132740,-0.216926,0.838724,-0.291432,0.049253,0.955323
0.132152,-0.753063,0.653601,-0.237078,0.933887,0.267675
0.011586,-0.194940,0.804327,0.064645,0.762390,0.643881
0.113920,-0.140308,-0.981586,-0.177715,0.251475,0.951408
0.184026,0.247734,0.268509,0.107286,-0.884914,0.453230
0.068281,-0.568204,0.437176,0.978542,-0.135753,0.155005
0.080281,-0.136184,0.640840,0.898514,0.084977,0.430640
0.217431,-0.382889,-0.541188,0.749702,0.640744,0.165509
0.511852,-0.430650,0.429375,-0.479826,0.877205,-0.016682
-0.086983,-0.140994,0.589451,0.787518,0.312783,0.531021
0.525730,-0.301910,0.219267,-0.177051,0.954447,0.240174
-0.421396,0.025537,0.413677,-0.753184,0.636445,-0.166287
-0.539137,-0.082580,0.477985,-0.630663,0.734953,-0.249216
0.473504,-0.223916,-0.965635,0.007593,0.099272,0.995031
0.301419,-0.452642,0.711497,-0.202972,-0.752650,0.626355
-0.183086,0.360555,-0.056538,0.957968,0.285348,-0.029550
0.249193,0.234906,0.663329,0.723912,0.021984,0.689542
0.185674,0.165503,0.669899,0.926079,-0.257369,0.275933
-0.071576,0.123238,-0.138629,0.879555,-0.043595,0.473795
-0.467387,-0.285308,0.583481,0.930898,-0.293297,-0.217728
0.072165,-0.153017,0.590114,-0.675682,0.721829,0.149721
0.482679,-0.433739,-0.069078,0.966968,-0.046347,-0.250651
0.033817,-0.240868,0.842988,-0.533060,-0.256829,0.806155
0.301300,-0.612300,0.659002,-0.422290,0.464582,-0.778354
0.214491,-0.293326,0.101548,0.529714,0.834690,-0.150650
0.084280,-0.275339,0.148516,-0.375079,-0.899038,-0.225936
0.434452,-0.399499,-0.128427,0.989182,0.137268,-0.051725
0.614775,0.127593,0.565193,0.852125,-0.507897,0.126187
0.138154,-0.335703,0.267435,0.918943,0.288494,0.268915
0.711111,0.349328,0.585092,0.992323,0.123661,-0.001846
-0.561135,-0.228271,0.648958,0.816961,-0.461843,0.345365
0.411987,0.126328,0.303190,0.549054,0.729287,-0.408264
0.038052,0.397892,0.684397,-0.594117,0.795854,-0.116797
0.111920,-0.179708,0.771194,-0.534570,0.828956,-0.164519
0.431863,0.413809,0.509760,0.782584,-0.518969,0.343851
0.454213,-0.120259,0.831807,0.537191,-0.386593,0.749648
-0.219431,-0.408657,0.728838,-0.292316,-0.267959,0.918014
0.533613,0.230669,0.489103,-0.133106,0.565192,0.814150
0.310120,0.283931,0.429943,0.885764,0.412581,-0.212603
-0.434689,-0.301337,0.535850,0.910944,0.341018,0.232139
0.718283,-0.322414,0.490272,0.303535,0.857643,0.415108
0.390108,-0.352425,0.208054,0.474656,0.858606,-0.193641
-0.874139,0.031723,0.410297,0.619542,-0.300564,0.725140
-0.323294,-0.341659,0.662729,0.042489,0.844726,0.533510
0.192024,-0.233535,0.850000,0.568532,-0.754751,0.327296
0.026289,-0.239379,0.667435,0.846233,-0.529204,-0.061902
-0.082395,0.114304,0.838313,0.406938,0.519606,0.751273
0.219549,-0.127704,0.525837,0.823823,0.463337,-0.326549
0.114864,-0.276143,0.323089,0.999281,-0.035986,-0.011968
0.471386,-0.157827,0.566267,0.665041,0.051991,-0.744995
0.699936,-0.352998,0.347063,0.631671,0.773920,0.045159
-0.619478,-0.338108,0.410360,0.621020,0.522631,0.584116
0.148032,-0.332033,0.706570,0.771261,-0.228182,0.594214
-0.225311,-0.501548,0.708718,0.578999,0.388703,-0.716708
-0.414339,0.246475,0.474163,0.893865,0.125654,-0.430369
-0.582306,-0.433166,0.600474,0.104021,0.540433,0.834933
0.795213,-0.407860,0.446147,0.961775,0.261208,-0.082208
0.251307,-0.445309,-0.690208,-0.120200,0.990620,0.064991
-0.706875,0.055659,0.344378,0.206870,0.910187,-0.358837
0.433863,-0.307070,-0.960550,-0.199802,-0.333993,-0.921156
0.012644,-0.165964,0.540335,0.801543,-0.429086,0.416431
0.223785,-0.269041,-0.041124,0.965135,0.261741,0.002616
0.051815,-0.625240,0.456128,-0.298462,0.895664,0.329706
0.395166,-0.210285,-0.973026,0.113694,0.243972,0.963095
0.311650,-0.439583,-0.375205,0.872909,0.292939,-0.390148
0.033465,0.299164,0.736323,-0.064219,-0.660604,0.747983
-0.652764,-0.246132,0.430859,0.133403,-0.352810,0.926137
0.089689,-0.273627,0.246462,0.676656,0.642526,0.359580
-0.167205,-0.820180,0.663235,-0.415814,0.881690,-0.222984
-0.124035,-0.638991,0.700347,0.968581,0.214472,-0.125905
0.433511,-0.052919,0.660676,-0.464674,-0.220405,-0.857613
-0.166146,0.569924,0.508402,-0.044661,-0.692847,0.719700
-0.290711,-0.065173,0.647757,-0.535561,0.577005,-0.616636
-0.447156,-0.390446,0.692072,-0.096981,-0.960677,0.260183
-0.256720,-0.185090,0.680291,-0.346402,-0.391430,0.852519
-0.077926,-0.243273,0.021920,0.101416,0.992617,0.066538
0.240488,-0.333752,0.123058,0.296979,0.945523,-0.133381
0.328000,0.425267,0.300632,-0.590404,-0.806312,0.035846
0.151091,0.170193,0.684176,0.801290,-0.576415,0.160252
-0.286830,-0.102965,0.538345,0.212022,-0.799132,0.562526
-0.308002,0.961056,0.170783,-0.700792,0.609877,-0.370055
-0.016762,0.013059,0.403095,-0.702001,0.252840,-0.665783
0.012056,-0.245335,0.876816,0.636544,-0.509554,-0.578935
0.284716,-0.156457,-0.334744,-0.726050,0.651268,-0.220684
0.692879,0.296297,0.493241,-0.521102,0.840988,-0.145575
-0.071106,-0.788338,0.697631,0.987554,-0.057165,0.146524
0.162147,0.110298,0.468920,-0.747802,0.655203,0.107245
0.494205,0.414502,0.637713,0.664248,0.180772,-0.725324
0.092044,-0.538200,0.404959,0.942265,-0.332010,-0.043665
0.274715,-0.373152,-0.526216,-0.316351,0.944408,0.089531
0.188732,-0.302029,-0.243967,0.390959,0.880568,-0.267864
-0.069106,0.299848,0.815509,-0.059097,-0.997463,-0.039691
0.328826,-0.387811,-0.276342,0.419285,0.852266,-0.312798
0.557724,-0.137673,0.582091,0.736973,-0.109544,-0.666987
0.211670,-0.314738,0.008655,0.959673,-0.279181,0.032956
0.421159,0.201581,0.458812,0.143027,-0.984808,0.098466
-0.242369,0.139959,0.731775,0.504831,-0.068430,-0.860502
0.150621,-0.119232,0.772110,-0.623604,0.616114,-0.481167
0.815563,-0.225517,0.636197,-0.290833,0.695675,0.656851
0.143445,-0.361932,0.063108,0.862599,-0.501094,-0.069482
-0.022524,-0.398696,0.675521,0.599154,-0.794002,0.102838
0.866141,0.129082,0.595104,-0.185713,0.011938,0.982531
0.305181,-0.346126,0.584555,-0.276148,-0.958725,-0.067733
-0.005821,-0.609553,0.445862,-0.746992,-0.612633,-0.258232
-0.606655,-0.410377,0.531017,0.015038,-0.769427,0.638558
0.461859,-0.415417,-0.955717,-0.060420,0.214252,0.974908
-0.596188,-0.256213,0.604833,0.889588,-0.404250,0.212638
0.321413,-0.360785,0.590588,0.372208,0.927301,0.039677
0.620185,-0.258848,0.615382,-0.372843,0.205650,0.904818
-0.176969,-0.733707,0.729659,0.588076,0.070548,-0.805723
-0.038641,-0.662235,0.647884,-0.386737,0.763235,-0.517597
0.417160,-0.325510,-0.963582,0.107666,-0.376713,-0.920052
0.527141,-0.294242,0.145799,0.880746,-0.472479,-0.032400
0.650883,0.100560,0.545199,0.875722,0.437031,-0.205221
0.099924,-0.162525,0.661213,0.873356,-0.440051,-0.208819
0.476444,0.262400,0.485471,-0.327117,-0.718782,-0.613471
0.094514,-0.117281,0.919173,0.999395,0.032790,0.011637
0.241661,-0.670714,-0.965161,-0.199622,-0.052137,0.978485
0.138269,0.194137,0.237555,-0.213929,0.588479,-0.779697
0.211433,-0.181197,0.093588,0.917382,-0.363469,0.162177
0.032287,-0.127704,0.531807,0.821177,-0.531516,0.207747
-0.274478,-0.633377,0.685629,-0.353706,0.416232,-0.837641
0.209670,0.302939,0.613203,0.937559,0.316632,-0.143970
-0.409281,0.041916,0.491567,0.495606,0.006160,0.868526
-0.374817,-0.020734,0.634239,-0.629007,-0.758404,0.170801
-0.248956,-0.568896,0.432502,-0.724979,-0.062034,-0.685972
0.518084,0.514257,0.531680,0.018703,-0.247394,0.968735
-0.135328,0.008130,0.769457,0.763547,-0.629056,-0.145896
0.390460,-0.487917,0.676437,0.760856,-0.302418,-0.574144
-0.525611,-0.416794,0.560581,0.661307,-0.637593,0.395157
-0.182260,-0.077659,0.680543,0.710137,-0.360710,0.604644
0.688173,-0.212004,0.614403,0.648874,0.760429,-0.026640
0.130038,-0.298478,0.068414,0.982620,-0.161824,-0.090943
0.165913,-0.301225,-0.354106,0.975302,0.181368,0.126064
0.362583,-0.401212,-0.366646,0.917351,0.316655,-0.241242
0.304359,-0.666932,-0.959823,0.262888,-0.030840,-0.964333
-0.554899,-0.283357,0.597442,0.775090,0.487639,0.401801
0.431630,0.541402,0.666804,-0.101749,-0.810635,0.576643
0.278481,0.484478,0.600948,-0.081864,0.995790,-0.041247
0.064282,-0.184859,0.824226,-0.665483,0.743430,-0.066666
0.585602,0.228384,0.490145,-0.192467,-0.933602,0.302230
0.319650,0.416445,0.576469,0.932160,-0.252875,-0.259100
-0.393049,-0.329859,0.528522,0.744890,0.327377,0.581346
0.139446,-0.175583,0.520657,0.002251,-0.989633,0.143604
0.192612,0.046502,0.810802,0.383893,-0.905857,0.179024
0.265777,-0.684227,-0.964182,0.284926,-0.009549,-0.958502
0.433278,0.372118,0.483449,0.861740,0.188513,-0.471029
0.128038,-0.124614,0.428238,0.881075,-0.461742,0.102472
0.213199,-0.228383,-0.174037,0.959127,0.225589,0.170838
0.064048,-0.199064,0.538471,0.431750,0.808009,-0.400891
-0.594777,-0.226090,0.656570,0.738596,-0.663613,0.118719
-0.772275,0.232844,0.375679,0.402733,-0.603549,0.688138
0.253544,-0.371208,0.606728,0.493089,0.851702,0.177391
-0.526081,-0.281987,0.399116,0.385437,-0.918571,-0.087551
-0.755572,-0.048221,0.388408,0.893799,0.119835,-0.432160
0.109569,-0.913526,0.709286,0.828477,-0.007756,-0.559970
0.245779,-0.078343,0.683860,0.837230,0.017976,0.546555
-0.601716,0.172717,0.392041,-0.436416,-0.697007,0.568966
-0.119448,0.531552,0.527764,0.027874,0.723211,0.690065
-0.007116,-0.245908,0.782723,-0.481983,-0.394748,0.782219
0.204846,0.249111,0.785439,0.729735,0.584653,0.354498
0.249074,-0.089221,0.647694,0.898969,0.433319,-0.063948
-0.664646,-0.497654,0.604991,0.315611,0.732983,0.602599
0.429983,0.455040,0.496905,-0.643295,-0.435820,0.629470
-0.244368,-0.376249,0.694251,0.346562,-0.847700,0.401621
0.200495,0.283812,0.543430,0.536080,0.254603,-0.804857
0.041462,-0.109151,0.539703,-0.538327,0.775107,-0.330778
-0.443860,-0.198373,0.356823,0.106030,0.994337,0.007174
0.431749,-0.419311,-0.164371,-0.723051,0.689436,0.043299
0.169793,0.057036,0.644251,-0.008355,0.836416,0.548031
0.158030,-0.251515,-0.052811,0.710815,-0.637013,0.298256
-0.078515,-0.436263,0.593241,0.788123,-0.411720,0.457546
-0.076867,-0.349677,0.398389,0.744796,0.024773,0.666833
0.222256,-0.328489,-0.381712,0.134318,-0.235891,0.962452
0.246367,-0.108697,-0.973879,0.004055,0.284240,0.958744
0.529614,-0.270418,-0.960202,-0.111660,0.312836,0.943221
0.434922,0.384603,0.599653,0.650912,0.617919,-0.441009
-0.061812,0.087159,0.688061,-0.487402,0.869110,-0.084189
0.282480,-0.353340,-0.580480,0.868700,-0.492295,-0.054825
-0.143327,0.111095,0.744188,0.825676,0.335864,0.453270
0.276952,0.108005,0.278396,0.365275,0.892001,-0.266287
-0.250955,-0.790743,0.663171,0.861565,0.480135,-0.164851
0.309887,-0.313249,0.529785,-0.698799,0.640967,0.317555
0.476562,0.459857,0.659476,-0.572720,-0.739753,0.353211
0.035346,-0.244762,0.679343,0.819334,-0.567790,-0.079409
0.130152,-0.307643,0.138282,0.751586,0.659271,-0.021886
0.302829,-0.309132,-0.671636,0.999286,0.036822,0.008433
0.200377,0.527316,0.660897,0.912988,0.365034,0.182218
0.255424,-0.332949,-0.282217,-0.714171,-0.652598,-0.253131
0.796857,0.004125,0.559697,-0.657697,-0.251358,0.710109
0.360113,0.513915,0.508876,0.952525,0.302864,-0.031137
0.511382,0.038826,0.697852,0.407107,0.621778,-0.669071
0.120274,-0.211088,0.398484,0.585170,0.796653,0.151393
0.216491,-0.160693,-0.148768,0.961574,-0.274362,-0.010070
0.533613,-0.470510,0.016425,0.762621,0.620642,-0.182243
0.293417,-0.293669,0.272900,-0.131617,-0.927495,-0.349900
0.473385,0.135954,0.727195,-0.771002,-0.550900,-0.319477
0.027818,-0.158057,0.496936,0.897511,-0.342774,-0.277453
-0.619478,0.145454,0.409002,-0.558087,0.039794,0.828828
-0.248719,-0.289201,0.629501,0.948838,0.188027,0.253676
0.226958,-0.091402,0.880670,-0.641382,-0.365352,-0.674645
0.156856,0.142595,0.223026,-0.682673,0.211695,-0.699388
0.302948,-0.537396,-0.963487,0.320525,0.112294,-0.940560
0.366230,-0.020161,0.836576,0.159928,-0.953928,0.253858
0.108629,-0.140308,0.886039,0.710523,0.667953,-0.221352
0.378108,0.185433,0.263708,0.916101,0.225859,-0.331279
-0.609125,-0.459745,0.601421,-0.230925,-0.622565,-0.747720
-0.660529,0.114416,0.416898,-0.199351,-0.193605,0.960612
-0.315296,-0.159316,0.473816,0.742194,0.002733,0.670179
-0.342704,-0.373844,0.643557,0.483919,-0.640317,0.596504
0.215550,-0.364448,-0.570499,0.803178,0.174585,-0.569583
0.503381,-0.436263,0.440335,-0.740749,0.670849,0.035395
0.056284,-0.143286,0.648042,0.846600,0.470902,0.248032
-0.009819,-0.050395,0.838345,0.862116,0.170892,0.477024
-0.274715,-0.131255,0.535155,0.045502,-0.929543,0.365895
0.098631,-0.217275,0.526121,0.330109,0.939248,-0.094024
0.130860,-0.461918,0.362950,0.867805,0.464102,0.177549
-0.216491,-0.143510,0.661813,-0.375324,0.718054,0.586115
0.096747,0.435459,0.525679,-0.248883,-0.968178,0.026248
0.139564,-0.402820,-0.974826,-0.029752,0.007297,0.999531
-0.047931,-0.122440,0.557012,0.346625,-0.690504,0.634866
-0.386576,0.281526,0.447726,0.354903,0.747093,0.562047
0.575486,-0.256786,0.176564,-0.765801,0.618702,0.175374
0.187554,0.192871,0.279280,0.477396,0.728187,-0.491769
-0.092866,-0.385294,0.693809,-0.313345,0.940017,-0.134849
0.169441,-0.239722,0.080512,0.707752,0.574269,0.411464
0.480328,-0.376703,0.315635,0.604693,0.792333,0.080958
0.077341,-0.758104,0.706191,-0.111899,-0.942868,-0.313813
0.070047,0.411062,0.772900,-0.783901,0.544735,-0.297931
-0.668882,-0.546099,0.492925,-0.635979,0.160290,-0.754876
0.280129,-0.034820,0.851864,-0.439498,-0.081672,-0.894523
0.186851,-0.352655,-0.568035,0.996898,0.015726,0.077120
0.678646,-0.366741,0.371384,-0.685643,-0.700377,-0.198410
-0.205550,-0.461688,0.579248,0.655297,0.180458,0.733499
0.431160,-0.346468,-0.959476,-0.120428,0.155633,0.980447
0.184144,-0.324707,0.045957,0.696416,-0.668090,-0.262033
0.152620,-0.245105,-0.029027,-0.395384,0.902468,0.170945
-0.222726,-0.631084,0.326911,0.803978,-0.560391,0.198952
-0.428687,-0.647918,0.483070,0.106764,0.790069,0.603649
0.044639,-0.225174,0.731586,0.973379,0.187295,-0.132117
0.075341,-0.035274,0.680480,0.073859,0.041376,0.996410
-0.381989,-0.077659,0.535597,-0.492758,-0.668066,0.557564
0.086631,-0.139043,0.592988,0.005000,0.929960,0.367626
0.067340,-0.064712,-0.986576,-0.306806,0.146307,0.940460
0.134270,-0.167796,0.598895,0.271839,0.949843,-0.154603
0.024289,-0.600046,0.663235,0.476967,-0.655493,0.585518
0.021468,-0.290572,0.932375,-0.040286,0.854312,0.518198
0.203317,-0.247852,-0.064592,-0.491454,-0.867060,-0.081729
0.101923,0.323561,0.442135,-0.687936,0.470645,0.552482
-0.032524,-0.253354,0.779248,0.983710,-0.091289,-0.154857
-0.569839,0.154961,0.409981,0.245837,0.914667,-0.320856
0.046405,-0.133779,0.557833,-0.018200,0.997326,0.070783
0.165675,-0.213955,0.018920,0.804842,-0.518129,0.289433
-0.117919,-0.369377,-0.142104,-0.804498,0.188197,-0.563352
-0.112039,-0.337304,0.535281,-0.446482,-0.874852,-0.187851
-0.123095,-0.547476,0.548737,0.934281,0.298475,-0.195019
0.286597,-0.369377,0.518636,0.632694,0.773347,0.040414
-0.434215,0.062420,0.297473,0.683793,-0.164161,0.710970
0.558076,0.477263,0.553317,0.573454,0.787531,0.225710
0.102512,-0.475550,0.364403,0.597075,0.752487,0.277965
-0.028640,-0.289201,0.006980,-0.109365,-0.986006,-0.125824
0.060050,-0.353794,-0.981933,0.406934,-0.065602,-0.911099
-0.910721,-0.317835,0.475711,-0.631318,0.757981,-0.164020
-0.286712,-0.151990,0.466583,0.794948,0.058664,0.603834
0.264129,0.497305,0.455591,-0.187330,0.396031,-0.898926
0.395988,-0.385868,-0.956222,-0.430259,-0.261045,-0.864137
0.334354,0.343141,0.618572,-0.701979,0.593779,0.393258
-0.502321,-0.242239,0.650190,0.559476,0.669640,0.488435
0.104863,0.098959,0.709697,0.861008,-0.339693,0.378514
0.364583,0.243154,0.473121,0.698387,-0.310730,-0.644750
0.173440,0.085440,0.490524,0.964641,-0.260807,0.038053
0.169793,-0.249229,0.215540,0.981712,-0.166280,-0.092702
0.220490,-0.359869,-0.675616,-0.407797,0.912865,-0.019459
-0.068281,-0.348300,0.552432,0.657856,0.749676,0.072185
0.699699,-0.353571,0.266646,0.987247,0.124598,-0.099090
0.223315,-0.556753,-0.963108,-0.215388,0.007754,0.976498
0.338116,-0.205244,0.714498,-0.611687,-0.790904,-0.017606
0.318943,-0.446113,-0.368067,0.930231,0.197970,-0.308997
0.464917,-0.387357,0.267277,0.992899,0.089469,-0.078406
0.427631,-0.118085,0.632375,0.839284,0.151051,0.522290
0.339882,-0.715608,-0.960455,-0.027497,0.092798,0.995305
0.148032,-0.280267,0.038598,0.798225,-0.568308,-0.199657
0.209082,-0.328370,0.027890,0.977635,-0.076443,0.195922
-0.486911,-0.327915,0.560013,-0.600604,0.799546,0.000503
0.181675,0.189439,0.587903,0.807793,-0.324796,0.491912
0.801800,0.058526,0.569962,0.510831,0.364220,-0.778714
0.560549,0.442100,0.670689,-0.463316,-0.706332,0.535194
0.694993,-0.356318,0.410076,0.766768,-0.602529,-0.221415
0.403046,0.310271,0.529185,-0.369398,0.593371,0.715161
0.039700,0.395599,0.674289,0.503373,-0.863907,0.016727
0.440805,0.160917,0.727732,0.919322,0.097674,0.381192
0.788037,-0.378765,0.499842,0.596966,0.789065,0.144937
0.586897,-0.130913,0.677827,0.962348,0.122558,0.242621
-0.382463,-0.030465,0.492167,0.910278,0.396465,0.119207
0.142975,-0.366853,0.057107,-0.745504,0.661826,0.078807
-0.278951,0.139274,0.685566,0.991537,-0.020578,-0.128185
0.365053,-0.287020,0.722236,0.460098,0.102936,0.881881
0.244487,-0.179134,0.821542,-0.640723,0.196459,0.742211
0.472093,0.218527,0.390777,0.562766,0.808645,0.171430
0.075927,-0.157372,0.763803,0.247786,-0.658014,0.711069
0.231194,0.263658,0.556412,-0.574412,-0.500598,0.647651
0.195908,0.540025,0.696810,-0.567494,0.095295,-0.817845
-0.776156,-0.257820,0.460044,-0.311376,0.947002,0.078942
0.207197,-0.321386,-0.552748,0.660173,-0.736500,-0.147439
-0.696641,-0.235255,0.450411,0.984902,-0.159925,0.066270
0.840497,0.139043,0.564845,-0.366003,-0.274365,0.889250
0.089101,-0.217848,0.414561,0.911449,0.411343,0.007554
-0.131211,-0.692588,0.699716,0.929097,-0.342407,-0.139769
0.407870,0.062881,0.604233,0.029013,-0.580703,0.813599
0.136506,0.110522,0.783607,0.838299,0.478825,0.260734
0.499030,-0.476466,0.441693,-0.803314,0.571772,0.166622
0.000648,-0.216926,0.851327,0.991227,0.063196,0.116081
0.056636,-0.360555,-0.980638,-0.329577,-0.023277,0.943842
0.213551,-0.164587,0.708749,0.182272,0.114788,-0.976525
-0.097569,-0.536823,0.700347,-0.592538,0.346438,-0.727241
0.014525,-0.318751,0.802432,-0.332652,-0.841225,0.426244
0.614656,0.068145,0.576658,0.937700,-0.346842,0.020487
0.302593,-0.482191,0.630512,0.806533,-0.582530,0.100816
-0.356111,-0.312110,0.575332,0.212186,0.965450,0.151273
0.401635,-0.394116,-0.209728,0.832229,-0.500599,-0.238319
0.341881,0.349671,0.588250,-0.740878,0.670989,-0.029551
-0.059931,0.593860,0.484776,0.647850,-0.739773,-0.181731
0.483856,-0.469706,-0.959128,-0.020848,-0.053210,0.998366
0.218846,-0.251515,0.013582,0.846444,0.179976,0.501139
0.237311,0.337877,0.633923,0.951876,-0.284499,0.113985
0.198377,0.341771,0.603822,-0.159665,0.986968,-0.020058
0.752632,-0.061622,0.639324,0.450119,-0.859872,-0.240857
-0.027700,0.363875,0.685660,-0.475798,0.878458,0.043899
0.131918,-0.350243,-0.978080,-0.244034,0.075714,0.966806
0.292477,-0.367888,-0.652085,0.821526,-0.399050,0.407252
0.440335,-0.154849,0.567593,-0.309024,-0.379481,0.872066
0.016999,-0.466840,0.789387,0.202052,0.968606,0.144838
-0.465739,-0.020273,0.691977,0.867364,-0.486304,0.105780
0.129682,-0.414956,0.954769,0.867869,0.455971,0.197218
0.180027,0.265490,0.579849,0.920480,0.365354,0.138684
-0.317177,-0.050283,0.673594,0.912877,0.368518,-0.175640
0.486208,-0.240637,0.683197,-0.271991,-0.807266,0.523778
0.361054,0.195849,0.336166,0.586655,0.794009,-0.159330
0.593599,-0.397437,0.548705,0.154825,0.895203,-0.417901
-0.267188,0.148089,0.822363,-0.676002,0.358361,-0.643894
-0.042992,0.460311,0.500979,0.330087,0.404229,-0.853019
0.277070,-0.099874,-0.977511,-0.019212,0.403892,0.914605
0.445508,-0.339135,-0.017909,0.907730,0.418059,-0.035383
0.127212,-0.001950,0.667720,0.919885,-0.086452,-0.382540
0.066989,-0.244189,0.852179,0.751702,0.532544,-0.389025
-0.312475,-0.398926,0.612160,-0.593825,0.793549,0.132858
0.425513,-0.356087,-0.037050,0.939860,-0.335867,0.062097
0.299301,-0.237429,-0.408307,-0.604600,0.731470,-0.315295
0.671940,-0.091283,0.622963,-0.647437,0.634508,0.422166
0.149210,-0.231704,0.231428,0.398561,0.915525,-0.054438
0.064400,-0.179931,-0.215603,0.909394,-0.042405,0.413769
-0.312120,0.073185,0.369141,0.338639,-0.850446,0.402573
0.833206,-0.449664,0.498831,-0.558517,-0.394692,0.729573
0.341293,-0.454585,0.668699,-0.689831,-0.723944,0.006115
-0.373873,0.248880,0.411181,0.433642,-0.421414,0.796470
0.302948,-0.623066,0.666835,0.919979,-0.117992,-0.373787
0.425984,-0.621235,-0.954169,-0.316761,-0.037984,0.947745
0.114745,-0.372467,-0.974005,-0.286061,0.007578,0.958182
0.530436,-0.351047,-0.950000,0.487498,0.116193,0.865358
-0.108392,-0.640704,0.666867,-0.213799,-0.976216,0.035955
-0.150972,-0.332949,0.664340,-0.656529,0.666848,0.352538
0.539844,0.133892,0.346747,-0.509310,0.819681,0.262157
0.866023,0.193563,0.589229,-0.499302,0.127548,0.856989
0.117333,-0.300771,-0.969078,-0.186844,-0.398708,0.897842
-0.121096,0.355857,0.477416,-0.265762,-0.840962,0.471332
0.066518,-0.209599,0.648168,0.935463,-0.256543,-0.243094
0.854026,-0.031611,0.694409,-0.837118,0.035351,0.545878
0.041347,-0.052115,0.812413,-0.776615,0.629785,-0.015509
-0.059931,0.013283,0.420689,0.868959,0.062676,0.490899
0.837324,-0.444966,0.506317,-0.472592,-0.686053,0.553162
0.438688,-0.019014,0.573437,-0.015043,-0.545643,0.837882
-0.183908,0.325050,-0.077574,0.862391,0.489503,-0.129109
-0.401046,0.066082,0.312603,-0.338404,-0.745567,0.574119
-0.301415,-0.353452,0.633165,0.405287,-0.801985,0.438821
0.471386,-0.154737,0.565098,0.383714,0.292975,-0.875745
-0.225429,-0.112017,0.522900,0.686412,-0.104232,0.719704
0.151798,-0.216583,0.587745,0.770163,0.437634,-0.464032
-0.527141,-0.075708,0.494852,-0.552020,0.466291,0.691264
-0.286360,0.837014,0.107202,0.977476,-0.117597,0.175247
0.045580,-0.157030,0.718857,0.911505,-0.409002,-0.043308
0.281421,-0.345322,-0.970057,-0.247415,0.496683,0.831921
0.707815,0.103881,0.535945,0.596010,0.294919,-0.746856
0.156030,-0.906311,0.758118,0.932046,-0.282939,0.226352
0.248134,-0.390446,-0.415287,0.402579,-0.483325,-0.777385
0.070754,-0.085104,0.628143,0.917612,-0.254731,0.305124
0.344351,-0.046502,0.701642,0.781163,0.621745,-0.056720
-0.607951,0.268698,0.470404,0.832066,0.476667,-0.283646
0.549608,0.253235,0.533133,0.549792,0.373132,-0.747330
0.300123,-0.375556,0.715351,-0.679511,0.456141,-0.574631
0.176028,-0.838503,0.760329,-0.816333,0.498094,0.292409
-0.193083,0.523765,0.510202,-0.541130,-0.360619,0.759692
-0.471623,-0.428587,0.404675,0.575657,-0.815675,0.057385
0.524438,-0.371781,-0.959792,0.478212,-0.282219,-0.831664
-0.042285,0.245329,0.750316,0.872386,-0.476665,-0.108323
0.089808,-0.147634,0.405117,0.999671,0.024234,-0.008377
0.091574,-0.158057,0.513740,0.906547,-0.196906,0.373363
0.529258,-0.218764,-0.967877,0.042728,0.179063,0.982909
-0.257776,-0.474515,0.728648,0.490881,0.726108,-0.481459
0.381756,-0.075023,0.761718,-0.209054,-0.194555,0.958355
-0.558076,-0.489517,0.581080,0.765077,-0.637188,-0.092999
0.354585,0.012143,0.736545,0.881752,-0.104632,-0.459963
-0.073457,0.325965,0.774605,0.840373,0.382131,0.384382
0.163443,-0.262057,0.020783,0.733882,-0.645940,0.210186
0.052167,-0.113618,0.642104,0.924973,-0.223851,0.307110
0.261308,-0.416675,0.685155,0.745319,-0.514650,0.423835
0.084398,-0.078686,0.898326,0.491739,0.825704,-0.276417
0.069695,-0.233878,-0.979217,-0.432559,0.343673,0.833536
