-0.572830,0.221476,0.389666,0.399758,0.531921,-0.746494
-0.050214,-0.170122,0.503945,0.804560,0.424903,0.414897
-0.781378,0.219675,0.437460,-0.706592,-0.690762,-0.153544
-0.625383,0.107022,0.384069,0.934065,-0.329190,0.138406
-0.539589,-0.081583,0.067861,0.874937,-0.462458,0.143589
-0.107869,0.000359,0.496652,0.150095,-0.939018,0.309381
0.489091,-0.380921,0.406050,-0.089086,-0.898695,0.429431
0.437367,-0.361128,0.383119,0.891563,0.406483,0.199719
0.046750,-0.137491,0.382746,0.398536,-0.874727,-0.275721
-0.077524,-0.070906,0.372265,0.667666,0.012384,-0.744358
-0.050905,-0.100658,0.337462,0.719279,-0.566006,0.402834
-0.289524,-0.211876,-0.240207,0.915092,-0.264507,0.304373
-0.250905,-0.250269,-0.279080,0.777394,0.602121,-0.181959
0.148956,-0.014279,0.515817,0.451667,-0.886879,0.097172
0.167300,-0.039352,0.482642,0.982592,0.175680,0.060404
0.137094,-0.032755,0.457982,0.772719,0.633681,-0.036795
0.102195,-0.022913,0.434102,0.898973,0.232202,-0.371388
0.113371,-0.043190,0.401810,0.858154,-0.371168,-0.354690
0.008404,0.011277,0.388581,-0.056821,-0.542531,0.838112
0.117508,-0.148410,0.158938,0.277836,0.633188,-0.722413
0.136404,-0.173366,0.124644,-0.085573,0.445830,0.891018
0.108682,-0.169529,0.097745,0.974116,-0.225724,-0.012123
0.140954,-0.203718,0.061043,0.638362,-0.579902,0.506170
0.250058,0.108098,0.941317,0.676754,-0.645725,-0.353615
0.133091,0.170005,0.928292,-0.383362,-0.905808,0.180405
0.119302,0.165684,0.900782,0.567792,0.817583,0.095761
0.132818,0.144932,0.870661,0.822950,-0.414383,-0.388637
0.002751,0.215720,0.860688,0.858517,-0.448272,-0.249001
0.212954,-0.030111,0.567037,-0.393592,-0.842395,-0.368044
0.159024,-0.008158,0.544853,0.023396,-0.975973,0.216633
0.082058,-0.048352,0.346553,0.292299,0.956150,-0.018403
0.122471,-0.087338,0.309511,-0.637222,-0.770383,-0.021407
-0.007735,-0.016674,0.299098,0.925815,-0.318302,0.203839
0.016957,-0.045833,0.265516,-0.277329,-0.948024,0.156012
0.082335,-0.100299,0.225422,-0.912289,0.218644,0.346301
-0.036837,-0.036592,0.213448,0.775781,0.591499,0.219756
-0.083872,-0.071982,0.067555,-0.188312,-0.963802,0.188743
-0.125110,-0.058428,0.044184,-0.750443,-0.658034,-0.061861
0.006059,-0.275584,-0.291732,-0.133293,0.964329,0.228699
0.172818,0.070306,0.748784,-0.603147,0.722595,-0.337741
0.096954,0.105696,0.729992,-0.390066,-0.812084,0.434013
0.156128,0.055909,0.691560,0.051277,0.983653,-0.172620
0.194058,0.019676,0.657469,0.526786,-0.602113,-0.599964
0.115164,0.057952,0.640340,0.940954,0.054528,0.334115
0.114886,0.044749,0.610456,0.921947,0.386466,0.025656
-0.311594,0.358609,0.459983,0.535706,-0.431504,0.725826
0.514607,-0.180923,0.302151,0.866475,-0.445891,0.224503
-0.044974,-0.122853,-0.000421,-0.509865,-0.854703,0.097575
0.095578,-0.239468,-0.085969,0.968711,0.118774,-0.217926
0.087437,-0.248350,-0.116566,0.611405,-0.291900,0.735513
0.117643,-0.173366,-0.222296,-0.766608,0.629254,-0.127872
0.115715,-0.185119,-0.254148,0.838874,0.480542,-0.255675
0.302334,0.087104,0.963366,0.775416,-0.504448,0.379818
0.040268,0.179363,0.825852,0.923416,0.271161,-0.271616
0.211851,0.058912,0.772969,0.848148,0.439741,-0.295419
0.280264,0.168687,0.814522,0.676516,-0.209093,0.706120
0.229370,0.188846,0.792134,0.287842,0.896237,-0.337500
0.444674,0.175526,0.787318,-0.066589,-0.671792,0.737741
0.203714,0.266826,0.675176,-0.006754,-0.611737,0.791032
0.343849,0.166168,0.624668,-0.364392,0.846722,-0.387660
0.299160,0.180564,0.869643,0.656776,0.565773,0.498544
0.258333,0.194360,0.847188,0.930112,0.293765,-0.220439
0.057370,0.236832,0.671784,0.353460,-0.434170,0.828591
0.314195,0.060706,0.604044,0.213352,-0.781177,0.586722
0.315437,0.047151,0.573686,0.251079,-0.841614,0.478169
0.104678,-0.138334,-0.156728,0.960118,0.151459,0.235019
0.128128,-0.166409,-0.191530,0.951424,0.131548,-0.278364
0.202473,0.364364,0.908754,-0.588182,-0.676372,-0.443354
0.178332,0.367367,0.882804,0.596583,0.636378,-0.488990
-0.355177,0.511457,0.493904,0.089783,0.916150,-0.390651
0.659983,-0.147326,0.308324,-0.644863,-0.454215,0.614687
0.190194,0.354772,0.669647,0.907745,-0.001944,-0.419518
0.376261,0.351887,0.670902,-0.330831,-0.515086,0.790719
0.287849,0.492139,0.699938,-0.597210,0.168101,-0.784272
0.046750,-0.623750,-0.975538,-0.120550,-0.016314,0.992573
0.134059,-0.617995,-0.966142,0.299376,0.447750,-0.842552
0.341643,-0.478460,-0.966855,0.062805,0.332889,0.940872
0.087437,-0.510138,-0.852101,0.993689,-0.005808,0.112018
0.073644,-0.278344,-0.355164,0.536418,0.220012,-0.814770
0.025233,-0.262988,-0.510317,-0.205388,0.977255,0.052802
0.039717,-0.265742,-0.480365,0.333509,0.877584,-0.344409
-0.007183,-0.404317,-0.658007,0.635797,0.747823,-0.191113
-0.115180,-0.431192,-0.491491,0.624466,0.751739,0.211967
0.036816,-0.286619,-0.312322,0.793294,0.568294,0.218464
-0.339038,-0.686858,0.519480,0.336185,0.891306,0.304226
-0.712692,-0.258068,0.317279,0.204906,-0.978759,-0.006650
-0.261798,-0.258426,0.578536,-0.283469,0.932677,0.223066
-0.613104,-0.302100,0.697903,0.421341,0.390286,0.818626
-0.419452,-0.182241,-0.073249,0.909632,0.371093,0.186708
-0.467177,-0.192317,-0.027558,0.785583,-0.617096,-0.045304
-0.257387,-0.311575,-0.292614,0.986530,-0.023492,0.161887
-0.841378,-0.292858,0.499705,-0.758191,0.651330,-0.030270
-0.598624,-0.268861,0.463715,0.781856,-0.492577,-0.382190
-0.530763,-0.269462,0.504996,0.428871,0.507881,-0.747079
-0.193250,-0.262388,0.648175,0.872202,0.426827,0.238919
-0.595177,-0.098857,0.156326,0.973713,-0.064165,0.218556
-0.550348,-0.097780,0.175084,0.647872,0.759672,-0.056228
-0.612001,-0.139535,0.432135,0.824112,-0.051028,0.564123
-0.449107,-0.124896,0.417549,0.436779,-0.895907,-0.081082
-0.580002,-0.144090,0.480947,0.398127,-0.376136,-0.836670
-0.187871,-0.059746,0.106429,0.882030,-0.331507,-0.334853
-0.670624,-0.045233,0.559981,0.588628,0.647874,-0.483504
-0.640969,-0.046192,0.580300,0.450658,0.449358,-0.771353
-0.247870,-0.155366,0.739625,-0.624256,0.645577,-0.439925
-0.577106,0.005880,0.269926,0.904168,0.143965,-0.402188
-0.314624,-0.012119,0.524670,-0.043304,0.488822,0.871308
-0.250766,-0.009117,0.536237,0.564552,0.409510,-0.716647
-0.239729,0.050630,0.146794,0.636501,-0.699028,0.325922
-0.565657,-0.028676,0.504148,0.257520,0.913994,-0.313524
-0.270764,0.065868,0.764760,0.364266,0.927099,-0.088301
-0.240558,0.065150,0.785656,0.193822,0.902351,-0.384962
-0.259180,0.089264,0.620598,-0.338934,0.853546,0.395706
-0.215041,0.090099,0.638304,0.200395,-0.933580,0.297103
-0.329521,0.126457,0.348418,-0.650621,0.743160,0.156219
-0.295868,0.126098,0.368533,0.412510,-0.827896,0.380031
-0.446489,0.094185,0.496686,0.641409,0.266451,0.719443
-0.332695,0.050271,0.835756,0.691580,0.485693,-0.534622
-0.656691,0.101142,0.346655,0.944591,0.328119,0.009240
-0.354074,0.132571,0.295502,0.527029,-0.822546,0.213678
-0.185248,0.158969,0.780330,0.787472,-0.574759,0.222575
-0.764415,0.171323,0.413478,0.614811,-0.426555,0.663369
-0.502350,0.152130,0.663745,0.206373,-0.616007,0.760227
-0.365797,0.164125,0.656588,-0.011031,-0.992031,0.125510
-0.283867,0.164967,0.692069,-0.440048,0.893303,-0.091473
-0.359866,0.151530,0.739896,0.803252,0.372589,-0.464718
-0.432695,0.138209,0.786605,0.544947,-0.833243,-0.093480
-0.176422,0.155608,0.805228,-0.437104,0.332454,0.835712
-0.787309,0.136057,0.622836,-0.521182,-0.802151,0.291416
-0.612970,0.152489,0.606520,0.504155,0.818266,0.276169
-0.285799,0.151288,0.778159,0.135828,0.145019,0.980061
-0.354213,0.230234,0.714761,-0.538838,0.811393,-0.226484
-0.386212,0.217156,0.778634,0.220462,-0.809489,0.544172
-0.184007,0.232277,0.784740,-0.383600,-0.387370,0.838329
-0.209384,0.224713,0.819271,-0.509164,-0.746153,0.428962
-0.414763,0.278227,0.384341,0.057264,-0.105640,0.992754
-0.181940,0.291664,0.412698,-0.557808,0.648932,-0.517433
-0.268558,0.276543,0.464054,0.626941,-0.431837,0.648430
-0.736966,0.215955,0.614628,0.716795,0.345434,0.605706
-0.170630,0.224838,0.836638,0.070004,0.986739,-0.146441
-0.856139,0.259027,0.653128,0.853574,0.492184,0.170780
-0.479451,0.233112,0.633894,-0.472288,-0.829060,0.299339
-0.581105,0.216196,0.688880,0.816263,-0.010288,0.577589
-0.662622,0.202042,0.738302,0.855026,0.019957,0.518201
-0.280007,0.341928,0.414089,0.959814,0.184652,0.211331
-0.278488,0.337256,0.443498,0.872675,-0.251512,0.418544
-0.561797,0.276543,0.689016,0.902659,0.133152,0.409239
-0.617381,0.265625,0.731824,0.585161,-0.642580,0.494649
-0.781517,0.241511,0.801904,0.014637,-0.999881,-0.004911
-0.473798,0.273424,0.752312,0.446993,0.868060,0.216030
-0.192008,0.293583,0.764523,0.219859,0.844766,0.487886
-0.171181,0.321417,0.230307,0.978353,-0.174980,-0.110485
-0.168558,0.378527,0.236311,-0.513536,-0.299470,-0.804113
-0.231319,0.357049,0.342143,0.903815,-0.324321,0.279167
-0.169388,0.278462,0.870389,0.014887,0.998579,0.051179
-0.301660,0.365690,0.751871,0.944454,0.067661,-0.321603
-0.211868,0.421833,0.442446,0.158708,0.413307,0.896654
-0.815726,0.372647,0.455336,0.969090,-0.074780,0.235103
-0.191179,0.438149,0.349131,0.896186,-0.102953,0.431569
-0.647587,0.337974,0.755025,0.192371,-0.979274,0.063369
-0.648277,0.333770,0.782399,-0.269589,0.698764,0.662609
-0.730071,0.447148,0.441938,-0.029446,-0.930995,0.363842
-0.212836,0.499696,0.363310,0.824160,0.562397,-0.066861
-0.265662,0.474747,0.494142,-0.113286,-0.908565,0.402090
-0.257938,0.480020,0.463681,-0.420555,0.906021,-0.047529
-0.189386,0.607919,0.219249,0.180442,-0.877790,0.443763
-0.062627,-0.654470,0.418634,0.180464,0.947860,0.262668
0.570330,-0.599995,0.371688,0.849788,0.125902,-0.511869
0.514607,-0.608878,0.416090,-0.137483,0.765114,0.629046
0.070335,-0.661668,0.587966,-0.206291,-0.844604,-0.494053
0.823156,-0.482663,0.618630,0.223755,0.774317,0.591918
0.849497,-0.483139,0.641052,-0.012658,0.963815,0.266273
0.892394,-0.481704,0.658419,0.072481,-0.995805,-0.055844
-0.016835,-0.516612,0.337496,0.171899,0.863460,0.474223
-0.062076,-0.469585,-0.112733,0.663048,-0.748566,0.004089
0.667985,-0.476666,0.455268,0.950601,0.054837,-0.305532
0.265090,-0.529090,0.642612,0.756785,-0.347174,-0.553847
0.169505,-0.388603,0.600177,-0.507423,-0.639262,-0.577811
-0.009528,-0.415353,0.703059,-0.719748,0.395785,-0.570365
0.022888,-0.415477,0.723513,0.522241,-0.811500,0.262168
0.038610,-0.417037,0.747054,0.106663,-0.977708,0.180857
-0.064286,-0.431433,0.799868,0.877391,0.441441,0.187922
0.288952,-0.331969,0.217112,-0.498048,0.706952,0.502162
0.351434,-0.328615,0.231053,0.960143,-0.043583,-0.276090
0.491296,-0.485182,0.412088,0.957721,0.008775,0.287566
0.108955,-0.529690,0.538679,-0.761238,-0.542840,0.354741
0.511295,-0.489737,0.465479,0.378491,-0.925423,-0.018344
0.243298,-0.534611,0.676940,-0.667106,0.509818,-0.543189
0.703709,-0.488902,0.589967,0.954608,-0.071219,-0.289227
0.101921,-0.303059,-0.136138,0.804031,0.516319,-0.294871
0.119163,-0.305219,-0.109883,0.992195,0.044106,0.116635
0.047714,-0.320816,-0.026914,-0.505413,0.834476,-0.219561
0.216818,-0.332694,0.174541,0.569680,0.623016,-0.536018
0.148404,-0.343971,0.223760,-0.514221,0.496270,-0.699495
0.085783,-0.383682,0.507778,0.519265,0.854515,0.012939
0.244679,-0.373481,0.523652,0.343438,-0.833903,-0.432036
0.344262,-0.333294,0.262396,0.320840,0.252395,-0.912885
0.348265,-0.336648,0.290652,-0.210785,0.704593,0.677583
0.047714,-0.398562,0.603162,0.644575,0.742340,0.182907
0.796536,-0.344930,0.643426,0.753952,-0.353297,0.553839
0.077369,-0.137609,-0.117312,0.866060,0.448436,0.221007
-0.132561,-0.166285,-0.026235,-0.649672,-0.752986,-0.104588
0.069783,-0.298621,-0.192378,0.738306,-0.480990,-0.472813
0.030473,-0.307255,-0.148587,0.392699,-0.893554,0.217596
0.157092,-0.157885,0.080445,0.980407,0.017863,0.196169
0.097232,-0.177561,0.188957,0.921400,0.364985,0.133444
0.028406,-0.209716,0.387902,0.452579,0.798394,0.397164
0.415988,-0.169763,0.315516,0.740585,-0.632457,-0.227007
0.629916,-0.153331,0.319484,-0.616178,-0.556166,0.557678
-0.111594,-0.137609,-0.223789,0.031347,0.996901,-0.072156
0.021785,-0.160763,0.023832,0.433005,0.652991,-0.621377
-0.029113,-0.142288,0.768118,0.651103,0.250475,-0.716468
-0.102355,-0.154766,0.813369,0.312628,0.487553,-0.815203
-0.142212,-0.163165,0.851326,-0.457831,0.633839,0.623408
0.215576,-0.126691,0.791524,0.014495,-0.910861,0.412458
0.309506,-0.120093,0.796883,0.834480,0.549571,-0.040185
-0.022215,-0.044507,0.091266,-0.158652,0.923081,-0.350360
0.215298,-0.029752,0.118267,0.237152,0.421141,-0.875442
-0.131458,-0.262988,0.687862,0.898313,-0.422870,0.119224
0.017509,-0.253989,0.706587,-0.572100,-0.491056,-0.656937
-0.109662,-0.271981,0.766965,-0.414253,-0.052946,-0.908620
0.396676,-0.222911,0.698412,-0.516500,0.847640,-0.121382
0.405090,-0.244748,0.862961,0.957345,0.288938,0.002080
0.049920,-0.186803,0.231324,0.631974,0.773015,0.055292
0.278610,-0.239951,0.754890,0.013871,-0.346320,0.938014
0.302746,-0.241152,0.776192,0.175090,-0.983811,-0.038197
0.376678,-0.236590,0.786503,0.008723,-0.986254,0.165005
0.357643,-0.245948,0.846442,0.908296,-0.266911,-0.322113
0.154057,-0.008758,0.747529,-0.127824,0.976641,-0.172722
0.194470,-0.008399,0.764794,0.887426,-0.350419,-0.299469
0.131163,-0.020152,0.808688,-0.138564,-0.969673,-0.201331
0.153367,-0.021595,0.830702,0.136838,0.979234,0.149587
0.187576,-0.021712,0.850410,0.494226,0.731200,-0.470199
0.144267,-0.030836,0.888944,0.447383,-0.892932,0.050216
0.371710,0.033831,-0.239562,-0.695401,0.636521,-0.333555
0.173230,0.000601,-0.119958,0.945285,-0.228548,-0.232812
0.082058,-0.109175,0.598719,-0.450811,0.885878,-0.109498
0.032127,-0.119375,0.640340,0.789957,-0.603976,-0.105738
-0.074906,-0.139652,0.723615,0.599973,-0.092979,0.794599
0.032818,-0.131253,0.724191,-0.565871,0.505205,-0.651582
0.240402,-0.135331,0.867710,0.942920,-0.314670,-0.109017
0.258473,-0.137609,0.891217,-0.696454,0.415398,0.585146
-0.124698,-0.104137,0.449163,0.896145,0.441899,-0.040622
-0.010214,-0.095137,0.449197,-0.002117,0.971815,0.235736
-0.017252,-0.100299,0.480641,0.088612,-0.924086,-0.371771
0.035853,-0.098256,0.495430,0.182892,-0.800127,0.571268
-0.098078,-0.117574,0.558184,0.038157,0.982934,0.179958
-0.064008,-0.088664,0.374571,-0.584985,-0.808815,0.060093
-0.153110,-0.102936,0.426809,-0.646165,-0.730011,0.222607
0.055716,-0.104378,0.548075,0.864125,0.465682,0.190863
0.146195,-0.097780,0.553130,-0.436264,0.539214,0.720363
0.212402,0.123337,-0.102489,0.370591,0.201881,-0.906591
0.139712,0.010560,0.609472,0.102806,-0.612003,0.784145
0.132818,0.005763,0.639118,0.762508,0.521081,0.383478
0.122888,0.000117,0.670326,-0.003898,-0.999762,-0.021462
0.110748,-0.005639,0.702177,0.097047,-0.977535,0.187103
0.177229,-0.002036,0.714320,-0.255642,0.905185,-0.339539
-0.042078,0.064784,0.155342,0.069061,-0.661334,0.746905
0.172540,-0.031912,0.909941,-0.287890,0.391031,0.874193
0.245782,-0.027834,0.918794,0.176138,-0.635828,0.751464
0.039161,0.047268,0.314396,0.990208,0.007854,0.139379
0.124955,0.013438,0.584133,0.167517,-0.829402,0.532945
0.002612,0.085185,0.780771,0.199982,-0.965305,0.167909
0.121095,0.094419,0.779821,0.695443,-0.537150,0.477314
0.048678,0.081341,0.825818,0.318183,-0.785635,0.530601
0.139439,0.079547,0.885484,0.834927,-0.013752,-0.550190
0.209780,0.083267,0.895219,0.400662,-0.272204,0.874857
0.185231,0.076303,0.929072,-0.106145,0.687663,0.718229
0.315988,0.086862,0.925307,0.989506,0.068999,-0.126952
0.053371,0.108457,0.655909,0.880988,-0.034507,0.471879
0.084680,0.081466,0.844033,-0.587199,0.518306,0.621736
0.113505,0.080748,0.863843,0.421348,0.889550,-0.176541
0.301643,0.080623,0.956412,-0.785162,0.532213,-0.316653
0.079713,0.168203,0.853531,0.923591,0.187888,0.334183
0.249642,0.183683,0.840200,0.992486,0.118749,0.029511
0.101782,0.162089,0.902851,-0.056823,0.730984,0.680025
-0.108286,0.111701,0.553910,0.956205,-0.207491,0.206444
0.012268,0.388479,-0.099300,0.834231,0.245917,-0.493542
-0.050905,0.252188,0.723106,0.987641,-0.125742,0.093567
0.006888,0.338332,0.212159,0.878639,0.477467,-0.004346
0.149368,0.180681,0.808450,0.357287,-0.719713,0.595281
-0.022080,0.317939,0.693561,-0.550075,0.750776,-0.365723
0.130885,0.251353,0.817711,-0.443392,0.793334,0.417163
0.113644,0.245114,0.848816,-0.448510,-0.015264,0.893648
-0.034628,0.361728,0.409543,0.085494,0.885952,0.455829
0.082474,0.366408,0.437596,-0.391331,0.501657,0.771493
-0.026078,0.344212,0.523618,0.944270,0.065157,0.322659
-0.016010,0.288303,0.514630,-0.603996,0.320494,-0.729707
0.106610,0.240069,0.878530,-0.727002,0.179671,-0.662712
-0.069661,0.214754,0.948950,0.796528,-0.556697,0.235864
0.016818,0.445112,-0.094314,0.942295,0.108943,-0.316562
0.130195,0.395443,0.276608,0.599287,0.794547,-0.097727
0.073508,0.289504,0.919303,-0.640490,0.655032,0.400881
0.165094,0.295978,0.925001,-0.164757,0.739430,0.652762
0.131024,0.287586,0.960754,-0.619135,-0.537164,-0.572824
-0.136420,0.402040,0.104665,0.957468,0.278051,-0.077094
0.063162,0.292858,0.895151,0.748560,-0.290895,0.595851
-0.006767,0.396043,0.706519,-0.547125,0.424655,-0.721333
0.102751,0.404559,0.706722,0.170331,-0.921616,0.348728
0.227850,0.414635,0.703059,-0.150018,-0.757000,0.635961
-0.110079,0.344454,0.978902,0.205724,0.612323,-0.763373
0.092265,0.453270,0.391837,0.828091,-0.544625,-0.132850
0.123713,0.452428,0.413648,0.757520,-0.487202,0.434509
0.040268,0.432993,0.494820,-0.904793,-0.033868,-0.424502
0.064265,0.473906,0.250829,-0.603815,0.675533,-0.423158
-0.145664,0.434436,0.394890,0.897276,0.416679,-0.145859
0.089230,0.491305,0.152866,-0.381987,0.839721,0.385946
0.046750,0.535570,0.264024,0.540332,-0.469233,0.698471
0.236403,0.479185,0.710996,0.865056,-0.165921,0.473443
-0.145799,0.536413,0.165315,0.405047,0.864004,-0.299055
0.281918,0.561127,0.738777,-0.776094,0.630616,0.000934
0.110058,0.596041,0.438410,0.959526,0.238284,0.150102
0.030334,0.610313,0.311513,-0.524747,0.359432,-0.771654
0.243159,0.598077,0.490750,-0.075546,-0.877466,0.473651
0.044818,0.655788,0.457643,0.367888,-0.133888,0.920181
0.159298,0.688301,0.308833,0.962698,-0.150551,-0.224828
0.219024,0.690820,0.323555,-0.743059,0.034967,0.668312
0.328401,0.699336,0.324097,-0.103697,-0.763100,0.637907
0.102751,0.731490,0.351403,0.056156,0.360288,0.931149
-0.035457,0.835151,-0.008936,0.064934,-0.692941,0.718064
-0.281249,-0.228916,-0.463303,-0.292923,-0.725458,-0.622821
-0.347040,-0.234188,-0.473445,-0.592823,-0.407342,-0.694719
-0.241661,-0.302217,-0.309506,0.998625,0.015889,-0.049966
-0.308281,-0.422075,-0.445698,-0.034246,-0.548986,0.835130
-0.247453,-0.512774,-0.460691,-0.463674,0.353675,-0.812355
-0.743726,-0.528614,-0.445528,0.002471,0.476968,0.878917
-0.160695,-0.641750,-0.988733,-0.268095,0.302742,0.914589
-0.291730,-0.650625,-0.419850,0.024258,0.682649,0.730343
-0.352142,-0.656263,-0.431926,-0.024290,0.696419,0.717224
-0.435039,-0.659149,-0.430264,-0.148431,0.741989,0.653774
-0.159732,-0.789801,-0.977675,-0.187541,0.409125,0.892998
-0.233663,-0.794839,-0.985477,-0.315518,0.188181,0.930073
-0.306627,-0.799276,-0.991786,-0.239039,0.276390,0.930843
0.750743,-0.307020,-0.949623,-0.446184,0.160238,0.880479
-0.010353,-0.224112,-0.485487,0.935768,0.166950,-0.310590
0.597639,-0.315053,-0.959663,-0.240363,0.017541,0.970525
0.433780,-0.321776,-0.962038,-0.204635,0.612698,0.763365
0.348677,-0.325371,-0.961868,0.271071,-0.075591,-0.959587
0.270747,-0.329450,-0.966855,-0.101117,-0.339016,0.935331
0.198886,-0.334129,-0.973876,-0.339718,-0.144335,0.929386
0.125506,-0.338332,-0.980016,-0.280045,0.167775,0.945212
0.048543,-0.342887,-0.986495,-0.210908,-0.151445,0.965703
0.065507,-0.288537,-0.303706,-0.237725,0.971271,0.010950
0.024130,-0.296703,-0.329316,0.937156,0.334874,0.097974
0.083990,-0.317096,-0.421478,0.729168,-0.657784,0.188770
0.067851,-0.328615,-0.465338,-0.193893,0.831730,0.520222
0.689915,-0.422917,-0.945315,-0.118005,-0.150941,0.981474
-0.139043,-0.329091,-0.434708,-0.436398,0.856272,-0.276325
0.606053,-0.426395,-0.946706,0.260461,-0.191400,-0.946323
0.001370,-0.360645,-0.585315,0.945442,-0.100650,0.309852
0.010887,-0.375283,-0.646678,-0.686726,-0.691909,0.222864
0.042474,-0.393882,-0.726018,-0.151710,-0.933510,0.324875
0.369366,-0.437673,-0.955084,-0.147310,-0.014579,0.988983
0.294058,-0.441627,-0.959426,-0.123732,0.088859,0.988329
0.222471,-0.446789,-0.969059,0.215473,-0.129190,-0.967926
0.141644,-0.450868,-0.972045,-0.058164,0.370149,0.927150
0.062059,-0.454830,-0.976013,0.538743,-0.367105,-0.758281
-0.008425,-0.459626,-0.984765,0.428703,-0.581210,-0.691671
-0.084285,-0.463463,-0.988835,-0.004233,0.250432,0.968125
0.315159,-0.395318,-0.435522,0.442431,0.822187,0.358139
0.188127,-0.392923,-0.404688,0.548896,0.517116,0.656738
0.665501,-0.508696,-0.946265,0.310009,-0.015297,-0.950611
-0.142629,-0.416554,-0.448513,-0.323733,0.938064,-0.123419
0.588400,-0.512899,-0.952065,-0.323247,0.041996,0.945382
-0.107595,-0.435029,-0.528973,-0.280426,0.929549,-0.239374
0.500536,-0.516011,-0.950708,-0.239535,-0.464464,0.852582
0.414195,-0.519131,-0.949996,0.715472,0.220955,-0.662781
0.117369,-0.493340,-0.798846,0.976303,0.183854,0.114146
0.360951,-0.526336,-0.970009,0.061354,0.291215,0.954688
0.065094,-0.500421,-0.818893,0.992353,0.109537,0.056902
0.110475,-0.521657,-0.910818,-0.588016,0.758662,-0.280481
0.110475,-0.536054,-0.969297,-0.654623,0.529827,0.539215
0.034198,-0.540249,-0.975097,-0.527825,0.075010,0.846035
-0.039456,-0.545046,-0.982967,-0.142929,0.261380,0.954595
-0.118077,-0.549249,-0.987512,-0.716935,0.301554,0.628546
0.212815,-0.478226,-0.395088,0.451733,-0.568808,0.687310
-0.072974,-0.495500,-0.418324,0.986759,0.058514,-0.151268
0.611984,-0.599761,-0.942194,-0.214266,0.123912,0.968884
0.536950,-0.604441,-0.949487,-0.363350,0.264250,0.893392
0.457777,-0.608036,-0.951692,-0.103715,0.314950,0.943425
0.385778,-0.613198,-0.960308,0.211943,-0.193248,-0.957985
0.302885,-0.616794,-0.962004,-0.197801,0.371557,0.907094
0.217504,-0.620396,-0.961631,0.222375,-0.454872,0.862346
0.143715,-0.624476,-0.967296,0.267823,0.522311,-0.809606
0.065094,-0.628071,-0.969500,-0.367707,0.026827,0.929555
-0.011182,-0.632750,-0.976590,-0.112396,0.157191,0.981151
-0.087732,-0.636470,-0.980152,0.397797,-0.073177,-0.914551
-0.111594,-0.647871,-0.435522,-0.186006,0.215507,0.958623
0.467712,-0.757647,-0.948130,0.528314,-0.219308,-0.820237
0.393502,-0.762326,-0.954067,0.006090,0.088424,0.996064
0.311712,-0.766046,-0.956712,-0.136977,0.023992,0.990284
0.239712,-0.770725,-0.963802,0.707847,0.366457,-0.603872
0.156263,-0.774445,-0.964853,-0.045808,0.328932,0.943242
0.078059,-0.778758,-0.970111,-0.148435,0.274965,0.949927
-0.002768,-0.782603,-0.973164,-0.159094,0.161837,0.973908
-0.091045,-0.784763,-0.968144,-0.060994,0.440386,0.895735
-0.183455,0.620873,0.203984,0.225358,-0.875249,0.427963
-0.325522,0.520097,0.402997,0.494886,0.868898,0.010214
-0.344557,0.372764,0.465343,-0.027567,-0.574195,0.818255
-0.197388,0.327297,0.232681,0.965597,-0.246182,-0.083771
-0.638486,0.352370,0.422637,-0.027515,-0.661205,0.749701
-0.793657,0.358250,0.475587,0.853722,-0.272059,-0.444008
-0.641382,0.311099,0.233834,-0.192475,-0.790250,0.581772
-0.279039,0.317214,0.797969,0.774270,-0.619866,0.127566
-0.258212,0.305578,0.743085,-0.805431,-0.486036,0.339189
-0.594209,0.291064,0.736267,-0.411521,0.729976,-0.545697
-0.710899,0.292983,0.763878,0.548054,-0.459915,-0.698652
-0.258490,0.236590,0.439563,-0.774916,0.507754,-0.376419
-0.303592,0.231193,0.423451,0.930021,-0.300153,0.212060
-0.190350,0.198439,0.260530,0.964420,-0.251247,0.082268
-0.860689,0.259152,0.640882,0.838511,0.432947,0.330843
-0.551312,0.215720,0.397739,-0.014124,-0.845685,0.533495
-0.664003,0.217280,0.422874,-0.406200,-0.093597,-0.908978
-0.810208,0.222553,0.470329,0.966049,0.258035,0.012932
-0.195594,0.212360,0.902716,-0.489379,0.548001,0.678383
-0.193250,0.183325,0.780059,-0.512647,0.754667,-0.409477
-0.193936,0.173483,0.738167,0.774319,0.600700,0.198973
-0.168007,0.161130,0.681553,-0.290570,0.950972,-0.105931
-0.286490,0.163290,0.709165,-0.138438,0.884868,-0.444796
-0.485660,0.173607,0.786029,0.274046,0.223068,0.935489
-0.516969,0.146850,0.678161,0.290442,-0.944197,-0.155354
-0.625522,0.148293,0.701431,0.908931,0.065243,0.411810
-0.183043,0.100658,0.428234,0.616659,0.784548,0.064928
-0.342073,0.107622,0.482914,-0.654769,-0.594273,-0.467030
-0.667450,0.121653,0.595564,-0.366588,0.549556,0.750734
-0.558350,0.077262,0.390751,0.765430,0.603788,-0.222615
-0.199867,0.025315,0.111992,0.501301,-0.417870,0.757682
-0.632278,0.063950,0.344992,0.962701,0.262090,0.067193
-0.636276,0.053031,0.299233,-0.403698,-0.829139,0.386726
-0.363040,-0.025915,-0.078134,0.905550,-0.417702,-0.074189
-0.246901,0.068145,0.761131,0.262445,0.964933,-0.005127
-0.408281,0.075344,0.816489,0.089301,0.766608,0.635875
-0.409662,0.065267,0.776124,0.515007,-0.850846,-0.104066
-0.366348,0.050388,0.706960,-0.563946,-0.719528,-0.405270
-0.258077,0.017758,0.554860,-0.575754,-0.732426,0.363399
-0.585794,0.011760,0.581080,-0.331113,0.916928,0.222725
-0.574901,-0.000718,0.528876,0.113320,0.992974,0.034082
-0.847864,-0.002160,0.566562,-0.403080,-0.724842,-0.558687
-0.208420,-0.088422,0.107514,0.882030,-0.331507,-0.334853
-0.580966,-0.079063,0.205477,-0.619113,-0.785281,-0.005732
-0.584830,-0.102459,0.110126,0.976008,0.215995,0.027456
-0.486485,-0.126815,-0.006866,0.935225,0.117083,0.334134
-0.375453,-0.153089,-0.133662,0.673021,-0.661301,0.331245
-0.410213,-0.161130,-0.160866,0.996277,-0.080382,0.031169
-0.685794,-0.091424,0.614288,0.021674,0.856315,0.515999
-0.488556,-0.125255,0.445703,-0.898114,0.420210,0.129671
-0.632004,-0.119258,0.492547,0.666836,0.291322,0.685902
-0.655727,-0.128133,0.461001,0.970856,-0.169915,-0.169021
-0.684001,-0.135690,0.434272,0.918821,0.092933,0.383578
-0.706761,-0.144573,0.401742,0.828165,-0.376261,0.415416
-0.566348,-0.173483,0.261989,0.969231,-0.229727,-0.088417
-0.587036,-0.183442,0.226033,0.604031,-0.693022,-0.393532
-0.321797,-0.278703,-0.201130,-0.862966,0.321921,-0.389431
-0.548555,-0.084819,0.618562,0.359557,0.930986,-0.063114
-0.631587,-0.086379,0.625380,0.033043,0.997804,0.057405
-0.246216,-0.119134,0.765642,0.788695,0.579143,0.206286
-0.164560,-0.149010,0.631995,0.706143,0.707871,-0.016742
-0.296832,-0.145407,0.668087,-0.269468,0.912748,0.307049
-0.608554,-0.142647,0.728465,0.083037,0.870363,0.485359
-0.600001,-0.154048,0.680841,-0.280731,-0.918812,0.277443
-0.593384,-0.188121,0.543123,0.524965,0.620340,-0.582743
-0.658897,-0.191724,0.538611,0.296828,0.882294,-0.365308
-0.618901,-0.208156,0.466869,0.991356,-0.037161,-0.125828
-0.569244,-0.236473,0.343941,-0.689815,-0.722533,0.045838
-0.683589,-0.234430,0.370162,-0.584357,-0.773938,-0.244022
-0.639176,-0.275701,0.196861,0.920534,-0.055239,-0.386737
-0.712414,-0.279062,0.195809,0.983009,0.143332,-0.114668
-0.186351,-0.358009,-0.205540,0.212020,0.575037,0.790177
-0.456140,-0.349368,-0.127590,0.277140,0.419229,-0.864547
-0.197388,-0.227473,0.670258,0.812053,-0.411687,-0.413622
-0.508693,-0.214278,0.772630,0.056084,-0.254525,0.965438
-0.300418,-0.248467,0.603977,0.151285,0.828117,-0.539754
-0.569105,-0.239834,0.680162,-0.391031,-0.662056,-0.639356
-0.667038,-0.239468,0.696919,-0.347510,-0.130754,-0.928515
-0.505658,-0.280146,0.509609,-0.501665,-0.340417,0.795266
-0.563590,-0.284701,0.500010,0.763116,0.499462,-0.410112
-0.595450,-0.292141,0.475010,0.877106,0.175296,-0.447166
-0.466074,-0.319733,0.345501,0.715706,0.670262,-0.196249
-0.676828,-0.305936,0.433457,-0.356236,0.377663,0.854673
-0.830206,-0.298855,0.485390,0.800714,-0.567670,0.191331
-0.874066,-0.304860,0.468294,0.947527,-0.273071,0.166206
-0.619725,-0.360403,0.206528,0.977027,0.205071,-0.057998
-0.227181,-0.435512,-0.154455,-0.298962,-0.932021,-0.204840
-0.169249,-0.376842,0.619546,0.505983,0.465001,-0.726468
-0.749657,-0.363164,0.759672,0.487117,-0.868155,-0.094998
-0.571866,-0.420032,0.513239,0.260836,0.742189,0.617350
-0.202489,-0.491780,0.675142,0.310858,0.726252,0.613128
-0.111594,0.942890,0.012333,0.168266,-0.629895,0.758234
-0.046077,0.817876,-0.012735,0.440652,0.657835,-0.610802
0.097783,0.762209,0.352082,-0.233364,0.830296,-0.506112
0.036130,0.758731,0.345739,-0.409504,0.598871,-0.688229
0.366192,0.665146,0.323894,0.419711,-0.717547,0.555849
0.112680,0.677382,0.432440,0.958635,0.054856,0.279302
0.001092,0.677624,0.454929,0.344770,-0.153984,0.925971
0.180542,0.653627,0.300692,-0.797940,0.602688,0.007614
0.128267,0.649073,0.286445,-0.671755,0.731058,-0.119585
-0.005525,0.651709,0.324843,0.304900,-0.730517,0.611049
-0.038353,0.627354,0.208394,0.247826,-0.803638,0.541062
-0.134627,0.626394,0.221352,-0.320809,0.882457,-0.344021
0.310609,0.555971,0.460628,-0.335595,0.925487,-0.175638
0.291987,0.548407,0.427352,-0.923146,-0.082079,0.375587
0.397918,0.530056,0.319993,-0.683617,-0.630274,0.367999
0.161643,0.541568,0.418227,0.400929,0.139064,-0.905493
0.335713,0.517578,0.269960,-0.653746,-0.314789,0.688131
-0.089525,0.536413,0.438987,-0.532282,0.589468,-0.607621
0.100128,0.510014,0.276473,0.837311,-0.544913,-0.044498
0.064126,0.503658,0.251982,-0.567323,0.654610,-0.499630
0.002060,0.480620,0.152154,0.093294,-0.974734,0.202955
-0.045803,0.474865,0.134210,0.347927,0.692796,-0.631648
-0.106215,0.470903,0.125797,-0.297644,-0.756472,0.582373
0.000958,0.430115,-0.092584,0.917996,0.110109,-0.380999
0.239573,0.449308,0.717034,-0.614507,0.574935,-0.540215
0.187715,0.444753,0.704958,-0.067731,0.884654,0.461302
0.108816,0.442711,0.708520,0.040924,-0.673765,0.737812
0.164126,0.381881,0.421144,0.910426,-0.277503,0.306784
0.079439,0.380204,0.427250,0.533080,-0.683095,-0.499206
0.074750,0.370604,0.385087,0.227546,-0.861579,-0.453766
-0.012562,0.369527,0.394516,-0.129158,-0.964812,-0.229031
-0.085939,0.367008,0.395127,0.277823,0.944953,0.172855
-0.136008,0.331734,0.241602,-0.738771,0.663145,-0.120237
-0.060010,0.292983,0.051613,0.865150,0.444618,-0.232015
0.044406,0.260828,-0.114259,0.975847,0.199166,-0.089752
0.127716,0.353212,0.888062,-0.443529,-0.332944,0.832124
0.151990,0.304619,0.670292,0.319372,-0.429077,0.844923
0.168402,0.293700,0.620021,0.984478,0.101185,-0.143402
-0.035457,0.303418,0.696648,0.188507,-0.825143,0.532545
0.113783,0.259745,0.480031,-0.487142,-0.798520,-0.353637
0.020682,0.259269,0.493260,-0.426832,0.629263,-0.649494
0.312953,0.209716,0.227390,0.845967,0.528755,0.068985
0.168815,0.127174,-0.112665,0.607946,0.260429,-0.750053
0.051578,0.117457,-0.136375,0.594784,0.398696,-0.698050
0.223574,0.219199,0.864012,0.582920,0.811406,-0.042715
0.128541,0.219074,0.878802,0.571452,0.023281,0.820305
-0.067595,0.228315,0.949221,0.931773,-0.337127,0.134705
-0.037389,0.216196,0.893116,-0.330071,-0.475708,-0.815325
-0.011182,0.203843,0.837486,-0.236615,-0.956762,-0.169172
0.093094,0.164125,0.652720,-0.674011,0.274751,-0.685726
-0.002355,0.037075,0.129257,-0.690714,0.319991,0.648475
-0.012424,-0.007315,-0.056899,0.977929,-0.025524,0.207374
0.078198,-0.029877,-0.167040,0.777071,-0.127589,0.616346
0.284402,0.132095,0.940944,0.858421,-0.416670,-0.299164
0.259575,0.124897,0.915097,-0.333640,0.666426,0.666754
0.302472,0.101618,0.812249,0.784497,0.583685,0.209467
0.106059,0.101259,0.841964,-0.284032,0.479550,0.830276
0.153506,0.087104,0.775344,0.471470,-0.281026,0.835907
0.078337,0.084826,0.778634,-0.568244,0.746507,-0.346158
0.079713,0.074626,0.736165,0.797978,0.601187,-0.042499
0.029644,0.070188,0.725243,-0.138051,0.389096,-0.910794
0.124542,0.050029,0.627280,0.949258,-0.138149,-0.282533
0.118199,0.040312,0.588034,-0.021386,-0.972118,0.233515
-0.062493,0.007557,0.480539,0.877899,-0.432009,-0.206547
0.047441,-0.037910,0.275557,-0.770940,-0.624566,-0.124774
0.010748,-0.090223,0.065147,0.508402,0.798414,-0.322587
-0.077112,-0.115413,-0.025557,-0.352774,-0.932737,-0.074518
0.091440,-0.147209,-0.184373,0.966684,-0.255742,-0.010849
0.194332,-0.091659,0.473484,0.750498,0.589999,-0.297746
0.093094,-0.091541,0.489359,-0.896570,0.358110,-0.260612
0.087298,-0.112653,0.405507,0.939362,0.012739,-0.342690
-0.107457,-0.101976,0.480709,0.211379,0.908785,0.359763
0.011990,-0.126456,0.362054,-0.248409,0.929977,0.270989
-0.063457,-0.128734,0.364395,-0.197013,-0.926188,0.321498
0.056958,-0.153931,0.242552,-0.692492,-0.697458,0.184411
0.091992,-0.169646,0.173286,0.609567,0.792101,0.031689
0.127160,-0.197238,0.056294,0.852197,0.141717,0.503663
0.137233,-0.210074,0.003004,-0.246554,-0.922406,0.297283
0.113093,-0.219675,-0.031255,-0.795733,0.603482,0.051175
0.089782,-0.228550,-0.064260,0.972473,0.011643,-0.232723
0.091162,-0.241152,-0.115684,-0.544186,0.531814,-0.648872
0.071025,-0.251345,-0.153912,0.874929,-0.135972,0.464770
0.073231,-0.277027,-0.257947,0.413420,0.763630,-0.495937
0.370747,0.022554,0.907397,-0.663814,0.107566,-0.740122
0.283021,0.021236,0.916691,0.547382,0.043090,0.835773
0.263987,0.013796,0.888876,0.927277,0.363848,-0.088161
0.201504,0.010318,0.885484,0.499023,0.189682,0.845575
0.095439,0.011036,0.905022,-0.092438,-0.932987,0.347837
0.234194,-0.012595,0.786978,-0.561075,-0.827563,-0.018269
0.125506,-0.011760,0.807670,0.143452,0.727936,0.670471
-0.059319,-0.002878,0.872526,-0.664243,-0.671908,-0.327599
0.152681,-0.035274,0.708825,-0.410075,-0.903445,0.125002
0.049646,-0.044749,0.687421,0.286813,-0.767613,0.573156
0.095712,-0.059988,0.617545,-0.281486,0.896620,-0.341816
0.130746,-0.074025,0.555131,0.924908,-0.319219,0.206504
0.351296,-0.060588,0.907465,0.983257,0.104364,-0.149375
0.272814,-0.062624,0.911298,0.009964,-0.494491,0.869125
0.333503,-0.078822,0.837147,-0.616986,0.678798,-0.398197
0.260127,-0.081465,0.837893,0.180045,0.297374,0.937631
0.093646,-0.074267,0.893014,-0.166865,0.531426,0.830507
0.312124,-0.106180,0.729415,-0.040105,0.679725,0.732370
0.098608,-0.094544,0.810011,-0.244731,-0.946629,0.209761
0.248126,-0.119975,0.684267,-0.175575,-0.165104,-0.970523
-0.054769,-0.108940,0.775988,-0.787535,0.567377,-0.240567
-0.062493,-0.118775,0.738540,-0.622118,0.782258,0.032262
0.043025,-0.140252,0.635387,0.980837,-0.091894,0.171795
0.552676,-0.205520,0.291601,-0.810953,-0.556598,0.180424
0.415988,-0.212718,0.283358,0.200901,-0.604124,0.771150
0.127990,-0.203601,0.365854,0.993014,0.107248,0.049201
0.123574,-0.248592,0.185701,0.660746,-0.499340,0.560423
0.144540,-0.262388,0.126543,-0.203914,0.860767,0.466368
0.133230,-0.273182,0.085228,0.374294,-0.900512,0.221321
0.300679,-0.156809,0.874223,0.904117,0.372173,0.209902
0.369778,-0.173725,0.796646,0.937667,0.346237,-0.030021
0.418332,-0.188839,0.728160,0.964395,-0.264386,0.006475
0.385226,-0.195802,0.705433,-0.318977,0.923161,-0.214541
0.421919,-0.210074,0.642511,-0.492940,-0.509781,0.705077
-0.025527,-0.183559,0.819542,-0.312738,-0.707045,0.634257
-0.103870,-0.185485,0.823409,0.363038,0.904592,-0.223421
-0.026078,-0.204077,0.738336,0.977147,0.052737,0.205921
-0.036972,-0.213436,0.702177,0.131754,0.991172,-0.014800
-0.133251,-0.213553,0.716492,0.258041,-0.138034,-0.956222
0.092404,-0.270663,0.453369,0.486411,0.859883,-0.154937
0.319297,-0.307379,0.270503,-0.170107,-0.505575,0.845847
0.311021,-0.317938,0.231019,-0.698168,0.709923,0.092575
0.281367,-0.326096,0.202390,0.848653,0.438147,-0.296336
0.249642,-0.334253,0.174575,0.632884,0.658451,-0.407309
0.019441,-0.311216,0.843083,0.950865,-0.262617,-0.163975
0.609088,-0.375766,0.504148,0.838146,-0.319706,-0.441926
0.559849,-0.381880,0.489257,-0.871444,0.185781,0.453949
0.552537,-0.392323,0.449841,0.303526,-0.929314,-0.210353
0.019302,-0.343612,0.719442,0.866960,-0.283448,0.409923
0.523708,-0.400239,0.424333,0.985937,0.095058,-0.137449
0.503709,-0.408879,0.393363,0.835113,0.540392,-0.102776
0.028541,-0.376960,0.588203,-0.699687,-0.623607,-0.348643
0.108404,-0.397478,0.496414,-0.532835,0.484336,0.693906
0.371989,-0.451827,0.247437,0.955702,0.014749,-0.293966
-0.015459,-0.452311,0.304016,-0.801941,-0.409505,-0.434968
0.411711,-0.291540,0.860315,0.985799,0.024914,-0.166074
0.860121,-0.338332,0.611235,0.976688,-0.206792,-0.057603
0.823429,-0.345172,0.589967,-0.656761,0.621431,0.427186
0.833363,-0.356925,0.544073,-0.084524,0.758882,0.645719
0.783845,-0.362204,0.531217,-0.436582,0.897757,0.058552
0.767294,-0.371321,0.497907,0.105601,-0.993902,-0.031734
0.735708,-0.378519,0.474603,0.112277,-0.985574,-0.126638
0.789224,-0.460703,0.645190,-0.699225,0.038416,0.713869
0.762740,-0.468867,0.618359,0.966054,0.038186,-0.255503
0.756809,-0.479544,0.579859,0.960936,-0.265437,-0.078393
0.246333,-0.465748,0.705840,0.418932,-0.492337,0.762955
0.311712,-0.484340,0.627585,0.841494,0.273863,-0.465711
-0.047318,-0.453987,0.793763,0.761196,-0.638343,0.114449
0.047024,-0.476542,0.696105,0.984361,0.176002,-0.007478
0.481367,-0.527295,0.441768,0.993298,-0.109223,-0.037820
0.080955,-0.491897,0.633284,-0.529691,0.840149,0.116523
0.028541,-0.496818,0.622497,-0.826954,0.533572,0.177339
-0.141387,-0.487577,0.682028,0.013639,-0.989421,0.144427
0.624675,-0.632633,0.449366,0.453566,-0.840751,-0.295663
0.075992,-0.601680,0.643223,-0.380998,-0.647918,-0.659577
0.174611,-0.625435,0.541732,0.919266,0.384545,0.084119
-0.042768,-0.610796,0.627212,-0.193946,-0.895126,0.401416
-0.086351,-0.617277,0.609540,0.632772,-0.742751,0.218908
0.177920,-0.692262,0.692577,-0.084115,-0.820112,0.565987
0.259298,-0.725734,0.561270,0.851207,0.521380,-0.060080
0.236126,-0.877263,0.336444,0.830308,0.532000,-0.166025
0.221781,-0.888299,0.299132,0.767242,0.478165,-0.427432
0.255989,-1.000000,0.316397,0.860167,0.360600,-0.360667
-0.167595,-0.311458,-0.351602,-0.239868,-0.961402,0.134793
-0.612553,-0.584998,-0.457841,0.002471,0.476968,0.878917
-0.308694,-0.755845,-0.988835,0.438265,-0.414367,-0.797636
-0.224697,-0.752850,-0.980830,0.491469,-0.237422,-0.837908
-0.170903,-0.655663,-0.986325,0.391737,-0.228964,-0.891132
-0.332834,-0.847987,-0.985240,-0.174955,0.282169,0.943277
-0.246350,-0.844509,-0.981203,-0.226702,0.146763,0.962843
-0.158216,-0.841031,-0.971536,0.084263,-0.185802,-0.978967
0.199299,-0.017633,-0.355333,0.837236,-0.249700,-0.486503
0.200679,-0.025198,-0.353739,0.837236,-0.249700,-0.486503
0.182196,-0.056268,-0.351161,0.837236,-0.249700,-0.486503
0.179713,-0.065385,-0.358522,0.837236,-0.249700,-0.486503
0.185231,-0.122377,-0.344377,0.983544,-0.164923,-0.073762
0.143299,-0.226272,-0.360761,0.159702,-0.986726,0.029440
-0.097388,-0.348767,-0.461030,-0.455024,0.890163,-0.023719
0.095990,-0.285543,-0.534299,0.753050,-0.576221,0.317625
-0.033112,-0.341810,-0.515337,0.892503,-0.450198,0.027584
0.031854,-0.335689,-0.558145,0.067568,-0.976801,-0.203211
-0.089251,-0.414518,-0.460182,-0.413510,0.882274,-0.224950
-0.028836,-0.407437,-0.517135,0.501642,-0.773901,0.386564
0.028680,-0.398320,-0.602242,0.997783,-0.019545,0.063620
0.090198,-0.390522,-0.663672,0.800465,0.588749,0.112388
0.087024,-0.365807,-0.982899,-0.292758,0.333622,0.896097
0.174060,-0.362204,-0.975131,0.299689,-0.170578,-0.938664
0.260266,-0.358967,-0.969636,-0.021694,-0.332440,0.942875
0.340814,-0.355365,-0.970552,-0.376124,-0.006053,0.926549
0.422331,-0.351645,-0.968517,-0.314207,0.709213,-0.631102
0.508260,-0.348291,-0.964345,-0.396927,-0.036380,0.917129
0.591570,-0.345047,-0.954406,0.439955,-0.100645,-0.892362
0.676260,-0.341210,-0.953524,-0.101731,0.268104,0.958004
0.762740,-0.337849,-0.943924,-0.503502,0.247940,0.827655
0.057232,-0.429390,-0.667708,-0.670035,-0.721588,-0.174254
0.121780,-0.421233,-0.733888,-0.584357,-0.778817,0.227972
0.051027,-0.403000,-0.994059,0.454240,0.047457,-0.889614
0.137784,-0.400956,-0.975267,0.060298,0.256866,0.964564
0.221229,-0.397595,-0.968144,-0.301369,0.424549,0.853777
0.306471,-0.394117,-0.965023,-0.370534,0.045063,0.927725
0.387159,-0.390397,-0.965023,-0.202857,0.036160,0.978541
0.473504,-0.387160,-0.958442,0.012233,0.236602,0.971530
0.558329,-0.383682,-0.957289,-0.281940,-0.321010,0.904136
0.644122,-0.380204,-0.951183,-0.596526,-0.023844,0.802240
0.724949,-0.376125,-0.952879,0.484565,-0.288586,-0.825781
-0.049802,-0.514576,-0.986563,0.216140,-0.110558,-0.970083
0.053233,-0.515418,-0.920858,0.778462,-0.566171,0.271012
0.158056,-0.517336,-0.844164,0.893369,-0.270838,0.358522
0.215159,-0.505818,-0.947079,0.359144,0.861164,0.359738
0.292265,-0.501014,-0.963429,0.290810,0.071038,0.954140
0.373504,-0.497418,-0.964209,-0.211344,0.137572,0.967682
0.461230,-0.494541,-0.950064,0.270369,0.086291,-0.958882
0.542190,-0.490821,-0.952201,-0.243188,0.181589,0.952830
0.075992,-0.464788,-0.724492,0.369832,0.915824,-0.156497
0.094610,-0.443670,-0.964616,-0.223617,0.327489,0.918012
0.175297,-0.439591,-0.967669,-0.118151,0.500415,0.857686
0.259436,-0.435754,-0.970009,0.078755,-0.321323,-0.943689
0.345781,-0.432393,-0.964684,0.325690,0.210473,-0.921752
0.431019,-0.428790,-0.958714,0.185896,0.307323,-0.933271
0.513088,-0.425436,-0.955966,-0.131285,0.333095,0.933709
0.594605,-0.421833,-0.952947,-0.236063,0.301957,0.923632
0.679708,-0.418355,-0.950641,-0.049840,0.087931,0.994879
0.627432,-0.486984,-0.949487,-0.262895,0.052061,0.963419
0.713361,-0.483498,-0.942567,-0.155583,0.067142,0.985538
-0.079596,-0.564846,-0.980932,-0.210277,0.181020,0.960737
0.006337,-0.560768,-0.981237,-0.621414,0.060296,0.781159
0.096129,-0.559325,-0.952133,0.720187,-0.541566,-0.433632
0.187164,-0.558608,-0.915397,0.962165,0.259529,0.082960
0.260539,-0.551168,-0.960071,0.265218,-0.018918,0.964003
0.342056,-0.547689,-0.959494,0.071976,0.258722,0.963267
0.425366,-0.543486,-0.961902,-0.128014,0.110621,0.985584
0.512953,-0.540733,-0.949318,-0.224547,0.250025,0.941842
0.597778,-0.536771,-0.948571,-0.284514,0.193956,0.938847
-0.087871,-0.652309,-0.981135,0.331214,-0.121594,-0.935688
-0.004010,-0.649190,-0.971230,-0.067210,0.026362,0.997391
0.081094,-0.645587,-0.970756,0.197035,0.131993,-0.971471
0.163023,-0.642109,-0.968517,0.274304,0.499499,-0.821741
0.247575,-0.638030,-0.969975,0.116030,0.323650,-0.939036
0.334471,-0.634910,-0.960613,-0.014848,0.067752,0.997592
0.420677,-0.631073,-0.958171,-0.275629,0.149118,0.949628
0.504122,-0.628071,-0.949793,-0.213851,0.231602,0.949014
0.586329,-0.624834,-0.946027,0.229919,-0.166567,-0.958850
-0.138765,-0.748764,-0.978761,-0.103826,0.211786,0.971785
-0.055321,-0.745645,-0.972485,-0.166670,0.223515,0.960345
0.028541,-0.741690,-0.973198,0.003939,0.284999,0.958520
0.115164,-0.738212,-0.967465,-0.355139,0.256894,0.898822
0.344952,-0.819436,-0.953490,0.112698,0.092800,0.989286
0.430194,-0.815592,-0.950878,-0.268817,0.145091,0.952201
0.200540,-0.734609,-0.965973,-0.024782,0.164726,0.986028
0.283438,-0.731014,-0.960885,0.457038,-0.261902,-0.850014
0.365367,-0.727894,-0.956271,0.302609,-0.123068,-0.945136
0.451156,-0.724050,-0.951183,0.423656,-0.010269,-0.905765
-0.072562,-0.837311,-0.970009,-0.129820,-0.058689,0.989799
0.008682,-0.833708,-0.967160,-0.117872,0.364891,0.923559
0.092126,-0.830354,-0.961868,0.246457,-0.279080,-0.928102
0.177368,-0.826751,-0.960071,-0.383565,0.035138,0.922845
0.259436,-0.822914,-0.956678,0.338846,-0.233622,-0.911375
-0.790483,-0.106421,0.618223,0.237853,-0.958129,-0.159421
-0.694760,-0.105096,0.683113,-0.464093,-0.885622,0.017067
-0.668692,-0.099457,0.581352,-0.126378,-0.166949,0.977833
-0.599176,-0.095862,0.576603,-0.230091,0.807699,0.542845
-0.522899,-0.093343,0.596412,-0.644648,-0.097714,-0.758209
-0.878621,-0.108816,0.578706,0.904623,0.388600,-0.175065
-0.467038,-0.088898,0.556318,-0.084288,0.657415,0.748800
-0.398212,-0.085544,0.548143,0.194437,-0.967362,-0.162496
-0.600969,-0.070423,0.004531,-0.479440,-0.876713,-0.038874
-0.192421,-0.075585,0.537221,0.626616,0.589731,-0.509480
-0.567450,-0.075702,0.555673,0.030819,0.589522,0.807164
-0.490349,-0.072583,0.569751,0.916091,-0.108794,0.385930
-0.439316,-0.068504,0.522398,-0.059962,-0.906321,0.418315
-0.360417,-0.065385,0.539426,0.116826,0.925044,0.361450
-0.218076,-0.066468,0.735521,-0.753453,-0.505645,-0.420275
-0.188561,-0.060830,0.619648,0.943121,-0.114254,-0.312201
-0.935863,-0.091058,0.520600,0.279258,0.959426,-0.038940
-0.819173,-0.089623,0.625211,-0.093028,-0.987555,0.126810
-0.733106,-0.087221,0.660319,-0.276128,-0.943120,0.185141
-0.697383,-0.082183,0.574533,0.815217,-0.419868,-0.398913
-0.613243,-0.079905,0.613440,0.110593,0.819026,0.562997
-0.674896,-0.047393,0.612559,-0.157488,0.851173,0.500702
-0.611589,-0.043907,0.593292,-0.328316,0.693545,0.641252
-0.569382,-0.039352,0.519378,0.818050,0.395793,-0.417304
-0.490488,-0.036592,0.544615,-0.044546,-0.998705,0.024560
-0.611038,-0.031436,0.230035,0.850761,0.460180,-0.253852
-0.795724,-0.054466,0.655706,0.748156,0.638651,-0.179965
-0.755588,-0.050388,0.589832,0.507897,0.160432,0.846346
-0.281662,-0.039828,0.915300,0.819985,-0.572128,0.017140
-0.420282,-0.033472,0.545701,-0.125958,-0.988906,-0.078740
-0.355728,-0.029752,0.525654,0.228942,0.470828,0.852002
-0.233663,-0.029276,0.673819,-0.785692,0.060319,0.615670
-0.831448,-0.009234,0.566833,0.381006,0.781271,0.494419
-0.758484,-0.005997,0.576738,0.382958,0.900234,0.207177
-0.347179,0.013796,0.542580,0.426107,-0.817198,0.388099
-0.275041,0.016674,0.551501,-0.389631,-0.844742,0.366878
-0.651173,-0.003837,0.664593,0.886110,-0.245084,0.393374
-0.605246,-0.000242,0.609573,0.966149,0.156044,-0.205441
-0.565935,0.004320,0.528605,0.995113,-0.002635,-0.098707
-0.596414,0.011036,0.260971,0.728515,0.577436,-0.368555
-0.391730,0.048711,0.836469,-0.183649,0.400899,0.897526
-0.583315,0.053874,0.338988,-0.268384,-0.960489,0.073690
-0.399866,0.053874,0.640102,-0.249822,0.906597,-0.340103
-0.310352,0.056627,0.690983,-0.479367,0.581990,0.656883
-0.276556,0.060947,0.589153,-0.708677,0.440837,-0.550854
-0.201109,0.064308,0.601195,-0.267308,-0.326607,0.906573
-0.610625,0.044515,0.629960,-0.692996,-0.631899,-0.347074
-0.469522,0.045950,0.815879,0.207921,0.803774,0.557419
-0.272145,0.072224,0.194961,0.571400,-0.773219,0.275017
-0.545246,0.109900,0.740032,0.425479,-0.902542,0.066224
-0.687314,0.113019,0.383730,0.955644,0.065941,0.287047
-0.464832,0.113019,0.767169,0.861908,-0.461570,0.209924
-0.221111,0.137733,0.273691,0.792677,-0.576959,0.196932
-0.174902,0.142413,0.192316,0.775315,-0.583427,0.241868
-0.773932,0.105462,0.526773,0.962706,0.127919,0.238397
-0.656830,0.107622,0.638101,0.939405,-0.110383,-0.324552
-0.763451,0.038276,0.598074,0.211704,-0.515219,0.830500
-0.624693,0.116856,0.357577,0.866716,0.493229,-0.074361
-0.433798,0.116974,0.672835,0.285712,0.953086,0.099976
-0.357660,0.120093,0.692442,-0.283744,0.753130,-0.593535
-0.287454,0.123212,0.692408,0.770275,-0.049958,0.635752
-0.211316,0.126098,0.716017,0.710318,0.694691,-0.113370
-0.779312,0.176727,0.714965,-0.578959,0.449023,-0.680576
-0.614763,0.182366,0.787996,0.476935,0.819209,0.318480
-0.573798,0.186203,0.716695,0.337789,0.933221,0.122459
-0.499866,0.189205,0.734435,-0.162906,0.828267,0.536131
-0.643865,0.192925,0.367414,0.609040,0.330655,-0.720928
-0.427589,0.192324,0.740032,-0.456061,0.659670,-0.597364
-0.266214,0.208998,0.418261,0.923633,0.383217,0.006864
-0.742068,0.249552,0.753940,0.785679,-0.372711,-0.493757
-0.680141,0.253271,0.734537,0.087558,-0.529300,0.843905
-0.618349,0.256625,0.714727,0.381148,-0.761526,0.524218
-0.522760,0.269228,0.427962,-0.711627,0.618176,0.333835
-0.361937,0.195920,0.727990,0.871791,-0.482438,0.085051
-0.285522,0.198922,0.746002,0.454228,0.889732,-0.045315
-0.194214,0.218474,0.204934,0.776068,-0.630001,0.028583
-0.905102,0.243554,0.694884,-0.723169,-0.668715,0.172762
-0.799588,0.246190,0.783010,-0.297567,-0.942161,-0.154228
-0.331865,0.269103,0.750819,-0.904109,0.426906,0.018377
-0.214764,0.270663,0.880158,-0.408556,0.895239,0.177844
-0.727862,0.323218,0.751464,-0.203216,-0.020019,0.978929
-0.659448,0.336414,0.403404,0.209596,-0.610561,0.763731
-0.487036,0.342294,0.474535,-0.522095,0.365852,-0.770434
-0.276695,0.352253,0.470431,-0.438378,0.457889,-0.773409
-0.178353,0.360528,0.342415,0.873717,-0.290347,0.390279
-0.879997,0.317096,0.710962,-0.880230,-0.312696,0.356955
-0.311316,0.342528,0.759231,0.967854,0.001551,-0.251509
-0.169800,0.343129,0.965774,0.400892,-0.173847,0.899479
-0.347592,0.348892,0.474298,-0.624028,0.283099,-0.728316
-0.785794,0.371446,0.750378,-0.218169,0.422943,0.879501
-0.553796,0.394600,0.277694,-0.219263,0.955919,-0.195301
-0.400279,0.396043,0.491224,0.878128,-0.069978,0.473280
-0.333659,0.399638,0.476130,-0.106552,-0.246000,0.963395
-0.222626,0.407320,0.387122,0.488402,0.745369,-0.453749
-0.641656,0.386684,0.422196,-0.294676,0.519607,-0.801982
-0.543453,0.389679,0.488545,-0.590620,0.277241,0.757829
-0.265662,0.460585,0.411681,0.060953,0.997740,0.028275
-0.750348,0.437072,0.446788,-0.020669,-0.929058,0.369356
-0.685655,0.440675,0.429353,-0.033083,-0.898431,0.437866
-0.577106,0.443428,0.521312,-0.440480,-0.859805,-0.258290
-0.451316,0.450392,0.482405,0.221444,0.611158,-0.759900
