0.290639,0.109279,-0.203558,-0.515953,0.850959,-0.098295
-0.715466,0.467248,0.909569,-0.495813,-0.755067,0.429001
-0.248406,0.781208,0.892392,0.894608,-0.059827,-0.442829
0.389268,-0.402039,-0.961435,-0.226371,0.123331,0.966202
-0.598950,0.273731,0.950898,-0.150891,-0.755674,-0.637329
-0.684194,-0.019634,0.825519,-0.511292,-0.576673,-0.637204
-0.675359,0.437106,0.895397,0.849384,-0.142005,0.508313
-0.690171,0.194417,0.865198,-0.416474,-0.693779,0.587555
-0.170745,0.312522,0.639556,0.961152,0.233900,-0.146549
0.214622,0.033145,-0.533339,0.587089,0.789189,-0.180299
-0.578377,0.486282,0.894544,0.985925,0.044482,0.161163
-0.132239,0.274152,0.700697,-0.658503,0.740126,0.136336
0.340148,-0.072229,-0.749576,0.977282,0.004833,-0.211889
0.208299,0.157612,0.159279,0.203147,0.976077,0.077485
0.568675,-0.262561,-0.182077,-0.056583,-0.067294,0.996127
0.853555,-0.303451,-0.266832,-0.348159,-0.202414,0.915322
0.299260,0.058241,-0.239100,0.912143,0.333032,-0.238922
0.187725,-0.597776,-0.728447,0.825115,-0.086342,0.558328
-0.538180,0.111441,0.879963,-0.480011,0.150180,0.864312
-0.014899,0.728312,0.771724,-0.766939,-0.641030,-0.029735
0.230997,0.173942,0.903781,0.881325,-0.355954,0.310747
-0.150214,0.796218,0.807118,0.437473,0.695586,0.569893
-0.576860,0.555871,0.891910,-0.447914,0.522734,-0.725343
0.375970,-0.015489,-0.576616,0.320577,0.684259,-0.654996
-0.409926,0.430623,0.842233,0.862621,-0.393400,-0.317996
-0.696104,0.456921,0.910905,0.111629,0.656872,0.745693
-0.340277,0.335518,0.814296,-0.625021,0.518680,0.583370
-0.418764,0.614293,0.927952,-0.564194,0.490829,-0.663907
0.459783,-0.361932,-0.206507,-0.500700,0.844655,-0.189363
0.204402,0.087844,-0.457395,0.300117,0.872520,-0.385538
-0.010092,0.616393,0.733382,0.962080,-0.139343,0.234491
-0.513752,0.324648,0.897901,-0.461228,0.229420,0.857109
0.512671,0.754969,0.794337,0.066518,0.107180,0.992012
-0.125783,0.145482,0.755586,-0.792693,0.471327,0.386637
0.470007,-0.051817,-0.972750,-0.019031,0.341839,0.939566
-0.116385,0.220956,0.514047,0.803179,-0.395256,0.445731
0.613160,-0.035963,-0.246816,0.310714,0.554902,0.771712
0.332309,0.491024,0.912203,0.241038,0.566117,0.788297
-0.497813,0.322607,0.815317,-0.310988,-0.629951,0.711651
-0.587863,0.305614,0.926746,0.766547,0.600383,-0.227917
0.221900,0.164275,0.395086,0.070297,-0.758072,0.648372
0.118291,0.536957,0.645659,0.701740,0.685948,0.192449
-0.213063,0.288624,0.924947,-0.667091,0.643083,-0.376078
0.751764,0.205946,-0.442203,0.099293,-0.219471,0.970553
-0.546193,0.068568,0.863175,0.126877,-0.786091,0.604949
0.292329,0.026241,-0.332332,0.938068,0.337290,-0.079147
-0.379521,0.241969,0.865902,0.648967,-0.699248,0.299824
0.366051,0.144463,0.601844,-0.231933,-0.944864,0.231170
0.477887,0.059263,-0.983602,-0.305248,0.206262,0.929666
0.315329,-0.051996,-0.197084,-0.422198,0.354814,0.834180
-0.233247,0.860284,0.820418,0.645585,0.510541,0.567951
0.464029,-0.321343,-0.679791,0.039668,-0.077586,0.996196
0.356044,0.720744,0.786230,-0.359718,0.673483,-0.645773
0.524017,-0.151305,-0.963920,0.115139,0.246730,0.962220
-0.745266,0.154970,0.870670,0.972404,-0.175326,0.153918
0.334258,0.746863,0.820047,0.843671,-0.466810,0.265155
0.374410,-0.482016,-0.294545,0.187304,0.686706,0.702390
0.310565,0.340018,0.462367,0.765450,0.295815,-0.571471
-0.363320,0.159294,0.607390,-0.618075,-0.308607,-0.723011
-0.511671,0.402042,0.900479,-0.004852,-0.744104,0.668047
-0.209250,0.117085,0.561757,-0.520732,-0.167806,-0.837066
0.217308,-0.070789,-0.521356,0.940335,-0.162101,-0.299156
0.300820,-0.708193,-0.455578,-0.389803,-0.082217,0.917221
-0.357171,0.651218,0.944832,-0.012718,0.246160,0.969146
0.146751,0.207027,0.896269,0.703403,-0.501507,-0.503701
0.228658,0.289464,0.702756,0.149877,0.980677,-0.125732
-0.122363,0.075835,0.480527,0.763545,-0.210975,0.610319
-0.249749,0.184991,0.936133,-0.018681,-0.895560,0.444548
-0.702039,0.461663,0.916303,0.427411,0.888924,0.164722
0.098411,-0.010747,0.482753,-0.923151,0.019338,-0.383951
-0.440159,0.451336,0.830416,-0.277949,0.702014,0.655684
-0.367566,0.516003,0.766252,-0.328276,-0.677118,-0.658594
0.358210,-0.004443,-0.747554,0.931008,-0.357818,0.072040
0.169143,0.441251,0.609060,0.057486,-0.920049,0.387562
-0.238836,0.347343,0.858891,0.287410,0.940168,-0.182973
0.331400,-0.227017,-0.219863,-0.471009,-0.856632,0.210551
-0.706068,0.350887,0.930920,0.581757,0.283458,-0.762372
0.087799,0.710300,0.873897,0.951566,0.042682,-0.304469
0.165894,0.199580,0.894711,-0.694460,-0.584707,-0.419336
-0.103045,0.113002,0.850524,-0.612522,0.142032,0.777588
0.367740,0.483699,0.897048,0.943244,0.331923,0.010836
0.858710,-0.275651,-0.492752,0.236339,0.365263,-0.900403
-0.736735,-0.104053,0.907454,0.318032,0.937843,0.138951
0.036429,0.612970,0.674504,0.250563,-0.828137,0.501405
0.266645,0.731793,0.796155,0.545285,-0.524966,0.653510
0.402479,0.291864,0.775026,-0.683576,0.643584,-0.344272
-0.020358,0.241852,0.936225,0.542496,0.806425,-0.235323
0.350543,0.064727,-0.142807,0.350908,0.562879,0.748352
0.194612,0.008647,0.347338,0.999197,0.003191,0.039944
-0.594575,0.224379,0.926487,0.371880,0.666330,0.646304
-0.691168,0.442933,0.890982,0.196120,-0.533855,0.822518
-0.665093,0.481720,0.902724,0.841916,-0.439999,-0.312376
-0.231386,0.216273,0.555488,-0.370409,0.608145,-0.702109
-0.368517,0.279917,0.794726,0.502616,-0.306182,-0.808474
-0.363061,0.322127,0.860783,-0.477888,-0.371449,-0.796021
0.352711,0.464785,0.906471,0.776061,0.220088,-0.591008
0.554208,-0.347461,-0.350047,0.391171,-0.274532,-0.878418
-0.509940,0.151906,0.693425,0.240880,0.965589,-0.098049
0.031924,0.387453,0.838430,-0.280395,0.815334,-0.506565
-0.103695,0.208045,0.936040,-0.165494,-0.877505,0.450106
0.354096,0.099850,-0.417736,-0.290940,0.947285,0.134179
-0.622472,0.062144,0.774247,-0.291329,0.737333,0.609481
0.391692,-0.064064,-0.512081,0.870655,0.472460,0.136901
-0.506302,0.183969,0.838356,0.768374,-0.320019,0.554247
0.510807,-0.598678,-0.501823,-0.700966,-0.299148,-0.647423
0.267771,0.821556,0.827374,0.253659,-0.736460,0.627124
-0.317711,0.512880,0.774971,-0.169724,-0.977451,0.125634
0.026943,0.460824,0.873341,-0.134562,0.860229,0.491833
-0.422835,0.545364,0.909384,0.836700,0.104971,0.537508
-0.259193,0.085381,0.872655,-0.455602,-0.784430,-0.420829
0.748343,-0.585287,-0.320701,0.247528,0.964650,-0.090441
-0.542209,0.423477,0.835091,-0.166076,-0.981314,0.097170
-0.760211,0.315402,0.875326,0.989816,0.018821,0.141101
-0.162126,0.210988,0.723420,0.952583,0.104553,-0.285751
0.209208,0.404443,0.878164,-0.379343,0.407976,-0.830454
-0.165460,0.261363,0.708858,0.915550,0.087026,0.392675
-0.569843,0.148905,0.876773,-0.517853,0.486173,0.703892
-0.168104,0.238367,0.696467,0.988694,0.128812,-0.076756
0.147747,0.504415,0.795617,0.942067,0.156384,0.296739
-0.206350,0.763075,0.804854,0.785408,0.485893,0.383460
-0.855675,-0.136533,0.787399,-0.132872,0.716809,0.684493
0.291290,0.348904,0.472198,0.876124,0.374114,-0.304048
-0.618485,0.200001,0.768367,0.768686,0.097410,0.632165
-0.220341,0.125850,0.860096,-0.016632,0.977967,0.208097
0.673844,-0.540919,-0.330458,0.071753,-0.072490,0.994785
0.311474,0.081420,-0.363867,0.758367,-0.615943,0.213293
0.294018,-0.075051,-0.263252,0.985476,-0.069794,0.154811
-0.286351,0.387512,0.912537,0.979272,-0.058291,0.193978
0.312471,0.119785,-0.191037,-0.033133,0.993532,-0.108609
0.216098,0.352390,0.767643,-0.688948,0.266953,0.673860
0.039244,0.172681,0.379059,0.809567,-0.284835,0.513293
-0.093776,0.605465,0.909124,0.978942,-0.070629,-0.191529
-0.169489,0.304173,0.685356,-0.622640,0.732996,0.273927
0.211765,0.037286,0.186659,0.922331,0.386360,-0.005565
-0.334776,0.399822,0.911684,0.193820,0.977389,-0.084530
-0.519817,0.106516,0.885714,0.762880,0.394182,-0.512479
-0.726512,0.496847,0.906768,-0.397525,0.813000,0.425447
0.573397,-0.185830,-0.355853,0.119920,0.019641,-0.992589
0.305151,0.356289,0.816838,0.609536,0.286808,-0.739058
0.345737,0.176705,0.618836,-0.594388,-0.740303,-0.314092
0.210683,0.645032,0.899255,0.525920,0.850480,0.009599
-0.270975,0.258061,0.700938,-0.619880,0.292280,0.728231
0.124702,-0.531970,-0.714535,0.265372,0.078190,-0.960970
-0.643478,0.448877,0.878943,0.771670,0.030505,0.635292
0.227748,0.730353,0.904505,0.907597,0.270544,0.321052
-0.209250,0.239990,0.926728,0.918922,0.379819,0.106398
0.174385,0.492886,0.748871,0.738266,0.605691,0.296820
-0.211548,0.049838,0.764787,0.953555,-0.294661,-0.062509
-0.598086,0.433023,0.845776,0.840454,-0.142948,0.522687
0.282497,0.107296,0.409129,-0.841940,-0.149368,0.518484
0.193356,-0.639568,-0.471809,-0.091549,-0.703416,0.704858
0.178327,0.226241,0.841027,0.453913,-0.862017,-0.225589
-0.547147,0.205704,0.717039,0.940328,0.176327,0.291019
0.354789,0.041369,-0.319606,0.967300,-0.169236,-0.188920
0.304934,-0.004923,-0.522598,0.409584,-0.899455,-0.152386
0.317972,-0.053795,-0.760631,0.936787,0.079423,-0.340768
0.288950,0.410629,0.881596,0.099162,0.333936,-0.937365
-0.759561,0.239389,0.891872,-0.629968,-0.354266,-0.691112
0.125223,0.157191,0.322333,0.123220,0.979779,0.157641
0.254645,0.073134,-0.281134,-0.487326,0.871839,0.049092
-0.625417,0.157253,0.931402,0.983731,0.010932,0.179315
0.318319,0.111980,-0.286086,-0.521472,0.839854,0.150706
0.346818,-0.344038,-0.960359,-0.246497,0.256627,0.934549
0.147964,0.615132,0.834071,0.360974,-0.907118,0.216411
0.278988,0.071089,-0.008950,0.848245,0.466279,-0.251125
0.243817,-0.256617,-0.252993,-0.818907,0.484928,-0.306979
0.489279,0.393397,0.859132,-0.478971,0.845232,-0.237003
-0.202538,0.194417,0.917694,0.982225,0.043628,0.182567
0.369993,-0.643108,-0.949989,0.494133,-0.188598,-0.848683
0.292374,-0.474991,-0.963271,-0.242068,0.283795,0.927827
-0.023649,0.559114,0.886010,-0.463761,0.059806,0.883939
0.250402,0.672290,0.877069,0.876460,0.243292,-0.415485
0.243946,0.243651,0.873026,-0.724355,0.639888,0.256617
0.066446,0.185592,0.368096,0.381319,-0.900209,0.210285
0.043228,0.205887,0.356521,0.903386,0.001618,0.428825
0.276043,0.583971,0.692145,0.979405,0.170200,-0.108619
-0.660284,0.272712,0.901073,0.176832,0.712077,-0.679468
-0.257416,0.441188,0.705019,-0.719093,-0.661468,0.212990
0.171741,0.004923,-0.123292,-0.390313,0.874421,-0.288175
0.367349,0.894028,0.753657,-0.704708,0.548927,-0.449517
0.368607,0.417533,0.900758,-0.780037,0.576999,-0.242105
-0.384544,0.556292,0.931977,-0.477474,0.679815,0.556661
-0.428553,0.474573,0.925355,0.740227,-0.558193,-0.374812
0.216528,-0.185768,-0.108230,-0.813298,0.465457,-0.349135
0.133453,0.438007,0.908660,-0.339913,-0.338179,0.877550
0.245160,0.661366,0.861098,0.932288,0.216843,-0.289513
0.134534,0.287481,0.909476,0.053205,0.868210,0.493335
0.347035,-0.106032,-0.888923,0.757788,-0.581137,0.296712
0.263005,0.154669,0.413080,0.807653,0.358672,-0.468029
-0.026811,0.171542,0.416307,-0.674797,-0.606181,-0.420943
0.137220,0.166319,0.319755,0.256771,0.933344,0.250873
-0.537053,0.133414,0.687155,-0.288662,0.803224,-0.521062
-0.793347,-0.029660,0.815873,0.945753,-0.284223,0.157380
0.132152,0.723508,0.915152,0.367349,0.787855,-0.494307
-0.248755,0.798981,0.899162,-0.685971,0.493652,-0.534557
0.501712,0.839150,0.748945,0.080031,-0.407564,0.909663
0.283105,0.274754,0.442407,-0.442207,-0.767748,0.463698
-0.053708,0.125129,0.926969,-0.641146,0.565049,0.519280
0.238965,0.135518,0.170335,-0.334346,-0.665261,-0.667563
0.343873,0.763075,0.741878,-0.484554,0.787161,-0.381556
0.271063,0.051817,-0.134144,-0.747194,-0.658008,-0.093419
0.180534,0.794478,0.831956,0.871248,0.369091,0.323571
-0.406246,0.361753,0.865160,0.990441,0.107102,-0.086921
-0.354789,0.402042,0.935947,0.121269,0.515547,-0.848237
0.294798,0.033684,-0.383771,0.903771,-0.424013,-0.058400
0.252004,0.051457,-0.303728,0.356796,-0.893410,-0.272976
0.010092,0.140799,0.901908,0.639592,0.757199,-0.132555
-0.267856,0.801202,0.895786,-0.601849,0.625253,-0.496826
0.192664,0.011109,0.419201,0.746619,0.609002,0.267724
0.314940,-0.289163,-0.577451,-0.467036,0.274487,-0.840556
0.365445,-0.372798,-0.696801,0.035529,-0.041823,0.998493
-0.664097,0.175683,0.784487,0.916877,0.007751,0.399095
-0.237363,0.398799,0.893505,-0.330460,0.562420,-0.757944
-0.211069,0.198382,0.548643,0.416268,-0.456635,0.786260
0.285616,0.482200,0.672389,0.779575,0.553291,-0.293481
0.308963,0.071932,-0.063135,0.873059,0.153112,0.462952
0.376187,0.367517,0.849467,0.833322,0.516143,0.197915
0.319358,-0.063643,-0.804428,0.848602,0.520241,0.096047
0.036817,0.197180,0.389670,0.799326,-0.181909,0.572702
-0.184865,0.155750,0.528071,0.827457,0.062348,0.558057
0.157317,0.680279,0.913465,0.980899,0.175513,-0.083859
0.390695,-0.041006,-0.161449,-0.010058,0.952330,0.304904
-0.471910,0.113240,0.667084,-0.754989,-0.563686,-0.335036
-0.841426,0.089706,0.836148,0.924281,-0.211916,0.317484
-0.813098,-0.023174,0.737741,-0.868133,0.487736,-0.091977
0.148569,0.202581,0.830713,-0.881067,-0.274223,-0.385386
-0.226231,0.094386,0.871449,0.139055,0.742650,0.655084
-0.322128,0.420776,0.935353,-0.479709,0.141511,-0.865941
-0.396369,0.440470,0.874973,-0.678426,0.249913,0.690856
0.368866,-0.548362,-0.347747,-0.228031,0.287438,-0.930259
0.274830,0.075773,-0.179665,0.979366,0.197274,-0.043869
0.193962,0.045033,0.404064,-0.224795,0.950332,0.215258
0.311474,0.576466,0.740022,0.884085,0.385525,-0.264130
0.209512,0.144284,-0.453685,0.139309,0.829062,-0.541524
-0.206998,0.146142,0.543801,0.615149,-0.126865,0.778137
0.408326,-0.011648,-0.291800,0.040005,-0.996309,-0.075953
-0.460389,0.345244,0.907473,0.749495,0.557495,-0.357012
-0.628967,-0.015852,0.821234,0.456245,-0.863158,-0.216331
-0.712088,-0.034164,0.837781,-0.580515,-0.502022,-0.641075
-0.195910,0.275054,0.683686,0.912576,-0.339509,-0.227902
-0.112443,0.125788,0.476613,-0.725087,0.162087,-0.669311
-0.476978,0.579046,0.911257,0.442702,0.852292,-0.278593
0.144368,0.499731,0.883655,-0.096584,0.987677,-0.123152
-0.131893,0.163978,0.837725,-0.598408,0.117710,0.792497
0.349937,-0.482618,-0.957038,-0.061609,-0.195441,0.978778
0.335426,-0.037404,-0.547363,0.945068,0.292529,-0.145854
-0.524797,0.163915,0.710732,0.897605,0.369057,0.241044
-0.497596,0.075292,0.849059,0.294384,0.349943,0.889313
-0.333087,0.457643,0.748333,-0.080783,0.994311,-0.069431
-0.414647,0.466947,0.907584,0.921201,0.302224,0.245049
0.309785,-0.018791,-0.330477,0.865710,0.485182,-0.123064
0.370469,-0.040288,-0.599377,0.418127,0.907109,-0.048202
-0.471519,0.521166,0.837336,-0.284767,0.856233,-0.431014
-0.422142,0.408947,0.964866,-0.697241,0.694912,0.175936
-0.320481,0.779647,0.860560,-0.226170,0.973207,0.041420
-0.804953,-0.069169,0.870540,-0.011749,0.995016,0.099021
0.366009,0.101711,0.499374,-0.454095,-0.826045,0.333836
0.299995,0.518824,0.706540,0.888638,0.310344,-0.337652
-0.557066,0.149447,0.722882,-0.589815,-0.532547,-0.607052
0.834150,-0.261781,-0.498279,-0.271444,-0.219398,0.937114
0.117339,-0.534495,-0.728243,0.677322,-0.684689,0.269140
0.445100,0.063346,-0.447805,-0.186860,0.792327,-0.580776
0.050808,0.583249,0.892243,0.066972,-0.139712,0.987925
0.269027,0.065926,-0.094725,0.790225,0.607380,0.081456
0.077229,0.173044,0.351290,-0.683790,-0.727214,-0.059935
0.279380,0.101352,-0.173655,0.811703,-0.518500,0.268880
-0.000779,0.677816,0.731749,0.984247,0.020683,0.175585
-0.611080,0.271452,0.875289,-0.560159,-0.828376,-0.003803
0.275914,-0.118880,-0.694909,-0.442853,0.371254,-0.816120
0.123058,0.322127,0.846444,-0.180321,0.515712,-0.837571
-0.745137,-0.067545,0.892614,0.884665,-0.390986,0.253964
-0.611381,0.216093,0.758609,-0.605523,-0.789519,-0.100005
0.280115,0.021557,-0.168795,0.839611,0.541044,0.048220
0.491056,-0.071749,-0.975124,0.010297,0.224392,0.974445
-0.730411,0.182407,0.942607,0.999358,-0.025252,0.025432
0.349980,-1.000000,-0.416678,0.469535,-0.876166,0.108950
0.684757,-0.332571,-0.490210,-0.342343,0.005113,0.939561
0.168061,0.549806,0.897975,-0.599834,0.434525,-0.671854
0.320571,0.060465,-0.431871,0.705838,-0.708330,0.007837
-0.202408,0.129753,0.847501,-0.722153,0.479910,-0.498178
0.506519,0.471572,0.703701,0.152090,0.860347,-0.486490
-0.720881,-0.101891,0.885473,-0.463731,-0.885961,0.005127
0.671676,-0.563794,-0.328473,0.087286,-0.232853,0.968587
0.218609,0.176647,0.894265,0.472343,-0.575032,0.668005
0.289254,-0.110657,0.489190,-0.453810,0.581729,0.675017
0.206091,0.190755,-0.267314,0.729999,0.680518,-0.063213
0.285704,-0.569558,-0.458935,-0.255564,0.422078,0.869791
0.277733,-0.119122,-0.990465,-0.007708,0.262435,0.964919
0.209512,0.332216,0.763562,0.954958,-0.212422,0.207202
0.275610,0.030741,-0.075396,0.846551,0.465157,-0.258806
0.207910,0.729693,0.924650,0.411687,0.572296,0.709219
0.416945,-0.086158,0.600954,-0.094112,0.613075,0.784399
0.269892,-0.599817,-0.446340,-0.121455,-0.158725,0.979824
0.266299,0.423356,0.907528,0.489046,-0.061822,-0.870064
-0.108848,0.812431,0.840192,0.172147,-0.574291,0.800347
0.300474,0.000181,-0.442426,0.896569,0.433678,-0.089928
0.211159,-0.227259,-0.115167,0.862531,-0.490507,0.124271
-0.405942,0.581150,0.913242,0.966514,0.094831,0.238449
0.292199,0.636508,0.762561,0.857692,0.397673,-0.325914
-0.609433,0.346805,0.802721,-0.642869,-0.588349,-0.490474
0.350154,-0.163674,-0.726704,0.742644,-0.515684,-0.427259
0.273141,-0.253678,-0.983843,0.414059,-0.155786,-0.896820
0.835839,0.139058,-0.434227,-0.027570,-0.068613,0.997262
0.058520,0.611651,0.672797,0.860222,0.151371,0.486935
-0.314332,0.493366,0.793558,-0.579897,-0.805353,-0.122985
0.202408,-0.032661,0.442073,0.741703,0.586716,0.325024
0.550137,0.121347,-0.266053,-0.083611,-0.431715,0.898127
0.514749,-0.007082,-0.975496,-0.298277,0.257595,0.919063
0.233596,0.210387,0.806209,0.625605,0.688528,0.366807
0.251959,-0.034644,-0.493178,-0.127467,-0.791904,0.597194
0.074025,0.577126,0.889999,0.305503,-0.314681,0.898690
0.205269,0.703693,0.845868,0.693762,-0.640005,0.330284
-0.380126,0.230503,0.929733,0.484286,0.588492,-0.647413
0.391996,-0.060220,-0.917360,-0.334446,-0.878963,-0.339955
0.272839,0.398861,0.521152,0.281339,0.939833,-0.193812
0.384417,0.849895,0.805801,-0.153213,-0.978414,0.138681
0.125527,0.752627,0.782316,0.858205,0.048394,-0.511020
-0.087971,0.576466,0.927525,0.896685,-0.439457,-0.053234
0.334995,-0.112339,-0.744011,0.970149,-0.145658,-0.193893
-0.243817,0.219934,0.577896,-0.539138,0.792857,-0.284092
-0.677178,0.230202,0.857370,0.237094,-0.965779,0.105152
0.234939,-0.772801,-0.706948,0.549813,0.064406,-0.832801
0.290639,0.122666,-0.103258,-0.763876,-0.372516,0.526997
-0.778315,0.168540,0.904802,0.979130,0.084721,0.184735
0.521030,-0.029301,-0.754825,0.694750,0.718008,0.042270
0.299649,-0.148183,-0.985754,-0.190043,0.273449,0.942926
-0.696366,0.084300,0.802536,0.951642,0.191563,0.240169
0.347035,-0.836024,-0.436304,-0.681674,-0.044721,0.730288
0.380779,0.096067,-0.424265,-0.283911,-0.956345,-0.069280
-0.061983,-0.692164,-0.736758,0.321455,0.393863,-0.861126
0.291290,0.131974,0.025052,0.977323,0.209762,0.028973
-0.738641,0.187754,0.858148,-0.684533,0.724139,0.083889
0.296011,0.096130,0.426417,-0.802572,0.272146,0.530862
0.281024,0.579706,0.897771,0.873702,-0.358820,-0.328470
-0.351627,0.589435,0.840526,0.941599,-0.054716,-0.332260
0.262011,0.075593,0.087324,0.589062,0.807756,-0.023177
0.125181,0.753349,0.938414,-0.668437,-0.607447,-0.429186
-0.551261,0.355571,0.843049,0.922916,-0.356486,0.145412
0.216269,0.155329,0.389243,-0.788994,-0.330674,0.517826
-0.651967,0.043051,0.800421,-0.711792,-0.498747,-0.494574
-0.044180,0.215914,0.942514,0.119246,0.956751,-0.265344
0.293629,0.007687,-0.297124,0.477361,0.877123,0.052743
-0.428855,0.167279,0.630578,-0.736779,-0.249734,-0.628323
0.378135,-0.478172,-0.955907,-0.115479,0.023627,0.993029
-0.180405,0.295529,0.589694,-0.387391,0.877217,-0.283583
-0.000995,0.681298,0.732732,0.984247,0.020683,0.175585
-0.445573,0.646535,0.905915,0.730844,-0.625465,-0.273241
-0.547060,0.126748,0.681256,0.267200,-0.874535,0.404714
-0.287866,0.590454,0.887587,-0.644457,0.762345,0.059209
0.349549,0.842573,0.800458,-0.675052,0.711773,-0.194122
0.447308,-0.643350,-0.368207,0.002372,0.173149,0.984893
0.429550,0.061363,-0.994713,-0.151593,-0.008735,0.988404
-0.040238,0.170339,0.445449,0.693458,-0.690584,0.205450
0.320526,-0.145182,-0.454780,0.990819,0.022093,0.133380
0.222289,-0.418493,-0.735070,-0.795644,0.527572,0.297688
-0.380647,0.234464,0.910404,0.806970,0.467289,-0.361164
-0.391129,0.544763,0.844922,0.831615,-0.326341,0.449352
0.238881,0.166198,0.097007,-0.688407,0.713279,-0.131637
-0.478884,0.424320,0.966833,0.346908,0.787801,-0.508944
0.753715,-0.146860,-0.259356,0.028385,-0.641521,0.766580
0.406246,0.096430,0.527514,0.193639,0.980867,-0.020078
-0.672456,0.431583,0.891483,0.724906,-0.281542,0.628686
0.665527,-0.656979,-0.349657,-0.502034,-0.830950,0.239756
0.248713,0.314680,0.905581,0.083541,0.461049,0.883433
0.336901,0.018435,-0.645455,0.774630,-0.631189,-0.039350
-0.665871,0.222158,0.835851,0.168517,-0.931533,0.322254
0.220645,-0.024317,-0.617908,0.034193,-0.995901,0.083735
-0.015549,0.622997,0.863676,0.947930,-0.222237,-0.228122
-0.756787,0.236868,0.881985,-0.722021,-0.358022,-0.592036
-0.164810,0.303573,0.672631,-0.515027,0.843463,0.152701
-0.801749,-0.049054,0.910311,0.778056,0.592590,-0.208486
0.326158,-0.385229,-0.961824,0.588674,0.051022,-0.806759
0.223849,0.156531,0.145886,-0.062528,0.998027,0.005605
0.338028,-0.543858,-0.250044,-0.347702,0.088307,-0.933437
0.031057,-0.169079,0.502694,0.842639,-0.530118,0.094522
0.237623,0.631524,0.903763,0.458653,-0.796201,0.394590
-0.488153,0.404626,0.938730,0.831433,0.466173,0.302328
0.112877,0.583671,0.820381,-0.448240,0.824435,-0.345526
0.399446,-0.080335,-0.128820,0.240448,0.063368,0.968591
0.120543,0.847674,0.773709,0.921966,0.280468,-0.267051
0.313944,0.134975,0.838022,-0.630960,0.774829,0.039115
0.279076,0.541820,0.677732,0.690657,0.482627,-0.538576
0.275221,-0.224438,-0.271061,-0.727094,0.363061,-0.582685
0.619093,-0.622216,-0.339343,0.281576,0.476491,-0.832869
0.131763,0.460523,0.868852,-0.502629,0.528316,-0.684285
0.260969,-0.088922,0.483848,0.259512,0.965509,-0.021125
-0.690171,0.071272,0.704036,0.048788,0.744892,0.665399
-0.806037,-0.034582,0.818248,-0.028608,-0.166360,0.985650
-0.183392,0.261964,0.711159,-0.660811,-0.750256,0.021083
0.029672,0.655839,0.749167,0.741093,0.592835,-0.315164
0.386452,0.003542,-0.452294,0.428267,-0.485860,-0.761923
0.209599,0.419515,0.886456,0.925405,-0.341565,0.164193
0.304892,0.037048,-0.131566,-0.159469,-0.975078,0.154250
0.476719,-0.585588,-0.362679,-0.009905,-0.266280,0.963845
0.218651,0.575502,0.887754,0.255968,0.456934,0.851875
-0.211027,0.837046,0.812627,0.710441,0.593288,0.378527
-0.730237,0.220714,0.884990,0.042271,0.809417,0.585711
-0.188156,0.596820,0.842734,-0.403521,0.856697,0.321312
0.321610,-0.062624,-0.762913,0.926061,-0.059357,-0.372678
-0.016416,0.172080,0.446711,0.636012,-0.736588,0.230060
-0.482392,0.368239,0.882338,0.883537,0.171254,-0.435929
-0.796594,0.303213,0.894043,0.908543,0.197554,0.368134
-0.412178,0.469168,0.994787,-0.716399,0.676959,-0.168816
0.285357,0.276853,0.693759,0.273520,0.953587,-0.125927
0.014079,0.542242,0.896955,0.911261,0.122956,-0.393046
0.307532,-0.556948,-0.960600,-0.338844,-0.054634,0.939255
0.271539,0.056621,-0.111921,0.851814,0.506828,-0.132432
0.061724,0.748724,0.853214,0.099273,-0.963316,0.249333
0.252784,0.384210,0.538533,0.375984,0.893508,-0.245519
-0.584743,0.144100,0.746867,-0.586969,-0.331705,-0.738539
0.205745,0.154068,0.147129,0.390557,-0.844568,0.366291
-0.181227,0.291384,0.767569,0.954616,-0.297306,-0.017837
-0.234894,0.345244,0.852862,-0.106155,-0.874451,0.473357
0.340106,0.001563,-0.685560,-0.464228,-0.125647,0.876758
0.079135,0.719484,0.878683,0.979008,0.189188,-0.075832
0.315591,-0.007324,-0.592031,-0.680000,0.720003,-0.138551
-0.556545,0.294147,0.793613,-0.830562,-0.544200,-0.118377
-0.624290,0.007745,0.808954,-0.078093,0.939762,0.332790
0.291160,-0.127408,-0.770092,0.941758,0.288270,-0.173184
-0.637242,0.025039,0.787603,-0.319279,0.762813,0.562296
0.406809,-0.121405,0.608151,-0.410632,-0.520160,-0.748876
-0.235024,0.753888,0.896417,0.932272,-0.077931,-0.353265
0.200201,0.540681,0.893375,-0.371237,-0.683892,-0.628072
0.209253,0.454278,0.610340,-0.039011,-0.984265,0.172338
-0.500454,0.485861,0.806376,-0.499385,0.817719,-0.286270
0.323775,-0.614828,-0.961861,-0.236003,0.138430,0.961842
0.063889,0.634646,0.672872,0.059130,-0.904368,0.422636
-0.900679,-0.181865,0.811588,-0.632808,-0.664172,-0.398032
0.210725,-0.046169,0.346337,0.970074,-0.202596,0.133835
0.347468,-0.280694,-0.970635,-0.271001,0.082548,0.959033
0.169835,0.844251,0.842066,-0.126147,-0.715928,0.686683
-0.132456,0.246294,0.537605,0.993361,0.083590,0.079030
0.390611,0.080577,-0.087658,0.930558,0.351020,0.104145
0.496557,-0.119181,-0.181743,0.185420,-0.342212,0.921146
0.083252,-0.012066,0.480156,-0.923151,0.019338,-0.383951
0.301338,0.068509,-0.013050,0.834730,0.162024,0.526283
-0.271840,0.400540,0.778681,0.738967,0.645894,0.191699
0.190541,0.286700,0.751579,0.997908,-0.051230,0.039434
-0.152249,0.274574,0.580994,-0.582659,-0.811098,0.051259
0.364232,0.647554,0.758350,-0.021659,-0.566102,0.824050
0.280720,0.322006,0.782687,0.841410,0.369339,-0.394486
-0.573568,0.448814,0.928675,-0.020976,0.695809,0.717920
-0.681638,0.164095,0.797639,-0.897957,0.295466,-0.326148
0.268160,-0.318103,-0.979038,-0.326793,0.184093,0.926993
0.168625,-0.474511,-0.729839,-0.588843,0.802768,0.093950
-0.602633,0.177244,0.742861,-0.626315,-0.701898,-0.339218
0.458787,0.909820,0.795450,0.950909,0.286328,0.117425
-0.877724,-0.081717,0.808175,0.084634,-0.915431,0.393476
0.017934,0.590095,0.719024,0.891174,-0.321285,0.320290
0.230997,0.159052,0.160021,0.190633,0.962715,0.191932
-0.179147,0.796999,0.763562,-0.565296,-0.824104,-0.035961
-0.352579,0.339479,0.959209,0.808049,0.444777,-0.386303
0.025947,0.538639,0.912370,0.893405,-0.362634,0.265187
0.019448,0.140978,0.886808,0.188852,-0.966787,-0.172214
0.317322,0.286583,-0.131417,-0.645170,0.452069,-0.615946
0.439252,-0.760433,-0.386164,-0.410308,0.838932,-0.357548
-0.485943,0.170219,0.672519,0.788655,0.279363,0.547704
-0.241088,0.158931,0.554096,0.533155,0.024615,0.845660
0.239312,0.126990,0.099122,0.955433,0.290778,0.050954
0.561225,0.473012,0.737759,-0.422056,0.805782,-0.415432
-0.724259,-0.046470,0.842882,-0.700701,-0.464629,-0.541422
0.322779,-0.050794,-0.469063,0.934898,0.354707,-0.012212
-0.468489,0.373641,0.895248,0.760995,-0.078241,-0.644023
0.758046,0.062206,-0.276849,0.244140,0.025782,0.969397
0.292849,0.147465,-0.143586,0.412489,0.900513,0.137583
-0.415602,0.405106,0.872803,0.852290,-0.051936,-0.520485
-0.012474,0.418376,0.864085,-0.656599,-0.739020,0.150754
0.787198,0.189433,-0.443872,-0.066876,-0.070712,0.995252
0.180275,0.023177,0.443706,0.731870,0.287516,0.617820
-0.494910,0.452659,0.821197,0.885185,0.051038,0.462432
0.146404,-0.892222,-0.717039,-0.113868,0.242824,0.963364
-0.566118,0.347105,0.941197,-0.015934,0.022359,0.999623
0.376705,0.057460,0.756013,-0.756655,0.155663,-0.635014
-0.726858,-0.076132,0.859985,0.608531,-0.787063,-0.101102
0.236671,0.758153,0.855162,0.903212,-0.420737,0.084781
0.555076,-0.281115,-0.360806,0.255218,-0.176137,-0.950705
-0.381556,0.429183,0.877329,-0.678598,0.387049,0.624257
0.744661,0.053858,-0.279780,-0.200377,-0.109715,-0.973556
-0.661152,0.360734,0.899960,-0.217338,0.874927,0.432743
0.237839,0.416034,0.541890,0.038747,-0.927223,0.372501
0.077663,0.369199,0.884731,0.862805,0.329757,0.383182
-0.159007,0.276736,0.577915,-0.704950,-0.706015,-0.067732
-0.262830,0.173044,0.548142,0.698393,0.054642,0.713626
0.096029,0.289464,0.869037,0.650320,-0.443478,0.616775
-0.172868,0.210449,0.719228,0.987025,0.062455,-0.147924
-0.679948,0.378925,0.879833,0.862263,0.273993,0.425947
0.922468,-0.369438,-0.491787,-0.049964,-0.213637,0.975635
0.597047,-0.322424,-0.187994,-0.280082,-0.215522,0.935470
0.170443,0.234827,0.917249,-0.170314,0.605179,0.777658
0.142634,0.144100,0.320070,-0.162596,-0.985769,-0.042697
0.230217,0.067428,-0.454019,0.423471,0.825635,-0.372826
0.217438,0.140740,0.355667,0.929157,0.298891,-0.217557
0.333911,-0.185948,-0.449308,0.992189,0.027978,0.121566
-0.463421,0.490306,0.927061,-0.471224,-0.534661,-0.701488
-0.344566,0.152866,0.595741,0.761527,0.306430,0.571119
-0.170528,0.269289,0.566692,0.770170,-0.565098,0.295809
0.367653,-0.027260,-0.353979,0.693372,0.658413,0.292792
-0.655433,0.025940,0.796247,-0.198284,0.871098,0.449301
0.238532,0.205403,0.399111,-0.041482,-0.793462,0.607205
0.341404,-0.057578,-0.717410,0.921171,0.289606,0.259946
0.350067,-0.613029,-0.957465,0.469314,-0.079243,-0.879468
0.357951,0.099970,0.473738,0.976346,0.035702,-0.213246
0.237234,0.202882,0.406123,-0.371870,-0.623975,0.687290
-0.603151,0.088683,0.933202,0.259175,-0.751694,0.606453
0.332915,0.015731,-0.570160,-0.558503,0.829438,-0.010300
0.225451,0.295950,0.907046,-0.442006,0.158756,-0.882852
0.241956,-0.062202,-0.574576,0.528006,0.237514,0.815351
0.233250,0.226119,0.677713,0.085078,-0.712686,0.696305
-0.131415,0.119364,0.846833,-0.210965,0.397623,0.892967
0.229350,-0.045752,-0.560978,0.927005,0.362650,0.095635
-0.380039,0.517505,0.813573,0.453963,0.826506,0.332874
0.162994,0.497448,0.635011,0.643324,0.765204,0.024443
0.241522,0.128251,0.390690,-0.597982,-0.123462,0.791944
0.168537,0.449115,0.637998,0.609279,0.726759,-0.317175
0.172046,0.144042,0.305750,0.834700,0.537881,-0.118152
0.105948,0.324226,0.868759,0.571896,-0.810062,-0.129362
-0.171221,0.262807,0.678270,0.851614,-0.450487,-0.267983
-0.141463,0.202523,0.502898,0.413419,-0.789967,0.452810
-0.170658,0.606245,0.903819,0.207136,0.894530,0.396119
-0.391129,0.527290,0.871783,0.896754,-0.310706,0.315110
0.086284,0.707236,0.890667,0.797944,0.601112,0.044152
0.337811,-0.490302,-0.955406,-0.162446,0.162638,0.973222
0.422404,-0.024797,0.606092,0.668665,-0.696659,-0.259910
0.081086,0.710000,0.896454,-0.705516,-0.643500,0.296909
0.221250,0.227080,0.404491,0.617828,0.473495,-0.627766
0.551393,0.032965,-0.275996,0.185579,0.523144,-0.831794
-0.479318,0.378925,0.906879,0.788125,0.548826,-0.278658
-0.271451,0.323508,0.682777,-0.482459,-0.060994,-0.873793
0.556548,0.152148,-0.982433,0.293505,-0.345897,-0.891184
0.380171,-0.258241,-0.962826,-0.213430,-0.293877,0.931710
-0.671589,0.456320,0.894877,0.806638,-0.251723,0.534762
0.441505,-0.151485,-0.363663,-0.078264,-0.023551,0.996654
0.412139,0.443413,0.736924,0.401757,-0.414240,-0.816699
0.326850,-0.036026,-0.777697,0.658647,-0.687150,0.306611
0.208994,0.036205,0.199699,0.833179,0.474663,-0.283738
0.331529,0.064185,-0.450903,0.786699,-0.570784,0.235182
-0.791007,0.237227,0.902539,0.787886,-0.002764,0.615815
-0.764240,0.039210,0.832030,0.674292,0.736831,-0.049100
0.369734,0.082560,0.485091,0.990845,0.040136,-0.128899
-0.182396,0.261246,0.949470,0.692011,-0.022074,-0.721549
-0.211720,0.042629,0.968502,0.783535,-0.050163,0.619319
0.255079,-0.326689,-0.730877,0.492104,-0.437558,-0.752580
-0.586866,0.203065,0.845461,0.831757,-0.356304,-0.425708
-0.496253,0.066706,0.723179,0.741243,0.526142,0.416814
0.269807,-0.433921,-0.572016,-0.130830,0.089704,0.987338
0.342141,-0.065446,-0.719859,0.961977,0.227777,0.150726
0.497641,-0.041189,-0.976571,-0.033864,0.249984,0.967658
0.150647,0.626298,0.848280,0.459539,-0.852359,0.249617
0.338546,-0.227560,-0.572071,-0.616780,0.181298,-0.765972
-0.479186,0.212190,0.850358,-0.410978,0.760537,-0.502674
-0.718673,0.196220,0.812794,0.126515,-0.990141,-0.060114
-0.042663,0.711319,0.937653,-0.627419,0.771285,0.107075
0.309396,0.169559,0.624605,-0.745907,-0.584345,-0.319631
0.247587,0.365476,0.480138,0.613272,0.785268,0.085162
0.268377,0.103752,-0.110604,0.991933,0.123812,-0.027194
0.451900,-0.264485,-0.961194,-0.111273,0.149603,0.982465
0.284662,-0.309095,-0.978018,-0.283303,0.169023,0.944018
0.500975,-0.304833,-0.357430,-0.041097,0.199113,0.979114
0.174903,0.675955,0.887587,0.530180,0.367374,0.764164
-0.107550,0.234885,0.847389,0.267806,-0.278857,0.922236
-0.145622,0.253198,0.556842,0.879607,-0.050921,0.472968
0.274743,-0.093063,-0.184266,0.162924,-0.030394,0.986170
-0.522328,0.575986,0.879481,-0.097264,0.977856,-0.185301
-0.142936,0.128852,0.745569,-0.699640,0.630575,0.335976
0.045047,0.197121,0.361455,0.796761,0.485999,-0.359133
0.266515,-0.033563,-0.769795,-0.391098,-0.797577,0.459253
0.226535,-0.104533,-0.699917,-0.115759,-0.292226,0.949317
-0.242299,0.474453,0.955684,0.944906,0.144172,0.293882
0.254127,0.085620,0.398945,-0.600141,0.447774,0.662820
-0.220470,0.124348,0.875957,0.768079,-0.511281,0.385548
0.282280,0.026838,0.001048,0.994988,-0.088938,-0.045698
0.263742,0.185412,0.125073,-0.110071,-0.993033,-0.042072
0.289688,-0.148183,-0.706503,0.984022,-0.167970,-0.059053
-0.202972,0.184632,0.884675,0.983033,0.181436,-0.026957
0.361763,-0.279316,-0.970988,0.407772,-0.025849,-0.912718
0.363756,0.009127,-0.667511,-0.418362,0.822744,-0.384792
0.253781,0.320144,0.874417,0.853014,-0.176111,-0.491275
0.738337,-0.515281,-0.156311,0.420421,-0.276658,-0.864122
0.256596,0.224438,0.946706,-0.354186,0.902558,0.244829
0.492658,0.079796,-0.983787,-0.343147,0.170317,0.923711
0.816043,-0.213689,-0.481881,0.339301,0.393980,-0.854198
-0.969679,0.087001,0.809010,-0.357331,0.022190,0.933714
0.006629,0.416694,0.850951,-0.639516,0.621471,-0.452541
-0.387922,0.299252,0.913335,0.878296,0.089988,-0.469572
0.220904,0.113299,0.196861,0.914342,0.392841,-0.098261
-0.927317,-0.096848,0.802684,0.007734,-0.972923,0.231000
0.204489,0.798139,0.815558,-0.187326,-0.919487,0.345620
0.237234,0.145845,0.159928,0.054181,0.960076,0.274441
-0.507299,0.398440,0.878387,-0.391392,0.493047,0.776992
0.319879,-0.204861,-0.691681,-0.340079,-0.189033,0.921202
0.330099,-0.090541,-0.987534,-0.359962,0.645565,0.673553
-0.240914,0.373762,0.780573,0.591623,0.804759,0.048441
0.463812,0.049896,-0.285845,0.245881,0.229037,-0.941852
-0.176289,0.167518,0.522190,-0.195097,-0.929049,-0.314333
0.275523,0.242570,0.676637,0.987155,-0.159707,-0.004213
0.250836,-0.130472,-0.562815,0.597360,0.389215,0.701194
0.397323,0.097449,0.516310,0.361875,0.893601,-0.265562
0.278121,0.696129,0.817413,0.677101,-0.603089,0.421685
0.732534,-0.248331,-0.485628,0.179407,-0.079482,-0.980559
-0.770001,0.221916,0.898179,-0.747311,0.162214,-0.644370
-0.625588,0.542000,0.896083,-0.442245,0.892252,0.091132
-0.755014,0.078177,0.873897,0.910214,0.136701,0.390926
0.415731,-0.075172,-0.929102,0.387654,0.917678,0.087128
0.188201,-0.272408,-0.714090,-0.658482,0.090148,-0.747178
0.533114,0.039269,-0.277461,0.205749,0.380894,-0.901436
-0.833151,0.069891,0.907566,-0.281289,0.456978,0.843829
-0.691123,0.171780,0.908419,0.332639,0.915520,0.226218
0.383809,-0.496067,-0.953495,-0.206668,0.200705,0.957604
0.316672,-0.533952,-0.956037,-0.350676,-0.010964,0.936433
-0.892145,-0.130772,0.788772,-0.197488,-0.969418,-0.145694
-0.806124,0.056441,0.907751,-0.166307,0.942280,0.290604
0.368954,0.044132,-0.515865,0.094389,0.985136,-0.143517
0.326850,0.038968,-0.682072,0.568873,0.653314,-0.499565
-0.134275,0.143862,0.493642,0.695605,-0.432388,0.573738
0.094860,0.548545,0.891241,0.958239,0.147275,-0.245128
0.308183,-0.028758,-0.333816,0.865710,0.485182,-0.123064
0.341536,0.012850,-0.654897,-0.576328,0.807629,0.124823
0.394812,-0.074512,-0.873267,-0.199557,0.975880,0.088512
0.161997,-0.922664,-0.723495,0.002514,0.316541,0.948575
-0.660284,0.495770,0.889980,0.827207,-0.471302,0.305945
0.274830,0.169559,-0.127262,0.912834,-0.283028,0.294330
0.659290,-0.747163,-0.330273,-0.216449,0.255216,0.942345
0.100446,-0.614047,-0.502490,-0.287385,0.924367,0.250912
0.434227,0.814230,0.755048,-0.545508,0.044136,0.836943
-0.484211,0.215012,0.844997,-0.681649,0.537545,-0.496387
0.165764,0.042450,0.444280,-0.606388,-0.603122,-0.518207
0.254474,0.470791,0.627313,0.262637,0.880790,-0.393993
-0.063498,0.756112,0.725721,-0.426418,-0.896411,-0.120890
-0.125916,0.080577,0.913687,-0.322380,0.925739,-0.197682
0.466887,-0.143621,-0.515846,-0.089004,-0.059566,0.994249
0.055141,0.364036,0.893022,-0.016318,0.170257,0.985265
0.648591,-0.564695,-0.354443,-0.557760,0.082215,-0.825920
-0.195910,0.080218,0.733549,-0.813507,0.540441,0.214779
0.241480,0.333656,0.867943,0.974797,-0.069174,-0.212099
-0.218522,0.267127,0.720749,-0.707705,0.592337,-0.385085
0.198512,0.106695,0.241956,0.879573,-0.420575,-0.222415
0.342316,-0.969917,-0.398870,0.980550,-0.178380,0.081871
0.557545,0.055719,-0.974179,0.302832,-0.176678,-0.936524
-0.065317,0.626899,0.933276,-0.438975,-0.541099,-0.717296
0.272578,0.559532,0.684707,0.885937,0.194879,-0.420878
-0.023173,0.675115,0.791944,0.877955,-0.407743,0.250878
-0.447046,0.534256,0.907232,0.670529,0.232964,-0.704357
0.223590,0.442933,0.907232,-0.192567,0.588172,0.785475
-0.007882,0.726329,0.810438,-0.434876,0.900488,-0.002050
-0.703036,0.192375,0.932664,0.549096,-0.700416,0.455972
-0.430414,0.192496,0.763618,-0.830754,0.433887,-0.348696
0.273574,0.268271,0.674448,-0.464436,0.772651,-0.432793
-0.005283,0.566619,0.932571,0.126657,-0.690802,0.711864
0.835665,0.005884,-0.265867,-0.067684,0.316993,0.946010
0.312947,0.109517,-0.244108,0.167423,-0.970040,-0.176044
-0.193917,0.167639,0.903058,-0.111369,0.962874,0.245908
-0.220772,0.044311,0.881299,0.465622,0.862021,0.200290
0.400184,0.305434,0.810475,0.792912,-0.321421,0.517667
0.199204,0.273614,0.682703,-0.000776,-0.850745,0.525579
-0.383809,0.683640,0.835981,0.946540,-0.099077,0.306995
-0.014423,0.569800,0.888904,0.800825,-0.044501,-0.597243
0.304024,-0.381865,-0.267833,0.161733,0.278011,0.946865
0.355048,0.092766,0.466411,0.928333,-0.130184,-0.348209
-0.239701,0.210328,0.975458,0.973465,-0.216507,-0.074096
0.346604,-0.329210,-0.959784,0.414269,-0.504882,-0.757282
0.320658,-0.031522,-0.994732,-0.303077,0.284196,0.909603
-0.402087,0.726751,0.909068,0.953831,-0.194164,-0.229145
-0.817904,0.337137,0.904653,0.225414,0.960216,0.164842
-0.460778,0.156051,0.789217,-0.452344,0.878257,0.155076
-0.169965,0.206367,0.931551,-0.589667,0.785506,-0.187812
0.007322,0.193757,0.404231,0.778877,-0.002006,0.627173
-0.814441,0.097991,0.803000,0.842871,0.141318,0.519228
0.069737,0.379948,0.839487,-0.372212,-0.849957,0.372868
0.504959,0.050017,-0.983917,-0.302442,0.038548,0.952388
0.182657,0.020715,-0.538440,0.766180,0.642374,-0.018002
0.334041,0.058003,-0.200275,0.959844,0.204176,0.192384
0.336598,0.130593,-0.134997,0.518285,0.457153,0.722767
0.336598,0.003604,-0.350511,0.602150,0.785969,-0.140244
-0.127690,0.163014,0.499040,-0.439028,0.603549,-0.665569
0.117123,0.555270,0.845479,0.946770,-0.043008,-0.319025
-0.268982,0.412670,0.697469,-0.564406,-0.762634,0.315967
-0.224713,0.270191,0.919122,0.216450,0.777436,-0.590545
-0.603759,-0.030679,0.869427,0.628679,-0.671482,0.392268
0.163340,0.880938,0.884842,0.988884,0.147526,0.018569
0.282930,0.011230,-0.683241,-0.354802,0.286626,-0.889922
0.205137,0.404564,0.563724,-0.505612,-0.820987,0.265210
0.180622,0.276014,0.732862,0.910018,0.399436,0.110987
-0.775933,0.179648,0.887086,0.884185,-0.305554,0.353345
0.284273,-0.636083,-0.456208,-0.202428,0.162828,0.965666
-0.042533,0.554790,0.858464,0.990828,-0.133693,-0.019624
0.256163,0.681356,0.827782,0.203103,-0.964309,0.169874
0.246244,-0.000958,-0.713533,0.784274,0.554535,-0.278217
-0.289989,0.564157,0.906434,0.819834,-0.562376,-0.107724
0.735437,-0.239987,-0.495312,-0.218329,0.793640,0.567863
0.947200,-0.280276,-0.261786,0.186470,-0.035323,-0.981825
0.409191,0.117865,0.631505,0.626074,0.644614,-0.438754
0.163686,0.713422,0.924557,0.956267,-0.232599,0.177344
0.218046,-0.016090,-0.172802,-0.565766,0.713714,-0.412942
-0.653181,0.247433,0.934704,-0.559341,-0.824048,-0.089902
-0.405508,0.204084,0.796025,0.832654,-0.522109,-0.184632
-0.129683,0.112460,0.859688,-0.151701,0.876783,0.456332
-0.001733,0.685560,0.730859,0.991166,-0.050433,0.122664
-0.678217,0.202823,0.805021,0.798198,-0.525041,0.295317
-0.552649,0.364336,0.886734,0.683310,0.494255,0.537400
0.192447,0.113541,0.364256,0.953051,0.270806,-0.135494
0.376187,-0.121706,-0.802536,-0.139511,-0.983860,-0.112058
-0.555594,0.536715,0.859633,0.507177,-0.821767,0.259751
0.240050,0.114801,0.374069,0.777463,0.228278,-0.586038
0.309180,0.035066,-0.598227,0.696099,-0.716425,-0.046706
-0.147961,0.041369,0.798362,-0.632283,-0.045352,0.773409
-0.254775,0.065446,0.919809,-0.003429,-0.802256,0.596970
-0.795988,0.111258,0.810549,0.952402,0.117093,0.281461
-0.194263,0.276974,0.944573,-0.646593,0.006055,0.762811
0.385672,0.485560,0.924743,0.766089,0.634845,0.100397
0.103132,-0.711557,-0.739262,-0.296800,0.475446,0.828167
0.356869,0.081600,-0.459862,0.472484,0.881339,-0.001065
-0.230173,0.844072,0.820752,0.645585,0.510541,0.567951
-0.701952,0.225760,0.893913,-0.349105,0.798998,0.489620
-0.338588,0.421736,0.951084,0.501783,-0.786044,-0.361037
0.646080,-0.432782,-0.169315,-0.709564,0.198359,0.676145
0.061335,0.770522,0.899385,0.935945,-0.027245,-0.351091
-0.505001,0.175866,0.679883,-0.586994,-0.738630,-0.331459
0.304024,0.083278,0.109268,0.914409,0.310839,-0.259297
0.043141,0.723148,0.846499,0.288603,-0.935096,0.205680
0.342530,-0.036623,-0.069757,0.785710,0.311252,0.534587
0.188547,0.256980,0.791332,-0.778547,-0.552435,-0.297792
0.170615,0.181748,0.918009,0.996477,0.081501,-0.019782
0.724608,-0.784268,-0.331033,0.295277,-0.282478,-0.912698
-0.745657,0.362955,0.886938,-0.598128,0.797223,-0.081719
0.015335,0.108799,0.899051,0.947518,-0.109105,-0.300509
0.016633,0.151426,0.898699,0.029469,-0.982345,0.184744
0.896393,-0.348241,-0.259653,-0.216119,-0.029035,0.975935
-0.587559,0.264368,0.862230,0.318442,0.943239,0.094316
-0.649977,0.285139,0.945259,0.915790,-0.153163,-0.371308
-0.215490,0.155509,0.536938,0.354085,-0.658739,0.663843
-0.398058,0.508256,0.811885,-0.078301,0.938615,0.335961
-0.806600,0.129273,0.843698,-0.450382,0.892768,0.010990
0.260147,0.085022,0.059295,0.976724,0.176595,0.121757
-0.201282,0.234706,0.874602,0.870500,-0.270985,0.410849
0.200764,0.306035,0.866626,0.798387,0.594855,-0.093413
0.321653,0.725849,0.826020,0.817799,0.063919,-0.571943
0.313380,0.783249,0.835981,-0.668314,0.074655,0.740123
0.010180,0.481899,0.864177,0.505916,-0.573682,0.644156
-0.082514,0.084839,0.967148,0.198714,-0.979596,0.030070
-0.872439,-0.105493,0.779831,0.366367,-0.463051,-0.807068
-0.605015,-0.015668,0.880594,0.789665,-0.462745,0.402859
-0.567287,0.326990,0.772003,0.102938,-0.912619,0.395640
0.461430,0.380608,0.763970,-0.580332,0.315318,0.750859
-0.587300,0.235424,0.930586,0.413629,0.035282,0.909761
0.267163,0.257823,0.677398,-0.210581,0.806278,-0.552784
0.311691,-0.530229,-0.463610,-0.083388,0.167373,0.982361
-0.414431,0.216811,0.926171,0.398402,0.699591,-0.593168
0.482392,-0.256020,-0.959394,-0.049918,0.249353,0.967125
0.341449,0.427380,0.865939,0.471590,0.513247,-0.717064
0.552347,0.081119,-0.979539,-0.329722,0.197140,0.923266
-0.052193,0.606304,0.930679,0.285118,0.952932,0.103095
-0.402000,0.281899,0.870076,-0.673472,-0.145157,-0.724820
-0.117511,0.387871,0.946149,0.917588,-0.139768,-0.372152
0.752632,-0.008944,-0.272007,-0.143437,-0.287379,-0.947016
0.266212,0.498170,0.662002,-0.145024,-0.696854,0.702398
0.142288,0.276556,0.889869,0.733636,0.439973,0.517883
0.320397,0.716123,0.805485,-0.220521,0.854283,-0.470714
0.007105,0.759894,0.810048,-0.434876,0.900488,-0.002050
0.285140,0.070250,-0.268112,0.886278,-0.431084,-0.169343
0.261836,0.119364,-0.123774,0.933170,-0.204393,0.295664
-0.674751,0.230682,0.800885,0.401573,-0.899405,0.172653
0.450948,0.047016,-0.988777,-0.219860,0.106875,0.969660
0.188677,0.618914,0.847705,-0.461316,0.757760,0.461507
-0.445573,0.120687,0.807655,0.960645,-0.254211,0.111977
-0.184085,0.343023,0.943126,0.728587,-0.632250,-0.263479
-0.051543,0.136595,0.442945,-0.597816,0.795307,-0.100511
0.364362,0.064665,-0.217526,0.958513,-0.010550,-0.284852
0.690087,-0.590634,-0.358172,-0.685886,0.557037,-0.468263
-0.805128,-0.043590,0.907176,0.872584,0.488045,0.020218
0.487505,-0.481896,-0.470826,0.460117,0.227389,0.858246
-0.040973,0.707596,0.912648,0.560047,-0.782022,-0.273476
0.286309,0.731313,0.809733,-0.351823,0.537951,-0.766048
-0.212544,0.026780,0.761132,0.953555,-0.294661,-0.062509
0.499243,-0.352807,-0.309664,-0.666245,-0.643680,-0.376556
-0.489713,0.523028,0.949507,-0.316822,0.507910,0.801031
0.294105,0.007027,-0.508259,0.552099,-0.833407,0.024889
0.303461,0.184210,0.647532,0.000492,-0.937153,0.348918
0.275393,0.113720,0.123496,0.506152,0.511845,0.694137
-0.008662,0.431942,0.871820,0.913065,0.316553,0.257112
0.543813,-0.368298,-0.515939,-0.102551,0.149582,-0.983417
-0.249620,0.179948,0.968632,0.807292,-0.589311,-0.031497
-0.377786,0.760675,0.921144,-0.667479,0.737001,-0.106307
0.065362,0.596098,0.657939,0.875339,0.147924,0.460325
0.425867,0.029781,-0.553391,-0.000876,-0.960801,0.277237
-0.544115,0.370702,0.881800,-0.136983,-0.980338,-0.142035
-0.445835,0.348967,0.969782,0.168825,-0.894069,0.414897
0.382466,-0.029180,-0.722418,-0.010366,-0.374382,0.927217
-0.821066,0.258061,0.873638,-0.223827,-0.945343,0.237124
-0.777882,0.313899,0.904190,-0.430251,0.873554,0.227567
0.185647,0.740021,0.724348,-0.062043,-0.645522,0.761218
0.429246,0.949446,0.766512,-0.202539,0.974465,-0.096935
-0.496729,0.278535,0.877756,0.953660,0.199038,0.225646
-0.547147,0.129871,0.692887,-0.356812,0.758879,-0.544783
0.312341,-0.070609,-0.613456,-0.153580,-0.979716,0.128726
0.297225,-0.013748,-0.366241,-0.678526,0.492107,0.545374
-0.154761,0.409606,0.856294,-0.253761,-0.640029,0.725237
-0.254992,0.338339,0.851749,-0.033230,-0.941648,0.334954
0.365530,0.879436,0.786323,0.916528,-0.330622,0.225089
-0.614458,0.346625,0.931050,-0.191056,0.172855,-0.966239
-0.145926,0.396699,0.905340,0.878290,-0.459066,-0.133664
0.268202,0.159474,0.106319,0.425485,0.823050,-0.376233
0.302248,0.336895,0.673187,0.998579,-0.053211,0.002861
0.466929,-0.345482,-0.360119,0.029766,0.121574,0.992136
-0.603543,0.164095,0.700511,0.232578,-0.620823,0.748656
-0.397582,0.176584,0.622935,0.829334,0.277555,0.484942
0.186078,0.420717,0.901815,0.726576,-0.151538,0.670167
-0.358080,0.322907,0.712402,-0.592945,-0.676656,-0.436524
-0.854073,0.109337,0.900072,0.643310,-0.757882,-0.108474
0.305063,0.576646,0.742304,0.884085,0.385525,-0.264130
0.119721,-0.554247,-0.736220,0.631054,-0.775592,0.015103
0.665352,-0.271147,-0.357745,0.167471,-0.243259,0.955394
-0.029886,0.713001,0.703850,0.763406,0.644852,0.037103
0.275047,0.073915,-0.261452,0.968886,-0.018296,-0.246829
0.213975,0.497390,0.862638,-0.289153,0.477906,0.829456
-0.647679,0.158092,0.911368,0.571011,0.033425,-0.820262
0.289082,0.071390,0.035737,0.945505,-0.302958,-0.119318
0.357432,-0.959769,-0.433707,-0.246646,0.822202,0.512981
-0.239658,0.351668,0.780944,0.585152,0.808395,0.063997
-0.794212,0.287001,0.908196,0.969080,0.140378,-0.202922
0.036299,0.609129,0.703257,0.960931,0.130087,0.244312
-0.325983,0.200903,0.823590,0.670690,-0.358635,-0.649273
0.255729,0.425218,0.587764,0.207711,0.970222,-0.124602
0.294280,-0.094807,-0.702329,-0.555469,0.741464,-0.376411
-0.038549,0.196700,0.434208,-0.628315,-0.726839,-0.277355
-0.400007,0.513602,0.825705,0.039257,0.999218,0.004744
0.817733,-0.243109,-0.269614,-0.239300,-0.096071,0.966181
-0.161042,0.234046,0.876754,0.881562,-0.092149,0.462986
0.287089,0.117744,-0.259579,0.731533,-0.575345,0.365839
-0.050245,0.114681,0.946298,-0.545488,0.835700,0.063626
0.241522,0.518945,0.896065,0.413278,0.425188,0.805243
0.573397,0.196098,-0.984641,-0.296630,0.299976,0.906656
-0.068090,0.611468,0.930085,-0.065347,0.988721,0.134761
-0.041669,0.219996,0.459603,0.800919,0.486341,0.349286
0.175165,0.122486,0.243348,0.823697,0.539501,-0.174535
0.294280,0.062265,0.122550,-0.110590,-0.589260,0.800339
-0.173127,0.305676,0.868203,0.992652,-0.093956,0.076253
0.384546,-0.451395,-0.695558,-0.084455,0.612914,0.785623
-0.036167,0.605344,0.930809,0.255974,0.966229,-0.029637
0.278338,0.138637,0.059833,0.461529,-0.866635,0.189566
-0.230260,0.169739,0.553169,0.342122,-0.006707,0.939632
0.332180,-0.010688,-0.714980,0.869721,-0.483664,-0.098258
-0.270108,0.441251,0.695706,-0.529612,-0.781551,0.329681
0.209253,0.770342,0.877682,0.033296,0.975213,0.218748
0.347685,-0.221315,-0.974902,-0.375283,0.076490,0.923749
-0.738163,-0.055056,0.904023,0.854749,-0.440453,-0.274600
0.456664,-0.318521,-0.660610,0.011804,0.047529,0.998800
-0.119158,0.756592,0.743732,0.637101,0.687657,0.348181
-0.400874,0.573824,0.901722,0.923946,-0.382361,-0.011132
0.207088,0.841191,0.922016,-0.412111,-0.618663,-0.668896
0.260668,0.069290,-0.210570,0.981104,-0.148025,-0.124593
-0.380864,0.722426,0.849857,0.050557,-0.843770,0.534318
0.186036,0.223536,0.917119,0.304694,-0.508245,-0.805511
0.325335,-0.500149,-0.963457,0.392093,-0.023282,-0.919631
