0.332616,0.130943,-0.199827,-0.682028,0.720468,-0.125553
0.720329,0.295388,0.154086,-0.756922,-0.455916,0.468198
-0.338511,-0.387662,-0.179987,0.906860,0.352183,0.231457
0.130486,-0.161363,0.685443,0.761508,-0.237129,-0.603221
-0.126290,0.506985,0.566654,-0.229654,-0.688429,0.687986
-0.479423,0.358585,0.667045,-0.584232,0.709902,-0.393335
-0.684390,0.006680,0.411395,0.467753,0.787004,0.402284
-0.350866,-0.166864,0.367675,0.989967,-0.124973,0.065930
-0.365604,0.121173,0.738037,0.911852,0.317370,-0.260389
-0.586783,-0.634509,-0.975795,0.497163,-0.391563,-0.774279
-0.734043,-0.634283,-0.991198,0.134874,0.223972,0.965218
0.666026,0.343437,0.416085,0.094081,0.856068,0.508229
-0.533272,0.469494,0.678805,-0.405208,0.274694,-0.871980
-0.198842,-0.347479,-0.969374,-0.283140,0.311645,0.907033
-0.295318,-0.617668,-0.930415,0.948710,-0.294136,0.115907
-0.368326,0.042259,0.519939,0.987845,-0.094303,-0.123566
-0.325019,-0.690745,-0.955594,0.341872,-0.072874,-0.936917
0.344178,0.226580,0.501145,0.955315,-0.106790,0.275624
-0.460606,0.254979,0.654564,0.210176,0.861988,0.461305
-0.630426,-0.676830,-0.986942,-0.371634,0.225537,0.900567
0.424895,-0.142727,-0.153401,-0.272000,-0.837204,0.474452
0.604693,0.240838,0.265588,0.044787,0.941112,0.335114
-0.193967,-0.651343,0.180925,0.439746,-0.311484,0.842378
0.004987,-0.160918,-0.124001,-0.866749,0.416381,0.274542
0.045572,-0.425941,-0.948343,-0.179446,0.290445,0.939915
-0.087860,1.000000,0.495951,0.270135,0.639644,-0.719641
-0.403356,0.000164,0.718738,-0.043955,-0.956484,0.288456
-0.321846,0.656728,0.548726,-0.347684,0.507023,-0.788697
0.060653,-0.588146,-0.932760,-0.298834,-0.029244,0.953857
-0.274460,-0.094802,-0.168083,0.975687,-0.041067,0.215288
0.182858,-0.521695,-0.930343,0.123224,-0.172172,-0.977329
-0.304953,0.026206,0.718341,-0.589823,0.450306,0.670324
0.359598,0.557500,0.247912,0.664727,-0.701313,0.257483
-0.560140,-0.323685,0.120971,-0.748749,-0.662078,-0.032052
-0.182519,-0.459505,-0.535812,0.379096,-0.815344,-0.437607
-0.706383,0.037662,0.475245,0.916883,-0.375212,-0.136169
-0.186598,-0.380482,0.103692,0.341375,0.827235,0.446257
-0.310734,-0.339168,-0.976156,-0.301540,0.189989,0.934333
-0.366510,-0.348603,0.796440,0.364285,0.921362,0.135605
-0.677474,0.159006,0.492993,0.861345,-0.277173,0.425747
0.599933,0.479710,0.430045,0.525135,0.699760,-0.484323
0.966445,0.259021,0.327526,-0.389126,0.055048,-0.919538
-0.326831,-0.531684,-0.607020,0.946699,0.279340,0.160408
-0.300531,0.285290,0.329834,0.000758,-0.761035,0.648710
-0.215960,0.367457,0.135328,-0.808933,0.585522,-0.052846
-0.451877,-0.337826,0.438090,0.587487,-0.781826,-0.208823
-0.321618,0.379804,0.642732,0.666136,-0.013928,-0.745701
-0.032761,-0.789417,-0.939181,0.319679,-0.065599,-0.945252
0.285229,0.355783,-0.206212,-0.650731,-0.184287,0.736605
0.289765,0.030927,-0.461248,-0.530073,-0.018137,0.847758
-0.194309,-0.040245,0.782082,0.889519,-0.086871,-0.448564
0.085251,-0.325699,0.252133,-0.130223,0.742457,-0.657115
0.506633,0.038559,0.311112,0.722320,0.133545,-0.678543
0.011903,-0.523716,-0.432174,0.046852,-0.969233,0.241644
-0.576691,-0.575800,-0.987916,-0.251702,0.107332,0.961835
0.108946,0.017567,-0.015457,0.397690,0.803588,-0.442821
-0.174583,-0.659653,0.150371,0.118032,-0.854845,-0.505281
-0.238974,0.200422,0.688040,0.882507,0.218577,-0.416420
-0.456977,0.168769,0.922299,0.709219,-0.576568,-0.405682
-0.231266,0.070438,-0.261079,0.961399,-0.235910,0.141628
-0.181499,-0.651343,-0.930704,0.337296,-0.064384,0.939195
-0.266748,-0.440199,0.239652,0.619889,-0.744523,0.247836
-0.299511,0.173373,0.319734,0.953519,0.164740,0.252312
-0.102594,-0.133074,0.482171,-0.707979,0.576718,0.407629
-0.306880,-0.552115,-0.677218,0.469371,0.866064,-0.172116
-0.331596,-0.697034,-0.957614,0.305555,-0.087144,-0.948178
0.380342,0.079530,0.100554,0.904685,0.179668,-0.386347
0.073007,0.121289,0.581047,-0.577553,0.753359,-0.314455
-0.706154,0.350281,-0.245748,0.402240,0.896054,-0.187855
-0.771795,-0.024302,0.664556,-0.564632,0.509118,0.649607
-0.732455,0.005440,0.624371,-0.024569,-0.295474,0.955035
-0.241921,0.882917,0.484732,-0.508138,-0.055238,0.859502
-0.037864,-0.458944,-0.947478,-0.053750,0.264137,0.962986
-0.302233,0.554690,0.546453,-0.441328,-0.623914,0.644950
-0.176624,0.485430,0.426330,0.090307,-0.980312,-0.175595
-0.268564,0.348377,0.119204,-0.634821,0.772117,0.028932
-0.327966,-0.321102,0.736125,-0.225300,-0.817827,0.529528
0.137173,0.326596,0.687571,0.684649,-0.727674,-0.041800
0.424781,0.250039,0.270133,0.434637,-0.815520,0.382123
0.689379,0.469720,0.415364,-0.916470,-0.030824,0.398915
-0.604126,0.032386,0.435601,0.996546,-0.080651,0.019801
-0.002378,-0.171352,0.654708,-0.480384,0.875578,0.050925
-0.387258,-0.788965,-0.954223,0.018359,-0.133127,-0.990929
0.219817,0.300664,0.080317,0.834906,-0.395957,0.382295
-0.403809,0.385750,0.658136,0.939709,-0.335966,0.063825
-0.378868,-0.177751,0.400934,0.976349,0.214545,0.026721
0.031969,-0.764493,-0.926411,-0.289532,0.223363,0.930742
-0.343157,0.290003,0.614559,0.093829,-0.993213,0.068728
-0.351319,0.363751,0.706365,0.833527,0.490589,0.254077
-0.323545,-0.229835,0.781794,-0.444203,-0.659286,-0.606652
0.099989,-0.015546,0.413380,-0.132480,-0.925384,0.355125
-0.330914,-0.213673,0.294555,0.841850,0.297632,0.450226
-0.200430,-0.188754,0.105496,0.921035,0.388501,-0.027604
0.277746,0.195482,0.293292,0.997930,-0.024281,0.059554
-0.515248,0.286413,0.689266,0.800700,-0.569979,-0.184400
-0.406075,0.066506,0.782624,-0.576714,0.229999,-0.783902
-0.539167,-0.100413,0.721624,0.752339,-0.350697,0.557672
-0.271737,0.367122,0.420811,-0.491822,0.779520,-0.387891
-0.479084,-0.163500,0.678445,-0.077636,-0.930154,-0.358867
0.374336,0.214234,0.462944,0.983260,0.181932,0.010000
-0.577712,-0.640572,-0.973847,0.360358,-0.532603,-0.765818
-0.431697,-0.346917,0.699475,0.090171,-0.921395,-0.378023
-0.422854,-0.051358,0.601356,-0.585727,0.662324,0.467173
-0.041718,-0.179772,0.714085,-0.014829,-0.995240,-0.096318
-0.685411,-0.030701,0.639233,-0.019330,-0.646698,0.762501
-0.551526,-0.614866,-0.972729,-0.329679,0.500339,0.800607
-0.321504,-0.325925,0.491622,0.612142,0.721685,-0.323193
-0.179796,0.046637,0.802608,0.832073,0.511161,-0.215336
0.449611,-0.226245,0.260610,0.832549,0.082601,-0.547759
-0.511619,0.442219,0.493029,-0.719911,-0.427597,0.546707
0.106905,-0.546277,-0.928539,0.172023,-0.145583,-0.974276
0.372520,0.107257,0.423047,0.867619,0.334698,-0.367715
-0.218569,0.651233,0.605144,0.959602,0.149749,-0.238199
0.253487,0.908288,0.398481,-0.120449,0.968314,0.218769
0.387711,0.285173,0.596956,-0.189238,0.966335,-0.174314
0.688811,0.467699,0.348556,0.449389,0.849754,-0.275624
0.659563,0.609474,0.430190,0.296154,0.859776,-0.416027
-0.138419,-0.836671,-0.943293,-0.073963,0.231128,0.970108
0.180253,0.483752,0.264181,-0.671155,0.471098,-0.572379
0.196690,0.362518,0.622279,0.911409,0.358957,0.201204
-0.383743,-0.582761,0.086738,0.254370,-0.540203,-0.802170
-0.115066,-0.336702,-0.961005,-0.210427,0.190520,0.958865
0.066434,0.487006,0.454359,-0.669190,0.614912,-0.417215
-0.152251,0.458607,0.386144,0.819854,-0.511527,0.257253
-0.137284,-0.333893,-0.284058,-0.244251,0.968944,0.038581
-0.236933,-0.529101,-0.902855,0.656476,-0.675030,-0.336710
0.169708,-0.586015,-0.925148,-0.178624,0.234063,0.955672
-0.446093,-0.092891,0.811157,0.809821,-0.235890,-0.537165
-0.682349,0.112752,0.600274,0.828442,-0.285855,0.481632
-0.075727,0.032832,0.696373,0.912961,0.092162,0.397502
-0.294979,0.564235,0.572895,0.865529,0.054524,-0.497882
0.048181,-0.180225,-0.123280,-0.896823,0.442376,0.003547
-0.383061,-0.269915,0.647818,0.986528,0.059125,-0.152535
-0.411178,-0.131505,0.515647,-0.601075,-0.799184,-0.003614
-0.164041,-0.294162,0.646917,0.950451,0.308512,-0.038246
-0.364130,-0.169112,-0.507422,0.297174,-0.389954,0.871564
-0.374447,-0.151826,0.482063,0.929035,-0.185116,0.320353
0.089787,-0.010161,0.209494,0.337756,-0.932893,0.125030
-0.723159,-0.097604,0.628483,-0.203243,-0.942593,0.264972
0.100103,-0.482403,-0.354833,0.248064,0.876108,-0.413399
-0.278991,-0.522483,0.121151,-0.131268,-0.568975,0.811810
0.714544,0.352638,0.252963,-0.836202,0.334789,-0.434377
-0.387936,-0.056298,0.596739,0.496822,0.783097,-0.374069
-0.419225,0.411011,0.695724,-0.334137,-0.838613,-0.430209
-0.196462,-0.387443,-0.162563,0.546124,-0.837687,0.005401
0.691987,0.061456,0.358548,0.762013,-0.132289,-0.633905
-0.302005,-0.267894,0.040240,0.958970,0.282336,0.025747
-0.313796,-0.181910,0.334632,-0.571184,0.819934,0.038185
-0.501869,-0.531684,-0.975867,-0.471596,0.204913,0.857676
-0.514680,0.088396,0.380625,0.965451,0.259651,-0.022036
0.726334,0.313914,0.361831,0.922985,0.349792,-0.160449
-0.556058,-0.091657,0.832801,-0.804781,0.420079,0.419358
-0.248045,0.004323,0.740743,-0.617306,-0.778486,0.113545
-0.166079,-0.165631,0.760619,-0.266465,0.920618,-0.285411
-0.280694,-0.585344,-0.938387,0.777753,-0.545140,-0.312926
0.450403,0.152380,-0.191602,-0.035564,-0.789755,0.612391
-0.126629,-0.480943,-0.949931,-0.062632,0.318920,0.945710
0.117675,0.131388,0.044785,-0.697429,0.550127,0.459295
-0.064732,-0.376549,0.312772,0.489191,-0.869806,-0.064260
0.711371,0.364765,0.248850,-0.836202,0.334789,-0.434377
-0.561614,-0.365217,0.360929,0.262210,-0.953720,0.147186
0.003513,-0.453668,-0.945674,0.208067,-0.156020,-0.965591
-0.347240,-0.340854,-0.144851,0.996602,0.066199,-0.049008
-0.514794,-0.022281,0.968905,-0.670335,0.741977,-0.010988
-0.565468,-0.454456,-0.991811,0.347796,-0.265796,-0.899106
-0.419453,-0.269353,0.576285,0.945820,0.303665,0.114940
-0.417979,-0.738903,-0.960320,-0.138960,0.227738,0.963756
-0.340210,-0.852614,-0.944339,0.388236,-0.158033,-0.907909
-0.600839,-0.292025,0.164331,0.733549,0.648332,0.203892
-0.306202,-0.400125,-0.514673,0.372688,-0.904584,-0.206957
-0.242828,-0.086491,0.613729,0.763534,0.057014,-0.643246
-0.339075,-0.364991,-0.138322,0.869757,0.193452,0.453982
-0.098287,-0.134533,0.508757,0.930157,-0.213682,-0.298578
-0.376827,-0.361956,-0.203398,0.569236,0.820510,-0.052278
-0.946265,-0.017683,0.591977,-0.151184,0.717568,0.679882
0.531459,0.233425,0.271179,0.606195,0.695165,-0.386359
-0.055775,-0.249032,-0.172375,-0.670276,0.741745,-0.023312
-0.389524,-0.243757,0.754414,0.830606,-0.242335,0.501366
-0.328081,-0.241852,0.279801,0.977582,-0.179101,0.110706
0.115748,-0.447385,-0.926194,-0.184569,0.100354,0.977683
0.338172,-0.094014,0.221074,0.938562,0.052992,-0.341018
-0.121868,0.506540,-0.130675,0.617720,-0.780041,0.099791
-0.463778,-0.225799,0.553235,0.733066,0.654237,0.185981
0.444847,0.010606,0.435023,0.883584,0.430412,-0.184459
0.399387,-0.133862,-0.145068,0.537592,0.675094,-0.505216
-0.489401,-0.462876,-0.977779,0.353051,-0.189237,-0.916267
-0.125041,-0.176970,0.793265,0.272121,0.942277,0.195102
-0.511394,0.234439,0.655827,0.923912,-0.366408,0.110140
-0.533387,0.597011,0.796007,-0.220833,0.049808,-0.974039
-0.487588,0.071672,0.310391,0.118566,0.992945,-0.001232
-0.719194,0.107031,0.365150,-0.282413,0.401857,-0.871064
-0.594038,0.455463,0.709648,0.977866,0.148582,0.147317
-0.365151,0.148674,0.472287,0.995380,-0.095393,0.010937
-0.663418,-0.631590,-0.986509,-0.234245,0.438804,0.867514
-0.261873,-0.808951,-0.942572,0.053600,-0.153693,-0.986664
-0.444619,0.379804,0.644500,0.877488,-0.451869,0.160714
-0.225485,-0.565811,-0.684866,0.884791,-0.462056,-0.060410
-0.314702,-0.360613,0.010479,0.921958,0.325866,-0.209295
0.321279,0.506197,0.200115,-0.744598,0.630771,-0.218405
-0.247478,0.024075,-0.268799,0.962802,-0.230812,0.140493
0.213922,-0.099625,-0.238281,-0.679334,-0.115723,0.724647
-0.646524,0.134423,0.696589,0.651021,0.209124,-0.729684
0.186602,0.216474,0.416265,-0.319878,-0.946696,0.038021
-0.339075,-0.177977,0.281713,0.570601,0.600123,0.560595
-0.349281,0.045856,0.443501,0.460990,0.855352,-0.236350
-0.417298,-0.796036,-0.953646,-0.129848,0.016086,0.991403
-0.256546,-0.309201,0.105063,0.879004,0.434477,-0.196422
-0.519441,-0.267559,0.773244,0.659473,0.711216,-0.243448
0.443262,0.288653,0.268618,0.292883,-0.945449,0.142638
-0.497337,-0.318402,0.088830,0.319477,0.913960,0.250224
0.192497,-0.143967,-0.014447,0.115645,-0.988586,0.096560
0.425802,0.303363,0.482712,0.441735,-0.864769,-0.238841
-0.332388,-0.131059,0.538265,0.949575,-0.211388,-0.231567
-0.341912,-0.309427,0.702758,0.023095,0.834548,0.550451
-0.252577,-0.326042,-0.261331,0.928466,-0.339710,0.150159
0.090921,-0.071117,0.178796,0.685366,-0.724064,0.077493
-0.435212,-0.204691,0.475642,0.980887,-0.154178,-0.118704
-0.202699,0.227478,0.710405,0.741115,-0.448371,0.499712
0.050789,-0.027221,0.401800,0.222558,0.746499,-0.627063
-0.280355,-0.584446,-0.705716,-0.718760,0.670894,-0.182444
0.277179,0.513720,0.534008,0.109519,0.919867,-0.376630
-0.674865,0.049891,0.420774,-0.455978,0.872430,-0.175927
-0.318331,-0.429421,-0.102321,-0.303206,0.952545,0.026893
-0.443602,-0.129374,0.777754,-0.579047,-0.733615,-0.355687
-0.324451,-0.253074,0.800083,-0.670760,0.417644,0.612906
0.604921,0.208171,0.418827,-0.394765,-0.373020,-0.839652
-0.626005,0.066958,0.257508,0.739686,-0.605027,0.294629
-0.236254,-0.177641,0.277456,-0.751174,0.631809,-0.191194
0.478859,0.289215,0.260826,-0.092852,0.958371,-0.270006
0.558327,0.255541,0.259347,0.254792,0.907633,-0.333590
-0.494047,-0.120501,0.689303,-0.773958,0.633222,0.004342
-0.361636,0.487452,0.624912,-0.866529,0.468185,-0.173001
-0.672032,0.200984,0.476976,0.759808,-0.470329,0.448867
-0.359030,0.050117,0.683026,0.996904,-0.078624,-0.000683
-0.313228,-0.500141,-0.526865,0.934116,0.356787,-0.011403
0.223443,-0.119385,0.037029,0.363405,-0.930796,0.039435
-0.613422,-0.281926,0.261187,0.232838,0.968503,0.088252
-0.544042,-0.063478,0.669570,0.883932,-0.375743,0.278356
-0.429770,-0.878883,-0.954295,-0.128807,0.205308,0.970184
-0.416391,-0.132402,0.574915,-0.137758,-0.692393,0.708248
-0.252577,-0.619244,-0.814656,0.842207,0.536117,-0.057150
0.288516,-0.614078,-0.918836,-0.287305,0.312682,0.905365
-0.522841,-0.759895,-0.961402,-0.282252,-0.072326,0.956610
-0.114499,0.067856,0.608932,0.829319,0.548618,0.106062
-0.421152,-0.355002,-0.106722,0.608935,0.607196,0.510403
0.169144,0.195708,0.315658,0.897888,-0.439525,0.024795
-0.122549,-0.175168,0.642516,0.017463,0.631324,0.775323
-0.520347,-0.655501,-0.966849,-0.084122,0.353804,0.931529
0.413219,0.303137,0.241563,0.259938,-0.960451,0.099834
-0.253940,-0.049001,-0.170427,0.975316,0.133539,0.175858
-0.268564,-0.373069,-0.175802,-0.282022,0.847548,-0.449584
-0.311530,-0.380592,0.543387,0.740584,0.538166,0.402383
-0.040698,0.001624,0.672997,-0.345996,0.551830,0.758796
-0.472168,0.409216,0.702974,0.481478,0.003429,-0.876451
0.116201,-0.060559,0.206140,0.001048,-0.936239,0.351363
-0.148397,0.094795,0.560089,0.889276,0.397966,-0.225415
-0.310962,-0.225909,0.091139,0.520236,-0.651326,-0.552385
0.530892,0.285290,0.377775,0.757970,0.517411,-0.397199
-0.112233,-0.058202,0.755388,0.260676,0.780199,-0.568628
0.404604,0.515069,0.343939,0.462754,0.886346,0.015801
-0.369458,0.409552,0.588659,-0.742495,0.384578,-0.548453
-0.042172,-0.005556,0.510200,-0.496041,-0.218015,0.840484
-0.418772,-0.263626,0.672709,0.756498,-0.646336,0.099801
-0.114613,-0.822304,-0.943510,-0.180746,0.108548,0.977521
0.138647,-0.037100,0.217286,0.089113,-0.996012,0.004390
0.155880,0.099508,0.043955,-0.442951,0.366454,0.818233
-0.306087,-0.183589,0.191458,0.997169,0.017317,0.073177
-0.358916,-0.219284,0.628195,0.896586,-0.134294,-0.422017
-0.837092,0.036984,0.606659,-0.130317,0.971626,-0.197386
0.443262,0.109950,0.142110,-0.840626,0.131731,0.525352
-0.121868,-0.146324,0.846004,0.732996,0.672228,-0.104053
0.307336,0.155299,0.291633,0.903355,0.330874,-0.272895
-0.347126,-0.331317,0.823278,0.534247,-0.620448,-0.574130
0.104639,-0.807711,-0.920784,0.201543,-0.192391,-0.960399
0.138986,0.137904,0.585845,-0.692462,0.610741,-0.384046
-0.515815,-0.283947,0.788107,0.850598,-0.139721,-0.506913
-0.300421,-0.317505,-0.027361,0.779234,-0.617334,0.108135
-0.117786,0.014422,0.414642,0.957204,-0.280608,-0.070843
-0.153157,-0.076166,0.729163,-0.117883,0.970752,0.209151
-0.419792,-0.092891,0.483578,0.977195,-0.210779,0.025724
-0.725881,0.051693,0.369154,-0.609917,0.775482,0.163182
0.394966,0.007797,0.010804,0.200058,-0.048706,-0.978573
-0.551072,-0.301568,0.466551,-0.500612,0.829686,-0.246998
0.404151,0.252732,0.178003,-0.297033,-0.923453,0.242911
0.021881,-0.464219,-0.942319,-0.121077,0.123440,0.984938
-0.311076,-0.396754,-0.426510,0.320485,-0.792230,0.519289
-0.145674,0.018012,0.821041,0.900360,0.429763,-0.068232
-0.360504,-0.510020,-0.014339,-0.847242,0.491369,0.201835
0.193970,-0.039793,0.281568,0.844904,0.393192,-0.362680
-0.478855,0.354433,0.668092,-0.415010,0.649137,-0.637485
-0.337830,0.322444,0.076782,-0.627512,0.778455,-0.015375
0.695045,0.537740,0.443212,-0.480342,0.545947,0.686450
-0.102369,-0.941743,-0.936836,-0.245668,0.208488,0.946668
-0.304161,-0.335133,0.777970,0.745537,-0.320734,-0.584213
0.662625,0.188076,0.097199,-0.783808,-0.089585,0.614507
-0.649471,-0.753606,-0.975326,-0.390406,0.154638,0.907563
-0.410949,-0.465905,-0.545623,0.503951,0.845834,-0.174922
0.733704,-0.088848,-0.044027,-0.233871,0.907739,0.348301
-0.156672,-0.406524,0.367242,-0.478758,0.504479,-0.718535
0.495749,0.277876,0.401439,-0.703604,-0.302620,-0.642932
-0.140460,-0.579842,-0.943077,0.304301,0.136789,0.942703
-0.380114,-0.470283,0.758022,0.428740,0.841546,-0.328607
-0.095001,-0.448845,-0.263784,0.331132,0.900796,0.280925
-0.263461,-0.450413,-0.292174,0.016073,-0.560267,0.828156
-0.437817,-0.710387,-0.960789,-0.117490,0.141076,0.983002
-0.181384,0.313798,-0.229948,0.965521,-0.205793,0.159430
-0.314702,0.427510,0.708241,-0.696987,-0.677756,0.234215
-0.175942,-0.378351,-0.959526,-0.274284,0.241241,0.930898
0.304728,0.896051,0.373807,0.251532,-0.470475,0.845804
-0.843783,-0.025987,0.633858,-0.534575,-0.617310,0.577199
-0.328987,-0.221422,0.712173,0.985646,0.159017,0.056713
0.597891,0.363641,0.284418,-0.191884,0.587365,-0.786246
-0.827910,-0.050686,0.614018,0.771162,0.439735,-0.460371
-0.364697,0.288770,0.675342,-0.568687,0.806070,-0.163847
-0.253034,-0.155978,0.816749,0.634000,-0.771877,-0.047429
-0.454936,-0.455018,0.631477,0.313456,0.279221,0.907624
-0.101688,0.081887,0.395163,0.944825,-0.306819,0.114754
0.037864,0.098385,0.744566,0.387749,-0.886973,-0.250857
0.399730,0.703200,0.274678,0.381597,-0.337936,0.860339
0.233874,-0.643375,-0.921577,0.099232,-0.220853,-0.970246
-0.363905,-0.141830,0.359631,0.404091,0.891894,-0.203064
-0.295657,0.401693,0.517883,0.887293,-0.300823,0.349595
-0.284094,-0.476010,0.268546,0.907411,-0.419301,0.028152
0.632467,0.297971,0.405480,0.392145,0.769028,-0.504795
-0.274231,-0.312681,-0.253936,0.949413,-0.188677,0.251028
0.698560,0.308974,0.347005,-0.700110,0.226932,0.677014
-0.339303,-0.359599,-0.193803,0.528464,0.834790,-0.154440
-0.254733,-0.240948,0.686741,0.530997,0.187825,0.826296
-0.099422,0.524497,0.597064,-0.141876,-0.982275,0.122500
-0.349167,0.198743,-0.030428,0.952748,-0.303383,0.015161
-0.662055,0.075262,0.301120,0.256597,-0.910683,0.323752
0.417754,0.299431,0.503093,0.344587,-0.921477,0.179275
-0.171974,-0.092664,0.444907,0.944648,-0.152690,-0.290388
0.668178,0.427064,0.258373,-0.408713,-0.848345,-0.336549
-0.041379,-0.745638,-0.940660,-0.106066,0.038399,0.993617
-0.069267,-0.499017,-0.491297,0.736267,-0.360601,-0.572607
-0.098515,0.364765,0.707772,0.321288,0.919733,-0.225534
0.222765,0.632707,0.547788,0.725908,0.434884,-0.532855
-0.386576,0.542454,0.528308,0.714194,0.653011,-0.251998
0.419453,0.258234,0.252530,-0.515313,0.853701,0.075150
0.166196,-0.100975,-0.046083,-0.395326,-0.917062,-0.052112
-0.097720,0.083572,0.623686,-0.632211,-0.617269,0.468281
0.282396,0.594990,0.368577,0.909510,-0.405251,-0.092536
-0.143747,-0.327610,-0.243656,-0.250244,-0.913159,0.321743
-0.326831,-0.442445,-0.281677,-0.683072,-0.729571,0.033756
-0.430905,-0.258124,-0.084609,0.176417,0.928970,-0.325410
0.171749,0.470618,0.284563,-0.806142,0.536891,-0.248761
-0.212902,0.341525,0.381996,0.259186,-0.881616,0.394432
-0.316404,-0.186062,0.135256,0.800036,0.476694,-0.364288
0.484073,0.280576,0.288747,0.041375,0.941311,0.334994
0.395876,0.672335,0.272514,-0.728890,-0.108669,-0.675952
-0.258587,-0.467364,-0.487185,0.470549,-0.675323,-0.567911
-0.392132,-0.380818,0.726783,-0.539396,-0.411841,-0.734465
0.641992,0.301904,0.352200,-0.020382,-0.958043,0.285899
-0.196237,0.207945,0.732302,0.954611,0.002934,-0.297841
-0.578961,0.038223,0.461357,-0.883972,0.062492,0.463345
0.380909,0.127572,0.438883,0.812030,0.549288,-0.197204
-0.271398,-0.591065,-0.930054,0.809017,-0.583461,-0.071173
0.822357,0.369252,0.242465,-0.294545,-0.863550,0.409298
0.242489,0.086601,0.356745,-0.712154,0.586149,0.386350
-0.060311,-0.550094,-0.467092,0.684552,0.724064,-0.084380
0.072554,-0.452209,-0.938459,-0.335196,0.172033,0.926309
-0.266409,0.480607,0.523980,0.465431,0.770964,-0.434728
0.147490,-0.466357,-0.375142,0.897866,-0.429907,-0.094957
-0.267543,-0.907507,-0.943582,0.068584,-0.062439,0.995690
-0.316629,-0.222990,0.208557,0.960599,-0.214878,0.176289
0.866568,0.258234,0.223238,0.958167,-0.244198,-0.149278
0.778824,0.337147,0.177930,-0.343079,0.890767,0.298044
-0.811584,-0.075379,0.636528,0.382729,0.830446,-0.404819
-0.075049,-0.403379,-0.372364,-0.538662,0.842351,0.016983
-0.144543,0.249251,0.727757,-0.705117,-0.258889,0.660141
0.238748,-0.708147,-0.918186,-0.347297,-0.043138,0.936763
0.332163,-0.139028,0.179518,0.901526,0.365382,-0.231835
0.697086,0.209513,0.119312,0.677618,0.234498,-0.697026
-0.289308,-0.369479,-0.036813,0.977287,-0.103631,-0.184851
-0.514227,-0.272382,0.474632,-0.423644,0.856886,-0.293720
-0.200091,0.739348,0.562650,-0.032612,0.549746,0.834695
-0.408455,-0.875066,-0.947874,0.158997,-0.207457,-0.965236
-0.297130,0.560644,0.597821,0.518740,0.769194,0.373163
-0.309488,-0.563337,-0.657955,0.994556,0.007537,0.103927
-0.251332,-0.254424,-0.345526,0.995487,-0.078877,-0.052768
-0.230927,-0.125222,0.419115,-0.408137,0.912498,0.027773
0.135132,-0.330419,-0.402305,-0.627399,-0.498760,-0.598005
0.181498,-0.025987,0.292679,-0.263324,-0.687027,0.677240
-0.269356,-0.431333,-0.965911,-0.289725,0.258851,0.921442
0.350416,0.231630,0.684938,-0.130085,-0.980400,0.147967
-0.433171,0.160910,0.903685,-0.404326,-0.907631,-0.112816
-0.374675,-0.216146,0.733131,-0.707833,0.683542,-0.178166
0.498471,0.342313,0.374962,0.984146,-0.041653,-0.172399
-0.289536,0.244537,-0.100662,0.887706,-0.311804,0.338757
0.058497,-0.156539,0.674404,-0.580043,0.810644,0.080043
-0.040698,0.036874,0.385026,0.769243,0.430123,-0.472504
-0.291235,-0.429538,-0.455188,-0.178487,0.566709,-0.804353
0.382497,0.358030,-0.143156,0.921991,0.314198,-0.226301
-0.241354,0.409778,0.459373,0.265717,-0.961948,-0.063641
-0.555833,-0.250492,0.502733,-0.204639,0.957686,-0.202387
-0.457316,-0.110848,0.664845,0.342728,-0.938932,0.030732
-0.419907,0.001062,0.735981,-0.343652,0.914485,0.213588
0.743453,0.542680,0.444511,-0.532367,0.828519,0.173614
-0.065978,-0.493632,0.193225,-0.172771,-0.685924,0.706865
-0.403923,0.293483,0.615317,-0.012309,-0.970347,0.241403
-0.842534,-0.077736,0.610158,-0.652243,-0.416534,0.633307
0.474890,-0.157546,0.168768,-0.502969,0.484793,-0.715540
0.262897,-0.677727,-0.907725,0.249653,-0.174460,-0.952490
0.561956,-0.569175,-0.126490,0.580509,0.686658,-0.437620
-0.311301,-0.284282,0.446134,0.918343,0.365602,0.151596
-0.413105,-0.147331,0.458832,0.841936,-0.539192,-0.020418
-0.283641,-0.408771,-0.389247,-0.248614,-0.963861,0.095725
0.015871,-0.108381,0.761593,0.149619,-0.926571,0.345080
-0.170500,-0.284954,0.749761,0.945913,-0.118845,-0.301867
-0.031401,0.191556,0.775337,-0.666423,0.050426,0.743867
0.180024,0.446816,0.268221,0.714756,-0.583941,0.384886
-0.016778,-0.217044,0.671302,-0.313340,0.949499,0.016401
-0.322414,0.395404,0.857908,0.829663,-0.548294,-0.105039
0.441788,0.078297,0.370705,-0.465440,0.043590,-0.884005
-0.318217,-0.249930,0.181213,0.962933,-0.264363,0.053594
0.007371,-0.152271,0.079126,-0.675549,0.631716,0.380221
-0.295771,-0.483526,-0.643670,0.599259,-0.768228,0.225200
-0.303368,0.557835,0.608751,0.789386,0.249758,0.560795
-0.277407,-0.683784,-0.948019,-0.533023,0.055174,0.844300
0.478406,-0.243983,0.294338,-0.859905,-0.262337,0.437885
0.349959,-0.634619,-0.908338,0.190078,-0.268365,-0.944378
0.313685,0.214906,0.678048,0.173252,0.896461,-0.407850
-0.259607,-0.342765,0.062136,0.789475,0.537440,-0.296458
-0.652195,-0.738450,-0.975903,0.367512,-0.203159,-0.907558
-0.634056,0.504518,0.726386,0.580561,0.807134,0.107158
0.491441,-0.163274,0.150154,-0.195816,0.815675,0.544362
-0.507993,-0.592860,-0.975759,-0.402572,0.397182,0.824731
-0.079017,-0.211206,-0.056076,-0.550473,0.834767,-0.011965
0.529193,0.252848,0.249968,0.483649,0.875177,-0.012164
0.683597,0.297074,0.278322,-0.523030,0.820750,-0.229802
-0.516721,0.291908,-0.314179,0.670375,-0.650244,0.357463
0.849792,0.332324,0.348628,0.261494,-0.150233,-0.953442
0.238295,-0.062471,0.151453,0.359915,0.799967,-0.480118
-0.351772,-0.180225,0.650019,0.188168,0.808079,0.558213
-0.278767,0.380030,0.396028,-0.236763,0.903240,-0.357913
-0.238520,-0.710052,-0.943546,0.506340,0.419987,-0.753147
-0.327288,0.110512,-0.073607,0.932557,-0.254419,0.256141
-0.499603,0.147331,0.876630,-0.568901,0.805035,-0.168138
-0.481579,-0.178203,0.869812,0.429695,0.900101,0.071968
0.136606,-0.080880,0.118049,0.131597,-0.990859,0.029686
-0.342365,-0.443452,0.327129,0.622174,0.567398,0.539406
0.038431,-0.294046,-0.301842,0.264738,-0.912533,0.311765
-0.346558,0.399111,0.692441,-0.483677,-0.419471,0.768180
0.083663,-0.738450,-0.930126,-0.234774,0.196121,0.952060
-0.409137,-0.091993,0.514565,0.713773,0.657247,0.241980
0.186715,0.174270,0.524881,-0.700813,-0.713314,0.006742
0.319352,0.625410,0.294410,-0.530696,0.747300,-0.399881
-0.149871,-0.145762,0.700918,0.781301,0.358185,-0.511148
-0.519102,0.492727,0.511931,0.003521,-0.409051,0.912505
0.150095,-0.129710,-0.103656,-0.833195,-0.073888,0.548020
-0.322071,-0.235336,0.264145,0.991646,-0.128087,0.015202
-0.301895,-0.161363,0.619357,-0.664781,-0.747031,-0.003308
-0.333408,0.021383,0.821186,-0.578638,0.740676,0.341433
-0.256206,-0.465905,-0.971466,-0.255817,0.149810,0.955047
0.802859,0.272039,0.160832,-0.724920,0.318310,0.610877
0.692893,0.253520,0.175441,0.674057,-0.729590,0.115522
-0.169369,-0.392828,0.179626,-0.720968,0.681695,0.124484
-0.429431,0.141720,0.869993,0.701518,0.616643,-0.357245
-0.351094,0.149571,0.484516,0.906946,-0.339289,0.249661
0.284890,-0.695794,-0.910358,-0.218540,0.187571,0.957631
-0.332049,-0.392383,-0.073679,0.927431,-0.296852,0.227489
-0.376488,-0.358366,0.772775,0.317141,-0.947839,-0.031978
0.331256,-0.666388,-0.904154,-0.237943,0.215185,0.947142
-0.046140,0.124769,0.753296,-0.676319,-0.702300,-0.222189
0.348032,0.021945,0.322115,-0.532169,-0.720611,0.444427
-0.285340,-0.496215,-0.384665,0.939665,-0.103993,0.325906
-0.137513,-0.499695,-0.946576,-0.118064,0.180853,0.976398
0.315951,-0.200203,-0.197662,-0.107689,-0.842002,0.528617
0.571705,0.135656,0.442454,-0.527276,0.849507,0.017819
0.872916,0.387888,0.350721,0.484625,0.591151,-0.644731
-0.576466,0.290565,0.460166,-0.604049,0.394754,-0.692311
-0.156672,-0.334571,-0.271973,-0.398604,0.914845,0.064597
0.095454,-0.546387,-0.226990,0.470689,0.860254,-0.196000
-0.151344,-0.236686,0.692874,0.954331,-0.016077,-0.298319
0.468089,0.162143,0.199971,0.329673,0.740531,-0.585602
0.339871,0.740697,0.297549,0.864487,-0.298503,0.404423
-0.254733,0.398439,0.759248,0.970448,-0.139997,0.196548
-0.286022,0.231965,0.316379,-0.005940,-0.696875,0.717168
-0.203263,0.190549,0.650127,0.246548,0.803998,-0.541111
0.524429,0.523373,0.344227,0.517271,0.854552,-0.046593
-0.523523,0.066622,0.400177,-0.622234,0.213440,-0.753172
-0.266976,0.592633,0.543351,-0.315199,0.816072,-0.484434
-0.247478,0.252061,0.663619,-0.167323,-0.386993,0.906774
-0.724522,0.099063,0.372076,-0.071885,-0.638831,0.765981
-0.390091,0.226916,0.553343,0.959008,-0.276087,0.063875
-0.589388,-0.684010,-0.968725,-0.508696,0.166179,0.844756
-0.716132,0.092103,0.329762,-0.371828,0.871640,-0.319356
-0.479423,-0.163946,0.805386,0.956534,-0.184908,0.225502
0.667046,0.494865,0.451437,-0.206392,-0.389818,0.897465
-0.467408,-0.295060,0.067403,0.411577,-0.865383,0.285861
-0.436343,0.577704,0.729705,0.381101,0.821093,-0.424932
0.180024,-0.080318,-0.041502,0.614969,0.535922,-0.578446
-0.529871,0.471961,0.737027,-0.205066,-0.896334,0.393107
-0.249404,-0.488240,-0.961582,-0.433991,0.229487,0.871199
-0.270149,0.319635,-0.037967,0.929931,-0.349881,0.113188
0.469563,-0.031824,0.125083,-0.516430,-0.705757,0.484981
0.284322,0.760450,0.365547,-0.455297,0.628995,-0.630135
-0.505159,-0.525847,-0.976480,0.459452,-0.237337,-0.855906
-0.263914,-0.379358,-0.242393,0.989520,0.005067,0.144309
-0.404944,0.083456,0.455910,0.990893,-0.108802,0.079324
-0.353474,-0.391369,-0.413235,-0.136004,-0.827416,0.544872
-0.290557,-0.123201,0.219523,0.945356,0.000263,0.326039
-0.714772,0.103887,0.368829,-0.071885,-0.638831,0.765981
-0.266295,-0.445138,-0.960356,-0.077949,0.225370,0.971150
-0.323888,-0.420556,-0.042404,-0.658016,-0.073087,-0.749448
0.093869,0.046754,0.038147,0.919494,-0.195061,-0.341293
0.568305,0.175956,0.227603,0.398888,0.916278,0.036374
-0.422968,-0.271820,0.722887,0.793000,0.601397,0.097323
-0.252352,0.464555,0.577548,0.555986,0.735500,-0.387194
-0.500171,-0.802771,-0.959851,-0.119192,0.007610,0.992842
-0.598798,-0.587584,-0.985354,-0.176308,0.273046,0.945707
-0.501644,0.597121,0.730751,0.972905,-0.003256,0.231181
0.070966,-0.831286,-0.924788,-0.360145,0.169838,0.917306
-0.054076,-0.544483,-0.943762,0.177225,-0.125426,-0.976145
-0.390319,-0.557726,-0.965658,0.278109,-0.065214,-0.958333
-0.570682,-0.008701,0.633497,-0.086712,0.870970,0.483624
0.717606,0.102427,0.137348,0.795083,0.126900,-0.593076
-0.601517,-0.359716,0.198961,0.873866,0.375212,0.309152
-0.563994,-0.173373,0.328644,0.064663,-0.715277,0.695843
0.245211,-0.018807,-0.000739,-0.639770,-0.400240,0.656127
0.011564,0.548853,0.534188,-0.255014,0.850072,-0.460810
0.361186,-0.589722,-0.913821,-0.261107,0.198232,0.944737
-0.577144,-0.034634,0.208809,0.728000,-0.420936,0.541136
0.253487,-0.011058,0.002002,-0.639770,-0.400240,0.656127
-0.401882,-0.324130,-0.047310,-0.304445,0.875437,0.375397
-0.255978,-0.357359,-0.321105,0.996620,0.082094,0.003034
-0.575670,-0.365889,0.208088,0.938624,0.250057,0.237604
-0.299511,-0.192680,0.148351,0.934566,0.321995,-0.151343
0.606167,0.354550,0.384232,-0.734652,0.670740,0.101953
-0.392018,-0.073809,0.500352,0.954052,-0.166452,0.249155
-0.640971,-0.079982,0.721371,-0.391520,-0.909533,0.139505
0.402788,-0.565358,-0.150515,0.378704,-0.096468,-0.920477
-0.444847,0.391368,0.660264,0.855407,-0.509903,0.090976
0.263917,0.232644,0.603304,0.464201,-0.832656,-0.301995
-0.535085,-0.564015,-0.981891,-0.437870,0.113926,0.891791
0.221177,0.221305,0.319662,0.870931,-0.484507,0.082050
-0.299286,-0.048775,0.212921,0.776317,0.623101,-0.095274
-0.295771,-0.871812,-0.945602,-0.214121,0.033389,0.976236
-0.404376,0.225566,0.533106,0.965682,-0.222825,0.133445
-0.440426,-0.344451,-0.080136,0.618928,0.775703,-0.123342
-0.346105,-0.127915,0.150443,0.463573,0.866882,-0.183348
-0.706041,-0.056743,0.557023,-0.256125,-0.767980,-0.587032
-0.162114,0.240495,0.659470,-0.659479,-0.603674,0.447956
0.298379,-0.595217,-0.919088,-0.285612,0.236092,0.928809
-0.440993,0.046075,0.936006,0.841019,-0.206870,0.499892
-0.319123,-0.335914,0.715383,0.216887,0.971621,-0.094402
-0.456977,0.149914,0.703804,-0.546280,-0.835706,-0.056335
0.744020,0.223435,0.183702,-0.027810,-0.687892,0.725281
-0.265274,0.370260,0.761557,0.931019,-0.254950,0.261157
-0.049540,0.003083,0.514420,0.045957,-0.813136,0.580256
-0.447566,0.633269,0.764623,-0.233643,-0.118079,0.965126
-0.056681,0.126674,0.727504,0.777191,0.589412,-0.220378
-0.527152,-0.222765,0.809137,-0.684139,-0.677195,0.270852
0.629181,0.366443,0.165341,-0.206233,0.977510,-0.044075
0.009408,-0.683112,-0.937666,0.351444,0.025445,-0.935863
-0.295999,0.283940,0.628628,0.545011,0.283363,0.789093
-0.285001,0.205478,-0.088469,0.879043,-0.236681,0.413841
-0.508332,0.040354,0.779485,0.136866,-0.562294,0.815533
-0.616484,0.411683,0.735151,-0.638658,-0.766669,0.065837
-0.146241,-0.788739,-0.942427,0.009228,-0.081089,0.996664
-0.313571,-0.342087,-0.978681,0.299700,-0.090155,-0.949764
-0.277860,-0.302130,0.000054,0.983569,0.154077,0.094088
-0.510487,0.332769,0.714626,0.904096,0.405699,0.134233
0.515590,0.225005,0.230200,-0.417571,-0.756876,0.502765
-0.398253,-0.233877,0.776599,0.349264,-0.893496,0.282275
-0.273210,0.102763,0.724329,-0.427049,-0.396507,0.812657
-0.388164,0.287756,0.427592,-0.432849,0.899565,-0.058519
-0.387483,-0.000733,0.705138,0.080973,0.993553,-0.079345
-0.175036,-0.894257,-0.939073,-0.026267,0.017084,0.999509
-0.570343,0.216591,-0.380661,-0.774532,-0.608030,0.174357
0.284890,0.238364,0.611529,-0.841748,0.518648,-0.149882
-0.429203,0.349610,0.668705,-0.577492,0.095922,-0.810742
-0.377055,-0.170235,0.749797,-0.436461,0.898114,-0.053780
-0.387936,0.280459,0.791065,0.881672,-0.282813,0.377719
-0.250197,0.516412,-0.066032,0.184934,-0.759229,0.623995
-0.375692,-0.255993,0.704778,-0.630914,0.774778,0.040825
0.423196,-0.585563,-0.150335,0.240153,0.895099,0.375664
0.059179,0.208506,0.515070,-0.208832,0.934116,-0.289511
-0.333861,0.093788,0.747416,0.863062,-0.076109,-0.499331
-0.483166,0.005556,0.379579,0.866213,0.353010,-0.353636
0.280808,0.283830,0.434518,-0.086582,-0.668637,0.738531
-0.529418,0.165850,0.446459,0.801029,-0.596253,0.053244
-0.695838,-0.128140,0.623289,-0.422271,-0.825130,0.375298
0.453918,0.359147,0.499883,0.399003,-0.712357,0.577359
-0.464232,-0.081325,-0.485021,-0.196244,-0.699146,0.687519
-0.048973,-0.231185,-0.177065,-0.616720,0.779533,-0.109478
-0.662964,-0.056633,0.647710,-0.099380,0.821576,0.561370
0.880853,0.324465,0.351009,-0.482330,0.100314,0.870227
-0.003742,0.113657,0.413668,0.173805,-0.951160,-0.255122
0.139782,0.529327,0.471169,0.842679,0.535691,-0.054108
-0.457773,-0.010613,0.705571,0.926324,0.254917,-0.277383
-0.271851,0.407757,0.712858,0.255786,-0.949354,-0.182483
-0.359141,0.571531,0.687174,-0.605137,0.530769,-0.593374
-0.337830,-0.294272,0.590030,0.782664,-0.436497,-0.443742
-0.370932,-0.241736,0.271829,0.958704,0.282572,-0.032244
0.247024,0.586913,0.411792,0.028313,-0.941547,0.335691
0.210975,-0.606782,-0.921072,0.039176,0.148518,0.988133
0.212109,0.393725,0.376477,0.862528,0.444285,-0.242188
-0.371274,-0.255767,0.068377,0.862198,0.060906,-0.502898
-0.566603,0.277766,0.685371,0.186464,0.115479,0.975651
-0.077429,0.526408,0.602980,-0.110093,-0.991353,0.071412
-0.122093,-0.354885,0.691755,0.064816,0.977785,0.199338
0.057023,-0.147105,0.057410,-0.507533,0.856160,0.096957
0.366514,0.073021,0.089876,0.911857,0.223321,-0.344449
-0.158256,0.010270,0.841819,0.885168,0.439017,0.154083
0.125836,-0.443343,-0.450499,-0.409447,0.838076,-0.360531
-0.333747,-0.034408,0.268438,-0.620507,0.023667,0.783844
-0.756489,-0.668410,-0.991054,-0.173920,0.396587,0.901372
-0.638587,-0.138692,0.675198,0.118914,0.957353,0.263315
-0.272532,-0.186398,0.746803,-0.212149,-0.900813,-0.378851
0.147943,0.255767,0.497899,0.053857,0.583615,0.810242
0.027323,0.126674,0.600851,-0.422547,0.859624,-0.287230
-0.438270,-0.056859,0.914471,0.899052,-0.413649,0.143526
-0.128102,-0.452661,-0.936656,-0.044411,0.278197,0.959497
0.408230,0.359709,0.521274,0.860361,0.379001,0.340788
-0.074820,-0.366334,-0.359378,-0.599275,0.800400,0.015144
-0.413330,-0.106134,0.710153,0.162468,0.799960,0.577641
-0.408345,-0.108943,0.330123,0.775951,0.427019,0.464279
-0.495406,0.364203,0.699006,0.847298,-0.478492,0.230503
-0.340777,-0.425159,-0.976913,-0.207627,0.289861,0.934276
-0.370139,-0.072686,0.492055,0.456622,-0.765858,0.452722
-0.189546,-0.469611,0.344263,-0.379991,0.917330,0.118800
-0.353246,-0.217715,0.416806,0.913213,-0.389028,0.121241
-0.088084,0.139137,0.629061,-0.504225,-0.260593,0.823315
0.278767,0.598923,0.334416,0.564075,-0.820049,0.096638
-0.487588,0.030139,0.711235,0.723969,0.600136,0.340156
-0.262101,-0.580288,-0.936547,0.721410,-0.610877,-0.326184
-0.484073,0.294491,0.638728,0.959846,0.257164,0.112083
-0.031855,0.253410,0.590462,-0.728097,0.520394,-0.446166
-0.437025,0.151818,0.907436,0.298778,0.905734,0.300627
-0.680875,-0.065725,0.861083,-0.637450,0.731341,-0.242481
-0.263914,-0.143070,-0.527154,-0.541529,0.257828,-0.800169
0.283074,0.663689,0.449453,0.924586,0.101794,0.367123
-0.687337,-0.096597,0.606551,0.624771,0.617176,-0.478283
-0.295203,-0.406860,-0.192215,0.574953,0.814073,-0.081942
-0.134451,0.212213,0.344877,0.872043,-0.482114,-0.084307
-0.125155,0.019362,0.518064,0.839031,-0.028119,0.543357
0.884368,0.392602,0.329113,0.033642,-0.997594,-0.060619
-0.351094,0.311215,0.645834,-0.779457,0.626170,-0.018917
0.219250,0.553910,0.550926,0.898726,-0.437616,0.027996
-0.071533,0.027782,0.448082,-0.815766,0.570769,0.093534
-0.568415,-0.011168,0.559728,0.286050,0.537281,-0.793413
-0.308807,0.387772,0.713219,-0.581602,0.713019,0.391590
-0.366963,-0.110402,0.562073,0.949522,-0.016764,0.313251
-0.244983,-0.336257,0.722634,0.334512,0.929350,0.156238
0.363452,0.231184,0.515647,-0.558518,-0.825260,0.083691
-0.280808,0.417520,0.419945,-0.726316,-0.560381,0.398043
0.533272,-0.621711,-0.124614,0.563543,0.418946,-0.711971
0.608890,-0.095583,0.004455,0.509110,-0.345265,0.788416
-0.413787,0.547175,0.748895,0.758764,-0.632856,-0.154176
-0.337830,-0.154628,0.274246,0.964230,0.038254,0.262293
-0.551636,-0.130497,0.713471,0.002054,-0.875606,0.483021
-0.298604,-0.320875,0.425753,0.951899,0.306295,0.008423
0.197029,-0.107258,-0.023321,-0.777714,0.368873,0.509013
-0.075616,0.746418,0.507711,-0.658376,-0.033125,-0.751960
0.230701,0.410449,0.232401,0.795569,-0.464697,0.388751
0.545062,-0.001967,0.304619,0.139601,0.897305,0.418755
0.447002,0.216255,0.471385,0.923471,-0.080533,0.375120
-0.563769,-0.312565,-0.046300,-0.178345,-0.971889,-0.153702
0.230926,0.632823,0.541114,0.748116,0.491907,-0.445365
0.581569,0.380927,0.314287,0.865981,-0.246044,-0.435360
-0.248384,0.288653,-0.104702,0.858594,-0.326364,0.395351
0.272646,0.144186,0.654420,0.296694,0.940593,-0.165099
-0.312208,-0.450976,-0.269989,-0.520842,-0.847973,0.098310
-0.215507,0.402591,0.112638,0.792384,-0.608279,-0.046097
-0.328762,-0.174949,0.227964,0.869867,0.033214,-0.492168
-0.393831,-0.144413,0.639269,0.689770,0.150115,-0.708295
0.254279,0.217262,0.602655,0.464201,-0.832656,-0.301995
-0.180817,-0.351748,0.733528,-0.128249,-0.889861,0.437834
-0.396779,-0.219174,0.590607,0.823021,-0.564580,0.062342
-0.250764,-0.070665,-0.196220,0.992911,-0.095605,-0.070615
0.194649,0.156984,0.111376,0.965946,-0.258482,-0.011626
0.138308,-0.292922,0.234277,0.045948,0.226482,0.972931
-0.340777,-0.513384,0.019786,0.145076,-0.962834,-0.227823
-0.418094,-0.503285,-0.968328,-0.352742,0.215009,0.910683
-0.302912,-0.571984,-0.602078,0.989261,-0.143634,0.027057
0.103729,-0.151264,-0.501109,-0.613753,0.714259,-0.336364
0.449497,0.266763,-0.181790,-0.559318,-0.324900,0.762629
-0.299511,-0.408209,0.049546,0.915881,-0.065754,-0.396029
-0.746061,-0.642477,-0.982541,-0.174544,0.196193,0.964905
-0.243738,-0.390923,-0.410927,0.003539,-0.939800,0.341708
-0.574311,-0.177977,0.326227,-0.227774,-0.604000,0.763743
-0.354266,0.025199,0.745649,-0.600047,0.752238,-0.272177
0.186259,0.619573,0.354148,0.795939,0.373681,-0.476281
0.006575,-0.423920,-0.938026,0.101630,-0.241624,-0.965033
-0.071533,0.183924,0.744350,0.778418,0.621583,0.087750
-0.254504,-0.113431,0.289577,0.401076,-0.774955,0.488450
-0.330347,0.243195,-0.022239,0.950552,-0.303279,0.066881
-0.238520,-0.691197,-0.926411,0.294566,0.677982,-0.673477
0.201450,-0.609364,-0.921361,0.041396,0.188657,0.981170
0.392585,0.216474,-0.252963,0.868658,0.382517,0.314825
-0.379660,0.248806,0.635950,0.801424,-0.299713,-0.517583
0.747535,0.422570,0.401079,0.723629,0.412577,0.553300
-0.193175,0.472296,-0.094493,-0.616641,0.717147,-0.324737
-0.050561,-0.191783,0.723319,-0.141622,-0.984985,0.098733
-0.299739,-0.362299,0.039807,0.855744,-0.098406,-0.507956
-0.158938,-0.690409,-0.947369,0.024301,-0.135010,0.990546
-0.376713,-0.159122,0.277023,0.998515,0.004487,0.054293
-0.420360,0.263509,0.620367,-0.109549,0.668134,0.735932
-0.102709,-0.218948,-0.044532,-0.577172,0.805433,-0.134721
0.743681,0.390129,0.263712,-0.609869,-0.322753,-0.723803
-0.250539,-0.780326,-0.949281,0.194499,-0.019040,-0.980718
-0.284662,-0.303137,-0.087640,-0.142642,-0.746662,0.649730
0.297019,0.628445,0.578522,0.769824,0.378981,-0.513560
-0.264368,-0.179663,0.712209,0.154498,-0.578952,-0.800591
-0.372405,-0.192906,0.445016,0.697518,-0.639778,0.322727
-0.099308,-0.898635,-0.938171,-0.337859,0.078220,0.937941
0.085479,-0.494529,-0.933517,-0.121051,0.232950,0.964925
-0.064050,-0.264078,-0.189185,-0.744282,-0.500944,0.441701
-0.409590,-0.217263,0.590715,0.902703,-0.354208,0.244262
-0.210293,0.093562,-0.475101,0.331332,-0.762023,0.556363
-0.714772,0.037881,0.485814,0.965407,-0.260648,-0.007150
-0.540527,-0.060559,0.723969,-0.684907,0.538765,-0.490546
-0.309374,-0.353426,-0.125841,0.894464,0.273124,0.354032
-0.129804,-0.294498,0.701459,0.825398,0.444821,0.347637
-0.308015,-0.212440,0.233880,0.888998,-0.231247,-0.395230
0.618072,-0.675144,-0.137312,0.651840,0.746790,0.131946
-0.117332,-0.114781,0.733276,0.864135,0.062487,-0.499366
0.556514,0.300444,0.427484,-0.332426,0.600534,-0.727222
-0.198278,0.463767,0.580975,0.502639,-0.817284,0.281783
0.341345,0.539200,0.224284,0.314398,-0.894034,0.319150
-0.440426,0.400460,0.646845,0.834424,-0.497320,0.237509
-0.479651,0.016669,0.985426,-0.622594,0.781827,0.033520
0.474890,-0.030256,0.399275,0.625381,0.723067,-0.293381
-0.378529,-0.156649,0.437007,0.938748,0.183716,0.291550
-0.310280,0.427510,0.657955,0.132321,0.268252,0.954218
0.556739,-0.604870,-0.127969,0.638529,0.519064,-0.568202
-0.694478,0.113876,0.657919,-0.078202,0.996719,0.020891
0.147943,-0.557390,-0.930956,0.142267,-0.353429,-0.924580
-0.204398,0.320985,0.761052,0.458749,0.856207,-0.237611
-0.232515,-0.523600,-0.682665,0.936066,0.351823,-0.001230
0.487474,0.447152,0.268221,0.948627,0.122043,-0.291912
0.244305,-0.667286,-0.918475,0.307222,-0.210538,-0.928056
-0.151569,-0.567942,0.096874,-0.004881,0.999867,-0.015566
-0.559912,-0.772241,-0.965622,-0.104548,0.021468,0.994288
-0.308129,-0.245442,-0.528705,0.507594,-0.422952,0.750640
-0.307900,-0.290565,0.063543,-0.540264,-0.831818,-0.127255
0.227411,0.578711,0.378533,0.806799,0.280983,-0.519734
0.773268,0.169104,0.157621,0.894117,-0.088070,-0.439088
-0.483391,0.308639,0.446170,-0.397757,0.548889,-0.735194
-0.523862,0.253629,0.428097,0.811079,-0.338918,0.476745
-0.222651,-0.298198,0.554353,0.833059,0.304981,-0.461518
-0.009862,0.449961,0.447324,0.098314,-0.873007,0.477696
0.448023,-0.607789,-0.132118,0.347625,0.819283,-0.455996
-0.538486,-0.344670,0.448695,-0.705607,-0.639199,-0.305849
-0.546651,-0.475113,-0.986581,0.347263,-0.137220,-0.927674
-0.644029,-0.726440,-0.974677,-0.357170,0.299538,0.884707
0.138419,-0.542571,-0.203470,0.370346,0.873053,-0.317210
0.206892,0.531341,0.546417,-0.591143,0.752628,-0.290001
-0.348486,-0.174271,0.589741,0.988635,-0.124360,-0.084468
-0.563655,-0.056523,0.695038,0.100761,-0.890238,0.444211
0.501530,0.481169,0.316631,0.696226,0.540210,-0.472696
-0.282960,-0.403153,-0.966236,-0.326926,0.234709,0.915440
0.289989,-0.265757,-0.216962,-0.778005,0.273090,0.565800
0.142048,-0.120501,-0.034901,0.373224,0.924311,0.079705
-0.566374,0.191892,0.579640,-0.479206,0.735865,-0.478397
0.558441,0.314476,0.317894,0.956823,0.224019,-0.185216
0.188189,0.533143,0.534765,-0.704799,0.670884,-0.230594
-0.701394,0.103441,0.369587,0.408828,-0.848539,0.335917
0.120055,-0.485102,-0.937089,0.083265,-0.153845,-0.984580
-0.330575,-0.204916,0.716321,0.949259,-0.300717,0.092064
0.283869,0.498900,0.205562,-0.640394,0.663908,-0.386162
0.027437,0.115561,0.657594,0.447627,-0.866131,-0.222367
-0.529304,-0.016786,0.872950,-0.605725,0.747796,-0.271844
-0.645164,-0.649664,-0.982324,0.395893,-0.314635,-0.862713
-0.044891,-0.202676,-0.041286,-0.338010,0.925342,-0.171733
-0.898196,-0.038224,0.609004,-0.636636,-0.496746,0.589863
-0.154631,0.350171,-0.223455,0.963853,-0.191673,0.185064
-0.306202,-0.383401,-0.101888,0.734579,0.587794,-0.338959
-0.177302,-0.070555,0.794780,0.901040,-0.421978,-0.100309
-0.042625,0.701405,0.458507,-0.183631,-0.788124,0.587487
0.124362,0.290229,0.650271,-0.343499,0.261595,0.901985
-0.347693,-0.345006,0.597677,0.862392,-0.483418,-0.150290
-0.654460,-0.208288,0.169814,0.919034,0.384516,0.086746
-0.535200,-0.743616,-0.963169,-0.316951,0.067124,0.946064
0.109852,-0.014313,-0.003084,0.347698,0.819046,-0.456366
-0.372520,0.176401,0.929225,0.891148,0.115562,0.438749
-0.458679,0.003761,0.717945,0.330434,-0.915692,0.228740
0.064618,0.542797,0.530689,-0.085269,0.872855,-0.480471
-0.057477,-0.442220,-0.940155,-0.141349,0.228077,0.963328
-0.043078,-0.672787,-0.931858,0.016525,-0.150431,0.988482
-0.248837,-0.545270,-0.744855,0.986717,-0.034407,0.158763
-0.426483,-0.044506,0.537723,0.627839,0.678698,-0.381034
-0.352000,-0.132964,0.315189,0.974170,0.217638,-0.060215
0.366061,0.226354,0.561207,-0.719613,0.476312,-0.505256
-0.020860,0.343546,0.755930,0.399116,-0.159408,-0.902937
-0.163360,-0.576026,0.085511,0.222855,-0.973106,-0.058306
-0.215960,-0.568277,-0.941273,-0.142103,0.620385,0.771316
-0.296110,-0.884158,-0.942427,-0.137838,-0.105304,0.984841
0.444280,0.291908,0.537940,0.808657,0.504595,0.302419
-0.133430,-0.342540,0.667262,0.771040,0.574187,-0.275330
-0.502212,-0.218722,0.742727,0.919987,-0.011051,0.391792
-0.383061,0.228601,0.780676,0.938421,0.245132,-0.243468
-0.028229,-0.667395,-0.943221,0.033942,0.047170,0.998310
0.582700,0.334119,-0.125516,-0.040320,-0.738969,0.672531
-0.319123,-0.186733,0.314106,0.989602,-0.142995,-0.015484
-0.327288,-0.205595,0.692080,0.657589,0.721321,0.217422
-0.243170,-0.448283,0.647855,-0.410505,0.708087,-0.574542
0.175378,0.481614,0.278574,0.746221,-0.652335,0.132718
0.660016,0.488130,0.416698,0.919880,-0.391971,0.013424
0.123227,-0.490378,-0.154663,0.222746,0.954733,-0.197151
0.217323,-0.528430,-0.931353,-0.146769,0.259497,0.954526
-0.459699,0.258124,0.614271,-0.309299,0.883335,-0.352211
-0.178212,-0.299095,0.672492,0.799950,0.584772,0.134617
-0.708310,-0.689176,-0.982324,-0.183802,0.287309,0.940038
-0.303479,0.412471,0.767870,0.732839,0.671790,0.107917
-0.387483,-0.071788,0.469004,-0.652087,0.677367,-0.340523
-0.111098,-0.430545,-0.373663,-0.558672,0.828546,0.037381
-0.335789,-0.490713,0.280053,0.815683,-0.566525,0.117093
0.343272,-0.192461,0.239652,0.865031,-0.148484,-0.479242
-0.648794,-0.690183,-0.978356,-0.256021,0.358525,0.897726
0.292145,0.059771,-0.207438,-0.731348,0.644062,-0.224310
-0.384310,-0.189652,0.393070,0.974812,-0.183219,-0.127169
-0.207913,-0.376666,-0.958083,-0.228604,0.267248,0.936119
-0.216074,-0.095247,0.779485,0.746928,-0.252291,-0.615182
-0.169708,0.108936,0.605036,0.596790,0.560526,0.574153
0.081058,-0.017231,0.621557,-0.205829,0.974520,0.089137
-0.118920,0.229725,0.361939,0.973265,-0.226935,-0.035433
-0.265842,-0.687381,-0.944484,-0.390704,0.033095,0.919921
-0.214829,0.039566,-0.487979,0.273054,-0.789206,0.550087
-0.469902,-0.067746,0.404722,-0.201600,-0.153330,0.967392
0.686317,0.538980,0.420630,0.801407,0.323342,-0.503187
-0.083210,-0.682667,-0.930451,0.060795,-0.159556,0.985315
-0.238749,-0.335017,-0.970564,-0.175983,0.282379,0.943023
0.222990,0.631138,0.543351,0.748116,0.491907,-0.445365
-0.459810,-0.182917,0.169201,0.323648,0.240004,0.915232
0.240108,0.457819,0.421857,0.876955,-0.467462,0.111487
-0.437817,-0.240393,0.733636,0.255407,0.950994,0.174291
-0.279445,0.211987,0.757914,0.235568,-0.210368,0.948817
0.410271,0.264968,0.228036,-0.521767,-0.804873,0.282734
-0.310170,0.271820,0.340476,0.001286,-0.765406,0.643547
-0.189435,0.537521,0.600274,-0.367289,0.682879,0.631487
-0.423083,0.206149,-0.077034,0.953340,-0.206109,0.220595
-0.345766,-0.388224,0.833523,-0.679832,0.669857,0.298530
0.295999,0.178649,0.420378,0.633257,0.618624,-0.465070
-0.450175,-0.331762,0.771729,0.567447,0.789250,0.234709
-0.399502,-0.513384,0.364212,-0.284313,-0.810785,0.511658
-0.541434,-0.082785,0.845030,0.983495,-0.157142,-0.089686
0.066887,0.281357,0.642912,0.616810,-0.383900,-0.687144
-0.489172,0.280795,0.768988,0.845306,0.464369,-0.264234
-0.369119,-0.239831,0.307577,-0.679431,0.480729,0.554322
0.215057,0.256891,0.490035,-0.531782,0.524823,0.664657
-0.207685,-0.607227,-0.768808,0.997920,0.056761,-0.030574
