0.750640,0.115564,0.722560,-0.813929,0.578601,0.052353
0.436572,-0.665971,0.798596,-0.543701,-0.509386,0.667019
0.522332,-0.492028,0.796295,-0.277295,0.405935,0.870818
0.549276,-0.435867,0.792087,0.722896,0.059341,-0.688404
0.549662,-0.411982,0.745440,0.941061,-0.176231,0.288699
0.374765,-0.946514,0.795506,0.864961,0.348255,-0.361333
0.380173,-0.917030,0.756748,0.714382,0.492968,-0.496629
0.476072,-0.753509,0.817498,0.804003,-0.043921,-0.593001
0.602586,-0.325328,0.786400,-0.624215,-0.666767,-0.407157
0.644405,-0.251252,0.807275,-0.683763,0.359184,0.635180
0.654450,-0.216185,0.776834,0.310852,0.879778,-0.359669
0.703510,-0.134106,0.810562,0.802992,-0.127103,-0.582279
0.661886,-0.158379,0.689818,0.003930,0.998632,0.052142
0.702351,-0.086204,0.708391,0.194743,-0.871554,0.449964
0.708240,-0.055463,0.669535,0.861263,0.038036,-0.506733
0.596987,-0.642714,0.765525,0.085073,0.869615,0.486346
0.707371,-0.461916,0.851062,-0.390222,0.133714,0.910960
0.792553,-0.289756,0.851522,-0.220578,-0.797675,0.561302
0.496546,-0.681598,0.755203,-0.705744,0.635484,-0.313186
0.570620,-0.546026,0.783770,-0.279204,-0.792545,0.542142
0.598820,-0.464839,0.734164,0.881829,-0.441163,0.166593
0.661208,-0.365987,0.788964,0.885097,0.390196,0.253674
0.714035,-0.230795,0.731304,0.059422,0.945425,0.320377
0.711621,-0.209957,0.678246,0.052904,0.962891,0.264654
0.767731,-0.095479,0.674630,0.925695,-0.015162,-0.377967
0.429714,-0.962900,0.730219,0.310330,0.923594,-0.225096
0.601428,-0.660000,0.819208,-0.257973,-0.298722,0.918812
0.675116,-0.622893,0.781042,0.219468,-0.971053,0.094286
0.766090,-0.467127,0.838669,0.674831,-0.730699,-0.103351
0.837266,-0.310842,0.812370,0.322476,0.918006,-0.230813
0.672219,-0.456580,0.427290,-0.690428,-0.598143,0.406860
0.740112,-0.656945,0.824862,0.532750,0.243944,0.810351
0.778162,-0.587321,0.839556,0.925958,-0.348209,0.146123
0.808969,-0.503079,0.794323,0.171017,-0.763039,0.623318
0.887004,-0.314525,0.731600,-0.690015,-0.516686,-0.506868
1.000000,-0.033990,0.621638,-0.188213,0.651792,0.734672
0.716838,-0.830632,0.819274,-0.662877,0.560010,-0.496973
0.800472,-0.659108,0.813915,-0.681038,0.567985,-0.462148
0.858127,-0.542598,0.814310,0.854363,-0.202922,0.478420
0.874160,-0.500411,0.793764,-0.879670,0.466655,-0.091722
0.905451,-0.438666,0.797380,0.732228,0.327405,-0.597200
0.619778,-0.432563,0.417954,0.584117,0.730495,-0.353814
0.487566,-0.407282,0.324166,0.184208,0.981914,0.043741
0.453764,-0.702303,-0.979102,0.035119,0.116895,0.992523
0.409337,-0.762528,-0.971936,0.118248,0.237308,0.964211
0.440822,-0.491516,-0.193196,0.399276,0.915181,-0.054970
0.431936,-0.366243,0.279886,-0.140998,-0.986105,0.087848
0.421700,-0.349469,0.387086,0.025468,-0.978655,0.203925
0.423147,-0.565971,-0.975322,0.400614,-0.223420,0.888590
0.371770,-0.638271,-0.974401,0.064124,0.398060,0.915115
0.319521,-0.710818,-0.972232,0.180412,-0.131194,-0.974802
0.265053,-0.787693,-0.974237,0.331566,0.329131,-0.884159
0.332849,-0.487964,-0.252401,0.043970,-0.993135,0.108393
0.176590,-0.627088,0.032053,0.934035,-0.240588,-0.264002
0.265825,-0.470811,0.139122,0.054938,-0.997773,0.037832
0.283114,-0.387584,0.346389,0.690132,0.585703,-0.425052
0.291996,-0.362939,0.389782,-0.738321,0.662432,-0.126750
0.152057,-0.558100,0.396817,0.925076,0.369262,0.088770
0.415326,-0.510322,-0.985513,-0.624412,0.071250,0.777839
0.372348,-0.568895,-0.977524,-0.096928,-0.103850,0.989859
0.339899,-0.609174,-0.958228,-0.567803,0.129335,-0.812941
0.278961,-0.696084,-0.963652,-0.864372,0.402835,0.300972
0.228837,-0.765204,-0.959641,-0.420330,-0.767527,0.483969
0.279924,-0.588973,-0.596882,0.632702,0.765319,-0.118215
0.267852,-0.596720,-0.563943,0.277059,-0.887268,0.368773
0.269881,-0.568011,-0.474725,0.724547,-0.664263,0.183809
0.275194,-0.546786,-0.427847,0.776661,0.605308,0.174355
0.239750,-0.592656,-0.413317,0.294210,0.735351,-0.610491
0.197159,-0.650338,-0.404704,-0.761359,0.627260,-0.163945
0.279055,-0.502954,-0.294710,-0.668125,0.730120,-0.143297
0.236081,-0.561908,-0.288792,-0.717326,0.446758,0.534650
0.168574,-0.588716,-0.054569,0.916686,-0.388256,-0.094573
0.155438,-0.599008,-0.025575,0.781501,-0.623835,-0.009292
0.157274,-0.584653,0.016306,0.963635,-0.037987,-0.264507
0.212515,-0.483389,0.098030,-0.213226,0.967918,-0.132924
0.244095,-0.376278,0.315126,0.948138,0.134403,-0.288046
0.127819,-0.520868,0.380511,0.907582,0.412989,-0.075732
0.413684,-0.504862,-0.983277,0.341041,0.666113,0.663313
0.371093,-0.561784,-0.972955,0.503990,0.238729,0.830061
0.331402,-0.614642,-0.962008,-0.624466,0.326786,-0.709403
0.283597,-0.680326,-0.957965,-0.761931,0.105571,0.638996
0.267564,-0.611462,-0.650335,-0.661618,-0.384719,0.643625
0.288908,-0.562040,-0.586889,0.875508,0.482164,-0.031677
0.273939,-0.574362,-0.556448,-0.360687,0.871398,-0.332520
0.259645,-0.584397,-0.523640,0.939826,-0.340118,-0.032349
0.258872,-0.572579,-0.479886,0.560118,-0.770838,-0.303441
0.269205,-0.542466,-0.427354,0.767263,0.608043,0.203939
0.232989,-0.589989,-0.415191,0.650130,0.606722,-0.457404
0.209329,-0.616417,-0.392738,0.915814,-0.196593,0.350194
0.248828,-0.537767,-0.317228,-0.742393,0.543045,-0.392372
0.231059,-0.555045,-0.290403,0.949553,0.117375,-0.290814
0.232314,-0.539798,-0.246649,0.438061,-0.863554,0.249754
0.356993,-0.273486,0.057004,-0.739741,0.672887,0.002637
0.159882,-0.585793,-0.058744,0.990179,-0.128430,-0.055238
0.155535,-0.580838,-0.021169,0.958323,-0.251375,-0.135747
0.160654,-0.560388,0.023769,0.952906,-0.140141,-0.268943
0.206915,-0.471951,0.100166,0.320088,0.942541,0.095708
0.222367,-0.389236,0.303883,-0.187865,-0.930641,0.314029
0.123955,-0.504862,0.381235,0.740055,0.477446,0.473670
0.428556,-0.491648,-0.977261,0.811157,0.402520,-0.424266
0.378240,-0.562800,-0.976012,0.162332,0.062608,0.984748
0.335360,-0.618829,-0.965394,0.346959,-0.389113,0.853353
0.294894,-0.671431,-0.952968,-0.458800,0.661976,-0.592697
0.237723,-0.752749,-0.955236,-0.293930,-0.406162,0.865238
0.283114,-0.590880,-0.640374,-0.870872,-0.073963,0.485912
0.276064,-0.588592,-0.600860,-0.934300,0.098677,0.342560
0.276450,-0.574106,-0.556974,0.844569,-0.454121,0.283686
0.275772,-0.561528,-0.514765,0.938362,-0.240211,0.248549
0.267852,-0.560768,-0.476927,0.496922,0.812970,0.303559
0.274517,-0.536875,-0.428965,0.734814,0.672117,0.091142
0.237723,-0.584653,-0.415520,0.634099,-0.575212,0.516768
0.209812,-0.617053,-0.394645,0.899329,0.121300,0.420110
0.256458,-0.526204,-0.313480,0.561602,-0.822411,0.090794
0.232217,-0.553145,-0.291850,0.627136,-0.588103,-0.510721
0.216667,-0.565723,-0.263250,0.777033,-0.495790,0.387830
0.283886,-0.402706,-0.043030,0.753280,-0.652397,0.083357
0.361629,-0.261039,0.059634,-0.845924,0.525292,0.092093
0.161427,-0.579697,-0.058777,0.990179,-0.128430,-0.055238
0.170021,-0.553525,-0.012787,0.969237,-0.022183,0.245126
0.168765,-0.542854,0.027056,0.956112,-0.030607,-0.291398
0.209617,-0.463187,0.097602,-0.115690,0.933949,0.338165
0.190784,-0.481861,0.123145,-0.483638,-0.875030,-0.020407
0.180451,-0.486057,0.155032,0.737703,-0.458407,0.495638
0.186826,-0.463312,0.199543,0.482453,0.872885,-0.072880
0.175237,-0.470811,0.228932,-0.572415,-0.784489,-0.238576
0.198029,-0.421132,0.283995,0.150106,-0.953084,0.262867
0.424886,-0.445653,-0.980286,0.033942,0.502237,0.864064
0.372348,-0.518325,-0.978478,-0.221053,0.138543,0.965371
0.333913,-0.568011,-0.964276,0.831672,0.166762,0.529634
0.318944,-0.578302,-0.931173,-0.268588,-0.931208,0.246398
0.300497,-0.594944,-0.901291,0.656291,-0.732934,0.179139
0.288136,-0.600791,-0.864538,0.987060,0.006322,-0.160225
0.276450,-0.606382,-0.829298,-0.655819,-0.742495,0.136392
0.271233,-0.599519,-0.786760,0.369584,-0.908997,-0.192695
0.280217,-0.554796,-0.686397,0.744914,-0.633459,-0.209364
0.273358,-0.552633,-0.648329,-0.524530,-0.559079,0.642105
0.267081,-0.549329,-0.609900,0.863097,0.186412,-0.469376
0.261286,-0.544374,-0.569466,0.720396,0.692847,-0.031520
0.261575,-0.529508,-0.525383,0.993227,-0.062822,0.097743
0.254817,-0.526716,-0.486296,0.283837,0.792974,0.539100
0.252306,-0.517061,-0.444087,0.652147,0.409222,-0.638154
0.251050,-0.505110,-0.400924,0.223581,0.974394,-0.023813
0.247670,-0.497107,-0.361673,0.946402,-0.262331,-0.188430
0.248056,-0.482877,-0.319891,0.688718,0.566345,0.452682
0.240522,-0.481861,-0.282941,-0.269605,-0.873173,0.406057
0.229901,-0.486057,-0.250330,0.801165,-0.100039,0.590022
0.219373,-0.490376,-0.216438,-0.523746,-0.740181,0.421689
0.222656,-0.471570,-0.171434,0.991918,0.060959,0.111280
0.211453,-0.476782,-0.138002,0.948932,0.302596,-0.089236
0.242937,-0.411345,-0.072551,-0.625857,0.723992,0.290068
0.278380,-0.339558,-0.004601,-0.599529,0.800343,0.003969
0.202470,-0.452516,-0.023569,-0.357792,0.820527,-0.445781
0.184120,-0.470554,0.001349,0.029474,0.998415,-0.047949
0.183157,-0.459248,0.041454,0.989649,-0.098149,-0.104699
0.181612,-0.448577,0.080870,0.983869,-0.113843,0.137989
0.174173,-0.447430,0.115617,0.852960,0.452742,-0.259774
0.168574,-0.444762,0.149641,-0.614053,-0.716711,-0.330552
0.165290,-0.438154,0.185243,0.799394,0.592413,0.100077
0.159110,-0.435998,0.219957,0.833090,0.550269,0.056263
0.160074,-0.422017,0.258518,0.865994,-0.139068,-0.480327
0.147713,-0.430151,0.288236,0.886184,-0.460558,-0.050629
0.142016,-0.426848,0.322884,0.830497,0.492509,0.260212
0.160171,-0.384537,0.375054,0.919116,0.345741,0.188914
0.124536,-0.431927,0.384785,0.985534,0.038921,-0.164945
0.112944,-0.438914,0.412826,0.977980,0.208700,-0.000070
0.400162,-0.421256,-0.982094,0.178482,-0.174159,0.968407
0.350138,-0.490632,-0.980088,0.017736,0.172394,0.984868
0.315369,-0.534083,-0.962797,-0.443523,-0.815288,-0.372280
0.304938,-0.536495,-0.925650,-0.110689,0.992282,-0.055901
0.286783,-0.551997,-0.893927,0.783195,-0.609448,0.123201
0.279636,-0.549074,-0.852737,0.893175,0.428985,0.134944
0.291033,-0.514773,-0.795570,0.880751,0.454725,-0.132300
0.277222,-0.523157,-0.762466,0.978433,-0.018955,0.205694
0.267564,-0.524552,-0.726009,0.979447,0.186550,0.076694
0.262541,-0.518325,-0.684030,0.280723,0.959789,-0.000294
0.256167,-0.515153,-0.645469,0.841975,0.370942,-0.391765
0.250181,-0.510702,-0.605035,0.656118,0.743106,0.131543
0.235789,-0.519853,-0.571899,0.820535,-0.420151,-0.387550
0.243420,-0.492152,-0.520222,0.932121,0.009793,0.362015
0.237142,-0.488849,-0.482581,-0.558338,-0.794892,-0.237500
0.238881,-0.472462,-0.438597,0.425108,0.672365,-0.605977
0.235017,-0.465095,-0.397965,-0.531274,-0.836803,-0.132320
0.183446,-0.537262,-0.398261,-0.711504,-0.660087,-0.240930
0.222367,-0.457852,-0.322652,-0.702411,-0.708972,0.063072
0.221592,-0.445398,-0.280179,-0.225917,-0.919296,0.322268
0.205079,-0.458736,-0.250626,0.953047,0.169418,0.250997
0.203726,-0.447941,-0.210849,0.873716,0.480268,-0.077221
0.196581,-0.447049,-0.176036,0.951082,0.304851,-0.050094
0.202279,-0.424180,-0.129323,0.954490,0.025260,0.297172
0.208557,-0.400295,-0.084155,-0.026176,0.860292,0.509129
0.177071,-0.439046,-0.067587,-0.512231,-0.264731,-0.817029
0.175335,-0.428624,-0.027711,0.135610,-0.967250,0.214565
0.163263,-0.435611,0.003716,0.963540,0.154226,-0.218642
0.170021,-0.399147,0.087083,0.490787,0.854412,0.170614
0.152540,-0.414773,0.113842,0.993411,0.053423,-0.101390
0.140468,-0.422528,0.142869,0.862667,0.498073,-0.087911
0.143560,-0.404870,0.184947,0.892827,-0.446052,-0.062436
0.134577,-0.406770,0.218116,0.999926,0.011113,0.005042
0.138635,-0.386948,0.260523,0.940797,-0.301351,-0.155203
0.107344,-0.402071,0.350432,0.873660,0.450504,0.183749
0.094114,-0.412361,0.377060,0.997857,-0.026455,-0.059850
0.358057,-0.436503,-0.981929,-0.012154,0.074613,0.997139
0.307063,-0.507398,-0.979201,0.026507,-0.420338,-0.906981
0.280217,-0.536495,-0.954414,0.313459,-0.936231,-0.158791
0.230189,-0.605111,-0.950535,0.638203,0.644037,-0.421797
0.165482,-0.699767,-0.961383,-0.620698,-0.531884,-0.576049
0.253850,-0.519729,-0.790967,0.457887,-0.219443,-0.861501
0.252789,-0.506134,-0.746720,0.924370,-0.377539,0.054819
0.245061,-0.503211,-0.706252,-0.329209,0.030706,0.943758
0.232798,-0.508670,-0.670486,0.799963,-0.529732,0.281857
0.236273,-0.487964,-0.621702,-0.523132,-0.844503,-0.114660
0.224489,-0.493680,-0.588039,-0.401206,0.915197,0.038062
0.197740,-0.494696,-0.479458,0.900178,-0.434834,0.024462
0.197354,-0.466491,-0.391456,0.803249,-0.494564,0.331961
0.197932,-0.422784,-0.263907,0.088486,-0.966931,0.239197
0.166449,-0.460900,-0.246649,-0.249899,-0.923468,-0.291130
0.185860,-0.414905,-0.190040,0.882140,0.457219,-0.113050
0.184218,-0.403979,-0.149146,0.996726,0.049725,-0.063750
0.187021,-0.385429,-0.104504,0.850870,-0.263886,0.454295
0.140180,-0.449213,-0.100033,0.840475,-0.222443,0.494087
0.149935,-0.419985,-0.052334,0.845886,-0.506481,0.167195
0.158046,-0.392920,-0.006146,0.322605,-0.946358,-0.018249
0.135832,-0.416681,0.017227,-0.331050,-0.943568,-0.009196
0.381718,0.005149,0.248196,0.884309,0.397611,-0.244752
0.379398,0.014672,0.285902,-0.642104,-0.756469,-0.124324
0.368390,0.009089,0.316573,-0.114274,-0.993340,0.014738
0.070644,-0.395084,0.357401,0.910604,0.364769,0.194280
0.269303,-0.510702,-0.747476,0.982070,-0.157572,0.103491
0.261189,-0.509182,-0.709606,0.989054,-0.109158,0.099279
0.250664,-0.511338,-0.674036,0.552987,-0.686114,0.472708
0.249117,-0.498255,-0.629394,0.916291,0.384417,0.112407
0.241681,-0.496091,-0.591984,0.157000,0.983155,0.093585
0.231734,-0.481357,-0.509702,0.409920,-0.911953,-0.017544
0.229031,-0.470811,-0.467197,0.843192,0.537594,0.004505
0.233570,-0.447809,-0.420451,0.951420,0.191447,0.241139
0.204017,-0.483645,-0.402830,0.848118,-0.516400,0.118436
0.214834,-0.449461,-0.349740,0.794928,0.279654,0.538408
0.224489,-0.419100,-0.299969,0.754137,0.650232,0.092065
0.212323,-0.424304,-0.266636,0.119728,-0.960982,0.249356
0.187696,-0.450477,-0.243624,0.892426,-0.251051,0.374899
0.193779,-0.425832,-0.195958,0.936850,0.347264,-0.041480
0.183543,-0.429259,-0.163577,0.872613,-0.465097,-0.149100
0.202762,-0.383009,-0.107462,0.906906,-0.159501,0.389975
0.162971,-0.435231,-0.097600,0.813705,-0.455898,0.360612
0.164035,-0.419605,-0.056574,0.895147,-0.126355,0.427487
0.163937,-0.405119,-0.015252,0.374868,-0.804350,0.460972
0.334877,-0.104506,0.160654,-0.008247,0.984925,-0.172788
0.135930,-0.438154,0.003683,0.880769,0.202604,0.428015
0.381909,-0.011881,0.237775,0.843475,0.511011,-0.165583
0.357476,-0.026367,0.294843,-0.159341,0.987182,-0.009015
0.112655,-0.422404,0.144611,0.574747,-0.818329,0.002099
0.078758,-0.411857,0.312825,0.997689,0.015866,0.066062
0.109952,-0.347181,0.373608,0.036619,-0.711620,0.701610
0.065525,-0.407406,0.378835,0.924963,0.379247,0.024790
0.377854,-0.438790,-0.980713,-0.375092,0.026783,-0.926601
0.329565,-0.505747,-0.977360,0.017361,0.404471,0.914386
0.305035,-0.531415,-0.952672,-0.447954,-0.822754,-0.349875
0.282244,-0.553393,-0.924467,0.481860,-0.875667,0.031917
0.263992,-0.568639,-0.894322,-0.331416,0.937941,-0.102132
0.275772,-0.532431,-0.836267,0.386154,-0.751981,0.534237
0.280794,-0.507654,-0.784557,0.599381,0.689468,-0.406664
0.290838,-0.450733,-0.985118,-0.091148,0.907258,0.410579
0.234631,-0.529763,-0.986630,-0.281961,0.268859,0.920985
0.188951,-0.591260,-0.978247,-0.359206,0.265930,0.894568
0.102805,-0.459503,-0.245827,-0.206853,-0.946338,-0.248306
0.148293,-0.339054,-0.083728,0.889660,-0.274563,0.364856
0.072964,-0.409818,0.018969,0.089915,-0.837305,0.539292
0.270655,-0.051136,0.252568,0.998232,-0.040031,-0.043939
0.356802,0.106150,0.358749,0.895636,0.289697,-0.337510
-0.139891,-0.629252,0.249083,0.975106,-0.172952,0.138768
0.312280,-0.387964,-0.986663,-0.105920,0.365668,0.924699
0.262639,-0.456580,-0.984329,0.214871,0.297672,-0.930173
0.202470,-0.543358,-0.991594,0.131537,-0.180730,-0.974697
0.152832,-0.611842,-0.987419,-0.282269,0.291998,0.913817
0.342893,-0.377170,-0.984954,0.154024,0.586436,0.795217
0.170021,-0.270314,-0.086160,-0.379503,0.487667,-0.786230
0.122602,-0.335874,-0.082544,0.636871,0.416034,-0.649085
0.064078,-0.376534,0.034781,-0.009865,-0.891150,0.453602
0.066878,-0.358364,0.076005,-0.540540,-0.836717,0.087866
-0.055968,-0.494572,0.179260,0.803919,-0.020956,0.594369
0.087352,-0.214913,0.401682,0.847372,0.346499,-0.402366
0.053648,-0.233850,0.139976,0.355847,0.803795,-0.476747
-0.136222,-0.469414,0.229918,0.799607,0.137340,0.584607
0.041864,-0.158503,0.401583,0.425487,0.653123,-0.626412
0.144141,-0.223684,-0.193558,-0.762718,0.193259,-0.617181
0.142691,-0.167778,-0.029092,-0.515131,-0.848452,-0.121529
-0.034526,-0.287212,0.101054,0.726795,0.475656,0.495500
0.023128,-0.094463,0.415916,0.376810,0.671983,-0.637536
-0.117486,-0.259132,0.142902,0.388794,-0.766952,0.510513
0.043506,0.085576,0.087346,0.558258,-0.577681,0.595511
-0.263220,-0.181116,0.218610,0.439568,-0.829086,0.345536
-0.258778,-0.160659,0.260951,-0.014171,-0.962634,0.270435
-0.044379,0.210469,0.133369,0.916605,0.372735,0.144579
-0.312569,-0.118356,0.275415,0.102166,-0.948678,0.299286
-0.196484,0.455557,0.372326,-0.313112,0.944420,-0.100157
-0.270464,0.437643,0.401320,-0.278772,0.959296,-0.045136
-0.972187,0.195983,0.687517,0.224710,0.953752,-0.199654
-0.374862,0.899760,0.662303,-0.430133,0.891793,-0.140327
-0.895021,0.160543,0.642842,0.975140,-0.183836,-0.123718
-0.938095,0.101962,0.648529,0.856384,0.460208,-0.234124
-0.893188,0.190399,0.715886,0.406352,0.774306,0.485107
-0.874546,0.169942,0.694650,0.961921,0.256097,-0.095510
-0.865083,0.054060,0.677129,0.852544,0.456328,-0.254822
-0.566565,0.377046,0.534096,-0.237067,0.862423,-0.447242
-0.645178,0.271842,0.549317,0.991761,-0.122728,-0.036707
-0.906804,-0.073122,0.613223,0.473932,-0.614640,0.630560
-0.828769,0.069058,0.702441,0.729584,0.426271,-0.534790
-0.588584,0.258116,0.555891,0.482179,0.053680,-0.874427
-0.615820,0.226351,0.573018,0.388942,0.920763,-0.030318
-0.478197,0.400807,0.605596,0.107676,-0.986508,-0.123323
-0.461200,0.396743,0.610067,0.128703,-0.990605,-0.046241
-0.276933,0.642078,0.763586,0.350661,-0.795746,0.493786
-0.410884,0.432695,0.703099,0.436624,-0.883134,0.171564
-0.417162,0.433843,0.732915,-0.441045,0.820305,-0.364115
-0.373510,0.352897,0.582453,0.640240,0.521026,0.564469
-0.357188,0.415665,0.700370,-0.364705,-0.891930,0.267303
-0.629920,0.036658,0.717464,-0.282080,-0.958893,0.030910
-0.525521,0.057999,0.570257,0.714455,-0.557301,-0.423048
-0.211840,0.392928,0.489060,0.952598,0.303844,0.015380
-0.255398,0.461156,0.883344,0.649448,0.210733,-0.730622
-0.528707,0.024715,0.725716,-0.630095,-0.489191,0.603053
-0.467961,0.135510,0.803034,-0.418975,0.889785,0.180951
-0.524652,0.065374,0.832259,0.141831,0.518903,-0.842985
-0.367907,0.106538,0.766183,0.657620,0.095393,0.747286
-0.426048,0.022807,0.760890,-0.638690,-0.717609,0.277690
-0.436092,0.018364,0.789194,-0.081714,0.993437,0.080040
-0.460525,-0.009849,0.806519,-0.536606,0.842197,-0.052525
-0.475206,-0.022932,0.829859,-0.636202,0.770436,-0.040933
-0.518180,-0.081884,0.835217,0.868306,-0.463752,0.176007
-0.553046,-0.128011,0.844750,0.701869,-0.702842,0.115731
-0.541360,-0.096883,0.887486,0.576976,-0.806119,0.131422
-0.134869,0.226987,0.555694,0.005440,-0.784535,0.620060
-0.424114,-0.214408,0.453984,-0.400605,-0.607402,-0.685988
-0.229226,0.143513,0.701882,0.410401,-0.797191,0.442784
-0.212132,0.184800,0.750108,-0.576092,0.618207,0.534732
-0.229901,0.168034,0.773218,0.348069,-0.664935,0.660840
-0.350718,-0.019372,0.723283,0.729156,0.203394,0.653424
-0.388093,-0.069438,0.731238,0.040670,-0.686462,0.726028
-0.454731,-0.167654,0.718746,0.911290,0.195177,0.362569
-0.471053,-0.182265,0.742876,0.975119,-0.062720,0.212624
-0.437734,-0.115300,0.800075,-0.602587,0.212523,-0.769235
-0.119225,0.184676,0.695735,-0.208686,-0.939290,0.272369
-0.162780,0.137418,0.736301,0.290130,0.948180,0.129537
-0.135063,0.194463,0.790345,-0.422651,0.301573,-0.854646
-0.324836,-0.107173,0.689653,0.926120,-0.337419,0.168669
-0.349366,-0.134998,0.708326,0.784445,-0.376127,0.493127
-0.398621,-0.203862,0.708523,-0.098911,0.350444,0.931346
-0.459172,-0.291532,0.701882,0.476792,-0.549089,0.686418
-0.455698,-0.273874,0.739917,0.995577,-0.017250,0.092349
-0.395723,-0.151384,0.850733,0.621302,-0.157145,-0.767652
-0.066589,0.074649,0.502209,0.811266,-0.138731,0.567980
-0.151577,-0.003110,0.622427,0.506210,0.826100,-0.247611
-0.137189,0.032718,0.667891,-0.615721,-0.559046,0.555298
-0.049690,0.190275,0.766939,0.440253,-0.232725,0.867189
-0.014826,0.259388,0.825815,0.040524,0.943095,0.330044
-0.321260,-0.233974,0.643335,0.493779,-0.842724,0.214473
-0.327538,-0.232198,0.674926,0.763870,-0.474761,0.437155
-0.331788,-0.227111,0.707734,0.533543,-0.649376,0.541888
-0.415037,-0.352012,0.683670,0.801071,-0.207379,0.561498
-0.263606,-0.090779,0.824040,-0.785542,0.159604,-0.597872
-0.273456,-0.095099,0.852246,0.186964,0.948138,-0.257056
-0.322999,-0.164599,0.851621,-0.794138,0.533562,-0.290957
-0.317302,-0.143257,0.890543,0.801157,-0.595107,0.063204
-0.331788,-0.154820,0.915297,-0.313341,0.938416,0.145576
0.361823,0.582877,0.623907,0.006015,0.952997,0.302921
0.010768,0.035642,0.469237,0.952055,0.293310,0.086949
-0.023612,-0.009469,0.481104,-0.683392,-0.562953,-0.464821
-0.018399,0.051524,0.631402,0.010899,-0.565626,0.824590
-0.054809,0.016456,0.676866,-0.453926,-0.562848,0.690763
0.025254,0.162187,0.770982,0.787376,-0.473329,-0.394967
-0.049881,0.050128,0.752803,0.941084,0.067263,0.331415
0.005746,0.155208,0.828511,0.740189,0.081663,0.667422
-0.054131,0.067910,0.819668,0.974678,-0.221015,0.034001
-0.108505,-0.010353,0.815066,-0.103904,-0.932692,0.345382
-0.154957,-0.074262,0.817860,-0.515729,0.856197,-0.030838
-0.199865,-0.136650,0.820293,0.557661,-0.726743,-0.401072
-0.248828,-0.204622,0.821410,-0.421237,-0.385374,-0.821003
-0.250953,-0.195859,0.855500,-0.439196,-0.485462,0.755932
-0.266889,-0.210213,0.879366,-0.307752,0.479977,0.821530
-0.301850,-0.256208,0.888867,-0.646112,0.748876,-0.147386
0.411461,0.541326,0.672362,0.194876,-0.978968,-0.060372
0.019073,-0.088492,0.449447,0.824607,0.559888,-0.080919
-0.048820,-0.135502,0.585379,-0.217474,-0.677408,0.702726
-0.099717,-0.207802,0.583801,-0.545896,0.707406,-0.448970
0.104638,0.143761,0.766775,0.827248,0.391875,-0.402610
0.097494,0.144909,0.797478,0.333455,-0.478259,0.812450
0.161621,0.263715,0.877788,0.861201,0.504543,0.061394
-0.052684,-0.078969,0.760167,0.835738,-0.549127,0.001370
-0.086389,-0.121908,0.771936,-0.597311,-0.754672,0.271458
-0.143755,-0.204118,0.767498,0.428020,0.378284,0.820792
-0.160849,-0.220504,0.789622,0.635186,0.510048,0.579991
-0.174754,-0.231183,0.814080,0.992442,-0.112813,-0.048288
-0.135738,-0.154308,0.876440,-0.565224,0.627900,0.535036
-0.150708,-0.166887,0.899649,-0.344300,0.605516,-0.717502
-0.179874,-0.202846,0.914376,0.499120,0.851191,-0.162338
-0.199962,-0.223684,0.935218,-0.485424,-0.766489,0.420545
0.430969,0.503467,0.730844,0.330779,0.940005,0.083522
0.009029,-0.135122,0.600501,-0.606513,-0.549356,0.574761
-0.093147,-0.292672,0.561480,-0.169211,0.884355,-0.435068
0.073542,-0.002605,0.719338,0.948238,-0.203375,-0.243890
0.002848,-0.107429,0.704611,0.389108,-0.444172,-0.807035
-0.029890,-0.148592,0.717464,0.960504,-0.230586,0.155763
-0.055001,-0.178069,0.734230,0.910298,-0.321183,0.261149
-0.066300,-0.184420,0.760759,-0.093046,0.701291,0.706777
-0.103289,-0.233214,0.770193,0.747130,0.085138,0.659203
-0.149838,-0.298015,0.771541,-0.029114,0.236628,0.971164
-0.174852,-0.326979,0.789556,-0.474113,-0.512560,-0.715891
-0.142885,-0.261931,0.847249,-0.404697,0.913175,0.048282
-0.137189,-0.239822,0.886434,0.101024,-0.775408,0.623327
-0.147810,-0.245793,0.912831,-0.069440,-0.971375,0.227176
0.538751,0.564452,0.812896,0.391994,-0.413996,-0.821552
0.456369,0.439674,0.787814,-0.228185,0.759249,0.609486
0.427784,0.404607,0.802870,0.858119,-0.231312,0.458396
-0.001499,-0.310338,0.485937,0.124925,-0.826460,0.548961
0.402673,0.375898,0.820621,0.754225,-0.483746,0.443998
-0.005746,-0.303854,0.520487,-0.007757,-0.987185,0.159388
0.029987,-0.218984,0.618121,0.990370,0.117660,-0.072963
0.051812,-0.170190,0.670587,0.085803,-0.107162,0.990532
-0.000918,-0.245537,0.667562,0.764518,-0.210336,0.609320
0.001882,-0.227491,0.706123,0.972715,0.092234,0.212881
-0.036459,-0.278573,0.714802,-0.886618,0.267549,-0.377261
-0.048145,-0.284925,0.742678,0.998443,-0.044090,-0.034179
-0.133324,-0.401311,0.751554,0.929791,-0.355853,0.094108
-0.170796,-0.450989,0.760923,0.198018,-0.708252,0.677619
-0.161333,-0.423288,0.801653,-0.652887,0.497148,-0.571474
-0.146555,-0.386189,0.847347,0.814305,0.396321,-0.424073
-0.076923,-0.258627,0.930780,0.719189,0.689058,-0.089249
0.174173,0.017728,0.844126,0.707483,-0.429941,0.560909
0.076150,-0.107933,0.879235,0.016237,-0.997354,0.070860
-0.162780,-0.488600,0.747083,0.168016,-0.941768,-0.291278
-0.152252,-0.459372,0.789983,0.878443,-0.393507,0.271092
-0.114300,-0.385297,0.850273,0.671166,0.225942,-0.706036
-0.137091,-0.410966,0.868255,0.878532,0.136989,-0.457619
-0.127819,-0.383776,0.909511,0.798309,0.240711,-0.552051
0.560673,0.498503,0.664735,-0.203638,-0.974263,0.096661
0.569751,0.563428,0.816446,0.391994,-0.413996,-0.821552
0.491719,0.445646,0.793172,-0.150979,-0.891592,-0.426931
0.035009,-0.312749,0.454575,0.694970,-0.595729,0.402646
0.013182,-0.336255,0.474825,-0.801746,0.171688,-0.572474
0.410014,0.334611,0.803856,-0.412292,0.907689,0.078200
0.008257,-0.331679,0.508784,-0.255548,0.923177,-0.287123
0.037906,-0.269802,0.566411,0.932856,0.360208,-0.005436
0.043603,-0.247569,0.607634,0.995371,0.091106,0.030588
0.027573,-0.261799,0.632519,0.946462,0.224797,0.231682
0.022068,-0.258240,0.665689,0.799414,-0.596813,0.068929
0.187598,0.027763,0.819438,0.936551,0.168807,-0.307208
0.412428,0.105265,0.452373,0.802762,-0.520779,-0.290452
0.362787,0.036022,0.452932,-0.434539,0.900631,-0.006282
0.389251,0.093199,0.511151,0.400289,-0.912811,-0.080894
0.083875,-0.363699,0.429394,0.776324,-0.367141,0.512376
0.522621,0.377805,0.792350,0.258789,0.654880,0.710043
0.101741,-0.321388,0.480414,-0.640131,-0.664076,-0.386309
0.099616,-0.311989,0.516575,-0.380383,-0.875952,-0.296676
0.079531,-0.332446,0.539192,0.857315,0.513938,0.029660
0.077792,-0.322660,0.573709,0.753574,0.588706,0.292491
0.258003,0.000698,0.776571,-0.114643,0.882456,-0.456212
0.255106,0.007685,0.808951,0.034770,0.999198,0.019847
0.228256,-0.024583,0.825454,-0.258755,0.952673,0.159560
0.120672,-0.189507,0.784362,0.832111,0.156167,-0.532169
-0.015985,-0.402830,0.723086,0.894073,0.299617,-0.332961
0.136510,-0.139062,0.865329,0.896524,0.208940,0.390625
0.123183,-0.149104,0.889853,0.888045,0.246524,-0.388075
0.150707,-0.091671,0.944357,0.934722,-0.330191,0.131410
-0.082525,-0.464327,0.815099,0.550349,0.269356,0.790293
-0.067459,-0.427484,0.860793,0.444341,0.635110,-0.631819
-0.153316,-0.555937,0.836696,0.356287,0.817547,-0.452413
-0.055968,-0.383521,0.938834,0.984015,0.044783,-0.172365
0.367618,0.045553,0.429624,0.813864,-0.570079,-0.112408
0.360568,0.046948,0.462728,0.209923,-0.964560,0.159861
0.404992,0.132579,0.532880,-0.715827,0.250540,-0.651783
0.079047,-0.356200,0.438665,-0.675414,-0.552840,-0.488040
0.084744,-0.334859,0.479099,-0.558976,-0.710582,-0.427340
0.073444,-0.341210,0.508258,-0.582234,-0.704524,0.405770
0.470472,0.324436,0.834593,-0.398041,-0.820265,-0.410766
0.080880,-0.317201,0.549941,0.580726,0.609859,-0.539286
0.060023,-0.338798,0.571966,0.845415,0.506621,0.169143
0.238784,-0.020395,0.774500,-0.024336,-0.936661,0.349392
0.235695,-0.014292,0.806683,-0.160174,0.937997,0.307417
0.248247,0.017348,0.849550,-0.415280,0.753110,-0.510262
0.043701,-0.305886,0.739753,-0.537195,-0.353407,0.765849
-0.029023,-0.413377,0.722757,0.164549,0.081478,0.982998
0.174465,-0.068422,0.901720,-0.093763,0.309541,0.946252
0.052973,-0.255192,0.851687,0.917362,-0.162296,0.363465
0.156213,-0.074897,0.958854,0.873107,-0.351343,-0.337998
-0.089575,-0.465855,0.821410,0.679386,0.325087,0.657840
0.001979,-0.305382,0.918321,0.011866,0.304673,0.952383
-0.135641,-0.518077,0.858557,-0.374845,-0.697010,0.611284
-0.064273,-0.390004,0.940971,0.923609,0.184018,-0.336279
0.093147,-0.250368,0.880517,0.465983,-0.840098,-0.277660
-0.056353,-0.482497,0.811680,0.330362,0.729169,0.599311
0.038098,-0.317449,0.912042,-0.451466,-0.070939,-0.889464
-0.110050,-0.547678,0.844816,0.641951,0.380487,-0.665679
-0.086967,-0.498891,0.894225,-0.401334,-0.815877,0.416264
0.105800,-0.380341,0.423871,0.889709,-0.322406,-0.323223
0.087352,-0.398643,0.448132,0.893767,0.447914,-0.023548
0.086483,-0.388220,0.485049,0.798328,0.404005,0.446601
0.128205,-0.307670,0.551618,0.113131,-0.239969,0.964166
0.067845,-0.395208,0.543334,0.939284,0.286630,-0.188651
0.016465,-0.467375,0.543136,0.781076,-0.612789,-0.120040
0.284464,-0.016704,0.771837,0.284515,0.852092,-0.439307
-0.073834,-0.580713,0.587351,0.666997,-0.744675,-0.023973
-0.092086,-0.598123,0.611086,0.797826,-0.602340,-0.025714
-0.131008,-0.650338,0.618581,-0.724724,0.681105,0.104264
0.134771,-0.204878,0.840543,-0.559915,0.828184,0.024629
0.131972,-0.197767,0.873876,0.881545,-0.176232,0.437974
0.110144,-0.431679,0.448625,0.218488,0.422831,0.879475
0.091505,-0.450865,0.471045,0.928220,0.371124,0.025960
0.117966,-0.395208,0.528278,0.860008,0.469200,0.200591
0.085808,-0.436122,0.542117,-0.581614,-0.386732,0.715656
0.076247,-0.439550,0.572262,0.809982,0.585853,-0.026557
0.067553,-0.431547,0.636694,0.772777,0.592639,0.227144
0.032401,-0.477542,0.648069,0.979833,0.007921,0.199662
0.011251,-0.500667,0.668023,0.794002,-0.607761,0.013703
0.095755,-0.350865,0.763980,0.915632,-0.078646,-0.394250
0.026798,-0.440186,0.786926,0.112019,0.960383,0.255180
0.001398,-0.470935,0.802903,-0.571648,0.802777,-0.169612
0.042445,-0.393687,0.865198,0.901666,-0.046343,0.429943
-0.028829,-0.497999,0.851095,0.840820,-0.424089,0.336407
-0.057801,-0.534595,0.864606,-0.206483,-0.960455,0.186791
0.096239,-0.438030,0.689160,0.815619,-0.318089,-0.483306
0.091794,-0.433835,0.720818,-0.675258,-0.735205,-0.059155
0.069678,-0.458232,0.741100,0.537946,-0.773524,0.335073
0.068231,-0.450229,0.774303,0.554199,-0.811135,0.186879
0.058284,-0.454796,0.802837,-0.076504,0.976681,0.200604
0.011251,-0.520364,0.805598,0.447345,-0.764656,-0.463879
0.079433,-0.398767,0.887913,0.981467,-0.021840,0.190381
0.019748,-0.484909,0.880221,-0.703221,0.705043,0.091626
-0.011637,-0.525444,0.892088,-0.028915,-0.993144,0.113268
0.596117,0.232834,0.585214,-0.737938,0.655795,0.159312
0.444589,-0.004513,0.508323,-0.263397,-0.908224,-0.325192
0.419478,-0.022551,0.562992,0.155569,-0.986163,0.057275
0.404703,-0.023187,0.626372,0.770873,-0.461407,-0.439157
0.122699,-0.473858,0.454345,-0.642232,0.697469,0.317922
0.123183,-0.462040,0.490736,0.992575,-0.066554,0.101812
0.131874,-0.436883,0.534326,0.969812,0.014200,-0.243441
0.127141,-0.432439,0.566608,0.937240,0.286551,0.198671
0.128010,-0.419224,0.604117,0.935921,0.005837,-0.352161
0.105894,-0.444126,0.624827,-0.164383,0.975231,0.147997
0.105508,-0.433455,0.660922,-0.252338,0.868337,0.426985
0.588775,0.209073,0.580119,0.920003,-0.123001,-0.372109
0.419189,-0.056223,0.490177,-0.222369,-0.885704,-0.407529
0.442175,0.002730,0.580579,0.053497,0.998519,0.009909
0.406923,-0.032586,0.627621,-0.642625,0.611430,0.461721
0.131391,-0.470430,0.461019,0.985310,-0.170749,0.003004
0.115361,-0.473858,0.524103,-0.634541,-0.718192,0.285583
0.124052,-0.449081,0.566937,0.866969,0.467561,0.172485
0.118933,-0.446290,0.598627,0.966493,0.208005,-0.150418
0.411656,0.038565,0.843107,0.959394,0.277646,-0.049766
0.108405,-0.442094,0.662401,-0.247718,0.814890,0.524013
0.106572,-0.434727,0.695867,0.760933,-0.327764,-0.559956
0.095658,-0.441970,0.724105,0.754925,0.647681,0.102945
0.088414,-0.442474,0.754710,-0.609975,0.732382,-0.302569
0.093244,-0.424180,0.793501,0.066013,0.609493,0.790038
0.057801,-0.471066,0.802870,-0.144960,0.987892,-0.055289
0.043023,-0.484529,0.826506,0.359898,-0.932317,-0.035460
0.068133,-0.433579,0.878840,-0.334359,0.816400,-0.470846
0.019073,-0.502954,0.878479,0.437884,-0.864497,-0.246784
0.007676,-0.511090,0.905303,0.042127,-0.920520,0.388418
0.601042,0.203490,0.583538,0.888591,-0.440224,-0.128875
0.449128,-0.031951,0.507140,0.016911,0.973151,0.229546
0.445166,-0.017720,0.577160,0.053497,0.998519,0.009909
0.419286,-0.038053,0.632519,0.848564,-0.446718,-0.283518
0.130521,-0.494820,0.456811,0.734794,-0.659425,-0.158859
0.133999,-0.458488,0.567496,0.970384,0.238899,0.035803
0.157854,-0.409058,0.621310,0.127999,0.987481,0.092177
0.447003,0.068166,0.864047,0.858276,-0.142145,-0.493109
0.124630,-0.441714,0.670094,0.057297,-0.987809,0.144739
0.126563,-0.428624,0.706090,0.552727,-0.817778,-0.160414
0.113138,-0.440566,0.730975,0.958965,0.132304,-0.250762
0.103577,-0.445522,0.759904,-0.543218,0.839530,0.010170
0.108213,-0.427608,0.797347,0.145813,0.746606,0.649090
0.087352,-0.451245,0.817991,0.394705,0.918187,0.033756
0.076150,-0.458868,0.845408,0.922535,-0.339247,-0.183957
0.078564,-0.445017,0.882358,-0.651007,0.646754,0.397366
0.053648,-0.475510,0.898630,0.761659,-0.645422,0.057490
0.048528,-0.474238,0.928348,0.256765,0.902635,-0.345429
0.324255,-0.300551,0.450137,0.393365,-0.919294,0.012765
0.417548,-0.118100,0.628838,0.967632,0.219303,-0.124879
0.405570,-0.107297,0.727688,0.805454,0.591492,0.037147
0.446905,-0.020264,0.827426,0.958084,0.259136,-0.122160
0.182962,-0.435867,0.673447,0.326237,0.943634,0.055900
0.401612,-0.073881,0.864343,0.230870,-0.968043,-0.097938
0.119705,-0.506763,0.736597,-0.540168,0.802124,-0.254588
0.019748,-0.658093,0.700830,-0.184159,0.793209,0.580435
0.148774,-0.440822,0.824895,0.165638,-0.716057,0.678105
0.111400,-0.481101,0.867729,0.191497,-0.873560,0.447461
0.075280,-0.529252,0.877624,0.230408,-0.833380,-0.502384
0.102224,-0.476526,0.930649,0.541581,-0.535485,0.648033
0.636969,0.032842,0.658950,0.544943,0.390392,-0.742045
0.644791,0.055588,0.699910,0.946792,0.219556,-0.235329
0.393595,-0.341086,0.551815,-0.571944,0.820168,-0.014296
0.474430,-0.199798,0.646556,-0.711826,0.553520,0.432343
0.458494,-0.215169,0.671376,0.925186,0.333768,0.180637
0.460522,-0.201450,0.709246,0.475024,0.849212,0.230632
0.129557,-0.737627,0.469368,0.340458,0.888015,0.309060
0.466897,-0.180357,0.750042,0.903701,0.426066,-0.042340
0.479647,-0.149352,0.793698,0.890724,-0.452822,0.039536
0.510935,-0.089004,0.850240,-0.495943,0.452287,0.741267
0.408950,-0.243761,0.812863,0.542224,0.176244,0.821542
0.294025,-0.419605,0.765624,0.929080,0.363887,-0.066309
0.323385,-0.361411,0.821969,-0.148623,0.956108,0.252523
0.305133,-0.380341,0.844520,-0.033958,-0.929920,0.366190
0.123472,-0.663048,0.752771,-0.591161,0.350653,0.726341
0.238012,-0.458736,0.900077,0.782757,-0.218556,-0.582687
0.635808,-0.122040,0.583275,0.552885,0.786659,-0.274747
0.613695,-0.125723,0.677720,-0.113577,0.970125,0.214375
0.535176,-0.222032,0.726735,0.268608,-0.702637,0.658902
0.573034,-0.129662,0.859872,-0.160151,-0.593354,0.788849
0.489980,-0.253796,0.836499,0.627970,0.764577,0.145178
0.151577,-0.801792,0.595471,0.977807,0.205816,0.039160
0.129749,-0.826445,0.615195,0.843812,-0.532309,0.068032
0.347046,-0.464327,0.803659,0.620076,0.378559,-0.687168
0.396301,-0.374757,0.873580,0.987065,-0.151442,-0.052607
0.201215,-0.679310,0.771114,0.708884,0.697170,-0.106946
0.347529,-0.433331,0.907933,0.422158,-0.793181,-0.438915
0.335843,-0.442218,0.934561,0.257653,0.751479,-0.607367
0.213965,-0.628104,0.885152,0.304437,0.569828,-0.763292
0.690085,-0.155456,0.599383,0.642566,0.758535,-0.108324
0.605967,-0.229143,0.754118,0.790680,0.611504,-0.029786
0.589259,-0.246049,0.776571,0.856735,0.442719,0.264587
0.372640,-0.545646,0.797774,0.912404,-0.135954,-0.386051
0.294316,-0.662288,0.778149,-0.690307,0.537970,-0.483802
0.359312,-0.547042,0.857703,-0.051680,-0.775663,0.629028
0.398617,-0.463443,0.953529,-0.395016,0.876657,0.274653
0.371190,-0.498123,0.967763,0.655954,-0.754153,0.031261
0.722148,-0.104761,0.692875,0.267983,0.868361,-0.417295
0.505527,-0.415665,0.675912,0.973335,0.138552,-0.182818
0.619103,-0.221908,0.794060,0.620134,0.755102,0.212730
0.578540,-0.276789,0.800766,-0.263068,0.303427,-0.915821
0.479258,-0.408298,0.833672,0.985207,0.157160,-0.068314
0.386545,-0.547297,0.803757,0.787045,0.376548,-0.488643
0.289583,-0.693540,0.769766,-0.612688,0.786019,-0.082384
0.383070,-0.533323,0.870458,0.044853,-0.908014,0.416533
0.229320,-0.770283,0.798695,-0.012687,0.714014,0.700016
0.401901,-0.483513,0.953134,-0.227774,0.872608,0.432059
0.369065,-0.527096,0.963522,-0.514973,0.843414,0.153154
0.745231,-0.178325,0.693664,0.814203,0.498622,-0.297404
0.701482,-0.228639,0.734394,-0.100455,-0.966948,-0.234351
0.523877,-0.496604,0.675025,0.921450,-0.208800,-0.327615
0.643922,-0.292291,0.797741,0.991019,0.133545,-0.006918
0.593220,-0.364079,0.795736,0.990071,-0.021112,0.138972
0.539040,-0.441838,0.792646,-0.548630,0.273047,0.790222
0.458591,-0.551873,0.806782,0.034492,-0.000193,0.999405
0.432225,-0.584397,0.822364,0.884998,-0.139486,-0.444210
0.296344,-0.793788,0.761022,0.376671,0.808744,0.451721
0.202762,-0.934184,0.731436,-0.281424,-0.024621,0.959268
0.272297,-0.812462,0.813849,-0.621648,-0.651430,-0.434962
0.794097,-0.260659,0.706518,0.484325,0.859777,0.161905
0.570331,-0.572199,0.724532,-0.647093,0.454015,0.612488
0.571876,-0.560132,0.760134,0.286067,0.956668,-0.054336
0.625958,-0.463187,0.833015,-0.509047,-0.679425,0.528444
0.619103,-0.464459,0.863258,0.549518,0.759470,-0.348189
0.448258,-0.719969,0.812239,-0.659471,0.121793,0.741798
0.395818,-0.794680,0.810825,0.883270,-0.042108,0.466970
0.819691,-0.337650,0.829793,-0.105543,0.993180,-0.049546
0.738276,-0.459503,0.805532,0.715072,-0.085267,0.693831
0.692113,-0.524428,0.807998,0.121943,0.294713,0.947773
0.679366,-0.534719,0.834560,0.307725,0.291022,-0.905876
0.425081,-0.906615,0.794257,0.897340,0.438426,-0.050636
0.398909,-0.938760,0.810168,0.939903,0.123231,-0.318429
0.897723,-0.334735,0.716149,0.874938,0.478980,0.071153
0.872807,-0.334983,0.840904,0.783474,0.503047,0.364844
0.783184,-0.469795,0.811877,0.458850,-0.847418,0.267093
0.768312,-0.483645,0.835612,0.900937,-0.429296,-0.063390
0.746390,-0.509818,0.853988,0.179465,0.179736,0.967206
0.478872,-0.912586,0.769930,0.127945,-0.886873,0.443943
0.461200,-0.920722,0.828610,-0.269544,0.893862,-0.358269
0.880243,-0.417193,0.818024,0.702046,-0.438652,0.560995
0.838813,-0.474874,0.822462,-0.641019,0.360654,-0.677513
0.795836,-0.534083,0.827393,0.618185,0.034825,0.785261
0.751506,-0.596340,0.829826,0.221061,-0.819366,0.528935
0.729393,-0.621629,0.849649,0.193183,-0.702920,0.684532
0.617847,-0.792137,0.806157,-0.195409,-0.092434,0.976356
0.857066,-0.565468,0.760036,0.853983,-0.498043,0.150553
0.854844,-0.558984,0.794586,-0.718482,0.576345,0.389372
0.846441,-0.562924,0.823974,-0.662454,0.286615,-0.692103
0.291996,-0.524428,-0.873151,0.997420,-0.010270,0.071050
0.252111,-0.476782,-0.760461,0.811131,-0.543753,0.215404
0.250469,-0.471951,-0.733406,0.957503,0.206837,0.201012
0.250856,-0.525444,-0.794057,-0.183405,-0.208431,0.960687
0.239556,-0.512106,-0.765162,0.712161,-0.701295,0.031813
0.234342,-0.504227,-0.737482,-0.691788,0.596970,-0.406270
0.261094,-0.630524,-0.968879,-0.290623,-0.242869,0.925501
0.387995,0.038053,0.237117,0.589890,0.749746,-0.299851
0.372157,0.054447,0.264205,0.992540,0.117160,-0.033719
-0.100103,0.374502,0.190141,-0.523483,-0.839978,0.142839
0.283597,-0.460008,-0.769468,0.934993,0.354177,0.018630
0.273358,-0.447685,-0.740901,0.956999,0.046339,0.286368
0.433481,-0.185824,0.612072,0.974131,0.083866,-0.209848
0.034526,-0.211997,0.627523,0.956054,0.219898,0.193919
-0.082814,0.136022,0.672296,0.280872,0.516204,-0.809101
-0.157952,-0.606126,0.219497,-0.903266,0.068853,-0.423520
-0.169346,-0.596471,0.362990,-0.816429,0.339698,-0.466957
-0.140760,-0.489484,0.209931,-0.726028,0.245236,-0.642450
-0.192526,-0.440186,0.256841,0.915937,0.163758,0.366391
0.177651,-0.649322,-0.981962,-0.239972,0.393229,0.887572
0.213673,-0.684389,-0.971771,-0.124486,0.050726,0.990924
0.274808,-0.743218,-0.974960,0.003304,0.092006,0.995753
0.313922,-0.781086,-0.966150,-0.276543,0.256173,0.926229
0.152540,-0.638147,-0.418675,-0.596739,0.711019,0.371961
0.126755,-0.622133,-0.053188,0.935957,-0.343248,-0.078523
-0.413009,-0.107042,0.219497,-0.358078,-0.928082,0.102191
0.138733,-0.634967,-0.010288,-0.018044,0.981800,0.189061
0.136316,-0.633059,0.015452,0.950928,0.293725,-0.097267
0.153796,-0.650338,0.031790,-0.794311,0.523295,0.308597
-0.451062,-0.072741,0.329623,-0.677730,0.677526,-0.285730
0.137088,-0.634967,0.062789,0.946678,0.321688,0.017828
-0.060506,-0.446925,0.175282,-0.477575,-0.867930,-0.136455
0.015790,-0.526204,0.417264,0.722804,-0.599058,0.344505
0.123955,-0.630648,0.414568,0.850656,0.518086,0.089278
0.204595,-0.548437,-0.782618,0.841003,-0.505637,0.192473
0.190690,-0.536875,-0.719928,0.916349,-0.176406,0.359423
0.193973,-0.540946,-0.694812,0.806178,-0.554491,-0.206439
0.205273,-0.552377,-0.672689,0.992255,-0.111987,-0.053741
0.204017,-0.552253,-0.644450,0.852053,-0.347179,0.391757
0.199093,-0.548058,-0.614273,0.969733,-0.136432,-0.202495
0.199381,-0.548825,-0.588072,0.970199,-0.230695,0.074115
0.195615,-0.546281,-0.560031,0.975475,-0.216815,0.037936
0.195034,-0.546405,-0.532483,0.859503,0.447455,0.247062
0.188179,-0.540814,-0.503193,0.907077,-0.408723,0.100778
0.197837,-0.550601,-0.481003,0.997525,0.048404,-0.051006
0.183254,-0.537387,-0.447111,-0.698601,-0.189724,0.689900
0.202856,-0.556697,-0.430017,0.970418,0.012907,-0.241084
0.182865,-0.538527,-0.394908,0.938886,0.339962,0.054027
0.070547,-0.434595,-0.238299,-0.516401,-0.845621,0.135114
0.200637,-0.559116,-0.274953,0.889069,0.173089,0.423787
0.158916,-0.520364,-0.229357,0.857173,0.506712,-0.092179
0.158916,-0.520868,-0.204768,0.935477,0.350430,-0.045630
0.132069,-0.496223,-0.167719,0.868043,0.470758,0.157759
0.090830,-0.457464,-0.123011,-0.210917,-0.973769,0.085374
0.130908,-0.496223,-0.117620,0.678397,0.732646,-0.054837
0.137088,-0.502699,-0.095398,0.944350,0.278204,0.175517
0.137766,-0.504227,-0.070841,0.952275,0.240609,0.187826
0.113622,-0.482241,-0.034911,-0.433713,0.888145,0.151956
0.093244,-0.463312,-0.001774,0.429413,0.900512,-0.068429
-0.110627,-0.269554,0.115453,-0.025400,-0.995966,0.086062
-0.128400,-0.253160,0.147669,0.388794,-0.766952,0.510513
0.108697,-0.479954,0.062461,0.693577,0.652837,0.304556
0.088608,-0.461792,0.095663,0.017008,0.842557,0.538339
-0.458594,0.058511,0.389979,0.781113,-0.490583,0.386252
0.108213,-0.482497,0.157596,-0.701761,-0.679726,-0.213316
0.100777,-0.478178,0.253324,-0.363833,0.910813,0.195052
0.094500,-0.474494,0.347737,0.907051,0.407586,-0.105513
0.083586,-0.465095,0.374923,0.779086,0.260523,0.570221
0.124630,-0.504731,0.379262,0.818913,0.358377,-0.448272
0.212515,-0.550857,-0.985184,0.285572,0.923850,-0.254854
0.239267,-0.576898,-0.971114,-0.182422,0.439688,0.879430
0.252111,-0.589732,-0.948596,-0.213587,-0.337035,0.916945
0.250856,-0.588973,-0.920160,-0.015075,0.988647,0.149497
0.222848,-0.563436,-0.876537,0.345880,0.934220,0.087182
0.223042,-0.564707,-0.848101,0.951131,0.212182,0.224340
0.213287,-0.556192,-0.814439,0.960926,0.149832,0.232749
0.305324,-0.536371,-0.978905,-0.279462,-0.017030,0.960006
0.319716,-0.550725,-0.957241,-0.621767,-0.564016,-0.543407
0.336810,-0.567623,-0.938240,0.918916,0.242354,0.311221
0.273358,-0.510066,-0.820915,-0.662109,0.184041,-0.726458
0.265150,-0.502954,-0.788173,0.256374,0.850681,-0.458928
0.245447,-0.492788,-0.506217,0.903393,0.384179,-0.190491
0.223428,-0.472586,-0.469202,0.974275,0.225249,0.007112
0.232409,-0.481605,-0.446848,0.872168,0.473885,-0.121474
0.220048,-0.470554,-0.415125,0.840602,-0.191127,0.506813
0.214737,-0.466359,-0.386065,0.888321,0.456896,0.046183
0.219081,-0.471702,-0.362232,0.979119,0.091136,-0.181715
0.203148,-0.457084,-0.328208,0.667333,0.739195,-0.090872
0.196870,-0.452129,-0.300265,0.970060,-0.086822,-0.226818
0.178326,-0.434983,-0.266406,-0.062126,-0.975166,0.212585
0.192040,-0.448825,-0.247372,-0.170908,-0.142998,0.974855
0.175043,-0.433455,-0.214301,0.918665,-0.394183,0.025958
0.185087,-0.443621,-0.193558,0.928124,0.325802,-0.180108
0.164035,-0.425196,-0.132906,0.211745,-0.961395,0.175740
0.169443,-0.430911,-0.111210,0.480536,0.035941,-0.876238
0.155729,-0.420364,-0.032511,-0.286979,0.955525,-0.067930
0.165868,-0.430531,-0.012524,0.935632,0.195667,-0.293781
-0.633300,0.330035,0.378835,0.738010,0.674769,0.005290
0.150029,-0.416177,0.019331,0.185925,0.782190,0.594652
0.182385,-0.447561,0.028995,0.819953,0.566794,-0.080138
-0.591676,0.288996,0.404673,0.738010,0.674769,0.005290
0.163552,-0.430407,0.060883,0.891006,0.139368,0.432070
0.149935,-0.418465,0.090272,-0.317456,0.944080,0.089078
0.146263,-0.415409,0.116110,0.984582,0.170100,-0.040807
0.158627,-0.428243,0.133402,0.973424,0.228816,0.009431
0.157274,-0.427352,0.158024,0.900926,0.269215,0.340375
0.136027,-0.407786,0.191292,0.981494,0.187471,-0.039036
0.127238,-0.400039,0.218873,0.999926,0.011113,0.005042
0.136608,-0.409818,0.237249,0.846857,-0.531787,0.005929
0.140855,-0.414649,0.257795,0.923001,-0.145687,-0.356151
0.151191,-0.425196,0.276993,-0.603069,0.797600,0.011939
0.121444,-0.397371,0.312332,0.979539,0.193613,0.054923
0.111883,-0.388856,0.339650,0.930955,0.245240,0.270517
0.109275,-0.387080,0.363779,0.881438,0.451161,-0.139713
0.109469,-0.388220,0.386330,0.813535,0.575072,-0.086333
0.098653,-0.378566,0.412892,0.956815,0.288310,-0.037183
-0.026415,-0.153548,0.386790,0.534317,0.616659,-0.578131
0.227390,-0.395719,0.298262,-0.082666,-0.957398,0.276688
0.197257,-0.367763,0.334489,-0.163965,0.983305,0.078913
0.250664,-0.419481,0.333437,0.872647,0.411693,-0.262669
0.280891,-0.407026,-0.982620,-0.241466,0.323040,0.915063
0.336424,-0.461024,-0.982981,-0.059149,0.246886,0.967238
0.336038,-0.483009,-0.254637,0.043970,-0.993135,0.108393
0.220917,-0.377425,-0.075213,-0.375803,0.657360,0.653185
0.232892,-0.389872,-0.056936,0.263844,-0.958852,0.104829
0.153702,-0.316564,0.051119,0.232956,0.299126,-0.925340
0.289294,-0.451113,0.155361,0.381398,-0.908080,-0.172993
0.293252,-0.455433,0.177353,-0.754420,0.650368,0.088723
0.346854,-0.367003,-0.984822,0.154024,0.586436,0.795217
0.113138,-0.168034,-0.169527,-0.732754,-0.677720,-0.061384
0.111302,-0.171082,-0.021695,-0.726235,0.572868,-0.380006
0.266308,-0.321132,-0.020676,-0.532877,0.835868,0.131781
0.358635,-0.418589,0.221930,-0.323061,-0.895091,0.307316
0.360471,-0.420876,0.243758,-0.659212,0.710666,0.245750
0.273553,-0.340450,0.350925,-0.935626,-0.132692,0.327102
0.294122,-0.360907,0.364403,-0.734551,-0.645925,0.207882
0.287360,-0.355060,0.389289,-0.738321,0.662432,-0.126750
0.282822,-0.351376,0.414042,-0.737946,0.673776,0.038237
0.050461,-0.016704,0.041422,0.775650,-0.130525,0.617519
0.307161,-0.263707,0.017621,-0.492654,0.869782,-0.027790
0.313244,-0.270438,0.039120,-0.840685,0.513694,0.171367
-0.035879,0.197131,0.144743,0.934771,0.176354,0.308388
-0.225940,0.376410,0.255757,0.801245,-0.376803,0.464786
-0.266889,0.414145,0.297802,0.034216,-0.984576,0.171580
-0.248251,0.395719,0.311609,-0.496050,-0.868231,0.010405
-0.257714,0.403474,0.337973,0.582658,-0.810266,0.063075
-0.261095,0.406018,0.362562,0.435259,-0.890752,0.130807
-0.305133,0.447057,0.404378,-0.589366,-0.807634,-0.019366
0.341637,-0.166126,0.113875,-0.001199,-0.733529,0.679658
0.363173,-0.082900,0.190371,0.786801,0.581155,-0.207856
0.085422,0.175913,0.404180,-0.692782,-0.309110,-0.651540
0.351873,0.052920,0.302831,-0.597253,-0.781976,-0.178334
0.338741,0.064358,0.331694,0.794351,-0.479807,0.372548
0.331016,0.070329,0.357894,0.671459,0.731103,-0.120963
0.338452,0.061939,0.376797,-0.493302,0.842393,0.216857
0.340285,0.059271,0.398000,0.889811,-0.454599,0.039698
0.341735,0.056983,0.420025,0.840899,-0.540615,-0.024989
0.410592,-0.638775,-0.949122,-0.778575,0.579586,-0.240628
0.439856,-0.667623,-0.935479,-0.525479,0.506880,-0.683334
0.419189,-0.381109,0.273344,-0.227388,-0.962074,0.150694
0.415228,-0.377929,0.297407,-0.091616,0.978042,0.187193
0.440919,-0.403087,0.309570,-0.093128,0.978861,0.182097
0.401031,-0.366747,0.372622,0.119725,-0.990533,-0.067157
0.415711,-0.381357,0.388368,0.025468,-0.978655,0.203925
0.404703,-0.423164,-0.986269,0.008451,-0.131116,0.991331
0.417256,-0.460519,-0.213085,0.003720,-0.999530,0.030442
0.412042,-0.456324,-0.186129,0.399276,0.915181,-0.054970
0.442464,-0.486561,-0.150658,0.407272,0.908107,-0.097323
0.383262,-0.440954,0.187709,-0.170546,0.985046,-0.024456
0.376793,-0.499907,-0.976111,0.050147,-0.141590,-0.988654
0.436089,-0.556952,-0.978149,-0.158569,-0.031259,0.986853
0.604520,-0.432439,0.413352,0.506353,0.772850,-0.382505
