0.282848,0.131317,0.507435,-0.172484,-0.285871,0.942617
0.418658,-0.823678,0.606329,-0.238758,0.671776,-0.701222
0.738201,-0.319581,0.436040,-0.122878,-0.882776,0.453440
0.052969,-0.027832,0.001028,-0.499934,-0.135869,0.855339
0.217859,-0.197493,0.295523,-0.534594,0.435624,0.724183
0.291301,0.650070,0.621811,0.785141,-0.519213,0.337598
0.793533,0.076244,0.470718,0.336959,0.610110,-0.717095
0.162633,0.751234,0.432824,0.579953,0.084273,0.810279
0.367632,-0.004293,0.302070,-0.334444,-0.458012,0.823633
0.041418,0.271665,0.691481,0.953423,0.192231,0.232448
-0.194133,0.459436,0.616573,-0.183770,-0.951238,-0.247742
-0.200063,-0.363847,0.167172,0.705757,-0.698748,-0.116867
0.273191,-0.553247,0.483531,0.855202,0.376378,-0.356327
0.444432,0.005133,0.632470,0.013966,0.483418,0.875278
0.078691,-0.718219,0.759229,-0.656945,0.742109,-0.133032
0.302275,0.305813,0.091833,0.611810,0.594584,-0.521688
-0.323326,0.641532,0.409402,-0.161555,-0.016387,0.986728
-0.713898,0.050829,0.678983,-0.411305,0.878542,0.242881
-0.650219,-0.680813,0.558871,0.010436,-0.666834,0.745133
-0.434669,-0.691028,0.573010,-0.235635,0.968125,0.084917
0.316815,0.054777,0.520778,-0.652494,-0.735627,0.181946
0.390257,0.287703,0.847863,-0.418747,0.694684,0.584863
-0.049556,-0.128158,-0.439123,0.404400,0.912796,-0.057140
0.120531,-0.659593,0.621662,0.258668,0.961415,0.093658
0.104206,-0.024773,0.259320,-0.115383,0.934776,-0.335978
0.506326,-0.085916,0.644139,-0.814945,0.568940,0.110324
0.375348,-0.102496,0.482902,0.037368,0.564446,0.824624
-0.363483,-0.533261,0.766324,0.902652,0.347437,0.253984
-0.264370,-0.273342,0.409021,-0.640097,-0.466221,-0.610667
-0.054491,-0.168476,-0.076135,0.938173,0.326351,-0.115440
0.007874,-0.279214,0.955940,0.822961,-0.026032,-0.567501
0.459027,0.249556,0.809207,0.963146,0.043312,0.265467
-0.054648,0.064746,0.881993,0.822900,-0.476373,-0.309686
-0.445694,0.468417,0.397517,0.095023,-0.427891,0.898821
-0.003465,0.638324,0.436156,0.131942,-0.316828,0.939261
-0.026195,-0.113304,-0.996801,0.110540,-0.286450,-0.951697
-0.519344,0.858518,0.221758,-0.481384,0.276045,-0.831907
-0.033914,-0.228237,-0.731447,-0.134137,-0.981647,0.135560
0.016378,0.039874,0.445688,-0.176082,0.979498,-0.097868
0.741088,0.524329,0.509523,-0.478802,-0.808671,0.341761
-0.257545,-0.172671,0.788950,0.794086,0.607794,0.003773
-0.104206,0.249161,0.863809,0.759698,0.627211,0.171654
0.281224,0.686291,0.542311,-0.073689,-0.243838,0.967012
0.084414,-0.005231,0.404810,0.943039,0.207066,-0.260387
0.512942,0.910580,0.065244,-0.239385,0.561272,0.792255
0.007454,-0.071752,0.207685,0.978806,0.038326,-0.201169
-0.108721,-0.163689,-0.212625,0.026240,-0.998408,0.049926
-0.183947,0.033804,0.659323,0.924655,0.350908,0.147906
-0.554990,-0.091245,0.723159,0.201682,0.901054,-0.383960
-0.813902,-0.236676,0.656423,0.477317,0.733346,-0.484120
-0.071973,0.365624,0.558523,-0.162098,-0.682730,0.712464
-0.330936,-0.112613,0.594725,0.498401,0.003144,0.866941
0.429680,-0.622680,0.705157,-0.587473,-0.736425,0.335490
-0.341227,-0.180467,0.602632,0.136150,0.830539,0.540064
0.318337,0.571309,0.574569,-0.448774,0.671700,-0.589424
-0.294085,-0.117992,0.789663,0.797339,0.603423,0.011418
0.262480,0.515200,0.350158,0.323401,0.119172,0.938728
0.337812,0.185058,0.685995,0.831285,0.555761,0.009732
0.226574,-0.170449,0.499611,-0.446158,-0.529085,0.721811
-0.546329,-0.667884,0.637078,-0.128217,0.921171,0.367430
0.128772,0.765644,0.501881,0.981255,0.165567,-0.098619
0.404275,0.390594,0.457407,0.885648,0.358751,-0.294832
0.543545,0.628800,0.471547,-0.059539,-0.444395,0.893850
0.478030,0.614785,0.574668,0.957803,0.036734,-0.285070
0.056170,0.291651,0.846884,0.974614,-0.146143,0.169615
-0.411519,0.024625,0.823462,-0.702094,0.279234,0.655052
-0.077589,-0.124260,-0.407313,-0.136716,-0.990610,0.000034
0.037746,-0.591837,0.821506,-0.245773,-0.864400,-0.438643
-0.513887,0.021861,0.817080,0.695191,0.622201,0.359966
-0.452884,0.456672,0.196496,0.874560,-0.037288,0.483482
-0.474672,-0.537800,0.578265,0.275581,0.606101,0.746121
-0.288520,-0.127319,0.811163,0.985089,0.159903,-0.063486
-0.019370,0.509771,0.580122,-0.629574,-0.645292,0.432706
0.522654,-0.219305,0.393406,-0.588633,0.423231,0.688757
0.048611,0.046634,0.443798,0.192044,-0.981372,-0.005280
0.071710,-0.183281,-0.992773,0.212745,0.341756,0.915392
-0.062049,-0.173855,0.192335,-0.754911,0.625401,0.197440
0.315136,0.019592,0.762727,0.127891,0.847068,-0.515867
-0.077064,-0.121348,0.038109,0.643091,-0.765126,0.031884
0.122210,0.671635,0.403816,-0.220931,0.181660,0.958222
0.098326,0.344453,0.777827,0.272283,-0.955552,-0.113058
0.429629,-0.161370,0.650621,0.502321,0.714819,-0.486526
0.104049,-0.193742,0.446732,0.663171,0.695747,-0.275937
-0.097487,-0.247582,0.782104,0.847793,0.524396,0.079088
-0.795424,0.046684,0.702786,0.853930,0.485648,-0.186949
0.084414,0.173855,0.855753,0.929778,0.348092,0.119767
-0.152816,-0.234702,0.602085,-0.380662,-0.900357,-0.210841
0.284319,-0.276302,0.509473,0.853050,0.250947,-0.457528
0.604022,0.444285,0.089860,-0.156343,0.746653,0.646580
-0.096542,0.297178,0.649063,0.078793,-0.623994,0.777447
-0.157279,0.407817,0.058564,0.981479,-0.181726,-0.060617
-0.396293,-0.310205,0.764749,-0.730700,-0.528811,-0.431782
-0.100268,-0.154067,0.534868,0.997650,-0.038876,0.056423
-0.191874,0.193250,0.751206,0.171205,-0.938244,0.300645
-0.369837,-0.336804,0.712417,0.457851,-0.851750,-0.254744
0.256549,-0.753701,0.628060,0.600643,0.582742,0.547394
-0.211823,-0.130379,0.141363,-0.441228,-0.892737,-0.091317
0.289202,0.398391,0.384306,0.727539,0.650485,-0.218075
-0.597880,-0.614341,0.567806,0.071099,-0.646206,0.759844
-0.448738,-0.203020,0.631210,0.391928,-0.901762,0.182257
-0.124732,-0.174644,0.420707,0.968275,-0.006906,-0.249791
-0.049399,-0.135511,-0.171548,0.689836,0.723859,-0.012428
-0.432045,-0.633488,0.633763,-0.144926,-0.989234,0.020290
0.068560,0.132501,0.627082,-0.634939,-0.725656,0.265095
0.024097,-0.269641,-0.884496,0.603195,0.794064,0.074954
-0.033071,0.412555,0.759859,0.863950,0.418845,0.279571
0.117224,0.090802,0.590979,0.946962,0.319969,-0.029730
0.408946,0.300681,0.826297,-0.761753,0.036414,0.646843
-0.025513,-0.368979,0.856548,0.952707,0.259680,0.157846
0.494096,0.371348,0.758052,0.297561,0.920442,-0.253462
-0.041316,-0.298016,-0.067847,0.933452,0.316138,-0.169480
0.373563,0.237564,0.330184,0.596019,0.772787,-0.218085
-0.175706,0.046585,0.068278,-0.514569,-0.723754,0.459782
0.343746,0.296536,0.733536,0.981553,0.095287,-0.165751
0.186257,0.974438,0.382267,0.140624,-0.867875,-0.476464
0.055487,-0.424102,0.154906,-0.749532,-0.655395,0.093055
-0.055436,-0.357925,0.638139,0.296379,-0.761059,-0.577017
0.388997,0.237860,0.766639,0.987192,0.138972,-0.078353
-0.014385,-0.215308,0.913422,0.835614,0.289465,0.466861
0.443749,0.346773,0.742818,-0.296937,-0.788606,0.538451
0.482231,0.324122,0.794338,-0.009202,-0.999826,0.016247
0.012914,-0.324615,0.896879,0.810643,0.530612,-0.247605
-0.039162,-0.150415,-0.417707,0.221190,0.947394,-0.231344
0.103261,-0.347365,0.864058,-0.139442,0.309613,-0.940583
-0.074702,-0.124062,0.827358,0.926590,-0.258253,0.273381
-0.194290,0.033409,0.457921,0.805369,0.589894,0.058349
-0.370465,0.097661,0.800504,0.775923,-0.378221,0.504869
0.042312,-0.187771,-0.981733,-0.398421,-0.569833,-0.718715
0.183264,-0.450898,0.756179,0.224806,0.739724,0.634248
-0.001104,-0.016926,0.307557,0.957652,0.242986,-0.154467
-0.198699,0.065190,0.469027,0.795769,0.604551,0.035636
0.123312,0.813166,0.481012,0.829994,-0.318431,-0.457944
-0.290355,-0.146022,0.822600,0.980833,-0.011716,0.194499
-0.022889,0.017124,0.836143,-0.580767,-0.118359,-0.805420
0.054020,0.075208,0.497025,-0.032032,-0.993209,0.111850
0.136071,0.671536,0.078953,0.708918,0.408018,-0.575288
0.096224,0.421585,0.723606,-0.327722,0.405796,-0.853187
-0.496351,0.504047,0.226947,0.470331,-0.576527,0.668136
0.052917,-0.205438,0.768014,-0.330520,-0.298830,0.895241
0.078166,-0.235442,0.939861,-0.684759,-0.684354,-0.250530
-0.368158,-0.131514,0.892237,0.808886,-0.394344,0.436116
0.204629,0.153523,0.852205,0.767400,0.626308,-0.137242
0.521866,0.558183,0.173935,-0.572309,0.633901,0.520223
0.248622,0.051125,0.870970,0.968757,-0.137302,0.206537
-0.648800,-0.275661,0.496444,0.870274,-0.276505,0.407638
-0.205472,-0.437377,0.627944,0.071425,0.863853,0.498655
-0.433672,-0.116709,0.300860,-0.786247,-0.568429,-0.242290
-0.361753,-0.459336,0.780132,0.915665,0.384674,-0.116549
0.318862,-0.562623,0.587664,-0.481565,-0.171469,0.859473
-0.116699,-0.198233,0.555904,0.900568,-0.426308,0.085084
0.835949,0.649082,0.185605,-0.532616,0.294198,0.793580
0.454144,0.310008,0.274670,0.658145,-0.566839,-0.495519
-0.248516,-0.171980,0.684702,0.831581,0.539710,-0.131097
0.611056,0.316275,0.501765,0.900653,0.426252,-0.084455
-0.334191,-0.073529,0.824291,0.882302,0.266325,0.388090
0.266629,-0.580833,0.751388,0.910010,0.371815,-0.183400
0.346421,-0.519493,0.794371,0.908918,-0.187281,0.372551
0.122316,-0.286370,0.746996,-0.697158,0.302284,0.650074
-0.589376,-0.350424,0.624513,-0.069201,-0.707805,0.703010
-0.715523,0.029165,0.499727,-0.389322,-0.916503,-0.091924
0.175180,0.790713,0.476354,-0.138161,0.554033,0.820950
0.252191,0.077626,0.507998,-0.178714,-0.652414,0.736490
-0.030710,-0.016532,-0.037297,-0.032366,-0.750661,0.659894
0.660508,0.210422,0.469955,-0.195045,-0.163360,0.967094
0.418289,-0.148440,0.568750,-0.206260,-0.021159,0.978268
0.117695,-0.647207,0.752549,0.909665,-0.240658,0.338517
-0.152870,-0.304974,0.553334,-0.169970,0.857467,0.485655
0.414249,0.538097,0.526763,0.527604,0.569885,-0.629972
-0.520709,-0.270874,0.784773,-0.638610,0.724165,-0.260311
-0.092290,-0.133586,0.092463,0.203984,-0.974187,-0.096700
-0.469158,-0.037653,0.817163,-0.481684,0.699369,-0.528075
0.075856,0.053198,-0.005487,-0.577347,0.087812,0.811763
-0.427844,-0.687426,0.718650,0.351899,-0.665433,0.658305
-0.123786,0.561735,0.635056,-0.061484,-0.668413,0.741245
0.000053,-0.320667,-0.032423,0.225423,0.933149,0.280032
0.007454,-0.241759,-0.871335,-0.663351,-0.743673,-0.083166
0.415454,-0.462890,0.687105,0.356012,0.734284,-0.577999
-0.078378,-0.184317,0.312563,0.808858,-0.259415,0.527686
-0.100217,-0.075503,0.385134,0.799521,0.592216,0.100230
0.631059,0.391927,0.172095,-0.210437,-0.977373,-0.021426
-0.171454,-0.309021,0.558158,0.448280,-0.862194,-0.235939
0.167881,-0.206919,0.292705,0.104871,0.986098,0.128894
0.461231,-0.785235,0.612031,-0.268510,0.902912,0.335637
0.312457,-0.641284,0.735575,0.944013,0.075645,-0.321117
0.193870,-0.009771,0.157326,0.428743,0.825755,-0.366481
0.545329,0.662900,0.471762,-0.149446,-0.519098,0.841548
-0.107932,-0.194137,-0.288644,-0.009071,-0.981294,0.192304
0.402435,0.808577,0.541035,0.065164,0.707753,0.703449
0.148826,-0.675977,0.731977,0.969149,-0.246470,0.001734
0.356344,0.502616,0.501948,-0.381726,0.822916,-0.420827
-0.058115,0.462100,0.756328,0.979790,0.169623,0.106014
0.054071,0.644839,0.432095,0.107920,-0.337282,0.935197
-0.036327,-0.253010,0.527243,-0.276009,-0.918862,-0.281976
0.301381,0.214370,0.258790,-0.324465,-0.830591,0.452593
0.699774,0.627813,0.176936,-0.023990,-0.148747,0.988584
0.233293,0.010413,0.849951,-0.561642,-0.779805,-0.276519
0.118903,0.056652,0.837171,0.885397,0.325452,-0.331893
0.169983,-0.790170,0.532896,-0.556217,-0.597364,-0.577736
0.296709,-0.632056,0.728231,0.901290,0.254244,-0.350764
0.156910,0.246200,0.866395,-0.724540,0.426172,-0.541682
0.016221,-0.372286,0.697631,0.940585,-0.084927,0.328766
0.252348,0.458597,0.507965,-0.164929,0.941101,-0.295173
0.817157,0.211410,0.479603,-0.099069,0.416331,0.903800
-0.006564,-0.074960,0.045386,0.544745,-0.021005,-0.838339
-0.113443,-0.162060,0.913555,-0.234791,0.170653,-0.956949
-0.882146,0.088778,0.552655,0.044989,-0.710906,0.701846
0.654891,0.508340,0.523298,0.467945,0.837506,-0.282153
-0.921467,-0.189498,0.602019,-0.267946,0.935980,0.228358
0.335607,-0.076589,0.479686,-0.121493,0.772752,0.622971
0.048348,0.011350,0.366436,0.650888,0.731483,-0.203166
0.081159,-0.417439,0.053193,-0.609394,-0.783128,-0.123895
0.193239,-0.164775,0.290434,0.314640,-0.166006,-0.934582
-0.617041,-0.624358,0.570889,-0.179063,0.691079,-0.700248
0.262797,-0.641087,0.756328,0.925232,-0.308474,0.220882
0.312038,0.286025,0.089031,0.421879,0.866674,-0.266262
0.344848,0.310798,0.619524,-0.458572,-0.390261,0.798378
0.327735,0.519148,0.522055,0.762163,-0.603379,0.234607
-0.383432,-0.043032,0.870638,-0.432234,0.743605,0.510123
0.270407,0.241265,0.291611,0.638509,0.521229,-0.566239
0.078378,-0.435452,0.092662,-0.793133,-0.602400,-0.089742
0.407162,0.258093,0.345732,0.465483,0.777870,-0.422190
-0.456088,0.062229,0.745073,0.684813,0.691097,0.231120
-0.301958,-0.132056,0.818639,0.864952,0.037484,0.500453
0.361227,-0.471229,0.704560,-0.435765,-0.862138,0.258510
0.099111,-0.735886,0.754903,-0.477216,0.860229,-0.179642
-0.100531,0.245263,0.700052,0.670251,0.738755,0.070747
-0.859679,-0.169611,0.565568,0.239204,0.967010,-0.087595
-0.403067,-0.551174,0.519999,0.436751,0.737145,-0.515622
0.699146,0.355952,0.668275,0.971220,-0.227056,0.071959
0.053600,0.065880,0.422995,0.033847,-0.972706,0.229560
0.458344,0.171437,0.704560,-0.227070,-0.799937,0.555464
-0.040370,-0.207511,-0.877766,-0.654521,-0.752396,-0.074175
0.285001,0.544858,0.574900,0.895713,-0.003993,0.444616
0.103732,-0.399131,0.856615,0.788644,0.602008,0.125009
0.592001,0.305271,0.598538,0.462657,0.424836,-0.778115
0.037323,-0.338482,0.654931,0.638981,0.769021,0.017602
-0.069137,-0.357876,0.632420,0.049214,0.682896,0.728856
0.663081,0.369128,0.371227,0.324789,-0.622223,0.712286
-0.069137,0.225030,0.730287,0.670356,0.139054,0.728894
0.463278,0.878553,0.059028,-0.316791,0.322101,0.892129
0.459289,0.806159,0.078555,0.708060,-0.626134,-0.326509
-0.290355,-0.153178,0.693106,0.312946,0.891140,-0.328534
0.096961,0.277142,0.879639,-0.661493,-0.020770,0.749664
0.544702,0.615426,0.579641,0.820284,-0.047883,0.569949
0.529216,0.294562,0.787309,-0.645290,-0.703542,-0.297706
0.524384,0.532768,0.556401,0.720233,0.397227,-0.568749
-0.083943,-0.116561,-0.021400,0.909359,0.282604,0.305288
-0.078009,-0.162505,0.247136,0.893659,-0.410762,0.180690
-0.290778,-0.102695,0.655876,0.418217,-0.181684,0.889992
-0.174447,-0.148934,0.513684,-0.208338,-0.977190,0.041170
-0.367107,-0.141334,0.837701,-0.336315,0.886063,0.319036
-0.533468,-0.050286,0.805129,-0.153458,0.591298,0.791718
-0.230301,-0.140002,0.860063,0.240555,0.697531,-0.674970
-0.157542,-0.633438,0.752598,0.793509,0.353595,0.495292
-0.276235,0.540614,0.054818,0.970802,-0.058289,-0.232692
0.866661,0.388127,0.569546,0.042624,0.933544,-0.355919
0.350308,-0.070766,0.571369,0.131136,0.426548,0.894908
-0.035067,-0.006563,0.777827,-0.467480,-0.844892,-0.260038
-0.449892,0.326935,0.495035,0.739945,0.363247,0.566156
0.075385,-0.032619,0.421602,0.812353,0.419994,-0.404583
0.481180,0.306110,0.092579,0.057138,-0.580963,0.811922
0.478924,0.822937,0.056741,0.656329,-0.312163,-0.686867
0.145571,0.274131,0.579044,-0.114208,0.396012,0.911115
-0.133447,0.168328,0.005503,-0.486915,0.171987,-0.856349
0.148093,-0.395578,0.870738,0.957614,0.023206,-0.287117
0.649639,0.369128,0.137070,0.566919,0.736087,-0.369836
0.079217,-0.467923,0.254016,0.366963,0.927909,0.065752
-0.785712,0.027537,0.711191,0.806521,0.586455,-0.074799
-0.099586,-0.264311,0.814577,0.138129,-0.983868,0.113685
-0.190772,-0.541995,0.680110,-0.098534,0.948352,0.301527
-0.539924,0.517667,0.261077,-0.142945,0.968285,-0.204918
0.025827,0.169118,0.902796,-0.701280,-0.695375,0.157035
0.769121,0.277438,0.461966,-0.028406,0.427496,0.903571
-0.035436,-0.279659,0.483034,0.718010,0.689171,0.097493
-0.131662,-0.056159,-0.042634,0.651956,-0.379495,0.656458
-0.762402,-0.316028,0.608981,0.714513,0.608143,-0.345881
-0.195180,-0.470588,0.728629,0.932357,-0.218001,0.288419
-0.447585,-0.136301,0.862732,-0.433646,-0.891068,0.133973
-0.105308,0.452083,0.610622,-0.276658,-0.959377,0.055286
-0.553731,0.536321,0.272880,-0.125440,0.953796,-0.273017
-0.052235,0.183972,0.818125,0.213761,-0.601250,0.769938
0.429366,-0.240377,0.357286,0.846552,0.048289,-0.530112
0.418027,0.206919,0.698543,-0.012765,0.963560,-0.267187
0.056538,-0.306455,0.967394,0.157129,-0.619943,0.768753
0.218016,-0.574960,0.652544,0.150429,0.923323,0.353334
-0.546537,0.302556,0.533940,-0.093400,-0.964922,0.245361
-0.504384,-0.269690,0.848890,0.343480,0.614856,-0.709911
-0.083889,-0.121151,0.131417,0.583420,-0.810069,0.058393
0.056750,-0.343071,0.730419,0.871659,-0.473330,0.127158
-0.180166,0.365032,0.018748,0.908024,0.250182,-0.336007
0.444538,0.022158,0.324697,0.335396,0.576541,-0.745057
0.109034,-0.134524,0.784839,0.449530,-0.568734,-0.688814
0.183790,0.161913,0.883319,-0.605089,-0.784142,0.137802
-0.468844,0.296881,0.525238,-0.496839,-0.841659,-0.211569
-0.054545,-0.303494,0.853697,0.969044,0.234932,0.075901
0.160480,0.240476,0.704046,0.367583,-0.739474,0.563968
0.274136,0.051323,0.767136,-0.194774,-0.359797,0.912474
0.366107,0.461656,0.072356,0.157740,-0.896482,0.414051
-0.372410,0.208843,0.714058,-0.119297,-0.660865,0.740963
0.259067,0.447394,0.390339,0.833572,0.552397,-0.003811
0.145520,-0.047522,0.259884,-0.526196,0.242671,0.815002
-0.122578,-0.019986,0.415038,0.912027,0.409168,0.028071
0.092027,0.949862,0.386030,-0.568021,0.786970,0.240895
0.500552,-0.222661,0.383444,-0.585217,-0.446099,0.677138
0.075753,0.085719,0.826761,-0.114747,-0.502000,0.857222
0.271509,-0.089074,0.562070,-0.125116,0.988429,-0.085761
0.712110,0.244424,0.478426,0.055741,-0.187364,0.980708
0.355556,-0.502270,0.614402,-0.691954,-0.716190,0.090945
-0.098903,-0.096131,0.005818,0.717775,0.668941,-0.193174
0.297549,-0.358024,0.495301,-0.200804,0.818438,0.538365
-0.116648,-0.296536,0.897409,0.933733,-0.231395,0.273129
-0.759358,0.023490,0.507219,0.231663,-0.785826,0.573419
0.601081,0.596625,0.157591,0.758112,0.596262,0.264078
0.072706,-0.730902,0.777314,0.121078,0.755496,0.643868
0.482913,0.267321,0.736155,0.088910,-0.728182,0.679592
0.414249,0.555665,0.497373,0.973391,0.010745,0.228900
0.927241,0.723894,0.177947,0.032592,0.201870,0.978870
0.317498,0.365377,0.776866,0.733797,0.677252,0.053589
-0.075228,-0.514952,0.763887,-0.478021,0.710236,-0.516779
0.510212,0.306406,0.715617,-0.699715,-0.425576,0.573833
-0.181009,0.298559,0.797719,-0.442100,-0.852378,-0.279284
-0.390625,-0.233418,0.779353,0.959922,0.209588,0.186074
0.314136,0.102843,0.846221,-0.632233,0.328371,-0.701750
0.456245,0.341443,0.753361,0.233447,0.892550,-0.385820
-0.220483,-0.584485,0.774628,0.629251,0.765104,-0.136597
-0.377709,0.342331,0.159580,0.617312,-0.275036,0.737076
-0.110191,-0.170449,0.325725,-0.732660,0.667564,-0.132546
0.468318,0.708399,0.082053,0.389336,0.214243,-0.895833
0.389206,-0.061488,0.690669,0.019803,0.999673,0.016168
-0.620822,-0.622384,0.560794,-0.279630,0.689624,-0.668002
-0.251038,0.673954,0.048320,0.854005,0.401392,-0.330999
0.273979,-0.709879,0.723805,0.871383,0.131332,-0.472699
0.683658,0.299843,0.366254,-0.683410,0.723850,-0.094823
-0.313297,-0.540367,0.285013,-0.708354,-0.541375,-0.452932
0.431414,0.780202,0.090092,-0.561972,0.720893,0.405587
0.456191,0.062919,0.565286,0.034592,-0.963066,0.267035
-0.210509,-0.552951,0.777861,0.976864,0.210120,-0.039839
0.188775,-0.193940,0.285792,-0.032261,0.976793,0.211743
-0.285056,-0.204895,0.394798,-0.028088,0.506675,0.861679
0.034385,0.365377,0.803438,-0.417700,-0.823273,0.384380
0.416399,0.237564,0.274123,0.915360,-0.396283,-0.071243
0.273979,0.614341,0.611550,0.840055,-0.445746,0.309223
-0.266103,0.342529,0.780397,0.633936,0.773124,0.020109
-0.296918,-0.121595,0.784607,0.798647,0.601793,0.002900
0.052181,-0.776598,0.668109,0.626165,0.757834,-0.183318
-0.455771,-0.144887,0.869279,0.382685,0.722704,-0.575544
0.518979,0.174053,0.776883,0.023252,0.619592,0.784579
-0.194498,-0.251481,0.390588,-0.589299,0.717767,-0.370859
0.069662,-0.439548,0.160409,-0.790954,-0.603362,0.101717
0.032706,0.206574,0.910770,0.524796,0.850413,-0.037244
0.259173,0.464321,0.652660,-0.677930,-0.258103,-0.688326
0.478344,-0.056603,0.142275,0.261186,-0.167899,0.950574
-0.095020,-0.227448,0.680060,0.455846,0.873267,-0.172075
-0.025093,0.001875,0.829446,0.516262,-0.825592,0.227754
-0.411676,-0.032274,0.851277,-0.302286,0.928633,0.215090
-0.551735,-0.641384,0.563396,0.020147,-0.592297,0.805468
-0.401596,-0.086557,0.731049,-0.345838,0.131644,0.929014
-0.235498,0.215949,0.320255,0.200994,-0.464031,0.862715
-0.295713,-0.315781,0.730668,0.882357,-0.469378,0.033618
-0.209724,0.447247,0.601936,0.963597,0.199566,-0.177914
0.458399,0.152487,0.811660,0.311990,-0.652575,0.690513
-0.155651,0.368832,0.655660,0.033294,-0.574877,0.817562
-0.841201,-0.016087,0.679132,0.713949,0.690977,-0.113259
-0.574150,-0.156189,0.774562,0.928693,0.303804,0.212682
-0.176808,0.217035,0.738790,-0.365779,-0.919955,-0.141024
0.490577,-0.631958,0.672220,0.871051,-0.373295,-0.319249
-0.683344,0.114242,0.388135,0.835106,0.094938,-0.541835
-0.593574,-0.559613,0.580785,0.101747,-0.577719,0.809869
-0.020998,0.482235,0.800487,0.939858,0.332261,0.079181
0.050396,-0.706869,0.775639,-0.858476,0.492174,-0.144163
0.004253,-0.080487,0.205646,0.930187,-0.180767,-0.319492
-0.565858,0.073184,0.538896,-0.769174,0.442247,-0.461290
0.314505,0.359406,0.621297,-0.335533,-0.587660,0.736257
-0.077221,-0.597661,0.803670,-0.138003,-0.891061,0.432395
-0.715683,-0.326787,0.651980,-0.485562,-0.690370,0.536301
-0.718358,0.161371,0.597593,-0.586775,-0.601518,0.542099
0.133447,-0.203267,-0.990618,-0.128164,0.258185,0.957557
-0.042363,-0.139558,-0.502031,0.176935,0.984222,0.000801
0.088297,0.019542,0.404761,0.954673,0.055253,-0.292484
0.357395,0.201441,0.816152,0.326267,-0.719240,-0.613387
0.240801,0.463384,0.591062,0.917972,0.276233,0.284645
0.362224,-0.027685,0.298274,-0.334444,-0.458012,0.823633
-0.220589,-0.167933,0.585277,-0.161817,-0.966916,0.197201
0.371673,-0.775217,0.641603,0.772367,-0.633310,-0.048658
0.424169,0.045598,0.632486,-0.775644,0.111102,-0.621316
-0.289253,-0.312574,0.415801,-0.618293,-0.530219,-0.580156
-0.107618,0.354520,0.331858,-0.228944,-0.190178,-0.954681
0.043465,0.707412,0.442837,-0.374224,-0.557930,0.740723
0.086830,0.045351,-0.005719,0.440103,0.053928,-0.896326
0.523650,-0.142222,0.576508,-0.530563,-0.240097,0.812930
-0.250983,0.333992,0.793426,0.624990,0.777698,0.067622
0.232399,-0.492894,0.496676,-0.357534,0.922212,0.147293
0.114075,0.025958,0.844746,0.869148,0.375486,-0.321857
0.442333,0.285087,0.279477,-0.712874,0.636166,0.295134
-0.373720,-0.075108,0.764550,0.456215,0.796713,0.396378
0.139483,-0.859603,0.654549,0.882806,0.469371,0.018527
-0.091816,-0.586113,0.744327,0.845903,-0.338172,-0.412418
-0.300593,-0.294710,0.431200,-0.561392,-0.613241,-0.555675
-0.083783,-0.179629,0.289323,-0.622954,-0.637809,-0.452911
0.046038,0.232037,0.511844,0.969683,0.201089,-0.138848
-0.849653,-0.006613,0.681105,0.981602,0.102970,-0.160796
0.474461,0.216443,0.724170,-0.488859,0.824407,-0.285253
-0.192188,0.105063,0.784541,-0.606681,-0.462449,0.646590
0.063783,0.360196,0.845641,0.973688,0.172487,0.148931
0.108929,0.194927,0.837519,0.225364,-0.612526,-0.757643
-0.381490,0.097661,0.064896,-0.059559,-0.924787,0.375794
-0.305476,-0.397749,0.644471,-0.391555,0.208299,-0.896268
0.556147,0.514953,0.252988,-0.579324,-0.327310,-0.746493
0.229724,0.068151,0.820860,0.970156,0.235262,0.058728
-0.098064,0.147010,0.726822,0.724926,0.558958,0.402552
0.464224,0.540219,0.608252,0.132004,0.244933,0.960512
0.337235,-0.043723,0.294213,-0.544065,0.106279,0.832285
0.792325,0.589223,0.207801,-0.528536,0.607299,0.593160
0.635993,0.138176,0.571767,-0.650125,0.750683,-0.117522
0.029713,-0.252072,0.856234,0.467318,0.687994,-0.555228
0.202950,0.307492,0.743796,0.811335,-0.384887,0.439997
0.489421,0.560304,0.094270,0.833227,0.007031,-0.552887
0.362906,0.270283,0.752996,0.960203,-0.158623,-0.229887
0.598668,0.270579,0.796741,0.959532,0.240881,-0.145858
0.010498,-0.144936,0.457871,0.509333,0.833472,-0.214251
0.747548,0.250790,0.617485,0.812259,0.125755,-0.569580
0.077327,0.041749,0.418884,-0.158222,-0.798424,0.580935
0.026090,0.377369,0.555340,-0.184176,-0.512069,0.838967
0.053337,-0.405941,0.899730,0.210129,-0.962238,0.173041
0.268257,-0.678148,0.784044,-0.438785,0.841080,-0.316310
-0.539085,0.039282,0.574403,0.870497,-0.433221,0.233570
0.313454,-0.438216,0.713213,-0.391541,0.762807,-0.514607
0.323009,0.154807,0.518557,-0.326939,0.762478,-0.558334
-0.347315,0.243733,0.452849,0.757101,0.615882,0.217915
0.287574,-0.582856,0.770750,0.948272,0.282077,-0.145648
-0.504855,0.133439,0.529083,0.095923,0.181873,0.978632
0.216914,-0.510067,0.773833,0.834605,0.409621,-0.368299
-0.278388,-0.140348,0.768313,-0.557085,0.293983,0.776679
-0.288939,-0.112367,0.178693,-0.720957,-0.650262,-0.239542
-0.248516,-0.421092,0.808295,-0.481601,0.026704,0.875984
-0.393826,-0.414281,0.829629,-0.732469,-0.468741,-0.493733
0.095279,-0.725128,0.725198,-0.489352,0.872019,0.010837
0.010184,-0.104718,0.220813,0.810050,-0.329423,-0.485077
-0.231352,-0.495953,0.756726,0.920542,-0.365699,-0.137355
-0.882515,0.111282,0.554478,0.140950,-0.918941,0.368349
-0.148093,-0.200898,0.514678,0.867290,0.484990,0.112220
0.400862,0.050780,0.735807,-0.187060,0.190755,0.963650
0.166414,-0.338038,0.924826,-0.000430,-0.995507,0.094689
-0.286735,-0.088729,0.654533,0.836752,0.369109,0.404479
0.184366,-0.149329,0.505396,-0.146091,-0.854780,0.498005
-0.424694,-0.073234,0.895735,0.078546,-0.993183,-0.086125
0.114232,-0.197098,0.448937,0.662364,0.574280,-0.481119
0.109768,0.041650,0.595919,0.824174,0.538087,-0.176636
0.029556,-0.370164,0.013361,0.258911,0.940717,0.219127
0.460234,0.716739,0.469442,0.890627,0.015638,-0.454465
0.254607,0.187821,0.031081,-0.676671,-0.022364,0.735946
-0.100845,-0.135955,0.576127,0.998833,0.007031,-0.047779
-0.411939,-0.127220,0.904006,0.647636,-0.760584,0.045593
0.302957,0.319039,0.318033,0.541905,0.701193,-0.463322
0.383275,0.455290,0.085136,0.623796,0.779957,0.050462
-0.015224,0.179925,0.685829,0.360609,0.889194,0.281596
-0.069243,-0.661863,0.747029,0.901347,0.104833,0.420219
0.703920,0.068447,0.452036,-0.552857,-0.808262,0.202638
-0.157961,-0.320667,0.949177,0.987316,-0.110810,0.113700
0.156965,-0.486873,0.329272,0.979574,0.089613,-0.180013
0.523545,-0.032077,0.645532,-0.686538,0.341487,-0.641913
0.375140,0.756859,0.046182,0.256635,-0.597884,-0.759390
0.626701,0.467628,0.080992,0.250745,0.542270,0.801916
0.200432,0.567657,0.415303,-0.426229,-0.512796,0.745231
0.569008,0.471082,0.555324,0.807000,0.547299,-0.221845
-0.388892,-0.019887,0.696007,0.877916,0.472884,-0.075128
-0.451048,-0.132254,0.303463,-0.896964,-0.219007,-0.384046
-0.101684,-0.149871,-0.307060,-0.216108,-0.971864,-0.093689
0.347366,-0.536518,0.672850,0.364999,-0.528669,0.766345
0.052286,-0.314251,0.716943,0.774523,0.610146,-0.166843
-0.070922,0.307689,0.832894,0.703028,0.706069,-0.084953
-0.073863,-0.251777,0.689675,0.191835,0.952149,0.237934
0.548114,0.359801,0.118653,-0.747324,0.151927,0.646858
-0.236075,0.093812,0.467386,0.677853,0.625762,-0.385925
-0.063783,-0.138028,-0.339831,-0.368856,-0.928198,-0.048934
0.257862,0.452132,0.512059,0.272894,0.834341,-0.478961
-0.155965,-0.415022,0.925738,0.790269,-0.256649,0.556422
-0.109874,0.210719,0.211547,-0.597476,-0.435093,0.673584
0.290987,0.497138,0.611650,0.931315,0.274371,0.239526
0.643971,0.445519,0.542974,0.625592,-0.727460,0.281844
0.159326,-0.234653,0.461286,0.717945,0.333266,-0.611138
0.752376,-0.115130,0.329803,-0.034698,-0.652631,0.756881
-0.507063,-0.161764,0.332057,-0.752556,-0.547667,-0.365679
-0.778939,-0.088038,0.702985,-0.437565,-0.248938,0.864041
-0.419709,-0.469453,0.722628,0.295414,-0.934255,-0.199744
0.381647,0.241019,0.819998,0.496452,0.241778,0.833714
-0.345479,-0.024970,0.910869,0.946370,0.044057,0.320067
0.183264,0.163591,0.220283,-0.141712,-0.724710,0.674324
0.126673,-0.596279,0.520596,0.984497,-0.021390,0.174091
0.168093,-0.049841,0.264674,-0.485965,0.464381,0.740398
0.183053,0.526105,0.457225,0.284752,-0.318086,0.904289
-0.094126,0.045993,0.863477,-0.653707,0.755558,-0.042415
0.887920,0.374408,0.538101,0.438721,0.850127,-0.291219
-0.092184,0.076836,0.808079,0.962044,0.088391,0.258181
-0.498348,-0.056800,0.262735,0.507331,0.811300,0.290529
0.205943,0.144591,0.670148,0.538605,-0.839352,-0.073434
-0.030604,-0.156682,-0.585078,-0.750232,-0.661012,0.014678
-0.091447,0.460620,0.314668,-0.495664,-0.002122,0.868512
0.187516,-0.495114,0.416016,-0.701453,0.680904,0.210553
0.245158,0.126777,0.817892,0.784768,-0.610132,-0.108987
0.112498,0.184909,0.715749,-0.484839,-0.867474,0.111447
0.533833,0.570963,0.582144,0.664166,-0.110834,0.739324
0.278914,-0.336508,0.744575,0.749181,0.197027,-0.632383
-0.455457,-0.368634,0.499329,-0.565452,-0.664607,-0.488428
0.714263,0.122434,0.453197,-0.604533,-0.487299,0.630142
0.080108,-0.732234,0.788917,-0.038619,0.611986,0.789925
-0.209669,-0.490871,0.766987,0.927166,0.243237,0.284955
-0.031706,-0.061192,0.110846,-0.652665,0.745309,-0.136173
0.692636,0.177853,0.621795,-0.816856,0.313799,0.484022
-0.335819,-0.167834,0.513137,-0.164168,0.966771,-0.195965
-0.254713,-0.183478,0.906808,-0.013509,-0.920599,0.390276
0.454618,0.323924,0.097734,-0.185672,-0.491639,0.850774
0.080319,-0.226214,-0.990717,0.166090,0.251499,0.953500
0.282746,0.225573,0.283737,-0.248810,-0.835142,0.490542
0.473253,0.587989,0.465115,0.008431,-0.369806,0.929071
0.705760,0.481396,0.553152,-0.559016,-0.615139,0.555972
0.126359,-0.724042,0.590697,0.946051,0.273362,0.173959
-0.127093,-0.208004,0.958161,0.269106,0.423759,0.864876
-0.455351,0.563265,0.198037,0.896203,-0.013677,0.443433
0.257126,-0.164084,0.507020,-0.586178,-0.461435,0.665938
0.295713,0.297424,0.314586,0.746638,0.296194,-0.595651
-0.393775,0.100474,0.823993,0.824033,-0.378108,-0.421906
0.204892,-0.435452,0.753560,0.448024,-0.667633,-0.594593
0.467111,0.120559,0.668043,-0.324970,-0.945475,-0.021733
0.238016,-0.034593,0.440930,0.668331,0.333614,-0.664857
0.313351,-0.104125,0.562717,-0.110827,0.989368,0.094177
0.211297,-0.552556,0.697018,0.947307,0.312275,0.071378
0.714055,-0.286320,0.418221,0.617942,0.438747,-0.652417
0.071553,0.164627,0.636647,0.468214,0.836346,-0.285132
0.701979,0.070174,0.424188,-0.295031,0.924072,-0.242998
-0.074754,0.086607,0.526597,-0.092879,-0.995567,-0.014860
-0.442176,-0.521565,0.535465,0.298124,0.834231,-0.463876
0.035593,-0.411419,0.093242,-0.790829,-0.605391,-0.089957
-0.271458,-0.474141,0.685365,0.612274,0.768119,0.187385
0.069976,0.237021,0.881827,-0.706729,0.599259,0.376061
-0.139797,0.384377,0.654632,0.132243,-0.191568,0.972529
0.547220,0.399526,0.590316,-0.595154,0.233495,-0.768942
-0.102210,-0.159001,0.523431,0.892339,-0.448398,0.051670
0.076276,0.926471,0.379167,-0.450602,0.290709,0.844065
0.029451,0.381959,0.758151,0.840765,0.539388,0.046645
-0.256760,0.829451,0.248860,-0.130522,-0.118912,0.984289
0.152133,0.766779,0.341025,-0.114797,0.210918,0.970739
0.281381,0.533804,0.581382,0.906018,-0.049981,0.420277
0.195235,0.103780,0.501749,0.277051,-0.912754,0.300204
0.344479,-0.725967,0.606594,0.103804,-0.980866,0.164700
0.340176,-0.445864,0.726656,0.637786,-0.769021,0.042852
0.077695,0.167588,0.649593,0.750202,0.617235,-0.237102
0.356607,0.199221,0.537637,-0.508826,0.747346,0.427283
-0.061684,-0.118782,0.095032,-0.631437,0.774019,0.046716
-0.071815,-0.226658,0.886386,0.862812,0.464232,-0.200110
0.038951,-0.371397,0.687271,-0.663330,-0.589512,-0.460945
0.628431,0.702132,0.091153,0.016670,0.436233,0.899679
-0.303954,0.046487,0.030484,-0.377292,-0.916363,0.133900
-0.300541,-0.177211,0.654301,-0.255617,0.962884,0.086685
-0.092866,-0.198085,-0.393439,0.232653,-0.972038,0.031868
0.472099,0.232333,0.324846,0.131261,0.951976,-0.276607
-0.136753,0.372878,0.728994,-0.499466,0.713366,-0.491572
0.291512,0.359258,0.621563,-0.356796,-0.476461,0.803543
-0.368734,-0.135264,0.903244,-0.169693,-0.983243,0.066614
0.145783,-0.189548,0.272034,-0.434024,0.810424,0.393493
-0.048192,0.230310,0.638238,0.170169,0.304853,0.937074
0.419078,0.128306,0.633895,0.327307,0.784420,-0.526835
0.222165,-0.498815,0.853847,0.599828,0.799267,-0.037145
-0.494724,0.782669,0.241965,-0.166253,0.083805,0.982516
0.141950,-0.260610,0.791785,0.937684,-0.249893,0.241458
-0.540136,-0.606000,0.574453,0.210959,-0.572951,0.791974
0.297969,-0.625839,0.808079,0.969475,-0.219388,0.109483
0.596621,0.396368,0.202049,-0.363482,-0.891517,-0.270328
-0.304268,-0.483172,0.256966,-0.719822,-0.420948,-0.551959
0.270986,0.286617,0.610307,-0.773110,0.241163,-0.586636
-0.061841,0.378701,0.322393,0.358053,0.207632,0.910322
0.867186,0.267519,0.464137,-0.161054,0.446286,0.880279
0.123366,0.068743,0.453711,0.185744,-0.977261,0.102273
-0.109980,-0.213629,0.503572,0.832805,0.099091,0.544625
0.001838,-0.329599,0.583636,-0.120879,0.952074,0.280970
-0.085991,0.122336,0.806156,0.880191,0.343173,-0.327866
0.546643,0.490673,0.584979,0.501544,0.506228,0.701560
0.207571,0.127369,0.792348,-0.185122,0.973179,-0.136574
-0.416822,-0.188363,0.831817,-0.579957,0.809640,-0.090186
0.549844,0.400662,0.591311,-0.592462,0.228526,-0.772505
0.349731,-0.135018,0.784326,0.640223,-0.406039,-0.652109
0.141056,0.288542,0.763290,0.921392,-0.156195,0.355865
-0.545961,0.131070,0.656340,0.837223,-0.537100,0.102869
0.402698,0.373076,0.476321,0.910370,0.411293,-0.045439
0.258333,0.048016,0.889850,0.873750,-0.474891,0.105071
-0.580504,0.185896,0.662390,-0.399429,-0.117082,-0.909257
0.326946,0.277339,0.053674,0.866943,-0.228203,-0.443095
0.077013,0.182491,0.872512,-0.816315,0.550783,-0.173979
0.207885,-0.030004,0.438046,0.696823,0.393077,-0.599940
0.460078,0.706573,0.463325,0.982100,-0.000883,-0.188358
-0.509267,0.602991,0.237522,-0.523200,0.146107,-0.839592
-0.326578,-0.170944,0.910455,-0.223855,-0.942974,0.246350
0.330622,0.257748,0.063852,-0.884051,0.328744,0.332236
0.787548,0.410679,0.548925,0.869969,0.493000,-0.010236
0.414771,0.612021,0.602417,0.268439,0.945581,0.183896
0.836369,0.659889,0.192700,0.147297,0.470728,0.869896
-0.446428,0.438018,0.187545,0.850423,-0.036934,0.524801
0.571158,0.007008,0.637526,0.518527,-0.467639,-0.715851
0.063677,0.442312,0.776982,-0.787398,-0.531532,0.312213
-0.127042,-0.252764,0.525337,0.334313,0.719544,0.608680
0.363903,0.095588,0.557180,-0.164925,0.229404,0.959257
0.318494,-0.213087,0.308850,0.130894,0.981044,0.142898
0.311406,-0.055665,0.290600,-0.519349,0.202560,0.830209
-0.368315,-0.047967,0.940508,0.989474,0.143806,-0.016149
-0.196440,-0.463580,0.720225,-0.694155,0.603682,0.392068
-0.009396,0.066522,0.516038,-0.122214,0.974084,-0.190328
0.274030,-0.705438,0.762378,-0.526381,-0.779864,0.338726
-0.016641,-0.171831,-0.399970,0.253734,0.872867,0.416800
0.086775,0.191275,0.889370,0.052661,0.543630,0.837672
-0.165520,0.334435,0.077461,0.977883,-0.198466,0.066001
0.243005,-0.706228,0.601489,-0.590636,-0.581497,-0.559473
-0.060162,-0.365673,0.869130,0.499840,0.771131,0.394355
0.375716,0.319385,0.695344,0.757565,-0.645843,0.094774
-0.023885,-0.042933,0.146286,0.957704,-0.228080,0.175449
-0.499187,-0.129392,0.355662,0.851434,0.415406,0.320153
-0.296972,-0.320223,0.731281,0.949262,-0.313505,0.024808
0.073286,-0.180764,-0.993270,0.212745,0.341756,0.915392
-0.393932,-0.387929,0.801780,0.774204,-0.626492,0.090088
-0.010133,-0.545351,0.715119,0.807072,-0.567343,0.163573
-0.334034,-0.060995,0.666020,-0.560083,-0.828433,-0.002314
0.747285,0.061439,0.372818,0.116491,0.975908,-0.184484
-0.161899,-0.147305,0.501285,-0.256913,-0.961458,0.097949
0.657358,0.188018,0.593399,0.837039,0.350048,-0.420515
-0.331618,-0.096229,0.926235,0.782885,-0.600254,0.163663
-0.114126,0.485936,0.651417,0.222722,0.938069,-0.265369
-0.063783,-0.418427,0.910057,0.975045,0.094592,-0.200846
-0.349363,-0.442459,0.739221,0.997897,-0.029388,0.057782
-0.100845,-0.137436,0.963714,0.579955,-0.051016,0.813049
0.129980,0.015200,0.842044,0.138439,0.940826,-0.309324
-0.344899,0.311440,0.362823,-0.286549,-0.704840,0.648915
-0.013491,-0.163936,-0.485156,0.698404,-0.714305,0.044726
-0.232085,-0.158705,0.636730,0.355004,0.933758,-0.045482
0.384009,-0.283754,0.651184,0.357794,0.519075,-0.776237
0.377184,0.398687,0.449434,0.887380,0.442342,-0.129961
-0.426008,0.804876,0.236793,0.201673,0.040524,-0.978614
-0.192607,-0.143950,0.938369,0.888773,0.162964,-0.428398
-0.508165,-0.365920,0.524326,0.892338,0.339291,0.297684
0.161268,0.244078,0.284980,-0.056625,-0.828024,0.557826
-0.731168,0.015890,0.671971,0.991429,-0.120144,-0.051314
-0.139797,-0.636992,0.743995,0.986671,-0.062048,0.150433
-0.527377,-0.081227,0.832828,-0.218307,-0.864754,0.452263
0.065462,0.192706,0.678121,-0.462197,0.863951,0.199909
-0.139272,-0.235787,0.727916,-0.215017,-0.976490,0.015344
0.000261,0.279955,0.890563,-0.434592,0.891389,0.128666
0.059425,-0.452379,0.222836,0.728334,0.684869,-0.021991
0.216074,-0.108271,0.290003,0.363586,-0.280420,-0.888352
-0.323326,0.164233,0.688431,-0.573244,-0.306961,0.759715
-0.413512,0.007748,0.816567,-0.550481,0.597212,0.583360
-0.274976,-0.114932,0.855687,0.137187,0.759299,-0.636117
-0.129560,-0.125592,0.617584,0.513525,0.803011,-0.302432
-0.019739,0.473796,0.747045,0.938156,0.327248,0.113017
-0.374037,-0.485195,0.754173,0.944271,0.307617,-0.117146
0.253505,0.184169,0.873970,0.914728,0.379885,-0.137696
0.441599,-0.834879,0.564490,0.888368,-0.384891,-0.250320
-0.110662,-0.132501,0.885010,0.919819,-0.372651,-0.122736
-0.539030,-0.697394,0.629751,-0.136193,-0.926076,-0.351903
0.498453,0.328859,0.583354,0.352804,-0.047872,0.934472
0.033440,-0.452723,0.725513,0.015611,0.865166,0.501242
0.023465,-0.223105,-0.964610,0.473146,0.793702,0.382322
0.694946,0.322098,0.617750,0.807471,0.584556,-0.079278
0.244476,0.083597,0.844498,0.474574,0.871578,-0.123011
0.368315,0.634919,0.092264,-0.061172,0.029471,0.997692
0.714369,-0.159099,0.477647,-0.288928,0.784420,0.548822
0.324742,0.072444,0.554428,0.348594,0.896099,-0.274753
-0.001367,0.315782,0.774894,0.253295,0.359147,0.898251
-0.092235,-0.126678,0.254844,0.975902,-0.195132,0.097670
-0.068089,-0.142222,0.855952,0.412142,0.436467,0.799773
0.123837,-0.698628,0.602367,0.351901,0.926523,0.133117
0.196337,-0.481198,0.821904,-0.658202,-0.742278,-0.125677
0.144889,-0.466492,0.396357,0.151482,0.988446,-0.005274
0.420600,0.030794,0.568784,-0.416223,0.097564,0.904013
0.265892,0.328464,0.326935,0.499310,0.730266,-0.466263
-0.226155,0.131169,0.102293,0.857771,-0.024017,0.513471
-0.151976,-0.286518,0.541416,-0.324235,0.829946,0.453939
-0.105728,-0.187278,-0.423160,0.706260,-0.665063,0.242670
0.306892,0.024428,0.801482,0.609090,-0.633883,0.476656
0.032808,-0.119423,0.223449,0.811843,-0.018175,-0.583592
-0.417344,-0.284544,0.835696,-0.409116,-0.635653,0.654652
0.001523,0.182541,0.669700,-0.239121,-0.957021,-0.164108
0.006038,0.400563,0.574469,0.177082,0.600726,-0.779596
-0.265790,-0.049891,0.746763,-0.681957,-0.628864,0.373450
0.448844,0.091493,0.608268,0.033334,0.992638,0.116440
0.062838,-0.315140,0.919903,0.282377,0.695706,-0.660497
-0.652844,-0.262583,0.494837,0.888549,-0.246218,0.387114
-0.145469,-0.312475,0.742885,0.750151,0.034781,0.660352
0.515986,0.012732,0.333217,-0.120953,-0.942074,0.312836
-0.156545,-0.306602,0.746299,0.793510,0.090778,0.601748
-0.367001,-0.088580,0.709948,-0.589901,-0.800535,0.105640
0.643814,0.324813,0.616457,-0.594032,-0.568575,0.569076
0.230301,-0.517667,0.515988,-0.499947,0.861029,-0.093177
0.772533,-0.287455,0.520480,0.727312,-0.209169,-0.653655
-0.050031,-0.222513,-0.980672,0.648241,-0.487353,-0.585040
0.815267,0.246595,0.172974,-0.361825,0.730667,0.578971
-0.083943,0.103237,0.800703,0.743728,0.574687,-0.341473
0.433881,0.619769,0.469591,0.278248,-0.310575,0.908912
0.675628,0.200997,0.545311,0.849548,0.506112,0.148727
-0.679880,0.632994,0.345152,-0.585983,0.478668,-0.653836
-0.477610,-0.740327,0.691763,-0.084591,0.993524,0.075864
0.120742,-0.409742,0.857394,0.992140,0.124966,0.006435
-0.074491,0.472069,0.638553,0.734715,0.542439,-0.407374
0.363012,0.482876,0.080511,0.799140,0.439063,0.410608
-0.100845,0.429925,0.569645,-0.347349,-0.418755,-0.839043
0.095071,0.045993,0.429526,0.539841,0.558545,-0.629762
-0.449735,0.551076,0.198054,0.876857,0.052931,0.477829
-0.626227,0.043920,0.393074,0.841104,0.517347,0.157787
0.042837,-0.222907,0.284516,0.049663,0.792592,0.607726
-0.314191,0.098746,0.701974,0.148573,0.055776,-0.987327
0.595676,0.190782,0.685000,0.253713,0.910841,-0.325575
0.313246,-0.589568,0.673397,0.834327,0.012109,0.551137
0.558508,0.014163,0.341854,-0.114812,-0.954019,0.276885
0.404114,-0.234208,0.342550,-0.604398,-0.599519,0.524672
-0.201323,0.219897,0.775026,0.943394,0.308767,-0.121126
-0.040739,0.551471,0.615761,-0.754248,0.392695,-0.526214
-0.222217,-0.588482,0.775523,0.629251,0.765104,-0.136597
0.773113,0.249951,0.572231,0.108671,0.441713,0.890551
0.166257,-0.659396,0.681121,0.799982,-0.400812,-0.446519
0.123261,-0.339518,0.827126,0.338811,0.937146,-0.083455
0.039162,0.231198,0.719562,0.941932,0.335145,-0.021015
0.306527,-0.568643,0.783497,0.783942,0.347717,-0.514323
0.673526,0.321408,0.557959,-0.474024,-0.878679,-0.056789
0.476928,0.577132,0.079765,0.745343,0.073212,-0.662649
-0.162425,-0.218416,0.519038,0.900925,0.408359,0.146892
0.284373,0.232728,0.058216,-0.848935,0.031567,0.527554
0.237965,0.277932,0.807831,-0.631267,0.078092,-0.771624
0.443227,0.229570,0.095513,-0.265265,0.265022,0.927037
0.379129,0.233863,0.767501,0.987192,0.138972,-0.078353
-0.405954,0.492055,0.252938,-0.135181,-0.872634,0.469293
-0.485694,-0.134179,0.345103,0.873605,0.358891,0.328650
0.482545,0.151451,0.690984,0.395938,0.831660,-0.389327
-0.531997,-0.372532,0.625044,0.468729,0.655358,-0.592282
-0.625599,-0.239439,0.764334,0.893922,0.282549,-0.347949
0.329571,0.457067,0.555423,0.588579,0.598724,0.543234
0.085411,0.353287,0.795349,-0.571160,0.769402,-0.286001
0.652949,0.708843,0.497505,-0.259710,-0.328143,0.908225
0.477297,0.129738,0.652361,0.058203,0.981046,0.184826
-0.060056,0.034495,0.274885,-0.515427,-0.682812,0.517786
-0.413304,0.370509,0.472326,-0.589197,-0.659153,-0.467294
0.176491,-0.616759,0.481774,-0.401358,0.243234,0.883034
0.266629,-0.568249,0.499760,-0.267742,-0.372652,0.888507
0.602238,0.472957,0.591195,-0.600727,0.383050,-0.701712
-0.202793,-0.333843,0.571436,-0.468594,-0.609324,-0.639644
0.585490,0.732728,0.489151,-0.152863,-0.251934,0.955595
-0.031761,-0.299792,-0.057884,0.660712,0.731035,0.170430
0.419866,0.225770,0.343080,0.350205,0.874097,-0.336617
0.319333,0.180172,0.658478,0.014797,-0.999628,0.022892
0.704289,0.398144,0.169891,-0.608913,0.167290,-0.775396
-0.829756,-0.258191,0.630912,0.797286,0.306277,-0.520125
0.438869,0.640101,0.571303,-0.435646,-0.269063,-0.858963
0.420180,0.530596,0.079185,0.568694,0.039416,0.821604
0.488793,0.077724,0.765975,0.706233,0.634477,-0.314123
-0.599245,0.040022,0.593167,0.854847,-0.518567,0.018042
0.304216,-0.581080,0.743581,0.976978,0.201504,-0.070072
0.688121,0.573382,0.572563,-0.061129,0.292962,0.954168
-0.362538,-0.077822,0.719993,0.668096,0.724096,-0.171268
0.227414,-0.415515,0.727949,-0.098573,0.641158,-0.761051
0.682504,0.519937,0.564092,-0.030850,-0.530213,0.847303
0.216914,0.126530,0.761632,0.932900,0.321936,-0.161415
0.038217,0.427261,0.825915,0.250410,0.600980,0.759024
0.061947,0.188660,0.825302,0.936688,0.323493,-0.134045
-0.049348,0.050582,0.790392,0.912528,0.408101,0.027321
-0.113235,0.226066,0.750841,0.312292,-0.792282,0.524178
-0.277549,-0.113452,0.174831,0.806577,0.502116,0.311952
-0.306264,-0.104915,0.891508,0.733213,-0.279566,-0.619872
-0.574362,-0.438265,0.611650,-0.021627,-0.412748,0.910588
-0.029082,-0.016532,0.259884,-0.696744,-0.703468,0.140290
0.376450,0.734653,0.077030,-0.809322,-0.067719,0.583449
0.486640,0.080339,0.772739,0.542264,0.774418,-0.325923
0.463910,0.301668,0.091286,-0.187281,-0.342124,0.920802
-0.138118,0.535926,0.670794,-0.386258,0.101599,0.916778
-0.787077,-0.325898,0.612180,0.714513,0.608143,-0.345881
0.414089,0.141680,0.635768,0.272413,0.868070,-0.415025
-0.086042,-0.099388,0.016543,0.850787,0.446704,-0.276798
-0.015907,0.692015,0.424089,-0.102548,-0.239175,0.965546
-0.103523,-0.174151,0.514363,-0.752374,0.393536,-0.528264
0.312669,-0.141778,0.714953,0.745614,0.457281,-0.484720
0.405742,0.715358,0.078953,0.009436,-0.248649,0.968548
-0.392041,-0.228780,0.673645,0.435809,0.064650,0.897714
-0.055279,0.037999,0.843486,0.515859,-0.653759,0.553614
-0.382647,0.314845,0.435361,0.928009,0.229535,-0.293449
0.415614,0.408015,0.096425,-0.327536,0.129345,0.935943
-0.025462,-0.309810,0.831468,0.788703,0.392897,0.472842
-0.078483,0.017617,0.791304,-0.380286,-0.924344,0.031146
-0.030502,-0.088383,0.036982,-0.600344,0.791893,0.111766
0.273137,0.163986,0.883717,-0.680993,-0.247670,0.689135
-0.855216,0.115279,0.549240,0.140950,-0.918941,0.368349
-0.535829,-0.087692,0.834999,-0.115250,-0.865843,0.486861
0.048925,0.238058,0.836143,-0.770345,0.358067,0.527595
0.279333,0.594601,0.584266,0.794621,-0.591632,0.136196
-0.036747,-0.216986,-0.917152,-0.566144,-0.821793,-0.064312
-0.552366,0.318397,0.405059,-0.029239,-0.999036,-0.032745
-0.186468,-0.124654,0.104481,-0.117425,-0.992973,-0.014678
0.403643,-0.702823,0.631492,-0.740548,0.664922,-0.097304
0.027717,0.183034,0.901238,0.899950,-0.015635,0.435712
-0.080845,-0.193693,0.302584,0.873120,0.061764,0.483577
-0.083889,-0.027685,0.175328,0.991729,-0.086893,0.094463
0.113600,0.692558,0.406650,-0.163751,0.225032,0.960493
0.155074,0.160827,0.713760,-0.623384,-0.615635,-0.482064
-0.372986,-0.041897,0.938054,0.999953,-0.007172,0.006455
0.089662,0.175138,0.891757,-0.293498,0.898595,0.326169
-0.714158,0.004984,0.697781,-0.690484,-0.403173,-0.600569
-0.243688,0.739489,0.251596,-0.005557,-0.083321,0.996507
-0.120217,-0.033952,0.875379,0.988403,0.046266,-0.144634
-0.137593,0.385363,0.241683,-0.678487,-0.337443,0.652524
0.782037,0.368733,0.531669,0.121280,-0.927945,0.352432
0.272979,0.019641,0.772341,0.132675,-0.183446,-0.974035
0.433935,-0.307145,0.617568,-0.323427,-0.840763,0.434181
-0.091396,-0.353139,0.964344,0.774955,0.420377,-0.471941
-0.605333,-0.674595,0.636183,-0.156096,-0.958658,-0.237928
-0.035856,-0.203859,-0.744559,-0.134137,-0.981647,0.135560
-0.694106,0.136005,0.587896,0.628986,0.657405,-0.414964
0.272454,-0.737909,0.633580,-0.458326,-0.835597,-0.302846
-0.042261,-0.183478,-0.145557,0.914633,-0.322028,-0.244427
-0.460497,0.397849,0.513120,0.796181,0.296538,-0.527410
0.110819,-0.682342,0.678834,-0.663568,0.713783,0.224035
0.421753,0.037999,0.745719,-0.242420,0.087002,0.966263
-0.450574,0.209485,0.518822,0.558651,0.069841,0.826457
0.510526,0.060995,0.766788,0.813955,0.370158,-0.447727
0.893117,0.335571,0.545162,-0.251037,-0.916403,0.311745
0.413986,0.498421,0.607854,-0.124754,0.367834,0.921485
0.224527,0.129589,0.557362,0.623802,0.745510,-0.234704
-0.152607,-0.035333,0.431432,0.941965,0.282685,0.181085
-0.122684,-0.383488,0.907869,-0.616991,-0.596625,-0.513186
-0.351987,-0.381859,0.715981,0.944334,-0.200116,-0.261125
0.127932,0.362811,0.689724,-0.815214,0.523017,0.248754
0.117855,-0.501776,0.798515,-0.562547,0.448949,0.694252
0.135702,-0.728879,0.369669,-0.810370,0.215863,0.544705
-0.102630,-0.009869,-0.034910,0.148742,-0.720974,0.676810
0.132133,0.053642,0.449086,-0.345868,-0.866284,0.360454
-0.456402,-0.408754,0.650090,0.162799,0.933594,-0.319217
0.290830,-0.471625,0.446500,-0.092973,0.973907,0.207028
-0.670011,0.009721,0.495732,0.613724,0.785566,-0.078926
-0.578457,-0.057787,0.469989,0.891387,0.120851,0.436834
0.012757,-0.008093,0.329703,0.905889,0.370614,-0.204965
-0.074545,0.102645,0.808245,0.871364,0.471090,-0.137112
0.217651,-0.005478,0.867141,0.280758,-0.927397,0.247205
0.559979,0.651204,0.589371,0.819837,0.251290,0.514510
0.577198,0.619029,0.577950,0.904047,0.420530,0.076516
-0.459081,-0.044956,0.817064,-0.481684,0.699369,-0.528075
-0.046038,0.397257,0.579276,-0.097010,-0.827943,0.552359
-0.228202,-0.168279,0.632221,0.542673,0.839875,0.010812
0.373195,-0.192706,0.644272,0.016306,0.282892,0.959013
0.075122,0.136005,0.600792,0.800842,0.500704,0.328553
0.306264,0.746990,0.508877,-0.020107,0.750103,0.661015
-0.207359,-0.166551,0.971986,0.335357,0.821560,-0.461058
-0.492311,0.321309,0.528669,-0.557030,-0.728770,-0.398261
0.064202,0.499556,0.599848,0.012647,-0.397304,0.917600
0.377552,0.558923,0.522569,0.239848,0.399919,-0.884612
0.714577,0.207757,0.605169,-0.803282,0.307870,0.509856
-0.074388,-0.120312,0.305767,0.964777,-0.149156,0.216696
0.565121,0.138176,0.693007,0.146261,-0.962279,0.229404
0.813270,0.616611,0.185953,-0.458166,0.357131,0.813966
0.226257,0.740969,0.509374,0.927668,0.040996,-0.371148
-0.016432,0.292785,0.327797,0.371545,0.169286,0.912851
