0.494259,-0.388272,-0.858596,0.822752,-0.198860,-0.532479
-0.501627,-0.662235,-0.917123,0.619424,0.744345,0.249528
-0.105815,0.097953,0.050461,-0.694648,0.587380,-0.415269
-0.190180,-0.003390,-0.132232,0.815422,-0.572616,0.084840
-0.299717,-0.731340,-0.877179,0.944519,-0.235874,-0.228578
-0.084639,-0.374932,-0.856442,-0.465606,0.772803,-0.431261
-0.368835,-0.579505,-0.952735,-0.141926,0.010977,0.989816
0.175585,0.346582,0.603644,-0.721657,0.551632,-0.418227
0.178437,0.690612,0.905894,0.930320,0.246754,0.271324
-0.224780,0.008851,-0.191878,-0.690501,-0.661585,0.292427
-0.698780,0.100537,-0.963561,0.984036,-0.002193,0.177959
0.671876,-0.556574,0.615114,0.421330,0.462377,0.780185
0.563361,0.474792,0.852984,0.640631,-0.228199,-0.733156
0.291527,0.302555,0.732134,0.864032,0.228187,-0.448754
0.310153,0.432021,0.609121,-0.514884,0.474802,0.713763
-0.979910,-0.131312,-0.959380,0.870632,0.308355,-0.383297
-0.184054,-0.309858,-0.780377,0.909879,-0.402360,0.101126
0.339083,0.323163,0.690010,0.716672,-0.692948,0.078766
-0.336651,-0.711894,-0.900531,0.122796,0.803639,-0.582311
0.551731,-0.013483,0.684130,0.964237,0.264978,0.005730
-0.492555,-0.125636,-0.960322,0.532769,-0.133511,-0.835662
0.633746,-0.089778,0.673790,0.673032,0.495898,-0.548738
0.305330,0.124035,0.575723,0.818252,-0.006352,0.574824
-0.733741,-0.135695,-0.955887,0.776059,0.512921,-0.366940
0.347083,0.013332,0.579800,-0.654987,-0.483441,0.580755
-0.504177,-0.123082,-0.966634,0.449325,-0.706235,-0.547118
-0.034477,0.095513,-0.918909,-0.142100,-0.571602,-0.808133
-0.487477,-0.464457,-0.951095,0.762599,0.627395,-0.157539
-0.553447,-0.501546,-0.966803,0.512054,0.689396,0.512381
-0.652940,-0.634839,-0.954001,-0.414606,-0.146384,-0.898150
-0.759661,-0.264958,-0.949680,0.734932,0.261615,-0.625645
0.198793,0.330751,0.587255,0.918011,0.104535,0.382529
0.410025,-0.219164,-0.885587,-0.847841,0.403790,-0.343686
0.124500,0.128255,-0.919338,0.076425,0.983169,0.165947
0.370006,0.113946,0.681420,-0.793033,-0.458833,0.400714
0.305741,-0.223369,0.346672,0.915157,0.401717,0.033324
0.339199,0.229713,0.684731,0.196664,-0.099550,0.975404
0.007858,0.283434,-0.954818,-0.198365,-0.013714,0.980032
0.371912,0.253778,0.700376,0.774366,0.629618,0.062748
-0.002206,-0.111282,-0.212968,-0.158841,-0.986893,-0.028505
-0.009953,-0.409682,-0.901834,-0.425753,-0.158071,-0.890925
0.084770,0.735813,0.940158,0.894543,-0.413924,-0.168703
-0.443030,-0.931658,-0.899913,0.742933,0.659281,0.115759
0.243305,0.054172,0.484770,0.837347,0.467554,-0.283273
0.079071,0.417464,0.628728,-0.247548,-0.694601,-0.675462
-0.535536,-0.463292,-0.943479,0.959457,-0.183716,-0.213752
0.027110,-0.377655,-0.862219,0.196013,-0.100467,0.975441
-0.177332,-0.252676,-0.932036,-0.704404,0.194049,0.682760
-0.322278,-0.632434,-0.911014,0.540364,0.610497,0.579052
0.068430,-0.154639,-0.128256,0.853034,-0.490537,-0.178062
0.064406,-0.194787,-0.939370,0.117659,0.984769,0.128008
-0.281721,-0.287800,-0.956839,0.049874,-0.507131,0.860425
-0.046786,0.076536,0.028212,0.464840,-0.479150,0.744539
-0.464138,0.064554,-0.935815,0.057345,-0.263117,0.963058
-0.640587,0.070100,-0.957663,0.507140,-0.763747,-0.399373
-0.257939,-0.463996,-0.917405,0.589727,0.802302,-0.092377
0.561022,-0.544422,0.612767,-0.252064,0.953034,0.167899
-0.131528,0.105205,-0.945513,0.877536,0.415545,-0.239275
0.309087,-0.071279,-0.889217,0.397565,-0.602314,0.692214
-0.311095,-0.045672,-0.293575,0.835998,-0.487933,0.251056
-0.182512,-0.029564,-0.320491,-0.138159,-0.653745,0.743996
-0.515103,-0.356497,-0.949312,0.353427,-0.734854,-0.578861
-0.110259,0.023591,-0.969073,-0.145451,0.233306,0.961464
0.583163,-0.452169,0.759658,0.939927,0.012354,-0.341152
-0.166857,-0.027675,-0.939629,-0.085636,0.606308,0.790606
-0.190317,-0.376230,-0.912255,0.179059,0.981004,0.074632
-0.124163,0.256920,-0.931873,0.159318,0.607888,0.777875
0.152868,0.184474,-0.941512,0.648382,-0.752638,-0.114617
-0.701066,-0.406869,-0.964990,0.429583,0.736243,0.522882
-0.572781,-0.311585,-0.934930,0.677586,-0.271225,-0.683604
0.228257,0.904167,0.878313,0.754334,0.654577,0.050088
-0.040617,0.584205,0.311246,0.331023,-0.436139,0.836783
-0.294122,-0.584475,-0.928582,0.479536,-0.459925,-0.747338
0.438444,-0.065424,-0.869594,-0.439762,0.425406,0.790974
0.040491,-0.014442,-0.008072,0.102956,0.965587,0.238834
0.162539,-0.378941,-0.886073,0.627585,0.701796,0.337075
-0.239024,-0.073547,-0.276555,0.204056,0.904253,0.375084
-0.214755,-0.102429,-0.340479,-0.283185,0.947980,0.145393
-0.234369,0.162551,-0.936633,0.129570,0.990048,0.054927
0.487944,-0.542947,-0.886064,-0.047963,-0.990995,-0.125015
-0.394373,-0.952274,-0.885650,0.767569,0.142938,-0.624825
0.730147,-0.227177,-0.843465,0.155227,0.679455,0.717110
0.428439,0.087224,0.575878,0.921182,-0.001607,-0.389130
-0.043168,0.224562,-0.960189,0.265231,0.680431,-0.683130
-0.153931,0.091635,-0.939259,-0.227606,-0.565572,0.792669
-0.186553,-0.184381,-0.470072,0.578918,0.361533,0.730854
0.195932,0.586125,0.668019,-0.067823,0.952905,0.295587
0.472990,-0.271456,0.423488,0.074748,0.725202,0.684466
-0.077399,0.097766,-0.924698,-0.322308,0.231759,0.917826
0.255362,0.749598,0.962116,0.609433,0.777228,-0.156549
-0.148789,0.177396,-0.961332,0.127974,0.093780,-0.987334
0.531386,0.169199,0.795156,0.135382,0.963876,0.229377
0.585020,0.201886,0.848522,-0.245163,0.087328,-0.965541
0.110632,0.175865,0.105250,0.518910,0.689263,-0.505617
0.470608,-0.505144,-0.861749,-0.542721,0.241095,0.804567
0.609296,-0.156786,-0.891286,0.529924,0.180573,-0.828597
-0.079180,-0.210492,-0.959958,-0.623429,0.483680,-0.614321
-0.111514,0.389692,0.271376,0.114548,0.390823,0.913310
-0.326898,-0.358557,-0.938347,-0.063764,-0.191722,0.979376
0.308233,-0.451209,-0.874026,-0.291132,0.919200,-0.265168
0.153407,-0.045872,-0.900490,0.841936,-0.057208,-0.536537
0.540459,0.198819,0.879875,0.597925,-0.788870,-0.142018
0.172960,-0.476881,-0.892249,0.231761,0.953441,-0.192969
-0.090075,0.227929,-0.924237,-0.019134,0.190789,0.981445
-0.030770,0.201331,0.076848,-0.629109,0.706532,0.324091
-0.484320,-0.726010,-0.953238,0.750249,0.624748,0.216370
-0.362726,-0.201343,-0.956186,0.974894,0.093150,0.202247
-0.851245,0.045926,-0.958813,-0.569747,-0.248847,0.783239
-0.078768,-0.329527,-0.895432,-0.197061,-0.172732,-0.965055
0.450278,-0.293032,0.270856,-0.236703,0.962002,-0.136102
-0.397063,-0.464923,-0.930466,0.894133,-0.406444,-0.187961
0.227123,0.136157,-0.919790,-0.231876,-0.890075,0.392429
-0.444450,-0.652447,-0.944653,0.754940,0.291056,0.587666
-0.643655,-0.227560,-0.939330,0.405049,-0.269249,-0.873751
-0.196031,0.307975,-0.976660,-0.501679,0.863165,-0.057135
0.126022,0.742877,0.829048,-0.723151,0.262714,0.638775
0.315737,0.928394,0.899122,0.869420,0.355407,0.343211
-0.333464,0.009079,-0.254966,-0.511198,0.344445,-0.787423
-0.725093,-0.154232,-0.947983,-0.221386,0.579429,0.784379
0.004228,-0.064587,-0.907921,-0.501616,0.240479,0.830994
0.017404,0.152104,-0.941594,-0.139919,0.704383,-0.695893
0.148734,0.389234,0.608580,-0.486552,-0.873648,0.002284
0.326035,0.167605,0.490661,0.195875,0.780575,0.593579
-0.314927,-0.907052,-0.914140,0.363356,-0.055704,0.929984
-0.381076,-0.547103,-0.927663,0.946401,0.124202,0.298158
-0.194726,-0.122406,-0.561834,-0.702801,0.606677,0.371502
-0.159164,-0.295566,-0.924137,-0.131282,0.214875,0.967778
0.222449,0.276503,-0.923170,-0.100795,-0.736362,0.669037
0.154629,0.276318,0.619473,0.957775,0.263850,-0.114237
0.239901,0.095481,-0.899915,-0.539389,0.047578,0.840712
-0.759101,-0.480460,-0.965870,0.682967,0.658395,-0.316342
-0.030818,0.087491,0.352039,0.204009,0.862598,0.462931
-0.569501,-0.413605,-0.952560,-0.480992,-0.191232,-0.855615
0.072445,-0.296602,0.328325,-0.076027,-0.236575,0.968634
-0.810877,-0.334241,-0.977548,-0.273383,0.067316,-0.959547
0.818067,-0.140763,0.709160,0.724201,-0.619999,0.301885
-0.311072,-0.870935,-0.882510,0.037347,-0.414254,0.909395
0.316862,-0.056919,0.453597,0.794430,0.505907,0.336063
0.359889,0.126925,0.551122,-0.169894,0.555832,0.813749
0.369331,-0.436820,-0.885050,0.050669,0.996311,-0.069256
-0.195330,-0.788015,-0.906578,0.737035,-0.608853,-0.293391
-0.267133,-0.329078,-0.946966,0.774150,-0.601583,0.196948
0.113126,-0.133135,-0.924302,-0.658722,-0.585663,0.472319
-0.877502,-0.370598,-0.970922,0.998880,-0.022555,0.041597
-0.295548,-0.746534,-0.892720,0.875321,-0.082084,0.476524
0.314445,0.194277,0.566291,-0.606749,-0.738698,-0.293566
-0.599016,-0.588130,-0.943714,-0.264058,-0.453105,0.851451
0.447460,-0.387222,-0.883916,-0.682559,-0.720584,-0.121950
-0.188116,-0.070561,-0.269629,-0.297750,0.245935,0.922421
-0.183238,0.218960,-0.957601,-0.451765,-0.349281,0.820921
0.348996,-0.096526,0.297084,0.007731,-0.569653,0.821849
0.049224,-0.205511,-0.899968,-0.223114,0.847970,0.480797
0.098897,0.202473,-0.923354,0.615794,0.787807,0.012580
0.215258,-0.010105,0.467102,0.866700,-0.166317,0.470287
-0.426930,0.197783,-0.942614,0.701510,0.697594,-0.145763
-0.277804,-0.184839,-0.944123,-0.513019,0.299722,0.804350
0.174735,0.681183,0.955478,0.661182,-0.081735,0.745760
0.818258,-0.626720,0.698731,0.398586,0.634405,-0.662314
-0.247160,-0.178541,-0.956304,0.306777,0.809048,0.501326
-0.067641,-0.063262,-0.508662,0.870988,0.419478,0.255768
0.727075,-0.568025,-0.847135,-0.546194,0.825576,0.141762
0.200544,-0.396049,-0.914730,-0.471535,0.703522,0.531706
-0.876683,-0.020523,-0.987843,-0.158334,0.058591,-0.985646
-0.782078,-0.256949,-0.956527,0.398826,0.364321,-0.841551
0.136397,0.916479,0.872664,-0.385368,0.225900,-0.894685
0.431105,-0.420679,-0.902913,0.277409,0.803874,0.526147
0.618157,0.156422,0.856260,0.850105,0.517573,-0.097163
0.553234,-0.418579,0.509464,0.978693,-0.170906,-0.113805
-0.411297,0.045199,-0.102439,-0.196784,-0.974700,-0.106003
-0.359290,-0.346628,-0.919938,0.805273,-0.454845,-0.380330
0.110337,0.262209,-0.953568,-0.456854,-0.652131,0.604987
-0.179999,0.703469,0.319657,-0.562562,0.523445,-0.639945
-0.730090,-0.523653,-0.958467,-0.515500,0.431715,0.740190
0.085628,0.347018,-0.947269,-0.671455,0.686235,-0.279695
0.627454,-0.225828,0.669668,-0.029881,0.582405,0.812350
0.459354,0.211086,0.722812,0.403463,0.223063,-0.887390
-0.091152,-0.221931,-0.970275,-0.397102,0.418930,-0.816583
0.506877,0.551856,0.849100,0.700542,0.453484,0.550993
0.641294,-0.000902,0.859773,-0.709783,0.572378,0.410600
0.030123,0.475184,0.194441,0.965596,-0.237558,0.105785
0.342330,-0.155045,-0.909903,-0.698996,-0.101397,-0.707901
0.141664,-0.315939,-0.897399,0.789872,0.405516,0.460064
0.066694,-0.148857,-0.916602,0.193343,0.838086,0.510129
0.041144,-0.116403,-0.907194,-0.162959,-0.687255,0.707902
0.198181,0.303328,0.358540,0.436766,-0.669531,0.600803
-0.232340,-0.364552,-0.933678,-0.845773,0.203906,0.493041
-0.709370,-0.193454,-0.969877,0.020616,0.926384,-0.376016
-0.391353,-0.189458,-0.926228,-0.510324,0.211421,-0.833589
-0.720687,-0.293085,-0.964470,-0.412920,-0.790317,-0.452654
0.497065,-0.234005,-0.875576,0.231761,-0.105416,-0.967044
-0.727702,-0.545211,-0.934629,0.990389,0.133175,-0.037347
-0.361237,-0.669913,-0.885648,0.387691,0.500215,-0.774262
-0.470010,-0.136823,-0.943863,-0.667889,0.162652,-0.726270
0.412417,0.250250,0.676590,0.927359,0.307246,0.213555
0.103332,0.230643,-0.961957,-0.085719,0.076536,0.993375
0.162713,0.269238,0.347539,0.807947,-0.109088,0.579070
-0.515462,-0.428337,-0.940961,0.579311,0.461246,-0.672050
0.434145,0.169237,0.594890,0.368328,-0.549000,0.750289
-0.044035,-0.183033,-0.926919,-0.330507,-0.850536,-0.409088
-0.698208,0.118169,-0.979424,-0.081271,-0.606636,0.790814
-0.847350,-0.075150,-0.948215,-0.170545,-0.593726,0.786387
-0.361182,-0.077549,-0.958936,0.370190,-0.193679,-0.908542
-0.477244,-0.516317,-0.928426,0.757406,-0.383737,0.528282
0.184892,0.272233,0.352639,0.544864,0.305126,0.781039
0.692784,-0.328890,-0.867434,0.133932,0.985760,0.101684
-0.290594,-0.126115,-0.338608,0.898830,0.305525,-0.314261
0.294018,-0.204631,-0.874512,-0.568308,-0.017909,0.822621
-0.219668,-0.056605,-0.245259,-0.222000,-0.963253,0.151192
0.231631,0.230244,0.616591,-0.638291,-0.646064,0.418553
-0.087180,-0.089776,-0.601503,-0.476746,0.873923,-0.094723
0.296373,-0.280514,-0.888796,0.074924,0.952782,0.294268
0.124956,0.054514,-0.896257,0.491438,0.812983,0.312327
0.051112,0.252459,-0.928258,-0.057484,0.160033,0.985436
0.022011,0.410931,0.230625,0.786047,0.524204,0.327627
0.372056,-0.466339,-0.893308,-0.148694,0.276790,0.949356
0.251904,0.176135,-0.935553,-0.218845,0.876846,0.428075
0.505888,0.263048,0.738166,0.592809,0.799337,-0.098177
-0.898277,-0.128954,-0.945356,0.468141,-0.312841,-0.826423
0.527052,-0.406888,-0.854643,-0.354667,-0.197649,0.913863
-0.599885,-0.489113,-0.943285,-0.564969,0.568386,0.598121
0.127526,0.056410,0.322080,0.307597,-0.475814,0.824005
-0.064742,-0.135645,-0.941446,-0.174541,0.920372,-0.349929
-0.565304,-0.612668,-0.928602,-0.597998,0.748642,0.286242
0.245912,-0.367024,-0.903048,-0.015113,-0.141671,0.989798
0.617161,-0.435369,-0.867835,0.426787,0.796181,0.428893
-0.070422,-0.323458,-0.880080,-0.596966,0.772035,-0.218161
-0.322822,-0.590017,-0.880861,-0.598240,-0.022040,0.801014
-0.261381,0.132782,-0.963637,-0.266691,0.936911,-0.225997
-0.738088,-0.102138,-0.953790,0.866640,0.434475,-0.245290
-0.125044,-0.136987,-0.137034,0.682091,0.245366,-0.688874
0.300812,-0.103033,0.324147,-0.374247,0.923341,0.085913
-0.634485,-0.565465,-0.937466,0.319356,-0.902854,0.287864
0.145097,0.630482,0.738712,-0.663293,-0.482621,0.571944
0.233794,-0.492554,-0.903874,-0.203317,0.952848,-0.225264
-0.348930,0.152650,-0.971577,0.016079,0.709616,0.704405
-0.279050,-0.122608,-0.942632,0.234276,-0.133584,0.962949
0.584668,-0.032052,0.603516,0.970016,0.164166,-0.179219
-0.269789,-0.267077,-0.492506,0.431046,0.895530,0.110563
-0.441845,0.054032,-0.962935,0.573727,-0.366701,-0.732372
0.168571,-0.062206,-0.934490,0.479642,-0.762959,-0.433401
0.402362,0.180671,0.648893,0.863434,0.427605,-0.267649
-0.239380,0.043743,-0.221959,0.716841,0.685434,-0.127750
-0.231617,-0.255533,-0.480015,0.249656,0.967503,-0.040126
-0.258216,-0.703911,-0.902623,0.390722,-0.293820,0.872357
-0.125864,-0.250079,-0.835107,0.862375,0.110720,-0.494014
-0.102536,-0.080803,-0.934491,0.981014,-0.167978,-0.096922
-0.684983,-0.562370,-0.931075,0.018235,-0.198347,0.979962
0.200131,-0.333175,0.312556,-0.247961,-0.300500,-0.920986
0.117843,-0.180472,-0.930072,-0.595539,-0.288659,0.749673
-0.536572,-0.033706,-0.968650,0.984571,-0.172326,-0.030399
-0.062086,-0.164506,-0.874555,0.643951,-0.386836,0.660065
0.614450,-0.479963,-0.858952,-0.068356,-0.863945,0.498926
-0.001132,-0.124752,-0.941071,0.771240,0.127020,0.623743
0.091476,0.306617,0.446662,-0.675606,0.737261,-0.001796
0.899058,-0.435175,-0.854608,0.027985,-0.994644,-0.099501
-0.552269,-0.352616,-0.936848,0.612530,0.209866,0.762078
-0.098914,-0.476616,-0.901945,0.726148,-0.652827,-0.215698
-0.155305,-0.473850,-0.823126,-0.703630,0.607367,-0.368795
0.052940,0.913011,0.993060,0.776130,-0.082722,-0.625124
-0.018965,-0.205224,-0.740402,-0.066496,-0.975556,0.209448
-0.000203,0.565416,0.636369,0.913130,-0.172122,0.369552
0.272335,0.288989,0.589303,0.693249,0.607852,-0.387198
-0.286963,0.095129,-0.937061,0.812986,0.451761,0.367376
0.696467,-0.845711,0.459070,-0.665950,-0.367554,0.649165
-0.297736,-0.819419,-0.902295,-0.324635,0.142300,-0.935074
0.509804,-0.206082,-0.882218,0.241120,0.908503,0.341297
-0.026218,-0.280605,-0.916495,-0.597490,0.482741,0.640287
-0.340296,-0.697558,-0.917256,-0.514001,0.071030,-0.854844
-0.348940,0.018076,-0.961432,-0.224618,-0.597244,0.769965
0.616727,0.084527,0.891794,0.918554,0.057221,-0.391133
-0.173825,0.085159,-0.067628,-0.314960,0.798310,0.513324
0.292102,0.223046,0.387926,0.479394,0.833236,-0.275499
0.502259,0.090975,0.904353,0.797001,-0.593484,-0.112099
-0.867288,-0.536038,-0.960998,0.792375,-0.496045,-0.355080
-0.906883,-0.331616,-0.975672,0.738269,0.393857,0.547572
-0.200280,-0.109317,-0.944638,0.067193,0.994498,0.080362
0.538537,0.089918,0.652122,0.015530,-0.737095,0.675610
0.842616,-0.773932,0.623323,0.582588,-0.812495,0.021043
0.003294,-0.245801,-0.799422,-0.608116,0.793210,0.031813
-0.139589,-0.494542,-0.894602,-0.575588,0.803717,0.150788
-0.748478,-0.162686,-0.998951,-0.274887,-0.267199,0.923603
0.251884,0.329977,0.626628,0.153427,0.433189,0.888148
0.132187,0.291532,0.256893,0.754853,0.133195,-0.642227
-0.538555,-0.375552,-0.956604,0.588523,0.461086,0.664109
0.140773,0.189057,-0.920852,-0.156491,-0.022858,0.987415
-0.725628,-0.470753,-0.969513,-0.093645,-0.800973,0.591332
-0.448335,-0.341013,-0.964265,0.390768,-0.128270,-0.911508
-0.193697,-0.422535,-0.895815,-0.357250,-0.003282,0.934003
-0.033110,-0.042687,-0.015990,0.565074,0.734314,-0.376131
0.137070,0.246033,0.401574,0.728218,-0.588200,0.351736
0.494892,-0.143157,-0.897866,-0.210638,-0.401553,-0.891284
0.716001,-0.714059,0.486349,0.850360,0.387044,-0.356490
0.071202,0.483158,0.245987,0.819364,0.291064,0.493886
0.802082,-0.390634,-0.824873,-0.284854,0.386743,0.877091
0.600648,-0.401045,-0.874799,0.273107,-0.043426,0.961003
-0.090514,-0.004263,-0.196134,-0.046474,0.898404,0.436705
-0.276992,-0.407007,-0.915271,0.692295,0.697358,-0.185526
0.595451,0.303794,0.857756,0.779031,0.272224,-0.564804
0.510005,-0.038231,0.682860,0.826739,0.090866,-0.555199
0.552925,0.023753,0.669192,-0.529333,-0.846609,0.055320
-0.776673,-0.303986,-0.970537,0.785911,-0.510792,0.348475
-0.081762,0.099711,-0.944743,0.880639,-0.135024,-0.454140
-0.108814,-0.431824,-0.894482,0.010506,0.168520,0.985642
0.554574,-0.166709,-0.891507,0.422779,-0.306259,-0.852915
0.553745,-0.361916,-0.859119,-0.013246,0.757779,0.652377
0.008260,0.040024,-0.935524,0.597825,0.076598,0.797959
0.326672,0.129487,0.622932,0.411178,-0.245609,-0.877843
-0.173578,0.144898,-0.927068,-0.116354,0.229966,0.966218
0.560632,-0.205943,0.707998,-0.686232,-0.281114,0.670865
-0.305709,-0.135720,-0.953481,0.501698,0.666616,-0.551291
-0.303151,-0.019539,-0.957263,0.312627,-0.801739,-0.509391
0.612219,-0.009006,0.677448,0.004980,-0.980498,0.196464
-0.101063,-0.027135,-0.959980,-0.343736,-0.254341,0.903967
-0.372830,-0.857982,-0.904365,-0.295050,-0.247627,-0.922836
-0.115044,-0.136448,-0.561835,0.530802,0.846086,-0.048867
-0.191432,-0.109215,-0.940515,-0.320771,-0.945440,0.057007
-0.223070,0.038996,-0.244927,0.438227,-0.774430,0.456307
-0.519032,-0.253321,-0.971725,0.491241,0.454482,-0.743053
-0.432802,-0.482819,-0.956800,-0.436851,0.165990,0.884086
0.001891,-0.224884,-0.895543,-0.187880,0.441596,-0.877322
-0.279156,-0.849070,-0.876197,0.658910,-0.750759,-0.046892
-0.284417,-0.089918,-0.957632,-0.197035,0.042330,0.979482
-0.538428,0.000857,-0.959799,0.945175,-0.146532,-0.291844
-0.551873,-0.107078,-0.955789,0.834621,0.141458,-0.532351
0.115049,0.925783,0.907302,-0.092552,0.930866,0.353444
-0.399198,-0.315742,-0.958126,-0.409815,0.067718,0.909651
0.835986,-0.448891,0.733774,0.052224,0.494054,0.867861
0.150572,-0.155307,-0.877006,0.778865,-0.289133,-0.556572
0.204873,0.793622,0.968006,0.651708,0.414909,-0.634924
-0.558109,-0.362225,-0.961877,0.011871,-0.602379,0.798122
-0.627571,-0.279619,-0.974936,-0.178192,0.970604,-0.161788
0.026342,-0.154600,-0.214805,0.626008,-0.771450,0.113924
-0.490652,-0.295516,-0.976462,0.605110,0.416169,-0.678709
0.411632,0.212940,0.647442,-0.523584,-0.695568,0.491980
-0.791530,-0.361394,-0.963006,0.926601,0.361064,0.105086
-0.574830,-0.657664,-0.937964,0.848718,0.347792,0.398395
0.485449,-0.174267,-0.874431,0.832639,0.553071,0.028721
0.490131,-0.128161,-0.885959,-0.177009,0.078296,-0.981090
-0.831352,-0.204314,-0.944573,0.270748,-0.175904,0.946442
0.472271,0.225705,0.714253,0.530932,-0.825615,-0.190974
-0.401346,-0.283235,-0.934617,0.119370,0.990610,0.066646
-0.299453,-0.160645,-0.952901,0.235091,-0.971086,-0.041522
-0.476748,-0.112074,-0.945661,0.327314,0.502764,0.800058
-0.585704,-0.265963,-0.961404,-0.117054,0.437771,0.891434
-0.314875,-0.052728,-0.286605,-0.586341,0.531587,-0.611244
-0.242579,-0.066839,-0.325666,0.141632,-0.656525,0.740888
-0.093180,-0.265205,-0.609905,-0.094407,-0.847353,0.522570
-0.014176,-0.187336,-0.567986,0.882897,0.429756,0.189217
0.485646,-0.437043,-0.900561,0.847197,0.373878,-0.377456
0.005862,0.149082,-0.963827,-0.419130,0.300262,0.856839
0.369343,0.289251,0.719122,-0.707156,0.442991,0.551080
0.429694,0.357991,0.671019,0.989985,-0.010960,0.140747
0.418896,0.136977,0.777660,0.152405,0.791673,-0.591631
0.209902,0.086414,-0.932194,0.824056,-0.548629,0.141205
-0.495720,0.138116,-0.958225,0.171244,0.060077,0.983395
0.227421,-0.474703,-0.875649,-0.794792,0.125596,0.593744
-0.166770,0.169773,-0.941570,-0.028761,-0.974747,0.221453
0.026483,-0.342549,-0.913433,0.404321,0.486919,0.774231
0.351306,0.411171,0.766377,0.842756,-0.532984,0.075440
0.583115,-0.332928,-0.887813,-0.771393,0.589178,0.240462
-0.709936,-0.324030,-0.975809,0.559421,0.155513,-0.814164
0.399412,0.126573,0.712088,-0.269085,-0.321476,0.907880
0.063194,-0.188072,-0.899196,0.492499,-0.831878,-0.255780
-0.166284,-0.314012,-0.895593,0.701465,-0.712547,0.014946
-0.617323,-0.078826,-0.964266,-0.623760,0.447414,0.640893
-0.116515,-0.101341,-0.934604,0.992455,0.076661,0.095692
-0.030139,-0.305403,-0.901450,0.426930,-0.399377,0.811313
0.541000,0.293153,0.849477,0.319232,0.561334,0.763541
-0.631995,-0.573894,-0.955329,-0.446538,-0.761470,-0.469858
-0.745114,-0.344743,-0.977838,-0.325033,-0.112260,0.939016
-0.037426,-0.336177,-0.907841,0.641510,0.416496,0.644202
0.207072,0.248240,0.311855,-0.083521,0.957289,0.276807
-0.329030,-0.421479,-0.944245,0.857281,0.230805,-0.460216
-0.056558,-0.141983,-0.544758,-0.568943,-0.762476,0.308115
0.729308,-0.266061,0.217441,-0.014700,-0.938403,0.345230
0.376290,0.256102,0.330612,0.788232,-0.307827,-0.532854
-0.450340,-0.135644,-0.958433,-0.200183,-0.941565,0.270891
-0.871612,-0.378344,-0.953768,0.165188,-0.048894,0.985049
0.088069,0.373662,0.253845,0.762765,0.242017,-0.599681
-0.481412,-0.780523,-0.892323,0.896777,-0.400827,-0.187426
-0.251004,-0.203682,-0.944608,-0.628731,0.154287,-0.762164
-0.205022,-0.605497,-0.888995,0.291210,-0.896352,0.334290
-0.140411,-0.116952,-0.596478,-0.491192,0.747737,-0.446788
-0.171979,-0.168190,-0.815875,0.581012,-0.705022,-0.406656
0.201620,0.087655,-0.938360,0.274415,0.046752,-0.960474
-0.508361,0.035169,-0.971547,0.079941,0.708586,0.701081
-0.470537,-0.369786,-0.952618,0.552702,0.226575,0.801988
0.580167,-0.110947,0.697953,-0.529535,0.402133,0.746915
-0.780379,-0.381170,-0.950243,-0.548982,0.277854,0.788300
-0.507307,-0.417338,-0.956258,-0.126032,0.550300,0.825401
0.567957,-0.193432,0.588336,0.976059,0.200201,0.085018
-0.288256,-0.143752,-0.949329,0.804846,0.297040,-0.513799
-0.077565,-0.048504,-0.923381,0.263848,-0.568302,-0.779370
-0.073901,0.133969,-0.948561,-0.448458,0.681540,-0.578264
-0.922192,0.033914,-0.971647,0.252333,-0.462384,0.850017
-0.037920,0.312369,-0.962418,-0.005011,0.231894,0.972728
0.672901,-0.391728,-0.887325,0.479850,-0.053283,-0.875731
0.750016,-0.795249,0.592893,-0.369809,0.909362,0.190533
-0.073486,-0.340025,-0.920406,-0.072408,0.769377,0.634678
-0.110186,0.441529,0.263786,0.281515,0.584229,0.761200
0.172386,-0.140438,-0.887071,-0.593905,-0.684121,-0.423385
0.102703,0.851443,0.945893,-0.708468,-0.689975,-0.148351
0.504137,0.093499,0.769954,-0.407351,-0.294923,0.864341
0.627859,-0.279319,-0.850698,-0.177830,0.430286,0.885003
-0.276164,0.132089,-0.963043,0.997759,-0.058389,-0.032675
-0.906505,-0.293499,-0.955920,-0.617212,-0.431030,0.658226
-0.318938,-0.310971,-0.924129,-0.703904,-0.152785,-0.693668
0.036885,-0.102462,-0.934434,0.389858,0.255273,-0.884786
-0.014642,-0.281028,-0.637892,0.830279,-0.490868,-0.263980
-0.304951,-0.610933,-0.917088,-0.317074,0.675278,0.665931
0.473203,0.317341,0.799501,-0.079430,0.928502,0.362734
0.809144,-0.323267,0.715819,0.287283,0.868385,0.404197
0.072281,0.839488,0.829171,0.852539,0.505091,-0.134388
0.105019,-0.237852,-0.892180,-0.691652,0.031277,-0.721554
0.435945,0.141308,0.677219,0.771892,0.605183,0.194772
-0.232032,-0.159224,-0.932978,0.686538,-0.656766,-0.311967
0.234630,0.301348,0.481640,0.888142,-0.430877,0.159837
0.500900,0.137479,0.709027,0.463933,0.217674,-0.858711
-0.412199,-0.079774,-0.293488,-0.418472,0.846809,-0.328322
0.183575,0.153405,-0.925007,0.679509,0.386526,-0.623590
0.224956,0.083079,-0.937924,-0.734346,0.626934,-0.260172
-0.423587,-0.739320,-0.924899,-0.590677,0.721839,0.360623
0.522668,-0.004809,0.869794,-0.490988,-0.355085,0.795516
-0.165882,-0.220913,-0.499311,-0.202987,0.836414,0.509124
0.280723,0.080984,0.638478,-0.293938,-0.838796,0.458281
-0.609392,0.074485,-0.946263,0.770675,-0.521011,-0.366889
-0.597706,-0.553620,-0.936952,0.650097,-0.105590,0.752479
-0.728189,-0.514945,-0.931558,0.781362,-0.146056,-0.606746
-0.347328,-0.171502,-0.956929,0.835815,-0.538757,0.105618
0.765248,-0.419871,0.767306,0.877500,0.477086,-0.048822
0.044411,0.818464,0.874788,-0.194357,-0.477479,0.856878
0.084575,-0.302286,-0.886856,0.820878,0.344700,0.455348
0.203679,0.192668,0.500689,0.636933,0.227953,-0.736447
-0.887821,-0.125308,-0.949633,-0.337420,0.404773,0.849886
-0.070409,0.155670,-0.941775,0.188223,0.786010,0.588864
-0.004795,-0.192644,-0.914185,0.424787,0.688576,-0.587724
-0.017196,-0.003178,-0.944994,0.788961,0.573632,-0.220199
0.362293,0.025808,-0.887516,0.521625,0.810383,-0.266809
-0.536389,-0.547693,-0.957550,0.197607,0.845051,0.496830
-0.444363,-0.387158,-0.941331,0.577996,0.600347,-0.552724
0.242832,0.253386,0.634377,0.756899,0.653342,0.015755
-0.292268,0.053490,-0.954356,-0.084523,0.295400,0.951627
-0.147390,0.302795,-0.958916,0.139766,-0.484585,-0.863506
-0.218423,-0.557537,-0.934658,0.729851,0.678080,0.086743
-0.430584,-0.260467,-0.940568,-0.421509,0.876562,0.232313
0.430573,-0.533073,-0.870839,0.196472,0.895843,-0.398577
0.648344,0.043199,0.926424,0.460930,0.844938,0.271335
-0.063484,0.313810,-0.953373,-0.070345,0.080235,0.994291
0.375527,-0.446457,0.452738,0.834514,-0.064891,-0.547152
0.605082,0.270846,0.852919,0.939249,0.257701,-0.226718
-0.179742,0.330313,0.298598,0.615035,0.780005,-0.115428
0.069549,-0.074937,-0.907119,0.724708,-0.305639,-0.617563
0.153878,-0.064538,-0.924929,0.472701,-0.408053,-0.781055
-0.271298,-0.128708,-0.947052,-0.603659,0.121755,-0.787891
-0.114647,-0.072181,-0.113250,0.279966,-0.923400,0.262585
-0.379948,-0.123167,-0.960801,-0.705988,0.259853,0.658830
0.382295,0.401127,0.739467,-0.742064,0.453819,0.493345
0.178490,0.093733,-0.921964,-0.000560,-0.725723,0.687987
-0.432913,-0.897353,-0.900709,-0.361784,0.356375,0.861458
0.322806,0.262863,-0.920308,0.992363,0.003400,0.123303
-0.477294,-0.226480,-0.932570,-0.167096,0.465514,0.869123
-0.395487,-0.365666,-0.921584,-0.246037,0.958246,-0.145707
0.905685,-0.640798,0.717193,0.433292,0.901239,0.005215
0.101202,-0.345382,-0.885249,0.943434,-0.020045,0.330954
-0.043008,-0.261782,-0.923317,-0.143200,-0.356790,0.923144
0.234433,0.423282,0.616740,-0.309474,-0.586809,-0.748252
-0.770285,-0.409511,-0.952290,0.398229,-0.914103,0.076351
0.429012,-0.413724,-0.890672,0.993358,0.114521,-0.011201
-0.556540,0.126178,-0.947678,0.882232,-0.208721,0.422021
-0.273249,-0.387637,-0.764752,0.968568,0.247109,0.028528
-0.237026,0.184933,-0.963356,-0.298084,-0.682677,0.667157
-0.909545,0.031978,-0.987904,0.492158,0.714946,-0.496621
-0.292565,-0.928124,-0.888366,-0.181785,0.485378,-0.855198
0.532965,0.009460,0.922477,-0.311054,-0.607075,0.731236
0.284210,0.688112,0.967122,0.552474,0.488983,0.675032
0.177490,0.894159,0.996822,0.643240,0.452472,0.617666
-0.667223,-0.582233,-0.960693,0.725011,-0.471575,0.501972
-0.443242,0.128511,-0.932150,0.281598,-0.207537,-0.936819
0.004559,0.259255,-0.929146,-0.367987,0.043309,0.928822
-0.732569,-0.472135,-0.939520,0.779009,0.437521,0.449133
0.308785,0.132221,0.582455,-0.022811,0.965954,0.257705
-0.556564,-0.495354,-0.956958,-0.203132,-0.514294,-0.833210
-0.025714,0.142666,-0.929596,-0.546890,0.606530,-0.577089
-0.028045,0.212937,-0.935834,0.346927,0.871634,0.346261
0.530756,-0.077370,-0.864798,0.041777,0.896583,0.440901
0.505930,0.287684,0.687593,0.672749,0.328319,-0.663035
0.330148,-0.306968,-0.908568,0.772167,0.498046,0.394600
0.145454,0.085305,-0.927770,0.599494,0.511862,-0.615308
0.080643,-0.096032,-0.897077,-0.195350,0.488416,0.850464
-0.013739,-0.129602,-0.938767,0.796462,-0.369064,0.479000
-0.323596,-0.850738,-0.921634,-0.331513,-0.137948,-0.933311
0.176846,0.213290,0.165728,-0.577497,-0.815169,0.044692
0.687162,-0.401293,-0.869142,0.958850,-0.074175,0.274052
0.269129,0.081375,-0.913555,0.477890,0.371493,0.795999
0.505674,0.221111,0.581863,0.069250,0.996631,0.043937
-0.162207,-0.455413,-0.894030,-0.244166,-0.041242,0.968856
-0.412033,0.157364,-0.953020,0.743136,0.367278,-0.559335
0.264975,0.342782,0.482584,0.777030,-0.572727,0.261166
0.340242,-0.129311,-0.869490,0.242013,0.214627,0.946237
0.346198,-0.123215,0.342664,-0.308624,0.933377,0.183189
-0.546504,-0.301991,-0.978389,0.387376,0.333635,-0.859434
0.647727,-0.397678,0.193431,0.148232,-0.924678,-0.350711
0.103854,0.177112,0.170430,0.215686,0.647420,-0.730977
0.420990,-0.261398,0.266748,0.578138,0.808518,0.109791
-0.276717,-0.093395,-0.946245,-0.276449,0.243668,0.929625
0.058529,0.769520,0.987325,0.864891,0.174640,-0.470601
-0.469237,-0.662092,-0.926777,0.942214,-0.326860,0.073453
-0.064539,-0.380861,-0.901739,-0.526216,-0.404871,0.747781
0.814418,-0.421775,-0.835469,-0.615171,-0.744280,0.260025
-0.206218,-0.117412,-0.034606,0.906048,0.126227,-0.403911
-0.053522,0.341041,-0.955559,0.042148,-0.139772,0.989286
-0.099447,0.065280,-0.948337,0.015185,0.317733,0.948059
-0.571631,-0.757877,-0.932301,0.795194,0.090278,-0.599596
-0.264301,-0.017552,-0.352769,0.040033,-0.949793,0.310308
-0.146533,-0.271366,-0.912001,0.978332,0.132647,0.158966
-0.040328,0.010715,-0.918366,0.450958,0.568632,-0.687964
-0.289218,-0.138836,-0.957047,-0.273907,0.912027,0.305257
-0.373331,-0.198964,-0.942225,0.277594,0.785870,0.552585
0.166716,-0.144781,-0.897961,0.777505,0.063111,-0.625701
0.125889,0.904866,0.864901,-0.452032,0.812009,0.369200
0.194141,0.058731,0.378059,0.163675,-0.898984,0.406248
-0.192650,-0.296099,-0.938509,-0.171399,0.042081,0.984303
0.473440,0.162952,0.669333,0.191704,0.438843,0.877876
0.624333,0.412238,0.831221,0.770503,0.488178,-0.409888
-0.403633,-0.155313,-0.960488,0.958388,-0.074659,-0.275534
0.625839,-0.205093,-0.867362,0.849467,-0.022506,0.527161
-0.725366,-0.020197,-0.949933,-0.282631,0.233509,-0.930373
-0.576968,-0.376612,-0.953453,0.911372,-0.387663,-0.138270
0.319139,0.187111,0.603173,0.909726,0.269930,-0.315493
-0.706078,-0.176310,-0.959334,0.014720,-0.829406,0.558452
-0.534187,-0.070111,-0.981251,0.312210,-0.171073,-0.934483
0.059550,-0.054085,-0.930048,0.774949,0.216443,-0.593806
-0.212430,-0.013111,-0.957633,-0.410298,-0.880588,-0.237108
0.296739,0.544036,0.664143,-0.239532,-0.938717,0.247862
-0.465265,-0.241636,-0.961547,0.076231,0.279748,0.957042
-0.247553,-0.181456,-0.335384,0.217601,0.898336,-0.381632
0.068158,0.057271,-0.052459,-0.692781,0.712981,-0.108229
-0.296288,0.130726,-0.972229,0.887123,0.429733,-0.168352
-0.140244,-0.074484,-0.504435,0.300213,0.858304,0.416156
-0.316337,-0.611272,-0.881950,0.597359,0.049165,-0.800465
0.136433,-0.144382,-0.918208,0.965436,0.212995,-0.150225
0.160672,-0.207013,-0.874621,0.840496,-0.322657,-0.435268
-0.019203,0.205039,-0.964130,0.259166,0.637684,-0.725391
0.755831,-0.502725,0.692377,-0.584110,0.577750,0.570106
-0.121400,-0.074872,-0.946007,0.253849,0.505469,-0.824658
-0.028631,-0.249984,-0.891369,-0.083139,0.782212,0.617440
-0.060825,0.157503,-0.200975,0.262053,-0.846753,-0.462967
-0.221278,-0.041444,-0.170786,0.126974,0.962402,0.240125
0.461600,0.201436,0.720305,-0.324503,-0.257157,0.910257
0.253377,0.010937,0.481922,0.893064,-0.169867,-0.416631
-0.262277,-0.528705,-0.927264,0.438497,-0.820812,-0.366044
0.319177,-0.491242,-0.870793,0.250931,0.920319,0.300078
0.361306,0.416412,0.728637,0.729842,-0.040634,0.682407
0.004777,-0.429351,-0.874622,0.450322,-0.498969,0.740432
-0.491460,-0.709429,-0.914594,0.810831,-0.414041,-0.413671
0.189165,0.671257,0.723708,-0.663293,-0.482621,0.571944
-0.257690,-0.480074,-0.923743,-0.727848,0.257160,-0.635693
-0.279050,-0.157676,-0.962666,0.164376,0.899217,-0.405451
0.138303,-0.113076,-0.942509,-0.679768,0.159254,0.715928
-0.514716,0.039759,-0.973019,-0.312974,0.815108,-0.487489
0.090563,0.793257,0.925922,0.988647,-0.117775,-0.093311
0.055177,0.166983,0.497338,0.370850,0.926356,-0.065838
-0.570989,-0.355597,-0.962149,-0.079817,-0.236720,0.968294
-0.186858,-0.329568,-0.933992,-0.751689,0.271344,0.601112
-0.400772,0.128042,-0.982461,-0.199452,0.298919,0.933202
0.301760,0.728620,0.963217,-0.757492,-0.215416,-0.616280
0.458519,-0.378670,-0.907529,-0.270806,0.139620,0.952455
-0.215055,-0.370720,-0.794521,0.711970,-0.673492,0.198764
-0.026387,0.000264,-0.167053,0.198773,-0.975092,-0.098414
-0.141507,-0.273476,-0.955611,0.309619,-0.116454,0.943703
0.040757,-0.167097,-0.932992,-0.556288,0.788361,-0.262736
-0.255027,-0.797442,-0.922570,0.310940,-0.787416,0.532252
0.118381,-0.038153,-0.935473,0.113932,0.695187,0.709742
0.098397,0.275120,-0.931543,-0.660810,0.662449,-0.352834
0.336312,0.299439,0.686142,0.955535,-0.267818,-0.123396
0.441207,0.102001,0.601167,-0.119266,0.538856,0.833913
0.255684,0.700094,0.952625,-0.653652,0.686430,-0.318674
0.625634,-0.371187,0.730907,0.884216,0.449869,-0.125619
-0.445594,-0.718625,-0.947623,0.685039,0.004917,-0.728490
-0.188941,-0.050189,-0.950846,-0.704011,-0.704091,-0.092868
0.346514,-0.186015,0.421552,0.901520,0.388094,0.191427
-0.413732,-0.457045,-0.923308,0.735124,0.088417,-0.672143
0.149018,0.088710,-0.938495,0.244260,-0.930701,-0.272272
0.500257,-0.186788,0.636948,0.905017,-0.016054,-0.425073
0.057610,0.523139,0.587467,0.015436,-0.997137,0.074023
-0.626144,-0.355547,-0.948874,0.639069,0.754426,-0.149776
0.247689,-0.372923,-0.895461,-0.657548,0.703486,0.269700
0.126190,0.043354,-0.932761,-0.001951,0.702400,0.711780
0.509335,0.255357,0.690512,-0.213815,-0.736079,0.642238
-0.928994,-0.078952,-0.966955,-0.094510,0.271660,-0.957742
-0.378409,-0.715500,-0.917907,-0.333541,0.929235,0.158973
0.154750,0.797205,0.995214,0.451856,-0.056137,-0.890323
0.592885,-0.323775,-0.878121,0.736420,0.292617,0.609968
0.649462,0.066451,0.870780,0.748704,-0.641615,0.166652
0.294871,0.161013,-0.921708,0.940761,-0.279630,-0.191773
0.502833,-0.265111,-0.879273,-0.397813,-0.081359,0.913852
0.381008,0.607173,0.964880,-0.503370,-0.667563,-0.548615
-0.238285,-0.111515,-0.951977,-0.590260,-0.065522,-0.804550
-0.335237,-0.611122,-0.884496,-0.730468,0.354083,0.583988
0.223007,0.865028,0.967879,0.975332,0.186097,0.118722
0.052445,0.229486,-0.956567,-0.330292,0.121021,-0.936088
-0.584115,-0.014698,-0.978792,0.424683,-0.056051,-0.903606
0.628493,0.392740,0.864581,0.820728,-0.495167,-0.284984
-0.132533,-0.126681,-0.550340,0.299401,0.928372,0.220190
0.558176,0.103713,0.668887,0.993915,0.092020,0.060539
0.433385,0.004969,0.865613,0.991675,-0.036305,0.123543
-0.288681,0.147854,-0.950714,0.848912,-0.296165,0.437760
-0.355284,-0.600035,-0.941818,0.781400,0.494190,-0.381040
0.365269,0.189167,0.722280,0.364367,-0.096130,0.926281
-0.551673,-0.032134,-0.942923,-0.174236,-0.266887,0.947847
-0.081461,0.099650,-0.958287,0.293243,-0.084613,0.952286
0.015032,0.472398,0.263304,-0.772737,0.611021,-0.171846
0.625191,0.437681,0.777716,0.968437,0.234403,-0.084769
-0.295666,0.155215,-0.971900,-0.474531,0.149130,0.867514
0.330092,0.372989,0.437098,-0.635946,0.415201,0.650523
0.409180,-0.188883,0.443436,0.806115,0.382838,0.451237
0.455696,-0.289633,-0.880128,0.512939,0.319947,-0.796572
-0.837215,-0.004731,-0.937199,-0.011645,0.439026,0.898399
0.138606,-0.034859,-0.913791,-0.164661,-0.328617,0.929999
-0.202781,-0.690173,-0.900444,-0.644742,0.385346,-0.660163
0.180051,0.151622,-0.900153,0.539620,0.515019,-0.666007
0.418094,-0.065513,0.321980,0.686793,0.692987,0.219279
0.158953,0.292696,0.247083,0.814254,0.107856,-0.570402
0.226882,-0.278014,-0.911622,0.332756,-0.351781,0.874942
0.030215,0.606857,0.648216,-0.699152,0.015590,0.714803
0.377160,-0.166547,0.217065,0.604676,0.777614,0.172289
0.741364,-0.163232,0.693178,0.468109,0.786060,-0.403711
-0.140132,-0.504392,-0.882941,0.398317,0.900748,-0.173192
-0.143959,0.012239,-0.413181,-0.652178,0.665651,0.362729
0.212004,0.181792,-0.943527,-0.075882,0.164821,0.983400
-0.115724,-0.219314,-0.900179,0.843446,0.390294,0.369148
0.535462,-0.452696,-0.864124,0.132354,0.975548,-0.175468
-0.434007,-0.331034,-0.951314,-0.438585,-0.432955,-0.787524
-0.305967,-0.739110,-0.927196,-0.275087,-0.170173,-0.946239
0.410381,0.202908,0.716875,0.068721,-0.958055,-0.278223
0.293665,0.606355,0.659010,0.439747,0.855190,-0.274359
-0.793876,-0.431730,-0.943249,0.773018,-0.037947,-0.633248
0.534659,0.008820,0.869671,0.953830,0.251167,-0.164690
0.103230,0.311891,-0.939725,0.726917,0.611862,0.311797
0.783605,-0.504740,-0.870229,0.050959,0.954581,0.293561
-0.656994,-0.598624,-0.943414,-0.005373,0.542876,0.839795
-0.242923,-0.239872,-0.720442,0.869638,-0.168520,-0.464038
-0.083278,-0.074673,-0.277933,0.552459,0.828775,0.089000
0.101936,0.139536,-0.921788,-0.094926,0.519721,0.849046
-0.333078,-0.879486,-0.864450,-0.534858,0.595825,0.599099
-0.054079,0.214429,-0.960905,-0.076263,-0.585766,0.806884
-0.035007,0.566677,0.303056,-0.496297,-0.030201,-0.867627
-0.102303,0.204470,-0.959018,-0.288750,0.736221,-0.612048
-0.837453,-0.304221,-0.966561,-0.068658,-0.031103,0.997155
-0.353345,-0.852958,-0.885931,-0.231167,0.336113,0.913012
0.275987,0.212722,0.437705,0.844916,0.387456,-0.368774
-0.578974,-0.192708,-0.947316,0.654703,0.482001,0.582271
-0.270081,0.203854,-0.951004,0.907637,-0.126317,0.400299
0.479178,-0.256945,0.562451,0.829632,-0.356036,-0.430058
-0.037052,-0.288539,-0.953805,-0.232688,0.888057,0.396498
0.485696,0.472169,0.774261,0.369984,0.214986,0.903821
0.051583,0.112698,0.355532,-0.342600,0.919694,0.191805
-0.283571,-0.800627,-0.898906,0.263191,-0.105398,0.958969
0.056393,-0.233551,-0.933597,0.327787,0.282489,0.901530
0.642088,0.400658,0.780464,0.912575,-0.358622,0.196459
0.493723,0.099281,0.667561,-0.341349,0.802719,0.489002
0.276524,0.041085,-0.893240,0.890691,-0.378536,0.251756
0.776209,-0.441652,-0.830133,0.828632,0.399622,-0.392008
-0.364860,-0.021744,-0.932463,-0.234850,0.745127,0.624205
0.397969,0.212142,0.710926,-0.594978,-0.637686,-0.489243
-0.176214,0.566846,0.290521,-0.682616,0.725938,0.083960
0.032246,0.120354,-0.931614,0.607494,0.793145,0.043258
-0.417666,-0.420724,-0.938993,-0.016120,-0.132907,0.990997
-0.266384,0.136059,-0.958868,-0.486710,0.065278,-0.871121
0.096115,-0.429922,-0.905919,0.585796,0.774612,0.238369
-0.288819,0.161112,-0.939592,-0.526730,0.017700,-0.849848
0.174497,0.190437,0.088570,0.510611,0.768580,-0.385436
0.524247,0.468639,0.826622,0.826674,-0.551287,0.112663
-0.104204,-0.072612,-0.369853,0.980509,-0.095612,0.171643
-0.023035,0.138905,-0.952932,-0.355732,0.608561,-0.709301
0.338902,0.776445,0.951152,-0.462982,0.506007,0.727739
-0.042979,-0.271960,-0.917249,-0.156580,-0.264329,0.951637
-0.980032,-0.020082,-0.968366,0.315748,0.805234,0.501898
0.108249,0.238188,0.419402,0.948377,-0.250279,0.194783
-0.634046,0.054979,-0.979545,0.101779,0.115432,0.988087
0.400995,0.170634,0.638153,0.248575,0.835831,-0.489486
-0.295906,-0.472854,-0.921668,-0.012182,-0.045607,0.998885
0.173339,0.721024,0.926156,0.429651,0.819603,-0.379013
0.364336,0.232303,0.757937,0.930019,0.006708,-0.367449
-0.113238,0.033876,-0.120424,0.041665,0.957084,0.286800
-0.760834,-0.042232,-0.970307,0.189579,-0.579341,0.792732
-0.495392,-0.175091,-0.948879,0.858350,-0.511577,0.039030
-0.301810,-0.433040,-0.941432,-0.156538,-0.047446,0.986532
0.596794,-0.408416,0.690218,0.989331,0.054466,0.135124
-0.398720,-0.345346,-0.923924,-0.396529,0.453806,0.798013
0.383170,-0.213861,-0.886903,0.860078,0.473436,-0.190062
-0.118650,-0.153769,-0.665738,0.622232,0.742025,0.249452
-0.540437,-0.479977,-0.966513,0.193600,0.924291,-0.328947
-0.590758,-0.029818,-0.955372,-0.734839,-0.103297,-0.670329
-0.009000,-0.069684,-0.904176,-0.634076,0.062721,0.770723
-0.022180,0.239949,-0.954350,0.489135,0.433035,-0.757118
0.174295,-0.161550,-0.902735,-0.601827,0.348676,0.718491
-0.386426,-0.775672,-0.888865,0.022181,-0.368034,0.929548
-0.135758,-0.246638,-0.875851,0.827710,0.356641,0.433247
-0.103887,-0.159599,-0.946739,0.593397,0.504116,-0.627493
-0.469799,-0.207044,-0.925335,0.973678,0.226880,-0.021841
0.008423,-0.355269,-0.888513,-0.009491,-0.185531,0.982593
-0.674326,-0.396785,-0.963679,-0.110550,-0.906473,-0.407536
0.620695,0.161878,0.851942,0.226265,0.229930,0.946539
0.300743,0.104442,-0.927355,0.659714,0.635254,0.401535
-0.148759,-0.058462,-0.048075,-0.617365,0.472070,0.629294
-0.081097,-0.522690,-0.866878,0.018183,-0.998520,0.051252
0.395132,0.033890,-0.908241,0.828118,0.302308,-0.472050
-0.020030,-0.266748,-0.917222,0.395803,-0.299577,-0.868098
-0.155193,0.153219,-0.957680,-0.352712,-0.432182,-0.829948
0.087149,-0.072586,-0.912442,0.951622,0.169158,-0.256519
0.503171,-0.280801,-0.882900,0.864507,-0.210499,0.456420
0.641103,-0.549863,0.604269,0.137903,0.272226,0.952300
0.170607,0.226278,0.565357,-0.504766,-0.416347,-0.756218
-0.208188,-0.459095,-0.852215,0.829466,-0.470522,-0.300992
0.014327,0.030298,-0.917148,-0.209896,0.366947,-0.906253
0.068220,0.103616,-0.929551,-0.284511,-0.174310,0.942693
0.276018,0.356127,0.620522,-0.408715,0.276429,0.869793
0.372468,-0.119584,-0.882390,0.766615,-0.604809,-0.215657
-0.518580,-0.706716,-0.949955,-0.604259,-0.767369,-0.214515
0.146430,-0.268442,-0.903004,0.135471,-0.578674,0.804229
0.677363,-0.301673,-0.899274,-0.591250,-0.000905,0.806488
0.559744,-0.223207,0.553179,0.604352,-0.710800,-0.359891
0.458498,0.197387,0.841922,-0.884115,0.428193,0.187059
0.787659,-0.528498,0.702555,0.600577,-0.015072,-0.799425
0.331359,-0.218649,-0.901944,0.929719,-0.177561,-0.322637
0.124211,0.255871,0.409066,-0.342019,-0.606161,-0.718047
0.935851,-0.369823,0.739368,0.504772,-0.447692,-0.738090
-0.352355,-0.634090,-0.911465,0.398672,-0.729419,0.555885
0.321430,-0.251864,-0.914275,0.865545,-0.324878,-0.381164
-0.771654,-0.448467,-0.956730,-0.036278,-0.127116,0.991224
0.495136,-0.276645,-0.880688,-0.139396,-0.172320,0.975128
-0.892365,-0.135958,-0.957399,0.890226,-0.430154,0.149887
0.599433,0.158645,0.745228,-0.692172,-0.549656,-0.467735
-0.083362,-0.328805,-0.902748,0.256974,0.198416,-0.945831
-0.128981,-0.059602,-0.344645,-0.524428,-0.236045,0.818082
0.510366,-0.294078,0.458996,0.743472,-0.436078,-0.507035
0.514176,0.026691,0.902569,-0.027492,-0.696709,0.716827
0.684034,-0.457238,0.710866,0.036925,-0.343356,0.938479
-0.309694,0.083278,-0.945539,0.440398,0.893415,-0.088649
0.425780,0.066873,0.865447,0.804361,-0.085622,-0.587939
0.084466,0.272192,-0.917179,0.426450,0.146657,-0.892542
-0.150210,-0.098596,-0.947626,0.246895,-0.358780,-0.900178
-0.263637,-0.181853,-0.961310,0.395329,0.203767,0.895653
0.298292,0.205545,-0.916395,0.745968,0.413282,0.522235
-0.041409,0.485862,0.309250,-0.669752,0.581902,-0.461327
0.576089,0.114217,0.883324,0.976166,-0.119031,0.181469
-0.069844,0.046934,-0.960164,0.821452,0.021808,-0.569861
-0.363335,0.261321,-0.966685,-0.090698,-0.740534,0.665870
-0.360070,-0.391434,-0.935522,0.158330,-0.014072,0.987286
0.320393,-0.146732,0.237678,0.766928,0.639135,-0.057698
-0.454529,0.003425,-0.943194,0.119723,0.602775,0.788878
0.600852,-0.126250,0.537594,-0.109271,0.735506,0.668649
1.000000,-0.802444,0.674270,0.934977,-0.030789,-0.353371
-0.152245,-0.349092,-0.908914,0.398544,-0.436589,0.806568
-0.480300,-0.384910,-0.927431,-0.103777,0.844119,0.526016
0.488892,-0.381157,-0.862367,0.898833,-0.295863,-0.323364
-0.250374,0.285358,-0.938706,0.561420,-0.460316,-0.687689
-0.121698,0.040663,-0.966023,0.429442,0.404125,0.807628
-0.081681,-0.130661,-0.400426,0.267705,-0.499156,0.824122
-0.882264,-0.551219,-0.959066,0.715885,-0.677853,-0.167404
0.066017,-0.086515,-0.095274,0.851390,0.518566,-0.078899
0.380059,0.248354,0.645086,-0.564599,-0.712683,0.416305
0.807440,-0.382186,-0.860972,0.938733,0.291631,-0.183660
-0.322908,-0.316290,-0.960763,0.127760,-0.322560,0.937887
-0.433198,-0.805732,-0.921717,0.133666,0.261078,-0.956018
0.577891,0.311538,0.704085,0.154971,0.877224,-0.454380
-0.475183,-0.811188,-0.916141,0.945838,0.057879,0.319437
0.268762,-0.091807,-0.886137,0.354860,0.183454,-0.916744
-0.303407,-0.127580,-0.481811,0.488952,-0.680828,0.545343
-0.383036,-0.791169,-0.904818,-0.736351,0.363221,-0.570840
0.033689,0.445259,0.615868,0.797250,0.571460,-0.194486
-0.407628,-0.321207,-0.948882,0.870422,0.477485,0.119892
-0.227316,-0.648241,-0.932821,0.852853,-0.489843,-0.180818
-0.143878,-0.077322,-0.269368,0.605447,0.382401,0.698000
0.113892,-0.202339,-0.921161,0.743572,-0.649214,0.160067
0.066359,-0.467326,-0.881954,-0.097304,0.308386,0.946272
0.120699,0.838015,0.880426,-0.023080,-0.339366,0.940371
0.596041,0.027990,0.897335,0.909896,-0.117489,0.397850
-0.206444,-0.190318,-0.786017,0.131842,0.886722,0.443104
-0.329462,-0.472206,-0.936957,0.107435,0.512048,0.852212
-0.383386,-0.574530,-0.913468,0.059562,0.614848,0.786393
0.549932,0.148234,0.877536,0.676990,0.465419,-0.570149
0.084778,-0.055745,-0.906596,-0.704071,0.312982,0.637437
0.336725,-0.276456,-0.893945,-0.421378,0.898920,0.119929
0.097858,-0.061108,-0.913683,-0.244560,0.220629,0.944200
0.637726,-0.023197,0.912043,-0.358798,0.192600,0.913328
0.022808,-0.266602,-0.930088,0.152458,0.828712,0.538510
0.520165,-0.010314,0.673794,0.672024,0.716466,0.187241
0.632838,-0.387270,-0.891425,0.340964,0.321423,0.883420
0.035844,0.334958,-0.930799,0.444862,0.895378,-0.019892
0.668771,-0.388044,-0.854454,-0.646718,0.664847,-0.373810
0.712023,-0.725868,0.611064,-0.369809,0.909362,0.190533
0.131815,0.215742,0.187831,-0.204318,-0.681215,0.702994
0.223383,-0.142713,-0.899152,0.180381,0.831013,-0.526195
-0.304842,-0.091223,-0.292770,-0.290369,0.732887,-0.615274
0.042457,0.246881,0.231824,0.875577,-0.382760,-0.294720
0.671895,-0.382817,0.703345,0.176726,0.176736,0.968262
0.087555,-0.376808,-0.896229,0.491285,-0.250573,-0.834177
0.319431,0.231659,0.632901,0.467939,0.688503,-0.554073
-0.201440,-0.167279,-0.812849,0.675409,-0.710283,-0.198293
0.587967,0.354156,0.829799,-0.232090,-0.743125,-0.627614
-0.641840,-0.271724,-0.958224,0.046285,-0.943341,0.328581
0.168306,0.495709,0.606959,-0.652320,-0.748429,0.119720
0.287490,0.877391,0.863334,0.840614,0.511392,-0.178457
0.686536,-0.252252,0.695881,0.816482,-0.190795,-0.544935
-0.032568,-0.164693,-0.946295,0.152297,-0.906670,0.393388
-0.404897,-0.468680,-0.962121,0.418128,-0.294229,-0.859417
0.229327,0.315683,0.571273,0.010024,0.915416,0.402383
-0.402903,-0.264427,-0.955194,0.457881,0.246842,-0.854058
0.148065,0.524950,0.611848,0.804571,0.586677,0.092066
0.378226,-0.378752,-0.879486,0.909334,-0.403698,0.100693
-0.325724,-0.047208,-0.207518,-0.417241,0.905458,-0.077822
0.562740,-0.366089,-0.903013,-0.241462,0.261053,0.934638
-0.140427,-0.032569,-0.114919,-0.570024,-0.047516,-0.820253
-0.032517,-0.264814,-0.607425,-0.739681,0.494477,-0.456469
0.485540,0.186671,0.747761,0.832197,0.247797,0.496029
0.072476,-0.132533,-0.891484,-0.695819,-0.095482,0.711842
-0.137437,-0.152227,-0.476858,-0.480821,-0.001817,-0.876817
-0.439729,0.095199,-0.097838,-0.414616,0.909628,-0.025881
-0.533751,-0.637578,-0.953563,0.127912,-0.985190,0.114191
0.226153,0.747576,0.977846,0.442735,-0.090272,-0.892097
-0.181968,-0.095494,-0.933814,-0.308373,0.011130,0.951200
0.174844,0.852707,0.962304,-0.298518,0.154403,0.941832
-0.063621,-0.182555,-0.898715,0.066276,0.989304,0.129940
0.085969,0.104973,-0.933675,0.923733,-0.284731,-0.256214
-0.054652,0.480169,0.200282,0.795949,-0.576168,0.185732
0.166723,-0.119228,-0.916217,-0.443894,0.518175,0.731062
-0.450937,-0.028503,-0.948813,-0.251595,-0.220381,-0.942408
0.167434,0.105646,0.599708,0.829472,0.554235,-0.069281
-0.661735,-0.210666,-0.963766,-0.620479,0.127732,0.773751
0.003039,0.149424,-0.925876,-0.149660,-0.446949,0.881952
-0.110752,0.074705,-0.932617,0.072309,-0.693391,0.716924
-0.289580,-0.223661,-0.951366,0.370000,0.148919,-0.917019
-0.060748,-0.161282,-0.915808,0.257773,-0.413809,-0.873106
0.232651,-0.109448,-0.887280,0.566643,0.537709,-0.624327
-0.120208,-0.067390,-0.943428,0.555180,0.132529,-0.821104
0.694497,-0.463773,-0.882821,0.563824,0.074144,-0.822560
0.160306,-0.297377,-0.878438,-0.301596,-0.603449,-0.738166
-0.015614,0.109276,-0.009789,-0.615993,0.726245,-0.305156
-0.693454,-0.339698,-0.952038,-0.520363,0.179429,0.834881
