0.132700,0.120773,0.086072,0.218926,-0.649115,-0.728507
0.361926,0.110589,-0.930405,0.112993,0.623106,0.773933
-0.512918,-0.171208,0.406249,0.104641,-0.797540,0.594122
-0.283285,-0.179500,0.338192,-0.042606,-0.838078,0.543885
0.771946,0.245668,-0.804293,0.774761,0.320393,0.545063
-0.227682,0.100668,0.054858,-0.063174,0.798672,0.598442
-0.678086,0.188616,0.074610,0.596012,0.728662,0.337373
0.812628,0.181979,-0.823499,0.003983,0.562478,0.826803
-0.702559,-0.234856,0.029997,-0.102192,0.236708,0.966192
0.143489,-0.068815,-0.802553,0.945340,0.299199,0.129661
0.182778,-0.120715,-0.830552,0.977928,-0.205129,0.039740
0.529136,-0.526334,-0.852495,0.602787,0.487871,0.631371
-0.259469,-0.504466,-0.909688,0.069933,0.012670,0.997471
0.726827,-0.340216,-0.824654,0.035065,-0.967659,0.249811
-0.306418,-0.194742,0.390387,0.516441,-0.133580,-0.845840
-0.614536,-0.061237,0.063611,-0.562044,0.198736,-0.802876
-0.344589,0.595800,-0.065712,0.916463,-0.386500,-0.103507
0.603794,-0.157406,-0.811274,-0.226441,-0.652170,-0.723463
-0.215569,-0.389727,-0.910856,-0.423617,-0.839834,0.339451
-0.307440,-0.501217,-0.963270,-0.188585,-0.862299,0.469975
-0.181815,-0.159206,-0.916553,0.622726,-0.405293,-0.669290
-0.468329,-0.122307,0.398659,-0.520904,0.546404,-0.655822
-0.123789,0.021723,-0.930620,0.273423,-0.866685,0.417249
0.434474,-0.300741,-0.820509,0.909029,-0.232613,-0.345772
-0.104859,-0.765080,-0.940407,-0.609598,-0.042857,-0.791551
0.273007,0.055885,-0.921588,0.455849,-0.579585,-0.675487
0.338692,-0.055785,-0.852949,-0.358359,-0.798220,-0.484174
0.839786,-0.537522,-0.854683,0.568368,0.163109,-0.806445
-0.283232,-0.010486,-0.960552,0.215634,-0.132355,0.967463
-0.557958,-0.139588,0.549588,0.399697,-0.902506,-0.160390
0.652896,0.252732,-0.842068,0.870080,-0.350258,-0.346814
-0.264863,-0.637517,-0.935347,0.984775,0.133016,0.111918
-0.450111,0.640262,-0.227861,-0.347646,0.910910,-0.222230
0.090626,0.098635,-0.885355,0.832233,0.007355,0.554377
-0.237975,-0.175018,-0.933095,-0.129236,-0.300280,0.945055
0.463970,-0.499421,-0.814400,0.872725,-0.433523,0.224519
0.050147,-0.255709,-0.823636,0.790773,0.611668,0.023218
-0.320396,-0.239659,0.761247,-0.605111,0.714148,0.351900
0.032641,-0.436244,-0.898312,-0.140021,-0.603924,0.784646
0.146786,0.129140,-0.916263,0.205687,0.654407,0.727629
-0.801366,-0.096820,0.695920,0.977543,0.093946,-0.188639
-0.147733,-0.318872,0.830887,-0.738026,-0.584949,-0.336381
-0.205299,0.026715,0.661025,0.948681,-0.184479,0.256851
0.785701,0.233807,-0.860136,0.817322,-0.576024,0.013457
-0.637273,0.248303,-0.146967,0.407093,-0.910225,0.075929
-0.368283,-0.014244,0.365193,-0.199093,0.887905,0.414713
-0.276762,-0.153909,0.615800,0.276985,-0.014578,0.960764
-0.023267,-0.247790,-0.881863,0.040221,-0.994914,0.092348
-0.331809,-0.967134,-0.915690,0.522066,0.852841,0.010418
0.598428,-0.199290,-0.808133,0.513905,-0.006382,0.857824
-0.192711,-0.291403,-0.942896,0.289529,0.272390,0.917593
-0.358008,-0.336689,0.468390,0.779902,0.625464,0.023398
0.876240,-0.001576,-0.789507,0.961053,-0.227826,0.156438
-0.373681,-0.368860,0.423703,-0.528030,0.435314,-0.729168
-0.061616,-0.508827,-0.903907,-0.182923,0.827866,0.530261
-0.154505,-0.257452,-0.970199,0.381701,-0.531294,-0.756327
-0.334811,0.325475,0.042236,0.405958,0.136786,0.903597
-0.222562,-0.279571,-0.961971,-0.435027,-0.489041,-0.756036
0.115724,-0.515502,-0.900773,-0.734515,-0.627143,0.259191
0.050455,-0.160110,0.620530,-0.439644,0.485350,-0.755744
-0.356339,0.284577,0.645097,0.912159,0.282209,0.297195
0.679929,0.342974,-0.874507,-0.421008,-0.189659,0.887007
-0.211344,-0.173840,-0.891990,0.475816,0.859396,0.187181
-0.328270,-0.672246,-0.925492,-0.401795,-0.276828,-0.872884
0.702604,-0.362761,-0.801951,0.566190,0.711757,0.415731
-0.040694,-0.285235,-0.942447,0.693589,0.674081,0.254064
0.309537,-0.045908,-0.772683,-0.358105,0.240649,0.902135
0.636092,-0.296355,-0.771420,-0.206737,-0.433784,-0.876978
-0.298110,-0.016112,0.251898,0.281179,-0.943515,0.175267
-0.261458,-0.797453,-0.934512,0.145912,-0.450721,0.880659
-0.823790,0.339640,-0.200530,0.754498,-0.277526,-0.594737
-0.082964,-0.253671,-0.927415,-0.095700,0.309941,-0.945927
-0.018052,-0.564048,-0.881931,-0.511879,-0.822541,-0.247804
-0.028778,-0.506540,-0.888430,-0.808440,0.573016,0.134453
-0.008014,-0.183104,-0.864586,0.447330,0.894094,-0.022190
0.619816,0.132270,-0.818375,0.801660,-0.127500,-0.584025
-0.105651,-0.099279,-0.891559,0.932760,0.004576,-0.360470
-0.031406,-0.043489,-0.871216,0.488096,0.697496,0.524654
0.825796,-0.344158,-0.768414,0.230768,0.184120,0.955430
0.519724,0.045709,-0.830886,-0.161611,0.863502,0.477752
-0.657693,0.405374,-0.160901,-0.593179,0.744014,0.307542
0.675422,-0.052080,-0.818210,0.589044,0.807999,0.012822
0.368100,-0.168725,-0.790661,0.376823,0.019073,-0.926089
-0.652785,-0.223636,0.251768,0.454813,-0.066573,0.888095
-0.242469,-0.043624,-0.893569,0.695766,-0.657076,-0.290105
-0.117523,-0.747834,-0.903971,-0.593327,0.243751,0.767170
0.005526,-0.274024,-0.859341,0.197998,0.648091,-0.735374
0.241213,-0.136444,-0.820072,-0.256783,-0.915994,0.308251
-0.892363,-0.139657,0.763596,0.816213,-0.288214,0.500729
-0.195233,-0.271802,-0.926563,-0.790260,0.418250,-0.447834
-0.170291,-0.107942,-0.849796,0.803038,-0.515306,-0.299317
-0.115227,-0.394628,-0.916825,0.333756,0.620062,0.710021
-0.101477,-0.114132,0.760209,0.881177,-0.443756,0.163117
0.569592,0.035719,-0.803541,-0.284569,0.532040,0.797467
0.050947,-0.254671,-0.923823,-0.125233,0.055145,0.990594
0.526422,-0.287872,-0.874060,-0.722694,-0.008186,0.691120
-0.715019,-0.546334,0.583549,0.881612,0.101664,0.460896
-0.295585,-0.464507,0.430077,0.413486,0.755543,0.508117
0.174459,-0.470206,-0.854712,0.717233,-0.695768,-0.038514
0.696972,-0.338709,-0.795467,0.820496,0.528713,0.217368
-0.141683,0.012989,-0.940640,-0.461759,0.817266,0.344753
0.518702,-0.422987,-0.782103,-0.461867,-0.123593,0.878296
-0.042493,-0.326075,-0.898977,-0.233686,-0.863135,-0.447649
-0.459551,0.061744,0.563083,-0.068333,0.890317,0.450185
0.382973,-0.072564,-0.803131,0.314011,-0.913781,0.257684
-0.445372,-0.228073,0.466721,0.989203,0.003133,0.146521
0.828707,-0.171475,-0.773132,0.882479,0.386140,-0.268565
0.550148,0.069642,-0.846991,0.175069,-0.083839,0.980980
0.435589,-0.014544,-0.800221,0.230604,-0.685072,-0.691013
-0.064004,0.028911,-0.317031,0.944236,0.237067,0.228511
-0.709743,0.252578,-0.162329,0.390575,0.752156,-0.530766
0.865742,0.333302,-0.848457,-0.707387,-0.692762,0.140303
-0.228833,-0.130783,-0.938544,0.215136,-0.370871,-0.903422
0.573486,-0.498540,-0.791467,-0.158154,0.067600,0.985098
0.076577,-0.583199,-0.914622,-0.572339,0.524919,-0.629991
-0.291762,0.186572,-0.101990,0.063233,0.898543,0.434307
-0.233182,-0.759351,-0.862363,0.845777,-0.508736,-0.160776
0.783026,-0.112626,-0.801041,0.916121,-0.319398,-0.242296
-0.457034,0.550732,0.426837,0.461307,-0.640391,-0.614081
-0.508960,-0.529975,0.619150,0.716197,0.050356,-0.696079
-0.205387,-0.321655,-0.966663,0.956440,0.219133,0.192880
-0.181634,-0.595738,0.314138,0.447922,0.395260,0.801957
0.603964,-0.180648,-0.822207,0.322942,0.055024,0.944818
-0.697609,-0.034480,0.054186,-0.430000,0.294328,-0.853505
-0.005988,0.033588,-0.831013,-0.407961,-0.128628,0.903893
0.091938,0.052646,-0.908001,0.819561,0.209003,-0.533514
0.462619,0.247043,-0.910134,0.227838,0.780202,-0.582559
0.698941,-0.004537,-0.842561,-0.494653,0.283379,0.821593
0.386945,0.288881,-0.888356,0.196148,-0.649902,0.734271
0.155141,-0.347616,-0.906765,0.505313,-0.141757,-0.851213
-0.109312,-0.114724,-0.943679,-0.305793,-0.138651,0.941948
-0.078271,-0.812610,-0.910516,0.012193,0.651619,0.758448
0.560807,0.217271,-0.841383,0.205756,-0.002570,0.978600
-0.401154,-0.202864,0.362028,0.975663,0.043313,-0.214957
-0.317234,-0.453139,-0.927775,0.776592,-0.143433,-0.613459
0.461828,-0.261413,-0.831666,0.060753,0.664611,0.744716
-0.350217,-0.487973,0.448684,0.334425,0.622966,0.707159
0.055455,-0.057515,-0.883482,-0.465911,0.878995,0.101466
0.230496,-0.752576,-0.837441,0.497603,-0.862024,0.096463
-0.081020,-0.143774,-0.871960,-0.688062,0.048867,-0.724005
-0.418644,-0.649874,0.321133,-0.302078,0.085975,0.949398
0.879203,0.422128,-0.866490,0.393901,-0.888920,-0.233803
-0.411414,-0.332580,0.825320,-0.870335,0.489508,0.053832
-0.243734,-0.238150,-0.949486,-0.076859,-0.570749,0.817520
0.132069,-0.485087,-0.862386,0.143096,-0.989658,0.010006
0.183887,-0.685683,-0.882571,-0.085263,0.222697,0.971152
0.711575,-0.168432,-0.792737,0.437552,-0.886491,0.150606
-0.333891,-0.162943,-0.937691,0.925873,0.197152,-0.322319
-0.063070,-0.333868,-0.893569,-0.347753,-0.895561,-0.277557
-0.008112,-0.649903,-0.870468,0.890448,-0.180259,-0.417863
0.769612,-0.266891,-0.776395,-0.447508,0.502342,-0.739857
-0.376029,0.013207,0.481417,-0.274744,0.353530,0.894166
0.437819,-0.394884,-0.834162,-0.484248,0.630710,-0.606391
-0.174013,0.015788,0.537452,0.884747,-0.237866,-0.400801
-0.116656,-0.344136,0.742197,0.634584,0.729285,-0.255825
0.328505,-0.696694,-0.852713,-0.238692,-0.970511,-0.033690
0.158699,0.205720,-0.911144,-0.224109,-0.914021,0.338142
-0.033304,-0.133702,-0.935585,0.771998,-0.255415,-0.582049
-0.315555,0.687683,0.076261,0.702683,-0.704524,-0.099414
0.038919,-0.843325,-0.873384,-0.615878,0.641161,0.457830
0.639151,0.355216,-0.858385,-0.486865,0.873098,0.025727
-0.119475,-0.176827,0.701486,0.853984,-0.459459,0.244149
0.370209,0.008510,-0.916774,-0.562584,0.798984,0.212426
-0.087250,0.064028,-0.186004,-0.596710,0.539532,0.594005
-0.232353,-0.204506,0.838970,0.846920,0.130190,-0.515536
0.145496,-0.641051,-0.926319,-0.135734,0.621136,0.771859
0.375487,-0.146751,0.064758,0.074958,-0.127619,-0.988987
0.368189,-0.096771,-0.817364,0.199847,-0.514477,0.833891
-0.159656,-0.621444,-0.915697,0.880266,0.280258,0.382867
0.396285,-0.365625,-0.826231,0.123048,0.110928,-0.986182
-0.059073,0.116341,-0.186465,-0.668418,0.528501,0.523358
-0.203841,-0.052390,0.676181,0.747592,0.219249,0.626926
0.671337,0.297354,-0.902584,-0.382289,0.283679,0.879421
0.458685,0.340832,-0.895463,0.582478,0.400870,0.707123
-0.366712,-0.497106,0.354590,0.891034,0.405529,-0.203974
0.647158,0.316181,-0.840853,0.801488,0.376715,-0.464438
0.096022,-0.525305,-0.950557,0.811274,0.300989,-0.501239
0.194997,0.033765,-0.893548,-0.491131,0.278929,0.825221
0.511119,0.223372,-0.913250,-0.212621,-0.248471,0.945016
-0.368114,0.107337,0.351481,0.735715,-0.500517,0.456296
0.270119,-0.299387,-0.815504,0.924606,0.277192,-0.261284
0.096210,0.043460,0.067834,-0.575343,0.374632,-0.727070
-0.307483,-0.696366,-0.860274,-0.556925,0.829253,-0.046626
-0.287549,0.125543,0.355032,-0.709861,0.557527,-0.430420
0.556444,-0.279371,-0.824614,0.979890,0.138388,-0.143749
0.615732,0.025463,-0.838809,0.085517,-0.586776,-0.805221
0.507426,-0.206228,-0.800262,0.995846,-0.000152,-0.091053
-0.432809,0.681730,-0.199816,-0.692659,0.497904,-0.521838
0.475895,-0.226854,-0.782362,0.840580,-0.516263,0.164006
-0.073035,-0.649747,-0.907318,-0.336746,0.501608,-0.796863
-0.068530,0.154659,0.599907,-0.655679,-0.721264,-0.223302
-0.077827,0.003695,0.675266,0.246128,0.841427,-0.481063
0.066350,-0.233002,-0.884739,-0.676043,-0.393149,0.623217
0.297326,0.106077,-0.916528,0.744258,0.593090,-0.307124
0.240002,-0.075383,-0.816685,-0.223857,-0.547742,0.806143
0.458234,0.160932,-0.904474,0.003910,-0.941923,0.335806
0.170136,-0.222241,-0.871269,0.199266,0.641601,0.740703
0.523768,0.328552,-0.916643,0.228945,0.755545,-0.613789
0.087928,-0.526529,-0.844166,0.058366,0.061721,0.996385
0.406312,-0.126250,-0.739368,-0.010092,0.201513,0.979434
-0.073984,-0.018964,-0.861944,-0.252048,0.962543,0.099910
0.590524,-0.070928,-0.772096,0.119580,-0.894062,-0.431687
-0.602660,0.372633,-0.139097,-0.091607,0.374107,0.922850
-0.504488,0.286491,0.418894,-0.296454,0.678801,-0.671822
-0.305113,-0.300443,0.863984,0.270931,0.843788,-0.463269
0.126645,0.055215,-0.198988,0.857936,0.388170,-0.336554
0.541642,-0.593430,-0.815136,-0.379190,-0.500065,0.778556
0.086265,-0.297236,-0.867628,-0.797323,0.588642,0.133328
0.562002,0.279590,-0.917016,-0.345422,0.371822,0.861645
-0.277202,-0.779222,-0.861621,-0.679140,0.656567,0.328159
0.486966,-0.050201,-0.779287,0.314539,0.881433,0.352336
-0.139667,-0.191511,0.140910,-0.464594,-0.809406,-0.359185
0.420773,-0.148569,-0.785803,0.083621,-0.957487,-0.276092
0.664692,-0.141832,-0.826942,0.338147,-0.175504,-0.924584
-0.567471,0.412738,-0.187393,0.167116,0.001845,0.985935
-0.829353,0.051934,0.076704,0.080294,-0.156039,0.984482
-0.284325,-0.184230,0.737339,0.913752,0.142665,0.380399
0.656337,0.289415,-0.857050,-0.411285,-0.778296,0.474447
0.124638,-0.528733,-0.879938,-0.820830,0.508119,0.260871
-0.727712,-0.375792,0.068200,0.147673,0.279159,0.948822
0.010540,-0.227766,-0.848941,-0.360175,-0.387082,0.848788
0.707259,-0.433997,-0.816345,0.025615,-0.530498,0.847299
0.471732,-0.009890,-0.832947,-0.164183,-0.808907,-0.564547
-0.157953,-0.141243,0.276353,-0.630393,0.513635,-0.582051
0.417565,-0.498487,-0.866538,-0.633625,-0.575210,0.517352
-0.431344,-0.428655,0.600993,0.388661,-0.468304,-0.793495
-0.142418,0.797607,0.012061,0.022428,-0.151118,0.988261
-0.604480,-0.341084,0.554665,-0.415323,0.062720,0.907509
-0.025161,0.144087,-0.362413,0.923256,0.155868,0.351146
-0.113598,-0.111305,-0.864571,0.880813,0.023422,0.472884
0.152698,-0.078450,-0.785084,0.667718,-0.687365,-0.285801
-0.124981,-0.241037,-0.919916,0.721639,0.664072,0.195565
-0.922647,0.039267,0.075630,-0.569254,-0.561153,0.600881
0.294054,-0.613718,-0.883186,0.262908,-0.428184,-0.864603
0.784081,0.354441,-0.892672,-0.432475,0.405932,0.805099
-0.017492,-0.398788,-0.918742,-0.472497,0.035809,-0.880605
0.473587,-0.303768,-0.821043,-0.536889,-0.573760,-0.618506
-0.219034,-0.283582,-0.922870,0.848438,0.165262,-0.502834
-0.525627,0.295866,-0.093853,0.497054,0.372719,0.783593
0.442379,-0.359900,-0.876227,-0.832377,0.554139,0.008891
0.200722,0.173828,-0.924088,-0.173717,0.378610,0.909108
0.685154,-0.280125,-0.773488,-0.272744,-0.248682,-0.929391
-0.756435,0.268946,-0.155809,-0.574344,-0.741130,0.347643
-0.914388,0.101071,0.092467,-0.265166,-0.391601,0.881099
-0.404392,0.512149,-0.194075,-0.438353,0.802414,-0.404942
-0.135825,-0.045253,0.413589,-0.687044,0.703590,-0.181470
0.390867,-0.304286,-0.871337,0.741603,0.615257,0.267364
0.136489,0.062608,0.146212,-0.449772,0.891313,0.057154
0.775687,-0.252442,-0.771338,-0.609587,-0.066072,-0.789961
0.028226,-0.036315,-0.894982,0.061177,0.629309,0.774743
0.013928,-0.189916,-0.968327,-0.790038,0.069387,0.609118
-0.074613,-0.094260,-0.889165,0.754017,-0.400855,-0.520359
-0.558095,-0.161090,0.437849,-0.109549,-0.992441,0.055308
-0.267616,-0.155833,0.872855,0.988084,-0.138865,-0.066386
0.301770,-0.142103,0.088828,0.121053,-0.122049,0.985114
0.153402,-0.322320,-0.881240,0.591672,-0.255431,-0.764643
0.036096,-0.666262,-0.890469,0.208997,0.273749,0.938819
0.401400,-0.680295,-0.849884,-0.091861,0.983605,0.155183
-0.341385,-0.727764,-0.893552,0.759742,-0.106400,-0.641461
-0.199618,-0.668481,-0.858874,-0.344504,0.180448,-0.921279
0.792215,0.298517,-0.868062,0.266062,0.086066,0.960106
-0.803136,-0.212375,0.669332,0.970618,-0.165859,0.174333
0.516696,-0.046885,-0.870338,0.290871,-0.762198,-0.578315
0.751028,-0.327292,-0.825112,0.574614,-0.680145,0.455216
0.782835,0.301760,-0.871824,-0.656684,-0.102196,-0.747209
-0.290048,-0.334894,0.398369,-0.513063,-0.157515,-0.843774
-0.152069,-0.397292,0.457115,0.996466,-0.017464,-0.082168
-0.021485,-0.789681,-0.941130,-0.073357,0.759152,0.646766
0.674001,-0.464483,-0.793534,0.382640,0.914927,0.128436
-0.514525,-0.361765,0.453362,0.927452,-0.118284,0.354743
0.644328,0.070867,-0.805405,-0.343314,0.423332,0.838407
-0.622250,-0.020586,0.084897,-0.378380,-0.255821,-0.889598
0.013952,-0.374842,-0.894766,0.381682,-0.190730,-0.904401
0.081387,-0.474675,-0.911373,-0.676976,-0.111092,0.727573
0.586434,0.209705,-0.869476,0.880276,0.159384,-0.446889
-0.297385,-0.263446,0.890438,0.801499,0.597730,0.017864
0.172714,-0.414192,-0.856109,0.571899,0.732996,-0.368306
0.494680,-0.220642,-0.812164,0.512737,0.488158,-0.706260
-0.084732,-0.607953,-0.900511,0.818627,0.054783,0.571707
-0.057800,-0.094891,-0.923514,0.824762,-0.277510,-0.492703
0.864145,0.053066,-0.851480,0.651055,-0.437410,0.620322
-0.260093,-0.196920,-0.878551,0.304266,-0.952538,0.009675
0.204125,0.129095,-0.801820,0.758997,-0.292581,0.581653
-0.205739,0.951992,0.592095,-0.408534,0.884145,0.226686
-0.240602,-0.156659,0.299383,0.873545,0.108844,0.474417
-0.395698,-0.335731,0.318871,0.803213,-0.392739,-0.447890
-0.696723,0.132817,0.792479,-0.270590,0.202518,0.941152
0.112827,-0.638918,-0.867008,0.126768,-0.943463,0.306281
0.894949,0.474816,-0.904877,-0.575177,0.349652,0.739537
0.253388,-0.267709,-0.830832,-0.192349,-0.925969,0.324936
0.414448,-0.294374,-0.831405,-0.191036,0.367301,0.910272
0.632868,-0.425844,-0.792434,0.713634,0.682755,-0.156757
-0.469941,-0.292056,0.910294,0.056482,0.829427,0.555752
0.190969,-0.040967,-0.887459,0.945809,-0.209073,-0.248465
0.685984,0.407945,-0.877936,-0.240444,0.936342,0.255833
-0.383460,0.213674,0.386609,0.823719,0.566841,0.013332
0.018324,-0.751218,-0.892111,0.897141,0.361469,0.253927
-0.492079,-0.214890,0.567239,0.130414,-0.026064,0.991117
-0.256341,-0.772388,-0.893418,0.177847,0.882493,0.435403
0.178433,0.194744,-0.939169,-0.032035,0.955175,0.294302
-0.024781,-0.451234,0.198866,0.762158,0.644937,0.056311
0.111910,-0.570048,-0.868436,0.728357,0.273490,0.628251
-0.168185,0.122576,0.739203,0.585087,-0.158424,-0.795346
0.453649,-0.266446,-0.845435,-0.045483,0.619267,0.783862
-0.895925,-0.485579,0.629649,-0.523709,0.407849,-0.747922
-0.113491,-0.277579,-0.958110,0.025175,-0.981225,-0.191216
0.224797,-0.021723,0.072703,0.691260,0.691625,-0.209317
0.796612,-0.093829,-0.772258,-0.310533,0.515647,0.798547
0.527940,-0.107891,-0.779656,0.218099,0.378982,-0.899336
-0.207716,-0.324172,0.735292,0.932549,-0.064381,-0.355257
0.798281,0.262488,-0.853572,0.856187,0.478989,0.193682
-0.116295,-0.123843,0.941655,0.849862,0.240273,-0.469045
0.783077,-0.596703,-0.849870,-0.473411,0.585103,-0.658435
-0.123500,-0.830966,-0.887517,0.015129,0.805737,0.592080
-0.037608,-0.255498,-0.899226,0.278023,0.886488,-0.369923
0.572036,0.261057,-0.867151,0.914898,-0.006228,-0.403637
-0.408901,0.711169,-0.232623,-0.282949,0.817490,-0.501647
0.413455,-0.493791,-0.881842,-0.158686,-0.384421,0.909417
0.167384,-0.066559,-0.809666,0.451172,-0.094376,0.887433
-0.070107,-0.037920,-0.958012,0.660335,0.551445,0.509772
0.386590,-0.585794,-0.910910,-0.766829,0.344206,0.541751
-0.534424,-0.353430,0.591089,0.989113,-0.118583,-0.087136
0.110567,-0.062800,-0.842012,-0.121310,0.094312,0.988124
-0.350801,0.009008,0.554838,0.920654,0.136330,0.365801
-0.189507,-0.398894,-0.967102,-0.603573,0.539620,0.586949
0.561859,-0.450535,-0.798564,0.913374,0.406340,-0.025209
-0.718980,-0.622269,0.574786,0.276394,0.902152,0.331252
0.761472,-0.145311,-0.777809,0.807110,0.570859,0.150643
0.226262,-0.301684,-0.840170,-0.134412,-0.211284,0.968139
0.504475,-0.069865,-0.784053,0.305012,0.921436,0.240672
-0.016467,-0.169133,-0.843031,-0.553767,-0.318284,-0.769440
-0.094812,-0.526756,0.700475,0.789489,0.258675,-0.556591
-0.046621,-0.191099,-0.932598,-0.111182,-0.109929,0.987701
-0.165654,-0.188808,-0.945090,-0.234864,-0.322094,-0.917112
0.402527,-0.544054,-0.816052,-0.723164,0.528501,0.444658
0.076877,-0.014382,-0.819383,0.733739,0.637745,0.234324
-0.464848,0.110869,0.542149,-0.333736,0.941544,-0.045984
-0.142337,-0.610637,-0.923341,-0.090888,-0.233924,0.967997
0.543093,-0.530093,-0.814563,0.919643,0.132717,0.369652
0.152609,0.155178,-0.920972,-0.040010,0.654619,0.754900
-0.622950,0.279650,-0.122406,0.243084,-0.963347,0.113458
-0.917275,-0.035698,0.045596,-0.043455,-0.080731,0.995788
-0.806389,0.214330,-0.233087,-0.102864,0.518354,0.848957
-0.648065,-0.227226,0.542632,0.623882,0.710078,-0.326436
0.747982,0.349098,-0.839743,-0.463566,0.015693,-0.885923
-0.299584,-0.019715,0.261233,-0.182668,0.980580,-0.071384
0.223337,-0.511062,-0.833526,-0.487003,-0.421225,0.765113
0.545656,0.056666,-0.842545,0.902326,-0.175516,0.393703
0.217788,-0.426040,-0.847502,-0.505947,0.834822,0.217003
-0.024086,-0.369070,-0.870487,0.365271,0.907113,-0.209103
-0.078375,0.134065,0.571163,0.055801,0.997214,-0.049501
-0.140365,0.086077,0.689968,0.048744,0.965553,0.255600
0.490349,-0.286151,-0.828256,-0.121518,-0.520582,0.845120
0.571566,-0.295093,-0.817301,0.358622,-0.409963,-0.838642
0.302602,-0.344167,-0.846082,-0.685832,-0.680056,0.259150
-0.257967,-0.094172,-0.855473,-0.552267,0.718822,0.422252
0.304684,-0.193496,-0.818820,-0.401819,0.847414,-0.347032
-0.157822,-0.362527,0.854120,0.956237,0.245936,-0.158512
0.197473,0.152570,-0.928397,0.298428,0.612422,0.732039
0.294454,-0.137435,-0.850542,0.455903,-0.887947,-0.060845
-0.360252,-0.301870,0.843142,0.863608,0.202883,-0.461541
0.460915,-0.104382,-0.751027,-0.042110,0.525877,0.849517
-0.825140,-0.290551,0.635272,0.949417,-0.118862,0.290652
-0.138830,-0.077730,-0.961976,0.878386,0.444571,-0.175484
0.318951,-0.073720,-0.823184,0.783600,0.575645,0.233675
0.597299,-0.582627,-0.807158,0.618928,0.338761,-0.708639
-0.217688,-0.476517,-0.942163,0.516662,0.480542,-0.708618
0.608693,-0.269186,-0.814392,-0.805858,0.413284,0.424016
-0.403476,-0.302675,0.479699,0.496309,0.208713,0.842684
-0.093968,-0.108940,-0.820889,-0.787676,0.527895,-0.317637
0.146899,0.070532,-0.901377,0.484723,0.503650,0.715108
0.363576,-0.502749,-0.904404,-0.492464,-0.192563,0.848763
0.397552,-0.166701,-0.820158,0.451196,0.376393,-0.809167
-0.034513,-0.429527,-0.910702,-0.307037,0.566990,0.764363
-0.304288,-0.235380,-0.913780,0.962026,-0.087778,0.258460
0.072904,-0.219513,-0.919704,0.716505,0.469841,0.515626
0.643507,-0.519991,-0.861033,-0.582164,0.463523,0.668006
-0.320978,-0.439356,0.413498,0.982523,0.068232,0.173188
-0.780556,-0.118671,0.647066,-0.779052,-0.589703,0.212905
-0.030298,-0.073821,-0.866404,0.369894,0.564143,0.738188
0.219159,0.059670,-0.878446,-0.102868,-0.664954,0.739766
-0.546795,0.339027,-0.133453,0.606154,0.688844,0.397581
0.175087,-0.299610,-0.871541,-0.755672,-0.652395,0.057799
0.525614,-0.346899,-0.817819,0.688033,0.534641,0.490682
0.449315,-0.543214,-0.806238,0.711305,-0.653074,0.259884
0.590974,-0.316547,-0.755585,0.508686,0.294112,0.809158
-0.209734,-0.540621,-0.983057,-0.248026,0.106510,0.962880
0.136856,-0.181970,-0.847135,0.846598,-0.450990,-0.282629
-0.394025,0.054330,0.050674,0.359200,-0.933129,-0.015681
-0.042661,-0.562535,-0.871156,0.584868,0.772356,0.247781
-0.051192,-0.307342,-0.872203,-0.732836,0.680404,0.001436
-0.364525,0.638776,-0.210829,-0.343365,-0.539745,-0.768619
0.166414,0.102247,0.070872,0.352091,-0.213967,0.911181
0.037185,-0.462761,-0.870766,-0.186729,0.112817,0.975912
-0.582253,-0.383480,0.531923,-0.667949,-0.221788,-0.710390
-0.028966,0.045135,-0.905432,0.547845,0.751122,-0.368351
-0.203694,-0.497568,-0.950611,-0.582418,0.639525,0.501794
0.238254,0.137034,-0.891555,0.795765,0.110409,-0.595456
-0.201245,-0.234439,-0.927366,-0.543104,-0.303559,-0.782873
-0.323485,-0.076491,-0.885815,0.422082,-0.905626,0.041090
0.289532,0.137765,-0.927084,-0.123454,-0.813702,0.568021
-0.164353,0.118628,0.577235,0.446227,0.286542,-0.847806
0.875326,0.285545,-0.884063,0.849931,0.014394,-0.526697
0.478590,-0.203486,0.001491,-0.486036,0.697704,-0.526288
-0.494158,0.412886,0.413663,0.611406,0.675883,-0.411540
0.476270,0.090015,-0.935753,-0.723618,0.683234,0.097818
0.343834,-0.515758,-0.889751,0.778075,0.160666,-0.607277
-0.201987,-0.558504,-0.949353,0.966502,0.074263,-0.245679
-0.573281,0.319831,-0.184658,0.072620,-0.537771,-0.839958
-0.186407,-0.361999,-0.945793,0.717157,0.257724,0.647506
-0.039613,-0.656355,-0.873538,0.970911,0.210107,-0.114834
-0.238909,-0.101476,-0.882438,-0.581287,0.787377,0.205289
-0.340573,0.036342,0.585275,0.983837,0.159281,0.081820
0.486529,-0.482392,-0.792762,0.116212,-0.870419,-0.478398
0.031994,0.017113,-0.917156,-0.573815,0.683659,0.450939
0.211287,-0.297083,-0.883061,-0.467319,0.607832,0.641992
0.303282,-0.345839,-0.855297,-0.196494,-0.878611,0.435239
-0.124695,-0.774285,-0.890463,0.795505,0.596473,0.106733
0.253839,-0.674432,-0.801126,-0.693933,0.242122,-0.678111
-0.274095,-0.231359,0.813426,0.091882,0.995014,0.038795
-0.214318,-0.223974,0.858293,0.408513,0.097671,-0.907512
0.331583,-0.573631,-0.753349,-0.694136,0.578936,-0.427796
0.190262,-0.000841,-0.916196,0.918793,-0.356245,-0.170023
-0.334834,-0.443962,0.425966,0.764218,0.498835,0.408821
0.303599,-0.430892,-0.894117,-0.371921,-0.154487,0.915319
0.165283,-0.046821,-0.806314,-0.031286,-0.143093,0.989215
-0.354690,-0.150201,0.453175,-0.346622,-0.325600,-0.879680
0.121336,-0.271836,-0.867306,-0.635805,0.767079,0.085683
0.660869,-0.102322,-0.770372,-0.634109,0.540856,-0.552613
0.018388,-0.161456,-0.852632,-0.669820,-0.195767,-0.716251
-0.209119,-0.015297,-0.871810,0.738252,-0.589820,-0.327257
0.451832,0.257162,-0.888903,0.357927,0.775882,-0.519514
0.586263,-0.389299,-0.827064,0.031560,0.556746,0.830083
-0.362207,-0.866584,-0.862478,0.923627,0.096840,0.370858
0.109064,-0.177062,-0.827000,0.644846,-0.196591,-0.738597
-0.303892,-0.135524,0.304688,0.934790,-0.007682,0.355119
0.778147,-0.111482,-0.744659,-0.424006,0.744403,-0.515832
-0.245388,-0.175729,-0.893560,-0.147068,0.794687,0.588935
-0.023754,0.293188,0.620145,-0.438600,-0.898192,0.029677
-0.108538,-0.527637,-0.890010,0.547805,-0.671928,-0.498420
0.417267,-0.129226,-0.795343,-0.245525,0.823532,-0.511384
0.661152,-0.433140,-0.815273,0.403918,0.759954,-0.509235
0.724898,-0.120188,-0.784898,0.534226,0.415403,-0.736236
0.363888,-0.632206,-0.856501,-0.005135,0.984077,0.177670
0.789207,-0.548021,-0.825425,0.220563,-0.967884,0.120632
-0.154387,-0.433959,0.710338,-0.759461,-0.341094,0.553961
0.059244,0.009479,-0.913421,0.275765,0.419786,0.864716
-0.107573,-0.585393,-0.867284,-0.393973,0.469713,0.790035
-0.229399,-0.653251,-0.905020,-0.669625,0.716082,0.197051
-0.490924,-0.035572,0.492824,0.968267,-0.197062,-0.153709
0.720524,-0.347224,-0.799913,-0.589604,-0.120548,-0.798646
0.079526,0.042816,-0.924540,-0.331823,0.865885,0.374348
0.304974,-0.426900,-0.820875,0.204392,-0.433626,0.877606
0.422337,-0.271848,-0.829612,0.485913,0.208414,-0.848794
0.433757,-0.576303,-0.819615,0.145622,-0.889408,0.433299
-0.259868,-0.693865,-0.905501,-0.701903,0.699408,0.134763
-0.304550,-0.144831,0.729912,0.779793,-0.441629,-0.443718
-0.177575,0.105925,0.032429,0.188935,0.927124,0.323643
0.381513,0.195171,0.087227,-0.348353,-0.006281,0.937342
-0.115970,-0.450244,-0.883441,-0.458399,-0.885756,0.072848
0.786580,-0.513016,-0.832033,0.846526,-0.391095,-0.361161
-0.032743,-0.335849,-0.922483,0.860906,-0.495977,0.113349
0.231737,-0.534993,-0.892254,0.009203,0.416535,0.909073
-0.289672,-0.060655,-0.844882,-0.017274,0.758539,0.651399
0.537843,-0.117343,-0.791039,0.647463,0.415962,-0.638566
0.061119,0.062020,-0.818542,0.283422,-0.563570,-0.775926
-0.025875,0.079397,-0.118745,0.826702,-0.558876,-0.064970
-0.071373,-0.459870,-0.887104,0.136011,-0.082095,0.987300
0.567461,0.211933,-0.851948,0.790280,0.152529,0.593458
0.184871,-0.039109,-0.451125,0.807352,0.523881,0.271535
0.494387,-0.318287,-0.784152,0.486453,0.463779,-0.740454
0.881713,-0.065558,-0.814109,0.870561,-0.167742,-0.462586
-0.150738,-0.212430,-0.967353,0.503615,0.594595,-0.626761
-0.619585,-0.417106,0.604951,-0.600475,0.672033,0.433360
-0.622685,-0.184580,0.565525,0.349459,0.265916,-0.898425
-0.212165,-0.252688,0.855124,0.908017,-0.313935,-0.277399
-0.201140,-0.311309,-0.917236,0.096052,0.994480,0.042221
-0.730956,-0.506823,0.516174,0.728367,0.677373,-0.103187
0.242729,-0.414721,-0.906538,-0.101386,0.369365,-0.923737
0.476999,0.104479,-0.876100,-0.402649,0.857771,0.319536
0.578488,-0.216471,-0.828655,0.064539,0.543385,-0.836999
-0.021279,-0.302060,-0.918109,0.172008,-0.077053,0.982077
0.398790,-0.062719,-0.818331,0.577012,-0.544930,-0.608365
0.666448,-0.083710,-0.778664,0.537217,-0.796288,0.278070
-0.149236,-0.087330,0.686298,0.125549,0.987815,0.091975
0.033223,-0.378075,-0.855461,-0.158648,-0.343685,0.925587
-0.091404,-0.730536,-0.902833,0.462740,-0.485700,-0.741598
0.827337,0.426707,-0.844011,-0.557366,0.768197,-0.314987
-0.048084,-0.891720,-0.877838,-0.160851,0.838595,0.520467
-0.509063,0.235031,-0.130511,0.972209,-0.074248,0.222031
0.653856,-0.087659,-0.758243,0.837400,-0.461922,0.292213
-0.055940,-0.007302,-0.932847,0.751870,0.453372,-0.478692
-0.670064,0.447607,-0.143677,0.921608,-0.118881,-0.369466
-0.254953,-0.387938,-0.948222,0.253262,-0.800879,0.542633
-0.138750,-0.143825,-0.937681,-0.050405,0.001458,0.998728
0.714402,0.033754,-0.836883,0.962272,0.265091,-0.061316
0.597453,0.001246,-0.886606,0.214400,-0.950404,0.225310
0.885649,0.391274,-0.878546,0.805023,-0.583111,0.109175
0.102817,-0.524638,-0.871444,-0.304766,0.338734,-0.890156
0.755970,-0.107634,-0.813881,0.515306,-0.358898,-0.778237
-0.092701,0.103839,-0.146309,0.937039,-0.348866,-0.015834
0.099393,-0.561909,-0.894147,0.225571,-0.407017,-0.885130
-0.243863,-0.120022,-0.845340,-0.230111,0.418705,0.878485
-0.738097,-0.256499,0.039887,0.147673,0.279159,0.948822
0.504126,0.138805,-0.874416,0.148769,0.800257,0.580911
0.166122,0.096733,-0.882429,0.987225,-0.158769,0.013385
-0.814861,0.207799,0.058362,0.086919,-0.030721,0.995742
-0.503782,-0.049248,0.333209,0.970217,0.083939,-0.227231
0.557154,0.002343,-0.879826,-0.319398,0.860044,0.397881
0.329315,-0.093417,-0.794671,0.038704,0.911072,0.410426
0.730084,-0.225213,-0.834355,0.045388,-0.635987,0.770364
0.120848,-0.213668,-0.804638,0.618582,0.454499,-0.640927
-0.273762,0.226976,0.547401,0.810725,-0.583378,0.048944
0.527485,-0.424692,-0.788981,-0.468071,0.676005,0.569146
-0.284045,-0.734565,-0.884321,0.840937,0.490513,0.228523
-0.036465,-0.347605,-0.934824,-0.715600,0.607768,0.344288
0.229791,-0.125955,-0.811945,-0.291035,0.709814,0.641453
0.221438,-0.346158,-0.852939,-0.276133,0.957093,0.087883
0.203819,0.189525,-0.851720,-0.244124,0.831823,0.498471
0.196223,-0.522148,-0.864067,-0.652252,-0.750088,-0.109250
0.129925,-0.541606,-0.916749,-0.178985,-0.464465,0.867316
-0.016622,-0.807916,-0.898290,-0.048242,0.834551,0.548815
-0.276058,-0.227520,0.834022,0.997920,0.019786,-0.061361
-0.083557,-0.255182,-0.961700,0.402032,0.829049,0.388649
-0.073201,-0.123474,-0.850767,-0.099389,0.554234,0.826406
0.340885,0.003328,-0.863348,-0.442670,0.060391,0.894649
-0.224873,-0.829832,-0.910724,0.360829,0.288224,0.886978
0.389740,-0.420469,-0.844831,0.749474,-0.301204,0.589547
0.643958,-0.186559,-0.797085,-0.448951,0.282110,0.847854
-1.000000,0.176291,0.100325,-0.329020,0.116348,-0.937128
0.213605,-0.211649,-0.834723,0.246486,0.932936,0.262440
-0.294087,-0.232333,0.345699,0.821592,-0.443781,-0.357834
-0.315845,-0.316510,0.439627,0.802332,0.478182,0.357219
-0.076083,-0.124541,-0.813493,0.328516,-0.714148,0.618118
0.073569,-0.705650,-0.876951,0.166644,0.218119,0.961589
-0.677627,-0.222547,0.554409,-0.185414,-0.836522,0.515609
-0.254289,-0.625257,-0.914559,0.815412,0.309363,-0.489283
0.097105,-0.071348,-0.068082,0.328318,0.941078,-0.081115
0.066047,-0.132656,-0.810008,-0.297743,-0.384072,0.873978
0.172013,0.133917,-0.920838,0.317040,0.520773,0.792642
0.889760,0.446773,-0.875265,-0.329665,0.609245,0.721208
0.208098,-0.249735,-0.792729,0.189379,-0.257110,0.947645
-0.304683,-0.460217,-0.935866,0.801823,-0.233245,-0.550160
0.374265,-0.623183,-0.801117,-0.582261,0.776340,0.241387
0.005394,-0.274108,-0.899931,-0.680014,0.267460,0.682675
0.485167,-0.038730,-0.791172,-0.667759,0.079402,0.740131
-0.610145,0.673138,-0.116824,0.977357,-0.051949,0.205119
0.825527,0.454450,-0.911137,0.963895,0.063007,-0.258723
0.562943,-0.091594,-0.772590,0.763351,-0.215983,0.608808
-0.412232,0.477082,0.455178,-0.420580,0.615245,-0.666773
0.096959,0.184415,-0.910645,-0.639597,0.710468,-0.293515
-0.232017,0.062796,-0.956204,-0.176069,0.337318,0.924779
-0.226516,-0.583120,-0.921064,0.310130,-0.382427,-0.870385
-0.061829,0.860380,0.046311,0.651467,-0.671524,0.353053
-0.185184,-0.126639,0.871040,-0.620279,0.095851,0.778503
-0.389364,-0.118154,0.369833,0.992341,0.058130,0.108995
0.664903,-0.368373,-0.757167,-0.159480,0.940032,0.301507
-0.043346,-0.216429,-0.933374,0.222623,0.402102,0.888117
0.143011,0.059990,-0.885322,0.681519,0.317168,0.659497
-0.381385,0.151816,0.393210,0.802698,-0.363469,0.472827
0.030580,-0.086122,-0.904105,-0.075753,0.306978,0.948697
0.431898,-0.006794,-0.835602,-0.655041,-0.751349,0.079976
0.113009,-0.072778,-0.763912,-0.144403,-0.950103,0.276500
0.358168,-0.633734,-0.887583,0.890688,0.199239,-0.408630
0.673438,0.385033,-0.848217,-0.604677,0.641996,0.471388
0.194009,0.069343,0.064592,0.687739,-0.396521,0.608100
0.066956,-0.246231,-0.820794,-0.156867,0.158245,-0.974860
0.082087,-0.307562,-0.831628,0.725887,-0.577258,-0.373981
0.408126,-0.071263,-0.882164,-0.461519,0.878997,0.119851
0.013280,-0.176934,-0.879913,0.027011,0.100818,0.994538
0.673381,0.311916,-0.825726,0.495004,0.365038,-0.788491
0.135425,-0.211453,-0.837885,-0.018586,0.065376,0.997688
-0.237554,-0.131194,-0.870952,0.946644,0.316740,0.059501
-0.178032,-0.035312,-0.855391,-0.349696,0.531844,0.771268
0.509549,-0.447402,-0.835632,-0.250644,-0.809193,0.531399
0.730480,0.082094,-0.838606,0.119220,-0.473632,0.872616
0.026738,-0.483238,-0.911259,-0.071644,-0.140885,0.987430
-0.775165,-0.042851,0.719803,0.911788,-0.396107,0.108357
-0.227241,-0.243412,-0.918547,-0.456660,-0.183648,-0.870480
0.245976,-0.043928,-0.850056,-0.016505,-0.998134,0.058795
-0.259804,-0.178609,0.849526,0.947164,0.018143,-0.320235
0.246853,-0.342007,-0.889209,-0.645601,-0.365254,0.670663
0.168194,-0.596451,-0.892776,-0.169801,0.676421,-0.716674
0.851077,0.410646,-0.839467,0.979440,-0.198462,-0.036202
-0.059993,-0.042401,-0.961834,0.190834,0.215275,0.957726
0.223595,-0.057912,-0.830635,-0.711907,-0.462855,-0.528161
0.061986,0.089972,0.577029,0.932882,0.283989,-0.221545
-0.174858,-0.173470,0.791411,-0.907678,0.068147,-0.414097
0.652296,-0.028452,-0.749763,-0.593630,0.803505,-0.044532
0.580818,0.129290,-0.906870,-0.035452,0.853265,0.520271
0.205267,-0.583548,-0.875923,0.378094,0.915840,0.135212
0.925236,0.166506,-0.793387,-0.703125,0.622893,0.342958
-0.469355,-0.172010,0.430083,-0.749411,0.373442,0.546740
0.312738,-0.254248,-0.802846,0.243174,-0.208311,-0.947350
-0.341232,0.648529,0.057451,-0.664004,0.747573,0.015272
-0.015700,0.049593,-0.938740,0.917653,0.295841,-0.265314
-0.209980,-0.053207,0.655597,0.878409,-0.211279,0.428671
-0.201697,-0.072427,-0.858392,0.347504,0.725452,-0.594105
0.522063,0.057184,-0.829693,-0.490869,-0.799086,0.347145
-0.316349,-0.150155,-0.940749,-0.718244,0.404016,0.566477
0.333257,-0.134115,-0.826980,-0.457736,0.381252,-0.803197
-0.176202,0.897586,0.576395,-0.224698,0.959797,0.168228
-0.262180,-0.196432,-0.880213,0.277559,-0.958388,-0.066736
-0.363720,-0.254757,0.402317,0.882709,-0.457421,-0.107656
0.062339,-0.165394,-0.842955,-0.449823,0.847670,0.281274
0.200872,0.082665,-0.929002,-0.114852,0.444036,0.888617
-0.156912,-0.201316,-0.921874,0.703432,-0.654337,0.277538
-0.616143,0.469425,-0.155886,0.809352,-0.317046,0.494400
-0.342230,0.074683,0.538409,0.743120,0.641756,-0.189532
-0.428199,0.042733,0.033561,0.328081,0.901841,0.281152
0.032205,-0.468510,-0.883026,0.309369,0.705374,0.637761
-0.164575,-0.128114,0.841228,-0.738538,0.593840,0.319244
0.656575,0.200007,-0.800953,-0.506077,-0.430310,-0.747475
0.112047,0.031704,-0.451866,0.653205,0.744286,-0.139146
0.084295,-0.770099,-0.904644,0.275570,-0.935343,-0.221797
0.127526,-0.694013,-0.853869,-0.618382,-0.761926,0.192545
0.584387,0.096314,-0.868516,0.341476,0.820992,0.457566
0.532253,0.281899,-0.908149,0.612566,0.473303,0.633046
0.269370,-0.135961,-0.805823,0.303710,0.950223,-0.069546
-0.238811,-0.335256,-0.922950,-0.780417,0.453870,0.430059
-0.022022,-0.508564,-0.849605,0.228114,0.394138,0.890291
-0.421878,0.738325,0.638060,0.214631,-0.974584,0.064183
0.423766,-0.240687,-0.840288,0.857863,0.366222,-0.360490
-0.274905,-0.628862,-0.891356,-0.259631,0.216295,-0.941174
-0.441314,0.009640,0.494620,0.842885,-0.185714,-0.505029
-0.318785,0.839525,0.571230,-0.653707,0.711458,0.257864
-0.318867,0.134690,0.587136,-0.787637,0.423176,0.447829
0.351987,-0.546443,-0.882492,-0.065524,-0.975031,0.212181
0.457845,-0.594429,-0.853377,0.927733,-0.002600,-0.373237
-0.710765,0.435149,-0.161554,0.852446,-0.334922,-0.401452
-0.030100,-0.161717,-0.863164,0.230968,0.962271,-0.143836
-0.127589,0.029561,-0.194918,0.911599,-0.385042,0.143979
0.537186,-0.411857,-0.779540,-0.522279,0.425471,0.739053
0.508508,-0.509055,-0.834725,-0.595916,0.772837,0.218190
-0.119986,-0.823922,-0.852119,0.903405,0.428219,-0.022092
-0.265534,-0.306421,-0.897824,-0.047551,0.194801,0.979690
-0.059159,-0.222418,0.943610,0.659254,-0.741986,-0.121823
-0.253388,-0.146555,0.351645,0.445325,0.559292,-0.699198
0.236828,0.148831,-0.900449,-0.461413,0.291108,0.838066
0.080359,-0.263789,-0.879085,-0.298653,0.250351,0.920940
0.790084,-0.297051,-0.833171,0.947906,-0.309683,0.074635
-0.482872,-0.290176,0.476404,0.806525,0.033828,0.590231
-0.112484,-0.521371,-0.855782,0.737087,-0.174641,-0.652843
0.624334,-0.305026,-0.804323,-0.164680,0.308462,0.936873
-0.170979,0.032779,-0.951529,-0.271504,-0.548185,0.791062
-0.057064,0.135536,-0.894090,-0.572659,0.808069,0.138152
0.220975,0.273516,-0.905866,-0.191346,0.897771,-0.396730
0.483439,0.040667,-0.872236,0.334519,-0.147299,0.930806
-0.250956,-0.078421,0.364026,0.832187,0.468683,-0.296312
0.486818,-0.468166,-0.851462,-0.292893,-0.814261,0.501192
0.573618,-0.630949,-0.770624,0.463438,-0.377310,0.801787
0.690985,-0.363864,-0.824857,0.411587,0.347691,-0.842441
-0.335368,0.089384,0.554331,-0.704569,-0.396128,0.588783
0.030520,-0.672468,-0.900620,0.357354,0.910514,-0.207995
0.285423,-0.535219,-0.885217,0.231923,-0.115431,0.965861
-0.063035,-0.260695,-0.904012,0.142022,-0.403618,0.903838
-0.088371,0.843173,0.030705,-0.378669,0.772316,-0.510037
-0.152873,-0.182452,0.911211,-0.505983,0.565759,0.651074
0.546659,-0.236905,-0.825173,-0.345072,-0.924687,0.160868
0.282499,-0.276019,-0.832687,0.637872,0.770093,-0.008786
0.104727,-0.414847,-0.882420,-0.404385,-0.317814,0.857594
-0.575797,0.267203,-0.110598,-0.147983,0.647806,0.747294
0.608076,-0.612155,-0.814168,0.418006,0.423642,-0.803616
0.287887,-0.489751,-0.921633,0.253024,0.240401,-0.937116
0.104696,-0.379662,-0.863475,0.534419,0.833398,-0.140872
-0.306518,-0.020406,0.225752,0.911171,-0.305048,-0.276973
-0.311760,-0.606751,0.365441,0.845920,0.524460,0.096750
0.430667,-0.590658,-0.885924,0.315638,-0.453985,-0.833229
-0.181584,-0.289216,0.701863,0.934131,-0.242517,-0.261889
-0.608312,-0.249482,0.634709,-0.335097,-0.702903,-0.627405
0.750411,-0.239055,-0.809400,0.247377,0.857001,0.452055
-0.140960,-0.208377,0.907752,-0.599593,-0.800303,0.001810
-0.131802,-0.052067,-0.861904,0.879380,0.048469,0.473647
0.471264,-0.095533,-0.804464,-0.116626,-0.083108,0.989693
0.786151,0.327102,-0.924563,-0.321566,0.585706,0.744005
-0.785691,0.138674,-0.209335,0.856212,-0.127274,-0.500701
-0.312116,-0.010304,0.342580,0.969069,0.055033,0.240577
-0.324252,0.273780,0.656756,-0.605956,-0.760590,0.233068
0.443780,-0.539719,-0.794740,-0.658174,0.274903,-0.700882
0.039274,0.004261,-0.070068,-0.339051,0.233296,0.911382
0.015345,-0.375250,-0.921058,-0.675927,0.643545,-0.359127
-0.310701,-0.335660,0.843578,-0.506324,0.861994,-0.024546
-0.306403,0.254354,0.635324,0.887876,0.450026,0.095671
-0.174344,-0.062250,-0.871629,-0.289990,0.870426,0.397824
0.769063,-0.141236,-0.740821,-0.178432,-0.383741,0.906038
0.415026,-0.397162,-0.861978,0.990236,-0.124578,-0.062561
0.304019,-0.659422,-0.843544,0.329826,0.579621,-0.745154
0.544207,0.000931,0.090365,0.012094,-0.733464,0.679621
-0.034562,-0.113514,-0.829987,0.540720,0.060306,-0.839038
-0.352762,-0.273698,0.406422,-0.245091,0.826581,0.506650
-0.150344,-0.345750,-0.955540,-0.125334,0.708500,0.694492
0.215459,-0.259722,-0.813505,-0.592727,-0.126551,0.795399
0.057739,-0.123317,-0.853896,-0.376371,0.396672,0.837255
-0.581494,-0.314354,0.574248,-0.109528,-0.412605,0.904301
-0.192617,0.027213,0.617126,0.130486,-0.788761,0.600691
-0.477849,-0.153171,0.479947,0.817276,0.382257,0.431208
0.405092,0.091612,-0.859435,-0.364691,-0.684711,-0.631008
-0.233049,-0.886482,-0.887036,-0.562710,0.650051,-0.510677
-0.051684,-0.116233,-0.839521,0.880872,0.053084,-0.470369
0.769277,-0.048789,-0.772731,-0.374571,-0.038697,-0.926391
-0.314474,-0.459012,0.440580,0.747582,0.589674,0.305624
0.041270,-0.076629,0.054402,-0.109664,-0.462715,0.879698
0.034367,-0.185366,-0.770968,-0.192869,0.113704,0.974614
-0.160644,-0.383531,0.875735,0.929572,0.344481,-0.131260
0.755648,-0.030518,-0.736382,-0.208068,0.126091,0.969953
-0.552234,-0.254831,0.240989,-0.469855,0.121902,-0.874286
0.239203,0.054850,0.106007,0.424722,0.744802,0.514666
0.224239,0.099710,-0.844793,0.910762,-0.411295,-0.036740
-0.282919,-0.209837,0.783328,0.366622,-0.929235,-0.045939
-0.220723,-0.213813,0.707398,0.471730,-0.637593,0.609053
-0.650948,0.479634,-0.104111,0.995680,0.038603,-0.084445
-0.163341,-0.010844,0.057079,0.155211,0.734911,0.660163
-0.179260,-0.495526,0.708419,0.789489,0.258675,-0.556591
-0.385888,-0.293617,0.384836,0.999697,-0.015044,0.019493
-0.460542,-0.108384,0.415821,0.491459,-0.582122,0.647767
0.313134,-0.364377,-0.827296,0.510201,0.275388,0.814774
-0.306686,-0.042642,0.545932,0.620398,-0.389475,0.680747
-0.232591,-0.537405,-0.884871,-0.584022,-0.518602,0.624476
0.003995,-0.190572,-0.796020,0.886365,-0.433901,-0.161516
0.044517,-0.209940,-0.807176,0.777105,-0.330746,0.535457
-0.208800,-0.320728,0.881465,0.560731,0.817460,0.131685
0.284139,0.067847,-0.888088,0.788552,-0.598574,0.141052
-0.120310,-0.182577,-0.957611,-0.025350,0.951999,-0.305049
0.687256,-0.364164,-0.791230,-0.346722,-0.875495,-0.336591
-0.564994,-0.262209,0.491595,0.776332,0.282770,-0.563338
0.945879,0.092195,-0.824359,0.929095,-0.283561,-0.237438
-0.018713,-0.427211,-0.846200,0.277708,-0.274159,0.920714
-0.006722,-0.069879,-0.931195,-0.530861,0.801560,0.275115
0.694182,-0.439103,-0.835659,0.119364,0.741052,0.660752
0.032242,-0.516232,-0.920578,0.021892,0.206171,0.978271
0.744291,-0.203331,-0.766700,-0.225182,-0.021631,0.974077
-0.044891,0.131677,-0.122021,-0.486135,-0.862995,-0.137522
-0.246765,-0.186235,-0.837856,-0.335449,-0.307509,0.890456
0.777256,-0.462084,-0.814874,0.447396,0.307355,-0.839863
0.236126,0.036915,0.049871,-0.246887,-0.352222,0.902766
-0.155504,0.648237,-0.516415,0.850572,0.164903,0.499334
-0.254300,-0.595108,0.343524,0.782629,0.314920,0.536951
0.257573,-0.350919,-0.851522,0.076248,-0.796562,0.599729
0.326027,0.142412,-0.892030,-0.070989,-0.007159,0.997451
-0.392086,-0.172852,0.364585,0.994692,0.074228,-0.071264
-0.231382,-0.791227,-0.908013,-0.654194,-0.046578,-0.754891
0.319196,0.172684,-0.890113,0.522074,0.846666,0.102934
0.222663,0.043889,-0.875757,-0.338123,0.940761,-0.025315
0.699214,0.364816,-0.854241,0.097458,0.976019,-0.194650
-0.966040,0.119499,0.083135,-0.183988,-0.492430,0.850683
-0.050012,-0.086488,-0.864899,0.037914,-0.979384,0.198418
0.399672,-0.569435,-0.884130,0.036564,-0.543576,0.838563
-0.023704,-0.222525,-0.784574,0.892557,-0.175573,-0.415352
0.444883,-0.486334,-0.855236,-0.344406,-0.105131,0.932916
-0.344031,0.758549,0.659215,0.133929,-0.973211,-0.186876
0.057123,0.019038,-0.908726,-0.062874,-0.273635,0.959776
-0.083565,-0.373703,-0.890589,0.147965,0.925598,-0.348389
-0.489057,0.468865,-0.157348,0.073643,0.891162,0.447668
0.374556,-0.612425,-0.835689,0.885731,-0.358946,-0.294344
-0.720495,-0.207815,0.676640,0.978948,-0.110404,0.171671
-0.066865,-0.317965,-0.916705,0.090370,0.741428,0.664920
0.598704,-0.244523,-0.780286,0.462942,0.596069,0.656039
-0.671009,-0.185683,0.481509,0.417072,0.890835,0.180177
0.645549,0.116060,-0.833691,-0.387570,0.495229,-0.777520
0.797492,-0.268030,-0.796913,-0.468070,-0.883622,-0.011065
0.212760,0.091833,-0.807974,0.884916,0.192439,0.424135
-0.002943,-0.688896,-0.905845,0.353473,0.503412,-0.788438
-0.642894,-0.273550,0.554023,0.882712,-0.056501,0.466505
0.733345,-0.030783,-0.798039,0.450853,0.687314,0.569501
0.121819,0.216728,-0.644642,0.991325,-0.073594,0.108894
0.852773,0.274410,-0.885025,0.789601,-0.430999,0.436773
-0.125525,-0.172242,-0.893539,-0.685090,0.322332,0.653264
-0.038538,0.017152,0.704989,0.958621,-0.090815,0.269813
-0.112654,-0.211677,-0.857566,0.575183,0.524493,0.627750
-0.207617,0.067487,0.575572,0.928066,-0.041552,-0.370091
0.325321,-0.320455,-0.888183,0.292931,0.009341,0.956088
-0.199154,-0.154988,-0.886344,-0.595841,0.776011,0.206835
0.006509,-0.382675,-0.867222,0.247546,0.923298,0.293669
0.187155,-0.611061,-0.888819,-0.065605,-0.270869,0.960378
-0.475990,-0.176148,0.472055,0.632492,0.689406,0.353091
0.532723,-0.542222,-0.793098,-0.123527,0.862405,-0.490916
0.062066,0.066433,0.347081,0.562851,0.824316,-0.060840
-0.221117,-0.135576,-0.950791,0.997182,0.060402,0.044493
0.162637,-0.016015,-0.890321,0.767958,0.639896,0.027810
-0.639839,0.085966,0.120747,0.917007,0.208863,-0.339815
-0.243044,-0.875424,-0.874579,0.297144,0.498242,0.814531
0.190399,-0.581455,-0.889486,0.131097,-0.865310,0.483789
0.280079,-0.005688,-0.914161,0.380737,0.807383,0.450745
-0.684608,-0.261838,0.581844,-0.279520,-0.952523,0.120704
0.302281,-0.420711,-0.871409,0.030423,0.462062,0.886326
0.289271,-0.607584,-0.885522,0.137073,0.205306,0.969051
-0.394059,-0.304283,0.399415,0.839373,-0.501940,0.208592
0.756457,-0.032232,-0.773213,-0.666582,0.260747,-0.698340
-0.629395,0.247861,-0.117192,0.748124,-0.050376,-0.661644
0.472968,-0.511955,-0.813792,-0.608517,0.465795,-0.642450
0.156413,-0.223535,-0.869313,0.760586,-0.190606,-0.620628
0.093805,-0.622517,-0.932087,0.203802,-0.256797,0.944733
-0.119295,-0.087517,0.606655,-0.056390,0.143645,0.988021
0.861222,0.322709,-0.869947,0.756949,0.646541,0.094934
0.840904,-0.532068,-0.808019,0.802546,-0.372577,-0.465948
0.480979,-0.631023,-0.836507,0.612367,-0.544476,0.573195
-0.229130,-0.437868,-0.961286,0.802665,-0.291317,0.520446
0.813362,-0.029441,-0.747325,0.045149,0.872138,0.487172
0.754976,0.164489,-0.861391,0.157633,0.880535,0.447002
-0.071585,-0.434546,-0.915769,-0.437317,0.785242,0.438348
-0.451217,-0.366808,0.623830,0.273691,0.372963,0.886562
-0.103145,-0.764200,-0.932443,-0.474267,-0.289579,-0.831393
0.048371,-0.340618,-0.819537,-0.583893,-0.540688,0.605579
0.576601,-0.550254,-0.831835,0.008901,-0.405692,0.913966
-0.077251,0.322706,0.644549,-0.410151,-0.722398,-0.556703
0.442682,-0.548681,-0.794480,-0.539311,0.203974,-0.817030
-0.791283,-0.121893,0.748421,0.806102,-0.324813,0.494668
0.276796,0.044181,-0.883641,0.064009,0.518161,-0.852885
0.079849,-0.247529,-0.834277,-0.391456,-0.727615,-0.563328
0.464621,-0.509096,-0.796204,0.865835,-0.489521,0.103440
-0.072627,0.010275,0.743654,0.615523,0.703214,0.355840
-0.003514,-0.027163,-0.897364,0.133079,0.164529,0.977354
-0.106606,-0.527472,-0.882755,0.680827,-0.535842,-0.499347
-0.707846,0.341497,-0.091905,-0.413748,0.514337,0.751179
0.273443,-0.226062,-0.857671,-0.007720,-0.924265,0.381672
0.892479,-0.432072,-0.777478,0.941870,0.201689,-0.268706
-0.450477,0.476242,-0.221500,-0.659313,-0.025229,-0.751445
-0.543876,-0.256632,0.481045,0.840742,0.262042,-0.473800
0.137209,0.084009,-0.890558,0.997926,0.023985,-0.059737
0.009703,-0.348974,-0.877467,-0.532898,0.612812,-0.583508
0.408150,-0.590369,-0.899507,-0.407562,0.643885,0.647537
-0.504735,-0.292920,0.406317,-0.566735,0.189108,0.801904
-0.053005,-0.351169,-0.906792,-0.729229,0.669384,0.141954
-0.083754,-0.289762,-0.826690,0.981128,-0.001726,-0.193352
0.584282,-0.225924,-0.730373,0.047439,0.311087,0.949197
0.249818,0.091343,-0.873794,0.152341,0.124837,0.980412
-0.244254,-0.094471,0.743772,0.883784,-0.464025,-0.060050
0.457923,0.179966,-0.953597,-0.103531,0.817343,0.566773
-0.225001,-0.341304,0.530612,-0.243820,0.803150,-0.543601
-0.059904,-0.094998,-0.859170,0.033559,0.670912,0.740777
0.000152,-0.068972,-0.394937,0.897727,0.281846,0.338599
-0.035550,-0.474948,-0.879981,0.457775,0.527450,-0.715708
0.596281,0.025079,-0.874035,0.378149,-0.561868,0.735736
0.043664,-0.248100,-0.848118,0.424529,0.512031,-0.746726
0.068409,-0.044776,-0.746017,-0.033080,-0.999452,-0.001102
0.080977,-0.060373,-0.882446,0.123308,-0.992366,-0.002394
0.760204,-0.324705,-0.747979,0.911779,0.347343,-0.219114
0.501003,-0.163672,-0.765240,-0.032910,-0.684404,0.728360
0.877754,0.018553,-0.765095,0.852022,-0.522847,0.026261
