0.015341,0.096249,-0.977326,-0.195262,0.252795,0.947612
0.120014,0.021549,-0.549843,-0.102298,0.525862,0.844396
-0.097869,0.072963,0.069538,0.963412,-0.107563,0.245493
-0.230483,-0.014893,0.093295,-0.270828,-0.962221,-0.027966
0.512864,-0.296479,0.014442,-0.077193,-0.391239,0.917046
-0.892668,0.188664,0.705564,-0.703735,0.586295,-0.401267
-0.858127,0.335309,0.028523,0.818672,0.191980,0.541220
-0.521960,0.129147,0.689064,0.102827,0.625080,-0.773758
-0.548451,0.277174,0.058959,0.335892,-0.152345,0.929498
0.477354,-0.111647,0.438567,-0.371050,-0.632460,0.679939
-0.150852,-0.060887,-0.303174,-0.602767,0.791804,-0.098582
0.883250,-0.638441,0.030292,0.787455,-0.501706,-0.358058
0.050688,-0.113819,-0.353937,0.104599,0.315307,0.943208
-0.071781,0.564179,0.440950,0.859946,0.252582,0.443504
-0.419703,0.136452,0.611258,0.150259,0.610383,0.777724
-0.367204,-0.229370,0.737625,-0.305858,0.941396,-0.142211
-0.058897,0.487599,0.422212,0.474400,-0.605259,0.639224
-0.199242,0.764479,0.506914,0.010142,0.673343,-0.739261
0.136519,0.216646,0.481641,0.959130,0.112268,-0.259741
-0.170578,-0.126256,0.740586,0.817475,0.574603,-0.039568
-0.402713,0.240003,-0.028270,-0.334691,-0.929609,-0.154303
0.078305,0.065875,0.396938,0.140739,-0.293755,0.945463
-0.218728,0.003979,0.646749,0.383012,0.922167,0.053948
-0.157130,0.045700,-0.982922,0.084775,0.153476,0.984509
0.176778,-0.201534,-0.939560,-0.013029,0.099945,0.994908
-0.288619,0.811051,0.572228,0.585266,-0.804552,-0.100794
-0.408188,-0.165811,0.630213,0.537981,-0.809471,0.235231
-0.596520,0.494250,0.418926,-0.333282,-0.827437,0.451964
-0.305930,0.010846,0.927537,-0.652777,-0.443268,0.614326
-0.349652,-0.503435,0.478861,-0.228741,0.811035,0.538423
-0.079511,0.124015,0.188793,0.743444,-0.587712,-0.319196
0.451509,-0.226263,0.503268,-0.095308,0.689559,0.717931
-0.163654,0.590426,0.727552,-0.770232,0.634224,0.067101
0.512461,-0.218672,0.293353,-0.613859,0.644773,0.455461
-0.352308,0.253380,0.588223,0.216781,0.766996,-0.603923
-0.414953,0.255260,0.057118,0.373415,-0.544600,0.750981
-0.222028,-0.019378,0.382930,0.754264,-0.648745,-0.101074
-0.038286,0.039989,-0.064411,0.944693,-0.291204,0.150852
-0.038608,0.354689,0.353143,0.932511,-0.121503,0.340088
-0.293288,-0.594473,0.530707,0.247905,0.344361,-0.905516
-0.736059,-0.020609,0.656208,0.616232,0.608238,0.500304
-0.210595,-0.008097,0.874318,0.498986,-0.858366,-0.119253
-0.239420,-0.542989,0.565151,-0.313591,0.658336,0.684291
-0.181125,-0.023716,0.525255,0.586651,0.809585,0.020309
-0.533072,0.537062,0.477525,0.765250,0.577483,-0.284440
-0.764644,0.188227,0.717226,0.497611,0.841999,-0.208378
0.113573,-0.137608,-0.938946,0.070606,0.055250,-0.995973
-0.206167,-0.072455,0.497130,0.836639,0.531319,0.133177
0.055922,-0.084098,-0.946781,-0.346211,-0.443811,0.826541
0.393939,-0.150191,-0.287973,-0.124801,0.424938,0.896578
-0.171704,-0.291994,0.166769,-0.153725,-0.985420,0.072916
-0.350537,0.862606,0.591183,0.715038,0.300586,0.631164
0.190386,-0.121049,-0.156732,0.780397,0.625122,0.014267
-0.284914,-0.368861,0.605625,0.629948,0.668842,0.394737
0.350861,-0.495482,-0.008124,-0.637128,-0.670200,-0.380656
-0.287329,0.488901,0.504964,0.898287,0.214494,-0.383501
0.209712,-0.043242,-0.957793,-0.168681,0.152530,0.973797
-0.251982,0.047364,0.915262,-0.736957,-0.661227,0.140260
-0.216072,-0.013883,0.440192,-0.831797,0.294806,-0.470323
0.053344,-0.067830,0.260281,0.943183,0.057192,-0.327314
-0.786626,0.080554,0.603387,-0.287019,-0.716294,0.636037
0.522688,-0.526575,0.088746,-0.788143,0.297408,0.538868
0.157857,0.220698,0.521067,-0.789867,-0.601359,0.120323
-0.648537,0.119168,0.456331,-0.256175,-0.786803,0.561530
-0.054791,0.033047,-0.415207,-0.607796,0.790609,-0.074310
-0.316236,0.112301,0.659783,-0.347959,0.934621,-0.073538
0.006804,0.284474,0.130953,0.770742,-0.632584,0.076123
-0.519223,0.240365,0.859515,0.356315,0.615718,0.702802
-0.304318,-0.025742,0.072427,0.647794,-0.761723,-0.011878
-0.314627,-0.367996,-0.170524,-0.407641,0.835302,0.368917
-0.039896,0.248896,0.397660,0.490499,-0.852282,0.181729
-0.774306,-0.023500,0.671300,0.665740,0.659729,-0.348636
0.485326,-0.182733,0.320396,0.527830,-0.580712,0.619814
-0.393936,0.564828,0.598043,0.910564,-0.136118,0.390313
-0.350939,-0.184754,0.509694,0.990271,-0.047029,0.130961
-0.783002,0.229083,0.681879,0.398231,0.862681,0.311759
-0.300212,0.379780,0.531646,0.983421,0.081016,0.162232
-0.253269,-0.181717,0.740586,0.921426,0.001216,-0.388553
-0.809250,0.032614,0.637109,0.918195,-0.145708,0.368356
-0.149643,-0.308770,0.132650,0.435696,0.103065,-0.894174
-0.333225,-0.043891,0.065350,0.445860,-0.875110,-0.188128
0.427433,-0.169787,0.402282,0.768840,0.197579,-0.608152
-0.578324,0.451659,0.647760,-0.734912,-0.664265,0.136586
-0.582430,-0.432280,0.185977,-0.304841,-0.768998,-0.561885
0.014372,0.033408,-0.552984,-0.268856,-0.878559,-0.394780
-0.216875,-0.009328,0.445030,-0.816458,0.421623,-0.394501
0.009463,-0.052859,0.657111,-0.269775,-0.959212,-0.084462
-0.114214,0.008896,0.685742,-0.524926,0.849900,0.046059
0.041427,-0.055609,-0.940535,-0.542713,-0.445532,0.712014
-0.431539,-0.275942,0.554789,0.289151,-0.916152,-0.277591
-0.354080,0.171089,0.555764,0.662800,0.442869,0.603791
-0.595394,0.159159,0.497599,-0.250701,0.830481,0.497443
-0.059865,0.081931,0.013612,-0.308778,-0.818607,0.484293
0.061074,-0.074406,-0.580243,-0.238851,-0.841132,0.485228
-0.554973,0.087355,0.756652,0.949810,0.310242,0.040143
0.295625,-0.385491,-0.012817,-0.667875,-0.155401,0.727869
-0.316477,-0.384842,0.163303,0.781503,-0.377328,0.496867
-0.187003,-0.542336,0.613604,0.104571,0.107106,0.988733
0.168566,0.021765,0.449543,-0.437798,-0.844017,0.309787
-0.181368,0.236172,0.658086,-0.526760,-0.848774,-0.045897
-0.904989,0.058575,0.758783,0.287127,0.928815,-0.234223
0.028384,0.017427,-0.647218,0.565596,0.781730,0.262678
-0.315189,0.357655,0.460880,0.651644,0.673970,-0.348030
-0.002455,0.301541,0.383074,0.994992,0.093476,-0.035408
-0.199967,-0.231829,0.143012,0.443745,0.879089,0.174049
0.422521,-0.155253,0.417663,-0.319364,-0.646589,0.692769
-0.825998,0.077734,0.822327,0.284327,-0.931419,0.227192
-0.207295,0.128861,0.661046,-0.491168,-0.501296,-0.712359
-0.163654,0.378191,0.580604,-0.576832,-0.212009,-0.788871
0.026290,0.159883,0.711304,0.117874,0.965459,-0.232369
-0.125407,0.068479,0.326967,0.999992,0.002783,0.002829
0.003020,0.058283,-0.470665,-0.631811,-0.775121,-0.001321
-0.282579,0.044760,0.558905,0.361053,-0.099280,0.927245
-0.272030,-0.192420,0.563166,0.474781,0.578400,0.663353
0.011072,-0.002240,-0.670759,0.930401,-0.033711,-0.364989
-0.306090,-0.199654,0.615229,0.193273,-0.975922,-0.101104
-0.219291,0.593825,0.639744,0.843874,0.442423,-0.303544
0.032249,0.179480,0.423981,0.861599,0.505854,-0.041932
-0.265831,0.068554,0.035672,0.819343,0.089265,0.566312
-0.228068,0.407837,0.745821,0.199491,-0.060197,0.978049
-0.407704,-0.064070,0.263458,-0.306252,-0.606602,-0.733651
0.027900,-0.010630,-0.830740,0.829749,0.288166,0.477992
-0.304802,0.909972,0.510236,-0.317934,-0.275853,0.907096
-0.151252,0.189313,0.623100,0.919519,0.096025,0.381135
-0.179756,-0.274278,0.329458,0.341441,0.910399,0.233647
-0.252547,-0.046932,0.470520,0.719243,-0.692514,0.055805
-0.364707,-0.481089,0.085749,-0.249570,0.761135,0.598655
-0.217359,-0.016416,0.780120,0.742734,-0.613510,0.268238
-0.270259,-0.023429,0.029642,0.900583,-0.147805,0.408783
-0.908854,0.088653,0.776041,0.038834,0.991801,-0.121748
-0.727525,0.333575,0.568618,0.935121,-0.206511,0.287926
-0.271870,0.804325,0.573311,-0.591413,0.752298,-0.290307
-0.497240,0.043533,0.576525,0.072632,-0.979958,0.185493
-0.097466,0.067252,0.198180,0.440973,-0.857519,-0.264961
-0.040139,0.036882,-0.274470,0.916280,0.355966,-0.183629
-0.752648,-0.002094,0.694299,0.898929,-0.085454,-0.429680
-0.009782,-0.274565,0.513846,0.575461,-0.701713,-0.420053
-0.416400,0.097767,0.687872,0.941682,-0.335880,-0.020503
-0.253029,-0.398074,0.131386,-0.541321,-0.040211,-0.839854
0.008495,0.024369,-0.505723,0.712041,0.449651,0.539270
-0.282579,-0.019669,0.930859,0.766020,0.348151,-0.540374
-0.053101,0.014607,-0.247319,0.543831,-0.186550,0.818197
-0.827448,0.068262,0.719356,0.804193,0.539969,0.248410
0.029430,-0.188011,-0.948984,-0.153399,-0.073824,0.985403
-0.494584,0.637647,0.499043,-0.744475,0.488496,-0.455114
0.300296,-0.362572,0.393256,0.339765,0.800289,0.494063
-0.154555,0.557020,0.701773,-0.647927,-0.690581,0.321385
0.410203,-0.214837,0.258331,0.728195,0.684339,-0.037582
-0.303918,-0.296840,0.374806,0.994302,-0.089754,-0.057519
0.313177,-0.556729,-0.014695,0.988109,0.148206,0.040940
0.132172,0.097476,0.383904,0.931124,0.293754,0.216141
-0.790410,0.456360,0.032386,0.164507,-0.565708,0.808030
-0.014613,0.019382,-0.451673,0.730110,0.118527,0.672972
-0.576471,-0.527295,0.163231,-0.414001,0.426790,0.804024
-0.289263,0.173910,-0.107521,0.339419,0.881681,-0.327771
-0.017916,-0.084314,-0.959021,-0.359075,-0.180053,0.915776
0.554492,-0.319398,0.293353,-0.173000,-0.982298,0.071837
-0.601997,0.255693,0.877640,0.766449,-0.641652,-0.028961
-0.000120,-0.006362,0.347727,0.783988,0.600253,0.158301
-0.286203,-0.483547,0.581290,0.095815,-0.995378,0.006465
-0.139015,0.089015,-0.985775,-0.002138,0.420125,0.907464
-0.245701,-0.179404,-0.060223,0.874536,-0.470253,0.118531
-0.154555,-0.114252,0.630935,-0.375508,-0.695561,-0.612527
0.494668,-0.274203,0.323970,-0.432123,-0.699770,0.568851
-0.322517,-0.458743,0.409756,0.992642,0.045365,0.112268
-0.519142,-0.445366,0.097375,-0.804764,0.285319,-0.520526
0.338380,-0.416730,-0.234105,-0.630524,-0.015222,0.776021
0.056647,0.016125,-0.800809,0.738732,0.630764,-0.237511
-0.303918,-0.369730,-0.181536,0.890382,0.347078,0.294545
-0.159386,-0.190033,0.504062,0.663902,0.734307,0.141520
0.969243,-0.630629,-0.011554,0.555792,-0.541342,-0.630907
-0.856918,0.002822,0.676102,0.567127,0.628284,-0.532566
-0.146906,0.075276,0.185110,-0.532413,0.833149,0.149663
-0.263737,-0.194230,0.658230,-0.512811,-0.825527,-0.235650
-0.267199,0.241812,0.550818,0.763016,0.613802,0.202618
-0.129754,0.043966,0.882551,-0.774662,-0.199921,0.599943
-0.156648,0.014174,-0.980828,-0.498550,-0.311011,-0.809148
-0.593704,0.216646,0.879770,-0.437744,-0.811513,-0.387075
-0.703692,0.387447,-0.027873,0.350204,-0.471078,0.809594
0.008817,-0.020318,-0.799076,0.985150,0.127270,-0.115245
0.002617,0.170149,0.274254,0.971916,0.191895,-0.136216
0.045051,-0.262057,0.387190,0.463818,0.882549,0.077334
0.785501,-0.601486,-0.049500,0.911049,-0.283208,0.299639
0.334275,-0.097908,0.187457,-0.729632,-0.673985,-0.115680
0.088210,-0.133124,-0.344622,0.089949,0.493977,0.864810
-0.874632,0.044473,0.785933,0.409789,0.847426,-0.337553
0.628973,-0.907584,-0.070405,0.197799,0.979946,0.024110
-0.313658,-0.250993,-0.218832,0.533585,-0.478071,-0.697664
0.078870,0.044981,-0.970322,-0.035095,0.293328,0.955367
-0.183943,-0.020102,0.063328,-0.005019,0.767387,0.641165
-0.121783,0.111793,0.359858,-0.720989,-0.298172,-0.625515
-0.225815,-0.530768,0.554320,0.835981,-0.548631,-0.011822
-0.239823,0.396053,0.624219,0.972452,0.055998,-0.226276
-0.310117,0.779234,0.583240,0.728695,-0.315193,0.607994
-0.101896,0.071590,0.071560,0.992117,0.043736,0.117433
-0.047063,-0.349989,0.513991,0.962428,-0.230876,-0.142932
0.727447,-0.837731,0.075098,0.916705,0.214482,0.337119
-0.286926,0.202258,0.693613,0.448843,0.881193,0.148455
0.124360,0.125895,-0.970719,-0.151954,0.334058,0.930223
-0.558676,0.506039,0.422970,-0.055821,-0.915465,0.398508
-0.280164,0.023937,0.396830,-0.609858,0.010521,-0.792441
0.175331,-0.197050,-0.939091,0.001734,0.052939,0.998596
-0.545070,0.392800,0.591328,0.389129,-0.469911,0.792314
-0.313820,-0.184974,0.301946,0.809079,0.523637,0.266823
-0.214460,-0.288812,0.125645,-0.431911,-0.611868,0.662624
-0.239904,0.228435,0.098819,0.449221,0.641888,-0.621433
0.043119,-0.049822,-0.871755,0.998063,-0.061586,0.008749
0.393776,-0.443415,-0.012312,-0.536695,0.282906,0.794936
-0.557954,-0.497649,0.149655,0.010537,0.731087,0.682203
0.581386,-0.497432,-0.015092,0.137932,0.967077,-0.213862
0.292081,-0.070575,0.172546,0.478118,0.828867,0.290485
0.196345,0.038541,-0.958263,-0.130033,0.273480,0.953048
-0.123876,0.457300,0.616926,0.866742,0.467134,0.174769
-0.782761,0.176081,0.592736,0.941597,-0.293366,-0.165325
-0.183621,0.598018,0.680001,0.720941,0.525315,-0.451982
-0.070171,0.687180,0.484782,0.150446,-0.588462,0.794404
0.015581,0.025742,-0.620139,0.902308,-0.397619,0.166554
0.130963,-0.231613,-0.311369,0.909493,0.057386,-0.411739
-0.151818,0.011716,0.416182,0.467905,-0.655071,0.593252
-0.338137,0.504088,0.561758,0.607010,0.111580,0.786822
0.137647,0.006870,0.398563,0.129054,-0.901458,0.413180
0.052138,0.159592,0.703975,0.259454,0.846618,-0.464673
0.561335,-0.575385,0.077734,-0.427668,-0.774095,0.466774
0.059062,-0.009836,-0.708633,0.955698,0.050872,-0.289918
-0.233383,0.362642,0.646568,-0.203716,0.948231,0.243635
0.777287,-0.698024,-0.049067,-0.285837,0.853743,0.435223
0.060912,0.019307,0.099505,0.539247,0.771813,-0.336922
0.697896,-0.654061,0.017475,0.616374,0.647187,0.448589
-0.354483,-0.377613,-0.034986,0.901418,-0.420349,-0.103697
-0.194652,-0.122496,0.685706,0.934619,0.229708,-0.271517
-0.314545,0.425337,0.744413,-0.081931,-0.983675,0.160220
-0.260919,0.179334,0.717659,-0.249629,0.958972,0.134384
0.032730,0.178394,0.363036,0.653298,0.673970,-0.344915
-0.125004,0.068337,0.446944,0.923132,-0.303246,-0.236365
0.614237,-0.441605,0.051125,0.800465,0.258169,-0.540929
0.007369,0.030372,-0.622342,0.852572,-0.482941,0.199722
0.181852,-0.083088,0.360581,-0.504164,0.688840,-0.520882
-0.550383,0.067614,0.271654,0.120837,0.508177,0.852733
-0.587745,0.194300,0.699173,-0.193893,-0.835420,0.514275
-0.268005,-0.058283,0.920533,0.831384,0.165424,0.530506
-0.081364,0.052859,-0.122974,0.965229,0.227949,-0.127954
-0.675751,0.010343,0.538723,-0.258279,-0.901027,0.348486
-0.794276,0.351366,0.000469,0.910894,-0.154360,0.382682
-0.530497,0.248177,0.314727,0.990171,0.085525,0.110669
-0.311968,-0.450428,0.476441,0.829487,-0.250958,-0.498970
-0.108821,0.175141,0.449291,0.828397,-0.476399,0.294621
-0.866177,0.054090,0.741669,0.719492,-0.214835,0.660437
0.199083,-0.111144,0.451890,0.003226,-0.823671,0.567059
-0.181125,0.172391,0.486804,0.182237,0.103171,-0.977827
-0.893956,0.246800,0.747771,0.682008,-0.047523,0.729799
0.642175,-0.953574,-0.073510,0.038917,0.971979,0.231822
-0.100447,-0.007086,0.406001,0.176693,0.803629,0.568295
0.179840,-0.254466,0.391739,-0.300318,-0.946809,0.115595
-0.695800,0.267627,0.485829,0.985406,0.168731,0.022485
0.165910,0.010343,0.220565,-0.675673,-0.716502,0.173465
0.317848,-0.147442,0.324584,-0.204817,-0.256056,0.944714
-0.242079,0.358379,0.655631,-0.192719,0.973837,-0.120418
0.057612,-0.010339,-0.256815,0.317227,0.918414,0.236397
-0.181447,0.670545,0.468137,0.704042,0.450613,0.548883
-0.289020,-0.115337,0.151966,0.814050,0.318024,0.485987
-0.046982,-0.044253,-0.964798,0.591879,-0.228980,-0.772818
0.009863,-0.264516,0.506228,-0.216367,0.796351,0.564810
-0.379765,-0.020393,0.219663,0.962565,0.270853,-0.010386
-0.266234,-0.482391,0.520562,-0.213866,0.860001,0.463314
-0.260840,0.784221,0.489331,-0.309677,-0.664444,0.680157
0.202867,0.034781,0.346608,0.373941,0.926556,-0.040775
0.492009,-0.234940,0.267213,0.381486,-0.909676,-0.164192
-0.351745,0.259599,0.822364,-0.639402,-0.764314,-0.083597
-0.296187,-0.445149,0.473192,0.965928,0.257620,-0.024806
0.026774,-0.064356,-0.946312,0.724706,0.272019,-0.633093
-0.245541,-0.512183,0.537603,-0.532461,-0.840747,-0.098132
-0.483876,0.011208,0.712965,-0.023850,0.696895,0.716777
0.385646,-0.281654,0.061306,-0.591800,-0.738824,0.322354
-0.714804,0.442475,0.003972,-0.680537,0.457504,-0.572328
-0.216716,0.054307,0.391631,-0.398885,-0.904852,0.148772
0.139418,-0.049893,-0.945012,0.202725,0.235360,0.950530
-0.023228,0.196326,0.350363,0.937284,-0.052346,-0.344613
0.514876,-0.226771,0.459111,0.323120,0.936251,-0.137942
-0.372760,-0.269508,0.557786,-0.395522,-0.756441,-0.520922
-0.235233,-0.211730,0.665632,-0.272539,0.928588,0.251887
-0.238776,-0.193793,-0.094812,-0.706422,0.702976,0.082420
0.942108,-0.502133,0.003141,-0.908389,0.375476,0.183976
-0.243367,-0.030151,0.704481,0.742977,0.668114,-0.040117
-0.717460,0.088799,0.601365,0.635956,0.487800,-0.598006
-0.049557,0.046137,-0.275192,0.782391,0.620360,0.054942
0.035871,-0.053292,-0.873921,0.998063,-0.061586,0.008749
0.617055,-0.334078,0.387623,0.209958,0.967143,0.143361
0.923669,-0.664834,0.004910,-0.383809,0.653496,0.652406
-0.555698,0.058358,0.446474,0.827590,0.294586,0.477822
-0.225893,0.841205,0.496841,-0.265328,0.015468,-0.964034
-0.316398,0.236026,0.764270,0.449368,0.875785,-0.176263
-0.538306,-0.009836,0.453226,0.970901,-0.201106,-0.130030
-0.510608,0.347963,0.599235,0.846183,0.256143,0.467296
0.911351,-0.642921,0.027837,0.806109,-0.354337,-0.473955
-0.347718,-0.076145,0.238473,0.928668,0.370890,0.003980
-0.270502,-0.086486,0.749034,0.236874,-0.880857,-0.409855
-0.386046,-0.440016,0.050042,-0.195664,-0.683936,-0.702813
-0.811990,0.532070,0.052280,0.217420,-0.881981,0.418136
-0.174925,-0.131606,0.695635,0.994445,-0.048568,-0.093380
-0.806434,0.066311,0.640647,0.892114,-0.413712,-0.181587
0.171144,0.044619,0.302199,-0.495133,-0.859716,0.125423
-0.736543,-0.077156,0.691663,0.735474,0.543738,0.404260
-0.353274,-0.099426,0.259089,0.781215,0.542006,0.309730
-0.744595,0.076361,0.654836,0.493129,-0.868040,-0.057717
0.785983,-0.560343,-0.049428,0.921288,0.230611,0.313125
-0.230886,-0.387155,0.608658,0.226237,-0.390386,0.892421
-0.176213,-0.285343,0.374950,-0.080843,-0.039292,0.995952
-0.265268,0.196979,0.728779,0.170415,0.985371,-0.001360
-0.060187,0.081494,0.066036,0.893182,0.439660,-0.094472
0.718266,-0.917563,0.042207,-0.691704,0.669717,-0.270233
-0.736381,0.088295,0.505217,0.262554,-0.072755,0.962170
0.470189,-0.095234,0.456981,0.559134,0.756594,-0.339021
-0.031521,0.200303,0.320071,0.916997,0.323257,-0.233712
0.413987,-0.065226,0.466874,0.537860,0.692771,-0.480390
-0.132413,0.017211,0.354732,0.880352,-0.048756,0.471808
-0.667620,0.522961,0.028812,0.422371,-0.772537,0.474119
0.080801,-0.012872,-0.567498,0.450124,0.889358,-0.080198
0.099240,-0.257427,0.388562,0.142110,0.989841,0.004504
-0.968919,0.115337,0.795213,0.093718,0.914634,-0.393271
-0.400620,-0.253742,0.694841,0.891971,-0.406589,0.197670
0.036999,-0.023932,-0.284110,-0.245585,-0.683415,0.687483
-0.684769,0.143827,0.477236,-0.882884,0.299739,-0.361487
-0.516326,-0.025958,0.420695,0.842026,0.341889,0.417257
-0.040058,0.224458,0.234971,0.968253,0.115842,-0.221512
0.001089,-0.035867,0.206448,0.739702,0.564348,0.366541
-0.003664,0.154459,0.699317,-0.127866,-0.849273,0.512236
-0.158017,0.265818,0.610896,0.666673,-0.085048,0.740482
-0.000361,0.384048,0.353829,0.918918,-0.325024,0.223492
-0.063085,-0.182587,0.392750,0.776653,-0.476469,-0.412053
-0.291597,0.517390,0.559483,0.361966,0.412762,-0.835828
0.309152,-0.093208,-0.942774,-0.175332,-0.018144,0.984342
0.616814,-0.492732,-0.169910,0.164902,-0.872696,-0.459575
-0.072990,0.027406,-0.093692,-0.549021,0.597543,0.584395
0.090866,0.036013,-0.960140,-0.061398,0.423218,0.903945
-0.176616,0.214620,0.384807,-0.617441,-0.673452,0.406484
-0.009782,0.239495,0.537639,0.190444,0.537521,0.821463
-0.028543,-0.013596,-0.964220,0.422440,-0.426600,-0.799723
-0.095616,0.012943,-0.151533,-0.657722,-0.751981,0.043885
-0.067112,-0.144259,0.417265,-0.504922,-0.701585,-0.502824
-0.143202,0.009112,-0.981153,0.079586,0.307123,0.948336
-0.863683,0.261263,0.766942,0.593376,0.065454,0.802259
-0.087079,0.060238,0.192909,0.970937,-0.060461,0.231572
-0.492491,0.187362,0.288804,0.107238,-0.552233,0.826764
-0.150368,-0.113382,0.536484,-0.667938,-0.698715,-0.256234
-0.039011,0.433873,0.389067,0.815563,-0.325804,0.478235
-0.105196,0.170441,0.447594,-0.736621,0.400809,-0.544740
0.046904,-0.013013,0.388418,-0.544013,-0.296053,0.785113
-0.408510,-0.289028,0.541647,-0.019672,0.998736,0.046260
-0.229759,-0.217586,0.657039,-0.217621,0.854542,0.471593
-0.431861,0.205802,-0.099433,0.429685,0.857381,0.283318
-0.475501,0.213901,0.918114,-0.487341,0.771002,0.409945
-0.837029,0.368645,0.027873,0.798714,0.002713,0.601704
0.042555,-0.108827,0.228256,0.562257,0.821718,0.092985
-0.210435,-0.071661,0.529046,0.961101,-0.226280,0.158373
-0.852490,0.362863,0.038849,0.747211,0.064207,0.661478
0.321229,-0.156119,-0.936202,-0.120724,-0.036297,0.992022
0.543864,-0.361918,0.059465,-0.441579,-0.501678,0.743860
-0.866661,0.086270,0.756797,-0.102966,-0.994030,-0.036093
-0.278633,-0.114684,0.445391,-0.501714,0.560143,-0.659183
-0.320101,0.236750,0.821244,-0.021694,0.999460,-0.024688
-0.375094,-0.076432,0.553814,0.569033,0.319857,0.757557
-0.378477,-0.060958,0.851934,-0.118753,0.974662,-0.189555
0.230164,-0.011716,0.489800,0.643368,0.742335,0.187126
-0.130560,0.194159,0.667654,0.421972,0.844167,-0.330638
-0.099481,0.215274,0.451060,0.827242,-0.557144,0.072537
-0.398607,-0.307323,0.592519,0.840485,0.421178,-0.340873
-0.146343,-0.597726,0.534498,0.703582,0.600514,-0.379942
-0.397076,-0.685516,0.508792,0.463511,0.440532,0.768823
0.532590,-0.185915,0.420479,0.855690,-0.035684,-0.516257
-0.244735,-0.201313,0.544174,0.801181,0.238325,0.548918
-0.206167,-0.194446,0.502437,0.759794,0.606983,0.232990
-0.169370,0.076290,-0.978590,-0.355836,0.199716,0.912959
-0.103265,0.124809,0.632884,0.443350,-0.820850,0.360065
-0.734771,0.160245,0.763223,0.529697,0.842957,-0.094045
-0.133700,0.130957,0.490595,0.717436,-0.102675,0.689016
-0.407704,0.194592,0.793985,-0.025050,0.998695,0.044512
-0.373806,-0.233060,0.673466,0.473478,0.659041,-0.584367
0.024600,-0.007157,-0.669964,-0.443013,0.893995,0.067177
-0.593623,0.505748,0.415099,0.001038,-0.587815,0.808995
-0.194330,-0.404800,0.574430,-0.749965,-0.316061,0.581083
-0.088529,-0.009112,0.711738,0.607025,0.783748,-0.131376
-0.145778,-0.036953,0.615374,0.304843,-0.873526,0.379504
-0.248841,0.728323,0.516843,0.935039,0.334172,0.118456
0.065987,0.307976,0.544211,-0.438694,-0.897263,-0.049659
-0.178066,0.082580,-0.989818,-0.268627,0.463126,0.844603
-0.032086,0.017864,-0.306423,0.745297,0.370336,0.554422
-0.073071,0.109697,-0.985053,-0.201990,-0.280584,-0.938335
-0.859174,0.296549,0.021410,0.809052,0.136919,0.571567
-0.268489,-0.461638,0.505434,0.512331,-0.754438,-0.410293
-0.515036,-0.029573,0.379933,0.251804,0.637130,0.728464
-0.280083,-0.212594,0.151424,0.989457,0.141753,0.029691
0.549901,-0.473061,-0.167311,0.380533,0.924749,-0.005858
-0.885422,0.093067,0.780698,0.347108,0.915214,-0.204695
-0.127823,-0.215274,0.508647,0.223659,-0.824691,-0.519481
-0.815130,0.218672,0.549374,0.611010,0.514477,-0.601648
0.501268,-0.596208,0.067264,-0.490634,0.365417,0.791043
-0.353033,-0.153444,0.270751,0.905238,0.370315,0.208353
-0.497484,0.196763,0.912626,-0.149537,0.939387,0.308530
0.131288,-0.044111,-0.323140,0.303655,0.936474,0.175526
0.460205,-0.239570,0.500343,0.065812,0.769703,0.635001
-0.056081,0.132330,0.214067,0.937251,-0.333438,-0.101878
-0.072427,0.136527,0.666462,-0.628704,-0.035381,0.776839
-0.540883,-0.070213,0.553526,0.825754,0.558482,0.078912
-0.426949,-0.515727,0.133155,-0.745167,-0.507132,-0.433063
-0.261965,-0.039989,0.672744,-0.484411,-0.863019,0.143331
0.593301,-0.385350,0.064195,0.467274,0.590250,-0.658225
-0.494343,0.174995,0.287612,-0.023868,-0.464333,0.885339
-0.498934,0.257648,-0.094090,0.651244,0.756214,0.063418
0.051010,-0.053583,-0.503665,-0.218697,-0.975568,0.020949
-0.152542,0.048737,-0.976423,0.175607,0.057412,0.982785
0.449013,-0.234508,0.094631,0.450351,0.821117,-0.350644
-0.693787,0.030950,0.561072,0.917159,0.398491,-0.004851
-0.049879,0.037893,0.728346,0.425258,0.899383,-0.101322
0.656187,-0.786750,-0.011987,0.759029,0.078752,-0.646277
-0.062441,-0.393233,0.389140,0.753024,0.494331,-0.434271
-0.520754,-0.029070,0.372351,0.897798,0.271422,0.346826
-0.295703,0.210141,0.766076,0.741122,0.501254,0.446635
-0.153830,-0.269940,0.459617,0.959412,-0.250869,-0.128813
-0.213656,0.832020,0.540022,0.873257,0.255633,0.414817
-0.265027,-0.101165,0.623136,0.681739,-0.721863,0.118934
0.558035,-0.960949,-0.014839,0.004898,0.987066,0.160237
-0.194814,0.298575,0.626349,-0.695523,-0.671303,0.256123
0.635816,-0.518256,-0.147092,-0.020995,0.938565,0.344463
-0.338218,-0.497071,0.470015,0.407738,-0.527202,-0.745525
-0.290228,-0.532573,0.559266,0.150412,0.961930,0.228183
0.446516,-0.176946,0.109687,0.414326,-0.910118,-0.004391
0.044407,0.016200,-0.762718,0.803383,-0.307895,0.509683
-0.100528,0.192133,0.598657,-0.443777,0.612909,-0.653762
-0.285557,-0.023932,0.910423,0.744656,0.554778,0.371092
-0.225893,0.835635,0.507564,-0.495931,0.506772,-0.705149
-0.267280,0.238917,0.546810,0.939376,0.270644,0.210534
-0.408350,-0.056474,0.165253,0.894519,0.268180,0.357652
-0.601835,0.142887,0.710727,-0.060983,-0.952152,0.299480
-0.173960,0.163498,0.495685,0.210514,-0.085157,-0.973875
0.392570,-0.737362,0.054591,-0.241385,0.264616,0.933655
-0.103587,0.082871,-0.981659,0.002889,-0.012417,0.999919
-0.195217,-0.014245,0.327292,0.649321,-0.759281,-0.043300
-0.135150,0.449492,0.589847,0.978824,0.195699,0.060043
-0.275092,-0.189384,-0.047117,0.869345,-0.487777,-0.079452
-0.158258,0.176152,0.735892,0.396546,0.742811,0.539428
-0.128226,0.098923,0.427411,-0.597068,0.792699,0.123038
-0.777286,0.239354,0.487706,-0.661390,0.239390,-0.710814
-0.295462,-0.189746,0.157707,0.984035,0.146734,-0.100719
-0.063328,0.249187,0.385421,-0.465302,0.740120,-0.485506
-0.431699,-0.404800,0.064195,-0.743162,0.432986,-0.510130
-0.651515,0.283750,0.108171,-0.544338,0.123052,-0.829792
-0.362614,-0.322364,0.602484,0.332043,0.842746,-0.423706
-0.288457,-0.329523,0.619273,-0.557420,-0.147295,-0.817060
-0.225090,-0.092559,0.456909,0.362522,0.780865,0.508750
-0.247876,-0.453902,0.472506,0.078926,-0.985219,-0.152035
0.094490,0.022202,-0.962415,-0.118183,0.420361,0.899627
-0.375256,-0.482682,0.158284,-0.493052,0.720847,-0.487114
-0.044889,0.001013,-0.493772,0.883019,-0.195222,-0.426809
-0.211804,-0.056328,0.686248,0.924663,-0.033860,0.379279
-0.501749,0.075059,0.647507,0.106062,-0.869487,0.482435
-0.262852,0.607710,0.635809,0.808232,0.540790,-0.233039
0.131528,-0.045193,-0.259234,0.327601,-0.444474,-0.833739
-0.163411,-0.020318,0.399357,-0.282840,0.852904,0.438812
-0.476145,0.560996,0.457703,-0.897019,0.146504,-0.417005
-0.168807,-0.049099,-0.176770,-0.088309,0.711949,0.696656
-0.304562,0.330106,0.672167,0.960064,0.227194,-0.163278
-0.497484,0.014390,0.363036,-0.584775,-0.479990,-0.653948
0.162285,-0.276445,0.369607,-0.468571,-0.883395,-0.007371
-0.112605,0.603225,0.461711,0.809946,0.301089,0.503321
-0.102378,0.112010,0.085352,0.995724,-0.015395,-0.091086
-0.225571,-0.057851,0.695527,0.971908,-0.149952,0.181407
-0.437095,0.402920,0.063148,-0.235042,0.392476,-0.889223
-0.530175,0.084822,0.781745,0.016485,-0.655642,0.754892
-0.347558,-0.357871,0.018558,0.710267,0.190388,0.677697
-0.751036,0.242315,0.499982,-0.302989,0.453871,-0.837973
-0.716576,0.349340,-0.000650,-0.583781,0.073264,-0.808599
-0.268086,0.899269,0.533054,0.165046,-0.661852,0.731240
-0.861105,0.081423,0.803047,0.547940,0.731173,-0.406383
-0.278473,0.340879,0.658411,-0.214549,0.793323,-0.569743
0.235558,-0.065297,-0.946673,-0.046929,0.197420,0.979195
-0.228955,-0.025380,0.860996,0.036328,-0.987312,0.154579
0.574862,-0.486513,0.100877,0.849615,-0.431145,-0.303757
0.431298,-0.239425,0.267538,0.532119,0.845376,-0.046783
-0.142718,0.109264,-0.128462,0.574550,0.743490,0.342220
-0.444825,-0.332851,0.526411,0.716695,0.300454,-0.629346
-0.064534,0.521005,0.382027,0.993731,0.098532,0.052832
-0.294253,-0.079689,0.483374,0.790975,-0.611700,0.013451
-0.108256,0.045775,0.745532,-0.388769,-0.921170,-0.017435
0.007045,-0.021549,-0.961043,-0.416968,0.236264,0.877677
-0.830026,0.080122,0.705094,-0.139832,0.719569,0.680196
-0.191593,-0.019378,-0.023974,-0.577051,-0.727160,-0.371821
-0.307621,0.637572,0.666462,0.926798,0.237196,-0.291175
-0.270743,-0.052713,0.365924,0.881443,-0.450711,0.141132
-0.207779,-0.326200,0.416616,0.674117,-0.734902,0.074067
0.262290,-0.054161,0.169585,0.474945,0.855090,0.207963
-0.026531,0.076577,-0.982850,0.345280,-0.232731,-0.909185
-0.616812,-0.028346,0.608802,-0.166300,0.850152,0.499585
-0.103747,0.466052,0.617323,0.700421,0.711587,-0.055268
-0.271305,0.064577,0.013251,0.950942,0.261135,0.165885
-0.022987,0.066890,-0.019822,0.990969,0.125197,-0.048029
-0.571722,-0.059947,0.516049,0.921486,0.387637,-0.024514
-0.827289,0.077879,0.671264,-0.312794,0.691197,-0.651465
0.887678,-0.557161,-0.040113,-0.467361,0.842021,-0.269395
0.206250,-0.065513,0.281980,0.887228,-0.058293,-0.457633
0.715126,-0.903391,0.064050,0.799467,-0.480719,0.360224
-0.453440,-0.450790,0.139943,-0.407461,0.394721,0.823512
0.518501,-0.468506,-0.186555,0.550898,0.747920,-0.370307
0.027015,-0.015979,-0.556089,-0.216748,-0.941796,0.256984
-0.252144,-0.211151,0.201358,0.735285,0.636707,0.232293
0.008013,0.323666,0.299310,0.954569,0.114666,-0.275045
-0.308103,-0.009253,0.727696,0.651504,0.258170,-0.713365
-0.068883,0.005859,-0.974185,-0.202061,0.228850,0.952260
0.555057,-0.531055,0.084558,-0.794469,0.171354,0.582630
0.023472,-0.148819,-0.956169,-0.264708,0.082264,0.960813
0.160836,0.173331,0.445355,-0.912375,0.135981,0.386110
0.792263,-0.471763,-0.058598,0.957960,-0.276175,-0.077724
-0.841056,0.077447,0.669206,-0.734625,0.347063,0.582986
-0.379603,0.297851,0.800881,0.726507,0.589338,0.353369
-0.560126,0.311882,-0.075134,-0.478225,-0.775831,0.411567
-0.768509,0.077014,0.622956,-0.215306,0.951038,-0.221745
-0.477111,0.252440,0.074918,0.027861,-0.701521,0.712104
-0.772937,0.159522,0.562732,0.909972,-0.269176,0.315430
-0.410522,-0.669680,0.576452,0.388501,0.850211,0.355258
0.049398,-0.261987,0.381052,0.379501,0.924910,0.022827
-0.382181,0.642272,0.629635,-0.698222,0.502150,0.510227
0.053344,-0.023791,-0.835867,0.899029,-0.088032,0.428950
-0.019203,0.024661,-0.312705,0.883227,0.266605,0.385787
-0.481944,0.574158,0.503123,0.900390,-0.259682,-0.349089
-0.090382,-0.329960,0.369390,0.515350,0.640669,-0.569172
-0.263980,-0.029648,0.873380,-0.116934,0.986075,-0.118244
-0.422762,-0.063271,0.276781,0.117616,0.983484,-0.137571
-0.245944,0.228797,0.361230,0.663340,0.583948,-0.467957
-0.728009,0.382962,0.538687,0.913416,0.351274,0.205617
0.712067,-0.518909,-0.110878,-0.641986,0.323007,0.695356
-0.388621,-0.303421,0.111564,0.752750,-0.579202,-0.312878
-0.191512,0.502786,0.629491,-0.649959,-0.665194,0.367519
-0.214381,-0.263359,0.569737,0.628695,0.314559,0.711193
-0.195377,-0.024802,0.781998,-0.556848,0.829090,-0.050292
-0.444582,-0.460769,0.504964,0.920167,0.369818,-0.128561
-0.092635,0.010846,0.736037,0.276704,0.906461,-0.319003
0.116389,0.129368,-0.975160,-0.152024,0.314478,0.937012
-0.783164,0.078458,0.640250,0.536308,-0.797755,-0.275611
-0.752566,0.067397,0.605409,0.350573,-0.747409,0.564339
-0.125085,-0.007810,-0.096148,-0.245033,-0.958779,-0.143882
-0.054310,0.184613,0.231758,0.965622,0.081353,-0.246891
-0.220259,0.597876,0.712387,-0.519044,0.845028,0.128536
-0.727606,0.130595,0.639131,0.018526,0.979672,0.199748
0.381861,-0.198277,0.401957,0.671597,0.737131,-0.074802
-0.359876,0.205219,-0.085966,-0.121765,-0.939501,0.320172
-0.105037,0.052718,0.022638,0.765566,-0.574837,-0.288914
-0.782599,0.125029,0.639311,-0.347811,0.863482,-0.365276
-0.093763,0.081137,0.359750,-0.758447,0.542015,0.361909
-0.151977,-0.033770,-0.246489,-0.663673,0.746207,0.052080
-0.726237,0.484130,0.027476,-0.540093,0.635479,-0.551785
0.515119,-0.623903,0.070982,0.719073,0.592435,-0.363256
-0.445307,-0.032107,0.325956,0.943247,0.170098,0.285222
0.518501,-0.225540,0.292089,-0.653712,0.547247,0.522668
-0.460687,0.551450,0.430588,-0.393180,0.643066,-0.657173
-0.780667,0.262419,0.605697,0.974092,-0.001743,0.226146
-0.052054,0.100296,0.107196,-0.684705,-0.664140,-0.300162
-0.378156,-0.203485,0.692458,0.236647,0.874022,0.424363
0.037964,-0.054593,-0.934144,0.612060,0.450998,-0.649602
-0.278955,0.368720,0.681301,-0.396743,0.916596,0.049468
-0.091832,0.056403,-0.195039,0.976686,0.214258,0.013302
-0.108900,0.014607,0.480955,0.757658,0.343976,-0.554648
-0.241111,0.191772,0.693757,-0.402047,-0.898360,0.176941
-0.171625,-0.152288,0.749034,0.816303,-0.404835,-0.412018
0.443135,-0.284112,0.008701,-0.066201,0.907031,-0.415827
0.644109,-0.351869,0.461602,0.936257,0.351310,0.002118
0.307139,-0.102825,0.420190,0.052452,0.930570,0.362337
-0.812471,0.286067,0.531971,-0.610956,0.627597,-0.482550
-0.506261,0.533443,0.510055,0.970166,-0.121394,-0.209859
0.256896,-0.057776,0.485071,-0.677406,-0.473725,0.562766
-0.031121,0.018367,-0.265588,0.952517,-0.142551,-0.269053
-0.151252,0.582619,0.728202,-0.770232,0.634224,0.067101
-0.503924,0.525273,0.493086,0.958947,0.195470,-0.205459
-0.446272,0.287153,0.038235,-0.626496,0.406100,-0.665271
-0.118886,0.050692,-0.133805,0.839414,0.242177,-0.486554
-0.076612,-0.326124,0.556739,0.430314,0.841723,0.326085
0.022587,0.133777,0.283424,-0.714049,-0.641194,0.281077
-0.256731,0.005643,0.029787,0.938123,-0.135814,0.318559
-0.195861,-0.353603,0.470231,0.087589,-0.973002,0.213531
-0.134425,-0.052135,-0.163808,-0.231250,0.788695,0.569635
-0.166713,-0.408199,0.432899,0.251532,0.777667,0.576165
0.034583,-0.059801,0.225476,0.902323,0.424812,-0.073125
0.024600,-0.024078,-0.754630,0.843979,0.321134,0.429619
-0.537662,0.291924,-0.066469,0.812636,0.580615,-0.050078
-0.208825,0.791309,0.534246,0.797792,-0.056872,0.600245
0.574784,-0.349194,0.386287,0.169902,0.985444,-0.005867
-0.239664,-0.089955,0.548832,-0.641953,0.765379,-0.045732
-0.150690,0.062551,0.347474,0.992228,-0.115382,0.046579
-0.419943,-0.546242,0.156479,-0.425900,-0.756883,-0.495720
-0.551673,-0.397426,0.180525,-0.127921,0.988868,0.076003
-0.453278,0.658037,0.502148,0.764312,-0.642906,0.049990
-0.405210,-0.507195,0.494277,0.784520,0.411699,0.463717
-0.543137,0.350858,0.068852,0.408085,-0.247908,0.878640
0.203029,-0.012003,-0.955555,-0.241957,-0.004607,0.970276
0.478966,-0.273409,0.293461,0.091547,0.653452,0.751411
-0.322517,0.041075,0.046684,-0.648528,-0.250541,-0.718777
0.265914,-0.037456,-0.953641,0.049895,0.267740,0.962199
-0.223559,0.349265,0.575839,0.696255,0.540990,-0.471762
-0.297315,-0.346445,0.166372,0.995102,0.005000,0.098728
0.121545,-0.212594,-0.940643,-0.061205,-0.045612,0.997083
-0.102862,0.152941,0.440048,0.895867,-0.390860,0.211309
0.129113,0.087788,-0.969888,-0.124593,0.112559,0.985803
-0.315189,-0.158361,0.541322,0.928470,-0.355271,0.108291
-0.125970,-0.022198,-0.467487,-0.676118,0.648623,-0.349504
0.621805,-0.887048,0.139907,0.909863,0.325411,0.257404
-0.310277,-0.333791,0.529624,0.972990,0.143797,0.180592
-0.237570,-0.044831,0.733978,0.473909,0.879798,0.036961
-0.277507,0.206451,0.664187,0.452575,0.799470,-0.394997
-0.369538,-0.417309,0.187529,-0.681989,-0.691930,0.236905
0.508195,-0.482537,-0.169080,0.620074,0.627784,-0.470527
-0.798622,0.147879,0.660902,0.352457,-0.709000,0.610814
-0.350133,0.424542,0.464527,-0.453910,-0.713910,0.533197
0.127341,0.125749,-0.971874,-0.164456,0.293329,0.941760
-0.750876,0.041220,0.700112,0.933063,0.121263,0.338656
-0.273883,0.139996,0.518287,0.674789,0.542231,0.500645
0.366319,-0.070791,0.412824,0.069345,0.989092,-0.129957
-0.061234,0.613566,0.398671,0.793692,0.197266,0.575447
-0.504568,0.016200,0.383507,0.848835,0.435095,0.300287
-0.245138,0.039843,0.928873,0.903099,0.408097,-0.133674
-0.252385,-0.056690,0.484132,-0.490877,0.827697,-0.271951
-0.453278,0.176805,0.745893,0.527925,0.718150,-0.453382
0.571562,-0.285123,-0.240856,-0.587868,-0.663039,-0.463456
0.423327,-0.707858,0.054916,0.247058,-0.269118,-0.930880
-0.719713,0.155686,0.533704,-0.050131,-0.516751,0.854667
-0.201176,-0.106660,0.468896,-0.586536,0.183944,-0.788759
0.039495,-0.042809,-0.707983,-0.775003,-0.631957,-0.000050
-0.077336,0.034781,0.052461,-0.511662,-0.730355,0.452530
0.501108,-0.276159,0.308120,0.011385,-0.991130,0.132407
-0.149080,0.138694,0.457559,0.711836,-0.609387,0.349195
-0.355367,0.016271,0.591689,-0.322827,0.799085,-0.507194
-0.907967,0.029648,0.661335,0.369681,0.811074,-0.453316
-0.320101,0.860947,0.524064,0.475768,-0.610289,-0.633398
0.543542,-0.254828,-0.269452,-0.504511,-0.672484,-0.541510
-0.356173,0.623038,0.605914,-0.304266,-0.943346,0.132365
-0.259150,0.169425,0.741705,-0.218750,-0.954649,-0.201976
-0.733565,0.097913,0.684154,0.503402,0.692227,-0.517115
0.641694,-0.511317,-0.133444,0.183519,0.973436,-0.136906
-0.122911,0.050259,-0.395530,0.042450,-0.850055,0.524981
-0.705946,0.121269,0.624183,0.677676,0.554948,-0.482480
-0.350858,0.208115,0.790266,0.710040,-0.623040,-0.328123
0.544668,-0.277315,0.232588,0.516551,0.834109,0.193488
-0.221465,0.183165,0.481243,-0.095282,0.688505,0.718945
0.107212,-0.020393,-0.549626,-0.017836,-0.946597,0.321926
-0.046095,0.082655,-0.982092,-0.010655,-0.041198,0.999094
0.055116,-0.182009,-0.946637,-0.137546,-0.085669,0.986784
-0.055194,0.020247,-0.097953,0.922778,0.294331,-0.248697
-0.688634,0.064356,0.644474,-0.702068,-0.526015,0.480010
-0.711582,0.000219,0.709030,0.943463,-0.156746,-0.292075
-0.377993,0.260036,0.857169,-0.575655,0.812208,-0.094546
-0.146262,-0.292573,0.323898,0.793685,0.607299,-0.035379
-0.218969,-0.368353,0.473120,0.715915,-0.499964,-0.487342
0.184187,-0.009836,-0.561938,-0.163883,0.901565,0.400403
-0.853696,0.451227,0.026826,-0.586993,0.246370,-0.771194
-0.197311,-0.120038,0.776546,-0.668793,-0.736375,0.102310
-0.668342,-0.120541,0.764668,0.943973,0.188532,-0.270871
-0.390636,0.257503,0.043904,-0.100083,-0.254269,0.961941
0.536618,-0.241737,-0.258548,0.699841,0.686216,0.198319
-0.390152,0.407118,0.415713,-0.445563,0.282810,-0.849407
0.016547,-0.020971,-0.756183,0.843979,0.321134,0.429619
0.013407,0.075350,0.252807,-0.548151,-0.356329,0.756677
-0.548855,0.093283,0.262122,0.069204,0.231909,0.970273
-0.212528,0.698894,0.529588,0.932857,0.355227,-0.059936
-0.300937,-0.196255,0.176951,0.949230,0.301906,0.088400
-0.480976,0.167982,0.696754,0.225534,-0.881132,0.415621
-0.287491,-0.045409,0.073726,0.522316,-0.796894,0.303556
-0.295222,-0.172895,0.570206,-0.162220,0.267701,0.949748
-0.044245,0.033047,0.076759,0.332122,0.940948,-0.065667
0.046260,-0.174920,-0.950211,-0.080094,-0.097696,0.991988
-0.239020,0.830864,0.576886,-0.674481,-0.463244,-0.574874
-0.408832,0.544583,0.607683,-0.823500,0.465108,-0.324842
0.441444,-0.112588,0.438170,0.492150,0.493243,-0.717286
-0.401182,0.091332,0.682601,-0.450582,0.890985,0.055879
-0.437738,0.388025,0.412500,-0.244732,0.253125,-0.935967
-0.239742,-0.118882,0.766942,0.815714,0.028750,-0.577741
-0.283707,0.194808,0.756652,0.460683,0.733540,0.499690
-0.100125,0.036013,0.085027,0.672541,0.717987,-0.179397
-0.420024,-0.600405,0.532296,0.878679,0.389677,0.275818
-0.172832,0.005568,0.706250,0.432937,-0.863304,0.259367
-0.844197,0.049174,0.660180,-0.271795,-0.956814,0.103125
0.065906,0.181360,0.375348,0.781978,0.546098,-0.300479
0.082010,-0.047510,-0.872874,0.924680,-0.365075,0.108106
-0.275895,0.072530,0.950500,-0.135617,-0.830409,0.540398
-0.049557,-0.015834,-0.502257,0.272174,-0.085466,-0.958445
-0.354642,-0.208547,0.612124,-0.668118,0.682396,-0.296571
-0.289020,-0.407259,-0.088710,0.967944,-0.157671,0.195511
-0.081524,-0.079689,-0.966278,0.358576,-0.163086,-0.919144
0.088610,-0.076361,0.394483,0.870438,-0.116880,-0.478201
-0.303271,-0.539374,0.474925,-0.216283,0.915142,-0.340200
0.452556,-0.190324,-0.270210,-0.243078,0.347345,0.905685
-0.591367,0.498734,0.415135,0.001038,-0.587815,0.808995
-0.776640,-0.061465,0.694660,0.678238,0.695302,0.237799
-0.831957,0.090101,0.703722,0.032436,0.649781,0.759429
-0.266556,-0.341457,0.180381,0.903125,-0.064492,-0.424506
0.229599,-0.053945,0.342456,-0.428446,0.356729,0.830168
-0.513345,0.369082,0.599379,0.352600,-0.422490,0.834971
-0.121542,0.612194,0.406434,0.764412,0.488112,0.421214
0.338462,-0.370163,-0.230422,0.749487,0.376513,-0.544525
-0.198114,0.271675,0.134780,0.534558,0.803680,-0.261430
-0.202545,-0.069057,0.508828,0.957872,0.125044,-0.258543
-0.442085,-0.581528,0.240207,0.985115,-0.165545,-0.046286
-0.673176,0.032398,0.604867,0.909188,0.411688,-0.062365
0.004470,0.256854,0.125320,-0.838795,0.541007,0.061104
0.850478,-0.618337,-0.008990,0.182669,0.680647,0.709473
-0.113974,0.162487,0.431094,0.847759,0.167917,-0.503099
-0.247313,-0.519055,0.538037,-0.532461,-0.840747,-0.098132
-0.139256,0.250922,0.752717,0.089024,-0.794828,0.600269
-0.363742,-0.051848,0.884933,0.297354,-0.910904,0.286068
0.453441,-0.608358,0.053760,-0.493017,0.621365,0.608966
0.203511,-0.097546,-0.946709,-0.134443,-0.119947,-0.983635
-0.532590,0.054598,0.745460,0.816589,0.576292,0.032706
0.394664,-0.302697,0.032603,0.480536,0.790260,-0.380228
0.247313,-0.367850,-0.065061,0.995190,-0.066446,-0.071991
-0.215185,0.551596,0.645088,-0.547666,-0.734973,0.399845
-0.250935,0.245860,0.653175,0.817869,0.395254,0.418168
0.007448,-0.227852,0.507059,-0.216367,0.796351,0.564810
-0.432826,-0.302768,0.667509,0.943425,-0.310667,0.115911
-0.401907,-0.324244,0.586706,0.799341,0.197005,-0.567665
-0.472039,0.248896,0.560349,0.522789,0.284307,0.803655
-0.071702,0.041578,0.043073,0.897107,0.296298,-0.327729
-0.297637,-0.248825,-0.024876,0.927212,-0.214197,0.307242
-0.005435,0.267989,0.280139,0.724707,0.307869,-0.616455
-0.305527,-0.407475,0.441420,0.940577,-0.128429,-0.314359
-0.419621,0.250489,0.596093,0.405083,-0.545015,-0.734075
-0.745480,-0.064427,0.721955,-0.671833,-0.645125,0.363943
-0.012038,0.139925,0.675777,-0.592703,0.791375,0.149760
-0.262287,-0.343408,0.519515,0.370052,-0.219293,0.902758
0.433232,-0.227927,0.487020,0.449933,0.785497,0.424918
-0.101494,0.002964,-0.039029,-0.418166,0.898578,-0.133024
-0.656909,-0.117363,0.605264,0.002163,-0.998598,0.052890
-0.439429,0.067538,0.700545,-0.436453,0.313061,-0.843505
0.322841,-0.124884,-0.941943,-0.151704,0.083945,0.984855
-0.156486,-0.322077,0.586670,-0.126926,-0.991910,0.002300
-0.144893,-0.013088,0.632957,-0.415347,0.876444,-0.243583
-0.264140,-0.361702,0.590894,0.808423,0.587210,0.040461
0.084023,-0.098200,0.386684,0.921842,0.252996,-0.293600
-0.305365,-0.427071,-0.142615,0.581187,-0.709769,-0.398057
0.181690,0.011138,-0.969275,-0.005859,0.220853,0.975289
-0.277667,0.164292,0.763476,0.275107,0.878476,0.390635
0.751441,-0.433581,-0.018197,0.998664,0.013579,-0.049856
0.207457,-0.008313,-0.953208,-0.203117,0.048084,0.977973
0.421474,-0.222574,0.318157,0.866391,-0.300106,-0.399129
-0.220259,-0.018438,0.865364,0.237150,-0.965034,0.111667
-0.807803,0.002386,0.766003,-0.503998,-0.863598,0.013562
-0.353355,-0.608429,0.501101,-0.379694,-0.626407,-0.680769
0.966828,-0.468581,-0.070694,0.968263,-0.247143,-0.037233
0.231774,0.060380,0.423728,0.274711,0.813991,0.511813
-0.130801,0.151568,0.411741,0.919600,0.331235,0.211235
0.104715,-0.012510,-0.952125,0.129470,0.672454,0.728728
0.122429,-0.019523,-0.946059,0.189961,0.543193,0.817836
-0.177260,-0.102392,0.729718,0.749227,0.194376,-0.633148
-0.056160,0.067468,0.176626,0.927625,-0.336236,0.162655
-0.025403,0.014969,-0.254251,0.951382,-0.254097,0.174089
-0.544505,0.028562,0.409250,0.897360,0.328448,0.294732
-0.656265,0.241375,0.483157,0.977086,0.209652,-0.036743
0.323323,-0.126402,-0.940968,-0.152856,0.102282,0.982941
-0.536374,0.536841,0.422284,-0.297942,0.935915,0.187867
0.046098,-0.181214,-0.947323,-0.120816,-0.080279,0.989424
0.560532,-0.552028,0.059393,0.240843,0.854138,-0.460915
-0.632432,0.096174,0.509261,0.222859,-0.416125,0.881575
-0.342405,-0.044253,0.224429,0.866103,0.486399,-0.115246
-0.206732,-0.085184,0.615012,0.775121,-0.612168,0.156328
-0.280404,0.410949,0.827165,0.472563,0.823552,-0.313761
0.052538,-0.054739,-0.888544,0.990426,-0.042312,-0.131398
-0.364063,-0.285705,0.541178,0.528870,0.560284,0.637478
0.118161,0.077809,-0.965845,-0.204156,0.236012,0.950062
0.096181,0.206018,0.547279,0.635180,-0.144602,0.758707
0.390717,-0.249691,0.062642,0.378785,-0.886513,0.265738
0.233142,-0.071370,0.169116,0.483470,0.850699,0.206320
-0.063649,0.594186,0.411597,0.890936,0.266074,0.368019
-0.192399,0.187433,0.637037,-0.322662,0.931396,-0.168493
-0.557629,-0.001446,0.421201,-0.572682,-0.517324,-0.635934
-0.099882,0.030443,0.122432,0.869507,0.233510,0.435236
-0.401264,0.450649,0.470051,-0.610027,-0.600064,0.517485
-0.079752,-0.301973,0.175434,0.417659,0.881248,-0.221276
0.575187,-0.263068,0.071488,-0.233980,-0.574195,-0.784572
-0.302146,-0.284544,0.141279,-0.449539,0.791368,0.414309
0.090382,0.032252,0.363072,-0.420718,0.659461,0.622983
0.609809,-0.342252,0.365419,0.819134,0.545540,0.177215
-0.552720,-0.046932,0.437268,0.823738,0.347349,0.448112
0.035549,-0.046932,-0.887425,0.590647,0.786584,0.180060
-0.200933,-0.149106,0.824458,0.893217,0.444757,0.065985
0.120095,-0.101814,0.439326,0.496043,0.263229,-0.827437
-0.099963,0.126111,0.239521,-0.780316,0.625283,0.011343
-0.138531,-0.001084,-0.006246,-0.464872,0.885133,-0.020819
-0.694512,0.135512,0.506264,-0.371498,-0.652764,0.660219
0.308186,-0.010776,0.347691,0.738932,0.608359,-0.289617
-0.309311,0.138261,0.013503,0.737102,0.659106,-0.149198
-0.351261,-0.501118,-0.131061,0.742673,-0.602340,-0.292616
0.171303,0.003833,-0.547279,-0.065642,0.896208,0.438751
-0.370506,-0.004482,0.570928,-0.132280,0.693188,-0.708514
-0.079027,0.130886,0.620428,0.713603,-0.695309,-0.085534
-0.263093,-0.300023,0.245550,0.761560,0.595515,-0.255712
-0.296509,-0.273771,0.349749,0.993683,-0.013060,-0.111459
-0.513023,0.112592,0.676247,0.220422,0.444321,-0.868328
-0.845968,0.004628,0.651117,0.260219,0.361993,0.895124
-0.318732,-0.301612,0.616457,-0.330713,0.807815,-0.487918
0.077017,0.231979,0.455428,0.506484,0.213236,-0.835466
0.040783,-0.029432,-0.578980,-0.328561,-0.672075,0.663599
-0.082167,0.008966,0.697187,0.840087,0.446696,-0.307760
-0.067996,-0.379635,0.319601,0.650778,0.750506,-0.115013
-0.690969,0.297348,0.496263,0.943204,-0.329970,0.038545
-0.182012,-0.084968,-0.179622,-0.591479,0.680266,0.432886
-0.190305,-0.323017,0.513485,-0.647458,0.627398,-0.432632
0.072911,-0.037531,-0.700581,0.989094,-0.072054,0.128457
-0.073714,-0.029573,-0.307831,0.833186,-0.534654,0.141233
-0.170819,0.509075,0.559050,0.744201,0.579305,-0.332522
-0.499818,0.250997,-0.094090,0.620335,0.773947,0.127243
-0.380087,-0.521729,0.120555,0.327806,0.785890,0.524329
-0.285157,0.054452,0.435932,-0.107673,0.594823,0.796613
-0.527275,0.039195,0.697837,0.877361,0.477877,-0.043256
-0.434839,-0.602069,0.514532,-0.557733,-0.550525,-0.621173
0.587102,-0.283172,0.243709,-0.563326,-0.810678,0.159576
-0.804018,0.346445,0.002744,0.882596,0.096422,0.460137
0.520513,-0.183743,0.453154,0.833563,-0.330468,-0.442678
-0.041264,0.050476,-0.369932,0.971829,0.219731,0.085249
-0.184106,0.097189,0.428350,-0.384880,0.912649,0.137618
-0.177422,0.770336,0.492183,-0.036061,-0.201797,0.978763
0.138934,0.068117,0.456873,0.691115,0.556538,-0.461114
0.212772,-0.274711,-0.092248,-0.175620,0.635451,0.751904
0.331778,-0.083736,0.433007,0.433806,-0.766078,0.474275
-0.034743,0.000580,-0.972777,-0.269864,0.168284,0.948079
-0.146906,-0.356207,0.314547,0.712524,0.682676,-0.162060
0.385243,-0.513776,-0.017980,-0.409735,0.287968,0.865558
0.090785,-0.077301,-0.935372,0.233555,-0.118783,0.965061
-0.079592,0.128499,0.142795,-0.898736,0.213081,0.383237
-0.367526,0.100441,0.638733,0.827853,-0.553710,-0.089803
-0.010104,0.038471,-0.976279,-0.188269,0.180511,0.965386
-0.324770,0.780028,0.594577,-0.508351,0.382540,-0.771519
-0.411087,-0.577843,0.230530,0.999426,-0.029463,-0.016703
-0.825436,0.099572,0.631332,-0.336289,-0.147680,-0.930108
-0.124198,0.182083,0.526266,-0.435467,0.885088,-0.164278
-0.587664,-0.011208,0.483735,0.811127,0.493907,0.313257
-0.700631,0.406972,0.546557,0.839699,0.504493,0.200979
-0.241032,-0.057630,0.758205,0.860587,-0.509301,-0.001744
-0.223075,-0.149975,0.443189,-0.430711,-0.830321,-0.353632
-0.226699,-0.269724,0.145070,-0.531547,-0.831342,-0.162259
-0.290228,-0.094726,0.471170,0.836388,0.059756,0.544871
0.184993,-0.127991,-0.946023,-0.171462,-0.016576,-0.985051
-0.760297,0.250776,0.567932,0.996344,-0.066637,-0.053460
-0.438786,0.434160,0.068888,0.182752,-0.448547,0.874875
-0.341437,0.218381,0.787089,-0.635224,0.606644,0.477989
-0.579371,-0.392509,0.147561,0.652005,-0.706245,0.275875
0.012844,-0.018438,-0.359931,0.935503,0.345446,-0.074167
-0.632916,0.454912,0.650973,-0.734912,-0.664265,0.136586
0.040623,-0.044398,-0.946673,0.943173,0.102196,-0.316198
0.121704,-0.084460,-0.936022,0.235891,0.143147,0.961179
-0.043842,0.051848,-0.292811,0.878002,-0.158857,0.451528
-0.377672,-0.617181,0.503773,-0.465669,-0.325935,-0.822751
-0.019444,0.023359,-0.340145,0.998442,0.037214,0.041568
